ply                 
format ascii 1.0    
element vertex 1166
property float x    
property float y    
property float z    
property uchar red  
property uchar green
property uchar blue 
end_header          
-0.274614 0.238315 1.89232 92 89 84 
-0.261634 0.310885 1.87228 93 86 78 
-0.242603 0.263857 1.84743 6 3 0 
-0.238274 0.345461 1.84319 76 73 66 
-0.232386 0.287027 1.83819 16 12 9 
-0.228072 0.504245 1.83058 93 91 79 
-0.227994 0.457899 1.8329 28 26 13 
-0.226332 0.425771 1.8308 27 18 9 
-0.211188 0.335816 1.82154 78 74 63 
-0.206397 0.537008 1.81182 38 34 25 
-0.20336 0.380793 1.81233 68 65 56 
-0.20336 0.380793 1.81233 68 65 56 
-0.202547 0.450065 1.80992 82 79 74 
-0.196988 0.0860386 1.81477 51 50 48 
-0.195366 0.497087 1.80302 71 68 63 
-0.195042 0.500457 1.8032 33 28 24 
-0.195042 0.500457 1.8032 33 28 24 
-0.192152 0.0992466 1.80994 51 51 51 
-0.192152 0.0992466 1.80994 51 51 51 
-0.188549 0.0456179 1.79364 52 51 49 
-0.192904 -0.260056 1.88375 25 22 17 
-0.185384 0.0456607 1.79162 61 60 58 
-0.184236 -0.254856 1.87775 81 80 76 
-0.177258 -0.262644 1.87793 84 83 81 
-0.176291 -0.394442 1.92013 39 35 32 
-0.169882 -0.17855 1.84304 20 20 18 
-0.156856 0.0423576 1.77875 59 57 58 
-0.154733 0.201365 1.7894 31 27 24 
-0.147234 0.00833821 1.77778 62 61 57 
-0.144444 0.00975642 1.77667 11 7 6 
-0.14274 0.0241404 1.77663 20 16 15 
-0.138898 0.0816606 1.78384 59 57 58 
-0.143549 -0.632595 1.98601 42 43 38 
-0.134542 0.00814243 1.77302 69 67 68 
-0.134615 0.0232914 1.77456 4 4 4 
-0.133442 -0.206294 1.83498 28 27 25 
-0.129914 0.207639 1.78005 4 0 0 
-0.129125 0.205447 1.77909 74 69 66 
-0.130612 -0.190247 1.8291 7 3 0 
-0.13663 -0.668331 1.99397 79 78 76 
-0.12782 0.170598 1.78015 14 10 9 
-0.127006 0.165977 1.77839 61 60 56 
-0.12953 -0.321072 1.87125 84 83 81 
-0.125271 0.186682 1.77753 23 19 16 
-0.125271 0.186682 1.77753 23 19 16 
-0.125 -0.0756969 1.77816 76 76 76 
-0.124592 0.361198 1.77412 61 62 56 
-0.120896 0.00915107 1.77032 0 0 0 
-0.120542 -0.0391758 1.76148 69 69 71 
-0.118917 0.00884276 1.76915 66 66 66 
-0.111741 0.275556 1.7719 21 18 13 
-0.108648 0.0230545 1.76601 1 1 1 
-0.108954 -0.218001 1.82629 102 101 99 
-0.107153 0.229476 1.77127 23 22 20 
-0.106265 0.137529 1.77479 73 71 72 
-0.10388 0.0227078 1.76477 1 1 1 
-0.108338 -0.950152 2.03212 17 17 17 
-0.103627 -0.267077 1.84087 58 57 55 
-0.108327 -1.06378 2.07972 49 55 77 
-0.108327 -1.06378 2.07972 49 55 77 
-0.101527 0.184558 1.77241 61 57 56 
-0.101527 0.184558 1.77241 61 57 56 
-0.100189 0.514325 1.76199 9 8 6 
-0.0997806 0.333523 1.76662 60 56 53 
-0.101733 -1.06726 2.07978 212 212 240 
-0.0947789 -0.171415 1.8037 66 65 63 
-0.0938784 -0.298414 1.84722 86 85 83 
-0.0857338 0.333313 1.76405 75 74 72 
-0.0880151 -1.02001 2.07318 72 70 91 
-0.0840624 -0.174031 1.79991 18 14 11 
-0.0865135 -0.837988 2.02216 65 64 60 
-0.0838212 -0.529837 1.919 25 21 18 
-0.0845763 -1.09375 2.07023 27 30 61 
-0.0825453 -0.441169 1.88877 69 68 64 
-0.0823623 -0.475535 1.90049 10 6 5 
-0.0827752 -0.946959 2.06995 42 40 41 
-0.0827752 -0.946959 2.06995 42 40 41 
-0.0816149 -0.625303 1.95128 97 93 90 
-0.0829223 -0.970593 2.08813 76 74 75 
-0.0815627 -0.952841 2.02075 82 80 81 
-0.0771132 -0.407698 1.87394 84 80 77 
-0.0705079 -0.192408 1.79999 17 13 10 
-0.0692477 -1.06497 2.0649 24 23 57 
-0.0622403 0.196631 1.76562 60 59 57 
-0.0613701 0.580121 1.75098 71 70 68 
-0.0608138 0.254087 1.76435 62 61 59 
-0.0567105 0.18272 1.76843 53 52 50 
-0.0521486 0.0859692 1.77023 54 50 49 
-0.0491464 0.170734 1.76853 9 8 6 
-0.0466825 0.0911489 1.76964 21 19 20 
-0.0358079 0.124907 1.76957 66 64 65 
-0.0314918 -0.183625 1.80978 72 71 69 
-0.0265904 0.129629 1.76971 2 2 2 
-0.0221777 0.0350719 1.76169 6 4 5 
-0.0213952 0.124556 1.76965 56 54 55 
-0.0127529 0.138798 1.77144 49 49 49 
-0.00899512 0.0343293 1.76399 1 0 0 
0.0063793 -0.332457 1.8565 31 19 19 
0.0272248 0.110413 1.78165 58 58 58 
0.039736 0.664035 1.75535 107 109 121 
0.0412811 0.678615 1.75518 97 97 109 
0.0439071 0.681206 1.75623 6 6 18 
0.0499127 0.676189 1.75787 15 18 35 
0.0587625 0.773053 1.76153 65 69 72 
0.059461 0.686532 1.76147 150 153 160 
0.0606174 0.6961 1.76106 1 1 3 
0.0703117 0.68738 1.76529 90 91 95 
0.0725769 0.672904 1.76607 8 10 22 
0.0765945 0.65545 1.76926 46 45 51 
0.0845988 0.655282 1.77146 54 55 59 
0.0866122 0.660487 1.77205 129 130 135 
0.0866201 0.707175 1.77116 127 127 129 
0.151483 0.935842 1.62367 122 121 116 
-0.398622 0.989431 2.42498 87 85 73 
-0.292333 0.932007 1.67449 89 87 75 
-0.273866 0.699412 1.86383 85 82 77 
-0.277053 0.316529 1.89466 83 76 68 
-0.275156 0.56661 1.89607 35 32 23 
-0.268623 0.145364 1.88352 3 0 0 
-0.264607 0.716313 1.85244 93 89 86 
-0.265368 0.196479 1.87518 70 67 58 
-0.265351 0.345983 1.8766 86 85 80 
-0.265083 0.617249 1.87657 39 35 24 
-0.260437 -0.0628328 1.84709 85 84 82 
-0.263589 0.319105 1.87381 18 14 5 
-0.259156 0.0446508 1.84724 5 4 2 
-0.261431 0.601231 1.8704 23 20 15 
-0.26074 0.302511 1.87254 79 75 66 
-0.260227 0.333437 1.86973 81 78 71 
-0.257056 0.180175 1.86741 27 23 20 
-0.255869 0.202142 1.86032 80 76 67 
-0.249126 0.406931 1.85509 24 20 11 
-0.247304 0.212554 1.84982 14 11 6 
-0.247126 0.298968 1.85103 97 92 88 
-0.24495 0.676061 1.82898 20 19 17 
-0.245757 0.260454 1.84673 79 76 69 
-0.246085 0.420681 1.84931 76 73 64 
-0.244795 0.449432 1.8481 105 101 90 
-0.243631 0.225431 1.84745 19 18 16 
-0.242608 0.273792 1.84773 1 0 0 
-0.241957 0.48951 1.84443 19 18 13 
-0.241007 0.393008 1.84502 5 2 0 
-0.237316 -0.0108488 1.82984 9 8 6 
-0.238164 0.345336 1.84201 76 73 66 
-0.236037 0.561651 1.8379 69 67 68 
-0.233788 0.200841 1.8388 66 62 61 
-0.231697 0.397689 1.83529 87 83 71 
-0.231354 -0.103398 1.84448 65 63 64 
-0.22869 0.189005 1.83587 29 25 22 
-0.227543 0.574055 1.83029 38 33 27 
-0.226847 -0.0816607 1.831 86 84 85 
-0.226457 0.542156 1.83043 74 66 55 
-0.219878 0.530198 1.82419 80 76 65 
-0.222096 -0.131626 1.85469 18 17 15 
-0.216268 0.298298 1.82146 80 77 68 
-0.218738 -0.14487 1.8585 81 79 80 
-0.215647 0.231348 1.82408 24 20 17 
-0.214298 0.344349 1.82111 82 79 74 
-0.188952 0.945675 1.52615 64 57 49 
-0.210671 -0.0610879 1.81068 85 84 82 
-0.210753 0.664021 1.80639 35 31 28 
-0.217231 -0.265603 1.89359 31 30 28 
-0.211228 -0.103634 1.83275 27 26 24 
-0.213438 -0.206628 1.87527 71 70 68 
-0.208028 0.473834 1.81475 36 35 30 
-0.204863 -0.0490152 1.80121 77 73 72 
-0.204431 0.423151 1.80844 33 29 18 
-0.209425 -0.222229 1.87762 24 23 21 
-0.208987 -0.241948 1.88322 72 71 69 
-0.206167 -0.149636 1.85442 77 75 76 
-0.201913 0.290319 1.81333 31 28 19 
-0.200805 0.0438671 1.8018 46 45 43 
-0.199112 0.372932 1.80888 73 73 63 
-0.199363 0.153965 1.81416 74 70 69 
-0.203096 -0.350023 1.91661 90 88 89 
-0.190616 0.762597 1.77661 83 82 80 
-0.191725 0.47158 1.80197 21 20 15 
-0.193328 -0.159384 1.8503 84 83 81 
-0.18253 0.876105 1.73642 73 65 54 
-0.176185 0.03961 1.78645 8 4 3 
-0.1717 -0.334037 1.89685 83 81 82 
-0.169836 -0.262338 1.87018 93 92 90 
-0.172195 -0.437051 1.93146 23 19 16 
-0.173389 -0.505454 1.95569 107 106 104 
-0.160156 0.22867 1.79082 16 11 8 
-0.154238 0.714719 1.75512 21 20 18 
-0.158103 -0.232033 1.85612 83 82 80 
-0.152788 0.4631 1.77979 74 73 69 
-0.152429 -0.463346 1.93645 19 15 16 
-0.140912 0.871957 1.72547 72 67 64 
-0.13834 0.189549 1.78041 63 59 56 
-0.133926 -0.105339 1.79681 83 83 81 
-0.13483 -0.159419 1.82 20 20 20 
-0.132997 -0.381501 1.89424 19 18 16 
-0.122591 0.945383 1.62592 34 32 20 
-0.130187 -0.629714 1.9769 90 86 85 
-0.120865 0.577315 1.76487 19 18 16 
-0.120083 -0.00204806 1.76733 68 68 68 
-0.123465 -0.746616 2.01192 22 22 20 
-0.117423 -0.245151 1.83893 94 93 91 
-0.11538 0.323942 1.77054 80 77 72 
-0.1152 -0.175281 1.81613 64 62 63 
-0.110647 0.114186 1.77577 24 23 21 
-0.107929 -0.00566213 1.76613 11 9 10 
-0.106925 0.43757 1.76457 22 18 15 
-0.106784 0.156665 1.77465 59 54 51 
-0.108392 -0.364889 1.87284 13 11 12 
-0.105552 0.250997 1.77034 91 86 83 
-0.103732 0.365139 1.76573 12 7 3 
-0.101687 -0.0162207 1.76463 2 2 4 
-0.100868 0.277243 1.76684 74 71 66 
-0.0956835 -0.309338 1.85061 23 22 18 
-0.0953801 -0.961343 2.0512 27 29 28 
-0.0900083 -0.223039 1.81947 68 66 67 
-0.0858445 -0.192412 1.80519 26 22 19 
-0.0846201 0.874377 1.68867 74 70 61 
-0.0869758 -0.540728 1.92184 15 11 8 
-0.0865323 -0.453438 1.89389 67 63 60 
-0.082935 0.15106 1.76926 63 59 58 
-0.0845608 -0.970266 2.0439 29 27 28 
-0.0807392 0.0951713 1.77206 81 79 80 
-0.0790349 -0.688229 1.97101 76 72 71 
-0.0710929 0.108398 1.77043 7 5 6 
-0.070016 -0.853399 2.02365 95 92 87 
-0.0689526 0.232669 1.76622 76 75 71 
-0.0687606 -0.942549 2.00447 88 86 87 
-0.0678884 -0.473004 1.89217 74 73 71 
-0.0671851 -0.651746 1.95944 80 79 77 
-0.0634143 -0.534488 1.91621 87 83 80 
-0.0622273 0.0201127 1.75878 12 10 11 
-0.0620178 -0.604165 1.94265 28 25 20 
-0.0621573 0.0923383 1.76769 14 12 13 
-0.0557331 -0.0387947 1.74952 66 62 63 
-0.0545364 0.325613 1.76068 63 58 55 
-0.052971 -0.251501 1.82175 31 30 28 
-0.0519663 -0.776541 2.00545 37 34 29 
-0.0529903 0.84586 1.71044 56 54 55 
-0.0509676 -0.625209 1.95285 29 28 26 
-0.0491657 0.0244277 1.75829 7 7 7 
-0.0499429 0.876115 1.67694 74 69 66 
-0.0479713 0.339563 1.75818 65 61 60 
-0.0455522 -0.725497 1.99085 35 32 27 
-0.0469606 -0.13998 1.78812 18 17 13 
-0.0457329 -0.155506 1.79385 69 68 64 
-0.0376668 -0.250056 1.82872 73 72 67 
-0.0361764 -0.544732 1.93034 25 21 20 
-0.0346696 -0.00569817 1.75983 24 20 21 
-0.0326461 -0.109023 1.77736 85 82 75 
-0.0225436 -0.266149 1.83833 68 67 63 
-0.0243326 0.275153 1.76043 62 61 59 
-0.019625 -0.311346 1.84262 60 56 55 
-0.0229158 0.876556 1.67465 70 64 64 
-0.0166273 -0.18987 1.8141 24 23 21 
-0.0171785 0.264007 1.7645 85 81 80 
-0.0115287 -0.0607067 1.76018 79 75 72 
-0.0104339 0.116788 1.77085 58 58 58 
-0.0097018 0.0491205 1.76295 49 48 46 
-0.00921565 -0.0435952 1.75356 69 68 64 
-5.74652e-05 -0.557806 1.94805 37 31 31 
-0.00181926 -0.187736 1.82303 29 28 26 
-0.000391418 -0.158266 1.81291 10 8 9 
-0.0014972 -0.0197033 1.7661 1 0 0 
0.0059749 -0.135625 1.80527 82 81 79 
0.00937354 -0.344546 1.85362 70 66 65 
0.0142218 -0.480576 1.92694 82 78 77 
0.00740771 0.400988 1.76263 0 0 0 
0.0119535 -0.118912 1.79641 89 88 84 
0.0129811 -0.100018 1.79176 82 78 75 
0.0224876 -0.313313 1.86311 62 50 50 
0.0167447 0.669222 1.74454 14 14 14 
0.0191245 -0.0465824 1.75461 56 52 49 
0.0237945 0.233214 1.77309 67 63 60 
0.0266917 -0.149093 1.82121 77 76 74 
0.0225606 0.73283 1.74352 133 110 58 
0.0281935 0.261698 1.77323 61 60 58 
0.0271606 0.700988 1.7497 12 12 12 
0.0279942 0.678238 1.75059 83 81 95 
0.0282129 0.664615 1.74887 79 79 89 
0.0319674 0.720102 1.75139 114 115 119 
0.0317398 0.63831 1.74056 48 46 47 
0.0353757 0.3789 1.77089 14 14 14 
0.0344264 0.688774 1.75143 0 0 4 
0.0394894 0.0354015 1.77462 5 3 4 
0.0380329 0.744306 1.75253 6 2 1 
0.0393366 0.700229 1.75458 68 69 74 
0.0425008 -0.0617329 1.77869 30 31 26 
0.0472914 -0.241096 1.85533 67 66 64 
0.0425553 -0.032954 1.77078 18 17 15 
0.0323598 0.934356 1.58297 73 69 66 
0.0460086 0.117004 1.78754 71 71 71 
0.0487588 0.752235 1.75636 53 53 55 
0.0523587 0.66329 1.75859 105 105 117 
0.0524584 0.713928 1.75917 110 111 113 
0.0562734 -0.072406 1.79009 102 101 97 
0.0566214 0.433156 1.78099 35 34 30 
0.0557645 0.733082 1.7594 33 35 34 
0.0575655 0.807537 1.76083 70 69 74 
0.0677226 -0.173602 1.84244 84 82 83 
0.0669465 -0.00579521 1.78671 8 7 5 
0.0684327 0.423475 1.78622 81 80 76 
0.0672566 0.786435 1.7639 76 75 81 
0.0777676 -0.269774 1.87822 84 83 79 
0.0697189 0.761173 1.76458 59 62 67 
0.069155 0.600715 1.75485 16 16 16 
0.0712826 0.832586 1.76083 43 52 31 
0.0723156 0.808221 1.76568 3 5 4 
0.0725113 0.641472 1.75737 11 9 10 
0.080046 -0.103057 1.81462 32 29 24 
0.0841084 -0.119782 1.8248 64 63 61 
0.0815948 0.749398 1.76831 51 52 54 
0.0833359 0.792072 1.76814 69 69 79 
0.0853429 0.806329 1.76951 0 0 2 
0.0964276 -0.141752 1.84203 38 36 37 
0.0889541 0.915779 1.61797 71 67 66 
0.113183 -0.0424657 1.80416 109 108 104 
0.140843 -0.384571 2.07585 7 9 21 
0.120045 0.210986 1.82523 58 56 57 
0.129929 0.20437 1.83463 59 55 54 
0.132517 0.280364 1.8327 18 17 15 
0.150304 0.894227 1.71474 66 63 58 
0.166975 0.875878 1.74393 74 73 68 
0.225487 0.957138 1.60577 94 89 83 
0.301262 0.960529 1.64383 85 81 72 
-0.309718 0.244037 1.98316 24 24 16 
-0.305812 0.21293 1.95695 82 81 76 
-0.298916 0.749111 1.92195 28 25 16 
-0.297299 0.302774 1.93614 88 85 76 
-0.295314 0.408407 1.93374 86 83 74 
-0.294047 0.54796 1.93578 37 33 22 
-0.293041 0.523957 1.9329 113 110 101 
-0.292406 0.50599 1.93211 20 17 8 
-0.292516 0.197876 1.92496 78 74 71 
-0.291838 0.73333 1.90246 86 83 74 
-0.291372 0.720959 1.89851 41 38 29 
-0.288023 0.269463 1.9146 27 22 18 
-0.290567 0.0492883 1.89685 45 44 42 
-0.283452 0.163121 1.90957 6 3 0 
-0.280853 0.541993 1.90602 29 26 17 
-0.273194 -0.161366 1.9597 18 16 17 
-0.279822 0.477261 1.90398 3 0 0 
-0.278782 0.575263 1.90282 20 16 5 
-0.277589 0.491048 1.90103 29 20 11 
-0.279477 0.117534 1.89592 61 56 53 
-0.277885 0.557305 1.89671 76 73 66 
-0.277243 0.40368 1.89468 30 28 16 
-0.272907 0.585746 1.89294 24 21 12 
-0.274503 0.161718 1.89178 28 25 16 
-0.273545 0.476648 1.8908 38 36 24 
-0.274032 0.262078 1.89126 24 21 16 
-0.27203 0.370928 1.89049 20 17 12 
-0.269672 0.439655 1.88411 88 85 76 
-0.270126 0.150422 1.88557 86 85 81 
-0.266596 -0.109539 1.89611 84 83 81 
-0.267735 0.238419 1.88251 84 81 76 
-0.266275 0.341355 1.87905 74 70 59 
-0.26604 0.26028 1.8785 14 10 0 
-0.265699 0.140287 1.88202 83 79 76 
-0.265008 0.159565 1.87839 33 30 23 
-0.26517 0.196378 1.87633 66 62 51 
-0.263933 0.424342 1.87603 102 99 90 
-0.263414 0.322497 1.87444 76 71 67 
-0.296356 0.932833 1.67491 74 71 62 
-0.261518 0.600486 1.87002 21 18 13 
-0.264811 0.773229 1.84818 73 70 65 
-0.26302 0.677197 1.85452 31 28 23 
-0.261265 0.301821 1.86963 75 70 64 
-0.263129 0.688582 1.8483 78 75 70 
-0.260029 0.178611 1.87059 87 83 80 
-0.258767 0.334349 1.86599 31 27 18 
-0.261879 -0.0195554 1.84788 45 46 41 
-0.257409 0.233585 1.86719 12 8 5 
-0.2589 0.662671 1.85105 32 28 25 
-0.255875 0.49747 1.8661 34 32 20 
-0.260097 -0.0596917 1.85106 88 88 86 
-0.254008 0.595913 1.8578 82 79 72 
-0.253891 0.320147 1.86337 24 24 16 
-0.256173 -0.0708425 1.8532 16 18 17 
-0.251625 0.165381 1.86193 3 0 0 
-0.250711 0.35534 1.85649 50 46 37 
-0.249073 0.40674 1.85542 24 19 13 
-0.248494 0.51356 1.85569 108 101 93 
-0.2805 0.933423 1.67455 77 75 63 
-0.248395 0.427567 1.85404 42 34 23 
-0.248157 0.374262 1.85605 29 25 22 
-0.250444 0.661052 1.83813 34 35 30 
-0.246953 -0.136602 1.87014 20 20 18 
-0.251369 0.740382 1.82955 77 76 72 
-0.250996 0.696858 1.83078 65 65 63 
-0.246898 0.330144 1.85558 75 72 67 
-0.247298 0.269946 1.85386 27 24 15 
-0.246652 0.313335 1.85635 19 14 10 
-0.246652 0.195377 1.85474 4 3 0 
-0.246661 0.212707 1.85325 16 13 6 
-0.245793 0.618775 1.8499 71 70 65 
-0.244845 0.640167 1.8457 19 15 12 
-0.244308 0.545514 1.84861 38 37 32 
-0.244904 0.233574 1.85044 76 77 72 
-0.244568 0.171226 1.85056 7 3 0 
-0.24444 0.247079 1.84951 87 86 84 
-0.24347 0.297252 1.85003 80 76 73 
-0.242961 0.366136 1.84719 70 69 65 
-0.242915 0.348614 1.84728 86 81 77 
-0.244662 0.676597 1.83048 32 32 30 
-0.241834 0.489557 1.84509 23 22 18 
-0.240724 0.381642 1.84563 17 14 9 
-0.240518 0.41916 1.84525 3 0 0 
-0.238161 0.563664 1.84058 21 20 18 
-0.237862 0.450992 1.84361 84 84 74 
-0.237136 0.582894 1.83893 79 74 71 
-0.235989 0.184442 1.84517 3 0 0 
-0.235712 0.155486 1.84699 70 66 63 
-0.235579 0.397615 1.83937 90 86 77 
-0.234208 0.530672 1.83992 19 14 8 
-0.23239 0.352242 1.8392 72 68 56 
-0.232906 -0.0922404 1.84178 71 69 70 
-0.231777 0.335643 1.83895 76 73 58 
-0.229261 0.466029 1.83394 86 83 74 
-0.229156 0.3002 1.83554 70 66 63 
-0.216609 -0.28283 1.9042 95 94 90 
-0.229471 0.0463233 1.82488 46 45 43 
-0.226511 0.440866 1.83275 91 84 76 
-0.226174 -0.0818112 1.83432 75 73 74 
-0.225285 0.424662 1.82932 27 18 11 
-0.225733 0.544151 1.82426 89 79 69 
-0.224226 0.379617 1.83167 5 1 0 
-0.22303 0.563769 1.8258 26 23 14 
-0.202745 -0.350466 1.91834 86 85 81 
-0.207899 -0.248251 1.88692 93 89 86 
-0.218279 0.239097 1.8278 103 99 96 
-0.216143 0.177309 1.82508 62 58 57 
-0.202304 -0.286802 1.89772 74 73 69 
-0.216064 0.297431 1.82123 77 73 64 
-0.214233 0.0148947 1.81322 74 72 73 
-0.210983 0.264469 1.82322 63 59 56 
-0.21165 0.418982 1.81431 89 80 71 
-0.209371 0.533183 1.81866 10 3 0 
-0.209174 0.153942 1.82066 63 59 56 
-0.182008 -0.449424 1.94366 15 14 12 
-0.209384 0.665117 1.79641 12 8 5 
-0.205585 0.231334 1.81788 6 0 0 
-0.202744 0.520662 1.8107 5 2 0 
-0.202966 0.267962 1.8122 32 28 25 
-0.201904 0.289966 1.8134 27 23 14 
-0.1782 -0.378207 1.91531 79 78 76 
-0.171317 -0.438207 1.93543 25 21 18 
-0.162983 -0.542708 1.96673 12 11 9 
-0.19471 0.500623 1.80382 19 15 12 
-0.161202 -0.554823 1.96882 19 18 16 
-0.181485 -0.165046 1.84646 35 31 30 
-0.167248 -0.345201 1.90223 91 87 86 
-0.140505 -0.704925 2.01791 23 22 20 
-0.191174 0.788554 1.76709 57 55 56 
-0.184114 0.194925 1.80425 25 21 18 
-0.181102 0.370141 1.80245 65 61 50 
-0.134581 -0.698468 2.00488 91 89 90 
-0.141381 -0.587051 1.96895 101 97 96 
-0.131349 -0.723148 2.01085 17 17 15 
-0.147653 -0.428293 1.91925 19 15 14 
-0.182026 0.870526 1.74805 67 62 58 
-0.148792 -0.371577 1.89928 65 63 64 
-0.182286 0.876782 1.73745 69 59 50 
-0.117519 -0.753371 2.0179 26 24 25 
-0.168616 0.511281 1.7874 82 78 75 
-0.154188 -0.204025 1.84833 61 60 58 
-0.134652 -0.472565 1.92686 104 100 97 
-0.109029 -0.943844 2.03759 73 73 73 
-0.143245 -0.321419 1.883 77 76 74 
-0.12786 -1.00036 1.95436 12 3 48 
-0.162464 0.209506 1.79406 8 5 0 
-0.127936 -0.517166 1.94124 85 81 78 
-0.0948561 -0.992517 2.07789 207 220 237 
-0.130605 -0.45415 1.91985 13 9 6 
-0.144959 -0.241635 1.85546 94 90 89 
-0.160061 0.00800836 1.78499 59 58 54 
-0.0907557 -1.07256 2.07339 195 208 217 
-0.0887315 -1.05972 2.07855 199 207 218 
-0.0849306 -1.01071 2.07264 206 207 235 
-0.149946 0.100135 1.78906 61 60 58 
-0.0800368 -1.04186 2.07082 229 231 255 
-0.0795917 -1.06631 2.07155 9 7 29 
-0.101936 -0.626765 1.96292 58 56 57 
-0.0762997 -0.989409 2.06761 46 46 70 
-0.135237 -0.13835 1.81681 64 62 63 
-0.146568 0.790062 1.74377 58 56 57 
-0.136002 0.285718 1.78999 83 72 66 
-0.0637074 -1.00525 2.07692 197 205 218 
-0.0648032 -0.879015 2.03998 96 95 91 
-0.140629 0.872628 1.72653 89 84 81 
-0.0743081 -0.753379 1.99373 21 20 18 
-0.0565577 -0.910396 2.05879 28 24 25 
-0.120806 0.119764 1.7806 19 18 16 
-0.0775449 -0.610875 1.94533 84 80 77 
-0.118125 0.207493 1.77642 7 4 0 
-0.114989 0.0936359 1.78285 21 19 22 
-0.106227 -0.11823 1.79054 73 72 70 
-0.106148 0.311512 1.7686 25 21 18 
-0.0631124 -0.568574 1.92994 98 94 93 
-0.0941339 0.0855705 1.77606 79 77 78 
-0.073836 -0.222935 1.81191 21 18 13 
-0.076501 0.0765106 1.77468 13 11 12 
-0.0775334 0.211478 1.7689 68 64 61 
-0.0161195 -0.556035 1.94169 22 21 19 
-0.0432389 -0.285018 1.83601 21 19 20 
-0.00937093 -0.517964 1.93353 32 28 27 
-0.0548078 0.122084 1.76834 12 12 12 
-0.0530155 0.135047 1.76705 17 16 14 
-0.0465985 -0.121803 1.78174 64 63 61 
-0.0468817 0.105584 1.77086 14 12 13 
-0.0267642 -0.244942 1.83021 89 88 86 
-0.0455398 0.00518325 1.76084 71 70 66 
-0.0319846 0.113405 1.77077 26 24 25 
-0.0236873 -0.140737 1.79854 30 29 25 
-0.0321126 0.0403549 1.76002 73 74 69 
-0.0093344 0.0491613 1.76403 44 42 43 
0.022316 -0.256071 1.85455 62 58 59 
-0.000369546 0.412898 1.76352 56 52 51 
0.0245488 0.214409 1.77377 10 11 6 
0.0216866 -0.0464448 1.76175 70 69 67 
0.0353545 -0.0589214 1.7771 86 85 83 
0.0494742 -0.113009 1.81206 76 75 73 
0.04317 -0.0331071 1.77244 29 27 28 
0.0430461 0.724229 1.75684 89 87 90 
0.0564397 0.301678 1.78396 62 60 61 
0.0708045 0.795426 1.76573 75 74 80 
0.086611 -0.0806626 1.8064 94 93 89 
0.0776696 0.779974 1.76814 98 99 104 
0.0855774 0.768403 1.77106 50 52 49 
0.0879325 0.816829 1.76934 48 56 45 
0.00922359 0.953705 1.56828 83 80 73 
-0.25585 0.0498633 1.84674 6 5 3 
-0.237901 0.139903 1.84901 77 76 74 
-0.239328 -0.129835 1.86557 82 81 79 
-0.235522 0.0133055 1.83097 5 4 2 
-0.22596 0.100266 1.83619 54 53 51 
-0.22516 0.351053 1.83205 88 84 73 
-0.20903 -0.000442855 1.81029 11 7 4 
-0.198557 -0.173188 1.85797 73 69 66 
-0.187361 -0.425199 1.93603 6 0 0 
-0.168779 0.874778 1.74119 69 62 56 
-0.150256 0.579913 1.7761 66 62 59 
-0.138592 0.505643 1.7733 12 8 5 
-0.108034 0.48726 1.7645 15 14 12 
-0.0972916 0.152129 1.77566 71 66 63 
-0.0995955 -1.05773 2.07796 186 193 209 
-0.0889879 0.375998 1.7654 67 66 62 
-0.0811061 -0.907854 2.0718 45 43 46 
-0.0689077 -0.955765 2.03129 88 86 87 
-0.051574 0.24814 1.76575 65 61 60 
-0.290885 0.779881 1.89849 38 35 28 
-0.284109 0.19937 1.90979 73 70 65 
-0.275754 0.31485 1.89622 14 7 0 
-0.271485 0.210523 1.88934 81 78 73 
-0.270938 0.275361 1.88925 28 21 15 
-0.26782 0.668649 1.87064 119 116 107 
-0.264663 0.11812 1.88156 11 10 8 
-0.264396 0.271107 1.87923 87 78 71 
-0.256312 -0.111348 1.87463 81 80 78 
-0.254899 0.202302 1.86563 72 68 59 
-0.251021 0.249582 1.86157 15 12 7 
-0.24812 0.0281022 1.84254 1 0 0 
-0.23804 0.614733 1.84194 16 15 13 
-0.229165 -0.215179 1.88751 88 87 85 
-0.220481 0.337933 1.8305 94 90 79 
-0.201255 -0.334484 1.91381 16 14 15 
-0.203537 0.482178 1.81219 84 81 76 
-0.157307 -0.59498 1.98153 33 32 30 
-0.189881 0.764353 1.77983 81 80 78 
-0.168575 -0.263366 1.87569 88 87 85 
-0.148246 -0.470652 1.9353 68 64 63 
-0.169305 -0.125308 1.83036 89 87 88 
-0.13523 -0.931378 1.96513 46 46 74 
-0.107247 -1.06567 2.08269 51 55 82 
-0.162056 -0.102751 1.81352 67 66 62 
-0.0986111 -1.07264 2.07855 189 200 218 
-0.0975859 -0.946322 2.03619 72 72 74 
-0.149084 -0.118647 1.81627 76 76 76 
-0.122543 -0.473703 1.92311 83 79 76 
-0.142681 0.441394 1.79207 97 91 91 
-0.140489 -0.055866 1.77698 19 17 18 
-0.115028 -0.254812 1.84547 81 80 76 
-0.0581452 -1.06721 2.06415 61 58 113 
-0.101392 -0.378844 1.88 59 58 56 
-0.123583 0.0994433 1.78376 16 14 15 
-0.0785516 -0.593169 1.94151 93 88 84 
-0.0779569 -0.487822 1.90472 91 87 86 
-0.0737602 0.722237 1.736 12 6 6 
-0.0389159 0.136808 1.77096 58 59 61 
27.3966 2.48201 52.6978 94 106 120 
28.2577 2.38305 53.6196 115 124 139 
28.2174 2.45621 53.193 170 179 194 
32.1351 2.98883 58.3985 113 126 142 
31.8463 2.44167 55.9983 171 183 197 
32.8503 2.81783 55.7641 113 126 142 
34.1427 2.98606 56.1958 162 174 190 
38.2864 3.13301 61.1963 164 176 190 
38.5989 3.1498 61.3835 162 174 188 
-0.380481 0.916208 2.67622 20 23 2 
-0.380297 0.917187 2.66311 69 71 57 
-0.254978 0.930842 2.72465 41 41 39 
-0.212977 0.915745 2.75318 76 72 69 
-0.161727 0.959714 2.7702 55 55 53 
-0.206078 0.994773 2.483 101 97 86 
-0.0587499 0.955691 2.82965 64 65 60 
-0.140645 0.986938 2.5728 26 24 11 
-0.0131782 0.930559 2.87957 0 2 0 
-0.327629 0.0582576 2.00218 7 6 2 
-0.307642 -0.139701 2.03852 26 24 25 
-0.308266 0.421345 2.01196 82 78 75 
-0.30443 0.560344 2.01459 86 82 71 
-0.300212 -0.156732 2.03704 71 70 66 
-0.269899 -0.278505 2.11277 64 63 59 
-0.304595 0.543875 2.00504 55 48 38 
-0.309771 0.14716 1.99302 5 0 0 
-0.309554 0.164338 1.9923 8 4 1 
-0.3117 0.713809 1.97414 87 86 81 
-0.306396 0.326169 1.99288 10 5 0 
-0.30916 0.179516 1.98823 10 9 5 
-0.305258 0.462312 1.98997 51 51 39 
-0.300861 0.636847 1.98835 32 29 24 
-0.301701 0.494587 1.98899 40 38 26 
-0.305674 0.289919 1.98181 8 3 0 
-0.305838 0.343005 1.97994 86 83 76 
-0.307612 0.159024 1.97923 61 57 54 
-0.304172 0.32761 1.97602 62 60 48 
-0.301795 -0.0965698 1.98953 15 15 15 
-0.303356 0.377871 1.97628 17 13 4 
-0.304458 0.201634 1.97525 51 48 43 
-0.306356 0.728605 1.9575 66 63 58 
-0.29802 0.616229 1.96889 16 12 3 
-0.30009 -0.094001 1.97466 68 68 68 
-0.301028 0.290648 1.96207 87 84 75 
-0.301861 0.190433 1.95777 4 0 0 
-0.301442 0.0916704 1.95903 56 55 53 
-0.301682 0.170938 1.95386 25 21 18 
-0.297045 0.41145 1.95981 77 77 67 
-0.299184 0.279905 1.95715 7 4 0 
-0.300729 0.267568 1.95143 79 76 69 
-0.297932 0.46158 1.95411 6 0 0 
-0.297849 0.324848 1.95381 6 3 0 
-0.297123 0.362035 1.9516 29 26 19 
-0.293507 0.581511 1.95237 64 61 52 
-0.297268 0.209356 1.94021 8 7 2 
-0.294629 0.301792 1.94413 30 28 16 
-0.293088 0.468703 1.94288 28 25 16 
-0.293315 0.409321 1.93831 75 71 62 
-0.285543 0.58069 1.94445 19 14 11 
-0.29269 0.162651 1.93525 24 20 17 
-0.292595 0.216462 1.93195 7 3 0 
-0.286165 0.537413 1.92631 104 102 90 
-0.295763 0.0479807 1.91077 14 12 13 
-0.284995 0.440676 1.92196 33 28 22 
-0.286815 0.162177 1.92282 4 0 0 
-0.283038 0.357165 1.91673 102 95 87 
-0.282103 0.474993 1.9158 100 97 92 
-0.28168 0.510642 1.91413 90 87 78 
-0.281685 0.46074 1.91421 35 32 23 
-0.283179 0.28858 1.91382 81 77 68 
-0.281754 0.275756 1.91493 60 55 51 
-0.278993 0.537986 1.91389 41 37 28 
-0.27744 0.486603 1.91373 41 37 26 
-0.283738 0.689055 1.89511 25 22 17 
-0.277701 0.300026 1.90103 28 23 20 
-0.273184 0.633026 1.8995 27 25 13 
-0.275539 0.188134 1.89959 9 4 0 
-0.274919 0.273044 1.89938 72 71 66 
-0.27179 0.567863 1.89922 21 19 7 
-0.270789 0.587102 1.89756 41 38 29 
-0.27078 0.597987 1.89503 24 21 12 
-0.272803 0.239373 1.89436 80 77 72 
-0.270212 -0.0890191 1.88307 77 76 74 
-0.265386 0.532195 1.88183 95 91 82 
-0.260717 0.501423 1.87873 96 92 81 
-0.187269 -0.59821 2.05359 30 26 25 
-0.259848 0.284062 1.87722 18 11 5 
-0.257259 0.248977 1.87314 29 25 22 
-0.257025 0.354466 1.87126 82 75 69 
-0.257755 0.66096 1.86052 74 70 67 
-0.254389 0.545924 1.86951 82 78 67 
-0.253751 0.367514 1.86834 12 8 0 
-0.238953 -0.203145 1.90515 18 17 15 
-0.247337 0.551443 1.8597 86 83 74 
-0.255461 -0.0096079 1.85196 12 11 9 
-0.246957 0.184522 1.86089 7 6 4 
-0.253413 0.0619943 1.84948 18 17 15 
-0.248758 0.128595 1.85374 67 66 64 
-0.162011 -0.668135 2.04418 29 27 28 
-0.24582 0.657122 1.84579 19 21 20 
-0.241675 0.480497 1.84999 19 16 11 
-0.240797 0.408998 1.84961 72 67 63 
-0.262511 0.881302 1.79718 78 74 65 
-0.228273 -0.204242 1.88513 18 17 15 
-0.192732 -0.427599 1.95035 20 16 15 
-0.234989 0.205228 1.84897 12 7 4 
-0.231157 0.427171 1.84129 15 7 4 
-0.144604 -0.706947 2.03291 81 79 80 
-0.190203 -0.411378 1.93509 91 90 88 
-0.235386 -0.0109996 1.83556 9 9 7 
-0.226412 0.19007 1.843 27 24 19 
-0.226519 0.17362 1.84214 14 13 11 
-0.134994 -0.725805 2.02917 27 26 24 
-0.222596 0.399456 1.83548 10 8 0 
-0.22313 0.263792 1.83596 107 106 102 
-0.190148 -0.307976 1.9022 56 55 53 
-0.140083 -0.672439 1.99973 116 114 115 
-0.179036 -0.368554 1.91665 84 82 85 
-0.21476 0.0902427 1.83357 58 57 55 
-0.141228 -0.635984 1.98833 108 107 105 
-0.12003 -0.765359 2.01965 16 14 17 
-0.152243 -0.50424 1.95249 37 33 30 
-0.211286 0.518447 1.82147 33 26 16 
-0.211034 -0.0829816 1.83016 22 22 22 
-0.201236 -0.114274 1.84379 89 87 88 
-0.184837 -0.229557 1.87516 17 16 14 
-0.212589 0.0148516 1.81637 65 64 62 
-0.234935 0.900286 1.75849 51 50 46 
-0.130873 -0.622658 1.9809 45 41 38 
-0.113085 -0.745241 2.01059 84 83 79 
-0.0806562 -0.94915 2.07416 24 24 24 
-0.0797808 -1.01738 2.07105 225 227 252 
-0.196385 -0.098438 1.8305 28 26 27 
-0.0695983 -1.06905 2.06787 228 235 255 
-0.0856564 -0.940832 2.03296 83 81 82 
-0.189678 0.454314 1.80671 4 1 0 
-0.105551 -0.635064 1.97437 81 77 74 
-0.150579 -0.308504 1.8825 81 79 80 
-0.115948 -0.55117 1.94696 67 61 61 
-0.110937 -0.520173 1.93911 96 92 89 
-0.170749 0.176434 1.80511 62 60 61 
-0.133094 -0.268139 1.85942 61 59 60 
-0.168132 0.715178 1.76775 22 20 21 
-0.136876 -0.189295 1.83454 90 84 84 
-0.158558 -0.00220443 1.78682 12 11 9 
-0.15164 0.0990651 1.79455 1 0 0 
-0.116352 -0.217482 1.8357 81 80 78 
-0.135413 0.294771 1.7941 82 74 72 
-0.145843 0.00839425 1.78019 70 69 67 
-0.140404 -0.0558653 1.77706 15 15 15 
-0.0981134 -0.21592 1.82406 39 38 34 
-0.119863 0.120001 1.78219 26 22 21 
-0.0611437 -0.444179 1.88847 79 75 72 
-0.116461 0.2081 1.7792 16 12 11 
-0.117806 -0.0390853 1.76603 68 66 67 
-0.0927673 -0.172015 1.80704 65 64 62 
-0.108162 0.257422 1.77367 65 61 58 
-0.104119 0.137967 1.77832 64 63 61 
-0.103775 0.294442 1.77232 66 62 61 
-0.100146 0.328644 1.76994 9 5 2 
-0.0747774 -0.221255 1.81424 71 66 62 
-0.0746778 -0.140375 1.78894 24 23 21 
-0.080573 0.109749 1.77564 55 54 52 
-0.0795616 0.187156 1.77259 3 0 0 
-0.0952756 0.778868 1.73848 61 59 60 
-0.076101 0.0766996 1.77532 4 4 4 
-0.0767063 0.212084 1.77021 66 62 59 
-0.0739758 0.163995 1.77181 68 67 65 
-0.074195 0.040393 1.7637 43 43 43 
-0.0639262 0.277931 1.76836 61 57 54 
-0.0612641 0.1127 1.77253 59 57 58 
-0.0606639 0.181065 1.77175 16 15 13 
-0.056758 0.0857995 1.77363 67 63 64 
-0.0501329 0.154062 1.77053 21 20 18 
-0.047183 0.0221025 1.76218 10 10 10 
-0.0370584 0.0760433 1.77472 7 6 4 
-0.0288839 0.0977371 1.7764 65 63 64 
-0.0240585 0.130398 1.77353 15 15 15 
0.0353897 -0.311132 1.86724 22 18 19 
-0.0141871 0.362501 1.76432 57 56 54 
-0.0097314 -0.0606758 1.76347 95 94 90 
0.0869059 -0.0724596 1.80821 88 87 83 
0.0259088 0.905553 1.66455 22 21 17 
0.0358156 0.892592 1.66853 67 66 62 
0.0193073 0.930058 1.61181 14 14 12 
0.684898 0.931285 2.1763 44 46 43 
0.795317 0.867246 2.19883 5 6 1 
-0.220548 0.555196 1.82806 78 70 59 
-0.186459 0.0120015 1.79755 0 0 0 
-0.173907 0.778828 1.76694 59 57 58 
-0.084558 -1.09463 2.07235 27 30 61 
-0.271482 0.00377322 1.86916 67 66 64 
-0.222735 0.628236 1.82946 22 18 15 
-0.216658 0.594263 1.82468 16 15 11 
-0.198415 0.40699 1.81362 17 9 0 
-0.161621 0.591427 1.78614 22 21 19 
-0.081231 -0.941906 2.07308 21 21 23 
0.230886 -0.0538078 1.6932 206 210 221 
-0.304316 0.279849 1.97264 7 4 0 
-0.304715 0.21974 1.96768 32 27 21 
-0.294464 0.569511 1.95684 8 0 0 
-0.301516 0.092668 1.94893 46 45 43 
-0.295706 0.27859 1.94228 6 0 0 
-0.29248 0.455384 1.94162 97 93 82 
-0.289738 0.52621 1.94043 115 112 103 
-0.289684 0.278355 1.92898 10 7 0 
-0.270445 -0.191156 1.98114 24 23 21 
-0.285736 0.379814 1.92305 78 74 65 
-0.279619 0.413898 1.90992 40 37 28 
-0.276124 0.575295 1.9097 77 74 65 
-0.283753 0.0540082 1.88966 61 59 60 
-0.270367 0.500593 1.89627 18 11 1 
-0.268146 0.435926 1.89118 97 94 85 
-0.207894 -0.473473 2.02184 27 23 20 
-0.262268 0.640921 1.88176 80 77 68 
-0.262806 0.177589 1.88527 37 36 32 
-0.262156 0.688618 1.85834 24 21 16 
-0.261914 0.719191 1.8581 75 72 67 
-0.257931 0.170208 1.87488 88 84 81 
-0.256768 0.331844 1.8744 67 63 54 
-0.254347 0.60877 1.87085 16 13 6 
-0.255726 0.141917 1.87399 8 7 5 
-0.255759 0.220042 1.87207 20 15 9 
-0.250318 0.38627 1.86698 25 17 14 
-0.250303 0.289766 1.86575 16 12 3 
-0.256359 0.795741 1.83851 63 59 58 
-0.248413 0.208859 1.86307 65 60 54 
-0.246064 0.259302 1.86172 22 17 14 
-0.251123 0.696362 1.8412 25 25 25 
-0.243397 0.448062 1.85536 49 47 35 
-0.203265 -0.356307 1.92502 67 66 64 
-0.224724 0.327755 1.83739 58 54 51 
-0.220934 0.273912 1.83493 71 66 62 
-0.206743 0.212013 1.82608 20 16 13 
-0.122206 -0.541391 1.94467 25 21 22 
-0.16891 0.000618444 1.79087 64 62 63 
-0.0937321 -0.463409 1.90716 25 21 18 
-0.101355 -0.255579 1.84072 101 100 98 
-0.0938818 -0.118787 1.78867 74 72 73 
-0.485062 0.958303 1.81771 46 46 38 
-0.371773 0.944396 1.96919 68 67 65 
-0.308521 0.309383 2.06779 64 63 58 
-0.31475 0.233389 2.03167 64 59 55 
-0.308441 -0.145644 2.04832 65 64 62 
-0.304665 0.380119 2.04025 76 76 66 
-0.311799 0.285228 2.03067 73 72 68 
-0.308672 0.338096 2.03005 64 61 56 
-0.307213 0.389585 2.03076 14 10 0 
-0.313919 0.165199 2.02517 21 18 13 
-0.311047 0.347726 2.02436 81 81 71 
-0.309968 0.397186 2.02426 63 59 50 
-0.311843 0.281459 2.01982 23 22 18 
-0.309543 0.320907 2.01954 34 31 26 
-0.308966 0.305569 2.01726 6 5 0 
-0.314268 0.152334 2.0126 75 71 68 
-0.313447 0.17308 2.0123 69 65 62 
-0.30678 0.430087 2.01286 75 72 65 
-0.311316 0.284454 2.00795 79 76 69 
-0.307795 0.394592 2.00996 28 28 16 
-0.306028 0.44626 2.0051 78 74 63 
-0.311809 0.170403 2.00153 45 41 38 
-0.312615 0.227607 1.987 83 82 77 
-0.301303 0.54207 1.99351 112 108 96 
-0.324632 -0.0422836 1.97428 75 73 74 
-0.304344 0.421184 1.98356 79 75 66 
-0.303679 0.364722 1.98047 29 25 16 
-0.299808 0.437884 1.97741 93 91 79 
-0.301345 0.414047 1.97283 24 20 11 
-0.298946 0.581721 1.97057 90 87 80 
-0.301732 0.382888 1.96861 78 74 65 
-0.307874 0.234173 1.96281 66 65 60 
-0.297718 0.475228 1.96962 26 24 12 
-0.303781 0.107786 1.96117 29 28 24 
-0.294344 0.556385 1.9602 77 73 61 
-0.301519 0.199107 1.95625 87 86 82 
-0.297617 0.432421 1.95585 56 47 38 
-0.298015 0.305572 1.95763 93 89 80 
-0.297148 0.672046 1.94499 86 82 79 
-0.292016 0.443968 1.94812 80 76 67 
-0.294897 0.320105 1.9366 70 61 54 
-0.289193 0.507847 1.93819 16 12 3 
-0.257847 -0.301052 1.99273 69 57 57 
-0.199172 -0.571084 2.06712 12 10 11 
-0.289032 0.736845 1.91639 95 92 85 
-0.2901 0.226487 1.92014 66 63 58 
-0.28142 0.525255 1.92136 40 37 28 
-0.187013 -0.59854 2.05392 27 23 22 
-0.296665 0.050523 1.906 51 50 48 
-0.28044 0.331649 1.91657 88 85 80 
-0.276431 0.55043 1.91179 22 19 10 
-0.279366 0.361738 1.91215 38 35 26 
-0.28065 0.698107 1.89122 29 25 22 
-0.276285 0.272626 1.89779 70 67 62 
-0.26982 0.534609 1.89753 87 85 73 
-0.160631 -0.668908 2.0458 36 34 35 
-0.26628 0.382201 1.89146 22 18 9 
-0.252001 -0.178933 1.91593 73 72 70 
-0.124444 -0.955511 2.07922 76 74 79 
-0.262323 0.568449 1.88813 38 35 26 
-0.145724 -0.720362 2.046 79 78 76 
-0.258996 0.556242 1.88115 40 29 23 
-0.262193 0.314114 1.88121 6 1 0 
-0.25623 0.47835 1.87998 81 74 66 
-0.255965 0.577565 1.87532 38 35 26 
-0.258574 0.376447 1.87649 27 18 11 
-0.144593 -0.692836 2.02535 79 75 74 
-0.160688 -0.604515 2.0041 83 79 76 
-0.184378 -0.487569 1.97463 76 72 71 
-0.257068 0.248928 1.87336 38 33 29 
-0.139298 -0.705988 2.01969 33 32 30 
-0.248837 0.633059 1.86807 22 18 9 
-0.253707 0.356618 1.86768 36 32 21 
-0.253855 0.152182 1.87056 22 18 15 
-0.251007 0.368656 1.86708 9 6 1 
-0.266454 0.836186 1.83974 61 61 61 
-0.247928 0.575834 1.86349 30 26 17 
-0.0830522 -1.01807 2.07652 229 229 255 
-0.0834431 -1.08788 2.07592 226 230 255 
-0.250441 0.244475 1.86179 85 82 77 
-0.135823 -0.694292 2.00684 28 26 29 
-0.0787143 -1.00862 2.07543 43 37 81 
-0.242886 0.496599 1.86037 86 79 69 
-0.170387 -0.491539 1.95528 36 32 31 
-0.253818 0.0642199 1.85133 58 57 55 
-0.243889 0.658395 1.84787 22 24 19 
-0.247057 0.688623 1.84352 15 15 13 
-0.2423 0.283062 1.85596 4 0 0 
-0.22804 -0.190821 1.88105 37 35 36 
-0.24283 0.184849 1.85678 68 67 63 
-0.131213 -0.674722 1.99613 80 78 79 
-0.0673505 -0.310737 2.0585 9 8 6 
-0.0874414 -0.943163 2.03579 27 26 31 
-0.206356 -0.2583 1.89021 30 26 23 
-0.110833 -0.69543 1.99436 90 88 91 
-0.225812 0.420924 1.84186 9 2 0 
-0.226173 0.320977 1.83968 32 28 25 
-0.0667908 -0.957062 2.03359 87 85 88 
-0.22219 0.412679 1.83451 92 85 79 
-0.0492011 -0.939335 2.04491 23 21 35 
-0.0563784 -0.96192 2.037 40 40 38 
-0.201152 -0.159255 1.86101 90 89 87 
-0.223745 0.758543 1.81848 17 16 14 
-0.214926 0.523487 1.82971 90 81 72 
-0.10243 -0.634972 1.97196 103 99 96 
-0.215437 0.0891849 1.83522 8 7 5 
-0.194552 -0.183863 1.86266 93 92 90 
-0.205528 0.457085 1.82309 23 19 10 
-0.204181 0.374816 1.82207 84 80 71 
-0.186757 -0.141242 1.84536 53 51 52 
-0.203407 0.250201 1.81926 63 58 54 
-0.192289 0.199084 1.8181 22 16 16 
-0.078517 -0.587328 1.94111 88 84 81 
-0.173773 0.176112 1.8021 63 62 60 
-0.0740986 -0.456179 1.89408 99 95 92 
-0.156053 0.0427036 1.78098 62 61 59 
-0.112864 -0.12777 1.80387 85 85 87 
-0.113879 0.440871 1.7733 14 13 11 
-0.103782 0.174144 1.78057 72 71 69 
-0.0901547 -0.136009 1.79704 30 29 27 
-0.118906 -0.0386965 1.765 64 64 62 
-0.0864069 0.370639 1.76827 63 62 60 
-0.0801544 -0.0985001 1.77312 73 73 75 
-0.0615238 0.257698 1.76985 63 59 58 
-0.0310582 0.151784 1.77466 54 52 53 
0.734847 0.97374 1.85975 21 16 13 
-0.361711 -0.0150015 2.20405 30 30 32 
-0.287974 0.069454 1.72284 209 216 222 
-0.232388 0.0574143 1.97732 50 50 50 
-0.181021 -0.00372091 1.7953 66 66 64 
-0.219512 -0.166574 1.87142 11 9 10 
-0.215875 0.542254 1.82786 31 27 16 
-0.0803239 -0.325397 2.05525 38 36 37 
-0.292546 0.0185995 1.90575 79 78 76 
-0.151038 0.285318 1.80377 93 73 74 
-0.256928 -0.323147 2.2029 30 34 37 
-0.289094 0.582891 2.10958 99 98 94 
-0.281313 -0.251044 2.11896 69 68 64 
-0.313069 0.171335 2.03714 23 19 16 
-0.307158 0.413418 2.02754 25 21 12 
-0.304163 -0.143672 2.0401 14 13 11 
-0.306705 0.380428 2.01255 33 30 21 
-0.310082 0.267519 2.00885 19 18 13 
-0.30764 0.295216 2.00224 76 73 64 
-0.286158 -0.210578 2.04003 65 61 58 
-0.301198 0.534398 2.00325 32 28 19 
-0.309877 0.150818 1.99934 70 69 65 
-0.308351 0.246674 1.9985 73 72 67 
-0.309324 0.124943 1.99201 15 14 12 
-0.303178 0.40741 1.98174 22 19 12 
-0.296649 0.600099 1.9705 36 33 28 
-0.296389 0.465887 1.96357 83 74 65 
-0.319827 -0.0268255 1.94169 68 68 68 
-0.296642 0.186041 1.94865 27 23 20 
-0.295724 0.159923 1.94579 87 83 80 
-0.277375 -0.141984 1.97233 86 84 85 
-0.222785 -0.450752 2.04344 37 36 31 
-0.294641 0.679485 1.92831 78 77 73 
-0.269494 -0.179757 1.97674 84 83 79 
-0.289366 0.398125 1.93623 15 11 2 
-0.287201 0.47442 1.93621 42 41 37 
-0.285958 0.501349 1.93059 33 30 23 
-0.215036 -0.464684 2.03744 72 68 67 
-0.29674 0.00649384 1.91402 65 64 62 
-0.283458 0.324792 1.92117 83 78 72 
-0.208943 -0.460078 2.02013 83 79 78 
-0.283713 0.190324 1.91626 75 72 67 
-0.278173 0.434157 1.91365 86 82 79 
-0.279976 0.301051 1.91131 24 20 11 
-0.273541 0.471216 1.90516 45 42 37 
-0.27181 0.547938 1.90432 38 31 23 
-0.257374 -0.162115 1.93207 27 25 26 
-0.274635 0.228976 1.90205 10 7 2 
-0.266944 0.558231 1.8939 34 31 22 
-0.264029 0.494334 1.88974 33 24 15 
-0.257066 -0.128813 1.90748 84 83 79 
-0.265492 0.666188 1.87798 85 80 76 
-0.266817 0.0160574 1.86979 57 56 54 
-0.248766 0.309117 1.86865 29 22 16 
-0.253673 0.749276 1.84888 13 12 8 
-0.243114 0.385778 1.8578 88 83 77 
-0.256923 0.816693 1.83096 64 63 61 
-0.239465 0.67207 1.83801 29 29 29 
-0.209436 0.428109 1.82492 27 18 9 
-0.212691 0.740078 1.80529 27 26 24 
-0.207991 0.877273 1.77837 73 68 64 
-0.0883285 -0.44101 1.89573 79 75 74 
0.103796 0.96351 2.9288 73 72 68 
-0.192162 0.989004 2.57239 121 121 109 
-0.201088 0.998222 2.48849 96 89 79 
-0.290927 1.00238 2.32722 91 88 79 
-0.256618 1.00087 2.35293 24 21 12 
-0.431331 0.990736 2.12983 90 88 76 
-0.204082 -0.0150321 2.28785 30 30 40 
-0.30926 0.945617 2.17459 54 53 51 
-0.300406 0.0642887 2.16234 78 78 78 
-0.278254 0.816357 2.16163 18 18 18 
-0.307294 0.843969 2.11429 82 82 80 
-0.266546 -0.130383 2.15916 64 62 63 
-0.301066 0.816732 2.10822 7 2 6 
-0.290112 0.790388 2.11354 90 88 89 
-0.298442 0.79037 2.09624 17 15 16 
-0.283516 -0.141587 2.12837 27 26 22 
-0.301087 0.226232 2.10206 73 72 68 
-0.289385 0.625881 2.0985 111 105 105 
-0.302995 0.254703 2.09125 64 63 61 
-0.130064 -0.42484 2.24138 198 206 217 
-0.295678 0.661203 2.08426 91 90 88 
-0.302696 0.337326 2.08123 96 92 89 
-0.307539 0.180208 2.07579 17 17 9 
-0.309939 0.197568 2.07072 53 52 48 
-0.309935 0.229779 2.06117 21 20 15 
-0.303248 0.417789 2.06094 77 72 68 
-0.31124 0.188953 2.05448 60 59 54 
-0.309054 0.277722 2.05219 68 68 58 
-0.309079 0.245338 2.04623 76 77 71 
-0.31159 0.15817 2.0446 67 64 59 
-0.31207 0.187768 2.04078 79 80 74 
-0.305652 0.268657 2.04198 12 12 2 
-0.29364 -0.190903 2.05396 53 53 51 
-0.308483 0.42709 2.02801 21 18 13 
-0.30667 0.382695 2.02612 4 0 0 
-0.304121 0.267757 2.03018 34 30 21 
-0.194417 -0.467307 2.12738 0 0 4 
-0.30019 0.435585 2.02789 64 61 52 
-0.303997 0.485678 2.01988 76 73 68 
-0.305449 0.418435 2.0198 5 1 0 
-0.30994 0.252316 2.01602 85 81 78 
-0.226976 -0.43143 2.08554 83 81 82 
-0.306801 0.316548 2.01052 78 77 72 
-0.309021 0.121274 2.01201 9 5 2 
-0.306893 -0.100961 2.01516 60 58 59 
-0.303902 0.463116 2.00496 36 33 26 
-0.307831 0.259708 2.00409 77 74 69 
-0.159831 -0.6089 2.12757 19 19 29 
-0.304239 0.396211 1.99906 92 89 80 
-0.308026 0.733219 1.98579 63 59 56 
-0.299949 0.472626 1.99708 99 97 84 
-0.306125 -0.0941499 2.00455 81 81 81 
-0.307844 0.217691 1.99477 68 65 58 
-0.224333 -0.43023 2.05568 25 21 18 
-0.304718 0.212695 1.98291 18 13 7 
-0.29763 0.435391 1.9694 100 93 85 
-0.294995 0.58824 1.96403 47 43 34 
-0.298719 0.317228 1.96314 14 10 1 
-0.493584 0.957667 1.81325 38 35 26 
-0.296107 0.378425 1.96252 32 25 17 
-0.297288 0.173902 1.96358 68 67 63 
-0.298502 0.228645 1.95915 78 77 72 
-0.300151 0.766697 1.94112 68 63 59 
-0.296701 0.672043 1.94529 82 79 74 
-0.289862 0.476981 1.95326 91 86 82 
-0.2729 -0.153114 1.97718 71 70 68 
-0.290544 0.488874 1.94633 43 41 29 
-0.199439 -0.487802 2.0288 25 21 18 
-0.29211 0.290343 1.94638 76 72 63 
-0.292212 0.372034 1.9444 26 23 16 
-0.291297 0.349408 1.94306 15 11 2 
-0.283627 -0.105476 1.95536 68 67 65 
-0.11366 -0.944871 2.0867 40 35 39 
-0.296019 0.694587 1.92748 76 75 71 
-0.291588 0.270262 1.93858 19 15 6 
-0.289046 0.441231 1.9358 21 12 5 
-0.290796 0.178988 1.93848 2 1 0 
-0.285897 0.365379 1.9318 110 108 96 
-0.294671 0.732205 1.9143 38 33 29 
-0.193328 -0.483694 2.00561 26 22 21 
-0.286808 0.110529 1.92906 3 0 0 
-0.273915 0.580082 1.92771 26 21 18 
-0.280888 0.557793 1.92023 34 30 18 
-0.263571 -0.148012 1.94513 84 83 81 
-0.284136 0.365915 1.92063 82 78 69 
-0.13496 -0.732079 2.04163 76 72 71 
-0.055852 -1.01133 2.09427 230 234 255 
-0.288899 -0.0675882 1.92097 64 63 61 
-0.161538 -0.600339 2.01474 95 91 88 
-0.28107 0.250636 1.9161 85 80 74 
-0.275283 0.364526 1.90325 77 74 65 
-0.176296 -0.511739 1.98389 72 69 64 
-0.194344 -0.425397 1.96796 83 79 76 
-0.2743 0.103829 1.90541 90 86 85 
-0.180905 -0.465395 1.96672 67 63 60 
-0.265674 0.548673 1.88834 35 31 22 
-0.264452 0.577344 1.88843 29 26 17 
-0.26595 0.248728 1.89096 81 78 73 
-0.264221 0.131998 1.88993 103 99 96 
-0.257997 0.556681 1.88176 29 24 18 
-0.170055 -0.472904 1.95384 8 4 3 
-0.260769 0.188285 1.88389 3 0 0 
-0.259909 0.477119 1.87771 88 81 71 
-0.255557 0.577839 1.87557 35 32 23 
-0.202903 -0.334801 1.92042 5 3 4 
-0.254544 0.14956 1.87671 12 8 5 
-0.106736 -0.636081 1.97734 73 69 66 
-0.249861 0.38646 1.86726 36 33 28 
-0.251368 0.658854 1.85575 18 15 10 
-0.245066 0.28655 1.86353 74 70 61 
-0.236086 -0.149094 1.87591 31 30 28 
-0.24133 0.56639 1.85399 42 41 39 
-0.258661 -0.0489549 1.85536 18 16 17 
-0.22788 -0.167184 1.87569 25 24 20 
-0.250989 0.083502 1.85545 5 4 2 
-0.261529 -0.0322952 1.85036 77 75 76 
-0.247595 0.68845 1.84321 28 30 27 
-0.233733 -0.114543 1.86044 27 25 26 
-0.229421 0.557434 1.84414 25 20 14 
-0.240634 0.000906939 1.84317 4 3 1 
-0.259199 0.882356 1.80445 101 95 83 
-0.103557 -0.475199 1.91922 95 91 88 
-0.218844 0.531765 1.82948 82 82 70 
-0.214856 0.0858465 1.83631 59 57 58 
-0.225674 0.755929 1.81581 19 15 14 
-0.213265 0.141871 1.83288 66 65 63 
-0.204387 0.212393 1.82741 28 24 23 
-0.2068 0.447073 1.82038 36 33 26 
-0.204827 -0.0100267 1.8122 52 52 52 
-0.192252 0.499361 1.80933 73 72 68 
-0.166213 -0.125466 1.83224 91 89 90 
-0.104462 -0.319608 1.86619 82 80 81 
-0.178873 0.192846 1.80861 67 63 62 
-0.112071 -0.254923 1.84761 81 79 80 
-0.187051 0.0430499 1.79786 67 66 64 
-0.135759 -0.162455 1.82791 59 57 58 
-0.0854852 -0.311549 1.85356 22 21 19 
-0.113901 -0.215145 1.83652 100 99 97 
-0.183711 0.724467 1.78034 36 35 31 
-0.0981408 -0.255982 1.84244 93 91 92 
-0.193832 0.816538 1.77138 56 57 59 
-0.186599 0.793266 1.77514 64 62 63 
-0.0967009 -0.219159 1.8278 104 103 99 
-0.169479 0.766025 1.7707 17 15 16 
-0.134514 0.291954 1.79565 83 73 74 
-0.14053 -0.0931636 1.79919 102 102 104 
-0.130365 -0.105514 1.80295 90 90 90 
-0.152261 0.0429012 1.78294 67 66 64 
-0.145687 0.00876571 1.78127 71 69 70 
-0.121471 0.167613 1.78598 79 74 71 
-0.0647212 0.125345 1.77482 89 89 91 
-0.0260143 0.901771 1.66869 38 37 33 
-0.0577741 0.95447 1.62746 83 82 77 
