ply                 
format ascii 1.0    
element vertex 1287
property float x    
property float y    
property float z    
property uchar red  
property uchar green
property uchar blue 
end_header          
-0.237135 0.557982 1.82503 69 67 68 
-0.235145 0.199105 1.82492 66 62 61 
-0.232934 0.394842 1.82196 87 83 71 
-0.232936 -0.103175 1.82974 65 63 64 
-0.230088 0.187336 1.82197 29 25 22 
-0.228683 0.570317 1.81747 38 33 27 
-0.228447 -0.0815914 1.81636 86 84 85 
-0.227626 0.53857 1.81752 74 66 55 
-0.221095 0.526663 1.81126 80 76 65 
-0.223759 -0.131209 1.83982 18 17 15 
-0.217671 0.295981 1.80789 80 77 68 
-0.220433 -0.144361 1.84358 81 79 80 
-0.217101 0.229417 1.81032 24 20 17 
-0.21568 0.341775 1.80767 82 79 74 
-0.1901 0.94028 1.51499 64 57 49 
-0.21237 -0.0611698 1.79616 85 84 82 
-0.21193 0.659848 1.79387 35 31 28 
-0.219015 -0.264213 1.87819 31 30 28 
-0.21295 -0.10342 1.81804 27 26 24 
-0.215211 -0.205676 1.86011 71 70 68 
-0.209356 0.470568 1.80169 36 35 30 
-0.206595 -0.0491832 1.78676 77 73 72 
-0.205819 0.420143 1.79526 33 29 18 
-0.211237 -0.221164 1.86241 24 23 21 
-0.210815 -0.240738 1.86792 72 71 69 
-0.207953 -0.149098 1.83949 77 75 76 
-0.203412 0.288036 1.79976 31 28 19 
-0.202495 0.0430808 1.7876 46 45 43 
-0.200569 0.370187 1.79555 73 73 63 
-0.200979 0.152486 1.80021 74 70 69 
-0.205039 -0.347994 1.90087 90 88 89 
-0.191839 0.757973 1.76442 83 82 80 
-0.193154 0.468309 1.78893 21 20 15 
-0.195212 -0.158783 1.83535 84 83 81 
-0.18372 0.871012 1.72462 73 65 54 
-0.178047 0.0388352 1.77229 8 4 3 
-0.173863 -0.332144 1.88122 83 81 82 
-0.171961 -0.260992 1.85486 93 92 90 
-0.174429 -0.434343 1.91539 23 19 16 
-0.175662 -0.502188 1.93931 107 106 104 
-0.161971 0.226712 1.77714 16 11 8 
-0.155704 0.710261 1.74285 21 20 18 
-0.16029 -0.230919 1.84094 83 82 80 
-0.154462 0.459838 1.76678 74 73 69 
-0.15483 -0.460431 1.92027 19 15 16 
-0.142328 0.86684 1.71369 72 67 64 
-0.14033 0.187809 1.76666 63 59 56 
-0.13619 -0.105155 1.7822 83 83 81 
-0.137129 -0.158848 1.80515 20 20 20 
-0.135483 -0.379251 1.87847 19 18 16 
-0.124064 0.939955 1.61455 34 32 20 
-0.132889 -0.625404 1.96004 90 86 85 
-0.122634 0.57346 1.75222 19 18 16 
-0.12236 -0.00258184 1.75311 68 68 68 
-0.126313 -0.74127 1.99455 22 22 20 
-0.119915 -0.243959 1.82377 94 93 91 
-0.117402 0.321401 1.75719 80 77 72 
-0.117651 -0.174606 1.80126 64 62 63 
-0.112883 0.112894 1.76184 24 23 21 
-0.110292 -0.00617858 1.75191 11 9 10 
-0.1089 0.434406 1.75154 22 18 15 
-0.109008 0.155106 1.76084 59 54 51 
-0.111048 -0.362781 1.8572 13 11 12 
-0.1077 0.248869 1.75679 91 86 83 
-0.105791 0.362361 1.7525 12 7 3 
-0.104101 -0.0166699 1.75038 2 2 4 
-0.103024 0.274959 1.75338 74 71 66 
-0.0983866 -0.307669 1.83522 23 22 18 
-0.0986396 -0.953981 2.03296 27 29 28 
-0.0926799 -0.222026 1.80445 68 66 67 
-0.0885205 -0.191628 1.79032 26 22 19 
-0.086342 0.8692 1.677 74 70 61 
-0.0899411 -0.537194 1.90548 15 11 8 
-0.0894259 -0.450629 1.87792 67 63 60 
-0.0853199 0.14952 1.75545 63 59 58 
-0.0879197 -0.962819 2.02567 29 27 28 
-0.08319 0.0939815 1.75809 81 79 80 
-0.082189 -0.683418 1.95399 76 72 71 
-0.0735951 0.107118 1.75651 7 5 6 
-0.0733874 -0.847076 2.00588 95 92 87 
-0.0713514 0.230626 1.75265 76 75 71 
-0.0722323 -0.935374 1.98652 88 86 87 
-0.0709407 -0.470043 1.87615 74 73 71 
-0.0703994 -0.647261 1.94259 80 79 77 
-0.0665542 -0.531016 1.8999 87 83 80 
-0.0648753 0.0193982 1.74466 12 10 11 
-0.06523 -0.600098 1.92601 28 25 20 
-0.0647343 0.0911553 1.75373 14 12 13 
-0.0584841 -0.0391181 1.73529 66 62 63 
-0.0569375 0.323023 1.74738 63 58 55 
-0.0559333 -0.250294 1.80665 31 30 28 
-0.055412 -0.770939 1.988 37 34 29 
-0.0549029 0.840778 1.69866 56 54 55 
-0.0542836 -0.620963 1.93611 29 28 26 
-0.0518973 0.0236773 1.74419 7 7 7 
-0.0518495 0.870908 1.66532 74 69 66 
-0.0504 0.336892 1.74493 65 61 60 
-0.0490015 -0.720362 1.97363 35 32 27 
-0.0498629 -0.139597 1.77347 18 17 13 
-0.0486579 -0.155011 1.77913 69 68 64 
-0.0407354 -0.248867 1.81361 73 72 67 
-0.0395305 -0.541184 1.91394 25 21 20 
-0.0375282 -0.00625579 1.74566 24 20 21 
-0.0356191 -0.108868 1.76284 85 82 75 
-0.0257346 -0.264845 1.82314 68 67 63 
-0.0269727 0.272834 1.74701 62 61 59 
-0.0228827 -0.309699 1.82728 60 56 55 
-0.0249648 0.871332 1.66306 70 64 64 
-0.0197867 -0.18914 1.79922 24 23 21 
-0.019874 0.26175 1.75105 85 81 80 
-0.0146006 -0.060903 1.74586 79 75 72 
-0.0133247 0.115421 1.75698 58 58 58 
-0.0126702 0.0481864 1.74892 49 48 46 
-0.0122868 -0.0439112 1.73932 69 68 64 
-0.00369618 -0.554162 1.93155 37 31 31 
-0.00507839 -0.187028 1.80813 29 28 26 
-0.00363139 -0.157773 1.79814 10 8 9 
-0.00459245 -0.0201843 1.75189 1 0 0 
0.00271333 -0.1353 1.79059 82 81 79 
0.0058731 -0.342655 1.83815 70 66 65 
0.010554 -0.477588 1.91077 82 78 77 
0.00470552 0.39795 1.74957 0 0 0 
0.00866679 -0.11871 1.78182 89 88 84 
0.0097068 -0.099951 1.77723 82 78 75 
0.0189286 -0.311671 1.8477 62 50 50 
0.0142761 0.664854 1.73226 14 14 14 
0.0158586 -0.0468937 1.74038 56 52 49 
0.0208105 0.231116 1.75955 67 63 60 
0.0232756 -0.148681 1.80644 77 76 74 
0.0201301 0.728181 1.73142 133 110 58 
0.0252136 0.259431 1.75978 61 60 58 
0.0246708 0.696475 1.7375 12 12 12 
0.0254747 0.673826 1.73833 83 81 95 
0.0256767 0.660263 1.73658 79 79 89 
0.0294731 0.715504 1.73924 114 115 119 
0.0291525 0.634075 1.72822 48 46 47 
0.0324826 0.375968 1.75777 14 14 14 
0.0318835 0.684313 1.73921 0 0 4 
0.0361834 0.0345313 1.76056 5 3 4 
0.0355332 0.739602 1.74045 6 2 1 
0.0367803 0.695715 1.74238 68 69 74 
0.0390655 -0.0619503 1.76434 30 31 26 
0.0436353 -0.240018 1.84018 67 66 64 
0.0391506 -0.0333694 1.75654 18 17 15 
0.0300675 0.928881 1.57179 73 69 66 
0.0427558 0.115607 1.77366 71 71 71 
0.0462113 0.747495 1.74431 53 53 55 
0.0496895 0.658936 1.7463 105 105 117 
0.0498473 0.70935 1.74701 110 111 113 
0.0527353 -0.072556 1.77569 102 101 97 
0.0536659 0.429926 1.768 35 34 30 
0.0531577 0.728421 1.7473 33 35 34 
0.0550363 0.802568 1.74893 70 69 74 
0.0639996 -0.173035 1.82755 84 82 83 
0.0634143 -0.00640569 1.77251 8 7 5 
0.0653973 0.420291 1.77321 81 80 76 
0.0646522 0.781548 1.75194 76 75 81 
0.0738682 -0.268496 1.86292 84 83 79 
0.0670716 0.756389 1.75255 59 62 67 
0.0663185 0.596642 1.74241 16 16 16 
0.0687112 0.827512 1.74901 43 52 31 
0.0697108 0.803245 1.75378 3 5 4 
0.069705 0.637209 1.74504 11 9 10 
0.0763165 -0.103004 1.80005 32 29 24 
0.0803336 -0.119613 1.81016 64 63 61 
0.0788712 0.744662 1.75626 51 52 54 
0.0806546 0.787159 1.75621 69 69 79 
0.0826686 0.801357 1.75761 0 0 2 
0.092546 -0.141431 1.82727 38 36 37 
0.0863632 0.910367 1.60673 71 67 66 
0.109304 -0.0428526 1.78985 109 108 104 
0.136395 -0.38242 2.05942 7 9 21 
0.116447 0.208979 1.81156 58 56 57 
0.126263 0.2024 1.82093 59 55 54 
0.128933 0.277947 1.81922 18 17 15 
0.147402 0.888903 1.70331 66 63 58 
0.163972 0.870623 1.73242 74 73 68 
0.222301 0.951598 1.59491 94 89 83 
0.297756 0.955012 1.63307 85 81 72 
-0.308433 0.243978 1.98385 24 24 16 
-0.304529 0.212811 1.95752 82 81 76 
-0.297438 0.750298 1.92311 28 25 16 
-0.295969 0.302843 1.93676 88 85 76 
-0.293944 0.408712 1.93448 86 83 74 
-0.292628 0.5486 1.93671 37 33 22 
-0.291628 0.524538 1.9338 113 110 101 
-0.290997 0.506527 1.93298 20 17 8 
-0.291211 0.197728 1.92541 78 74 71 
-0.29035 0.734477 1.90353 86 83 74 
-0.289887 0.722072 1.89955 41 38 29 
-0.286685 0.269463 1.91511 27 22 18 
-0.289308 0.0488609 1.89702 45 44 42 
-0.282143 0.162906 1.90992 6 3 0 
-0.279407 0.542623 1.90685 29 26 17 
-0.271984 -0.162128 1.95979 18 16 17 
-0.278397 0.477732 1.90472 3 0 0 
-0.27732 0.575978 1.90369 20 16 5 
-0.276154 0.491552 1.90177 29 20 11 
-0.278175 0.117232 1.89618 61 56 53 
-0.276427 0.557976 1.89752 76 73 66 
-0.275837 0.403978 1.89529 30 28 16 
-0.271428 0.586489 1.89378 24 21 12 
-0.273176 0.161501 1.89208 28 25 16 
-0.272105 0.477119 1.89149 38 36 24 
-0.272669 0.262064 1.89169 24 21 16 
-0.270625 0.371151 1.89105 20 17 12 
-0.268237 0.440038 1.88473 88 85 76 
-0.268794 0.150183 1.88584 86 85 81 
-0.265352 -0.11023 1.89608 84 83 81 
-0.266368 0.238356 1.88288 84 81 76 
-0.264869 0.341513 1.87954 74 70 59 
-0.264661 0.260263 1.87888 14 10 0 
-0.264363 0.140029 1.88227 83 79 76 
-0.263664 0.159344 1.87865 33 30 23 
-0.263812 0.19623 1.87663 66 62 51 
-0.262492 0.42469 1.87661 102 99 90 
-0.262008 0.322614 1.87489 76 71 67 
-0.294797 0.93471 1.67534 74 71 62 
-0.260008 0.60127 1.87081 21 18 13 
-0.263244 0.774499 1.84911 73 70 65 
-0.261484 0.678194 1.85535 31 28 23 
-0.259862 0.301893 1.87004 75 70 64 
-0.261589 0.689612 1.84912 78 75 70 
-0.258668 0.178428 1.87085 87 83 80 
-0.257347 0.334493 1.86643 31 27 18 
-0.26059 -0.0201023 1.84782 45 46 41 
-0.256023 0.233514 1.86751 12 8 5 
-0.25736 0.663627 1.85184 32 28 25 
-0.254391 0.497994 1.86674 34 32 20 
-0.258819 -0.0603056 1.85097 88 88 86 
-0.252482 0.596688 1.85854 82 79 72 
-0.252466 0.320259 1.86379 24 24 16 
-0.254894 -0.0714741 1.8531 16 18 17 
-0.250252 0.165172 1.86216 3 0 0 
-0.249267 0.355531 1.85693 50 46 37 
-0.247607 0.407049 1.85592 24 19 13 
-0.246988 0.514124 1.85633 108 101 93 
-0.278899 0.935291 1.67499 77 75 63 
-0.246919 0.427923 1.85456 42 34 23 
-0.246701 0.374495 1.85651 29 25 22 
-0.248885 0.662006 1.83888 34 35 30 
-0.245684 -0.137334 1.87002 20 20 18 
-0.249782 0.74156 1.83037 77 76 72 
-0.249424 0.697914 1.83156 65 65 63 
-0.245455 0.330279 1.85598 75 72 67 
-0.245879 0.269951 1.85419 27 24 15 
-0.245215 0.313432 1.85674 19 14 10 
-0.245258 0.195228 1.85498 4 3 0 
-0.245261 0.212594 1.8535 16 13 6 
-0.244242 0.619609 1.85064 71 70 65 
-0.243282 0.641059 1.84646 19 15 12 
-0.24278 0.546159 1.84926 38 37 32 
-0.243492 0.233504 1.85071 76 77 72 
-0.243179 0.17103 1.85076 7 3 0 
-0.243023 0.247036 1.84979 87 86 84 
-0.242033 0.297315 1.85038 80 76 73 
-0.241496 0.366352 1.84762 70 69 65 
-0.241457 0.34879 1.84769 86 81 77 
-0.243084 0.677594 1.83123 32 32 30 
-0.240321 0.490063 1.84566 23 22 18 
-0.239249 0.381893 1.84607 17 14 9 
-0.239029 0.419497 1.84574 3 0 0 
-0.236612 0.564356 1.84123 21 20 18 
-0.236355 0.451404 1.84413 84 84 74 
-0.235577 0.583635 1.8396 79 74 71 
-0.234579 0.184272 1.84537 3 0 0 
-0.234312 0.155259 1.84716 70 66 63 
-0.234087 0.397903 1.83981 90 86 77 
-0.232663 0.531279 1.84053 19 14 8 
-0.230909 0.352426 1.83958 72 68 56 
-0.231594 -0.0929046 1.84164 71 69 70 
-0.230301 0.33579 1.83932 76 73 58 
-0.22773 0.466478 1.83445 86 83 74 
-0.227688 0.30027 1.83586 70 66 63 
-0.215352 -0.283752 1.90401 95 94 90 
-0.228099 0.045893 1.82485 46 45 43 
-0.224983 0.441254 1.83323 91 84 76 
-0.224846 -0.0824586 1.83417 75 73 74 
-0.223761 0.425013 1.82977 27 18 11 
-0.224164 0.544795 1.82484 89 79 69 
-0.222717 0.379863 1.83208 5 1 0 
-0.221447 0.564461 1.8264 26 23 14 
-0.201497 -0.351462 1.91812 86 85 81 
-0.206614 -0.249131 1.88673 93 89 86 
-0.216812 0.239039 1.82803 103 99 96 
-0.214696 0.177126 1.82522 62 58 57 
-0.201027 -0.287727 1.89752 74 73 69 
-0.21457 0.297496 1.82151 77 73 64 
-0.212844 0.0144092 1.81313 74 72 73 
-0.209492 0.264463 1.82346 63 59 56 
-0.210099 0.419321 1.81471 89 80 71 
-0.207771 0.533796 1.81921 10 3 0 
-0.207723 0.153713 1.82076 63 59 56 
-0.180776 -0.45051 1.94339 15 14 12 
-0.207729 0.666083 1.79705 12 8 5 
-0.204096 0.231259 1.81807 6 0 0 
-0.201134 0.521245 1.81122 5 2 0 
-0.201456 0.267964 1.81242 32 28 25 
-0.200384 0.290015 1.81365 27 23 14 
-0.176929 -0.379228 1.91506 79 78 76 
-0.170065 -0.439282 1.93516 25 21 18 
-0.161771 -0.543861 1.96641 12 11 9 
-0.19309 0.501156 1.8043 19 15 12 
-0.159993 -0.555984 1.96849 19 18 16 
-0.180118 -0.165813 1.84629 35 31 30 
-0.165945 -0.346186 1.90199 91 87 86 
-0.139348 -0.706151 2.0175 23 22 20 
-0.189423 0.789873 1.76778 57 55 56 
-0.182597 0.194777 1.80437 25 21 18 
-0.179506 0.370365 1.80277 65 61 50 
-0.133412 -0.699695 2.00445 91 89 90 
-0.140162 -0.588229 1.96859 101 97 96 
-0.130188 -0.724383 2.01041 17 17 15 
-0.146362 -0.429357 1.91896 19 15 14 
-0.180216 0.872095 1.74877 67 62 58 
-0.147474 -0.372588 1.89902 65 63 64 
-0.180473 0.878377 1.73814 69 59 50 
-0.116361 -0.75461 2.01745 26 24 25 
-0.166933 0.51184 1.78785 82 78 75 
-0.152794 -0.204843 1.84814 61 60 58 
-0.133365 -0.473664 1.92655 104 100 97 
-0.107953 -0.945122 2.03693 73 73 73 
-0.141894 -0.322376 1.88276 77 76 74 
-0.126806 -1.00172 1.95345 12 3 48 
-0.160897 0.209387 1.79419 8 5 0 
-0.126663 -0.518298 1.94091 85 81 78 
-0.0938028 -0.993759 2.07725 207 220 237 
-0.129303 -0.455233 1.91955 13 9 6 
-0.143569 -0.2425 1.85525 94 90 89 
-0.158574 0.00751306 1.78485 59 58 54 
-0.089735 -1.0738 2.07263 195 208 217 
-0.0877051 -1.06096 2.07782 199 207 218 
-0.0838755 -1.01195 2.07198 206 207 235 
-0.148401 0.0998044 1.78905 61 60 58 
-0.078993 -1.0431 2.07011 229 231 255 
-0.0785594 -1.06755 2.07081 9 7 29 
-0.100687 -0.627959 1.96253 58 56 57 
-0.0752273 -0.990649 2.06697 46 46 70 
-0.133776 -0.139076 1.81663 64 62 63 
-0.144707 0.791381 1.74441 58 56 57 
-0.13435 0.285755 1.79022 83 72 66 
-0.0626356 -1.00648 2.07628 197 205 218 
-0.063658 -0.880257 2.03944 96 95 91 
-0.138714 0.874199 1.72721 89 84 81 
-0.0730967 -0.754615 1.99327 21 20 18 
-0.0554263 -0.911627 2.05825 28 24 25 
-0.119196 0.119471 1.78063 19 18 16 
-0.0762539 -0.61206 1.94494 84 80 77 
-0.11647 0.207371 1.77653 7 4 0 
-0.113381 0.0932944 1.78286 21 19 22 
-0.104701 -0.118926 1.79034 73 72 70 
-0.104419 0.311606 1.76882 25 21 18 
-0.0617783 -0.569733 1.92959 98 94 93 
-0.0924881 0.0852148 1.77606 79 77 78 
-0.0723115 -0.223775 1.81168 21 18 13 
-0.0748256 0.076139 1.77469 13 11 12 
-0.0757938 0.211363 1.76904 68 64 61 
-0.0147229 -0.557167 1.94143 22 21 19 
-0.0417032 -0.285928 1.83581 21 19 20 
-0.00794214 -0.519069 1.93331 32 28 27 
-0.0530667 0.121797 1.76841 12 12 12 
-0.051264 0.134785 1.76713 17 16 14 
-0.0449672 -0.1225 1.78158 64 63 61 
-0.045134 0.105266 1.77093 14 12 13 
-0.0251793 -0.245801 1.83006 89 88 86 
-0.0438356 0.00468797 1.76077 71 70 66 
-0.0302041 0.113102 1.77087 26 24 25 
-0.0220313 -0.141459 1.79843 30 29 25 
-0.0303651 0.0399208 1.76 73 74 69 
-0.00753936 0.0487435 1.76406 44 42 43 
0.0239655 -0.256933 1.85451 62 58 59 
0.00163418 0.413211 1.76398 56 52 51 
0.0264948 0.214298 1.77407 10 11 6 
0.0234914 -0.0470225 1.76172 70 69 67 
0.0371716 -0.0595173 1.77712 86 85 83 
0.0512704 -0.113683 1.81213 76 75 73 
0.0450189 -0.0336615 1.77249 29 27 28 
0.0453216 0.725316 1.75769 89 87 90 
0.0584963 0.301743 1.78443 62 60 61 
0.0731846 0.7967 1.76672 75 74 80 
0.0884978 -0.0812872 1.80654 94 93 89 
0.0800564 0.781203 1.76913 98 99 104 
0.0879753 0.769598 1.77207 50 52 49 
0.090366 0.81816 1.7704 48 56 45 
0.0116241 0.955612 1.56865 83 80 73 
-0.258182 0.0493375 1.842 6 5 3 
-0.240192 0.139259 1.84448 77 76 74 
-0.241821 -0.130074 1.86051 82 81 79 
-0.237921 0.0128325 1.82617 5 4 2 
-0.228304 0.099671 1.8316 54 53 51 
-0.227308 0.350215 1.82795 88 84 73 
-0.211488 -0.000895538 1.80551 11 7 4 
-0.201158 -0.173347 1.85289 73 69 66 
-0.19017 -0.424802 1.93047 6 0 0 
-0.170559 0.873931 1.73809 69 62 56 
-0.152303 0.578988 1.77252 66 62 59 
-0.140717 0.504732 1.76961 12 8 5 
-0.110203 0.486357 1.76084 15 14 12 
-0.0997828 0.151464 1.77139 71 66 63 
-0.103122 -1.05525 2.07112 186 193 209 
-0.0912786 0.375145 1.76158 67 66 62 
-0.0845403 -0.90597 2.06535 45 43 46 
-0.0724184 -0.953699 2.02477 88 86 87 
-0.054023 0.247378 1.76178 65 61 60 
-0.289475 0.780938 1.89902 38 35 28 
-0.282924 0.199122 1.90935 73 70 65 
-0.274508 0.314812 1.89594 14 7 0 
-0.270277 0.2103 1.88886 81 78 73 
-0.269701 0.275252 1.88889 28 21 15 
-0.26641 0.669407 1.8709 119 116 107 
-0.263487 0.117753 1.8809 11 10 8 
-0.263151 0.270992 1.87883 87 78 71 
-0.255228 -0.112005 1.87357 81 80 78 
-0.253671 0.202073 1.86508 72 68 59 
-0.249764 0.249435 1.8611 15 12 7 
-0.246961 0.0276201 1.84163 1 0 0 
-0.236594 0.61536 1.84204 16 15 13 
-0.228094 -0.215926 1.88636 88 87 85 
-0.219132 0.33796 1.83012 94 90 79 
-0.200209 -0.33531 1.91258 16 14 15 
-0.202086 0.482507 1.81202 84 81 76 
-0.156354 -0.595885 1.98012 33 32 30 
-0.188257 0.765387 1.78003 81 80 78 
-0.167452 -0.264125 1.87454 88 87 85 
-0.147214 -0.47152 1.934 68 64 63 
-0.168108 -0.125941 1.82931 89 87 88 
-0.134451 -0.932182 1.96311 46 46 74 
-0.106536 -1.06638 2.08075 51 55 82 
-0.160835 -0.103356 1.81247 67 66 62 
-0.0978992 -1.07334 2.0766 189 200 218 
-0.0967934 -0.947107 2.03438 72 72 74 
-0.147852 -0.119264 1.81523 76 76 76 
-0.121484 -0.47456 1.92182 83 79 76 
-0.141126 0.441653 1.79189 97 91 91 
-0.139206 -0.0564071 1.77595 19 17 18 
-0.113826 -0.255542 1.84436 81 80 76 
-0.0574071 -1.06788 2.06226 61 58 113 
-0.100248 -0.379651 1.87881 59 58 56 
-0.122183 0.0991047 1.78304 16 14 15 
-0.0775171 -0.594033 1.94016 93 88 84 
-0.0768524 -0.488665 1.90346 91 87 86 
-0.07187 0.723203 1.73625 12 6 6 
-0.0373276 0.13655 1.77048 58 59 61 
27.2507 2.46559 52.5703 94 106 120 
28.0985 2.36654 53.4744 115 124 139 
28.0622 2.43965 53.0561 170 179 194 
31.9425 2.96775 58.222 113 126 142 
31.6527 2.42423 55.8261 171 183 197 
32.6669 2.79961 55.6217 113 126 142 
33.9598 2.96773 56.0665 162 174 190 
38.0596 3.11222 61.0232 164 176 190 
38.3712 3.12903 61.2118 162 174 188 
-0.378836 0.918018 2.68129 20 23 2 
-0.378666 0.918989 2.66808 69 71 57 
-0.252934 0.932675 2.73012 41 41 39 
-0.210799 0.917523 2.75883 76 72 69 
-0.159352 0.961658 2.77614 55 55 53 
-0.204118 0.996647 2.48705 101 97 86 
-0.0560191 0.957634 2.83608 64 65 60 
-0.138411 0.988835 2.57749 26 24 11 
-0.0102828 0.93243 2.88631 0 2 0 
-0.327074 0.0577011 2.00108 7 6 2 
-0.307163 -0.140428 2.03718 26 24 25 
-0.30742 0.42136 2.01176 82 78 75 
-0.303477 0.560664 2.01473 86 82 71 
-0.299736 -0.157464 2.03566 71 70 66 
-0.26941 -0.279306 2.11148 64 63 59 
-0.303662 0.544154 2.0051 55 48 38 
-0.309133 0.14672 1.99212 5 0 0 
-0.308904 0.16392 1.99144 8 4 1 
-0.310689 0.714505 1.97441 87 86 81 
-0.305628 0.326004 1.99239 10 5 0 
-0.308502 0.17912 1.98739 10 9 5 
-0.304394 0.462409 1.98978 51 51 39 
-0.299866 0.637348 1.98854 32 29 24 
-0.300808 0.494755 1.98886 40 38 26 
-0.304937 0.289693 1.98119 8 3 0 
-0.305066 0.34287 1.97943 86 83 76 
-0.306972 0.158602 1.9783 61 57 54 
-0.30341 0.327449 1.97547 62 60 48 
-0.301316 -0.0972499 1.9881 15 15 15 
-0.302557 0.377801 1.97584 17 13 4 
-0.303786 0.201272 1.97442 51 48 43 
-0.305334 0.729337 1.95773 66 63 58 
-0.297047 0.616676 1.96896 16 12 3 
-0.299619 -0.0946742 1.97318 68 68 68 
-0.300297 0.290425 1.96138 87 84 75 
-0.301205 0.190058 1.95684 4 0 0 
-0.300853 0.0911703 1.95789 56 55 53 
-0.301042 0.170536 1.95288 25 21 18 
-0.296221 0.411445 1.95938 77 77 67 
-0.29846 0.279665 1.95642 7 4 0 
-0.300021 0.267308 1.95065 79 76 69 
-0.297079 0.461674 1.95377 6 0 0 
-0.297093 0.324684 1.95317 6 3 0 
-0.296341 0.361937 1.95103 29 26 19 
-0.29256 0.581872 1.95229 64 61 52 
-0.296602 0.20901 1.93926 8 7 2 
-0.293889 0.30159 1.9434 30 28 16 
-0.292227 0.468813 1.94252 28 25 16 
-0.292501 0.409312 1.93779 75 71 62 
-0.284583 0.581051 1.94435 19 14 11 
-0.292053 0.162244 1.93419 24 20 17 
-0.291921 0.21613 1.93099 7 3 0 
-0.28525 0.537672 1.92604 104 102 90 
-0.29523 0.0474444 1.90936 14 12 13 
-0.284151 0.440731 1.92146 33 28 22 
-0.286175 0.161774 1.92173 4 0 0 
-0.282253 0.357064 1.91604 102 95 87 
-0.281231 0.475118 1.91536 100 97 92 
-0.280782 0.510842 1.91375 90 87 78 
-0.280824 0.460835 1.91373 35 32 23 
-0.282447 0.288362 1.91296 81 77 68 
-0.281027 0.275518 1.91406 60 55 51 
-0.278069 0.538247 1.91358 41 37 28 
-0.276551 0.486754 1.91331 41 37 26 
-0.282729 0.689675 1.89502 25 22 17 
-0.276958 0.29983 1.90017 28 23 20 
-0.272186 0.63351 1.89935 27 25 13 
-0.274874 0.187772 1.89849 9 4 0 
-0.274191 0.272806 1.89846 72 71 66 
-0.270837 0.568193 1.89892 21 19 7 
-0.269819 0.587477 1.89731 41 38 29 
-0.269805 0.598387 1.89479 24 21 12 
-0.272098 0.239085 1.89335 80 77 72 
-0.269754 -0.0896492 1.88134 77 76 74 
-0.264454 0.532447 1.88141 95 91 82 
-0.259799 0.50161 1.87825 96 92 81 
-0.186988 -0.598897 2.05153 30 26 25 
-0.259094 0.28385 1.87627 18 11 5 
-0.256528 0.248712 1.87211 29 25 22 
-0.256214 0.354371 1.87045 82 75 69 
-0.256719 0.661516 1.8603 74 70 67 
-0.253427 0.54621 1.86909 82 78 67 
-0.252925 0.367444 1.86755 12 8 0 
-0.238518 -0.203824 1.90334 18 17 15 
-0.246359 0.551744 1.85928 86 83 74 
-0.254937 -0.0101657 1.85033 12 11 9 
-0.246261 0.184173 1.85971 7 6 4 
-0.252832 0.0615031 1.84799 18 17 15 
-0.248114 0.128178 1.85242 67 66 64 
-0.161771 -0.668759 2.042 29 27 28 
-0.244764 0.657672 1.84552 19 21 20 
-0.240743 0.480649 1.8494 19 16 11 
-0.239919 0.40901 1.84886 72 67 63 
-0.261358 0.882452 1.79711 78 74 65 
-0.227834 -0.20491 1.88328 18 17 15 
-0.192384 -0.428295 1.94833 20 16 15 
-0.234259 0.204914 1.84782 12 7 4 
-0.230246 0.427223 1.84058 15 7 4 
-0.144389 -0.707526 2.03065 81 79 80 
-0.189847 -0.412069 1.93306 91 90 88 
-0.234835 -0.0115455 1.83392 9 9 7 
-0.225678 0.189741 1.84183 27 24 19 
-0.225799 0.17327 1.84093 14 13 11 
-0.134788 -0.726361 2.02689 27 26 24 
-0.221689 0.39946 1.83471 10 8 0 
-0.222334 0.26357 1.83492 107 106 102 
-0.189724 -0.308656 1.90029 56 55 53 
-0.139853 -0.673024 1.99747 116 114 115 
-0.178638 -0.369237 1.91469 84 82 85 
-0.214088 0.089802 1.83219 58 57 55 
-0.140973 -0.636589 1.98612 108 107 105 
-0.119851 -0.765866 2.01729 16 14 17 
-0.151905 -0.504899 1.95043 37 33 30 
-0.21026 0.518695 1.82093 33 26 16 
-0.210498 -0.0835669 1.82843 22 22 22 
-0.2007 -0.114877 1.84207 89 87 88 
-0.184353 -0.23021 1.87335 17 16 14 
-0.211983 0.0143421 1.81479 65 64 62 
-0.233698 0.901508 1.75837 51 50 46 
-0.130598 -0.623263 1.97873 45 41 38 
-0.112886 -0.74576 2.00827 84 83 79 
-0.0805825 -0.949459 2.07164 24 24 24 
-0.0797757 -1.01758 2.06836 225 227 252 
-0.195834 -0.0990262 1.82879 28 26 27 
-0.0696389 -1.06916 2.06509 228 235 255 
-0.0856045 -0.941127 2.03034 83 81 82 
-0.188655 0.454444 1.80605 4 1 0 
-0.105259 -0.635649 1.97222 81 77 74 
-0.150101 -0.309161 1.88065 81 79 80 
-0.115605 -0.551794 1.94489 67 61 61 
-0.110562 -0.520805 1.9371 96 92 89 
-0.169918 0.176121 1.80394 62 60 61 
-0.132559 -0.268776 1.85764 61 59 60 
-0.166835 0.715925 1.76752 22 20 21 
-0.136287 -0.189904 1.83284 90 84 84 
-0.157864 -0.00269707 1.78529 12 11 9 
-0.150837 0.098672 1.79326 1 0 0 
-0.115747 -0.218093 1.83401 81 80 78 
-0.13439 0.29465 1.79325 82 74 72 
-0.145113 0.00791789 1.7787 70 69 67 
-0.139722 -0.056389 1.77545 15 15 15 
-0.0974742 -0.216521 1.82241 39 38 34 
-0.118967 0.119651 1.78101 26 22 21 
-0.060635 -0.444801 1.88665 79 75 72 
-0.115473 0.207864 1.7782 16 12 11 
-0.117059 -0.0395845 1.76449 68 66 67 
-0.0920795 -0.172592 1.80545 65 64 62 
-0.107106 0.257263 1.77278 65 61 58 
-0.103166 0.137646 1.77722 64 63 61 
-0.102672 0.294344 1.77151 66 62 61 
-0.0989998 0.328605 1.76921 9 5 2 
-0.0740959 -0.221848 1.81264 71 66 62 
-0.0739225 -0.140926 1.78742 24 23 21 
-0.079586 0.109408 1.77456 55 54 52 
-0.0784957 0.186913 1.77166 3 0 0 
-0.0936812 0.779857 1.73852 61 59 60 
-0.0751351 0.0763244 1.77419 4 4 4 
-0.0756076 0.211879 1.76933 66 62 59 
-0.0729176 0.163726 1.77085 68 67 65 
-0.0732629 0.0399836 1.76247 43 43 43 
-0.0627243 0.277833 1.76765 61 57 54 
-0.0602222 0.112374 1.77151 59 57 58 
-0.0595508 0.180825 1.77088 16 15 13 
-0.0557313 0.0854446 1.77259 67 63 64 
-0.0490176 0.153793 1.76963 21 20 18 
-0.0461977 0.0216888 1.76101 10 10 10 
-0.0359869 0.0756875 1.77373 7 6 4 
-0.0277659 0.0974099 1.77549 65 63 64 
-0.0228922 0.130114 1.7727 15 15 15 
0.0362392 -0.311726 1.86599 22 18 19 
-0.0127407 0.362583 1.76395 57 56 54 
-0.00873112 -0.0611448 1.76228 95 94 90 
0.0881729 -0.0729077 1.80749 88 87 83 
0.0281243 0.907097 1.66503 22 21 17 
0.0380583 0.894105 1.66904 67 66 62 
0.0215374 0.9317 1.61211 14 14 12 
0.690344 0.933649 2.18174 44 46 43 
0.801307 0.869527 2.20475 5 6 1 
-0.222767 0.555026 1.82734 78 70 59 
-0.189151 0.0115831 1.79572 0 0 0 
-0.175895 0.779071 1.76673 59 57 58 
-0.0880865 -1.09324 2.06844 27 30 61 
-0.270136 0.00321673 1.86958 67 66 64 
-0.220904 0.629504 1.83127 22 18 15 
-0.214826 0.595414 1.82642 16 15 11 
-0.196632 0.407536 1.81497 17 9 0 
-0.159593 0.592624 1.78791 22 21 19 
-0.0800808 -0.943277 2.07278 21 21 23 
0.234104 -0.0541219 1.6952 206 210 221 
-0.302604 0.279936 1.97429 7 4 0 
-0.303065 0.219641 1.96914 32 27 21 
-0.292463 0.570669 1.95922 8 0 0 
-0.299985 0.0922246 1.94996 46 45 43 
-0.293986 0.278685 1.94379 6 0 0 
-0.290586 0.456093 1.94361 97 93 82 
-0.287769 0.527194 1.94261 115 112 103 
-0.28795 0.278458 1.93044 10 7 0 
-0.269047 -0.192191 1.98172 24 23 21 
-0.283897 0.380257 1.92476 78 74 65 
-0.277731 0.414467 1.91166 40 37 28 
-0.274072 0.576485 1.91187 77 74 65 
-0.282233 0.0535128 1.89036 61 59 60 
-0.268367 0.501492 1.8982 18 11 1 
-0.266201 0.436586 1.89293 97 94 85 
-0.206542 -0.474849 2.02211 27 23 20 
-0.260109 0.642393 1.88399 80 77 68 
-0.261087 0.177433 1.88635 37 36 32 
-0.259968 0.69029 1.86055 24 21 16 
-0.259696 0.720998 1.86039 75 72 67 
-0.256205 0.170039 1.87591 88 84 81 
-0.254882 0.33216 1.87584 67 63 54 
-0.252188 0.610114 1.87297 16 13 6 
-0.254018 0.141676 1.87495 8 7 5 
-0.253978 0.220017 1.87322 20 15 9 
-0.248355 0.386776 1.86855 25 17 14 
-0.248434 0.289958 1.86707 16 12 3 
-0.254054 0.797901 1.84089 63 59 58 
-0.246616 0.208812 1.86418 65 60 54 
-0.244207 0.259406 1.86296 22 17 14 
-0.248883 0.698077 1.84339 25 25 25 
-0.241349 0.448795 1.85705 49 47 35 
-0.201828 -0.357471 1.9252 67 66 64 
-0.222716 0.3281 1.83878 58 54 51 
-0.218964 0.274094 1.83619 71 66 62 
-0.204775 0.212029 1.82721 20 16 13 
-0.12066 -0.542688 1.94484 25 21 22 
-0.167 0.000155243 1.79153 64 62 63 
-0.0919926 -0.464604 1.90753 25 21 18 
-0.0994159 -0.256489 1.84131 101 100 98 
-0.0917519 -0.119433 1.78943 74 72 73 
-0.482098 0.962233 1.82054 46 46 38 
-0.36778 0.94862 1.97385 68 67 65 
-0.304688 0.309933 2.07168 64 63 58 
-0.311118 0.233571 2.03498 64 59 55 
-0.305272 -0.146939 2.05059 65 64 62 
-0.300758 0.381031 2.04414 76 76 66 
-0.30808 0.285658 2.03416 73 72 68 
-0.304864 0.338789 2.03371 64 61 56 
-0.303326 0.390542 2.03459 14 10 0 
-0.310384 0.165079 2.02822 21 18 13 
-0.30725 0.348464 2.02799 81 81 71 
-0.306099 0.398179 2.02805 63 59 50 
-0.308147 0.281871 2.0232 23 22 18 
-0.30578 0.321513 2.02305 34 31 26 
-0.305222 0.306102 2.02072 6 5 0 
-0.310772 0.152164 2.01551 75 71 68 
-0.309917 0.173 2.01528 69 65 62 
-0.302865 0.431255 2.01667 75 72 65 
-0.30763 0.284883 2.01126 79 76 69 
-0.303938 0.395572 2.01364 28 28 16 
-0.302099 0.447513 2.0089 78 74 63 
-0.308289 0.170317 2.00443 45 41 38 
-0.309044 0.227775 1.98996 83 82 77 
-0.297235 0.543855 1.99753 112 108 96 
-0.321514 -0.0431885 1.97626 75 73 74 
-0.300469 0.422302 1.98711 79 75 66 
-0.299877 0.365554 1.98384 29 25 16 
-0.295891 0.439095 1.98099 93 91 79 
-0.297474 0.415131 1.97629 24 20 11 
-0.294846 0.583725 1.97452 90 87 80 
-0.297911 0.383813 1.97195 78 74 65 
-0.304298 0.234383 1.96563 66 65 60 
-0.293748 0.476639 1.97326 26 24 12 
-0.300348 0.10747 1.96362 29 28 24 
-0.290259 0.558246 1.96402 77 73 61 
-0.297955 0.199174 1.95895 87 86 82 
-0.293721 0.433603 1.95925 56 47 38 
-0.294286 0.306125 1.96067 93 89 80 
-0.292958 0.674571 1.949 86 82 79 
-0.288076 0.445217 1.95153 80 76 67 
-0.291153 0.320734 1.93954 70 61 54 
-0.285164 0.509438 1.94172 16 12 3 
-0.254668 -0.302673 1.9944 69 57 57 
-0.195975 -0.573329 2.06871 12 10 11 
-0.284743 0.73976 1.92039 95 92 85 
-0.286467 0.2267 1.92271 66 63 58 
-0.277335 0.526948 1.92484 40 37 28 
-0.1838 -0.6008 2.05542 27 23 22 
-0.293325 0.050028 1.90794 51 50 48 
-0.276607 0.332354 1.91947 88 85 80 
-0.27229 0.552266 1.91529 22 19 10 
-0.27549 0.36259 1.91511 38 35 26 
-0.276378 0.700783 1.89495 29 25 22 
-0.272521 0.273067 1.90041 70 67 62 
-0.265668 0.536366 1.90091 87 85 73 
-0.157378 -0.671242 2.04718 36 34 35 
-0.262308 0.383173 1.89439 22 18 9 
-0.24868 -0.180136 1.91751 73 72 70 
-0.121412 -0.958135 2.08008 76 74 79 
-0.258083 0.570401 1.89158 38 35 26 
-0.142463 -0.722756 2.04731 79 78 76 
-0.254755 0.55813 1.88452 40 29 23 
-0.258293 0.314769 1.8839 6 1 0 
-0.252071 0.479824 1.88315 81 74 66 
-0.251679 0.579574 1.87873 38 35 26 
-0.254571 0.377404 1.87934 27 18 11 
-0.141294 -0.695163 2.02664 79 75 74 
-0.157363 -0.606694 2.00546 83 79 76 
-0.181039 -0.48952 1.97604 76 72 71 
-0.253227 0.249298 1.87584 38 33 29 
-0.13599 -0.708321 2.02094 33 32 30 
-0.244433 0.635394 1.87161 22 18 9 
-0.249702 0.357488 1.87044 36 32 21 
-0.250125 0.152151 1.87278 22 18 15 
-0.246968 0.369587 1.86988 9 6 1 
-0.26196 0.839712 1.84351 61 61 61 
-0.243596 0.577845 1.86685 30 26 17 
-0.0798803 -1.02071 2.07743 229 229 255 
-0.0803854 -1.09053 2.07661 226 230 255 
-0.246569 0.244839 1.86422 85 82 77 
-0.132481 -0.69659 2.00809 28 26 29 
-0.0754974 -1.01127 2.07638 43 37 81 
-0.238624 0.498189 1.86352 86 79 69 
-0.166978 -0.493463 1.95664 36 32 31 
-0.25022 0.0638608 1.85319 58 57 55 
-0.239434 0.660879 1.85136 22 24 19 
-0.242592 0.691277 1.84703 15 15 13 
-0.238322 0.28361 1.8585 4 0 0 
-0.224605 -0.192002 1.88253 37 35 36 
-0.238991 0.184972 1.85906 68 67 63 
-0.127818 -0.676978 1.9974 80 78 79 
-0.0628893 -0.312306 2.0616 9 8 6 
-0.0841866 -0.945712 2.03671 27 26 31 
-0.202869 -0.259653 1.89168 30 26 23 
-0.107342 -0.697706 1.99568 90 88 91 
-0.22154 0.422153 1.84476 9 2 0 
-0.22204 0.321726 1.8423 32 28 25 
-0.0634316 -0.95962 2.03459 87 85 88 
-0.217907 0.413874 1.83736 92 85 79 
-0.0457 -0.941908 2.04611 23 21 35 
-0.0529616 -0.964489 2.03806 40 40 38 
-0.197502 -0.160302 1.86261 90 89 87 
-0.219028 0.761652 1.82211 17 16 14 
-0.210442 0.525265 1.83286 90 81 72 
-0.0987979 -0.637133 1.97339 103 99 96 
-0.211548 0.0889757 1.83726 8 7 5 
-0.190891 -0.184977 1.86424 93 92 90 
-0.201066 0.458532 1.82607 23 19 10 
-0.199821 0.375857 1.82484 84 80 71 
-0.182987 -0.142209 1.84701 53 51 52 
-0.199216 0.250672 1.82169 63 58 54 
-0.188087 0.199353 1.82045 22 16 16 
-0.0746555 -0.58937 1.94267 88 84 81 
-0.169471 0.176319 1.80439 63 62 60 
-0.0700035 -0.45792 1.8958 99 95 92 
-0.151812 0.0424284 1.78292 62 61 59 
-0.108547 -0.128593 1.80575 85 85 87 
-0.108726 0.442404 1.77643 14 13 11 
-0.0989417 0.174451 1.78314 72 71 69 
-0.0856767 -0.136833 1.79901 30 29 27 
-0.114499 -0.0392058 1.76687 64 64 62 
-0.0811295 0.371872 1.77135 63 62 60 
-0.0755377 -0.0991763 1.77512 73 73 75 
-0.0562096 0.258438 1.77281 63 59 58 
-0.0256549 0.152101 1.77757 54 52 53 
0.750527 0.981005 1.87017 21 16 13 
-0.365357 -0.0155729 2.21051 30 30 32 
-0.291734 0.0692948 1.72895 209 216 222 
-0.235693 0.0571483 1.98391 50 50 50 
-0.184288 -0.00404403 1.80177 66 66 64 
-0.216547 -0.167844 1.87945 11 9 10 
-0.212519 0.544875 1.83648 31 27 16 
-0.0766563 -0.327338 2.06429 38 36 37 
-0.287331 0.0181417 1.91481 79 78 76 
-0.144387 0.286855 1.81293 93 73 74 
-0.24616 -0.326918 2.21624 30 34 37 
-0.278541 0.587943 2.12318 99 98 94 
-0.270662 -0.254158 2.13155 69 68 64 
-0.302647 0.172245 2.04941 23 19 16 
-0.296675 0.416772 2.04004 25 21 12 
-0.293631 -0.145783 2.05203 14 13 11 
-0.296193 0.383457 2.02485 33 30 21 
-0.299593 0.269408 2.02098 19 18 13 
-0.297117 0.297391 2.01434 76 73 64 
-0.275432 -0.213289 2.05192 65 61 58 
-0.290625 0.539024 2.01566 32 28 19 
-0.299363 0.151556 2.01122 70 69 65 
-0.297826 0.248364 2.0105 73 72 67 
-0.29879 0.125432 2.00379 15 14 12 
-0.292584 0.410742 1.99378 22 19 12 
-0.285986 0.605443 1.98267 36 33 28 
-0.285701 0.469839 1.97551 83 74 65 
-0.309305 -0.0277917 1.95278 68 68 68 
-0.285907 0.187174 1.96011 27 23 20 
-0.284972 0.160801 1.9572 87 83 80 
-0.266445 -0.144012 1.98368 86 84 85 
-0.211382 -0.45556 2.05523 37 36 31 
-0.283898 0.685707 1.94015 78 77 73 
-0.258485 -0.182132 1.98812 84 83 79 
-0.278551 0.40141 1.94783 15 11 2 
-0.27637 0.47849 1.94791 42 41 37 
-0.275107 0.505704 1.94226 33 30 23 
-0.20354 -0.469603 2.04918 72 68 67 
-0.285925 0.00589126 1.92494 65 64 62 
-0.272548 0.327348 1.93255 83 78 72 
-0.19735 -0.464945 2.03173 83 79 78 
-0.272784 0.191536 1.92744 75 72 67 
-0.267204 0.437839 1.92509 86 82 79 
-0.269008 0.303378 1.92258 24 20 11 
-0.262509 0.475291 1.91657 45 42 37 
-0.260766 0.55281 1.91582 38 31 23 
-0.246153 -0.16429 1.94307 27 25 26 
-0.263587 0.230592 1.91316 10 7 2 
-0.25583 0.563225 1.90532 34 31 22 
-0.25287 0.498668 1.90105 33 24 15 
-0.245797 -0.130662 1.91829 84 83 79 
-0.254344 0.672335 1.88936 85 80 76 
-0.255597 0.0156066 1.88037 57 56 54 
-0.237383 0.311588 1.87959 29 22 16 
-0.242354 0.756346 1.86007 13 12 8 
-0.231657 0.389041 1.86872 88 83 77 
-0.245615 0.824509 1.84203 64 63 61 
-0.227959 0.678337 1.84905 29 29 29 
-0.197549 0.431864 1.83565 27 18 9 
-0.200831 0.747122 1.81614 27 26 24 
-0.196042 0.885833 1.78909 73 68 64 
-0.075192 -0.445532 1.90656 79 75 74 
0.122558 0.974665 2.95616 73 72 68 
-0.173989 1.00233 2.5967 121 121 109 
-0.182538 1.01198 2.51181 96 89 79 
-0.272542 1.01694 2.34852 91 88 79 
-0.237951 1.01524 2.37456 24 21 12 
-0.413749 1.00604 2.14829 90 88 76 
-0.18185 -0.0162943 2.30846 30 30 40 
-0.290166 0.959806 2.19374 54 53 51 
-0.278949 0.0642943 2.18112 78 78 78 
-0.258383 0.828505 2.18057 18 18 18 
-0.287624 0.856723 2.13252 82 82 80 
-0.244141 -0.133576 2.17786 64 62 63 
-0.281219 0.829059 2.12636 7 2 6 
-0.270085 0.802268 2.13176 90 88 89 
-0.278436 0.802305 2.1142 17 15 16 
-0.261151 -0.144988 2.14659 27 26 22 
-0.279745 0.228997 2.11996 73 72 68 
-0.268866 0.635173 2.11645 111 105 105 
-0.281696 0.257953 2.10899 64 63 61 
-0.105615 -0.432586 2.26126 198 206 217 
-0.275259 0.671099 2.10201 91 90 88 
-0.28155 0.341958 2.09883 96 92 89 
-0.28604 0.182233 2.09327 17 17 9 
-0.288491 0.199888 2.08812 53 52 48 
-0.288521 0.232649 2.07843 21 20 15 
-0.28221 0.423778 2.07825 77 72 68 
-0.28971 0.191147 2.07162 60 59 54 
-0.287704 0.281405 2.06932 68 68 58 
-0.28762 0.248487 2.06326 76 77 71 
-0.289941 0.159857 2.06157 67 64 59 
-0.290483 0.189957 2.05771 79 80 74 
-0.284185 0.272204 2.05896 12 12 2 
-0.270929 -0.195133 2.07099 53 53 51 
-0.28738 0.433287 2.04481 21 18 13 
-0.285425 0.38816 2.04288 4 0 0 
-0.282576 0.271305 2.04697 34 30 21 
-0.170069 -0.475989 2.14554 0 0 4 
-0.278997 0.441921 2.0447 64 61 52 
-0.282941 0.492853 2.03657 76 73 68 
-0.284245 0.424502 2.03647 5 1 0 
-0.288368 0.255621 2.03257 85 81 78 
-0.202933 -0.439611 2.10304 83 81 82 
-0.285319 0.320937 2.02701 78 77 72 
-0.287094 0.122375 2.02846 9 5 2 
-0.284403 -0.103652 2.03159 60 58 59 
-0.282718 0.469945 2.02141 36 33 26 
-0.286192 0.263153 2.02046 77 74 69 
-0.134686 -0.619864 2.14571 19 19 29 
-0.282866 0.401942 2.01539 92 89 80 
-0.287475 0.744507 2.00201 63 59 56 
-0.2787 0.479624 2.01341 99 97 84 
-0.283592 -0.0967161 2.02082 81 81 81 
-0.286059 0.220442 2.01098 68 65 58 
-0.200116 -0.438382 2.07271 25 21 18 
-0.282824 0.215378 1.99893 18 13 7 
-0.27613 0.441819 1.98528 100 93 85 
-0.273813 0.597196 1.97987 47 43 34 
-0.276911 0.321697 1.97888 14 10 1 
-0.47543 0.973421 1.82651 38 35 26 
-0.274414 0.383917 1.97827 32 25 17 
-0.275109 0.175958 1.97927 68 67 63 
-0.276455 0.23163 1.9748 78 77 72 
-0.279373 0.778616 1.95666 68 63 59 
-0.275664 0.682408 1.96087 82 79 74 
-0.268287 0.484122 1.9689 91 86 82 
-0.249649 -0.156611 1.99301 71 70 68 
-0.268976 0.496223 1.96186 43 41 29 
-0.174628 -0.496862 2.0454 25 21 18 
-0.270071 0.294386 1.96184 76 72 63 
-0.270368 0.377447 1.95987 26 23 16 
-0.269378 0.354445 1.9585 15 11 2 
-0.260538 -0.108162 1.97083 68 67 65 
-0.0868774 -0.96142 2.10413 40 35 39 
-0.274948 0.705355 1.94278 76 75 71 
-0.269457 0.273978 1.95392 19 15 6 
-0.267292 0.447809 1.95115 21 12 5 
-0.268429 0.181164 1.95377 2 1 0 
-0.263895 0.3707 1.94706 110 108 96 
-0.273616 0.743612 1.9294 38 33 29 
-0.168341 -0.492663 2.02185 26 22 21 
-0.264176 0.111557 1.94419 3 0 0 
-0.25227 0.588955 1.943 26 21 18 
-0.259245 0.566319 1.93538 34 30 18 
-0.240062 -0.151383 1.96045 84 83 81 
-0.262062 0.371261 1.93572 82 78 69 
-0.108773 -0.745084 2.0584 76 72 71 
-0.0282271 -1.0287 2.11182 230 234 255 
-0.265821 -0.0696089 1.93589 64 63 61 
-0.135894 -0.611197 2.03111 95 91 88 
-0.258649 0.254056 1.93107 85 80 74 
-0.25301 0.369875 1.91806 77 74 65 
-0.150919 -0.521131 1.99978 72 69 64 
-0.169342 -0.433364 1.98361 83 79 76 
-0.251379 0.104781 1.92015 90 86 85 
-0.155625 -0.474006 1.98235 67 63 60 
-0.243666 0.557096 1.90299 35 31 22 
-0.2425 0.586237 1.9031 29 26 17 
-0.243212 0.252155 1.90554 81 78 73 
-0.241167 0.133454 1.90444 103 99 96 
-0.235879 0.565242 1.89632 29 24 18 
-0.144559 -0.481607 1.96926 8 4 3 
-0.237781 0.190704 1.89833 3 0 0 
-0.2376 0.484376 1.89216 88 81 71 
-0.233433 0.586756 1.89004 35 32 23 
-0.178023 -0.341226 1.93532 5 3 4 
-0.231346 0.151338 1.89103 12 8 5 
-0.0801424 -0.64734 1.99314 73 69 66 
-0.227148 0.392227 1.88152 36 33 28 
-0.229304 0.66913 1.86993 18 15 10 
-0.222026 0.290656 1.8777 74 70 61 
-0.211904 -0.152386 1.89011 31 30 28 
-0.218896 0.575147 1.86812 42 41 39 
-0.234935 -0.0505534 1.86923 18 16 17 
-0.203543 -0.170769 1.88989 25 24 20 
-0.227488 0.0841834 1.86939 5 4 2 
-0.237861 -0.0336079 1.86416 77 75 76 
-0.225501 0.699228 1.85721 28 30 27 
-0.209537 -0.117226 1.8744 27 25 26 
-0.206768 0.566053 1.85812 25 20 14 
-0.216738 0.000203588 1.85689 4 3 1 
-0.237573 0.896378 1.81788 101 95 83 
-0.0770634 -0.483709 1.93415 95 91 88 
-0.195928 0.539981 1.84323 82 82 70 
-0.190804 0.0866295 1.84999 59 57 58 
-0.203349 0.767825 1.82943 19 15 14 
-0.189317 0.143605 1.84652 66 65 63 
-0.180476 0.215324 1.841 28 24 23 
-0.183478 0.453908 1.83397 36 33 26 
-0.180302 -0.0108353 1.82545 52 52 52 
-0.168829 0.507065 1.82278 73 72 68 
-0.140992 -0.128181 1.84582 91 89 90 
-0.0781333 -0.325475 1.88032 82 80 81 
-0.154507 0.19549 1.82193 67 63 62 
-0.0859162 -0.259711 1.86146 81 79 80 
-0.162368 0.0431803 1.81092 67 66 64 
-0.110044 -0.165728 1.84145 59 57 58 
-0.0588891 -0.317222 1.86751 22 21 19 
-0.0878194 -0.219262 1.85021 100 99 97 
-0.160623 0.735867 1.79343 36 35 31 
-0.0717891 -0.26075 1.85623 93 91 92 
-0.171065 0.82945 1.78435 56 57 59 
-0.163701 0.805785 1.78817 64 62 63 
-0.0703599 -0.223297 1.84137 104 103 99 
-0.146279 0.778089 1.78368 17 15 16 
-0.109787 0.296278 1.80887 83 73 74 
-0.114923 -0.0952587 1.81228 102 102 104 
-0.104616 -0.1078 1.81611 90 90 90 
-0.127072 0.0430902 1.7958 67 66 64 
-0.120323 0.00839222 1.79411 71 69 70 
-0.096227 0.16991 1.79901 79 74 71 
-0.0386362 0.127014 1.78774 89 89 91 
-0.00102859 0.915917 1.68037 38 37 33 
-0.0331241 0.96958 1.63844 83 82 77 
-0.260805 0.849842 1.7276 59 55 46 
-0.318043 0.0518364 1.89469 16 23 33 
-0.200365 0.786235 1.70938 51 51 51 
-0.179985 0.292239 1.73309 66 62 51 
-0.166474 0.427537 1.73488 83 80 75 
-0.140665 0.0903086 1.71551 26 26 26 
-0.156706 -0.181427 1.76611 105 104 102 
-0.174833 -0.407681 1.85079 80 77 72 
-0.103128 0.0353456 1.69254 2 2 2 
-0.0797704 0.26048 1.69704 70 69 65 
-0.0741189 0.128939 1.69905 13 11 12 
-0.137051 -0.654284 1.91474 36 35 40 
-0.0630954 -0.199276 1.72759 79 75 72 
-0.0450346 -0.0385495 1.67903 74 74 74 
-0.0479098 -0.16138 1.72351 24 23 21 
-0.106716 -0.927967 1.94174 222 229 245 
-0.043456 -0.314812 1.75446 68 67 65 
-0.0256772 -0.00883322 1.68874 15 13 14 
-0.0717895 -0.597553 1.8624 87 84 79 
-0.0600671 -0.53209 1.8409 83 84 79 
-0.0220515 0.0780673 1.70066 2 0 1 
-0.0510538 -0.456922 1.8209 81 74 66 
-0.0893114 -0.99613 1.97727 221 228 247 
-0.0771374 -0.799085 1.93075 28 25 20 
-0.0745399 -0.808888 1.9338 36 33 28 
0.0216041 0.857718 1.59826 67 64 59 
-0.0706928 -0.94625 1.97626 227 236 251 
0.00642879 0.738301 1.66881 16 15 13 
0.00277617 -0.0562874 1.68763 61 57 56 
-0.058892 -0.803158 1.93892 85 80 77 
-0.0578125 -0.817985 1.94242 100 96 93 
-0.0370933 -0.56209 1.85855 26 25 23 
0.00519247 0.145816 1.70508 9 7 8 
-0.0390204 -0.643572 1.88822 80 76 75 
0.0172313 0.79026 1.65894 14 10 7 
0.0153171 0.721333 1.67757 14 12 13 
0.0162673 0.6653 1.68046 11 11 11 
-0.0205302 -0.480241 1.83927 81 77 76 
0.0140694 -0.0597086 1.69692 31 28 23 
-0.00246081 -0.250884 1.76967 13 12 10 
0.0158371 -0.00141556 1.69645 77 75 76 
-0.0202857 -0.518588 1.85449 79 79 77 
-0.0163641 -0.466367 1.84028 78 74 71 
-0.0210947 -0.552518 1.86591 26 22 21 
0.0231427 0.775562 1.68977 55 55 55 
0.0082918 -0.322538 1.77826 61 53 51 
0.0258494 -0.0706466 1.70461 84 80 77 
0.0384222 0.587457 1.67816 62 61 59 
0.0350432 0.102194 1.7156 13 13 13 
0.0225253 -0.231989 1.77157 75 74 72 
0.00630141 -0.50688 1.85768 50 46 37 
0.0427325 0.740592 1.69599 60 60 58 
0.0435634 0.670848 1.6932 0 0 4 
0.0454105 0.619852 1.68537 14 12 13 
0.0405445 0.400393 1.71298 42 41 36 
0.0116536 -0.484682 1.85405 40 37 30 
0.0466163 0.135791 1.71766 61 59 60 
0.054253 0.650334 1.69603 18 19 37 
0.0564554 0.6379 1.69812 16 16 28 
0.0381337 -0.307061 1.7883 68 69 63 
0.061341 0.746901 1.70133 12 12 14 
0.0772529 0.857904 1.63745 17 13 10 
0.0100366 -0.645238 1.96581 20 20 32 
0.0602996 0.141789 1.72631 74 72 73 
0.0653667 0.727627 1.70231 56 57 59 
0.0681408 0.798625 1.70278 9 16 9 
0.0707727 0.704959 1.70237 58 58 56 
0.071459 0.64226 1.70329 66 68 83 
0.0743089 0.611339 1.6942 69 68 66 
0.0711014 -0.0205854 1.72005 8 7 5 
0.0757003 0.667754 1.70365 2 2 4 
0.0634864 -0.249598 1.79476 26 25 23 
0.0828452 0.646543 1.70796 12 12 12 
0.080711 -0.0325101 1.72094 4 3 1 
0.0689791 -0.223162 1.78568 54 53 51 
0.084119 0.758532 1.70788 3 2 7 
0.072447 -0.260646 1.80262 61 57 54 
0.082521 -0.177702 1.77707 83 81 82 
0.0826205 -0.215319 1.78936 79 78 76 
0.102308 -0.0328946 1.73125 34 33 31 
0.0977731 -0.135931 1.76757 85 84 80 
0.107913 -0.0419247 1.73437 93 92 88 
0.134729 0.0309585 1.76876 2 1 0 
0.148954 -0.0200513 1.78581 88 87 85 
0.117173 -0.421925 2.02369 11 12 30 
0.287595 0.923126 1.58569 47 43 34 
-0.800935 0.939785 2.35812 7 8 3 
-0.73588 0.919465 2.4193 78 81 70 
-0.136438 0.854122 1.68916 59 58 56 
-0.112027 0.339151 1.72665 16 13 8 
-0.0580879 0.35758 1.71916 17 16 14 
-0.0558462 -0.185819 1.75978 34 33 31 
-0.0242761 -0.0935045 1.73495 71 67 64 
0.0309644 0.617248 1.70635 67 66 64 
0.0442187 0.710551 1.72333 1 1 1 
0.0455974 0.748419 1.72371 16 17 22 
0.0536599 0.716319 1.72684 58 58 56 
-0.100789 -0.883335 2.03713 218 222 225 
3.99163 5.19059 30.539 108 115 108 
-0.40545 -0.00840522 2.11278 219 223 234 
-0.0970621 -1.04614 2.06367 50 54 91 
-0.0825371 -0.953827 2.06207 95 93 94 
-1.11212 1.10087 2.49567 3 0 0 
-1.08929 1.11842 2.49104 6 12 0 
-1.09937 1.10843 2.50452 22 20 23 
-1.14094 1.08648 2.58221 72 71 66 
-1.12956 1.09391 2.57795 9 8 6 
-1.12626 1.06456 2.60402 14 13 8 
-0.839685 1.06838 2.22567 146 138 125 
-1.07277 1.10092 2.53815 63 63 51 
-1.10202 1.07686 2.60059 57 56 54 
-1.05083 1.11073 2.53754 71 71 63 
-1.0612 1.10205 2.55274 25 22 13 
-1.0898 1.08706 2.60596 62 62 60 
-1.07549 1.05547 2.60285 1 1 0 
-0.571106 1.0136 1.93087 183 186 169 
-1.04787 1.05142 2.61979 57 56 52 
-1.04751 1.05843 2.62758 10 9 5 
-1.02501 1.06173 2.63441 59 60 55 
-0.955047 1.05388 2.65908 8 9 3 
-0.836556 1.01054 2.54017 103 99 100 
-0.791973 1.00711 2.50873 14 14 14 
-0.781798 1.00298 2.53324 11 9 10 
-0.732497 1.07936 2.472 29 25 14 
-0.655071 1.07416 2.36379 107 104 89 
-0.775812 1.00219 2.56119 124 122 123 
-0.321657 0.924673 1.88874 83 78 72 
-0.6629 1.07775 2.47093 23 19 7 
-0.253489 0.852252 1.8559 52 50 51 
-0.159754 0.977738 1.69078 67 63 51 
-0.231836 0.917146 1.81943 78 71 61 
-0.301867 0.248212 1.94815 17 13 10 
-0.357478 0.0698136 2.04679 43 41 42 
-0.300282 0.293088 1.94929 81 80 75 
-0.271311 0.0117316 1.89984 8 7 3 
-0.284649 -0.0848586 1.92485 84 84 84 
-0.182097 0.958002 1.75714 59 58 53 
-0.235555 0.0458609 1.87155 65 64 62 
-0.224263 0.0504478 1.86408 6 5 3 
-0.240944 0.103692 1.89449 7 6 4 
-0.233378 0.320095 1.88645 76 68 65 
-0.185668 0.909707 1.80233 93 86 80 
-0.206117 0.0454138 1.8538 67 63 62 
-0.105387 0.985101 1.6693 97 93 84 
-0.209031 0.241831 1.87084 31 26 20 
-0.19632 0.107202 1.86735 72 74 73 
-0.256869 -0.271322 1.9833 30 29 27 
-0.168281 -0.0406118 1.83325 77 77 77 
-0.165945 0.686473 1.8317 87 85 86 
-0.175016 0.192957 1.85425 69 65 62 
-0.173142 0.179168 1.85251 22 18 15 
-0.16688 0.000775379 1.84143 28 26 27 
-0.185273 -0.110681 1.87845 98 94 95 
-0.127016 0.913532 1.76494 78 74 63 
-0.172299 0.379766 1.85513 64 61 54 
-0.163662 0.217488 1.84768 13 9 6 
-0.162618 0.241999 1.84732 27 26 21 
-0.160794 0.340345 1.84631 82 78 75 
-0.155564 0.0244228 1.83898 4 4 4 
-0.045751 0.982689 1.62817 94 90 81 
-0.151435 0.0429319 1.84009 60 56 55 
-0.0861085 0.962528 1.71181 24 23 19 
-0.148077 0.529226 1.83964 20 19 17 
-0.148303 0.344053 1.84033 27 23 20 
-0.150325 0.142019 1.84915 20 18 19 
-0.147493 0.286889 1.84424 79 75 72 
-0.225225 -0.363099 1.99894 103 102 100 
-0.145722 0.156279 1.84885 27 23 24 
-0.235043 -0.417187 2.0288 32 28 25 
-0.0887635 0.909294 1.74117 68 67 62 
-0.138991 0.222466 1.84763 73 70 65 
-0.137618 0.0827029 1.84627 72 72 72 
-0.199832 -0.33828 1.97761 87 86 84 
-0.153333 -0.187152 1.88768 23 19 16 
-0.128553 0.158795 1.84426 84 80 79 
-0.125687 0.189788 1.84389 29 26 21 
-0.125874 0.100043 1.8459 92 90 91 
-0.0941441 0.880963 1.78293 62 62 62 
-0.116629 0.114077 1.84341 4 2 3 
-0.116473 0.141698 1.84328 28 26 27 
-0.112351 0.243709 1.83678 101 96 93 
-0.111975 0.268438 1.83993 70 66 65 
-0.111319 0.186729 1.83985 64 60 57 
-0.106858 0.0974682 1.84565 9 7 8 
-0.0982532 0.0206521 1.83108 58 58 58 
-0.195013 -0.500342 2.03633 18 17 15 
-0.100967 0.0901382 1.84025 71 69 70 
-0.0964875 0.340314 1.83059 77 73 70 
-0.16119 -0.386267 1.96656 105 103 104 
-0.00161225 0.966824 1.6356 75 71 68 
-0.0930852 0.582193 1.82681 18 17 15 
-0.012417 0.958868 1.65923 17 17 15 
-0.0980443 0.195921 1.84004 1 0 0 
-0.14404 -0.323647 1.93833 88 84 81 
-0.0895559 0.382707 1.83179 18 16 17 
-0.0855595 0.0128457 1.82983 0 0 0 
-0.0976801 -0.14701 1.86179 13 9 8 
0.0139072 0.971727 1.62681 83 82 78 
-0.0843674 0.121939 1.84085 34 33 31 
-0.0777148 -0.00147572 1.83029 28 28 28 
-0.108993 -0.250465 1.89835 85 84 80 
-0.0768915 0.0411698 1.83111 73 71 72 
-0.0793 0.130989 1.84254 71 69 70 
-0.0743601 0.315304 1.83344 55 54 52 
-0.0902562 -0.176286 1.87826 29 28 26 
-0.0653452 -0.0102614 1.83168 85 83 84 
-0.0659581 0.288615 1.83602 64 60 59 
-0.0636067 0.27225 1.83366 38 34 31 
-0.00959793 0.922267 1.71837 71 68 63 
-0.144669 -0.540099 2.0194 77 73 70 
-0.0650551 0.130414 1.84489 70 68 69 
-0.0687184 -0.121091 1.85883 81 80 76 
-0.0928987 -0.296888 1.92008 124 123 119 
-0.13749 -0.562194 2.02078 81 77 74 
-0.0525856 0.283754 1.83293 79 78 76 
-0.0502962 -0.0647246 1.82979 2 2 2 
-0.0542673 0.244176 1.83808 76 72 69 
-0.0768168 -0.195406 1.88923 4 3 1 
-0.0665401 -0.147459 1.86758 23 22 18 
-0.0870531 -0.345606 1.91853 75 75 73 
-0.0837563 -0.26092 1.91106 80 79 75 
-0.113827 -0.468436 1.98067 90 87 82 
-0.0481565 0.0361441 1.83684 1 0 0 
-0.0260652 0.840047 1.79177 64 63 61 
-0.0534688 -0.10256 1.85748 47 43 42 
-0.0739771 -0.257758 1.91204 109 108 104 
-0.0634647 -0.201726 1.89517 85 81 78 
-0.116609 -0.567212 2.01798 45 42 35 
-0.0151207 0.851156 1.78817 12 8 5 
-0.120743 -0.59867 2.03311 34 31 26 
-0.145494 -0.739813 2.09435 22 20 21 
-0.0314075 0.418713 1.83415 1 0 0 
-0.162818 -0.810427 2.13383 76 74 75 
-0.0080197 0.89462 1.78309 64 63 58 
-0.0217244 0.698417 1.81729 15 13 14 
-0.0976225 -0.502831 1.99995 76 71 67 
-0.0187845 0.749971 1.81653 13 11 12 
-0.0658552 -0.34371 1.92904 74 64 63 
-0.124652 -0.674539 2.06347 46 45 43 
-0.0200549 0.783166 1.82088 12 12 12 
-0.109954 -0.587822 2.03113 87 86 84 
-0.0296309 0.159646 1.8475 1 0 0 
-0.131914 -0.727314 2.08314 37 36 34 
-0.053439 -0.210989 1.9035 91 90 88 
-0.0161411 0.761887 1.81451 134 106 58 
-0.0228475 -0.0492666 1.83452 58 57 53 
-0.168952 -1.00547 2.1686 87 88 92 
-0.0968601 -0.513947 2.00596 90 86 83 
-0.117948 -0.659687 2.05936 103 99 96 
-0.0235506 0.435779 1.84256 90 89 87 
-0.0206369 -0.0646647 1.8414 27 24 17 
-0.0129997 0.702307 1.82114 94 91 98 
-0.0184712 -0.000835119 1.83991 75 75 77 
-0.0115249 0.686688 1.82116 85 84 90 
-0.113341 -0.672492 2.06244 18 17 15 
-0.00616893 0.664979 1.81226 57 55 56 
-0.0572613 -0.345466 1.93515 72 60 60 
-0.00985523 0.837638 1.82608 61 61 61 
-0.00836287 0.743705 1.82445 12 13 15 
-0.150623 -1.00036 2.16012 34 32 33 
-0.147839 -1.01631 2.15487 73 71 74 
-0.051355 -0.280203 1.93146 35 34 32 
-0.00648932 0.73277 1.82391 6 7 9 
-0.0068499 0.775775 1.82479 67 66 62 
-0.0507554 -0.303006 1.93328 84 75 76 
