ply                 
format ascii 1.0    
element vertex 113
property float x    
property float y    
property float z    
property uchar red  
property uchar green
property uchar blue 
end_header          
-0.254152 0.215927 1.85383 92 89 84 
-0.242181 0.279647 1.83948 93 86 78 
-0.22438 0.239975 1.82191 6 3 0 
-0.220503 0.311253 1.81854 76 73 66 
-0.214982 0.260549 1.81507 16 12 9 
-0.211197 0.450596 1.80888 93 91 79 
-0.211141 0.409919 1.81065 28 26 13 
-0.209526 0.382035 1.80925 27 18 9 
-0.1955 0.303882 1.80258 78 74 63 
-0.191139 0.480655 1.79492 38 34 25 
-0.188192 0.343769 1.79571 68 65 56 
-0.188192 0.343769 1.79571 68 65 56 
-0.187473 0.40462 1.79376 82 79 74 
-0.182128 0.085511 1.79822 51 50 48 
-0.180825 0.446323 1.7885 71 68 63 
-0.180548 0.44925 1.78861 33 28 24 
-0.180548 0.44925 1.78861 33 28 24 
-0.177615 0.0971542 1.79462 51 51 51 
-0.177615 0.0971542 1.79462 51 51 51 
-0.173548 0.0503191 1.78326 52 51 49 
-0.181013 -0.213971 1.84659 25 22 17 
-0.170616 0.0503725 1.78172 61 60 58 
-0.173136 -0.209663 1.84218 81 80 76 
-0.167005 -0.216268 1.84206 84 83 81 
-0.167935 -0.326657 1.87074 39 35 32 
-0.158949 -0.144909 1.8177 20 20 18 
-0.144399 0.0475513 1.77164 59 57 58 
-0.143346 0.187104 1.77852 31 27 24 
-0.135676 0.0175922 1.77074 62 61 57 
-0.133119 0.0188456 1.76985 11 7 6 
-0.131618 0.0315128 1.76971 20 16 15 
-0.128698 0.0820178 1.77445 59 57 58 
-0.142601 -0.521061 1.91323 42 43 38 
-0.12405 0.0174391 1.76692 69 67 68 
-0.124232 0.030775 1.76796 4 4 4 
-0.126305 -0.1689 1.8109 28 27 25 
-0.120679 0.19276 1.77102 4 0 0 
-0.119915 0.190868 1.77032 74 69 66 
-0.123497 -0.155153 1.80668 7 3 0 
-0.137063 -0.54985 1.91816 79 78 76 
-0.118753 0.160193 1.77115 14 10 9 
-0.117914 0.156189 1.76989 61 60 56 
-0.124757 -0.266213 1.8359 84 83 81 
-0.11635 0.174404 1.76916 23 19 16 
-0.11635 0.174404 1.76916 23 19 16 
-0.115689 -0.056294 1.77052 76 76 76 
-0.115842 0.327994 1.76611 61 62 56 
-0.111694 0.0183428 1.76453 0 0 0 
-0.110745 -0.0242877 1.75841 69 69 71 
-0.109853 0.0180754 1.76363 66 66 66 
-0.104094 0.252638 1.76438 21 18 13 
-0.100511 0.0306084 1.761 1 1 1 
-0.10419 -0.17913 1.80404 102 101 99 
-0.0998821 0.212103 1.76393 23 22 20 
-0.0991558 0.131152 1.76672 73 71 72 
-0.0961745 0.0303091 1.75995 1 1 1 
-0.114773 -0.778151 1.94212 17 17 17 
-0.100342 -0.220918 1.81403 58 57 55 
-0.117291 -0.86329 1.97212 49 55 77 
-0.117291 -0.86329 1.97212 49 55 77 
-0.0948665 0.172516 1.7647 61 57 56 
-0.0948665 0.172516 1.7647 61 57 56 
-0.0935772 0.463205 1.7561 9 8 6 
-0.0931952 0.303751 1.76001 60 56 53 
-0.111802 -0.865789 1.97187 212 212 240 
-0.0903136 -0.139275 1.78769 66 65 63 
-0.0921573 -0.247507 1.81812 86 85 83 
-0.0805146 0.303496 1.7577 75 74 72 
-0.100083 -0.827468 1.96702 72 70 91 
-0.0805889 -0.141576 1.78467 18 14 11 
-0.0960158 -0.685579 1.93449 65 64 60 
-0.0877084 -0.43979 1.86673 25 21 18 
-0.0969205 -0.888521 1.96531 27 30 61 
-0.0847778 -0.366992 1.84627 69 68 64 
-0.0853337 -0.395305 1.85421 10 6 5 
-0.0956498 -0.767702 1.96453 42 40 41 
-0.0956498 -0.767702 1.96453 42 40 41 
-0.0877486 -0.516995 1.88814 97 93 90 
-0.0968442 -0.78396 1.9758 76 74 75 
-0.0915705 -0.781082 1.9338 82 80 81 
-0.079137 -0.339417 1.83598 84 80 77 
-0.0686038 -0.157456 1.78429 17 13 10 
-0.0838912 -0.865043 1.96122 24 23 57 
-0.0595059 0.183015 1.75847 60 59 57 
-0.0583553 0.521196 1.74668 71 70 68 
-0.0582522 0.233495 1.75731 62 61 59 
-0.0547887 0.170644 1.76031 53 52 50 
-0.0507059 0.0857347 1.76177 54 50 49 
-0.0480769 0.160065 1.76015 9 8 6 
-0.045835 0.0902648 1.76114 21 19 20 
-0.0362809 0.119787 1.76058 66 64 65 
-0.0350946 -0.148991 1.78963 72 71 69 
-0.0281661 0.123861 1.76033 2 2 2 
-0.0234343 0.0411573 1.75485 6 4 5 
-0.0235705 0.119393 1.76012 56 54 55 
-0.0161342 0.131743 1.76102 49 49 49 
-0.0119946 0.0404783 1.75601 1 0 0 
-0.00576353 -0.274396 1.82068 31 19 19 
0.0180714 0.106494 1.76684 58 58 58 
0.0303672 0.590707 1.74593 107 109 121 
0.0317044 0.603397 1.74569 97 97 109 
0.033897 0.605409 1.74632 6 6 18 
0.0390073 0.600583 1.74729 15 18 35 
0.0461768 0.684047 1.74922 65 69 72 
0.0469739 0.608728 1.74945 150 153 160 
0.0480042 0.617072 1.74909 1 1 3 
0.05605 0.608518 1.75175 90 91 95 
0.0579742 0.595748 1.75227 8 10 22 
0.0611808 0.580011 1.75442 46 45 51 
0.0679083 0.579284 1.75567 54 55 59 
0.0695814 0.583643 1.75599 129 130 135 
0.0695807 0.624238 1.7552 127 127 129 
0.14292 0.84802 1.64547 122 121 116 
