ply                 
format ascii 1.0    
element vertex 1214
property float x    
property float y    
property float z    
property uchar red  
property uchar green
property uchar blue 
end_header          
-1.9458 -2.16137 5.31108 51 36 29 
-1.89644 -2.16021 5.32804 59 45 36 
-1.94063 -2.14654 5.31327 29 16 8 
-1.83313 -2.17171 5.40203 204 191 182 
-1.91822 -2.15268 5.48496 27 10 0 
-2.12875 -1.88916 6.07866 111 94 74 
-2.17647 -1.829 6.10851 195 178 162 
-2.15924 -1.56825 6.25817 207 194 185 
-2.15977 -1.52975 6.29014 59 46 37 
-2.15578 -1.50083 6.30014 54 41 32 
-2.14337 -1.50054 6.30081 211 199 185 
-1.53122 -1.2131 6.66392 165 162 147 
-1.14201 -1.17253 6.89877 225 217 206 
-1.08558 -1.16342 6.93123 229 216 207 
-1.07872 -1.15122 6.93399 70 55 50 
-1.08949 -1.14131 6.92328 241 232 225 
-1.32309 -1.1 6.78235 230 226 214 
-1.07947 -1.1177 6.93533 82 66 66 
-1.29414 -1.09012 6.79787 21 14 4 
-1.25513 -1.09292 6.81224 238 228 218 
-1.0925 -1.10973 6.93439 236 226 217 
-1.94885 -1.01821 6.37805 69 61 58 
-1.08119 -1.10041 6.94217 36 23 17 
-1.24719 -1.08134 6.82483 38 25 16 
-1.21265 -1.08193 6.84776 72 55 45 
-1.09692 -1.0923 6.92341 61 47 44 
-1.25889 -1.07144 6.81561 239 229 219 
-1.19538 -1.0764 6.85736 104 90 81 
-1.08466 -1.08432 6.92194 238 228 219 
-1.17686 -1.07228 6.87112 116 102 93 
-1.4288 -1.04506 6.7206 242 238 229 
-1.45006 -1.01403 6.69423 42 38 29 
-1.27442 -1.02869 6.80646 236 228 217 
-1.11179 -1.04201 6.90072 237 228 219 
-1.43207 -1.00611 6.68592 80 76 67 
-1.29773 -1.00551 6.78485 53 44 35 
-1.36111 -0.997729 6.74169 55 42 33 
-1.345 -0.995184 6.76388 234 224 214 
-1.06316 -1.01222 6.92192 87 78 73 
-1.13672 -0.97987 6.8917 241 233 222 
-1.09149 -0.981118 6.91215 231 221 212 
-1.11904 -0.977098 6.89448 57 49 38 
-1.1007 -0.959881 6.91743 236 227 222 
-0.680644 -0.800539 7.13124 93 95 92 
-0.696466 -0.796104 7.12677 190 194 193 
-0.720948 -0.78217 7.1039 74 85 81 
-1.04702 -0.704114 6.89468 42 35 25 
-0.920053 -0.698878 6.9849 115 112 107 
-1.12455 -0.652871 6.84117 67 63 60 
-1.13883 -0.647481 6.83893 231 228 223 
-1.1224 -0.636994 6.83814 235 232 227 
-0.778227 -0.642129 7.06157 97 102 105 
-1.21637 -0.611879 6.78458 36 28 17 
-1.09506 -0.604638 6.85585 55 43 45 
-0.744856 -0.621259 7.05977 112 117 120 
-1.2253 -0.594611 6.77345 79 68 62 
-1.07826 -0.602777 6.86587 232 221 219 
-1.03348 -0.604083 6.89174 50 41 32 
-0.951111 -0.607106 6.95569 229 225 216 
-1.02061 -0.601304 6.8946 238 227 221 
-1.12443 -0.590835 6.83308 64 59 55 
-1.22411 -0.581075 6.76626 230 221 216 
-1.07685 -0.586573 6.86251 102 98 97 
-0.716416 -0.607036 7.09475 71 77 77 
-1.23807 -0.577279 6.75834 52 41 35 
-1.16776 -0.575589 6.80142 129 120 113 
-1.14388 -0.577135 6.81527 73 64 57 
-1.02281 -0.584264 6.8994 159 148 144 
-1.00854 -0.582801 6.90445 235 228 222 
-0.237789 -0.620905 7.37441 214 215 210 
-1.24343 -0.564165 6.75286 240 229 223 
-1.25599 -0.560844 6.75293 28 19 14 
-1.01087 -0.569077 6.90425 41 36 33 
-0.245828 -0.603462 7.37445 60 62 61 
-0.997564 -0.561164 6.90461 239 229 230 
-0.674095 -0.576728 7.11252 156 158 157 
-1.71591 -0.519054 6.46375 241 241 243 
-0.28459 -0.586177 7.34393 212 212 210 
-0.95174 -0.551306 6.94157 160 148 150 
-1.00083 -0.544833 6.90984 124 114 113 
0.0650082 -0.591192 7.5683 217 217 217 
-1.23945 -0.525154 6.76086 254 253 249 
-1.09405 -0.532397 6.84948 128 120 117 
-1.22655 -0.519913 6.76247 49 41 30 
0.216131 -0.58522 7.64656 26 27 29 
-1.43736 -0.507559 6.63599 37 33 34 
0.0638045 -0.565942 7.56426 226 226 228 
-1.40947 -0.496425 6.65327 41 29 29 
-0.962524 -0.514889 6.93024 130 112 112 
-0.986656 -0.512215 6.91577 147 136 132 
-0.0585381 -0.536178 7.4763 75 79 80 
-1.20444 -0.47682 6.77003 75 60 55 
-0.232412 -0.514586 7.36021 84 85 87 
-0.205294 -0.477158 7.37728 223 224 226 
-1.20022 -0.430568 6.77385 243 237 237 
-1.18064 -0.432295 6.77953 249 239 240 
0.181765 -0.469926 7.64012 66 68 67 
0.264926 -0.469997 7.68882 90 91 95 
-1.1767 -0.413801 6.77819 236 231 228 
-0.214215 -0.445435 7.36806 0 1 5 
-0.0947002 -0.446652 7.46771 57 60 65 
0.196124 -0.455244 7.62509 222 220 221 
-0.184163 -0.412326 7.38703 189 193 194 
-0.197041 -0.399794 7.38028 84 88 89 
-0.182827 -0.388798 7.38368 160 164 165 
0.0548559 -0.397774 7.54196 208 210 209 
-0.00588433 -0.38396 7.49849 200 201 203 
-0.0726969 -0.370816 7.45203 199 203 204 
-0.423213 -0.35188 7.23047 75 76 78 
-0.164515 -0.350026 7.38832 56 57 59 
-0.410075 -0.337608 7.23183 103 103 103 
-0.148336 -0.341907 7.40523 195 196 198 
-0.423204 -0.329805 7.24067 236 238 237 
-0.183976 -0.330573 7.37987 21 25 24 
-0.400127 -0.322551 7.23785 227 227 227 
0.264279 -0.340723 7.66605 67 67 67 
-1.35696 -0.294595 6.6523 100 102 101 
-0.15718 -0.328166 7.3966 0 0 2 
0.349245 -0.33851 7.71543 43 44 46 
0.468223 -0.341154 7.78742 202 204 203 
-0.227564 -0.314182 7.34402 46 50 51 
-0.0683488 -0.316662 7.43846 86 90 91 
-0.108255 -0.313858 7.41974 216 217 219 
-1.23385 -0.282309 6.73054 153 151 152 
0.2662 -0.315923 7.65352 57 56 61 
-0.077186 -0.304405 7.43761 223 227 228 
-0.0573486 -0.305034 7.43814 216 220 221 
-0.00118795 -0.308997 7.49328 101 105 108 
0.346048 -0.314927 7.71159 65 66 71 
0.579629 -0.317521 7.84117 229 230 232 
0.238121 -0.30608 7.63271 40 43 48 
0.255672 -0.301852 7.64849 166 167 171 
-0.10797 -0.291248 7.41653 227 228 230 
0.00889287 -0.2937 7.47901 195 198 203 
-0.116987 -0.277714 7.4199 57 58 60 
0.21303 -0.283429 7.62073 87 91 92 
0.430508 -0.287384 7.75803 54 58 57 
-0.175691 -0.272514 7.38322 92 93 95 
-1.28983 -0.240849 6.68706 146 146 148 
0.461085 -0.278182 7.79906 71 75 76 
-1.33779 -0.235416 6.65742 168 169 171 
-0.155554 -0.242244 7.3744 219 220 222 
0.00843915 -0.226815 7.47257 65 69 72 
-0.230801 -0.210426 7.33684 232 236 239 
0.417682 -0.219678 7.74492 210 215 219 
0.321476 -0.215113 7.67731 50 51 55 
-0.155308 -0.200315 7.37108 220 221 223 
0.429915 -0.207341 7.74308 71 75 78 
-1.26992 -0.177735 6.69772 144 144 144 
-1.1596 -0.180155 6.76809 136 138 137 
0.341552 -0.201873 7.68839 193 195 192 
0.367479 -0.200791 7.69389 221 223 222 
-1.25074 -0.175924 6.70717 175 175 175 
0.0254737 -0.194909 7.5014 189 193 196 
0.0541177 -0.194928 7.51555 199 203 206 
0.415429 -0.195027 7.73971 217 222 226 
0.690847 -0.198167 7.89138 60 62 61 
-0.112259 -0.186963 7.40787 214 215 219 
-0.0930202 -0.182896 7.3965 44 47 52 
0.235668 -0.178855 7.62468 66 67 71 
0.277836 -0.178901 7.64403 46 48 47 
0.340803 -0.179887 7.68559 225 228 221 
0.554662 -0.182579 7.81554 40 42 41 
0.696011 -0.178415 7.9222 226 228 227 
0.721886 -0.173493 7.9177 210 214 217 
0.493082 -0.140075 7.77895 202 203 205 
-0.0417607 -0.128359 7.45352 216 220 221 
-1.08922 -0.0825788 6.79271 159 160 162 
-0.14503 -0.0893057 7.3645 223 224 226 
0.207014 -0.0932096 7.59112 215 216 218 
-1.04099 -0.0778548 6.82729 135 136 138 
0.222435 -0.0787846 7.60323 77 77 79 
0.469862 -0.0775339 7.76178 235 237 236 
0.28875 -0.0756849 7.6431 43 45 44 
0.0215507 -0.0697852 7.48018 225 226 230 
0.415195 -0.0708534 7.71551 78 79 81 
0.178338 -0.0528532 7.55821 0 2 3 
0.422132 -0.0506546 7.71543 56 57 59 
0.121726 -0.0390328 7.52294 212 217 220 
0.212332 0.00865245 7.57759 185 189 192 
0.171861 0.0584047 7.53817 70 71 73 
0.165122 0.084786 7.55978 43 44 46 
0.0834006 0.205613 7.48004 172 176 177 
0.0974074 0.23227 7.48555 196 196 198 
2.39951 0.811107 9.78979 107 99 86 
1.11028 0.876497 7.32801 65 53 41 
-0.170851 0.827313 6.60913 53 43 31 
-0.211276 0.866603 6.67723 75 71 59 
-0.064294 0.936075 6.62377 164 156 145 
-1.07563 0.994646 6.67798 74 70 61 
0.512349 1.2269 7.61692 43 39 30 
2.59017 1.43007 8.2255 217 214 209 
2.58274 1.45198 8.23569 48 45 38 
1.77204 1.67557 8.36301 140 137 130 
1.83909 1.77565 8.3883 154 151 142 
1.07416 1.60532 7.37714 65 53 41 
1.81088 1.87895 8.36541 79 75 66 
1.96297 1.9738 8.46365 105 95 85 
0.774538 1.84609 7.71224 235 226 209 
1.00801 1.88436 7.84661 174 160 151 
1.8489 1.96154 8.15383 198 171 164 
0.762403 1.85462 7.68787 104 93 75 
0.994991 1.89451 7.83921 36 23 14 
1.63776 1.93601 7.98483 253 233 222 
0.398134 1.83336 7.46339 121 120 115 
0.338106 1.83561 7.42518 43 42 37 
0.513743 1.85045 7.48983 79 75 66 
1.58176 1.93409 7.69974 60 32 21 
0.272294 1.84196 7.30717 90 89 84 
1.17659 1.86238 7.35105 83 66 46 
-0.42475 1.77276 6.97787 163 156 150 
1.15812 1.87135 7.35273 91 72 57 
1.2119 1.87964 7.35577 219 197 176 
-0.824997 1.71857 6.74557 169 159 147 
1.27858 1.9013 7.42752 101 78 62 
0.620896 1.86081 7.27111 28 21 15 
-0.182132 1.69921 6.61018 101 91 81 
1.06407 1.89234 7.31959 46 27 20 
-0.679874 1.76951 6.81655 114 106 93 
0.525535 1.84852 7.03749 39 35 32 
-1.16646 1.70857 6.52227 233 226 216 
-0.951822 1.74718 6.64146 102 95 85 
-1.01071 1.74557 6.6149 245 238 230 
-0.413516 1.79586 6.78204 39 30 23 
0.375081 1.13524 4.33803 42 38 35 
-0.962455 1.75138 6.60909 253 243 233 
-1.10955 1.7347 6.53935 118 108 96 
-0.855677 1.75935 6.61696 246 236 226 
-0.408443 1.77225 6.64856 219 212 204 
-1.05556 1.73958 6.527 101 91 81 
-0.401671 1.79519 6.72733 48 39 32 
-0.665711 1.77371 6.61362 238 225 217 
0.419738 1.84305 6.85887 21 11 9 
1.85131 1.95919 7.28071 177 142 138 
-0.652568 1.77733 6.60078 95 76 70 
0.0396101 1.81444 6.64581 56 45 39 
-1.00624 1.72246 6.2908 201 196 192 
-1.04422 1.7449 6.35219 97 94 89 
1.41656 1.91675 6.93458 48 11 3 
0.729083 1.85826 6.66537 28 8 1 
1.76709 1.94215 6.62965 52 32 23 
1.51796 1.91736 6.34385 29 1 0 
-1.25406 1.72023 5.6744 184 170 157 
1.55957 1.92802 6.1822 43 28 21 
-1.22594 1.72414 5.52976 161 143 129 
-0.560584 1.76141 5.58996 34 11 3 
6.23373 6.5507 20.2271 48 31 23 
1.32954 1.90087 5.87671 254 244 234 
1.18193 1.88815 5.80311 36 2 1 
1.60264 1.93063 5.8803 227 202 195 
0.932923 1.8664 5.68439 237 228 221 
-1.39227 1.70654 5.17825 169 159 149 
-1.01408 1.72476 5.07898 55 27 15 
1.11946 1.87522 5.41035 34 7 0 
0.888822 1.85957 5.19422 49 20 14 
1.41471 1.90412 5.30627 149 110 103 
1.18915 1.87798 5.15434 151 108 102 
0.52313 1.82591 4.99843 187 174 166 
-1.61863 1.68795 4.59365 83 73 64 
1.05686 1.86838 5.05834 54 37 29 
0.682644 1.8383 4.89966 246 239 233 
0.827519 1.85122 4.74946 190 165 158 
0.848337 1.84657 4.73948 182 153 155 
0.846156 1.85753 4.68689 146 122 120 
1.08128 1.86785 4.65478 244 207 201 
1.17684 1.87838 4.47234 82 53 47 
0.294308 1.79604 4.25571 220 177 170 
1.08041 1.86319 4.2545 41 13 1 
0.564592 1.81584 4.14082 10 0 0 
0.571792 1.81647 4.1329 42 32 23 
0.562766 1.81779 4.12619 254 247 237 
0.572273 1.81931 4.1201 241 237 228 
0.345135 1.79815 4.01638 183 157 144 
0.455771 1.80994 4.02975 216 190 177 
0.354198 1.80033 4.00804 172 144 130 
0.726966 1.82777 4.06193 34 14 5 
1.11076 1.86213 4.13783 50 21 13 
0.608319 1.81879 3.94756 133 118 111 
1.03081 1.85194 4.01977 64 35 27 
0.682765 1.81883 3.91214 97 79 69 
0.311129 1.79237 3.84511 254 242 226 
-0.0790433 1.76525 3.76334 89 61 50 
0.519862 1.80943 3.85523 254 234 225 
0.950014 1.8428 3.89356 226 189 181 
0.651678 1.81779 3.83014 155 135 126 
0.541757 1.8084 3.75605 150 123 114 
0.828884 1.83155 3.78897 203 156 146 
0.625693 1.81615 3.72435 255 223 214 
0.429443 1.79934 3.64978 255 243 227 
0.178807 1.78757 3.60044 197 180 172 
0.327375 1.79678 3.61733 50 20 9 
0.588686 1.81476 3.62546 107 86 85 
0.242366 1.78711 3.54793 239 212 203 
0.207026 1.78443 3.53673 46 24 11 
0.25607 1.78883 3.54402 56 27 19 
0.207999 1.78379 3.50415 234 208 195 
0.619433 1.82309 3.3794 43 27 12 
-0.0810235 1.76036 3.13308 85 81 69 
0.280842 1.79382 3.18387 154 126 114 
0.236278 1.79173 3.13343 228 219 202 
0.242821 1.79595 3.12187 26 32 30 
0.0911086 1.77855 3.04894 177 159 149 
-0.00727379 1.76914 2.97305 126 119 109 
-0.00251417 1.77105 2.96336 87 88 80 
0.256356 1.79798 2.99967 42 24 14 
-0.0507196 1.77241 2.94003 84 85 80 
-0.0676846 1.76486 2.9263 236 226 224 
-0.026733 1.77036 2.93439 119 128 137 
-0.130455 1.76005 2.9094 103 74 56 
-0.0838891 1.76707 2.91392 96 97 91 
0.152447 1.78806 2.93269 103 78 74 
-0.151007 1.7589 2.88412 217 198 183 
-0.218698 1.75766 2.85124 45 32 24 
-0.179715 1.7576 2.85196 255 255 243 
-0.18881 1.75791 2.85005 228 213 208 
-0.172818 1.75975 2.84368 212 225 234 
-1.95957 -2.15875 5.31077 221 211 201 
-1.9244 -2.15105 5.30425 229 216 208 
-2.00607 -2.13741 5.62389 18 0 0 
-2.17237 -1.9251 6.01824 34 17 7 
-2.17415 -1.85567 6.08818 191 174 158 
-2.18425 -1.84092 6.09903 70 54 41 
-2.18593 -1.81591 6.11644 54 40 29 
-2.17813 -1.71582 6.19452 199 185 172 
-2.13725 -1.46744 6.31319 212 202 192 
-2.12375 -1.43594 6.33299 213 203 191 
-2.07744 -1.34229 6.33614 213 209 200 
-1.07681 -1.18699 6.94347 65 52 43 
-1.11169 -1.17225 6.91589 245 231 222 
-1.15078 -1.16089 6.89561 77 71 59 
-1.13242 -1.16162 6.91509 79 69 60 
-1.08747 -1.1359 6.94523 227 218 211 
-1.29899 -1.07245 6.78839 232 223 214 
-1.41085 -1.05819 6.72851 65 60 54 
-1.08921 -1.07623 6.91927 231 224 216 
-1.4589 -1.03174 6.68896 74 70 61 
-1.28871 -1.04962 6.804 235 231 220 
-1.43714 -1.02981 6.69323 223 219 210 
-1.12394 -1.0417 6.89847 40 29 23 
-1.91131 -0.959603 6.38006 220 217 208 
-1.30825 -1.02151 6.78895 229 220 211 
-1.15837 -1.03243 6.86906 235 225 215 
-1.17726 -1.01948 6.86175 68 58 48 
-1.27625 -1.01145 6.81969 65 56 49 
-1.11323 -1.00127 6.9012 235 227 216 
-1.14792 -0.978635 6.87463 231 223 210 
-1.11047 -0.98206 6.91479 77 69 58 
-1.90146 -0.90387 6.41042 82 72 70 
-1.15918 -0.965755 6.87436 237 229 218 
-1.06506 -0.95856 6.93397 67 63 54 
-1.1655 -0.9439 6.86028 78 68 67 
-0.612406 -0.79587 7.17351 120 125 119 
-0.785941 -0.779012 7.06432 115 120 116 
-0.802736 -0.728335 7.04219 100 99 104 
-0.652626 -0.725829 7.14257 84 90 90 
-0.980504 -0.691933 6.94493 50 43 35 
-0.630504 -0.714678 7.16935 87 93 93 
-1.1389 -0.627994 6.82999 44 39 35 
-0.788717 -0.648397 7.04644 103 108 111 
-0.663227 -0.648223 7.13716 134 140 140 
-0.275306 -0.657677 7.348 74 74 72 
-0.763991 -0.633222 7.07315 217 221 220 
-0.69864 -0.627462 7.10012 201 207 207 
-0.0918341 -0.65369 7.46925 182 181 179 
-0.205187 -0.638064 7.38918 91 90 88 
-1.7294 -0.552985 6.45982 230 232 229 
0.0882717 -0.648184 7.58735 45 46 48 
-0.700918 -0.602201 7.0959 224 230 230 
-0.740611 -0.592839 7.06259 115 123 126 
-1.22752 -0.566811 6.76371 228 223 220 
0.185134 -0.631676 7.66551 60 62 61 
-0.197694 -0.605885 7.38053 77 75 78 
-1.30639 -0.542642 6.70211 236 235 231 
-1.23699 -0.547107 6.76156 83 76 68 
-1.25548 -0.541957 6.75605 234 229 226 
-0.117021 -0.596525 7.44421 70 73 78 
-0.0149693 -0.597863 7.52229 83 83 83 
0.233448 -0.608542 7.67819 63 65 64 
-1.42972 -0.523472 6.64776 231 231 229 
-0.246653 -0.577391 7.37752 11 12 14 
-0.0828025 -0.58526 7.47184 212 213 215 
-1.32975 -0.52357 6.69551 42 41 39 
-0.191021 -0.577629 7.40331 60 60 60 
0.259497 -0.597239 7.67572 212 208 205 
0.18745 -0.594384 7.67157 203 205 202 
-1.41188 -0.512263 6.6526 66 56 55 
-0.0461618 -0.578011 7.5015 212 216 217 
0.0843697 -0.582624 7.57112 22 23 25 
-0.010347 -0.576058 7.52067 86 84 87 
0.144061 -0.582906 7.60663 27 29 28 
-1.22261 -0.513636 6.74906 89 80 71 
-0.288073 -0.557081 7.34608 221 223 220 
0.117987 -0.569264 7.5999 213 215 214 
0.267034 -0.574924 7.68835 94 95 97 
-1.4262 -0.493304 6.64172 233 232 230 
-1.20348 -0.502159 6.77057 242 242 240 
0.214619 -0.562637 7.66123 64 66 65 
-0.107284 -0.537255 7.43833 106 107 109 
-0.175099 -0.52954 7.43012 93 94 98 
-0.285532 -0.512124 7.3283 82 83 85 
-0.0565771 -0.522843 7.46985 83 87 88 
-0.024875 -0.522886 7.49291 223 223 225 
0.139303 -0.52053 7.6082 228 227 232 
-0.0759399 -0.50186 7.46277 218 219 221 
0.104339 -0.508792 7.57178 216 220 219 
-0.249613 -0.48458 7.36336 224 225 227 
-0.0492856 -0.491229 7.46205 83 87 88 
-0.0859039 -0.474407 7.48431 86 92 92 
-0.196208 -0.458713 7.38045 201 203 202 
-0.032994 -0.463114 7.47836 215 216 218 
-0.0706312 -0.453724 7.46406 199 203 206 
-0.23142 -0.441991 7.3632 201 205 206 
-1.18073 -0.396317 6.78063 52 31 28 
-0.129415 -0.428339 7.41324 205 206 208 
0.44861 -0.444805 7.78543 80 80 80 
-0.0946766 -0.417668 7.43799 95 98 103 
0.280127 -0.431127 7.67316 208 208 208 
-0.293353 -0.410066 7.31582 227 227 229 
0.201877 -0.416433 7.61923 207 208 212 
-0.268778 -0.401331 7.36278 89 93 94 
-0.0765759 -0.402022 7.44847 201 202 204 
-0.217675 -0.395905 7.3654 212 216 217 
0.0501473 -0.406507 7.5372 210 212 211 
-0.115181 -0.385311 7.42472 211 212 214 
-0.00559066 -0.391536 7.48873 202 203 205 
0.475059 -0.404179 7.79372 202 203 205 
-0.316665 -0.37702 7.29193 86 86 88 
-0.137006 -0.369326 7.40702 48 48 50 
0.409546 -0.383355 7.7421 94 96 95 
-0.393748 -0.358372 7.2417 85 83 86 
-0.207183 -0.350752 7.34921 202 208 204 
-0.188833 -0.352908 7.39539 201 205 204 
-0.11278 -0.34795 7.41845 202 203 205 
-0.0897747 -0.341128 7.42032 105 106 108 
-0.0383391 -0.345247 7.47324 210 214 215 
0.0269881 -0.342169 7.50922 196 200 203 
0.364256 -0.352559 7.7149 206 206 208 
0.424717 -0.351812 7.76736 219 221 220 
0.182739 -0.338604 7.6033 98 99 101 
0.567877 -0.337587 7.85256 61 62 64 
0.22397 -0.320611 7.64577 220 224 225 
-0.00435682 -0.312597 7.48618 90 94 97 
0.196985 -0.317435 7.58852 206 210 211 
-0.143958 -0.307626 7.40309 207 208 210 
-1.09533 -0.282173 6.81451 156 156 158 
-0.224253 -0.287328 7.33577 115 116 118 
0.171118 -0.280589 7.59471 87 91 94 
-0.207128 -0.269074 7.32902 213 214 216 
0.403415 -0.279475 7.71046 76 77 79 
-0.166369 -0.264204 7.37414 106 107 109 
-0.0705425 -0.266989 7.42544 217 221 222 
0.364904 -0.26789 7.709 208 209 204 
0.182316 -0.258737 7.57617 220 224 225 
-0.131909 -0.248644 7.41507 211 212 214 
0.107768 -0.25456 7.53122 221 225 228 
-0.184842 -0.241243 7.37809 216 220 221 
0.155501 -0.24825 7.58045 72 76 77 
0.217569 -0.25193 7.62788 205 209 212 
0.423137 -0.253055 7.75245 206 210 211 
0.467857 -0.253836 7.80354 63 67 68 
-0.0721847 -0.236334 7.43124 214 218 219 
-0.204273 -0.232131 7.33909 216 220 221 
0.0345409 -0.234709 7.50762 92 96 99 
-0.161415 -0.226836 7.405 70 71 73 
0.234621 -0.234382 7.62671 59 63 66 
0.298324 -0.23126 7.6531 208 209 211 
0.437759 -0.233631 7.74721 75 76 78 
0.159873 -0.223123 7.56855 209 213 214 
-0.00160555 -0.214771 7.4712 71 75 78 
-0.0674188 -0.212309 7.44149 82 86 89 
-0.209604 -0.207219 7.35789 77 81 84 
0.355478 -0.216958 7.68683 75 76 78 
0.530039 -0.214554 7.81115 63 64 66 
0.467109 -0.210062 7.77883 203 203 203 
0.157039 -0.198979 7.57809 84 88 89 
0.494553 -0.202955 7.78283 85 86 88 
-0.182409 -0.190012 7.38214 214 218 217 
-0.23342 -0.18494 7.37851 81 85 88 
-0.0677677 -0.184139 7.42288 177 181 184 
-0.208835 -0.178656 7.34935 231 232 234 
0.0148903 -0.183652 7.47036 206 207 209 
0.712499 -0.193028 7.93251 70 71 73 
0.0902572 -0.179455 7.50594 83 87 90 
0.2998 -0.179926 7.65425 227 230 223 
0.430153 -0.181804 7.7369 15 16 18 
0.482305 -0.182732 7.77649 36 37 39 
0.522588 -0.18373 7.77618 66 67 71 
0.150672 -0.171909 7.56581 186 190 189 
0.257326 -0.171751 7.64339 226 227 229 
0.499537 -0.164226 7.77875 195 196 198 
-0.267168 -0.153677 7.30286 83 84 86 
0.20849 -0.15622 7.60474 210 211 215 
0.0261468 -0.149907 7.4542 203 204 206 
-0.164137 -0.146152 7.34301 86 87 89 
0.229752 -0.140987 7.60695 86 87 89 
-0.084733 -0.132019 7.42231 69 75 75 
-0.278885 -0.124066 7.28666 98 99 101 
0.416074 -0.127464 7.73442 62 66 69 
0.472412 -0.126404 7.76912 80 81 83 
-0.152812 -0.110206 7.36178 217 221 222 
0.0521716 -0.105593 7.50587 87 87 85 
0.46426 -0.102529 7.75176 78 79 81 
0.0340313 -0.0855705 7.48241 86 87 91 
0.133474 -0.0853225 7.52989 224 228 231 
-0.0749249 -0.0647831 7.46803 228 229 231 
0.162653 -0.0637514 7.56498 212 216 217 
-0.143458 -0.0597873 7.37587 13 14 16 
-0.112358 -0.055099 7.37489 24 25 27 
0.109726 -0.0581971 7.52152 100 104 107 
0.218499 -0.0518601 7.59597 53 54 56 
0.487333 -0.048461 7.75989 71 75 74 
-0.0376934 -0.0442596 7.43441 223 227 230 
0.330916 -0.0386874 7.6657 226 230 233 
0.206841 -0.010952 7.59376 70 71 73 
0.301337 0.00310364 7.63964 85 86 88 
0.164175 0.00894879 7.55224 224 225 227 
0.0720818 0.0539574 7.4934 70 71 73 
0.1791 0.0559164 7.54853 77 78 80 
0.232412 0.0573693 7.59551 109 110 112 
0.148991 0.0683229 7.53914 220 221 223 
0.196118 0.0804366 7.5616 226 227 229 
0.0904763 0.0818997 7.49386 22 23 25 
0.151878 0.112495 7.52191 67 71 72 
-1.43652 0.0979391 6.54136 229 229 231 
0.145566 0.145455 7.52109 219 223 224 
0.149845 0.180041 7.51708 195 199 200 
0.10319 0.186912 7.49687 210 214 215 
0.202851 0.19355 7.5465 69 73 76 
0.131329 0.200964 7.50995 67 71 72 
0.193248 0.219862 7.55279 192 196 199 
0.0500247 0.223235 7.46305 38 39 41 
0.14485 0.223438 7.50453 207 211 214 
0.116535 0.226635 7.49143 71 72 76 
0.0447919 0.251851 7.45072 63 67 68 
0.0560276 0.266474 7.42244 86 87 91 
-1.34971 0.331258 6.5811 77 66 64 
2.3994 0.79749 9.78882 111 101 99 
1.07923 0.860649 7.34552 83 73 61 
-0.204154 0.81686 6.68397 114 105 96 
1.07474 0.973172 7.36164 77 69 58 
1.07294 1.04817 7.36963 75 67 54 
1.06951 1.07942 7.3709 127 119 108 
0.460993 1.21331 7.59197 170 169 165 
-1.04462 1.35254 6.64955 211 207 204 
2.50144 1.72515 8.30091 55 45 36 
-1.05084 1.38697 6.64675 228 227 223 
1.7049 1.77837 8.30556 187 180 172 
-0.248172 1.47762 6.68051 41 32 23 
2.39166 2.00068 8.75362 47 33 32 
2.04317 1.95714 8.4993 237 228 219 
2.22794 1.99217 8.63513 55 45 35 
2.11643 1.98281 8.56109 69 55 42 
1.03986 1.73431 7.45681 78 65 49 
-0.225861 1.5571 6.64184 87 77 65 
1.86149 1.96727 8.3565 84 64 53 
1.02037 1.78524 7.5074 180 164 151 
-1.48587 1.66408 6.99962 64 63 61 
2.11741 1.97771 8.24887 60 35 28 
0.445612 1.80048 7.5048 213 209 197 
0.466769 1.80146 7.49433 146 142 131 
0.582362 1.82186 7.57315 220 216 204 
1.12588 1.76972 7.34165 106 93 84 
0.860392 1.88167 7.77629 88 81 71 
0.670211 1.84534 7.61971 214 207 191 
0.726794 1.8575 7.67322 210 197 178 
0.642174 1.85045 7.61342 122 120 108 
0.756179 1.86469 7.63133 34 22 10 
0.812836 1.87907 7.52363 72 65 57 
-1.148 1.63851 6.56787 100 101 96 
0.859373 1.88913 7.49116 165 156 149 
1.28749 1.89031 7.47065 214 193 174 
1.13731 1.86019 7.34679 181 163 153 
0.360749 1.83669 7.23544 205 204 199 
1.08889 1.87201 7.35573 62 39 25 
1.19051 1.87034 7.34087 189 172 146 
-0.146339 1.68224 6.60877 155 146 129 
-0.476706 1.76819 6.93423 158 148 138 
-1.37746 1.71712 6.73078 170 153 145 
-0.536141 1.76336 6.89668 200 191 174 
-1.16131 1.67193 6.54686 138 137 135 
1.17806 1.88557 7.35065 201 180 163 
2.21161 1.98949 7.75025 73 45 41 
-0.454929 1.78073 6.94176 64 51 43 
1.08643 1.88662 7.31953 150 121 115 
1.20255 1.89423 7.34229 85 62 54 
-0.499296 1.78034 6.90746 86 75 69 
-0.101584 1.71139 6.62486 118 106 82 
1.22709 1.88873 7.28991 194 175 161 
-1.15962 1.692 6.53744 217 214 205 
0.342254 1.8516 7.13328 201 200 196 
1.34681 1.90559 7.28728 48 14 4 
-1.24243 1.71882 6.58678 57 48 41 
-1.03837 1.73142 6.59315 253 250 245 
-1.14223 1.72558 6.52582 209 197 181 
-1.02271 1.74933 6.60649 134 125 118 
-0.433765 1.79773 6.7557 163 159 150 
-1.1191 1.734 6.50777 138 125 116 
-1.09538 1.74153 6.52303 220 213 203 
-0.373429 1.79528 6.70555 172 162 152 
-0.883914 1.75967 6.56242 181 173 162 
-0.307391 1.79684 6.68546 151 142 135 
-1.12808 1.74485 6.49264 184 172 160 
-1.01488 1.74895 6.43475 167 166 161 
0.305446 1.83252 6.71546 71 63 60 
1.44241 1.91238 6.00781 235 216 202 
0.768931 1.85594 5.76795 46 24 11 
-1.16187 1.72066 5.35421 203 167 155 
-1.71537 1.68295 4.85649 224 205 199 
-0.90686 1.72706 4.82345 26 17 10 
0.674133 1.84073 4.91096 59 48 42 
0.0528385 1.79218 4.70223 31 13 0 
1.49499 1.90379 4.92674 26 0 0 
1.09377 1.86907 4.69556 130 94 82 
-0.143177 1.77145 4.41498 62 33 27 
-0.489497 1.75258 4.24226 34 21 13 
0.265217 1.79754 4.34139 63 38 18 
0.296948 1.79303 4.27459 179 135 122 
0.292775 1.79877 4.20757 40 30 21 
-0.0368696 1.77288 4.10672 120 83 77 
0.564716 1.81754 4.16758 52 40 26 
1.08577 1.86477 4.23082 53 27 10 
0.96692 1.85204 4.17083 38 21 13 
-0.0339164 1.7745 3.94331 26 2 0 
0.507788 1.80744 3.89919 135 127 114 
0.50691 1.80712 3.85294 55 39 26 
0.642768 1.81825 3.84056 42 22 15 
0.656539 1.81853 3.78822 208 169 152 
0.408851 1.80128 3.74094 91 72 65 
0.167519 1.78275 3.69564 187 164 150 
0.810168 1.82968 3.78321 220 168 155 
0.66287 1.8206 3.75137 119 71 61 
0.821745 1.8346 3.76277 245 210 204 
0.727224 1.82835 3.7249 255 245 233 
0.174426 1.78576 3.63282 23 11 0 
0.73534 1.82685 3.69946 57 27 17 
0.515705 1.80964 3.60779 89 55 45 
-0.138811 1.76219 3.43105 136 106 96 
0.546872 1.81029 3.50661 51 33 21 
0.542862 1.81067 3.48494 177 135 119 
0.18136 1.78293 3.40339 84 62 49 
0.442605 1.80407 3.43335 40 24 11 
0.175425 1.78453 3.38483 202 184 174 
0.182862 1.78273 3.37169 43 29 20 
0.207958 1.78581 3.32398 29 15 2 
0.0760009 1.77411 3.30225 71 58 42 
0.500819 1.80805 3.33367 85 69 54 
0.487102 1.81094 3.28525 134 121 104 
-0.120649 1.76004 3.17367 137 120 110 
-0.102393 1.76119 3.11996 68 53 46 
-0.090327 1.76404 3.10128 22 7 0 
0.178741 1.78519 3.13179 73 53 42 
-0.0604803 1.76354 3.05416 47 30 20 
0.073336 1.77507 3.06845 74 54 43 
0.126228 1.78252 3.07226 255 233 222 
-0.0507454 1.76569 3.04102 70 50 43 
0.100289 1.77991 3.04144 254 248 236 
-0.0211963 1.76915 2.99239 68 51 43 
0.00687087 1.77387 2.98352 219 212 204 
0.0161626 1.77252 2.98101 18 17 12 
0.257018 1.79778 3.00367 64 45 39 
-0.065238 1.76606 2.94184 214 204 192 
-0.00342638 1.77257 2.93947 203 214 216 
-0.071013 1.76721 2.92082 86 86 84 
-0.631852 1.71871 2.83405 103 83 72 
0.158545 1.78579 2.9314 26 15 11 
-0.134835 1.75893 2.88293 202 193 186 
0.174237 1.78254 2.906 252 251 247 
-0.149087 1.76329 2.863 210 224 227 
-1.18264 -1.04757 6.86953 228 215 206 
-1.43436 -1.00617 6.69358 80 76 67 
0.153061 -0.0910269 7.57174 221 225 226 
0.0842019 0.106016 7.49766 233 235 234 
-2.17086 -1.85421 6.07904 186 169 153 
-2.18374 -1.84035 6.09655 70 54 41 
-2.17417 -1.78201 6.12819 197 184 167 
-2.14726 -1.54994 6.26987 210 199 181 
-2.1375 -1.4699 6.32081 205 195 183 
-2.13944 -1.4458 6.32222 84 74 65 
-2.09607 -1.35404 6.33347 87 80 72 
-1.09954 -1.1663 6.83561 245 232 223 
-1.07725 -1.18778 6.94408 65 52 43 
-1.14373 -1.15535 6.87379 73 67 55 
-1.0647 -1.1662 6.96511 230 217 209 
-1.09298 -1.1344 6.94263 225 221 212 
-1.32394 -1.0813 6.78078 80 72 70 
-1.41413 -1.0596 6.726 58 55 50 
-1.11436 -1.07007 6.91257 49 40 31 
-1.08697 -1.07264 6.91959 228 224 213 
-1.43221 -1.03178 6.6969 232 228 219 
-1.33283 -1.04104 6.77831 223 219 208 
-1.18655 -1.05145 6.87724 235 222 213 
-1.12308 -1.04401 6.8977 41 30 24 
-1.31053 -1.02213 6.78645 234 225 216 
-1.14909 -1.03372 6.88612 229 221 210 
-1.28402 -1.01078 6.79259 79 68 64 
-1.11355 -1.0048 6.89823 231 223 212 
-1.15328 -0.978377 6.87793 233 225 212 
-1.90082 -0.903344 6.40595 82 72 70 
-1.06861 -0.95952 6.9342 87 83 74 
-1.16582 -0.945454 6.87242 78 68 67 
-1.85517 -0.838946 6.40867 234 233 228 
-0.614048 -0.794635 7.17782 130 135 131 
-0.784699 -0.773046 7.06548 106 110 109 
-0.720735 -0.774084 7.116 101 110 109 
-0.621071 -0.765104 7.18552 130 139 138 
-0.798422 -0.728087 7.04764 99 98 103 
-0.65397 -0.725968 7.13403 91 97 97 
-0.634 -0.714515 7.16511 104 110 110 
-1.12182 -0.659289 6.8465 51 46 40 
-0.638061 -0.666099 7.13863 215 219 218 
-0.786706 -0.649312 7.05202 113 118 121 
-0.665301 -0.648911 7.13731 134 140 140 
-0.228944 -0.659979 7.38229 189 188 183 
-0.272496 -0.654903 7.35099 100 100 98 
-0.0910211 -0.655895 7.46407 192 191 187 
0.000877237 -0.652269 7.5606 68 68 68 
-0.203368 -0.634596 7.39529 97 95 96 
-0.1171 -0.635611 7.44253 93 94 96 
-1.72685 -0.552086 6.4582 233 238 234 
-1.22833 -0.569098 6.78715 230 226 225 
-1.2525 -0.562847 6.75432 149 138 132 
0.181165 -0.630584 7.63516 60 62 59 
-1.30617 -0.54574 6.70206 237 236 232 
-0.71369 -0.581804 7.09707 130 136 134 
-0.0558469 -0.615903 7.50946 80 84 85 
-0.28683 -0.596346 7.34698 215 214 210 
0.0111382 -0.609274 7.53023 218 219 214 
0.0607111 -0.610578 7.57393 213 212 208 
-0.114246 -0.600054 7.44725 79 82 87 
-1.25725 -0.536937 6.75726 235 231 228 
-1.30452 -0.531027 6.74584 30 26 25 
0.262063 -0.599996 7.67642 221 216 210 
-1.32661 -0.523472 6.69383 44 43 41 
-0.253384 -0.577453 7.38698 5 9 10 
-0.0787425 -0.580217 7.46306 216 214 217 
0.176236 -0.590842 7.61765 197 199 196 
-0.051049 -0.576994 7.4993 212 213 215 
-0.0124877 -0.577092 7.51048 33 33 33 
0.0853791 -0.584605 7.59134 22 23 25 
0.22798 -0.587059 7.66635 26 27 29 
-1.41099 -0.50879 6.65212 80 68 68 
-1.22284 -0.511761 6.75142 59 50 41 
-0.290315 -0.553671 7.34591 220 222 219 
0.116276 -0.570218 7.59521 213 215 214 
-0.164399 -0.550341 7.398 222 220 221 
-0.210278 -0.547455 7.37679 217 219 216 
-1.4285 -0.490133 6.64624 235 234 232 
-0.171669 -0.525392 7.4059 88 89 93 
0.230188 -0.543536 7.67655 217 218 220 
-0.227075 -0.518848 7.3688 65 66 68 
-0.0551027 -0.528954 7.47631 90 94 95 
-0.0200663 -0.527815 7.49607 227 225 228 
-0.284073 -0.515408 7.33762 86 87 89 
0.192852 -0.531735 7.62308 225 227 226 
0.261308 -0.528057 7.65467 90 93 98 
0.136942 -0.5165 7.61226 226 225 230 
-0.0761308 -0.503818 7.46244 213 214 216 
0.107115 -0.505909 7.56626 226 227 229 
-1.19619 -0.451871 6.77446 48 38 37 
-0.254828 -0.490358 7.3639 229 230 232 
0.00407457 -0.496559 7.4681 80 80 82 
-0.0474536 -0.492441 7.46416 63 67 68 
0.0505592 -0.489799 7.5551 215 214 219 
-0.0991249 -0.476518 7.4284 109 113 112 
-0.196601 -0.463589 7.37684 209 211 210 
-0.0274739 -0.462245 7.4777 220 220 222 
-0.0695694 -0.450648 7.46429 203 207 210 
-0.158114 -0.443933 7.43247 83 87 88 
-0.209632 -0.435653 7.36075 74 78 79 
-0.276147 -0.425614 7.34338 217 218 220 
-0.0390129 -0.430544 7.47386 92 93 95 
-1.1797 -0.391647 6.78414 35 17 13 
-0.126939 -0.425491 7.42309 199 200 202 
0.352398 -0.440517 7.72672 92 92 92 
-0.241355 -0.418639 7.35792 110 114 115 
0.282688 -0.434809 7.67124 216 216 216 
0.449898 -0.44312 7.79338 70 70 70 
0.154489 -0.423238 7.59943 227 228 230 
0.00205738 -0.40798 7.49482 216 217 219 
-0.0462762 -0.396672 7.42228 92 97 100 
0.420557 -0.413596 7.77321 223 225 224 
0.380707 -0.41015 7.71065 217 219 218 
0.262901 -0.40274 7.66198 81 82 84 
0.478917 -0.40769 7.79653 217 218 220 
-0.313127 -0.377593 7.29724 91 91 93 
-0.26201 -0.372508 7.34815 211 215 216 
0.283495 -0.370194 7.66293 199 201 198 
-0.195807 -0.354102 7.39531 214 218 217 
0.480834 -0.37317 7.8061 74 74 74 
-0.0091984 -0.342555 7.4706 99 103 106 
0.368001 -0.354715 7.73577 214 214 216 
0.184454 -0.341841 7.60091 81 82 84 
0.421726 -0.350377 7.77134 221 223 222 
-0.0635032 -0.332665 7.46301 92 96 97 
-0.246654 -0.32328 7.35176 203 207 208 
-0.00522327 -0.316034 7.48264 85 89 92 
-0.0402397 -0.310676 7.4662 215 219 220 
0.101854 -0.30886 7.53245 217 221 224 
0.0239482 -0.296336 7.50599 190 194 197 
-0.2243 -0.291254 7.34915 115 116 118 
-0.203005 -0.268511 7.35513 213 217 218 
-0.167555 -0.268434 7.37692 92 93 95 
0.2331 -0.278649 7.64022 72 76 79 
-0.0680901 -0.266828 7.43339 211 215 216 
0.0373084 -0.263837 7.52493 205 209 212 
-0.0995275 -0.257138 7.42511 80 81 83 
0.110807 -0.256961 7.55128 216 220 223 
-0.13714 -0.251624 7.40045 214 215 217 
0.188619 -0.258896 7.61769 223 227 228 
-0.192511 -0.24173 7.37335 207 213 213 
0.156868 -0.24896 7.57718 72 76 77 
0.213173 -0.251637 7.62642 210 214 217 
0.033347 -0.232239 7.53274 77 81 84 
-0.163483 -0.226083 7.38839 70 71 73 
0.126526 -0.227946 7.5573 99 103 104 
0.0034878 -0.218094 7.4682 87 91 94 
-0.20812 -0.209123 7.35027 73 77 80 
-0.0656515 -0.212697 7.45584 82 86 89 
0.253585 -0.216496 7.63097 209 210 212 
0.560189 -0.21538 7.81939 218 219 221 
0.616448 -0.215812 7.85655 62 63 65 
0.464874 -0.207151 7.77734 198 198 198 
-0.123541 -0.194205 7.40198 210 210 212 
0.494778 -0.199474 7.77907 103 104 106 
-1.55271 -0.167048 6.51812 229 231 230 
-0.23929 -0.183019 7.34718 73 77 80 
-0.186177 -0.186052 7.38485 233 237 238 
0.202217 -0.190426 7.59447 219 220 224 
0.709642 -0.19441 7.91854 102 104 103 
-0.205863 -0.177981 7.31579 231 232 234 
-0.0168582 -0.182281 7.47569 81 85 88 
0.0603492 -0.18312 7.52163 211 213 212 
0.584207 -0.188956 7.85207 44 45 47 
0.0944344 -0.181325 7.50289 85 89 90 
0.531652 -0.187116 7.79737 7 8 10 
0.256414 -0.170239 7.64018 227 228 230 
-0.230224 -0.157815 7.3222 226 227 229 
0.345596 -0.165726 7.67572 220 222 217 
0.208294 -0.1559 7.60362 210 211 215 
0.445499 -0.153872 7.75173 219 221 218 
-0.163627 -0.144631 7.34713 86 87 89 
-1.53633 -0.126884 6.52056 240 244 245 
0.100101 -0.141009 7.52253 84 88 91 
0.233843 -0.142055 7.6323 64 65 69 
0.0648822 -0.138394 7.52054 216 218 217 
-0.0873782 -0.132624 7.42438 74 80 80 
-0.277887 -0.128117 7.28789 94 95 97 
0.413683 -0.125141 7.72961 49 53 56 
0.178557 -0.122874 7.59992 94 95 97 
0.534011 -0.12468 7.77951 224 225 227 
0.511619 -0.10214 7.77885 59 60 62 
-0.176924 -0.0948932 7.34865 72 76 77 
-0.00478892 -0.0956914 7.45572 220 224 227 
0.254581 -0.0858823 7.61268 225 226 228 
0.0797459 -0.0830906 7.51485 214 214 214 
-0.0721569 -0.0672866 7.50801 237 238 240 
-0.0856175 -0.0644586 7.39828 229 230 232 
0.161361 -0.0653575 7.56466 217 221 222 
0.1115 -0.0618255 7.52926 102 106 109 
-0.14472 -0.0602596 7.37317 15 16 18 
0.490527 -0.0502277 7.7761 49 51 50 
-0.114109 -0.0484769 7.37704 82 83 85 
-0.0650766 -0.0417118 7.42605 71 72 76 
0.195872 -0.0119985 7.56311 75 76 78 
0.16262 0.00744057 7.55551 222 223 225 
0.0229017 0.00918048 7.49099 71 72 76 
0.181195 0.0548421 7.55117 77 78 80 
0.0458036 0.0607675 7.49549 231 232 234 
0.146689 0.0666215 7.54413 220 221 223 
0.0631904 0.0792757 7.49982 231 232 234 
0.195467 0.0843903 7.55281 224 225 227 
0.155361 0.112892 7.54499 63 67 68 
0.121791 0.12656 7.50665 88 89 91 
0.0902249 0.134361 7.49504 232 234 229 
0.147904 0.146794 7.51965 220 224 225 
0.15294 0.173992 7.52217 212 216 219 
-1.41507 0.152205 6.55687 241 245 244 
0.102793 0.189489 7.4979 200 204 205 
0.204393 0.19391 7.5431 76 80 83 
0.13169 0.200034 7.50603 67 71 72 
0.189647 0.222942 7.54951 208 212 215 
0.0480678 0.222166 7.45327 39 43 44 
0.147073 0.22783 7.50469 212 216 219 
0.118705 0.232818 7.48994 55 56 58 
2.34134 0.853155 9.91298 95 87 76 
-1.17784 0.732594 6.65168 62 59 52 
-0.202241 0.843233 6.72111 143 133 123 
-1.0737 0.998731 6.67241 92 88 79 
0.459703 1.21475 7.58675 171 170 166 
-1.0435 1.34924 6.65203 213 209 206 
1.66184 1.81293 8.27214 193 183 174 
-1.09292 1.46716 6.6268 121 120 118 
2.47815 1.99949 8.8425 54 40 37 
1.77409 1.91907 8.2995 241 234 224 
1.72551 1.93294 8.30529 229 219 210 
-1.26436 1.57745 6.8041 121 120 116 
0.44064 1.80091 7.51264 220 214 202 
0.587218 1.81804 7.57117 205 202 187 
0.474486 1.81221 7.53437 154 150 139 
1.3104 1.80836 7.4654 125 105 94 
0.923503 1.87833 7.73791 24 14 5 
0.755704 1.86687 7.65548 36 24 12 
1.04368 1.89002 7.49799 35 16 9 
0.858952 1.89144 7.49463 174 165 158 
1.13582 1.85824 7.34159 196 178 166 
0.919141 1.87074 7.36851 149 119 111 
-0.476878 1.7659 6.93657 162 152 142 
-0.120155 1.68769 6.61641 213 207 193 
-1.162 1.67034 6.54923 115 115 113 
-0.532036 1.76473 6.90715 200 191 176 
0.907129 1.88526 7.32709 68 55 47 
-0.497668 1.78449 6.92524 89 78 72 
1.25044 1.91053 7.36715 204 186 174 
1.22094 1.8963 7.21729 18 0 1 
-1.03829 1.72988 6.59492 243 242 238 
-1.11812 1.73357 6.51388 164 152 140 
-1.05023 1.7418 6.54872 110 100 88 
-0.426867 1.79451 6.73054 149 145 136 
-0.15625 1.76818 6.613 163 146 126 
0.151179 1.83156 6.82909 50 35 28 
-0.564537 1.77397 6.60674 167 153 142 
-0.307301 1.79671 6.68435 151 142 135 
-0.250262 1.79399 6.65785 32 23 14 
-0.0603056 1.80805 6.65237 58 41 31 
-0.372156 1.79578 6.61212 58 44 35 
0.702212 1.85755 6.81563 53 38 33 
1.87326 1.94954 6.26679 148 141 131 
1.0117 1.87391 5.29785 26 0 0 
0.898585 1.86379 4.9914 200 166 156 
1.50622 1.9022 4.97444 164 122 108 
0.841299 1.84686 4.45179 124 78 65 
1.02141 1.85832 4.20109 62 31 11 
-0.166793 1.77146 3.96898 83 61 50 
0.993715 1.8502 4.04749 39 21 7 
0.130357 1.78383 3.79387 39 23 8 
0.0823061 1.77979 3.75997 225 198 179 
0.670904 1.82252 3.8239 104 82 69 
0.468931 1.8077 3.70184 76 43 34 
0.251448 1.78553 3.55902 85 63 52 
0.448787 1.80079 3.51999 245 232 223 
0.683609 1.83121 3.40905 154 142 130 
0.284371 1.79094 3.31648 173 147 134 
0.496795 1.8033 3.32657 59 41 29 
0.275654 1.79404 3.1837 146 115 97 
0.285641 1.79964 3.16587 179 170 153 
0.0448585 1.77378 3.11152 81 56 49 
0.179203 1.78579 3.13143 72 54 42 
0.204669 1.789 3.10485 195 185 175 
0.0769123 1.78252 3.03222 200 183 175 
0.0114339 1.76719 3.00463 127 112 105 
0.0205886 1.77092 3.00094 202 190 178 
-0.127121 1.75402 2.94359 172 141 136 
-0.249022 1.75152 2.92339 162 125 109 
0.137026 1.78269 2.96602 2 7 10 
-0.0829816 1.77282 2.93565 194 191 182 
0.13563 1.7833 2.94845 195 200 204 
0.0660519 1.77749 2.86885 201 209 212 
0.0476516 1.77221 2.85407 26 21 17 
-1.90994 -2.15658 5.46189 56 42 33 
-2.15291 -1.55232 6.27526 212 200 184 
-2.09899 -1.35363 6.33292 75 66 57 
-1.14003 -1.15904 6.89456 77 67 58 
-1.10658 -1.12748 6.94421 227 220 210 
-1.32075 -1.07878 6.77132 82 74 72 
-1.25474 -1.08299 6.82382 40 27 19 
-1.45529 -1.03398 6.6911 71 67 58 
-1.27223 -1.04735 6.7872 225 221 209 
-1.34274 -1.0435 6.77807 223 219 207 
-1.15025 -1.03889 6.88693 229 221 210 
-1.28454 -1.01078 6.79715 74 63 61 
-1.12023 -0.979858 6.889 62 54 43 
-1.0449 -0.981873 6.9219 223 219 208 
-0.779978 -0.767723 7.05901 106 108 107 
-0.798205 -0.724788 7.03186 103 102 107 
-0.640888 -0.717809 7.1577 100 104 105 
-1.21369 -0.618192 6.7908 51 47 36 
-0.227781 -0.664682 7.37776 217 217 209 
-0.268777 -0.64771 7.35837 111 113 112 
0.00405262 -0.655573 7.54586 79 78 76 
-0.19957 -0.626948 7.39175 96 94 97 
-1.28417 -0.569531 6.74731 237 232 228 
-1.14505 -0.578795 6.80747 141 132 125 
-0.053502 -0.623599 7.48075 87 91 92 
-0.722564 -0.585591 7.0865 80 90 91 
-0.291481 -0.60872 7.35703 213 212 208 
0.1403 -0.61881 7.62151 80 81 83 
0.0507772 -0.606441 7.59518 223 219 216 
-1.31703 -0.523624 6.68409 32 31 29 
-0.255761 -0.571635 7.35937 84 88 89 
-1.26011 -0.523683 6.75723 232 231 227 
-0.0664237 -0.572543 7.48277 220 220 222 
-0.296236 -0.55688 7.34546 226 226 224 
-0.148912 -0.557975 7.43741 223 219 216 
-0.208085 -0.549251 7.40821 217 219 218 
0.0466473 -0.559239 7.58285 225 225 227 
0.269817 -0.562866 7.68265 98 99 103 
0.0926927 -0.541536 7.57406 73 77 78 
0.0705344 -0.516128 7.55593 94 95 97 
-0.13709 -0.493519 7.42671 213 213 213 
-0.0424385 -0.495157 7.46586 68 74 74 
0.125859 -0.505339 7.60103 223 224 226 
-0.295222 -0.4739 7.34276 231 233 232 
-0.096391 -0.475337 7.44972 93 97 98 
0.0403416 -0.479314 7.55853 223 223 225 
-0.160242 -0.449584 7.40021 105 109 110 
-0.287435 -0.428078 7.34417 223 224 226 
-1.18199 -0.39639 6.78697 52 31 28 
0.293003 -0.4422 7.66302 216 216 216 
-0.0369254 -0.418886 7.46807 99 100 102 
0.038133 -0.423055 7.56198 220 221 223 
0.145778 -0.424757 7.62541 232 233 235 
0.351144 -0.433131 7.7212 93 93 93 
0.265279 -0.402193 7.6711 81 82 84 
0.188788 -0.389431 7.62138 66 70 73 
-0.147732 -0.371329 7.40346 83 84 86 
0.529162 -0.393779 7.82229 234 235 237 
-0.268812 -0.361202 7.34583 219 223 224 
-0.198127 -0.35745 7.37208 202 206 205 
0.292895 -0.362372 7.67604 200 206 204 
0.463715 -0.365025 7.79492 96 98 97 
-0.00590498 -0.330289 7.49013 95 98 103 
0.215547 -0.322276 7.61798 217 221 222 
0.514495 -0.331994 7.83634 226 227 229 
-0.221802 -0.311845 7.34339 61 65 64 
-0.0440367 -0.304248 7.47618 218 222 223 
0.177024 -0.290778 7.60168 70 74 75 
0.235535 -0.280841 7.60159 85 88 93 
0.116283 -0.270164 7.55142 215 219 222 
0.459071 -0.252857 7.75848 69 73 74 
-0.165042 -0.225415 7.39007 66 67 69 
-0.10742 -0.230143 7.41244 91 92 94 
-0.251279 -0.219614 7.34209 225 229 232 
-0.0313967 -0.226282 7.46611 200 204 203 
0.0139402 -0.224845 7.46052 89 93 96 
0.40436 -0.231213 7.71357 213 217 220 
0.609463 -0.210738 7.8627 72 73 75 
-0.131899 -0.193103 7.39555 219 220 222 
-0.250939 -0.176879 7.32234 74 75 77 
-0.0219762 -0.180974 7.47274 96 100 103 
-0.197204 -0.173003 7.3342 234 235 237 
0.554673 -0.150096 7.79262 209 211 210 
-0.0510939 -0.116541 7.4194 210 214 215 
0.411026 -0.118791 7.72362 80 84 87 
-0.179861 -0.106617 7.35189 69 73 74 
0.137058 -0.105547 7.52865 210 214 215 
0.0372342 -0.100569 7.49918 91 92 96 
-0.0633438 -0.0808588 7.42511 214 215 217 
-0.147069 -0.0610452 7.34042 18 19 21 
0.109766 -0.0657741 7.52939 82 86 89 
0.304178 -0.0517967 7.6493 78 79 81 
0.148111 -0.0343033 7.5509 222 223 225 
0.231989 0.0153072 7.56947 208 209 213 
0.198857 0.0940915 7.54707 223 229 229 
0.122795 0.12248 7.5062 74 75 77 
0.156087 0.154984 7.50927 219 223 226 
0.111261 0.163847 7.50791 84 88 89 
-1.41311 0.152115 6.55772 242 246 245 
0.132455 0.201111 7.5111 67 71 72 
0.0471539 0.224046 7.44772 45 49 50 
0.1535 0.236873 7.49732 223 227 230 
-0.193241 0.834613 6.7032 100 90 78 
2.58606 1.4376 8.25298 109 106 101 
-0.234912 1.41949 6.6922 32 23 14 
2.818 1.93991 8.52902 94 78 78 
-1.25921 1.57248 6.78344 121 120 116 
1.11474 1.73706 7.34968 183 174 165 
2.48029 1.99839 8.37761 46 28 24 
0.429671 1.79402 7.50143 224 216 203 
0.763829 1.87546 7.6898 95 83 71 
1.16888 1.82015 7.33484 210 202 189 
0.258866 1.83075 7.34376 185 185 177 
1.04108 1.88056 7.47428 32 16 3 
1.27464 1.87846 7.47015 215 194 173 
0.862289 1.90155 7.51296 182 173 168 
-0.444102 1.77481 6.93075 48 35 27 
-0.70528 1.75582 6.80274 221 209 197 
-0.962422 1.7245 6.65506 236 235 230 
-0.486039 1.78115 6.87144 72 63 56 
-1.04377 1.74415 6.53534 129 121 110 
-0.432277 1.798 6.7389 157 153 144 
-0.363019 1.79544 6.72447 130 121 112 
-0.312615 1.79639 6.68411 151 144 136 
-0.259813 1.78845 6.65506 20 16 7 
-0.0662722 1.80703 6.64845 54 37 27 
0.894087 1.85474 4.96682 194 160 150 
0.26604 1.79366 3.15704 123 111 95 
-0.278673 1.74913 2.97295 232 203 195 
-0.122676 1.75581 2.94802 175 146 140 
-1.11418 -1.19251 6.93379 205 192 183 
-0.00863134 -0.459677 7.48145 217 217 219 
0.386998 -0.315451 7.68098 222 224 223 
-2.15639 -1.56748 6.2692 217 205 189 
-2.10092 -1.3544 6.33599 74 65 56 
-1.9962 -1.11774 6.36217 78 68 59 
-1.1 -1.15959 6.94504 90 77 71 
-1.36533 -1.0553 6.82549 223 219 207 
-1.24867 -1.03955 6.79387 225 222 207 
-1.91025 -0.959743 6.3918 226 226 214 
-0.775563 -0.757824 7.05779 106 107 109 
-0.798248 -0.724779 7.02957 103 102 107 
-0.642923 -0.72296 7.15788 102 106 107 
-1.76726 -0.602053 6.44279 84 79 73 
-0.778934 -0.607901 7.06945 178 184 182 
-1.28881 -0.575448 6.74473 236 231 225 
-1.70338 -0.543893 6.47142 233 234 236 
-0.722916 -0.585085 7.07634 80 90 91 
0.107313 -0.615108 7.55964 102 103 105 
0.137554 -0.629541 7.77036 80 81 83 
-1.31361 -0.527257 6.70952 31 30 26 
0.0371877 -0.592283 7.54974 218 217 213 
-1.72765 -0.507599 6.46913 90 85 81 
-1.22672 -0.522215 6.76042 49 41 30 
0.218022 -0.589484 7.64 77 78 80 
0.0356633 -0.564531 7.55275 225 225 227 
0.160539 -0.546587 7.60981 106 107 109 
0.123943 -0.493143 7.59188 225 226 228 
-0.300907 -0.467698 7.34637 231 233 232 
0.0250084 -0.426184 7.54112 219 220 222 
-0.36186 -0.400746 7.27893 234 236 235 
0.0497551 -0.366085 7.54965 96 97 99 
0.45445 -0.371888 7.79608 85 87 86 
0.398725 -0.327791 7.73759 223 225 224 
0.250078 -0.280514 7.66013 76 80 83 
0.0240401 -0.273676 7.5306 205 209 212 
-0.0415279 -0.241136 7.43255 200 204 205 
0.655442 -0.256441 7.91548 232 233 235 
0.34966 -0.239811 7.6851 78 79 81 
0.121459 -0.214315 7.56686 106 110 111 
0.514316 -0.187293 7.76714 45 46 50 
-0.0241974 -0.166914 7.46759 76 80 83 
0.042356 -0.167467 7.49626 217 218 220 
0.370038 -0.175619 7.6973 222 223 227 
0.113915 -0.158052 7.51294 103 106 111 
-0.106417 -0.143449 7.40644 98 102 103 
-1.53178 -0.122527 6.51731 241 245 246 
-0.0467271 -0.105376 7.43897 221 225 226 
-0.142816 -0.0602393 7.34305 42 43 45 
0.187132 0.0511723 7.57533 77 78 80 
0.122546 0.120428 7.50365 94 95 97 
0.0710589 0.132992 7.4962 238 240 239 
0.129797 0.201788 7.52081 81 85 86 
0.0485002 0.232422 7.44786 79 83 84 
-1.36945 0.251712 6.57084 241 242 244 
-1.32503 0.347749 6.57335 241 245 246 
-1.25266 0.520392 6.60528 241 247 247 
-1.18348 0.677795 6.62473 240 240 238 
-1.17886 0.727194 6.63038 83 80 71 
-1.13506 0.737498 6.65165 241 242 244 
-0.188201 0.835216 6.68982 123 113 101 
-1.11443 0.874148 6.65404 78 71 61 
-1.05236 1.40633 6.63888 221 220 216 
2.34637 2.0063 8.74528 117 104 98 
-0.23379 1.55334 6.64175 103 93 81 
2.73925 1.99565 8.49553 189 177 161 
1.11714 1.73164 7.36053 195 186 177 
1.07373 1.76804 7.50378 86 71 52 
0.810311 1.84231 7.72858 186 178 167 
1.16973 1.81155 7.33258 222 214 201 
1.27245 1.86869 7.49137 214 198 175 
0.854836 1.89473 7.4841 179 172 166 
-0.350977 1.78967 7.01283 71 61 52 
0.00713659 1.73147 6.8025 113 94 87 
1.28494 1.90681 7.33834 191 174 164 
-1.03016 1.71804 6.60426 249 249 247 
-0.965812 1.73186 6.64154 232 231 226 
0.0580534 1.82466 6.95799 171 158 150 
-0.708237 1.76462 6.69081 104 93 87 
-1.03958 1.74266 6.51735 143 134 125 
-0.322657 1.78988 6.6754 144 135 128 
-1.11042 -1.16034 6.91013 122 107 100 
-1.12341 -0.974932 6.85569 144 136 125 
-0.768932 -0.739402 7.04333 111 109 112 
-0.648116 -0.75821 7.18068 92 98 98 
-0.251014 -0.612772 7.35741 66 70 69 
0.0118665 -0.443971 7.55667 216 220 221 
0.535943 -0.421351 7.7534 231 232 234 
0.0458731 -0.35249 7.53771 86 90 91 
-0.184938 -0.319372 7.37763 67 71 70 
0.533681 -0.265727 7.78293 220 226 226 
-0.0474886 -0.0952541 7.4403 221 225 226 
0.0500274 0.134083 7.50452 239 240 242 
1.11238 0.853471 7.487 143 130 121 
-0.185276 0.831005 6.66748 129 119 107 
-1.07094 1.36569 6.64936 129 125 122 
2.82346 1.93684 8.47154 84 68 68 
2.72707 1.99164 8.51709 220 211 196 
0.696267 1.83415 7.71338 200 185 162 
0.84997 1.89138 7.44059 161 154 148 
-0.364008 1.80923 7.08486 42 32 23 
-0.445588 1.79037 6.97335 63 50 42 
-1.1363 1.70703 6.54802 230 220 208 
-1.00352 1.71364 6.59918 242 241 239 
-0.338456 1.8001 6.72469 152 142 133 
-0.24724 1.79673 6.70166 31 18 10 
0.503622 1.81541 3.32463 105 86 72 
-1.118 -0.978772 6.88464 72 64 53 
-0.666773 -0.752482 7.20121 111 117 117 
-0.757104 -0.714584 7.02223 107 111 112 
-0.166779 -0.674466 7.38996 224 221 206 
-0.25358 -0.591651 7.38575 81 85 86 
0.135743 -0.583317 7.5383 91 92 94 
-0.143008 -0.537848 7.42382 223 221 222 
0.158994 -0.133518 7.53702 67 71 72 
-1.11241 0.903113 6.65334 102 93 84 
-1.15282 0.910718 6.66087 100 90 81 
-1.07097 1.36376 6.64109 130 126 123 
2.23219 1.89898 8.63011 204 201 192 
0.704568 1.83131 7.76488 215 202 183 
1.36274 1.82223 7.47259 132 105 98 
1.22175 1.84147 7.45695 222 212 202 
-1.12383 1.70064 6.5525 230 227 212 
0.687355 1.79647 7.68367 219 214 195 
-0.59763 1.69746 7.04956 215 216 210 
0.225247 1.76627 7.26846 223 220 205 
