ply
format ascii 1.0
comment PCL generated
element vertex 1198
property float x
property float y
property float z
property uchar red
property uchar green
property uchar blue
element face 0
element camera 0
property float view_px
property float view_py
property float view_pz
property float x_axisx
property float x_axisy
property float x_axisz
property float y_axisx
property float y_axisy
property float y_axisz
property float z_axisx
property float z_axisy
property float z_axisz
property float focal
property float scalex
property float scaley
property float centerx
property float centery
property int viewportx
property int viewporty
property float k1
property float k2
end_header
0.66158599 0.185785 3.54124 77 39 3
0.60564399 0.179645 3.5104301 126 81 7
0.61984003 0.17997199 3.51296 104 61 8
0.624345 0.18373901 3.5162101 95 59 9
0.65117103 0.189468 3.5318301 98 57 9
0.65970898 0.19050699 3.5359399 89 50 8
0.659684 0.19010501 3.5339301 108 66 8
0.81695801 0.25794101 3.2507 22 19 18
0.61920601 0.187419 3.5155399 155 118 32
0.62970501 0.18796401 3.51774 129 85 11
0.64347899 0.190457 3.5211301 109 66 7
0.66826397 0.197915 3.53579 103 64 8
0.66149199 0.194436 3.52864 94 55 5
0.65608799 0.19634099 3.5255699 124 81 10
0.60443401 0.18735699 3.51386 199 154 13
0.61516899 0.18743099 3.5148699 159 121 24
0.62011898 0.191264 3.5188501 176 138 29
0.625817 0.192049 3.51967 181 134 16
0.63012201 0.192573 3.5150599 169 124 14
0.66302502 0.199954 3.53391 141 99 15
0.63255697 0.197179 3.5011899 176 130 12
0.80697501 0.26335299 3.2481101 30 23 16
0.79609102 0.26100299 3.24089 22 19 14
0.79018098 0.25993001 3.2367599 22 19 16
0.810642 0.26467299 3.2420001 61 48 28
0.60269701 0.19191501 3.5099399 203 158 10
0.604617 0.19159301 3.50598 203 158 11
0.67746001 0.209418 3.53317 174 130 10
0.79359698 0.264864 3.24053 42 32 20
0.77791899 0.26419401 3.2270899 62 49 29
0.80657297 0.27122301 3.2467201 139 113 47
0.79817498 0.26880699 3.2398801 118 96 51
0.66256601 0.209124 3.5275099 176 131 8
0.67511803 0.214224 3.5322399 183 137 8
0.77491802 0.268502 3.2272301 137 112 52
0.77013999 0.26857001 3.22738 138 111 46
0.80026102 0.27365801 3.2435901 141 114 40
0.54298002 0.143737 3.9619701 160 145 104
0.78522003 0.27333501 3.2354701 141 113 40
0.58187503 0.20209099 3.5107901 184 146 8
0.56241202 0.173739 3.91802 120 103 66
0.63722599 0.25611201 3.41136 177 135 10
0.66487002 0.26469201 3.3954501 206 163 11
0.54166502 0.224362 3.54251 84 82 75
0.54552299 0.225832 3.5433099 45 43 39
0.55106097 0.223933 3.5455501 77 78 71
0.668302 0.26981601 3.3963399 182 140 7
0.67360002 0.27237099 3.3947799 180 138 7
0.69488102 0.288553 3.3826699 148 111 4
0.70038998 0.291464 3.3814001 147 112 5
0.68564302 0.343409 3.3971901 13 10 5
0.69661999 0.34605101 3.3968699 19 12 3
0.73638099 0.35885799 3.40623 43 35 21
0.68865001 0.34766501 3.3921599 20 17 11
0.69337797 0.35014901 3.3898301 21 18 10
0.69933599 0.35299101 3.3909199 23 20 11
0.72371697 0.35810801 3.4007399 14 9 4
0.72944498 0.36214101 3.4021599 18 13 6
0.73935598 0.361779 3.4042499 28 22 15
0.67584097 0.35027501 3.39976 15 15 12
0.68350202 0.35235199 3.39696 26 25 19
0.69021899 0.35424101 3.38288 53 50 42
0.69588202 0.35700399 3.3810899 70 67 57
0.70168602 0.35986099 3.3796799 74 71 62
0.77373302 0.375296 3.41903 18 12 7
0.773646 0.37528399 3.4189701 18 12 7
0.65780401 0.351778 3.3966999 16 15 16
0.66668999 0.356103 3.3876901 41 40 37
0.67348498 0.35382801 3.39094 54 53 49
0.68017799 0.35626599 3.38922 108 105 99
0.69010597 0.35876301 3.3781199 116 113 102
0.69331503 0.36400399 3.3766601 109 106 99
0.69961298 0.364411 3.37837 115 112 104
0.65500897 0.35337701 3.4049101 10 10 11
0.67454398 0.35995001 3.38168 120 118 109
0.67602098 0.365264 3.3646901 75 74 67
0.69010001 0.368218 3.3705299 79 77 72
0.650096 0.35988101 3.4090199 7 7 7
0.69351798 0.37372601 3.37275 75 73 69
0.69827199 0.371831 3.3750601 83 80 75
0.64331698 0.36260501 3.40646 20 20 19
0.649593 0.36241999 3.38761 56 56 53
0.64332199 0.36313501 3.3802299 72 71 68
0.64867198 0.36598799 3.37833 98 96 93
0.63976097 0.366009 3.3940201 100 99 96
0.62346101 0.367212 3.4044001 9 9 11
0.67537498 0.38484499 3.3630199 86 84 82
0.65656197 0.38349301 3.37009 75 74 70
0.66020203 0.38438901 3.3656499 75 74 70
0.67035902 0.384893 3.36675 75 74 71
0.68429703 0.391083 3.3666 122 121 119
0.66511703 0.388574 3.3650601 98 97 94
0.70998502 0.43357199 3.3790801 93 91 86
0.54542899 0.41557199 3.4579899 141 107 6
0.56405902 0.41951799 3.4722099 133 103 9
0.56405902 0.41951799 3.4722099 133 103 9
0.66249698 0.46096599 3.3965299 70 66 59
0.362535 0.37500599 3.9541399 68 61 47
0.37497401 0.379251 3.9520099 12 8 7
0.68970698 0.48742601 3.4486101 118 92 8
0.372127 0.38670501 3.9483299 13 11 8
0.69978797 0.49672899 3.4521501 124 96 12
0.70354003 0.49652001 3.4511299 123 96 12
0.34845999 0.38887 3.9530001 70 65 54
0.37125599 0.392185 3.94192 8 8 7
0.33509499 0.396386 3.9510901 73 68 58
0.33870599 0.39588499 3.9484799 71 66 55
0.63079101 0.50538599 3.4918201 136 107 22
0.38641399 0.428799 3.9691801 9 8 6
0.40201801 0.43884701 3.9546101 60 58 49
0.38155499 0.43363899 3.9712701 10 8 6
0.580975 0.50714099 3.5329199 140 111 30
0.386673 0.44420499 3.9560699 59 56 47
0.387716 0.44630501 3.9421699 59 57 46
0.56652701 0.504897 3.5379601 143 113 32
0.38435301 0.448686 3.94524 59 57 46
0.58451802 0.52027899 3.5399499 131 101 18
0.67856997 0.55543298 3.5407901 142 111 30
0.6882 0.56002003 3.5413699 142 111 32
0.69694799 0.564161 3.5363901 141 111 31
0.63413 0.54624999 3.5368199 122 91 7
0.655294 0.55496597 3.5379 126 95 12
0.67161399 0.55892199 3.5378499 137 107 24
0.67676502 0.56190801 3.5366499 136 105 23
0.68180698 0.560058 3.53915 143 112 32
0.68559498 0.56594199 3.53599 137 106 23
0.69459897 0.56678599 3.5382099 141 111 31
0.63293499 0.55274701 3.53825 122 91 4
0.67215103 0.56390101 3.5346401 121 90 6
0.68251801 0.56510299 3.5361099 134 103 20
0.68611199 0.57125801 3.5364599 122 91 7
0.53496301 0.54530001 3.5776601 139 107 8
0.57985502 0.56790102 3.57145 126 96 6
0.58381599 0.57315201 3.5715499 124 92 3
0.583305 0.57812101 3.57533 133 101 10
0.610138 0.58856702 3.5868001 131 100 8
0.65112001 0.600999 3.5788901 128 95 5
0.57808101 0.58412999 3.5855801 138 107 14
0.57866198 0.584315 3.58623 138 107 14
0.57866198 0.584315 3.58623 138 107 14
0.65244597 0.60587698 3.58184 129 96 6
0.66747499 0.60858703 3.58529 126 95 4
0.67259902 0.61200303 3.5849199 127 95 4
0.67805701 0.61528099 3.5847099 127 95 4
0.68564802 0.61490101 3.5871201 128 95 4
0.65570599 0.60979497 3.582 134 101 11
0.68176103 0.62053001 3.58815 129 97 7
0.68376303 0.61860502 3.5817299 127 94 4
0.65465599 0.617845 3.5917101 137 106 15
0.65467203 0.61785102 3.5917301 137 106 15
0.66178101 0.62142801 3.58834 140 108 21
0.68444598 0.62607598 3.5896001 133 100 11
0.66861802 0.62615198 3.5901 142 111 24
0.66358203 0.62373799 3.5909901 141 109 22
0.67463499 0.63176799 3.59586 142 111 23
-0.025511401 0.41670701 3.7312 79 59 31
-0.0389232 0.41305101 3.7344401 79 59 32
-0.038945101 0.41681901 3.7298501 80 59 33
-0.030928999 0.41799599 3.7275701 81 59 32
-0.0254944 0.42143601 3.7254901 81 60 31
0.086658999 0.458065 3.8659799 14 9 7
-0.044744998 0.41589999 3.7384901 78 57 31
-0.041820802 0.41825899 3.73194 80 59 33
-0.036964599 0.42207101 3.7291901 81 60 34
-0.033925001 0.42194 3.7225201 81 60 33
0.087232202 0.46057099 3.8543601 8 6 7
-0.036444299 0.42681301 3.72525 82 61 33
-0.0281232 0.426465 3.7247901 87 66 36
0.077621497 0.463633 3.8566 15 11 9
0.083781898 0.46347201 3.85885 8 6 6
-0.056325302 0.42538801 3.71715 81 59 34
-0.032867901 0.43179101 3.7205 117 97 66
0.072820902 0.46807101 3.84848 9 6 7
0.079420097 0.467812 3.84993 7 6 7
-0.076747902 0.42380801 3.71858 82 59 34
-0.056529101 0.431052 3.72121 82 60 34
-0.047138002 0.432044 3.7169099 84 62 34
-0.039087899 0.436553 3.7186 121 101 69
0.075880103 0.47323099 3.8490701 8 7 7
-0.076932698 0.42820099 3.71872 83 60 35
-0.070857398 0.43147001 3.7230301 84 61 35
-0.0444309 0.43628401 3.7151201 120 100 68
0.073489703 0.47835299 3.8466401 8 7 7
-0.074772403 0.43488199 3.7123301 83 61 35
-0.0497072 0.440887 3.7121899 120 100 69
-0.062963799 0.44131401 3.71016 114 92 63
-0.082369499 0.43893901 3.71544 82 61 33
-0.0629659 0.44531199 3.70316 123 102 70
0.259094 0.55992597 4.0753598 45 33 7
0.25496101 0.55556101 4.0697598 45 32 7
-0.15751199 0.42127499 3.75804 91 72 54
-0.069818199 0.44902301 3.70175 124 104 71
0.25853199 0.56389999 4.0699902 48 34 6
-0.309387 0.375011 3.8408101 109 91 74
-0.24471501 0.39905301 3.8008299 99 82 67
-0.167243 0.42105001 3.7585001 112 96 79
-0.15249901 0.42591 3.7558801 78 56 33
0.25418299 0.565597 4.0684099 46 33 8
0.25649101 0.56737798 4.0625501 60 44 11
0.27239999 0.571495 4.0623598 74 52 2
-0.31523299 0.37864801 3.83969 88 71 53
-0.303655 0.382875 3.83255 92 75 59
0.258609 0.57645202 4.0532098 73 51 3
-0.26993299 0.39752799 3.8087201 92 75 59
-0.12211 0.448448 3.70454 86 64 37
-0.70142502 0.274524 4.4677 196 153 24
-0.136959 0.445721 3.6994901 86 64 37
-0.14037199 0.44774699 3.7030201 88 66 38
-0.13381299 0.45131901 3.70241 90 67 39
0.144419 0.55188799 3.9138501 58 56 51
-0.91972202 0.21387599 4.4255099 185 117 13
-0.148175 0.451325 3.6995499 90 69 40
-0.135686 0.456157 3.6995201 91 69 40
-0.110717 0.462854 3.7030301 126 106 73
-0.95591199 0.204685 4.3882098 186 87 6
-0.94618201 0.211099 4.4425201 185 90 7
-0.94618201 0.211099 4.4425201 185 90 7
-0.94894099 0.21036901 4.4110098 187 97 6
-0.157325 0.454714 3.71018 92 69 41
0.140618 0.56232202 3.91535 65 62 54
0.565494 0.69677299 3.7427001 140 110 25
-0.95264602 0.214864 4.3945799 243 184 31
-0.156464 0.46241501 3.7066901 92 70 41
-0.156499 0.46607101 3.7017701 95 72 43
-0.13386101 0.470869 3.69576 127 107 75
-0.124832 0.47349399 3.7006299 127 107 74
-0.90023297 0.240851 4.4047098 222 182 9
-0.86747098 0.25305501 4.43999 194 152 31
-0.38220501 0.396202 3.842 102 81 51
-0.244573 0.44099799 3.72681 89 66 40
-0.18870001 0.46026501 3.7125101 89 67 38
-0.17539001 0.462069 3.70173 93 70 42
-0.162461 0.46549499 3.7125101 94 71 42
-0.14022499 0.474168 3.69104 123 103 70
0.113601 0.56664401 3.91061 63 60 52
0.15952601 0.58091599 3.9273901 46 43 36
-0.90238303 0.24618 4.4077601 217 175 9
-0.229618 0.45057201 3.7123499 93 71 42
-0.195575 0.46244401 3.6961701 89 67 37
-0.18130299 0.463568 3.70907 92 70 41
-0.180564 0.467177 3.7038 93 70 41
-0.177204 0.46677399 3.69893 93 71 40
-0.139084 0.47891101 3.69451 127 107 74
0.0918478 0.56320798 3.9181099 10 9 9
0.141481 0.581613 3.9207799 47 44 38
-0.245637 0.44723099 3.6830201 94 72 43
0.131567 0.58564198 3.9175 50 47 40
-0.900801 0.25387001 4.4022398 202 158 9
-0.59804201 0.36416399 4.5085602 37 32 22
0.35563901 0.67565697 4.1736202 49 19 3
-0.59613401 0.370002 4.5100899 72 63 42
-0.956065 0.24694499 4.3820901 244 218 55
-0.95222402 0.25206301 4.3755002 240 201 18
-0.945728 0.25187001 4.3757701 237 198 12
-0.93292803 0.25681999 4.37005 229 187 14
0.350768 0.68951398 4.17276 98 69 5
-0.95237702 0.25704101 4.3642402 235 196 12
-0.93279999 0.26225001 4.3633499 219 176 11
-0.935718 0.26146799 4.348 221 179 11
-0.205842 0.48587999 3.6874101 106 83 51
-0.181807 0.49457899 3.66998 129 107 71
0.36822999 0.69935298 4.1649098 99 70 4
-1.01315 0.23896401 4.3743401 225 179 126
-0.92470998 0.268805 4.3594098 194 151 8
-0.89635003 0.28407499 4.3772702 136 98 5
-0.94624901 0.26862901 4.3432798 221 179 10
-0.938438 0.272558 4.3435202 208 165 10
-0.92891902 0.27889499 4.3515801 178 136 7
-0.19568799 0.50405401 3.6640301 131 109 74
-0.191303 0.50397801 3.6662199 132 110 74
0.363141 0.71901101 4.1598501 132 99 13
-0.200655 0.504026 3.66202 129 106 73
-0.197795 0.50830603 3.6605201 130 109 74
0.100668 0.62366098 3.9444101 90 83 71
0.36126 0.72418302 4.1605501 136 104 11
-0.22171 0.50458097 3.65833 111 89 57
-0.230489 0.504269 3.66589 110 88 54
-0.227357 0.50742197 3.66329 115 94 62
-0.23012701 0.50891697 3.6630599 118 96 64
-0.227051 0.51180398 3.65958 121 101 70
0.32207599 0.72747999 4.16083 105 74 4
1.55463 1.20243 5.2188001 141 132 122
1.56392 1.20687 5.2219801 141 132 121
-0.96829098 0.2895 4.34165 186 144 13
0.32165399 0.73240399 4.15379 109 77 5
0.38840899 0.75832999 4.1969399 139 106 6
-1.02034 0.27831101 4.3253498 167 136 95
-1.01063 0.281252 4.3271899 202 179 153
-0.92005199 0.315238 4.3790598 146 108 8
0.39073601 0.763089 4.1968999 141 108 7
0.38029799 0.764929 4.1859198 141 109 7
-1.02044 0.284197 4.3199501 155 115 62
1.5509 1.25582 5.1873899 131 121 111
1.5301 1.25272 5.2074199 128 118 108
1.5612299 1.26381 5.1880798 128 118 109
-0.643879 0.448075 4.48915 129 99 18
0.117006 0.70219398 4.1615601 95 79 52
0.189997 0.72185498 4.1215501 78 62 34
0.203076 0.727063 4.1208301 76 60 31
1.50858 1.25225 5.2062602 126 116 105
0.121794 0.70448899 4.1510201 98 82 57
0.18716 0.72989202 4.1194701 79 64 34
0.249778 0.748649 4.10675 119 98 66
0.219036 0.74175799 4.0976801 117 101 71
0.221036 0.74628001 4.0955501 119 102 74
0.239397 0.74927801 4.1052499 120 101 73
1.4962699 1.26616 5.16782 124 114 104
-0.912965 0.371452 4.52212 117 66 3
-0.90759403 0.37553301 4.5271802 119 69 3
1.46255 1.26097 5.1580601 127 117 107
1.49777 1.2697099 5.1575499 125 115 105
1.50758 1.27335 5.1570902 125 115 105
1.51633 1.2751499 5.1364198 125 115 104
-0.89363998 0.38613799 4.5298901 121 78 4
1.49542 1.28031 5.13939 131 121 111
1.50532 1.28202 5.1296802 129 119 108
1.51607 1.28593 5.12467 128 118 107
1.5260201 1.28578 5.1002698 126 115 106
1.45222 1.26741 5.14294 136 126 116
1.46059 1.2725199 5.1394801 137 127 117
1.4805501 1.28154 5.1413398 136 126 116
1.48815 1.2846299 5.13765 136 126 116
1.50396 1.28601 5.1376801 132 122 111
1.4798599 1.2886699 5.14605 139 129 119
1.49591 1.29111 5.1319699 137 127 117
1.5587699 1.30913 5.0941 134 124 115
1.44216 1.28145 5.1171498 139 128 118
1.4418499 1.28264 5.1229401 139 128 117
1.44491 1.28467 5.1097598 138 128 117
1.44879 1.2810301 5.1092701 138 128 118
1.4608999 1.28783 5.1017699 139 129 119
1.4795099 1.29513 5.0945101 138 128 118
1.47834 1.29441 5.09479 139 129 119
-0.87854999 0.410824 4.51265 130 92 4
1.43002 1.28409 5.1145802 135 125 115
1.46559 1.29825 5.0957599 136 126 116
1.48219 1.29688 5.07967 138 128 119
1.48578 1.29733 5.0752802 138 128 119
-0.956743 0.383376 4.4605799 142 78 6
1.4256099 1.28971 5.1121602 124 114 105
1.4952199 1.31836 5.05267 124 114 104
1.69092 1.3817 4.8997402 182 171 165
1.6921999 1.38227 4.9011998 182 171 165
1.71298 1.38555 4.88555 182 171 165
-0.87691897 0.428801 4.49793 131 92 6
1.53183 1.34012 5.0661802 129 119 110
1.52912 1.34225 5.06882 127 118 108
1.5424 1.3457201 5.0471401 149 139 130
1.5478801 1.34092 5.03269 166 156 147
1.40064 1.2991199 5.0531201 127 117 107
1.5091 1.33752 5.02776 131 121 112
1.43572 1.3214099 5.0406599 129 119 109
1.49345 1.3419 5.0367899 128 118 108
1.4929399 1.34293 5.0239501 134 125 115
1.50394 1.3395801 5.01156 138 128 119
1.52609 1.35001 4.9911399 158 147 139
1.53786 1.35614 4.9923601 158 148 141
1.4354 1.3242 5.0287199 130 121 111
1.49086 1.34794 5.0291901 142 132 122
1.49086 1.34794 5.0291901 142 132 122
1.5162899 1.35395 4.9970698 166 156 148
1.53346 1.3599 4.9945302 162 151 144
-0.78332901 0.48530701 4.4989901 241 194 13
1.5346 1.367 4.9875598 179 168 162
0.458031 0.93479198 4.3713102 119 78 3
0.73873901 1.03092 4.28655 144 108 6
1.51916 1.36708 4.9905901 179 168 160
1.53485 1.37291 4.98173 190 179 173
1.68276 1.41295 4.7649899 188 178 171
1.6889 1.4123501 4.7534299 185 174 167
0.73181301 1.0315599 4.2881398 144 107 5
1.51893 1.37357 4.9816899 177 166 158
1.68094 1.41603 4.7736301 192 182 175
1.67918 1.41567 4.7491298 194 184 177
-0.76386303 0.50681603 4.4772201 220 178 48
1.5035 1.39059 4.9405999 153 143 133
1.51425 1.3924201 4.9411702 172 162 153
0.66853303 1.0386699 4.3068099 149 113 8
0.67596501 1.03869 4.3080802 148 113 8
1.5146199 1.39916 4.9332399 180 170 162
1.5148 1.40571 4.92519 189 177 170
1.52008 1.41545 4.9285402 187 176 168
-0.87593198 0.49124601 4.4854498 184 140 8
-0.87002701 0.49114299 4.4869699 185 140 7
0.58307803 1.02429 4.3660498 157 119 10
1.49711 1.40939 4.93255 148 138 128
1.5089 1.4143 4.91993 177 167 159
0.56979197 1.02211 4.35215 155 118 7
1.50024 1.4177001 4.9321299 152 142 132
1.51529 1.42347 4.9275699 183 172 164
1.50823 1.42598 4.9219298 179 168 160
1.5201401 1.42533 4.9141502 195 185 178
0.50414401 1.0038199 4.3741698 139 102 6
0.69431603 1.06937 4.3118601 128 93 5
1.49314 1.42372 4.9209099 154 143 133
1.50352 1.42781 4.9040699 188 178 170
1.51086 1.42671 4.9084902 192 182 174
1.5213 1.43208 4.9068699 202 190 184
1.51043 1.43127 4.90026 197 186 179
0.498099 1.01053 4.3755002 140 103 5
0.63111901 1.05336 4.33464 137 101 6
1.48998 1.42589 4.9042501 165 154 145
1.49659 1.42917 4.9001999 183 172 163
1.50218 1.43242 4.8948898 193 183 175
1.50319 1.43259 4.8965602 194 183 176
1.7004499 1.4981101 4.76301 194 184 178
1.7171 1.50166 4.76683 182 172 165
1.71605 1.50349 4.7662001 182 172 165
0.51207399 1.02519 4.3785701 145 109 9
0.68573803 1.07809 4.31217 130 96 6
1.49419 1.4336801 4.8906202 189 179 171
1.4944201 1.43785 4.8825102 196 184 177
1.50747 1.44384 4.88936 202 191 184
1.68283 1.4983 4.7508898 197 187 180
1.70386 1.5011801 4.7561002 188 178 171
1.71193 1.50646 4.7543302 174 163 156
1.71336 1.50668 4.7548299 173 162 155
0.446973 1.00457 4.39151 143 106 5
0.453251 1.00477 4.39464 146 109 8
0.68708199 1.08711 4.2948699 129 96 8
0.70595002 1.09477 4.30689 133 97 7
1.4751 1.43934 4.9137602 146 136 126
1.47008 1.44033 4.8983102 150 140 131
1.47337 1.439 4.8836098 167 156 147
1.47742 1.4394799 4.8710699 188 177 168
1.48621 1.43897 4.8777699 192 182 173
1.4852 1.4436899 4.8710599 197 187 179
1.48974 1.43881 4.8633599 200 189 181
1.49299 1.44599 4.8654599 202 191 184
1.52637 1.4540499 4.82198 201 190 184
1.56402 1.4650199 4.83389 197 186 179
1.6932499 1.50217 4.7405601 184 173 166
0.54114199 1.04232 4.3579998 125 90 5
0.58352703 1.05937 4.3503199 146 111 12
0.659733 1.08323 4.2967601 125 90 6
0.67733997 1.08981 4.28579 124 89 5
1.4707299 1.4412 4.8680501 181 170 161
1.47764 1.44455 4.86516 196 185 177
1.5462199 1.4684401 4.8221998 192 181 174
1.69958 1.5171601 4.72505 149 139 130
-0.94906503 0.49510899 4.4299202 193 121 5
-0.86576498 0.53462499 4.49365 162 123 5
-0.86120802 0.53526002 4.4956799 163 124 5
-0.85594499 0.53499597 4.4955902 164 125 6
0.56391603 1.0597 4.3380098 134 99 7
0.57747799 1.0597 4.3480601 141 105 7
0.58649403 1.06441 4.3474302 134 98 5
0.66755402 1.0877399 4.2831602 121 84 3
0.69480699 1.10057 4.28299 120 85 4
1.4778399 1.44941 4.8584199 200 189 182
1.47088 1.45188 4.8540101 199 189 182
1.51823 1.4603601 4.7927599 191 181 174
1.53064 1.46312 4.8017101 189 178 172
1.52547 1.46068 4.7959199 190 179 173
1.52976 1.4661601 4.79427 176 165 158
1.53505 1.46886 4.8007102 174 163 156
1.57865 1.48434 4.8378401 178 166 159
-0.863473 0.53922099 4.4844198 154 118 18
0.62092602 1.0809799 4.29248 119 79 4
0.69441301 1.1084599 4.2741399 119 82 3
1.45886 1.45489 4.8639498 183 173 164
1.46383 1.45337 4.85004 198 188 180
1.52738 1.47189 4.7909498 159 149 140
1.68628 1.5214601 4.7294102 154 144 136
-0.879601 0.53760898 4.47472 160 120 7
0.57932401 1.0744801 4.3153701 130 90 4
0.63365299 1.08787 4.2780399 151 112 15
1.44875 1.45795 4.85886 179 169 160
1.45789 1.45625 4.8480301 197 187 179
1.4509799 1.45733 4.84304 196 186 178
1.54238 1.48718 4.8046198 148 138 128
1.67264 1.5305001 4.7424798 167 156 148
0.52052099 1.05744 4.3118501 110 71 2
0.52950901 1.0583301 4.3114901 108 70 2
0.55191302 1.06687 4.3024302 127 87 7
0.56644702 1.07666 4.3109698 145 105 9
0.62840599 1.09429 4.2843699 163 122 8
1.4422899 1.45962 4.85537 178 168 158
1.51393 1.47493 4.7417798 144 134 125
-0.87938499 0.54913503 4.47159 166 133 59
0.48523799 1.051 4.32863 109 71 2
0.49404699 1.0534199 4.3242402 111 73 2
0.51486802 1.05968 4.31108 126 88 6
0.52013499 1.0624599 4.3048 138 100 8
0.52965498 1.0633301 4.3045301 134 95 8
0.528938 1.06543 4.3004398 143 106 8
0.55893701 1.07853 4.3082199 148 108 6
0.56690198 1.08219 4.30688 151 111 5
0.57536 1.08119 4.3116002 160 119 9
0.57535303 1.08558 4.3026099 178 135 7
0.58384198 1.08461 4.3073702 209 167 13
1.43783 1.4621 4.8427501 191 181 172
1.4329799 1.46479 4.83042 198 188 181
1.4329799 1.46479 4.83042 198 188 181
1.43414 1.46336 4.8236299 200 189 183
1.48571 1.47307 4.77213 176 166 158
-0.888807 0.549088 4.4585199 161 122 45
-0.878896 0.55516201 4.4752202 165 135 78
-0.87289298 0.555134 4.4811502 165 137 82
0.48435 1.05424 4.3159699 128 90 7
0.49423099 1.05773 4.3158302 137 98 11
0.49392 1.0578099 4.3018699 141 104 8
0.50457603 1.0624501 4.3067298 143 105 7
0.51254702 1.06279 4.3043699 143 106 9
0.58393902 1.08919 4.29913 218 172 12
0.61281598 1.10326 4.2811599 176 131 11
0.70425498 1.13401 4.2726102 117 78 3
1.4109401 1.46346 4.83465 166 156 146
1.42428 1.4654 4.83639 186 176 168
1.42225 1.46386 4.8211799 196 186 178
1.4282399 1.46764 4.8185301 202 191 184
-0.88428801 0.55662602 4.4712 165 134 79
0.15749601 0.94426101 4.3666401 12 51 27
0.493999 1.06178 4.2922301 142 104 7
0.51230001 1.06815 4.29849 144 106 7
0.55899602 1.09042 4.29598 146 108 6
0.59594899 1.09848 4.2740898 203 157 13
0.60551798 1.10544 4.2769299 190 147 13
0.61533201 1.10857 4.2786498 176 133 15
1.4175299 1.46687 4.8217702 195 185 177
1.40668 1.46602 4.8122201 194 184 175
1.4111 1.46922 4.8087702 199 189 181
1.47393 1.4831899 4.73349 144 134 124
1.48849 1.4855 4.7397599 143 133 123
-0.88921601 0.55474001 4.4516401 164 126 64
0.149069 0.94642198 4.3705101 11 51 27
0.50905597 1.07432 4.2983198 131 93 2
0.52942002 1.0851901 4.2969298 140 103 6
0.584903 1.10421 4.2848001 160 121 4
0.59702802 1.10625 4.26828 160 120 4
0.613671 1.11045 4.2778602 177 135 13
1.40592 1.47235 4.7975402 201 191 182
1.43922 1.47945 4.7789502 185 175 167
-0.89979899 0.55910498 4.4538698 179 117 13
-0.889359 0.55969697 4.44591 159 123 64
-0.88380498 0.56575501 4.44347 154 129 90
1.39353 1.47499 4.8075099 199 189 181
1.39416 1.47495 4.7972398 201 191 183
1.39416 1.47495 4.7972398 201 191 183
1.4218301 1.48351 4.79283 199 188 181
1.42776 1.4825701 4.7803702 188 177 170
1.43969 1.4898 4.7613201 149 138 129
-0.89988101 0.56381297 4.4469199 166 104 7
-0.88957697 0.565292 4.4432602 153 119 65
0.12776799 0.94766402 4.3645902 12 50 26
0.12776101 0.94766003 4.3645701 12 50 26
0.12776101 0.94766003 4.3645701 12 50 26
1.38785 1.47896 4.8166399 197 187 179
1.38696 1.4773999 4.8045702 201 190 182
1.38046 1.47895 4.8009701 201 191 183
1.41994 1.49037 4.7978802 198 188 180
1.41643 1.48457 4.7740598 192 182 174
1.40408 1.4852999 4.7625999 197 187 179
1.4401799 1.4939899 4.7542601 145 135 125
-0.89912099 0.569538 4.4461398 159 101 13
-0.88972598 0.57090503 4.4391298 147 117 76
0.121901 0.95591301 4.3742299 12 52 27
0.49944001 1.09437 4.3057599 126 93 4
1.3536 1.47861 4.8509402 145 135 123
1.36821 1.48207 4.8161898 192 182 174
1.36938 1.48097 4.8046098 199 189 181
1.37113 1.4804699 4.7940001 202 191 184
1.36869 1.48005 4.7786899 203 192 186
1.3687299 1.48007 4.7787499 203 192 186
1.40475 1.4881901 4.77811 200 190 182
-0.89950001 0.573632 4.4345298 156 102 19
-0.88421398 0.58073002 4.4291601 145 132 114
-0.88037598 0.57969302 4.4372902 143 132 118
0.114444 0.95619398 4.3685598 12 53 27
0.118312 0.95883399 4.3572202 13 55 30
1.33325 1.47825 4.8436699 144 134 123
1.35932 1.48289 4.8231301 181 171 162
1.36441 1.48537 4.8164601 195 185 177
1.36458 1.48248 4.79105 202 192 185
-0.93996602 0.56193799 4.4306698 149 118 56
-0.92921197 0.56455702 4.42312 179 132 50
-0.89020002 0.58176899 4.4302001 150 128 97
0.105115 0.95423698 4.3523998 13 53 28
0.114906 0.96159297 4.3624802 13 56 29
0.122617 0.96085203 4.3450899 15 59 33
0.135922 0.97032899 4.3514299 28 68 43
1.3102601 1.47902 4.84167 140 130 118
1.3305399 1.48607 4.8373199 151 141 131
1.32994 1.48658 4.8343101 156 146 135
1.34611 1.48993 4.81919 192 182 173
1.35888 1.48801 4.79948 203 192 185
1.34952 1.4892 4.7941399 202 192 184
-0.93996602 0.56553698 4.4328499 150 123 74
0.122871 0.970994 4.3457799 24 66 40
0.12818199 0.970568 4.3445902 27 68 41
0.69828498 1.18536 4.2785401 152 116 11
1.31577 1.48581 4.8628101 142 132 120
1.30231 1.48045 4.8358102 142 131 120
1.31547 1.4849401 4.8246102 159 148 138
1.3270299 1.48851 4.82409 173 163 153
1.32374 1.48959 4.8225398 178 168 157
1.34089 1.49245 4.8324199 183 173 164
1.41717 1.5083899 4.7139001 176 166 158
1.42489 1.51399 4.6903801 155 145 136
-0.89942998 0.58704001 4.42314 172 117 16
-0.891684 0.5891 4.4310398 141 106 57
-0.88763797 0.59397501 4.43326 133 109 79
0.130463 0.97793299 4.3485498 30 70 43
1.25934 1.46567 4.7951999 141 129 116
1.26212 1.46445 4.7778001 145 134 122
1.3228101 1.49524 4.8291202 187 177 167
1.30369 1.48798 4.7980499 194 183 175
1.33451 1.49733 4.81564 200 191 182
1.33208 1.49595 4.8014002 202 192 183
1.4249099 1.5181 4.6812501 155 145 135
-0.89660001 0.59252799 4.4259901 139 88 14
-0.89150399 0.59701002 4.43467 129 96 49
-0.883555 0.60115999 4.4421 145 130 115
0.130715 0.98521799 4.3510699 32 70 44
1.28554 1.47641 4.7498498 199 189 181
1.40736 1.5204099 4.6879902 194 183 177
1.4154299 1.52478 4.68572 181 170 164
1.4250799 1.52267 4.6707001 153 143 133
1.4330699 1.52911 4.6619201 144 134 124
-0.88911998 0.60373598 4.43784 144 125 104
1.40765 1.52665 4.6814399 183 172 166
1.42207 1.5323 4.65628 146 136 127
-0.92050302 0.59630799 4.4157901 156 125 85
-0.89516997 0.60867602 4.4307699 145 129 112
0.18468 1.0258501 4.4051199 32 65 37
0.58287698 1.16378 4.2853398 155 120 6
1.2922 1.49131 4.72575 201 191 182
1.35147 1.51494 4.7326698 199 189 182
1.4065 1.53186 4.67167 160 150 142
1.4148099 1.53743 4.6729898 150 140 131
-0.89203602 0.61426401 4.4333 140 130 118
0.184706 1.03049 4.3996801 52 67 34
0.197403 1.0338399 4.40416 83 74 37
0.58267999 1.17255 4.2809 168 132 8
1.27513 1.49808 4.7398 156 146 135
1.33755 1.51871 4.73806 202 191 184
1.35419 1.52323 4.7079201 152 142 132
1.40088 1.53627 4.6796999 150 139 130
1.40256 1.53857 4.6831698 148 138 129
0.16703001 1.0284899 4.40414 30 65 37
0.16801 1.0278 4.41012 29 66 39
0.17403901 1.03002 4.3840699 60 70 35
0.66572499 1.20952 4.2802701 168 133 9
0.66544902 1.20968 4.28058 168 133 9
1.3552099 1.5299 4.7045002 144 134 124
1.39827 1.54646 4.6830602 144 133 123
1.40651 1.54617 4.6845498 145 134 124
-0.90841299 0.61663002 4.4110098 141 130 119
-0.89729702 0.61909598 4.4292302 140 130 119
0.650249 1.20697 4.2706199 179 142 7
1.2731301 1.51212 4.74508 142 131 119
1.32552 1.5272 4.7116599 188 178 170
1.34174 1.5364 4.7210898 157 147 138
1.38589 1.54219 4.66782 142 132 122
1.40233 1.5541 4.6845698 143 132 122
-0.042862501 1.01863 4.8628998 125 92 5
0.86529499 1.33002 4.5137801 159 130 61
1.32592 1.53163 4.7064099 172 161 153
-0.00100811 1.04647 4.9060001 106 81 8
0.13985001 1.0332299 4.3926601 34 68 40
0.86797303 1.3329099 4.4867101 140 125 100
1.32157 1.53749 4.70397 160 149 140
1.31945 1.53835 4.6852999 145 134 124
0.17399999 1.05786 4.4165802 106 89 2
0.85020798 1.33675 4.50279 177 134 11
0.86049098 1.33648 4.4835401 149 128 85
0.86608797 1.34124 4.4746399 141 124 104
1.30768 1.54136 4.70086 151 140 130
1.31086 1.53789 4.6746702 143 132 121
1.32723 1.54307 4.6840401 142 131 120
0.115588 1.0384001 4.4009299 33 70 44
1.29039 1.54001 4.6716399 142 131 119
1.30647 1.54207 4.67487 141 131 118
0.11264 1.04406 4.3864498 39 68 31
0.13330901 1.04782 4.3826599 95 85 9
0.14082099 1.05242 4.3871198 104 88 4
0.87160599 1.35426 4.4772401 139 125 107
0.096615702 1.0419 4.3645301 43 72 31
0.111012 1.04647 4.3688598 82 81 13
0.12742899 1.05523 4.3793302 108 91 6
0.84119302 1.35206 4.4916902 176 132 10
0.089446701 1.04221 4.3591199 44 74 33
0.103851 1.0466599 4.3628998 84 84 15
0.089432001 1.04619 4.3509798 84 86 17
0.166567 1.08222 4.3945599 122 102 4
0.83240998 1.36215 4.4749498 176 132 10
0.84806597 1.36111 4.4589 156 133 80
0.22580799 1.11286 4.4071002 117 93 9
0.68326801 1.2818201 4.3010001 163 129 14
0.83797401 1.36694 4.4650402 180 141 24
0.84167498 1.36507 4.4576898 171 139 57
0.14941099 1.08657 4.38939 124 105 5
0.196591 1.10737 4.3991599 129 109 6
0.22566999 1.11938 4.4052701 116 92 7
0.22986899 1.1199501 4.40411 111 85 8
0.664226 1.2817301 4.2951002 161 128 13
0.84077698 1.37186 4.4382801 155 132 83
0.138633 1.09148 4.3867002 124 104 5
0.15739299 1.09856 4.3902302 129 110 5
0.21798 1.1233799 4.3996201 126 104 6
0.223527 1.1223201 4.3984299 118 94 6
0.66874897 1.28804 4.2968602 159 126 15
0.132918 1.0909899 4.3840199 122 104 5
0.22435801 1.1309299 4.3954101 118 93 8
0.090890698 1.07986 4.3556399 121 104 5
0.81456298 1.38422 4.4517698 182 138 8
0.084822997 1.0827301 4.3534498 123 106 6
0.137777 1.10724 4.3899298 128 110 5
0.63303 1.29351 4.3049898 154 121 10
-0.063600197 1.11037 4.9307699 196 151 15
0.142621 1.11814 4.3920398 129 111 4
0.15010101 1.11672 4.3922501 130 112 4
0.218565 1.14697 4.3814702 119 94 8
0.80527699 1.39081 4.4526801 182 140 10
-0.0916178 1.10109 4.9163599 126 88 5
-0.069563799 1.11219 4.9268298 202 155 14
0.78299397 1.3860101 4.4336901 180 137 10
-0.34362099 1.0621099 5.2871399 120 103 82
-0.086685903 1.1116199 4.9225402 157 116 10
0.58027297 1.2905101 4.2992101 149 117 13
0.61786801 1.30995 4.3172798 152 120 16
-0.077889398 1.1183 4.9131398 210 164 11
0.78175497 1.40668 4.42904 173 136 18
0.78901201 1.40667 4.4318099 171 136 18
-0.42465901 1.08549 5.5429502 144 131 123
-0.36089101 1.0713 5.2735801 116 101 84
-0.439179 1.0962501 5.51752 103 90 79
0.19483501 1.18664 4.3896899 139 119 6
0.19483501 1.18664 4.3896899 139 119 6
-0.50845498 1.08339 5.5522099 190 177 171
0.69144201 1.40053 4.4297199 163 128 8
0.68924499 1.40174 4.4162502 157 120 8
0.0225644 1.12845 4.3955898 104 97 27
0.028124999 1.12836 4.3878498 107 98 23
0.058777001 1.13925 4.36834 107 99 14
0.404237 1.2911201 4.4514098 127 96 4
0.67834902 1.4044501 4.4300098 162 125 6
-0.48668399 1.0973001 5.5076499 176 165 159
0.029957401 1.13351 4.3856001 89 90 37
0.58620799 1.37177 4.4180102 147 115 17
0.042604301 1.1421601 4.3696899 67 80 50
0.59066099 1.37879 4.4218602 147 115 14
0.094118498 1.16522 4.3317499 72 84 49
0.65173203 1.4103 4.4331198 162 124 8
1.45526 1.72498 4.3109002 153 143 133
0.63935798 1.41663 4.42979 153 114 6
0.63809198 1.41243 4.4349599 157 120 7
0.70398402 1.44561 4.4034801 153 110 5
1.43586 1.7251101 4.26157 184 173 167
1.4656301 1.73853 4.2743702 175 165 159
-0.33998299 1.13684 5.1582198 128 99 46
-0.1286 1.18655 4.92589 131 91 3
0.63338602 1.42301 4.4272399 138 100 4
0.645836 1.42442 4.4160399 138 99 7
0.70036298 1.44876 4.3938799 188 141 12
0.79105902 1.49746 4.4661198 174 128 7
0.80100298 1.49965 4.4726801 178 134 6
0.81543201 1.50599 4.4550099 163 138 76
0.81543201 1.50599 4.4550099 163 138 76
1.42989 1.73027 4.2523298 196 185 180
1.42989 1.73027 4.2523298 199 188 183
1.43883 1.73307 4.2650199 195 184 178
0.63416398 1.4294 4.4261298 122 84 4
0.78759301 1.50112 4.46104 183 135 8
0.780536 1.49883 4.4542999 181 133 8
0.794016 1.5022399 4.4642701 188 140 9
0.795717 1.50509 4.4572001 197 153 11
0.80716503 1.50811 4.46029 189 153 46
0.65355003 1.4430701 4.41855 120 82 4
0.660151 1.44806 4.4183998 140 98 7
0.666843 1.44805 4.4098501 139 98 8
0.68893999 1.45423 4.3926001 229 183 14
0.69464898 1.45788 4.3871198 240 196 10
0.76740301 1.49581 4.4400201 181 134 7
0.78493601 1.50662 4.4560399 207 159 11
0.80633903 1.51151 4.4510498 178 149 64
1.40369 1.73006 4.2702098 155 145 137
-0.28224701 1.1672601 5.09306 203 163 8
-0.096441902 1.2227 4.9481602 192 143 16
0.59294802 1.4294 4.4436798 116 80 3
0.617226 1.43902 4.4348302 120 80 5
0.62661999 1.44013 4.4257698 126 86 3
0.65255803 1.4500999 4.4021902 195 148 14
0.66051602 1.4484299 4.4060998 158 114 10
0.67212498 1.45417 4.40906 188 141 13
0.68563998 1.45893 4.3979902 236 190 12
0.77590102 1.50895 4.4471102 230 183 11
0.79284102 1.51117 4.4527402 230 187 20
0.65853101 1.4543 4.401 219 172 13
0.67510498 1.46196 4.3784199 230 187 7
0.70356601 1.47558 4.3873 228 184 9
0.78177202 1.51457 4.4471402 239 197 11
0.78636402 1.51817 4.4312501 217 182 39
-0.30780101 1.1707799 5.0680599 190 164 111
-0.110185 1.2320499 4.9475498 222 171 10
0.63009 1.45507 4.4141202 182 137 10
0.66262299 1.45991 4.3793998 232 186 11
0.76162201 1.51071 4.4320598 241 196 11
0.61918497 1.45544 4.4121099 171 127 6
0.66852802 1.47144 4.3708 217 172 8
0.753205 1.51424 4.4209599 242 200 11
0.75418198 1.51053 4.42379 241 198 11
0.766491 1.51759 4.4124198 239 199 18
1.3643301 1.74491 4.2602601 161 151 142
-0.134423 1.2349401 4.9382501 216 165 10
0.57391602 1.44201 4.42522 136 98 6
0.60422498 1.45327 4.40523 163 122 6
0.74544501 1.51355 4.41644 240 196 14
-0.81146801 1.06599 5.60676 183 171 163
-0.39780301 1.1627001 5.1445799 131 115 89
-0.33981201 1.17527 5.0545301 135 118 90
-0.31521299 1.18252 5.04919 230 213 182
0.44720799 1.40655 4.4601598 113 77 5
0.47001699 1.41396 4.46631 114 77 4
0.57468301 1.45173 4.4175801 152 112 7
0.597601 1.4545 4.4003901 163 122 6
-0.40224001 1.1682 5.1444201 126 110 85
-0.146797 1.2445101 4.9450002 216 164 10
-0.131295 1.24646 4.9305902 217 165 9
-0.085940003 1.26454 4.9105601 131 99 10
0.76789099 1.53554 4.38942 171 146 79
0.76789099 1.53554 4.38942 171 146 79
0.76789099 1.53554 4.38942 171 146 79
-0.144256 1.24673 4.9379601 217 164 8
0.53245401 1.4473799 4.4160399 138 100 4
-0.162158 1.24777 4.9374099 219 168 10
-0.15496799 1.24844 4.92875 218 166 10
0.5352 1.45216 4.41256 146 109 5
0.75978398 1.54072 4.3774199 176 149 83
-0.274378 1.2228301 5.0265698 186 144 52
-0.168934 1.24888 4.9326 220 169 9
-0.150515 1.25376 4.9158902 190 146 10
-0.14057 1.25754 4.90871 148 110 5
0.47441301 1.43607 4.44765 130 93 5
0.482254 1.4412301 4.44415 132 97 5
0.48989999 1.44454 4.44063 135 101 6
0.52073401 1.44831 4.40732 143 108 6
0.54099798 1.45871 4.4085999 153 117 6
0.72245198 1.53636 4.3888602 241 197 12
0.72750401 1.5362999 4.3927398 243 199 13
0.85076398 1.60726 4.4927702 151 138 117
0.86874998 1.61202 4.4920301 146 132 113
1.39569 1.79056 4.2079201 209 198 195
-0.451774 1.1804 5.1869001 118 104 91
-0.15907601 1.25656 4.9114799 164 122 4
-0.15038601 1.25947 4.9033699 142 105 6
-0.14112 1.2653 4.9145298 138 103 6
0.83715397 1.6084 4.4891901 173 159 140
0.853661 1.61449 4.4916501 167 153 134
0.884574 1.62529 4.4698 144 131 114
1.18414 1.72724 4.32972 144 134 124
1.20983 1.73273 4.2936101 150 140 131
1.3475699 1.77318 4.2183199 206 196 191
1.36485 1.78124 4.19455 201 191 188
1.4092 1.79284 4.1711602 207 197 194
-0.160101 1.261 4.89678 140 104 6
0.47812399 1.4465801 4.4029198 140 106 7
0.67885298 1.52319 4.3728299 219 170 8
0.707241 1.5411 4.3927102 222 174 8
0.833547 1.61545 4.4874401 198 182 163
0.84098399 1.61537 4.4902 204 189 172
0.84766603 1.61876 4.4886098 204 191 174
1.16073 1.72764 4.3330598 146 136 125
1.21969 1.74281 4.2957201 164 154 145
-0.26749599 1.23546 4.9875002 232 215 182
0.67542398 1.53219 4.3704 227 178 11
0.70587701 1.54462 4.38377 236 191 12
0.70532298 1.5454299 4.38341 237 193 11
0.83755201 1.62255 4.48879 214 200 183
1.2008801 1.74464 4.2951999 196 186 179
1.20494 1.73946 4.2930899 176 165 157
1.38706 1.80037 4.1898599 188 177 174
1.42277 1.8126 4.15591 194 184 181
0.65823603 1.5309 4.3787398 229 182 13
0.699121 1.54565 4.3794899 239 194 12
0.82821602 1.62412 4.4814301 209 194 177
1.09269 1.70934 4.3375101 145 134 123
0.120518 1.30608 4.38416 129 115 27
0.12496 1.31304 4.3906298 138 120 15
0.66265702 1.53661 4.3716998 242 199 13
0.69657397 1.5501 4.3654299 238 197 12
0.69843203 1.55238 4.3601499 234 193 14
0.70537603 1.55238 4.3634601 239 199 18
0.82572299 1.62677 4.4646902 215 201 189
0.90795201 1.6561 4.4360199 151 138 123
0.91712201 1.65775 4.4388299 150 138 122
1.0933501 1.7173899 4.3420801 148 138 128
1.12915 1.73046 4.33813 162 152 142
0.67179501 1.54636 4.3633599 236 194 12
0.70060402 1.55985 4.3603401 207 166 17
0.824552 1.62929 4.45157 216 203 190
1.07689 1.71262 4.3302898 154 144 133
1.2702399 1.77782 4.2206802 207 197 191
0.114391 1.31817 4.3887401 136 120 12
0.88495302 1.65667 4.4197898 203 190 180
1.06371 1.71716 4.3473902 159 148 138
1.0922 1.72894 4.3378301 193 182 174
-0.36313799 1.2394201 5.0450401 215 199 174
0.67178798 1.56049 4.3537798 204 161 15
0.68802601 1.5630701 4.3562999 180 137 11
0.81634802 1.6396199 4.4549899 217 202 191
0.86944902 1.65879 4.4254098 215 202 194
0.887263 1.6661201 4.41467 214 202 194
0.89601201 1.6681 4.4155898 213 201 190
1.0941499 1.73405 4.3316202 208 198 191
0.65464002 1.5598201 4.3494701 223 189 99
0.80512398 1.64279 4.4608598 201 186 170
0.80852002 1.64395 4.4513302 216 202 191
0.89931202 1.67461 4.4159598 215 202 193
0.94628602 1.68705 4.3626099 167 155 145
0.97451699 1.6989 4.3557801 157 145 134
0.65434998 1.55979 4.3489799 223 190 101
0.79650497 1.6470701 4.4566398 204 189 174
0.94422799 1.69135 4.3741999 183 171 162
0.620866 1.55718 4.3696599 242 228 199
0.78250599 1.64581 4.4560199 159 141 108
0.78907597 1.65031 4.4552202 192 176 160
0.962457 1.70336 4.3498702 199 188 179
0.98770797 1.71183 4.3538899 194 183 174
1.00239 1.7224801 4.3517098 210 199 193
-0.73441899 1.17105 5.3702102 121 109 99
0.49497399 1.5205899 4.41641 127 97 19
0.61266702 1.55925 4.3640099 238 225 196
0.78245401 1.65165 4.45012 183 167 150
0.78417301 1.6526099 4.4383602 213 199 185
0.79349202 1.6528701 4.4370098 217 203 191
0.95681602 1.70743 4.3492198 211 201 193
0.97262698 1.7148 4.3502102 210 199 192
-0.77571601 1.15729 5.368 203 192 187
0.37632301 1.48281 4.4725199 119 84 6
0.509736 1.52749 4.39574 162 140 109
0.65438801 1.5834399 4.3505702 236 225 201
0.661309 1.58293 4.3477502 234 219 193
0.78106397 1.65192 4.4305201 215 202 188
0.78190398 1.6562901 4.4267998 216 203 190
0.78414398 1.65177 4.4260898 217 203 191
-0.73513699 1.17782 5.3621402 119 107 96
0.503245 1.53241 4.4057899 154 134 103
0.59788299 1.5661401 4.3593202 233 219 192
0.59788299 1.5661401 4.3593202 233 219 192
0.65157801 1.58548 4.34128 236 224 201
0.77399302 1.65437 4.4302902 204 188 170
0.77449298 1.65504 4.4321198 208 194 178
0.77398998 1.65654 4.4207602 216 202 190
0.78337502 1.6621701 4.4271102 218 205 193
-1.00656 1.09337 5.4764199 138 128 118
0.424501 1.51283 4.4300499 146 115 45
0.76933002 1.66073 4.4253602 216 201 188
0.77532703 1.66213 4.4202399 218 205 193
-0.75077403 1.18556 5.3428898 119 107 95
0.37370399 1.50366 4.4658999 128 94 10
0.38689199 1.4999599 4.4359999 146 123 83
0.41155401 1.51114 4.4418302 164 143 106
0.419406 1.51668 4.4299402 167 141 101
0.57061702 1.57221 4.38938 146 116 65
0.56395203 1.57197 4.3902502 172 144 103
0.61190498 1.57868 4.3254399 238 226 203
0.75696099 1.66132 4.4127998 211 197 182
0.76596898 1.66158 4.4079399 218 205 194
-0.34394401 1.29582 4.9820499 191 178 170
0.41940999 1.52187 4.42624 176 154 120
0.48104399 1.5421799 4.3963199 140 124 94
0.604886 1.58183 4.3217201 234 221 198
0.61522502 1.58109 4.3105798 238 226 203
0.65680897 1.60454 4.3259201 213 198 177
0.75730199 1.66453 4.4071898 217 204 192
0.75610399 1.66415 4.39118 218 205 195
0.76566201 1.6673599 4.4058099 219 206 195
0.459721 1.54796 4.4366899 96 68 16
0.62381899 1.59361 4.3099399 212 198 177
0.64957398 1.60647 4.3303199 225 212 190
0.74521798 1.66654 4.4117899 204 191 177
0.74624997 1.66501 4.3855901 217 204 194
-0.183469 1.37657 4.95889 192 177 164
0.39923799 1.5253299 4.4284501 155 138 109
0.463296 1.5538599 4.4328599 119 94 58
0.51122499 1.56045 4.3617601 214 200 174
0.62689799 1.60124 4.3086801 193 180 158
0.72260702 1.6619999 4.3942299 192 177 159
0.50941801 1.56343 4.3515301 226 212 186
0.72444302 1.67075 4.38938 216 203 192
-0.430435 1.30758 5.0921001 145 134 125
0.50928801 1.5677299 4.3456602 219 206 180
0.53881198 1.58716 4.3635802 213 197 174
0.71586502 1.67118 4.3842201 218 205 195
-0.43879101 1.31091 5.08883 153 141 133
0.70173198 1.66966 4.38451 184 169 155
0.70668399 1.67089 4.3765402 223 210 199
0.54096699 1.60746 4.3721199 180 165 147
0.53616798 1.60859 4.37186 192 179 157
0.70254701 1.67924 4.37252 222 211 202
0.53815699 1.61536 4.3765702 191 177 159
0.54079098 1.61716 4.3658099 115 101 89
-0.46411201 1.32344 5.0687799 196 184 176
-0.44462499 1.3241301 5.0597 196 184 178
0.527762 1.61597 4.3637199 216 203 184
0.61342001 1.6411999 4.3183999 217 204 183
0.62384099 1.64675 4.31387 182 171 159
0.63323498 1.65204 4.31603 146 136 126
0.42530599 1.58369 4.4159799 144 130 110
0.69101799 1.69243 4.3488002 215 205 200
0.605331 1.64845 4.3062801 166 154 143
0.61466497 1.65514 4.3085599 134 123 116
-0.54967499 1.30837 5.0851302 111 99 88
0.255016 1.55654 4.5755401 92 73 42
0.51182902 1.62503 4.3572302 191 179 165
-0.80975902 1.22846 5.24963 113 101 91
0.25597399 1.55976 4.5704298 94 76 47
0.26591501 1.5652699 4.5665898 95 77 51
0.29974201 1.5809799 4.5735898 94 76 48
0.42275101 1.60506 4.4054198 78 67 56
0.51483601 1.62965 4.3550501 131 120 111
0.655756 1.69723 4.3534002 159 148 142
-0.91486102 1.19809 5.28969 188 177 174
-0.51559901 1.32795 5.05655 187 176 169
0.286688 1.58365 4.5581298 99 82 57
0.417025 1.6055599 4.4052501 86 75 66
0.64811498 1.7005301 4.3474102 187 176 172
-0.52259201 1.33064 5.0539398 189 177 170
0.28008899 1.58515 4.5532398 103 86 63
0.51921499 1.65382 4.3804102 95 85 79
0.63394201 1.7000901 4.35497 147 137 130
0.64126801 1.6999201 4.3494601 164 153 148
0.64714199 1.70286 4.3360701 216 206 203
0.65722698 1.70061 4.3262601 217 206 203
-0.84970999 1.23122 5.22925 112 100 91
-0.77019298 1.25289 5.1654801 111 99 88
0.62226802 1.69761 4.34407 148 137 132
0.62882 1.70306 4.3397102 197 186 182
-0.95184499 1.20079 5.2921 188 177 173
-0.82358801 1.2420501 5.1967902 105 94 84
-0.81665897 1.24405 5.1937199 107 95 85
-0.71044499 1.2766 5.1372399 106 94 83
-0.57369798 1.31738 5.0530701 187 175 167
-0.57876199 1.31932 5.04738 191 179 171
-0.57178903 1.32233 5.0451102 189 178 171
-0.565862 1.3245699 5.0411501 191 179 174
0.61631399 1.6998399 4.3418498 156 146 141
0.62201798 1.70315 4.3370299 196 185 182
-0.61519599 1.31215 5.0825801 114 102 91
-0.57367998 1.3226399 5.0462499 188 176 169
-0.42172599 1.37316 4.9451199 182 170 162
-0.059186 1.4888999 4.7430601 176 162 153
0.56574702 1.69004 4.3692698 185 174 173
0.61126202 1.70259 4.3348298 195 184 181
0.616458 1.70468 4.32722 213 203 200
-0.62574703 1.31251 5.07514 113 101 89
-0.58660197 1.32496 5.0539198 188 176 168
-0.57953298 1.32836 5.0349698 189 177 170
-0.49168 1.35631 4.9895301 171 159 151
-0.466654 1.36102 4.96172 162 150 143
-0.41993099 1.37614 4.92348 184 172 165
-0.059531301 1.49305 4.7343898 176 162 151
0.34399399 1.60229 4.3910098 98 85 73
0.39543399 1.62549 4.4053798 83 74 66
0.560215 1.69276 4.3674402 187 176 175
0.56736702 1.69215 4.3519702 192 182 181
0.58257997 1.70037 4.3373098 212 203 199
0.60644501 1.70693 4.3355098 212 202 200
-0.47324201 1.36481 4.9619899 155 144 136
-0.44452101 1.37542 4.9403701 161 149 141
-0.055524901 1.49682 4.6990299 155 142 131
0.50516999 1.67969 4.37046 161 149 147
0.53253299 1.68638 4.3651099 189 177 176
-0.63782299 1.32242 5.0740299 106 94 83
-0.481253 1.3669699 4.9570198 149 137 129
-0.36802301 1.4040999 4.8958201 185 172 165
-0.360681 1.40395 4.88936 185 172 165
-0.057882398 1.50301 4.6944399 168 154 145
0.15668701 1.57093 4.5725598 116 98 15
0.47364101 1.6748199 4.3965902 128 118 113
0.51258302 1.68724 4.3793802 194 183 180
0.51772898 1.6882 4.3752398 203 191 190
0.553132 1.6993901 4.3468599 198 188 187
-0.72561997 1.29454 5.10111 100 87 78
-0.70957398 1.29872 5.0936198 103 90 80
-0.657579 1.31402 5.0602198 105 93 83
-0.64974803 1.31855 5.0504198 108 96 85
-0.49356899 1.36854 4.9612002 168 156 147
-0.489461 1.3698601 4.95292 172 159 151
-0.360654 1.4085799 4.8817902 178 166 158
0.14208101 1.5648 4.5605202 115 97 17
0.15312199 1.57388 4.5636501 108 90 29
0.155727 1.57493 4.5578098 108 91 43
0.46940199 1.67624 4.3737102 176 166 163
0.50060701 1.68522 4.37255 194 183 182
0.49366099 1.68404 4.3538599 210 200 198
-0.68620902 1.31011 5.06916 104 92 80
-0.50735599 1.37114 4.9570899 161 149 141
-0.45222101 1.38292 4.9221702 174 161 154
0.156271 1.58086 4.5496998 123 110 86
0.15940499 1.58188 4.5571699 118 105 78
0.171148 1.58541 4.5504699 122 108 88
0.42981401 1.66653 4.39573 108 98 89
0.461101 1.6779701 4.3885298 138 128 122
0.466822 1.68111 4.37046 195 184 181
-0.58178902 1.35023 4.9916201 172 160 154
-0.548513 1.35795 4.9582801 177 164 158
-0.548513 1.35795 4.9582801 177 164 158
-0.548513 1.35795 4.9582801 177 164 158
-0.506217 1.37243 4.9355502 166 155 146
-0.49890301 1.3752 4.9327202 173 162 153
-0.036906499 1.5204099 4.6658101 108 93 72
0.13902999 1.5762 4.5460701 121 107 82
0.148579 1.5810601 4.5457201 125 111 90
0.424409 1.67092 4.3963699 111 101 92
0.47488901 1.6899101 4.3672199 210 199 198
-0.95948797 1.2345001 5.2101798 203 192 190
-0.95134598 1.23724 5.20678 203 192 190
-0.52033299 1.3702199 4.9426098 156 144 137
-0.51344502 1.3728499 4.93889 159 147 139
-0.49836299 1.38078 4.9285898 164 153 145
-0.311221 1.43954 4.8108001 138 125 117
-0.276916 1.4483401 4.7982602 166 153 145
-0.25841799 1.45318 4.7859402 181 169 160
-0.048568901 1.52623 4.6763101 110 96 80
0.0823934 1.56142 4.58078 110 95 70
0.14256801 1.58109 4.54462 126 112 93
0.23480999 1.61976 4.5074801 124 111 96
0.46085 1.6868 4.36624 205 194 192
0.46686599 1.68933 4.36305 209 199 197
-0.96767902 1.23704 5.2066302 198 187 184
-0.95137799 1.24246 5.1995201 198 187 184
-0.562886 1.36271 4.9562001 161 149 142
-0.52777898 1.37164 4.9369102 149 137 130
-0.483367 1.3885601 4.9119201 166 153 146
-0.47585699 1.3903 4.9078798 170 157 150
-0.381244 1.42029 4.8498702 183 169 163
-0.077391602 1.52201 4.6769199 184 170 162
-0.045189399 1.53044 4.6717601 108 94 76
-0.0429359 1.53477 4.66993 109 94 74
0.130264 1.58439 4.5472298 129 116 98
0.30977899 1.64029 4.4378901 109 97 83
-0.58205801 1.3591 4.9656501 144 132 126
-0.55506098 1.3677599 4.9453802 152 139 132
-0.54748398 1.37226 4.9397502 144 132 124
-0.538652 1.37626 4.93296 137 126 119
-0.37391201 1.42661 4.8394699 180 166 159
-0.29760301 1.45245 4.7841401 163 150 142
-0.176511 1.4890701 4.7203102 186 172 164
-0.071309797 1.52861 4.6619201 167 154 145
0.44186601 1.6889 4.3627701 198 187 183
-0.98055798 1.23962 5.2012901 194 183 178
-0.28421599 1.45807 4.7708502 152 139 131
-0.16911 1.49595 4.6996298 184 170 162
0.30262399 1.6463701 4.42414 115 103 89
0.42998299 1.69152 4.34655 209 198 194
-1.0186501 1.23526 5.2164698 198 187 183
-0.70093399 1.33745 5.04072 175 162 154
-0.37388599 1.43584 4.8243799 173 160 152
-0.199348 1.49358 4.7100601 160 147 139
-0.075954899 1.53187 4.65025 174 162 153
0.39169401 1.68417 4.38028 132 122 112
0.42432499 1.69242 4.3427501 209 199 195
-0.99554902 1.24508 5.1945 188 178 172
-0.89749199 1.2761101 5.1335001 182 171 166
-0.58273 1.37231 4.9374199 169 157 150
-0.52228498 1.3914 4.9067898 139 127 119
-0.52226502 1.39474 4.9001698 150 137 130
-0.35243401 1.44846 4.8029099 171 158 149
-0.269306 1.4703701 4.7433901 154 141 133
-0.206774 1.49532 4.70609 139 126 118
-0.18465699 1.50159 4.6920099 157 144 136
-0.174794 1.50237 4.6890402 169 157 148
0.35826001 1.67264 4.3569999 131 121 110
-1.01064 1.24536 5.1922898 197 186 182
-0.53039002 1.39416 4.9025798 166 152 145
-0.522313 1.3991801 4.8915901 172 159 151
-0.37588 1.44656 4.8106198 144 131 123
-0.37017399 1.4481699 4.80722 143 131 124
-0.34253499 1.45548 4.78723 169 157 149
-0.207027 1.4992599 4.69804 133 120 111
0.40537599 1.69549 4.3422198 208 197 192
0.40537599 1.69549 4.3422198 208 197 192
-0.65647602 1.36309 4.9744 174 162 154
-0.54019099 1.39411 4.8957 184 171 164
-0.46493801 1.42101 4.8533702 152 139 131
-0.26162601 1.48226 4.7286701 145 133 125
-0.128254 1.52767 4.6451602 173 161 152
-0.095714301 1.53925 4.62147 187 175 165
-0.0124815 1.55855 4.5484099 123 110 92
0.37507701 1.69276 4.3708901 141 130 120
0.38009 1.69282 4.3403802 192 181 173
-0.93533301 1.27305 5.12321 190 179 173
-0.50602299 1.41291 4.8603802 190 178 171
-0.40789899 1.43828 4.79772 146 133 125
-0.233371 1.49762 4.6886001 145 132 123
-0.194122 1.51074 4.6689301 143 130 121
-0.130266 1.52996 4.6422501 159 147 138
-0.115209 1.53497 4.6368098 181 169 160
-0.045372799 1.5566601 4.5919499 121 108 92
0.374856 1.69664 4.3652101 159 148 138
-0.71689701 1.3533601 4.9957199 196 184 178
-0.67426699 1.36552 4.9630899 164 152 145
-0.45234001 1.43643 4.8337202 171 159 151
-0.45413101 1.43426 4.8287101 173 160 152
-0.43489099 1.43954 4.8154202 158 145 138
-0.330587 1.47102 4.7566299 145 134 125
