ply                 
format ascii 1.0    
element vertex 1269
property float x    
property float y    
property float z    
property uchar red  
property uchar green
property uchar blue 
end_header          
0.0418134 -0.484246 1.3603 48 35 19 
-0.334818 0.0533877 1.45117 41 31 19 
0.198207 -0.189827 1.32393 90 78 62 
0.0955256 0.0333821 1.3397 132 106 91 
-0.250525 0.11306 1.43169 42 32 23 
0.22931 -0.0799157 1.29821 24 31 0 
0.192481 0.0450406 1.30846 21 15 0 
0.0192139 -0.586473 1.36312 65 53 41 
0.20234 0.172328 1.31096 91 85 61 
-0.0587452 -0.697191 1.39555 25 16 1 
0.284819 -0.272334 1.30082 94 80 69 
-0.254519 -0.491869 1.42976 62 52 42 
-0.312905 -0.462047 1.44824 105 102 71 
0.269826 0.17077 1.29492 80 74 48 
-0.141505 -0.364024 1.40846 39 27 15 
0.188099 -0.346532 1.32418 150 124 109 
-0.207388 -0.113488 1.41333 123 107 82 
-0.128691 -0.204862 1.40672 46 33 17 
0.0392164 -0.420893 1.36013 43 33 24 
-0.222579 0.00107539 1.41921 126 107 92 
0.364696 -0.177959 1.28435 125 124 93 
-0.334672 -0.555815 1.45006 37 33 21 
-0.318395 -0.208536 1.45239 111 98 82 
0.474252 -0.464442 1.25486 40 38 25 
0.0823189 -0.394922 1.34905 69 53 40 
0.227306 -0.199971 1.31713 129 114 95 
-0.142014 -0.311885 1.41025 57 45 33 
-0.256989 -0.443398 1.43641 54 36 24 
0.146465 -0.0991698 1.31856 85 70 47 
0.285276 -0.179896 1.30479 115 103 87 
0.324999 0.0157765 1.27528 47 43 16 
-0.324817 0.0951103 1.44848 47 35 21 
-0.293766 -0.356256 1.44724 114 100 87 
0.0420327 -0.211023 1.36269 37 31 19 
-0.237146 0.0233731 1.42362 65 52 36 
0.472783 0.00296142 1.23631 45 47 26 
0.214689 -0.329636 1.31873 124 107 91 
0.318749 -0.60839 1.29641 33 25 14 
-0.191205 -0.0391782 1.40932 126 109 91 
0.316431 -0.613516 1.29441 110 98 82 
-0.317341 -0.187487 1.45366 105 92 76 
0.214038 -0.518493 1.31853 71 58 42 
0.0653763 -0.293894 1.35468 105 84 65 
0.217735 -0.132063 1.3008 16 15 0 
-0.0741579 -0.666809 1.39429 31 18 2 
-0.248336 0.035285 1.42519 49 35 24 
-0.332238 -0.374888 1.45536 39 32 22 
-0.285969 0.00948764 1.43682 108 90 76 
0.0655876 -0.294087 1.35486 119 98 79 
-0.193052 -0.661226 1.4293 52 42 30 
-0.302718 -0.548165 1.44275 60 53 37 
0.288323 -0.065223 1.28266 25 33 0 
0.233038 0.162038 1.3026 106 100 86 
-0.274109 0.122204 1.43345 63 48 25 
0.0309129 -0.11854 1.34921 18 22 0 
0.243978 -0.307923 1.31081 111 102 85 
-0.299978 0.0240399 1.4427 106 90 75 
-0.285672 -0.244262 1.4457 124 93 75 
-0.320636 -0.271078 1.45372 49 37 25 
-0.285574 -0.244251 1.44585 121 90 72 
0.186029 -0.357418 1.32459 128 92 76 
0.0400239 -0.113566 1.34559 25 31 0 
0.144179 -0.0527252 1.31925 37 33 4 
0.0650401 -0.245941 1.35735 50 37 28 
-0.256241 0.06666 1.42976 35 23 11 
0.230566 0.157434 1.30376 28 25 8 
0.0621482 -0.378272 1.3544 60 48 34 
0.0821723 -0.39493 1.34927 69 53 40 
0.174309 -0.305373 1.32923 50 38 22 
0.245803 0.0220115 1.29628 16 18 0 
-0.292631 -0.24361 1.44835 48 38 26 
-0.146169 -0.214122 1.40937 58 46 32 
0.259669 -0.0674186 1.28933 85 81 46 
0.0248572 -0.566016 1.36453 117 101 88 
0.219176 0.0236131 1.30488 14 13 0 
-0.235869 0.0460054 1.42389 51 35 22 
-0.325681 -0.458793 1.45205 101 87 74 
-0.271016 0.0180471 1.4334 118 96 82 
0.294301 -0.297029 1.29966 48 38 28 
0.0615421 -0.551612 1.35711 30 23 13 
-0.24685 0.00208931 1.426 115 98 82 
-0.14031 -0.24579 1.41022 72 45 24 
0.329284 -0.19467 1.29243 43 34 19 
-0.255686 0.066732 1.43057 34 22 10 
-0.28559 0.110135 1.44128 53 44 35 
-0.256945 -0.476289 1.43454 56 47 42 
-0.210607 -0.0122941 1.41691 159 137 116 
0.213141 -0.204652 1.32004 115 99 84 
0.125294 0.165833 1.33136 75 57 37 
-0.0563968 -0.130665 1.37321 125 119 97 
-0.304002 -0.4444 1.44667 78 44 34 
-0.123935 -0.181975 1.40624 106 85 66 
-0.334351 -0.184961 1.45764 99 85 72 
-0.257768 -0.475717 1.43331 50 41 34 
0.209132 -0.182277 1.32163 108 95 78 
-0.31308 -0.469662 1.44824 50 43 35 
0.0841864 -0.367872 1.34974 129 110 93 
0.178079 -0.289771 1.32815 46 36 27 
0.323447 -0.246883 1.29317 111 100 78 
0.389029 0.116599 1.26211 91 85 63 
-0.099843 -0.438967 1.39619 149 132 114 
0.0668322 -0.377518 1.35332 122 95 76 
-0.263455 0.0407153 1.43164 51 33 21 
-0.265296 0.0044735 1.43119 53 36 26 
-0.331646 -0.0213833 1.44874 40 32 19 
-0.208871 -0.014741 1.41631 125 104 85 
0.164263 0.163464 1.32099 51 47 20 
0.123809 0.229549 1.3308 142 136 110 
0.34748 -0.258821 1.28915 104 96 77 
0.012626 -0.670769 1.37018 35 22 6 
-0.251896 0.0453394 1.42881 128 110 96 
0.0348358 -0.344085 1.36269 123 112 90 
0.061894 -0.575974 1.35565 42 32 22 
0.0515266 -0.344619 1.35801 49 37 25 
0.507513 -0.290954 1.24763 101 93 80 
0.0772675 -0.271095 1.35158 59 21 2 
-0.284653 0.106663 1.44127 30 20 10 
-0.15991 -0.384386 1.41505 88 61 44 
0.0345849 -0.333039 1.36265 62 45 29 
0.0544783 -0.20382 1.36053 31 22 13 
0.029279 -0.401557 1.36363 141 120 103 
-0.281113 -0.114579 1.43288 137 119 105 
-0.00589293 -0.580276 1.371 109 100 85 
0.222122 0.18842 1.30645 49 42 26 
0.139642 -0.014663 1.31961 106 97 54 
-0.269183 -0.485405 1.43547 70 61 52 
-0.292834 -0.243521 1.44803 48 38 26 
-0.294792 -0.487186 1.44148 121 105 90 
0.140873 -0.519657 1.3382 59 50 33 
0.132915 -0.512264 1.33854 116 102 89 
-0.283036 0.0281416 1.43878 44 32 20 
-0.210772 -0.0122404 1.41669 159 137 116 
-0.705963 -0.0991522 1.53715 109 105 80 
0.0762774 -0.230956 1.35423 109 86 68 
0.270488 -0.21942 1.30513 49 40 25 
0.231735 0.17936 1.3037 40 33 15 
-0.327846 0.0238695 1.44744 126 113 94 
0.0414925 -0.365568 1.36108 114 95 80 
0.22493 -0.312367 1.31512 48 40 27 
-0.295458 -0.317703 1.44769 50 36 25 
0.106271 -0.128538 1.32903 22 26 3 
0.260376 -0.531203 1.30811 65 55 45 
0.0313621 -0.277864 1.36465 116 78 57 
0.240111 -0.192437 1.31396 112 100 86 
-0.0980933 -0.206496 1.39776 72 35 19 
0.379845 -0.312987 1.28 126 109 93 
0.0773897 -0.568114 1.35261 64 59 39 
-0.257401 -0.428274 1.43743 92 59 44 
-0.139867 -0.219361 1.4091 114 91 75 
-0.217239 -0.0719874 1.41727 68 50 36 
-0.288528 0.0111342 1.4383 103 85 71 
-0.157435 -0.235161 1.41317 36 27 18 
0.176321 -0.0833117 1.31082 24 27 6 
0.0361589 -0.451805 1.36365 151 129 115 
-0.288066 0.0771017 1.43815 52 38 25 
0.39977 0.136548 1.25977 79 76 57 
-0.20829 -0.0436509 1.41372 53 42 24 
0.178867 -0.0136528 1.31143 74 67 49 
0.0497381 -0.363967 1.35826 128 111 93 
-0.284076 0.0887465 1.43809 39 31 18 
-0.105145 -0.197764 1.40002 106 84 71 
0.0584791 -0.169678 1.35861 104 87 71 
-0.137675 -0.352546 1.40897 30 21 12 
0.377937 -0.19832 1.28053 27 20 0 
0.0210119 -0.323213 1.36789 113 87 72 
0.0694637 -0.226891 1.35631 62 52 43 
-0.219878 -0.0585653 1.41728 55 41 28 
0.0438707 -0.199158 1.36206 107 86 67 
0.0337765 -0.326372 1.36406 57 43 30 
-0.300316 -0.375499 1.4484 36 25 19 
0.0538145 -0.423471 1.3556 112 99 83 
0.379681 0.188766 1.26677 100 89 71 
0.380709 0.0753176 1.26151 18 21 0 
-0.150782 -0.196314 1.41297 115 93 72 
-0.291067 -0.199353 1.44572 47 38 23 
0.275509 0.0679651 1.29341 26 24 11 
0.159487 -0.0763027 1.31573 37 35 14 
0.0585163 -0.170057 1.35869 124 107 89 
-0.0875055 -0.431256 1.39961 135 102 85 
-0.29245 -0.326294 1.44373 32 23 14 
0.51096 0.0148312 1.22763 98 102 75 
-0.289001 0.0765155 1.43897 52 40 28 
0.0463717 -0.296418 1.36128 48 39 30 
-0.131647 -0.412125 1.40435 51 39 27 
-0.231186 -0.64374 1.43656 67 42 22 
0.0694236 -0.113042 1.33807 23 21 0 
-0.296064 0.0059745 1.43952 45 35 23 
0.0448848 -0.454458 1.36146 176 157 142 
0.0618871 -0.562451 1.35481 48 38 28 
0.203073 -0.180071 1.32289 43 34 19 
-0.312341 0.0691689 1.44738 41 31 21 
0.315603 0.0960924 1.27983 72 70 47 
-0.3014 -0.000750867 1.44215 114 98 82 
0.25771 -0.175836 1.30948 55 54 26 
0.413767 0.0863115 1.25561 75 70 50 
0.0362497 -0.121637 1.34667 54 52 27 
-0.327345 0.105542 1.45043 39 31 20 
-0.272401 -0.204242 1.44203 43 35 24 
-0.187474 -0.538045 1.4158 42 33 26 
-0.203329 -0.0147547 1.41295 120 113 95 
-0.327029 -0.0483269 1.44519 51 41 29 
-0.268655 0.118657 1.43472 138 123 104 
-0.307559 -0.459516 1.44933 57 44 35 
0.197275 -0.199092 1.32336 108 99 84 
0.552742 -0.387581 1.23364 30 26 17 
-0.26292 -0.173519 1.44055 120 80 54 
-0.155876 -0.255381 1.41357 72 43 25 
0.0668582 -0.29188 1.35499 158 132 115 
-0.108025 -0.188577 1.40252 38 34 22 
0.015952 -0.133484 1.35234 71 71 35 
-0.319111 0.0776133 1.44899 33 19 8 
-0.272538 -0.204231 1.44182 43 35 24 
-0.312279 -0.0359432 1.44199 95 83 67 
0.359425 0.0999468 1.26887 23 22 4 
-0.171858 -0.630024 1.42316 33 21 9 
-0.328482 -0.326406 1.45567 43 30 22 
-0.306737 -0.460117 1.45069 61 48 39 
-0.0455073 -0.0549998 1.43728 81 62 47 
-0.108016 -0.188578 1.40253 38 34 22 
-0.144313 -0.28551 1.41104 103 75 53 
-0.324886 -0.052561 1.44478 100 83 73 
-0.257257 -0.498119 1.43063 55 47 34 
-0.286388 -0.383741 1.44367 42 35 25 
-0.297379 0.0762463 1.44193 49 37 25 
0.504047 -0.174472 1.24817 31 35 0 
0.522648 -0.172528 1.24123 41 38 0 
0.25969 0.054975 1.29384 38 35 16 
0.275295 0.0679487 1.29327 26 24 11 
0.413595 0.0862531 1.25551 73 68 46 
0.243194 -0.207823 1.31503 50 44 28 
-0.262391 -0.37113 1.43763 119 103 88 
-0.306944 -0.0217115 1.44054 43 31 15 
0.350558 -0.334215 1.28682 108 100 81 
-0.170156 -0.125718 1.4003 77 79 58 
-0.253813 -0.0512136 1.42676 109 92 76 
-0.297198 0.00389271 1.43911 53 41 29 
0.212159 0.0118111 1.30444 24 20 8 
0.129289 -0.124188 1.32286 34 32 9 
-0.30377 0.0169011 1.44309 55 41 28 
0.0419587 -0.30943 1.35955 64 50 39 
0.0753796 -0.225903 1.35591 42 29 23 
-0.333369 0.0383318 1.44867 52 43 28 
0.218236 -0.201042 1.31928 45 40 18 
-0.0969042 -0.619762 1.39781 39 29 17 
0.192913 0.0258288 1.3103 14 12 0 
0.410841 -0.308332 1.27281 117 105 93 
-0.297619 0.0400314 1.44091 51 39 27 
-0.238712 -0.0134345 1.42209 153 127 112 
0.0298534 -0.421182 1.36394 129 110 96 
0.278744 -0.212351 1.3043 78 75 58 
-0.309096 -0.205224 1.45015 42 28 19 
-0.158612 -0.456417 1.41091 105 82 68 
-0.320144 0.0810765 1.44833 120 104 89 
0.151662 -0.590968 1.33653 111 84 67 
0.060737 -0.238793 1.35833 135 123 97 
0.0688117 -0.220702 1.35742 83 64 50 
-0.20265 -0.0522307 1.41314 109 91 69 
0.377214 0.167514 1.26654 22 19 4 
0.0472095 -0.19097 1.36151 35 27 16 
0.0679123 -0.293985 1.3538 138 111 94 
-0.297138 0.00396684 1.4392 52 40 28 
0.0534411 -0.390373 1.35717 49 35 24 
-0.235153 0.109617 1.42661 63 37 24 
0.033518 -0.386056 1.36323 148 132 117 
-0.305672 -0.0210875 1.44081 53 40 24 
-0.304193 -0.0501491 1.43972 49 39 29 
0.00382238 -0.732627 1.38167 109 92 82 
-0.28731 -0.318606 1.44632 65 57 44 
-0.309002 -0.199886 1.45075 59 47 35 
0.0178073 -0.32188 1.3661 136 113 97 
0.0605333 -0.309605 1.35659 52 43 36 
0.223023 -0.0134626 1.3011 47 46 28 
-0.294233 -0.0490748 1.43762 57 41 28 
0.0371064 -0.192044 1.36365 100 81 64 
-0.234996 -0.0515585 1.42263 41 28 11 
0.181576 -0.48683 1.32361 50 41 26 
-0.314803 -0.247645 1.45293 37 27 17 
-0.246718 0.0450198 1.42718 103 90 71 
0.0793561 -0.429974 1.34855 62 49 33 
0.0224843 -0.696141 1.3701 39 27 13 
-0.267954 -0.0972382 1.42899 96 77 62 
-0.264075 0.0336735 1.43115 55 42 26 
0.060619 -0.309434 1.35667 50 41 34 
0.0301424 -0.603667 1.35918 95 87 76 
0.0586307 -0.325308 1.3557 51 37 24 
-0.222062 0.00600099 1.4189 57 44 28 
0.248821 0.00179957 1.29391 19 19 0 
-0.322466 0.0228352 1.44611 98 84 71 
-0.251265 0.080494 1.42987 63 46 28 
0.0283635 -0.557093 1.36367 46 36 24 
-0.28493 0.079402 1.4378 113 97 82 
-0.325167 -0.344357 1.45283 33 31 19 
-0.0914578 -0.508461 1.39326 130 114 99 
-0.261103 -0.380675 1.43945 90 82 59 
0.284807 0.126576 1.28888 80 75 55 
-0.311985 -0.306622 1.4542 58 48 39 
0.449577 -0.203696 1.26239 49 41 20 
0.0387577 -0.287972 1.3616 54 38 23 
-0.125819 -0.357277 1.405 53 43 34 
-0.319034 0.0473017 1.44624 39 27 15 
-0.269315 -0.457293 1.43835 152 131 114 
-0.119288 -0.30022 1.40485 53 44 29 
-0.300811 -0.0175131 1.44009 117 104 88 
-0.224355 0.00767643 1.41941 53 41 27 
0.0527457 -0.404527 1.35556 59 46 29 
-0.126775 -0.201626 1.40681 102 83 68 
-0.327125 -0.00195224 1.44855 32 20 8 
0.267352 0.130502 1.29422 34 32 11 
-0.320479 0.0285511 1.44647 53 41 29 
-0.334366 -0.0244705 1.44903 96 86 74 
0.402837 -0.525342 1.27256 122 110 98 
0.259617 -0.00912134 1.29188 57 59 48 
-0.293363 -0.392318 1.44531 53 39 30 
0.203169 0.0359305 1.30769 37 34 17 
0.0169886 -0.133702 1.3533 101 97 72 
0.291065 0.0953825 1.28618 90 87 68 
0.298646 -0.0298961 1.28149 22 25 0 
-0.14619 -0.271151 1.41423 174 147 128 
-0.306346 0.00890736 1.44276 109 93 78 
-0.224315 -0.495861 1.42259 48 30 18 
-0.224229 -0.0154271 1.41872 139 116 102 
0.139615 0.0298897 1.31974 97 88 73 
0.203301 -0.368981 1.31991 119 102 84 
-0.282606 -0.084411 1.43332 89 71 59 
0.206457 -0.354775 1.3192 124 88 72 
-0.315846 -0.341621 1.45142 49 39 27 
-0.268698 -0.441331 1.43745 83 54 40 
-0.259949 0.0291247 1.42951 117 98 83 
0.286421 -0.335128 1.30125 67 55 41 
-0.299723 -0.130543 1.43576 34 32 7 
-0.134052 -0.170776 1.40494 46 48 9 
-0.293118 -0.469981 1.44204 125 111 100 
-0.331738 -0.182244 1.45655 40 32 21 
-0.145923 -0.271317 1.41456 135 110 90 
0.250147 -0.271407 1.31159 43 35 22 
-0.280149 0.0763519 1.43741 51 39 27 
0.0982296 -0.12722 1.33103 66 65 37 
0.350128 -0.33399 1.28656 98 91 72 
0.280536 -0.212694 1.30551 65 63 42 
0.4227 -0.29984 1.26989 110 101 86 
-0.168557 -0.131803 1.3991 29 29 0 
0.0255104 -0.420208 1.36518 127 104 88 
-0.0102562 -0.128157 1.36126 25 28 0 
0.154769 0.0487279 1.32 43 39 27 
0.522471 -0.580994 1.24083 121 117 105 
0.253293 0.112001 1.29723 20 17 2 
0.333568 -0.315072 1.28996 43 36 20 
-0.1146 -0.491379 1.40003 60 46 33 
-0.249024 0.0546834 1.42813 48 35 19 
-0.109318 -0.553084 1.39756 57 51 37 
-0.158012 -0.22864 1.41581 29 20 11 
0.0448435 -0.236539 1.36105 44 34 22 
0.193915 -0.222215 1.32452 47 37 27 
-0.140757 -0.272583 1.41107 83 57 34 
-0.110187 -0.400478 1.4019 41 28 19 
-0.244262 -0.0585944 1.42491 101 80 63 
0.295756 -0.196839 1.30022 47 41 29 
-0.210727 -0.128711 1.41353 68 63 31 
-0.227845 -0.492187 1.42471 92 75 57 
-0.267975 -0.452948 1.43817 128 103 83 
-0.252312 0.119481 1.43112 156 135 118 
-0.231946 0.0365088 1.4207 86 69 53 
0.174905 0.199672 1.31996 44 37 18 
-0.0722746 -0.127904 1.37752 105 94 74 
-0.19976 -0.0435607 1.41285 60 47 30 
0.213313 -0.105927 1.29922 19 24 2 
0.377889 -0.198327 1.2805 27 20 0 
-0.279492 0.0763658 1.43842 51 39 27 
-0.275789 0.0829959 1.43643 97 81 65 
0.102195 -0.12638 1.32997 29 33 8 
0.0540778 -0.562632 1.35767 52 45 35 
0.109898 -0.123678 1.32834 82 76 52 
0.0705711 -0.139573 1.33723 38 37 7 
0.379517 -0.399407 1.27694 43 39 2 
-0.269415 -0.056486 1.43051 94 72 59 
-0.299847 -0.130553 1.43557 29 27 2 
-0.286028 0.117301 1.44 119 106 90 
0.572098 -0.251672 1.23259 54 41 32 
0.248336 0.0282461 1.29529 63 57 35 
-0.146027 -0.184753 1.4112 114 97 77 
-0.323391 -0.0883409 1.44346 94 85 70 
-0.164346 -0.514662 1.41347 42 36 24 
-0.308876 0.0174295 1.44417 51 39 27 
-0.25519 -0.0319585 1.42783 113 92 73 
-0.252099 0.119484 1.43143 153 132 115 
-0.312141 0.0767391 1.44737 66 49 39 
0.257312 0.0706865 1.2983 18 16 4 
0.189845 -0.554287 1.32526 49 42 26 
-0.216949 -0.0210853 1.41685 92 61 41 
0.278426 -0.212304 1.30408 82 76 62 
0.0887858 -0.0845416 1.3327 97 79 17 
0.239728 0.0935659 1.30041 81 75 59 
0.0487695 -0.393965 1.3575 55 41 30 
0.315587 0.0882403 1.2799 75 68 50 
-0.156257 -0.185112 1.41334 113 97 81 
-0.158916 -0.134223 1.39593 72 78 44 
-0.326987 -0.188943 1.45352 49 40 25 
0.219794 0.173792 1.30624 93 86 60 
0.187052 -0.0678649 1.31028 86 88 64 
-0.164302 -0.514556 1.41354 42 36 24 
-0.115345 -0.280406 1.4026 109 68 40 
0.0602045 -0.136831 1.34034 31 29 8 
-0.221838 -0.638587 1.43625 49 35 24 
0.342197 -0.17368 1.29048 56 52 27 
0.299977 -0.210776 1.29712 22 23 0 
0.308554 -0.180232 1.29737 124 116 97 
0.206963 -0.457276 1.31867 123 112 84 
0.0186697 -0.586513 1.36344 62 50 38 
0.260025 -0.188524 1.30855 34 28 6 
0.227194 0.0886264 1.30438 56 50 28 
0.112303 -0.0764063 1.32615 37 26 8 
0.449139 -0.447885 1.26001 64 58 42 
0.123234 -0.125905 1.32386 25 32 1 
0.214535 -0.266313 1.31794 51 40 22 
0.162539 -0.068156 1.31432 37 28 11 
-0.227492 0.0365882 1.4197 78 65 48 
-0.256303 -0.0356903 1.42829 104 77 60 
0.55988 -0.295596 1.23492 87 79 66 
-0.317708 -0.221783 1.45133 46 39 23 
-0.303435 0.00504695 1.44165 58 48 36 
-0.127603 -0.320175 1.40692 111 92 78 
0.518761 -0.00246911 1.22422 66 66 42 
0.325372 -0.168919 1.29261 38 43 2 
0.287424 -0.0736781 1.28118 51 46 14 
-0.0692222 -0.132058 1.37624 49 42 23 
-0.113409 -0.525758 1.39876 49 35 24 
0.249478 0.178165 1.29929 30 28 13 
-0.153573 -0.199094 1.41395 47 37 28 
0.210892 0.0284378 1.30653 54 52 40 
-0.328306 0.11301 1.44887 90 78 62 
-0.304285 -0.0404036 1.43914 47 38 23 
-0.230029 0.0586136 1.42133 96 84 68 
-0.256326 -0.0358308 1.42826 114 87 70 
0.183145 0.0500777 1.31331 47 41 25 
0.0714748 -0.394624 1.35143 73 57 44 
0.0335961 -0.254532 1.36673 149 126 108 
-0.164922 -0.349927 1.41499 77 54 38 
-0.154747 -0.19861 1.41514 46 37 30 
-0.191801 -0.469813 1.41941 121 104 88 
0.255172 0.188717 1.29818 42 40 19 
0.230589 -0.383229 1.31458 53 41 27 
0.0939732 -0.118822 1.33155 9 13 0 
0.0705316 -0.292173 1.3532 96 65 45 
0.254855 0.0263983 1.29542 64 59 37 
-0.284801 -0.417041 1.4426 118 95 79 
0.179894 -0.00430493 1.31183 71 64 46 
-0.138876 -0.461544 1.40607 48 38 28 
-0.182278 -0.507125 1.41574 111 98 79 
0.464457 -0.197264 1.25884 45 38 19 
0.0899714 -0.426303 1.34665 135 113 92 
0.196561 0.0146746 1.30921 79 72 53 
0.148549 0.115596 1.32438 45 44 16 
0.377354 -0.351929 1.27948 49 41 20 
-0.264289 0.0561324 1.43206 66 50 37 
0.142713 -0.05052 1.32011 32 24 3 
-0.211962 -0.639853 1.43184 112 89 71 
0.0100226 -0.185607 1.36951 98 62 36 
-0.327088 -0.332209 1.45523 30 22 9 
-0.260474 0.00202139 1.42915 117 96 75 
-0.2551 -0.0372114 1.42782 127 108 91 
0.194181 -0.251015 1.32433 148 113 91 
0.0588575 -0.372222 1.35681 55 42 33 
-0.273725 -0.0916458 1.43036 46 36 24 
0.266068 0.135888 1.29453 72 67 47 
0.120448 -0.0861987 1.32592 104 90 61 
-0.319481 -0.0501544 1.44431 46 36 24 
0.185944 -0.015525 1.30966 21 20 2 
0.147288 -0.0682449 1.32018 88 81 55 
-0.251325 -0.0452178 1.42669 70 54 38 
0.221046 0.16201 1.30562 68 59 42 
-0.327367 -0.134112 1.4402 33 36 9 
0.209786 -0.0879359 1.30431 18 20 6 
-0.336509 -0.407631 1.45562 53 40 31 
0.321395 0.0726033 1.27795 70 65 43 
0.0752298 -0.415647 1.35008 107 81 66 
-0.300689 0.00533801 1.44024 107 97 85 
0.0866169 -0.0839648 1.3329 111 103 22 
0.0290319 -0.320512 1.364 126 108 84 
0.13092 0.0159566 1.32282 41 35 13 
0.559628 -0.295491 1.2348 85 79 65 
-0.268475 0.120704 1.43414 122 105 87 
-0.29672 -0.206243 1.44785 37 27 15 
0.376725 0.0915159 1.26458 17 18 2 
-0.240295 0.110169 1.42971 113 85 71 
0.0525698 -0.228469 1.35848 111 96 77 
0.121496 -0.121433 1.32528 27 31 4 
-0.327514 0.0467457 1.44817 44 36 23 
-0.261396 -0.0132866 1.42952 129 89 64 
-0.113494 -0.543588 1.3996 61 49 35 
0.353773 0.0436507 1.2671 38 42 17 
0.119109 0.178537 1.33364 54 41 24 
-0.11871 -0.300556 1.40552 62 53 38 
0.402451 -0.660922 1.27571 51 48 33 
-0.28788 -0.256869 1.44511 37 25 11 
0.162621 -0.0681665 1.31439 37 28 11 
0.2244 0.1481 1.30708 37 35 20 
-0.233272 -0.0514482 1.4227 35 24 6 
0.213582 -0.17057 1.31889 34 36 15 
-0.271057 -0.0849984 1.42984 90 74 59 
0.326666 0.0095141 1.27345 33 36 5 
0.296091 -0.307994 1.2986 109 96 80 
0.239563 -0.256692 1.31299 33 26 10 
0.307435 -0.209223 1.29967 34 28 14 
0.24251 -0.0709215 1.29475 35 39 12 
-0.266916 -0.453813 1.43593 137 114 96 
-0.315443 -0.416551 1.45226 47 37 28 
-0.113745 -0.322275 1.40261 50 37 28 
-0.234269 -0.0198308 1.42069 63 46 28 
0.0467406 -0.292987 1.36083 45 32 23 
-0.149819 -0.200512 1.412 103 86 68 
-0.110279 -0.11502 1.38739 71 59 37 
-0.273884 0.0129652 1.43443 48 34 23 
0.077497 -0.13779 1.33589 35 30 0 
0.117892 -0.516703 1.34253 41 32 17 
0.417154 -0.307239 1.27047 77 73 62 
0.0754173 -0.225952 1.35594 42 29 23 
-0.20688 -0.056214 1.41383 53 37 22 
0.549408 0.00202381 1.21714 47 39 18 
0.304185 0.0149506 1.28111 14 18 0 
-0.241214 0.0345718 1.42303 64 52 36 
0.315909 -0.523623 1.29476 63 56 38 
0.0692045 -0.241952 1.35613 53 37 24 
0.550271 0.00197109 1.21756 53 47 23 
-0.274713 -0.425482 1.43901 144 121 107 
-0.28329 -0.245496 1.44459 133 101 86 
-0.343033 -0.18853 1.45835 47 35 23 
-0.145194 -0.199918 1.41132 98 79 64 
-0.159328 -0.359008 1.41313 115 79 63 
-0.168989 -0.168299 1.41457 109 93 68 
0.104235 -0.133289 1.32937 22 24 2 
-0.325518 -0.187829 1.4546 45 35 23 
0.187025 0.107064 1.31479 20 18 5 
0.166118 0.231836 1.32279 51 43 30 
-0.186102 -0.170062 1.41934 72 58 31 
0.00380974 -0.534763 1.37043 94 77 61 
0.213274 -0.170521 1.31867 34 36 15 
-0.293832 -0.0923178 1.43589 93 79 66 
0.0111453 -0.40769 1.36973 100 65 45 
-0.138602 -0.571377 1.40695 48 37 17 
0.0290136 -0.432703 1.36456 118 96 82 
0.20043 -0.628879 1.32207 66 52 39 
-0.274099 -0.583379 1.44181 40 27 11 
0.149944 0.176966 1.32535 53 47 35 
0.258117 -0.267273 1.3092 27 15 1 
-0.200862 -0.571491 1.42195 65 55 28 
-0.330806 -0.181268 1.45761 36 28 17 
0.310875 0.192747 1.28357 41 41 15 
-8.70344e-05 -0.130722 1.35785 57 61 24 
0.151668 -0.599197 1.33574 52 38 27 
0.274682 -0.556203 1.30698 72 58 45 
0.273714 -0.289962 1.3055 62 50 34 
0.100099 -0.169736 1.34654 59 50 33 
-0.186002 -0.169462 1.41939 60 47 13 
-0.24901 0.0238756 1.42674 72 56 40 
-0.0973091 -0.429284 1.39607 150 119 101 
0.320623 0.16756 1.28161 35 36 18 
-0.252093 -0.056034 1.42746 68 49 35 
0.341861 0.11752 1.27553 57 52 32 
0.362725 0.185161 1.27194 88 86 65 
-0.25917 -0.341316 1.43779 127 98 84 
0.157274 0.203153 1.32291 63 57 43 
0.373814 -0.376177 1.27989 98 94 67 
-0.325433 -0.186954 1.45439 40 30 18 
-0.218017 -0.0774664 1.41762 52 39 23 
-0.23264 -0.00582556 1.4209 73 51 37 
-0.315375 -0.0396535 1.44288 55 45 33 
0.0239854 -0.373572 1.36741 151 124 107 
-0.303588 -0.0206094 1.44045 78 65 49 
-0.269017 -0.042587 1.43109 82 65 49 
-0.280085 -0.0419043 1.43377 70 52 38 
-0.0241553 -0.616046 1.37534 79 84 52 
-0.282017 -0.0826198 1.43322 74 56 44 
-0.300203 -0.111362 1.4365 47 40 22 
0.215803 0.0350559 1.30477 30 29 9 
0.155847 0.196058 1.32589 97 85 69 
-0.250531 0.0612862 1.42856 88 71 55 
-0.27015 -0.250391 1.44184 30 22 9 
-0.323278 -0.0470532 1.44492 92 81 63 
0.182628 0.0500518 1.31292 47 44 25 
-0.281276 -0.041942 1.43441 77 59 45 
-0.313778 -0.0473763 1.44319 39 26 17 
0.305887 -0.594091 1.30112 78 73 51 
0.162015 0.212307 1.32105 46 38 27 
-0.0639177 -0.701389 1.39458 44 35 20 
0.450381 -0.184548 1.26113 51 43 30 
0.374135 -0.31722 1.28192 57 50 40 
-0.165092 -0.679815 1.42098 49 35 26 
-0.269919 -0.0427624 1.43313 76 59 43 
0.208038 -0.265391 1.31972 26 20 4 
0.0175497 -0.441822 1.36746 87 51 35 
-0.335229 -0.134129 1.44181 26 20 0 
0.206661 0.0152198 1.30811 70 68 47 
0.218008 0.0895326 1.30659 79 65 52 
-0.326426 -0.170662 1.45509 50 38 26 
0.184759 -0.396349 1.32397 52 40 26 
-0.232034 -0.00813677 1.42016 95 73 59 
0.229265 0.119978 1.3035 29 26 7 
0.12612 -0.134979 1.32358 75 69 47 
-0.244891 -0.0266469 1.42474 132 110 96 
0.158122 0.190653 1.3244 33 30 15 
0.191805 0.0511294 1.3093 36 35 15 
0.0718674 -0.134399 1.33696 49 43 9 
-0.309996 -0.416487 1.45048 32 23 16 
-0.248923 0.058727 1.42887 100 81 66 
-0.265715 -0.478429 1.43531 48 38 29 
0.273791 0.15835 1.29251 46 48 27 
-0.236152 -0.107501 1.42145 91 82 77 
-0.221472 0.119724 1.42104 75 59 46 
0.158111 0.165163 1.32333 69 60 43 
0.121179 -0.515101 1.34165 98 88 76 
-0.252566 -0.0190459 1.42688 63 45 31 
0.55379 -0.193804 1.23825 75 70 48 
0.199787 -0.0640577 1.3047 69 65 38 
0.182881 -0.255976 1.32783 93 75 63 
-0.232723 -0.021662 1.42095 90 74 58 
0.225771 0.183696 1.30528 58 57 37 
-0.235731 -0.493431 1.42657 52 44 33 
-0.279021 0.0835033 1.43578 72 58 45 
-0.699618 -0.0942895 1.53674 100 84 68 
-0.25237 -0.056008 1.42705 66 48 34 
-0.322698 -0.107141 1.44175 38 26 12 
0.0145288 -0.119196 1.35316 51 44 25 
0.186465 -0.0716757 1.30835 31 30 12 
0.326016 -0.57549 1.2919 88 76 64 
0.411224 -0.389158 1.27113 65 60 38 
0.0608022 -0.603963 1.35493 52 44 31 
0.527882 0.140175 1.2293 38 32 18 
0.195764 -0.264182 1.32328 45 38 19 
0.154912 0.0487461 1.32011 34 30 18 
-0.145967 -0.488734 1.4072 62 50 34 
0.148679 -0.0882731 1.31766 42 31 13 
0.0651708 -0.129323 1.33774 44 40 15 
-0.281342 -0.0419916 1.43431 77 59 45 
-0.298606 -0.312781 1.44878 135 109 94 
0.233365 0.131632 1.30499 37 32 13 
-0.237347 0.0552405 1.42326 56 40 24 
0.0735446 -0.282642 1.35325 154 122 101 
-0.25054 0.0613238 1.42854 88 71 55 
-0.225539 -0.64012 1.43552 107 96 66 
-0.277861 -0.118517 1.43087 82 70 54 
0.181781 0.209421 1.3169 82 70 56 
-0.316663 0.071997 1.44943 41 31 21 
-0.317649 -0.228348 1.45141 49 36 20 
-0.290778 0.057958 1.43991 54 42 28 
0.162977 -0.559967 1.33225 76 58 38 
0.166475 -0.106635 1.31383 24 24 0 
-0.106873 -0.190842 1.40122 62 48 37 
-0.155312 -0.266336 1.41434 106 75 57 
-0.246817 -0.0177164 1.42532 66 47 32 
-0.168791 -0.168256 1.41483 80 64 39 
-0.118033 -0.582901 1.40215 46 33 17 
-0.168798 -0.183475 1.41537 103 81 67 
0.347158 0.0105549 1.26816 22 22 0 
-0.233333 -0.0513896 1.42262 35 24 6 
0.0953232 -0.23596 1.35292 135 99 77 
-0.146816 -0.131254 1.39428 51 55 28 
-0.250543 0.007931 1.42707 100 86 73 
-0.29881 -0.285821 1.44887 55 43 31 
0.334275 0.187413 1.27737 73 68 49 
0.310935 -0.116694 1.27443 53 56 27 
0.144189 0.217301 1.3269 77 66 46 
0.342539 0.159247 1.27674 25 25 1 
-0.236432 -0.0922386 1.42328 60 48 36 
-0.129471 -0.212293 1.4051 52 39 23 
-0.31107 -0.388301 1.44888 102 94 81 
0.205769 0.0482749 1.30749 79 71 52 
-0.263513 -0.266764 1.43789 114 88 73 
-0.303252 -0.246052 1.44991 35 28 18 
-0.239997 0.120953 1.428 103 80 64 
0.0608129 -0.603928 1.35494 52 44 31 
0.253395 -0.271439 1.31007 38 30 17 
0.0747535 -0.395477 1.34898 71 52 38 
-0.258581 0.0814347 1.4323 96 78 58 
0.070558 -0.208838 1.35846 59 36 22 
-0.11988 -0.382189 1.40186 128 107 90 
-0.229465 -0.0115961 1.41922 88 65 49 
0.199894 0.214454 1.3119 56 50 36 
-0.158108 -0.517895 1.4112 46 36 27 
0.00892011 -0.538978 1.36878 55 41 28 
0.0264988 -0.187746 1.36629 108 81 62 
-0.16958 -0.169798 1.41515 118 101 81 
-0.146548 -0.565701 1.40724 48 43 24 
0.104566 -0.135969 1.32886 26 29 2 
-0.322014 -0.04172 1.44396 56 46 34 
0.183993 -0.398812 1.32566 78 65 49 
-0.1029 -0.552075 1.39588 56 44 32 
-0.319541 -4.05864e-05 1.44688 54 42 30 
-0.18127 -0.123805 1.40388 41 36 7 
0.15524 -0.600762 1.3351 59 47 35 
-0.17946 -0.0591972 1.40593 62 49 33 
0.4088 -0.244706 1.27257 67 66 45 
0.334518 -0.265493 1.29065 100 88 72 
0.239185 -0.425768 1.30978 64 56 37 
0.200954 0.0114372 1.30763 52 52 42 
-0.258554 -0.355287 1.43591 159 132 115 
0.221179 0.178784 1.30654 50 41 24 
-0.30073 -0.530032 1.44116 36 28 15 
-0.0647688 -0.700638 1.39366 45 38 22 
-0.235397 -0.506301 1.42526 72 65 55 
-0.263896 0.0579857 1.43238 70 56 43 
-0.105866 -0.550296 1.39591 33 21 7 
0.0366918 -0.243247 1.36689 66 50 35 
-0.000722183 -0.170732 1.37194 49 46 31 
0.194147 -0.140362 1.30694 34 39 9 
0.020324 -0.351796 1.36627 139 116 98 
0.277283 0.0594832 1.2898 11 13 0 
0.178519 0.162351 1.31625 102 90 78 
-0.235702 -0.493526 1.4266 52 44 33 
-0.145479 -0.103632 1.39706 54 46 33 
-0.289897 -0.35758 1.44691 104 88 75 
0.240417 -0.270384 1.31381 75 67 56 
-0.293601 -0.00468764 1.43932 80 63 45 
-0.319024 -0.0247697 1.44421 98 84 73 
0.367985 0.104429 1.26609 86 84 63 
-0.273427 -0.349589 1.44075 37 25 13 
0.40886 -0.244586 1.27261 48 48 24 
-0.271124 -0.0426334 1.43131 54 37 19 
-0.295471 0.0501952 1.44185 60 48 34 
-0.313989 -0.182872 1.45174 53 39 26 
0.157348 0.0870682 1.32196 56 51 29 
0.0491724 -0.428635 1.36003 79 67 53 
0.164683 0.0412199 1.31798 72 67 47 
-0.281708 -0.178955 1.44401 46 34 22 
0.187775 -0.249248 1.32682 138 103 83 
-0.207233 0.134162 1.41755 128 102 85 
0.216612 0.173826 1.30633 86 75 47 
-0.248216 -0.135834 1.42102 59 55 30 
0.184368 -0.344303 1.32579 81 55 40 
-0.31559 -0.101506 1.44115 29 22 6 
0.0689066 -0.523768 1.35414 45 31 22 
-0.293261 -0.224097 1.44624 109 90 73 
-0.28359 -0.178178 1.4456 42 30 16 
-0.226471 -0.0661852 1.41975 83 68 47 
-0.261414 0.0462722 1.43286 114 97 81 
0.102195 -0.113077 1.32995 25 18 0 
-0.10628 -0.265631 1.40107 85 53 38 
-0.120238 -0.130036 1.38696 64 59 29 
0.305069 -0.366863 1.29597 71 63 50 
-0.257271 -0.0905099 1.42748 67 50 32 
-0.220639 -0.0356644 1.41761 80 64 49 
-0.248141 -0.0983354 1.42519 51 42 27 
0.500099 -0.000974641 1.2311 51 50 32 
-0.225654 -0.021494 1.41859 95 73 59 
-0.20522 -0.0559844 1.41242 74 58 45 
0.0396867 -0.456064 1.36219 106 84 70 
-0.29208 -0.0447343 1.43711 86 76 66 
0.200152 0.154637 1.31293 64 58 44 
-0.0543827 -0.10245 1.38007 98 70 58 
-0.295207 -0.0439295 1.43716 100 82 68 
0.3496 0.0831624 1.27122 22 23 7 
0.470523 -0.0369036 1.23644 42 37 15 
0.0797245 -0.250513 1.35224 127 100 81 
0.179274 0.0975152 1.31541 86 77 60 
0.110028 -0.138694 1.32615 48 40 19 
0.239578 0.0731224 1.30358 74 67 48 
-0.321401 -0.0416543 1.44497 51 41 29 
-0.307453 0.00503267 1.44373 59 47 33 
-0.289698 -0.0808291 1.43505 75 62 46 
0.196517 -0.280981 1.3227 115 103 87 
-0.305903 0.101729 1.44471 72 58 45 
-0.145477 -0.405693 1.40981 50 41 26 
-0.315679 0.0199886 1.44552 57 43 32 
-0.276292 -0.117618 1.42845 63 51 37 
0.130508 -0.060561 1.32242 56 47 18 
-0.285185 0.101035 1.43753 39 27 15 
-0.326935 -0.0719174 1.4461 79 67 51 
-0.286573 -0.0378528 1.43598 107 79 65 
-0.301492 -0.0752612 1.43825 85 75 63 
-0.263015 -0.0546045 1.43117 102 76 59 
0.348408 0.101235 1.27151 41 36 16 
-0.284797 0.100791 1.43816 57 45 33 
0.201916 0.109864 1.31247 19 17 4 
-0.236071 -0.0922907 1.42379 68 56 44 
0.192919 -0.412292 1.32452 90 78 66 
-0.24343 0.00665317 1.42356 69 56 40 
-0.282755 0.0335126 1.44141 120 102 90 
0.200247 -0.498529 1.31911 70 64 50 
0.00195748 -0.135291 1.35658 54 57 28 
0.296231 -0.266633 1.29771 72 60 46 
0.0302026 -0.479638 1.36423 136 123 107 
0.166151 -0.10698 1.31359 27 30 3 
0.293331 -0.263968 1.29983 47 41 25 
0.220945 0.178732 1.30638 50 41 24 
0.198053 0.158928 1.31284 38 39 23 
-0.2728 0.0341892 1.43406 52 36 23 
0.202899 -0.252429 1.32207 116 79 60 
0.281568 0.0621637 1.28842 16 17 0 
0.275943 0.166909 1.29325 50 47 30 
-0.169182 -0.123321 1.40086 55 58 29 
0.222689 0.178818 1.30556 51 44 28 
-0.12283 -0.456142 1.40241 99 87 75 
-0.297192 -0.199816 1.4475 37 27 17 
0.156948 0.162258 1.32387 69 62 44 
0.207406 -0.195216 1.32163 77 61 45 
0.533491 -0.00760921 1.22159 49 49 23 
-0.273067 -0.103176 1.43062 55 43 29 
0.1337 -0.0596111 1.32149 61 49 27 
0.0295213 -0.393165 1.36366 120 94 79 
0.376419 0.156751 1.26534 24 22 0 
0.092572 -0.592888 1.34721 46 36 26 
0.177024 0.169386 1.31683 43 35 22 
-0.216442 -0.00401209 1.41681 92 69 55 
-0.28257 -0.0407177 1.43526 63 46 30 
-0.28781 -0.203841 1.4473 42 32 23 
-0.31533 0.0184979 1.4455 53 41 29 
-0.711737 -0.106093 1.53989 52 45 26 
-0.32195 -0.0216243 1.44522 44 27 17 
0.261056 0.0891593 1.29438 11 11 0 
-0.116132 -0.323591 1.40234 82 76 60 
-0.271297 -0.25564 1.44113 30 21 6 
0.411362 -0.269058 1.27329 111 100 78 
0.166902 0.0231764 1.31487 26 25 7 
0.191869 0.179353 1.31335 39 37 22 
0.533923 -0.00757522 1.2218 54 54 26 
-0.243587 -0.131532 1.42179 43 36 17 
-0.268341 -0.0400078 1.43049 60 39 22 
0.516122 -0.358902 1.2445 117 110 94 
-0.304614 0.0508585 1.44228 36 32 23 
-0.169222 -0.123433 1.40081 51 55 28 
-0.220728 -0.6646 1.4338 42 30 18 
-0.331717 0.0102401 1.4476 77 65 49 
0.263074 -0.252192 1.30768 133 112 83 
-0.305444 -0.0251309 1.44055 87 74 57 
-0.106295 -0.265647 1.40106 109 77 62 
0.162765 -0.14077 1.31444 46 41 11 
-0.308896 -0.0946038 1.44107 50 40 28 
0.245417 0.184192 1.30099 75 64 46 
-0.27188 -0.0437895 1.43139 50 31 14 
0.133951 0.161427 1.32861 93 84 69 
-0.272679 -0.432199 1.43844 113 92 75 
0.121817 -0.101455 1.32418 22 20 0 
0.284148 0.13465 1.29038 72 65 46 
-0.325798 -0.0582777 1.44486 41 33 22 
0.167736 0.0310753 1.31602 15 17 3 
-0.114848 -0.2201 1.40325 40 31 16 
0.29914 -0.220672 1.2982 63 58 28 
-0.0813002 -0.107266 1.38453 79 60 46 
-0.234498 -0.0812889 1.42168 59 46 30 
0.0712448 -0.18541 1.35532 115 90 70 
0.332298 0.146407 1.27995 14 15 0 
0.534914 -0.00349813 1.22031 66 60 38 
-0.263615 0.0582104 1.43279 65 51 40 
0.319579 -0.37852 1.29297 48 41 23 
0.160684 0.0208499 1.3166 48 47 29 
-0.123902 -0.19923 1.40497 100 82 68 
-0.21064 -0.027673 1.41461 129 112 96 
-0.331642 -0.0483085 1.44606 40 32 19 
-0.295889 -0.118717 1.43557 53 44 29 
0.182143 0.155239 1.31571 81 79 66 
-0.235514 -0.0655408 1.42235 58 46 32 
-0.307635 -0.032055 1.44189 47 38 23 
-0.313729 -0.118222 1.43838 41 36 17 
-0.229253 0.16684 1.42276 118 99 84 
0.0857367 -0.0874277 1.33476 95 91 46 
0.0962214 0.246976 1.375 99 86 67 
-0.0147361 -0.584852 1.37206 55 47 36 
-0.220766 -0.0662898 1.41807 64 54 42 
0.218596 0.0863907 1.30723 88 79 64 
-0.293102 -0.322901 1.44665 36 26 17 
-0.241612 0.0129707 1.42518 79 61 49 
0.65278 0.351314 1.19453 84 96 14 
0.338368 0.0932797 1.27435 20 20 8 
-0.281016 -0.322402 1.44286 32 22 13 
0.308493 0.0862732 1.28192 12 13 0 
0.271726 0.120421 1.29156 24 21 4 
0.322337 -0.522725 1.29107 72 63 46 
-0.301707 0.0808855 1.4424 39 29 17 
-0.230558 -0.0946472 1.4209 55 45 33 
-0.262299 0.115191 1.43498 53 41 29 
-0.122012 -0.168121 1.4007 87 81 31 
0.154492 0.13337 1.32341 102 99 82 
0.231844 0.206601 1.30536 63 63 39 
-0.148576 -0.122753 1.39655 39 39 15 
0.325501 -0.240161 1.29203 56 50 28 
0.0117173 -0.48666 1.37165 112 75 56 
-0.265318 -0.0610062 1.43032 48 34 21 
0.0101629 -0.170946 1.37001 69 58 26 
0.398904 0.101986 1.26082 76 74 59 
0.123655 -0.00880127 1.3241 34 33 2 
-0.253434 0.0536528 1.42962 125 108 92 
0.166687 0.0378877 1.31712 26 23 8 
-0.161141 -0.186866 1.41351 54 42 26 
-0.264548 -0.11331 1.42749 93 77 61 
-0.00596609 -0.174303 1.37384 51 49 26 
0.145012 0.200314 1.3273 103 95 74 
-0.325734 -0.205841 1.45453 47 37 25 
-0.223103 -0.0285091 1.41763 74 57 39 
-0.279569 -0.322931 1.44199 34 25 16 
0.18697 -0.0765603 1.30893 37 35 20 
0.348402 0.101216 1.2715 33 28 8 
-0.327757 -0.0568014 1.44536 38 30 19 
-0.310916 0.0951281 1.44492 46 32 21 
-0.337812 -0.480776 1.45369 32 25 17 
-0.172065 -0.00266122 1.41692 108 73 53 
-0.265423 -0.604856 1.44222 52 38 25 
-0.00130561 -0.168347 1.37104 57 45 31 
-0.147469 -0.655009 1.41901 39 32 24 
-0.338467 -0.200768 1.45712 53 36 28 
-0.311465 -0.325924 1.45006 59 47 33 
-0.323276 -0.0297948 1.44518 44 34 24 
-0.121021 -0.658245 1.40807 66 50 35 
0.147054 -0.166223 1.33413 54 56 7 
0.3546 -0.266951 1.28675 85 74 56 
0.0736545 -0.249598 1.3527 89 64 44 
0.191921 0.0924402 1.31444 77 70 51 
0.137867 0.184416 1.32671 51 50 32 
0.362576 -0.515546 1.28308 126 102 68 
0.315852 -0.240828 1.29527 51 43 20 
-0.333179 -0.048581 1.44778 43 35 22 
0.148473 -0.16625 1.33432 47 46 0 
0.25023 0.111805 1.29796 19 17 2 
0.529727 0.136795 1.22868 59 49 37 
-0.313896 -0.323694 1.4506 82 70 56 
0.0550635 -0.209171 1.362 61 51 42 
-0.311231 -0.117674 1.43861 48 41 23 
-0.245043 0.0390085 1.42512 108 96 80 
0.150765 0.0210589 1.31848 51 44 26 
-0.319568 -0.365111 1.45511 48 38 29 
0.237361 -0.0795631 1.2961 40 40 6 
0.47243 0.0299398 1.23716 25 24 0 
0.151474 -0.0818746 1.31722 75 77 30 
-0.123265 -0.192524 1.40566 57 45 29 
-0.28414 -0.411539 1.44418 116 93 79 
-0.303853 0.0462993 1.4409 58 48 38 
0.0850027 -0.0915496 1.33449 62 54 17 
-0.00874774 -0.564234 1.37224 38 28 19 
0.134009 -0.0526434 1.32193 40 36 9 
-0.216686 -0.00408823 1.41648 84 61 47 
-0.252069 0.0446349 1.42823 124 107 91 
-0.301057 -0.135415 1.43333 29 24 4 
-0.184508 -0.464823 1.41818 144 131 115 
-0.281609 -0.295522 1.44324 80 54 37 
-0.223551 -0.0307033 1.41787 119 102 82 
-0.223178 -0.0032996 1.41897 73 50 34 
0.0038043 -0.139204 1.35577 48 50 11 
-0.231795 0.0162088 1.42179 63 49 36 
-0.29065 -0.213826 1.44552 48 38 26 
0.148395 -0.53033 1.33558 109 97 75 
0.265562 0.178495 1.2952 30 23 4 
0.0489031 -0.174936 1.36077 59 58 40 
-0.325828 -0.0584828 1.44481 42 34 23 
-0.0155267 -0.12995 1.36242 59 55 20 
-0.259605 0.0379322 1.42965 81 62 47 
-0.276991 -0.0368163 1.43309 112 77 58 
-0.299676 -0.20273 1.44798 58 48 36 
0.0982269 -0.0626632 1.33035 82 63 4 
-0.260777 -0.110806 1.42751 71 52 38 
0.164249 -0.0728963 1.3133 81 74 30 
-0.327012 -0.0793286 1.44475 39 27 13 
0.190565 -0.248374 1.3254 134 99 79 
-0.233127 -0.0859026 1.42212 48 32 19 
0.227906 0.0288932 1.30193 39 33 11 
0.175672 0.164721 1.31737 48 47 29 
0.329419 0.139009 1.27929 46 44 21 
-0.215485 -0.142262 1.41278 58 57 26 
0.370752 -0.360686 1.28224 55 52 37 
0.564918 0.137486 1.22113 31 30 10 
0.169251 0.06671 1.31741 105 91 78 
0.141911 -0.0879569 1.31946 56 45 23 
0.556959 -0.326656 1.23297 50 42 31 
0.168876 0.044678 1.31627 28 26 14 
-0.264442 -0.0265324 1.42997 89 62 43 
0.327389 -0.547884 1.2888 75 70 48 
0.337703 -0.26987 1.29089 54 42 26 
0.119699 0.153773 1.33354 78 61 43 
0.0520815 -0.172332 1.36043 49 46 29 
0.163657 -0.0240393 1.31435 45 47 23 
0.400968 0.0707648 1.25639 14 19 0 
0.223709 -0.178627 1.3171 68 57 37 
-0.276624 -0.0369163 1.43365 109 76 57 
0.335829 0.010048 1.27232 40 45 13 
-0.210459 -0.498446 1.4222 53 39 26 
0.441521 -0.34758 1.26412 45 36 19 
-0.2468 -0.163703 1.43212 83 77 29 
-0.0262859 -0.0500577 1.43321 14 15 9 
0.29016 -0.0499466 1.28238 104 109 77 
0.0361426 -0.20047 1.36568 110 89 70 
-0.152633 -0.0917681 1.39959 76 70 56 
0.0996675 -0.139178 1.32872 57 59 22 
-0.313711 -0.024742 1.44226 101 88 71 
-0.325932 -0.0203947 1.44817 47 33 22 
0.0828106 -0.230878 1.35205 100 67 48 
-0.189136 -0.126493 1.40574 76 69 43 
-0.245104 -0.0371458 1.424 102 89 70 
-0.231939 0.0264944 1.42122 114 101 84 
0.447096 0.0554741 1.24639 61 59 36 
0.183505 0.199445 1.3174 36 29 11 
-0.295055 0.0717654 1.44031 102 86 71 
0.224982 -0.307202 1.31662 102 88 75 
0.0791043 -0.254492 1.35232 86 45 27 
-0.237004 -0.0439392 1.42277 68 55 39 
-0.251618 -0.0643774 1.42738 55 41 28 
0.289848 -0.0203403 1.28296 52 51 30 
0.289791 -0.013813 1.28479 43 46 19 
-0.299981 0.00990885 1.44147 97 81 66 
0.501102 0.216968 1.00448 40 36 7 
0.222277 0.113263 1.30604 58 48 36 
0.219164 0.151205 1.30981 79 70 55 
-0.16469 -0.333918 1.41415 82 53 35 
0.223406 0.119391 1.30553 34 31 16 
0.237664 -0.00380725 1.29549 62 59 40 
0.405975 0.0725373 1.25742 82 86 63 
-0.329155 0.123315 1.44984 26 24 9 
0.0108227 -0.0454552 1.42424 66 52 43 
0.471045 -0.183742 1.25702 41 45 22 
-0.260021 -0.0157142 1.42909 138 102 78 
-0.326871 0.0774388 1.44908 40 32 19 
0.284949 -0.398807 1.29862 64 57 39 
-0.234866 -0.102577 1.42095 53 44 29 
0.170085 0.115697 1.32064 63 54 37 
-0.245124 0.0389322 1.42501 108 96 80 
-0.258908 0.0379732 1.43068 83 64 49 
0.289468 -0.677248 1.30311 81 75 61 
0.223257 -0.179609 1.31764 67 56 34 
-0.300614 -0.306961 1.44965 124 98 83 
-0.298875 -0.0327573 1.43908 116 90 77 
0.230552 -0.363072 1.31447 52 44 33 
0.16685 0.198058 1.31912 45 38 20 
-0.25909 -0.481659 1.43204 70 60 50 
0.312582 -0.545691 1.29568 57 48 31 
0.147472 -0.106247 1.31851 83 78 40 
0.360784 -0.252544 1.28495 60 53 35 
0.220559 -0.0661671 1.29922 65 60 22 
0.183241 -0.270854 1.32525 52 45 29 
0.202521 0.0429465 1.30718 62 56 42 
0.236949 0.0781954 1.30421 59 51 32 
-0.157701 -0.273202 1.41472 40 20 9 
0.0219052 -0.457204 1.36729 149 120 104 
-0.273344 -0.117622 1.4303 52 43 28 
0.323424 -0.292905 1.29227 84 77 51 
0.271657 -0.138565 1.28623 50 53 26 
-0.181184 -0.178657 1.41848 84 66 46 
-0.20567 -0.0914879 1.41243 55 39 23 
-0.00220899 -0.724657 1.38133 86 78 65 
-0.183738 -0.0785908 1.40712 54 42 30 
0.146728 0.0259201 1.32038 51 43 24 
-0.325418 -0.0811169 1.44496 56 46 34 
0.250459 -0.382149 1.30954 96 83 66 
-0.25125 0.0446968 1.42942 111 93 79 
0.186037 -0.242408 1.32633 157 124 105 
0.21915 -0.320456 1.31621 59 54 35 
-0.296202 -0.287464 1.44821 63 45 35 
0.132577 -0.0599891 1.32183 69 57 35 
0.0941388 -0.0833617 1.33118 47 37 10 
-0.115304 -0.410434 1.40183 44 32 18 
-0.1338 -0.222891 1.4058 69 56 40 
0.127169 0.225491 1.3306 94 79 60 
0.0393155 -0.196448 1.3644 72 61 43 
0.0531773 -0.133614 1.34237 71 71 37 
0.262995 -0.0714939 1.28869 57 47 22 
0.25051 0.0570485 1.29798 66 59 43 
0.195689 0.224269 1.31369 63 59 24 
0.274706 0.0962909 1.29137 37 31 17 
0.189027 -0.222913 1.32593 41 28 19 
-0.33924 -0.0820851 1.4485 85 72 63 
-0.000235461 -0.590251 1.37066 49 41 30 
0.244069 -0.398669 1.30882 69 62 44 
0.257501 -0.0362201 1.29169 79 75 50 
0.204387 -0.0896532 1.30471 29 33 8 
0.33396 0.145823 1.27895 21 22 4 
0.189636 0.0190318 1.30944 43 38 19 
0.232965 -0.0964833 1.29589 18 22 0 
0.317277 0.127014 1.28084 34 36 14 
-0.110979 -0.328349 1.40088 57 47 37 
0.210634 -0.254393 1.32002 69 57 35 
0.296394 -0.290323 1.29982 77 66 46 
0.0881497 -0.626851 1.34369 72 65 49 
0.24353 0.234328 1.30109 34 38 11 
0.227159 -0.39751 1.31389 70 60 48 
-0.267067 -0.00601172 1.43109 124 87 61 
0.0129134 -0.175266 1.36943 118 73 40 
-0.298849 -0.0327362 1.43912 116 90 77 
0.201302 -0.0902891 1.30529 28 28 0 
0.075999 -0.530906 1.35286 62 52 40 
-0.283235 -0.506426 1.43901 50 44 30 
-0.268053 -0.422045 1.43903 137 112 92 
-0.100766 -0.432877 1.39752 117 98 83 
0.300781 0.174829 1.28702 74 69 47 
0.13808 -0.124422 1.32055 70 72 33 
-0.294122 -0.221815 1.446 65 49 34 
-0.273692 0.0698932 1.43473 30 22 11 
-0.271154 0.0305758 1.43305 71 52 38 
-0.222795 -0.00764574 1.4179 112 86 73 
0.245432 0.0666343 1.2999 14 12 0 
0.181068 0.199278 1.31805 37 30 12 
-0.15794 -0.117271 1.39971 76 65 47 
-0.182232 -0.095864 1.40679 67 55 41 
-0.195873 -0.026432 1.41057 98 82 66 
-0.301596 -0.0263945 1.43985 77 58 43 
0.121837 0.17651 1.33189 88 72 56 
0.168347 0.117679 1.32105 50 43 24 
0.331576 0.188449 1.27816 91 91 67 
0.249907 0.0657313 1.30059 12 12 0 
-0.162574 -0.0892498 1.40089 41 38 21 
-0.196844 -0.126842 1.409 76 73 56 
0.308355 0.00732121 1.2811 21 22 8 
-0.235713 -0.00213939 1.42298 83 57 42 
0.257192 0.218713 1.29485 44 44 20 
-0.261693 -0.0749041 1.42769 68 52 39 
0.0655253 -0.261877 1.35589 105 70 51 
0.207406 -0.22939 1.32349 72 40 25 
-0.196177 -0.0553033 1.41008 51 42 27 
-0.282167 -0.120887 1.43204 87 68 54 
0.14842 -0.0266572 1.31886 79 72 44 
0.332659 0.201536 1.27816 19 17 0 
-0.208508 -0.20206 1.44344 55 54 52 
-0.306744 -0.0865716 1.43945 47 41 27 
0.186997 0.190667 1.31604 36 30 16 
-0.261705 -0.00143078 1.43 110 69 51 
0.358203 0.00315025 1.26457 55 55 29 
0.222282 -0.432122 1.31449 79 67 53 
-0.273502 -0.4079 1.44152 97 75 61 
-0.227363 -0.0987916 1.41997 60 54 40 
-0.228228 -0.000774891 1.42044 83 60 44 
0.0134393 -0.259757 1.36826 95 60 41 
0.0683069 -0.125329 1.33823 56 57 26 
0.168914 -0.0678177 1.3135 71 64 38 
0.182822 0.199359 1.31689 37 30 12 
0.302392 0.0698032 1.28395 7 9 0 
-0.159984 -0.128879 1.39759 38 38 4 
0.424792 -0.238956 1.27062 63 56 38 
-0.217372 0.0114215 1.41812 80 73 47 
-0.249368 0.0710357 1.42907 91 68 50 
-0.22169 -0.00852195 1.41836 112 84 72 
0.441183 -0.358957 1.26407 75 66 57 
0.187148 0.190684 1.31615 36 30 16 
0.160898 0.217924 1.32217 64 57 47 
-0.333516 -0.0891466 1.44622 38 32 20 
0.204869 0.108504 1.30974 37 33 21 
-0.17598 -0.184021 1.41702 97 68 52 
0.380322 -0.0154689 1.26029 20 24 0 
-0.344929 -0.129746 1.44659 78 72 46 
-0.313646 -0.0581909 1.44155 55 45 33 
0.055921 -0.625386 1.35382 61 54 38 
0.575655 -0.204442 1.23114 101 93 80 
0.176517 0.144481 1.31565 50 46 34 
0.453456 0.0444187 1.24367 40 43 16 
0.191276 -0.146544 1.30738 87 88 28 
0.0781483 -0.329227 1.35244 36 26 16 
0.441354 -0.358974 1.26417 75 66 57 
-0.329177 -0.0976355 1.44419 51 42 25 
0.201217 -0.222016 1.32431 48 38 28 
-0.282418 -0.472919 1.43935 101 85 70 
0.155843 0.212561 1.32457 84 78 62 
0.229637 0.145486 1.30585 62 55 37 
0.341296 0.0801108 1.27355 26 29 10 
0.361062 0.0618369 1.26733 21 24 3 
-0.184557 -0.0588157 1.40736 58 46 30 
0.167535 0.0493989 1.31782 67 61 49 
0.231793 -0.310736 1.31386 63 51 39 
-0.234459 -0.0421829 1.42085 57 44 28 
0.157399 -0.0187079 1.31553 60 58 35 
-0.030462 -0.065847 1.43046 30 20 8 
0.156827 0.167007 1.32361 96 89 83 
-0.288902 -0.23317 1.44524 98 79 62 
0.179775 0.118922 1.31655 61 53 40 
0.227384 -0.276231 1.31523 101 88 72 
-0.334641 0.076239 1.45039 46 36 24 
-0.199258 -0.0760149 1.41141 73 57 42 
-0.198866 -0.0762763 1.41193 58 45 29 
-0.142803 -0.204418 1.40822 65 53 39 
-0.171984 -0.318376 1.41731 88 69 55 
-0.343726 -0.251972 1.45985 40 27 19 
-0.506657 -0.0591098 0.673628 183 170 161 
-0.12213 -0.163705 1.40036 73 66 14 
-0.299575 -0.0459271 1.43873 86 72 59 
0.358635 -0.251149 1.28468 60 49 29 
0.217738 -0.145978 1.30366 96 89 45 
0.233386 0.139654 1.30394 42 36 22 
0.294175 0.0978177 1.28414 41 34 18 
-0.274355 0.0212622 1.43446 79 61 47 
0.123248 0.247841 1.33066 67 60 31 
-0.338041 -0.538944 1.44891 57 51 35 
-0.335273 -0.111501 1.44654 54 47 31 
0.237365 -0.356295 1.31207 94 91 74 
-0.316157 -0.0845084 1.44222 48 40 27 
0.249228 0.0964578 1.29803 41 43 22 
-0.103711 -0.123821 1.38571 85 76 61 
-0.151761 -0.130458 1.39566 69 70 39 
0.0510426 -0.26403 1.35999 107 79 57 
-0.267676 -0.035891 1.43118 129 88 70 
0.0682265 -0.239744 1.35632 121 102 88 
-0.220096 -0.0240658 1.41737 118 89 73 
-0.281488 0.0646661 1.43461 31 23 12 
-0.153662 -0.302931 1.412 104 86 76 
0.24202 0.212985 1.29988 49 45 20 
0.233063 0.139693 1.30371 50 44 30 
0.200687 -0.22177 1.32392 50 40 30 
0.298426 -0.0688929 1.27919 45 40 11 
-0.202779 -0.203429 1.443 46 45 40 
0.0302895 -0.123955 1.34877 106 93 74 
0.172772 0.0119755 1.31409 46 40 16 
0.3605 -0.252299 1.28478 62 53 36 
0.142308 -0.0245403 1.32019 82 73 42 
0.210217 0.0866374 1.30865 67 59 46 
-0.0484455 -0.141361 1.36867 79 65 36 
-0.25687 -0.125802 1.42512 43 32 14 
-0.266946 0.080471 1.43315 60 46 33 
-0.131335 -0.110579 1.39291 56 47 32 
-0.290479 0.0238917 1.44046 104 92 78 
0.159092 0.0874963 1.32115 44 37 18 
-0.342116 -0.253254 1.45938 43 33 24 
0.492862 -0.0288082 1.23153 57 51 27 
-0.250272 -0.0342617 1.42604 81 70 52 
0.249251 0.0415644 1.29424 58 51 33 
-0.280791 -0.422597 1.44191 140 114 101 
0.308761 -0.0421738 1.27752 15 20 0 
0.240979 0.105682 1.29943 40 34 20 
-0.311371 0.124098 1.44639 39 35 23 
0.101838 -0.491801 1.34236 93 90 45 
-0.290491 -0.178083 1.44637 40 28 16 
0.193263 -0.310349 1.32267 77 68 53 
-0.14104 -0.120007 1.39447 47 44 29 
0.0116039 -0.252341 1.36856 106 73 56 
-0.272727 -0.0623985 1.43097 57 45 33 
0.230387 -0.0381702 1.29713 61 53 17 
0.0899317 -0.393801 1.34667 127 101 84 
0.469965 -0.38036 1.25401 65 60 41 
-0.320318 0.0126265 1.44416 52 40 26 
-0.300887 -0.142403 1.43605 70 61 22 
0.240911 -0.366691 1.30972 54 42 30 
0.131323 -0.0944092 1.32237 32 28 3 
0.00841683 -0.672572 1.3732 63 54 39 
-0.277553 -0.333154 1.44024 74 62 50 
-0.262527 0.068984 1.43231 35 25 15 
-0.0775245 -0.122947 1.37766 93 88 58 
-0.259174 -0.107789 1.42753 70 51 36 
0.202004 -0.220315 1.32347 51 38 29 
0.274863 -0.140694 1.28514 29 34 2 
-0.282109 -0.364393 1.44071 61 51 42 
0.296534 0.0318929 1.28214 43 47 22 
-0.155897 -0.0868489 1.39945 53 50 35 
0.310543 -0.0360072 1.28104 101 104 83 
-0.312 -0.0802422 1.441 44 38 26 
-0.318987 -0.201728 1.4533 45 32 23 
0.236602 -0.390029 1.31196 85 75 65 
0.349534 0.0628784 1.27124 20 21 5 
-0.295936 0.0862316 1.44047 45 35 25 
0.102551 -0.086004 1.33008 71 60 15 
0.0684345 -0.125244 1.33834 58 59 28 
-0.171877 -0.344802 1.41756 112 80 65 
0.322693 0.109005 1.28036 51 46 24 
-0.28601 -0.102877 1.43405 39 31 18 
0.22472 -0.0304713 1.29726 64 63 35 
-0.0669876 -0.171055 1.38891 57 46 24 
0.177356 0.157939 1.31646 58 50 37 
0.200432 -0.27863 1.32158 121 109 95 
-0.267152 -0.00948019 1.42971 132 94 71 
-0.25109 0.0374235 1.42687 90 72 58 
-0.226632 -0.126597 1.41829 53 42 20 
-0.292852 -0.232569 1.4456 92 69 51 
0.106836 0.254358 1.35212 68 56 40 
0.176621 -0.068434 1.31177 73 66 40 
0.384489 0.0496049 1.26122 22 26 3 
0.305485 -0.0490554 1.27768 44 44 10 
-0.325178 -0.0918959 1.44302 45 38 22 
0.329007 -0.307179 1.2913 55 48 32 
-0.334473 -0.0688011 1.44621 52 40 28 
-0.26171 -0.0748929 1.42766 68 52 39 
-0.29174 -0.126451 1.43396 39 37 14 
0.284776 0.119218 1.28741 36 35 14 
0.185043 -0.121751 1.3086 15 21 0 
-0.216914 -0.0372652 1.41618 76 59 43 
-0.670487 -0.233941 1.54196 45 36 21 
0.09599 -0.068134 1.33178 91 86 31 
-0.28386 -0.232641 1.44264 86 70 54 
0.316478 -0.018897 1.27814 51 54 23 
-0.296208 0.0460882 1.44015 53 41 27 
0.0274286 -0.177961 1.36561 93 66 47 
