ply                 
format ascii 1.0    
element vertex 1297
property float x    
property float y    
property float z    
property uchar red  
property uchar green
property uchar blue 
end_header          
-16.6948 -5.36131 34.5067 61 70 51 
-17.9707 -16.2063 36.8851 116 117 112 
-19.3968 -20.4652 39.9992 111 135 147 
-16.7721 -8.49389 34.551 57 86 128 
-16.5446 -7.14697 34.1301 141 146 123 
-16.5446 -7.14697 34.1301 141 146 123 
-19.3157 -20.0393 39.8084 34 40 38 
-19.3618 -20.1593 39.9078 96 127 148 
-17.0024 -11.9031 34.9155 106 133 180 
-17.0024 -11.9031 34.9155 106 133 180 
-17.1383 -13.4933 35.1741 11 30 37 
-20.3163 -22.5773 42.0472 98 128 154 
-16.7362 -8.26837 34.5037 52 55 64 
-16.6346 -9.39707 34.2489 81 85 58 
-17.5728 -15.3504 36.0936 49 44 0 
-19.9933 -21.746 41.3243 156 148 86 
-18.0853 -16.7779 37.1695 122 137 168 
-16.5756 -6.97622 34.235 18 22 33 
-16.4897 -5.90364 34.0956 112 99 55 
-16.4897 -5.90364 34.0956 112 99 55 
-16.5635 -8.0097 34.1649 124 153 195 
-16.8046 3.67241 34.9087 126 123 68 
-18.6551 -18.349 38.4025 83 124 168 
-16.5738 -5.97941 34.2698 20 13 0 
-19.0764 -19.6477 39.3412 97 129 150 
-19.0764 -19.6477 39.3412 97 129 150 
-16.5535 -4.83494 34.2811 175 179 152 
-16.5263 -7.01398 34.1442 129 145 158 
-16.8533 2.18259 35.0261 28 21 11 
-17.7651 -15.6843 36.508 151 157 71 
-16.9255 -11.693 34.7998 105 132 162 
-16.6697 -3.95986 34.5505 91 98 65 
-16.5614 -4.45335 34.3128 91 106 25 
-16.7216 -8.32532 34.5049 137 163 190 
-16.7216 -8.32532 34.5049 137 163 190 
-16.9103 -10.5393 34.82 49 64 95 
-16.6581 -8.98849 34.3412 129 152 196 
-17.085 1.53579 35.518 174 161 144 
-16.5775 -7.51986 34.2433 144 155 177 
-19.5317 -20.8943 40.3715 47 50 41 
-17.746 -15.8908 36.4901 107 139 164 
-17.6822 -15.2914 36.3515 35 34 0 
-16.798 -12.0413 34.549 88 110 131 
-16.573 -6.6027 34.283 52 50 25 
-19.7242 -21.4112 40.8177 31 18 9 
-16.8677 -1.21853 35.0577 54 47 21 
-16.8677 -1.21853 35.0577 54 47 21 
-22.2301 -26.8374 46.405 66 54 38 
-16.9264 1.71435 35.2147 209 207 195 
-16.7391 4.60171 34.8099 24 15 8 
-18.7971 -18.8447 38.7673 22 24 19 
-18.7971 -18.8447 38.7673 22 24 19 
-17.1362 4.00264 35.6488 169 166 159 
-16.8091 -12.112 34.5889 115 152 168 
-17.0081 0.59736 35.3851 33 26 7 
-18.0956 -16.9491 37.2585 39 34 41 
-17.5471 -15.4041 36.0989 45 43 0 
-16.6304 -8.41856 34.3528 116 137 168 
-21.5635 -25.5531 44.9488 32 25 6 
-16.9335 -12.3943 34.8564 6 8 20 
-17.5587 -15.0417 36.1376 93 127 164 
-21.0048 -24.0749 43.6749 182 189 156 
-21.0048 -24.0749 43.6749 182 189 156 
-16.8697 2.10112 35.1257 47 39 28 
-16.9311 1.38639 35.26 111 91 66 
-21.3285 -25.0725 44.4505 60 55 23 
-18.8761 -19.2838 38.9809 23 22 18 
-16.7809 -0.0116585 34.9442 102 88 77 
-16.8294 -10.6338 34.7087 89 107 121 
-16.4289 -6.6056 34.0332 123 160 186 
-17.0705 -13.1198 35.1511 45 39 23 
-16.882 3.75159 35.1637 43 38 32 
-17.0943 5.00013 35.601 83 67 52 
-16.6478 -3.29437 34.6065 12 15 8 
-21.912 -26.4517 45.8037 134 136 97 
-16.7706 -10.6714 34.5973 20 24 27 
-16.7706 -10.6714 34.5973 20 24 27 
-17.6769 -15.3578 36.4068 99 109 13 
-16.6051 -7.38307 34.383 30 30 18 
-16.8539 -11.7053 34.7468 108 129 172 
-20.5675 -23.291 42.7567 57 72 95 
-16.7085 -0.493895 34.8035 90 72 58 
-16.4856 -6.51046 34.1769 155 158 103 
-17.014 4.28373 35.4576 100 86 77 
-22.2455 -26.9822 46.5422 115 110 88 
-16.5033 -7.55479 34.1805 50 55 48 
-16.5664 -8.3559 34.2784 42 44 57 
-16.5664 -8.3559 34.2784 42 44 57 
-16.7461 -4.25887 34.8056 20 21 0 
-16.8476 -11.307 34.7693 116 145 187 
-16.8685 1.62245 35.18 37 30 20 
-21.9631 -26.4685 45.9343 60 58 45 
-16.7787 -2.55207 34.9519 157 152 149 
-17.2318 -14.2568 35.5294 110 126 162 
-17.3076 -14.3895 35.6857 23 18 12 
-16.4759 -7.41301 34.1536 27 21 0 
-18.0609 -17.022 37.2853 33 30 25 
-18.0609 -17.022 37.2853 33 30 25 
-19.1465 -19.9155 39.6408 54 57 46 
-18.0175 -17.0795 37.201 125 125 97 
-16.9778 1.08013 35.4305 138 122 107 
-16.9778 1.08013 35.4305 138 122 107 
-17.8487 -16.4118 36.8377 13 14 6 
-17.8487 -16.4118 36.8377 13 14 6 
-16.7735 -11.9502 34.6203 16 22 34 
-18.4665 -18.0007 38.162 40 62 111 
-16.4686 -5.38608 34.2402 21 30 9 
-17.2852 -2.12206 36.0262 23 17 3 
-16.591 -9.23601 34.3353 107 147 182 
-16.401 -5.09582 34.0949 141 168 197 
-19.9404 -21.9809 41.4337 37 33 21 
-19.9404 -21.9809 41.4337 37 33 21 
-17.7803 -16.3165 36.7063 26 24 9 
-21.8393 -26.6639 45.7743 130 132 131 
-16.4771 -0.853789 34.3727 113 106 78 
-19.0059 -19.7378 39.3802 100 104 77 
-16.4679 -7.28616 34.1686 118 168 205 
-16.8287 5.1852 35.1227 21 18 11 
-16.7291 -10.0077 34.6172 139 144 174 
-16.7291 -10.0077 34.6172 139 144 174 
-16.9461 1.22086 35.3896 54 37 19 
-16.7576 -1.96662 34.9561 19 13 1 
-16.6002 -3.99624 34.5761 16 25 0 
-16.9832 0.602412 35.4726 110 106 77 
-20.3724 -23.0203 42.4273 61 56 86 
-20.4504 -23.1684 42.5989 116 127 159 
-16.7588 -10.4919 34.669 127 141 154 
-16.8092 -11.6415 34.7438 116 139 181 
-16.5304 -7.40588 34.3164 147 143 116 
-16.8461 2.34831 35.2022 207 199 188 
-16.4804 -5.99088 34.2765 11 13 0 
-16.9396 -12.8758 35 123 126 95 
-16.9119 -0.488565 35.3347 113 96 86 
-16.9119 -0.488565 35.3347 113 96 86 
-17.9207 -16.7673 37.0487 42 48 82 
-16.4937 -7.74593 34.2435 138 162 188 
-21.712 -26.2259 45.5065 39 38 33 
-17.0259 4.03053 35.5915 47 44 39 
-17.4983 -15.2904 36.1547 25 33 0 
-20.9806 -24.228 43.7993 26 34 13 
-20.0925 -22.3923 41.832 110 123 158 
-18.0061 -16.9333 37.2386 102 130 170 
-19.0274 -20.094 39.4958 33 47 84 
-16.4337 -3.37232 34.2923 18 21 12 
-16.4337 -3.37232 34.2923 18 21 12 
-16.7871 -12.2526 34.72 99 100 104 
-16.5233 -4.22436 34.4673 88 91 46 
-16.725 -3.82485 34.896 28 31 20 
-17.306 -14.8466 35.7792 36 53 79 
-17.306 -14.8466 35.7792 36 53 79 
-16.9789 4.93462 35.5053 71 63 40 
-16.517 -4.5894 34.4364 30 50 51 
-16.8858 4.15191 35.3145 186 176 164 
-17.8093 -16.3896 36.8478 78 74 63 
-16.6277 -3.74053 34.703 6 6 4 
-16.7467 -11.0383 34.6763 119 146 191 
-16.5504 -8.33252 34.3775 17 33 69 
-16.493 -7.09147 34.3088 117 153 189 
-16.6859 3.16324 34.9154 15 17 6 
-16.5255 -3.93892 34.4924 83 89 45 
-16.5255 -3.93892 34.4924 83 89 45 
-16.8529 -12.4592 34.8723 123 125 124 
-17.1062 0.571736 35.7994 56 44 20 
-17.5346 -15.4278 36.2761 41 31 0 
-16.51 -8.92524 34.2785 116 148 189 
-17.5019 -15.4522 36.2119 156 161 67 
-17.0433 4.27172 35.6736 214 207 197 
-16.4552 -10.7191 34.1073 61 61 61 
-17.1424 -13.8417 35.4658 25 42 72 
-16.7395 -9.91508 34.7313 132 154 175 
-16.7515 0.0118257 35.065 87 73 60 
-16.9392 -13.5078 35.052 84 112 134 
-18.6926 -19.1963 38.8186 85 87 86 
-16.8928 2.52623 35.3886 146 137 128 
-16.8928 2.52623 35.3886 146 137 128 
-16.3374 -6.91304 34.0235 43 48 51 
-16.4117 -6.5264 34.1978 146 133 89 
-16.9822 4.75916 35.5585 220 220 210 
-16.8222 -12.37 34.8477 17 21 20 
-19.51 -21.4397 40.657 41 32 17 
-20.276 -23.0417 42.3532 53 65 103 
-16.7722 -12.05 34.7545 8 12 15 
-16.5834 -4.04466 34.6598 102 108 64 
-16.951 2.28872 35.5294 213 204 195 
-16.5503 -5.33851 34.5553 126 162 178 
-16.7827 -12.9596 34.7722 110 127 75 
-17.8379 -16.7309 36.9873 120 135 174 
-16.9758 4.97247 35.5765 197 185 173 
-16.6122 2.8352 34.8335 200 193 183 
-16.7102 -11.6949 34.655 53 43 41 
-16.4683 -4.55866 34.4139 141 157 157 
-19.7446 -21.9537 41.197 116 124 147 
-21.0187 -24.8758 44.0732 28 28 0 
-16.7136 1.8401 35.0489 24 19 13 
-18.849 -19.9008 39.2366 71 80 79 
-16.6114 -2.33651 34.7886 24 20 11 
-17.2552 -14.6597 35.758 125 124 122 
-19.5481 -21.645 40.7836 39 37 22 
-16.9109 -13.2465 35.0592 123 147 173 
-17.8604 -17.1251 37.0612 140 149 118 
-16.307 -6.24414 34.0347 26 28 14 
-16.7527 -2.6147 35.0904 184 182 183 
-16.6731 1.1602 34.9887 134 125 96 
-16.5308 -10.4382 34.349 20 25 28 
-16.6751 -11.8894 34.6085 4 9 28 
-16.6751 -11.8894 34.6085 4 9 28 
-16.3969 -7.63601 34.1932 142 162 171 
-16.3969 -7.63601 34.1932 142 162 171 
-16.3934 -7.28879 34.1985 2 13 43 
-16.6226 -8.49652 34.6327 45 45 57 
-19.0006 -20.1261 39.5914 118 134 150 
-16.5729 1.58847 34.7999 135 131 119 
-16.4335 -7.04769 34.3064 24 37 69 
-17.0424 4.26557 35.7867 212 203 196 
-17.5979 -15.1477 36.5061 105 138 153 
-16.3381 -7.32278 34.0962 111 130 163 
-21.6002 -26.078 45.4351 38 47 64 
-16.3746 -6.07619 34.2246 107 98 57 
-20.7434 -24.182 43.5004 24 32 21 
-16.4577 -9.42568 34.264 15 16 8 
-16.4319 -8.0512 34.2786 110 152 192 
-16.4668 -6.43622 34.4217 135 158 192 
-16.5359 -2.92074 34.6941 169 165 164 
-16.4099 -10.2155 34.1584 14 19 13 
-16.681 -12.0718 34.6707 90 110 119 
-16.7417 -2.57671 35.1399 149 148 153 
-16.6739 2.37717 35.0567 49 36 27 
-16.6721 -11.6035 34.6825 45 49 58 
-16.7792 -12.9394 34.8749 22 17 0 
-17.0119 -14.1908 35.3558 21 49 99 
-16.3909 -0.802298 34.4568 16 12 0 
-16.5475 -8.84987 34.5352 32 41 48 
-17.2338 -14.963 35.8226 96 128 177 
-16.702 1.82906 35.1397 160 157 152 
-16.6205 3.70604 34.9616 63 49 36 
-17.8238 -16.8733 37.0867 125 148 164 
-16.4863 0.923145 34.6927 114 106 83 
-16.5574 3.6274 34.8394 24 18 0 
-18.8501 -19.9438 39.3599 138 134 87 
-16.4773 -9.70352 34.3755 131 141 142 
-16.3385 -7.75087 34.167 115 148 179 
-16.8322 -13.0897 35.0209 36 34 9 
-16.8322 -13.0897 35.0209 36 34 9 
-16.3336 -6.56082 34.2023 118 112 88 
-16.2471 -4.55648 34.094 166 176 151 
-16.6547 -12.4523 34.672 93 120 163 
-16.6195 -11.6221 34.6135 117 133 156 
-16.2997 -6.47825 34.144 24 19 15 
-16.5528 -1.83277 34.8199 23 21 0 
-16.4664 -3.94979 34.5933 163 168 146 
-16.4664 -3.94979 34.5933 163 168 146 
-16.6334 -7.03083 34.8426 125 158 191 
-16.3341 -6.23989 34.2434 138 143 103 
-16.3341 -6.23989 34.2434 138 143 103 
-16.1025 -4.20119 33.8323 10 13 0 
-16.4584 -5.38201 34.5431 134 167 198 
-16.744 -12.655 34.878 150 162 158 
-16.744 -12.655 34.878 150 162 158 
-17.3376 -15.4688 36.1024 21 15 0 
-18.8515 -19.9089 39.4096 34 22 8 
-21.7311 -26.6147 45.9101 86 117 163 
-17.1493 -14.2178 35.7088 95 130 184 
-16.5697 -3.36811 34.8467 20 21 16 
-16.5088 -8.88699 34.5191 134 161 182 
-16.7149 -12.5653 34.8294 32 50 72 
-16.8872 2.45443 35.6069 225 215 205 
-16.4716 -7.01648 34.5274 18 37 70 
-16.4716 -7.01648 34.5274 18 37 70 
-16.1397 -6.64166 33.8436 136 161 192 
-16.8564 4.00979 35.5485 141 140 136 
-16.4821 -3.70572 34.6794 158 163 182 
-16.2157 -6.67176 34.0116 136 161 192 
-17.1187 -14.8888 35.6804 101 129 177 
-17.1187 -14.8888 35.6804 101 129 177 
-16.856 4.09962 35.5622 82 78 75 
-16.2804 -6.64604 34.1641 73 65 44 
-16.3921 -3.44903 34.512 146 153 111 
-16.4707 -3.46712 34.6793 146 153 111 
-16.5644 3.66331 34.9516 151 145 121 
-16.7669 0.24551 35.3842 130 109 92 
-17.4352 -15.4109 36.3581 40 37 20 
-16.6585 2.13291 35.1635 119 112 104 
-16.4923 -9.97098 34.4925 133 144 166 
-16.6693 1.622 35.1824 132 130 118 
-20.3961 -23.7558 42.9495 43 58 101 
-16.2603 -8.08105 34.0735 27 61 96 
-16.2955 -8.38124 34.1429 86 97 117 
-16.5641 -3.47791 34.89 134 142 91 
-17.3971 -15.9449 36.2935 128 140 138 
-16.5168 2.28011 34.866 51 41 32 
-16.8137 4.18256 35.5049 230 219 215 
-16.4496 -9.79729 34.4134 145 144 142 
-16.1882 -6.75132 33.9866 36 39 48 
-16.1882 -6.75132 33.9866 36 39 48 
-17.2458 -15.0684 35.9746 20 51 95 
-16.3877 -3.89827 34.5167 5 11 1 
-19.4935 -21.8857 40.9552 45 44 39 
-16.4439 -10.5336 34.3846 110 145 185 
-16.672 0.820195 35.2157 26 20 4 
-16.3017 -3.60811 34.3531 77 83 99 
-16.4048 -2.62159 34.5988 29 27 28 
-16.3877 -2.54747 34.5714 147 146 151 
-16.4422 -10.7868 34.378 48 53 49 
-16.4422 -10.7868 34.378 48 53 49 
-18.719 -19.7356 39.214 26 25 33 
-16.8425 -13.7872 35.1576 104 137 168 
-16.8425 -13.7872 35.1576 104 137 168 
-16.5658 -11.8638 34.6071 20 27 37 
-16.2772 -6.19339 34.2169 25 22 0 
-16.2772 -6.19339 34.2169 25 22 0 
-16.2617 -6.04772 34.1915 101 89 63 
-16.2757 -5.45791 34.2463 117 163 178 
-16.6506 0.47566 35.185 170 147 131 
-19.0787 -21.0543 40.0626 21 21 19 
-19.1075 -20.8604 40.1155 117 126 105 
-19.1075 -20.8604 40.1155 117 126 105 
-19.8739 -22.721 41.8422 26 42 58 
-19.8739 -22.721 41.8422 26 42 58 
-16.302 -8.19375 34.2087 121 150 184 
-16.5016 -4.45575 34.7758 10 17 0 
-21.3578 -26.051 45.2158 51 52 73 
-16.3682 -4.14582 34.5116 122 135 92 
-21.5281 -26.3331 45.5917 114 124 116 
-16.6749 -12.6296 34.8543 110 128 140 
-16.6749 -12.6296 34.8543 110 128 140 
-17.1891 -15.1272 35.9063 12 25 34 
-18.8091 -19.891 39.4437 97 99 88 
-16.6471 2.86483 35.209 37 27 15 
-16.3232 -3.85486 34.4364 100 101 95 
-17.9211 -17.3608 37.4817 52 48 62 
-19.9255 -22.9864 41.9922 107 127 151 
-16.5442 1.16801 34.9957 14 14 4 
-17.6097 -16.2813 36.8063 128 141 124 
-16.8776 -13.8819 35.2695 37 57 110 
-16.5548 -11.9568 34.6281 16 23 52 
-16.4037 -4.97548 34.5757 131 161 195 
-16.4077 -10.7259 34.3683 23 28 32 
-16.5299 -11.7434 34.5953 98 139 185 
-16.7945 3.82921 35.5425 182 182 172 
-21.0677 -25.5945 44.6244 164 157 113 
-18.8397 -20.3414 39.57 105 98 72 
-16.3767 -7.00002 34.4634 11 28 71 
-16.2513 -4.33076 34.2965 118 129 69 
-16.2443 -2.74936 34.3337 183 182 187 
-16.5378 -11.9025 34.6213 107 125 139 
-16.2611 -3.50257 34.3495 35 39 22 
-18.8223 -20.1328 39.5371 21 16 10 
-18.8223 -20.1328 39.5371 21 16 10 
-16.607 0.387473 35.1661 82 59 43 
-17.57 -16.7324 36.7767 116 139 171 
-16.2581 -8.13365 34.1803 125 155 191 
-20.0646 -23.2358 42.3463 92 115 167 
-19.7909 -22.6074 41.7351 102 129 159 
-16.8597 5.10239 35.71 176 172 163 
-17.4125 -15.9382 36.4448 18 16 1 
-17.4125 -15.9382 36.4448 18 16 1 
-19.6926 -22.6481 41.5619 118 123 119 
-16.2742 -7.83111 34.247 128 124 87 
-16.2742 -7.83111 34.247 128 124 87 
-16.513 -0.0340334 34.9757 84 71 52 
-16.5416 -12.9331 34.6347 22 20 8 
-16.2794 -4.13574 34.3993 8 23 0 
-16.577 2.37183 35.1325 54 46 35 
-16.3398 -9.10657 34.3341 2 25 56 
-16.3398 -9.10657 34.3341 2 25 56 
-16.2424 -7.69522 34.1976 133 147 150 
-17.0728 -14.7009 35.7387 40 40 42 
-16.5231 1.06315 35.0251 18 15 8 
-16.3249 -8.44092 34.3462 141 161 194 
-20.1552 -23.6876 42.6309 102 120 168 
-16.635 3.45665 35.2725 217 214 205 
-21.3864 -26.2641 45.4122 32 32 30 
-16.5268 0.350565 35.0478 96 74 60 
-16.5346 -0.478124 35.0452 87 69 57 
-19.1384 -20.9702 40.3005 26 29 22 
-16.325 -8.50146 34.354 54 60 76 
-16.5077 -11.0039 34.6442 102 142 178 
-16.3734 -4.31319 34.6293 6 9 0 
-16.9721 -14.5534 35.5623 116 143 154 
-16.6857 -12.794 34.9807 33 33 21 
-21.5314 -26.639 45.777 105 126 157 
-16.2965 -3.87765 34.4854 112 114 111 
-16.7695 3.87826 35.576 109 104 98 
-16.7695 3.87826 35.576 109 104 98 
-16.9487 -14.4403 35.5266 24 28 29 
-16.5753 -12.5666 34.7681 17 44 71 
-16.336 -10.069 34.3435 131 134 127 
-16.191 -5.84334 34.2067 9 15 3 
-16.2091 -6.45828 34.2209 25 36 32 
-16.2296 -7.86475 34.2053 131 126 88 
-20.9429 -25.3398 44.4463 36 34 19 
-16.3068 -4.11618 34.5261 20 29 2 
-16.3068 -4.11618 34.5261 20 29 2 
-16.1285 -6.64365 34.053 29 30 22 
-16.1285 -6.64365 34.053 29 30 22 
-20.4894 -24.5671 43.4677 45 46 40 
-16.5014 -12.568 34.6347 99 136 163 
-16.653 -13.3786 34.9421 31 37 25 
-16.5017 -2.26018 35.0079 73 68 49 
-16.1156 -6.74883 34.0307 142 169 190 
-16.1156 -6.74883 34.0307 142 169 190 
-19.4633 -21.8883 41.0925 26 27 21 
-16.6236 -12.1894 34.9024 16 24 26 
-18.8476 -20.5535 39.7302 22 17 24 
-18.7601 -20.0016 39.5104 103 122 164 
-16.2367 -6.54058 34.3091 12 9 18 
-20.0092 -23.5925 42.3996 6 21 60 
-16.3825 -10.5954 34.4526 136 151 182 
-16.7703 5.09536 35.6152 61 52 45 
-16.2083 -8.01641 34.1963 118 153 173 
-16.2459 -6.00883 34.3594 86 77 46 
-16.2459 -6.00883 34.3594 86 77 46 
-16.2568 -4.44054 34.4403 22 23 0 
-16.2717 -7.78168 34.3413 50 50 48 
-17.6231 -16.3538 37 130 136 134 
-17.783 -17.4092 37.3727 33 35 47 
-16.2818 -3.85094 34.5234 9 12 1 
-16.1667 -6.84591 34.1658 97 132 160 
-16.2949 -7.02754 34.4353 16 20 55 
-15.9995 -6.18082 33.8413 38 38 30 
-15.9995 -6.18082 33.8413 38 38 30 
-20.4491 -24.4642 43.4049 88 122 147 
-16.3893 3.32833 34.8418 66 68 55 
-21.4936 -26.5527 45.7728 118 131 163 
-16.6861 0.332071 35.4739 66 47 30 
-16.2304 -3.97234 34.4124 25 30 8 
-16.205 -3.43466 34.3777 132 125 71 
-16.6414 3.93675 35.3837 163 158 152 
-16.4574 -12.1288 34.5964 38 49 53 
-19.0995 -21.1532 40.3371 82 108 123 
-16.1245 -1.69686 34.2561 107 106 86 
-16.3824 -11.8655 34.4476 22 30 43 
-16.1562 -6.06521 34.1954 41 32 15 
-16.2685 -11.1716 34.2332 123 152 196 
-16.2953 -3.65789 34.5836 151 158 176 
-17.3003 -15.8426 36.3536 140 140 44 
-20.3014 -24.0148 43.0811 109 119 144 
-16.3561 -10.8616 34.4335 114 130 155 
-16.5115 -12.46 34.7169 31 35 38 
-16.5685 2.40552 35.2571 209 209 201 
-18.9261 -20.765 39.9582 128 130 116 
-16.3246 -10.1209 34.4038 33 35 34 
-16.5929 1.14469 35.3093 15 15 7 
-16.4825 1.88405 35.0806 54 48 34 
-16.4825 1.88405 35.0806 54 48 34 
-16.2811 -6.41837 34.4711 137 158 177 
-16.6017 -13.3977 34.9006 109 128 134 
-16.3835 -10.9276 34.5034 7 26 43 
-16.4378 -8.6022 34.714 141 164 198 
-18.502 -19.5009 39.0161 39 41 28 
-16.7493 -13.7808 35.2151 37 55 57 
-20.3556 -24.3242 43.253 33 39 71 
-16.2239 -6.47337 34.3557 141 167 182 
-16.8829 -14.7288 35.4943 131 150 146 
-19.0234 -20.9947 40.2104 88 128 154 
-19.0234 -20.9947 40.2104 88 128 154 
-16.3031 -9.24244 34.4192 7 19 41 
-21.0854 -25.9578 44.9372 140 131 92 
-16.1571 -10.5804 34.0556 16 23 29 
-16.288 -9.44573 34.3759 81 81 57 
-16.1493 -5.69657 34.2368 145 172 183 
-16.7016 0.201617 35.5667 130 111 94 
-16.4584 1.06739 35.0533 26 27 19 
-16.3269 2.23995 34.7905 14 11 6 
-16.2046 -10.4664 34.173 60 51 42 
-16.1722 -7.83797 34.217 30 29 24 
-16.5347 -13.2146 34.7982 158 170 106 
-19.462 -22.2606 41.2409 129 126 81 
-16.8865 -13.8639 35.5376 98 115 122 
-16.2473 -5.31402 34.4899 127 161 196 
-19.0679 -21.1468 40.3509 43 67 79 
-18.4442 -19.569 38.9501 127 137 126 
-16.3271 -11.177 34.423 14 42 89 
-16.3004 -10.2428 34.3994 19 21 16 
-16.4945 -12.5467 34.7424 102 137 157 
-16.6999 3.98874 35.602 84 79 73 
-16.0522 -1.74843 34.1849 83 81 56 
-20.5623 -24.9521 43.8165 109 111 106 
-15.9842 -6.78366 33.8925 144 146 143 
-16.0798 -3.48448 34.2189 26 27 19 
-16.208 -7.0238 34.3651 26 32 56 
-16.208 -7.0238 34.3651 26 32 56 
-16.2879 -10.7809 34.3801 106 125 140 
-16.4734 -12.723 34.7155 92 94 83 
-16.3249 -11.9001 34.4227 106 148 188 
-16.1928 -7.78483 34.305 118 139 158 
-18.4242 -19.7085 38.9616 134 137 128 
-16.4144 -12.3196 34.6173 108 131 175 
-16.2178 -8.93474 34.3178 24 22 33 
-16.1896 -1.70135 34.5099 13 9 0 
-16.7559 -14.2498 35.3089 32 46 81 
-16.7559 -14.2498 35.3089 32 46 81 
-16.3124 -10.9376 34.4415 123 147 193 
-16.1222 -7.43203 34.1853 111 156 187 
-16.4951 0.381186 35.2088 77 55 34 
-16.4269 -12.1831 34.6535 12 22 31 
-16.0657 -6.4197 34.1136 87 109 132 
-18.4485 -19.6909 39.0256 45 32 23 
-18.2686 -19.2548 38.6349 26 31 24 
-20.5646 -24.8031 43.8437 99 121 160 
-15.9724 -6.2643 33.9289 119 135 161 
-16.3895 0.810224 34.9945 83 83 71 
-16.663 4.36194 35.5745 108 103 100 
-16.2926 -10.8834 34.4237 27 36 67 
-16.8369 -14.3961 35.5042 97 132 172 
-16.6101 3.79809 35.4731 56 49 41 
-16.3888 -12.242 34.5951 107 135 182 
-16.4131 0.905682 35.0613 41 42 36 
-16.4131 0.905682 35.0613 41 42 36 
-16.6619 4.22906 35.5888 183 173 161 
-17.3402 -16.2322 36.5864 26 33 62 
-16.2388 -4.11926 34.5935 131 140 149 
-16.2618 -2.94474 34.6805 116 116 118 
-16.5389 -12.4988 34.9138 113 137 173 
-16.2812 -3.8381 34.6941 22 25 14 
-16.0709 -1.65734 34.3036 21 19 7 
-16.0843 -3.54157 34.2868 155 155 163 
-16.1753 -3.34898 34.4892 20 20 10 
-17.0529 -15.6639 35.9826 56 51 0 
-17.4331 -16.8413 36.8113 98 130 181 
-16.9438 -14.6432 35.7465 104 130 165 
-16.5167 -2.28228 35.2578 105 94 76 
-16.5019 5.03888 35.2574 28 18 8 
-18.6499 -20.3275 39.5487 120 120 118 
-16.1193 -5.78239 34.3158 130 166 178 
-16.1331 -4.77219 34.3819 166 179 149 
-16.3567 -11.8583 34.5824 93 121 133 
-16.537 2.43417 35.3787 56 55 51 
-19.3487 -22.0367 41.1354 25 26 18 
-17.1103 -15.6107 36.1447 28 33 0 
-16.4225 -2.60436 35.0866 75 70 67 
-16.3931 1.90999 35.0788 21 14 8 
-16.0353 -6.74668 34.1166 24 27 20 
-15.9836 -1.86287 34.1637 22 15 5 
-16.1222 -5.45245 34.3605 115 156 184 
-15.996 -7.06187 34.0306 6 12 10 
-18.5639 -20.207 39.3978 58 58 86 
-18.5639 -20.207 39.3978 58 58 86 
-16.096 -7.72603 34.2156 25 31 47 
-16.1881 3.26543 34.658 12 12 2 
-18.7757 -20.8153 39.8823 29 29 27 
-18.7757 -20.8153 39.8823 29 29 27 
-16.2212 -4.00693 34.6322 137 147 148 
-15.9604 -7.18052 33.9552 122 150 174 
-16.5097 3.19457 35.3483 188 181 171 
-16.1414 -10.6391 34.2017 88 87 82 
-16.4015 -13.1591 34.6857 31 30 0 
-19.4916 -22.5524 41.5204 142 140 91 
-16.298 -3.02282 34.8376 120 120 122 
-16.0396 -9.51623 34.0219 160 156 109 
-16.2999 -12.0442 34.4994 31 45 72 
-16.3135 -3.07706 34.8668 142 141 146 
-20.771 -25.625 44.4878 32 32 22 
-20.771 -25.625 44.4878 32 32 22 
-16.1671 -5.34281 34.4856 16 27 29 
-16.8251 -14.8074 35.5771 100 133 166 
-16.1095 -9.41051 34.196 121 125 90 
-16.1768 -8.82291 34.3699 98 110 124 
-18.219 -19.1622 38.6437 94 126 173 
-18.219 -19.1622 38.6437 94 126 173 
-19.9986 -23.8157 42.7049 100 111 131 
-16.1508 -3.44011 34.5239 23 23 11 
-16.0298 -7.80749 34.0986 98 97 77 
-16.6166 5.21026 35.5822 214 211 206 
-16.1215 -10.4546 34.1902 116 129 145 
-16.1028 -10.6587 34.1452 24 25 19 
-16.3456 -2.49588 34.9864 47 31 18 
-16.1829 -8.86696 34.3997 31 42 38 
-16.5723 2.47742 35.5248 139 138 134 
-16.5657 3.83594 35.506 182 177 171 
-16.1941 -4.77526 34.5932 102 114 30 
-16.3662 -12.6229 34.6673 108 130 151 
-16.642 -13.7723 35.2359 139 150 136 
-16.3136 -2.55436 34.9388 168 164 153 
-16.0074 -6.1636 34.1525 41 24 0 
-16.0964 -4.55655 34.4087 88 101 22 
-19.5822 -22.9145 41.8012 127 128 114 
-16.2333 -10.8963 34.4472 125 145 182 
-16.0358 -7.29667 34.1806 8 46 82 
-16.242 -11.9043 34.4409 24 37 53 
-15.9612 -7.02691 34.0427 106 116 108 
-18.4368 -19.76 39.1842 39 29 4 
-15.9762 -5.41771 34.1388 137 175 198 
-16.6461 4.80233 35.7083 101 94 84 
-16.9847 -15.4199 35.9815 34 39 0 
-16.5104 5.12777 35.4148 32 25 19 
-16.3232 -9.9931 34.7007 90 96 108 
-16.3359 -0.0940843 35.0543 126 110 76 
-16.2499 -3.00468 34.8159 203 203 203 
-15.9812 -6.88437 34.1065 33 34 29 
-16.1677 -3.68058 34.6252 34 35 29 
-20.9784 -26.2221 45.0695 44 45 31 
-16.323 -11.942 34.6337 43 52 51 
-16.0926 -8.22029 34.2872 129 129 127 
-16.0545 -5.70454 34.3218 141 163 177 
-15.9837 -7.6446 34.0836 114 156 198 
-16.38 -13.085 34.7362 37 44 3 
-16.2508 -3.08077 34.8263 220 220 220 
-16.241 -11.7892 34.4734 23 35 49 
-20.1429 -24.3574 43.1613 52 64 104 
-16.781 -14.8973 35.5828 89 126 178 
-17.0193 -15.6993 36.0897 31 32 0 
-16.066 -5.36974 34.366 19 40 59 
-16.1236 -5.5572 34.4868 14 14 22 
-16.4877 2.53894 35.4282 53 52 50 
-16.2248 -3.39433 34.7921 81 81 57 
-17.1054 -16.1801 36.3033 136 128 115 
-16.7982 -15.0867 35.6436 28 30 29 
-16.7982 -15.0867 35.6436 28 30 29 
-16.2554 -3.78222 34.8532 172 173 175 
-16.1414 -10.0946 34.3656 114 127 159 
-16.1385 -4.07657 34.5997 19 23 9 
-16.3595 -12.5379 34.7455 91 129 176 
-15.996 -3.55882 34.3104 202 202 194 
-15.9399 -7.465 34.0429 118 152 189 
-16.3891 -12.462 34.8061 30 69 110 
-18.8099 -21.019 40.1288 113 128 159 
-19.6517 -23.5762 42.1217 42 53 75 
-16.6335 4.34263 35.7708 76 73 68 
-15.9268 -7.67929 34.0226 105 138 157 
-18.1937 -19.2811 38.7315 115 136 165 
-16.3337 -12.6526 34.705 13 35 59 
-16.3337 -12.6526 34.705 13 35 59 
-16.4684 4.20909 35.4177 77 68 59 
-16.4684 4.20909 35.4177 77 68 59 
-16.063 -5.22742 34.4253 139 167 188 
-15.9239 -7.31202 34.036 112 159 179 
-16.0623 -5.22895 34.4259 139 167 188 
-16.0562 -4.74346 34.431 156 169 81 
-16.0508 -7.94359 34.2865 122 139 155 
-16.1115 -10.5284 34.3109 17 22 28 
-19.2635 -22.3461 41.2173 21 12 7 
-19.2635 -22.3461 41.2173 21 12 7 
-16.3689 -13.4642 34.7764 94 130 180 
-15.8306 -6.6486 33.8772 26 29 20 
-19.7067 -23.4387 42.2389 142 152 143 
-15.9569 -1.88223 34.2976 145 137 114 
-16.1028 -10.7171 34.288 114 132 142 
-16.4892 5.17138 35.4711 33 24 17 
-15.8868 -7.7617 33.9519 33 34 18 
-16.2533 -3.06434 34.9233 113 108 105 
-16.4043 -13.8022 34.8647 125 129 128 
-16.2218 0.641921 34.9163 27 28 20 
-16.3927 5.07687 35.275 127 122 118 
-16.2116 -2.52309 34.8594 88 72 57 
-16.0494 -9.48174 34.2413 23 24 10 
-17.168 -16.5814 36.5105 137 124 72 
-16.8986 -15.1644 35.9252 21 30 61 
-19.4575 -22.8527 41.6857 31 32 18 
-16.0324 -4.63425 34.4132 86 95 38 
-16.1083 -4.14969 34.5958 123 128 131 
-16.6154 -14.4657 35.3283 24 27 34 
-18.5459 -20.3704 39.591 40 50 51 
-15.3178 2.02102 33.0164 19 20 15 
-15.9794 -6.29485 34.2509 33 26 16 
-16.5238 3.92632 35.5911 214 207 199 
-17.1735 -16.2869 36.5327 100 97 80 
-17.0333 -15.6957 36.2364 26 25 0 
-16.5312 4.11631 35.6143 201 194 178 
-16.1982 1.80172 34.9135 73 70 63 
-16.1083 -8.9951 34.428 100 105 109 
-20.0909 -24.5279 43.2227 33 47 86 
-16.1016 -9.03975 34.423 39 43 44 
-16.4001 2.36612 35.3683 72 73 68 
-16.1046 -10.6894 34.3596 35 35 45 
-16.0467 -9.31485 34.2951 91 106 137 
-16.2026 -11.9937 34.5274 100 136 186 
-16.0938 -10.9077 34.3381 112 141 183 
-15.9145 -6.47084 34.1389 105 140 170 
-16.1784 -3.16938 34.8231 170 169 167 
-15.8524 -8.26251 33.9264 119 145 168 
-16.4167 0.348066 35.4089 107 74 55 
-16.1415 -3.77509 34.7302 164 158 158 
-15.97 -8.38282 34.1797 131 161 187 
-16.286 -12.9529 34.6923 15 17 12 
-15.9449 -1.84328 34.3557 39 27 13 
-15.902 -5.97383 34.147 37 33 8 
-16.2722 -12.6251 34.6799 96 116 151 
-16.5374 -14.3567 35.2256 92 124 163 
-16.1311 -1.21512 34.7851 43 16 0 
-16.0356 -10.4784 34.2536 129 150 171 
-17.0777 -16.0019 36.3796 19 21 10 
-16.2046 -2.09088 34.9332 45 29 13 
-19.7345 -23.7653 42.4449 141 144 137 
-16.943 -15.6931 36.1102 30 19 0 
-16.5207 4.2661 35.6657 190 187 180 
-16.6719 -14.6688 35.5353 88 130 180 
-18.6032 -20.9757 39.8576 76 75 91 
-15.9711 -5.43659 34.3494 138 171 190 
-16.5666 -14.1777 35.3166 90 131 177 
-16.247 -12.8563 34.6578 92 112 149 
-16.4297 -12.5135 35.0631 95 135 186 
-15.9934 -8.46113 34.2855 126 153 182 
-16.063 -6.26378 34.5264 165 167 164 
-16.063 -6.26378 34.5264 165 167 164 
-16.0686 -5.2913 34.5823 31 30 25 
-16.0205 -4.41648 34.5133 28 31 2 
-17.4311 -17.7193 37.2264 114 132 144 
-15.9968 -10.414 34.2131 101 113 129 
-16.7395 -14.8968 35.7051 120 140 149 
-19.3513 -22.6188 41.5782 118 103 74 
-16.9327 -15.4834 36.1298 118 119 121 
-16.0497 -2.86668 34.6336 59 41 29 
-15.9304 -8.02561 34.1855 34 43 60 
-15.9304 -8.02561 34.1855 34 43 60 
-15.9304 -8.02561 34.1855 34 43 60 
-15.9974 -4.76515 34.4638 31 34 0 
-16.248 -0.734783 35.1107 178 150 128 
-15.9633 -3.53984 34.4345 26 22 13 
-16.1719 -1.32908 34.9405 181 153 131 
-16.1719 -1.32908 34.9405 181 153 131 
-16.1174 3.01647 34.8606 222 215 207 
-16.1374 -10.0734 34.5641 52 59 85 
-16.1374 -10.0734 34.5641 52 59 85 
-18.2671 -20.1283 39.1468 136 138 114 
-15.8944 -7.91228 34.1269 141 157 183 
-15.8944 -7.91228 34.1269 141 157 183 
-20.0671 -24.7202 43.3174 99 123 147 
-15.8494 -7.70322 34.0434 31 30 36 
-18.2783 -20.1437 39.1744 136 138 114 
-16.4446 4.01636 35.568 77 63 54 
-16.4446 4.01636 35.568 77 63 54 
-15.9651 -8.64658 34.2535 49 75 102 
-16.0658 -10.8224 34.3759 122 140 178 
-17.0646 -16.6099 36.4558 129 124 92 
-16.1645 -10.04 34.6372 147 158 178 
-16.2856 -0.476831 35.2185 146 125 104 
-16.046 -11.2032 34.3335 62 90 140 
-18.2454 -19.9611 39.1071 34 30 29 
-16.4941 4.31871 35.6929 60 57 50 
-15.9686 -3.18611 34.492 27 23 14 
-16.9651 -16.1016 36.2382 29 28 7 
-16.2925 0.399418 35.2603 165 139 116 
-16.0834 -4.0986 34.7168 179 174 154 
-16.4393 -14.2588 35.1233 33 46 88 
-16.8139 -15.5093 35.9191 15 16 0 
-16.5506 -13.8715 35.3721 112 129 145 
-19.3964 -22.949 41.7721 122 133 127 
-15.895 -8.79355 34.1372 129 164 206 
-15.8657 -7.16874 34.144 86 89 70 
-16.8685 -15.7478 36.0597 121 105 54 
-15.8805 -6.9779 34.1977 20 18 6 
-15.8269 -5.45672 34.1388 22 18 15 
-15.8324 -7.95502 34.0487 122 152 188 
-15.8633 -7.46908 34.1481 20 18 5 
-18.7105 -21.366 40.2396 58 64 98 
-18.7105 -21.366 40.2396 58 64 98 
-16.3956 -14.1731 35.0696 58 80 117 
-16.0156 -8.91611 34.4178 11 15 26 
-16.1312 -10.8051 34.5811 14 19 39 
-16.2084 -12.5005 34.697 33 55 105 
-15.9478 -6.43995 34.3777 44 32 16 
-15.9478 -6.43995 34.3777 44 32 16 
-16.3005 0.160471 35.3257 185 153 130 
-16.2738 -13.3569 34.8224 148 148 150 
-15.745 -6.4446 33.9445 46 47 31 
-16.2843 2.9609 35.303 62 52 42 
-16.9433 -16.2795 36.2609 105 126 169 
-16.9433 -16.2795 36.2609 105 126 169 
-16.0608 3.26161 34.8149 85 75 63 
-16.3684 -13.1756 35.0367 15 17 4 
-15.9065 -5.90394 34.3256 125 105 55 
-15.9093 -7.58826 34.2596 128 121 95 
-16.05 -6.37702 34.6285 155 138 122 
-16.5945 -14.7805 35.5265 27 32 12 
-19.7372 -24.1166 42.6793 140 141 143 
-19.7372 -24.1166 42.6793 140 141 143 
-16.8848 -16.0358 36.1512 145 144 126 
-18.6604 -21.2274 40.1625 136 140 126 
-16.1167 -12.5201 34.5439 114 139 179 
-20.6543 -26.0119 44.8013 86 97 101 
-16.2755 0.626122 35.3231 24 24 14 
-15.853 -5.81005 34.2479 59 42 24 
-15.9888 -10.6414 34.3312 26 43 61 
-16.0459 3.45311 34.8268 33 20 11 
-15.812 -5.15523 34.1866 142 136 114 
-19.6871 -23.9011 42.5791 39 33 35 
-17.3118 -17.7548 37.1413 133 143 142 
-16.8276 -15.4577 36.0572 88 77 47 
-16.1896 -0.0613016 35.1557 222 195 174 
-16.8802 -15.7565 36.1808 36 20 0 
-16.4807 -14.8474 35.3281 28 51 93 
-15.9443 -6.73633 34.4375 75 62 43 
-15.901 -4.21572 34.4464 16 13 0 
-15.9654 -4.48045 34.5771 39 48 1 
-16.3863 -13.5492 35.1417 50 41 0 
-16.3863 -13.5492 35.1417 50 41 0 
-16.1667 -11.9488 34.7079 4 23 65 
-15.9779 -10.468 34.3521 46 48 34 
-15.8849 -8.55308 34.235 85 105 132 
-15.8849 -8.55308 34.235 85 105 132 
-15.8455 -3.25287 34.3573 78 80 43 
-15.9377 -6.78522 34.4291 163 145 125 
-15.9965 -11.9996 34.3468 17 21 58 
-19.3175 -23.0549 41.7588 34 41 59 
-16.2626 -13.5158 34.8819 100 99 79 
-15.8158 -1.54842 34.3391 56 29 8 
-19.0044 -22.1025 41.0173 25 28 21 
-15.9846 -10.947 34.3608 124 146 183 
-15.8191 -7.04664 34.1779 112 107 88 
-18.292 -20.4084 39.3917 136 143 125 
-16.2743 -5.82121 35.2153 148 125 109 
-16.1568 -1.71794 35.0857 33 19 10 
-15.7289 -11.5881 33.7911 107 140 171 
-15.9611 -3.38427 34.6313 21 21 13 
-17.999 -19.6879 38.7349 98 120 134 
-17.999 -19.6879 38.7349 98 120 134 
-16.1295 -12.4752 34.6408 116 146 198 
-16.1282 -12.6015 34.6379 94 135 179 
-15.9966 -3.5811 34.708 27 21 7 
-15.7887 -8.0097 34.0828 109 149 184 
-16.4385 4.15125 35.7556 214 210 199 
-15.8525 -10.4467 34.1237 83 85 84 
-15.8246 -5.09356 34.2963 171 159 117 
-15.8474 -5.90669 34.3161 42 20 0 
-16.1358 0.489168 35.1097 135 118 100 
-16.1358 0.489168 35.1097 135 118 100 
-16.3483 4.47947 35.5653 63 51 39 
-16.3483 4.47947 35.5653 63 51 39 
-19.3633 -23.275 41.9283 109 124 155 
-15.9117 -8.38834 34.3553 31 44 63 
-15.9117 -8.38834 34.3553 31 44 63 
-16.2032 3.20809 35.2687 35 22 13 
-17.9209 -19.5149 38.6077 25 30 36 
-16.8283 -16.3008 36.1576 43 46 61 
-19.4738 -23.6209 42.2071 112 122 134 
-15.7538 -7.82316 34.0505 30 36 22 
-16.2513 0.848299 35.3773 168 155 136 
-15.9145 -11.109 34.2598 113 141 181 
-15.6431 -7.62975 33.832 148 151 140 
-16.2847 3.09976 35.466 210 201 192 
-16.0923 -3.11253 34.9805 131 102 84 
-15.8535 -5.33338 34.3828 30 28 7 
-16.4368 -13.8709 35.3276 98 132 178 
-17.8598 -19.0721 38.4692 48 49 79 
-15.8893 -4.5984 34.5009 19 21 0 
-15.7979 -9.48965 34.0942 21 21 9 
-16.1865 0.203131 35.2613 143 109 84 
-15.6956 -10.2853 33.8474 111 109 50 
-15.7601 -7.90196 34.0924 24 21 50 
-15.7601 -7.90196 34.0924 24 21 50 
-15.8505 -10.6483 34.171 117 147 185 
-16.168 -14.1556 34.7685 68 108 157 
-16.7205 -15.3861 35.9517 139 148 121 
-17.8083 -19.4987 38.4127 121 123 99 
-19.4587 -23.5655 42.217 69 71 70 
-16.137 -2.80134 35.1269 150 125 105 
-15.7706 -0.993832 34.3596 94 77 61 
-15.6665 -7.91336 33.9069 133 159 184 
-16.3339 4.02321 35.6128 98 86 70 
-16.8454 -16.3005 36.2516 135 141 131 
-15.8881 -5.08258 34.5199 55 49 1 
-16.221 0.61203 35.3753 129 108 87 
-15.8628 -1.10564 34.5702 33 14 0 
-19.8189 -24.6308 43.1096 165 163 148 
-16.0148 -9.96713 34.5947 130 137 165 
-16.9427 -16.7287 36.4773 127 120 101 
-15.9109 -6.46896 34.5175 20 4 0 
-15.8648 -5.15207 34.4737 41 32 0 
-16.6662 -15.9881 35.8806 111 100 70 
-18.1212 -20.2345 39.1573 20 20 22 
-15.8113 -10.4276 34.1373 14 16 5 
-15.8135 -5.99596 34.3391 39 21 1 
-15.8592 -6.61083 34.4128 103 91 77 
-18.5727 -21.4342 40.208 51 54 73 
-18.5727 -21.4342 40.208 51 54 73 
-15.9223 -1.60438 34.7146 156 129 108 
-16.1612 -1.05764 35.2503 55 39 23 
-19.4263 -23.4417 42.1823 78 97 127 
-18.5381 -21.2863 40.1267 37 35 38 
-16.6047 -15.5944 35.7605 44 21 0 
-15.9278 -11.9794 34.3577 95 140 182 
-16.3214 4.14858 35.6352 158 149 140 
-16.2994 5.17631 35.5753 46 32 21 
-16.1283 -0.468333 35.1995 146 130 105 
-18.0879 -20.0831 39.1036 111 127 127 
-15.4426 -6.99558 33.5211 16 16 4 
-15.9115 2.62678 34.7559 91 81 71 
-19.0145 -22.6354 41.283 80 130 165 
-16.0593 3.19287 35.0885 181 174 155 
-15.6885 -2.39206 34.2247 82 60 39 
-15.9463 -10.5847 34.4678 9 15 13 
-16.3104 -13.726 35.1668 52 53 11 
-16.3311 -14.1283 35.2082 48 59 87 
-16.3311 -14.1283 35.2082 48 59 87 
-19.7546 -24.2809 43.0025 93 119 144 
-15.8585 -4.28047 34.5555 36 25 0 
-16.2287 0.333356 35.4675 123 91 68 
-16.2914 4.24559 35.5987 224 220 211 
-16.3814 -14.6549 35.3243 108 121 153 
-18.961 -22.3445 41.15 28 31 12 
-16.9686 -16.7268 36.6045 46 43 38 
-16.4564 -14.8205 35.4851 99 129 127 
-15.8197 -8.43572 34.3074 30 41 61 
-16.4687 -14.911 35.5211 35 33 46 
-20.1692 -25.5836 44.0489 44 50 64 
-15.8409 -5.18201 34.5042 150 150 126 
-16.2664 3.94919 35.5629 117 103 90 
-15.8888 -9.87296 34.4114 62 63 91 
-15.7009 -4.92974 34.207 144 162 54 
-18.6108 -21.6311 40.3887 25 32 40 
-18.6108 -21.6311 40.3887 25 32 40 
-21.4033 -28.5242 47.0088 109 127 147 
-15.7463 -10.5174 34.0807 16 22 20 
-15.7463 -10.5174 34.0807 16 22 20 
-15.9536 2.71859 34.9032 27 20 4 
-15.8247 -3.1992 34.5487 189 171 147 
-16.0356 -12.5774 34.6427 116 137 182 
-16.0356 -12.5774 34.6427 116 137 182 
-16.3647 -14.5209 35.3231 26 29 38 
-15.6667 -7.94631 34.0313 14 35 52 
-15.6667 -7.94631 34.0313 14 35 52 
-15.6667 -7.94631 34.0313 14 35 52 
-16.1953 -13.9915 34.9655 121 124 139 
-16.7551 -16.1942 36.1777 103 110 33 
-15.7815 -1.01361 34.512 28 11 0 
-16.7098 -15.8069 36.079 40 31 0 
-15.7254 -8.13628 34.1582 20 37 81 
-15.7747 -10.8239 34.148 134 144 180 
-15.9542 -5.67949 34.7764 97 75 54 
-18.1809 -20.6123 39.4281 25 26 28 
-18.1809 -20.6123 39.4281 25 26 28 
-19.0982 -23.1779 41.5948 113 124 144 
-15.9504 -12.4203 34.484 100 132 183 
-16.1984 -0.566278 35.4447 166 142 116 
-16.1137 -3.87085 35.1965 151 134 116 
-18.7897 -22.0169 40.8334 101 129 140 
-15.8713 2.46818 34.7571 75 71 60 
-15.8065 -4.75286 34.4989 108 107 86 
-16.6095 -15.442 35.8879 88 136 176 
-16.096 4.42009 35.2409 192 190 177 
-16.0666 0.954466 35.1943 157 136 115 
-20.2135 -25.7238 44.2271 116 127 133 
-15.8274 2.27941 34.6743 51 48 41 
-15.6778 -7.79102 34.1008 35 39 24 
-16.0123 -3.84448 35.002 186 167 152 
-16.2671 4.08804 35.6438 221 217 206 
-15.8289 -4.25146 34.5852 133 122 94 
-16.4242 -15.3493 35.5058 38 38 26 
-15.7744 -6.01949 34.4032 131 114 96 
-15.9968 -0.824521 35.0505 207 181 158 
-15.737 -3.48562 34.4117 30 21 4 
-16.1259 -12.8774 34.9003 91 131 183 
-15.7351 -6.47897 34.3098 96 81 52 
-15.9331 -5.5559 34.7928 139 127 105 
-15.6794 -4.85063 34.2562 17 24 0 
-15.5798 -6.61033 33.9708 141 125 109 
-16.0238 -2.89555 35.081 147 125 104 
-16.0586 -0.655855 35.2099 165 135 111 
-16.1651 4.89342 35.4335 217 214 205 
-15.5899 -6.15598 34.0261 151 132 117 
-17.2067 -17.4377 37.2583 110 131 178 
-17.2067 -17.4377 37.2583 110 131 178 
-15.9174 3.00323 34.9278 33 31 16 
-17.9805 -20.1761 39.0533 104 132 154 
-15.9381 -12.9003 34.5147 31 35 34 
-15.7175 -6.56421 34.2965 150 131 91 
-15.6756 -10.4565 34.0243 10 16 14 
-15.9068 -12.3872 34.4611 95 127 176 
-16.1013 -3.85129 35.2465 217 194 178 
-20.1279 -25.5472 44.0948 146 142 104 
-19.0344 -23.1866 41.5512 53 54 59 
-15.7601 -4.71025 34.4672 23 18 0 
-16.2142 -14.1233 35.1085 98 131 176 
-16.2142 -14.1233 35.1085 98 131 176 
-15.7466 -2.78821 34.5132 173 148 128 
-16.4142 -14.8845 35.5395 91 140 173 
-15.8105 -4.49826 34.5984 52 37 4 
-16.261 -0.783155 35.676 136 104 79 
-15.767 -10.8502 34.2293 52 59 87 
-18.2571 -21.2434 39.7462 0 7 17 
-16.6431 -15.8127 36.0397 168 161 119 
-16.6431 -15.8127 36.0397 168 161 119 
-20.3124 -26.1 44.5703 108 110 107 
-15.8714 2.67965 34.8567 29 21 10 
-19.1786 -23.4275 41.899 98 116 120 
-15.9415 -12.0185 34.5807 26 38 54 
-15.6362 -4.2687 34.2451 50 34 9 
-16.3616 -15.1254 35.4507 87 87 95 
-16.8306 -16.6155 36.479 148 170 158 
-16.6227 -15.8625 36.0232 38 32 16 
-16.0361 -3.33796 35.1568 24 20 8 
-17.5588 -19.0257 38.1618 67 62 102 
-15.7294 -9.46772 34.2591 118 142 180 
-17.0543 -17.5668 37.0196 91 124 177 
-16.0847 -2.88468 35.3142 211 186 166 
-16.0356 -0.623476 35.249 120 92 70 
-15.8808 -12.3799 34.4797 30 58 108 
-15.9191 -4.17696 34.9081 207 187 160 
-15.7781 2.43549 34.7035 17 14 0 
-15.72 -10.5498 34.1977 111 111 119 
-17.9753 -20.1404 39.1223 25 29 54 
-15.6658 -8.2816 34.1864 37 67 103 
-15.758 -4.61463 34.5488 28 23 1 
-15.8035 -4.69587 34.644 107 102 80 
-16.0958 0.136888 35.4049 182 150 127 
-16.0366 -0.693384 35.2744 104 72 49 
-16.7262 -16.4342 36.3114 28 19 4 
-20.1192 -25.7435 44.2081 37 38 33 
-16.2036 -14.2146 35.1796 19 36 79 
-16.2036 -14.2146 35.1796 19 36 79 
-15.8367 -12.3182 34.4209 120 148 196 
-15.8367 -12.3182 34.4209 120 148 196 
-15.6078 -7.88723 34.0997 108 148 184 
-15.9408 -3.6738 35.0119 105 80 60 
-15.6889 -7.81834 34.2895 117 123 77 
-18.1112 -20.7985 39.5067 36 31 25 
-16.1047 -13.9767 34.9775 118 139 168 
-19.0122 -23.208 41.6353 97 120 138 
-15.591 -10.1449 33.9847 83 75 62 
-15.5906 -6.1425 34.1673 30 14 0 
-15.5906 -6.1425 34.1673 30 14 0 
-15.7241 -10.3225 34.2695 111 147 181 
-15.9764 -13.6241 34.7227 47 39 18 
-16.2763 -15.006 35.3645 119 130 134 
-15.3745 -5.05481 33.7413 96 108 36 
-16.185 3.69495 35.66 120 102 92 
-15.4985 -6.56419 33.9581 32 19 2 
-16.2674 -15.1489 35.3525 92 127 181 
-16.4134 -15.0578 35.6721 49 55 87 
-15.7628 -4.08459 34.6424 191 171 147 
-15.5593 -4.85195 34.1638 7 14 0 
-16.4011 -15.0071 35.6532 104 131 174 
-15.6532 -9.69948 34.1746 77 71 45 
-15.9388 0.774221 35.147 101 94 76 
-15.6886 -4.74389 34.4791 22 22 0 
-15.6326 -10.4907 34.1055 51 45 19 
-16.5802 -15.9722 36.0613 19 22 0 
-16.7546 -16.5663 36.4476 31 18 0 
-16.0646 -0.665965 35.4166 191 161 137 
-16.3668 -15.4508 35.6038 98 129 157 
-15.5761 -9.30181 34.0418 86 101 132 
-15.9791 0.351618 35.2477 183 155 133 
-15.9791 0.351618 35.2477 183 155 133 
-20.1061 -25.8987 44.2869 45 43 44 
-16.0032 0.130262 35.3062 163 132 111 
-17.6786 -19.7099 38.5859 29 29 39 
-16.166 -14.2006 35.1845 107 130 174 
-18.7963 -22.5872 41.174 34 26 23 
-18.9053 -23.1567 41.4864 30 42 68 
-16.1093 -14.543 35.0767 128 156 170 
-16.6836 -16.3793 36.3258 140 153 74 
-16.6998 -16.8319 36.3656 144 145 137 
-16.6096 -16.2244 36.1617 119 103 15 
-18.0667 -20.7052 39.4973 112 131 161 
-15.8077 -12.1369 34.4645 12 25 67 
-15.6994 3.0055 34.6646 116 120 97 
-15.6063 -10.4497 34.0891 119 116 73 
-15.7981 2.95711 34.8871 145 140 110 
-16.6681 -16.672 36.3162 20 13 21 
-15.6638 -6.96111 34.3912 177 167 131 
-18.2491 -21.303 39.9538 28 29 15 
-18.2491 -21.303 39.9538 28 29 15 
-18.2491 -21.303 39.9538 28 29 15 
-20.0009 -25.5016 44.0744 24 24 12 
-16.3275 -15.2957 35.5715 41 60 100 
-16.3275 -15.2957 35.5715 41 60 100 
-18.3145 -21.3809 40.104 28 29 15 
-18.3145 -21.3809 40.104 28 29 15 
-15.8524 -12.0127 34.5974 4 35 63 
-15.8524 -12.0127 34.5974 4 35 63 
-16.2417 4.04171 35.8858 215 211 202 
-15.9462 -13.2012 34.7714 101 133 190 
-15.2863 -1.21247 33.7549 37 11 0 
-15.6553 -8.40754 34.3238 115 159 184 
-15.9232 -0.0243588 35.1915 177 145 122 
-15.9642 0.253104 35.2763 86 55 34 
-16.2558 5.33093 35.9088 227 228 222 
-20.1415 -26.114 44.4688 30 27 20 
-15.6029 -8.94952 34.1897 28 34 32 
-16.6739 -16.7338 36.3598 30 21 16 
-16.1481 3.86078 35.6949 81 61 50 
-16.2911 -15.3426 35.5269 42 42 44 
-16.4929 -15.6976 35.971 100 133 186 
-15.6621 -8.49545 34.3554 41 45 57 
-15.9402 -2.61047 35.2071 130 99 79 
-18.3552 -21.6246 40.2469 49 44 41 
-15.946 0.0967682 35.2728 114 83 62 
-15.706 -3.22412 34.6754 190 167 149 
-16.0725 3.3807 35.5526 18 20 9 
-15.5106 -6.02831 34.1454 45 34 12 
-19.8658 -25.4914 43.846 132 138 92 
-19.8658 -25.4914 43.846 132 138 92 
-17.1069 -18.1072 37.3649 30 31 35 
-17.1069 -18.1072 37.3649 30 31 35 
-15.9633 0.206436 35.3164 159 128 107 
-15.6629 -4.61435 34.5518 192 182 172 
-15.4566 -8.77727 33.9206 132 145 177 
-16.4181 -15.9674 35.8297 28 20 7 
-15.9602 -13.0761 34.855 103 138 176 
-15.6875 -5.30653 34.5898 19 21 7 
-15.5691 -6.0997 34.2937 150 142 103 
-19.1569 -23.402 42.141 25 26 30 
-16.6238 -16.4888 36.2998 146 148 108 
-15.8295 -12.1 34.6122 103 141 186 
-15.9873 -13.8927 34.9132 118 131 140 
-18.1703 -21.3818 39.8879 111 106 76 
-16.2687 -14.9367 35.5279 95 129 177 
-16.0965 -14.6344 35.1568 105 137 186 
-15.3604 -5.88008 33.8542 124 110 83 
-15.9619 0.161231 35.3553 115 84 63 
-16.6749 -16.6898 36.4327 114 137 143 
-15.8342 0.547658 35.0793 174 157 127 
-16.9168 -17.462 36.9951 110 128 178 
-17.7741 -20.3418 39.0017 111 118 136 
-15.5874 -10.8382 34.1751 123 152 184 
-15.5874 -10.8382 34.1751 123 152 184 
-16.496 -16.1391 36.0678 49 39 4 
-18.8692 -23.1453 41.5792 100 119 149 
-15.8132 -13.0842 34.6038 29 51 92 
-15.7443 2.84159 34.9301 21 13 0 
-15.5538 -10.5489 34.1287 34 35 30 
-15.6799 -4.51625 34.6783 48 38 13 
-16.5522 -16.3472 36.2155 132 119 77 
-15.7418 2.6523 34.933 10 10 0 
-15.6026 -6.68272 34.4248 34 21 2 
-16.27 -15.3278 35.6049 94 130 182 
-15.5671 -6.60942 34.3538 140 127 108 
-16.1651 -14.7715 35.3771 25 28 37 
-17.7734 -20.2988 39.0367 35 41 67 
-16.3191 -15.7082 35.7122 63 61 49 
-15.5192 -7.89679 34.1888 24 29 23 
-15.5613 -10.506 34.1689 106 110 85 
-15.8315 -0.0329554 35.148 177 146 125 
-15.8315 -0.0329554 35.148 177 146 125 
-16.6607 -16.6459 36.4791 19 15 3 
-15.9537 0.125476 35.4244 186 154 133 
-15.9537 0.125476 35.4244 186 154 133 
-17.9339 -20.7818 39.4344 48 56 93 
-15.5634 -10.7181 34.1812 108 141 184 
-15.8964 -1.41133 35.2834 145 114 93 
-17.0413 -18.157 37.3606 47 53 75 
-15.9124 0.46153 35.3481 51 41 32 
-17.1865 -18.7165 37.7069 107 126 169 
-19.4879 -24.9071 43.1543 39 42 61 
-15.716 -3.11238 34.8557 52 36 20 
-16.1521 -6.1112 35.7195 103 87 53 
-16.0138 0.0511526 35.5857 208 180 158 
-15.833 2.20924 35.1933 79 73 61 
-15.8795 -13.889 34.81 56 60 33 
-17.0367 -18.0371 37.377 31 33 58 
-15.8365 -2.91169 35.1519 177 146 126 
-15.7198 -4.62255 34.8335 139 122 104 
-15.5617 -8.62335 34.3184 70 73 82 
-15.9501 4.80485 35.4655 230 227 218 
-15.5105 -9.3316 34.1784 136 146 173 
-15.7466 -7.51036 34.7979 165 147 133 
-17.6537 -20.1224 38.843 98 123 154 
-18.1448 -21.2529 39.9737 135 134 114 
-15.9024 -0.757593 35.3694 190 152 129 
-15.9024 -0.757593 35.3694 190 152 129 
-15.6546 -11.0571 34.436 112 141 183 
-15.5163 -11.9448 34.0997 97 137 186 
-15.908 -2.6024 35.3668 202 177 155 
-15.4743 -8.99595 34.1465 126 131 160 
-15.4743 -8.99595 34.1465 126 131 160 
-15.98 4.95935 35.5655 79 63 48 
-15.6159 -11.2238 34.3708 67 91 135 
-15.3686 -1.13575 34.2137 23 13 3 
-15.3885 -8.27615 34.0082 122 151 183 
-15.5621 -8.73666 34.3786 119 149 173 
-16.593 -16.6644 36.438 113 139 152 
-16.1686 -14.8024 35.5108 123 144 187 
-15.5079 -7.45854 34.3174 130 111 97 
-15.5698 -8.74465 34.4008 119 149 173 
-15.5719 -11.8267 34.2649 99 132 175 
-15.7591 -4.76161 34.9992 68 55 39 
-15.8635 -1.57245 35.3352 133 101 80 
-15.9595 0.396334 35.5845 170 138 117 
-18.3297 -22.0943 40.5382 84 80 71 
-15.4098 -8.9169 34.0654 14 17 22 
-17.1973 -18.86 37.8755 110 124 163 
-15.8484 0.344292 35.3518 125 94 73 
-17.7754 -20.4659 39.2302 103 125 174 
-16.4149 -16.0191 36.1002 24 22 9 
-16.2545 -15.7003 35.7538 48 54 66 
-15.6408 -12.2174 34.4647 14 23 52 
-15.5258 -9.22984 34.3366 41 44 49 
-17.5892 -20.1671 38.8357 89 122 157 
-15.7675 -0.730665 35.2023 131 91 65 
-16.5751 -17.082 36.4999 17 25 36 
-15.4325 -8.52094 34.183 60 72 98 
-15.7982 0.278446 35.2883 160 129 108 
-18.5964 -22.8921 41.2348 153 161 122 
-15.4333 -8.57366 34.19 135 145 170 
-19.8259 -26.1435 44.2315 28 27 32 
-15.6417 -3.93285 34.8524 197 180 162 
-15.8494 3.4361 35.4104 29 19 7 
-15.7535 -12.7087 34.7289 45 71 122 
-15.7535 -12.7087 34.7289 45 71 122 
-15.83 -0.0525507 35.3634 172 140 119 
-15.6516 -5.37046 34.8268 191 189 174 
-16.0006 5.11 35.7299 217 215 203 
-15.4036 -7.9439 34.1683 139 168 182 
-15.5382 -6.5794 34.5303 156 149 97 
-15.5513 -10.1824 34.3943 132 155 186 
-15.4887 -4.82784 34.49 46 37 0 
-15.5009 2.80611 34.6577 14 11 2 
-15.7297 -7.6739 34.9297 188 175 159 
-15.8157 -1.57707 35.3333 143 112 92 
-15.3351 -8.09428 34.0162 35 35 43 
-15.7386 -13.3011 34.7049 107 128 149 
-15.4086 -9.61791 34.1142 16 17 11 
-15.3975 -9.70335 34.0859 154 166 180 
-15.803 2.15807 35.3407 12 5 0 
-15.445 -8.67565 34.2497 57 58 63 
-17.0002 -18.3815 37.5202 26 25 31 
-17.0002 -18.3815 37.5202 26 25 31 
-15.4882 -4.91503 34.5114 29 31 0 
-15.5789 2.77239 34.8427 90 88 76 
-15.433 -6.58264 34.3271 110 92 44 
-15.4594 -5.61209 34.428 120 115 85 
-15.635 -2.58315 34.927 100 73 54 
-15.6796 -7.69728 34.8518 92 79 60 
-15.7878 -13.5567 34.8245 19 20 15 
-14.9747 -5.56984 33.3598 40 32 13 
-15.4161 -4.85819 34.3761 122 119 76 
-16.5616 -17.0253 36.5447 136 142 138 
-15.7637 1.93665 35.3039 42 42 30 
-15.4164 -10.5584 34.1383 45 48 39 
-15.6854 -3.79081 35.044 149 121 99 
-17.2032 -19.1114 38.039 97 128 174 
-15.9655 3.42089 35.7535 112 106 94 
-15.2395 -9.39454 33.8043 138 154 177 
-18.364 -22.4448 40.8017 120 124 109 
-16.5444 -17.2792 36.5523 106 132 157 
-15.8928 4.49992 35.5878 101 87 74 
-15.8996 -14.4517 35.1128 98 136 185 
-19.7319 -25.9587 44.1084 128 123 101 
-16.1987 -15.9804 35.7711 146 155 112 
-15.378 -6.8285 34.2518 76 67 50 
-15.8068 -13.8278 34.9167 44 49 27 
-15.7138 -2.96911 35.1571 119 92 71 
-18.5923 -23.1446 41.3779 118 120 109 
-15.4987 -2.23215 34.6949 53 35 13 
-16.4933 -17.3076 36.4575 47 79 120 
-15.8126 -0.0267974 35.441 135 103 80 
-15.5954 -13.0757 34.479 23 50 97 
-17.7601 -20.9416 39.406 121 120 90 
-15.4075 -4.92375 34.4106 136 138 116 
-15.3616 -7.24529 34.2283 122 114 93 
-15.8462 0.3249 35.537 127 92 70 
-15.7859 3.72868 35.4026 217 213 204 
-17.9677 -21.675 39.9368 22 22 14 
-15.5641 -2.68696 34.8638 167 140 119 
-16.5344 -17.1221 36.5733 103 133 169 
-15.3817 -10.8283 34.1135 32 42 67 
-15.8253 5.32617 35.4845 12 12 2 
-15.379 -6.88117 34.3028 16 10 0 
-15.2719 -8.00676 34.0046 116 150 188 
-15.8233 -13.9454 35.0096 117 124 108 
-15.3554 -10.4994 34.0837 104 108 93 
-15.6699 -13.2805 34.6885 118 142 188 
-15.5615 -1.62815 34.9162 172 145 126 
-18.8309 -23.7375 42.0169 84 115 169 
-16.8814 -18.4799 37.4012 97 121 149 
-18.0238 -21.5559 40.085 95 118 168 
-15.3851 -8.68686 34.2567 136 161 183 
-15.3376 -11.5944 34.0189 96 137 183 
-16.1803 -15.9962 35.8157 43 39 10 
-15.3051 -9.79366 34.0302 82 94 120 
-18.3269 -22.6378 40.8476 37 27 18 
-15.4015 -4.71239 34.4809 144 126 104 
-15.8867 4.66629 35.6786 235 232 223 
-15.7756 0.00116707 35.4373 209 178 158 
-15.765 0.4016 35.4186 180 148 123 
-15.3372 -6.57238 34.2688 56 45 13 
-15.3372 -6.57238 34.2688 56 45 13 
-15.3786 -8.7915 34.255 158 162 171 
-15.7032 3.43026 35.2915 24 22 7 
-15.3068 -10.7357 34.0161 25 40 63 
-15.2808 -8.81563 34.0547 145 152 171 
-17.4258 -20.0106 38.704 30 25 22 
-15.8555 -14.5334 35.1286 36 40 41 
-15.8555 -14.5334 35.1286 36 40 41 
-15.4593 -11.8009 34.3304 129 149 174 
-15.4086 -10.8535 34.2557 114 128 154 
-15.7232 2.14332 35.3613 46 48 26 
-15.7232 2.14332 35.3613 46 48 26 
-19.2847 -25.1572 43.2185 122 125 144 
-19.2847 -25.1572 43.2185 122 125 144 
-15.9899 -0.0857661 35.9674 192 163 145 
-16.8433 -18.4119 37.3861 34 32 43 
-17.1352 -19.1908 38.0542 115 128 163 
-15.7559 -13.9768 34.9321 135 151 177 
-15.4218 -4.97067 34.5653 18 20 0 
-15.4218 -4.97067 34.5653 18 20 0 
-15.3695 -9.40131 34.2499 42 41 47 
-16.4828 -17.4081 36.573 91 125 171 
-18.2801 -22.5141 40.79 48 51 42 
-15.4773 -8.93418 34.5253 156 162 178 
-15.4472 -4.85663 34.6377 30 22 1 
-17.618 -20.3754 39.2005 94 89 57 
-15.7536 -1.03144 35.4368 183 152 132 
-17.6147 -20.8539 39.2341 130 132 129 
-18.9899 -24.6527 42.5657 109 122 156 
-15.41 -8.67669 34.3969 33 36 45 
