ply                 
format ascii 1.0    
element vertex 1268
property float x    
property float y    
property float z    
property uchar red  
property uchar green
property uchar blue 
end_header          
-0.525382 3.27634 4.53264 56 40 25 
0.511459 3.24283 5.23676 91 48 14 
-1.7702 -0.254479 5.11928 168 183 188 
0.456093 3.26942 5.22292 44 53 0 
-1.25381 -0.345229 5.48031 196 195 193 
-0.614111 5.88169 4.5213 184 183 165 
-0.244497 -0.205027 4.79083 227 215 177 
-1.31461 -0.323085 5.42564 182 182 184 
0.590549 3.24675 5.22318 198 160 115 
0.134721 -0.135612 5.12628 207 182 115 
-1.27822 -0.316938 5.47172 187 188 190 
-0.0619571 5.91765 5.12823 189 188 193 
-0.510857 5.86417 4.51751 158 159 153 
-1.30254 -0.261622 5.42313 168 159 152 
-1.196 0.161188 5.40168 150 162 176 
-1.89418 -0.123587 5.01857 173 180 188 
-0.408818 5.8503 4.39269 148 155 148 
-2.01765 -0.0512849 4.9228 154 154 154 
-1.31599 -0.129722 5.40467 164 164 172 
-2.0043 -0.0406321 4.92207 158 158 158 
-1.34129 -0.138881 5.40596 134 132 135 
-0.040285 5.93415 4.80336 179 181 178 
-0.62146 5.88277 4.38653 168 179 173 
-0.0224203 5.93144 4.80919 168 164 163 
-1.11952 0.28334 4.66502 192 174 134 
-0.566332 5.88075 4.44326 198 199 185 
-1.82015 -0.0462035 5.05512 160 172 184 
-0.997431 2.99255 4.87823 86 56 32 
0.0527723 3.21133 6.02137 171 138 123 
-2.01868 -0.0906375 4.92846 135 135 137 
-0.118146 2.26581 6.01288 24 25 20 
-2.08824 -0.094861 4.8879 132 131 129 
0.755117 3.32587 5.26723 50 31 1 
-0.440507 3.31165 4.4177 145 129 106 
-0.234232 2.2114 5.99067 9 10 5 
-0.14622 2.17585 6.00058 13 15 12 
-0.418306 2.22465 5.90787 11 16 12 
-2.01512 -0.256493 4.95939 141 143 142 
-0.0300066 5.93211 5.00296 64 64 64 
-0.30722 2.18606 5.95725 6 5 0 
-2.00986 -0.305011 4.9923 127 137 147 
-2.01733 -0.250072 4.94931 143 147 148 
-0.00465137 5.91881 4.9229 38 39 31 
-0.0204299 5.91673 4.38117 102 84 44 
-0.3933 3.2154 5.82176 92 45 27 
-2.02228 -0.244145 4.97941 145 146 150 
-1.91498 0.154312 4.94877 138 151 159 
-0.0046141 5.93895 4.80272 128 126 127 
-0.466717 -0.215764 4.61731 192 164 125 
-0.0245802 5.94267 4.78254 143 141 146 
0.586619 5.83912 4.53829 49 47 22 
0.0143286 3.22938 5.99427 39 3 0 
-1.34744 -0.310317 5.42194 154 157 166 
0.743995 3.29064 4.96765 164 152 136 
0.513494 3.27271 5.21084 136 109 98 
-0.397749 0.100182 4.69994 76 62 25 
-0.0559477 5.95096 4.89861 131 127 124 
-1.7442 -0.198811 5.13126 171 180 185 
-1.34428 -0.288732 5.43206 152 150 155 
-0.73174 5.92402 4.56194 44 48 47 
0.287845 -0.163906 5.19688 175 151 115 
0.690127 3.25116 5.23258 46 6 0 
-0.623741 5.87897 4.5177 54 52 40 
0.0661456 -0.038716 5.11357 255 250 204 
-0.772464 3.35332 4.63621 21 16 10 
-1.34119 -0.284804 5.44229 82 78 79 
-2.02589 -0.0987613 4.93254 148 147 152 
-2.07871 -0.0913611 4.90564 117 118 110 
0.00973122 2.17561 6.07182 30 32 29 
-2.08564 -0.101805 4.90891 123 121 122 
0.707379 3.3055 5.2548 64 37 30 
0.717225 0.100853 5.37465 129 91 0 
-0.467952 5.86891 4.55155 129 140 123 
-1.92799 0.149547 4.95371 131 142 148 
-0.503972 2.3363 5.87291 16 16 14 
0.213963 0.394442 5.20786 135 111 75 
-0.684199 5.89463 4.59518 127 140 114 
0.567462 3.22718 5.22887 94 69 5 
0.0875845 5.81418 4.31873 70 42 0 
-0.340102 -0.0650079 4.70637 255 255 215 
0.48239 3.21801 5.2698 89 82 14 
0.0813194 -0.195332 5.11091 222 201 146 
-0.784194 3.30312 4.62305 33 19 10 
1.29851 -0.485343 6.2193 35 33 20 
-2.01566 -0.0453304 4.94118 174 174 176 
-2.01564 -0.0460328 4.91442 170 168 169 
-0.635915 -0.434066 4.67944 255 255 233 
-1.91847 -0.262383 5.05996 173 173 171 
-1.24665 -0.31452 5.48615 160 161 165 
-1.53825 5.85328 4.6069 191 201 211 
-1.78295 -0.255481 5.14187 171 189 193 
-1.7639 -0.264773 5.09852 151 169 173 
-0.181362 2.26888 5.99356 146 147 139 
-1.2984 -0.307248 5.43376 143 138 142 
0.657867 3.22334 5.23048 96 62 27 
-1.31809 -0.295706 5.45517 34 26 13 
0.136902 -0.135043 5.11169 206 182 110 
-2.02942 -0.245989 4.98975 166 167 169 
0.590141 3.2293 5.23447 95 100 0 
0.517841 3.2392 5.21838 95 39 12 
-0.5729 5.86814 4.42381 45 48 31 
-1.29751 -0.274159 5.44441 167 159 157 
-1.31857 -0.262278 5.41434 107 105 108 
-1.90291 -0.128055 5.01009 164 169 175 
-0.408751 0.106275 4.67759 68 52 18 
0.110736 -0.146502 5.1039 203 187 138 
0.103162 -0.153502 5.10593 149 135 86 
0.819691 3.20958 5.50565 102 63 0 
-0.301946 2.26977 5.95664 21 21 19 
0.393828 3.20622 5.25925 144 87 70 
-0.999912 3.00168 4.89164 54 28 13 
-0.317065 -0.118823 4.72047 167 156 128 
-0.0159893 5.93606 4.82936 175 173 174 
-0.1405 2.18192 6.01166 149 151 150 
0.00656681 5.91368 4.92573 177 179 176 
-0.566043 5.86977 4.5745 136 155 133 
-0.49446 2.19614 5.8784 27 27 27 
-0.0535482 5.92579 4.9772 175 175 173 
-2.06563 1.67573 4.60807 191 174 184 
-0.0133781 5.93138 4.91476 172 171 169 
-0.628156 5.88686 4.52492 54 52 40 
0.0645787 3.22449 6.0344 189 159 151 
-0.100169 5.96829 5.09939 19 20 15 
1.34684 -0.492773 6.22437 15 9 11 
-1.95626 1.85792 4.52009 208 175 196 
-0.02763 5.92886 4.86158 13 13 15 
-1.99689 1.70402 4.67127 153 148 171 
0.589104 3.27336 5.27578 191 161 89 
-1.33404 -0.265624 5.42191 170 166 167 
0.713465 3.26681 5.21439 31 13 0 
-0.728527 5.91265 4.55406 39 41 40 
-0.452505 2.18978 5.8824 18 20 19 
-0.386246 2.19075 5.91421 30 28 29 
0.589561 3.25218 5.23524 190 159 104 
-1.7529 -0.200287 5.14568 185 194 199 
-1.79806 0.0739012 5.03966 170 180 182 
-0.0425875 5.94856 4.87808 151 150 148 
-1.10968 2.95094 4.88503 46 28 24 
0.0650042 -0.0372674 5.10025 255 240 191 
-0.0299279 5.86832 4.74766 46 49 54 
-0.134655 3.21217 5.02205 186 187 207 
-1.2057 0.0444801 5.43453 145 145 145 
-1.74987 0.122907 5.05271 176 191 186 
0.499065 3.29334 5.21276 161 150 144 
0.492678 3.21557 5.25355 250 242 179 
-0.769656 3.35308 4.61919 168 161 153 
-0.992542 2.98321 4.8638 104 74 48 
0.0725973 -0.166687 5.14475 151 132 90 
-0.797517 3.32954 4.64318 92 78 69 
-0.0450554 5.94368 4.96699 134 134 136 
-1.20772 -0.035841 5.4669 101 100 106 
-1.80703 0.084118 5.03943 166 176 177 
-0.503142 2.21644 5.86673 33 32 30 
-0.50957 5.86998 4.57425 123 133 122 
-0.530128 5.8532 4.5735 138 147 128 
0.68604 3.22375 5.25964 162 142 117 
-1.2483 0.289133 4.44641 78 56 9 
-0.457051 -0.231715 4.63109 85 51 0 
-0.738928 2.97893 5.28623 24 22 10 
-0.633843 5.90601 4.53991 51 49 37 
-0.27752 2.27633 5.97643 147 146 144 
0.486915 3.24657 5.22506 65 57 0 
2.05985 4.12368 5.77579 52 46 34 
0.70298 3.25563 5.23006 21 2 0 
0.599276 5.83852 4.54225 48 34 0 
0.650846 3.23588 5.2147 248 229 171 
-2.0655 1.59383 4.61404 189 179 187 
-0.0322183 5.93642 4.80975 38 34 33 
0.65734 3.20736 5.27311 245 231 196 
0.557428 3.22981 5.27184 69 64 0 
-0.0423385 5.93852 4.81313 186 188 185 
-1.18827 0.161207 5.38657 150 162 176 
0.123977 -0.0961148 5.11265 54 29 7 
-0.609396 5.8739 4.51408 184 183 165 
-0.284222 2.19371 5.92135 115 114 112 
-0.782278 3.29617 4.60784 44 27 19 
-0.491027 2.265 5.8609 139 139 137 
-1.95385 -0.276349 5.04219 159 164 168 
-2.00769 -0.253267 4.94623 147 149 146 
-1.91606 -0.273193 5.0535 193 194 199 
-1.92606 0.154765 4.93865 158 170 170 
0.663596 5.80925 4.3675 82 62 0 
-1.81342 0.0777251 5.04241 165 175 177 
-1.26654 -0.343143 5.49967 194 193 191 
-1.36148 -0.298828 5.39561 160 163 170 
-1.76325 -0.20705 5.13154 186 194 196 
-0.246185 -0.206037 4.80472 255 255 217 
-0.814801 5.92256 4.58147 158 173 170 
-0.17441 5.98769 5.06088 146 149 140 
-1.31748 -0.262829 5.43513 38 31 25 
-2.0117 -0.0937181 4.9189 139 139 141 
-0.100903 5.96468 5.11965 149 154 158 
-1.31201 -0.132411 5.39273 164 165 170 
-0.0494602 5.91263 5.12213 26 26 26 
-1.00288 3.00787 4.90202 34 14 7 
0.289386 0.0731521 5.24311 53 19 7 
-0.00225974 5.88224 4.91847 71 67 68 
-1.8148 0.00250952 5.04276 153 167 180 
0.745595 3.31061 5.25058 177 157 124 
0.0275195 5.88845 4.58779 49 33 0 
-1.30549 -0.294303 5.47476 149 141 139 
-0.435922 5.85825 4.33511 56 56 44 
-0.741311 5.90573 4.56857 151 154 145 
-1.25296 0.291352 4.45849 51 32 0 
0.590313 5.82811 4.52503 50 50 38 
-1.38853 2.71863 5.22619 253 243 234 
-0.614576 5.87512 4.38399 183 193 185 
-0.722052 5.91891 4.56495 176 179 172 
-1.32675 -0.336907 5.4463 173 172 177 
-1.81337 0.0846628 5.05473 168 176 178 
-0.569434 5.88395 4.58622 116 134 118 
-0.528184 5.84456 4.56045 145 156 142 
-0.0071209 5.89216 4.79276 65 65 65 
0.819977 3.217 5.52317 91 62 0 
-0.442797 0.0666201 4.6367 119 111 90 
-1.24546 5.88858 4.67332 133 136 141 
-0.451345 5.85803 4.544 36 44 5 
-0.0775837 5.95768 4.88684 137 135 136 
-0.488955 2.18935 5.85482 24 24 22 
-0.456903 2.19334 5.8891 61 63 62 
-0.228496 2.17383 5.95575 24 25 20 
-0.109906 2.21083 6.05796 7 6 2 
0.422807 3.25364 5.21443 96 0 0 
-0.453807 3.32691 4.42086 185 173 157 
0.562182 3.3529 5.20236 181 154 124 
-0.370577 5.91853 4.91605 77 49 1 
-1.85551 0.0562373 5.00045 146 150 159 
-0.24705 5.92414 4.70169 86 63 13 
0.416932 3.34443 5.13145 178 157 140 
-0.732544 5.91548 4.60481 139 144 121 
-0.515292 5.8511 4.50978 201 203 189 
-0.502325 2.25381 5.86243 74 73 69 
-0.262332 2.19034 5.907 141 140 138 
-0.70519 5.8879 4.54889 125 130 123 
-2.18249 0.568687 4.38914 255 251 246 
0.12625 5.84494 4.39728 133 90 11 
-0.493704 5.84279 4.49001 40 37 28 
0.955252 -0.10935 5.46891 59 34 0 
-0.097881 5.95006 5.10741 129 134 138 
-0.512922 2.28774 5.90385 24 24 22 
-1.986 1.69433 4.65042 119 104 123 
0.1193 0.00926002 5.11867 59 35 7 
-0.628211 -0.433327 4.65942 255 255 234 
0.399275 5.80671 4.371 103 100 45 
0.416419 5.83558 4.40738 176 61 56 
-0.578265 5.87569 4.43176 55 58 41 
-1.30286 -0.303087 5.44069 186 180 180 
-1.30751 -0.29766 5.42521 45 41 32 
0.0567423 -0.0189762 5.09861 30 9 0 
-1.30834 -0.266618 5.44833 167 158 149 
-2.0292 -0.0953993 4.94546 140 140 142 
-1.07023 2.99752 4.85113 226 197 179 
0.0252202 5.89175 4.59941 39 26 18 
0.501236 3.22143 5.2154 236 225 179 
-0.56315 5.87949 4.60294 27 43 7 
-1.35611 -0.0959864 5.34759 133 137 146 
-0.107714 5.96784 4.97333 45 33 35 
-0.780363 3.36293 4.63723 184 176 165 
-0.144445 6.02919 5.10183 164 165 160 
0.2254 5.78209 4.72236 31 22 7 
-0.767025 3.33758 4.62196 18 15 6 
-0.804605 5.89915 4.56139 177 192 189 
-0.719347 5.90762 4.55774 169 174 167 
-0.265381 2.27522 5.96808 19 18 14 
0.219654 -0.136312 5.1773 255 255 202 
-0.0354762 5.90232 5.15443 150 149 157 
-0.763578 3.3237 4.63733 208 194 185 
-0.690271 5.892 4.5621 175 176 168 
0.250856 -0.220458 5.20176 208 197 165 
-0.762135 3.31539 4.65803 77 51 34 
-0.754228 5.91761 4.58081 161 165 148 
0.0643155 5.86203 4.95986 115 114 120 
-0.105775 2.26599 6.05858 13 14 9 
0.603975 5.90972 4.64409 159 148 118 
-1.65643 0.0259071 5.1302 155 167 165 
-0.678331 5.88227 4.58641 136 151 112 
-0.494334 5.84878 4.56366 25 38 0 
0.787124 5.84814 4.78364 2 1 0 
-0.774057 3.3309 4.65639 207 190 180 
0.432264 0.310315 5.39274 58 30 0 
0.736027 3.21679 5.30384 238 214 170 
0.659445 5.80294 4.36328 66 37 7 
0.222347 5.78362 4.13383 57 92 52 
-1.94731 -0.276768 5.02702 162 169 177 
-1.90811 -0.269595 5.04002 183 184 188 
-0.302753 2.2727 5.96797 18 16 17 
-1.77696 -0.259512 5.12444 182 200 204 
0.0308806 5.87204 4.58581 42 32 31 
0.975389 -0.083934 5.46741 171 154 62 
0.0853887 5.84431 4.34991 51 25 0 
-0.0245642 5.92071 4.3945 71 53 31 
1.23453 3.31678 5.44722 94 54 28 
-1.30165 -0.268651 5.43194 180 168 156 
-2.07599 -0.091534 4.8799 161 158 149 
-0.445551 5.88111 4.35515 56 56 44 
0.0393041 5.87573 4.63089 168 164 165 
-0.464229 0.0878485 4.65486 168 152 119 
1.27183 -0.613501 6.23556 112 99 82 
-0.2517 -0.252947 4.81468 255 253 178 
-0.545345 5.84791 4.41663 202 203 187 
-0.497603 5.87006 4.51381 24 30 20 
0.00300207 5.92814 4.88813 142 146 145 
-0.52296 5.86956 4.52644 205 206 188 
0.115245 -0.0965443 5.12837 55 27 15 
0.383039 5.85242 4.39689 219 204 185 
-0.507777 5.83334 4.53339 119 129 105 
-0.54708 5.85146 4.58101 45 57 17 
-1.08075 2.9876 4.85676 23 16 8 
-1.52269 -0.00185524 5.27965 136 146 138 
-1.80451 0.0773215 5.0294 167 177 178 
0.0630207 5.86534 4.6566 125 121 120 
-1.53281 0.0100546 5.27929 143 144 148 
-0.0573428 5.93304 4.83338 150 152 151 
-1.37069 -0.0976388 5.37529 135 139 148 
-1.38971 -0.167256 5.3869 135 134 148 
-0.456856 5.87608 4.56129 49 59 9 
-0.107899 5.93872 5.16449 144 142 156 
-0.623287 5.89282 4.40174 183 193 185 
0.0101112 5.89226 4.86243 141 143 140 
0.318257 3.22233 5.3056 226 210 194 
-0.709125 5.89873 4.55959 154 157 148 
0.543976 3.22664 5.35959 75 44 23 
0.678705 3.21993 5.2528 219 192 162 
0.701056 3.21968 5.30623 241 216 185 
0.095269 5.85359 4.3854 228 187 47 
-0.468111 3.28105 4.58322 231 215 202 
0.694298 3.30541 5.29229 29 18 14 
-0.429062 5.86816 4.41021 32 37 31 
-1.30443 -0.298563 5.45352 154 146 144 
-2.08407 1.60506 4.64138 196 189 196 
-0.765931 3.3244 4.61178 25 22 13 
-2.01831 1.46993 4.65173 178 183 189 
-2.06031 1.47597 4.68602 80 52 66 
-0.0594966 5.91795 5.13976 156 156 158 
-0.0263618 5.90848 4.83054 167 166 164 
-0.706929 5.87769 4.52414 135 137 132 
-0.571611 5.8577 4.57352 139 159 96 
0.117174 5.80496 4.20659 35 70 30 
-0.266819 5.91373 4.35896 151 125 100 
0.0914295 5.8171 4.33104 57 33 0 
-0.544903 5.85384 4.42399 204 205 189 
0.0351617 5.87445 4.63947 133 131 134 
0.660602 5.7724 4.338 103 64 59 
-0.7008 5.90778 4.57558 175 176 168 
0.0238207 5.88318 4.60303 41 32 33 
0.378665 3.29716 5.22547 174 148 123 
0.515087 3.26174 5.17915 26 14 0 
0.746522 3.32116 5.21575 185 165 138 
-1.94341 1.84507 4.52093 51 41 66 
-0.48318 -0.00452195 4.62313 169 156 139 
-0.700182 5.88344 4.60156 56 68 44 
-0.0406867 5.93225 5.18196 172 172 172 
-0.568826 3.12866 5.84376 95 80 59 
0.694849 3.22851 5.24999 41 18 0 
0.32269 3.21679 5.29721 233 218 199 
-0.642758 5.89509 4.34968 103 105 92 
0.734959 3.2968 5.25092 185 159 126 
0.707635 3.20142 5.2763 234 208 171 
-0.550946 5.87658 4.32714 195 194 174 
0.112376 5.84677 4.3526 134 69 47 
0.123195 5.79393 4.19478 32 70 33 
-0.0396665 5.92151 4.81508 124 122 125 
0.383392 3.1832 5.21868 241 219 198 
-0.538355 5.88812 4.55016 200 201 183 
1.10878 3.20042 5.62339 53 71 45 
-0.484274 -0.190346 4.57609 83 69 40 
-0.159752 -0.475393 5.05827 88 40 52 
0.753549 3.21227 5.27656 96 72 62 
-1.29962 -0.269523 5.40904 172 162 150 
0.0417497 3.20233 5.13471 187 178 169 
-2.00671 2.22626 4.62548 171 192 213 
-2.0256 -0.0433604 4.94276 177 178 172 
-0.000484612 5.9308 4.90101 153 157 156 
-0.484437 3.33129 4.58022 192 179 163 
-0.71695 5.92257 4.6258 64 69 65 
-0.172177 6.00306 5.07235 149 149 137 
-1.28624 -0.300152 5.40652 161 153 150 
0.999319 -0.0738207 5.52521 52 38 3 
-0.780692 3.31916 4.65676 213 194 180 
0.755239 3.32692 5.3145 35 34 30 
-0.992501 3.00943 4.90874 27 18 23 
-0.100977 5.92194 3.94316 182 174 153 
-0.0920814 5.89336 4.1666 59 45 44 
0.432575 0.380431 5.45065 40 21 14 
-0.0146871 2.76785 6.11122 175 161 150 
0.052644 5.82361 4.90059 121 121 121 
0.115199 5.86035 4.39148 143 87 30 
-1.29534 -0.298331 5.4334 154 146 144 
0.0116445 5.90234 4.58733 203 161 85 
-0.316601 -0.0257815 4.70354 32 21 15 
0.0171015 3.22371 5.0651 203 191 201 
-1.05303 0.564184 4.68103 209 143 47 
0.660974 3.21144 5.26932 209 194 151 
0.520263 3.23272 5.23104 230 187 132 
0.589721 3.24999 5.22885 210 171 102 
1.00461 3.20622 5.54874 89 92 63 
0.644492 3.25715 5.23464 255 209 161 
0.703644 3.25936 5.24122 33 2 0 
0.476983 3.22819 5.26358 215 215 105 
0.676455 3.25998 5.24169 115 27 17 
0.475923 3.23463 5.20928 221 221 107 
-1.31415 -0.141247 5.34888 118 121 126 
0.492584 3.23449 5.23455 252 242 180 
0.431105 3.24669 5.22572 193 106 97 
0.579519 3.23932 5.24164 203 191 105 
-1.89871 0.155017 4.92659 146 157 163 
-1.58578 -0.199199 4.06941 144 144 144 
-1.31749 -0.287023 5.38551 58 54 51 
-0.237168 2.19988 6.03863 74 76 75 
0.493076 3.24437 5.21271 233 218 185 
0.497551 3.26008 5.22229 30 18 0 
0.474295 3.24274 5.22237 221 221 107 
0.441863 3.20692 5.23318 71 28 0 
1.075 3.20997 5.47205 124 73 0 
0.446286 3.23381 5.20703 200 191 124 
0.432284 3.23682 5.22923 116 38 26 
0.0548097 3.22169 5.17109 193 195 208 
0.797264 3.23575 5.55046 199 65 54 
0.436402 3.2074 5.25334 77 22 0 
0.482656 3.224 5.27462 117 108 39 
-1.78496 0.0721852 5.01743 154 169 166 
-1.78216 0.0719649 5.00779 166 178 174 
-1.79648 0.0750463 5.01341 152 167 162 
-1.80604 0.0728717 5.04456 137 152 155 
-1.15929 -0.0351486 5.38886 143 143 131 
-1.16426 -0.0348555 5.37978 132 134 121 
1.00065 3.21061 5.55896 88 92 65 
-1.30844 -0.131789 5.34623 24 24 26 
0.722848 3.25329 5.1709 188 153 133 
0.493747 3.2896 5.20502 151 143 132 
0.694861 3.31453 5.26724 44 15 9 
0.579384 3.23962 5.22115 154 98 49 
0.383871 3.296 5.21548 185 168 138 
-1.85281 0.0582531 5.00496 138 149 151 
-1.469 -0.122314 5.24933 114 126 140 
1.30609 3.342 5.5144 104 68 36 
-0.152375 -0.475309 5.05898 123 77 79 
-1.49576 -0.00724485 5.22083 149 150 145 
0.874609 3.3463 5.25433 216 195 116 
1.37233 -0.681854 6.28376 161 150 148 
0.284744 -0.804241 5.34283 101 86 91 
1.42674 -0.713212 6.337 118 118 118 
0.133335 0.00240088 5.0653 34 17 7 
-0.495766 -0.711071 4.83931 219 202 184 
0.201115 -0.107882 5.11273 163 149 102 
0.958673 -0.11649 5.46781 128 112 0 
0.171006 -0.139021 5.09006 255 255 200 
-0.170808 -0.634941 5.06111 152 66 67 
0.0804756 0.0756662 5.05885 169 158 130 
-1.18882 -0.027595 5.43844 110 112 125 
-1.3346 -0.262668 5.45689 116 116 126 
-0.434282 -0.170117 4.49389 92 81 17 
1.32525 -0.841365 6.32751 44 44 36 
-0.218932 -0.205333 4.72407 231 218 174 
-0.584311 -0.418488 4.54781 255 255 244 
-0.60159 -0.419146 4.57835 252 255 238 
-0.359303 -0.258886 4.56667 213 197 137 
-1.25956 -0.319614 5.52213 139 145 145 
-1.29867 -0.349838 5.48223 144 153 160 
0.978786 -0.0803877 5.5042 176 167 74 
0.348308 -0.388554 5.20258 72 63 48 
-1.3476 -0.288514 5.4609 57 57 67 
1.4269 -0.715367 6.34808 136 136 136 
-0.374901 0.0988879 4.58486 69 62 8 
-1.33514 -0.268064 5.47723 92 91 96 
-0.174191 -0.637116 5.07191 157 79 79 
0.0900771 0.0804067 5.07397 64 44 11 
-1.18384 0.159892 5.39715 129 145 160 
0.010703 -0.39386 4.99503 196 178 178 
-1.33412 -0.325728 5.47554 133 138 144 
-1.20048 0.100888 5.43966 121 132 152 
0.0249126 0.0448726 5.05491 57 42 9 
-1.38921 -0.163699 5.39964 120 125 129 
-0.288383 -0.128182 4.65024 26 17 0 
-1.21066 -0.0406077 5.48023 95 96 116 
0.111986 -0.0348591 5.06543 150 140 87 
-1.36353 -0.093082 5.3727 142 146 157 
-1.36696 -0.101317 5.40945 35 42 48 
-1.3586 -0.130252 5.4095 29 36 46 
-1.385 -0.142783 5.39515 113 119 133 
-1.36602 -0.292104 5.48119 122 126 138 
0.253806 0.0901332 5.19808 145 115 87 
-0.410155 0.0603483 4.55029 137 130 102 
-0.255632 -0.0423316 4.68083 150 140 104 
-0.425066 -0.195985 4.51441 80 53 0 
-0.439981 -0.170898 4.52179 92 81 17 
0.0536943 -0.876685 5.15177 109 55 89 
-0.285686 -0.129753 4.64061 23 13 1 
-0.334417 -0.142061 4.57113 247 240 194 
-1.17981 0.158436 5.37885 142 158 173 
-0.423258 -0.185478 4.49633 241 230 168 
-0.440866 -0.185822 4.49481 61 42 10 
-1.27637 -0.350762 5.53367 169 174 170 
-0.455777 -0.188493 4.50258 146 133 99 
-1.34028 -0.339027 5.47041 153 164 168 
0.0311135 -0.250551 5.02273 237 213 153 
-1.32886 -0.265981 5.4887 142 141 146 
-1.32095 -0.289334 5.50348 67 68 70 
-1.32651 -0.309967 5.49972 134 134 142 
-1.37471 -0.313967 5.48339 131 140 149 
-1.32068 -0.35362 5.52983 137 145 148 
-1.32676 -0.317383 5.48528 41 43 55 
0.0284191 0.0424983 5.04086 48 34 7 
-1.23058 -0.179038 5.49056 108 110 122 
-1.38132 -0.16223 5.37995 127 132 136 
-0.419864 0.0696964 4.55354 70 48 11 
0.952701 -0.0880907 5.46917 170 157 43 
1.31525 -0.723281 6.29117 70 72 69 
-1.38537 -0.0997059 5.40437 122 129 148 
-1.20479 -0.0418665 5.46773 102 100 121 
-1.16778 -0.0286858 5.40551 152 152 160 
-1.36261 -0.102913 5.40355 56 61 67 
-0.476505 -0.689245 4.84658 255 252 236 
-0.118705 -0.463834 4.96458 195 174 171 
1.37729 -0.68483 6.29947 57 57 59 
-1.29732 -0.295962 5.46126 121 124 129 
0.0343253 -0.245016 5.03945 107 75 14 
-1.33993 -0.28858 5.44211 38 38 50 
-1.34216 -0.302698 5.49992 36 34 47 
-0.418278 -0.17967 4.51384 59 34 3 
0.0744075 0.0846923 5.08276 55 39 6 
-1.37236 -0.111053 5.42247 136 140 152 
-0.280153 -0.130121 4.61045 27 16 10 
0.0633854 0.00708938 5.03079 79 57 20 
-1.35502 -0.140558 5.42695 135 142 150 
-1.32537 -0.136427 5.42922 161 172 174 
-1.19468 0.0999991 5.42896 123 134 152 
0.984295 -0.110811 5.52157 161 137 27 
-0.424737 0.0682419 4.5646 66 47 14 
-0.416403 0.0617969 4.5705 126 119 93 
-0.657998 -0.941848 4.90582 209 200 185 
0.0352332 -0.85742 5.16096 242 212 214 
0.284249 -0.799026 5.33129 104 89 96 
1.61518 -0.379678 6.36196 20 19 17 
-0.356033 -0.265744 4.58501 161 142 83 
-1.34891 -0.27055 5.46814 165 163 168 
-0.37965 0.0296124 4.55512 143 135 86 
-1.19877 0.0459422 5.41101 142 147 153 
-1.35041 -0.140781 5.41833 139 146 154 
-0.0786244 -0.38966 5.00348 230 222 211 
-0.434339 -0.187068 4.5384 229 218 152 
-1.31666 -0.275981 5.46545 176 176 176 
-1.33085 -0.27941 5.41489 155 154 159 
1.34677 -0.505995 6.28319 24 26 25 
0.320813 -0.388354 5.15761 69 58 54 
0.296038 -0.393536 5.14759 69 51 47 
-1.34687 -0.303933 5.48674 34 37 52 
-1.33493 -0.305456 5.52942 152 151 156 
1.45933 -0.895421 6.40068 220 220 208 
-1.31603 -0.277159 5.38179 175 173 176 
-1.30508 -0.272764 5.44023 172 172 170 
-1.34328 -0.300008 5.47128 35 36 54 
-0.287165 -0.0340319 4.63293 34 22 26 
1.34213 -0.727248 6.26374 40 35 39 
1.46931 -0.904327 6.36428 62 61 66 
0.333856 -0.395019 5.20022 80 67 61 
-0.366495 -0.261288 4.58787 255 245 186 
-1.03978 0.30875 4.7388 103 101 114 
-1.32676 -0.122667 5.34748 146 151 155 
-1.285 -0.285151 5.42239 74 75 77 
-1.32427 -0.286357 5.4118 59 57 68 
0.70869 3.29468 5.23208 72 46 47 
-1.18612 0.0394577 5.39274 91 93 108 
-1.31312 -0.262772 5.41319 148 143 149 
0.499186 3.27704 5.21573 24 19 16 
0.677954 3.26064 5.22667 181 142 143 
0.5165 3.24486 5.22917 76 30 32 
0.504338 3.26886 5.2117 168 154 153 
-1.24385 -0.32097 5.47348 153 157 166 
-1.3537 -0.294132 5.39644 137 143 155 
-1.3256 -0.137429 5.36098 140 146 158 
-1.33792 -0.0948236 5.32217 139 146 156 
0.501461 3.24566 5.21628 80 73 63 
0.583218 3.24119 5.22745 77 52 21 
-1.20859 -0.17657 5.44159 118 121 136 
0.445397 3.26045 5.2145 145 145 95 
-0.451843 -0.186162 4.52261 81 61 34 
-1.31485 -0.312452 5.43014 125 125 137 
0.700987 3.25623 5.22859 38 25 35 
0.646115 3.24872 5.23498 237 216 189 
-1.24745 -0.345597 5.46971 193 194 199 
1.72367 -0.372509 6.33247 170 164 152 
1.68981 -0.365218 6.35154 196 189 179 
-1.28377 -0.292932 5.43795 144 144 154 
-1.29715 -0.135487 5.36782 162 167 171 
-0.464464 -0.191059 4.52525 134 114 87 
-0.437026 -0.186901 4.53146 149 136 94 
0.665561 3.22548 5.25707 58 47 41 
-1.33753 -0.112534 5.34467 139 141 153 
1.28767 -0.551557 6.25051 123 125 111 
-1.30389 -0.316126 5.43781 38 42 54 
1.28677 -0.733978 6.28575 157 157 157 
0.426573 3.23399 5.24009 209 129 122 
1.43189 -0.738335 6.34629 16 16 18 
-0.149722 -0.476485 5.06456 89 45 58 
-1.33313 -0.119215 5.35899 135 138 145 
0.427653 3.23932 5.219 201 122 117 
0.49605 3.29103 5.20862 131 116 113 
-1.17468 0.0442552 5.35864 151 151 161 
-0.38977 0.02998 4.57677 159 148 120 
-1.36478 -0.162431 5.34346 140 141 146 
-1.50986 -0.00280508 5.21556 125 137 153 
-1.31138 -0.287875 5.38436 44 42 53 
-1.31477 -0.336975 5.41408 161 161 173 
-1.31996 -0.269233 5.40882 179 177 182 
-1.24949 -0.345698 5.45804 197 199 198 
1.39188 -0.508844 6.29753 20 19 15 
-1.30951 -0.297935 5.40552 39 37 50 
-0.640101 -0.930563 4.86015 243 232 212 
-0.177673 -0.644132 5.09267 190 105 112 
1.41787 -0.724237 6.36287 160 158 161 
-1.30811 -0.276128 5.36576 180 178 183 
1.74319 -0.41041 6.29282 32 28 27 
0.327312 3.31114 5.23074 130 120 121 
1.39655 -0.7081 6.32596 92 90 93 
1.34063 -0.729261 6.2792 39 38 43 
-0.132375 -0.465741 5.03623 209 189 182 
-1.27648 -0.294248 5.40023 152 152 160 
-0.173422 -0.643588 5.06773 135 34 42 
0.646199 3.24028 5.22535 233 216 186 
0.0591879 -0.76204 5.07706 168 49 87 
0.435543 0.291381 5.32784 70 55 24 
0.383348 3.28974 5.20405 161 148 132 
-0.00995513 0.0043575 5.05029 56 36 0 
-0.194306 -0.216425 6.1404 244 233 205 
0.160815 -0.499664 5.09023 162 119 110 
-0.0558517 -0.0478493 4.06435 112 105 76 
0.177451 -0.120063 5.11308 137 129 108 
0.134936 -0.106283 5.08033 162 149 117 
0.143524 -0.108542 5.09366 51 37 11 
0.095109 -0.0282825 5.07199 31 25 0 
1.31631 -0.721004 6.28054 49 45 34 
-1.78266 0.0747809 4.97895 155 168 177 
-0.436939 0.0701682 4.59058 47 30 10 
-1.90623 -0.26026 5.04513 174 174 174 
0.0532371 -0.239966 5.05838 85 60 0 
-0.340673 -0.149084 4.63469 108 93 70 
-1.3688 -0.149615 5.32283 126 130 139 
-1.88587 -0.121569 5.00423 162 168 180 
-1.80455 -0.000748055 5.00595 140 154 167 
-1.33494 -0.0934343 5.31397 148 151 156 
-1.88905 0.150823 4.89033 164 177 170 
-1.77489 0.0840181 4.99104 167 180 188 
-1.78531 0.0742379 4.98965 150 164 175 
-1.59705 -0.281219 5.22621 132 151 165 
-1.74231 -0.209945 5.11618 162 172 173 
-1.89756 -0.126026 4.99804 154 155 160 
0.189747 -0.13211 5.11439 74 67 51 
-1.83105 0.157676 4.91516 165 185 194 
-0.44365 0.0808026 4.58369 144 124 100 
-0.102238 -0.090184 3.94159 246 236 183 
-1.83703 0.0574429 4.96396 139 149 161 
-1.78385 0.0380908 5.00778 137 152 157 
-1.69745 0.162115 5.00573 172 187 182 
-1.79683 0.00449113 5.00975 150 164 175 
-1.413 -0.0662382 5.25864 98 111 130 
1.37733 -0.683815 6.29996 87 79 76 
1.34943 -0.728572 6.30626 43 34 27 
-1.79663 -0.0398968 5.00941 159 173 176 
-1.94742 -0.272208 5.02039 158 166 169 
-1.73823 -0.199875 5.10996 187 196 195 
-1.75439 0.0752967 5.00692 169 174 177 
-1.30482 -0.294552 5.39466 39 38 36 
-1.80136 -0.0412075 5.01955 145 158 164 
0.0524593 -0.241413 5.06832 131 102 34 
-1.75166 0.0461219 5.00069 165 181 180 
0.0207889 -0.768957 5.10658 159 64 86 
-0.274646 2.2018 5.98914 116 117 112 
0.554096 3.23333 5.36954 67 53 0 
1.54048 -1.12104 6.74106 100 53 69 
-0.0856171 2.18555 6.05218 37 37 35 
-0.774719 3.28673 4.59182 25 12 4 
0.429963 3.22401 5.2957 56 27 0 
0.342269 -0.394574 5.17833 102 80 59 
0.582658 3.22099 5.44195 70 51 0 
-0.239474 2.2583 6.04729 33 34 29 
0.551708 3.23311 5.28155 64 45 0 
-0.397781 2.2843 5.96926 33 34 29 
0.752573 3.21368 5.36256 96 72 0 
-0.274703 2.26691 6.00616 124 123 121 
-0.106023 5.95072 4.93352 140 139 137 
-0.189216 3.2094 5.06096 181 181 209 
0.264757 5.81052 3.73425 173 167 177 
0.108499 0.0460174 5.00487 34 15 0 
0.985463 -0.0877742 5.41209 206 181 99 
0.0749991 5.89621 4.38988 130 104 87 
0.447737 3.25949 5.22223 205 201 130 
2.16704 2.93814 6.37251 188 185 170 
0.687956 3.23457 5.3245 66 55 37 
0.558455 3.24211 5.24441 226 182 145 
0.573324 3.24322 5.25829 217 196 133 
0.655091 3.22355 5.25328 216 195 166 
-0.519861 5.84908 3.86398 48 85 111 
0.229057 0.367159 5.12467 154 126 102 
0.0234326 3.24527 6.0564 62 27 7 
0.0302827 3.24265 6.06387 185 150 130 
1.29339 -1.93519 6.58034 246 239 187 
1.36053 -1.95137 6.64846 153 150 135 
-0.375753 -0.283166 4.58966 255 253 201 
0.710913 3.25574 5.21802 136 114 103 
0.252598 -0.292466 5.15392 59 50 0 
0.0908126 5.99699 3.97467 255 253 244 
-0.819416 3.04157 4.94831 55 23 2 
0.484661 3.23104 5.26118 130 123 53 
-1.03839 2.99576 4.68927 75 59 43 
-1.54235 6.02476 4.10946 128 185 228 
0.498812 3.2806 5.22629 34 19 12 
0.660682 3.23815 5.21532 238 192 169 
-1.06765 2.98276 4.84091 63 44 14 
0.584452 3.24117 5.22711 78 45 0 
0.585076 3.25263 5.26799 221 209 123 
0.18024 -0.143451 5.04718 73 52 5 
0.753041 3.21346 5.31194 72 46 9 
0.0685967 0.0307869 5.01378 35 24 0 
-0.309669 -0.0715177 4.64177 59 51 15 
-0.215205 2.2545 6.01924 131 132 126 
0.307358 -0.220182 5.12851 174 142 127 
0.277834 -0.169351 5.14175 130 114 52 
1.53757 -1.53192 6.62865 212 160 182 
0.396273 3.22143 5.23785 127 55 40 
-0.740092 3.30181 4.58564 188 174 165 
0.286608 -0.240388 5.1177 228 220 173 
-1.62721 2.85231 4.93144 232 225 209 
-0.587926 5.9318 4.36045 164 182 130 
-0.431223 5.89566 4.39808 152 156 157 
0.105933 -0.200489 4.99304 231 211 158 
0.279598 -0.226627 5.17167 59 46 0 
-0.323334 -0.131972 4.56553 160 149 119 
-0.580481 5.91538 4.36936 172 182 173 
-1.3558 -0.124244 5.40434 155 159 160 
0.0119597 -0.173975 5.02846 53 36 6 
-0.408851 5.85232 4.39559 143 155 153 
-0.31577 -0.0853229 4.60506 55 45 10 
-1.30392 -0.132035 5.38379 176 177 179 
0.310427 -0.200474 5.16249 193 188 150 
-0.263169 -0.0861846 4.65175 164 149 118 
0.253668 -0.950965 5.30746 74 53 48 
0.285459 -0.263793 5.14098 59 44 15 
0.291105 -0.185199 5.14636 235 229 155 
-0.531374 -0.76782 4.73438 255 237 196 
0.084385 -0.869856 5.05025 112 74 73 
0.273571 -0.176537 5.12322 34 21 0 
0.286776 -0.172853 5.09634 255 249 188 
-0.0412992 5.95081 4.06536 57 52 48 
2.24936 1.87435 5.91662 196 197 166 
0.121758 -0.145827 5.05985 202 184 138 
-0.159174 2.28811 6.04191 8 9 4 
0.162018 -0.134729 5.0238 186 169 97 
-0.066162 2.27046 6.09523 134 135 130 
-0.0974515 2.26301 6.05615 133 133 133 
-0.333131 2.28512 5.99212 43 43 43 
0.193405 -0.115023 5.05391 221 209 169 
-0.228427 2.2573 6.0037 140 141 136 
0.277126 -0.878119 5.36222 79 61 49 
0.156123 -0.0975379 5.0058 58 38 0 
1.7246 -0.374209 6.30265 141 133 120 
0.169999 -0.0988719 5.03151 183 165 93 
0.219203 -0.100242 5.04213 140 118 81 
-0.0439728 5.94848 4.81834 173 172 178 
-0.651184 2.51768 7.042 19 19 17 
-0.495701 2.27522 5.90011 139 139 139 
-0.278652 2.22744 5.98986 5 5 3 
0.290743 -0.807127 5.32052 73 49 45 
-0.308196 2.21453 6.00635 135 135 133 
0.662944 5.83405 4.39473 83 60 6 
-0.512415 5.89194 4.53901 23 26 15 
0.0515607 -0.0256545 5.03371 29 7 0 
0.0741408 -0.0172861 5.01763 23 7 0 
-0.508884 2.20736 5.92093 16 17 19 
0.0937298 -0.00378886 4.96896 59 40 10 
-0.0195703 0.0132396 5.05746 165 141 117 
2.08228 1.57321 5.77305 174 172 159 
0.0195805 0.0124871 5.01276 168 154 115 
0.22888 -0.00905593 5.03212 34 7 0 
0.12495 0.00478843 5.02765 49 37 0 
0.96769 -0.11408 5.4048 137 111 0 
0.958907 -0.105644 5.40161 62 37 0 
0.23127 0.00114604 5.04928 53 17 3 
0.985772 -0.11247 5.48314 88 49 0 
-0.369285 0.104429 4.56407 45 30 0 
-0.351323 -0.4792 4.73893 243 236 218 
1.54313 -0.876948 6.38673 225 207 193 
1.32618 -0.840209 6.32723 73 60 44 
1.63879 -0.891053 6.4968 67 56 34 
-0.372437 -0.202501 4.58151 46 30 0 
-1.18336 0.15993 5.37647 150 162 176 
-0.533213 5.88131 3.87825 55 94 123 
2.18117 1.14078 5.99663 174 171 154 
1.00729 -0.0475914 5.38271 176 159 113 
2.08388 1.11785 5.84934 176 173 154 
-0.464214 5.84747 3.88649 42 76 103 
-1.89452 -0.124236 5.01895 163 170 176 
2.20601 1.06909 5.96685 174 178 143 
0.0915825 0.0946482 5.0128 41 25 0 
-2.03175 1.57929 4.5617 178 169 174 
-0.489346 5.86222 3.92079 43 75 96 
2.06403 0.97768 5.8361 184 183 155 
-0.818536 5.92977 4.5878 160 181 162 
0.385091 0.100262 5.32925 71 37 10 
2.07062 -0.118388 5.84716 198 194 156 
-0.415527 -0.236171 4.54389 208 174 103 
0.358117 -0.390085 5.16777 72 52 28 
1.98427 -0.030073 5.84658 161 165 140 
-0.029059 5.91668 5.07521 158 158 156 
-0.376977 -0.259818 4.58098 179 155 107 
-0.117725 5.92686 4.2791 101 89 73 
0.320401 -0.394044 5.13486 56 35 18 
-1.26858 -0.347014 5.51492 199 200 194 
-0.371239 -0.304942 4.60141 254 245 236 
0.592164 5.88181 4.58695 77 62 5 
-0.0330344 5.90335 5.13522 39 39 41 
-0.0287557 5.90059 5.14366 160 161 166 
0.24718 0.362095 5.04701 161 133 109 
0.220092 0.368609 5.11151 39 8 0 
0.237904 0.378913 5.0987 41 7 0 
0.0884467 0.403957 5.03587 192 144 122 
-0.393163 -0.28837 4.62563 255 250 203 
-1.35104 -0.292736 5.39011 152 156 159 
-1.2334 -0.315063 5.46217 147 148 152 
1.54033 -1.0449 6.70605 201 148 174 
-1.91327 0.148957 4.92997 113 122 129 
-0.222286 -0.194594 4.7426 120 107 73 
-1.05062 2.97645 4.81225 211 187 149 
-1.27226 -0.316713 5.46167 154 153 159 
0.0933756 5.86939 4.28383 72 75 32 
-1.35612 -0.311783 5.44264 151 157 155 
-0.252106 -0.301829 4.72016 152 148 149 
-1.91421 5.9038 4.4968 175 217 241 
-0.171566 -0.64148 5.06292 136 56 45 
2.09376 0.349844 6.46203 181 186 145 
-1.32157 -0.323212 5.4472 139 148 145 
-1.31958 -0.283945 5.39869 41 37 36 
-0.0677715 5.93505 5.14734 148 147 145 
-0.0575249 5.93712 5.15083 30 29 25 
-0.0343753 5.91478 5.13058 169 168 163 
1.02536 0.153236 5.30209 237 189 104 
0.0237466 5.88344 5.0254 154 152 153 
-0.417678 -0.240363 4.52531 80 51 0 
-0.0819483 5.94424 5.07155 67 63 60 
0.765546 0.121304 5.25212 126 85 0 
0.558881 3.21647 5.2732 75 67 0 
-0.0142282 5.91024 4.31932 247 255 205 
-0.180478 5.99398 5.07041 131 128 135 
0.516395 3.2674 5.20199 173 138 134 
1.43297 -0.750436 6.40393 129 120 115 
0.580815 5.99384 4.22163 255 202 207 
0.688351 3.25421 5.23858 41 0 0 
-2.0301 1.46756 4.56718 153 141 153 
-0.423579 -0.204247 4.52358 159 131 68 
-2.01889 1.48225 4.64527 177 156 171 
0.175027 -0.0945374 5.08196 59 40 0 
-1.32949 -0.317005 5.4837 19 25 25 
-0.0842074 5.97091 5.10887 141 135 135 
0.302265 0.065153 5.14425 224 201 169 
-0.474643 2.22707 5.91295 35 33 34 
-0.036354 5.92553 4.94959 159 156 151 
-1.96196 1.68825 4.61522 135 138 153 
0.305348 0.0445452 5.12628 44 22 1 
-0.0106276 5.93103 4.9662 159 156 163 
1.00271 -0.063347 5.41156 139 130 87 
2.15048 1.17003 5.92345 156 159 140 
-0.18537 2.19728 6.04356 29 32 23 
-0.576379 5.87959 4.43659 37 45 24 
-0.0598791 3.24578 4.95133 126 132 182 
-0.46704 5.83882 3.85783 194 226 247 
-0.600044 5.89125 4.5768 154 168 145 
-0.058125 5.96492 4.85279 76 74 79 
0.703328 3.25408 5.22764 21 0 0 
0.324489 0.00304656 5.17825 61 41 0 
0.15773 -0.0917051 5.01745 191 173 127 
1.12717 3.20555 5.71432 199 175 85 
0.81724 3.2181 5.52537 89 70 0 
1.84069 2.59551 5.99366 143 137 121 
1.99683 3.31077 5.54647 171 168 159 
1.98996 3.29973 5.5372 190 187 180 
0.401681 3.22191 5.2518 223 145 125 
0.365495 -0.615555 5.24071 227 194 179 
0.117897 5.89035 4.44737 98 63 0 
0.140679 0.00710098 5.03712 67 41 14 
0.378309 1.89722 6.39644 21 17 6 
-0.0311048 5.93473 5.00494 77 77 79 
0.180779 -0.0994324 5.0514 154 131 90 
0.413779 3.22279 5.28039 94 18 5 
1.55113 -1.02761 6.69195 184 128 157 
1.53944 -1.02325 6.67039 207 156 175 
-0.0972905 5.96003 5.10151 45 44 42 
1.54922 -1.03193 6.67013 71 19 41 
0.251226 0.0859102 5.13342 62 36 13 
-0.462231 2.19783 5.91838 34 36 35 
0.0146924 5.89802 4.84565 144 145 149 
-2.01071 2.26246 4.55739 237 172 196 
-0.395485 2.19933 5.94761 38 37 33 
0.0722002 -0.273826 5.05707 177 164 111 
2.12136 0.581814 5.69812 178 183 153 
-0.470506 2.21732 5.91477 139 139 139 
0.11607 5.91061 4.50814 105 83 7 
-1.39235 -0.170179 5.38416 134 141 147 
0.085368 0.106336 5.02694 138 112 87 
0.276803 -0.0520136 5.06556 51 26 6 
1.45829 -1.89087 6.62688 188 135 153 
-0.21527 2.19278 6.00345 38 39 33 
0.589304 3.25002 5.2304 194 158 110 
-0.478145 5.85266 3.94277 117 138 155 
-0.138722 2.19373 6.03737 3 4 0 
0.44773 5.84725 4.28099 99 84 3 
-0.435122 2.24148 5.96691 28 27 23 
-1.37296 -0.162117 5.3659 129 134 140 
-0.151585 2.21032 6.03234 22 22 22 
-0.12913 2.21104 6.06034 32 33 28 
-0.0184145 5.93819 4.8461 48 48 46 
-1.60175 5.86847 3.87024 63 75 91 
-1.92304 0.163575 4.94974 148 161 170 
-1.18929 0.044476 5.39371 137 138 140 
0.465714 3.26933 5.19596 18 21 0 
-1.91349 0.152757 4.91527 154 163 170 
0.15726 -0.0748909 5.03987 166 143 111 
-0.159285 2.2243 6.08348 123 123 121 
-0.0366747 5.94871 4.82718 62 57 63 
1.04806 3.20027 5.6945 202 196 170 
-1.38526 -0.149586 5.35574 112 117 121 
-0.315862 2.25987 6.00832 30 30 28 
-0.46715 2.28607 5.93883 144 144 146 
-0.566865 5.88596 4.45048 185 193 169 
-0.520863 2.30161 5.93207 64 65 60 
0.163835 -0.101504 5.01569 73 55 0 
-0.0570991 5.95706 4.12129 92 91 70 
-0.268023 2.26715 6.01446 18 17 15 
0.106847 0.0929397 5.04963 147 120 90 
0.196344 -0.121835 5.07427 155 146 105 
-0.510305 2.26948 5.93755 57 57 57 
-1.94455 2.3269 4.55337 151 178 207 
0.714684 3.2644 5.22019 90 68 55 
-0.40867 2.28721 5.95672 12 13 8 
-1.79377 0.0741476 5.0334 163 173 175 
-0.194717 2.26178 6.04654 154 155 150 
-0.0735801 2.24756 6.08168 42 43 38 
-0.00856975 5.91184 5.09438 174 174 176 
-0.249201 2.28755 6.04332 18 19 14 
-0.120496 2.26844 6.028 16 17 11 
-1.51924 6.01623 4.087 103 165 212 
-0.339562 -0.148007 4.56365 157 142 109 
-0.46312 2.273 5.93961 41 41 43 
-0.0295454 2.21206 6.07101 135 137 132 
0.923987 -1.25839 6.7851 74 56 36 
-0.289051 -0.0844791 4.66045 138 126 100 
-0.458866 3.1953 5.85815 78 32 9 
-1.36965 2.70126 5.19492 231 221 212 
0.169161 0.4245 5.08235 62 21 0 
1.53128 -1.34694 6.72401 113 49 84 
0.0516037 3.21495 6.03255 195 159 137 
-0.310649 2.26379 6.01807 137 137 135 
1.53816 -1.38009 6.6843 103 54 73 
1.12259 3.20581 5.62417 72 68 30 
-0.0915721 3.21485 4.96588 153 165 205 
1.52609 -1.39598 6.61707 209 138 178 
-0.297845 -0.117621 4.66187 138 131 102 
-0.730544 5.91808 4.55991 41 48 32 
-0.322409 -0.136186 4.62548 141 129 107 
-1.37399 -0.0955058 5.39575 137 141 150 
0.314872 -0.234296 5.12207 43 27 1 
1.52648 -1.4522 6.68119 94 47 63 
-0.28809 -0.128423 4.64779 29 15 6 
-0.279001 -0.125671 4.61341 26 12 1 
-0.435591 3.30667 4.39828 98 87 69 
0.0118948 3.22108 5.98966 178 141 115 
2.06021 4.13063 5.7859 90 83 77 
-0.0896494 2.24374 6.06096 64 64 62 
-0.393152 2.29106 5.97703 33 34 29 
0.673417 3.20787 5.28071 72 69 26 
0.0422595 3.25389 6.07772 180 144 128 
-0.352444 2.28492 5.97056 136 136 136 
-0.0860747 5.95309 4.94752 151 139 141 
-0.345682 2.28845 5.9799 78 78 78 
-1.34176 -0.111108 5.34261 126 129 138 
-0.293491 -0.0744063 4.60846 133 122 94 
-0.279079 2.28275 6.00323 95 95 93 
-0.0239135 5.94413 4.78495 130 129 134 
0.486173 3.22263 5.22132 123 122 30 
1.53073 -1.54946 6.66448 86 38 50 
-0.143965 2.27886 6.05822 27 28 22 
0.387022 3.22067 5.28942 124 71 57 
1.33659 -0.496407 6.266 98 88 78 
0.500161 3.2151 5.19308 235 226 169 
-0.0966107 2.27608 6.06036 39 39 37 
-0.116749 2.26703 6.09007 64 64 64 
0.016887 5.92983 4.62944 46 34 12 
0.00561377 5.92136 4.93172 157 156 161 
0.394041 3.25306 5.21602 232 186 160 
0.00243031 3.23034 6.03403 73 35 12 
-1.31948 -0.281542 5.42127 173 169 160 
1.44903 -0.750248 6.37166 156 146 145 
0.4751 3.24459 5.2083 49 50 0 
0.0831615 0.034136 5.01099 30 13 0 
0.0789967 5.87435 4.3673 131 108 77 
0.126815 -0.0169838 5.00225 135 124 79 
-1.30918 -0.286804 5.43487 170 166 155 
-0.0377727 5.98574 4.39282 99 115 66 
0.510774 3.25306 5.28325 218 177 121 
-1.82642 2.92807 5.01208 36 40 41 
-1.19333 -0.0370253 5.43781 106 105 113 
-0.750303 3.33014 4.57679 158 153 147 
0.290458 -0.195338 5.13086 175 164 102 
2.19841 3.2592 6.3004 157 162 132 
0.403824 3.27949 5.22191 93 22 4 
0.509872 3.24435 5.24107 92 57 27 
0.38733 3.28131 5.24889 126 70 53 
0.492383 3.25442 5.22332 177 173 136 
-0.106135 -1.20322 5.21378 108 108 82 
2.16851 1.15061 5.94376 197 186 164 
0.24897 3.26229 4.7212 33 16 0 
0.461035 3.255 5.19412 89 90 24 
0.177782 -0.495383 5.02607 126 88 75 
0.514261 3.25031 5.24419 90 30 6 
0.683207 3.2284 5.27872 150 129 100 
-0.0308768 2.69562 6.1491 135 134 148 
0.59124 3.22747 5.2351 86 95 0 
1.53372 -1.45371 6.69831 194 146 162 
-0.645675 5.93307 4.42326 60 69 64 
-0.162312 5.93709 4.49143 42 23 9 
0.0799122 0.000367883 4.9946 192 175 145 
-0.00270599 2.72355 6.03896 185 163 166 
-1.9079 5.88423 4.46492 60 98 121 
-0.749504 5.93167 4.59821 142 153 137 
-0.576806 5.89973 4.60615 117 137 109 
-0.0782984 5.96223 4.89139 135 134 130 
-0.452326 -0.157406 4.54384 97 89 53 
-0.0247492 5.95619 4.88702 126 129 134 
0.423102 3.24655 5.2016 129 20 0 
-0.364864 2.26099 5.94572 30 30 28 
1.54999 -1.32541 6.64791 95 44 63 
-1.36989 2.85712 5.22393 55 37 23 
-0.0884572 5.99713 4.55241 107 83 47 
-0.0238201 2.21566 6.07987 29 31 28 
-0.456132 2.27383 5.95132 133 133 135 
-0.3511 2.26195 5.96536 132 132 130 
0.397743 3.23316 5.22134 121 50 20 
-0.452875 5.85208 3.91416 88 112 136 
0.663248 3.24685 5.21659 72 21 0 
-0.440402 5.80591 3.89794 117 134 150 
-1.47891 -0.119902 5.26003 114 127 144 
0.376395 5.87797 4.4366 218 208 159 
-0.947795 3.35211 4.52171 163 159 148 
1.54481 -1.05989 6.70122 197 143 156 
0.578539 3.24641 5.22099 187 130 103 
0.402177 3.2477 5.18138 122 63 45 
0.712831 3.28677 5.21531 71 46 39 
0.0829121 -0.768414 5.07056 165 77 93 
-0.0579038 2.19617 6.0893 28 27 23 
-0.175211 2.2205 6.06267 36 37 32 
-0.0207697 5.91344 4.91621 155 154 149 
-1.18795 -0.0268322 5.4339 107 107 115 
0.456231 3.28624 5.22825 40 46 10 
1.42352 -0.713761 6.3657 123 115 113 
-0.522649 5.93187 4.26114 149 138 110 
-0.0836026 5.97177 5.04991 167 166 164 
-0.514841 5.86075 3.87737 199 236 255 
-0.634257 5.91689 4.31961 165 171 161 
-0.0300803 5.8881 5.13704 162 163 168 
-1.57122 5.86716 4.60113 218 228 238 
2.04599 3.90668 5.86894 158 156 143 
2.04662 3.86124 5.9114 60 52 41 
0.652686 3.20992 5.23636 10 2 0 
0.0389912 3.20473 4.98909 198 208 235 
1.29429 -1.93172 6.5654 246 239 187 
2.0059 1.86428 5.58019 195 197 176 
2.21402 1.6054 5.95813 187 186 168 
2.24543 1.59424 5.94615 195 191 166 
2.02392 1.24057 5.82569 174 176 152 
1.53838 -1.51964 6.63615 210 152 174 
-1.19463 0.160178 5.4051 150 162 176 
0.986648 -0.101594 5.42783 223 205 97 
0.454485 3.23963 5.24852 200 195 127 
0.0751039 0.0242411 4.97821 228 218 182 
0.128462 -0.0308905 5.03298 217 202 159 
-0.414009 0.0647404 4.55843 158 144 117 
-0.215787 -0.941263 5.19862 61 45 45 
-0.22275 -0.0121829 4.65365 204 197 171 
-0.45266 -0.00629784 4.54819 184 175 136 
0.181321 -0.134654 5.06158 237 223 174 
-0.302655 -0.0634715 4.62138 255 252 211 
0.265208 -0.191851 5.07402 206 197 154 
0.311192 -0.228221 5.11212 48 30 10 
0.246895 -0.953786 5.33097 60 39 36 
0.283604 -0.250574 5.11098 200 194 162 
-0.521657 -0.766051 4.70793 255 251 207 
-0.201144 -0.202197 4.66773 255 255 211 
0.315032 -0.395689 5.15938 56 35 18 
-1.7539 -0.205716 5.11186 172 188 185 
-1.36095 -0.298675 5.39789 159 163 162 
-1.2467 -0.345184 5.4663 195 196 188 
-1.33588 -0.339621 5.46002 182 188 184 
-0.43228 -0.679126 4.73026 255 255 234 
-0.225015 2.26481 6.0573 131 132 126 
-0.421156 5.8491 3.9202 60 78 98 
0.224676 0.394844 5.09235 63 29 4 
1.54464 -1.14608 6.68777 87 35 57 
0.224078 0.363612 5.06226 176 142 114 
-2.04024 1.46698 4.57899 158 152 164 
-0.0496397 5.96778 4.08225 53 49 46 
2.04541 1.00862 5.75449 178 182 155 
2.20815 1.07463 6.00405 200 201 169 
2.1818 1.13987 5.9702 178 172 156 
2.24611 1.17448 6.00227 170 165 145 
0.37726 0.101304 5.35952 74 38 16 
1.52914 -0.909261 6.46906 224 211 192 
-0.294514 2.22803 6.02711 130 130 128 
-0.0848898 2.20039 6.08004 126 126 124 
-0.367818 -0.475079 4.75327 230 223 204 
-0.516436 5.84223 3.8576 48 85 111 
0.29398 0.0631229 5.18228 224 201 169 
-0.275825 2.22329 5.98037 57 57 55 
-0.0571733 2.2091 6.11661 136 136 134 
0.0957693 0.0942324 4.99749 41 25 0 
2.24934 1.73729 5.95352 193 182 160 
1.23343 -0.819614 6.23798 93 78 57 
1.32608 -0.838908 6.31521 73 60 44 
0.997944 -0.0486889 5.43592 174 156 90 
-0.242523 2.2529 6.01517 28 29 23 
-0.357209 2.29034 6.03431 140 140 142 
-0.202413 2.25849 6.02751 32 33 28 
-0.308961 2.28234 6.02256 134 134 134 
-0.112559 5.90893 4.26081 66 53 45 
-0.21702 2.28047 6.06936 149 149 147 
-0.175984 2.28056 6.05339 10 11 5 
-0.319559 5.98207 4.28033 252 249 208 
0.969235 -0.0804911 5.36154 46 24 0 
0.32437 -0.00972003 5.15005 21 1 0 
-0.363804 0.10351 4.55028 42 28 2 
1.5393 -1.38453 6.63968 201 150 165 
1.46157 -1.87786 6.56798 192 137 158 
-0.360754 0.0976148 4.58789 53 40 5 
0.075601 0.0145316 4.99389 40 30 0 
0.00144134 0.0141533 4.99177 191 167 139 
-0.426857 5.88165 4.38557 159 161 158 
-0.413896 5.86002 4.40624 140 151 145 
2.20123 2.34248 5.73528 205 198 180 
0.264537 -0.0423375 5.06651 38 21 1 
0.28742 -0.0670734 5.06437 32 5 0 
-0.502369 5.86671 4.51267 23 26 17 
-0.522896 5.8916 4.5478 189 191 178 
-1.03193 2.98784 4.67293 69 57 43 
-0.847576 3.06664 5.01434 55 23 2 
-1.88556 0.152421 4.86992 123 132 139 
-0.911276 3.07206 4.85237 42 24 14 
0.226641 -0.0970332 5.06074 50 26 0 
0.0343399 3.23292 6.04591 179 144 124 
0.148576 -0.0941259 5.05532 191 173 127 
0.144301 -0.0980829 5.04095 47 29 0 
-1.79824 0.0762859 5.01096 160 173 182 
0.185046 -0.133112 5.07119 139 125 90 
-1.18001 -0.0411399 5.46716 137 136 141 
-1.57834 3.26491 4.26213 214 233 247 
0.189029 -0.141639 5.0382 52 32 0 
0.289106 -0.173372 5.14816 105 95 24 
0.132412 -0.145487 5.02085 178 160 110 
0.116895 -0.152569 5.05228 166 149 95 
0.571203 3.22428 5.46602 215 200 135 
0.279144 -0.180648 5.11636 56 46 0 
-0.116396 5.95067 4.95752 164 164 156 
0.099607 -0.161753 5.0776 175 158 112 
0.312103 -0.181872 5.03847 77 70 0 
-0.321934 -0.0854328 4.61686 24 12 0 
0.424535 3.22699 5.2727 203 139 129 
0.55734 3.22317 5.34784 61 44 0 
0.301742 -0.213508 5.11385 67 48 16 
0.439981 3.23522 5.27668 220 207 139 
-0.374343 -0.284699 4.57653 255 253 208 
0.277254 -0.223252 5.12284 71 59 21 
0.464639 3.237 5.23821 101 96 15 
-1.31948 -0.3064 5.47853 158 154 153 
0.558803 3.21653 5.24793 86 68 2 
-0.16771 5.96847 5.0395 159 154 161 
0.445186 3.2493 5.23883 208 198 136 
0.749641 3.22016 5.37554 76 52 0 
-0.757032 3.33546 4.58698 159 154 148 
0.570015 3.21746 5.20831 107 85 28 
-0.120155 5.98952 5.11965 152 152 150 
0.444445 3.26975 5.23537 178 173 109 
-0.340223 -0.263315 4.50886 103 87 0 
0.494658 3.26661 5.23247 35 24 4 
0.0522971 -0.85285 5.11372 211 136 156 
0.655561 3.22706 5.23678 86 58 21 
0.655745 3.21367 5.18947 241 229 157 
-1.30144 -0.287101 5.46023 35 34 30 
-0.373822 -0.258102 4.55466 232 204 167 
0.663512 3.22769 5.19477 234 188 165 
-1.34625 -0.121913 5.37947 155 159 160 
1.27586 -0.609648 6.20403 131 120 98 
0.489116 3.3043 5.27372 33 15 11 
0.673568 3.26896 5.24761 211 162 157 
0.703328 3.25408 5.22764 21 0 0 
0.356821 -0.390855 5.17947 81 61 36 
-1.3584 -0.138934 5.43313 155 157 154 
1.3308 -0.487143 6.15309 43 43 33 
-0.351872 -0.155868 4.57303 157 146 114 
-0.413571 -0.228783 4.51755 77 42 0 
0.257972 3.26616 4.72875 173 151 130 
-0.201914 -0.193102 4.68318 128 116 78 
-1.36548 -0.159398 5.34385 131 136 140 
-0.23155 -0.264702 4.72062 130 108 69 
0.0794873 -0.268107 5.01717 176 162 113 
-0.456543 -0.169463 4.54467 255 245 173 
0.0950124 -0.281887 5.0274 60 41 0 
-0.359488 -0.191399 4.56305 151 145 97 
0.0874829 -0.286651 5.00291 76 64 22 
-0.390765 -0.198588 4.55871 144 129 90 
-0.414749 -0.20313 4.57067 67 34 0 
2.02818 4.03997 5.80076 95 79 63 
0.29524 0.0441382 5.16278 41 20 1 
-0.386595 2.28531 5.99638 44 44 44 
-0.501796 2.29355 5.91908 15 15 13 
-0.459171 2.26563 5.89417 38 38 40 
-1.92159 2.31289 4.50929 177 193 219 
0.316551 0.0358115 5.12381 40 18 0 
1.1298 3.2023 5.50719 57 30 0 
-0.189026 2.25612 6.02899 154 155 150 
1.00545 -0.0627437 5.37834 129 118 62 
-0.0631361 2.20108 6.10718 28 27 23 
0.592541 5.87264 4.57774 75 59 0 
-0.276252 2.27518 5.97928 128 128 126 
-0.227163 2.22139 6.04249 47 47 45 
-0.0932628 2.19622 6.06859 89 91 88 
-2.0273 5.91452 4.73222 31 86 125 
-0.129452 2.26632 6.06644 46 46 44 
-0.442598 -0.157009 4.51659 114 103 57 
-0.250013 2.22465 6.05632 17 17 15 
-0.0146162 5.9176 4.32773 247 255 205 
0.371668 -0.613237 5.21579 227 194 179 
0.756033 3.32873 5.26452 68 50 12 
-0.0500588 2.27012 6.07105 9 10 5 
-1.37918 -0.148295 5.33954 121 126 132 
1.98838 4.14922 5.71923 149 146 137 
0.0107454 5.88997 4.31511 255 252 206 
-0.338559 -0.16169 4.58978 136 128 92 
0.284958 0.0146665 5.10936 145 135 110 
-0.425061 2.23261 5.93218 57 56 52 
-1.22724 -0.173332 5.49066 132 135 144 
-0.425337 -0.229523 4.57682 123 87 3 
-0.425359 5.90253 4.15196 154 164 153 
-0.396425 2.2256 5.96548 69 69 67 
-0.22715 -0.274444 4.70868 26 9 0 
1.5258 -1.40919 6.64475 172 106 142 
-1.32853 -0.263519 5.43942 101 98 91 
-1.8096 5.87106 4.32826 167 209 225 
0.0789139 0.0344125 5.02644 30 13 0 
0.713379 3.26491 5.23528 222 197 177 
0.255095 0.0884884 5.16919 42 20 0 
-0.346909 -0.26711 4.56464 97 82 53 
-0.425379 -0.241628 4.54473 80 51 0 
-1.3333 -0.29405 5.46379 93 92 88 
0.690548 3.24307 5.21748 72 14 3 
0.674577 3.25889 5.24998 70 2 0 
0.669117 3.23158 5.18 72 21 0 
-0.479217 2.23163 5.93004 34 32 33 
-0.329506 -0.135138 4.58406 140 129 97 
-0.527719 2.23947 5.94158 16 17 19 
0.456669 3.28808 5.24537 18 21 0 
0.977089 -0.1022 5.41091 168 151 61 
-0.0766974 5.96783 4.51855 107 83 47 
0.56929 3.23779 5.20504 255 191 163 
0.304963 -0.397025 5.13213 73 44 36 
-0.0938185 5.95192 5.10994 123 121 124 
0.452282 3.27741 5.24247 89 93 32 
0.690492 3.21259 5.24118 150 129 100 
-0.316953 2.1958 5.98918 24 24 22 
0.391996 3.28674 5.23549 212 165 145 
-0.0231731 5.90248 5.06396 160 161 156 
-1.61715 5.89476 3.9507 44 64 88 
