ply                 
format ascii 1.0    
element vertex 1295
property float x    
property float y    
property float z    
property uchar red  
property uchar green
property uchar blue 
end_header          
-1.1488 2.96465 5.15377 173 156 136 
-0.179686 3.20527 5.11592 205 192 184 
0.642296 6.01409 4.59113 99 72 43 
-0.580829 6.15076 4.85746 111 125 108 
0.0745476 3.10627 5.02538 174 173 181 
0.0349286 0.144505 5.34071 158 131 86 
-1.3617 2.71115 5.24415 105 90 71 
0.0389635 0.132446 5.35403 70 49 6 
0.658803 3.19521 5.55378 110 57 39 
0.578487 3.1038 5.2999 225 204 111 
0.789817 3.15237 5.44304 204 61 55 
-0.49577 6.05542 4.76969 40 54 3 
-0.0216728 6.12322 5.03452 118 119 123 
-0.432086 5.99271 4.30691 35 46 40 
0.552574 3.14911 5.26366 108 68 58 
0.0262285 2.99339 5.63892 167 145 132 
-0.504946 6.12222 4.75309 127 130 109 
-1.58784 6.11917 4.29261 135 210 252 
-1.24003 6.05262 4.01095 182 221 255 
-0.622813 6.06472 4.64135 63 60 51 
-1.10087 2.92338 4.91901 52 35 27 
0.571602 6.09741 4.81256 96 81 52 
0.221676 3.275 4.76427 247 230 202 
-0.561055 6.10328 4.43594 166 178 106 
-1.5175 3.14852 5.41053 77 62 59 
-0.722529 6.11318 4.56175 94 116 93 
-0.760519 3.32265 4.70355 64 54 45 
0.532705 3.24751 4.935 173 158 139 
1.2907 3.25644 5.41085 104 68 36 
-0.113156 6.217 4.24453 46 51 45 
0.589782 3.3048 5.15447 85 55 19 
1.22902 3.26012 5.4673 52 22 12 
-0.147002 3.36446 4.9987 165 142 128 
-1.43703 2.80365 5.37214 105 93 81 
-0.707384 3.16034 4.96328 97 41 40 
0.813691 3.23579 5.18697 80 52 30 
0.0434028 0.470363 5.6325 178 139 108 
0.419953 3.27968 5.06571 180 170 134 
0.457671 3.18539 5.13285 190 189 109 
-0.0627754 6.16547 5.42444 4 8 11 
0.4461 3.16705 5.11786 101 51 24 
0.441542 6.18715 4.77338 189 81 45 
-0.101761 6.06603 4.35398 205 204 174 
-0.437804 6.02146 4.36043 141 149 134 
0.569216 5.99761 4.77971 200 190 95 
-0.698029 2.90204 5.17924 26 22 19 
0.990078 3.20522 5.70911 160 126 91 
0.0075368 6.07536 4.91741 174 170 167 
-1.27022 3.02609 5.01632 54 26 5 
1.49804 3.22485 5.95345 25 13 13 
-0.132974 3.1973 5.03067 187 188 208 
-0.409844 5.94411 5.3566 135 137 162 
-0.0138777 5.83565 5.20747 28 27 33 
-1.54306 5.9243 4.73551 197 204 210 
-0.336937 6.09564 3.95608 106 102 93 
-0.041045 5.91441 5.22399 155 158 165 
-0.126573 6.02344 5.30675 141 146 168 
-1.58869 5.92952 4.7133 93 102 99 
0.0530148 5.88843 5.03784 97 98 102 
0.0411836 5.89997 5.42146 143 134 119 
0.0179126 6.02882 5.1375 124 125 127 
-0.135349 6.10026 4.39241 81 77 66 
-1.01422 3.01311 4.92974 209 173 139 
-2.20408 1.79273 4.9158 205 180 199 
-2.35018 1.92701 5.1689 63 37 50 
-2.03766 5.94493 4.81572 7 66 96 
-0.742774 6.07595 4.77383 156 158 153 
-0.487272 5.87531 5.48119 248 247 227 
-1.71778 5.96357 5.02379 241 241 243 
-0.0273726 6.11468 5.1162 155 159 158 
-0.64821 6.17478 4.89828 139 159 100 
-0.574234 6.03753 4.77879 131 138 130 
-0.0764458 6.02917 4.98294 173 169 168 
-0.0791006 6.23263 5.17455 159 153 157 
1.97938 4.66916 5.68675 199 196 191 
-0.0799511 6.20512 5.11652 130 125 129 
-2.16388 2.41212 4.97833 115 187 235 
-0.534462 6.01486 4.69362 35 41 37 
-0.035722 6.01573 4.90585 142 140 143 
-0.0179104 6.03774 4.93395 151 149 152 
0.180603 6.01678 4.98849 22 16 18 
2.04215 3.3361 5.68507 188 186 174 
0.124668 0.521856 5.7608 164 157 111 
-0.887895 6.08691 4.5323 198 199 194 
0.412051 0.451069 5.78314 50 34 8 
0.233479 3.19502 4.58883 212 196 170 
-0.501156 5.94511 3.73728 48 43 50 
-0.431589 3.31818 4.45969 224 216 197 
0.937414 3.3395 5.22228 85 77 64 
0.0256356 2.5274 5.8047 164 165 160 
-0.425954 3.30279 4.47351 208 198 188 
0.509508 3.33679 5.04123 43 40 23 
-0.00862386 6.15422 4.93433 120 121 125 
0.390464 0.409439 5.91795 58 40 4 
-0.682275 6.05978 4.54467 115 129 94 
0.906451 3.3677 5.35954 217 188 144 
-0.483488 3.2213 4.40935 141 128 120 
1.22331 3.25102 5.37312 96 57 28 
-0.0128615 6.09557 4.83911 30 19 25 
0.5822 3.37018 5.25415 76 50 25 
0.567706 3.25088 5.07312 204 169 127 
0.76443 3.34549 5.33791 192 166 105 
-1.55517 6.16028 4.23127 106 196 233 
-0.0822313 6.1036 4.21092 180 180 172 
-0.615869 6.13369 4.59117 186 181 175 
-0.525841 3.23735 4.52776 77 64 47 
-0.0789066 6.13055 4.25206 19 22 15 
-1.14631 2.87489 4.98453 92 74 62 
-0.563299 6.00001 3.97446 178 222 251 
-0.47705 5.85365 3.89624 56 86 110 
2.05564 3.14573 5.83096 99 104 84 
0.753841 3.17599 5.17772 86 75 43 
-0.617694 6.08423 4.50681 179 185 125 
1.91774 2.94328 5.4597 200 201 185 
-1.37898 6.05903 4.13786 142 160 180 
-0.785502 3.38076 4.72383 30 19 23 
0.674229 3.19137 5.23456 220 194 159 
0.508042 3.20189 5.17411 74 46 34 
0.384873 3.24241 5.17276 202 186 153 
-1.04204 2.94316 4.86527 34 19 22 
-0.783321 3.36012 4.72906 203 195 184 
-0.796616 3.35265 4.70975 26 11 14 
-0.960492 3.3262 4.57823 221 215 193 
0.731726 3.20238 5.30911 244 205 174 
0.691223 3.18141 5.25338 63 45 31 
-0.770706 3.35986 4.748 51 46 40 
0.335993 3.20143 5.10525 182 167 148 
-0.324715 6.20172 4.6762 39 21 7 
0.0993851 0.0450121 5.30592 56 28 17 
-0.104616 6.05549 4.29461 80 80 68 
0.0321991 0.0454379 5.22993 158 141 111 
-0.862068 3.0044 4.97457 66 45 28 
0.0216279 0.022643 5.22854 73 50 19 
-0.786718 2.94454 4.85402 44 27 19 
1.10271 3.09555 5.47918 56 90 63 
-0.921092 3.04428 4.89015 23 7 7 
-0.781213 3.08705 5.03531 56 51 22 
2.10572 3.02251 5.93724 179 183 150 
-0.0702144 6.19417 4.67863 79 69 60 
-0.122635 6.12814 4.43056 117 122 90 
-0.756072 3.05174 4.95803 25 21 9 
0.0565895 6.15393 4.68593 238 183 56 
1.11757 3.1522 5.64818 218 185 82 
-0.18945 6.09189 4.39938 116 115 95 
2.09163 2.73835 5.75724 179 176 161 
1.0297 3.08448 5.52683 234 209 179 
-0.453663 6.02043 4.29332 134 132 109 
-0.186854 3.1982 5.08224 201 204 221 
0.653949 3.1949 5.54398 117 54 62 
0.971855 3.04146 5.46153 86 51 29 
-0.48613 7.07971 3.53 74 73 69 
-2.30208 2.47572 5.05985 174 166 189 
0.0387049 3.24026 5.22547 165 158 150 
0.226564 3.2638 4.74596 249 234 201 
3.69185 8.96078 5.66368 98 73 53 
0.709905 3.16006 5.1166 183 155 144 
-0.436398 5.9594 4.03489 107 122 151 
-2.32846 2.04192 5.10985 181 160 175 
-1.58346 6.02007 4.05489 148 156 177 
-0.110044 3.2255 4.80383 168 145 129 
0.488715 6.79752 3.96463 36 34 37 
0.0608997 0.105965 5.19796 76 56 19 
-0.00826594 5.78411 5.16152 29 29 41 
-1.26134 5.94053 4.7722 120 118 131 
-1.38437 2.72099 5.25379 241 230 212 
-2.22315 2.47544 4.99089 168 223 255 
-1.03636 2.99324 4.90809 214 183 154 
0.0429106 5.89616 5.07229 21 22 26 
-0.774311 3.07154 4.94231 99 79 54 
-1.46013 2.85057 5.44111 100 89 83 
0.784893 3.112 5.38398 204 62 50 
-0.904 2.98095 4.86543 31 14 6 
0.592041 3.07156 5.28819 97 88 71 
-0.138678 6.12936 4.14837 189 183 161 
-0.165173 -0.328364 4.81016 228 211 193 
0.565937 5.91423 4.48442 193 67 70 
0.0477607 2.90042 5.48713 105 88 70 
-0.500987 3.37499 4.74566 202 189 180 
-1.00759 3.17001 4.78406 92 37 32 
-0.34218 6.12362 3.98505 89 86 81 
0.81029 3.13283 5.41941 124 97 30 
-0.689171 2.88072 5.14113 29 25 24 
-0.494279 7.02791 3.62349 99 91 89 
-0.510647 6.0787 4.79371 67 78 44 
-0.596734 6.07822 4.66662 194 192 180 
-1.87119 2.97646 5.17102 66 67 72 
-0.393356 5.85623 5.27444 131 135 160 
0.0845829 0.0290472 5.2252 110 86 60 
0.254049 5.37245 5.78242 19 19 27 
0.0209889 -0.00676148 5.08578 212 189 145 
2.10177 3.4717 5.65188 154 145 128 
-0.774861 3.09552 5.10123 186 177 138 
0.0800651 6.07772 4.59843 156 83 50 
-0.0698134 6.16151 4.65582 70 60 48 
0.0719711 6.14145 4.52726 31 83 60 
-0.315285 6.15781 4.6084 194 171 137 
-0.563846 6.07947 4.43548 184 184 84 
-0.483096 6.2142 4.60017 163 168 136 
-0.19127 6.1464 4.70778 34 24 15 
-0.68139 6.095 4.52642 198 193 173 
-0.694449 7.1271 3.72848 125 121 112 
-0.486947 6.10161 4.62584 162 161 140 
-1.57127 6.2081 4.26764 106 196 233 
-0.697867 6.12662 4.59528 116 128 90 
-1.55233 6.02619 4.16671 130 193 224 
-0.910483 6.16829 4.59136 198 197 195 
1.90462 2.87371 5.75819 114 108 96 
0.191771 5.89212 4.88471 20 17 24 
-0.0269294 6.10794 4.99367 151 149 152 
-0.0704443 6.10344 5.0329 178 169 170 
-0.977677 5.96871 4.53176 174 175 170 
-0.0112051 5.98362 5.00648 148 153 149 
-0.000986774 6.00494 5.0436 88 92 91 
-0.548957 6.11708 4.12286 43 75 98 
-0.75857 6.08506 4.82144 52 58 48 
-0.0772774 6.00224 4.18683 64 64 56 
-0.229407 6.12881 5.257 26 28 27 
-0.0912107 6.1213 4.21661 45 47 44 
-0.128253 6.0688 5.34679 140 143 162 
0.0603294 6.08693 4.63242 238 193 48 
0.0185751 6.08277 5.58733 155 146 129 
-0.464468 3.3095 4.61686 215 203 189 
-1.65791 5.79895 4.88572 177 171 173 
-0.0344453 5.95467 5.31287 22 35 44 
1.94818 4.33436 5.72585 172 172 162 
0.407685 0.374596 5.73864 63 42 0 
1.20418 6.89306 3.66748 54 55 57 
1.95383 3.96104 5.59075 139 140 135 
2.02137 4.21116 6.02084 27 32 25 
1.98438 3.92953 5.66266 149 141 128 
2.06006 4.05269 5.93465 185 173 161 
0.139483 0.501498 5.6604 218 215 164 
2.27483 3.97999 6.22887 205 196 179 
-0.540551 6.93491 3.16473 54 53 51 
2.10655 3.49876 5.84153 196 188 175 
0.209002 3.30494 4.74107 182 165 149 
0.228985 7.02307 3.91135 35 35 35 
-0.0990456 7.12025 3.79583 57 53 52 
0.511182 3.29301 4.98026 41 34 18 
-2.27439 1.8613 5.01932 66 46 58 
1.22344 3.24754 5.36024 85 37 17 
-0.478438 3.31784 4.59398 216 203 187 
0.561907 3.25657 5.06646 207 167 108 
-0.466833 3.29191 4.61658 221 209 197 
-0.556848 5.95627 4.66353 150 156 146 
0.730472 3.17687 5.10534 225 199 164 
-0.0627502 7.10653 3.77201 46 42 41 
-0.528603 3.24215 4.53353 117 104 87 
0.699306 3.14463 5.0671 26 4 7 
0.752132 3.28382 5.33054 64 53 35 
-0.1313 3.31641 4.92206 173 146 125 
-2.29806 2.51556 5.19377 114 83 114 
0.722913 3.33413 5.50359 242 215 186 
0.688716 3.19002 5.25301 39 27 13 
0.504112 3.22027 5.20165 70 47 33 
-0.746259 3.30424 4.67366 52 49 44 
-0.762168 3.29563 4.65103 217 207 197 
0.329121 3.23739 5.16477 192 177 158 
0.339478 6.93134 3.78909 149 138 134 
0.330499 3.11749 5.16846 80 67 58 
1.02033 3.06927 5.48539 240 211 179 
0.0379882 3.2156 5.18641 214 202 186 
-0.187761 3.19767 5.07829 187 193 215 
0.0409469 2.56727 5.72632 179 156 162 
-0.908774 3.01017 4.83598 24 12 16 
0.402478 6.95946 3.80328 65 58 50 
-0.77137 2.90581 4.80463 48 30 30 
-1.15035 2.81879 4.43821 173 159 158 
0.0399472 -0.00595689 5.28023 254 231 163 
-0.849588 2.96952 4.92599 76 55 36 
-0.472373 3.17294 5.56066 46 14 17 
-1.02405 2.96928 4.87343 218 187 158 
-0.945805 2.99361 5.01511 35 26 29 
-1.03263 2.93069 4.84556 27 16 22 
-1.12418 2.85408 4.66353 19 4 7 
-1.65634 2.94409 5.05391 223 209 183 
2.64665 8.29417 6.23301 10 6 7 
-0.645187 2.82366 5.07323 224 204 177 
-0.11986 6.01533 4.06652 167 160 142 
0.20887 0.0150477 5.13116 55 15 16 
0.227416 3.3149 4.76567 109 82 53 
-1.27958 5.9654 4.79361 109 108 122 
-0.702722 6.36472 5.02332 58 66 53 
1.08889 5.24893 6.36064 11 15 16 
-0.261495 7.07767 3.60488 50 47 38 
-0.759882 2.93436 5.04669 79 66 60 
0.487009 2.51703 5.74706 58 43 40 
-0.404576 5.89657 5.30433 139 144 164 
-0.512839 2.99715 5.63904 89 72 64 
-0.500049 6.26981 4.60775 42 45 38 
-0.504829 6.23209 4.44654 96 101 94 
-0.415118 6.07211 3.85303 89 86 81 
0.967242 3.1386 5.62024 101 68 49 
0.976181 3.08948 5.43154 229 213 177 
1.1885 3.20465 5.70698 234 209 5 
0.990431 3.12339 5.44852 61 69 46 
-2.253 1.69147 5.22338 70 73 88 
0.804318 3.24346 5.60838 209 159 96 
-0.936429 2.97011 4.97622 33 27 31 
-0.426759 5.96389 4.08189 187 201 210 
-0.146483 6.17014 4.33083 235 226 209 
2.21704 3.72561 5.94045 206 196 187 
0.151874 6.84674 3.56979 42 39 30 
-0.782362 3.33124 4.70678 222 208 195 
-0.0659073 6.11516 5.05337 168 156 158 
-0.512619 6.05954 4.70915 194 190 165 
-0.0666286 6.88138 3.65174 52 48 47 
-0.00700494 5.94532 4.9767 108 113 107 
0.0201371 6.03021 5.14479 118 122 121 
0.212145 7.09563 3.9324 65 62 55 
0.194969 7.06941 3.90849 54 53 49 
-0.263409 7.11017 3.82063 66 62 61 
0.699661 3.20729 5.3111 247 213 188 
0.427159 7.02166 4.0446 25 23 24 
-2.31071 1.65215 5.09392 186 189 198 
-0.794058 3.33531 4.68912 24 10 7 
0.0755592 6.11053 4.62305 156 83 50 
0.677304 3.36986 5.52378 48 34 21 
0.374485 7.12095 4.17496 95 86 87 
0.415692 7.20632 4.26139 40 38 39 
0.387819 7.16587 4.22295 54 45 48 
-0.796058 3.37571 4.68189 195 180 159 
-0.119654 6.15966 4.37204 84 81 64 
0.753598 3.31938 5.37225 48 40 29 
-0.469304 3.27386 4.60989 212 200 188 
-0.108993 6.2634 4.31994 190 187 178 
1.97051 4.23677 5.74992 50 48 35 
-0.465106 3.30559 4.61058 215 203 189 
0.0143283 3.23134 5.10588 205 196 187 
0.556694 3.27864 5.09526 208 161 107 
-0.51135 3.31795 4.53734 118 107 103 
0.914886 3.35589 5.33358 223 185 114 
2.69722 8.54336 6.43172 17 11 11 
0.401945 0.560586 6.3896 196 171 71 
0.168462 0.495212 5.70139 113 126 83 
-0.462771 3.40059 4.58885 235 222 205 
-0.968077 3.12534 5.00356 30 17 24 
2.04675 3.97519 5.82499 50 42 31 
0.185733 0.445289 5.56915 189 202 174 
-0.367262 6.99979 3.41109 51 43 40 
-0.876275 7.48161 3.55036 175 174 172 
-1.12536 2.77388 4.3641 199 190 191 
-1.75669 2.99638 4.54179 146 209 242 
-0.773304 6.16589 4.81499 154 158 144 
-0.00179637 7.01485 3.77552 25 28 37 
0.862851 3.32765 5.2628 226 192 105 
2.00419 4.00175 5.75234 137 125 113 
-0.979025 7.13989 3.8752 44 42 53 
-2.18597 1.90949 5.16292 48 75 102 
-0.141206 6.14929 4.16299 200 194 170 
0.484297 2.49401 5.82372 155 137 127 
-0.799237 3.12152 5.53825 90 87 78 
-0.549766 6.99763 3.4382 159 151 149 
1.9672 4.56994 5.59206 203 196 186 
0.23608 7.01801 4.08679 17 20 25 
0.0579863 -0.0529084 4.86683 59 24 18 
-1.13452 2.97509 4.93013 23 25 24 
0.640543 3.3387 5.47272 103 84 67 
-1.06931 3.02282 5.07951 48 38 29 
0.256827 7.20445 4.29711 14 18 30 
-0.62024 6.04965 4.80004 148 165 85 
-0.119374 3.29436 4.8993 171 145 120 
0.502681 3.30906 5.00876 54 41 25 
-0.472729 6.14227 4.54717 142 148 114 
-0.547231 6.017 4.39115 185 188 85 
1.23359 3.32985 5.55411 51 24 15 
1.09243 3.19833 5.52652 107 57 32 
0.700587 3.24299 5.24506 46 27 29 
0.703927 3.25203 5.23974 125 110 115 
0.643504 3.19585 5.24505 26 22 0 
-0.668381 2.94708 5.26721 135 130 136 
0.648472 3.19138 5.27653 209 200 169 
0.672298 3.24091 5.23939 85 26 32 
0.685665 3.23966 5.23674 61 19 31 
0.675387 3.24416 5.22866 194 142 154 
-0.868019 3.05308 5.09089 79 60 46 
0.57479 3.22351 5.2422 194 171 127 
0.743848 3.2937 5.00963 255 249 237 
1.00238 3.2005 5.56969 86 89 72 
0.494853 3.245 5.22244 33 28 24 
0.465116 3.23455 5.24708 86 93 26 
0.588946 3.21935 5.23366 225 231 143 
0.520393 3.22708 5.25278 247 214 181 
0.554536 3.2136 5.26221 101 101 39 
0.56302 3.20579 5.2621 70 63 11 
0.486463 3.21133 5.24568 136 134 77 
-0.449901 3.19385 5.85292 142 107 101 
0.575207 3.21547 5.23116 191 174 118 
-1.16285 2.98095 4.86827 250 238 222 
0.744171 3.2593 4.96418 48 41 33 
0.584137 3.22202 5.24779 125 122 45 
0.4727 3.20237 5.2498 200 208 135 
0.395032 3.18933 5.2362 154 74 73 
1.22724 3.31942 5.46373 71 30 8 
1.06885 3.19442 5.47625 125 68 0 
-1.63613 2.82492 4.97845 254 255 248 
0.761446 3.32023 5.30569 55 41 28 
0.483979 3.23298 5.23413 126 125 69 
0.663763 3.20967 5.25457 87 62 42 
0.682277 3.21428 5.26832 152 144 123 
0.823845 3.20306 5.5277 236 221 192 
1.06906 3.18266 5.45906 124 61 10 
0.474575 3.21556 5.25596 198 211 105 
-0.187516 3.20578 5.11225 174 170 171 
0.752819 3.26314 4.95752 213 203 178 
0.733937 3.27502 4.97619 253 241 225 
0.690414 3.1994 5.27301 31 25 29 
-1.66349 2.83978 5.02045 16 25 32 
-1.57616 2.90786 4.97641 223 225 222 
0.559184 3.21914 5.24087 108 86 37 
0.490733 3.23938 5.22975 193 189 164 
0.810804 3.23111 5.56109 202 172 122 
-0.782491 3.08216 5.03631 98 97 76 
-0.894052 3.07612 5.08122 34 16 12 
0.756619 3.26877 4.96692 214 204 179 
0.444773 3.19398 5.22535 196 208 108 
0.671405 3.2004 5.25648 154 149 120 
0.638225 3.20326 5.28568 85 85 31 
-0.792518 3.12064 5.01205 81 69 53 
0.656564 3.21719 5.58582 89 40 43 
0.740253 3.30043 5.27218 192 173 143 
-1.63449 2.81824 4.96383 252 255 246 
-1.66015 2.8332 5.00816 16 25 32 
-0.676903 2.93764 5.27148 180 174 176 
-0.737017 3.02331 5.21271 131 130 86 
0.991489 3.21453 5.72588 104 72 51 
0.731126 3.31231 5.24268 177 153 115 
1.03596 3.21106 5.72643 236 214 191 
-0.680419 2.94914 5.2867 204 196 194 
-1.65454 2.84575 5.00891 173 182 177 
1.00064 3.22306 5.61029 48 59 51 
0.654122 3.22988 5.60774 76 35 39 
0.680795 3.26112 5.2356 34 8 17 
0.990367 3.21103 5.71622 117 86 68 
-0.880371 3.0661 5.17153 102 76 75 
-1.19413 2.93335 5.06423 87 77 76 
0.97998 3.20308 5.60699 215 192 174 
0.500168 3.22798 5.25601 245 239 203 
-1.21373 2.9474 5.06567 173 160 141 
0.338505 -0.381314 5.23836 208 196 182 
0.332671 -0.37987 5.22804 95 83 71 
1.34698 -0.478371 6.23774 36 39 30 
2.2994 1.74707 5.86789 153 156 145 
-1.33765 -0.267611 5.48142 155 154 159 
1.46299 -0.884826 6.4092 62 63 67 
-1.34202 -0.267158 5.49895 175 173 176 
1.40041 -0.691903 6.30419 162 164 161 
0.164299 0.354362 5.09576 139 128 108 
0.710436 3.25725 5.23028 113 98 93 
0.51342 3.22777 5.22943 76 30 32 
1.30306 -0.4738 6.22867 52 56 57 
0.00369733 0.00685472 5.03746 181 158 117 
0.49456 3.28705 5.22937 138 124 121 
0.159387 0.352145 5.10737 116 105 87 
0.643245 3.23666 5.24424 237 216 189 
0.679773 3.24791 5.25266 59 9 12 
0.650399 3.22181 5.22943 237 209 188 
1.36236 -0.661751 6.3108 85 83 88 
-1.76517 -0.1902 5.22224 190 198 200 
1.32586 -0.48609 6.24197 19 18 24 
0.326291 3.30073 5.24267 130 120 121 
0.0656457 -0.0479077 5.05594 38 7 22 
0.108249 -0.0128057 5.10477 25 13 0 
0.502074 3.25273 5.23124 69 35 34 
-1.2862 -0.291057 5.46849 143 147 146 
0.492506 3.27498 5.23297 50 38 26 
0.0927613 0.395493 5.10704 138 128 116 
0.508165 3.23483 5.23342 88 31 14 
0.323686 3.30254 5.24118 154 139 134 
0.492074 3.25015 5.23263 38 19 21 
-1.30453 -0.249142 5.43926 147 142 139 
0.488414 3.28903 5.22825 137 119 107 
0.676274 3.26753 5.24709 47 27 29 
0.0235269 -0.0242441 5.07113 40 23 16 
0.297694 3.21068 5.29396 25 16 37 
0.378912 3.28805 5.22962 188 161 152 
-0.177629 2.20633 6.04153 32 31 29 
-0.205204 2.20544 6.02392 18 17 12 
-0.21324 2.203 6.05305 13 12 7 
-0.336838 2.2561 6.00914 37 37 35 
1.98186 3.54799 5.4769 157 159 145 
-0.27446 2.26096 6.01878 134 132 133 
-1.46552 3.29051 3.45234 195 221 244 
1.95476 4.02671 5.53697 136 135 115 
1.95198 4.04895 5.53601 180 182 171 
1.96846 4.23142 5.51938 101 94 84 
1.98482 3.17078 5.50189 60 57 38 
-1.38753 5.57442 4.33247 187 198 202 
-1.36399 5.59474 4.37757 147 154 162 
2.12852 2.83508 6.2419 145 139 127 
-1.93787 1.45052 4.45751 161 141 150 
-0.437566 3.30619 4.43638 89 76 59 
0.0206758 3.2177 5.06315 139 144 186 
-0.723823 5.67406 4.14215 112 113 117 
0.236029 0.374497 4.85643 163 129 104 
0.690644 3.25183 5.2699 53 26 15 
0.48341 3.28483 5.28137 56 41 22 
0.0184355 5.68552 4.26156 106 77 35 
0.151519 5.62048 4.15786 113 87 26 
-1.0491 2.96427 4.83429 84 59 39 
0.50675 3.24633 5.22173 79 44 25 
-0.765019 3.27422 4.60641 42 25 5 
0.491441 3.24948 5.2365 57 43 16 
-0.753969 3.31918 4.63763 22 13 6 
0.494046 3.2374 5.23723 123 105 69 
0.72819 3.20995 5.34385 237 229 182 
-0.309747 2.21179 5.97947 41 42 37 
-0.00125416 2.18152 6.11253 53 53 53 
0.740819 3.21087 5.39514 133 114 0 
-0.144831 2.19314 6.0725 71 67 66 
-0.47938 2.20821 5.92855 43 43 41 
-0.403663 2.20061 5.98652 46 48 45 
-0.45891 2.19334 5.92175 51 52 47 
-0.894306 3.05434 5.19409 166 136 110 
0.128483 5.64601 4.01812 139 156 102 
-0.191024 2.25276 6.0464 154 153 148 
-0.146776 2.25593 6.07762 71 70 68 
0.150137 0.401544 4.94152 172 127 70 
-0.203983 2.27085 6.06396 40 38 39 
-0.752022 3.32732 4.61274 161 149 137 
0.20218 5.59094 4.12072 155 108 28 
-0.0733219 2.26841 6.08996 51 47 44 
-0.0580628 2.26757 6.10169 47 43 40 
-0.391335 5.62177 3.98603 165 168 115 
-0.453598 3.22405 5.90719 143 96 66 
0.499741 3.27523 5.26554 151 119 106 
-1.0781 5.60095 4.4016 108 112 113 
2.07441 1.1017 5.63057 125 127 105 
-0.449497 5.62374 4.11077 192 190 175 
0.0282836 5.63379 4.84506 117 114 121 
1.91112 3.03351 5.25601 196 189 170 
0.0301161 5.66179 4.85925 121 117 116 
-0.419575 3.30558 4.42453 167 153 140 
-0.684892 5.64932 4.3372 143 157 131 
0.0713646 5.65612 4.5641 162 159 150 
0.0707781 5.65084 4.57281 172 169 162 
0.0973625 5.62482 4.64452 158 159 161 
0.583862 3.22086 5.21963 124 107 15 
2.03526 1.28111 5.55765 115 120 98 
0.516479 3.21665 5.23949 244 212 137 
-1.35064 2.65925 5.16115 200 187 178 
-0.131539 2.20644 6.07545 53 51 52 
-0.372418 0.0922252 4.45723 83 53 3 
0.66886 3.25184 5.25411 204 149 129 
1.05122 0.335946 5.27068 119 84 0 
-0.36277 2.28621 6.01119 143 143 141 
0.623643 3.23829 5.24963 233 194 115 
-0.706958 2.9403 5.26174 186 168 144 
-0.176281 0.547718 4.82962 197 147 94 
-0.554722 5.60967 4.30451 135 142 126 
0.456097 3.26711 5.23599 88 92 16 
0.709189 3.24494 5.22924 234 210 186 
-0.222883 -0.240237 4.73728 251 229 120 
-0.0430268 2.68596 6.18773 155 150 157 
-1.04036 2.9673 4.82758 202 179 145 
-0.971827 2.97639 4.86173 84 55 39 
-0.053021 2.26469 6.08484 47 43 40 
-0.272986 2.28167 6.00236 44 43 41 
-0.211935 2.2025 5.99585 62 61 56 
-0.341385 2.19501 6.00585 20 20 18 
2.0556 2.89323 5.63521 126 110 85 
0.312858 3.20239 5.31406 232 209 175 
0.477023 3.20491 5.30831 220 205 146 
-0.358959 5.59684 3.71573 73 100 119 
0.589473 -0.180802 5.52254 70 55 22 
2.03455 1.28291 5.57654 125 129 106 
0.509426 3.23332 5.24155 91 46 17 
2.0965 1.09699 5.69367 176 171 142 
-1.93853 1.43633 4.47449 102 91 95 
0.63522 3.24644 5.26989 245 186 152 
0.311178 3.31768 5.28917 137 123 110 
-0.0668244 5.64153 4.22157 36 20 0 
0.489289 3.28007 5.26028 56 41 22 
-0.450033 5.61815 4.06923 172 174 124 
2.11598 3.21199 6.0465 44 48 15 
-0.427629 3.29478 4.4103 99 84 65 
-0.38103 5.58243 4.25291 46 44 32 
-0.398461 5.58465 4.27026 172 168 159 
-0.602914 5.65431 4.32493 153 156 137 
-0.00522823 5.67236 4.80861 114 110 109 
0.22049 0.37554 4.90354 199 162 107 
-1.37501 5.58993 4.36388 153 162 169 
-1.39854 5.58717 4.34643 216 227 229 
2.30779 1.72577 5.74058 153 146 120 
-0.306242 2.20864 5.96886 30 31 26 
0.718504 5.55368 4.13769 128 106 23 
-1.96466 1.65273 4.47059 51 24 33 
0.194347 5.604 4.14019 155 108 28 
-0.922352 3.0562 5.24732 86 56 28 
-0.00233069 5.65965 4.64831 184 177 159 
1.86866 3.05008 5.27369 222 212 187 
-0.337277 5.58242 4.28946 49 56 4 
-0.508617 2.22109 5.89977 58 58 56 
0.45606 5.59285 4.18152 140 125 58 
-0.392115 5.62392 4.01776 178 176 125 
-0.367789 0.0924065 4.44339 77 49 2 
0.580533 3.22579 5.23126 127 98 22 
0.196684 5.61104 4.19406 148 112 0 
-0.703487 2.93771 5.2498 186 168 144 
0.515243 5.5626 4.02882 134 110 14 
-0.172572 0.547433 4.81722 208 159 103 
0.65626 3.26686 5.31295 192 143 126 
-0.933531 3.33444 4.53041 170 156 143 
-0.115876 2.18353 6.03619 89 88 83 
-0.238181 2.17755 5.99216 99 99 91 
0.0306801 5.63523 4.8531 120 119 124 
-1.3716 5.60527 4.39239 147 154 162 
-0.272696 2.19999 6.02358 61 60 58 
-0.0869833 2.18852 6.06289 10 10 10 
-0.501695 2.2167 5.88245 46 46 46 
2.07404 4.11156 5.68781 33 29 17 
1.95085 4.05732 5.55224 171 173 162 
1.96713 4.00332 5.5359 38 35 18 
2.23392 1.71624 5.76242 43 40 23 
-0.333173 2.19147 5.98346 41 41 39 
-0.452117 2.19461 5.89422 41 41 39 
-0.499714 2.19729 5.90711 56 56 54 
0.307474 3.30677 5.2849 168 151 141 
-0.200005 -0.189098 4.69992 186 167 88 
-0.180795 -0.15141 4.82892 161 135 112 
-0.0354162 5.69652 4.78393 113 106 98 
-0.287992 2.21303 6.00549 136 136 134 
0.138052 0.100606 4.97983 75 45 17 
-0.335864 2.25673 5.99988 52 52 50 
-0.316713 2.25607 6.01747 18 18 16 
2.30611 1.73049 5.77089 201 190 168 
0.484983 3.28969 5.28878 37 18 3 
-0.453764 5.60056 4.33495 153 162 115 
-0.49776 2.2744 5.87389 27 26 22 
-0.426332 5.60854 4.34537 146 151 131 
-0.760703 3.33359 4.6286 161 149 137 
0.577992 3.24125 5.27795 235 212 119 
0.503285 3.24171 5.26131 92 42 15 
-0.751905 3.30999 4.62144 24 13 7 
-0.274124 2.26588 6.04418 67 65 66 
-0.350738 5.59944 4.26112 187 186 158 
-0.125289 2.25595 6.05222 26 26 24 
-0.250683 2.27635 6.05318 25 24 22 
2.32192 1.72085 5.76413 164 153 123 
-1.14533 -0.0263299 5.41125 146 143 138 
-0.280492 2.2866 6.02912 44 43 41 
0.484859 0.38075 5.14966 90 64 15 
-0.337591 5.63683 4.22224 29 33 16 
-0.317541 5.60398 4.14862 207 207 199 
-0.334737 5.60979 4.12504 61 56 37 
-0.445329 5.6106 4.05543 182 186 125 
-0.46973 5.63117 4.07123 128 135 91 
-0.954066 3.07939 5.31998 79 52 23 
0.188931 0.411236 4.85743 199 158 104 
-0.709735 2.94724 5.29566 209 188 159 
-0.196447 2.21172 6.07381 155 154 149 
2.25543 1.55619 5.76434 171 166 134 
-0.0406605 2.68109 6.17667 162 157 164 
-1.93809 1.63969 4.44007 168 147 162 
-0.636867 -0.428143 4.70118 255 248 206 
-0.0308706 2.67226 6.14259 162 157 164 
0.661359 3.21773 5.30016 222 172 145 
0.499174 3.24468 5.27441 92 42 15 
0.48927 3.25565 5.2698 76 52 28 
2.22803 1.70664 5.80338 153 143 116 
1.98862 3.36329 5.24114 145 145 133 
2.23282 1.5764 5.69818 43 39 10 
2.2319 1.56775 5.78037 185 180 151 
2.21319 1.56063 5.77112 22 25 4 
2.25998 1.54291 5.7937 42 39 22 
-1.93098 1.56089 4.43369 185 166 172 
1.96686 4.00693 5.55189 38 35 18 
1.96441 4.1357 5.53101 27 23 14 
-1.89977 1.44845 4.49109 183 164 168 
0.594092 -0.179216 5.50003 61 45 22 
-1.94442 1.44469 4.46495 188 179 184 
-1.96032 1.4413 4.50987 77 58 64 
2.18893 0.878078 5.71589 164 159 129 
-1.09169 5.60855 4.41602 95 99 102 
0.354429 0.525894 5.30128 233 172 66 
0.130661 5.5847 4.65139 154 148 148 
-0.40643 5.59296 4.28114 182 178 169 
-0.335815 5.61986 4.20838 59 61 40 
0.215499 0.374411 4.91486 190 156 95 
-0.323313 5.62225 4.12756 160 157 140 
-0.280908 5.55816 3.8416 156 154 141 
-1.0345 0.297359 4.50793 201 167 93 
2.30615 1.72956 5.75759 201 190 168 
1.15208 0.351552 5.12545 173 134 79 
0.687919 3.27674 5.22796 56 22 10 
0.361503 3.30766 5.28879 190 167 133 
0.637605 3.31505 5.43584 54 25 21 
0.481522 3.29575 5.26206 165 150 129 
-0.00653676 5.66613 4.01496 122 128 90 
0.497385 3.27014 5.22962 56 41 22 
-0.49744 2.20806 5.8761 37 37 37 
-0.267272 2.20389 6.10782 70 69 64 
-1.02736 2.95293 4.87116 79 56 42 
0.496626 0.314412 5.20616 108 84 24 
0.160644 0.406285 4.89336 199 160 93 
-1.95346 1.63934 4.4648 177 160 176 
0.307715 5.48842 4.4252 42 30 14 
-0.591838 5.64102 4.30833 179 182 163 
-0.308199 2.25511 5.99169 56 56 54 
-0.40783 5.57827 4.30652 144 149 127 
-0.0602426 5.66962 4.74587 146 139 146 
-0.326571 2.27073 5.97026 33 33 31 
-0.244161 2.26612 6.03367 26 25 23 
-0.00119495 5.65887 4.82277 139 137 142 
-0.00544749 3.23678 5.14962 152 151 183 
-0.219268 3.28947 5.04204 167 133 132 
-0.410099 2.27093 6.02309 37 38 33 
0.0771341 5.63091 4.56867 88 87 85 
1.98955 4.08821 5.5405 60 64 49 
-0.692944 -0.444081 4.83314 229 220 177 
2.23624 1.56866 5.79115 177 171 139 
-0.351936 -0.26013 4.60625 224 198 123 
2.16092 1.11671 5.82533 45 41 14 
2.06863 1.10599 5.72271 132 135 114 
2.14641 1.11335 5.76703 188 185 154 
2.14269 1.13923 5.70083 208 199 166 
2.32404 1.62561 5.76805 71 73 51 
0.501436 0.38632 5.13523 67 35 24 
0.0677481 5.65928 3.81888 235 226 187 
-0.058787 5.6196 4.19253 64 41 7 
-0.823921 3.04087 5.01171 83 52 24 
-0.822854 5.66225 4.21271 174 174 176 
-0.747022 3.26119 4.56531 42 25 5 
-0.758833 3.30916 4.66338 188 177 159 
-0.336071 0.130545 4.51444 160 148 98 
-1.82557 5.61135 4.46954 9 35 58 
1.95134 4.13602 5.52388 179 179 167 
-1.33866 3.36801 3.48188 246 254 255 
-0.0502024 5.68535 4.78466 165 159 161 
-0.308571 2.19315 5.98149 34 35 30 
0.590714 -0.180121 5.51421 70 55 22 
2.00054 4.11955 5.59768 96 94 82 
-0.775013 3.33844 4.65003 185 173 157 
-0.0782564 5.71326 4.80876 151 147 144 
0.0857945 5.60882 4.45301 30 27 22 
0.083618 5.60395 4.49373 172 163 156 
-1.93445 1.44452 4.52415 92 48 63 
-0.742717 3.15632 4.84566 98 22 6 
0.0433185 5.65522 4.55324 115 111 108 
-1.85832 1.63443 4.42796 203 173 185 
-0.345573 5.62813 4.151 61 56 37 
-0.489238 5.65974 4.07561 116 123 105 
2.1703 1.6253 5.72318 77 69 46 
0.209356 5.59864 3.97434 96 122 49 
0.298251 5.50908 4.45416 37 31 17 
-0.273383 2.26674 6.03448 45 43 44 
-1.82551 2.15672 4.37499 177 195 215 
0.453853 5.60567 4.19509 112 96 34 
-0.250769 2.27279 6.06311 27 26 24 
-0.770865 3.28435 4.62326 34 16 2 
0.731507 3.19493 5.26442 242 229 187 
-0.0310269 5.67567 3.91505 232 220 196 
-0.767595 3.32619 4.6232 186 173 154 
2.24441 1.15661 5.84826 53 52 31 
-0.816296 3.03389 4.99367 76 44 19 
-0.803221 5.62467 4.16166 156 157 159 
1.9213 3.58311 5.32908 83 79 67 
0.0909752 5.56086 4.06717 74 54 27 
2.11794 3.24569 6.0601 56 64 40 
-1.86994 1.63475 4.44453 203 173 185 
2.21508 2.05526 5.67648 42 47 27 
2.2323 1.85358 5.69281 48 49 31 
-1.30624 3.35232 3.42467 243 253 255 
2.20995 1.554 5.73586 29 38 17 
2.25621 1.538 5.77335 74 69 50 
2.02855 4.0396 5.6552 63 59 50 
0.507772 0.385964 5.11221 59 30 24 
1.95783 4.12165 5.51398 27 28 23 
-1.8363 5.62443 4.49058 9 35 58 
-1.07336 5.58842 4.38426 93 97 100 
-0.344949 0.126502 4.53145 185 172 119 
-0.311173 0.119319 4.50479 178 166 108 
-0.67992 3.12387 4.97737 129 77 64 
-0.745587 3.30444 4.60699 23 12 8 
-0.289159 5.58135 4.17404 27 41 16 
0.708917 3.22461 5.21958 255 232 208 
0.178063 5.59432 3.98796 201 199 150 
2.23441 1.58288 5.73947 43 44 13 
-0.384434 -0.27042 4.60208 118 91 44 
-0.453793 5.60157 3.99845 124 133 116 
2.22309 1.68604 5.74871 213 194 161 
2.23329 1.70989 5.73927 79 73 51 
2.30087 1.72631 5.72604 203 188 165 
-0.433818 5.6228 4.1031 212 208 181 
-0.0231563 5.62447 3.88739 52 40 26 
-0.376395 5.56985 4.24395 43 41 29 
0.402559 5.63099 4.35394 122 105 87 
-0.138285 2.26525 6.07231 102 101 97 
0.00217767 5.64383 3.98586 136 138 101 
-1.94457 1.56321 4.44854 160 148 158 
-0.80366 3.29462 4.52116 67 61 61 
-1.91367 1.43905 4.4918 109 82 91 
-1.3282 -0.295384 5.54874 150 145 139 
-1.84111 1.66322 4.51795 69 87 109 
1.93709 3.77786 5.30142 107 109 98 
-0.330469 0.110233 4.50493 103 79 45 
-0.770088 3.28267 4.61046 59 44 25 
-0.741245 3.29802 4.5522 200 188 164 
0.331359 3.19188 5.27005 204 182 145 
2.0681 4.08214 5.63104 26 29 20 
1.99722 4.11193 5.5924 50 52 41 
-0.0505595 2.67 6.19409 176 172 169 
-0.821151 5.65605 4.19769 202 201 199 
-0.509708 5.61783 4.06878 203 201 188 
-0.115486 5.65954 4.06023 18 17 0 
-0.0349162 5.63198 4.03573 26 20 20 
0.08206 5.62592 3.77698 238 229 190 
-0.772293 3.29715 4.67201 216 199 173 
0.697473 3.24106 5.41372 230 220 184 
2.23369 1.58745 5.75707 48 42 16 
-0.474637 5.6478 4.05164 112 117 85 
2.22156 1.71914 5.76679 33 35 22 
-0.466374 5.63838 4.07386 190 198 115 
1.9592 4.0815 5.4344 32 32 32 
1.95465 4.03554 5.48493 164 166 155 
1.96975 4.03114 5.56018 183 182 164 
-1.0279 2.93417 4.76242 38 29 30 
2.00598 3.70845 5.67135 173 171 158 
-0.0424313 5.74821 4.92689 127 123 120 
-0.720387 3.16759 5.07466 97 21 25 
-1.95188 1.44582 4.52128 87 41 54 
-0.932849 3.3076 4.52389 240 215 195 
-1.08641 2.98233 4.88738 27 23 22 
-0.0425733 2.76279 6.20266 177 160 168 
-0.779385 3.17607 4.94158 105 31 20 
0.370061 3.19258 5.26382 223 201 162 
-0.100052 5.69863 4.78648 50 33 23 
2.15765 3.23385 6.16109 212 198 169 
2.09868 3.86804 5.72996 44 41 22 
-0.716025 5.63739 4.09713 206 203 196 
1.97565 4.03838 5.5943 189 187 175 
-0.394001 -0.275301 4.65334 153 118 52 
2.09372 1.50972 5.60925 196 189 163 
2.1008 1.54411 5.59844 37 35 20 
2.16322 1.6049 5.69759 40 31 22 
2.22638 1.8479 5.63402 44 48 31 
1.99753 4.12318 5.62317 36 39 28 
1.98095 4.07434 5.60354 19 25 11 
-0.347233 -0.254319 4.58038 191 163 56 
2.15563 3.16837 6.16172 204 196 159 
1.72103 3.16406 5.33922 193 144 111 
-0.792492 3.33773 4.65528 187 175 151 
2.14577 1.60624 5.68548 215 201 162 
0.610326 0.419376 5.0533 18 10 8 
-1.03312 3.02181 4.81307 35 14 0 
-1.28666 -0.386313 5.69678 180 159 142 
0.139523 5.55099 4.62937 142 137 134 
2.17175 1.55993 5.7227 211 196 173 
-1.89796 1.63211 4.4836 179 146 155 
-0.194399 2.20812 6.03869 22 21 16 
-0.140629 2.1829 6.02914 141 140 138 
-0.336483 2.19292 5.99611 20 20 18 
-0.267865 2.25862 6.00428 134 132 133 
2.2214 1.5501 5.82923 168 168 144 
-1.41911 5.63857 4.44882 163 172 181 
-1.44313 5.63929 4.43117 187 198 202 
2.09151 1.10116 5.78786 142 140 119 
-0.436022 3.30551 4.43482 89 76 59 
-0.483699 5.65191 4.41091 140 151 109 
0.0603179 5.70489 4.70889 144 145 149 
-0.345596 5.65934 4.26651 167 171 148 
0.267124 -0.180402 5.09483 219 204 165 
-0.0459465 5.67584 4.09437 35 25 13 
0.496045 3.2458 5.22463 57 43 16 
0.968284 -0.0679913 5.35741 60 33 0 
-0.223143 2.2112 6.0328 73 72 67 
-0.231598 2.20694 6.00469 35 35 27 
0.000880934 2.18133 6.11634 53 53 53 
-0.323967 2.20894 5.96147 33 33 31 
-0.137522 2.19035 6.05192 71 67 66 
-0.263026 2.19288 5.99985 71 70 68 
-0.28233 2.19555 6.00287 68 68 68 
-0.491388 2.2066 5.89252 96 96 96 
0.648639 3.21879 5.284 94 42 29 
-0.187721 2.25141 6.03691 154 153 148 
-0.197173 2.26229 6.04687 56 54 55 
0.165815 5.67688 4.28958 157 119 0 
-0.0490965 2.26383 6.07608 47 43 40 
-0.439282 5.69888 4.096 165 168 115 
-0.452952 3.22021 5.87232 129 84 53 
2.07008 1.10138 5.73183 125 127 105 
0.0111041 5.68807 4.95827 155 157 154 
-1.93612 1.45655 4.54799 163 138 142 
-1.34497 2.6808 5.1771 216 204 192 
-0.432944 3.29793 4.4059 171 158 139 
-0.730693 5.71428 4.43361 143 157 131 
0.0348029 5.72456 4.6689 162 159 150 
1.68461 0.482033 5.55717 146 139 120 
-0.0592712 2.19858 6.05801 57 57 55 
-0.933035 3.33338 4.52868 170 156 143 
-0.145359 5.63732 4.5843 172 155 129 
-0.0376547 2.26612 6.0855 76 75 71 
2.22758 1.16629 5.93503 168 168 144 
1.86129 2.5722 5.45201 190 185 165 
-0.188588 2.27422 6.03998 132 131 126 
-0.0150543 2.2611 6.09943 29 28 24 
-0.0242863 2.25798 6.09153 37 36 32 
-0.462154 2.27637 5.91526 32 32 30 
-1.86963 2.28447 4.46215 131 145 184 
-0.213128 2.20333 6.0047 62 61 56 
2.19932 1.57095 5.80561 172 167 148 
-0.756097 3.31617 4.65694 172 162 150 
2.13373 1.15415 5.82261 175 175 147 
2.15152 1.14655 5.86634 141 135 111 
-1.9796 1.45126 4.52144 173 158 165 
0.703382 3.26507 5.25102 53 30 12 
-0.751101 5.70675 4.19917 198 199 194 
0.967714 -0.0706956 5.38087 57 28 0 
0.0367815 5.71528 4.67071 172 169 162 
-0.724463 5.70381 4.42253 161 170 139 
-1.1381 5.6699 4.51064 95 99 102 
-1.43422 5.6604 4.47153 153 162 169 
-1.44976 5.64846 4.44026 216 227 229 
-0.0520007 2.18623 6.08064 84 84 84 
-0.240608 2.21259 6.02961 73 73 65 
0.740796 3.21205 5.39782 133 114 0 
0.160125 5.67436 4.2437 155 108 28 
-0.0416258 5.73098 4.75888 184 177 159 
0.29595 -0.380563 5.19161 70 54 41 
-0.425321 5.65698 4.42553 43 53 1 
-0.394069 5.65323 4.38958 117 129 105 
-1.8727 5.66897 4.54192 6 42 68 
-0.327964 2.18984 5.97351 41 41 39 
0.336358 -0.380921 5.28021 77 66 36 
-1.25033 -0.365753 5.6396 130 112 100 
-0.0517325 5.74261 4.91745 169 167 168 
-0.15165 5.76227 4.89439 67 50 30 
-0.286929 2.21294 6.00721 136 136 134 
-0.331152 2.25507 5.98904 52 52 50 
0.281543 -0.167097 5.1154 100 77 25 
0.494337 3.28094 5.25924 37 18 3 
-0.751339 3.32702 4.60725 161 149 137 
-0.263969 2.26209 6.01924 67 65 66 
-0.237321 2.26395 6.07537 34 33 29 
-0.278993 2.27516 6.00249 146 146 146 
-0.237536 2.27068 6.01096 25 24 22 
-0.124756 2.26457 6.05449 18 20 15 
-0.0600437 2.26317 6.0831 155 151 148 
-0.740798 2.97652 5.31463 50 33 23 
0.504523 3.26756 5.24567 171 139 126 
-0.0524462 2.26705 6.08932 63 62 58 
-0.498272 5.69409 4.17626 182 186 125 
-0.508952 5.69331 4.16117 128 135 91 
2.20061 1.57296 5.82519 172 167 148 
-0.184594 2.2072 6.04105 155 154 149 
0.685755 5.62974 4.2485 129 109 46 
1.68426 0.478822 5.54291 167 159 140 
-1.927 1.45194 4.53483 176 165 169 
-1.90781 1.65918 4.54505 124 94 106 
2.06751 1.1042 5.7485 144 147 126 
-1.97208 1.56223 4.50022 181 162 168 
2.22472 1.16247 5.91731 190 182 161 
-1.99156 1.64606 4.52323 168 147 162 
-0.414636 5.6956 4.11049 79 75 48 
-0.652383 -0.424149 4.74452 255 252 206 
1.98178 2.33338 4.96411 39 44 22 
-0.747959 3.31183 4.61476 22 13 6 
2.25037 1.69925 5.86344 184 173 151 
-0.868662 5.71958 4.30297 118 119 123 
-0.571947 5.70593 4.22443 150 155 132 
-0.489072 5.69394 4.21304 200 199 181 
-0.372295 2.27224 5.97914 27 27 27 
1.14018 0.339461 5.17172 163 119 56 
-0.116747 2.20301 6.08034 33 32 30 
-0.309981 2.25621 6.00253 56 56 54 
2.23243 1.14612 5.91662 184 173 143 
0.328155 -0.380649 5.229 112 91 70 
0.0851147 5.66615 4.71242 106 107 111 
0.125015 5.62163 4.76072 95 95 95 
-0.229801 -0.246398 4.75287 255 246 140 
-0.0330508 5.71942 4.91989 139 137 142 
-0.109528 2.25825 6.08152 54 55 50 
-1.42248 5.64428 4.45647 163 172 181 
2.17207 1.13613 5.88498 181 176 144 
2.25783 1.54163 5.83232 42 39 24 
-0.984942 2.98824 4.91269 51 27 17 
-1.14885 -0.026186 5.41172 146 143 136 
-1.99598 1.44517 4.53956 174 172 177 
-0.305251 2.19205 5.97405 34 35 30 
2.30515 1.74111 5.86153 207 196 174 
-0.759683 3.3279 4.61612 185 173 157 
0.370691 3.29619 5.26388 194 170 136 
0.320886 3.28669 5.23859 186 162 136 
0.307694 3.31411 5.29355 150 134 121 
0.982273 -0.0936225 5.40005 238 213 33 
-0.205554 -0.24068 4.68441 255 246 153 
0.338848 -0.379734 5.29198 71 56 33 
-0.385848 5.69854 4.25548 61 56 37 
-0.216088 -0.237316 4.72964 245 222 116 
-0.162141 -0.466466 5.11039 123 84 85 
0.25783 5.58827 4.57698 37 31 17 
-0.111244 2.19968 6.06313 33 32 30 
0.112705 5.64191 4.77233 132 133 127 
-0.994727 2.97585 4.86846 201 167 130 
-1.06961 2.97042 4.85865 53 40 34 
-0.197385 -0.240121 4.66069 255 246 160 
0.0625198 5.68298 4.69847 153 149 148 
-1.9443 1.64359 4.56385 203 173 185 
2.20789 1.55683 5.78541 29 38 17 
-1.93859 1.44664 4.55674 181 172 175 
-1.98044 1.43904 4.51516 177 176 181 
-0.569619 5.71755 4.20355 201 203 190 
-0.353949 5.65392 4.25638 59 61 40 
0.986762 -0.066057 5.39231 201 175 52 
2.21923 1.69037 5.80089 213 194 161 
-0.225021 -0.196673 4.76772 148 128 55 
-0.616106 5.66942 4.42979 90 90 52 
0.0332229 5.66116 5.00055 45 39 43 
1.9315 3.79342 5.34383 107 109 98 
0.324999 3.19575 5.28146 204 182 145 
2.2408 1.61395 5.82811 129 120 103 
2.31226 1.63168 5.87979 51 57 31 
-0.0690581 5.69538 4.12678 26 20 20 
-0.23592 -0.122183 4.75745 240 230 145 
2.32573 1.73753 5.86592 65 61 36 
2.25327 1.71829 5.91922 205 191 165 
-0.510474 5.70554 4.13501 112 117 85 
2.21629 1.72726 5.86821 33 35 22 
2.23355 1.83562 5.78644 125 125 89 
-0.699301 3.15524 5.03119 97 21 25 
-1.95622 1.44629 4.52639 87 41 54 
-0.486224 5.7108 4.22669 209 205 176 
-0.137101 5.76265 4.88632 50 33 23 
2.13987 1.13729 5.82056 208 199 166 
2.31084 1.62216 5.82545 48 53 31 
2.21918 1.68038 5.84565 217 197 170 
2.21928 1.71329 5.78486 47 44 25 
0.0359788 5.69496 4.25192 57 51 37 
0.318067 3.2996 5.26845 177 159 139 
2.30253 1.58685 5.82923 205 194 164 
-1.23715 -0.367097 5.59368 180 159 142 
2.23303 1.83127 5.77018 100 100 64 
-0.136651 2.18138 6.00917 141 140 138 
-0.264199 2.19392 5.97266 122 121 119 
1.31169 -0.804851 6.3305 96 80 65 
-0.317787 2.24844 5.95237 37 37 35 
-0.258967 2.255 5.97359 134 132 133 
-0.229589 2.2669 5.98634 25 24 22 
-1.15468 7.79871 3.97915 117 108 103 
-0.0171838 2.18851 6.06644 24 25 20 
-0.227093 2.20525 5.98348 35 35 27 
0.0106338 2.17686 6.07851 53 53 53 
-0.321369 2.20789 5.9456 33 33 31 
-0.282845 2.20141 5.96354 33 33 31 
-0.469785 2.205 5.89363 43 43 41 
-1.31065 -0.11617 5.43361 112 112 122 
0.0238702 2.77912 6.05482 69 58 64 
-1.17938 0.0487536 5.40709 113 113 121 
-0.213815 2.25669 5.9941 44 43 41 
-1.93509 -0.257765 5.14002 128 126 137 
-2.04575 -0.227184 5.07357 120 120 130 
-0.0420964 2.26068 6.04995 47 43 40 
-1.16019 7.79163 3.98261 169 163 163 
1.30906 -0.473092 6.2276 81 73 54 
0.00511479 5.77795 4.74909 162 159 150 
1.3365 -0.476336 6.23775 54 41 35 
-1.37219 -0.274609 5.47457 103 103 113 
-0.092026 5.81942 3.82745 206 196 184 
1.80594 8.39215 4.88266 158 158 150 
-2.1099 -0.0705342 4.98039 115 114 110 
-0.286343 2.21092 5.96994 59 59 57 
-0.47099 2.27456 5.88049 114 114 114 
1.80616 8.40333 4.88937 170 167 158 
-1.26891 -0.335003 5.54788 157 149 147 
-0.178313 2.26971 6.00277 132 131 126 
-1.19211 7.81931 3.97019 80 70 68 
-1.32312 -0.246544 5.4713 137 133 130 
-0.261143 2.27706 5.96368 44 43 41 
-0.271566 2.27199 5.97382 144 144 144 
-2.10462 -0.0781738 4.97513 143 139 136 
-0.132153 2.1881 6.01915 85 83 84 
-0.486482 2.19163 5.87373 66 66 64 
-0.388565 2.21167 5.92328 132 132 132 
-0.0111364 5.74134 5.07023 135 139 142 
-0.040086 2.25184 6.03708 43 39 38 
-1.18096 -0.0230045 5.45379 128 129 124 
1.40941 -0.68363 6.32138 137 125 129 
-1.97045 -0.262376 5.12695 124 118 128 
-0.0776567 2.18518 6.03212 10 10 10 
0.974465 -0.0981086 5.45507 223 198 35 
1.41457 -0.708116 6.32562 80 69 65 
-0.934365 7.78231 3.68263 101 96 100 
0.308408 -0.382381 5.20477 82 66 53 
-2.05467 -0.275024 5.08393 108 106 120 
-2.05297 -0.230006 5.0818 132 132 142 
-0.0455263 5.8017 5.08752 167 164 157 
-1.32161 -0.246537 5.48943 76 77 71 
-0.201714 2.26044 5.99343 44 42 45 
1.3728 -0.482991 6.2668 58 48 39 
-0.275013 2.20812 5.96137 136 136 134 
-2.03303 -0.0757311 5.00919 129 126 119 
-1.30634 -0.119573 5.42455 132 132 140 
-1.81941 -0.030826 5.10577 137 143 157 
-0.278185 2.26321 5.9601 42 42 40 
-0.943858 7.82052 3.70305 141 135 137 
-0.26318 2.2796 5.97703 44 43 41 
2.25581 1.56228 5.89107 171 166 134 
0.0209794 2.78098 6.06991 69 58 64 
-0.0376944 2.18587 6.05118 140 141 136 
1.22379 -0.790283 6.27064 97 85 63 
-1.30918 -0.251804 5.49742 143 139 127 
1.28879 -0.469309 6.2082 66 54 40 
1.34554 -0.478186 6.24464 59 46 38 
-1.80705 0.0832675 5.08814 144 154 155 
-0.265957 2.21236 5.96929 20 20 20 
-1.33363 -0.126345 5.42427 118 118 118 
-1.76841 -0.18474 5.21946 150 164 165 
-1.76132 -0.196202 5.19703 128 143 148 
-0.0983683 2.25308 6.03524 54 55 50 
0.669825 5.42029 6.36033 75 66 61 
0.932198 7.49111 3.76671 45 49 35 
-0.34411 7.64517 4.02366 62 58 49 
0.383443 7.46979 4.18935 33 22 4 
-1.15937 7.80179 3.94179 43 37 37 
0.439903 7.4251 4.39173 32 33 27 
1.2904 -0.469352 6.22359 82 73 64 
-2.02627 -0.027771 4.99888 155 155 147 
-0.759935 3.30914 4.66011 188 177 159 
1.40794 -0.688634 6.33756 144 132 134 
0.311819 -0.380095 5.21508 66 49 42 
-1.15154 7.83183 3.90262 187 172 165 
0.665474 5.43081 6.36029 25 24 22 
-2.04022 -0.0823692 5.02154 133 134 126 
-0.17789 7.61937 3.97065 111 101 92 
1.26069 -0.689404 6.25416 56 47 48 
-2.03383 -0.0297466 5.01151 155 155 147 
-0.667658 7.74493 3.69151 63 64 59 
-0.363311 7.61495 4.14482 109 100 95 
-0.443018 7.69079 3.84629 149 137 125 
0.0792097 5.70129 4.86796 132 133 127 
-1.21405 7.7699 4.22074 37 40 47 
-0.350315 7.63853 4.00986 28 22 22 
-0.608194 7.71216 3.88972 46 40 40 
-0.520939 7.63449 4.02735 35 35 37 
0.186741 7.49465 4.23726 29 25 22 
-0.342171 7.59937 4.11949 83 78 72 
1.35816 -0.480818 6.2482 132 122 110 
-0.166987 7.67303 3.99391 47 37 35 
0.304915 7.50055 4.22459 47 43 40 
-1.21623 7.78307 4.22963 31 34 41 
0.323855 3.294 5.24786 177 159 139 
1.35978 -0.483796 6.23926 113 105 94 
0.424104 7.45099 4.33363 80 81 73 
1.95771 8.41216 4.95072 200 192 171 
0.167337 7.50627 4.18847 85 80 74 
-0.991417 7.77082 3.96541 41 40 35 
0.493244 3.23696 5.23141 123 105 69 
0.517712 3.21482 5.23189 244 212 137 
0.495405 3.24571 5.22806 57 43 16 
0.70373 3.26683 5.23687 39 16 2 
0.673003 3.24425 5.22858 192 143 126 
0.506075 3.24587 5.22662 58 23 3 
1.40297 -0.691065 6.31088 171 155 140 
1.39767 -0.695955 6.32042 177 159 145 
-0.327841 2.18937 5.96449 20 20 18 
-1.11145 7.76129 3.81542 178 164 155 
0.697307 3.22518 5.24927 85 57 43 
-0.321124 2.20774 5.94721 33 33 31 
-1.16396 9.94348 3.18736 63 52 48 
-1.203 9.94264 3.19642 114 74 66 
-0.380299 1.95242 5.91264 96 48 60 
-0.119371 2.2542 6.03148 26 26 24 
0.586708 3.234 5.23029 215 169 107 
-0.426775 3.31033 4.4386 167 153 140 
-2.00948 -0.0240755 4.9743 114 114 112 
-0.876681 3.14285 4.76734 172 120 107 
-0.917689 3.15003 4.76845 96 39 28 
1.81522 8.29764 4.78892 158 158 150 
-0.385735 3.20105 5.82599 149 102 76 
-0.0301594 2.26236 6.05433 76 75 71 
0.625787 3.23373 5.23098 233 194 115 
1.10575 8.45856 4.23684 147 143 134 
-0.484324 2.21412 5.89104 55 55 55 
-0.489298 2.19268 5.8796 66 66 64 
-0.77093 3.27871 4.6175 42 25 5 
-2.05207 1.45608 4.6343 173 158 165 
-0.400374 5.72197 4.36195 72 74 50 
-1.50776 5.71656 4.54323 216 227 229 
-1.99014 -0.0304206 4.96987 91 93 92 
-1.96684 1.66326 4.6422 150 128 141 
-2.00515 -0.0899391 4.99271 113 113 113 
-0.232269 2.20577 5.99963 35 35 27 
-0.0795091 2.19461 6.0437 33 33 33 
0.084815 5.70576 4.88923 107 107 107 
-0.323554 2.25168 5.96066 52 52 50 
-2.01075 -0.0292363 4.98453 154 155 149 
0.683944 3.22409 5.26548 124 74 65 
0.0407673 5.74711 4.83203 117 121 124 
-1.77643 0.0956218 5.04868 148 160 160 
-0.403556 5.74483 4.3806 29 33 16 
-0.439946 3.16607 5.81251 97 51 25 
-0.179982 2.20525 6.01592 155 154 149 
0.429701 0.364232 5.38021 106 78 15 
-1.13368 9.90491 3.21705 168 122 125 
-0.647795 7.70306 3.64197 58 58 50 
-0.915918 7.73608 3.62414 105 100 104 
-1.14126 7.75827 3.8891 73 63 61 
-1.99834 -0.0230664 4.97287 134 134 126 
1.09395 5.38046 6.51407 19 23 24 
-1.4918 5.84884 4.09881 133 199 233 
-1.11416 9.97062 3.13428 190 150 142 
-1.204 9.93231 3.19856 84 36 36 
-1.22241 9.92028 3.18786 159 103 112 
-1.17254 7.76621 3.91674 46 40 40 
-1.14157 7.758 3.9289 66 61 58 
0.26033 5.7637 4.69351 88 77 49 
-0.238351 -0.25017 4.77297 255 246 140 
-0.184646 5.83041 5.00405 60 46 37 
4.164 10.1359 6.06145 36 24 10 
-0.926823 7.74772 3.64605 101 96 100 
0.444818 0.363614 5.36536 67 35 24 
-1.13866 9.9247 3.22822 176 127 131 
-0.734985 7.71534 3.59341 153 147 149 
-1.11043 9.97342 3.1738 172 137 141 
-1.23084 9.94157 3.1979 163 114 120 
0.0577306 5.72978 4.87993 148 142 142 
-0.233195 -0.253016 4.75109 255 246 153 
-0.783734 7.69026 3.90281 58 53 49 
-1.1177 7.75236 3.82131 187 172 165 
-1.48677 0.0182917 5.24021 145 141 142 
-1.13986 9.99471 3.13437 99 44 49 
-0.256608 2.25959 5.97818 45 43 44 
0.489674 3.28661 5.2341 162 145 129 
-0.515661 5.76963 4.29116 209 205 176 
-1.12962 9.89468 3.21231 170 119 126 
-0.813443 7.67046 4.06075 104 96 94 
-0.919201 7.74837 3.63903 66 61 67 
-1.134 7.72292 4.25327 45 45 47 
-0.933031 7.74721 3.66472 153 147 147 
2.78164 8.89046 6.68452 6 3 0 
-1.19939 9.91774 3.19413 84 32 36 
0.477405 6.86383 4.0372 14 15 20 
-0.00241864 5.73191 5.11712 45 39 43 
-1.13628 9.91387 3.21962 174 132 134 
0.0824884 7.52089 4.05787 46 43 38 
-0.572668 7.64541 3.77151 40 41 36 
-1.19925 7.7324 4.17869 37 40 47 
-0.718907 7.71683 3.56973 75 71 72 
-0.610996 5.75897 4.39618 42 62 61 
-0.0933173 5.78866 5.11757 147 146 160 
0.349561 7.45123 4.07807 113 104 89 
0.436805 7.39097 4.27676 37 39 34 
-0.171805 7.58938 3.92529 67 60 52 
0.31699 7.45575 4.17547 47 43 40 
-1.05297 7.7386 3.89795 46 43 38 
0.429181 7.43699 4.40208 20 23 16 
-1.20079 7.74424 4.18636 31 34 41 
-0.970166 7.7147 3.90568 41 40 35 
-0.718521 7.71715 3.64697 73 67 69 
0.236475 7.41672 4.34441 20 19 17 
1.31288 -0.817528 6.30978 44 44 36 
-1.2919 -0.246761 5.4344 126 126 134 
1.12497 3.20176 5.51327 57 53 18 
-0.619611 -0.415592 4.6993 253 253 241 
-1.35369 -0.282342 5.40725 159 165 177 
-1.35683 -0.148801 5.36225 127 132 136 
-1.28033 -0.280851 5.46131 121 124 129 
0.662264 3.30703 5.72142 93 44 39 
-1.29358 -0.126427 5.38542 136 148 148 
1.66047 -0.347131 6.32068 212 206 194 
-1.29118 -0.28723 5.45782 152 151 156 
-1.31979 -0.254851 5.42778 104 102 113 
0.0105725 -0.383772 5.06159 212 197 194 
1.50027 3.11311 6.40193 135 133 134 
0.89507 -1.22921 6.7537 171 161 152 
1.70933 -0.357647 6.3358 170 164 152 
-1.27692 -0.260199 5.46223 133 133 141 
-0.458344 0.0284122 4.64243 67 45 4 
-1.77388 -0.248351 5.1574 177 193 209 
-1.282 -0.273186 5.47372 74 75 77 
0.456141 3.26466 5.26148 164 186 113 
0.500131 3.26716 5.25581 46 46 34 
-1.30657 -0.132273 5.39354 32 34 49 
0.325961 3.30961 5.2501 86 86 88 
-1.7431 -0.197895 5.15031 147 159 175 
0.102758 0.366536 5.13126 163 133 97 
0.717307 3.28384 5.27604 113 98 93 
0.678435 3.26712 5.26627 181 142 143 
0.479429 3.25032 5.25855 174 194 105 
0.468581 3.24109 5.25617 91 101 38 
1.28549 -0.470061 6.23339 93 95 90 
-1.2799 -0.334828 5.48856 145 151 165 
-1.31465 -0.323071 5.45973 163 163 173 
-1.31263 -0.322441 5.474 161 161 171 
1.34682 -0.483612 6.22505 114 115 109 
0.0136544 0.0144746 5.09391 164 145 102 
-1.34166 -0.0877929 5.35658 118 125 141 
0.102835 0.400722 5.12847 103 73 49 
-1.59662 -0.268113 5.27249 136 149 166 
-0.74149 2.91411 5.3417 120 110 100 
-0.0546055 3.24523 4.97895 104 119 176 
-1.44819 0.0286551 5.25868 110 127 143 
-0.615696 -0.415577 4.73688 255 253 241 
1.04583 3.21243 5.74631 186 179 161 
0.105563 0.37917 5.13564 67 36 0 
