ply                 
format ascii 1.0    
element vertex 1293
property float x    
property float y    
property float z    
property uchar red  
property uchar green
property uchar blue 
end_header          
0.0651041 3.17438 5.09896 180 182 195 
0.0173564 6.08226 4.85871 130 126 125 
0.42619 3.26078 5.00714 140 132 111 
-0.872826 3.09051 5.05633 103 72 51 
-0.521205 6.20497 4.8228 34 44 0 
-1.71196 3.00409 4.99785 151 169 181 
-0.0835828 5.96728 5.05097 80 70 71 
-0.107253 6.21686 4.29579 115 112 103 
0.0532815 5.98607 5.07701 121 125 128 
-0.521932 6.22074 4.80748 129 149 112 
0.0804113 3.1331 5.02003 41 41 69 
0.952883 3.29978 5.12876 99 85 59 
0.164853 6.13384 4.05703 187 175 161 
-0.892721 2.97296 5.06587 161 134 117 
-0.130191 3.18945 4.98503 187 188 208 
-0.459456 3.37012 4.48862 131 120 102 
0.244202 3.31553 4.77525 67 37 9 
0.60064 3.16425 5.3459 96 88 39 
-0.534426 6.11014 4.76882 120 133 87 
0.0756403 0.414529 5.37708 185 147 111 
0.557866 3.19019 5.28296 100 73 28 
-0.242024 6.11139 3.96315 93 91 76 
-0.0176486 6.13366 5.09541 67 69 68 
0.0792808 3.0476 5.71221 168 140 119 
-0.214555 6.27731 4.48381 114 113 93 
0.803732 3.13013 5.37554 187 60 43 
0.0563445 6.20853 4.53192 84 98 65 
0.238445 5.5376 5.91709 43 42 37 
0.0207182 6.17381 4.92402 129 130 132 
-0.257858 6.23999 5.29766 58 43 48 
0.453677 3.18467 5.13008 200 191 124 
0.678824 3.23873 5.19164 213 151 140 
0.199634 0.396661 5.30568 227 232 200 
0.766769 3.23131 5.23319 166 154 72 
-0.983586 2.96548 4.8339 91 64 45 
-0.0392464 3.16642 4.83274 108 117 174 
-2.14046 1.85437 5.03732 71 92 109 
0.820705 3.18756 5.46722 133 111 36 
0.447608 3.26561 5.21389 200 188 130 
-0.606958 6.07905 4.76807 103 111 64 
1.99749 4.68853 5.65014 180 182 177 
2.03579 4.7069 5.70503 99 91 80 
-0.769911 3.35232 4.61666 160 152 149 
-2.25831 1.87452 5.07986 186 150 162 
0.563911 3.17977 5.20652 99 99 3 
-0.339566 6.28792 4.65896 181 161 126 
-0.739625 6.12434 4.75922 126 126 136 
0.750394 3.17224 5.30207 131 103 0 
-0.576201 6.21284 4.45803 149 165 103 
0.112534 -0.0891974 4.59507 76 43 28 
-2.26431 1.6616 5.10321 165 151 164 
-1.56091 6.08725 4.12635 90 148 185 
-0.465418 6.16778 4.47367 130 131 126 
-1.57998 6.17488 4.18816 23 115 152 
-0.571365 6.06888 3.99527 104 141 168 
0.511259 3.2765 5.21625 174 137 131 
2.29873 3.90763 6.17889 109 112 103 
-0.487942 5.96717 3.92448 198 232 255 
0.0986473 -0.0503047 4.741 80 56 32 
-0.192296 6.18945 5.26095 59 56 63 
0.0256237 2.99287 5.60617 174 150 138 
-0.695709 2.88025 5.12432 24 23 19 
-1.52288 6.06882 4.09411 106 180 217 
0.64647 3.23542 5.23608 237 221 162 
0.0406382 3.16521 4.96484 200 197 208 
-0.627356 2.97899 5.0958 180 167 150 
-0.97486 3.03857 5.07199 40 23 16 
0.260827 -0.0747206 4.64962 69 34 30 
0.447706 3.20825 5.21439 217 221 127 
-0.92462 3.04063 4.86071 47 24 16 
0.162175 -0.0321022 4.80722 69 43 20 
0.0776385 -0.00725158 4.85973 111 102 71 
-0.208539 6.3689 4.82777 56 42 33 
-1.22023 3.01841 4.86823 81 58 44 
-1.03885 2.94154 4.81725 88 68 59 
-0.650584 6.16067 4.49727 141 140 119 
-1.70979 2.87725 5.04518 55 54 52 
-0.738121 6.1287 4.78796 133 147 114 
-0.473951 6.0052 4.041 80 102 116 
-0.656414 2.89155 5.14139 177 160 132 
0.238908 3.22997 4.58918 237 222 189 
-0.151438 6.30793 4.48571 68 71 52 
0.923387 3.12523 5.55616 80 33 23 
0.495117 3.2932 4.79443 201 177 139 
-0.130817 3.29812 4.8804 155 136 122 
-0.210061 2.24852 5.94565 130 132 131 
0.110044 -0.0149555 4.76114 86 58 19 
-1.07878 2.87683 4.81223 65 43 30 
0.593688 3.18305 5.16042 125 137 9 
-0.661232 6.22749 4.52876 84 80 17 
-0.150453 6.22911 5.41417 104 112 123 
-0.797832 3.015 5.12566 25 7 0 
-0.527962 6.21267 4.84198 40 54 3 
-0.506338 2.21662 5.92087 62 63 67 
-1.46171 3.0448 5.22554 92 75 67 
0.38309 6.20164 4.70056 169 71 60 
-0.355314 2.2454 6.07824 50 51 53 
0.439281 3.19145 5.10867 204 115 109 
-1.86639 2.96847 5.04689 69 70 75 
0.0800876 0.00108827 4.87761 52 34 10 
-2.23107 2.79822 5.11298 199 236 254 
0.679158 3.22834 5.19357 115 27 17 
-0.296345 6.18251 4.91229 117 78 13 
-2.20889 2.10652 5.03347 143 167 195 
0.0665196 3.22947 5.19808 130 137 181 
-1.66766 2.9209 4.98833 140 132 109 
-0.0588785 3.19597 5.00394 85 76 95 
-1.23308 3.0602 4.94046 135 122 114 
-0.519184 3.32998 4.50809 107 96 92 
-0.175133 2.34362 6.1479 61 66 60 
-0.759836 3.09678 5.25189 34 24 0 
-0.680138 3.06954 4.77459 89 41 27 
0.80882 5.95321 5.83784 101 104 113 
0.00243276 6.12112 4.93681 84 83 89 
-0.569096 6.22558 4.47205 61 74 21 
-1.73579 2.91981 4.96647 183 197 206 
-0.107024 2.20579 6.02956 40 40 42 
-1.40627 6.13748 4.1219 127 161 186 
-1.62525 6.19554 4.31016 25 51 76 
-0.702638 6.19394 4.61638 59 65 55 
-0.945864 3.10218 4.92137 43 23 12 
0.481754 3.19223 5.19083 231 237 113 
-0.500768 6.23472 4.69778 32 32 32 
0.00130378 6.25587 5.00332 27 25 26 
-0.518796 6.05145 4.0694 143 165 188 
-0.830802 3.03418 4.9525 57 38 21 
-0.864934 3.07604 5.03391 103 72 51 
-1.11855 2.77493 4.347 198 179 183 
-0.999179 2.99751 4.88369 66 43 27 
2.13765 2.81171 5.88025 194 192 179 
-1.34658 2.64961 5.08946 111 99 83 
0.196992 6.05827 4.9581 46 20 0 
0.0551617 6.27351 4.12659 27 19 17 
-0.517449 6.1309 4.10509 45 73 97 
-0.067353 6.24596 5.0372 125 124 129 
-0.57133 6.18693 4.77053 62 67 60 
-0.0511967 6.26897 5.07761 135 137 136 
-0.542632 6.29156 4.90268 35 49 0 
0.488649 3.23292 5.201 111 103 28 
-1.18636 2.95992 4.7843 26 7 9 
-1.21131 3.05873 4.96272 251 244 218 
-0.0349019 6.20196 5.33207 154 153 151 
-0.554989 6.18796 4.13202 54 86 111 
-0.532341 5.91135 3.89331 71 102 130 
-1.21451 3.03839 4.94723 238 227 205 
-1.22224 2.99968 5.1493 42 31 27 
-0.310611 3.23018 5.12861 153 135 125 
-0.565 6.113 4.03558 183 216 247 
-1.20279 3.02499 4.95385 186 179 153 
-0.570489 6.1471 4.79872 117 129 115 
-0.00568166 6.24566 4.99108 164 160 159 
0.518413 3.22352 5.13577 174 137 131 
-0.447296 6.17452 3.86437 177 169 158 
-0.0877399 6.18504 4.2669 83 77 61 
-0.51444 6.07264 3.76795 103 92 96 
-0.173512 3.13959 4.96029 201 204 221 
-0.615698 6.22743 4.87909 130 131 123 
-2.21597 1.87293 5.06981 111 89 102 
-0.0427551 6.09748 5.00633 156 157 162 
-0.00294088 6.0762 5.19908 162 160 163 
-0.619094 6.10097 4.76485 123 142 110 
-0.345649 6.15912 3.94173 110 103 95 
-0.0923418 6.18902 4.21704 166 166 158 
-0.0403872 6.25536 5.16109 141 145 146 
0.0549989 6.26474 4.32725 50 36 10 
-0.12745 6.2849 5.17052 126 124 127 
0.062197 3.18065 5.10669 193 195 208 
0.562883 3.13328 5.19868 98 68 34 
0.0895421 3.10765 4.98528 49 52 87 
0.0305785 3.14469 4.94048 207 200 194 
0.333802 3.14719 5.18573 228 211 195 
0.00631265 -0.443356 3.82269 127 114 98 
-0.0820942 6.09457 5.02898 153 147 135 
1.12646 3.19007 5.68649 211 181 91 
-0.137672 3.22327 5.03697 191 192 210 
-0.0706262 6.1169 5.06098 95 104 103 
-0.618595 6.12443 4.80493 103 111 64 
0.799957 3.15337 5.41473 199 65 54 
-0.612775 6.13454 4.81688 42 46 19 
-0.0104734 -0.403202 4.00131 211 192 177 
-0.781315 6.15729 4.76073 184 188 191 
1.24266 3.40297 5.56762 95 38 19 
-0.0159051 -0.395135 4.01181 201 182 176 
-0.0158909 6.07883 5.06654 183 185 182 
-0.141713 6.19092 5.1439 173 166 158 
-1.54337 6.10825 4.12579 94 159 189 
-0.0301893 6.08609 5.0979 168 170 169 
1.00743 3.19956 5.54304 62 62 34 
0.0160519 2.58418 5.88697 163 164 166 
-0.673154 2.8513 5.08716 178 161 154 
1.12198 3.18397 5.58011 83 92 35 
-0.504211 6.03382 3.97525 198 232 255 
-0.147725 6.22117 5.19478 50 45 41 
-0.118093 6.26138 4.32755 82 79 70 
-0.100717 6.26076 5.09762 33 36 41 
-0.159247 6.21607 5.19752 197 194 185 
0.035804 3.19024 4.95911 163 170 216 
-0.0370914 6.35437 4.97521 56 35 18 
-0.480683 6.20118 4.35284 150 153 146 
-2.24076 2.48207 4.91079 189 162 171 
0.121567 0.0628575 4.94728 58 31 10 
-2.2666 2.4876 4.93939 180 158 170 
-2.17421 2.40066 4.8468 172 210 247 
-0.149979 6.14734 5.19825 155 157 156 
-0.492414 6.21352 4.64155 180 186 176 
0.562044 3.18944 5.20039 75 69 0 
0.0719166 0.0453514 4.89816 221 202 146 
-0.212625 6.22001 5.26696 162 160 163 
-2.27367 2.43282 4.94971 198 179 201 
-0.103637 -0.275413 4.12519 189 173 140 
-0.775696 3.28253 4.58771 57 44 36 
0.338221 3.21573 5.08439 173 159 148 
0.501812 3.17812 5.11253 226 205 186 
1.07674 3.17561 5.42004 109 52 0 
-0.266513 6.3102 5.35707 37 26 24 
-0.549848 2.35193 6.07568 37 38 40 
0.951477 3.29078 5.11432 99 85 59 
-0.124517 6.14184 5.27972 156 156 154 
-0.988653 3.37593 4.60807 217 212 192 
0.137727 -0.279278 4.42373 214 192 135 
-0.648734 6.22719 4.57156 161 165 142 
0.673179 3.22078 5.25908 179 165 126 
0.655999 3.21204 5.22869 205 177 155 
0.514879 3.20379 5.13155 47 13 1 
0.689684 3.17335 5.17734 169 147 134 
-0.229333 6.14441 3.93735 92 93 79 
-0.136357 6.14722 5.34408 114 122 133 
0.0971165 -0.247419 4.41881 255 251 185 
0.75722 3.15485 5.1698 66 48 0 
0.146226 0.422281 5.45607 201 187 152 
0.228734 0.367184 5.22598 174 186 174 
-0.789186 3.3925 4.6922 22 11 17 
0.50224 3.28696 5.22067 33 21 7 
-0.338281 6.21183 3.93188 81 76 70 
0.760217 3.16932 5.17274 255 243 181 
2.05344 3.25832 5.72401 158 164 150 
0.177596 0.427795 5.49303 214 221 188 
-2.27476 1.98169 4.95631 192 170 183 
-0.79303 3.40303 4.6853 166 157 152 
0.753136 3.24299 5.26401 64 53 21 
-1.56474 5.96747 4.71391 167 174 180 
0.13239 0.480697 5.56083 203 190 156 
0.204834 0.417985 5.27808 208 211 190 
-0.651029 6.16997 4.48586 87 85 37 
0.204864 0.449063 5.44728 141 152 135 
-0.681033 6.25446 4.54276 140 142 120 
0.769613 3.20011 5.18316 157 143 70 
0.10142 -0.0359532 4.75202 41 27 0 
0.704737 3.2336 5.19385 25 0 0 
-1.74378 6.02547 5.02489 245 234 230 
0.0956299 -0.0475627 4.75895 80 56 32 
-0.108582 6.23728 4.72539 91 74 54 
0.121863 -0.0955907 4.61426 57 25 0 
0.0531847 -0.0415622 4.84387 218 196 149 
-0.140295 6.29118 5.19588 167 156 154 
-1.3737 2.89983 5.22144 181 168 160 
0.0409681 -0.0588399 4.6658 90 55 49 
0.600112 3.1762 5.36535 96 88 39 
2.09712 4.09835 6.01867 137 137 127 
0.510497 3.34111 5.2295 162 141 124 
-1.65098 2.91531 5.00909 178 170 159 
-1.42242 2.8706 5.18496 197 184 176 
0.453214 3.19342 5.14766 195 184 122 
-0.136208 3.32153 4.90986 168 145 129 
-0.0787598 6.19909 5.0921 143 139 140 
-2.18561 2.06409 4.95324 189 158 176 
-0.135214 3.1 4.9002 198 185 179 
-1.73547 3.01599 5.05491 75 98 116 
-1.53118 3.15495 5.39813 78 61 53 
-1.28088 6.17616 4.03064 153 191 230 
-0.684306 6.16078 4.61195 201 202 194 
0.509834 3.25853 4.88886 74 53 34 
0.262464 3.24971 4.71838 92 66 49 
-0.0750952 2.16082 5.96305 23 25 22 
0.0641746 0.0469386 5.07783 175 149 88 
0.266819 3.27003 4.72435 185 149 125 
-0.977683 3.01035 4.81574 34 8 7 
-0.276697 2.22356 5.97106 44 46 45 
-0.538558 3.07761 5.75603 79 61 49 
0.597426 3.1856 5.14708 224 223 117 
0.922892 3.08919 5.49916 80 33 23 
-0.110257 2.27501 6.07691 71 73 70 
-0.0145688 6.10146 4.09217 171 169 157 
0.348938 6.26408 4.72957 232 219 185 
-0.0573079 3.22939 4.92101 119 129 182 
-0.67342 6.12246 4.62724 131 133 128 
-0.709722 2.91567 5.18184 24 23 19 
-0.435856 3.14221 5.75 90 44 18 
-0.606671 6.07778 4.60269 177 176 171 
-0.124866 6.19266 4.39456 177 177 153 
-1.1136 2.93882 4.90921 65 43 30 
-0.0314995 6.2285 4.86462 192 157 91 
-0.547293 6.17161 4.81939 120 133 87 
0.581239 3.15055 5.39722 83 72 44 
-0.561355 6.17027 4.83013 57 64 23 
-1.21575 2.96627 5.08885 171 157 146 
-0.0610115 6.15969 5.13621 167 167 165 
-2.21334 2.44215 4.97364 28 76 124 
-0.584287 6.25302 4.48627 130 147 95 
-0.108578 6.1767 5.22566 188 186 187 
-0.504293 3.35244 4.59251 135 123 109 
0.788108 6.36578 5.23398 119 118 114 
-0.0333668 6.06433 5.2121 94 93 91 
-0.0144246 6.16927 4.98302 38 35 42 
-0.899429 6.19113 4.79031 35 52 36 
-0.0403977 2.18451 6.0388 111 112 114 
-0.754625 2.94261 4.99829 65 51 38 
-0.77516 3.28292 4.58928 51 38 32 
0.744718 3.15361 5.21368 247 195 173 
0.684541 3.10638 5.07901 180 160 123 
-0.763573 3.3246 4.63616 193 186 176 
0.652219 3.08656 5.08154 134 120 75 
2.08901 3.3734 5.7409 201 190 170 
-0.157472 6.28652 5.25306 50 45 41 
0.0221081 3.22309 5.04822 199 196 203 
0.0533967 3.06639 4.82557 203 196 188 
0.523091 3.1691 5.05744 184 145 138 
-0.689709 6.09197 4.51036 115 129 94 
0.194626 0.397203 5.34688 182 186 159 
0.202141 0.361019 5.15359 252 252 224 
0.007393 6.10865 4.82396 153 155 152 
0.163503 0.459448 5.47811 241 239 190 
0.709744 3.13467 5.04308 25 0 0 
-0.0493684 6.22635 5.04252 142 142 142 
1.04447 3.2071 5.70484 229 218 188 
-0.578789 6.13732 4.74354 188 190 185 
-0.643943 6.2225 4.59954 162 155 173 
-0.181054 3.16254 4.9977 228 230 245 
-0.533502 3.28738 4.55027 75 58 51 
-1.04263 6.2069 4.6685 171 172 167 
-0.283314 3.13211 4.98873 182 164 154 
-0.0312054 6.1859 5.10735 150 152 151 
-1.39601 6.10416 4.10758 187 212 232 
-0.203957 6.31949 4.78592 49 34 27 
-2.29248 1.85314 5.02752 199 175 191 
-2.31999 1.88147 5.05321 66 46 58 
-0.171431 6.28035 5.2564 186 186 176 
2.05494 2.99558 6.28739 177 178 162 
0.0436122 6.15796 4.5985 56 34 0 
0.0251091 6.07182 5.16346 23 24 28 
-0.226919 6.30478 5.34784 139 137 140 
-0.461727 6.10423 4.28656 162 164 150 
-0.906552 3.01162 4.79309 34 13 8 
-0.166032 6.21408 4.48843 93 76 58 
-0.0662145 6.05734 5.23005 182 180 183 
-0.821678 3.01642 4.92712 48 31 15 
-0.0740334 6.06452 5.25649 29 29 31 
-0.0834433 6.06327 5.26647 122 121 126 
0.101853 -0.0820189 4.62828 58 24 14 
-1.18013 2.79114 4.34073 44 39 43 
-0.0660354 6.10629 5.33936 155 158 165 
-0.439534 6.04485 4.08919 168 182 191 
-2.22058 2.37694 4.85342 195 181 204 
-1.00677 3.02206 4.91654 51 29 16 
-0.445981 3.10619 5.42171 46 7 10 
-0.544237 5.9574 3.92611 62 96 123 
0.217075 3.30996 4.77728 246 231 198 
-0.49591 6.03134 4.00027 60 90 116 
-0.107315 6.20779 4.29048 150 146 134 
-1.6194 6.11934 4.83735 150 157 163 
-0.558929 6.04129 3.96518 61 102 132 
-0.0820934 6.13988 4.23239 83 77 61 
-2.22089 2.45043 4.93193 180 224 255 
-1.22936 6.07167 5.0603 231 230 228 
-2.25891 2.49768 4.93633 200 184 187 
1.72399 5.64471 5.97808 174 169 163 
-2.08616 6.0443 4.83411 0 50 76 
0.22555 3.26228 4.65388 248 231 201 
0.757871 3.36285 5.06553 190 173 155 
0.893683 3.32254 5.01861 58 46 24 
0.0156989 2.57554 5.87744 167 167 165 
0.489924 3.32327 4.78622 57 32 10 
1.99748 4.68138 5.65138 193 192 187 
2.1038 3.52717 5.66225 149 153 139 
0.0719892 6.23822 4.1184 251 246 224 
1.98742 4.01443 5.63034 201 202 194 
-0.0699797 -0.334985 3.95525 255 236 163 
2.09869 4.07833 5.91711 203 199 187 
2.10657 4.15878 6.04369 50 42 31 
0.0864158 3.12151 5.00509 49 52 87 
-0.0637935 6.22251 5.01833 125 124 129 
0.73953 3.09972 5.3289 187 85 13 
0.578551 3.15563 5.35164 225 204 111 
0.423766 0.323926 5.50581 78 53 0 
-0.539755 6.20427 4.82189 117 127 119 
-1.6876 2.96407 4.94178 169 188 202 
-0.124339 3.17019 4.96067 187 188 208 
-0.205369 6.22066 4.41966 62 68 56 
-0.038079 6.25819 5.09129 118 119 123 
0.0498722 -0.0669 4.6112 49 13 13 
0.432198 0.380533 5.42357 100 78 21 
0.0737909 6.15241 4.08154 71 64 48 
-1.67316 2.85693 4.99735 233 236 225 
-1.80566 2.8758 4.98488 54 53 58 
0.665658 3.1641 5.47928 106 58 38 
1.23276 3.23115 5.39731 70 33 0 
0.0363038 2.72572 5.93446 65 52 61 
0.471786 2.60793 6.0058 153 140 131 
0.756426 3.15468 5.20422 92 48 19 
-0.226008 6.11628 3.92239 115 112 97 
-0.492799 5.96787 3.70026 159 145 145 
0.417686 3.32888 5.10548 176 167 138 
-0.642741 2.79686 5.01972 188 174 145 
-0.529101 6.12337 3.81889 178 167 163 
-0.673291 6.11588 5.71542 221 211 210 
0.758348 3.21763 5.10534 83 54 22 
-0.653324 2.87488 5.14554 200 192 181 
0.0934505 0.387783 5.24238 185 147 111 
-0.472697 5.98806 4.02871 39 61 75 
0.47029 3.30697 4.76003 101 72 38 
-0.598801 6.04296 4.73914 63 69 31 
-0.687182 6.27516 4.55971 140 142 120 
0.0347948 6.07271 4.83776 129 130 132 
-0.755701 6.1586 4.78102 169 171 166 
-0.0778803 6.15336 5.09369 95 104 103 
-0.340438 6.26697 4.66905 51 27 3 
0.0160419 5.97813 4.97536 105 108 115 
-1.10455 2.94079 4.87163 53 37 40 
-0.132189 6.37737 4.83919 91 74 54 
-0.897084 6.24377 4.84514 170 174 159 
-0.889193 3.01305 5.10733 108 82 59 
0.019648 3.01121 5.64297 167 145 132 
-1.19302 2.99772 4.88855 249 238 218 
0.202918 0.404284 5.33309 74 81 47 
-1.1024 5.87409 3.53468 123 157 167 
-2.09025 2.46673 4.67254 226 216 225 
0.0698234 6.1294 4.22981 94 79 38 
-0.00905663 6.15864 5.20213 162 166 169 
-2.08844 2.46859 4.81561 175 175 203 
0.151852 0.399764 5.28197 57 27 16 
-0.131185 6.13448 5.09707 173 166 158 
-0.573409 6.21129 4.86451 48 52 19 
-0.434159 3.29297 4.38659 131 120 102 
-2.21164 2.43191 4.84076 173 149 162 
1.86575 3.17348 5.83625 203 191 177 
-1.42234 2.75894 5.28131 111 99 83 
-0.0520263 6.25029 5.24082 186 188 185 
-2.14987 2.38125 4.86454 33 79 129 
0.425467 0.376363 5.43443 85 68 16 
0.822217 3.19771 5.57542 214 203 171 
-0.567022 6.18141 4.45971 171 178 101 
-0.656365 3.04469 5.19405 192 176 153 
-2.14839 1.82681 4.95754 176 175 193 
-2.13416 2.3739 4.86945 100 187 241 
0.579001 3.24527 5.22668 154 98 49 
0.441088 0.381779 5.42075 95 74 19 
-1.31285 6.09535 4.84846 84 87 104 
-0.0576361 6.36683 5.31895 183 185 182 
0.0917244 6.12083 4.61919 121 68 0 
0.000188059 0.104072 4.93278 140 111 95 
-0.564898 6.00868 3.92416 179 220 248 
-0.123774 6.24659 5.1396 72 70 71 
-0.0940524 3.07169 5.51267 44 0 6 
0.648074 6.14866 4.64228 88 60 20 
-0.0519801 6.12615 5.1674 120 115 121 
-0.811955 6.23524 4.82205 37 40 47 
0.130124 0.0557641 4.89056 53 24 6 
-2.29023 1.99329 4.98133 192 176 189 
0.765882 3.31866 5.36401 153 139 76 
0.138634 -0.0717178 4.68121 70 49 22 
0.529387 3.31562 4.99972 147 131 115 
-1.20772 2.96118 4.84956 89 74 67 
-0.47979 6.13399 4.54752 133 140 122 
1.09603 3.17155 5.46036 178 124 36 
-0.0224239 6.328 5.06779 174 170 169 
0.0621294 6.18086 4.50791 76 95 63 
-0.211273 6.2602 4.46973 114 113 93 
-2.26447 1.93495 5.19882 62 84 108 
-0.756214 3.30789 4.64768 49 40 31 
0.112729 -0.0372737 4.6582 152 133 103 
0.0815657 0.0367317 4.83822 221 202 146 
-0.260272 6.27566 5.32849 42 33 36 
-1.12379 2.95261 4.93235 52 35 27 
-1.70097 2.94629 5.03633 184 183 179 
0.394388 6.10908 4.62839 204 106 105 
0.461793 3.12672 5.05178 203 199 126 
-0.560465 6.37947 4.96802 24 32 0 
0.44733 6.17796 4.70871 202 104 77 
0.509992 3.35717 5.25144 165 142 124 
0.598041 3.17622 5.12661 222 214 115 
-0.429323 6.03655 5.38478 134 138 163 
-1.04302 6.25195 4.8708 89 101 89 
-0.145499 6.30998 4.51267 117 122 90 
0.566544 6.06136 4.54262 184 63 52 
0.457185 3.3481 4.87031 255 238 169 
0.583219 6.31548 4.97684 63 49 0 
-1.20161 3.04263 4.978 175 167 148 
-0.698013 3.12724 4.88509 95 40 37 
1.50576 3.2003 5.89042 37 15 18 
0.547909 3.30769 4.88988 61 26 7 
0.747652 3.19798 5.34075 128 96 0 
-2.17295 2.0711 4.96459 132 157 187 
0.561695 3.36256 5.21709 179 148 117 
-1.59482 6.11784 4.23596 119 178 220 
0.160011 -0.0498688 4.69257 69 45 21 
-0.0272634 6.24361 5.05325 30 29 35 
-0.508305 6.09188 4.04525 60 90 116 
-0.535949 6.0818 4.0478 44 76 99 
-0.487056 5.99564 4.00354 51 79 103 
-0.444565 6.07692 4.11038 199 213 224 
-0.507992 6.02773 3.95666 54 89 111 
-0.0883712 6.23938 4.26895 25 27 14 
0.0363448 6.20845 4.6404 56 34 0 
-0.0951361 6.20526 4.22376 187 187 177 
-0.195655 6.27289 4.74662 45 31 28 
0.117939 -0.099199 4.63898 53 21 10 
0.00233871 6.14688 4.85797 134 136 131 
0.252763 0.544368 5.72424 226 167 109 
0.149228 0.453498 5.44014 207 195 153 
-0.576546 6.21786 4.79833 48 53 47 
-0.943898 2.97552 4.96905 40 25 20 
-0.966535 2.94344 4.80248 35 20 13 
-0.772942 3.09292 4.98117 21 26 20 
-1.05223 6.23433 4.68921 171 172 167 
1.9081 2.8112 5.63624 175 169 157 
-0.166818 3.12054 4.93837 212 211 227 
0.330252 3.17087 5.22157 218 201 181 
-0.825782 3.40622 4.74906 24 10 7 
-0.97753 3.40207 4.59899 197 187 178 
0.755428 3.32531 5.37772 80 69 41 
0.711639 3.23628 5.16116 31 10 9 
0.0853359 6.27906 4.13652 244 236 187 
1.93843 4.00939 5.67319 204 197 181 
0.18387 0.450015 5.4664 222 227 197 
-0.447828 6.02591 4.0225 107 124 152 
0.18566 6.10765 4.38362 61 98 54 
-2.07945 6.025 4.81804 7 66 96 
-0.261454 3.12676 4.96101 126 108 98 
-0.583619 6.07821 3.98203 182 222 248 
-2.27438 1.83817 4.99196 199 175 191 
-2.12662 2.36193 4.85433 105 185 236 
2.29387 3.89264 6.15628 162 162 150 
-0.0309475 -0.422283 3.98564 196 185 139 
-2.20697 2.43812 4.90247 147 190 225 
-2.28088 1.66575 5.13017 145 133 145 
0.220969 3.31331 4.6908 255 241 217 
0.761563 3.35358 5.05172 200 183 165 
0.221659 3.29785 4.69692 255 241 210 
0.0865102 6.08583 4.53949 106 43 0 
-0.0771312 6.27295 4.67338 78 64 38 
-0.0516024 6.03454 5.2716 156 160 163 
-0.432765 3.32381 4.4603 229 216 200 
0.0587963 6.25087 4.11124 27 19 17 
0.9951 3.18741 5.56 215 196 166 
-0.122957 6.33161 4.80403 85 69 53 
-1.42044 6.1723 4.15724 171 193 214 
1.24488 3.37519 5.52345 72 26 10 
0.572696 3.29961 5.10291 193 157 125 
0.0326014 2.58959 5.7616 170 149 156 
0.772407 3.30327 5.246 186 163 111 
0.757681 3.2941 5.22395 69 43 10 
-0.536557 6.13027 3.80174 25 22 31 
0.64924 3.23906 5.22637 255 228 188 
-0.812263 3.44752 4.77 19 9 17 
-0.175051 6.16654 5.23777 176 171 175 
-0.431606 6.07042 3.79689 204 196 173 
0.515682 3.22395 5.18326 83 41 27 
0.113737 0.425657 5.4465 193 168 128 
-0.0236199 6.25024 4.89831 38 20 18 
-0.483939 6.19517 4.68147 193 195 181 
0.505994 3.19219 5.16936 242 234 188 
0.0176921 6.19631 4.93451 139 141 140 
0.0167622 6.15988 5.24123 16 17 21 
0.130551 0.430502 5.44344 57 27 16 
-1.18627 3.02149 5.13018 35 25 24 
-0.660179 2.89212 5.17072 219 210 195 
0.218829 0.376989 5.20291 103 112 81 
1.92789 3.03596 5.5615 61 59 47 
-1.04713 2.87432 4.78485 75 44 26 
0.0422998 3.14464 4.93428 208 204 205 
1.0235 3.12509 5.45078 178 173 151 
-1.19284 2.96894 4.79802 26 7 9 
-1.04248 2.94659 4.83164 40 25 20 
-0.512092 6.05916 4.00234 192 224 249 
-0.872369 3.0137 4.9639 76 55 36 
-0.0304635 6.16511 5.09243 154 158 159 
-0.108546 6.37729 5.18669 137 141 150 
-0.0668086 6.24671 5.0918 146 144 147 
-0.143206 -0.233128 4.19411 255 250 192 
-0.659984 6.2165 4.54479 165 163 125 
-0.742735 2.9963 4.80277 64 46 24 
-0.763661 6.0912 4.70299 187 188 190 
-0.0699261 6.27859 5.15556 151 150 155 
-0.592446 6.11908 4.78482 131 138 130 
-1.19444 2.94919 5.07152 46 35 31 
-0.183579 3.18742 5.08569 67 59 57 
1.6615 5.77856 6.52301 64 59 53 
-1.16029 2.97028 5.13418 173 156 136 
-0.18186 3.21121 5.09368 205 192 184 
0.646251 6.09913 4.60147 99 72 43 
-0.6078 6.27775 4.9005 111 125 108 
0.076893 3.10087 4.98687 174 173 181 
0.0980286 0.069713 4.88562 158 131 86 
-1.3734 2.71211 5.22107 105 90 71 
0.102142 0.0580583 4.8956 70 49 6 
0.662663 3.21622 5.55965 110 57 39 
0.582604 3.10805 5.2781 225 204 111 
0.795467 3.16435 5.4341 204 61 55 
-0.518424 6.16967 4.80319 40 54 3 
-0.0369051 6.26333 5.09351 118 119 123 
-0.443547 6.05816 4.29768 35 46 40 
0.556489 3.15384 5.24175 108 68 58 
0.021355 3.01472 5.65058 167 145 132 
-0.527257 6.23532 4.78388 127 130 109 
-1.61889 6.19093 4.28384 135 210 252 
-1.25537 6.09317 3.97938 182 221 255 
-0.645476 6.16679 4.66266 63 60 51 
-1.10505 2.91767 4.88048 52 35 27 
0.573283 6.20777 4.84448 96 81 52 
0.226208 3.26279 4.71422 247 230 202 
-0.578062 6.18652 4.43934 166 178 106 
-1.55088 3.18293 5.43591 77 62 59 
-0.745814 6.21033 4.57693 94 116 93 
-0.762347 3.31813 4.66273 64 54 45 
0.537655 3.24034 4.89273 173 158 139 
1.30117 3.26837 5.40008 104 68 36 
-0.119238 6.28231 4.2318 46 51 45 
0.594027 3.31085 5.13182 85 55 19 
1.23927 3.27547 5.46228 52 22 12 
-0.148823 3.37162 4.97536 165 142 128 
-1.45695 2.81562 5.36795 105 93 81 
-0.712362 3.16245 4.93459 97 41 40 
0.819718 3.23854 5.16062 80 52 30 
0.0879012 0.397114 5.28832 178 139 108 
0.423339 3.28148 5.03653 180 170 134 
0.461354 3.18598 5.1033 190 189 109 
-0.0848526 6.34711 5.52751 4 8 11 
0.449863 3.16616 5.08619 101 51 24 
0.440509 6.29851 4.80332 189 81 45 
-0.108863 6.13678 4.34858 205 204 174 
-0.450508 6.09295 4.35578 141 149 134 
0.571049 6.10013 4.80686 200 190 95 
-0.703455 2.90311 5.1535 26 22 19 
0.998284 3.23201 5.72629 160 126 91 
-0.00500034 6.19974 4.9622 174 170 167 
-1.28087 3.02938 4.99107 54 26 5 
1.51516 3.26201 5.99138 25 13 13 
-0.133377 3.19836 5.00077 187 188 208 
-0.441666 6.11042 5.4507 135 137 162 
-0.0302543 5.97718 5.27933 28 27 33 
-1.58933 6.03456 4.76638 197 204 210 
-0.340995 6.13087 3.92177 106 102 93 
-0.0588423 6.06284 5.30012 155 158 165 
-0.148589 6.18648 5.39455 141 146 168 
-1.63577 6.03934 4.74325 93 102 99 
0.0405924 6.01544 5.09189 97 98 102 
0.0233252 6.06619 5.5193 143 134 119 
0.00282746 6.17302 5.20478 124 125 127 
-0.143445 6.17457 4.38944 81 77 66 
-1.01921 3.01011 4.89464 209 173 139 
-2.17832 1.75486 4.81648 205 180 199 
-2.34639 1.90469 5.10578 63 37 50 
-2.0999 6.06532 4.85509 7 66 96 
-0.771694 6.19316 4.80892 156 158 153 
-0.524469 6.05298 5.5914 248 247 227 
-1.78195 6.10845 5.08817 241 241 243 
-0.043729 6.2616 5.18291 155 159 158 
-0.677827 6.30658 4.94531 139 159 100 
-0.598677 6.15135 4.81237 131 138 130 
-0.0919244 6.15855 5.03415 173 169 168 
-0.0981713 6.39194 5.24976 159 153 157 
2.01361 4.76641 5.76081 199 196 191 
-0.0980999 6.35704 5.18493 130 125 129 
-2.16675 2.39661 4.92696 115 187 235 
-0.556098 6.1196 4.71903 35 41 37 
-0.0490901 6.13707 4.94926 142 140 143 
-0.0313024 6.16288 4.98056 151 149 152 
0.171869 6.143 5.03787 22 16 18 
2.06387 3.36175 5.69755 188 186 174 
0.162443 0.450488 5.43539 164 157 111 
-0.913183 6.17871 4.54315 198 199 194 
0.438555 0.38159 5.44868 50 34 8 
0.240098 3.17107 4.5231 212 196 170 
-0.501967 5.95633 3.68756 48 43 50 
-0.426208 3.2984 4.39895 224 216 197 
0.944453 3.348 5.20346 85 77 64 
0.0237197 2.53167 5.79663 164 165 160 
-0.420531 3.28287 4.41261 208 198 188 
0.513526 3.33892 5.01183 43 40 23 
-0.0221895 6.2854 4.98312 120 121 125 
0.417655 0.341646 5.58053 58 40 4 
-0.703811 6.152 4.55689 115 129 94 
0.913359 3.38522 5.35476 217 188 144 
-0.476159 3.19623 4.34199 141 128 120 
1.23295 3.26091 5.35895 96 57 28 
-0.0247787 6.21234 4.87574 30 19 25 
0.585818 3.38452 5.24349 76 50 25 
0.572245 3.25059 5.04132 204 169 127 
0.769823 3.36158 5.33109 192 166 105 
-1.58363 6.22715 4.21778 106 196 233 
-0.0870599 6.16164 4.19443 180 180 172 
-0.637415 6.23293 4.60814 186 181 175 
-0.520677 3.21768 4.46721 77 64 47 
-0.0843322 6.19339 4.23897 19 22 15 
-1.15116 2.8694 4.94711 92 74 62 
-0.569479 6.03342 3.93963 178 222 251 
-0.480343 5.8764 3.8555 56 86 110 
2.07786 3.1701 5.84739 99 104 84 
0.759483 3.17636 5.14834 86 75 43 
-0.637094 6.17308 4.51559 179 185 125 
1.93055 2.94239 5.43286 200 201 185 
-1.40052 6.11267 4.11594 142 160 180 
-0.788864 3.37964 4.6871 30 19 23 
0.679153 3.19572 5.21139 220 194 159 
0.511838 3.20484 5.14821 74 46 34 
0.387417 3.24836 5.15076 202 186 153 
-1.04449 2.93518 4.82289 34 19 22 
-0.786395 3.35825 4.69154 203 195 184 
-0.799337 3.34981 4.67092 26 11 14 
-0.961042 3.3171 4.53085 221 215 193 
0.736966 3.21044 5.29205 244 205 174 
0.696263 3.18595 5.23077 63 45 31 
-0.773994 3.35861 4.71139 51 46 40 
0.338864 3.20215 5.0755 182 167 148 
-0.342059 6.31155 4.70178 39 21 7 
0.163017 -0.0274347 4.81768 56 28 17 
-0.110727 6.11923 4.28363 80 80 68 
0.10241 -0.0282994 4.73597 158 141 111 
-0.866721 3.00258 4.94165 66 45 28 
0.093846 -0.0504357 4.72654 73 50 19 
-0.785236 2.93095 4.80322 44 27 19 
1.11128 3.1049 5.46734 56 90 63 
-0.924407 3.0394 4.8518 23 7 7 
-0.787243 3.08954 5.00848 56 51 22 
2.12861 3.04531 5.95525 179 183 150 
-0.0815341 6.30001 4.70174 79 69 60 
-0.131181 6.20722 4.43112 117 122 90 
-0.759704 3.0495 4.92398 25 21 9 
0.0478973 6.259 4.70959 238 183 56 
1.12707 3.17187 5.65406 218 185 82 
-0.198834 6.16857 4.39829 116 115 95 
2.10754 2.74121 5.74195 179 176 161 
1.03769 3.09504 5.5176 234 209 179 
-0.465181 6.08497 4.28283 134 132 109 
-0.188787 3.20316 5.05837 201 204 221 
0.657785 3.21529 5.54875 117 54 62 
0.979131 3.04801 5.44573 86 51 29 
-0.48627 7.09553 3.47291 74 73 69 
-2.31436 2.46846 5.02338 174 166 189 
0.0370501 3.25213 5.21257 165 158 150 
0.231298 3.25051 4.69446 249 234 201 
3.81324 9.28764 5.80179 98 73 53 
0.715401 3.15693 5.08176 183 155 144 
-0.442498 5.99821 4.00484 107 122 151 
-2.32584 2.02062 5.04871 181 160 175 
-1.60403 6.06348 4.02532 148 156 177 
-0.107182 3.21553 4.75701 168 145 129 
0.492737 6.85063 3.93518 36 34 37 
0.125947 0.0309364 4.72756 76 56 19 
-0.0237766 5.91915 5.22796 29 29 41 
-1.30212 6.054 4.80644 120 118 131 
-1.39726 2.72341 5.2332 241 230 212 
-2.23033 2.46394 4.94641 168 223 255 
-1.03974 2.98692 4.86805 214 183 154 
0.0297803 6.02682 5.13 21 22 26 
-0.778337 3.07006 4.90909 99 79 54 
-1.484 2.86803 5.44633 100 89 83 
0.790569 3.11934 5.36771 204 62 50 
-0.905733 2.97305 4.82296 31 14 6 
0.596409 3.07365 5.26329 97 88 71 
-0.143402 6.18215 4.12722 189 183 161 
-0.0388314 -0.388531 4.13714 228 211 193 
0.569015 5.9859 4.48468 193 67 70 
0.0461297 2.90875 5.4765 105 88 70 
-0.501496 3.3707 4.70508 202 189 180 
-1.01114 3.16537 4.74447 92 37 32 
-0.346734 6.16149 3.95232 89 86 81 
0.816158 3.14281 5.40735 124 97 30 
-0.692673 2.8777 5.10872 29 25 24 
-0.496229 7.05285 3.5719 99 91 89 
-0.534254 6.19633 4.82981 67 78 44 
-0.619342 6.18269 4.68997 194 192 180 
-1.89762 2.99242 5.16755 66 67 72 
-0.42253 6.00933 5.35719 131 135 160 
0.151897 -0.0443013 4.72445 110 86 60 
0.240783 5.54004 5.91107 19 19 27 
0.0973191 -0.0801944 4.56889 212 189 145 
2.12531 3.50214 5.6685 154 145 128 
-0.783288 3.10329 5.08279 186 177 138 
0.073071 6.17112 4.61327 156 83 50 
-0.0806999 6.26367 4.67639 70 60 48 
0.0657656 6.22854 4.5351 31 83 60 
-0.330649 6.25689 4.62554 194 171 137 
-0.580372 6.15986 4.43713 184 184 84 
-0.502377 6.31709 4.61872 163 168 136 
-0.205789 6.25528 4.73451 34 24 15 
-0.70282 6.18753 4.53798 198 193 173 
-0.700796 7.16608 3.68351 125 121 112 
-0.50629 6.20212 4.64516 162 161 140 
-1.60229 6.28183 4.25865 106 196 233 
-0.721418 6.22715 4.61332 116 128 90 
-1.57807 6.08435 4.14843 130 193 224 
-0.939059 6.27207 4.61064 198 197 195 
1.92093 2.88295 5.75259 114 108 96 
0.184587 6.00301 4.92222 20 17 24 
-0.0416537 6.24296 5.04793 151 149 152 
-0.0868277 6.24205 5.09102 178 169 170 
-1.00447 6.05764 4.54248 174 175 170 
-0.0252567 6.11328 5.05967 148 153 149 
-0.0153381 6.13926 5.10099 88 92 91 
-0.5588 6.16895 4.10031 43 75 98 
-0.78875 6.20593 4.8601 52 58 48 
-0.0813966 6.05445 4.16738 64 64 56 
-0.2544 6.29423 5.34226 26 28 27 
-0.0962867 6.18045 4.20069 45 47 44 
-0.151291 6.23953 5.44106 140 143 162 
0.0525371 6.18388 4.65029 238 193 48 
-0.00301291 6.278 5.71044 155 146 129 
-0.461735 3.29669 4.56515 215 203 189 
-1.71176 5.9185 4.9299 177 171 173 
-0.0535702 6.11491 5.40058 22 35 44 
1.97943 4.41532 5.79093 172 172 162 
0.436632 0.303676 5.37708 63 42 0 
1.21503 6.91598 3.61961 54 55 57 
1.97987 4.01459 5.62788 139 140 135 
2.05774 4.30286 6.11069 27 32 25 
2.0116 3.98484 5.7042 149 141 128 
2.09414 4.12917 6.00707 185 173 161 
0.178503 0.42857 5.32423 218 215 164 
2.31854 4.06927 6.32926 205 196 179 
-0.533394 6.91027 3.08867 54 53 51 
2.13353 3.53941 5.876 196 188 175 
0.213459 3.29309 4.69131 182 165 149 
0.230137 7.07789 3.87938 35 35 35 
-0.100442 7.16603 3.75627 57 53 52 
0.515634 3.29035 4.9442 41 34 18 
-2.25673 1.82893 4.93317 66 46 58 
1.23301 3.25683 5.34507 85 37 17 
-0.475573 3.30463 4.54167 216 203 187 
0.566427 3.25613 5.03436 207 167 108 
-0.463847 3.27834 4.56394 221 209 197 
-0.577549 6.05348 4.68361 150 156 146 
0.736094 3.17367 5.07019 225 199 164 
-0.0634941 7.14997 3.73127 46 42 41 
-0.523952 3.22386 4.47478 117 104 87 
0.704877 3.13842 5.02755 26 4 7 
0.757452 3.29668 5.31981 64 53 35 
-0.131373 3.31727 4.89004 173 146 125 
-2.31808 2.5154 5.17087 114 83 114 
0.727533 3.359 5.51209 242 215 186 
0.693716 3.19509 5.23107 39 27 13 
0.507666 3.22552 5.17915 70 47 33 
-0.747058 3.29751 4.62995 52 49 44 
-0.762558 3.28783 4.60587 217 207 197 
0.331286 3.24279 5.14194 192 177 158 
0.342968 6.96995 3.74835 149 138 134 
0.333284 3.1178 5.13937 80 67 58 
1.02811 3.07733 5.4719 240 211 179 
0.0370051 3.22431 5.1688 214 202 186 
-0.189556 3.20212 5.05365 187 193 215 
0.0396937 2.57025 5.71404 179 156 162 
-0.90884 2.99894 4.78827 24 12 16 
0.406418 7.00098 3.76411 65 58 50 
-0.76845 2.8895 4.74976 48 30 30 
-1.13878 2.78788 4.3618 173 159 158 
0.112217 -0.0783677 4.76419 254 231 163 
-0.851434 2.9621 4.88462 76 55 36 
-0.487026 3.20469 5.58399 46 14 17 
-1.02557 2.95968 4.82848 218 187 158 
-0.951596 2.99262 4.98381 35 26 29 
-1.03277 2.91853 4.79687 27 16 22 
-1.1177 2.83055 4.59765 19 4 7 
-1.672 2.949 5.03242 223 209 183 
2.74248 8.6728 6.45117 10 6 7 
-0.646402 2.81626 5.03383 224 204 177 
-0.122854 6.05695 4.03849 167 160 142 
0.267566 -0.0573326 4.63133 55 15 16 
0.231692 3.30443 4.71778 109 82 53 
-1.32164 6.08189 4.83011 109 108 122 
-0.738312 6.52082 5.08772 58 66 53 
1.10569 5.45033 6.55357 11 15 16 
-0.261352 7.10147 3.55265 50 47 38 
-0.763474 2.93114 5.0128 79 66 60 
0.490538 2.51431 5.72439 58 43 40 
-0.435274 6.05673 5.393 139 144 164 
-0.527793 3.02529 5.66214 89 72 64 
-0.519944 6.37509 4.62709 42 45 38 
-0.521387 6.3202 4.45153 96 101 94 
-0.417724 6.09587 3.81075 89 86 81 
0.974886 3.15764 5.62496 101 68 49 
0.983509 3.09625 5.41516 229 213 177 
1.19929 3.2293 5.7207 234 209 5 
0.997967 3.13233 5.4353 61 69 46 
-2.23745 1.66073 5.13947 70 73 88 
0.809965 3.26821 5.61998 209 159 96 
-0.940694 2.96633 4.94063 33 27 31 
-0.433632 6.00701 4.05511 187 201 210 
-0.154088 6.24136 4.32381 235 226 209 
2.25048 3.78324 5.99621 206 196 187 
0.155753 6.8619 3.51576 42 39 30 
-0.784423 3.32698 4.66624 222 208 195 
-0.0825047 6.2564 5.11385 168 156 158 
-0.534143 6.16685 4.73595 194 190 165 
-0.0652459 6.90523 3.60187 52 48 47 
-0.0204226 6.07015 5.02614 108 113 107 
0.00495625 6.17562 5.21325 118 122 121 
0.212749 7.15565 3.9027 65 62 55 
0.195637 7.12589 3.87686 54 53 49 
-0.26685 7.15777 3.78198 66 62 61 
0.704589 3.21612 5.29515 247 213 188 
0.429816 7.0905 4.02232 25 23 24 
-2.2894 1.6183 5.00165 186 189 198 
-0.795981 3.33066 4.64796 24 10 7 
0.0681655 6.20721 4.64014 156 83 50 
0.681201 3.39801 5.53678 48 34 21 
0.375479 7.20658 4.16258 95 86 87 
0.41671 7.30477 4.25663 40 38 39 
0.388659 7.25841 4.21468 54 45 48 
-0.798575 3.37259 4.64239 195 180 159 
-0.127339 6.23398 4.36791 84 81 64 
0.758839 3.33618 5.36727 48 40 29 
-0.465777 3.25872 4.55525 212 200 188 
-0.116116 6.3369 4.31306 190 187 178 
2.00148 4.31256 5.81178 50 48 35 
-0.462043 3.29183 4.55763 215 203 189 
0.0139942 3.23661 5.08234 205 196 187 
0.560983 3.28075 5.06679 208 161 107 
-0.507632 3.30228 4.48177 118 107 103 
0.921851 3.37121 5.32548 223 185 114 
2.80296 8.96777 6.68322 17 11 11 
0.42185 0.501413 6.12771 196 171 71 
0.206004 0.42274 5.36511 113 126 83 
-0.460743 3.39009 4.53962 235 222 205 
-0.97704 3.13107 4.98076 30 17 24 
2.07806 4.04157 5.88353 50 42 31 
0.225207 0.371423 5.21587 189 202 174 
-0.364374 7.00177 3.34768 51 43 40 
-0.881432 7.51053 3.49559 175 174 172 
-1.11012 2.73722 4.2795 199 190 191 
-1.7552 2.9792 4.48449 146 209 242 
-0.80454 6.29146 4.85542 154 158 144 
-0.0017954 7.05608 3.73466 25 28 37 
0.869265 3.33818 5.24739 226 192 105 
2.03409 4.06685 5.8069 137 125 113 
-0.992322 7.19553 3.83962 44 42 53 
-2.17522 1.88159 5.08734 48 75 102 
-0.146149 6.20356 4.14271 200 194 170 
0.487473 2.49354 5.8067 155 137 127 
-0.820127 3.15475 5.56482 90 87 78 
-0.548214 7.00193 3.37559 159 151 149 
1.99856 4.65387 5.65128 203 196 186 
0.235664 7.09216 4.06777 17 20 25 
0.13701 -0.125958 4.33161 59 24 18 
-1.13878 2.96916 4.89089 23 25 24 
0.64414 3.36276 5.47946 103 84 67 
-1.07962 3.02842 5.05844 48 38 29 
0.25464 7.30829 4.29586 14 18 30 
-0.645949 6.16462 4.83456 148 165 85 
-0.118879 3.2933 4.86469 171 145 120 
0.506903 3.30839 4.9755 54 41 25 
-0.490541 6.23765 4.56064 142 148 114 
-0.562406 6.0916 4.38904 185 188 85 
1.2446 3.35229 5.55979 51 24 15 
1.10206 3.22203 5.5349 107 57 32 
0.704923 3.26142 5.24339 46 27 29 
0.708323 3.27076 5.23842 125 110 115 
0.647254 3.21347 5.24267 26 22 0 
-0.675777 2.95553 5.25218 135 130 136 
0.65235 3.20965 5.2753 209 200 169 
0.676327 3.25907 5.23729 85 26 32 
0.689837 3.25791 5.23479 61 19 31 
0.679445 3.26233 5.22654 194 142 154 
-0.87448 3.05532 5.06448 79 60 46 
0.577837 3.2411 5.23939 194 171 127 
0.748123 3.30929 5.00307 255 249 237 
1.01109 3.22472 5.57906 86 89 72 
0.497068 3.26201 5.21838 33 28 24 
0.467065 3.25178 5.2435 86 93 26 
0.592115 3.23673 5.23056 225 231 143 
0.522893 3.24452 5.24964 247 214 181 
0.557398 3.23124 5.25961 101 101 39 
0.565988 3.22356 5.25983 70 63 11 
0.488612 3.22818 5.24179 136 134 77 
-0.459704 3.21894 5.86513 142 107 101 
0.578253 3.23287 5.22814 191 174 118 
-1.16674 2.97419 4.82842 250 238 222 
0.748347 3.27383 4.95646 48 41 33 
0.5873 3.23986 5.2454 125 122 45 
0.474747 3.21947 5.24644 200 208 135 
0.396285 3.20518 5.23093 154 74 73 
1.23843 3.34471 5.47248 71 30 8 
1.07806 3.21754 5.48354 125 68 0 
-1.64119 2.81676 4.93579 254 255 248 
0.76657 3.3409 5.30655 55 41 28 
0.486116 3.25019 5.23054 126 125 69 
0.667736 3.22769 5.25267 87 62 42 
0.686459 3.23261 5.26686 152 144 123 
0.830285 3.22633 5.53521 236 221 192 
1.07818 3.20528 5.46567 124 61 10 
0.476631 3.23279 5.25265 198 211 105 
-0.190849 3.21504 5.09613 174 170 171 
0.757044 3.27757 4.94961 213 203 178 
0.738061 3.28993 4.96885 253 241 225 
0.694704 3.21776 5.27183 31 25 29 
-1.66943 2.83263 4.9793 16 25 32 
-1.58123 2.90005 4.93418 223 225 222 
0.56206 3.23646 5.23767 108 86 37 
0.492898 3.25623 5.22549 193 189 164 
0.817101 3.2548 5.56892 202 172 122 
-0.788112 3.08379 5.00891 98 97 76 
-0.900424 3.07772 5.05362 34 16 12 
0.760884 3.28333 4.95913 214 204 179 
0.44651 3.21013 5.22053 196 208 108 
0.675482 3.21854 5.25491 154 149 120 
0.642043 3.22203 5.28512 85 85 31 
-0.797845 3.1213 4.98296 81 69 53 
0.661044 3.24062 5.5935 89 40 43 
0.745065 3.32017 5.27183 192 173 143 
-1.63938 2.80989 4.92095 252 255 246 
-1.66607 2.82611 4.96721 16 25 32 
-0.684416 2.94619 5.25672 180 174 176 
-0.744259 3.02999 5.19378 131 130 86 
1.0006 3.24118 5.73986 104 72 51 
0.735829 3.33202 5.24211 177 153 115 
1.04565 3.23773 5.74052 236 214 191 
-0.688051 2.95792 5.27222 204 196 194 
-1.66024 2.83834 4.96734 173 182 177 
1.00954 3.24843 5.62137 48 59 51 
0.658645 3.25412 5.61665 76 35 39 
0.684953 3.27987 5.23416 34 8 17 
0.999396 3.23734 5.72962 117 86 68 
-0.887902 3.07078 5.14887 102 76 75 
-1.20103 2.93189 5.0324 87 77 76 
0.988522 3.22773 5.61717 215 192 174 
0.502462 3.2453 5.25266 245 239 203 
-1.22071 2.94588 5.03364 173 160 141 
0.340455 -0.393521 5.21065 208 196 182 
0.33461 -0.392041 5.20022 95 83 71 
1.3547 -0.492828 6.20723 36 39 30 
2.31253 1.74128 5.83932 153 156 145 
-1.36147 -0.28438 5.4955 155 154 159 
1.47107 -0.900149 6.37592 62 63 67 
-1.36613 -0.284006 5.51359 175 173 176 
1.40826 -0.706853 6.27245 162 164 161 
0.164872 0.344466 5.06549 139 128 108 
0.713391 3.26548 5.21412 113 98 93 
0.514979 3.23539 5.21213 76 30 32 
1.31001 -0.488279 6.1996 52 56 57 
0.00344375 -0.00383367 5.00954 181 158 117 
0.495974 3.29545 5.21276 138 124 121 
0.159927 0.342232 5.07727 116 105 87 
0.645738 3.24462 5.22761 237 216 189 
0.68254 3.2561 5.23632 59 9 12 
0.652918 3.22948 5.21257 237 209 188 
1.36951 -0.676747 6.28066 85 83 88 
-1.78801 -0.204868 5.22697 190 198 200 
1.33293 -0.500603 6.21268 19 18 24 
0.326524 3.30924 5.22571 130 120 121 
0.0656582 -0.0587513 5.02796 38 7 22 
0.109548 -0.0234575 5.07286 25 13 0 
0.505103 3.25967 5.21371 69 35 34 
-1.29389 -0.304892 5.45135 143 147 146 
0.495484 3.28217 5.21563 50 38 26 
0.093901 0.385549 5.07546 138 128 116 
0.511229 3.2416 5.21577 88 31 14 
0.325499 3.30987 5.22347 154 139 134 
0.495038 3.25708 5.21508 38 19 21 
-1.31217 -0.262673 5.42159 147 142 139 
0.491364 3.29634 5.21099 137 119 107 
0.680599 3.275 5.23059 47 27 29 
0.0245715 -0.0348494 5.03933 40 23 16 
0.299337 3.21736 5.27571 25 16 37 
0.381093 3.29521 5.2119 188 161 152 
-0.158892 2.19664 5.96543 32 31 29 
-0.186789 2.19588 5.94862 18 17 12 
-0.194443 2.19335 5.97673 13 12 7 
-0.318373 2.24666 5.93313 37 37 35 
2.00319 3.53636 5.40058 157 159 145 
-0.255876 2.25146 5.94274 134 132 133 
-1.47797 3.29176 3.42157 195 221 244 
1.97838 4.01587 5.4558 136 135 115 
1.97567 4.03826 5.45491 180 182 171 
1.99274 4.22145 5.43793 101 94 84 
2.00486 3.15853 5.42787 60 57 38 
-1.38756 5.59162 4.27548 187 198 202 
-1.36309 5.61153 4.31936 147 154 162 
2.15258 2.82016 6.14996 145 139 127 
-1.95007 1.44425 4.43225 161 141 150 
-0.432528 3.30205 4.38584 89 76 59 
0.0339604 3.21017 4.99863 139 144 186 
-0.722607 5.69401 4.09073 112 113 117 
0.229597 0.3615 4.85114 163 129 104 
0.707555 3.24241 5.1999 53 26 15 
0.500166 3.27583 5.21089 56 41 22 
0.0260539 5.70353 4.20897 106 77 35 
0.158713 5.63853 4.10786 113 87 26 
-1.04251 2.95889 4.77767 84 59 39 
0.522767 3.23751 5.15331 79 44 25 
-0.75911 3.26982 4.5519 42 25 5 
0.507602 3.24061 5.16761 57 43 16 
-0.747345 3.31465 4.58167 22 13 6 
0.510222 3.22844 5.16824 123 105 69 
0.745718 3.20014 5.27235 237 229 182 
-0.291902 2.20244 5.90519 41 42 37 
0.0182439 2.1715 6.03511 53 53 53 
0.758825 3.20092 5.3225 133 114 0 
-0.12582 2.18338 5.99588 71 67 66 
-0.462373 2.1992 5.85569 43 43 41 
-0.385854 2.19135 5.912 46 48 45 
-0.442021 2.18431 5.84925 51 52 47 
-0.882165 3.04756 5.12735 166 136 110 
0.133788 5.66616 3.97134 139 156 102 
-0.172009 2.24305 5.9695 154 153 148 
-0.127357 2.24609 5.99983 71 70 68 
0.144329 0.388919 4.9337 172 127 70 
-0.184663 2.26109 5.98621 40 38 39 
-0.745735 3.32297 4.55743 161 149 137 
0.209199 5.60903 4.0718 155 108 28 
-0.0536152 2.25842 6.0116 51 47 44 
-0.0382239 2.25754 6.02303 47 43 40 
-0.389992 5.64235 3.93876 165 168 115 
-0.431515 3.21428 5.82032 143 96 66 
0.51637 3.26618 5.19538 151 119 106 
-1.07526 5.61741 4.34358 108 112 113 
2.08699 1.08945 5.58548 125 127 105 
-0.44692 5.64312 4.06075 192 190 175 
0.0433735 5.64403 4.77755 117 114 121 
1.92871 3.02208 5.18966 196 189 170 
0.0454671 5.67207 4.79118 121 117 116 
-0.41454 3.30139 4.37409 167 153 140 
-0.680486 5.66641 4.28105 143 157 131 
0.0832261 5.66976 4.50379 162 159 150 
0.0827449 5.66431 4.51227 172 169 162 
0.11031 5.63717 4.58232 158 159 161 
0.599907 3.21188 5.15152 124 107 15 
2.048 1.26898 5.51046 115 120 98 
0.532598 3.20768 5.17083 244 212 137 
-1.34211 2.65302 5.10022 200 187 178 
-0.112388 2.19663 5.99846 53 51 52 
-0.390641 0.0770905 4.4686 83 53 3 
0.685597 3.24248 5.18443 204 149 129 
1.05317 0.322553 5.25671 119 84 0 
-0.344092 2.27675 5.93448 143 143 141 
0.640184 3.22905 5.1803 233 194 115 
-0.694241 2.93304 5.19518 186 168 144 
-0.183691 0.536102 4.81957 197 147 94 
-0.549938 5.6264 4.24935 135 142 126 
0.472293 3.25827 5.16678 88 92 16 
0.725654 3.23572 5.16063 234 210 186 
-0.241155 -0.258229 4.75563 251 229 120 
-0.0199247 2.67509 6.09984 155 150 157 
-1.03365 2.96182 4.77074 202 179 145 
-0.964445 2.97072 4.80403 84 55 39 
-0.0333585 2.25468 6.00663 47 43 40 
-0.254429 2.27215 5.92629 44 43 41 
-0.193721 2.19291 5.92091 62 61 56 
-0.3233 2.18563 5.93088 20 20 18 
2.07556 2.88028 5.56018 126 110 85 
0.329398 3.19338 5.24327 232 209 175 
0.49382 3.19561 5.23756 220 205 146 
-0.361209 5.62044 3.67474 73 100 119 
0.586421 -0.196945 5.52308 70 55 22 
2.04743 1.27078 5.52886 125 129 106 
0.525699 3.22425 5.17231 91 46 17 
2.10955 1.08471 5.64684 176 171 142 
-1.95067 1.43002 4.44922 102 91 95 
0.651953 3.23721 5.20024 245 186 152 
0.327888 3.30891 5.21789 137 123 110 
-0.060134 5.65916 4.16937 36 20 0 
0.505797 3.27117 5.19051 56 41 22 
-0.447975 5.63782 4.02003 172 174 124 
2.14017 3.19735 5.95624 44 48 15 
-0.422907 3.29069 4.36047 99 84 65 
-0.376036 5.59948 4.1997 46 44 32 
-0.393258 5.60139 4.2164 172 168 159 
-0.598183 5.67151 4.26923 153 156 137 
0.00921838 5.68363 4.74213 114 110 109 
0.214519 0.362647 4.89706 199 162 107 
-1.37442 5.60687 4.30602 153 162 169 
-1.39844 5.6044 4.28908 216 227 229 
2.32394 1.71304 5.67953 153 146 120 
-0.288512 2.1993 5.89486 30 31 26 
0.728986 5.57072 4.08972 128 106 23 
-1.97467 1.64696 4.44075 51 24 33 
0.201514 5.62218 4.09094 155 108 28 
-0.909829 3.04945 5.17974 86 56 28 
0.0101081 5.67262 4.58597 184 177 159 
1.8864 3.03866 5.20665 222 212 187 
-0.331358 5.59869 4.23507 49 56 4 
-0.491857 2.21213 5.82729 58 58 56 
0.465416 5.61011 4.13184 140 125 58 
-0.3904 5.64428 3.9699 178 176 125 
-0.386149 0.077237 4.45504 77 49 2 
0.596744 3.21672 5.16264 127 98 22 
0.204569 5.62859 4.14343 148 112 0 
-0.690925 2.93048 5.18359 186 168 144 
0.523192 5.58117 3.98285 134 110 14 
-0.180063 0.535801 4.80732 208 159 103 
0.673583 3.25737 5.24173 192 143 126 
-0.929041 3.33085 4.47713 170 156 143 
-0.0973636 2.17385 5.96099 89 88 83 
-0.220337 2.16812 5.91823 99 99 91 
0.0458546 5.64545 4.78546 120 119 124 
-1.37052 5.62204 4.33379 147 154 162 
-0.254366 2.19051 5.94827 61 60 58 
-0.0680969 2.17872 5.9868 10 10 10 
-0.485227 2.20781 5.81073 46 46 46 
2.09921 4.09999 5.60226 33 29 17 
1.9747 4.04649 5.47046 171 173 162 
1.99066 3.99249 5.4551 38 35 18 
2.25013 1.70357 5.70067 43 40 23 
-0.315425 2.18216 5.90939 41 41 39 
-0.43551 2.1856 5.82238 41 41 39 
-0.482865 2.18826 5.83445 56 56 54 
0.324024 3.2981 5.21411 168 151 141 
-0.217812 -0.206643 4.71702 186 167 88 
-0.196483 -0.168255 4.84222 161 135 112 
-0.0213668 5.7083 4.71787 113 106 98 
-0.269782 2.20358 5.93037 136 136 134 
0.129478 0.0860625 4.98094 75 45 17 
-0.317451 2.24728 5.92396 52 52 50 
-0.298232 2.24665 5.94156 18 18 16 
2.32248 1.71772 5.70882 201 190 168 
0.501799 3.28072 5.21821 37 18 3 
-0.448045 5.61689 4.2795 153 162 115 
-0.480985 2.26544 5.80127 27 26 22 
-0.42033 5.62487 4.28978 146 151 131 
-0.754272 3.32925 4.57295 161 149 137 
0.594741 3.232 5.20789 235 212 119 
0.5198 3.23256 5.19139 92 42 15 
-0.745734 3.3057 4.56646 24 13 7 
-0.255228 2.25633 5.96736 67 65 66 
-0.345362 5.61643 4.20756 187 186 158 
-0.10608 2.2461 5.97496 26 26 24 
-0.231447 2.26665 5.97545 25 24 22 
2.33822 1.70809 5.70261 164 153 123 
-1.16039 -0.0399447 5.41029 146 143 138 
-0.261617 2.27704 5.95225 44 43 41 
0.482955 0.367967 5.1378 90 64 15 
-0.33278 5.655 4.16989 29 33 16 
-0.31349 5.62233 4.0978 207 207 199 
-0.331185 5.62864 4.07489 61 56 37 
-0.443459 5.63038 4.00663 182 186 125 
-0.467819 5.6511 4.02202 128 135 91 
-0.940492 3.0724 5.25003 79 52 23 
0.182653 0.398519 4.85074 199 158 104 
-0.696525 2.93984 5.22803 209 188 159 
-0.177397 2.20203 5.99693 155 154 149 
2.27103 1.54364 5.70596 171 166 134 
-0.0176842 2.67023 6.08909 162 157 164 
-1.94846 1.63387 4.41105 168 147 162 
-0.662524 -0.448322 4.72833 255 248 206 
-0.00827768 2.66146 6.056 162 157 164 
0.67836 3.20824 5.22984 222 172 145 
0.515795 3.23554 5.20424 92 42 15 
0.505785 3.24668 5.2 76 52 28 
2.24448 1.694 5.74111 153 143 116 
2.00749 3.35237 5.17267 145 145 133 
2.24802 1.5639 5.64101 43 39 10 
2.24765 1.55523 5.72143 185 180 151 
2.22882 1.54814 5.71254 22 25 4 
2.27573 1.5303 5.73435 42 39 22 
-1.94243 1.55493 4.40678 185 166 172 
1.99053 3.99588 5.47032 38 35 18 
1.98841 4.12537 5.44979 27 23 14 
-1.91139 1.44213 4.46529 183 164 168 
0.590865 -0.195405 5.50098 61 45 22 
-1.95671 1.43843 4.43982 188 179 184 
-1.97193 1.435 4.48362 77 58 64 
2.20141 0.86553 5.67422 164 159 129 
-1.08864 5.62482 4.35745 95 99 102 
0.354661 0.514151 5.28171 233 172 66 
0.143828 5.59645 4.58912 154 148 148 
-0.401109 5.60966 4.22695 182 178 169 
-0.331166 5.63794 4.15634 59 61 40 
0.20956 0.361524 4.90834 190 156 95 
-0.319569 5.64108 4.07717 160 157 140 
-0.280801 5.57949 3.79795 156 154 141 
-1.05451 0.284669 4.51168 201 167 93 
2.32242 1.71681 5.69592 201 190 168 
1.15339 0.337922 5.1139 173 134 79 
0.704495 3.26754 5.15888 56 22 10 
0.378214 3.29885 5.21782 190 167 133 
0.656258 3.30522 5.36108 54 25 21 
0.498126 3.28683 5.19195 165 150 129 
-0.00223124 5.68683 3.96804 122 128 90 
0.51357 3.26131 5.16069 56 41 22 
-0.481094 2.19918 5.8047 37 37 37 
-0.247904 2.19422 6.02994 70 69 64 
-1.02026 2.94737 4.81376 79 56 42 
0.494757 0.301341 5.19518 108 84 24 
0.154462 0.393611 4.88631 199 160 93 
-1.96358 1.63353 4.43528 177 160 176 
0.31901 5.50135 4.36906 42 30 14 
-0.587244 5.65818 4.253 179 182 163 
-0.289939 2.24568 5.9163 56 56 54 
-0.402157 5.59446 4.25171 144 149 127 
-0.0468473 5.6816 4.68085 146 139 146 
-0.308454 2.26133 5.89508 33 33 31 
-0.225287 2.2565 5.95694 26 25 23 
0.0134475 5.66979 4.75591 139 137 142 
0.00885688 3.22895 5.08255 152 151 183 
-0.206526 3.28256 4.97725 167 133 132 
