ply                 
format ascii 1.0    
element vertex 444
property float x    
property float y    
property float z    
property uchar red  
property uchar green
property uchar blue 
end_header          
0.870741 -1.1834 6.42849 73 64 59 
0.0447342 0.00892663 4.94592 145 136 103 
0.070839 -0.736847 4.98687 155 69 94 
-0.462792 -0.668888 4.78062 102 96 74 
1.23513 -0.795018 6.02166 55 47 45 
1.33734 -0.703036 6.06305 20 20 22 
1.26305 -0.692713 6.02527 61 62 64 
1.34235 -0.681803 6.08534 82 81 86 
0.0586662 -0.00364672 4.95124 53 35 0 
0.647526 3.08333 5.14287 173 139 140 
0.22035 -0.0209793 5.01979 46 39 13 
0.0243597 -0.0211334 4.93656 65 40 9 
0.0669669 -0.0230134 4.94353 158 142 117 
1.5894 -0.359132 6.08468 89 88 84 
0.202673 -0.0271839 5.01608 46 30 14 
0.625858 3.04603 5.16518 122 114 111 
-1.26225 -0.290797 5.2325 150 156 168 
-1.66839 -0.252381 4.96866 158 166 189 
0.588516 -0.0354635 5.35168 80 40 0 
0.5874 -0.0405831 5.32405 95 60 0 
0.584758 -0.0436969 5.33601 78 47 0 
0.0516103 -0.0433987 4.94098 59 28 10 
-1.09433 -0.0464666 5.23093 91 95 106 
0.0155934 -0.197327 4.93105 90 68 29 
0.128008 0.354035 5.00093 16 6 4 
0.590321 -0.0791959 5.33396 129 104 4 
-1.56739 2.67563 4.88865 252 255 251 
-1.56624 2.68518 4.9107 255 253 254 
1.06155 3.01531 5.57901 169 163 105 
-1.01721 0.251845 4.51808 132 111 84 
0.579229 -0.0970607 5.35265 123 104 1 
0.590033 -0.0940639 5.34808 152 132 20 
-0.651569 2.76254 5.14083 100 90 80 
-1.07669 2.77996 5.0866 123 103 92 
-1.22 -0.282458 5.25965 108 103 107 
0.101341 0.0479518 4.96765 75 59 33 
-1.12208 -0.211106 5.28516 107 113 127 
-1.63598 -0.212533 4.96405 157 169 183 
-1.22312 -0.262693 5.24247 148 143 149 
-1.67896 0.0555666 4.84005 107 125 147 
0.526901 3.03515 5.14232 102 105 38 
0.0140389 -0.387246 4.91553 212 197 194 
1.26289 -0.701667 6.04494 48 46 49 
0.846613 -1.18121 6.42982 171 161 152 
0.010001 -0.209317 4.93843 157 145 97 
0.587021 -0.0883574 5.32091 68 45 0 
0.584726 -0.0901769 5.34337 25 8 0 
0.131342 -0.0159057 4.97387 61 44 26 
0.0365348 0.0290587 4.95706 227 214 179 
-0.339434 -0.178461 4.55604 51 35 2 
-1.566 2.68341 4.90653 255 254 253 
1.60955 -0.362899 6.0541 170 164 152 
-0.577946 -0.415344 4.59293 255 245 236 
-0.467055 -0.676092 4.77973 255 252 240 
1.44442 -0.832208 6.07626 174 173 169 
1.1569 -0.782334 6.00287 66 65 60 
1.23499 -0.794718 6.02113 55 47 45 
0.00981552 -0.00598986 4.94444 58 41 0 
-0.42883 -0.176332 4.50475 73 64 25 
0.0448703 -0.00480679 4.94699 109 86 32 
1.25465 -0.477078 5.97169 37 35 36 
0.910641 -0.0955717 5.29772 55 38 0 
-1.08354 -0.0626086 5.25707 137 141 142 
0.0451601 -0.816458 5.02182 230 157 186 
-1.2639 -0.291927 5.23852 150 156 168 
0.0662707 -0.85461 5.05062 129 80 102 
1.24927 -1.76333 6.14275 110 110 110 
-1.35076 2.70863 5.09994 233 232 230 
0.024434 -0.0208569 4.93955 65 40 9 
0.133262 -0.112691 4.97005 54 40 5 
0.624171 3.04295 5.15504 163 146 138 
-0.614552 -0.897347 4.80489 230 219 213 
-0.00853462 -0.00972307 4.95166 178 149 119 
-1.21672 -0.141796 5.22215 136 141 147 
0.0487412 -0.220063 4.93993 165 144 97 
-1.21158 -0.143219 5.22868 139 143 155 
-0.893761 2.53899 4.00403 119 114 121 
-1.27083 -0.167199 5.17935 128 128 138 
-1.08461 0.0734589 5.2096 111 126 149 
0.0756859 0.0730872 4.9541 215 195 158 
-1.08978 0.126921 5.18309 121 138 156 
0.428329 3.07325 5.14912 189 194 140 
-1.453 2.74786 4.90917 239 240 242 
0.481776 3.07376 5.11347 71 54 47 
-1.21506 -0.30993 5.27219 51 53 65 
-0.315883 -0.129135 4.59597 28 20 0 
0.645883 3.08031 5.13748 182 143 144 
-1.24196 -0.132762 5.20097 146 151 155 
0.0163402 -0.01035 4.94564 155 136 94 
0.163693 0.366209 5.01792 109 100 93 
-1.69369 -0.0133741 4.84778 121 137 162 
-1.19774 -0.340668 5.27259 145 151 165 
-0.222414 -0.912635 5.15461 77 56 75 
-1.2021 -0.284302 5.27234 74 75 77 
-1.235 -0.284669 5.24551 59 57 68 
-1.21639 -0.291616 5.25917 53 53 61 
0.614313 3.07426 5.14265 206 159 141 
-1.63763 -0.212938 4.97715 118 131 147 
0.43486 3.09051 5.15402 164 186 113 
1.43942 -0.868636 6.15256 122 115 109 
-1.21108 -0.263596 5.26449 145 143 146 
-1.21364 -0.285474 5.2464 158 156 159 
0.0140389 -0.387245 4.91553 212 197 194 
-1.09069 0.00930427 5.22894 115 121 135 
-1.07643 2.77628 5.07865 130 111 97 
-1.24072 -0.131818 5.17805 128 133 139 
-1.37389 -0.125995 5.10724 109 126 146 
-1.12154 -0.177357 5.26254 109 115 127 
0.845271 -1.1799 6.42889 158 148 139 
-1.67911 0.0552105 4.84067 107 125 147 
-1.35955 0.000745446 5.06936 110 127 143 
1.30891 -0.674517 6.04058 65 63 66 
0.0243619 -0.00508526 4.95172 171 148 106 
-1.22307 -0.26278 5.24085 148 143 149 
0.527865 3.03706 5.14682 104 105 39 
-0.893829 2.53913 4.00458 119 114 121 
0.127984 0.349961 4.97638 23 13 14 
0.0409586 -1.37529 5.30327 200 212 190 
0.683592 3.10661 5.16204 113 98 93 
0.481562 3.0752 5.1149 71 54 47 
0.643488 3.07661 5.12966 181 142 143 
0.433802 3.08819 5.14864 168 190 115 
0.0667464 -0.855334 5.05339 129 80 102 
0.425624 3.06669 5.13652 181 183 134 
-0.436966 -0.700897 4.80042 208 182 167 
-0.467615 -0.675133 4.77348 255 252 240 
1.44287 -0.832743 6.0719 173 172 168 
0.626442 3.05718 5.17911 158 147 141 
0.616954 3.0398 5.1615 43 46 27 
-0.940663 2.81968 4.79256 36 25 33 
1.19169 -0.680124 5.97335 40 39 44 
0.661373 3.04355 5.19095 30 24 34 
0.418244 3.03138 5.17228 111 82 52 
1.26003 -0.479726 6.0016 37 35 36 
1.23613 -0.476808 5.98773 52 56 57 
-1.08898 0.0728239 5.21829 120 135 156 
-1.17378 -0.34371 5.3102 195 201 201 
0.0239985 0.0505019 4.93982 157 121 95 
-1.23113 -0.331411 5.25164 163 163 173 
-1.22868 -0.33107 5.26228 161 161 171 
-1.22667 -0.31785 5.26512 134 137 146 
0.0809214 0.0314997 4.96718 143 128 95 
-1.43326 2.75242 4.94065 247 247 249 
0.0531921 0.0273803 4.93936 145 131 94 
0.0289035 0.0232606 4.95571 31 22 5 
-1.26381 -0.292371 5.23505 137 143 155 
-1.21537 -0.293243 5.26217 78 78 86 
-1.57019 2.68892 4.91512 251 247 244 
-1.66635 -0.260046 4.96955 170 185 206 
-1.66221 -0.256531 4.98653 148 171 187 
-1.23529 -0.267879 5.22473 141 140 148 
-0.00796003 -0.00862005 4.94467 178 149 119 
-0.0152808 -0.013506 4.9331 42 9 2 
0.00676457 -0.015987 4.94099 181 158 117 
0.112711 -0.0187072 4.96416 81 68 34 
0.00911312 -0.202835 4.94086 195 178 135 
-1.68904 -0.0506462 4.89128 137 153 169 
0.0634194 -0.0525497 4.95426 38 11 0 
0.580709 -0.0699861 5.35266 150 127 11 
-0.277686 -0.138729 4.61533 16 7 2 
-1.23466 -0.14526 5.18908 140 146 158 
-1.25914 -0.109316 5.16208 118 125 141 
1.18331 -0.643712 5.97488 56 54 59 
1.31053 -0.673638 6.04452 26 24 27 
1.20232 -0.694472 5.99689 171 171 171 
-1.18272 -0.314636 5.30273 133 139 151 
-1.25017 -0.306975 5.23298 119 126 136 
-1.22572 -0.15143 5.19419 26 29 44 
-0.065101 -1.21231 5.16954 113 134 115 
0.616242 3.07712 5.1552 235 212 181 
0.616463 3.08315 5.1565 206 159 141 
0.474719 3.12585 5.14693 138 124 121 
-1.28018 -0.172993 5.16464 93 96 111 
-1.6363 -0.211355 4.96784 179 187 198 
-1.20983 -0.264883 5.26045 157 155 158 
0.207095 -0.435371 4.98664 245 209 213 
-0.130857 -0.436249 4.94615 125 87 102 
-1.61902 0.100358 4.87107 179 195 211 
-0.429721 -0.700472 4.80002 197 170 153 
1.19499 -0.59712 5.9748 40 40 50 
-0.517778 2.89703 5.62837 79 73 75 
-1.19857 -0.341668 5.30241 132 136 148 
0.844639 -1.17651 6.42418 170 160 150 
-1.69406 -0.0136326 4.85008 121 137 162 
0.0657537 -0.0138596 4.95529 70 56 17 
-1.22399 -0.308557 5.25421 125 125 137 
-1.246 -0.128121 5.17089 55 59 70 
-0.126941 3.03955 4.95483 171 182 210 
0.0290711 3.04874 4.97703 195 193 214 
0.0683967 -0.856234 5.04884 150 109 123 
0.0439594 -0.816639 5.02055 247 194 212 
-0.454324 -0.667605 4.78848 255 255 237 
1.23462 -0.794915 6.02421 55 47 45 
1.15497 -0.781524 5.98177 63 62 57 
0.0260141 0.0421359 4.96485 208 183 127 
1.34301 -0.704592 6.07758 19 19 21 
1.25884 -0.693639 6.01961 42 43 45 
1.19629 -0.683266 5.99285 36 36 38 
0.0347697 0.0299175 4.95813 223 211 173 
0.662023 3.04656 5.19591 33 27 37 
0.612922 3.03244 5.17989 38 49 7 
0.0733218 0.00680644 4.96108 61 46 15 
-0.950469 0.329226 4.64577 120 118 123 
1.25625 -0.479142 5.98898 62 60 61 
-1.17297 -0.34365 5.30386 179 184 188 
-1.16526 -0.340053 5.31276 193 194 199 
1.60655 -0.363069 6.04869 170 164 152 
1.57351 -0.35536 6.05915 196 189 179 
-1.26778 -0.294871 5.22574 143 149 161 
-1.19643 -0.290723 5.26828 144 144 154 
-1.42468 2.74561 4.93697 253 254 249 
-1.66361 -0.25732 4.98357 160 182 195 
-1.2155 -0.150705 5.20203 125 128 137 
-0.376197 -0.202209 4.5372 139 119 84 
1.0676 3.02345 5.59272 202 189 95 
0.995191 3.02593 5.59696 186 179 161 
0.485182 3.07937 5.12709 55 30 26 
-0.433725 0.00539589 4.51532 80 58 17 
-0.427148 -0.010614 4.53158 54 36 0 
1.20761 -0.523628 5.9799 79 82 75 
0.224809 -0.0226996 5.04458 51 43 22 
0.475134 3.12678 5.14954 138 124 121 
-0.117632 -1.15979 5.14933 123 140 121 
0.415558 0.326763 5.25638 59 39 6 
-1.25945 -0.109997 5.16581 124 132 145 
-0.486992 3.09403 5.59604 64 42 54 
-1.24214 -0.132884 5.19606 140 145 151 
0.626311 3.05515 5.15926 107 64 58 
1.31077 -0.674687 6.04445 65 63 66 
0.30971 3.11126 5.11039 111 105 109 
1.05085 3.03889 5.43291 123 80 63 
-1.24971 -0.307828 5.24169 125 132 142 
-0.298499 -0.0771765 4.5861 205 194 172 
-1.24463 -0.286216 5.24667 117 117 127 
-1.18375 -0.314816 5.29546 136 143 151 
-1.2156 -0.312882 5.26969 38 42 54 
-1.66813 0.0550901 4.86568 161 178 185 
-1.12311 -0.180841 5.27808 116 122 136 
0.531081 3.04163 5.15563 95 95 31 
0.0139077 -0.389345 4.91382 236 221 216 
0.157398 0.367571 5.00138 102 92 83 
-1.69443 -0.0140509 4.85813 125 141 166 
-1.62135 0.0926613 4.85585 136 152 168 
1.19892 -0.600137 5.98745 49 51 63 
-0.185027 3.03509 4.9925 176 180 218 
0.0680767 -0.00273224 4.9785 193 181 131 
0.0745169 -0.0422014 4.94029 45 28 2 
0.0501969 -0.0444201 4.95135 44 12 0 
-0.208686 -0.896766 5.13353 66 36 60 
0.0641662 -0.0561403 4.9546 53 22 17 
0.0434304 -0.816865 5.01811 242 198 213 
0.584403 -0.0941639 5.34372 73 56 0 
0.101273 -0.786597 5.04873 249 212 219 
-0.46542 -0.67751 4.79138 255 250 236 
1.43461 -0.829036 6.05533 209 205 202 
1.23435 -0.795214 6.027 54 49 46 
-1.1734 -0.344473 5.31432 195 201 201 
1.22213 -0.473591 5.98751 55 63 65 
0.674134 3.10688 5.14766 49 27 39 
1.30212 -0.489193 6.02175 37 36 32 
0.199286 -0.399796 4.96496 255 227 222 
1.20769 -0.523726 5.97904 82 85 76 
1.48218 -0.47412 6.12602 173 170 165 
1.20257 -0.598877 5.99707 42 44 56 
-1.32124 2.56459 5.13585 111 106 112 
-0.126733 3.03933 4.95223 170 184 211 
0.478235 3.10549 5.13959 17 11 11 
-1.20148 -0.273747 5.27081 147 148 153 
1.31046 -0.671988 6.0408 10 8 13 
0.0786675 0.0650266 4.96823 44 28 3 
1.33604 -0.685025 6.07916 134 132 135 
0.476039 3.07529 5.12177 32 27 23 
-1.67631 0.0565806 4.85429 165 178 187 
1.19911 -0.685837 6.0216 34 35 37 
1.2591 -0.694149 6.02057 38 38 40 
0.423265 0.32914 5.28719 65 43 30 
0.641961 3.07619 5.12818 186 144 145 
-1.64144 -0.207547 4.94862 161 169 192 
-1.6317 -0.200758 4.96225 182 193 197 
0.0823273 0.0253504 4.98531 137 123 88 
0.431873 3.07512 5.15648 190 199 144 
-0.163705 -0.619924 4.99009 154 57 68 
0.110537 -0.0169778 4.96729 76 62 33 
0.620143 3.04712 5.15926 166 160 136 
0.5312 3.04171 5.15705 93 95 32 
-1.27161 -0.168183 5.1731 140 141 146 
-1.42372 2.74833 4.94278 221 223 218 
0.587909 -0.0366346 5.34029 80 40 0 
0.642872 3.03732 5.1922 73 71 59 
-1.43108 2.75218 4.9436 251 251 251 
-0.454068 -0.665951 4.77955 255 255 234 
-1.08947 -0.046655 5.24017 145 149 152 
0.86269 -1.18015 6.3997 52 42 40 
-0.227386 -0.906454 5.1342 107 82 101 
0.0688491 -0.855199 5.05035 114 58 85 
-1.21266 -0.144253 5.2215 147 154 160 
-0.435952 -0.700448 4.80599 214 188 171 
1.07656 3.02931 5.40077 60 39 12 
-1.22736 -0.315832 5.26804 129 131 143 
-0.519346 2.90258 5.63909 79 73 75 
-1.66355 0.0461722 4.85759 46 69 101 
0.820096 3.13854 5.05194 75 80 76 
-1.49905 -0.277762 5.06585 150 163 179 
-1.24435 -0.123545 5.16751 129 131 143 
1.41799 2.90845 6.18959 154 153 151 
0.0788127 0.0514167 4.96933 102 88 59 
1.36452 -1.78916 6.22982 16 0 17 
-0.475116 -0.690908 4.78444 125 103 92 
-1.22033 -0.282553 5.23901 78 73 80 
-1.40502 -0.0211041 5.03991 125 137 153 
1.36825 -0.834242 6.10554 219 214 211 
1.50346 -0.367243 6.07127 91 91 89 
0.213672 -0.439227 4.96953 152 112 112 
-1.23072 -0.333556 5.26712 161 161 173 
0.0533614 -0.196157 4.92608 197 173 111 
0.0736842 0.00933545 4.96086 47 32 3 
0.590498 -0.0410248 5.37192 68 33 0 
0.307278 3.0224 5.16502 209 198 180 
-0.221378 -0.916236 5.1824 72 51 70 
-0.210296 -0.897536 5.13538 67 37 65 
0.0399459 -0.817937 5.02304 244 218 219 
1.26156 -0.482006 5.912 112 113 107 
-1.23167 -0.269081 5.24554 179 177 182 
-1.24111 -0.278441 5.24721 156 155 163 
0.993305 3.02961 5.59032 204 201 184 
-1.16771 -0.340072 5.30276 197 199 198 
-1.12126 -0.364879 5.3421 104 100 99 
0.822886 3.14217 5.06484 66 75 82 
-0.520867 2.89777 5.63338 81 75 77 
1.29809 -0.488615 6.01048 20 19 15 
-0.14312 -0.462377 4.94647 83 41 55 
0.961545 0.134311 5.23514 220 183 77 
1.50463 -0.369867 6.07656 61 62 64 
1.06593 3.02239 5.5963 170 152 90 
1.19026 -0.595688 5.9589 38 38 46 
1.51724 -0.35812 6.06391 61 57 56 
-1.19851 -0.2934 5.27794 145 145 155 
-1.23265 -0.287144 5.24987 40 38 49 
1.27886 -0.651013 5.99231 85 83 88 
-1.66644 -0.259219 4.97071 177 193 209 
1.30919 -0.671388 6.0379 26 24 27 
-0.0093292 2.47482 5.8566 147 149 161 
1.18956 -0.681231 5.98249 34 33 38 
0.0477763 0.0459838 4.95928 237 217 180 
0.0226727 0.0436978 4.95277 179 148 101 
0.484598 3.11987 5.16471 38 26 28 
-0.488978 3.09987 5.61047 70 50 62 
-1.65028 -0.21352 5.01281 142 154 168 
-0.165197 -0.61784 4.9763 198 130 131 
0.627956 3.0364 5.45625 87 46 54 
0.0434696 -0.000165435 4.9345 60 41 1 
0.0308032 -0.0005995 4.95888 166 150 101 
0.052669 -0.00337459 4.98698 75 52 11 
-1.27985 -0.173414 5.18471 128 130 142 
-0.135335 -1.12125 5.13069 119 144 149 
1.0746 3.0263 5.39666 54 36 16 
-0.453762 -0.667257 4.77841 158 150 131 
-1.20223 -0.284569 5.27405 56 57 62 
1.62289 -0.382982 6.03237 66 63 56 
0.0731022 -0.0424082 4.93329 48 30 6 
0.0649504 -0.0591731 4.95235 55 25 23 
0.975734 0.113235 5.26255 92 73 58 
0.964316 3.02263 5.53329 226 215 195 
-0.134687 -0.441021 4.95322 109 61 87 
-1.64143 0.0549047 4.84589 181 185 186 
-0.374931 2.99708 5.16587 204 170 160 
-0.183979 3.02347 4.97919 154 160 194 
0.659788 3.07966 5.12673 27 15 15 
-0.0275481 -1.54595 5.34253 238 223 202 
-1.14318 2.81509 4.76446 28 30 43 
-0.972714 2.7953 4.79695 19 20 38 
0.0412328 -0.0471567 4.9575 66 28 25 
0.582129 -0.088424 5.3353 53 34 0 
-0.163897 -0.622234 4.98427 190 105 112 
0.985988 3.01862 5.56869 225 210 189 
1.31091 -0.681642 6.01727 160 158 161 
-0.586633 -0.417391 4.59848 255 248 238 
1.57164 -0.356382 6.06864 189 185 176 
1.61729 -0.363503 6.07653 194 185 170 
1.51567 -0.362905 6.06952 14 12 13 
1.50571 -0.370175 6.08012 61 62 64 
1.63284 -0.400018 6.04239 32 28 27 
1.25114 -0.485068 5.96685 19 18 24 
-1.12666 -0.366284 5.36656 44 42 43 
0.313003 3.12659 5.14066 130 120 121 
-0.012226 2.46579 5.83712 144 148 159 
-1.1037 0.0247797 5.20546 124 126 138 
-1.22265 -0.293498 5.25678 53 51 64 
0.0462539 -0.0013603 4.95064 70 48 7 
-0.143103 -0.467062 4.98146 91 59 64 
0.582703 -0.0398434 5.34217 113 78 14 
0.865714 -1.19363 6.43875 58 48 46 
0.0614829 -0.0614386 4.93036 38 6 11 
1.19133 -0.685825 6.00608 33 32 37 
1.29714 -0.66897 6.01105 92 90 93 
1.41234 2.90029 6.18864 177 175 162 
0.864848 3.13532 5.18182 176 161 130 
0.651758 3.09631 5.14483 47 21 22 
-0.137639 -1.12467 5.14801 82 120 129 
-0.523733 2.9131 5.65517 70 68 73 
0.965632 3.01254 5.45512 120 132 130 
0.0676254 -0.85623 5.03427 200 167 174 
1.06226 3.07237 5.46273 199 132 61 
1.19037 -0.596392 5.97036 58 59 63 
0.412368 3.04935 5.12668 72 23 19 
1.30049 -0.496559 6.02603 23 21 22 
-0.106799 -1.23073 5.197 121 146 125 
0.0105578 -0.389019 4.89578 229 209 208 
0.54647 3.02172 5.36104 58 55 38 
-0.137287 -0.439801 4.95035 108 55 85 
0.208987 -0.435536 4.94836 220 179 185 
0.586996 -0.0889203 5.35253 33 14 0 
0.45115 0.2687 5.2296 248 240 203 
1.56749 -0.353625 6.05765 209 203 191 
1.49994 -0.36911 6.05692 61 62 64 
1.05785 3.03059 5.53511 28 75 69 
0.0114423 -0.789972 5.01331 173 69 104 
1.22697 -0.476778 6.00025 44 52 55 
1.26782 -0.492734 6.01834 23 22 27 
1.33437 -0.692586 6.08504 146 144 147 
0.861383 3.15154 5.28718 72 63 58 
1.3009 -0.661836 6.06958 32 30 35 
0.495246 3.12238 5.21792 55 24 30 
0.129211 -0.0268948 5.00571 157 148 105 
1.06604 3.01971 5.57825 214 204 83 
0.612984 3.05421 5.12551 233 216 186 
0.0609613 -0.739077 5.00645 168 49 87 
-1.17217 -0.342597 5.29785 179 184 188 
0.703223 3.10638 5.17813 218 201 183 
0.859255 -1.18514 6.47049 191 183 170 
1.41469 -0.868368 6.10805 103 103 103 
0.648534 3.06897 5.20158 165 160 120 
0.860699 -1.19072 6.42 52 42 40 
-0.746637 2.96066 4.95245 16 29 35 
0.729737 3.13018 5.18676 54 51 60 
-0.523558 2.90953 5.64279 71 70 75 
0.317522 3.12451 5.14392 155 140 133 
0.0420664 -0.0461341 4.96075 61 23 20 
-1.39142 -0.0149634 5.04755 144 142 153 
-0.116018 -1.17211 5.17551 77 110 83 
1.35597 -1.78946 6.22067 11 0 13 
0.785028 3.03364 5.4914 227 214 197 
0.0669204 -0.0699855 4.97377 38 7 22 
0.592035 -0.0423252 5.39768 73 37 0 
