ply                 
format ascii 1.0    
element vertex 1286
property float x    
property float y    
property float z    
property uchar red  
property uchar green
property uchar blue 
end_header          
0.969729 -0.0957537 5.48114 237 211 75 
-0.411771 5.79025 4.40051 53 55 50 
1.26533 -0.597428 6.24951 61 54 38 
-0.114256 5.88956 5.02732 63 63 65 
0.116212 5.76986 4.23614 52 65 21 
0.383475 5.78421 4.39505 220 209 164 
-0.109795 5.87712 4.95945 149 145 136 
0.119641 -0.0888721 5.12974 45 22 0 
-0.766042 3.33702 4.63477 168 161 153 
-0.248168 2.24459 5.93774 24 23 21 
-0.0574741 5.87369 4.48776 107 83 47 
-0.58625 5.84433 4.28136 126 133 126 
0.12761 5.79931 4.4148 137 96 6 
-0.550599 5.81644 4.45149 168 176 153 
-0.617259 5.83804 4.54452 71 73 52 
-0.674388 5.82929 4.56701 108 117 112 
-0.257773 2.26321 5.94592 39 39 37 
-0.222102 2.16684 5.94607 28 29 23 
-1.34531 -0.0839919 5.35353 133 136 145 
-0.492105 2.24406 5.8481 22 22 22 
0.413417 5.79969 4.43226 169 65 56 
0.218412 5.76801 4.17395 96 116 45 
0.470038 5.78885 4.4468 184 79 57 
0.490079 3.27815 5.21997 139 132 116 
0.148899 5.77439 4.15923 69 83 24 
0.0642561 5.81833 4.67888 102 97 93 
0.689339 3.286 5.2909 25 14 10 
0.0607845 -0.0257624 5.10958 205 194 148 
-0.344224 5.45929 4.1226 171 173 160 
-0.478862 0.0313863 4.64839 82 61 32 
-0.432883 5.79169 4.47725 156 157 141 
-0.398306 5.77964 4.40192 163 171 160 
-0.551641 5.833 4.34772 191 197 183 
0.318746 3.19655 5.29239 216 194 180 
-1.3208 -0.265026 5.41865 149 145 144 
0.38144 5.80633 4.41327 220 210 175 
0.041012 -0.863738 5.20648 103 51 63 
1.26567 -0.598458 6.23682 56 52 40 
0.737786 3.28563 5.25455 183 158 127 
0.690927 3.26945 5.22812 31 13 9 
-1.90016 -0.114991 5.04257 151 158 166 
0.324163 3.27751 5.20849 126 118 107 
0.0381485 0.00680421 5.09633 55 36 4 
-0.554285 5.79296 4.57156 141 162 106 
-0.574998 5.83207 4.5764 31 42 26 
0.0102415 5.84459 4.87024 146 146 148 
-0.0356942 5.86052 4.79884 114 111 118 
-1.51198 0.00326862 5.2579 137 147 148 
-0.567742 5.8262 4.4445 66 71 51 
0.227926 5.71768 4.71697 23 10 4 
0.606549 -0.0597027 5.56592 119 78 0 
0.00564351 5.87636 4.7937 153 149 146 
-0.538725 5.82057 4.45255 193 199 171 
-0.691953 5.85083 4.6316 58 68 43 
-0.799381 5.86651 4.59611 169 187 165 
-0.0129564 5.861 4.85109 123 124 128 
-0.488716 5.81308 4.23287 169 172 103 
-0.140247 5.91021 5.07145 150 148 149 
-0.019474 5.85976 4.40545 75 55 44 
-0.54308 5.81929 4.33701 186 193 175 
-0.420466 5.82187 4.42853 26 32 28 
-0.432365 5.81604 4.43692 71 69 54 
0.318019 3.18955 5.28083 118 99 85 
0.693662 3.24721 5.23333 26 12 9 
0.689686 3.27699 5.27657 28 20 17 
0.749629 3.2858 5.26078 35 24 20 
0.765343 3.29615 5.26035 152 130 106 
-0.0175515 5.88043 4.7864 128 127 132 
0.0133354 5.83209 4.86428 118 117 113 
-1.8978 -0.256715 5.05872 168 174 172 
-0.525635 5.8255 4.5994 136 147 130 
0.638486 3.23114 5.25271 255 227 177 
0.376155 3.28225 5.2304 169 143 126 
-0.429747 5.80156 4.34984 52 54 41 
-2.00154 -0.0887187 4.93144 140 146 136 
0.0822955 5.81066 4.37724 52 28 0 
-0.419466 5.78751 4.36934 172 176 149 
-0.0334905 5.86139 4.82066 145 140 144 
-0.0277083 5.87651 4.8607 154 155 149 
-0.688079 5.82224 4.52645 195 198 177 
-0.160305 5.9153 5.05199 156 144 154 
1.26 -0.694948 6.21601 59 53 55 
-1.29511 -0.282635 5.46536 150 149 145 
-0.392057 -0.264211 4.68256 124 109 6 
-1.32841 -0.262558 5.44864 167 164 159 
-1.29553 -0.255124 5.43195 153 150 135 
-1.92929 1.69167 4.66316 51 71 95 
-2.0039 1.47253 4.66974 172 167 174 
0.949846 -0.0906345 5.489 39 17 0 
0.120085 0.025348 5.13304 75 48 39 
-0.450006 0.0917702 4.61711 82 65 47 
0.647366 5.77047 4.39277 125 83 58 
0.949423 -0.0881197 5.50914 34 15 0 
-1.57451 5.76583 3.85391 107 107 109 
0.217179 5.75009 4.16445 48 90 66 
-0.191865 5.92126 5.06878 20 23 30 
-0.695361 5.85301 4.55277 150 153 126 
-0.562518 5.81022 4.59686 140 160 91 
0.0561798 5.77417 4.91349 128 127 125 
0.444839 3.22332 5.21568 208 198 136 
0.574447 3.21438 5.22946 217 196 133 
0.664446 3.20309 5.24602 43 12 0 
0.588667 3.22064 5.2347 221 209 123 
0.434033 3.22924 5.21666 72 14 0 
0.475182 3.22265 5.21869 221 221 123 
-1.28134 -0.24755 5.41588 151 148 143 
-1.2633 -0.331176 5.43198 170 170 172 
-1.88252 0.161403 4.91298 113 122 129 
-1.77421 0.0879008 4.9963 134 148 159 
0.392064 3.23297 5.20888 232 186 160 
0.514191 3.22041 5.24646 218 177 121 
0.493268 3.23766 5.23291 47 39 18 
-1.79405 0.0125038 5.01942 142 156 167 
0.571453 3.23269 5.22476 187 130 103 
0.643951 3.20071 5.25492 10 2 0 
-1.78154 -0.0269557 5.02768 163 176 184 
-1.87884 -0.108805 5.02288 163 170 176 
-1.74578 -0.191548 5.12819 172 188 185 
-1.76846 -0.240855 5.14121 172 186 195 
-1.75612 -0.245575 5.13148 168 182 191 
-1.89911 -0.256795 5.04793 151 156 162 
-1.76804 0.0858674 5.02279 163 173 175 
0.468126 3.20599 5.2691 214 211 130 
0.462815 3.21614 5.22469 101 96 15 
0.576544 3.23181 5.24326 78 45 0 
-1.26146 -0.256178 5.40503 133 127 129 
0.558494 3.22506 5.23174 246 189 160 
0.48907 3.20977 5.22467 239 231 169 
0.70601 3.25693 5.23211 87 68 54 
-1.58109 -0.267307 5.225 144 156 172 
-1.76763 0.0954532 5.01116 157 172 167 
0.0947241 -0.80319 5.18072 255 201 206 
-1.77447 0.088203 5.00725 160 173 181 
0.504634 3.2423 5.21921 38 13 6 
-1.34214 -0.279319 5.39201 162 166 169 
-1.72959 -0.195813 5.1229 151 167 167 
0.512929 3.22523 5.21845 79 29 6 
-1.87293 -0.107637 5.00495 154 162 165 
-1.30007 -0.249081 5.38118 95 95 95 
0.916069 -1.23824 6.76554 65 49 34 
0.560509 3.22302 5.22091 246 189 160 
0.676632 3.23624 5.23467 52 0 0 
-1.30362 -0.319968 5.41653 182 188 184 
-1.73355 -0.189938 5.13308 166 181 174 
-1.75554 -0.244769 5.11602 177 190 198 
-1.81876 0.0709511 4.97019 145 160 167 
-0.138632 -0.454525 5.08371 193 164 150 
0.678161 3.23029 5.22295 64 0 0 
0.764055 3.30517 5.27195 161 135 102 
0.325323 3.2757 5.2013 126 118 107 
-1.47619 0.00873849 5.2094 129 137 140 
1.40833 -0.704496 6.35359 164 154 144 
-1.76089 0.0880258 4.98714 164 175 179 
0.0977122 -0.79771 5.14843 177 82 114 
1.30921 -0.812114 6.30684 85 80 61 
1.47639 -0.838939 6.38822 87 77 76 
0.318395 3.15815 5.2258 125 115 116 
0.0757352 -0.142132 5.11132 234 214 155 
0.165807 -0.12089 5.14504 45 34 0 
0.12672 0.0117656 5.1081 34 17 7 
0.971846 -0.0849971 5.42731 80 58 0 
0.668542 3.20707 5.29437 70 61 54 
0.317662 3.16011 5.22994 116 106 107 
0.636727 3.23651 5.32989 28 45 0 
0.440456 3.15539 5.20816 92 90 51 
0.646585 3.21106 5.3028 203 199 170 
0.100561 0.0884441 5.12095 42 14 10 
0.388504 3.1912 5.2625 181 147 137 
-0.72989 2.83814 4.70906 49 39 48 
0.108464 0.00821255 5.09244 62 52 17 
0.102754 0.0865154 5.10886 40 13 6 
0.0742887 0.0917198 5.08653 55 39 6 
0.471657 0.364864 5.4421 191 175 88 
-0.652619 2.85047 5.13215 98 85 76 
-0.666828 2.91325 5.23042 212 208 196 
0.584524 3.14082 5.33202 60 47 13 
0.120316 -0.00866375 5.06931 57 41 26 
-0.829228 2.93353 4.97402 79 65 65 
-0.712497 2.88631 5.25158 214 206 195 
-0.616689 2.78847 5.03105 179 174 171 
0.976189 -0.0745023 5.45578 40 23 5 
-0.684194 2.81288 5.13417 218 211 193 
1.01013 0.139613 5.40433 11 0 0 
-0.686586 2.95232 5.29199 217 210 202 
-0.708183 2.86181 5.21057 220 212 193 
0.468999 0.374261 5.46999 197 173 73 
-0.735071 3.02031 5.3953 216 204 192 
-0.495743 3.22918 5.64626 42 31 35 
0.70371 3.23446 5.21294 179 160 162 
0.668939 3.18248 5.26175 89 85 74 
0.316098 3.17176 5.24695 143 136 128 
-0.992383 2.9961 4.91308 69 55 55 
1.11647 3.19857 5.6264 105 109 59 
0.674317 3.24076 5.22309 182 143 144 
1.22446 3.30433 5.44043 70 39 18 
1.12485 3.19408 5.52167 93 83 73 
0.0681186 3.18705 5.14546 53 64 120 
0.743902 3.25461 4.95566 64 57 49 
0.413793 3.30749 5.10316 169 149 140 
0.496416 3.25754 5.21232 24 19 16 
0.474776 3.22159 5.21069 174 194 105 
0.514119 3.22843 5.22943 76 30 32 
0.642541 3.19253 5.23898 43 46 27 
0.437278 3.19397 5.2391 82 60 19 
0.639363 3.19542 5.25669 129 140 108 
-0.840271 3.09195 5.07901 62 45 38 
0.655142 3.18286 5.25334 202 202 194 
-0.863422 3.07577 5.06426 107 88 73 
0.315255 3.17725 5.25526 119 111 108 
-1.63634 2.91779 5.00541 236 237 219 
1.11627 3.20464 5.63844 78 89 46 
0.73409 3.24867 4.95847 141 138 123 
-1.56493 2.90662 4.95056 162 162 172 
0.732952 3.26613 4.98451 167 157 145 
0.447413 3.20453 5.22941 178 189 111 
0.556701 3.22122 5.23204 207 162 139 
0.494909 3.28294 5.22242 138 124 121 
-0.723173 2.9166 5.29824 181 170 166 
0.473409 3.20671 5.25605 194 211 119 
0.72118 3.20349 5.59886 78 30 20 
0.664242 3.21524 5.263 73 59 48 
0.396413 3.21691 5.2228 129 63 67 
0.697794 3.24605 5.23999 38 25 35 
0.445319 3.21186 5.20174 187 192 138 
0.514625 3.21344 5.23193 243 229 184 
0.399007 3.19935 5.22315 124 40 40 
0.65013 3.21979 5.27026 156 151 132 
0.639917 3.20069 5.26503 138 154 109 
-0.981811 2.97085 4.87236 41 30 38 
0.688452 3.19577 5.26842 33 27 37 
0.638355 3.18235 5.24993 38 49 7 
0.580163 3.19129 5.40974 108 91 37 
-1.58661 2.92372 4.99828 255 254 255 
1.11215 3.19005 5.61579 74 87 41 
-1.6336 2.81993 4.96952 214 210 207 
1.03986 3.19555 5.71202 186 179 161 
0.472536 3.22848 5.22438 181 204 114 
0.395025 3.17562 5.21664 166 85 84 
0.495375 3.23058 5.19792 38 35 28 
-0.674721 2.95448 5.26602 74 64 72 
-1.65792 2.8323 5.00711 41 44 61 
0.681695 3.19466 5.23984 130 125 105 
-0.832105 3.09186 5.08893 155 133 109 
-1.67538 2.84697 5.10668 222 223 218 
0.566299 3.1992 5.26657 115 110 52 
0.44478 2.8043 6.3624 135 124 120 
0.424809 3.20841 5.22815 209 129 122 
-0.849387 3.08287 5.05511 34 23 29 
0.325468 3.27651 5.20102 121 112 115 
0.494589 3.27574 5.21292 131 116 113 
0.512299 3.21574 5.20466 98 33 37 
0.514118 3.20558 5.21724 243 229 184 
0.402326 3.19308 5.21318 141 49 52 
0.553895 3.19662 5.23542 93 95 32 
0.722646 3.20867 5.61195 71 24 18 
-0.987942 2.98379 4.89177 66 51 54 
0.479202 3.19997 5.26396 112 111 63 
0.389977 3.18559 5.25448 165 135 124 
-0.887044 3.05994 5.05516 57 39 35 
-1.01252 2.95947 4.88774 73 62 58 
0.581713 3.18442 5.40089 64 51 19 
0.822768 3.18925 5.50711 222 209 190 
-0.782607 3.0797 5.03207 97 93 84 
0.425202 3.21017 5.21345 86 8 4 
1.00469 3.18575 5.6291 220 213 194 
0.574503 3.21148 5.20824 94 58 42 
0.812999 3.20639 5.52203 116 113 70 
-1.18897 3.00338 4.92421 246 234 208 
0.655346 3.19075 5.27092 220 219 198 
-1.00362 2.94606 4.89363 34 26 41 
-0.685752 2.95703 5.30049 193 183 173 
0.324241 3.2979 5.23878 110 106 107 
-0.18128 3.17913 5.07262 179 179 179 
0.50053 3.24659 5.19264 38 26 28 
0.4472 3.21925 5.21601 177 184 130 
0.44325 3.19135 5.22267 196 203 126 
-0.897325 3.08444 5.0969 47 32 27 
0.582393 3.19409 5.41864 77 65 39 
0.0561136 3.18434 5.14152 174 173 189 
0.999969 3.20462 5.57474 48 61 52 
0.736417 3.21288 5.3251 232 216 193 
0.323136 3.1905 5.27493 216 201 182 
0.325954 3.28609 5.22155 130 120 121 
0.509643 3.23932 5.23567 70 38 43 
-0.516011 3.28336 5.73452 47 33 46 
-1.13898 2.96847 5.22614 116 97 90 
-0.195767 3.22314 5.16784 64 65 85 
0.655192 3.23342 5.6067 81 31 40 
-1.63182 2.81166 4.95474 199 200 194 
-1.34137 2.86382 5.19558 140 135 131 
-1.6408 2.90771 4.89098 141 181 216 
-1.34521 2.86901 5.10572 209 203 189 
0.56426 3.3166 5.22599 166 140 105 
-1.03225 2.91412 5.11051 82 62 61 
0.322521 3.21987 5.3171 178 171 155 
-0.186843 3.19503 5.07764 204 206 221 
-0.68274 2.93854 5.26563 198 185 176 
0.505375 3.20978 5.18157 55 24 30 
-1.1826 2.91172 5.02914 87 82 86 
0.806674 3.1895 5.50324 120 115 77 
-0.520629 3.29823 5.75674 48 30 44 
0.652651 3.20918 5.56188 89 33 46 
-1.20173 2.92532 5.02979 168 157 153 
0.58045 3.19234 5.46981 63 64 66 
-1.14709 0.16631 5.34751 121 133 149 
0.653772 3.21781 5.30233 161 150 120 
-0.147775 2.1845 6.03292 124 126 125 
-0.273239 2.27894 5.98391 31 34 41 
-0.156318 2.2786 6.03094 46 47 49 
0.636608 3.20599 5.29468 94 83 29 
0.434771 3.21194 5.28954 117 94 60 
-0.389634 2.19699 5.94835 38 38 46 
-0.109494 2.20463 6.04887 45 49 50 
-0.30592 2.2745 5.98123 58 62 65 
-1.15552 0.106033 5.36183 145 155 165 
-0.238848 2.26888 6.00355 37 41 42 
-0.155369 2.27265 6.01619 36 37 39 
0.44256 3.24273 5.24453 203 199 136 
1.04034 3.2138 5.74182 172 159 143 
-0.24042 2.26462 5.99368 57 61 62 
0.685437 3.19575 5.28839 225 199 172 
-1.83347 0.0714377 5.02746 153 163 172 
0.491531 3.23673 5.25939 247 234 182 
0.58304 3.23646 5.26636 124 131 19 
0.440819 3.2182 5.26024 209 213 118 
0.323221 3.30873 5.25273 131 116 119 
0.383508 3.29971 5.24762 178 153 146 
-0.266125 2.26447 6.00265 80 83 90 
0.324298 3.29733 5.23798 159 144 137 
0.667931 3.21123 5.30515 99 82 64 
0.498133 3.24037 5.27194 244 227 181 
0.653679 3.22969 5.60368 93 53 51 
0.989077 3.23395 5.7533 118 88 64 
0.978979 3.20768 5.61194 157 155 132 
-0.127806 2.18674 6.00511 120 121 116 
-0.0396908 2.19296 6.03204 26 25 23 
0.4464 3.21923 5.20995 208 198 136 
-0.167114 2.23991 5.98975 15 16 11 
-0.2083 2.25456 5.97064 152 153 148 
0.0853755 5.82552 4.38417 130 104 87 
0.57416 3.21327 5.22647 217 196 133 
0.651224 3.20228 5.24417 216 195 166 
0.507504 3.24083 5.20742 57 30 23 
0.49758 3.25587 5.20968 34 19 12 
0.673872 3.23988 5.22385 208 157 153 
0.587932 3.22152 5.23614 221 209 123 
-0.41668 5.83222 4.40245 152 156 157 
-0.290102 2.18991 5.96133 33 33 31 
0.110233 -0.135089 5.11927 202 184 138 
-0.0494631 2.24558 6.02301 134 135 130 
-0.164279 2.24914 5.99066 141 142 137 
0.163933 -0.120914 5.15266 139 125 90 
-1.97436 -0.02755 4.91682 152 154 149 
-1.97677 -0.0326242 4.89897 158 158 158 
-0.0678355 2.17586 6.02529 130 132 127 
-0.504882 5.82086 4.54331 177 180 169 
-1.16898 0.112401 5.40138 138 147 164 
-1.16766 0.170523 5.37794 150 162 176 
-2.04767 -0.0827475 4.87399 158 156 157 
-0.441961 5.78179 3.91979 31 56 78 
-1.22815 0.522402 4.50691 225 229 238 
-0.0316337 5.84736 5.15079 39 39 41 
-0.0306996 5.84169 5.16359 162 163 168 
-1.50048 5.80258 4.63105 180 193 202 
0.63328 3.23057 5.21985 135 75 21 
0.557079 3.19217 5.2536 75 67 0 
-0.456736 2.18659 5.88011 131 133 132 
-0.466086 2.1969 5.88093 21 21 23 
-0.338625 2.18766 5.9333 36 36 34 
-0.225605 2.18766 5.98862 126 127 122 
-1.97496 -0.0802777 4.90311 138 143 136 
0.120313 5.83445 4.45779 98 63 0 
-0.400488 2.21109 5.91069 31 30 28 
-1.17364 0.0558133 5.39502 137 138 140 
-0.0170899 5.88919 4.85538 163 164 159 
-0.184677 2.19853 5.99039 27 28 23 
-0.0366495 2.18434 6.03783 138 138 136 
-0.0374077 5.89935 4.84984 62 57 63 
-0.133264 2.19907 6.01523 26 26 24 
-0.562617 5.84364 4.47863 185 193 169 
0.707616 3.24649 5.21781 90 68 55 
-1.76233 0.0844656 5.02502 163 173 175 
-1.7747 0.0839354 5.01291 134 148 159 
0.43016 3.21629 5.20701 205 126 109 
-1.3219 -0.0789091 5.32091 137 141 150 
0.355155 3.21501 5.19995 235 211 185 
0.348391 3.21548 5.21382 116 97 67 
0.567672 3.19122 5.25198 111 112 10 
0.456929 3.21151 5.22157 200 195 127 
-0.0225294 5.89213 4.80454 130 129 134 
-0.177961 2.2604 5.98402 136 137 131 
-0.129848 2.25638 5.99551 27 28 22 
-1.17074 -0.0239534 5.41953 106 105 113 
0.454854 3.24133 5.20487 89 90 24 
-0.47954 2.27282 5.86279 52 52 50 
-0.557794 5.82847 4.60248 117 137 109 
0.418368 3.23026 5.20479 129 20 0 
-0.153631 5.87 4.2418 130 126 89 
-0.429417 2.2642 5.88487 35 35 37 
0.57317 3.22817 5.21853 187 130 103 
-0.159177 2.19818 6.0007 36 37 32 
-0.752278 5.86739 4.61291 41 48 17 
-0.498244 5.84947 4.24447 149 138 110 
0.165984 -0.123508 5.12996 237 223 174 
-1.27966 -0.118007 5.36005 157 159 158 
-1.28757 -0.124419 5.36876 153 155 152 
-0.488052 -0.183303 4.61754 142 125 95 
-0.396692 5.76663 3.90028 60 78 98 
0.658606 5.78046 4.40905 57 35 0 
-0.140954 2.17701 6.01499 131 134 123 
-0.0959883 2.23421 6.01403 46 46 44 
-0.191356 2.25027 5.97953 149 149 147 
-0.188405 2.25982 5.97557 55 56 51 
0.119148 0.0160577 5.13776 56 30 7 
-0.583406 5.86649 4.33364 145 153 114 
-1.77752 0.084986 5.02462 160 173 182 
0.515074 3.22253 5.21594 79 29 6 
0.575828 3.21692 5.21337 88 45 10 
0.580921 3.22177 5.22047 78 45 0 
0.651111 3.20896 5.23684 86 58 21 
0.641499 3.21422 5.23373 241 229 157 
0.642561 3.22702 5.21986 246 208 163 
0.7049 3.23493 5.21792 202 176 161 
-1.30386 -0.121759 5.35444 155 157 154 
-0.100716 2.19437 6.01103 4 9 3 
-0.435383 5.78071 3.90357 57 83 106 
-1.97186 -0.0978771 4.91636 136 136 138 
-0.394562 2.25789 5.90061 126 128 125 
-0.394988 2.26794 5.89545 29 30 25 
-0.0475588 2.17789 6.04049 28 27 23 
0.584553 5.8316 4.6049 75 59 0 
-0.209476 2.19868 5.9767 47 47 45 
-0.116678 2.24496 6.00594 46 46 44 
-0.229955 2.25832 5.96018 27 28 23 
-0.289868 2.20606 5.95175 48 48 48 
-0.303926 2.20443 5.94684 47 47 47 
-0.333751 2.20651 5.92818 76 76 76 
0.114782 5.82558 4.3969 100 43 0 
-1.34184 -0.153053 5.31351 134 141 147 
-0.376693 2.19831 5.91444 136 136 134 
0.460981 3.25432 5.20795 18 21 0 
0.560394 3.22061 5.22317 246 189 160 
0.395303 3.25706 5.20747 212 165 145 
0.58526 3.20827 5.22631 95 101 0 
-0.355096 -0.109235 4.71037 43 30 0 
-0.583688 5.86659 4.31699 44 46 7 
-0.0155894 5.79795 4.926 55 50 46 
-0.614969 5.86099 4.4247 120 122 109 
-0.627656 5.86247 4.41993 39 50 46 
-0.73118 5.86295 4.59893 142 153 137 
-0.619433 5.86063 4.43816 179 187 174 
-1.82126 0.0657731 4.98628 122 137 144 
-0.719906 5.86485 4.57882 41 48 32 
-0.531478 5.82407 4.61446 124 130 104 
-0.445283 5.82385 4.5185 156 157 141 
-1.76745 0.0938657 5.02256 157 172 167 
0.451206 5.77747 4.27797 91 79 7 
0.0735509 3.18625 5.97758 190 148 134 
-1.71952 0.1319 5.04745 169 187 191 
-0.604081 5.83662 4.53623 80 78 57 
0.427732 3.19411 5.24019 195 128 119 
-0.0483556 5.8867 4.11174 42 46 32 
-0.445298 5.78181 3.88524 42 76 103 
-0.571996 5.87039 4.35947 181 200 121 
-0.405908 5.81148 4.43052 146 157 153 
-0.0438796 5.89553 4.8384 173 172 178 
-0.511597 5.82217 4.55053 163 165 154 
-0.16959 5.92609 5.07112 143 137 147 
-0.105747 5.9056 5.10542 166 167 162 
-0.0800027 2.18918 6.02737 38 40 35 
-0.0844347 2.24107 6.01155 125 125 125 
-1.88964 0.160143 4.93279 152 161 166 
0.130589 -0.08445 5.14044 191 173 127 
0.12944 -0.116784 5.12555 201 167 96 
0.128871 -0.133165 5.12712 143 129 84 
-0.338433 -0.0558716 4.73147 243 235 196 
0.660587 3.20592 5.24925 55 23 0 
-1.31323 -0.0954205 5.33499 146 149 156 
-1.30634 -0.103566 5.3363 149 153 156 
-1.34825 -0.153344 5.32953 130 137 145 
-1.22852 5.84606 4.69939 137 132 139 
-0.326834 2.20559 5.94697 25 25 23 
-0.056792 5.85482 5.13703 160 159 155 
-0.304615 2.20883 5.96358 30 30 32 
-0.177218 2.19317 5.98689 144 145 140 
-0.253467 2.24649 5.96271 18 17 15 
-1.31876 -0.098988 5.36831 127 130 135 
-0.122818 2.23626 5.99799 34 34 32 
-0.281585 2.26188 5.94365 22 22 20 
-0.26296 2.26942 5.95373 62 63 58 
-0.722763 5.87304 4.58733 41 48 32 
-0.118353 2.25435 6.00451 15 16 10 
-0.0528989 2.25209 6.03763 129 130 125 
0.212703 5.79585 4.20537 89 109 40 
-1.77913 0.0144041 5.02361 141 156 163 
-0.713967 5.87443 4.59355 182 185 164 
-0.56515 5.83439 4.6152 137 159 121 
0.998866 0.160497 5.40871 102 56 0 
0.10203 5.81087 4.28715 61 68 24 
0.122379 5.82404 4.44503 114 76 0 
-0.0626573 5.91247 4.88712 155 154 152 
-0.554471 5.83266 4.46814 186 195 168 
-0.447266 5.83145 4.52401 174 173 153 
-0.296008 2.23666 5.93072 31 31 29 
-0.554625 5.83183 4.62467 18 31 3 
-0.230354 2.19677 5.97703 31 31 29 
-0.437071 5.83689 4.38442 64 66 52 
0.0289995 2.7526 5.99865 61 57 58 
-0.443352 5.82522 4.55092 123 139 103 
-0.486008 5.84048 4.24064 54 50 3 
-0.459383 5.82737 4.53265 118 120 106 
-0.49978 5.78224 3.8471 45 85 111 
-0.417041 5.81929 4.40003 184 187 178 
-1.54347 5.80036 4.61086 201 209 220 
0.323483 3.18393 5.26805 175 156 139 
-1.96437 -0.0345227 4.89752 166 167 159 
-0.420639 5.81408 4.43057 53 55 50 
-0.118359 5.90216 4.99248 149 145 136 
0.653028 5.78888 4.4201 99 77 36 
-0.252815 2.2482 5.95268 24 23 21 
-0.592414 5.86472 4.30839 126 133 126 
-0.55308 5.82403 4.61833 58 68 33 
-0.0435192 5.85995 5.111 169 169 169 
-0.603041 5.81615 4.52208 71 73 52 
-0.681746 5.84822 4.592 108 117 112 
-0.255619 2.14665 5.70718 69 71 68 
-0.227768 2.23336 5.9622 47 48 43 
-0.229824 2.17262 5.96782 28 29 23 
-1.4801 0.000121718 5.20139 102 113 117 
-0.0918604 2.25334 6.01125 39 39 37 
-0.441645 5.84015 4.39314 57 59 45 
0.679187 3.25183 5.22263 31 4 0 
-0.634036 5.88146 4.36409 188 190 176 
0.379579 5.81707 4.42758 220 210 175 
0.390737 5.8186 4.44389 87 76 30 
0.67941 3.22811 5.22089 64 0 0 
0.764536 3.30477 5.27624 161 135 102 
0.284489 0.0826109 5.27148 67 34 15 
-0.420328 5.83441 4.37424 134 134 126 
-0.562486 5.81257 4.59635 141 162 106 
-0.53215 5.83518 4.61506 142 151 132 
-0.575636 5.83939 4.58828 31 42 26 
-0.434159 5.82896 4.45374 61 61 51 
-1.49065 0.00421748 5.2201 137 147 148 
-0.575641 5.84846 4.47357 66 71 51 
0.605764 -0.0571975 5.55604 119 78 0 
0.0010825 5.89175 4.814 153 149 146 
0.992798 -0.0617919 5.53777 59 41 0 
0.379014 5.80697 4.41549 218 208 173 
0.109627 5.80094 4.27727 68 84 55 
-0.555595 5.85019 4.37514 186 193 175 
-0.576559 5.84079 4.63128 143 164 107 
-0.45821 0.0880128 4.65717 155 136 103 
0.00297158 5.86258 4.9035 118 117 113 
0.140134 5.80139 4.20005 44 88 53 
0.569989 5.78053 4.386 167 51 64 
-0.53374 5.84581 4.62562 136 147 130 
-0.574188 5.82897 4.57977 42 53 37 
-1.48477 0.00471997 5.21155 133 143 144 
-0.207826 5.93095 5.08868 35 34 39 
-0.0286351 5.85187 4.85813 36 37 31 
-0.54695 5.83973 4.48013 188 197 170 
-0.44476 5.8428 4.4018 52 54 41 
-0.567742 5.84441 4.31733 181 193 117 
-0.55535 5.87652 4.3971 193 196 167 
-0.431708 5.81877 4.40816 172 176 149 
-0.0415113 5.88594 4.85256 145 140 144 
-0.70087 5.85371 4.56707 195 198 177 
0.726386 3.28425 5.25882 181 158 126 
-0.579576 5.8267 4.62214 147 155 82 
0.810019 3.18541 5.5186 111 86 29 
0.00938451 5.87273 4.63664 195 159 73 
0.207843 5.81428 4.8262 104 70 25 
0.642428 5.79228 4.41933 125 83 58 
-0.563014 5.8351 4.29929 169 175 103 
-0.64105 5.87991 4.48635 25 50 46 
-0.533864 5.85305 4.37183 197 196 168 
-0.58424 5.87021 4.30479 136 138 114 
-0.706647 5.88121 4.58932 150 153 126 
0.0476599 5.80046 4.94841 128 127 125 
-0.421083 3.17157 5.7553 82 35 17 
-0.0299755 5.91128 4.8707 97 93 90 
0.143449 5.88412 3.92561 45 31 4 
0.110738 5.8913 3.937 255 254 237 
-0.469058 2.20448 5.8868 28 28 28 
0.0163296 2.18159 6.06844 122 123 127 
-0.190537 3.19691 5.074 190 190 218 
0.449738 5.79052 4.28697 102 92 5 
-0.148961 2.25795 5.98657 147 148 143 
0.396409 3.2144 5.21974 104 31 16 
-0.48687 2.26179 5.85727 141 141 139 
-0.443185 5.77025 3.87064 51 86 114 
-0.145762 2.20386 6.02846 126 124 127 
0.488555 3.19733 5.22778 121 115 57 
-0.132795 2.1823 6.01735 22 21 19 
-0.17205 2.17845 5.99424 25 27 24 
-0.289571 2.19149 5.94349 153 152 150 
0.483636 3.20534 5.22233 96 93 14 
-0.439976 5.77848 3.91885 38 60 84 
-0.0418886 5.90182 5.04989 182 182 182 
0.443167 3.19805 5.23017 219 202 150 
0.583333 3.21678 5.21377 64 27 0 
-0.0116008 5.89009 4.99291 170 170 168 
0.455255 3.19867 5.22625 72 72 0 
-0.0876939 5.91749 4.98048 168 166 154 
-0.113921 5.87973 4.29542 54 36 16 
0.459665 3.20857 5.21801 235 235 149 
0.39367 3.23183 5.20868 229 178 159 
-0.121596 5.92621 5.06386 161 163 162 
0.448347 3.21989 5.20877 212 206 148 
0.0841702 5.82435 4.38173 82 56 33 
0.657978 3.18306 5.25482 220 203 175 
0.472904 3.22634 5.20876 55 54 0 
0.558941 3.21252 5.22071 238 189 149 
0.643958 3.19863 5.25162 22 8 0 
0.438493 3.25525 5.2081 199 164 145 
-0.0952238 5.90867 5.11725 45 47 44 
0.499057 3.25454 5.2103 21 8 0 
0.5891 3.2132 5.22513 214 209 128 
0.643465 3.22519 5.21865 253 218 160 
0.00769166 5.88456 4.93777 38 45 38 
0.676396 3.23281 5.21247 218 168 159 
-0.0614669 5.87222 5.14939 189 188 193 
-0.0353477 5.86321 5.16231 13 13 15 
-0.0260949 5.84835 5.15745 187 187 187 
0.687679 3.18627 5.27702 136 113 81 
-0.0347629 5.85838 5.17553 180 179 184 
-0.506964 5.83047 4.55047 158 159 153 
0.0314757 5.87743 4.68947 159 153 153 
-0.584037 5.86332 4.3326 156 168 120 
-0.418613 5.83603 4.40373 188 190 187 
-0.567796 5.85842 4.3521 156 168 132 
-0.622336 5.86643 4.33216 170 174 175 
0.00337218 5.88998 4.90652 127 131 132 
-0.0321529 5.91037 4.90766 36 36 38 
-0.0344043 0.0180797 5.10869 42 16 3 
-0.0666144 5.91782 4.88892 150 152 151 
0.51764 3.21572 5.2104 89 23 0 
-0.622817 5.86388 4.43366 168 179 173 
-0.567698 5.86154 4.49106 198 199 185 
-0.613402 5.86134 4.4234 88 95 77 
-0.399836 5.77261 3.90777 76 93 113 
0.416071 3.20166 5.26323 118 19 13 
-0.0842348 5.91033 5.10674 69 70 64 
-0.212065 5.89239 4.80281 171 162 153 
-0.0296402 5.88799 5.02552 64 64 64 
-0.0942307 5.9278 5.01271 129 131 130 
-0.104699 5.92999 5.02752 24 25 27 
-0.497607 5.84826 4.24386 171 170 124 
-0.0736313 5.89626 5.09904 160 160 160 
0.0313556 5.83386 5.04065 45 45 45 
0.0213479 5.84537 5.05471 170 170 170 
-0.0306234 5.91691 4.44795 102 84 44 
0.424924 3.23288 5.20019 101 6 0 
-0.180441 5.90233 4.73577 203 191 167 
-0.00682016 5.90366 4.83395 128 126 127 
-0.0257843 5.90792 4.81576 143 141 146 
0.576663 5.83259 4.59902 49 47 22 
-0.323323 2.17807 5.94027 11 10 8 
-0.726067 5.88895 4.59438 44 48 47 
0.355212 3.20645 5.21159 255 227 205 
0.483115 3.18492 5.25821 162 144 96 
0.686765 3.22666 5.21924 46 6 0 
0.280336 5.8901 4.00018 218 148 159 
-0.363916 5.87567 4.99682 177 165 139 
-0.585252 5.88585 4.3309 45 53 0 
0.417511 3.31736 5.11778 178 157 140 
-0.0172521 2.20112 6.0468 25 25 25 
0.0120218 2.19425 6.07662 40 41 43 
-0.602895 5.8792 4.32108 125 135 127 
0.704636 3.27619 5.23173 64 37 30 
-0.236494 2.18626 5.98026 119 120 115 
-0.207188 5.9009 4.84711 178 163 142 
0.482221 3.25901 5.21583 44 43 0 
-0.716166 5.87452 4.59039 135 137 132 
0.351013 3.19484 5.20241 132 106 83 
0.0129961 5.88394 4.64534 188 159 101 
0.346837 3.22778 5.20699 120 97 79 
-0.240612 5.88328 4.90477 84 68 45 
-0.155096 5.87322 4.243 121 120 89 
0.629105 3.22728 5.21853 213 167 105 
-0.030528 5.91659 4.61949 197 165 82 
-0.00187102 2.17004 6.04763 43 45 44 
-0.195458 5.89204 4.71914 151 143 122 
0.0430671 0.00585582 5.12149 90 71 38 
0.66444 3.20101 5.24545 39 9 0 
0.482306 3.19139 5.2505 89 82 14 
-0.587704 5.87439 4.3388 132 142 105 
-0.564978 5.84967 4.48235 183 184 170 
-0.105081 5.91728 4.99467 34 22 22 
-0.0514169 5.89934 5.14656 167 167 167 
-0.0334937 5.85786 5.15361 30 30 32 
-0.0847574 2.18254 6.04334 1 3 0 
0.657071 5.79524 4.41929 81 59 0 
-0.187922 2.24235 5.96464 128 128 126 
-0.0459598 5.8781 4.10559 47 41 25 
-0.0423709 2.2373 6.02614 15 16 11 
-0.629006 5.86956 4.42529 27 44 34 
0.64131 3.22416 5.249 243 231 173 
0.516773 3.20918 5.22661 255 224 163 
-0.493124 5.8594 4.25948 36 38 1 
0.109379 -0.134185 5.12566 203 187 138 
0.115695 0.0192655 5.15469 74 51 17 
0.00597707 5.85488 4.90185 71 72 66 
0.427994 3.20592 5.22615 216 132 130 
-0.445263 2.25233 5.88817 34 36 33 
0.0349455 3.19785 5.00409 203 211 250 
-0.574359 5.87073 4.39084 152 157 150 
-0.02236 5.90277 4.89851 132 133 135 
-0.610615 5.85063 4.56216 179 177 162 
0.57588 3.20197 5.21188 164 155 80 
-0.626032 5.85903 4.56401 54 52 40 
-0.485821 3.24298 5.66331 75 24 29 
-0.171495 5.92764 5.07061 138 143 137 
-0.159484 5.93998 5.09885 56 50 50 
-0.339781 2.24438 5.92252 133 131 132 
-0.0165977 5.87346 5.0819 157 155 156 
-0.0728494 5.74898 4.81781 72 68 67 
0.0792967 5.83537 4.41902 89 64 0 
0.750149 3.31277 5.27403 54 34 0 
-0.208325 5.90826 4.81232 67 60 41 
0.376335 5.83142 4.45191 231 218 173 
-0.303032 2.17794 5.94321 45 44 39 
0.588763 3.22593 5.22072 190 159 104 
-0.463314 5.83543 4.58316 135 143 128 
0.421698 0.32045 5.45997 58 30 0 
-0.333643 2.20865 5.93529 89 89 87 
-0.476334 2.24283 5.85883 18 20 17 
0.45035 5.78194 4.28058 78 70 0 
-0.373701 2.27001 5.91664 38 39 34 
-0.203272 5.87402 4.78256 173 166 156 
-0.584159 5.87792 4.32495 37 44 0 
0.479785 3.24347 5.20425 176 173 106 
0.325715 3.28123 5.2089 97 88 81 
-0.675889 5.8552 4.62641 136 151 112 
0.145959 5.78372 4.16867 65 83 23 
-0.0444045 5.89987 4.99031 134 134 136 
-0.504582 5.83449 4.6063 123 133 122 
-0.441684 3.16934 5.75077 118 70 47 
0.682726 3.1994 5.24581 162 142 117 
0.395295 3.19013 5.24035 118 52 30 
-0.62065 5.85207 4.55275 51 49 37 
-0.273577 2.2671 5.96637 147 146 144 
-0.584622 5.86718 4.31656 26 33 0 
-0.572978 5.87541 4.36303 173 187 112 
2.03884 4.0962 5.78388 52 46 34 
-0.41065 5.82215 4.43553 160 166 154 
0.582858 5.84993 4.61853 48 34 0 
0.511806 3.24575 5.19859 192 164 152 
0.506891 3.2462 5.22454 48 15 0 
0.664553 3.19386 5.23299 36 10 0 
-0.0264095 5.91168 4.85871 158 154 153 
0.47693 3.21849 5.21869 213 211 128 
-0.0456974 5.90517 4.84545 186 188 185 
-0.505016 5.8547 4.56424 42 44 31 
-0.51516 5.83748 4.56183 167 170 161 
-0.447664 5.76221 3.83226 63 93 117 
0.586044 3.15778 5.36364 240 213 134 
-1.55248 5.82422 4.62863 217 227 239 
2.14263 2.85262 6.19213 201 196 177 
-0.0481749 5.88649 4.11196 47 41 25 
-0.120875 5.92516 5.00398 185 176 179 
-0.17408 5.94397 5.08414 146 149 140 
0.12711 -0.114535 5.138 214 187 110 
-0.152062 2.22917 5.98049 138 137 135 
0.00761409 5.86159 4.93577 157 160 153 
-0.35682 2.25417 5.91574 33 34 29 
-0.0030074 5.84115 4.9427 71 67 68 
-0.00623119 5.87016 5.11077 171 171 173 
-0.075691 5.92738 4.54477 83 59 35 
0.120919 5.83011 4.44865 103 60 0 
-0.504427 5.86357 4.25646 165 164 118 
0.113152 5.83667 4.40063 116 67 11 
-0.596251 5.87021 4.31372 130 141 127 
-0.440731 5.84873 4.3919 56 56 44 
-0.735191 5.8724 4.60394 151 154 145 
-0.620361 5.87435 4.43186 127 136 115 
-0.622551 5.87057 4.44457 183 193 185 
-0.719264 5.89051 4.60403 176 179 172 
0.10165 5.81262 4.2881 42 59 15 
-0.0869207 5.87968 4.25283 105 108 79 
-0.566398 5.85192 4.62095 116 134 118 
-0.538501 5.84482 4.62785 145 156 142 
0.061595 -0.0251906 5.13285 255 255 207 
-0.608672 5.85213 4.54689 60 57 40 
-0.377377 2.24762 5.91932 18 16 19 
-0.17795 2.19725 5.99839 143 145 142 
-0.508633 5.84504 4.61301 112 124 114 
-0.239912 5.87003 4.71278 86 63 13 
-0.263189 5.9136 5.04889 191 169 109 
-0.727439 5.88406 4.64261 139 144 121 
0.474916 3.247 5.21291 168 166 92 
-0.132299 5.93022 5.04667 83 79 68 
-0.475062 5.80101 3.92449 85 115 139 
-0.706434 5.86882 4.59723 125 130 123 
-0.484154 2.25245 5.85032 141 141 139 
-0.0535794 5.94247 4.93292 144 140 137 
-0.494207 2.2044 5.85338 23 22 20 
-0.28214 5.95025 4.46046 156 130 115 
-0.111996 5.8591 4.27965 80 59 42 
0.711376 3.24836 5.18411 37 16 15 
0.406258 5.82818 4.46394 176 61 56 
-0.501032 5.8373 4.23474 162 161 104 
-0.155678 5.88417 4.25172 104 105 73 
-0.0905739 5.87194 4.21941 61 52 37 
-0.507864 5.89195 4.30243 151 151 99 
-0.535903 5.84078 4.61926 131 144 135 
-0.032676 5.8934 4.58665 103 60 5 
-0.104497 5.91744 4.96648 174 171 164 
0.674347 3.18656 5.22576 193 167 140 
0.509535 3.23272 5.208 42 10 0 
-0.0723769 5.89016 5.08483 111 110 106 
0.652771 3.18752 5.27274 216 197 164 
0.466167 3.2175 5.19984 73 76 0 
-0.593099 5.87794 4.33085 26 33 15 
0.649837 5.80642 4.4309 61 39 0 
0.500833 3.19838 5.20712 236 225 179 
0.449172 5.76513 4.26995 73 76 21 
-0.111344 5.93771 5.01184 45 33 35 
0.468653 3.19793 5.23884 204 203 111 
0.222597 5.7467 4.75108 31 22 7 
-0.809512 5.88915 4.61941 177 192 189 
-0.730833 5.89368 4.60766 34 35 37 
0.129571 5.87647 3.94908 41 37 28 
0.127139 -0.13171 5.134 135 124 79 
-0.0844157 5.87021 4.24715 119 122 93 
-0.42432 5.84452 4.38333 136 137 129 
-0.499853 5.84921 4.26981 178 171 90 
-1.52347 5.81708 4.63962 191 201 211 
0.679142 3.24689 5.21561 50 13 0 
0.779621 5.80823 4.80753 2 1 0 
-0.0518078 5.91423 4.94503 77 80 87 
0.557184 3.18151 5.30512 62 35 6 
0.477076 3.19948 5.27191 124 114 52 
-0.10344 5.85644 4.12398 196 184 158 
-0.502091 5.79531 3.85654 54 86 111 
-0.469206 5.81044 3.96075 171 193 214 
0.101641 5.82889 4.298 41 69 28 
0.186088 3.33822e-05 5.17286 48 9 2 
-0.588611 5.8843 4.35151 175 188 118 
-0.566352 5.85704 4.33903 168 183 92 
-0.295311 2.19414 5.93099 47 43 42 
-0.427695 5.84936 4.42363 200 203 192 
-0.451999 5.8387 4.52809 193 195 174 
-0.577116 5.85229 4.47524 55 58 41 
-0.507917 5.86906 4.57919 24 30 20 
0.116824 -0.0847214 5.14078 55 27 15 
0.374453 5.84511 4.45574 219 204 185 
-0.516886 5.83383 4.6026 119 129 105 
-0.568448 5.83784 4.61533 133 155 117 
-1.23431 5.85663 4.70944 122 127 133 
-0.0649351 5.88813 5.16375 149 149 151 
-0.101892 2.1872 6.01851 30 29 27 
0.669368 3.24414 5.2205 207 149 137 
0.102971 5.88065 3.95188 36 30 16 
0.0968149 5.84733 4.44615 233 184 66 
0.490695 3.27836 5.2228 146 136 124 
0.214485 5.85691 4.75124 88 74 63 
0.116332 5.84047 4.45732 133 90 11 
0.0547682 5.85237 4.71055 125 121 120 
0.761767 3.28495 5.34387 156 133 40 
-0.357346 2.05942 5.94953 151 132 134 
-0.456513 5.85149 4.60465 49 59 9 
-0.0325511 5.89902 5.18678 20 22 19 
-0.182732 3.18628 5.06566 162 162 170 
0.502537 3.20898 5.22691 251 238 193 
0.437015 0.377264 5.41868 31 16 19 
-0.610474 5.83834 4.5903 179 181 160 
-0.0104367 2.63823 6.0346 164 163 159 
0.456249 5.84413 4.50337 167 64 57 
0.765642 3.2943 5.26478 151 131 106 
-0.476958 5.78737 3.89779 95 127 152 
-0.443992 5.84829 4.40749 38 41 34 
-0.0559562 5.86859 5.15927 156 156 158 
-0.117641 5.88045 4.16867 29 23 9 
-0.582355 5.86046 4.64511 139 159 96 
-0.537432 5.85728 4.63316 142 151 130 
-0.0466686 5.88985 4.83935 40 43 48 
-0.0304488 5.91634 4.88145 107 106 104 
-0.0743567 5.84711 4.14433 37 32 26 
-0.00104919 5.88657 4.80641 142 138 137 
-0.634234 5.87764 4.35976 178 176 164 
-0.559385 5.86589 4.38634 186 190 175 
-0.421285 5.81437 4.39917 205 209 186 
-0.49897 5.79503 3.88512 204 239 255 
-0.566529 5.84379 4.32441 176 190 105 
-0.0492639 5.86938 4.04507 178 181 170 
-0.39516 5.79793 3.97215 199 213 222 
0.0746676 5.8337 4.41083 57 33 0 
0.642596 5.79351 4.42048 103 64 59 
-0.41782 5.84275 4.37482 138 138 126 
-0.697142 5.87864 4.6152 175 176 168 
0.387505 5.8315 4.45149 63 66 21 
-0.146697 5.93081 5.09524 137 135 136 
-0.105839 5.90966 3.99613 160 151 134 
0.731671 3.3248 5.25795 185 165 138 
-0.515776 5.84772 4.24536 160 160 88 
0.0563799 -0.0243005 5.14371 255 240 191 
0.440778 5.83286 4.46224 240 159 158 
-0.707408 5.875 4.65993 56 68 44 
-0.0364112 5.87011 5.18297 172 172 172 
-0.0263381 5.92035 4.82363 107 102 108 
0.566638 5.80561 4.40324 178 74 49 
0.68466 3.18989 5.25888 35 15 6 
0.722292 3.2011 5.31487 237 210 167 
0.333898 3.17277 5.24475 233 218 199 
-0.955705 5.88679 4.46688 211 207 204 
0.0750712 5.82764 4.40206 66 42 0 
-0.108659 5.87798 4.14278 205 194 166 
-0.563909 5.82461 4.30202 155 168 98 
-0.44065 5.86142 4.44005 154 157 140 
0.104418 5.82256 4.28532 32 70 33 
-0.0455686 5.89991 4.86136 124 122 125 
-0.537554 5.85789 4.58509 200 201 183 
1.10286 3.16907 5.5979 53 71 45 
-0.0273 5.89012 4.85937 148 145 140 
-0.000790368 5.88715 4.92295 153 157 156 
-0.716941 5.89925 4.67049 64 69 65 
-0.551159 5.8639 4.49615 195 197 176 
-0.10509 5.89185 5.18791 141 138 155 
0.641008 5.76914 4.39894 155 80 87 
-0.0770373 5.9313 4.96326 153 144 137 
-0.75823 5.87438 4.60207 152 153 135 
-0.639723 5.88181 4.48912 33 52 59 
-0.704571 5.87501 4.58473 169 173 150 
0.044769 5.80613 4.95041 121 121 121 
-0.589945 5.89519 4.32273 129 137 96 
-0.512494 5.85091 4.26726 185 171 82 
-0.094967 5.90395 5.09609 34 34 32 
0.000945758 5.87515 4.91622 101 103 98 
-0.468347 2.23175 5.98499 40 41 45 
-0.104635 5.92262 5.10162 117 118 122 
0.498792 3.20715 5.16569 30 18 0 
0.652458 3.19086 5.2279 195 168 151 
-0.0415697 5.98761 5.19732 171 171 173 
-0.0790124 5.95184 5.15012 137 137 135 
-0.127585 6.0655 5.24086 187 185 190 
0.665204 3.20246 5.25857 199 183 149 
-1.6271 2.9222 5.00085 203 194 179 
-0.101051 6.00982 5.20201 51 47 46 
0.493115 3.19827 5.15844 206 198 151 
-0.6366 6.09641 4.50713 141 140 119 
0.497899 3.2391 5.23202 51 32 17 
0.448727 3.21427 5.16519 200 188 130 
-1.51371 2.91775 4.97842 168 164 161 
-0.459904 6.09364 4.32857 147 149 146 
-0.0510978 5.98965 5.21684 171 169 172 
0.691055 3.16776 5.22692 27 11 0 
-0.0297842 5.99512 5.07755 85 85 83 
-0.443692 3.36625 4.5064 196 187 180 
0.513488 3.17942 5.119 65 29 15 
-0.492298 6.12258 4.59901 68 73 50 
0.739995 3.16283 5.25559 247 197 172 
-0.0717444 6.06014 5.28609 144 142 147 
0.225167 3.25175 4.67518 237 220 190 
0.743947 3.28793 5.00113 46 33 17 
0.641226 3.17526 5.22716 168 168 114 
-0.0287832 5.95247 5.20692 177 179 178 
0.737808 3.2871 4.99197 190 177 160 
0.750234 3.28044 5.22619 74 45 5 
-0.0239357 6.00516 5.09395 160 161 163 
0.656587 3.18031 5.24873 209 194 151 
0.672695 3.14537 5.20597 111 80 51 
0.637857 3.20708 5.28723 90 87 32 
-2.29994 2.02382 5.06063 157 129 144 
0.581513 3.21591 5.20948 104 54 1 
-0.611511 6.05813 4.50259 156 157 152 
0.74796 3.29832 5.00011 181 164 148 
0.634179 3.24256 5.35292 79 66 21 
-0.0402952 5.95844 5.22939 159 160 162 
-0.0456635 3.18461 4.88863 111 121 174 
-2.21423 1.90807 5.13172 160 152 165 
-2.31917 1.89576 5.10823 84 64 76 
-2.30404 1.88945 5.10927 136 95 111 
-0.0532559 5.95329 5.23607 172 172 174 
-0.676669 2.91758 5.24113 112 97 74 
0.557309 3.18936 5.25027 99 99 3 
0.488848 3.18664 5.20866 167 155 83 
-0.468253 6.09429 4.60298 165 171 169 
-0.673881 2.86125 5.12687 153 138 133 
-0.0473234 5.96295 5.25262 52 55 60 
-0.0883531 6.08507 5.02956 137 135 136 
-0.0413656 5.97264 5.26923 158 162 161 
-0.391671 3.02738 5.57745 90 44 18 
0.421196 3.27582 5.0581 176 167 138 
-0.0421412 6.06232 5.24863 144 143 148 
0.469466 3.29281 4.80906 99 76 32 
-0.277649 6.03779 5.02498 225 213 187 
0.027024 3.19422 4.98924 152 153 207 
0.47769 3.267 4.75654 219 195 167 
-0.755916 6.01852 4.69832 40 43 50 
-1.16236 2.96375 4.94605 228 195 178 
0.489411 3.32367 4.84224 211 189 165 
0.0012363 6.03766 4.7643 58 37 18 
-0.489923 6.00057 4.08193 178 205 226 
-0.39371 3.08103 5.60585 114 67 47 
1.11493 3.19504 5.62293 94 97 40 
0.599125 3.15319 5.2763 124 91 0 
-0.492249 5.98736 4.06286 72 100 124 
0.439796 3.16808 5.22366 66 24 0 
-0.528331 3.28929 4.58115 88 71 63 
-1.57584 6.17417 4.24649 2 75 110 
0.0223317 3.15649 4.9855 214 202 204 
-0.137899 -0.381514 4.57124 210 196 170 
-0.495707 6.05044 4.10738 79 105 130 
-0.442389 5.99934 4.57057 185 185 183 
-1.18501 3.01631 4.95292 88 81 52 
-1.55601 6.09346 4.18925 94 160 195 
0.461287 3.30996 4.78883 104 75 41 
0.0879883 6.05767 4.57164 103 54 0 
-0.476355 5.98494 4.05697 206 232 255 
0.472491 3.28644 4.7553 99 69 43 
-0.722528 2.98784 5.16745 119 128 109 
0.178975 0.490052 5.64059 178 192 159 
-0.0329238 2.98233 5.55957 162 137 141 
-0.130366 -0.347605 4.63584 199 182 166 
-2.1476 2.39004 4.92915 155 201 251 
-0.445964 6.00529 4.06877 107 122 151 
0.500329 3.29573 4.77894 190 165 145 
0.159768 0.482848 5.69174 61 71 37 
-0.479079 5.94359 3.98633 85 115 141 
0.0095638 5.95327 5.15119 149 147 150 
0.156674 0.471204 5.70029 192 198 172 
-1.12509 2.91452 4.76758 251 244 218 
0.176519 0.461871 5.68422 168 181 174 
-1.17332 2.94323 4.78758 43 25 15 
-0.135396 6.02334 5.14858 155 157 156 
0.0481335 0.461667 5.59354 173 131 109 
-0.0823969 6.1258 4.28128 83 77 61 
-2.30655 2.49428 5.06664 169 139 163 
-0.998948 2.94753 4.89347 104 83 64 
-1.222 3.03275 4.91622 114 87 66 
0.0534737 3.05055 5.7036 62 30 7 
-1.3525 2.84757 5.14722 209 200 191 
-2.14544 2.38913 4.90648 56 92 144 
-2.15136 2.41222 4.95406 95 184 242 
-1.02996 2.93755 4.83977 58 40 30 
-0.551509 3.30827 4.62245 77 64 47 
-0.0521234 6.01631 4.94703 102 100 105 
1.1133 3.14097 5.63453 189 156 87 
-0.0290188 6.03062 5.05749 175 177 172 
-0.0976327 6.19249 5.2733 163 166 171 
-0.0488692 6.04064 5.09632 163 163 161 
-0.114372 6.16653 5.12514 123 120 127 
-0.0670751 6.08022 4.20385 47 45 30 
-1.07343 2.99728 4.89228 81 55 42 
0.576373 6.11231 4.82856 95 76 36 
0.332531 3.12391 5.18465 149 136 120 
0.498353 3.26505 5.21759 33 21 7 
-0.064935 6.07807 4.98723 168 172 183 
-0.447684 3.11659 5.4666 62 16 18 
0.0627432 6.15631 4.30825 61 46 13 
-0.999044 3.01142 4.93445 66 43 27 
-0.6016 6.0665 4.82194 44 49 17 
-1.68276 2.8805 5.04653 169 171 166 
-0.707555 6.00006 4.71377 127 126 134 
-1.43464 2.91095 5.27254 210 200 191 
-0.501787 5.93771 4.66577 22 26 25 
1.03777 3.13339 5.6126 222 221 191 
0.677371 3.16822 5.20998 114 100 65 
0.502567 3.27263 4.9414 74 53 34 
0.703986 3.25248 5.23763 164 135 129 
-1.71871 2.94346 5.16208 234 237 226 
-0.796256 2.99041 4.93086 65 37 25 
2.08288 4.13108 6.03271 67 57 47 
-0.912335 3.01054 4.89543 57 26 6 
-0.984663 3.03212 4.88156 45 14 12 
-0.0215053 6.02852 4.93869 125 126 128 
-0.535531 5.96674 4.65855 170 174 177 
-0.513581 6.07218 4.76684 126 135 130 
-0.045111 6.01542 5.13706 80 75 79 
-0.011336 5.94968 5.17291 193 193 191 
0.654444 3.19241 5.17589 240 199 169 
-2.00983 5.92034 4.77293 147 194 220 
-0.784843 3.0997 5.0658 47 39 16 
0.675838 3.22633 5.20124 205 146 138 
-0.0469562 6.07055 4.95075 119 119 121 
-0.00572859 6.02857 4.92093 146 144 149 
0.0220273 6.075 4.90286 34 34 34 
0.468067 2.58707 5.95761 133 123 114 
-0.505726 5.85825 5.44833 93 96 79 
0.633622 3.22512 5.21184 149 87 26 
2.07173 2.6125 5.76287 177 179 165 
-0.107198 6.12311 5.24095 176 174 177 
0.0213844 -0.00536398 5.10362 255 228 189 
0.0425301 6.11268 4.63121 71 48 0 
0.699485 3.23426 5.23166 33 2 0 
1.751 5.31633 5.92791 153 158 161 
0.692545 3.23062 5.22218 161 119 121 
0.499566 3.24263 5.16238 147 134 128 
-1.35554 2.71593 5.15475 230 218 204 
0.0223446 6.00756 4.85276 151 147 146 
0.584623 6.14412 4.88689 80 64 5 
-0.773979 3.37024 4.67369 160 152 149 
-0.418922 6.09102 3.87588 166 166 158 
-0.301535 3.18743 5.10278 182 164 154 
-0.146487 6.15422 5.2368 153 152 148 
-0.614232 6.03666 4.61893 52 49 42 
0.211812 6.00857 4.94572 54 28 1 
-0.0863795 6.12052 5.10609 123 123 115 
-0.00815397 5.9941 5.05657 167 171 172 
1.9721 4.64128 5.63239 178 181 174 
1.99627 4.59208 5.60971 99 91 80 
-0.22907 2.26087 5.96935 47 49 48 
0.398572 3.14563 5.19486 156 95 67 
-0.900781 3.00332 5.1375 174 147 130 
-0.979713 3.06317 5.13993 40 23 16 
-0.0511166 5.97889 4.96554 106 101 105 
0.479416 3.15862 5.18333 215 215 105 
0.506685 3.24415 5.17358 46 28 18 
0.512081 3.23468 5.18164 174 137 131 
0.524628 3.28993 4.96978 106 98 85 
0.0744746 3.12725 5.0579 184 187 206 
0.457134 3.22126 5.17601 128 133 51 
0.396166 3.20176 5.16221 235 180 150 
-2.21431 1.8907 5.11901 111 89 102 
0.802672 5.75594 5.69588 101 104 113 
0.229188 3.27114 4.67432 221 204 174 
-1.34957 5.97235 4.06419 153 181 202 
0.0670646 6.08016 4.49299 97 102 70 
-0.454017 3.35403 4.50526 149 136 117 
0.0472442 2.52772 5.6718 141 130 138 
-0.924576 3.05161 4.90801 47 24 16 
-0.493014 6.07309 4.74802 129 149 112 
-0.00883995 3.17533 5.00975 159 149 160 
0.206319 3.27811 4.86945 210 180 172 
0.108195 3.10149 5.86908 87 49 40 
-0.607886 6.05035 4.63825 164 161 156 
-0.541168 6.00949 4.74873 119 127 112 
0.731688 3.31213 5.04554 156 143 126 
-0.771799 2.96891 5.07976 25 7 0 
-1.52778 6.09562 4.17237 90 154 189 
0.0704171 3.05043 5.72551 85 54 33 
-1.116 2.89324 4.8439 61 41 30 
-2.23794 2.47496 5.06674 171 172 216 
-0.657357 6.02445 4.558 182 187 181 
0.67313 3.21358 5.19959 115 27 17 
0.438006 3.24194 5.29175 224 219 138 
-1.66852 2.89851 5.05684 187 185 172 
-0.116099 5.97031 5.24323 119 127 140 
-0.125782 2.28982 6.07036 50 52 49 
-0.439283 6.11413 3.8728 150 141 132 
-0.519576 6.02439 4.75569 124 135 95 
-0.473906 6.06887 4.56202 134 138 121 
-0.539407 6.08064 4.4227 62 72 20 
-0.710095 2.92526 5.22994 36 31 28 
-1.04143 2.9493 4.81093 201 167 140 
-0.843335 2.99854 5.00757 110 87 69 
-0.329255 6.05692 3.92803 106 102 93 
0.0260235 5.99251 4.81644 43 42 40 
-0.887598 2.97012 4.79142 102 75 56 
-0.520199 5.99613 4.70058 128 138 139 
0.0231019 0.0715303 5.32358 125 102 70 
0.0158264 3.15707 5.12228 166 160 164 
-1.89789 2.99377 5.21907 170 165 169 
-2.16871 2.06731 4.97581 189 158 176 
0.757953 3.26525 5.31215 157 143 70 
-1.20152 2.97478 5.13751 42 31 27 
-1.9642 5.94225 4.75838 153 181 202 
-0.183439 3.29071 4.97566 41 21 32 
1.23358 6.07584 5.01393 107 110 117 
-2.32955 2.05044 5.10169 191 179 189 
0.400643 3.21003 5.16793 127 56 34 
-0.053133 3.02937 5.64887 106 65 69 
-0.0123739 6.04622 4.96735 118 119 123 
-0.0106074 6.05023 5.07988 78 80 77 
0.495458 3.17205 5.16302 252 242 180 
-0.390714 2.25274 6.04927 21 22 24 
0.618919 3.20302 5.19382 243 215 115 
0.623244 3.23976 5.33727 221 228 116 
0.419309 3.31764 5.18274 138 134 125 
-0.832389 3.21027 4.58509 110 96 85 
-0.293348 3.15055 5.07053 93 75 63 
-0.847965 3.50556 8.81661 49 50 54 
-1.86674 2.99228 5.10792 59 60 65 
0.307514 3.11646 5.86097 124 57 66 
-0.496029 3.35277 4.61652 169 160 155 
-0.570641 5.98706 4.73531 118 126 128 
0.824479 3.16092 5.45995 238 220 158 
-0.492364 6.03914 4.75673 40 54 3 
-0.490695 2.25242 5.98424 39 40 45 
-2.15822 2.38917 4.91909 143 131 177 
-1.25513 6.10541 4.04095 153 191 230 
0.391188 3.24118 5.15201 171 151 127 
0.58875 3.17025 5.17019 125 137 9 
-0.568835 6.00938 4.76513 122 122 112 
-1.17769 2.97578 4.92578 71 54 36 
-1.32913 2.8485 5.15138 193 180 171 
1.32226 6.01664 5.06466 7 10 15 
-0.226095 6.04067 5.18242 58 43 48 
-0.767956 3.04301 5.12936 50 44 18 
-0.150374 3.17072 5.0269 170 161 166 
-0.642698 6.14598 4.52596 84 80 17 
0.00752275 5.9887 5.12961 72 74 71 
0.435118 3.17682 5.14804 193 106 97 
0.493636 3.16211 5.16112 234 224 153 
0.0786869 3.17471 5.13965 115 122 168 
-0.103991 6.01001 5.08533 128 122 122 
0.574786 3.15498 5.38124 227 206 125 
-0.90611 2.99663 5.13855 93 66 45 
-0.339967 3.05345 5.59124 131 86 65 
-0.574168 6.09086 4.06002 95 136 166 
-0.143626 3.21691 5.04033 38 51 96 
-1.0026 6.11047 4.65168 156 156 158 
-1.74676 2.95224 5.27365 184 174 162 
0.0299369 5.9496 5.12247 59 60 64 
0.0148553 6.0043 5.05105 69 72 81 
0.577052 3.20005 5.20679 203 191 105 
0.755995 3.30886 5.11561 57 51 55 
0.0975544 3.06039 5.76647 170 138 125 
-0.173351 3.25674 4.91605 43 20 26 
-1.69635 2.9795 5.02574 75 98 116 
-2.17774 2.40747 5.00001 118 121 152 
-0.550522 6.00792 4.75547 41 45 28 
0.0961715 3.30201 4.6055 222 190 141 
0.74653 3.32989 5.28614 157 126 71 
-0.96541 3.04824 4.9115 51 28 10 
0.728642 3.19666 5.49828 188 106 30 
-1.68191 2.90828 5.06128 138 145 137 
-0.132476 6.16158 4.43647 91 92 74 
0.916308 3.16587 5.64329 93 49 36 
-1.83036 5.93749 4.4311 167 203 215 
0.598985 6.02438 4.79164 177 168 137 
1.0032 3.15383 5.57348 224 213 181 
-2.2081 1.90403 5.14265 70 92 115 
0.56944 3.20657 5.33205 130 107 13 
1.62646 3.22672 5.67272 207 152 113 
-0.465494 2.30557 5.96963 133 134 139 
-0.493552 2.96704 5.5961 93 69 57 
-0.152996 6.14107 5.22573 96 93 86 
-0.0802392 6.01413 5.27526 144 144 146 
0.171885 0.444458 5.60363 42 49 42 
0.139071 0.520609 5.7723 83 85 61 
0.262007 0.191584 5.39623 75 61 60 
0.47274 3.30615 4.80847 231 205 178 
0.0845301 6.07221 4.58436 118 70 21 
0.518053 3.18807 5.16572 83 25 3 
-1.12146 2.78839 4.3984 196 176 178 
0.642364 3.13419 5.17655 74 67 13 
1.24714 5.9665 4.90364 150 150 160 
0.6902 3.17644 5.24035 27 11 0 
-0.0673321 6.19578 4.66176 88 74 39 
0.163923 0.487039 5.65656 193 204 162 
0.559271 3.16357 5.19115 55 53 0 
0.134567 0.545458 5.88132 218 223 201 
0.500171 3.19024 5.14124 30 18 0 
-1.66925 5.85127 4.93525 228 214 211 
-0.763481 3.33812 4.68211 177 170 164 
-0.0328372 5.86649 5.18556 149 153 156 
-0.418328 5.94442 4.07643 169 183 192 
-0.184096 6.01871 5.15138 139 137 140 
0.511081 3.20214 5.15429 65 29 15 
-0.979107 2.90551 4.8293 105 86 69 
1.1118 3.14867 5.55046 85 100 57 
-1.13025 2.92396 4.78117 251 244 218 
-0.622641 6.10354 4.53885 163 165 154 
0.432698 3.21795 5.29775 77 22 0 
0.748954 3.18316 5.24029 66 48 0 
-0.535631 6.09343 4.12452 68 100 125 
-0.547321 5.96865 3.99002 49 83 111 
-0.012803 0.0271252 5.29653 251 231 181 
0.751463 3.19473 5.242 255 243 181 
0.64766 3.14811 5.10537 255 240 181 
0.0466276 -0.0231345 5.12891 57 25 0 
-0.482909 5.9198 3.93813 55 90 112 
0.751271 3.27323 4.97167 156 140 125 
-0.0721708 6.11607 4.22918 82 79 62 
0.74459 3.26273 4.96913 40 26 13 
0.706749 3.20948 5.18092 215 185 175 
-0.549659 3.30649 4.61891 77 64 48 
-0.152324 6.09145 5.15366 67 69 64 
0.212909 5.8496 4.83686 27 9 0 
1.90823 3.94653 5.5968 158 159 141 
-0.0181397 -0.161349 5.15148 255 248 184 
-0.548172 6.01155 4.69449 192 194 193 
0.084685 6.10081 4.07255 253 249 224 
1.03667 3.11308 5.578 222 221 191 
-0.041674 6.07732 5.01064 176 173 180 
-0.130955 -0.384725 4.54049 181 165 149 
-0.144033 6.09054 5.14092 185 185 177 
2.07913 4.05769 5.93012 187 185 173 
-2.19474 2.44177 4.93943 172 210 247 
-1.53223 5.8886 4.70667 196 205 210 
-0.0245441 6.01759 5.10145 178 179 181 
-0.0347033 6.02025 4.99941 136 137 142 
-0.123353 -0.350914 4.60129 199 182 166 
