# .PCD v0.7 - Point Cloud Data file format
VERSION 0.7
FIELDS x y z rgb
SIZE 4 4 4 4
TYPE F F F U
COUNT 1 1 1 1
WIDTH 1290
HEIGHT 1
VIEWPOINT 0 0 0 1 0 0 0
POINTS 1290
DATA ascii
0.22899701 0.29967299 1.25025 6379335
0.231856 0.298843 1.25073 5129529
0.231776 0.29878399 1.25049 5129273
0.25858301 0.302544 1.25667 5919816
0.270836 0.30463901 1.2639 4012335
0.27856699 0.30458 1.26112 4800822
0.281167 0.306272 1.2679501 5064251
0.28378001 0.30651599 1.2677 5327423
0.28791299 0.30492899 1.26493 5524803
0.286468 0.30576199 1.26354 5722182
0.299319 0.30929399 1.27898 5261374
0.29857901 0.310128 1.28029 5524802
0.36077899 0.32372701 1.31911 6050373
0.36201099 0.32366601 1.3218 4931892
0.383059 0.32957101 1.33445 6182728
0.0052606198 0.295542 1.27133 1578002
0.00363064 0.295398 1.27144 1709331
0.0067582699 0.29565299 1.27056 1775123
0.0197467 0.294855 1.26591 3090980
0.024777399 0.294606 1.26388 3682858
0.0244713 0.294857 1.26482 3551529
0.027158599 0.29370299 1.26325 3222565
0.028805999 0.29364401 1.26218 3354151
0.037937 0.29408801 1.2578599 4077876
0.040021598 0.292997 1.25774 3617325
0.041873898 0.29284099 1.25581 3814704
0.0416307 0.29299501 1.2570699 3748911
0.110948 0.29173499 1.2359999 3288613
0.15576901 0.29187199 1.23274 4275507
0.160918 0.292254 1.23111 4275507
0.162737 0.29272699 1.23368 4077871
0.164891 0.29308501 1.23549 3156769
0.248698 0.30299899 1.25561 7104347
0.250579 0.30338901 1.25673 7565155
0.25575501 0.30484301 1.25805 8222316
0.257925 0.30477601 1.25896 6972505
0.26641801 0.30572101 1.26349 6643283
0.26802301 0.305924 1.26334 5064508
0.26895401 0.30658999 1.26482 4735544
0.2694 0.30644599 1.26452 4472372
0.27743599 0.30634001 1.26113 5656132
0.27926999 0.30709901 1.26235 6051403
0.28120601 0.307026 1.26316 5985354
0.28309199 0.307053 1.26201 6051147
0.28463599 0.306638 1.26293 5788232
0.28894299 0.306436 1.2636 6380368
0.29906401 0.31113899 1.2764 5919816
0.36168799 0.325966 1.32059 7827042
-0.0109161 0.29738799 1.27415 2565152
-0.0074194302 0.29745799 1.2756701 2301980
-0.0030034001 0.29778901 1.27502 3091240
-0.0050561498 0.298614 1.27709 2959910
0.0026409901 0.29680201 1.27104 2762274
0.0043619401 0.29703 1.2713799 3354412
0.0057999901 0.29715899 1.2706701 3748913
0.0073783901 0.29712701 1.2697099 3025190
0.0131904 0.29611 1.2686501 3091239
0.0172318 0.29739699 1.26586 4801598
0.019764001 0.29611999 1.26569 4341045
0.019835301 0.296545 1.26556 5262147
0.025271401 0.29652601 1.26279 5656647
0.0277334 0.29517999 1.26245 5525319
0.026704101 0.29663 1.2623301 5590854
0.028407101 0.29653001 1.26109 4998719
0.029683899 0.29510501 1.26123 4538170
0.040818099 0.294505 1.2569799 4143926
0.064428501 0.29393899 1.24613 3091238
0.069397897 0.293818 1.2460999 3420203
0.082176097 0.292896 1.24369 1907220
0.084235303 0.29302499 1.2419 2433563
0.10132 0.291931 1.23671 1512205
0.102116 0.29287401 1.23576 3222823
0.106717 0.292225 1.2362 3814958
0.107075 0.29228699 1.2364 3880751
0.109229 0.292436 1.23658 4209715
0.111748 0.29329401 1.2353801 4209715
0.155505 0.29374799 1.23163 5131330
0.157262 0.293975 1.23341 5854540
0.15954199 0.29422101 1.23435 4999230
0.16089 0.29538301 1.23544 6380883
0.24680801 0.304739 1.25267 6643540
0.251001 0.30464 1.25466 7828328
0.25356901 0.30487901 1.25703 8354158
0.25969201 0.306582 1.25956 7959143
0.26807201 0.308088 1.26361 4998972
0.26689401 0.307502 1.2630399 5788231
0.28720501 0.30812001 1.26008 5919818
0.30023199 0.31224799 1.27298 7235676
0.30094901 0.31265301 1.27705 6380111
0.31403199 0.31386399 1.2778 6314059
0.36142099 0.32764399 1.31786 8287336
-0.0145865 0.299941 1.27874 2301979
-0.0097435899 0.299391 1.27535 3683632
-0.0074255299 0.299514 1.27581 4275513
-0.0093674604 0.29978701 1.27666 3880755
0.00325987 0.29835999 1.27079 4143927
0.018538 0.297611 1.2657599 5525576
0.065240897 0.29560101 1.24589 3946804
0.079933897 0.29488 1.24067 4867647
0.082253501 0.29430601 1.2417099 3485994
0.0859477 0.293906 1.23989 5065026
0.102092 0.29433799 1.23373 4012339
0.107126 0.29390299 1.23518 4144180
0.21588799 0.30267 1.2432801 5392699
0.21814001 0.302845 1.24445 6248007
0.21813101 0.30286601 1.24444 6248007
0.24499799 0.30573401 1.25141 4406064
0.24893001 0.30684099 1.25583 5920075
0.266433 0.30973399 1.26371 7498848
0.26865101 0.31060001 1.2630399 5064765
0.272302 0.31042501 1.26492 5393474
0.27595001 0.30967399 1.26105 5590596
0.27603599 0.30852199 1.25886 5327680
0.31319901 0.315254 1.27499 7169370
0.315256 0.31534401 1.27654 5721667
0.365605 0.329014 1.31319 7629406
-0.091100603 0.315465 1.3413301 3682860
-0.0118888 0.30281401 1.27845 4604477
-0.0076743802 0.30242601 1.27637 3683633
0.00027905201 0.300825 1.27005 2564895
-0.0013456 0.30104199 1.27456 3420461
0.0032673599 0.299981 1.27012 3354412
0.00178386 0.30118001 1.2701401 2762531
0.063219696 0.29882801 1.24955 5065285
0.064774103 0.29825199 1.24863 4867906
0.064529903 0.29796401 1.24955 4999748
0.17747501 0.29950601 1.23526 5721924
0.190111 0.30145299 1.23527 5590853
0.199066 0.3008 1.2341599 5064252
0.198993 0.30197901 1.23637 4011564
0.20464601 0.302396 1.23887 3880237
0.22209001 0.30564901 1.24862 5326393
0.229555 0.30560401 1.24338 4274219
0.24437 0.30799901 1.25069 7037783
0.271108 0.31190401 1.26402 3880235
0.27291799 0.31184801 1.2629499 4077613
0.275071 0.31130001 1.2603199 4340528
0.31452101 0.31764299 1.27546 3616548
0.315106 0.31741601 1.27635 3682084
0.36362001 0.32917199 1.3123 7629662
-0.0137558 0.30479899 1.27841 2827809
-0.015654899 0.30496201 1.27912 3420202
-0.0118886 0.30438501 1.27723 3288361
-0.00766828 0.30405 1.2752 2433309
-0.0100963 0.30336699 1.2773499 3551532
-0.0096157696 0.30382001 1.2773 2959653
-0.00528704 0.30245501 1.2733999 2630944
-0.0013659101 0.302183 1.2715 2170394
0.0641829 0.29984 1.24809 4275512
0.0646322 0.29939201 1.24786 4209720
0.0657221 0.29957601 1.24799 3946804
0.067708597 0.29958901 1.24735 3946547
0.0703578 0.300708 1.24744 4209463
0.106145 0.298953 1.2337101 4341046
0.161777 0.29976499 1.23343 5131073
0.16286901 0.30142999 1.23327 4933181
0.188365 0.301606 1.2336299 4604214
0.194171 0.302048 1.2351201 4603957
0.19618 0.302086 1.23563 4406579
0.19709501 0.301873 1.23507 4143150
0.198063 0.30338901 1.2343 4209199
0.20111801 0.302154 1.23296 3156257
0.210623 0.30569801 1.24265 3748650
0.21494199 0.30715501 1.2446899 4208943
0.217005 0.30650201 1.24632 4011049
0.21508899 0.306146 1.24709 3550755
0.217783 0.30664101 1.24775 4011049
0.221138 0.30734399 1.2484699 4208428
0.22782899 0.30599499 1.2424099 4208427
0.24819501 0.30913201 1.2497 5063994
0.25108299 0.30896801 1.25081 4735286
0.27540299 0.31329301 1.2591701 4866872
-0.078017801 0.31454301 1.31794 4472889
-0.076136902 0.31487101 1.31839 4012338
-0.077263899 0.31479201 1.31743 4275510
-0.075672001 0.31466001 1.31582 3749422
-0.00961853 0.305013 1.27464 2696225
-0.0114017 0.30609301 1.27649 3090983
-0.0076697301 0.30538601 1.27311 2564896
-0.00574164 0.30535099 1.27222 2235931
0.0088341301 0.30360901 1.2672499 1643537
0.105151 0.30052701 1.23331 3682859
0.106991 0.30048001 1.2329299 3880237
0.16075 0.30099899 1.23148 4736059
0.160997 0.30132499 1.23199 4670009
0.193198 0.30347201 1.2336 4011820
0.195016 0.303224 1.233 4998714
0.19757999 0.30533999 1.23393 6775126
0.20253 0.30741599 1.24201 4406835
0.213301 0.30785799 1.24509 4406580
0.229541 0.30737501 1.24198 5129788
0.23395801 0.30885801 1.24456 6511954
0.25024 0.31071299 1.25028 5195837
0.26367301 0.31366399 1.2592 3551270
0.268987 0.31392801 1.25771 3946284
0.27292201 0.31447801 1.25822 5459265
0.28234699 0.314392 1.25647 5853510
-0.061860301 0.313636 1.30703 2893600
-0.045008302 0.31139299 1.2925 3419944
-0.046002701 0.31114 1.29406 3880496
-0.0151475 0.30743399 1.27547 2893859
-0.0131907 0.30730999 1.27554 2762274
-0.0090150395 0.30620199 1.27293 2499102
-0.0073278099 0.30616 1.27237 2038551
0.063961603 0.30258301 1.24577 4144182
0.066180199 0.302605 1.24587 4472891
0.067942902 0.30241099 1.24564 4275513
0.099052601 0.30129999 1.23441 3814701
0.148459 0.30262899 1.2298501 4999230
0.1533 0.304432 1.23159 4867644
0.194095 0.30506501 1.23342 6051659
0.199257 0.30683899 1.23377 4406580
0.20418 0.308557 1.24142 3683113
0.21413299 0.30965501 1.2458 4209458
0.248429 0.31272799 1.24701 6116939
0.2502 0.31269699 1.24947 5064252
0.270392 0.31588799 1.25851 4866873
0.36127901 0.33531001 1.31073 7760990
0.38994199 0.34378999 1.3361599 5655872
0.389945 0.343793 1.33618 5655872
0.394694 0.34562001 1.34076 7432282
0.049112201 0.305839 1.24877 3025445
0.053376 0.305599 1.24888 2433564
0.0663234 0.304479 1.24599 4012340
0.093945399 0.30287099 1.2336 4801339
0.15142 0.30442399 1.23074 4867901
0.154723 0.305042 1.23052 5064767
0.17492101 0.30697101 1.23057 5064766
0.19396099 0.30815199 1.23581 4669750
0.192148 0.30993 1.24011 4669494
0.200626 0.30978099 1.23603 2959391
0.202402 0.30997601 1.23771 3156770
0.20456301 0.310473 1.24063 3748651
0.20539799 0.30956301 1.23864 4077871
0.207803 0.308806 1.23742 3814443
0.25041899 0.31473801 1.24853 6512211
0.252368 0.314762 1.24949 6577747
0.25850499 0.315918 1.24861 5130560
0.269748 0.317794 1.25463 4143150
0.272066 0.3179 1.25275 4801079
0.39275399 0.34655699 1.34206 7564125
-0.023714701 0.31264201 1.27898 5130563
0.053231999 0.307428 1.2476701 4275511
0.096609697 0.307293 1.23932 5130561
0.098518603 0.30728999 1.2394201 4209459
0.099690802 0.30723301 1.23888 3946030
0.100952 0.30718601 1.23829 4472631
0.17552599 0.30779999 1.2302999 5393987
0.19476999 0.309692 1.23493 3880235
0.19676299 0.309679 1.23502 3353892
0.198737 0.30981499 1.23561 2959390
0.20411301 0.31209701 1.23838 3748907
0.206218 0.31184399 1.23926 3880493
0.20734701 0.311728 1.23886 4143666
0.20655601 0.31216201 1.23938 4472630
0.208674 0.31130999 1.2389899 3683114
0.20951299 0.31280199 1.2393399 4933181
0.211824 0.31307301 1.24064 4932925
0.215692 0.31338799 1.23923 4472630
0.36655799 0.33904701 1.3085001 7827039
0.36509901 0.33926401 1.3081501 7761502
0.367073 0.33942801 1.30984 7827039
0.36859301 0.33939901 1.31041 7892832
0.0121704 0.31231001 1.26395 3617325
0.0140477 0.31204501 1.2628599 4538682
0.0941476 0.308954 1.23911 5328198
0.095662102 0.308835 1.23853 4933183
0.097599499 0.30890799 1.2384501 4274996
0.097571902 0.308835 1.2386301 4275252
0.099710897 0.30894101 1.23875 3748909
0.10064 0.308873 1.23857 3485480
0.155329 0.308386 1.23067 5525318
0.175762 0.30885801 1.22692 6380626
0.19571801 0.311371 1.23463 4932923
0.197778 0.311454 1.23487 4998973
0.204151 0.313844 1.23646 5064767
0.20606101 0.31392801 1.23871 5064767
0.20764901 0.313674 1.2386301 5064767
0.20926499 0.31428799 1.23735 2630426
0.23515201 0.31776601 1.2475899 6314319
0.235954 0.318066 1.2463 5787975
0.238671 0.317586 1.24968 5854281
0.25183201 0.31766599 1.24423 5590853
0.254152 0.316549 1.24165 5985611
0.255851 0.316369 1.24299 6051404
0.36037001 0.339726 1.30446 6643023
-0.00159148 0.314812 1.26898 2893860
-8.05811e-05 0.31445199 1.2671 2893860
0.0130907 0.31377399 1.2630301 6314838
0.0177962 0.31348899 1.25982 6182993
0.091707997 0.31053501 1.239 4735803
0.095161103 0.31046799 1.23871 4932927
0.095060997 0.31057701 1.23865 4933184
0.093315199 0.310471 1.23895 4603961
0.096970797 0.31056499 1.2384599 4340790
0.098763399 0.31055501 1.23827 3748653
0.100559 0.310545 1.23823 3551530
0.146681 0.31062701 1.22841 5459526
0.153238 0.308348 1.22334 5064767
0.17510401 0.30997199 1.22409 4340786
0.17338599 0.310615 1.22647 4603958
0.178259 0.30965 1.22496 4801337
0.193326 0.31362799 1.2343301 4669750
0.19466799 0.31300801 1.2342499 5459267
0.195741 0.31478399 1.23432 2827804
0.196587 0.312969 1.23404 5196353
0.197486 0.314576 1.23347 2959135
0.20633399 0.31576499 1.23726 2762011
0.207396 0.315155 1.2366199 2301460
0.210823 0.31533101 1.23664 2564377
0.212372 0.31465799 1.23718 3222563
0.23317499 0.31837299 1.24694 6182733
0.234585 0.31947899 1.24499 4932665
0.238739 0.319296 1.24738 4669494
0.256502 0.31889799 1.24385 4340274
0.36378199 0.34266499 1.3057801 5984836
-0.0208448 0.31695601 1.27564 4736061
-0.021895399 0.31807801 1.27965 4538683
-0.0130607 0.31597099 1.27263 3420202
0.00029310299 0.315561 1.26419 3354412
0.012011 0.31516999 1.2627701 4735548
0.0136477 0.31512201 1.26188 4603962
0.016762299 0.31490099 1.25903 3551272
0.0151063 0.31550699 1.2607599 3551017
0.018506801 0.315153 1.25902 3090465
0.020675199 0.31434599 1.25683 3024929
0.0201951 0.314946 1.25727 3090466
0.087895498 0.31150901 1.23764 4801597
0.088603303 0.31165299 1.23794 4801597
0.091899402 0.31222999 1.23892 5327941
0.094169401 0.312087 1.23843 5788236
0.095981203 0.31216899 1.2381001 3551274
0.097892798 0.31216201 1.23794 2827807
0.099745303 0.31213799 1.23786 4143155
0.103356 0.313191 1.23685 4604217
0.101711 0.312148 1.23801 3814446
0.14851201 0.310772 1.22688 4932925
0.150048 0.31106201 1.22686 4669753
0.196815 0.316441 1.23395 4603960
0.205605 0.31680501 1.23913 3354148
0.205605 0.31680501 1.23913 3354148
0.205605 0.31680501 1.23913 3354148
0.206824 0.318055 1.2377501 4077871
0.207445 0.31653699 1.23522 3617320
0.210843 0.317112 1.23548 4472373
0.21239699 0.316443 1.23603 3814699
0.23354 0.32023001 1.24533 6511697
0.2348 0.32127401 1.24402 6643540
0.236582 0.32021001 1.24568 5722182
-0.0298956 0.32034799 1.27871 2433308
-0.0189666 0.32012299 1.2752399 2301463
-0.01282 0.31803501 1.26879 2762015
-0.0153153 0.31844801 1.27255 2499099
0.0136273 0.31641999 1.25992 3288101
0.0113159 0.317009 1.26256 2827551
0.015634799 0.31627101 1.25748 3879724
0.018322701 0.31615999 1.25752 4142896
0.067115001 0.31335399 1.23833 4143668
0.069058999 0.31341299 1.23905 4538169
0.0717417 0.31293601 1.23575 4209717
0.077804498 0.31304401 1.24017 4406838
0.079209201 0.31462201 1.24018 4670010
0.081095703 0.31468099 1.23966 4538681
0.082548097 0.31356001 1.23992 4143924
0.086230002 0.31319699 1.23844 4802110
0.090312697 0.313236 1.23825 5459527
0.091931596 0.313768 1.23801 4735804
0.095104001 0.31378299 1.23773 4209460
0.096733302 0.31374899 1.23737 4011823
0.098448597 0.313705 1.2373 4340789
0.100425 0.31368399 1.23726 4143154
0.102241 0.31470799 1.23607 4012336
0.109143 0.31174201 1.22791 4077359
0.177944 0.31545201 1.22656 5524802
0.17976201 0.315552 1.22629 5327422
0.20569199 0.318757 1.23832 4341043
0.206965 0.31994599 1.23703 4538422
0.208234 0.318977 1.23659 4998716
0.219605 0.31989801 1.2383699 5196352
0.22190499 0.32012299 1.2396801 5130560
0.23316801 0.32151899 1.24422 6577747
0.233922 0.32276699 1.24246 6840663
0.238387 0.32275 1.2449501 5788489
0.241557 0.32349899 1.24628 5064509
0.24373101 0.32365599 1.24475 5261631
-0.106236 0.33550599 1.3396 6380886
-0.025022401 0.32302901 1.2807699 4538683
-0.0213784 0.32210299 1.27757 5064512
-0.023056701 0.32219601 1.27842 5196355
-0.0178959 0.321457 1.27473 5196354
-0.0193682 0.321592 1.27617 5064511
-0.016377799 0.32137901 1.27352 5393733
-0.0149218 0.32132199 1.27132 5130562
-0.0139115 0.319749 1.27095 4077875
0.0329732 0.317615 1.2523201 4735287
0.070505001 0.31431901 1.23694 3617324
0.069139503 0.31507599 1.2374901 2696223
0.072018698 0.314794 1.23548 2564892
0.076389097 0.31610999 1.2403899 2959649
0.080031402 0.316192 1.2397799 3617322
0.081758097 0.316365 1.23976 3222564
0.083422303 0.316423 1.23945 2695962
0.088522799 0.31578499 1.23707 3419687
0.091931701 0.31500599 1.23599 2959392
0.094009504 0.31527701 1.23753 3288356
0.095882297 0.315265 1.23695 4077872
0.099465199 0.315238 1.2366 4406581
0.097495303 0.31527999 1.23672 4933181
0.103216 0.31638899 1.23589 4538680
0.108144 0.31334201 1.22776 4669753
0.18171699 0.31621301 1.22584 5721924
0.21826801 0.322308 1.23799 4735545
0.220018 0.32234201 1.23963 4406580
0.221212 0.32179201 1.23901 3946029
0.22410899 0.32211101 1.23923 2959390
0.23126701 0.32248399 1.24151 7169371
0.23215801 0.32352999 1.24227 6708821
0.246508 0.32512301 1.2435499 3616805
0.36628401 0.34909299 1.30911 8484969
-0.033565201 0.32440799 1.28019 5196357
-0.0290654 0.32398301 1.2817301 4341047
0.065597199 0.318198 1.24094 4736061
0.076387003 0.31751099 1.2389801 5459269
0.082366198 0.31785601 1.2390701 4077873
0.085696898 0.317527 1.2374001 4998719
0.093229897 0.31691501 1.2366199 3354149
0.094236404 0.317559 1.23528 5130559
0.094663203 0.31666401 1.2364 3419942
0.096858203 0.31690001 1.23502 4867644
0.099468797 0.316899 1.23548 4538423
0.101291 0.316926 1.2352099 4341044
0.103147 0.31799099 1.23483 3880494
0.112995 0.316764 1.23406 5064511
0.116418 0.31790799 1.23386 3880238
0.117921 0.31803 1.23361 3617322
0.119872 0.318014 1.23334 4933182
0.127415 0.31682101 1.23061 4735547
0.154846 0.316502 1.22349 4866616
0.15898199 0.31725401 1.22435 4340529
0.173893 0.31909099 1.2265199 6248268
0.216646 0.32238299 1.23676 4406580
0.218695 0.324541 1.23791 4143407
0.22110499 0.32380301 1.23865 4274737
0.220157 0.32445699 1.23834 4735031
0.22266699 0.323488 1.2381099 4537908
0.22471701 0.32360801 1.23777 5590596
0.24758799 0.32684901 1.2432801 5196094
-0.10495 0.33928999 1.3396 4077873
-0.037485201 0.326359 1.28364 5459527
-0.035969201 0.32578999 1.28158 5064769
-0.029100601 0.325849 1.28118 5064257
-0.0260027 0.32640901 1.27947 3814447
0.0247785 0.321017 1.25082 4011825
0.023422999 0.32045799 1.2528501 4866875
0.026485199 0.32087201 1.2513601 3880237
0.0281923 0.32080099 1.2506599 4274739
0.067690201 0.31758401 1.23628 3420201
0.0797185 0.319473 1.2395 5064768
0.081291199 0.31946999 1.2386301 4735803
0.086591497 0.31906599 1.23674 4933181
0.097290397 0.31825799 1.23385 4406837
0.095931798 0.31830001 1.2345901 5130559
0.100281 0.31841901 1.23478 3551529
0.101224 0.31959599 1.23351 3748909
0.103079 0.31959 1.23376 3880495
0.108468 0.320171 1.23397 3551016
0.110347 0.320218 1.23339 4208947
0.115327 0.319361 1.23314 4209459
0.117244 0.31942001 1.23297 3748908
0.118982 0.31948501 1.23272 4670010
0.122043 0.31898701 1.23189 5393475
0.12617099 0.318771 1.2307 4077873
0.128644 0.320611 1.23176 3419430
0.157005 0.31786299 1.22243 5459010
0.15912201 0.31835401 1.22119 5985867
0.175561 0.318811 1.22421 6116939
0.17687599 0.31939 1.22409 5722182
0.21365 0.326509 1.24036 4801081
0.21671499 0.32457399 1.23773 3813929
0.222232 0.32537201 1.2381099 6972249
0.223841 0.32506299 1.23643 7169371
0.22548901 0.325892 1.2355 6906198
0.23097 0.32758701 1.24102 7234907
0.243718 0.329198 1.2447799 6643284
0.246457 0.32841501 1.24158 6906456
-0.043690398 0.331689 1.29166 4472632
-0.036939301 0.328554 1.28084 4077875
-0.0056305001 0.32541201 1.2646 3617839
0.0255164 0.32249799 1.24981 2235672
0.051329199 0.32057801 1.23817 3222822
0.047728099 0.321089 1.24297 3091236
0.053270198 0.32057199 1.23843 3485738
0.069079503 0.32167801 1.2397701 3485994
0.077408597 0.321233 1.23913 3946544
0.078908801 0.32132 1.2388 3288614
0.082000397 0.321435 1.23893 4143409
0.086999699 0.32086 1.23699 4670008
0.094499603 0.321448 1.23437 3682858
0.096071802 0.31984901 1.2335401 3090977
0.097975403 0.31985301 1.23329 3353894
0.099760003 0.32120401 1.23283 3814445
0.101052 0.32114699 1.23227 3879982
0.102536 0.321347 1.23352 3682858
0.104187 0.321417 1.23318 3551273
0.109587 0.321657 1.2331001 3945774
0.111333 0.32163301 1.23246 4011567
0.113348 0.320416 1.23243 3551015
0.116126 0.32099801 1.2326 4143153
0.117944 0.32106099 1.23256 4801083
0.120165 0.32211301 1.2316099 3222050
0.121304 0.320656 1.23218 4406581
0.123368 0.32050601 1.23115 4209203
0.12544701 0.32039699 1.2313401 4209203
0.126331 0.322142 1.23162 3682859
0.126809 0.32071301 1.23169 3814445
0.12840299 0.322016 1.23098 3748396
0.157085 0.319666 1.22157 6511954
0.159826 0.32039699 1.22279 6051917
0.16252699 0.32007101 1.22228 5657415
0.165168 0.31982601 1.22289 5788745
0.175551 0.321547 1.22482 4340528
0.203697 0.32375801 1.22874 3880750
0.20491999 0.32422701 1.22982 4209716
0.217389 0.32717299 1.23866 5656645
0.219061 0.32701901 1.23912 6116940
0.22636899 0.32599199 1.22923 6379855
0.228227 0.32775599 1.23768 6445648
0.232905 0.327786 1.2388901 7037786
0.24414399 0.33113199 1.2443 5195325
0.373115 0.35728601 1.3196 7958882
0.37245601 0.3574 1.31383 6971730
-0.0428394 0.331429 1.28456 4274741
-0.041602001 0.33069599 1.28344 4274997
-0.0399477 0.33055401 1.28221 4011826
-0.036734998 0.33014399 1.28031 3288360
0.036582001 0.323634 1.24554 4143669
0.048136801 0.322339 1.2409101 3617325
0.046801899 0.32279399 1.2433 3288359
0.051425502 0.32276699 1.23842 4933184
0.053188398 0.322254 1.239 3946290
0.066063903 0.32298201 1.23862 3617579
0.068001203 0.32299799 1.2385 3749166
0.069947898 0.32305101 1.23851 3946290
0.071749501 0.323064 1.23818 4012339
0.076540902 0.32267499 1.23893 3551788
0.079702199 0.32277301 1.23813 3617580
0.07818 0.32268399 1.23839 3551531
0.0814358 0.32281199 1.23783 3946289
0.083103202 0.32300001 1.23838 3880494
0.085870899 0.32238099 1.2368701 3946287
0.087722503 0.32289901 1.23507 3485736
0.091618001 0.322891 1.23344 4340789
0.090377703 0.32218501 1.2345001 4406839
0.093532801 0.322981 1.23373 4603960
0.094991498 0.32307601 1.2326 4604217
0.094990298 0.321522 1.2334 3814445
0.097775497 0.323053 1.23324 4538424
0.096506901 0.32185501 1.23259 3880494
0.101014 0.32274401 1.2323101 4472118
0.104973 0.32272801 1.2317899 4011567
0.106833 0.32207301 1.2325 3485223
0.109668 0.32242301 1.2315 3879724
0.111354 0.32244101 1.23207 3682601
0.111628 0.322411 1.23202 3748394
0.118956 0.322593 1.23174 4011566
0.122325 0.321888 1.23031 3353637
0.124466 0.322202 1.23105 3419431
0.123264 0.32397199 1.23133 4011567
0.125201 0.32394201 1.2310801 3945517
0.134636 0.32212299 1.22379 4340275
0.137463 0.32042199 1.22306 4537653
0.176177 0.32248601 1.2218699 5459523
0.189519 0.326704 1.23546 4603959
0.203253 0.32572901 1.22946 3485993
0.204918 0.32593599 1.22825 3552042
0.207084 0.32584101 1.2269 4012336
0.212117 0.324999 1.22632 4735288
0.245258 0.33157 1.24123 3946027
0.25072199 0.332499 1.2420501 3682855
0.0521091 0.32503799 1.23875 4407098
0.0612197 0.324983 1.23739 4341561
0.068724103 0.324449 1.2376601 3880753
0.070630297 0.32436699 1.23747 4275511
0.073542804 0.325064 1.23833 3485995
0.075265802 0.324233 1.23841 3419945
0.076844499 0.32542399 1.2379 4801597
0.077304602 0.32416299 1.2384 4143925
0.078758702 0.32543001 1.23782 4933184
0.080588102 0.32437801 1.23797 4735805
0.082222 0.325023 1.23733 5196355
0.086782403 0.32452399 1.23465 4801596
0.084767602 0.32476801 1.23615 5130560
0.088626303 0.32425001 1.23373 4274995
0.090907402 0.32363701 1.23359 4208946
0.090498202 0.32516801 1.23343 4669497
0.093634397 0.32436299 1.23225 5064768
0.099400803 0.32429999 1.23114 5130304
0.099264704 0.324624 1.23166 5130305
0.108128 0.32358599 1.2316999 4669496
0.109058 0.32514599 1.23111 3879980
0.112162 0.32412499 1.2319 4867132
0.112354 0.32411 1.23191 4867132
0.11964 0.324211 1.23123 5195840
0.121716 0.324076 1.2305599 4603445
0.122475 0.32583001 1.23077 3814188
0.12638199 0.32569599 1.2309 4603960
0.13843399 0.322905 1.22207 2958878
0.15217 0.322413 1.22069 5591111
0.18223 0.329099 1.2345999 3945772
0.18605199 0.32855299 1.2345099 4340273
0.187132 0.328913 1.23627 4340016
0.187273 0.328293 1.2341 4077615
0.221239 0.33100799 1.23633 5392961
0.228736 0.332672 1.2383699 5721412
0.23371699 0.331792 1.23634 5392703
0.24494 0.33351901 1.24041 5656389
0.245243 0.33323801 1.2397799 5525060
0.249025 0.333159 1.24107 4274994
0.050893702 0.32674801 1.23832 4275513
0.053447202 0.326819 1.2387 4867649
0.054384802 0.32675099 1.23864 4801856
0.060910299 0.32506201 1.2357301 4538683
0.078759499 0.32698601 1.23651 4143668
0.080510996 0.32598999 1.2368701 4801854
0.082654297 0.32703501 1.23579 3683372
0.085427798 0.326143 1.2351 4670011
0.085911602 0.326271 1.23493 4472632
0.088966303 0.32599899 1.2330199 3880238
0.087755799 0.326103 1.23413 3946287
0.090554602 0.326529 1.23289 4209201
0.092820503 0.326105 1.23168 4735803
0.091801301 0.325111 1.2327 4998974
0.099417202 0.32594201 1.23121 4472375
0.101946 0.325957 1.23158 4735547
0.105202 0.326231 1.23075 4209203
0.106102 0.32679799 1.23121 3748653
0.107983 0.32679901 1.23103 3551273
0.111288 0.32561901 1.23107 4603961
0.111563 0.32550299 1.2308199 4669754
0.113387 0.32557401 1.23096 4932925
0.113219 0.325598 1.23097 4932925
0.114898 0.32563701 1.23101 4603960
0.116861 0.32563001 1.2308 4669497
0.11968 0.32732299 1.2299401 4143409
0.118589 0.32571 1.23063 5327426
0.121559 0.32735899 1.23005 3353636
0.120518 0.325809 1.2307 5064255
0.123405 0.327429 1.2302999 3814444
0.12547401 0.32733899 1.2302901 3880237
0.127469 0.32730699 1.23045 3090979
0.142148 0.32401001 1.22096 3419427
0.148385 0.32522699 1.22041 4867131
0.178673 0.328668 1.22984 3945514
0.205045 0.32871199 1.22536 5065284
0.21214899 0.32817999 1.22368 5854284
0.214099 0.32789701 1.22373 4670009
0.231884 0.33300599 1.2360801 6708819
0.250256 0.33478299 1.24066 5393731
0.31667501 0.346163 1.26538 4669235
0.319352 0.346163 1.2665401 5458494
0.32074499 0.345186 1.26616 5721665
-0.056844499 0.34106401 1.3004 3683372
0.050462499 0.32827801 1.2384 3354155
0.048645198 0.32829201 1.23852 3683119
0.0494233 0.32734501 1.24006 4078134
0.052614901 0.32831001 1.23841 2893603
0.055763502 0.32827801 1.23777 3156775
0.0630145 0.327162 1.23251 2827810
0.078713402 0.32778499 1.23637 3814702
0.080391698 0.327788 1.23575 3288358
0.084319003 0.32752499 1.23465 3025442
0.082766198 0.328538 1.23452 3156771
0.086709097 0.32774201 1.2342401 3419687
0.089581698 0.32801101 1.2326601 4011823
0.0971274 0.32818899 1.2314399 3485480
0.100534 0.32753 1.23083 3551273
0.103038 0.327595 1.23083 3222308
0.104961 0.32802901 1.23084 3090978
0.106752 0.32808599 1.23068 3288357
0.108898 0.328347 1.23039 4011824
0.110747 0.32827899 1.22997 3682859
0.112704 0.32736099 1.23037 4209202
0.11595 0.327328 1.23001 4077358
0.116825 0.328922 1.22919 4472631
0.117778 0.32739699 1.23006 4406580
0.118936 0.32878399 1.22884 4538166
0.122559 0.32890099 1.22937 4932925
0.124775 0.328825 1.22909 5656903
0.127951 0.32868999 1.22837 4801854
0.13179301 0.32929799 1.2294101 4538681
0.14002 0.32589501 1.2213399 4669495
0.14639901 0.326493 1.22077 5393474
0.14962 0.32642499 1.22191 4933437
0.14984 0.32765999 1.22017 5459525
0.17525101 0.330614 1.22815 5655876
0.17657 0.32863301 1.22428 5721925
0.247848 0.33669999 1.24133 6182734
0.32071999 0.34663501 1.2639 5787459
0.34893399 0.35744801 1.2918 8221798
0.35105601 0.356637 1.28887 7563353
0.36205801 0.362609 1.3098 7563610
0.0111772 0.33313099 1.2522 3222825
0.045541901 0.32928801 1.23974 3222569
0.049300101 0.329961 1.2381999 2564638
0.053447299 0.329831 1.23762 3222567
0.055143401 0.329815 1.23725 3485996
0.0575938 0.329864 1.23778 3551789
0.060810901 0.32853901 1.23541 2367259
0.061772201 0.32995099 1.23432 3091238
0.060371399 0.330441 1.23599 2828067
0.064672999 0.32958901 1.23471 2170135
0.064653002 0.33004701 1.2340699 3551789
0.065955698 0.328872 1.23291 2301979
0.067453399 0.32876399 1.23184 2564637
0.074145697 0.328482 1.22975 4472633
0.079661198 0.33045399 1.2345999 4341303
0.081620403 0.33043799 1.2345099 4341046
0.084320597 0.32911 1.23367 3419944
0.083792001 0.330538 1.2336 4670012
0.085931502 0.32911101 1.23367 4143410
0.0875194 0.32920301 1.2335 4538168
0.092535101 0.32952699 1.23164 4604216
0.096712202 0.329649 1.2300299 4998719
0.099642903 0.32911101 1.23019 5656649
0.101754 0.329211 1.23076 6248786
0.103612 0.329234 1.2304699 5130561
0.105763 0.32954201 1.23004 5196354
0.107576 0.32958099 1.22982 5064511
0.10938 0.32966599 1.22988 4538168
0.112668 0.329036 1.2292 4735804
0.11527 0.329162 1.2285 4735803
0.121173 0.32983699 1.22753 4406580
0.124778 0.33056399 1.22798 4275507
0.12655 0.329588 1.22787 4209715
0.128152 0.33071399 1.2278399 3880751
0.129877 0.32986799 1.22831 4209716
0.131042 0.33092299 1.2278 3683371
0.13305999 0.330955 1.22796 3552041
0.14911599 0.32899201 1.219 4867387
0.174696 0.33236301 1.22733 5524546
0.176424 0.33206499 1.22856 5590339
0.181583 0.33392 1.23277 5787718
0.242927 0.33577001 1.22831 5985609
0.24588101 0.33502501 1.2297601 6314318
0.246116 0.33555299 1.23145 6314062
0.29361999 0.34509799 1.25296 5985094
0.29554099 0.34498 1.25292 6445645
0.32104 0.348937 1.26443 7103832
0.32623401 0.351827 1.2706 6511695
0.0081657004 0.33490101 1.25385 3354155
0.0097863097 0.33491501 1.25333 3419947
0.042716101 0.33158499 1.23992 2827810
0.045671299 0.33105001 1.2383699 2169879
0.049125399 0.33116901 1.23682 2169879
0.052777302 0.33139399 1.2371401 3288360
0.061087001 0.33174899 1.23455 6315095
0.059723198 0.33193401 1.2357301 5920337
0.064717703 0.330944 1.2324899 6841438
0.062934197 0.33167899 1.23437 6446680
0.066624403 0.33134899 1.23166 4867648
0.069279999 0.32960799 1.2308 5854544
0.070975997 0.329588 1.23019 5986129
0.072081 0.32892901 1.22884 5393735
0.075784899 0.32899299 1.22858 4801598
0.081134401 0.33179399 1.23383 4670268
0.082868502 0.33200401 1.23332 4801853
0.086570799 0.33071899 1.23298 4406839
0.085633896 0.33214399 1.23212 4274996
0.088792697 0.33043 1.2314301 4998975
0.087989502 0.33201799 1.23095 3748909
0.089638896 0.33199 1.23077 3617322
0.091695398 0.33102599 1.23131 4604217
0.098554298 0.330448 1.23002 4143409
0.101535 0.33171099 1.2278399 4274996
0.100614 0.33068901 1.22969 4077617
0.102511 0.33071199 1.22991 4209459
0.104259 0.33082101 1.22992 4472631
0.106457 0.33114001 1.22953 3748909
0.108311 0.33117199 1.22932 3748908
0.111585 0.33053699 1.22875 5130561
0.111725 0.332111 1.22798 4012081
0.113442 0.330538 1.22833 4012080
0.115271 0.330607 1.22674 3485737
0.118729 0.33080599 1.22812 3617064
0.11706 0.33185899 1.2275 3551529
0.121661 0.33133301 1.22754 4077874
0.12478 0.33220601 1.22676 4736057
0.126597 0.33138299 1.22676 3814701
0.129833 0.331505 1.22698 3880750
0.13179301 0.33245701 1.22671 6380628
0.13379499 0.33241999 1.22694 5196353
0.13572299 0.33243701 1.22667 4538422
0.138118 0.33238801 1.22756 4669751
0.14013401 0.33240601 1.22812 4801593
0.14848299 0.33176199 1.22638 4998972
0.1498 0.333336 1.2266001 4670007
0.153459 0.33310199 1.22701 4933180
0.17365301 0.33409899 1.22754 5590596
0.178324 0.33494899 1.22858 6248268
0.180171 0.33408701 1.2285399 5985097
0.182308 0.33445999 1.22823 5524803
0.27671301 0.341793 1.24014 5393731
0.293392 0.345512 1.24965 6314058
0.32420999 0.35219499 1.26964 6774611
0.32681099 0.35383201 1.27047 4998201
0.0042111999 0.335798 1.25341 4012085
0.00263991 0.33693299 1.25389 3880499
0.0059098299 0.33585501 1.25317 3683376
0.038354099 0.334324 1.23931 4604219
0.040598601 0.33324701 1.23798 4867391
0.043553799 0.333067 1.23906 3288360
0.0423677 0.33346301 1.2378401 4670012
0.041651402 0.33306801 1.23923 3420202
0.045280199 0.33428699 1.2382801 4472633
0.045281 0.33267099 1.23842 2959395
0.0470387 0.33265701 1.23825 3025188
0.052069001 0.33299699 1.2368 4209718
0.056586899 0.33249199 1.23682 5328200
0.055333301 0.334113 1.23656 4078133
0.058891799 0.33390501 1.23506 3420203
0.060695 0.33389199 1.23534 3091238
0.063389897 0.33243001 1.23355 3814961
0.063452803 0.33316901 1.23362 2959652
0.064815402 0.33238199 1.23112 3157030
0.069842398 0.33092299 1.22958 3617581
0.071070202 0.33183101 1.22808 3091237
0.071378797 0.330724 1.22813 3157029
0.069865398 0.33247399 1.2294199 3288359
0.072844103 0.331714 1.22859 3288616
0.074545503 0.332468 1.22786 3749168
0.0800751 0.333325 1.23357 4012338
0.081881598 0.333413 1.2330101 4012337
0.083094902 0.333287 1.23157 4012338
0.088237301 0.33381501 1.2313 4604474
0.090497904 0.33356199 1.23015 4341046
0.096353799 0.33368799 1.22873 4341045
0.099551797 0.33376399 1.22899 4604217
0.0985571 0.332266 1.2295001 3814701
0.103826 0.33348501 1.22826 4538424
0.105942 0.33302799 1.22802 4604217
0.10834 0.33315799 1.22852 5064768
0.110583 0.33365101 1.22848 4933183
0.113441 0.33196199 1.22649 4011825
0.116543 0.33240801 1.22571 4406838
0.117553 0.33438101 1.22802 4407096
0.118367 0.33249101 1.2275701 4143666
0.119656 0.332939 1.22771 4472631
0.12258 0.33276001 1.22645 4867388
0.13027599 0.33342099 1.22673 4406838
0.131953 0.33433899 1.2263401 3288615
0.134721 0.33425701 1.22655 3222821
0.136746 0.334203 1.22672 3222563
0.139292 0.33429 1.2282701 4078129
0.141404 0.334304 1.22866 5130815
0.14378101 0.33513901 1.22679 4670010
0.146402 0.33379501 1.22657 4670009
0.152694 0.33482599 1.22624 5196351
0.16098 0.335033 1.2247601 6051660
0.17183401 0.33494401 1.2279201 5590595
0.172001 0.335076 1.2285 5590595
0.180345 0.336092 1.22879 5524802
0.225261 0.33880299 1.23005 5327424
0.223783 0.33954701 1.23043 6182475
0.239711 0.34004501 1.23046 5261629
0.24663 0.33887199 1.22926 4340785
0.28348401 0.34755999 1.2498 6380110
0.292153 0.346706 1.2471499 7761247
0.29419699 0.346921 1.24816 7695454
0.331312 0.35578001 1.27335 4932664
0.37994099 0.37018499 1.3093801 6708813
0.39204299 0.373813 1.32583 7169366
0.0049175601 0.33746299 1.25357 2828067
0.0467875 0.33437601 1.23787 4472634
0.060526799 0.33365199 1.23106 3354410
0.058330201 0.33530501 1.2352099 3419947
0.0597382 0.33555299 1.23474 3222824
0.0606407 0.335446 1.23421 3157031
0.064576797 0.33365199 1.22829 3420201
0.066977702 0.33357599 1.2305 4078131
0.079290703 0.33463499 1.23317 3617580
0.082304403 0.33496901 1.23147 4143923
0.0810408 0.33517101 1.23177 3683372
0.084189303 0.33483601 1.2311 4933440
0.087064199 0.335372 1.23106 4933440
0.0890873 0.33524799 1.23027 4670267
0.090985097 0.335219 1.22981 4341046
0.094213001 0.33474201 1.2279 4538682
0.094900303 0.33482999 1.22868 4604218
0.0980241 0.334858 1.22833 4670010
0.099739999 0.334865 1.2278399 4604218
0.101609 0.33500701 1.22738 4472632
0.101688 0.3337 1.22781 4670011
0.103168 0.33575001 1.22826 4209204
0.107205 0.33511001 1.22964 4538424
0.108886 0.33465999 1.22822 4736060
0.123143 0.33431101 1.22576 3880494
0.129224 0.33491001 1.2259099 4998977
0.134344 0.33570299 1.22499 3617321
0.136786 0.33561799 1.22686 3617578
0.14031699 0.33608201 1.22743 3288357
0.140985 0.33606601 1.22803 3485991
0.142893 0.33679199 1.2263 2893856
0.145556 0.335217 1.22636 4670009
0.14865699 0.33609 1.22632 4670009
0.225317 0.340341 1.22824 9340025
0.227341 0.340074 1.22952 8024421
0.23632801 0.342522 1.23234 8024935
0.24140599 0.34017 1.22888 5788230
0.25778401 0.34526801 1.24123 4736061
0.26035899 0.344935 1.23708 4473143
0.281021 0.34813601 1.24851 6248782
0.329303 0.356931 1.26947 7564384
0.371896 0.37033799 1.30498 7827040
0.374663 0.370666 1.3073 7169364
0.37769401 0.369688 1.30644 6906192
0.392351 0.377242 1.32809 6248006
0.39291 0.378057 1.32876 6182213
0.39314899 0.37706199 1.32767 6247750
-0.034197401 0.34478101 1.27154 3814702
0.0030352101 0.340202 1.25323 4472892
0.0120377 0.338727 1.24965 4538940
0.079387702 0.336225 1.2318799 2565149
0.080309801 0.33691701 1.23096 3749422
0.084389701 0.33749801 1.23046 3946288
0.088886902 0.33702001 1.22962 4472632
0.093145497 0.33573401 1.22808 4604219
0.094900198 0.33650401 1.22747 4341046
0.096170299 0.336649 1.2283 4143667
0.098938197 0.33618599 1.22707 3880495
0.102037 0.33683401 1.22765 3419945
0.101693 0.33744201 1.22894 3419688
0.103731 0.33716601 1.22732 3354152
0.104834 0.335769 1.22767 3880495
0.12562101 0.336068 1.22586 4012335
0.127454 0.33611399 1.22563 5459527
0.129913 0.33709499 1.22567 2630685
0.132303 0.33734101 1.2239701 3419943
0.135616 0.337295 1.22391 4143922
0.141853 0.33846101 1.22651 3880494
0.15820999 0.338195 1.2240601 5064509
0.223085 0.34128699 1.22733 7958885
0.227479 0.341683 1.22795 7366235
0.23830301 0.34296599 1.23124 7893605
0.23987 0.342417 1.22679 7235932
0.24163499 0.341225 1.22621 6249038
0.24340101 0.34208301 1.2256 5591108
0.244321 0.34308299 1.22631 4932922
0.25685701 0.34696901 1.2408299 3814959
0.25841901 0.34654501 1.23928 4012337
0.26218799 0.34601101 1.23418 3946543
0.26044101 0.346461 1.23524 3880750
0.280662 0.348037 1.24323 4933180
0.293791 0.35058701 1.2467999 5195578
0.353488 0.36539501 1.28592 6971732
0.378405 0.37304801 1.30887 8353384
0.38016701 0.37284601 1.30972 8221797
-0.0482927 0.350059 1.2832201 3748909
-0.054432299 0.352799 1.2933 3025185
-0.033677202 0.346201 1.27031 3222308
0.062872298 0.338202 1.22922 3683375
0.070112601 0.33747 1.22629 3485738
0.080349103 0.33870399 1.23033 4143666
0.082308903 0.33862901 1.23063 4670009
0.084226899 0.339158 1.22946 4604217
0.0861798 0.33771601 1.22935 3485736
0.088922001 0.33865499 1.22843 4406838
0.092931502 0.33799401 1.22691 4472376
0.095707297 0.338723 1.22658 3551787
0.097033396 0.33720401 1.2263499 3222566
0.097199701 0.33822301 1.22738 2893601
0.100742 0.33861601 1.2260799 4998977
0.104328 0.33812299 1.22438 4406841
0.10261 0.338245 1.22649 3551531
0.10534 0.33713099 1.22551 3156773
0.11572 0.33771899 1.22549 2762271
0.132557 0.33913401 1.2231899 6446422
0.136352 0.33910599 1.22316 5525575
0.138652 0.33919099 1.2244999 5064768
0.140688 0.339481 1.22381 5393734
0.143391 0.338514 1.22508 4867389
0.14626101 0.339403 1.2245899 6710106
0.173122 0.340413 1.225 5262144
0.1938 0.34317499 1.22779 5984838
0.22734199 0.343784 1.22622 7168857
0.230589 0.34186199 1.22179 6248010
0.232605 0.34248099 1.2214299 5656130
0.241906 0.34307599 1.2255 5327936
0.26131099 0.34777001 1.2338001 3880493
0.26332501 0.347893 1.23467 4209201
0.264597 0.346293 1.2309099 3748650
0.29382399 0.352106 1.24444 5129785
0.295993 0.35227501 1.2458301 5919044
0.29665399 0.35210699 1.24604 5852995
0.302138 0.35517699 1.25446 6050629
0.30244601 0.35504699 1.2547801 6247751
0.38117799 0.374933 1.3101799 9537659
-0.0491121 0.351796 1.28259 3682859
-0.047129299 0.351724 1.2829 3354407
-0.046833601 0.351419 1.28277 3091236
-0.043374099 0.35197601 1.28318 4867390
-0.036402501 0.34904799 1.27451 4011823
0.0092756804 0.34318599 1.25016 3551534
0.037134599 0.341288 1.23719 4077877
0.042156499 0.339596 1.23603 4472890
0.046216302 0.34024701 1.23588 4341049
0.056882899 0.33974901 1.23153 3946290
0.058240298 0.34020701 1.23052 3880753
0.058235701 0.33870199 1.23147 3748911
0.059009101 0.340152 1.23132 3551788
0.058831599 0.33856201 1.2305 3683118
0.062468201 0.340004 1.22927 4012338
0.062352002 0.33891299 1.2313401 3617581
0.062259801 0.33949199 1.23041 3683375
0.064384997 0.33833799 1.2279 3551788
0.065703899 0.33876401 1.22752 3617325
0.067270502 0.33873299 1.22658 3683117
0.0803409 0.34031299 1.22909 4472630
0.084493503 0.34015399 1.22691 5920076
0.087310903 0.339333 1.22747 4933182
0.086208001 0.33889401 1.22743 4670266
0.088854097 0.340426 1.22759 5722698
0.090746202 0.33938399 1.2275701 5064769
0.099377498 0.33967301 1.22507 6907230
0.100585 0.34010401 1.22463 6315094
0.1026 0.338741 1.22372 6578266
0.107312 0.3405 1.22449 5854287
0.1304 0.34039801 1.2213399 5393990
0.13248999 0.34070501 1.22181 5459526
0.13439301 0.339652 1.22223 5525319
0.13430101 0.33963799 1.22226 5525319
0.138629 0.340242 1.22182 4341302
0.14306 0.34053999 1.21984 4406583
0.14736401 0.34094 1.22396 4801595
0.166483 0.343077 1.22565 4603701
0.17623299 0.343485 1.22709 4472372
0.178776 0.34196401 1.22399 5064252
0.19231699 0.34391901 1.2292399 5721924
0.20430499 0.34374201 1.22469 5064249
0.23522399 0.34298801 1.22032 6708561
0.235431 0.34331301 1.22147 6708561
0.237811 0.34341401 1.21895 7432539
0.23957901 0.344336 1.22352 7366746
0.244984 0.347792 1.23014 7564384
0.25925201 0.348474 1.23347 4209458
0.28569299 0.35267299 1.24075 5590340
0.28762001 0.35252401 1.24044 5985097
0.29605201 0.35409299 1.2445 7432026
0.30342001 0.35683 1.25369 7629660
0.333765 0.36162999 1.26595 5787975
-0.052266799 0.354967 1.29011 5591111
-0.0492335 0.354166 1.28374 5525319
-0.046962701 0.35411501 1.2851501 5854285
-0.041595899 0.35211799 1.28197 4604217
-0.032002501 0.349307 1.26914 4932926
-0.033566501 0.34941101 1.27044 5064768
-0.0303845 0.34908101 1.26772 4735803
0.0176419 0.34488401 1.24596 3025446
0.023105601 0.342841 1.24167 3025703
0.0248258 0.3432 1.23943 2630688
0.0293233 0.34260601 1.23897 3157032
0.0349821 0.341465 1.23627 3485997
0.0334257 0.342489 1.23738 2696481
0.037978001 0.34335899 1.23821 2498845
0.047163501 0.34162501 1.23473 2959138
0.049294502 0.342567 1.23349 4998720
0.052827701 0.34154201 1.23264 5262149
0.0562522 0.34144801 1.23057 5196355
0.057278901 0.341297 1.23093 5064769
0.059797999 0.34131101 1.23033 5328198
0.061183799 0.34079501 1.23089 4604731
0.0623229 0.340942 1.22919 4999232
0.061103199 0.34169799 1.22893 5262404
0.062486 0.341389 1.22789 5525576
0.064391099 0.34105 1.22833 5262404
0.0635501 0.340588 1.22944 4736061
0.066629998 0.341499 1.2276 4998976
0.079476804 0.341351 1.22592 5196098
0.081528403 0.34136999 1.22448 4669754
0.087039903 0.34113199 1.22613 5393733
0.102603 0.34035 1.22258 5130564
0.104432 0.34150499 1.2237099 4801855
0.110902 0.34040299 1.22343 4933184
0.116106 0.339295 1.21913 5262149
0.12585799 0.341952 1.22069 3485479
0.130803 0.34178001 1.22053 4274995
0.13672 0.340848 1.22078 3617322
0.137336 0.34226501 1.2203701 3156257
0.144223 0.34264299 1.2210701 3025184
0.200839 0.346966 1.22918 7498334
0.21193901 0.34471101 1.2215101 7366748
0.218446 0.34531701 1.2237 7564126
0.244891 0.350128 1.23113 5393216
0.24737599 0.34933001 1.23156 5327423
0.249153 0.35034901 1.23101 3682599
0.25629699 0.350811 1.23393 6117200
0.26001701 0.34965101 1.23225 6314834
0.26443401 0.34812701 1.22211 5393733
0.27424201 0.35106 1.2349401 5656645
0.285155 0.35283199 1.23771 5590339
0.298076 0.35591599 1.2449 7827555
0.29974499 0.35672799 1.24479 7169625
0.314769 0.36215499 1.26061 6774868
0.34780201 0.36717099 1.2728699 8156264
0.353809 0.36983001 1.27969 8222059
0.35413399 0.36964899 1.28026 8090472
0.38170001 0.38043299 1.313 6050884
-0.066741399 0.357169 1.29479 3551014
-0.044520501 0.35563499 1.2815599 3683372
-0.031203199 0.35072699 1.26826 4011567
-0.032640502 0.35100999 1.27012 3946031
-0.0295166 0.35082701 1.26809 4012080
-0.027745999 0.35023099 1.26556 3880495
0.017847899 0.34617701 1.24367 3420204
0.022120699 0.34469101 1.24145 2696481
0.027166899 0.34485099 1.2413501 2827811
0.0296096 0.34443599 1.23841 3551790
0.041429002 0.344295 1.23388 4999235
0.049368799 0.344051 1.23269 5065026
0.051077701 0.34404299 1.2321399 5327684
0.057951901 0.342309 1.22981 5262148
0.0596263 0.342724 1.2288899 4933439
0.061300799 0.34320101 1.22808 4012082
0.064278401 0.34258899 1.22723 4867646
0.065489903 0.342549 1.22762 4801597
0.068368398 0.34256899 1.22576 4735805
0.069997303 0.342574 1.22492 4670012
0.075099602 0.343584 1.22677 4341046
0.083652899 0.34147799 1.22338 4341046
0.092643999 0.342848 1.2227499 3814957
0.101038 0.34275299 1.2211 3288358
0.102979 0.34273201 1.22042 3025186
0.128277 0.34292299 1.22018 3221792
0.13304301 0.34234399 1.2194901 3354149
0.19125301 0.34709501 1.22671 8484972
0.19999801 0.34689 1.22129 6445389
0.204322 0.345864 1.22163 8353386
0.211088 0.346091 1.21744 6182475
0.218896 0.34680399 1.2221 8484973
0.219072 0.346986 1.22234 8353387
0.248045 0.35155201 1.23211 3945771
0.25034499 0.350887 1.2288001 4603958
0.256208 0.352148 1.2313401 5656904
0.25823599 0.35209 1.23255 5459782
0.25927401 0.35186601 1.23185 5196610
0.26128 0.35165599 1.23193 4999231
0.26214901 0.351951 1.23396 5459782
0.27272299 0.353778 1.23709 4801336
0.298316 0.35697201 1.24173 6774868
0.31356701 0.361597 1.2555799 6051145
0.35050401 0.37016401 1.27596 7761764
0.355483 0.37227601 1.28197 8024680
0.371764 0.37598801 1.29182 7827298
0.38437301 0.38131201 1.3069 7367000
-0.0447722 0.354413 1.2756701 3551274
-0.0159621 0.35216501 1.26203 3946288
-0.014602 0.352754 1.26151 3946031
0.021773299 0.34696499 1.23862 4801856
0.0204303 0.34749299 1.24036 4801856
0.023800001 0.346012 1.23929 4801600
0.0414139 0.345512 1.23209 4407098
0.042804599 0.34478399 1.2316 4999235
0.0435845 0.345025 1.23285 5130821
0.050285898 0.34509701 1.23076 4275254
0.056457601 0.34402901 1.22983 4604474
0.062872402 0.34361801 1.22719 3814960
0.064477101 0.344118 1.22638 3222309
0.065682702 0.34397599 1.22647 3156773
0.067069702 0.344935 1.22559 3288103
0.069679499 0.34453601 1.2256401 3222567
0.070692196 0.34442899 1.22519 3420202
0.075195499 0.344933 1.22524 3156516
0.076979503 0.34476501 1.22437 2564379
0.088888302 0.344475 1.22132 3354151
0.087728597 0.34389201 1.2226501 3485994
0.094642803 0.34356299 1.22201 3354151
0.095721602 0.344199 1.22383 3091236
0.097655699 0.34356499 1.22176 3025442
0.100521 0.34409401 1.21933 4538681
0.102174 0.34402499 1.21825 4867390
0.104392 0.34288901 1.21922 2828064
0.109871 0.34443399 1.2191499 4801596
0.112587 0.34417 1.21969 3946287
0.1245 0.34427801 1.2171299 6774871
0.130835 0.34453699 1.21657 7564128
0.133057 0.343806 1.21772 5064508
0.13833199 0.34572801 1.2187001 7235163
0.16770101 0.34540299 1.21575 6972505
0.19905099 0.347965 1.2192301 5787973
0.200078 0.348425 1.2194901 6051401
0.212063 0.34760499 1.21623 6445904
0.218288 0.34824699 1.22005 6182475
0.249589 0.35238501 1.23088 5393217
0.24959999 0.35383201 1.23023 3748648
0.25244299 0.35263199 1.22864 5393730
0.25605401 0.353311 1.22957 3946029
0.26023 0.35370201 1.2322 3485993
0.271878 0.355149 1.2349401 4406579
0.30011699 0.35805899 1.24163 6511697
0.313225 0.36379001 1.25585 5459008
0.32347399 0.36271101 1.25395 5656388
0.34861401 0.36999699 1.27438 7893349
-0.028844999 0.35626799 1.2706 3814446
-0.0270503 0.356563 1.26907 3617322
-0.015983799 0.35369301 1.26106 4209459
-0.0176147 0.35446 1.26129 5459526
-0.0145992 0.35426199 1.26047 6511957
-0.0070804302 0.35230699 1.25287 7235424
-0.0070568798 0.351257 1.25524 3879982
-0.00479441 0.35157001 1.25454 3682859
0.0062992498 0.34947199 1.24433 4670270
0.0088002803 0.34900501 1.23993 4143926
0.0081478702 0.349637 1.2448699 4472891
0.0174635 0.348571 1.2377501 3814962
0.0149375 0.349163 1.23987 4012084
0.018629201 0.34750399 1.2399 4736063
0.020036099 0.347128 1.2383699 4736319
0.038707498 0.34697101 1.23379 3551789
0.0435686 0.34656301 1.23115 3354154
0.045671798 0.34621999 1.23107 3749169
0.047317401 0.346668 1.22997 3617069
0.050481699 0.34588301 1.22756 4012082
0.062464599 0.345698 1.2254601 3683116
0.064353302 0.34570101 1.2253 3682860
0.064586401 0.345622 1.22508 3748654
0.067182198 0.346349 1.22448 4669756
0.068681598 0.34492701 1.22505 3222310
0.069603197 0.346129 1.22472 4209204
0.085648201 0.344648 1.22171 2762015
0.092818499 0.34565601 1.21834 5196356
0.093083397 0.34570599 1.21857 5261893
0.093788803 0.34472099 1.2191 5196355
0.095989101 0.34449601 1.21551 6117201
0.095816202 0.344978 1.22004 5722956
0.095873803 0.344991 1.22009 5722956
0.097973898 0.345103 1.21769 6249043
0.096076198 0.344969 1.22024 5722956
0.095665097 0.345539 1.22259 5459527
0.098287903 0.34477499 1.22074 5525320
0.103572 0.345287 1.21736 5920078
0.109797 0.34591499 1.21718 5590598
0.110469 0.344706 1.21872 5196097
0.120739 0.34576499 1.21692 5591111
0.120739 0.34576499 1.21692 5591111
0.120739 0.34576499 1.21692 5591111
0.123991 0.34608501 1.21631 5393731
0.131945 0.345824 1.21612 7564384
0.13338999 0.34585899 1.2150199 6117195
0.134029 0.34493899 1.21661 7564641
0.136866 0.344861 1.2158999 6775126
0.13951799 0.34606299 1.21587 5853767
0.140214 0.34537601 1.21628 6840662
0.144049 0.345534 1.21675 6577490
0.147065 0.34576401 1.21451 6643027
0.14901599 0.34576201 1.21488 7038042
0.17297 0.34675899 1.2153701 6643797
0.17520601 0.34687999 1.2142299 7104091
0.19642299 0.348075 1.21559 6577746
0.198823 0.34942701 1.2172199 6182988
0.206058 0.34869501 1.21755 5722181
0.207441 0.349042 1.2165 5919817
0.21031199 0.34850901 1.21605 6248525
0.21833 0.34994301 1.21817 6314317
0.219882 0.34969401 1.21935 8024680
0.24844199 0.35421899 1.22614 3551269
0.27207401 0.35688001 1.23343 3880236
0.28321099 0.36002001 1.23996 4932150
0.31628901 0.36553299 1.25468 4735284
0.315216 0.36468199 1.25501 4998456
0.34929699 0.37348899 1.2775 6906454
0.351899 0.375085 1.27904 4669750
-0.030669101 0.35667399 1.26615 3683116
-0.0071129901 0.353205 1.2502199 5721929
-0.0086182803 0.35427201 1.25415 5393477
0.00094502402 0.35178301 1.24491 3880498
-0.00060215697 0.351953 1.24648 4011570
0.019833701 0.349718 1.23634 2104601
0.0216174 0.35011601 1.23633 2038295
0.026202699 0.34931099 1.23555 2564894
0.048154701 0.346616 1.22605 3288104
0.0527707 0.348548 1.22689 5920077
0.063271202 0.34726301 1.22491 4801340
0.065354601 0.347289 1.22492 4801083
0.077295497 0.34731099 1.2220401 4406583
0.084221102 0.34764501 1.22093 4472632
0.087833799 0.34663501 1.21944 4801598
0.086176202 0.346165 1.2203799 4735805
0.091072299 0.34647301 1.21771 4735806
0.095121898 0.34609801 1.21457 4275254
0.092745803 0.34567001 1.21829 5196100
0.0971056 0.34624201 1.21556 4012082
