ply                 
format ascii 1.0    
element vertex 1194
property float x    
property float y    
property float z    
property uchar red  
property uchar green
property uchar blue 
end_header          
-0.898641 -0.0162887 2.06921 254 254 242 
-0.336645 0.111505 1.67105 255 250 234 
-0.128067 -0.0430798 1.33773 202 175 156 
-0.283451 0.15629 1.63495 255 250 236 
-0.109741 0.0996899 1.32418 213 188 168 
-0.741029 0.019982 1.95626 184 150 125 
-0.372741 -0.0757237 1.697 226 200 185 
-0.282004 0.0971373 1.63126 253 237 224 
0.142107 -0.0101741 1.39798 135 109 82 
-1.15786 -0.442834 1.86636 114 102 90 
-0.891728 -0.0491843 2.06537 253 232 213 
-0.412862 -0.284765 1.72593 203 175 153 
-0.45289 0.0739077 1.75087 244 214 190 
0.0763599 -0.213039 1.45312 203 178 156 
-0.377087 0.117029 1.69956 183 148 128 
-0.104663 -0.0263958 1.32374 194 176 102 
0.134307 -0.228854 1.42324 241 224 208 
-1.16231 -0.0963523 1.71842 75 48 27 
-0.170615 0.0311509 1.55183 247 225 204 
-0.562341 -0.0431596 1.64734 223 204 187 
-0.237134 0.107392 1.59884 200 173 154 
-0.332579 0.124658 1.66702 212 185 164 
-0.406052 -0.197594 1.72549 187 159 138 
-0.584674 0.0253145 1.6622 239 218 199 
-1.01576 -0.130792 2.13094 57 38 24 
-0.0896677 0.0804078 1.31183 255 248 240 
-0.841776 0.0154963 2.02907 204 176 152 
-0.573931 -0.00165023 1.65366 248 226 205 
-0.415136 -0.0942039 1.72958 231 203 182 
-0.878891 -0.0262091 2.05678 215 203 187 
-1.16563 -0.0376662 1.71873 108 73 53 
0.119596 -0.0531332 1.43342 207 175 150 
-0.0888282 -0.131052 1.35141 254 251 236 
-0.141962 -0.252634 1.53351 244 218 195 
0.156889 -0.206739 1.40761 193 162 133 
-0.666506 -0.132133 1.90278 194 160 133 
-0.649402 -0.133459 1.89103 202 170 147 
-0.311177 0.0725948 1.65249 212 184 163 
-0.270701 0.15588 1.62482 217 195 181 
-1.08175 -0.039404 2.05433 41 32 25 
-0.298381 -0.154659 1.65842 132 114 104 
-0.539102 -0.167259 1.6693 206 174 153 
-0.926345 -0.0670655 2.08909 186 159 138 
-1.1086 -0.359456 1.96696 58 47 41 
-1.24213 -0.13971 1.73809 186 154 131 
-0.137071 0.124353 1.53136 253 234 217 
-0.105833 0.140062 1.32242 212 189 173 
0.135783 0.163657 1.39748 152 108 79 
-0.639952 -0.162266 1.88406 226 208 186 
-0.808614 -0.00113269 2.00396 197 167 143 
-0.573717 -0.240015 1.69729 248 223 203 
-0.126938 -0.100055 1.52087 204 165 136 
-0.956876 -0.100943 2.10984 242 208 183 
0.119459 -0.0647302 1.43493 201 167 142 
-0.904034 0.0453668 2.07272 252 230 209 
-0.12065 0.14649 1.51772 255 244 230 
-0.935991 0.0356339 2.09572 253 236 218 
-0.562963 -0.0189313 1.648 187 161 138 
-1.18112 -0.180293 1.72349 172 149 133 
-1.23647 0.0624813 1.72457 198 162 138 
-1.06349 -0.0171419 2.08638 66 37 21 
-0.832448 -0.177901 2.02537 232 200 177 
-0.136817 0.196396 1.32548 227 207 182 
-1.17732 0.00215591 1.70588 142 119 103 
-0.425992 -0.11155 1.7351 255 249 233 
-0.266693 0.144039 1.62238 255 254 241 
-0.668105 -0.0330477 1.90282 254 243 225 
-0.150016 -0.121946 1.54031 250 226 202 
-0.365458 -0.119885 1.69097 190 155 133 
-0.584641 0.0903937 1.6622 197 171 154 
0.0698045 0.00489034 1.43849 255 239 223 
-0.241256 -0.111308 1.61995 116 98 88 
-0.687004 -0.189243 1.91348 233 205 181 
-0.269114 0.127556 1.62419 204 177 158 
-0.724056 -0.0581456 1.95607 249 230 215 
0.150139 -0.226971 1.41153 251 237 226 
-1.16941 -0.305392 1.7247 181 143 122 
-0.187167 -0.123014 1.56552 255 251 239 
0.0891215 -0.268424 1.44282 222 199 183 
-0.209649 -0.262327 1.59245 90 82 79 
-0.378746 -0.122448 1.69982 186 151 129 
-0.88385 0.0312009 2.05908 221 196 176 
-0.703993 -0.260965 1.92856 240 219 198 
-0.266246 -0.202539 1.63649 129 124 118 
-1.0719 -0.100589 2.06967 119 84 64 
-1.11038 0.0566321 2.02108 86 73 57 
-0.140186 -0.105269 1.53292 243 222 203 
-0.667119 -0.201063 1.90408 188 160 139 
-0.697225 -0.00744175 1.92421 178 142 116 
0.156874 0.0318409 1.38685 165 140 118 
0.149493 0.0484819 1.39082 145 117 96 
-0.127083 0.151684 1.52356 209 183 166 
-0.636764 -0.118572 1.87863 196 166 142 
-1.15045 0.0684367 1.7563 132 109 77 
-0.725607 0.019929 1.94719 208 174 149 
-0.379019 -0.0183743 1.70256 252 245 229 
-1.15556 -0.393978 1.761 106 81 61 
-0.437972 0.0172247 1.74868 209 180 162 
-1.11209 -0.430792 1.94537 185 160 140 
-0.113795 0.188946 1.31641 229 216 200 
-0.378001 -0.263717 1.69966 254 247 229 
-0.128177 0.0665728 1.52218 255 241 220 
-0.332189 0.0781845 1.66614 229 200 182 
-0.369772 -0.100493 1.69408 255 250 234 
-0.669831 -0.164375 1.91919 201 171 147 
0.139013 0.0131369 1.39772 119 88 67 
0.117839 0.193836 1.40418 176 145 117 
-0.642598 -0.0679458 1.88789 225 202 184 
-0.0929267 -0.122125 1.35392 192 163 145 
-0.929595 -0.129731 2.09192 210 180 156 
-1.02321 -0.0462559 2.15089 43 29 20 
-0.846837 0.140457 2.03648 233 202 182 
-0.439475 0.042931 1.74405 216 181 161 
-1.06388 -0.104662 2.07565 142 101 79 
-0.210278 0.167022 1.5799 250 238 224 
0.147655 0.139861 1.3848 134 106 85 
-0.435008 -0.19978 1.7389 255 248 229 
0.121147 -0.206357 1.42662 255 239 224 
-0.616477 -0.183831 1.871 254 251 234 
-1.16902 0.0370399 1.7223 162 125 106 
-0.373473 -0.0096844 1.69668 208 181 160 
-0.110071 0.129126 1.50978 254 241 225 
-0.559753 -0.260675 1.685 217 190 163 
-1.14711 -0.0229455 1.75219 135 106 76 
-1.03604 -0.153628 2.11607 108 79 61 
-0.441102 -0.0895998 1.74813 217 198 181 
-0.349235 -0.202803 1.6802 253 244 227 
-0.318123 0.0225636 1.65769 249 230 213 
-1.11891 -0.438646 1.93126 83 55 44 
-1.10382 -0.373575 1.98573 88 72 57 
-0.339349 0.0730317 1.67013 246 229 213 
-0.923442 -0.133639 2.08694 236 210 187 
-0.144343 0.023236 1.53498 197 167 143 
-0.809204 0.0887816 2.02672 211 177 152 
-0.108309 0.106951 1.50953 215 192 174 
-0.162441 0.0937431 1.5467 255 247 228 
-0.356176 -0.0639964 1.68645 253 234 219 
-0.213245 -0.14548 1.60038 113 107 107 
-0.257621 0.0946128 1.61515 220 203 187 
-0.0938896 -0.16994 1.35441 223 191 170 
-0.167607 0.0106414 1.5516 247 225 202 
-1.16852 -0.538202 1.83076 77 62 55 
-0.95628 0.0525533 2.10835 249 222 203 
-0.108467 0.150471 1.32441 208 187 170 
-0.766897 -0.00572936 1.97518 179 149 125 
-0.693544 -0.175901 1.91992 196 160 136 
-0.375482 -0.229995 1.69723 255 234 217 
0.13186 -0.253374 1.42147 166 138 116 
0.143449 0.129655 1.39121 163 126 100 
-0.996313 -0.11159 2.13724 194 162 141 
-0.431196 0.00594123 1.74093 247 225 202 
-0.132505 0.0566013 1.52587 198 170 148 
-0.223144 0.000484847 1.59034 239 214 192 
-0.266576 -0.169603 1.63638 132 119 111 
0.111293 -0.0268241 1.4276 179 153 118 
-0.700853 -0.0743842 1.92663 251 229 208 
-0.734506 0.0708998 1.9529 196 165 144 
-0.988112 -0.220292 2.12876 193 159 134 
-1.09605 0.00227412 2.03447 92 70 56 
-0.324834 -0.229285 1.66466 248 223 203 
-0.653897 0.0732699 1.89512 199 164 142 
-1.01702 0.023804 2.16232 117 88 74 
-1.12163 -0.451496 1.92629 63 45 33 
-0.199351 -0.233713 1.57579 196 165 144 
-0.570893 -0.0579805 1.6514 205 178 151 
-0.272623 -0.15842 1.64029 156 157 152 
-0.132662 -0.0716245 1.52832 255 254 236 
-0.63802 -0.13729 1.88307 240 219 202 
-0.107316 -0.197357 1.51439 250 237 228 
-0.674385 -0.129392 1.91083 255 250 236 
-1.09616 0.106762 2.04672 59 37 23 
0.0808411 -0.191251 1.45009 209 181 160 
-1.15532 -0.103221 1.73617 130 102 81 
0.154721 0.0744318 1.38483 150 116 89 
-1.02161 -0.0764007 2.13919 96 77 62 
-0.894619 -0.140276 2.07122 213 184 166 
-0.961556 -0.151971 2.11578 172 140 117 
-0.568179 -0.259673 1.69266 253 234 219 
-1.16772 -0.187732 1.74573 119 83 59 
-0.652806 -0.0606947 1.89372 204 172 149 
-1.06503 -0.000560601 2.08608 75 49 32 
-0.928375 -0.159205 2.09277 242 216 199 
-0.554802 0.118767 1.64124 244 224 200 
-1.04759 -0.195747 2.08896 48 29 14 
-1.05173 -0.0194901 2.10918 115 86 68 
-0.944109 -0.0987765 2.1021 253 241 219 
0.165892 0.0134586 1.3816 150 122 100 
-1.1234 -0.00818608 1.98748 102 68 43 
-1.08474 0.0439751 2.0586 43 24 9 
-0.0953912 -0.0572212 1.31514 186 160 133 
-0.621965 -0.23507 1.87906 191 157 130 
-0.191593 0.117403 1.57131 227 200 181 
-1.21489 -0.162517 1.71765 201 173 152 
-0.452684 0.0230485 1.75277 255 238 222 
-1.12891 -0.551386 1.89794 42 32 23 
-0.364698 -0.198433 1.6901 208 170 147 
-0.305965 0.132652 1.65027 255 249 233 
-0.100376 -0.216408 1.50412 246 221 199 
-0.165381 -0.135182 1.54987 205 180 158 
-0.345463 -0.228092 1.676 245 223 202 
-1.00005 -0.211188 2.14281 199 163 137 
-0.804226 0.120147 2.02552 252 230 209 
-0.375634 -0.148891 1.70319 237 225 213 
-0.189944 -0.170498 1.56673 221 179 155 
-0.320736 0.0609689 1.65798 247 225 204 
0.147223 0.0900857 1.38984 175 153 130 
-0.359484 -0.111857 1.68602 193 161 138 
-0.0797381 0.13436 1.30331 248 235 227 
-0.134669 -0.167708 1.53014 181 147 122 
-0.35668 -0.276019 1.68381 236 213 199 
-0.180625 -0.0215927 1.56164 204 166 143 
-0.328025 0.0318287 1.66344 252 227 207 
-0.143938 -0.0750731 1.53524 254 235 218 
-0.115032 0.0722313 1.3282 207 185 164 
0.100688 -0.0633831 1.44347 242 217 197 
-0.916225 -0.184241 2.08137 193 162 141 
-1.12384 -0.472242 1.91479 50 28 14 
-0.118011 0.0361538 1.32987 214 188 161 
-0.358287 -0.147485 1.68463 251 242 227 
-0.411746 -0.190291 1.72884 207 182 162 
-0.438005 0.111392 1.74256 229 203 186 
-0.184469 0.113483 1.56389 208 182 165 
0.132308 0.188843 1.39719 171 135 103 
-0.41796 -0.00115847 1.72946 224 199 179 
-0.122488 0.0914786 1.33332 204 176 154 
-0.678266 -0.112987 1.91463 254 248 234 
-0.704292 -0.205535 1.93034 255 243 227 
0.0883981 0.0880057 1.4236 148 111 85 
-0.586915 0.0597003 1.6607 233 215 195 
-0.355524 -0.0013713 1.68307 199 168 147 
-0.646563 -0.0124671 1.88697 188 154 127 
-0.3236 0.0986166 1.65963 208 182 165 
0.116579 -0.100226 1.43108 184 139 110 
-0.898098 -0.118288 2.07146 255 253 241 
-0.347108 -0.140407 1.67754 222 191 170 
0.137377 -0.165809 1.41969 192 163 145 
-0.138419 -0.12431 1.53285 234 213 194 
-0.16597 -0.0365198 1.55084 200 169 148 
-0.272245 0.0732313 1.62714 207 186 167 
0.126969 0.0792403 1.40306 158 126 105 
0.106651 -0.0164019 1.42026 153 125 103 
-0.320974 -0.0129506 1.65916 201 174 155 
-0.0889004 0.114879 1.30989 255 242 226 
-0.813994 0.124965 2.02102 212 183 165 
-1.05283 -0.215483 2.07729 61 37 25 
-0.704949 -0.226359 1.93132 199 166 147 
-0.979224 0.121988 2.12827 255 229 210 
-0.729599 0.0812523 1.95005 223 195 173 
-1.2096 0.0614736 1.70904 214 160 132 
-0.11689 0.0579821 1.32819 193 168 148 
-0.916138 -0.12073 2.08207 206 174 153 
-0.168728 -0.116821 1.55313 186 150 124 
-0.0859489 0.172554 1.30464 244 234 224 
-0.142596 0.159887 1.53365 254 241 225 
-1.15877 0.0866232 1.74391 158 136 115 
-0.876685 -0.200662 2.05432 255 240 221 
-0.276562 0.035277 1.62593 196 167 149 
0.153849 0.170162 1.38229 152 115 89 
-0.85471 -0.0238838 2.03816 239 217 196 
-1.18843 -0.417029 1.72681 148 126 105 
-0.559068 -0.197234 1.68804 206 174 153 
-0.157254 -0.16949 1.5453 229 197 172 
-0.29639 0.089349 1.64016 255 243 227 
-0.821918 0.0949825 2.03636 254 255 237 
-1.13314 -0.557726 1.88801 40 29 23 
-0.883764 0.00464872 2.05626 202 168 141 
-1.11692 0.0656333 2.00961 104 88 73 
-0.271023 0.0146539 1.6233 225 204 183 
0.170298 0.0441728 1.37729 239 224 205 
-0.416975 -0.251478 1.73569 198 162 140 
-0.591265 -0.00676575 1.66571 240 214 197 
-1.04774 -0.0754263 2.10648 67 46 27 
-0.717798 -0.100303 1.9425 255 254 236 
-1.08112 -0.294208 2.02771 98 71 54 
-1.23958 -0.245961 1.74422 204 172 149 
-0.40202 -0.0284089 1.70165 100 80 71 
-0.342847 -0.213996 1.67792 185 143 121 
-1.22143 -0.265474 1.72471 194 167 148 
-0.416207 0.0950879 1.72551 255 253 241 
0.0859462 -0.246307 1.44848 252 229 213 
-0.162832 -0.0142751 1.54839 247 224 206 
-0.709697 -0.100593 1.93436 255 250 231 
-0.342396 -0.0268168 1.67619 211 184 165 
-0.883261 -0.00981083 2.062 199 164 134 
-0.86125 0.0204863 2.03867 191 153 130 
-0.660627 -0.0652285 1.89898 250 235 216 
-0.71057 -0.14428 1.93623 250 224 201 
-0.351639 0.020475 1.68021 249 226 212 
-1.1466 -0.421556 1.88923 46 33 25 
-0.437749 -0.0288618 1.74355 255 240 224 
-1.06902 0.0808484 2.09327 132 107 87 
-0.346531 0.10853 1.6788 255 248 229 
0.0681792 0.120036 1.43812 197 165 142 
-0.681336 0.102382 1.9152 211 185 162 
-0.963995 -0.201531 2.11641 183 142 114 
-0.444757 -0.0610414 1.74863 253 236 218 
-0.201493 0.0554222 1.57322 205 170 148 
-1.0346 -0.109942 2.12332 108 85 69 
-0.256358 0.01372 1.61451 239 222 206 
-0.697755 -0.142758 1.92714 244 223 202 
-0.695677 -0.0173167 1.92617 245 223 200 
-0.841941 0.0735353 2.03847 240 209 181 
-0.114657 -0.0248789 1.32935 232 208 184 
-1.04421 0.0660465 2.1341 103 77 62 
-0.425037 0.0672826 1.73603 255 239 221 
-1.05035 0.0765826 2.12258 44 26 12 
-0.831462 -0.0116474 2.02655 189 159 133 
0.0998272 -0.266139 1.44171 204 181 165 
-0.326396 0.0851352 1.66087 247 226 207 
-0.920413 0.121502 2.08676 237 218 203 
-0.98861 0.116643 2.13627 209 178 158 
0.0836498 -0.152822 1.4504 255 239 223 
-0.103165 -0.063157 1.32053 193 167 142 
0.165868 -0.130778 1.40071 230 210 186 
-0.697832 -0.232494 1.92425 246 227 212 
-0.155814 0.123374 1.54425 255 249 237 
-0.924743 0.0658435 2.08847 245 224 205 
-0.649926 0.116101 1.89155 201 174 155 
-0.109085 -0.128364 1.5134 244 222 199 
-0.660246 -0.148337 1.89388 253 254 240 
-0.871143 -0.173909 2.04862 212 180 157 
-0.949566 0.0249049 2.1073 226 199 178 
-0.360364 0.104043 1.68585 246 228 214 
-0.121753 -0.0104878 1.33312 247 226 209 
-1.15494 0.0468351 1.7469 157 127 101 
-0.0819967 -0.147792 1.34587 245 218 197 
-0.307895 0.120792 1.65224 254 236 222 
-0.16817 -0.0525539 1.555 208 180 159 
-0.579254 0.0552526 1.65517 220 197 179 
-0.298658 -0.127601 1.65768 117 116 112 
-0.435087 -0.229945 1.73971 253 232 215 
-0.713773 0.00278936 1.9404 203 169 142 
-0.146582 0.124246 1.53657 254 242 226 
0.0714339 0.16083 1.43799 240 210 186 
-0.213129 -0.086466 1.60091 157 149 147 
-0.175865 -0.207336 1.56019 253 247 231 
-0.425255 -0.156118 1.7363 223 195 171 
-0.0982146 -0.145349 1.50312 198 164 137 
-0.683678 0.051813 1.9149 202 166 140 
-0.68237 -0.0414262 1.91236 208 176 151 
-0.144757 -0.211467 1.53734 188 151 124 
-0.53124 -0.123018 1.66501 238 220 206 
-0.745312 0.108236 1.96167 243 220 206 
-0.834692 -0.0704853 2.02964 162 128 101 
-0.121007 -0.226519 1.52177 200 169 148 
-0.455624 0.116282 1.75328 255 237 217 
-0.842551 -0.212704 2.02878 220 189 171 
-1.16371 -0.215697 1.74955 107 76 58 
-0.180048 -0.226223 1.56304 248 238 226 
-0.288278 -0.276448 1.6494 204 201 192 
-0.427247 -0.29132 1.73555 248 225 207 
-0.182064 -0.237277 1.56394 181 143 120 
-0.130357 0.117829 1.52467 204 173 155 
-0.112341 -0.0694673 1.32801 230 204 189 
-0.871451 -0.130112 2.04917 207 175 150 
-1.22579 -0.204546 1.72823 188 160 139 
-0.120663 0.00851994 1.51813 210 182 158 
-1.08841 -0.333547 2.01321 79 58 41 
-1.16241 -0.10793 1.7146 117 92 70 
-1.14956 -0.440554 1.8864 38 25 17 
-0.0898751 0.031824 1.31091 245 227 205 
0.138118 0.202966 1.39493 225 191 163 
-1.06299 0.00468262 2.09277 113 84 66 
-1.15158 -0.264558 1.76006 174 148 133 
-0.932642 -0.0689994 2.09441 247 220 199 
-0.426876 -0.139007 1.73396 233 188 155 
-0.643343 -0.229393 1.88687 195 163 140 
-0.207259 0.00233661 1.57863 191 156 134 
-0.160887 0.110798 1.54917 253 237 221 
-1.01292 -0.122416 2.14847 71 53 43 
0.0876085 0.170107 1.42653 223 192 164 
-0.910465 -0.108991 2.07789 255 248 230 
-0.976808 -0.129966 2.12394 193 165 141 
-0.100013 -0.0093825 1.3192 196 165 144 
0.0977563 0.151998 1.42322 230 200 172 
-0.155672 -0.0734433 1.54304 217 194 176 
-1.10755 -0.0157192 2.01519 96 63 44 
-0.682694 0.117936 1.91487 243 222 205 
-0.964558 -0.165766 2.11653 230 199 178 
-0.688314 -0.130331 1.91581 250 217 186 
-0.744999 -0.00430115 1.95931 193 159 134 
-0.377589 0.15021 1.70913 184 161 147 
-0.85141 0.0277187 2.0363 254 229 209 
-0.297192 0.0186014 1.6456 219 200 183 
-0.561155 -0.00354292 1.64575 203 175 153 
-0.361778 -0.0437381 1.68769 211 177 150 
-0.342907 0.0441677 1.6736 248 221 200 
-0.112117 0.115723 1.32812 247 236 230 
-0.433496 -0.069017 1.74021 224 195 177 
-0.577437 -0.081649 1.6681 235 213 192 
-0.660786 -0.17667 1.90138 205 171 146 
0.157452 -0.117774 1.40587 248 230 216 
-0.31107 0.182983 1.48204 216 196 163 
-0.88021 -0.121269 2.05983 254 254 242 
-0.879672 -0.140073 2.05028 202 166 142 
-0.562684 0.0199462 1.64719 199 168 147 
-0.890206 -0.0251141 2.06321 254 255 241 
-0.874431 0.0693418 2.05142 199 167 142 
-0.623493 -0.256245 1.87439 246 220 197 
0.120297 -0.227778 1.42707 236 217 202 
-0.950536 0.129595 2.1067 196 162 137 
0.109163 -0.159493 1.4371 251 227 203 
-0.887594 0.0586539 2.06142 247 234 218 
-1.17152 -0.0822307 1.70218 80 57 39 
-1.06267 0.0388606 2.09574 91 58 39 
-0.450858 0.0475118 1.75117 248 231 215 
-1.2324 -0.085408 1.72982 171 129 105 
-0.585431 -0.0550997 1.66312 156 128 107 
-0.348862 0.0691417 1.67839 210 172 149 
0.0823272 -0.168408 1.45019 198 166 143 
-1.08381 0.0786088 2.06942 108 89 74 
-0.560044 -0.227906 1.68991 251 241 229 
-0.761985 0.0291083 1.97007 194 162 141 
-1.07694 0.0432088 2.07369 65 47 33 
0.0779655 -0.241349 1.45275 202 175 156 
-0.178796 -0.190103 1.55931 255 246 231 
0.0998904 -0.252516 1.44377 208 179 161 
-0.12447 0.10207 1.33376 240 223 207 
-0.107381 -0.026883 1.50871 196 169 148 
-0.229323 -0.166117 1.61083 138 135 128 
-0.141481 0.140749 1.53425 221 204 188 
-0.75575 0.111303 1.96925 249 227 213 
-0.828144 -0.142527 2.02936 199 167 142 
-0.696987 0.118749 1.92535 218 190 169 
0.11855 -0.0825158 1.42765 193 161 138 
-0.217073 -0.0317473 1.60232 169 157 143 
-1.09813 -0.470766 1.9577 80 51 33 
-1.07465 0.079181 2.08009 132 105 88 
-1.03645 0.00737873 2.14098 99 80 65 
-1.03147 -0.230005 2.1088 66 39 22 
-1.18873 -0.227121 1.70625 253 239 228 
-0.36835 -0.0383381 1.69484 253 234 219 
-0.772978 -0.217665 1.99214 225 200 178 
-0.8527 -0.0371696 2.03491 254 241 225 
-0.836568 -0.108907 2.02725 231 195 169 
0.110904 -0.13453 1.43363 177 142 120 
-0.596111 0.125361 1.6717 203 165 146 
-0.934899 -0.0241584 2.0937 192 158 133 
0.113409 0.100212 1.41168 151 115 91 
0.11173 -0.229776 1.43713 251 235 219 
-0.244987 0.107075 1.60615 198 171 152 
-0.696807 0.095043 1.93003 192 152 127 
-1.02622 -0.103779 2.14266 46 30 17 
-0.903262 -0.00948858 2.07492 223 195 173 
-0.452879 0.0943574 1.75213 207 179 158 
-0.224496 -0.117479 1.60863 161 151 149 
-0.865009 -0.157641 2.0455 232 211 190 
-0.110612 -0.0109347 1.32644 247 225 204 
-0.986819 -0.111855 2.13344 202 166 144 
-0.254019 0.127054 1.61231 201 179 165 
-0.87771 -0.163658 2.0509 253 236 216 
-0.129236 0.101148 1.52417 213 178 159 
-1.09493 -0.425155 1.97542 128 100 86 
-0.559664 0.070405 1.64506 251 238 222 
-1.20657 0.102265 1.70391 244 230 219 
-1.12867 -0.325801 1.94795 20 19 14 
-1.05609 -0.224437 2.06939 77 48 30 
-0.43459 -0.0969216 1.74173 251 229 208 
0.0721333 0.093448 1.43478 160 128 103 
-1.07242 0.0672907 2.09188 56 38 24 
-1.15483 -0.490923 1.8604 120 103 93 
-1.17708 0.0853728 1.71256 147 116 95 
-0.995807 -0.0847886 2.14042 203 182 165 
-1.13126 -0.433297 1.9129 49 32 24 
0.0842946 0.0187491 1.42956 248 225 207 
-0.113592 0.152821 1.51192 213 187 164 
-0.279587 0.179609 1.45642 221 201 177 
-0.659273 0.082148 1.89687 198 163 141 
-0.987791 0.0988112 2.13344 213 185 164 
-0.449968 0.0332203 1.74981 246 228 208 
-0.137693 -0.156193 1.53205 254 248 232 
0.115022 0.172922 1.40527 169 138 110 
-1.16305 0.0801942 1.93336 97 84 67 
-0.0862581 0.0419999 1.30751 191 170 149 
-0.981113 -0.203078 2.13254 209 173 149 
-0.593246 0.0893534 1.66713 205 180 160 
0.130061 -0.0708628 1.41984 235 198 172 
0.134256 -0.108201 1.42468 210 183 162 
-0.080296 0.0744879 1.30335 201 183 159 
-1.02447 -0.126785 2.13328 82 56 41 
-1.17245 -0.216848 1.73069 82 55 34 
-1.16356 -0.155161 1.74256 201 176 154 
-0.195926 -0.109685 1.57319 208 172 140 
-1.15337 -0.439158 1.87593 47 32 27 
-0.301801 -0.293205 1.65796 239 207 186 
-0.25603 0.000656282 1.61461 188 157 136 
-0.652794 -0.267936 1.89311 255 242 225 
-0.11163 0.0485497 1.51363 197 160 134 
-0.0969177 0.0713884 1.31814 254 243 223 
-0.180545 -0.118654 1.5596 246 223 205 
-1.0306 -0.150077 2.12651 110 79 61 
-1.03572 -0.00694248 2.14318 99 72 55 
-0.939683 0.129685 2.09864 207 170 144 
-0.260509 -0.00858005 1.61884 233 207 184 
-0.741578 0.0418431 1.95538 231 203 179 
-0.725184 -0.084971 1.94385 250 226 202 
-1.21948 -0.301881 1.72505 247 220 201 
-1.02025 0.0353198 2.15901 111 89 76 
-1.13972 -0.547202 1.88079 94 80 71 
-0.422356 -0.127706 1.73143 253 232 213 
0.0735462 -0.0148712 1.43709 181 153 131 
-0.55177 0.107121 1.6393 213 191 168 
-0.687944 0.0604126 1.91789 202 167 145 
-0.341225 -0.237141 1.67883 189 154 126 
-1.07158 0.0692498 2.08399 53 35 21 
0.136461 -0.124123 1.41816 250 231 216 
0.0860834 0.150784 1.42715 220 188 163 
-0.642534 -0.168189 1.88986 216 185 164 
-0.101588 -0.265887 1.50893 194 158 134 
-1.12941 -0.466403 1.90686 59 45 34 
-1.01909 -0.193278 2.14299 70 43 26 
-0.127292 -0.26517 1.52505 213 187 164 
0.115274 0.210437 1.40931 197 163 138 
-0.867027 0.0558727 2.04608 214 187 166 
0.137712 0.0904427 1.39416 127 101 76 
-0.350432 -0.0779312 1.67984 255 255 242 
-0.1363 0.11269 1.34185 223 199 187 
-1.04181 -0.185116 2.10227 59 37 23 
-1.12173 0.101396 2.00302 110 94 78 
-1.16365 -0.0739183 1.71983 139 113 90 
-0.918702 -0.141634 2.0852 211 183 162 
-0.81898 0.108875 2.03163 213 188 168 
-0.792035 0.0862256 2.01718 253 226 207 
-0.821936 0.133302 2.03681 205 174 156 
-0.106568 -0.0381338 1.50831 233 211 190 
-0.290881 0.121528 1.64001 255 251 235 
-0.970007 0.0564462 2.12186 248 225 207 
-1.03968 -0.241022 2.09911 136 100 78 
0.0934647 0.124599 1.42244 171 136 108 
-0.25101 0.0799241 1.61009 236 218 204 
-0.578119 0.125891 1.65394 222 201 180 
-1.10989 -0.00389829 2.01149 46 28 16 
-0.37469 0.0627369 1.69575 193 166 147 
0.110998 0.129028 1.41223 178 146 121 
0.0847073 0.114649 1.43023 188 156 133 
-0.623208 -0.137422 1.87543 220 188 167 
-0.211773 -0.0322533 1.59299 174 161 152 
-0.423338 -0.264192 1.73368 196 159 132 
-0.187943 -0.0697478 1.56602 207 165 140 
-0.572366 -0.018246 1.65269 158 140 128 
-0.763309 0.0171442 1.97401 207 183 159 
-0.679048 0.0604864 1.91388 195 163 140 
-1.13489 -0.405154 1.91028 56 43 35 
-1.18056 -0.126571 1.69376 207 170 151 
-0.436381 0.0308713 1.74373 204 169 141 
-0.560061 0.0591518 1.64446 250 234 218 
-0.926523 -0.0290951 2.08673 247 222 200 
-0.761652 -0.0303079 1.97163 221 194 165 
-1.04732 -0.112867 2.10375 67 43 31 
-0.0589354 -0.156334 1.32953 253 236 218 
-0.448514 -0.18549 1.7492 231 212 197 
-0.179472 -0.153731 1.56193 205 180 158 
-1.11331 -0.302341 1.974 75 66 61 
-0.879584 -0.182127 2.0585 246 225 208 
-0.377345 0.0911356 1.6979 227 209 189 
0.163809 0.21116 1.38257 157 117 82 
0.156931 -0.171588 1.40716 237 221 198 
-0.322496 -0.23898 1.66293 252 237 216 
-1.10536 -0.429028 1.95573 82 47 28 
-1.14925 0.0324546 1.95373 83 64 50 
-0.189375 -0.265122 1.56918 235 214 195 
-1.21553 -0.139191 1.71798 210 179 158 
-0.361558 0.0354295 1.6875 194 164 140 
-0.173963 0.110147 1.55315 208 180 159 
0.102437 0.184889 1.41707 207 181 156 
-1.06709 -0.547626 2.00427 58 40 30 
0.148781 -0.215309 1.41158 208 190 176 
-0.180378 0.0187725 1.55861 190 162 141 
-0.636715 -0.127923 1.88343 208 180 156 
-0.232 -0.121438 1.61469 120 115 112 
-0.116696 -0.0535396 1.51536 217 191 168 
-1.21621 -0.0269957 1.71641 255 249 239 
-0.169543 0.0438015 1.55234 194 163 143 
-0.0982826 0.0365404 1.31674 215 191 167 
-0.434858 -0.276962 1.73665 195 168 149 
-0.297539 0.172124 1.47079 223 203 153 
-0.669234 0.00763736 1.90542 245 217 193 
-0.833637 -0.20295 2.02311 200 165 146 
-0.556278 -0.182332 1.68404 250 224 199 
-1.18035 -0.361291 1.6992 224 193 173 
-0.722854 -0.19615 1.9492 255 246 229 
-0.211723 0.140138 1.57612 218 192 177 
-1.20671 -0.292184 1.71602 254 254 242 
-0.1524 -0.0913654 1.54212 222 204 182 
-0.347253 0.0790177 1.67688 202 170 149 
-0.64566 0.0803821 1.88835 223 202 183 
-0.113194 -0.0436964 1.32744 227 207 180 
-0.191348 -0.156084 1.56914 225 191 166 
0.0776432 -0.106243 1.45243 196 169 148 
-0.274089 0.0991598 1.62579 201 175 158 
-0.67605 0.0898283 1.91008 207 177 153 
-0.551857 -0.0434196 1.63942 201 179 165 
-0.325259 -0.173943 1.66294 209 174 152 
-1.0575 -0.0877141 2.08852 73 50 32 
-1.07195 0.0102436 2.08049 68 42 25 
-1.1685 -0.320653 1.72629 116 89 72 
0.132214 -0.141117 1.42419 226 199 178 
0.153183 -0.0895599 1.41172 237 212 192 
0.129505 0.0406632 1.40164 170 138 115 
0.154527 0.133799 1.38112 182 155 128 
-0.623417 -0.222068 1.87095 248 222 199 
-1.0323 0.0112009 2.14741 43 29 20 
-0.147973 -0.0459567 1.53975 237 211 188 
-0.345753 0.134649 1.67785 205 184 167 
-0.763381 -0.0347134 1.97822 165 137 113 
-1.15431 -0.0381294 1.73898 205 186 169 
-1.07277 -0.0462105 2.06404 133 102 84 
-0.368218 0.165471 1.69386 205 186 171 
-0.367735 -0.00332005 1.69154 249 228 207 
-0.304337 0.0871002 1.64667 246 225 206 
0.0879135 0.104635 1.42451 172 127 94 
0.160225 -0.0833377 1.40443 219 193 176 
-1.0294 -0.0871074 2.13503 65 36 22 
-0.660295 0.0440973 1.89782 191 159 136 
-0.845036 0.0912293 2.0376 245 217 196 
-0.570411 0.14674 1.6531 232 215 195 
-0.844941 -0.198129 2.02833 255 229 212 
-0.089237 0.0175489 1.31015 209 181 159 
-0.334987 0.1474 1.6679 255 243 229 
-0.813087 0.0538083 2.03335 226 205 186 
-1.13859 -0.441886 1.89825 50 36 27 
-0.541657 -0.179364 1.6759 253 231 210 
0.16663 0.0738349 1.37665 139 108 80 
-0.179799 -0.136986 1.56373 217 185 162 
0.143181 0.100157 1.39208 126 93 74 
-1.14401 -0.388457 1.89879 79 65 56 
-1.0935 0.101668 2.05459 118 96 82 
-0.332425 0.137389 1.66822 249 232 216 
-0.861986 -0.167968 2.04447 210 179 158 
0.14587 -0.18811 1.41517 249 226 208 
-1.05394 0.0599215 2.11993 54 35 20 
-0.286819 -0.0264809 1.64173 231 209 185 
-0.872476 -0.100391 2.05303 246 220 197 
0.130827 0.00835337 1.40132 156 130 107 
-1.03998 -0.055305 2.12398 75 46 28 
-0.668203 -0.0692174 1.90682 251 225 208 
-1.14146 0.0471681 1.96874 87 67 56 
-0.822524 -0.00531168 2.01363 192 156 132 
-1.0461 0.0162529 2.12316 63 40 22 
-1.05327 -0.202811 2.0777 110 77 58 
-0.107838 0.0644678 1.50987 226 194 173 
-1.2336 -0.169069 1.73101 187 147 121 
-0.136496 -0.178901 1.53091 221 198 180 
-0.150439 -0.158731 1.5394 255 253 241 
-0.655953 0.00647845 1.89321 196 158 135 
-0.14972 0.133308 1.54129 210 188 174 
-0.67749 -0.0615757 1.91279 250 223 204 
-0.713674 -0.19204 1.93933 255 242 229 
-0.961293 -0.189999 2.11087 243 211 188 
-1.07849 -0.0616885 2.06393 105 85 74 
-0.591806 -0.0690034 1.66737 203 175 153 
-0.850625 -0.101223 2.03674 231 200 179 
-1.14753 -0.487044 1.87339 44 34 25 
-0.412092 -0.070179 1.72464 204 170 143 
-0.126407 0.0567401 1.33518 249 227 213 
-0.597716 -0.0930448 1.68941 173 147 130 
-0.135882 0.0245834 1.52778 199 163 139 
-0.352913 -0.122633 1.68034 204 176 154 
-0.973253 0.105981 2.12417 242 214 193 
-0.93944 -0.0604438 2.0988 203 179 153 
-0.310046 0.0955439 1.64841 218 191 174 
-0.670899 0.0458509 1.90678 219 191 169 
-0.132269 -0.19847 1.52775 253 250 231 
-0.571106 -0.171658 1.69418 255 232 214 
0.128199 -0.00628096 1.40067 122 98 74 
-0.545524 -0.258548 1.67796 254 245 230 
-1.02207 -0.0720739 2.14938 68 49 35 
-0.73659 -0.134108 1.955 238 208 182 
-0.456138 0.00659717 1.75631 219 188 167 
-0.453453 0.0405358 1.7569 217 186 166 
-0.823261 0.104109 2.03888 252 233 216 
-1.01352 0.107919 2.15223 59 51 40 
-1.20012 -0.120438 1.7074 255 234 220 
-0.553961 -0.232715 1.68213 238 206 181 
0.14624 0.0707107 1.38928 159 125 98 
0.0907625 -0.137486 1.44554 202 174 150 
-0.328187 -0.291825 1.66933 208 177 157 
-0.760823 0.0753392 1.9723 254 241 224 
-0.571024 -0.0415111 1.65124 175 150 130 
-0.299926 -0.234147 1.66043 159 150 143 
-0.0747481 -0.185897 1.34089 230 195 175 
-0.10357 0.111739 1.32134 224 206 192 
-0.915176 -0.132581 2.08282 237 212 190 
-0.804165 0.096019 2.02312 252 246 230 
-0.441196 -0.0464763 1.74616 246 228 208 
-0.736807 -0.0232296 1.95411 251 225 208 
-0.0847082 -0.197339 1.34843 253 248 229 
0.102 -0.0960073 1.44112 237 211 186 
-0.0852848 -0.0399641 1.30822 194 164 136 
-0.27886 0.16792 1.62934 221 199 185 
-0.944523 -0.0453463 2.09653 252 248 236 
-0.37746 -0.307802 1.69866 197 167 143 
0.125798 -0.201454 1.4346 190 165 143 
-0.349375 -0.0582197 1.69021 235 217 203 
-0.321148 -0.0243405 1.65944 253 227 210 
-0.082897 0.156184 1.30612 212 193 178 
-0.440311 -0.116233 1.74589 253 240 224 
-1.03862 0.109633 2.14111 75 59 46 
-1.07283 -0.0784028 2.06342 75 56 42 
-1.01699 -0.182718 2.14315 64 42 28 
-0.849428 -0.0588849 2.03358 244 219 197 
-0.669376 0.130933 1.90416 239 218 199 
-0.0663089 -0.123568 1.33606 251 243 232 
-0.681173 -0.223215 1.91293 187 150 123 
-1.0549 0.00915915 2.10999 63 34 18 
-1.0309 -0.0409108 2.13937 93 71 57 
-0.582228 -0.00583809 1.65972 210 183 162 
-0.122088 -0.186369 1.37409 255 252 235 
-1.14358 -0.37138 1.89668 51 47 44 
-0.0764121 0.040085 1.30116 200 174 151 
-1.09215 0.041903 2.04788 65 42 26 
-1.12938 -0.381033 1.92529 59 40 26 
-0.804153 0.0666247 2.02358 251 234 216 
-1.06853 -0.111455 2.06013 92 63 45 
-0.345953 0.121527 1.67708 232 209 193 
-0.968772 -0.176556 2.121 206 174 153 
-0.892914 -0.00495869 2.0647 214 186 164 
-1.15889 -0.375165 1.73179 145 129 114 
-0.59847 0.0309791 1.66906 212 184 163 
-0.177737 -0.0865952 1.55751 243 221 200 
-0.272456 -0.0247553 1.627 229 203 176 
-1.21038 -0.198685 1.71587 255 245 233 
-0.55339 0.000869486 1.63739 176 149 128 
-1.12749 -0.458709 1.91363 43 26 16 
-1.2013 -0.13305 1.70671 245 223 209 
-0.227646 -0.0251289 1.604 223 202 173 
-0.11649 0.133877 1.32822 247 230 214 
0.139211 -0.155037 1.41825 218 187 167 
-0.120693 -0.159842 1.51768 255 249 236 
-1.0243 0.0168531 2.1591 104 88 75 
-1.09753 0.0089193 2.02888 57 34 20 
-0.424122 0.104215 1.73158 255 254 242 
-0.521663 -0.214605 1.66088 225 193 170 
-0.0712518 -0.101064 1.32451 233 214 197 
-0.255888 0.183269 1.44013 203 181 160 
-0.308462 -0.0211471 1.65268 215 187 163 
-0.410325 -0.250659 1.72173 217 190 169 
-1.12919 -0.502722 1.90154 85 48 39 
-0.340894 0.166042 1.6731 241 225 210 
0.167223 0.0954825 1.37583 156 124 101 
0.0886932 -0.228245 1.44684 255 238 222 
-0.241998 -0.0772822 1.61987 126 113 97 
-0.343239 -0.0586476 1.66848 252 238 225 
-1.17111 0.0959062 1.72526 166 139 120 
-1.02264 -0.203889 2.13098 78 43 24 
-0.117574 0.084138 1.32855 255 254 242 
-0.379252 -0.170396 1.70294 214 195 180 
-0.313746 0.0450402 1.65332 254 233 214 
-0.360662 0.0847581 1.68674 211 179 158 
-0.935535 -0.00165206 2.09446 214 180 155 
0.135242 -0.241073 1.42293 232 215 199 
-0.101567 0.157094 1.50502 255 243 227 
-1.14516 -0.102298 1.74666 107 83 59 
-0.709411 -0.196886 1.93293 229 203 180 
-0.216836 -0.0467183 1.60316 85 84 82 
-0.75117 0.0642065 1.96352 255 238 222 
-1.1953 -0.325337 1.71175 246 224 211 
-1.24445 -0.211998 1.74213 255 246 231 
0.105354 -0.206552 1.43734 233 210 192 
-1.06234 -0.258836 2.05558 78 54 42 
-1.19851 -0.0237594 1.7054 255 254 241 
-0.0763802 -0.131342 1.34295 254 254 242 
-0.324751 0.129408 1.66169 236 217 200 
-0.437562 -0.239436 1.74284 226 201 181 
-0.911401 -0.144401 2.07684 247 229 215 
-0.546877 0.101977 1.63271 201 170 150 
-0.349258 0.158668 1.67819 232 216 203 
-0.220687 0.172595 1.41803 222 202 178 
-0.0946722 -0.138891 1.35671 243 215 191 
-1.15692 -0.156978 1.75816 204 182 159 
-0.161813 -0.0577034 1.54819 219 197 176 
-0.710512 0.0201366 1.93657 204 170 145 
-0.333974 -0.0178767 1.66895 253 232 215 
-0.924861 -0.0519655 2.09274 246 220 195 
-0.710988 0.090731 1.93352 218 190 166 
-0.734756 0.101937 1.95201 238 213 193 
-0.577084 -0.153203 1.70211 253 236 216 
-1.02939 0.0560088 2.15977 78 64 55 
-0.569753 0.0705799 1.65147 254 238 223 
-0.334886 -0.0730767 1.66986 255 234 217 
-1.0344 0.0450185 2.15541 47 30 22 
-0.564942 0.0376188 1.6495 252 244 233 
-0.450989 -0.152425 1.75061 226 204 183 
-0.200983 -0.100586 1.57558 225 199 182 
-1.11747 0.102414 2.01234 123 102 85 
-0.211035 -0.0163273 1.58365 228 196 171 
-1.09895 -0.513122 1.95562 124 97 86 
-0.0602188 -0.180875 1.33319 255 243 227 
-0.264703 0.181203 1.44641 241 223 199 
-1.16725 -0.225452 1.74243 88 65 51 
-1.03499 -0.0630251 2.12748 119 87 66 
0.106568 -0.196597 1.43282 252 235 217 
-0.145193 -0.182867 1.53694 243 226 210 
-1.12818 0.100427 1.99375 61 45 32 
-0.166236 0.124555 1.55125 217 191 176 
0.0945431 0.0713224 1.42124 177 140 114 
-0.238904 -0.0248207 1.60336 236 215 188 
-1.22072 -0.343178 1.7283 200 170 146 
-1.14043 0.127393 1.73354 90 70 37 
-0.725851 -0.12713 1.94618 254 233 216 
-0.263133 0.119128 1.6201 246 224 210 
-0.702036 0.0835692 1.92973 217 187 163 
-1.06877 -0.224495 2.05726 105 86 72 
-1.10451 -0.492495 1.94703 104 73 53 
-0.17976 0.134167 1.55725 230 213 197 
-0.35969 -0.178172 1.6869 253 243 233 
-0.0809022 -0.0607184 1.30431 240 214 187 
-0.120183 -0.205425 1.37279 243 220 202 
-0.416488 -0.216474 1.72887 201 174 153 
-0.695516 -0.0940171 1.92792 254 237 221 
-0.0930877 0.090738 1.31406 233 217 202 
-0.841714 -0.183302 2.02891 216 187 169 
-0.200771 -0.0675729 1.57546 251 223 199 
-0.104392 -0.104114 1.5072 214 184 160 
-0.881482 -0.100573 2.0596 240 215 195 
-0.0866744 0.0571746 1.3083 222 200 177 
-0.295779 -0.0327812 1.65974 191 169 145 
-0.867153 0.129886 2.04691 247 226 209 
-0.113102 0.161697 1.3264 254 248 236 
0.105386 -0.173749 1.43521 227 200 179 
-0.786473 -0.051133 1.99499 254 237 217 
-0.113462 -0.0425396 1.5144 207 176 155 
0.168058 0.15978 1.37345 172 146 123 
-1.08608 0.103351 2.06507 105 86 69 
-1.07897 -0.141791 2.05871 43 32 26 
-0.457903 -0.107462 1.75459 255 238 222 
-0.0922989 0.10164 1.3139 244 230 219 
-0.123396 -0.158831 1.3739 209 183 168 
-0.757436 -0.0208238 1.96908 229 201 177 
-0.238995 -0.175922 1.61741 123 110 101 
-0.667845 0.0645066 1.90673 219 191 169 
-1.03596 0.0669434 2.15088 59 45 34 
-0.557076 -0.0123554 1.64113 207 181 158 
-0.756906 -0.196051 1.98434 106 105 84 
-1.1349 0.0743418 1.97881 50 32 20 
-0.123959 -0.053094 1.52166 197 171 148 
-1.11785 0.109564 2.00453 72 54 34 
-0.189245 -0.277835 1.56559 240 221 204 
-0.857008 0.0831959 2.03551 242 217 197 
0.0881584 -0.209188 1.44653 242 219 201 
-0.863657 -0.11449 2.0454 253 225 204 
-0.288421 -0.140928 1.64944 159 159 159 
0.10831 0.165608 1.41142 177 147 123 
-0.322349 0.14872 1.65994 252 240 226 
-1.11916 -0.533899 1.9177 50 31 24 
-0.449524 0.0612566 1.75189 236 204 181 
-0.538636 -0.0484922 1.6298 233 214 199 
-0.581047 0.0471352 1.66038 255 239 224 
-0.178015 0.0412453 1.55692 255 236 219 
-0.270308 -0.0464794 1.64147 119 116 111 
-0.581002 -0.121532 1.6987 245 228 210 
-0.451176 -0.121847 1.74782 212 186 169 
-0.356826 0.157605 1.68377 249 233 220 
-1.15993 -0.395952 1.74707 165 144 127 
-0.723354 0.102544 1.94548 221 194 173 
-0.450354 -0.136238 1.75056 224 207 191 
-0.140031 0.179543 1.3436 253 236 226 
-0.864028 -0.0599967 2.04742 227 205 184 
0.0992901 -0.00370579 1.4213 179 151 127 
-0.591917 0.0696143 1.66557 254 242 226 
0.0748992 0.171421 1.43106 171 141 107 
-0.420613 -0.147689 1.73131 229 181 141 
-0.756764 -0.223531 1.98494 92 88 85 
-1.02308 0.0884621 2.15949 100 83 73 
-1.06137 -0.168196 2.06997 116 85 67 
-0.439408 -0.288729 1.7415 243 222 203 
-0.335095 -0.194889 1.6724 252 217 195 
-1.1477 -0.359467 1.74916 120 97 79 
-0.122572 0.1154 1.33307 247 240 230 
-0.227519 -0.105941 1.61088 113 102 96 
-0.188624 -0.113091 1.56675 221 182 153 
-1.0541 -0.0649575 2.09719 135 93 71 
-0.578496 0.0171325 1.65743 195 168 149 
-1.18653 -0.271745 1.70233 255 255 247 
-1.06864 -0.140982 2.06067 85 59 44 
-1.04745 -0.237295 2.08396 124 89 69 
-0.10668 0.0363865 1.32299 210 182 158 
-0.781259 -0.00870988 1.9854 203 173 149 
-0.104332 0.00947216 1.32105 247 229 215 
-0.979198 0.0863513 2.12776 255 232 218 
-0.205764 0.15672 1.57921 243 226 210 
0.10221 -0.148882 1.43679 196 168 144 
-0.112216 0.139598 1.51268 237 218 203 
-0.0670626 -0.206171 1.33654 254 233 214 
-1.04179 -0.1413 2.10794 63 40 24 
-1.03035 -0.0744657 2.13885 75 48 29 
-0.829594 0.0321025 2.02446 249 226 210 
-1.04875 -0.0675044 2.10296 114 82 57 
-0.563444 -0.124062 1.68878 244 227 211 
-0.767671 -0.0171703 1.97724 214 186 164 
0.101658 0.112743 1.41769 164 125 96 
-0.365683 -0.208688 1.69119 199 165 138 
-0.959922 0.126535 2.11528 208 181 162 
-0.135763 0.0137065 1.5271 198 163 143 
-1.10635 0.0411784 2.02387 60 34 21 
-0.360217 0.14759 1.68349 210 184 161 
-0.611645 0.0174229 1.67937 203 174 156 
-1.0441 -0.0590352 2.11497 115 81 56 
-0.12557 0.133301 1.52172 224 203 186 
-0.770821 0.104833 1.97732 254 238 225 
0.158965 0.0192642 1.38541 211 189 168 
-0.41865 0.0360272 1.72865 214 186 164 
-0.909336 -0.070525 2.07979 234 209 189 
-0.673759 0.121106 1.9094 232 209 191 
-0.604505 -0.0493482 1.67605 234 211 195 
-1.15202 -0.367103 1.88853 41 30 24 
-0.928865 0.0423682 2.09243 216 199 183 
-0.754221 -0.00975314 1.96678 224 198 175 
-0.334206 -0.116603 1.67149 240 215 193 
-0.696387 -0.126003 1.92222 222 183 150 
-1.15921 0.0683243 1.74196 141 111 85 
-0.888333 -0.109817 2.06126 249 228 211 
0.0980883 -0.0167853 1.42501 184 154 126 
-1.04789 -0.135267 2.09524 146 118 96 
-0.677321 -0.233107 1.90943 255 228 209 
-1.07949 0.0267952 2.06678 70 49 32 
-0.140391 0.0120105 1.346 236 209 190 
-1.10848 -0.351711 1.99346 29 24 18 
-1.14466 0.0677033 1.96249 48 36 24 
-0.298723 -0.272581 1.65614 199 170 154 
-0.143983 0.0127601 1.53225 197 162 140 
0.152935 -0.127244 1.41079 239 218 199 
-1.12181 -0.390743 1.94555 31 31 23 
-0.369083 0.109977 1.69386 227 209 189 
-0.575729 -0.253812 1.6945 213 190 174 
-0.820103 -0.170703 2.02501 154 141 135 
-0.342328 -0.0434242 1.67497 255 240 221 
-0.766878 0.046942 1.97295 250 241 224 
-0.0608329 -0.111617 1.32576 221 199 185 
-0.859803 0.0721194 2.0403 249 219 193 
-0.0796687 -0.181186 1.34879 255 249 237 
-0.808848 -0.027523 2.0024 232 205 176 
-1.17385 -0.0473378 1.70564 119 88 67 
-0.42467 0.086084 1.73525 228 196 173 
-1.13825 0.00159318 1.96274 71 49 35 
-0.681818 -0.0147013 1.9119 235 209 186 
0.131914 -0.00991603 1.41348 120 94 69 
-0.0764482 0.056523 1.30074 221 195 170 
-1.2317 -0.151449 1.72853 233 203 179 
-0.42051 -0.0390919 1.7325 229 204 184 
-1.13677 -0.423287 1.90268 48 35 27 
-0.535457 -0.280999 1.67312 253 234 219 
0.170245 -0.0332207 1.39859 197 152 119 
-0.186356 -0.186827 1.56663 251 225 210 
-1.10891 -0.255497 1.9946 30 25 19 
-0.923249 -0.0991465 2.08773 224 196 175 
-0.706851 -0.149695 1.93027 232 196 162 
-1.14403 0.043727 1.95975 41 27 16 
-1.12792 -0.0269507 1.97628 80 57 41 
-0.19479 0.0794222 1.56901 217 191 174 
-0.203662 -0.278381 1.57875 232 204 183 
-0.776693 -0.0246768 1.97904 231 205 178 
-0.854562 -0.172406 2.03536 239 214 194 
0.0932095 0.13596 1.41899 169 133 107 
-0.850801 -0.206123 2.03271 255 230 210 
-0.151068 0.0823713 1.53902 198 170 149 
-1.16022 0.0402396 1.93323 51 33 21 
-0.840376 0.0450877 2.02882 245 219 202 
-1.05816 -0.0573919 2.09143 143 103 78 
-0.216264 -0.19762 1.60309 127 118 109 
-0.117329 -0.235075 1.51736 203 167 145 
-0.648816 -0.0795367 1.89158 253 236 220 
-0.441289 -0.00328985 1.74576 235 211 187 
0.0954247 0.166404 1.41962 185 153 128 
-0.204813 0.076797 1.57892 204 169 147 
-0.843673 -0.0700799 2.0276 252 222 194 
-0.141505 0.0540966 1.34503 211 184 165 
-0.983319 -0.180503 2.13089 239 211 189 
0.092547 -0.108175 1.44424 200 169 148 
-0.863459 -0.050546 2.04601 252 221 200 
-1.09111 0.0736223 2.05592 56 34 21 
-0.904766 -0.0993255 2.07149 249 224 204 
-1.1237 -0.014675 1.98174 48 35 19 
-0.103126 -0.129432 1.36172 233 203 179 
-0.64284 0.1067 1.88775 231 212 195 
-0.587056 0.0145286 1.6641 229 206 188 
-0.525111 -0.260081 1.6648 234 208 191 
-0.181602 0.104646 1.56753 226 207 192 
-0.131712 0.0302793 1.3397 218 187 169 
-1.03952 0.0266944 2.1392 66 40 27 
-0.230718 -0.13906 1.61359 144 139 136 
-0.652406 -0.0259179 1.88977 252 224 200 
-0.210179 0.182706 1.40955 241 224 198 
-0.833611 0.0204279 2.02407 255 240 224 
-1.09267 -0.490273 1.9727 77 56 37 
-0.118028 0.111937 1.51649 213 186 165 
-0.330352 0.157587 1.66502 240 223 207 
-1.07541 -0.174769 2.05758 98 84 75 
-1.10462 0.00848556 2.02144 55 33 20 
0.0932455 0.203185 1.42282 194 163 142 
-0.352032 -0.191738 1.68225 250 229 210 
-0.645215 -0.106504 1.88672 245 227 213 
-1.17426 -0.06614 1.70068 131 101 77 
-0.109472 -0.186179 1.3653 254 236 222 
-1.02504 -0.0925406 2.1421 98 65 48 
-0.361944 -0.0745878 1.68959 220 193 174 
-1.07921 0.0538648 2.07 86 60 45 
-0.362167 0.00416418 1.68843 216 195 174 
-0.857541 -0.0477782 2.03385 246 215 194 
-1.19884 -0.389643 1.71151 225 204 185 
-0.613255 -0.0718999 1.6863 179 147 126 
-1.05477 -0.174997 2.07896 79 56 40 
-0.134529 0.0899307 1.53031 203 171 148 
-0.415213 -0.142016 1.72395 253 209 172 
-0.14593 -0.09706 1.5369 194 168 151 
-0.360372 -0.263822 1.68814 232 211 190 
-0.737248 0.000227837 1.96251 216 185 164 
-0.95285 -0.178379 2.10479 219 183 159 
0.110517 -0.182509 1.43428 197 165 144 
-0.331455 0.0931093 1.66583 226 200 183 
-1.1402 -0.25259 1.94203 25 20 14 
-0.636556 -0.259383 1.88102 206 164 139 
-0.106009 -0.0173248 1.50617 242 217 195 
-0.299843 -0.244804 1.65973 160 145 142 
-0.655638 0.0877384 1.88727 228 201 182 
-0.363664 0.0630914 1.68754 205 178 157 
-0.277472 0.119935 1.63099 249 231 217 
-0.638776 -0.151641 1.88338 255 253 238 
-0.277937 0.130279 1.62968 246 228 216 
-1.09626 0.0926074 2.04474 81 62 45 
-0.122162 0.0207784 1.33411 198 177 158 
-1.03966 -0.0252585 2.12736 61 35 20 
-0.23038 -0.037295 1.61281 118 110 108 
-1.18894 0.0408591 1.69311 222 200 177 
-0.370611 0.135389 1.69639 232 215 197 
-0.791134 -0.0119289 1.99503 223 199 175 
-1.12822 0.00635467 1.98252 43 26 16 
-0.126678 -0.16722 1.52339 246 230 215 
-0.07858 -0.0101775 1.3028 226 200 175 
-0.167303 0.077269 1.54927 210 181 163 
-1.02018 0.00566852 2.15274 109 85 73 
-0.881976 -0.192998 2.05932 254 233 216 
0.158655 -0.137254 1.40466 201 176 154 
-0.937551 -0.152975 2.09139 230 204 181 
0.166747 0.0855704 1.37512 161 125 101 
-0.126009 -0.228699 1.37683 252 225 208 
-1.03931 0.0617317 2.14554 49 31 19 
-0.681268 0.0829617 1.91533 213 183 157 
-0.776279 0.00430876 1.98358 224 194 170 
-0.450576 -0.212831 1.74965 255 250 236 
-1.02337 -0.181429 2.13267 71 48 32 
-1.10931 -0.0541715 2.00573 72 58 45 
0.157866 -0.0974134 1.40738 218 180 159 
-0.567175 0.137819 1.64895 200 179 152 
-0.140271 -0.0106916 1.34675 233 207 190 
-1.01874 -0.159666 2.13666 64 43 26 
0.0995287 -0.0359151 1.44062 231 196 168 
-0.100731 -0.226996 1.35953 222 201 182 
-0.431308 -0.0880779 1.73977 220 197 181 
-0.169622 -0.258921 1.55361 240 224 211 
-1.15711 -0.0652272 1.72999 138 116 95 
-1.14158 -0.0185118 1.95575 42 28 17 
-0.0981575 0.13431 1.31636 221 199 186 
-1.1645 -0.193609 1.89323 76 58 46 
0.149265 -0.158121 1.41495 243 217 200 
-1.10591 0.0725353 2.02966 66 44 30 
0.157674 0.00322535 1.3861 131 99 78 
-0.0777106 0.0191739 1.30266 198 170 148 
-0.314401 -0.265097 1.65944 222 194 173 
-1.15916 0.0575672 1.73759 166 134 109 
0.0935503 0.185521 1.42232 200 176 150 
-0.974227 0.0841853 2.1216 252 229 213 
-0.135371 0.0902419 1.34155 253 235 221 
-0.112177 0.0268502 1.51293 202 166 142 
-0.609724 0.0297447 1.67937 234 213 192 
-1.09909 -0.00156724 2.02602 54 37 21 
-0.587527 -0.0978954 1.68525 175 149 132 
-1.07319 -0.206566 2.05686 97 83 74 
-0.140381 0.161736 1.34402 239 226 217 
-1.04598 -0.222049 2.08772 84 61 45 
-0.942665 8.58827e-05 2.10158 207 173 148 
-1.15074 0.0994098 1.95767 94 76 64 
-0.929077 0.0942709 2.0884 225 206 191 
0.0715555 0.190206 1.43479 231 207 183 
-0.19602 -0.210624 1.57677 251 241 229 
-0.132161 0.138759 1.52719 252 234 220 
0.157917 -0.183665 1.40638 212 181 160 
-0.370235 -0.0850397 1.69369 239 220 205 
-0.196469 -0.0352759 1.57185 233 197 175 
-0.793505 -0.0217814 1.99362 223 195 171 
-0.138546 0.0390029 1.34338 217 184 167 
-0.661247 0.0547941 1.89849 199 165 140 
-0.816474 0.0623225 2.03459 225 199 182 
-0.654482 -0.101627 1.89537 232 215 199 
-1.16156 -0.260551 1.74391 199 173 156 
-0.544909 -0.153369 1.67856 251 224 203 
-1.13993 0.10191 1.97682 96 76 65 
-1.07188 -0.19433 2.0568 98 81 71 
-1.09395 -0.0193626 2.03737 50 34 19 
-1.16795 -0.105711 1.70704 121 95 72 
0.161734 -0.108522 1.40668 212 180 159 
-0.797356 0.0504263 2.01724 255 250 234 
-0.310871 0.156716 1.65418 208 186 172 
-0.0920958 -0.105849 1.34239 230 207 189 
-1.06075 -0.0919174 2.08002 115 80 60 
-0.431039 -0.0454979 1.73961 227 206 189 
-0.113393 0.000791129 1.51277 209 178 157 
-1.01527 -0.0576875 2.1548 115 96 82 
-1.07169 -0.000724803 2.07054 66 40 23 
-0.721107 -0.116621 1.94092 248 235 219 
-0.104201 -0.14221 1.36072 233 198 168 
-0.349301 0.0069675 1.6795 206 178 156 
-1.22945 -0.187427 1.72958 253 230 214 
-1.07618 0.0334378 2.0762 98 69 51 
-0.437606 0.135018 1.74052 255 239 224 
-0.706818 0.118318 1.93219 222 195 176 
-0.898618 -0.148327 2.06753 249 228 209 
-0.591057 -0.108271 1.69486 214 187 166 
-0.697553 0.0716379 1.93515 207 171 145 
-0.846391 -0.112002 2.03411 239 207 184 
-0.383779 0.0410435 1.70205 231 214 198 
-0.0746079 -0.0720041 1.30228 218 197 178 
-0.275388 0.0826321 1.62564 217 190 169 
-1.05545 -0.184452 2.07799 105 76 60 
-0.122217 0.0457328 1.51822 217 183 158 
-0.12693 -0.091895 1.35593 197 171 154 
-0.294821 0.0252123 1.63893 235 214 195 
-0.306573 0.152261 1.64543 223 201 187 
-1.07306 -0.215627 2.0573 90 82 69 
-0.328807 -0.100739 1.66317 238 212 187 
-1.23698 0.0905313 1.72629 215 184 164 
0.138579 -0.0300425 1.41457 226 205 184 
-0.319181 0.168725 1.65521 227 210 194 
-1.06033 -0.152202 2.07627 112 79 62 
-0.751357 0.116505 1.96288 222 195 176 
-0.724452 0.0288799 1.94502 221 193 169 
-0.135722 -0.153457 1.52351 255 245 233 
0.155434 0.101876 1.38496 208 183 163 
-0.35837 -0.133478 1.68673 239 214 192 
0.0785826 0.010503 1.43383 211 185 168 
-0.436891 -0.0170764 1.74235 217 192 170 
0.082573 -0.261108 1.45074 207 172 150 
0.167088 -0.154165 1.40335 221 194 175 
-0.565797 0.0816149 1.64783 222 199 181 
-1.11417 -0.0195265 1.9997 91 65 48 
-1.13681 -0.498028 1.89264 128 110 100 
-0.11925 -0.107644 1.51946 234 199 169 
-0.676131 -0.155375 1.91242 244 224 199 
-0.629566 -0.143659 1.87881 255 253 238 
-0.842395 -0.0926626 2.02729 248 214 189 
-1.10906 -0.537795 1.94009 48 31 24 
-0.557923 -0.269996 1.68573 254 241 225 
-1.14449 -0.0329816 1.9488 27 16 12 
-0.442604 -0.276048 1.74397 236 208 187 
-0.579561 -0.0586235 1.65686 164 137 116 
-0.591998 0.114212 1.6651 212 191 160 
-1.12495 -0.268041 1.95478 68 51 35 
-1.02459 -0.11335 2.1418 75 49 34 
0.118563 0.196896 1.39547 179 150 120 
-0.111301 0.16487 1.50974 198 171 152 
-0.36878 0.0157107 1.69463 211 185 162 
-0.886898 0.047368 2.05974 211 182 166 
-1.15416 0.00446637 1.74427 194 171 155 
-1.20294 -0.0451756 1.70787 238 211 192 
-1.11729 -0.132865 2.00825 39 34 28 
-0.161873 0.151607 1.55042 224 207 200 
0.139568 0.0633296 1.39694 173 141 120 
-0.437085 -0.313216 1.74792 233 210 194 
-1.10003 -0.0196491 2.02557 55 33 19 
-0.227501 0.170513 1.59332 198 175 159 
-0.518231 -0.256778 1.6596 255 243 227 
-0.378699 -0.0303172 1.70379 209 186 168 
-0.108347 0.0516247 1.32321 232 206 191 
0.113319 -0.085532 1.43527 176 144 119 
-0.0841917 -0.102569 1.33399 216 195 176 
-0.907192 0.12577 1.86646 155 159 75 
-0.0751568 0.177536 1.29998 244 225 208 
-1.19892 0.00867587 1.70308 255 240 225 
-0.591524 0.0401105 1.66891 242 230 218 
-0.102705 -0.0820752 1.33269 224 206 186 
-0.842942 -0.0499436 2.02708 241 210 189 
-0.563005 -0.108656 1.68037 218 193 173 
-0.834401 -0.132716 2.02697 223 186 160 
-1.13845 0.109041 1.9711 71 54 28 
-0.554214 -0.193879 1.6814 208 177 156 
-1.12751 -0.333599 1.94055 37 29 16 
-1.0365 0.000143076 2.13294 66 43 27 
-0.666326 -0.0883194 1.90146 247 229 215 
-0.355295 0.0534769 1.68422 217 190 169 
-1.13455 -0.416012 1.9096 47 33 24 
-0.55349 0.090014 1.64263 214 192 169 
-1.09152 -0.293484 2.01653 29 28 24 
-0.260565 0.17719 1.61731 203 178 158 
-0.864619 -0.217292 2.04436 225 191 166 
-0.126125 0.0264717 1.52018 210 176 151 
-0.291813 0.163183 1.63902 232 209 193 
0.131669 -0.0373131 1.42288 219 187 166 
-0.692633 0.0972736 1.92168 203 166 140 
-0.100074 -0.20594 1.35798 254 227 206 
-0.835947 -0.0329743 2.02958 223 198 176 
-0.733241 -0.148338 1.9504 231 201 175 
-0.727437 -0.220848 1.94607 255 238 218 
0.104151 -0.232126 1.44192 210 184 167 
-0.109946 -0.204061 1.36535 255 251 240 
