ply                 
format ascii 1.0    
element vertex 1196
property float x    
property float y    
property float z    
property uchar red  
property uchar green
property uchar blue 
end_header          
-0.729232 -0.62444 1.96912 175 143 122 
0.127747 -0.109798 1.4309 247 220 193 
-0.192158 -0.5309 1.58525 193 152 134 
0.12359 -0.126022 1.4328 241 215 190 
-0.165038 -0.438888 1.56408 255 253 241 
0.116217 -0.280562 1.43914 163 136 117 
0.131178 -0.250526 1.42942 251 230 211 
-0.173593 -0.413363 1.57003 185 153 128 
0.131931 0.0374744 1.40073 172 142 118 
-0.998604 -0.130542 2.15238 237 212 190 
-0.235813 0.0597997 1.59784 181 150 130 
-0.174248 -0.255852 1.5653 185 156 138 
0.0960664 0.0701516 1.42447 227 203 179 
-1.04448 0.0239383 2.19025 221 194 175 
-1.17816 -0.284623 1.76826 93 65 51 
0.132549 0.04508 1.40112 142 114 92 
0.0846942 0.111113 1.42726 184 147 120 
-1.0541 -0.487525 2.14015 207 177 151 
-0.320913 -0.511809 1.67613 187 152 130 
0.151847 0.151648 1.38206 116 88 67 
0.133209 0.0448206 1.40125 154 126 104 
-0.157352 -0.401129 1.55793 252 236 223 
-0.0430692 -0.368866 1.33168 207 182 160 
0.158318 0.0449045 1.38577 227 210 192 
-1.17551 -0.0448557 1.74962 112 90 69 
-0.180591 0.0471649 1.56156 254 237 217 
-0.143216 -0.250658 1.54292 239 222 202 
-0.784101 -0.61854 2.00528 192 152 126 
0.126031 0.0666873 1.40445 156 124 101 
-1.18096 -0.243221 1.76695 103 74 60 
-0.225838 -0.598214 1.61051 179 142 115 
-0.311581 0.0159226 1.6555 246 221 201 
0.120945 0.062188 1.4077 234 211 193 
-1.1892 -0.0627375 1.7197 167 146 129 
-0.30573 0.0115299 1.65212 165 137 116 
0.139399 0.0407649 1.3992 176 144 121 
-0.252993 -0.567019 1.63058 194 150 121 
-0.221817 0.0850729 1.58935 254 246 235 
0.140591 0.0735876 1.39481 203 172 151 
-0.164781 0.0569435 1.54862 255 241 230 
-0.435229 0.0871087 1.74399 207 172 153 
0.137891 0.00875912 1.40016 217 195 172 
0.162788 -0.131797 1.4089 163 134 116 
0.133571 0.154428 1.39546 161 124 97 
-0.0727493 -0.365575 1.35295 225 201 173 
0.151369 -0.104738 1.41331 253 235 213 
-1.03338 -0.369623 2.18356 235 212 198 
-0.24296 -0.514597 1.62041 249 232 214 
-0.185019 -0.390705 1.57784 252 245 226 
-0.139978 -0.289329 1.54206 200 164 138 
-0.298655 -0.579685 1.6637 175 138 111 
-0.222026 0.0444895 1.58964 168 137 117 
-0.0407893 -0.372517 1.32894 254 245 230 
-0.29366 0.0804814 1.64112 254 251 232 
-0.155185 -0.380823 1.5579 253 254 238 
0.13789 0.00891139 1.40016 214 192 169 
-0.141682 -0.410805 1.54877 207 169 148 
-0.114467 -0.535412 1.53327 253 237 221 
-0.213832 -0.380788 1.59584 255 248 232 
-0.0766559 -0.300449 1.35255 192 165 144 
-1.19887 -0.198055 1.74334 129 100 82 
0.115417 0.0663307 1.41066 174 138 114 
-0.742976 -0.223369 1.96931 250 223 202 
-0.134032 -0.498633 1.54595 239 224 205 
0.116878 0.128959 1.40671 149 114 86 
-0.473375 -0.549114 1.74721 171 146 126 
-1.17831 -0.0365248 1.74712 179 162 146 
-0.0950434 -0.52851 1.51847 160 113 87 
0.16506 -0.102627 1.40832 175 146 128 
-0.150159 -0.181372 1.5476 252 234 220 
-0.128356 -0.496503 1.54222 248 232 216 
0.168308 0.13569 1.37638 136 100 74 
0.0869676 -0.00251948 1.43082 192 165 144 
-1.17774 -0.0343711 1.74509 188 178 169 
-0.0962989 -0.361775 1.3669 209 183 166 
0.0945362 0.0574219 1.42573 189 158 137 
0.109853 -0.246559 1.4404 197 170 151 
0.103917 0.0317021 1.41864 255 238 222 
0.166692 -0.178571 1.40881 184 161 143 
-0.224283 0.164406 1.58972 195 159 133 
-0.142526 -0.538254 1.55178 165 121 92 
-0.15085 -0.235214 1.54911 197 165 144 
-0.152554 -0.43671 1.55588 174 142 121 
-0.510788 -0.406018 1.66553 207 183 159 
-0.0896526 0.0975767 1.31335 206 178 156 
-0.324969 -0.328361 1.67178 186 161 139 
0.127694 0.054792 1.40256 175 147 126 
0.135524 0.139652 1.39393 161 120 92 
-0.865127 -0.571233 2.06727 167 126 104 
-0.218804 -0.377643 1.59814 198 172 155 
-1.04694 -0.529529 2.14669 75 40 20 
0.140037 -0.141243 1.42361 255 234 215 
-0.172003 -0.322832 1.56879 252 231 212 
-0.10747 -0.562712 1.52932 191 159 136 
-0.88925 -0.585746 2.0832 206 180 163 
0.166691 -0.169753 1.40805 197 170 149 
0.172141 0.0450517 1.37569 232 217 194 
-0.165956 -0.572791 1.5695 253 234 217 
0.181727 0.0561129 1.37178 215 191 167 
-1.18465 -0.214731 1.7631 100 68 53 
-0.245525 0.0487075 1.60742 250 237 220 
-0.333965 -0.528407 1.68318 188 156 135 
-1.1934 -0.238867 1.74695 106 83 65 
0.150447 -0.228047 1.41786 193 163 137 
-0.185483 -0.539169 1.57839 172 135 109 
0.171076 -0.0765677 1.40146 185 155 131 
-0.0886648 -0.523866 1.51472 249 223 206 
0.143979 0.139646 1.38945 126 94 73 
-0.280952 -0.552013 1.64788 172 144 120 
-1.18891 -0.2711 1.74991 198 171 150 
-1.03343 -0.369506 2.18419 235 212 198 
-1.07572 -0.414019 2.1038 82 51 31 
-0.306625 0.0208876 1.65139 205 174 154 
-0.935895 -0.461972 2.11139 182 160 139 
0.12604 0.00297211 1.40729 212 186 163 
-0.262765 -0.512436 1.63328 252 233 216 
-0.247839 -0.517805 1.62301 188 149 120 
-0.963976 -0.294334 2.13151 184 148 124 
-0.169222 -0.3367 1.56666 194 163 143 
-1.04284 -0.0108534 2.18979 201 166 147 
-1.03991 -0.094757 2.18 242 226 211 
-0.21483 0.0444877 1.58415 184 149 127 
-0.135809 -0.431233 1.54556 188 152 128 
-0.257391 -0.494095 1.63187 194 172 158 
-0.0397862 -0.361734 1.32921 212 185 164 
0.130552 -0.220803 1.4305 255 243 227 
-0.864782 -0.0364709 2.05461 255 242 226 
0.0918495 0.0549252 1.42691 247 225 202 
-0.417624 -0.440003 1.74043 199 165 140 
-0.183031 -0.309959 1.57286 254 246 227 
-0.117658 -0.545728 1.53544 246 224 203 
0.147306 -0.170903 1.42016 196 171 151 
0.129196 0.0331693 1.40274 240 220 195 
-0.0733657 -0.286865 1.34987 186 158 134 
-0.123577 -0.548739 1.53993 177 140 114 
0.138806 0.0295216 1.39833 186 155 134 
0.102855 0.0893544 1.42017 216 188 164 
-0.287783 -0.476554 1.65112 210 189 172 
-0.137392 -0.455912 1.54594 197 168 150 
0.0955334 -0.201487 1.44808 254 233 216 
-1.04779 -0.276726 2.17801 136 95 73 
-0.409683 -0.536356 1.73917 169 139 113 
-1.01716 -0.534744 2.17304 205 179 162 
0.177273 0.1598 1.36406 204 176 154 
0.11081 -0.205159 1.43947 193 167 150 
-0.0565184 -0.252145 1.33694 238 220 200 
-1.01673 -0.514152 2.18165 215 188 169 
0.140204 -0.141291 1.42378 255 234 215 
-0.149762 -0.225386 1.5447 253 241 227 
-1.18552 -0.248672 1.75823 186 153 136 
0.125965 -0.222777 1.43144 191 164 143 
0.134187 0.0190583 1.40002 220 198 175 
-0.315892 -0.519083 1.67065 200 165 143 
-0.355209 -0.484346 1.69991 201 174 155 
0.147208 -0.203985 1.41763 192 167 145 
0.121388 0.0118515 1.41013 241 220 199 
0.114377 -0.202201 1.43806 254 235 218 
-1.05003 0.00143104 2.19008 96 70 55 
-1.17365 0.0191017 1.75897 154 135 118 
-0.165614 -0.317107 1.56162 201 173 151 
-0.444243 -0.229691 1.75476 204 173 152 
-0.93016 -0.4626 2.11026 214 192 171 
0.171389 0.103608 1.37624 204 180 156 
-1.07765 -0.39924 2.10433 84 51 32 
-0.0731571 -0.0135275 1.30388 192 155 126 
-0.176268 -0.562468 1.57488 182 145 118 
-0.312285 0.00963651 1.65603 250 223 204 
-0.17659 -0.0284405 1.56113 254 226 204 
-0.85345 -0.25378 2.05452 250 222 200 
-0.269258 -0.404704 1.63608 193 166 147 
0.118148 -0.232405 1.4375 247 221 204 
-0.712057 -0.185672 1.94627 255 237 213 
-1.02867 -0.554737 2.176 193 165 144 
0.0854915 0.135713 1.42752 195 161 134 
0.164755 -0.102536 1.40802 175 148 127 
-0.173803 0.050971 1.56034 186 154 133 
-0.344631 -0.0702803 1.68057 190 156 131 
0.13824 0.02911 1.39776 191 160 139 
0.132721 0.167075 1.39619 228 197 169 
-0.421866 -0.0499161 1.73741 191 156 136 
0.10341 -0.005351 1.42141 226 202 178 
-0.252621 -0.47472 1.62813 252 236 220 
0.105995 -0.04151 1.44088 217 186 165 
-0.15222 -0.510103 1.55718 255 241 230 
0.146544 -0.214949 1.41873 189 162 143 
-0.228212 -0.510725 1.61156 252 236 221 
-1.04994 0.00134022 2.18894 95 72 58 
-0.827463 0.11416 2.04955 219 192 175 
0.129671 -0.225521 1.43035 255 240 224 
-0.774641 0.0420174 1.98852 194 162 139 
-1.09498 -0.459293 2.06196 92 66 53 
-0.219132 0.0919262 1.59108 180 149 129 
-1.13388 0.0219149 2.04944 112 89 75 
-0.282617 -0.571373 1.6484 196 168 147 
-0.0874175 -0.593444 1.51805 190 153 127 
-0.251129 0.0472494 1.61067 255 247 228 
-0.160371 -0.235831 1.55611 178 146 123 
-1.11789 -0.473495 2.01813 83 54 38 
-0.251235 0.0617468 1.60982 208 179 161 
-0.134152 -0.577813 1.54885 227 199 178 
-0.306083 0.0584546 1.65019 254 246 225 
-0.207711 0.0825552 1.5801 197 169 148 
-0.445731 -0.220316 1.75545 229 208 189 
0.14072 -0.178742 1.42326 255 239 224 
-1.11827 -0.474495 2.02119 90 61 45 
-0.00726408 -0.600544 1.46683 181 145 121 
-0.168775 -0.304612 1.56221 254 236 222 
-0.124107 -0.50675 1.53722 248 223 203 
-0.21042 0.0800663 1.58046 215 189 166 
-0.694501 -0.154531 1.93606 250 236 223 
0.152073 0.125505 1.37982 183 149 122 
-0.420167 -0.431307 1.74294 201 174 157 
-0.15562 -0.21065 1.55076 255 244 232 
-0.182857 -0.37166 1.57483 248 224 200 
-1.18346 -0.233738 1.76682 153 117 101 
-0.312656 -0.504752 1.66821 248 231 215 
-0.883185 -0.274948 2.06964 194 159 139 
-0.682111 -0.202847 1.92553 239 213 190 
-0.222569 -0.532439 1.60636 200 165 143 
0.120645 -0.107629 1.434 184 148 122 
-1.03862 -0.0649159 2.18867 207 186 169 
0.103749 0.120367 1.41668 215 185 161 
-0.176204 0.059034 1.56174 253 245 232 
0.107769 -0.0704806 1.44292 254 236 222 
-0.105608 0.161184 1.32069 255 247 234 
0.104796 0.0600037 1.41684 147 111 85 
0.137853 -0.00913218 1.40095 110 86 60 
-0.152831 -0.493966 1.55858 255 248 232 
0.111002 -0.187457 1.439 255 228 207 
0.158572 0.0257537 1.38882 235 212 194 
0.122797 0.163379 1.40227 178 146 121 
-0.454339 0.0796599 1.75567 212 177 157 
0.151708 -0.233794 1.41567 245 226 209 
-0.167467 -0.473099 1.56843 194 167 148 
-0.364365 -0.53674 1.70676 181 145 121 
-0.191625 -0.568649 1.5859 141 99 85 
-0.161957 -0.327902 1.55973 192 161 133 
-0.123289 -0.507295 1.53845 228 203 181 
-0.0849302 -0.597717 1.51629 246 221 201 
0.137281 0.0147806 1.39809 152 125 98 
0.151814 -0.19046 1.41746 254 233 216 
0.151868 0.202605 1.38273 231 198 167 
-1.13185 -0.361124 2.0288 94 71 57 
0.173308 -0.0844056 1.40243 192 164 143 
-0.244768 -0.503384 1.62292 213 185 164 
-1.08697 -0.104021 2.12086 49 30 16 
-0.451711 -0.291148 1.76041 255 255 243 
-0.278858 0.0311831 1.62956 172 145 126 
-0.371477 -0.0646843 1.70036 197 169 147 
-0.234644 -0.396421 1.61182 248 231 213 
0.15639 0.132699 1.38252 155 125 99 
0.153144 0.0443059 1.38955 220 197 179 
0.147568 -0.219033 1.41937 234 214 190 
-1.02876 -0.494006 2.18241 216 197 182 
0.137001 -0.157727 1.42463 249 227 206 
0.0962582 0.0900231 1.42204 224 196 174 
0.104711 0.0633168 1.41459 185 148 121 
-0.258205 -0.612554 1.6349 210 179 158 
-1.19832 -0.193323 1.74477 177 155 134 
0.13573 -0.0458085 1.42305 189 157 132 
-0.410478 -0.604628 1.74026 252 230 207 
-0.2234 -0.451046 1.6054 254 233 214 
0.152133 0.193177 1.38294 229 195 167 
0.152576 -0.139352 1.4159 255 234 213 
0.141832 -0.192598 1.42372 253 237 222 
-0.309531 -0.109162 1.66373 244 215 197 
-1.19486 -0.271833 1.73955 143 122 103 
-0.270828 0.0703133 1.62303 254 241 225 
-1.133 0.117394 2.05936 60 39 20 
-0.706173 -0.581015 1.95094 170 134 110 
0.152548 -0.23381 1.41651 242 223 206 
0.0992628 0.0930749 1.42084 146 111 83 
-0.160859 -0.00701544 1.5486 201 171 147 
-0.0727015 -0.130491 1.34526 253 255 242 
-0.0662191 -0.158486 1.34168 253 230 212 
0.124258 0.140852 1.40297 207 177 151 
-0.347674 -0.304403 1.68941 199 163 139 
-0.698565 -0.255388 1.93454 241 219 198 
-0.418524 -0.207475 1.73852 197 163 138 
0.0870246 0.0523874 1.42908 255 234 217 
0.114302 -0.222021 1.4384 180 147 128 
0.167313 -0.139655 1.40685 218 195 179 
-0.891369 -0.31773 2.0812 252 239 220 
-0.318151 -0.51468 1.67331 230 202 180 
0.144415 0.0362731 1.39371 158 130 108 
0.119511 0.0151729 1.41056 245 227 207 
-0.151689 -0.256105 1.54915 226 199 180 
-0.743857 -0.644346 1.95704 90 84 72 
-1.02513 -0.149585 2.17162 254 229 209 
0.142098 -0.243939 1.42422 254 237 221 
0.151733 -0.0838196 1.41413 190 155 133 
-0.350266 -0.439466 1.69338 251 230 211 
-0.143306 -0.185865 1.54263 254 241 225 
-1.01019 -0.332601 2.16695 188 154 129 
-0.303912 0.0681418 1.65003 206 179 160 
-0.437301 -0.512475 1.75668 241 213 191 
-1.16616 -0.0122402 1.77181 42 26 13 
0.123609 -0.248767 1.43455 254 236 216 
0.1383 -0.219426 1.42484 253 237 221 
0.133521 0.104491 1.39703 135 103 78 
-0.208166 0.109261 1.57733 183 151 130 
-0.0718123 -0.00957077 1.3027 249 227 203 
-0.429995 0.0474743 1.74092 202 174 153 
-0.175413 0.0342616 1.55721 254 236 212 
-0.950067 -0.38317 2.121 220 185 163 
-1.19459 0.00073353 1.71896 192 173 158 
0.17099 0.157346 1.37185 213 183 157 
-0.175814 0.068058 1.55901 236 215 196 
0.0899232 0.00391418 1.42788 192 166 143 
-0.293332 0.0865245 1.63933 200 173 152 
0.114616 -0.0592244 1.43801 190 163 142 
0.164125 -0.179614 1.4107 192 167 147 
-0.796755 -0.393695 2.01099 251 215 193 
-0.0788777 -0.286565 1.35293 248 227 208 
0.133634 -0.100928 1.42382 183 138 109 
0.118755 0.0178336 1.40982 245 224 203 
-0.211977 -0.513441 1.59875 249 232 214 
-1.19158 -0.0567495 1.71559 92 69 51 
-0.205393 -0.409068 1.59643 210 182 161 
-0.0540924 -0.591986 1.49494 231 208 190 
0.165123 0.0332531 1.38342 176 154 133 
0.17717 -0.211146 1.4019 193 162 134 
-0.273108 -0.475286 1.64151 205 179 162 
-1.20158 -0.227102 1.73356 80 56 44 
0.141176 0.143537 1.39092 126 94 73 
0.109041 -0.275535 1.43973 231 208 190 
0.122708 0.137025 1.40398 179 150 120 
-0.0643711 -0.593762 1.50177 193 157 131 
0.10897 0.0135065 1.41619 198 170 149 
0.0986033 -0.195101 1.44513 203 175 154 
-0.437314 -0.536914 1.7573 251 229 208 
-0.128629 -0.462088 1.53973 242 223 206 
-0.0885007 -0.367252 1.36398 185 159 142 
-0.151387 -0.470757 1.55726 246 227 212 
-1.02677 -0.252639 2.17087 186 150 126 
-0.0829358 0.0497045 1.30637 251 247 235 
-0.748924 0.00562635 1.9692 239 211 187 
0.178515 0.0537182 1.37373 141 115 90 
-0.183306 -0.31916 1.57184 254 238 215 
-0.376222 0.123771 1.69972 175 140 120 
-0.229343 -0.605189 1.61368 246 221 201 
-0.489137 -0.612348 1.79206 181 146 126 
-0.432007 -0.224343 1.74527 252 225 206 
-0.168531 -0.450641 1.56685 236 218 198 
0.124262 0.0196581 1.40525 217 195 174 
0.0918033 0.0787806 1.42764 159 131 109 
-0.146865 -0.571518 1.55572 255 250 234 
-0.460386 -0.120316 1.7608 236 213 197 
-0.210063 0.0231482 1.58118 166 135 114 
0.163529 -0.179769 1.41011 195 168 149 
-1.19017 -0.173795 1.76212 158 123 101 
-0.239674 -0.583029 1.62211 241 217 191 
0.164914 0.145779 1.37595 129 101 77 
0.0850439 0.00754561 1.43082 255 241 222 
-0.068246 0.211714 1.27591 181 158 114 
-0.99689 -0.364122 2.15603 246 215 195 
-0.157795 -0.434533 1.56023 255 250 236 
-0.194599 0.0202836 1.57207 254 227 206 
0.140604 -0.195702 1.42287 254 238 222 
-0.170368 -0.456073 1.5698 180 149 128 
-0.336178 -0.205439 1.67855 202 162 137 
-0.30788 0.0869801 1.64965 201 166 146 
0.170621 -0.232039 1.4063 249 235 226 
0.146978 0.168327 1.38781 199 164 134 
0.0838589 -0.0131422 1.43341 243 222 201 
0.09485 0.00410281 1.42562 196 173 155 
-1.07076 -0.332014 2.12942 59 32 15 
0.107259 -0.308179 1.44429 250 243 227 
-0.187776 -0.164886 1.57223 253 222 202 
-0.137454 -0.174223 1.53676 254 246 223 
-0.268068 0.0527843 1.62312 188 157 139 
0.159016 0.135394 1.38097 165 128 102 
0.106337 -0.207819 1.44111 240 217 199 
0.108165 0.0209843 1.4162 252 231 212 
-0.205175 0.0738104 1.57895 255 233 212 
-0.416468 -0.229555 1.73784 192 152 127 
-0.765894 0.0654886 1.9797 202 174 152 
-1.18378 0.00033058 1.7384 226 208 188 
-1.19393 -0.194229 1.74738 147 102 79 
-0.370161 -0.219998 1.70314 252 229 213 
-0.844753 -0.596673 2.0514 181 137 112 
0.165193 0.033169 1.38348 176 154 133 
-0.269465 0.00648636 1.63117 245 220 198 
-0.454149 0.0795786 1.75625 213 178 158 
0.0976519 -0.325581 1.44963 251 232 217 
-0.223346 -0.480766 1.60665 251 232 215 
-0.0784161 -0.163812 1.348 194 165 147 
0.0896845 0.13243 1.42478 239 212 191 
0.129151 0.05992 1.40137 247 226 205 
0.149489 -0.215797 1.41849 175 148 129 
0.126885 0.124392 1.40276 155 119 87 
-0.168448 0.0139598 1.55361 246 220 197 
0.173822 0.0351754 1.37755 160 133 112 
0.118785 0.165704 1.40443 230 199 171 
-0.0748509 -0.00652794 1.30321 198 172 147 
-0.890643 -0.290103 2.07443 190 153 127 
-0.196193 0.0509471 1.57239 192 161 140 
0.183331 0.0162618 1.37245 146 118 94 
0.11479 0.129158 1.40715 150 113 86 
-0.115229 -0.0411536 1.33065 201 175 158 
0.13425 -0.146314 1.42746 199 171 149 
-1.09339 -0.351691 2.0813 182 151 133 
0.123859 -0.259378 1.43459 247 224 208 
-0.903333 -0.0236376 2.08234 230 213 195 
-1.17544 -0.0254062 1.75172 198 177 158 
0.149686 0.169952 1.38591 146 107 76 
-1.056 -0.076664 2.1811 85 66 49 
-0.165161 -0.555442 1.57119 209 172 146 
-0.186233 -0.328332 1.5764 194 168 145 
-0.151515 -0.47064 1.55706 245 226 212 
-0.236733 0.15409 1.6009 253 236 218 
0.101481 -0.316371 1.44662 255 244 230 
0.143131 -0.17439 1.42199 254 235 220 
-1.10887 -0.00438671 2.09399 130 97 80 
-0.182403 -0.443624 1.57579 251 242 225 
0.106348 -0.00140114 1.41917 175 148 121 
-0.170398 -0.347894 1.56587 254 248 232 
-1.0883 -0.143566 2.11585 76 49 32 
0.169823 -0.13513 1.40538 253 232 213 
0.10379 -0.252487 1.44511 249 228 211 
-0.187826 0.00812745 1.56625 197 163 138 
-1.20353 -0.184168 1.7334 154 128 113 
0.113381 -0.225941 1.43809 250 229 208 
-1.19318 0.00022878 1.72473 219 200 183 
0.170038 0.177079 1.37225 155 118 92 
-0.166851 -0.0436751 1.55611 198 162 138 
-0.774231 0.0164103 1.98522 189 161 137 
-0.141294 -0.570648 1.55531 211 181 157 
-0.093166 0.146785 1.31406 217 196 177 
-0.179651 -0.434285 1.57759 253 237 224 
-0.414383 -0.387194 1.73689 186 156 130 
-0.347887 -0.385026 1.69028 250 229 208 
-0.309492 -0.609169 1.66943 213 182 161 
0.154765 0.09549 1.38555 117 91 68 
-0.361724 0.0412678 1.68938 207 177 153 
-0.256423 -0.484662 1.6289 255 246 231 
0.114398 -0.171159 1.43759 180 146 121 
-0.945658 -0.324951 2.11829 255 238 222 
0.142654 0.154663 1.39065 144 104 79 
0.133357 -0.14641 1.42653 200 170 146 
0.151568 -0.198412 1.417 255 237 225 
0.147158 0.0534141 1.3903 116 91 69 
-1.19295 -0.115942 1.70426 97 78 61 
-0.299283 0.065311 1.64545 253 232 213 
-0.679796 -0.487123 1.92976 205 175 149 
-0.865855 -0.21092 2.05871 198 165 146 
-1.19795 0.00711254 1.71321 151 128 110 
-1.09512 -0.362965 2.07812 182 149 130 
0.114885 -0.171485 1.43809 182 148 123 
-1.1153 -0.0371489 2.08892 44 37 27 
-1.08598 -0.222764 2.10942 62 40 26 
0.0866614 0.175219 1.42575 230 198 173 
-0.426215 -0.300695 1.74509 248 227 210 
-0.298093 -0.355977 1.65222 246 229 213 
-1.11728 0.0503562 2.08495 45 26 11 
0.116385 0.232565 1.40239 236 215 186 
-1.07547 -0.577293 2.08079 46 33 24 
-0.0731052 -0.292997 1.34987 209 182 161 
0.117859 -0.213456 1.43504 217 194 176 
-1.08118 -0.0752351 2.13687 68 40 26 
-0.418243 -0.199162 1.73861 219 192 171 
-0.237954 0.171625 1.5991 241 227 216 
0.138957 -0.204908 1.42323 195 168 147 
-0.177027 0.00754097 1.56212 194 158 134 
0.0965198 -0.188481 1.4479 254 233 216 
0.176285 0.174163 1.36765 175 138 112 
-0.14569 -0.567152 1.55618 247 221 204 
0.144494 -0.232458 1.42088 246 225 206 
0.139422 -0.204851 1.42371 193 166 145 
-1.18234 -0.149311 1.75089 169 143 120 
-0.0931477 0.156934 1.31311 210 192 172 
0.15155 -0.177355 1.4175 204 183 162 
-0.745017 0.0879478 1.96464 232 204 182 
-0.333229 -0.533505 1.68191 182 152 128 
-0.353348 -0.063283 1.68824 252 230 216 
0.142319 -0.126731 1.42008 251 223 202 
-1.08331 -0.10669 2.13498 40 22 8 
-0.125366 -0.383791 1.53774 222 201 180 
-0.299253 0.0702568 1.64615 250 231 214 
-0.243472 -0.49082 1.62301 241 216 196 
-1.06733 -0.403585 2.12266 112 76 54 
-0.209914 -0.500592 1.59658 234 208 191 
-0.172653 -0.176288 1.5614 243 226 210 
0.156662 0.0530289 1.38415 137 114 96 
0.143343 -0.247924 1.42206 195 168 149 
0.170999 -0.0978563 1.40571 243 218 198 
-0.970933 -0.039222 2.12785 254 255 239 
-0.240149 -0.510761 1.62105 248 231 215 
-0.284586 0.0664009 1.63545 255 247 230 
-1.08154 -0.402242 2.09925 94 61 44 
0.100051 0.0273406 1.42157 195 166 148 
-1.10523 -0.101843 2.10062 122 86 64 
0.111781 -0.218273 1.43935 254 233 214 
0.170634 0.0788712 1.37457 150 115 87 
0.130627 -0.000219316 1.40409 110 83 62 
0.131756 -0.210164 1.42747 254 233 212 
-1.05747 -0.0449104 2.18654 39 25 14 
0.138968 -0.127588 1.42409 247 220 199 
0.142285 0.172565 1.39023 159 124 96 
-0.110202 0.136708 1.32623 215 198 182 
-0.131047 -0.520633 1.54643 200 166 141 
0.120591 0.232914 1.3994 240 221 189 
0.135187 -0.0993061 1.4229 174 133 105 
0.103598 0.127063 1.41595 192 158 133 
-0.16627 -0.338016 1.56301 244 214 188 
-0.144692 -0.366226 1.54941 193 158 136 
0.139842 -0.235758 1.42443 244 225 208 
-0.179265 -0.138611 1.56592 238 211 190 
0.142347 0.0546297 1.39335 124 96 74 
-0.305681 0.064349 1.65001 248 221 202 
-0.939718 -0.329437 2.11462 207 172 150 
0.134308 0.144689 1.39583 219 184 156 
-0.0601816 -0.342725 1.34288 250 234 219 
0.187683 0.0477729 1.36791 230 213 193 
-0.0897085 0.104073 1.31306 254 244 234 
-0.6025 -0.627696 1.87752 171 153 133 
0.106012 -0.161435 1.44146 252 231 212 
-0.108722 -0.00770664 1.32596 248 223 203 
0.0959895 -0.25203 1.44965 255 236 219 
-0.0588298 -0.158353 1.33637 201 170 150 
0.111295 0.158226 1.41256 232 201 173 
-0.369776 -0.162762 1.70142 242 219 203 
0.157264 -0.00584713 1.38953 144 118 91 
-0.173367 -0.424375 1.57117 235 216 202 
-1.09326 -0.349288 2.08161 189 156 137 
-1.10241 0.0888951 2.12212 129 102 83 
0.141495 -0.205117 1.42581 188 160 139 
0.112486 0.0352365 1.41238 245 220 200 
-0.145971 -0.250357 1.54551 209 196 179 
-0.101651 0.0775788 1.32111 219 198 177 
-0.114436 -0.592945 1.53804 185 151 123 
-0.732567 -0.10152 1.95968 255 245 227 
0.100527 -0.15533 1.4444 255 238 220 
-0.0981655 -0.0684101 1.32185 231 208 192 
0.119468 0.00439012 1.41205 219 197 174 
0.139481 -0.224827 1.42426 255 247 232 
0.0904402 0.0352203 1.42666 215 180 158 
-0.19577 -0.460357 1.58733 253 239 226 
0.130355 0.180053 1.39574 173 139 111 
-1.15496 -0.00414406 2.01158 93 64 46 
-0.215967 -0.0087444 1.58817 185 159 132 
-0.175211 -0.479278 1.5744 255 246 231 
-0.711726 -0.411239 1.95195 233 201 176 
-0.743738 -0.305487 1.9706 234 206 184 
0.122843 0.046298 1.40664 176 149 128 
-0.0692661 -0.30013 1.34725 200 173 154 
0.126054 0.134985 1.40265 207 176 148 
-0.291485 -0.590512 1.65773 186 151 123 
-0.0901356 0.104001 1.31256 254 244 234 
0.152852 -0.215788 1.41482 195 170 150 
-0.877491 -0.0216574 2.06422 241 219 198 
0.172444 0.134803 1.37485 193 159 134 
-0.166271 -0.351669 1.56291 177 149 128 
-0.205416 0.0980123 1.57729 235 213 192 
-0.24502 -0.452144 1.62205 244 226 206 
0.17901 0.145951 1.3666 143 111 88 
0.152168 0.14211 1.38298 127 91 69 
0.121231 0.0292176 1.40665 173 141 118 
0.129393 0.216935 1.3947 193 159 134 
-0.132334 -0.537013 1.54615 187 163 137 
-1.12833 -0.0477927 2.07382 35 28 22 
-0.24165 0.174314 1.60099 251 241 229 
-0.0722221 0.118283 1.29974 205 179 162 
-1.07766 -0.239914 2.12769 70 47 33 
-0.205026 0.092148 1.57739 190 162 141 
-0.203936 0.0901741 1.57812 193 165 143 
-0.432262 -0.281508 1.74722 214 193 174 
-0.187016 -0.599072 1.58786 176 139 113 
-0.0628189 -0.304905 1.34269 255 233 210 
0.152402 0.210657 1.38301 228 191 164 
-1.07269 -0.225591 2.14371 51 35 20 
-0.865565 -0.0290619 2.05307 204 178 155 
0.0968545 -0.247251 1.4492 204 177 156 
-0.243666 -0.49071 1.62264 245 220 200 
-0.305211 -0.313427 1.66035 242 220 199 
-0.201069 0.027961 1.57578 217 189 167 
-0.930398 -0.628139 2.10456 155 132 118 
-0.0822081 0.0882702 1.30633 216 189 168 
-0.821321 0.080108 2.04336 220 194 177 
-0.118749 -0.495707 1.5373 189 159 135 
0.0975635 -0.299898 1.44739 243 221 198 
-0.866852 0.121025 2.05986 233 206 185 
0.142474 -0.126304 1.41966 245 218 197 
0.159594 0.0207163 1.38869 199 174 152 
-0.435909 -0.304275 1.75075 205 177 153 
-0.435326 -0.287046 1.75068 198 171 152 
-1.06871 -0.454744 2.11076 77 41 27 
0.133794 -0.223021 1.42924 194 171 155 
-0.201477 -0.420613 1.59092 250 231 214 
0.176811 -0.216417 1.40202 240 222 200 
0.140448 0.110537 1.395 118 86 61 
0.17596 -0.119146 1.39839 249 232 216 
-0.12127 0.0567029 1.33382 210 179 159 
0.172842 0.0493836 1.37636 206 184 160 
-1.08765 0.0518607 2.1489 105 77 56 
0.0980803 0.0274886 1.42146 214 185 167 
0.157878 0.0356758 1.38843 187 165 144 
-0.0479473 -0.279761 1.33253 215 184 164 
-0.179688 0.0424178 1.56107 202 167 145 
0.100039 -0.177095 1.44621 255 240 217 
-1.0306 -0.485612 2.18255 210 188 174 
0.139033 0.112968 1.39329 136 100 76 
0.130094 0.129103 1.40179 172 128 99 
-0.858401 -0.110858 2.05268 226 190 164 
-0.208561 -0.470819 1.59571 254 241 225 
0.183371 -0.169308 1.39527 221 203 181 
0.149774 -0.0758171 1.41436 191 156 128 
-0.0975813 0.0976489 1.31578 203 175 153 
-0.0670352 -0.597516 1.50354 201 164 138 
0.112584 0.13668 1.41048 177 142 114 
-0.870783 -0.36584 2.06471 203 173 149 
-0.0756993 0.0370859 1.30349 244 226 202 
-0.440722 -0.230484 1.75189 216 184 161 
0.167256 0.0138353 1.38334 128 106 82 
-0.0115905 -0.496901 1.38989 149 125 99 
-1.08245 -0.0786812 2.13381 61 32 18 
0.100289 0.157286 1.41762 216 185 156 
-0.371748 -0.266878 1.70482 218 192 175 
-0.339816 -0.439516 1.68923 254 240 227 
0.100843 0.111866 1.41527 173 130 96 
-0.549801 -0.179771 1.68737 223 198 178 
0.105934 0.116367 1.41574 206 178 154 
-0.116235 -0.505526 1.53449 176 141 113 
-1.1032 -0.300589 2.07861 44 34 24 
-0.0422134 -0.394249 1.33087 208 191 173 
0.132095 0.00693743 1.40327 145 118 99 
-0.253684 -0.490074 1.62968 252 234 220 
-1.19288 -0.117235 1.70354 94 79 60 
-0.696315 -0.291957 1.93845 180 146 121 
0.161996 0.0927871 1.38015 191 161 137 
-0.105039 -0.0378458 1.32425 208 186 163 
0.126038 0.132692 1.40352 217 182 154 
-0.327453 -0.596239 1.6806 161 120 92 
-0.142146 -0.174801 1.54046 255 247 226 
0.173889 0.217684 1.36662 174 129 96 
0.135512 0.060867 1.39652 209 182 161 
-1.16383 0.0260347 1.99649 36 20 5 
-0.230507 -0.451866 1.60959 250 229 212 
-1.19399 -0.180322 1.75026 145 109 87 
-0.366738 -0.273637 1.69943 220 198 184 
-1.19397 -0.180316 1.75014 145 109 87 
0.14389 0.145847 1.39009 140 109 89 
-0.944344 -0.287489 2.11587 243 213 189 
0.147138 0.164291 1.38711 132 93 64 
-0.425885 -0.159476 1.7411 220 192 170 
-1.04129 -0.28099 2.18369 234 208 185 
0.117408 0.00369861 1.4126 210 185 163 
0.115275 -0.260413 1.4382 206 179 158 
-0.131911 -0.533253 1.54679 193 159 134 
-0.227686 -0.486019 1.60964 208 183 163 
0.151546 -0.223549 1.41763 249 228 209 
0.176317 -0.130086 1.40071 255 247 234 
-1.19712 -0.216834 1.74424 85 57 43 
-0.241224 0.17437 1.60178 247 235 223 
0.141817 0.172763 1.38978 161 126 98 
0.138651 0.112623 1.39289 136 100 76 
-0.527728 -0.360833 1.67934 251 232 217 
0.126285 -0.215991 1.43184 213 187 170 
-0.081272 -0.301803 1.35457 211 184 163 
0.100987 0.176991 1.41608 227 195 170 
0.135535 -0.214982 1.4256 192 166 149 
0.102198 -0.218447 1.44362 246 220 203 
0.183234 0.0691774 1.37006 191 161 133 
-1.10001 -0.261732 2.09065 110 93 83 
-0.319614 0.126227 1.65875 248 231 213 
0.0941265 0.0653914 1.42613 193 156 127 
0.148988 0.0114085 1.39414 173 146 127 
0.151088 -0.251526 1.41853 234 217 199 
0.0841229 0.167664 1.42745 235 205 179 
-0.720702 -0.210343 1.95151 252 224 203 
0.131289 0.112514 1.39972 128 92 66 
-1.1418 0.000257406 2.03609 48 28 17 
0.114205 0.0171284 1.41356 239 218 197 
-0.344174 0.0728288 1.67603 176 141 119 
0.11392 0.00869603 1.41469 238 215 197 
0.103331 -0.0352411 1.44618 245 226 209 
0.101966 0.109973 1.41474 169 129 94 
0.117184 -0.258351 1.43759 209 180 162 
-1.10096 -0.261054 2.09093 110 96 87 
-0.119532 -0.0422045 1.3344 204 181 163 
-0.132267 -0.595935 1.54602 200 169 141 
-0.806359 -0.564995 2.02194 211 179 156 
-0.331406 0.066237 1.67001 216 189 168 
-0.23222 -0.468993 1.61677 179 135 110 
-0.864773 -0.220243 2.05828 203 172 152 
0.140246 -0.236138 1.42439 246 225 208 
-0.0637615 -0.15214 1.33792 195 164 143 
-0.22401 0.153449 1.59068 249 230 215 
0.0997671 -0.171576 1.44483 197 162 140 
-1.04809 -0.224551 2.18479 105 74 54 
-0.110391 0.0747903 1.32435 248 236 222 
0.0862295 0.0985355 1.42569 159 125 100 
0.146052 0.00775268 1.39445 129 101 80 
0.172493 0.172703 1.37003 196 164 139 
-0.570926 -0.591312 1.85489 208 173 151 
-0.285001 0.141492 1.6363 225 207 193 
-0.24027 -0.0174873 1.60694 200 170 144 
0.105063 0.00830969 1.41869 254 237 219 
-0.87229 -0.13703 2.05948 225 193 170 
-0.364892 -0.601317 1.70928 200 170 146 
-0.536044 -0.140434 1.67706 222 192 168 
-0.14394 -0.151068 1.54127 251 239 225 
0.104163 0.0930405 1.41559 156 116 90 
0.164694 0.15709 1.3754 149 113 87 
-1.09596 0.0449167 2.12453 98 69 53 
0.105116 -0.252499 1.44484 253 237 221 
0.169836 -0.105386 1.40538 244 221 203 
-0.757407 0.0472573 1.97286 237 209 187 
-0.225649 -0.422436 1.60629 255 246 231 
-0.329296 -0.588197 1.68422 174 140 113 
0.0915836 0.136463 1.42366 192 160 135 
-0.0672519 -0.596985 1.50328 200 160 134 
-0.983968 -0.226157 2.14467 189 159 135 
-0.347233 -0.588477 1.69948 199 162 136 
-0.363314 -0.0227869 1.69373 208 174 149 
-0.675973 -0.513135 1.92339 215 181 156 
0.164499 -0.12609 1.40656 242 221 202 
0.0996823 0.0215884 1.42141 249 226 208 
-0.744998 -0.505951 1.97879 184 152 129 
0.166914 0.161874 1.37299 158 124 97 
-1.06799 -0.251892 2.14104 93 62 42 
0.117222 0.00388429 1.41241 211 186 166 
0.163924 -0.097149 1.40717 248 223 203 
-0.0759646 -0.146168 1.35086 250 216 179 
0.127722 0.119716 1.40497 141 111 83 
-0.302827 -0.551378 1.66734 194 158 134 
0.154265 -0.093911 1.41348 185 151 126 
0.157786 0.145899 1.37892 146 114 89 
-0.257865 -0.427244 1.62932 207 181 158 
-0.293668 -0.404741 1.65282 242 224 202 
0.109252 0.00559021 1.41706 193 171 147 
-0.455716 0.0451479 1.76 205 174 153 
-0.938166 -0.148423 2.10858 254 235 218 
-0.29427 0.0554336 1.64036 250 229 212 
-0.250614 0.0643748 1.6088 234 212 198 
0.16918 -0.219985 1.40631 207 190 174 
-0.137303 -0.274208 1.53958 192 129 86 
-0.212519 0.170107 1.5834 255 242 225 
-0.247421 -0.485197 1.62498 255 248 230 
-1.17719 0.0878831 1.98268 106 90 77 
-0.113911 0.0613248 1.32753 247 224 208 
-0.348384 -0.318723 1.68948 196 169 148 
0.104243 -0.237449 1.4429 206 178 157 
-0.255193 0.0255892 1.61397 247 226 205 
0.168903 0.182626 1.37135 222 198 160 
-0.104992 0.0923766 1.32206 249 236 220 
-1.08251 0.0532195 2.15485 58 32 19 
-0.452595 0.0521951 1.75504 255 234 217 
0.107747 -0.288987 1.43904 180 146 119 
-0.101369 0.055649 1.31937 215 184 164 
-1.07352 -0.250329 2.13732 135 100 80 
0.183933 0.0783329 1.36727 141 105 79 
0.137029 0.0477885 1.39763 156 125 105 
-0.0986393 0.184016 1.31476 252 244 233 
-0.235628 -0.60042 1.618 177 135 110 
-0.210473 -0.508828 1.59705 253 243 231 
0.170785 0.16488 1.37214 205 175 151 
-0.257049 0.00892874 1.62079 244 219 197 
-1.04837 0.0460237 2.19127 57 37 28 
-0.326996 -0.597393 1.68064 166 124 99 
-1.05408 0.0409885 2.18951 103 85 73 
-0.092425 -0.298672 1.36156 212 189 175 
-0.43863 -0.0329754 1.74854 237 210 191 
0.161809 -0.0854227 1.40746 198 167 146 
-0.182657 -0.0149193 1.56487 237 203 176 
-0.349126 -0.263271 1.68983 245 222 204 
0.171593 -0.0899347 1.40438 241 214 195 
-0.32206 -0.114637 1.66828 247 220 199 
0.109412 0.128446 1.41366 172 137 109 
0.128529 -0.201956 1.42893 243 221 200 
-1.15335 0.110459 2.02601 103 87 71 
0.163212 -0.171659 1.40913 195 168 149 
0.137366 -0.0643668 1.42854 225 198 179 
-0.233931 0.0170242 1.60081 233 208 186 
-0.126877 0.0614517 1.33702 250 227 209 
-0.205614 0.0193871 1.57778 235 213 192 
-0.907502 -0.501098 2.09389 184 156 134 
-0.0789829 -0.434949 1.38109 171 146 126 
-0.350661 -0.202155 1.68692 217 189 167 
-0.867246 -0.204906 2.05677 254 225 207 
0.0894495 0.0954317 1.42383 223 191 166 
0.170177 -0.183003 1.40625 241 219 198 
-0.724635 -0.141304 1.95444 247 220 199 
-0.0879562 -0.0712034 1.31665 199 173 158 
-0.247116 -0.00986889 1.61024 194 164 138 
0.11737 -0.255304 1.43763 203 181 160 
-1.0679 0.0963956 2.18762 32 26 14 
0.124704 -0.239538 1.4348 215 189 172 
-0.305951 -0.4206 1.66551 254 236 222 
-1.11189 0.0324251 2.09011 65 44 27 
-0.0795485 -0.336938 1.35545 234 218 203 
-1.10225 -0.232433 2.08932 102 84 72 
-1.13893 0.0163128 2.04571 52 36 21 
-1.14194 -0.356359 2.02058 75 69 57 
0.145608 0.0442958 1.39246 167 135 112 
-1.12137 -0.352946 2.0366 77 60 44 
-0.771665 -0.525752 1.99709 194 157 130 
-1.08677 -0.210056 2.11346 107 76 58 
0.183732 0.140114 1.36439 194 158 134 
-1.18217 -0.205899 1.77122 170 129 107 
-0.304005 -0.529411 1.66342 182 151 131 
-0.303633 -0.550657 1.66561 191 155 131 
-0.357019 -0.21424 1.69313 179 142 116 
0.148787 -0.165493 1.41824 252 235 219 
-1.05424 0.041106 2.19156 103 85 73 
-0.212366 -0.374859 1.59504 230 207 189 
-1.07365 -0.0543583 2.15466 75 48 29 
0.127403 0.0719444 1.40233 152 122 96 
0.109446 -0.165086 1.43817 215 189 164 
-1.14189 -0.356362 2.02026 76 70 54 
0.184709 0.0203311 1.37181 201 179 155 
-0.167916 -0.467954 1.56752 223 205 185 
0.140994 0.163398 1.39226 154 119 91 
-0.0941679 0.137716 1.31415 222 203 188 
-1.14921 0.11153 2.03503 118 99 82 
0.180594 0.065453 1.37156 200 172 148 
-0.358966 0.0904935 1.68692 208 177 157 
0.096869 0.179301 1.41791 202 174 150 
0.140144 0.0244773 1.39857 214 192 169 
0.0960305 0.128443 1.41849 201 167 142 
0.103286 -0.237399 1.44187 206 177 159 
0.178227 -0.168666 1.3995 239 221 199 
-0.277744 -0.357956 1.63788 239 211 189 
0.122389 -0.205671 1.43134 205 183 162 
-0.181536 0.0923498 1.56195 211 185 168 
-0.328108 -0.352133 1.67449 251 232 217 
-0.0887922 -0.564269 1.51733 168 121 91 
0.122908 -0.185922 1.43287 205 169 145 
-0.0879416 -0.0578969 1.31332 189 163 140 
-0.212621 -0.374767 1.59459 230 207 189 
0.172729 -0.179096 1.40569 203 178 158 
-0.449491 0.0219601 1.75386 213 185 163 
0.102993 -0.16935 1.44376 207 173 148 
0.106072 -0.19709 1.43995 190 163 142 
-0.069178 -0.313644 1.3462 230 201 183 
0.108396 0.135891 1.41161 185 148 119 
0.132756 0.197425 1.39431 204 173 145 
0.106819 0.176425 1.4132 231 200 172 
0.184431 0.166153 1.36311 176 145 124 
0.132146 0.212342 1.39448 224 192 167 
0.170644 -0.18328 1.40624 245 223 202 
0.107263 -0.152226 1.44028 193 161 136 
-0.37126 -0.351027 1.70753 255 241 228 
0.106369 -0.212183 1.44064 242 221 204 
0.165723 0.107805 1.37741 150 119 99 
-0.183214 -0.19314 1.56931 214 182 159 
-1.08742 0.0667314 2.14652 59 36 22 
-0.530401 -0.388975 1.67884 173 148 128 
-1.06883 0.102816 2.18779 32 23 16 
-1.15665 -0.017657 2.00337 34 21 13 
-0.179766 0.0987991 1.55816 253 236 218 
-0.4182 -0.522047 1.74492 193 162 141 
-0.0945138 -0.138893 1.35853 217 171 135 
0.113374 -0.235668 1.44091 243 220 202 
-0.254191 0.0354026 1.61059 230 212 192 
0.0990987 -0.00126123 1.4222 191 161 135 
-0.172984 -0.078358 1.55861 246 224 203 
-1.10929 -0.126736 2.09245 102 82 71 
-0.855319 -0.209998 2.05019 193 156 137 
-0.194965 -0.382703 1.58105 229 205 181 
0.115136 -0.239345 1.43946 211 186 166 
-0.180429 -0.597692 1.58482 197 159 136 
0.161534 0.208245 1.37631 175 139 113 
0.174814 0.101473 1.37303 215 194 173 
-0.179041 0.0989662 1.55935 236 213 195 
-0.0856718 0.0810257 1.30915 204 183 162 
-1.11165 -0.0606893 2.09336 103 85 71 
0.133491 -0.0853657 1.42662 180 146 119 
-0.0479212 -0.501045 1.4198 194 169 149 
-0.158107 -0.271268 1.55381 255 252 235 
0.115087 -0.24031 1.43977 213 187 170 
-0.812408 -0.395151 2.02184 255 225 204 
-0.250496 -0.458786 1.62496 208 184 160 
0.153139 -0.222125 1.41553 238 217 198 
0.121164 -0.164079 1.42887 188 160 136 
0.796091 0.281699 1.75146 91 108 30 
-1.06459 -0.465262 2.12098 89 60 44 
-0.455291 0.045093 1.7613 207 176 155 
-0.834007 0.0599124 2.0554 222 201 182 
-0.355512 -0.0789213 1.68869 253 241 225 
0.134393 0.036144 1.39808 158 128 104 
0.105431 -0.15746 1.44276 207 182 162 
-0.11731 0.156425 1.32905 254 250 238 
0.11511 -0.265898 1.43761 208 181 162 
-0.446858 -0.383758 1.75918 215 185 159 
-0.211505 -0.30354 1.59573 206 171 151 
-1.06551 -0.0607571 2.14764 130 93 74 
0.149626 -0.0896077 1.41478 234 209 187 
-0.304468 -0.00255956 1.65062 209 181 159 
0.176956 0.031623 1.37631 171 148 117 
0.117686 -0.270064 1.43752 208 182 165 
-1.06201 -0.106373 2.19675 50 36 23 
-1.07557 -0.14509 2.14276 63 40 22 
0.154968 -0.0756163 1.41128 203 171 146 
0.115548 0.1961 1.40495 217 193 167 
-0.0949899 0.100934 1.31464 242 224 210 
-0.06775 0.0826985 1.29703 248 230 218 
0.171833 -0.156156 1.40371 243 220 202 
-0.16488 -0.0568262 1.55638 242 223 206 
-0.145092 -0.223753 1.54259 252 244 231 
-0.323248 -0.470533 1.67625 250 233 217 
0.0980639 0.136253 1.42823 188 158 134 
-0.316601 -0.398497 1.66785 248 229 214 
-1.19466 0.0408875 1.72204 143 115 91 
0.174792 0.0390482 1.37665 217 195 174 
-0.0937129 0.0404121 1.31484 209 183 156 
-0.15811 -0.47793 1.56356 252 243 228 
-0.216287 -0.518355 1.60329 181 146 124 
-0.326457 -0.258593 1.67111 243 218 198 
-0.218949 -0.461731 1.60285 255 239 223 
0.127124 -0.152616 1.42802 214 186 164 
0.152665 -0.2235 1.41532 247 226 209 
0.0926289 0.166237 1.42304 226 196 170 
-1.11565 -0.0436257 2.09128 35 28 20 
-1.13254 -0.147011 2.0366 36 21 14 
-0.218984 -0.511351 1.60438 255 239 223 
0.167816 0.0378193 1.38068 179 157 134 
0.107421 -0.239154 1.44272 204 175 157 
-0.310218 0.0938411 1.65582 252 228 202 
0.110635 -0.00529667 1.41654 209 183 160 
0.133668 -0.0612518 1.42891 178 141 114 
0.098254 0.166485 1.41765 220 189 161 
-0.430914 0.0231243 1.74247 219 193 170 
-1.05737 -0.187742 2.16928 81 53 39 
-0.156205 -0.393815 1.55827 249 233 218 
-0.106005 0.0719811 1.32284 253 241 225 
-1.1659 0.0822042 1.9995 53 37 24 
-0.183479 0.0116594 1.56494 221 193 169 
-0.457244 0.0228076 1.75934 211 189 168 
0.168 0.15875 1.37414 203 172 144 
0.167403 0.03779 1.38029 180 158 135 
-0.0661002 -0.00294073 1.29682 216 188 164 
-0.219625 -0.130897 1.60996 144 135 128 
-0.103653 -0.580211 1.52977 180 139 109 
0.168712 -0.164807 1.40718 247 222 202 
-0.0762603 -0.0591695 1.30636 232 206 181 
-0.0612127 -0.132238 1.33728 254 254 244 
-1.19423 -0.0592883 1.71131 137 110 83 
-1.10136 -0.022896 2.11144 76 49 30 
-0.317491 -0.481609 1.67227 251 235 219 
-0.059496 -0.237694 1.33737 250 231 217 
0.136762 0.0355658 1.39793 164 134 110 
-0.0862676 0.0465365 1.31118 254 242 230 
-0.0793562 -0.379528 1.357 172 148 110 
-0.650906 -0.576513 1.91173 183 146 120 
0.0877524 0.0351618 1.42811 198 168 144 
-0.242609 0.0345358 1.60414 228 205 187 
-1.19622 -0.0964507 1.70287 101 74 55 
0.179216 0.0965642 1.37258 185 164 137 
0.169751 -0.0041201 1.38266 127 101 76 
-1.08083 -0.246393 2.11826 121 86 67 
-0.113948 0.0614372 1.32745 249 226 210 
0.116093 0.118356 1.40783 164 129 101 
-0.113764 -0.014692 1.32797 238 220 200 
-1.1016 -0.144412 2.09159 88 62 45 
-0.279414 -0.400287 1.64389 245 229 214 
-1.15944 0.109555 2.01477 58 44 31 
-0.0615597 -0.0901729 1.3142 211 190 173 
-1.18884 -0.179219 1.76333 140 104 78 
-0.0691537 -0.0364802 1.29934 199 172 145 
0.137588 -0.263619 1.42499 242 220 199 
-0.073043 0.0616826 1.30029 219 198 179 
-0.340006 0.110654 1.67496 215 194 175 
-0.0505396 -0.215724 1.33104 255 234 213 
-0.431661 -0.29947 1.74803 239 222 204 
0.168904 -0.215678 1.40642 252 235 219 
-0.298402 -0.430044 1.66098 254 241 225 
-0.197912 -0.490822 1.58981 253 241 229 
0.0937805 -0.136594 1.44711 200 168 147 
-0.253979 -0.580959 1.63251 206 166 140 
-0.0574443 -0.227123 1.33721 254 236 222 
-0.210046 0.065428 1.58029 227 205 181 
-0.427293 -0.200346 1.74413 209 181 160 
-0.189404 0.0471466 1.56557 208 181 160 
-1.04764 -0.028182 2.18829 110 87 73 
-0.31241 0.125412 1.65473 234 213 196 
-0.870309 0.0672903 2.05793 237 209 188 
-0.0843565 0.0406197 1.30956 211 187 163 
-0.16323 -0.425865 1.56133 247 229 215 
-0.558256 -0.186428 1.69218 247 219 197 
-0.162877 -0.338864 1.56271 193 157 131 
-0.0698454 -0.229801 1.34445 254 237 221 
0.114831 0.121448 1.41099 175 138 111 
0.166915 -0.160382 1.40707 247 221 204 
-1.14286 -0.0352992 2.02966 27 18 11 
0.153332 0.0196752 1.39261 185 160 138 
0.150232 0.0224296 1.39346 220 197 183 
0.150412 -0.0627406 1.41277 240 209 189 
-0.0796904 -0.00702564 1.30691 199 171 147 
-1.14664 0.0677056 2.03974 55 36 22 
0.131646 0.0227685 1.40032 188 160 136 
-1.19043 -0.266783 1.74872 205 177 156 
0.129723 -0.19404 1.42656 188 158 134 
0.101189 0.221497 1.41412 171 143 121 
-1.20519 -0.207999 1.72857 181 155 140 
0.0960267 -0.289208 1.44602 219 189 165 
-0.0723701 -0.15473 1.34446 227 196 175 
-0.181789 0.0568767 1.56431 217 190 169 
0.184805 0.0144969 1.37155 164 136 114 
-0.0666571 -0.0409601 1.2971 238 208 182 
-1.18872 -0.0151498 1.72652 163 130 111 
0.175955 0.0902072 1.37113 160 123 96 
0.09369 0.0290268 1.42311 203 171 148 
-0.546035 -0.190552 1.68517 251 225 202 
0.162975 0.113062 1.37944 133 93 68 
0.188921 -0.0317943 1.39078 186 141 108 
0.166231 0.120878 1.37704 148 120 96 
0.159874 -0.0989042 1.41043 208 180 159 
0.164559 -0.161971 1.40896 245 218 199 
-0.635157 -0.604408 1.89958 205 177 156 
0.146899 0.123967 1.38907 158 123 101 
0.137284 -0.244246 1.42679 254 243 225 
-0.0777126 0.10057 1.30315 255 248 235 
0.13185 0.0553911 1.39973 182 154 133 
-0.12013 0.034028 1.3312 220 187 170 
-0.309856 -0.437248 1.66695 249 231 217 
-0.802001 -0.166 2.0154 240 222 200 
0.140674 0.181891 1.38919 184 150 123 
-0.110026 0.121689 1.32528 251 242 233 
0.142177 -0.105508 1.42063 242 218 194 
-0.0718696 0.058285 1.29916 249 230 215 
-0.555621 -0.126375 1.69048 239 220 205 
-0.0923266 0.132413 1.31184 249 233 218 
0.136331 0.179019 1.39026 206 175 147 
0.111045 0.059846 1.41297 182 148 121 
0.171413 -0.144107 1.40428 242 221 202 
-1.10587 -0.044426 2.0953 123 91 70 
-1.08388 -0.119599 2.12573 139 103 77 
-1.05902 -0.0937565 2.17586 89 58 40 
-0.206721 -0.38837 1.59009 215 187 163 
-1.10038 -0.225245 2.09123 80 60 49 
-1.18908 -0.261018 1.75044 190 163 144 
-0.0443361 -0.248266 1.32834 223 197 184 
-0.733203 -0.068164 1.96016 248 223 203 
-0.10915 -0.00172168 1.32556 234 217 199 
0.10809 -0.0993523 1.44127 205 177 155 
-0.0707007 -0.0379829 1.30128 196 166 140 
-1.19746 -0.0378629 1.7062 122 87 68 
-0.0823625 -0.287424 1.35533 252 231 212 
0.104353 0.166444 1.41413 204 173 145 
-0.865117 0.104668 2.06097 242 207 185 
-1.14463 -0.00698511 2.02901 93 66 47 
0.178224 -0.187448 1.40062 213 182 162 
0.100484 0.171687 1.41534 195 163 138 
-1.07757 -0.197448 2.128 87 61 46 
-0.311989 0.0810598 1.65041 255 240 219 
0.122023 0.147071 1.40164 172 137 109 
-1.20313 0.00576087 1.70451 149 122 105 
0.180291 -0.1332 1.39676 202 180 159 
-1.08793 -0.180206 2.11075 76 55 38 
0.093086 0.013207 1.425 210 183 164 
-0.345014 -0.295902 1.68559 237 211 186 
0.102003 0.172135 1.41693 193 161 136 
-0.856157 -0.135725 2.05323 222 185 159 
-0.871544 0.0979107 2.05919 253 225 204 
0.129447 -0.186145 1.42922 198 163 141 
-0.196207 -0.455791 1.58738 246 228 214 
0.18221 -0.00700724 1.37467 105 82 51 
0.147017 -0.241975 1.41981 241 224 208 
-0.105825 -0.302313 1.37042 251 241 229 
-0.0769735 0.185923 1.30087 254 242 230 
0.142759 -0.0787304 1.42086 195 160 140 
-0.563246 -0.630884 1.83836 41 36 30 
-1.06488 -0.585806 2.10842 79 67 55 
0.122888 0.172424 1.4014 180 153 126 
-0.297018 -0.387865 1.65205 223 201 187 
0.156354 -0.144559 1.4127 240 217 201 
-0.993529 -0.111 2.14967 230 202 178 
0.179594 0.0796247 1.36923 175 143 120 
0.0944494 -0.101076 1.44682 208 181 160 
0.0843946 0.118165 1.42607 183 151 128 
-0.539016 -0.153961 1.67966 246 218 196 
-1.07356 -0.0226531 2.16007 56 33 17 
0.141322 -0.1673 1.42323 227 208 193 
-0.271224 -0.50814 1.64025 164 127 108 
0.137754 0.105383 1.39467 128 98 74 
-1.1064 -0.22304 2.08948 89 80 71 
0.0887569 -0.522684 1.46211 235 208 191 
0.108313 -0.0483087 1.44153 250 236 210 
-1.1159 -0.117473 2.08746 40 33 27 
-0.0907075 0.141195 1.31258 244 226 212 
0.154802 -0.0683396 1.40994 217 172 149 
-0.0681378 0.133725 1.29707 255 253 244 
-0.194928 -0.54127 1.58962 215 178 151 
-0.881261 0.0732634 2.06251 245 215 189 
0.168963 -0.145893 1.40405 208 187 168 
-0.181646 0.161288 1.55928 215 196 181 
-1.1287 0.101295 2.07039 97 76 57 
-0.177539 -0.599732 1.58122 185 148 121 
-0.161265 -0.357131 1.56079 221 194 177 
-0.227628 0.0302247 1.59303 200 172 151 
0.0936684 -0.292528 1.44788 209 179 155 
-0.0819812 -0.332056 1.35658 229 207 193 
0.100844 -0.269188 1.44468 204 172 151 
-0.574908 -0.585899 1.85868 197 165 140 
-1.1745 -0.0633965 1.74822 129 104 82 
-0.114711 0.096493 1.32821 215 196 179 
0.107591 0.142069 1.40931 172 141 113 
-1.18111 0.108457 1.97578 89 71 59 
-0.308369 -0.165144 1.65769 220 183 157 
-0.211213 0.105164 1.58184 223 195 174 
-0.109522 -0.00309257 1.32632 245 228 210 
-0.129742 -0.431116 1.5395 200 165 145 
0.122098 -0.0535628 1.43134 193 161 136 
0.13637 0.17907 1.3903 206 175 147 
0.170563 0.03824 1.37944 190 168 145 
0.116225 0.144064 1.40649 177 143 116 
0.170969 0.116163 1.37511 191 166 144 
0.102027 0.163406 1.4157 197 162 134 
0.160816 -0.0970475 1.40921 250 223 202 
-0.241527 0.00167639 1.60444 242 215 194 
0.164475 -0.0799663 1.40753 254 232 209 
0.0949932 0.157466 1.41997 212 180 155 
-0.732993 -0.0665828 1.96161 245 224 203 
0.178353 0.209752 1.36578 213 184 152 
-0.31393 -0.136207 1.66066 220 190 166 
0.101878 0.172183 1.41665 193 161 136 
-0.315019 -0.435855 1.66858 255 237 223 
-1.09334 -0.155959 2.10565 105 69 53 
-0.86568 -0.111157 2.05398 239 209 185 
0.126606 0.0791473 1.40102 120 85 63 
-0.317827 -0.0371745 1.66045 255 232 214 
0.129446 -0.00893281 1.40544 123 96 69 
-0.212757 0.130416 1.58077 229 207 193 
-0.276528 -0.433087 1.64209 254 237 221 
-0.101681 -0.359049 1.36966 251 230 213 
-1.12482 0.0542159 2.07437 82 56 41 
-0.856408 0.0227826 2.04617 250 223 204 
-0.215699 0.132985 1.58255 249 226 210 
-0.0626363 -0.367323 1.34663 218 193 171 
-0.292458 -0.0167249 1.64428 212 184 160 
0.170369 -0.0627133 1.40185 243 210 191 
-0.0633516 -0.101173 1.32451 224 206 184 
0.0935661 0.0129874 1.4255 210 183 164 
0.0878533 0.126721 1.42858 204 168 146 
-0.0582975 -0.138687 1.33546 230 195 167 
-0.22548 -0.486849 1.60896 214 189 169 
-0.0708824 -0.596004 1.50837 216 176 150 
-0.116791 0.122364 1.32887 250 240 230 
0.132489 0.0612322 1.40403 208 181 160 
-1.06577 -0.219084 2.1494 83 57 42 
0.138002 -0.254639 1.42436 195 168 149 
0.183042 0.0944564 1.36742 181 151 125 
0.126001 0.182142 1.39717 212 176 150 
0.129877 0.189829 1.3952 219 189 163 
0.174263 -0.160056 1.40342 223 194 176 
0.164843 0.00148355 1.38345 146 116 92 
0.15355 -0.131621 1.41331 224 201 183 
-0.217058 -0.472154 1.60279 250 233 215 
-1.08218 -0.0586565 2.13497 118 78 53 
0.0934182 -0.151363 1.44577 207 175 152 
-0.0451214 -0.160668 1.32554 226 190 164 
-0.308823 -0.0341074 1.65984 224 194 170 
-0.305903 -0.482624 1.66461 253 237 221 
0.13745 -0.0941917 1.42093 207 175 150 
-0.894687 0.026355 2.07236 204 174 150 
-0.156738 -0.393126 1.55657 249 235 222 
0.171526 -0.217469 1.40464 223 206 190 
-0.0429755 -0.226502 1.32629 245 219 202 
-1.12025 -0.0219238 2.07303 63 40 24 
-0.0615392 -0.204566 1.33784 254 229 207 
0.158083 -0.195963 1.41308 223 196 177 
0.121716 0.0249318 1.40725 195 165 141 
0.0988856 -0.266836 1.44425 205 173 150 
0.132171 -0.268275 1.42733 204 176 155 
-0.223316 -0.426028 1.60531 248 236 220 
-1.13749 0.0543668 2.05093 67 45 31 
-1.13775 0.00776082 2.04385 74 55 40 
0.108087 -0.271447 1.44125 208 177 157 
-1.10667 -0.213516 2.09043 94 84 74 
-1.10829 -0.370449 2.06437 53 46 40 
-0.362918 -0.139596 1.69547 205 180 158 
-0.623295 -0.609842 1.89271 189 152 126 
0.125632 -0.253016 1.434 238 215 201 
-1.20192 0.0348613 1.70727 134 106 84 
-0.170109 -0.604969 1.5763 194 155 126 
-0.6045 0.00103293 1.678 217 189 168 
-0.317769 -0.457863 1.67396 252 235 225 
-0.250883 -0.434588 1.62605 253 240 224 
-1.0659 -0.219278 2.15095 80 54 39 
-0.0903 0.14128 1.31306 252 238 225 
-0.0779353 0.133106 1.30344 255 239 224 
-0.0540727 -0.183729 1.33382 249 230 215 
-1.18902 0.11322 1.96739 84 67 57 
0.092153 0.148819 1.42084 207 179 155 
0.137807 -0.053151 1.42322 214 182 159 
-1.02253 -0.51549 2.1799 199 170 152 
-0.313874 -0.234997 1.66175 239 214 192 
-0.103702 0.0845692 1.32134 254 241 225 
-0.236797 -0.495617 1.61919 240 217 199 
0.114603 0.0385595 1.41137 168 136 113 
0.0922093 -0.275367 1.44989 215 188 167 
-0.0793994 -0.160394 1.34962 191 163 142 
-0.0777937 0.105867 1.30436 239 222 212 
-1.12391 0.0207846 2.07206 92 70 56 
0.0971818 -0.286152 1.44577 201 171 147 
