# .PCD v0.7 - Point Cloud Data file format
VERSION 0.7
FIELDS x y z rgb
SIZE 4 4 4 4
TYPE F F F U
COUNT 1 1 1 1
WIDTH 1369
HEIGHT 1
VIEWPOINT 0 0 0 1 0 0 0
POINTS 1369
DATA ascii
3.1078401 1.28748 5.3868499 4999754
3.8200901 1.40509 5.86096 4341567
3.8319399 1.3956 5.85217 4473153
3.8483601 1.39645 5.8201098 5658200
3.8577499 1.38686 5.8111401 5921629
0.87332898 1.04175 4.29003 5790043
0.88074797 1.0488501 4.3054299 6776939
0.89074099 1.05523 4.3158898 9409173
1.2339 1.1759 4.8345599 3355184
1.24503 1.1749099 4.8322201 3749943
1.2643 1.17856 4.8444099 3091758
1.27558 1.17883 4.8571901 3289392
1.29577 1.18172 4.8426199 3552565
1.3203501 1.17531 4.8476701 3157807
1.32917 1.18471 4.8575401 3092014
1.38731 1.1669199 4.7816 3486771
1.4049799 1.1577899 4.7540002 4276288
1.42146 1.13131 4.6761599 4802889
1.4734499 1.13617 4.6727099 6514282
1.5843 1.1287301 4.6484399 11317171
1.59791 1.13419 4.6606898 10001052
1.59604 1.13256 4.6539502 10593189
1.6079 1.13326 4.6588702 5789783
1.64389 1.13711 4.6949601 5394767
1.6618201 1.1479501 4.7315998 5591889
2.1654699 1.26941 5.2399998 4539202
2.1963201 1.26477 5.2151098 4604738
2.20755 1.26358 5.2102499 3486258
2.22597 1.26564 5.2205701 1775898
2.2327399 1.26675 5.2118001 1841691
2.2827799 1.25657 5.18117 3223342
2.3002 1.24756 5.1598001 3946808
2.3127 1.24438 5.14326 4473152
2.31655 1.25313 5.1457601 4538945
2.33534 1.244 5.1280999 4802633
2.34868 1.23077 5.0863199 5987680
2.3817301 1.222 5.0254798 7567228
2.4828701 1.23637 5.09338 9014670
2.49383 1.23525 5.0918398 9803672
2.5035999 1.23631 5.0924201 5395283
2.50669 1.2352099 5.0947499 4671303
2.51614 1.23597 5.0955 2894633
2.8208899 1.36107 5.58811 2433827
2.83288 1.35645 5.5833201 2236191
2.84144 1.35366 5.5668998 2170654
2.9259 1.31003 5.4126701 4736839
2.9480801 1.30848 5.3966398 5395798
2.95628 1.29862 5.3638701 6251879
2.9821301 1.28825 5.3252301 7501177
3.0032899 1.29875 5.3366199 9803676
3.09534 1.30823 5.3947701 10132127
3.1029501 1.30418 5.3882198 8355455
3.1064 1.30566 5.3881502 6381664
3.1189499 1.3054 5.3836002 3486255
3.1556599 1.3101701 5.4247098 3551791
3.74349 1.41566 5.8236299 3618099
3.8267901 1.41728 5.8424401 5394513
3.84074 1.40751 5.8357601 5197391
0.878447 1.05896 4.3081598 5066321
0.88368201 1.0623699 4.3081102 6053216
1.22445 1.18729 4.81318 3684149
1.23847 1.18458 4.82828 3749943
1.25199 1.18908 4.83008 4144189
1.2632999 1.1888 4.8309002 3420722
1.27644 1.18986 4.8452101 3683895
1.31817 1.19086 4.8485198 3552566
1.33456 1.19637 4.8612399 3158064
1.39863 1.1693701 4.7679501 4078908
1.41495 1.15815 4.7269201 4737097
1.42238 1.14674 4.6809001 5000525
1.47773 1.14354 4.66011 7238774
1.49948 1.1272 4.5883899 11514550
1.59224 1.14362 4.65766 11777466
1.60118 1.14175 4.6519399 8684935
1.61721 1.14326 4.6635199 5658195
1.63915 1.14773 4.6870799 5920853
1.66803 1.16049 4.72962 6052440
2.15189 1.2806799 5.2343798 5262668
2.1624801 1.2780499 5.2258401 5131339
2.17257 1.27276 5.2107501 4802374
2.2149501 1.27542 5.2111402 2565157
2.2288899 1.2804199 5.2212701 1775897
2.2649 1.2739 5.1993399 2368034
2.30351 1.28222 5.2049398 3881272
2.30038 1.2642601 5.1759501 3815478
2.31476 1.26524 5.1504798 4604995
2.33498 1.24365 5.0943298 5000012
2.3666799 1.2412 5.0416698 6185575
2.3731899 1.2299 5.03932 6053990
2.3872199 1.23396 5.0239201 10330277
2.48757 1.24787 5.0816498 10000795
2.50106 1.24946 5.0896602 5066062
2.52332 1.24778 5.0953202 3354928
2.7936001 1.3653001 5.5933199 2697256
2.5392201 1.24062 5.0418401 3420722
2.8396001 1.36194 5.5378299 2368034
2.9432499 1.32152 5.4039402 4868940
2.9772999 1.30446 5.3296499 5922404
2.98786 1.29882 5.3294501 8817038
2.9897699 1.30107 5.3210201 9146004
3.08813 1.32054 5.3951001 10198178
3.10079 1.3193099 5.3924398 9803160
3.1137099 1.3182 5.3894601 4605250
3.8387101 1.45077 5.9197698 5131597
3.8375101 1.43586 5.8892398 5328976
3.8371999 1.42858 5.8278098 5723993
3.83413 1.42979 5.8249502 5789529
0.87679303 1.06973 4.3011899 3487032
0.89132601 1.06804 4.3148799 7829627
1.21454 1.19252 4.8280301 3552562
1.22505 1.1961401 4.8000398 4210238
1.28687 1.19719 4.8365302 4210495
1.29574 1.19433 4.8371401 4013117
1.32646 1.1985101 4.8532701 3552565
1.33542 1.20676 4.8605199 3420979
1.3466901 1.2040499 4.8491702 3157808
1.39161 1.1799901 4.77774 3881529
1.47079 1.1482199 4.6317401 5791072
1.4845099 1.13749 4.5985298 6514539
1.50552 1.1429501 4.5879202 9408658
1.5170799 1.13348 4.5914798 10395813
1.53316 1.14642 4.6225801 10527398
1.54274 1.14543 4.6205902 10198433
1.55547 1.14676 4.6241002 10001054
1.56613 1.14484 4.6179399 10461606
1.58347 1.14911 4.6360898 9935004
1.59636 1.15034 4.6454101 8816265
1.60864 1.15152 4.65517 6052699
1.61861 1.15731 4.6623602 6184283
1.63442 1.15838 4.6793299 6249819
2.15361 1.2939301 5.2305698 5855062
2.16397 1.28997 5.2153101 5723477
2.1744399 1.28499 5.1958299 5328462
2.2207601 1.29202 5.2139502 2236448
2.2024701 1.28421 5.19768 4999496
2.23563 1.29714 5.2206101 1841691
2.2832 1.2892801 5.2162499 2828841
2.3041899 1.28397 5.17559 4144443
2.30583 1.27496 5.1726999 4276029
2.3167 1.2815599 5.1648002 4604995
2.3208799 1.2746201 5.1314802 4999498
2.3218 1.2704099 5.1283302 4868168
2.3796401 1.24208 5.0385098 7501435
2.3935699 1.24546 5.01999 11711928
2.48329 1.26182 5.0783701 10922153
2.5045199 1.25595 5.0888901 4276288
2.51373 1.25447 5.0783401 3618356
2.5318201 1.25899 5.0780101 3683893
2.53333 1.25222 5.0460801 3618101
2.80353 1.38254 5.6015201 3157807
2.8300099 1.37781 5.59585 2762792
2.8447199 1.3845 5.5763001 2499877
2.94714 1.34061 5.42801 4934477
2.95208 1.32796 5.3878498 5330007
3.0818601 1.33315 5.3836398 11251123
3.09338 1.3308001 5.3863401 10329762
3.10778 1.33095 5.3886399 5131597
3.1207299 1.32986 5.3858099 4538943
3.6819 1.48545 6.0034699 3815222
3.72665 1.43757 5.8050599 3947065
3.7456701 1.42963 5.8132401 4013113
3.82617 1.45332 5.9047799 5131596
0.879273 1.08518 4.31042 5329492
0.87856197 1.08409 4.3063302 5197906
0.88437802 1.07532 4.3076501 3882046
1.2189699 1.20066 4.8145099 3815479
1.25863 1.20479 4.8120198 4210239
1.2733001 1.2108999 4.8295798 4078653
1.30356 1.21197 4.8558302 4341824
1.32686 1.21139 4.8506598 3947323
1.54006 1.15624 4.6234398 7895420
1.55027 1.1558501 4.6192799 7369074
1.5610501 1.1558 4.6217499 8092540
1.59254 1.16342 4.6450801 8224124
1.60259 1.15914 4.6409798 7302765
2.16401 1.30066 5.1994901 6184027
2.1875 1.29931 5.1879702 5855318
2.2100401 1.30059 5.1992402 4341823
2.2534399 1.3089499 5.2246699 2236706
2.27705 1.30238 5.22439 2828842
2.2946 1.30336 5.2235298 3420979
2.30352 1.3008 5.21523 3881273
2.3181 1.29908 5.1912799 4933960
2.3745201 1.25471 5.0412798 7238005
2.39118 1.26029 5.0349202 8948623
2.4022901 1.2585 5.0318999 10330019
2.43116 1.26818 5.0590601 9474708
2.4395499 1.26562 5.0553899 9540758
2.4614401 1.27053 5.06914 10001051
2.47469 1.27088 5.0707798 8816777
2.49052 1.27317 5.0789099 8553090
2.5060699 1.2646 5.0762 4078651
2.7981999 1.40212 5.59833 3618103
2.81236 1.3988301 5.5911899 3618359
2.81302 1.40037 5.5978098 3618359
2.8241401 1.39581 5.59094 3289650
2.8234601 1.39511 5.5914998 3289650
2.8234301 1.3937401 5.58746 3223857
2.83339 1.3879499 5.5747399 2631463
2.83728 1.37467 5.52245 2499876
3.0873799 1.34565 5.3759999 11974586
3.1028099 1.34724 5.3836398 7894902
3.1157801 1.3453701 5.3813901 5131079
3.6842 1.49824 5.9878201 4209980
3.7978201 1.45702 5.8512502 5197389
3.8095601 1.44564 5.81812 5658199
0.88947302 1.09496 4.3108702 8684936
0.91114098 1.09503 4.3123298 8356227
0.92769802 1.0996 4.3299899 7106160
0.92702901 1.10071 4.3312302 7369589
0.945885 1.09636 4.3310599 7697783
0.96248198 1.10072 4.3345699 7960956
1.1977 1.214 4.7958798 2631205
1.2100199 1.21508 4.81005 3420720
1.22798 1.21325 4.8141699 4276031
1.23403 1.20869 4.7997999 4473668
1.24704 1.20991 4.8034701 4670790
1.25463 1.21986 4.8119102 4736839
1.26748 1.22206 4.8192301 4144702
1.33215 1.2308199 4.8432102 3486516
2.1646099 1.30803 5.1842198 6315869
2.17717 1.30794 5.1860399 6052440
2.2091501 1.31479 5.1892099 4802373
2.2226601 1.31572 5.1876202 2434084
2.2363601 1.31006 5.2094798 2170913
2.2713301 1.3142101 5.2200098 2828843
2.2811501 1.31225 5.21488 3289137
2.27649 1.31822 5.2209802 3091759
2.29932 1.31312 5.2171302 4209982
2.38273 1.27237 5.03332 5658459
2.3938799 1.2705899 5.0303798 7303284
2.4514101 1.28017 5.0666599 7368817
2.4849501 1.28413 5.0795298 6447713
2.4963 1.28359 5.0762401 4737094
2.5048399 1.27527 5.06565 3947064
2.81757 1.41268 5.5846601 3750200
2.8274901 1.40588 5.5696802 3355185
2.83778 1.4003 5.56251 2829097
2.8438301 1.39387 5.53408 2894378
3.0557401 1.3484499 5.34266 9474967
3.0809 1.3488899 5.36762 10856104
3.69014 1.5130301 5.9990301 4538945
3.7629099 1.46117 5.8190699 4802375
3.7969 1.47403 5.8459601 5328976
3.80161 1.46477 5.8289299 5395026
0.88122803 1.09974 4.2890601 5592664
0.89037502 1.10435 4.3006401 8553606
0.91700202 1.10306 4.3178601 10001310
0.92948502 1.10976 4.32024 9869725
0.93294698 1.10141 4.3251801 8224642
0.940624 1.1053801 4.3295798 9935519
0.95098102 1.10515 4.32864 10461349
0.96102101 1.10762 4.3182802 11119791
1.20988 1.2262 4.7995601 3947322
1.23237 1.21961 4.7890301 4934475
1.2494299 1.2305 4.8108101 5395026
1.25884 1.23128 4.8096499 5066317
1.2718199 1.23236 4.8117299 4934732
1.2825201 1.23118 4.8053198 5066061
1.29504 1.2326699 4.8047299 4934474
1.31855 1.23533 4.8465099 3947323
1.3221999 1.2381099 4.8345199 4407874
2.10724 1.32617 5.18151 854798
2.12256 1.32243 5.1701498 2763049
2.13432 1.31696 5.1627598 6249820
2.1656799 1.32344 5.1986699 6776164
2.1839199 1.32087 5.1875701 6184026
2.2144101 1.32599 5.1845698 3618357
2.2265401 1.32864 5.1895599 2368291
2.26881 1.33428 5.2098398 2762794
2.2746699 1.3239 5.2131901 3091759
2.7783999 1.41427 5.5659199 4144444
2.80197 1.41742 5.58917 4013372
2.8238399 1.42523 5.5769901 3815736
2.8409901 1.42141 5.5721102 3289136
3.05127 1.35813 5.3579998 8553863
3.08127 1.3659 5.3638701 7039851
3.09308 1.36089 5.3696399 8552833
3.10988 1.36315 5.3799601 5854547
3.64236 1.51113 5.9637098 4933703
3.70894 1.52449 6.0115099 4736068
3.7481899 1.53126 6.0120201 4143931
3.7481899 1.53126 6.0120201 4143931
3.78493 1.4858201 5.8571701 5526098
0.88562602 1.11251 4.2908502 6579816
0.87941802 1.11145 4.2912402 5658714
0.89818197 1.1064399 4.30231 11514292
0.913737 1.1163 4.3180199 11120048
0.92685503 1.10891 4.3159399 10133154
0.937006 1.11563 4.33004 10790827
1.21065 1.23944 4.7941198 4605252
1.25265 1.24063 4.8035102 5592405
1.27601 1.2427 4.80406 5395283
1.30179 1.2456 4.8144698 5263697
1.33132 1.2456 4.8418598 4407618
2.1301701 1.33412 5.1621299 5131597
2.1725099 1.32883 5.1753402 7236714
2.18979 1.33161 5.1859102 7039078
2.20228 1.33144 5.18466 7302250
2.20241 1.33154 5.1851702 7302250
2.21487 1.33164 5.1847701 3815479
2.2198601 1.3368599 5.1785998 2762792
2.25951 1.34563 5.2177601 2368291
2.32271 1.34155 5.2016702 4539205
2.32583 1.3247 5.1276498 5394771
2.33884 1.32392 5.1387801 5460821
2.3539901 1.30799 5.0915999 5855579
3.0922401 1.382 5.3698301 6513250
3.1029201 1.37813 5.3712902 5986389
3.1605401 1.40211 5.4407601 4340794
3.59729 1.52459 5.9439802 5393741
3.6121299 1.52342 5.9414201 5394255
3.6593399 1.53362 5.9885201 5262925
3.6795199 1.53327 5.9970498 5196875
3.7182 1.54426 6.0228901 5065290
3.7318299 1.5414 6.01512 4604482
3.8887701 1.54803 6.0327802 5526614
3.8889301 1.53369 5.99088 5855579
0.87880999 1.11988 4.2853999 5658458
0.89466298 1.11692 4.30158 10198688
0.90303802 1.12191 4.3098202 10461859
0.91555399 1.11913 4.3038802 10725031
0.93237603 1.12263 4.3203101 10790825
1.21975 1.2515301 4.7927899 5789528
1.22973 1.25135 4.80088 5987163
1.26717 1.25608 4.80445 5395283
1.27851 1.2552 4.8045802 5592662
1.28801 1.25805 4.81143 5724248
1.32222 1.2533 4.8343701 5066061
1.33145 1.25861 4.8382401 4934218
2.12304 1.3410701 5.1724701 3486773
2.1834099 1.34267 5.18578 7302506
2.2085299 1.34207 5.1824198 6775906
2.2262599 1.34813 5.1718502 3092013
2.23842 1.34679 5.1699901 2960427
2.26526 1.35393 5.2046299 3091758
2.2723601 1.34781 5.1936498 3289137
2.28792 1.34746 5.2050099 3486772
2.3096099 1.33829 5.1437998 5065549
2.3171301 1.3323801 5.1374202 5263185
2.3315699 1.33015 5.1006598 5658200
2.3422101 1.3214999 5.1102099 5790042
2.76439 1.43567 5.5266099 4144444
2.8167701 1.44728 5.57335 4078908
2.83553 1.44291 5.58181 3486772
2.8973601 1.4612499 5.6135802 3223343
2.94256 1.40514 5.3914099 5790299
2.9493201 1.3952399 5.3703299 6119265
2.9611599 1.38911 5.3624701 5922401
3.06703 1.39432 5.3506298 8619399
3.0952001 1.39288 5.3586602 5197133
3.0824001 1.3940901 5.3575602 8816520
3.1098499 1.39215 5.3656402 1314830
3.1584799 1.40783 5.4360199 1643282
3.6037099 1.5387 5.9422202 5393998
3.6382699 1.5446399 5.9573698 6052441
3.6596401 1.5467 5.9693198 5723219
3.68242 1.54974 5.9851198 5460048
3.7176099 1.55677 6.0119901 5131082
3.7297599 1.5532399 6.00173 4407359
3.75647 1.5632 6.0036302 4210238
3.87994 1.5575 5.99224 5197649
3.8929701 1.56066 6.0242 4671306
4.0046902 1.51133 5.8164802 4671820
0.87355 1.12839 4.2886701 5395286
0.879296 1.13179 4.28338 5395029
0.89701802 1.12973 4.3013802 8619399
0.88669598 1.12397 4.2884302 6776939
0.90576601 1.13583 4.3129201 7632245
0.91403699 1.14127 4.31954 6513506
0.92021298 1.13686 4.30831 6776935
0.93553799 1.13754 4.3222399 7566451
0.94539702 1.13674 4.3204398 7829622
1.2179101 1.26192 4.7799101 6184542
1.22983 1.26232 4.7895598 6513507
1.23858 1.26044 4.7902498 6513763
1.28644 1.27025 4.8238502 5921626
1.29921 1.26976 4.8146601 6053214
1.32268 1.2666399 4.83041 5395027
1.32207 1.26658 4.8298998 5395027
1.32644 1.26911 4.8196001 5460820
2.11935 1.35868 5.17273 3355188
2.2021899 1.3528301 5.1813698 8026229
2.2158101 1.35101 5.1710401 4473408
2.2318499 1.36213 5.1767702 3684149
2.26794 1.36652 5.1957798 3683895
2.27194 1.35822 5.17665 3749688
2.27999 1.3528399 5.1681199 3947324
2.2915001 1.34918 5.1414199 4539204
2.3158801 1.34778 5.1307402 5263185
2.32462 1.34111 5.1233301 5526358
2.74195 1.44586 5.5127602 4867910
2.7723701 1.4484 5.5271301 4802117
2.75775 1.44795 5.5229201 4670532
2.82077 1.45889 5.5696001 4671044
2.9156599 1.4293 5.4563498 5197392
2.9260499 1.42261 5.4187799 5592407
2.9330699 1.41206 5.40452 5592663
3.0552299 1.39605 5.3510799 9738138
3.0898099 1.4071701 5.35498 10066585
3.10391 1.40661 5.3586102 4012858
3.11446 1.40676 5.3621802 2696484
3.1426599 1.40931 5.3845401 1972248
3.14835 1.4152499 5.4040999 2038298
3.58846 1.55829 5.9633899 2103066
3.59882 1.5532399 5.9500599 3617331
3.61199 1.55316 5.9415598 6315613
3.6484599 1.56192 5.96525 6512992
3.6661899 1.5613 5.9667101 6512735
3.6831801 1.56146 5.97542 6446943
3.7118101 1.56682 5.9919701 6118235
3.72981 1.5663199 5.9981298 4933960
3.80916 1.58549 6.0665398 4407874
3.8085899 1.58968 6.0689802 4605253
3.8440599 1.58895 6.0685301 5197134
3.8208201 1.54801 5.9228401 5789528
3.88432 1.56513 5.9830899 6448230
3.99244 1.52209 5.8281999 8027263
3.9962299 1.5139 5.8129501 6053216
4.0847602 1.53467 5.8802099 5132631
4.10532 1.53431 5.8883801 5659235
0.88684201 1.13735 4.2892199 5526870
0.89202702 1.13995 4.3025599 6316130
0.91968101 1.15165 4.3245001 4934219
0.94423997 1.1498801 4.3338599 6052697
0.95579499 1.15265 4.3432298 5789525
1.21436 1.27343 4.783 5986906
1.22412 1.27096 4.7758398 6513507
1.2412 1.2753 4.7940602 6711398
1.2737499 1.27091 4.8101101 5790040
1.28448 1.28124 4.8129802 6316384
1.29041 1.27799 4.8048701 6447972
1.3127 1.274 4.8210001 5921627
1.3166 1.2765501 4.8096199 6118750
2.1259301 1.36728 5.1547899 4210751
2.1347499 1.3613501 5.14816 7302509
2.14607 1.3569601 5.1347299 8552575
2.2112401 1.36778 5.1719999 7105128
2.27318 1.36976 5.16401 3947067
2.32323 1.35733 5.11974 5197393
2.74225 1.45824 5.49682 5526096
2.76476 1.45946 5.5187302 5131339
2.7776101 1.4584301 5.5181899 5196876
2.8004501 1.46226 5.5221 4999753
2.8540001 1.4627301 5.5430598 4013116
2.8585401 1.45386 5.5155802 3947323
2.9161401 1.43171 5.4282098 5197649
2.9254501 1.438 5.41434 5263442
2.93505 1.43088 5.4026699 5789786
2.9483199 1.41811 5.3822498 5921886
2.9584899 1.40927 5.3526001 5197908
2.95451 1.4226 5.35987 4408391
2.9672401 1.4222 5.3555498 5527130
3.0111799 1.42336 5.3605399 7764091
3.0410199 1.42449 5.3677301 8751241
3.12219 1.42292 5.3649602 3419436
3.58534 1.57454 5.96772 1773331
3.5911701 1.56731 5.9461298 3156267
3.60286 1.56645 5.9347901 5328719
3.61989 1.5667 5.93573 6907750
3.6488299 1.57815 5.9555202 7039593
3.6879399 1.58413 5.9898 7105129
3.7083199 1.58429 6.0013499 6973544
3.7232699 1.58201 6.00279 6513249
3.7446899 1.58399 6.0104098 5065547
3.7666199 1.58356 6.0164099 4670789
3.7887199 1.5775501 5.9660401 5657941
3.7966599 1.5709 5.9471998 5855321
3.8092101 1.56481 5.9373298 6118493
3.8146 1.55154 5.8810902 6316130
3.9928899 1.5305001 5.8090901 9014414
4.00002 1.52168 5.7809601 4474185
4.0728102 1.55469 5.8755999 5132116
4.09374 1.5544699 5.8835402 5066581
0.88145 1.14905 4.3010702 4342340
0.89703703 1.15563 4.31707 4605255
0.93084198 1.15731 4.31987 6052700
0.94754899 1.1614 4.3428998 4999754
0.95761901 1.15798 4.33425 4538946
1.21558 1.28487 4.7807598 6052955
1.22437 1.28175 4.77109 6645349
1.2361 1.2825201 4.77879 7040106
1.24944 1.27746 4.7926002 6579555
1.2934901 1.29401 4.8129802 6974315
1.3123699 1.28953 4.8214402 6645094
1.31759 1.2920099 4.8150101 6710886
1.32645 1.2843 4.8193302 6052956
2.11567 1.37621 5.1726799 2302500
2.1168499 1.3750401 5.1686201 2828844
2.1324 1.37621 5.1378102 6776165
2.1433401 1.3716201 5.1333199 9013125
2.2059 1.38392 5.1722798 8618366
2.21632 1.37898 5.1626201 5262924
2.3046999 1.37135 5.1405902 4736839
2.3139501 1.36426 5.12956 4868170
2.3254299 1.37251 5.1255999 5394772
2.7576599 1.47104 5.5174198 5460560
2.7849801 1.47017 5.5135398 5262669
2.85113 1.48498 5.55792 4802632
2.8538001 1.47267 5.5223598 4276287
2.8681901 1.46486 5.51088 4210494
2.8985701 1.44651 5.4402699 4671303
2.91644 1.44724 5.4272699 4934476
2.9423101 1.43578 5.3740702 5855835
2.9493599 1.43454 5.3769999 5329749
2.9758 1.4358 5.36099 5526873
2.9788899 1.41756 5.3172302 6448488
3.0186901 1.4369299 5.3624401 5723993
3.03777 1.42443 5.3450899 7698039
3.06584 1.424 5.3389301 8158332
3.08287 1.42195 5.3493199 8618626
3.1043799 1.43204 5.3469801 2759966
3.59165 1.57798 5.93117 3354415
3.62637 1.57881 5.9453402 7105386
3.6566401 1.5915999 5.9531498 7368558
3.6877601 1.5989799 5.97576 7697523
3.7142999 1.60145 5.99719 7434351
3.7306299 1.59624 6.0018802 6841958
3.79568 1.57761 5.9212599 5987164
3.78807 1.55794 5.8683701 6118494
4.1020198 1.57372 5.88657 5198680
0.88329601 1.16728 4.3194499 4737354
0.89345801 1.16708 4.3222899 7566453
1.22235 1.29461 4.7792301 6644835
1.2288899 1.28926 4.7611699 6974313
1.25922 1.29106 4.7717299 6908007
1.3208899 1.3077 4.8240199 7039851
1.32741 1.29764 4.8196902 6645093
1.34404 1.29597 4.8137298 5263181
2.1138699 1.3911901 5.1620698 2236707
2.1234901 1.3837301 5.1504302 4276545
2.14009 1.38718 5.1296301 9079432
2.13873 1.38706 5.12784 8881797
2.1475101 1.38177 5.1233201 9276298
2.2119901 1.39415 5.16294 7828851
2.2203901 1.38904 5.15236 4999496
2.28754 1.40562 5.21171 4144446
2.2942801 1.3954999 5.1602201 4604997
2.3022101 1.3840801 5.1265998 4999755
2.78232 1.4885401 5.5102901 5657426
2.85058 1.49314 5.5396399 4934475
2.85917 1.48753 5.5182099 4473667
2.9090199 1.45981 5.4182601 5329235
2.9326701 1.44907 5.4047298 6053215
2.94645 1.4508899 5.3702202 5066320
2.98138 1.43698 5.3379598 5197908
3.0069201 1.43716 5.36163 6053216
3.0289099 1.4357001 5.3510699 5394771
3.08321 1.43441 5.3333998 4273462
3.12392 1.44144 5.3628602 2890782
3.59776 1.59041 5.9250498 4407616
3.6113701 1.58989 5.9196901 7368815
3.6366999 1.59457 5.93259 7697523
3.6663401 1.59833 5.96242 7500144
3.65605 1.60339 5.9362998 7829109
3.73665 1.60904 5.99646 7039080
3.7140801 1.6112601 5.97752 7763316
3.7929399 1.58135 5.85394 6053215
3.82148 1.56524 5.8393898 6185059
4.0027699 1.5514801 5.7760601 4737099
0.88097501 1.1846 4.3260298 5723991
0.888861 1.17694 4.3214598 7303281
0.90290803 1.18317 4.3247499 8421760
1.21121 1.3038501 4.77601 5000010
1.2204 1.3003 4.76053 6513506
1.25164 1.30178 4.78231 7434607
1.25591 1.30621 4.7717299 7303021
1.2653199 1.30627 4.7793198 6842214
1.28332 1.31023 4.7955799 6776164
1.31638 1.31322 4.81668 7302766
1.3337801 1.31058 4.8168101 6579042
1.34285 1.3105 4.8181801 5460560
2.0244601 1.4010201 5.1301198 657163
2.1116099 1.40826 5.1595602 1644571
2.1298499 1.3938299 5.1377401 5197646
2.2167301 1.40451 5.1483002 5789011
2.2811201 1.42875 5.2435799 3881274
2.2869501 1.41939 5.2077599 4144702
2.2903199 1.40712 5.1853399 4407874
2.3011701 1.40488 5.1459599 4868170
2.3018799 1.40117 5.1291399 4999756
2.31235 1.3962801 5.1289101 5197391
2.3206201 1.38913 5.1256599 5657943
2.73125 1.48641 5.4646602 6578784
2.7692299 1.4927599 5.4982901 5920597
2.7919099 1.49453 5.5008702 5789269
2.82512 1.50388 5.5446301 5920856
2.8606 1.5075901 5.5297899 4736582
2.8721199 1.50188 5.5193 4276030
2.9096899 1.49605 5.5247002 4671045
2.91137 1.47583 5.4186702 5395028
2.9280901 1.46539 5.4058199 6250594
2.9677701 1.45988 5.36588 5526614
3.13712 1.4514199 5.3601098 3284769
3.55721 1.62053 5.9559698 2298647
3.5952599 1.61796 5.96595 2628638
3.59358 1.60507 5.9310498 3683123
3.60251 1.60225 5.9172301 6184541
3.6178701 1.60261 5.9151402 7960953
3.7279699 1.62203 5.9933 7829109
3.74366 1.6220599 5.9917302 6644834
3.7556601 1.61745 5.9721599 5986905
3.8121099 1.58083 5.8485999 6119009
3.8505599 1.58649 5.8295598 5921889
3.8572299 1.58083 5.8055 6447975
3.9925301 1.5613199 5.7803502 4342340
0.86953902 1.19963 4.34622 3552307
0.88089401 1.19789 4.3343601 3881529
0.880162 1.19828 4.3347201 3815736
0.88693702 1.18774 4.31775 5131597
0.892914 1.18734 4.31499 5394769
1.22623 1.3139 4.76267 6908007
1.23781 1.31385 4.76126 7303021
1.26324 1.31752 4.7765899 6842214
1.27457 1.3180701 4.7852201 6118234
1.29344 1.3173701 4.79248 6908007
1.30752 1.32056 4.8053198 7171179
1.32126 1.3231 4.8113499 6974056
1.3326 1.32391 4.8153801 6644834
1.3397501 1.3213201 4.8076501 5789268
2.01756 1.41245 5.1423998 787207
2.11799 1.41916 5.1498699 3289395
2.1271999 1.41154 5.1379499 4605510
2.1377299 1.40319 5.1236501 8487552
2.13622 1.40405 5.1254001 7960952
2.2072301 1.41128 5.16078 8881282
2.2881899 1.41987 5.1779299 4670790
2.2898901 1.41132 5.1519399 4868168
2.30971 1.41102 5.1201801 5592149
2.3352799 1.40431 5.1048799 5395027
2.34361 1.39419 5.0966101 4802633
2.3596699 1.40209 5.0868101 4868168
2.7391601 1.5081199 5.4785199 7105128
2.75299 1.50018 5.4881501 6446941
2.7660799 1.51186 5.4971099 6644320
2.77701 1.50757 5.4977298 6381405
2.79053 1.50687 5.4967299 6118235
2.8438499 1.51113 5.53163 5197390
2.8663399 1.51951 5.5254302 4604996
2.88591 1.50914 5.4840102 4868169
2.8967299 1.4947799 5.4695201 4934218
2.90115 1.48274 5.4222298 4934476
2.9154501 1.48492 5.4169998 5526870
2.9245 1.48174 5.40628 6118752
2.9630301 1.47007 5.3813701 5855835
2.9639699 1.47197 5.3807502 5790042
2.9781201 1.46556 5.34759 4013374
3.06144 1.47706 5.3737502 7368816
3.0699799 1.46821 5.36133 7434351
3.0767901 1.4586999 5.3439598 2432285
3.1294401 1.4627 5.3579001 2167831
3.5597899 1.63901 5.9636302 590343
3.5653701 1.63325 5.9460502 721414
3.5841601 1.63407 5.9647498 1312523
3.5915201 1.6250401 5.9353299 3353133
3.5969601 1.62234 5.9100299 4605252
3.6230299 1.61348 5.9035702 8224124
3.6533201 1.62306 5.9408398 8289660
3.7526 1.63437 5.9888601 6118234
3.76402 1.63599 5.9594798 5855064
3.77057 1.62686 5.9404802 5855064
3.7806699 1.61858 5.9235702 5526356
3.7927699 1.61116 5.90979 5855579
3.8236301 1.59618 5.8534002 6711147
3.8450501 1.60431 5.8364201 6382439
3.8551099 1.5985301 5.8217101 6777196
3.85936 1.59456 5.8013601 5658458
3.8778 1.58937 5.7993398 3882047
4.1124201 1.63173 5.94666 4342858
0.88438302 1.20017 4.3189301 3683637
1.21595 1.33456 4.80165 5197132
1.23193 1.32442 4.7606602 7105642
1.25201 1.32985 4.7754598 7237227
1.26115 1.32877 4.7738199 7105385
1.25969 1.32928 4.7797298 7105385
1.2709 1.32715 4.77457 6512992
1.29352 1.33269 4.7998099 5723733
1.3036 1.33513 4.8055201 5789269
1.3332601 1.33351 4.8238301 5657683
1.33649 1.33708 4.8092899 5262925
1.42993 1.30369 4.6816301 6053730
1.43791 1.29484 4.67133 5526872
2.1255701 1.42916 5.14077 4605254
2.1350901 1.42079 5.1236601 7040107
2.14396 1.41456 5.1154299 9539983
2.2130699 1.42177 5.1507502 7697264
2.2321 1.42272 5.1465802 4144443
2.2843699 1.43515 5.1803899 4933961
2.30022 1.41775 5.1293898 5197135
2.3103299 1.42312 5.1213899 5921115
2.3397601 1.41433 5.09659 4999755
2.3549199 1.41526 5.0950499 4736581
2.7526 1.5211 5.4920802 7105129
2.78708 1.52203 5.5048599 5855062
2.8826499 1.51987 5.5093002 4605253
2.90604 1.49867 5.4298501 5131855
2.91699 1.49702 5.4105201 5987422
2.9234099 1.49154 5.3972602 6052958
2.9532001 1.49783 5.3917999 5723992
2.9599299 1.48532 5.3889399 5723993
2.96591 1.48941 5.37637 3815994
2.96667 1.48026 5.3700399 4079166
2.96978 1.4765199 5.3566298 3421236
3.0627 1.492 5.40453 3684665
3.0704501 1.48506 5.3618202 1250067
3.1328599 1.4736 5.3447499 525319
3.5743899 1.6541899 5.9599299 459013
3.5915101 1.63703 5.9173102 4011576
3.6015601 1.63537 5.9029498 6118491
3.6271901 1.63252 5.90838 8684418
3.6464701 1.63322 5.91746 8618881
3.74628 1.65256 5.9882498 6118748
3.7714601 1.64595 5.9464002 6381921
3.7653601 1.63823 5.91078 6644837
3.7887001 1.6352299 5.9162998 6579302
3.79865 1.62909 5.8859401 5986909
3.8077199 1.6181999 5.8719802 5921373
3.81988 1.61226 5.85426 6908526
4.0854101 1.64309 5.9281101 5197908
0.87705499 1.21035 4.3310699 3749429
1.23771 1.33462 4.7597599 7171178
1.25718 1.3394099 4.76898 7368557
1.2721601 1.34104 4.7785001 6973543
1.27004 1.33663 4.7772799 6973543
1.28166 1.33878 4.7741499 6710883
1.29835 1.3451101 4.7955999 6513248
1.32789 1.3475699 4.80862 7631987
1.34083 1.34603 4.8033299 5789013
1.3428 1.3472199 4.8025198 5591890
1.35302 1.3453799 4.7947402 5262925
1.43406 1.31304 4.6737199 5461079
1.43402 1.31312 4.6737599 5461079
2.0091 1.43097 5.1360998 3086878
2.0221601 1.43173 5.1280699 1969169
2.0394199 1.42612 5.1085 1840152
2.0482099 1.42419 5.10954 2301474
2.0458601 1.42872 5.1010499 2367267
2.11658 1.43575 5.1507201 2302244
2.22422 1.43677 5.1512799 4934215
2.2378099 1.43742 5.1553702 4013114
2.2813399 1.45061 5.1831398 4868425
2.2897401 1.4439501 5.1673298 5065548
2.3036201 1.4323699 5.1375699 5394514
2.3212199 1.43203 5.1111999 5920858
2.3304501 1.42393 5.1012602 5394513
2.3483901 1.42722 5.0987601 4933446
2.3614299 1.4266 5.0907302 4144187
2.3615899 1.41091 5.0669098 3946809
2.76354 1.53096 5.4960699 6973799
2.7785001 1.53335 5.5007 7302764
2.82795 1.5586801 5.5630202 7039593
2.8439 1.54392 5.5304198 5460305
2.8548801 1.54193 5.5226402 4999754
2.88115 1.5254 5.4804401 5197390
2.90008 1.51827 5.4252801 5131855
2.90926 1.50859 5.4179802 5789786
2.91786 1.5103199 5.3940001 5855579
2.9446001 1.50709 5.4037099 5724249
2.96064 1.5025899 5.3824601 4210496
3.06581 1.49599 5.3839202 789517
3.0754099 1.50422 5.3712802 197381
3.0788801 1.49272 5.34905 263175
3.5750301 1.65277 5.9274902 1115657
3.58255 1.6499 5.9186702 2233882
3.59497 1.64877 5.9068098 4078138
3.60145 1.63722 5.8861399 8026488
3.7802999 1.65258 5.9137502 6513509
3.7887199 1.64136 5.8990102 6645095
3.8052299 1.63994 5.8648801 6382181
3.81707 1.6297899 5.8492899 6842733
3.8429201 1.62989 5.8359399 6711145
3.84724 1.6147701 5.8197198 6711146
3.8560901 1.61493 5.8004298 4474182
3.86553 1.60716 5.78687 4079168
4.0777898 1.64575 5.8889999 5724510
4.09446 1.63764 5.8673501 5790563
4.0978699 1.6389199 5.8702898 5790820
4.1064301 1.62931 5.8562498 6185837
4.0995002 1.62755 5.8411698 6185838
1.2180099 1.34911 4.7975798 5460047
1.23509 1.34877 4.7719698 6710627
1.24356 1.3448499 4.7574501 7039593
1.26377 1.34542 4.7708702 7368301
1.26659 1.34986 4.7704802 7302508
1.277 1.34885 4.7706599 6841957
1.30443 1.35921 4.7974801 6513249
1.33729 1.35791 4.8072801 6908007
1.3474 1.35629 4.7965398 5328718
1.4263901 1.32285 4.68293 5921887
1.44862 1.31564 4.6785402 5131596
1.44855 1.31569 4.6785302 5131596
2.01317 1.44586 5.13656 3218207
2.02474 1.4486099 5.1271 2100498
2.0362301 1.44485 5.1167402 1575953
2.0458801 1.43815 5.1052098 2301474
2.0576799 1.43223 5.1008501 2302246
2.0545599 1.4405299 5.1020899 2368294
2.11392 1.4536099 5.1521602 1644058
2.1227601 1.44566 5.1367798 4341827
2.1317201 1.4397399 5.1289101 5000013
2.1317101 1.43973 5.1291699 5000013
2.14031 1.44433 5.1193399 8158333
2.21138 1.4505 5.1424599 9013638
2.2283299 1.44577 5.1432099 4736837
2.2847099 1.45739 5.1642199 4605254
2.2959499 1.4501801 5.1532698 4802377
2.3043301 1.44285 5.1373901 5723222
2.3264999 1.43743 5.0916901 5262413
2.3391299 1.44015 5.0987501 4999239
2.7527399 1.54732 5.4904399 7565936
2.76916 1.5469199 5.49895 7565936
2.7842901 1.5448101 5.4973798 7302765
2.8372099 1.56295 5.54355 7039594
2.8447399 1.55116 5.5309701 5855320
2.8501501 1.5626 5.5272698 5460562
2.8554499 1.54879 5.5215998 5065547
2.88077 1.54282 5.49788 4868425
2.88199 1.53537 5.4656401 5197647
2.88469 1.5462 5.47047 4868426
2.89779 1.53119 5.4538102 5065805
2.9068 1.53097 5.4151902 5724249
2.9497499 1.5289 5.40835 5197646
2.93661 1.51377 5.3989701 5658456
2.9546599 1.52297 5.3903499 4342081
2.95663 1.51793 5.3931599 4342337
3.0917201 1.51921 5.3828702 65796
3.5546 1.6681401 5.93682 590857
3.5780699 1.66914 5.9201698 1575694
3.58815 1.66128 5.9036899 3682353
3.6005199 1.66144 5.8885899 6250077
3.77442 1.6554 5.9053402 6447715
3.7917199 1.6637599 5.89959 5789786
3.7970901 1.65131 5.8802199 5855579
3.8159101 1.64083 5.8442798 6645353
3.8361101 1.6425101 5.8495498 6382437
3.8517201 1.6330301 5.81357 5065806
3.8549399 1.62756 5.8113999 4803147
3.86832 1.63328 5.8060298 4473923
4.0844102 1.64596 5.8796802 5790304
4.1016402 1.6504101 5.85288 6251373
1.22171 1.36529 4.7926102 5854804
1.2298501 1.36105 4.7803001 6578784
1.2800699 1.3607301 4.7746801 6842213
1.31317 1.36473 4.7879701 6907750
1.33213 1.36797 4.80481 7697523
1.34445 1.3686301 4.80231 5789526
1.41952 1.33293 4.6942301 6119521
1.43137 1.32245 4.6529498 5461076
1.44226 1.32751 4.6433001 4605250
2.0132699 1.45617 5.1258702 3415585
2.0252399 1.45699 5.12393 2166033
2.03069 1.45897 5.1192598 1574668
2.0364699 1.45271 5.1140299 1510416
2.0462101 1.44546 5.1006899 2301731
2.1198299 1.4633 5.1368098 3223090
2.1289001 1.45575 5.1233802 5000014
2.1359401 1.4553601 5.1117001 6776424
2.1494401 1.4557101 5.1196299 9671314
2.20702 1.46479 5.1406598 9276810
2.2175601 1.46061 5.1331401 7039591
2.2841599 1.47522 5.1716499 4013117
2.2933099 1.46875 5.1584001 4802634
2.2994699 1.45977 5.1367302 5723479
2.31777 1.45279 5.11199 5789271
2.3322101 1.4444 5.0757999 4801859
2.7594099 1.5638601 5.49542 8355708
2.7830601 1.55185 5.4783702 7237228
2.8085599 1.5595 5.5026598 7105643
2.8571899 1.5593801 5.5064998 5000010
2.8971601 1.55133 5.4556398 5000526
2.8988299 1.54006 5.4308701 5461077
2.94367 1.54017 5.4253998 5460562
2.9469299 1.53186 5.4071698 5197646
3.07724 1.5756 5.5665798 5000010
3.1003699 1.58794 5.57342 131587
3.5478499 1.6820199 5.9412298 590343
3.5667701 1.6770101 5.9317698 1576466
3.5930901 1.67202 5.9050798 4077367
3.61606 1.6634901 5.8604002 9408142
3.8076 1.66397 5.8648701 6842731
3.8255899 1.66142 5.8568702 6184801
3.84027 1.65909 5.84759 5658712
3.8471 1.64676 5.8311501 5329234
4.0809598 1.66452 5.87712 6316648
4.0929899 1.6651 5.8501201 6119786
4.10603 1.66311 5.8452501 6910075
4.10882 1.6525199 5.8255801 7239811
0.74079102 1.29609 4.52384 5986649
0.90671802 1.27435 4.4388199 4539458
1.23473 1.36972 4.7732501 6578783
1.24406 1.36704 4.7628698 7039591
1.27561 1.3724101 4.7745199 7039336
1.30135 1.37134 4.7941198 6710370
1.30959 1.37817 4.7973399 6973543
1.33692 1.37866 4.80054 7171179
1.34707 1.38042 4.79073 5328975
1.34802 1.37805 4.7935901 5065803
1.4222701 1.3477 4.6921301 5197648
1.42294 1.34703 4.6922002 5197648
1.4348201 1.33742 4.6522198 4604996
2.01844 1.46705 5.12079 3217949
2.0206201 1.4699 5.1206102 3020570
2.0366001 1.4694099 5.1091599 1510159
2.0466001 1.4617701 5.0988898 2235938
2.0462999 1.46252 5.0967302 2235938
2.1449399 1.46652 5.1096101 9342606
2.21225 1.47579 5.1336498 9079432
2.28214 1.47967 5.1416602 5131599
2.3047299 1.4782799 5.13832 5855063
2.31723 1.4691499 5.1193299 5197133
2.32164 1.45601 5.0617499 4604737
2.8441601 1.57652 5.52741 6645093
2.84951 1.58696 5.5172601 6052700
2.8563499 1.57488 5.5066099 5065803
2.8820901 1.5709701 5.4794898 5066061
2.8854001 1.55845 5.4642 4473925
2.9417 1.55004 5.40625 4539204
3.07863 1.59527 5.5917201 5657939
3.1017499 1.60873 5.5978398 394502
3.5525899 1.69926 5.95401 655623
3.5870299 1.6904 5.8917298 3681840
3.5991299 1.68514 5.8909202 4670788
3.6069 1.67512 5.8740501 9276556
3.82004 1.68274 5.86904 5789529
3.82356 1.67354 5.8389401 5263441
3.84372 1.67319 5.85112 5132112
4.0626898 1.67299 5.86976 6053474
4.1178498 1.67766 5.8577399 7239296
4.1832199 1.66982 5.8394799 7634312
0.73798698 1.30624 4.52003 5920856
0.73600101 1.30453 4.51121 6052442
0.90659899 1.29959 4.4757099 5065802
1.24535 1.37738 4.75033 7171177
1.27516 1.3824 4.7634401 7105128
1.33713 1.3898799 4.7930198 7039593
1.3674001 1.3889 4.7779298 5986905
1.40657 1.36665 4.7121801 5723990
1.4141901 1.35669 4.7024698 5460820
1.41943 1.36359 4.70121 4407872
1.43527 1.35021 4.6818199 4604739
1.43902 1.3526599 4.6524701 4012856
1.4391201 1.3447599 4.6431799 4209979
2.0116701 1.47685 5.11656 3678243
2.0139599 1.4798 5.1168599 3612450
2.02391 1.4779299 5.1174698 2691862
2.0260799 1.4809999 5.1169901 2494740
2.04336 1.47843 5.0950999 2037789
2.0508599 1.46912 5.0792599 2368295
2.11689 1.48096 5.1367998 1907486
2.1401899 1.47745 5.1005902 8618883
2.2983799 1.49747 5.1580801 5263183
2.3077099 1.49115 5.13976 4802118
2.3129301 1.48306 5.1183 4341823
2.32528 1.4709001 5.1023402 4539201
2.78161 1.57452 5.4710798 7763572
2.8586299 1.58851 5.5032601 5000009
3.09077 1.62939 5.6298099 6447199
3.0990701 1.62603 5.6168599 4144702
3.11571 1.62827 5.61936 131588
3.54984 1.70834 5.9300299 786952
3.5665901 1.7072099 5.9147902 983816
3.5785501 1.70025 5.9084001 1641232
3.5957699 1.70409 5.8837299 4341310
3.6042299 1.69735 5.869 8289917
3.6037099 1.69686 5.8692298 8092538
3.81639 1.70438 5.9031901 5921370
3.83621 1.698 5.86342 4342081
3.86042 1.68453 5.8503199 5000013
4.1219101 1.7009799 5.8824601 6844023
4.1501498 1.6931601 5.87609 7305346
4.16676 1.67629 5.8269 7765898
4.1536198 1.66584 5.76441 6318452
0.71203899 1.31875 4.5023599 6381406
0.72388101 1.31756 4.4963398 6052441
0.74192899 1.31252 4.4970102 5920856
0.742558 1.31142 4.4944 5855063
0.772524 1.33093 4.5363798 4012858
0.85745299 1.3261499 4.5413599 3947063
0.86935902 1.33095 4.5341702 3947063
0.88544399 1.3180701 4.4943299 4078648
0.90680897 1.31411 4.47646 5723732
1.23945 1.3911099 4.7484398 6578784
1.24967 1.38791 4.7397499 7236971
1.27566 1.39315 4.7561498 7171178
1.33526 1.40117 4.7832599 6908006
1.34148 1.39649 4.7718701 6842214
1.37809 1.39116 4.7645998 6315871
1.39115 1.38491 4.7274499 5855577
1.39939 1.3789099 4.7101002 5263183
1.41101 1.3773 4.7045202 3683892
1.47137 1.4098099 4.8116598 3420720
2.01998 1.49011 5.1128898 3217949
2.03249 1.48897 5.1090398 1640462
2.0506699 1.48718 5.08075 2302503
2.1231999 1.48873 5.1156301 4210241
2.1338799 1.48856 5.10109 5526870
2.14554 1.48813 5.0959601 9606034
2.2198 1.48914 5.1248798 7105385
2.2268801 1.49894 5.1197801 5460303
2.7752099 1.59268 5.4789801 8289917
2.7923801 1.59293 5.4695501 7434608
2.84273 1.60141 5.5178299 7171438
2.8529501 1.60136 5.5164599 6513506
2.8559899 1.6016099 5.5118799 5987162
2.86098 1.59789 5.50246 5066059
2.8708601 1.59619 5.4900198 4737095
2.8903899 1.59892 5.4920301 5262927
2.9030499 1.59891 5.4863 5131341
3.09851 1.645 5.6309199 7236971
3.1240699 1.64038 5.6116099 3
3.56533 1.7103 5.8882198 1180682
3.57283 1.71606 5.9000301 1312267
3.5854199 1.71172 5.8927598 3023398
3.7915001 1.71525 5.9095602 6381665
3.82337 1.71863 5.9264998 5065805
3.8290601 1.7096 5.8807998 4078909
3.9718201 1.76167 6.0416002 3420977
4.0102601 1.7397 5.9671102 4605508
4.1163802 1.71509 5.8858399 5067096
4.1299 1.71465 5.8791399 5001819
4.1584201 1.67677 5.7495298 7107967
4.2100101 1.6857001 5.78304 7371140
0.74048299 1.32542 4.5004702 5592147
0.74973601 1.3293101 4.5109 5065547
0.75733399 1.32845 4.5050802 4210494
0.78026903 1.33556 4.5138402 3026218
0.86139601 1.34061 4.5413399 4078649
0.89750803 1.32148 4.4850898 5460559
1.2519799 1.3932199 4.7188101 7039592
1.34488 1.41493 4.7873998 6578785
1.3706 1.40174 4.7739301 4671301
1.37688 1.4119101 4.7742701 3157293
1.38604 1.3966399 4.7590599 5526355
1.40613 1.39185 4.7102199 2893864
1.43601 1.40994 4.7918 3551793
1.45819 1.42314 4.8263102 3683636
2.0138299 1.5003 5.1096601 3743779
2.02616 1.5004801 5.11028 2428948
2.0394599 1.4986399 5.0963702 1642005
2.0446501 1.50132 5.0841498 2169632
2.11396 1.50652 5.13202 1709851
2.12782 1.50028 5.1056399 5000270
2.13866 1.49638 5.0877299 8027004
2.1507199 1.4979 5.08845 10132378
2.21416 1.49974 5.1199498 9079175
2.23437 1.50964 5.1147799 4670788
2.36327 1.54853 5.2740898 4012345
2.29685 1.50664 5.1448102 3486514
2.3692601 1.54954 5.26652 5262670
2.38237 1.54801 5.2522702 7039337
2.7806001 1.6034499 5.4692502 8158075
2.7846601 1.60884 5.4574299 7697524
2.81671 1.61376 5.4814501 7105387
2.8041501 1.60317 5.4748602 7171437
2.84007 1.6181099 5.52109 7171437
2.84817 1.61352 5.5128899 7368815
2.85883 1.6122 5.5104098 6250078
2.8661599 1.61 5.4970698 4342081
2.8627801 1.62287 5.5020599 4670789
2.8705399 1.61123 5.5021901 4013116
2.8944299 1.6099 5.4841499 3157293
3.0656199 1.65877 5.6392202 8025974
3.0913501 1.65951 5.6344399 7697265
3.1119101 1.64555 5.6164498 460552
3.5745201 1.73754 5.9131298 1049609
3.5771501 1.7271399 5.8836999 2036247
3.5926199 1.72632 5.8882599 3945526
3.6010399 1.7197 5.8666301 5921370
3.60109 1.71925 5.8673801 5855577
3.6596701 1.73028 5.89818 9868950
3.6706901 1.72691 5.8860202 9276813
3.6744599 1.72045 5.86166 8947849
3.74896 1.75117 5.96806 8552834
3.80882 1.7381901 5.934 3025966
3.8431201 1.7415 5.9362502 4210239
3.8314099 1.72852 5.9074602 4210495
3.9637301 1.77372 6.0524602 4934216
3.9647601 1.77174 6.0488601 4605251
4.0264902 1.75416 5.96943 4210238
4.0349798 1.74502 5.9532499 4539716
4.0715799 1.73066 5.8796501 6184804
4.1209502 1.72733 5.8776002 6449261
4.1612802 1.71659 5.8583398 7304834
4.1656098 1.70509 5.8204198 7502726
4.1486702 1.6840301 5.7638898 7107968
4.1434498 1.68068 5.7118702 7239555
0.73504102 1.33814 4.5074 5328974
0.74598902 1.33864 4.5016298 5263182
0.78789699 1.34012 4.4914398 2630948
0.84615701 1.35514 4.5512099 3946808
0.86500901 1.3547 4.54 6841700
0.873348 1.35361 4.5349398 7367787
0.88010401 1.34237 4.5261698 6841698
0.89762503 1.33553 4.48417 7565934
1.2431999 1.40492 4.7353601 6710627
1.3507299 1.42656 4.7863798 5986648
1.36766 1.41469 4.7804899 4275774
1.40045 1.39983 4.7311001 2696229
1.45342 1.43653 4.8329902 3880759
1.53144 1.44101 4.8499198 4209722
2.01879 1.51044 5.1033902 3283742
2.03036 1.51217 5.1029701 1903375
2.0457799 1.5087 5.0836101 2169633
2.0553999 1.4985501 5.07338 2434089
2.1196899 1.51624 5.1167598 2565674
2.13186 1.50559 5.0819402 5724250
2.1438701 1.50765 5.0844202 9145485
2.14413 1.5059299 5.0782499 9342863
2.2112899 1.51191 5.1097498 9211019
2.2227399 1.51077 5.1111999 6052441
2.7570601 1.61853 5.45225 8092283
2.77318 1.61955 5.4577699 7960697
2.79761 1.61979 5.4650302 6513250
2.8490801 1.6311899 5.51754 6907752
2.85851 1.6274199 5.5123 5921113
2.87554 1.62344 5.4934802 3091244
3.0666201 1.67237 5.6278 8223353
3.0992899 1.6691 5.6248498 7960439
3.1110799 1.6632299 5.6143699 1249811
3.1161001 1.65143 5.5886798 65794
3.59957 1.74356 5.8684101 4539205
3.59881 1.74075 5.8676701 4473411
3.6073201 1.73339 5.8524098 9013642
3.60783 1.73177 5.8536 9079435
3.66555 1.7434601 5.8912501 9408657
3.6791201 1.7412 5.8864899 8553347
3.74174 1.76326 5.9596901 7500660
3.77088 1.7574199 5.9376798 3354673
3.7951801 1.75739 5.9418898 2696743
3.8459301 1.77053 5.9909301 2894378
3.86954 1.7697999 5.9946098 4078653
3.87661 1.77332 5.9959698 4209983
3.89726 1.77349 6.0076199 4407873
3.9553299 1.78802 6.0572701 4802632
3.9662299 1.78702 6.0430102 3026220
4.0097799 1.78115 6.00454 3223856
4.0093398 1.7821701 6.0064802 3223599
4.0260701 1.77407 5.9752898 5526354
4.0342202 1.7645 5.9554 5921370
4.0325999 1.74907 5.9194002 5592405
4.0590401 1.7368 5.8933201 6053215
4.08535 1.73358 5.8781099 6645356
4.1040301 1.73765 5.8762102 6580589
4.1129899 1.73174 5.8379698 6449520
4.1131001 1.71077 5.8018398 6976123
4.1202402 1.70512 5.7616701 7568776
4.1298499 1.69613 5.7477798 7502984
4.1475401 1.69507 5.7469301 7305348
0.78288502 1.3504699 4.5229602 2630949
0.795991 1.3513 4.4895301 2696743
0.84935403 1.36215 4.53052 4341310
1.37244 1.43275 4.79251 2696742
1.38641 1.43575 4.8010702 2564899
1.3921 1.43268 4.7978001 2630178
1.39551 1.43326 4.79321 2630179
1.45076 1.44735 4.8269801 4341823
1.4653701 1.44221 4.81954 4999754
1.4791501 1.43778 4.8099699 4868167
1.50236 1.45148 4.8566298 4802117
1.5190099 1.45305 4.8547702 4078649
1.5266401 1.45373 4.8498001 3749428
2.02303 1.52237 5.1002402 2889241
2.0253601 1.52518 5.0997601 2692119
2.0362699 1.52222 5.0935898 1640975
2.0371399 1.52469 5.0912399 1640976
2.0520799 1.52075 5.0780602 2367782
2.13691 1.51756 5.0810499 6908781
2.14922 1.51896 5.0798402 10066587
2.14851 1.51904 5.0797501 10000794
2.2044599 1.52214 5.0992699 9474193
2.21854 1.52308 5.10777 7894646
2.78297 1.62857 5.45825 8421247
2.7966001 1.63952 5.46702 8289661
2.81057 1.63077 5.4725699 6513251
2.8666501 1.63983 5.5117402 4341824
2.87993 1.63965 5.5093002 3420466
2.8738899 1.65187 5.5097599 5592148
2.9084899 1.6453 5.5300598 3157294
3.1061399 1.68075 5.61373 4670789
3.1055801 1.6816601 5.61274 4933961
3.1159599 1.6733299 5.59727 197123
3.11641 1.67594 5.60291 263173
3.1252899 1.66528 5.58571 258
3.12761 1.66664 5.5848799 259
3.5743301 1.7495 5.8859401 1312524
3.5783501 1.75573 5.89047 1378317
3.5899301 1.74989 5.8834 2958632
3.67624 1.76091 5.8959699 9408658
3.6868999 1.75569 5.8873401 9145486
3.74792 1.7754 5.96387 8487556
3.7453799 1.7757699 5.9532399 8684679
3.7506299 1.76568 5.9408798 7368561
3.81532 1.78135 5.97014 4473154
3.88866 1.79299 5.9977999 5394513
3.94238 1.79989 6.0541101 5131597
3.9583499 1.80137 6.0482502 4934475
3.95681 1.79698 6.0440898 4736839
4.0195098 1.78544 5.99439 4802888
4.02387 1.77277 5.9685998 5657684
4.0284801 1.7593499 5.88866 6184798
4.0436001 1.75336 5.8829699 6447973
4.0506401 1.74287 5.8621702 6908781
4.0649099 1.75186 5.8669701 6645353
4.0861802 1.74646 5.8680801 6250854
4.0928001 1.73938 5.8284602 6185831
4.1061602 1.71568 5.76478 7107967
4.1206398 1.72236 5.76543 7437190
4.1238098 1.70439 5.7066002 7437191
4.1237001 1.6963 5.69696 7305605
0.72597998 1.35417 4.4900398 5197387
0.73861903 1.36386 4.5074 5855318
0.74864399 1.36694 4.5060301 6052442
0.788876 1.35558 4.5004101 2828329
0.87849998 1.3714 4.5394301 6973543
1.35703 1.44505 4.79073 6447712
1.36517 1.4411401 4.7856598 4999754
1.37867 1.44355 4.7921801 3815223
1.3997999 1.44364 4.8003201 3354158
1.42659 1.4566801 4.8110199 4999497
1.42697 1.45309 4.81531 4407360
1.43819 1.44815 4.8174701 4275773
1.45783 1.45671 4.82302 6315613
1.46951 1.45673 4.8262801 6315614
1.50981 1.46069 4.85534 5262925
1.5330499 1.45894 4.8456402 4078136
2.0177901 1.53599 5.0987601 3612706
2.0294399 1.53652 5.0936198 2297620
2.0295601 1.5366 5.09448 2297620
2.0423901 1.53309 5.0834098 1773590
2.0497701 1.53476 5.0795202 2235683
2.1454401 1.5323499 5.0715599 9606295
2.1551399 1.5292799 5.0707798 10066588
2.1538799 1.52895 5.0646701 10132380
2.2044599 1.5296201 5.09302 9671829
2.2210901 1.53371 5.0989099 7434610
2.76809 1.63737 5.4503198 8684421
2.8071899 1.6454999 5.4577999 7894904
2.87907 1.66281 5.50386 6776678
2.89184 1.65465 5.51718 4999755
2.89273 1.65532 5.51863 5000011
3.11198 1.6929801 5.6038899 1512726
3.1226101 1.68265 5.5791898 258
3.5643301 1.75846 5.86409 1049866
3.5881901 1.7752399 5.8793302 2234395
3.5984299 1.76815 5.87289 4209726
3.5966499 1.763 5.8714099 4143933
3.6052799 1.75683 5.8526802 6842218
3.6751699 1.77479 5.8839102 9474451
3.7170501 1.7858599 5.92977 9408916
3.7377 1.78537 5.93748 9079694
3.78968 1.7956001 5.9630098 7302511
3.8148301 1.8034 5.98948 6512995
3.829 1.80238 5.97683 5986649
3.8547201 1.80144 5.9864402 5657684
3.8666799 1.79221 5.9841399 5591892
3.94789 1.81467 6.0461602 5592405
3.9623899 1.81411 6.0384302 4868426
4.00739 1.79995 5.9809098 4671302
4.0058198 1.79945 5.9721999 5065804
4.0133801 1.78861 5.9548402 6052700
4.0229802 1.779 5.9407701 6447457
4.02318 1.77139 5.9124398 6250591
4.0365801 1.78906 5.93085 6316385
4.0433002 1.77575 5.9051199 6316641
4.0563202 1.76167 5.8833599 6776938
4.06464 1.77013 5.8684402 6645352
4.0743399 1.7611001 5.8546801 6053216
4.0854802 1.74704 5.8225002 6251367
4.1083398 1.73822 5.80584 6910330
4.1087098 1.74289 5.7775102 6976638
4.1258898 1.72214 5.74155 7766155
0.71425402 1.35992 4.4800901 6118489
0.70874399 1.3645101 4.46246 6579040
0.725366 1.3622299 4.4752302 6776162
0.75945598 1.3661799 4.4877801 5920857
0.78618902 1.37016 4.5029101 4539203
0.882119 1.38912 4.5448198 8026742
0.87830597 1.38633 4.55301 7763314
1.3196599 1.46119 4.7821498 7631730
1.34764 1.45534 4.78163 7302764
1.35996 1.45472 4.7871399 6645091
1.37214 1.45472 4.7934599 5789526
1.38451 1.45391 4.7912302 4999753
1.3954999 1.45359 4.7947502 4604739
1.41383 1.4554 4.8011398 4999240
1.43952 1.46717 4.8073001 6315613
1.4648 1.46576 4.8192601 6644578
1.48115 1.46494 4.8294401 6644578
1.5012 1.47141 4.8511 6184284
1.5103101 1.46877 4.8393502 5723476
1.5281301 1.46984 4.8397298 4538945
2.0216401 1.5462101 5.0900798 3283742
2.0224299 1.54651 5.0904198 3217949
2.0386801 1.54925 5.0836201 1641233
2.04826 1.5453399 5.07936 2169119
2.0584199 1.5462199 5.08213 2499625
2.1513 1.54435 5.0644498 10263968
2.76687 1.65705 5.4511199 8816006
2.8415301 1.66065 5.4816399 7829367
2.8782201 1.6714 5.5208402 7237487
3.1070099 1.71561 5.6594 8618368
3.10146 1.7000999 5.6150699 8289659
3.10144 1.6991 5.6160498 8289403
3.1122301 1.69428 5.6048698 1578518
3.1282499 1.6990499 5.5825801 258
3.5756199 1.78135 5.8838301 1049865
3.6028399 1.7794501 5.8501701 4737098
3.6022301 1.77943 5.8501601 4671049
3.6605 1.7779599 5.88553 10000795
3.79915 1.81554 5.9678502 7960955
3.8211701 1.81596 5.97932 7039595
3.8508 1.81613 5.9828 6381664
3.8964901 1.81364 5.99119 5921369
3.9543099 1.82846 6.0402699 6052699
3.96631 1.83262 6.0285902 3815224
3.9677899 1.8274 6.0308299 3354930
4.0155001 1.8099999 5.9566102 6513508
4.0222402 1.79907 5.9401999 6645351
4.0464001 1.78748 5.8844299 6579557
4.0590801 1.78475 5.86975 6514022
4.0722098 1.77806 5.85183 6119264
4.0759702 1.76594 5.8383098 6184802
4.0864201 1.7521 5.7954898 6580592
4.1145201 1.74554 5.7501202 7305861
4.1280198 1.73735 5.75068 7831949
4.1210399 1.7404799 5.72229 7700620
4.13345 1.733 5.7203898 7634569
0.74284899 1.3703901 4.4721899 7039336
0.75311899 1.37129 4.461 7039336
0.77864802 1.37564 4.4874501 5657683
0.80406302 1.39423 4.5273299 5986904
0.86045402 1.39117 4.5448799 7763315
0.85072601 1.3889101 4.53335 7237227
0.86884302 1.39972 4.54176 8421756
0.87851697 1.3965501 4.5476599 8289658
0.89331698 1.40122 4.5482998 8881795
1.34443 1.46228 4.7719998 7631730
1.34808 1.46363 4.7558699 7763573
1.36479 1.4656301 4.7884402 6776421
1.39446 1.47299 4.7860498 6250077
1.4070801 1.46851 4.7939501 5855062
1.4259 1.46461 4.7934799 5986904
1.44848 1.48019 4.8196402 6908005
1.46509 1.47607 4.8123202 7039592
1.48454 1.4803801 4.8297901 6973799
1.50515 1.47964 4.83427 6118490
1.4962 1.47648 4.8325601 6512991
1.51231 1.48105 4.8302798 5986647
1.52386 1.48118 4.8359199 5065289
2.0191 1.55848 5.0906901 3546913
2.0311601 1.55823 5.0848799 2232083
2.0399499 1.5602601 5.0777898 1641232
2.0533199 1.55743 5.0770602 2367268
2.14235 1.55116 5.0757198 8027777
2.72631 1.65477 5.4085498 9408144
2.75543 1.65922 5.4198098 8947593
2.7713499 1.65602 5.4191899 8750727
2.8026099 1.6634001 5.45439 8618627
2.8269801 1.67408 5.4696102 8421248
3.0985601 1.71934 5.6180801 8815746
3.0985799 1.71831 5.6184201 8815746
3.1171701 1.705 5.5902901 263173
3.1163199 1.70597 5.5896802 328709
3.5853801 1.79836 5.8793702 1510416
3.5931699 1.7879699 5.8614602 3814198
3.66467 1.79531 5.8839102 9935001
3.6815 1.79308 5.8867998 9540244
3.74245 1.80392 5.9094701 9079950
3.7634499 1.80382 5.9190798 8487556
