# .PCD v0.7 - Point Cloud Data file format
VERSION 0.7
FIELDS x y z rgb
SIZE 4 4 4 4
TYPE F F F U
COUNT 1 1 1 1
WIDTH 1371
HEIGHT 1
VIEWPOINT 0 0 0 1 0 0 0
POINTS 1371
DATA ascii
1.75018 -1.62199 15.1458 2897463
1.85356 -1.63 15.0406 3093298
1.94903 -1.62649 15.0256 2172706
2.13376 -1.64255 15.0965 3753031
2.1493499 -1.64078 15.0365 4608342
2.17746 -1.62184 14.9485 4937309
2.2349801 -1.63424 14.9434 5134433
2.2379899 -1.6335599 14.9179 5199970
2.2448399 -1.61891 14.8854 5463399
2.24505 -1.63563 14.8257 5660779
2.2667401 -1.6222 14.8229 5792623
2.46015 -1.60988 14.5887 6055276
2.69011 -1.62438 14.3539 5594720
2.9379001 -1.61728 14.1958 4278598
2.9082999 -1.6055501 13.9445 4936786
-2.72085 -1.30193 14.13 4343619
-1.59692 -1.43589 15.2764 4343877
-1.58427 -1.44969 15.2904 3620410
-1.4092799 -1.4391 15.1535 4014914
-1.38857 -1.43766 15.1327 2962225
-1.3727 -1.4408 15.1642 2961968
-1.38161 -1.44282 15.1438 2962225
-0.933622 -1.47456 15.2683 2896683
-0.95117801 -1.46804 15.2564 3356721
-0.951069 -1.46796 15.2555 3291185
-0.91333598 -1.47457 15.2495 2699048
-0.89156097 -1.47287 15.2023 2633769
-0.82554299 -1.48232 15.1749 2370345
-0.83285201 -1.47421 15.1926 2107172
-0.80296302 -1.47466 15.166 3949380
-0.78693199 -1.46673 15.1636 4673104
-0.76934499 -1.47743 15.1664 5133657
-0.74132103 -1.46547 15.1426 4738898
-0.71900201 -1.47229 15.1532 4541519
-0.62203699 -1.49369 15.1781 3093553
-0.60274702 -1.49599 15.1992 4080449
-0.45958599 -1.5081199 15.2984 4080962
-0.31924501 -1.50687 15.2807 3686464
-0.29143399 -1.49823 15.2859 3555134
-0.27617201 -1.51143 15.2868 3291964
-0.235617 -1.50539 15.2391 2896948
-0.17168801 -1.50634 15.1842 3028535
-0.152849 -1.50694 15.1795 5067605
-0.122708 -1.51852 15.181 4277833
-0.107328 -1.51695 15.1565 3882817
-0.0855093 -1.51759 15.1591 3685437
-0.097977497 -1.49931 15.1667 3817024
-0.062438801 -1.522 15.1813 3422520
-0.052908901 -1.50226 15.17 3422263
-0.043168999 -1.52332 15.185 3225141
0.064349398 -1.51823 15.2707 2830382
0.092305101 -1.5202301 15.2868 3159604
0.129124 -1.54222 15.323 3686463
0.149433 -1.54152 15.3047 3883844
0.179782 -1.53528 15.2644 3686467
0.19967701 -1.5339299 15.272 3423552
0.227668 -1.52703 15.2661 2896953
0.370489 -1.53377 15.2642 1975844
0.38689899 -1.5344501 15.2575 1910051
0.407258 -1.55151 15.2733 1975844
0.407197 -1.55167 15.2749 1975844
0.444089 -1.54722 15.1903 1843744
0.497774 -1.52981 15.1717 3291191
0.51680499 -1.53404 15.1604 3488570
0.540434 -1.53532 15.1736 3554364
0.88588798 -1.55865 15.2697 5134168
1.00044 -1.56328 15.253 5331294
1.02256 -1.56233 15.2317 5068378
1.04996 -1.5709701 15.2499 4410704
1.10671 -1.56814 15.1435 3292221
1.13363 -1.57153 15.1114 6055529
1.17441 -1.57639 15.1193 6187375
1.18817 -1.5747499 15.1056 6121325
1.20772 -1.5739501 15.1029 5529188
1.25711 -1.57452 15.1236 5463136
1.27873 -1.5746599 15.1181 4212810
1.50753 -1.58979 15.2347 4673876
1.54117 -1.58411 15.2207 5266273
1.54321 -1.5985399 15.2035 5266272
1.62659 -1.59647 15.2222 5661032
1.63708 -1.58902 15.1666 5529959
1.6956199 -1.60759 15.2072 5266276
1.74498 -1.61119 15.1858 4213583
1.74421 -1.59294 15.1266 3358015
1.7589999 -1.60506 15.0975 2699569
1.77941 -1.59936 15.0645 4607310
1.84852 -1.5921299 15.0607 5397343
1.8401901 -1.60864 15.0637 4936532
1.82698 -1.59165 15.0644 5397344
1.85402 -1.60627 15.0517 4870483
1.95024 -1.60365 15.0447 2370085
2.1241701 -1.62325 15.1025 3555394
2.16309 -1.61244 15.0483 4871516
2.1889801 -1.59892 14.9687 5134689
2.21595 -1.61611 14.9479 5068639
2.2370601 -1.60027 14.8927 5266020
2.25477 -1.60779 14.8421 5660779
2.2820899 -1.61032 14.8127 5990001
2.4742 -1.59876 14.5666 5989740
2.6847799 -1.5959899 14.3647 5331551
2.69977 -1.58485 14.3729 5726309
2.7811899 -1.58081 14.2774 4607046
2.9196801 -1.60517 14.2442 4344132
2.96504 -1.58411 14.1028 4870993
2.9176099 -1.574 13.9375 5002836
3.9171901 -1.62652 14.083 5462356
-1.58657 -1.4231499 15.2849 4146241
-1.3921 -1.4174401 15.1497 2830381
-1.38641 -1.42303 15.1551 2764589
-0.96044803 -1.44664 15.2408 3291184
-0.92727101 -1.4505399 15.2493 2962219
-0.93589503 -1.44566 15.2185 3093805
-0.833067 -1.44731 15.1926 2107172
-0.83304602 -1.4482501 15.1894 2238501
-0.81717199 -1.4607199 15.1725 2830896
-0.80292702 -1.44768 15.1616 3291704
-0.75188899 -1.44584 15.1392 4212295
-0.71939802 -1.45157 15.1747 4212039
-0.73101699 -1.45266 15.1452 4475468
-0.58742499 -1.47045 15.271 4212293
-0.352801 -1.4804699 15.2614 3949892
-0.33088401 -1.48299 15.2937 3818306
-0.30819699 -1.48721 15.2733 3555134
-0.280435 -1.48449 15.2888 3423549
-0.268457 -1.47823 15.2796 3489342
-0.25001499 -1.48409 15.2741 3226169
-0.27767101 -1.48785 15.1756 2897204
-0.189292 -1.49581 15.1944 2436654
-0.172783 -1.4834501 15.183 2830898
-0.15524501 -1.4946001 15.1791 4673103
-0.056631099 -1.4976701 15.1584 3422263
-0.0298371 -1.50249 15.1745 2895919
-0.042289302 -1.48115 15.1504 3159091
-0.018505899 -1.48315 15.1798 2567210
0.072051898 -1.50214 15.2825 2764846
0.103364 -1.50094 15.2836 3225654
0.122875 -1.50753 15.263 3620670
0.149838 -1.51686 15.2954 3884100
0.212613 -1.50739 15.2593 2831416
0.19154499 -1.51344 15.2653 3423552
0.210637 -1.50002 15.269 2765878
0.270044 -1.51617 15.2425 2633776
0.404879 -1.52684 15.2411 1778466
0.43605301 -1.51825 15.1641 1449243
0.486545 -1.51118 15.1768 2699310
0.80256402 -1.54619 15.2614 4739154
0.791408 -1.5284801 15.2596 4804947
0.78465098 -1.5434901 15.2452 4673361
0.85297197 -1.53947 15.2584 5134167
0.87179899 -1.54116 15.2598 5134167
0.935368 -1.54008 15.2386 5265754
1.07187 -1.54816 15.1968 3950151
1.08258 -1.54087 15.2045 3752772
1.0954601 -1.5528899 15.1639 3423550
1.10948 -1.54134 15.1447 3357757
1.12158 -1.5567501 15.1311 4410447
1.15871 -1.54602 15.1259 6187376
1.13643 -1.54489 15.1136 6121324
1.1744699 -1.5574 15.1144 6384500
1.19753 -1.54899 15.1125 5924207
1.24649 -1.5541 15.1172 5726569
1.26694 -1.5551701 15.1181 5331550
1.28853 -1.55539 15.1134 3554880
1.55193 -1.5724 15.1838 5463652
1.64281 -1.57355 15.2186 5661034
1.65655 -1.57175 15.1885 5595241
1.68054 -1.57226 15.1928 5397862
1.701 -1.57184 15.1924 5068898
1.73419 -1.58578 15.1659 4476757
1.7367001 -1.56576 15.1314 4081741
1.75261 -1.57485 15.1056 2502448
1.77402 -1.57523 15.0985 3488830
1.78967 -1.57329 15.0685 5002327
1.88563 -1.57798 15.0618 5068379
1.90681 -1.57661 15.0576 5068376
2.1175599 -1.60104 15.1029 3423807
2.11236 -1.58276 15.1134 3292220
2.0836899 -1.58645 15.0507 2831411
2.19455 -1.58898 14.8823 5266275
2.1944499 -1.5889601 14.8821 5266275
2.23527 -1.57486 14.8781 5660777
2.2464001 -1.58978 14.8614 5594985
2.2465999 -1.58919 14.8502 5595242
2.27754 -1.57376 14.8192 5858158
2.4549601 -1.5829099 14.5879 6186864
2.54673 -1.57406 14.4894 5923943
2.59495 -1.56464 14.4833 5463393
2.6842301 -1.57419 14.3872 6055273
2.7026 -1.56275 14.3901 5923944
2.9428599 -1.54573 13.9642 5265496
-1.58784 -1.39659 15.2796 4540998
-1.24992 -1.42493 15.2688 3093803
-0.98444098 -1.41959 15.251 3422770
-0.96241802 -1.42748 15.2386 3356977
-0.83899701 -1.42609 15.2321 2304293
-0.81806397 -1.43462 15.1723 2501674
-0.78996599 -1.43444 15.1704 3093811
-0.74188697 -1.42553 15.1696 2961712
-0.71964502 -1.4350801 15.1626 3093556
-0.698506 -1.43909 15.2088 3027506
-0.449366 -1.45398 15.3049 4541514
-0.366328 -1.4536999 15.2926 4081221
-0.330639 -1.45825 15.2862 3752256
-0.279024 -1.46005 15.2742 3818307
-0.27228099 -1.45723 15.2766 3949893
-0.23756599 -1.46794 15.2645 3291706
-0.21068799 -1.4672 15.2357 2831411
-0.194656 -1.45567 15.2187 2633775
-0.174821 -1.4609801 15.1863 2567725
-0.15684199 -1.47111 15.1786 3817536
-0.082897 -1.4603699 15.1732 3290677
-0.045290601 -1.4785 15.1562 3159091
0.0029269999 -1.48232 15.1684 2304039
0.056697 -1.48107 15.2729 2764589
0.086065099 -1.48331 15.2881 3028275
0.091899402 -1.4815 15.2808 3159861
0.115998 -1.48051 15.2654 3489085
0.184288 -1.49447 15.2786 3620673
0.202962 -1.48841 15.2652 2963257
0.22230899 -1.47974 15.2544 2436656
0.242714 -1.47905 15.2368 2765365
0.23299301 -1.49836 15.2421 2831415
0.37828401 -1.50231 15.2961 1844002
0.40103501 -1.50604 15.2468 1778208
0.43346101 -1.50006 15.1882 1580828
0.45475999 -1.48311 15.1606 1580829
0.49709499 -1.4927 15.1801 2962227
0.52237898 -1.4873 15.1817 3356728
0.77745301 -1.51372 15.2618 4870740
0.80985898 -1.52483 15.2665 5068118
0.82584798 -1.5207 15.269 5199961
0.89505303 -1.51649 15.2507 5397082
0.91842598 -1.51606 15.2432 5331546
0.959328 -1.52188 15.2631 5397340
0.95752001 -1.52089 15.2442 5331548
1.02276 -1.52621 15.2623 5462880
1.04054 -1.52565 15.2464 5068378
1.07429 -1.52491 15.2339 3818822
1.09672 -1.52558 15.1616 3226170
1.12377 -1.52858 15.1262 4607826
1.15193 -1.522 15.1158 6450291
1.18054 -1.53403 15.1291 6516087
1.19066 -1.5225 15.1085 6450294
1.25731 -1.5359401 15.1258 6055788
1.23711 -1.53459 15.119 5924205
1.27931 -1.5354 15.1175 4673362
1.55732 -1.5548199 15.1747 5463652
1.60685 -1.5534199 15.2036 5661290
1.62896 -1.55354 15.2114 5463655
1.64815 -1.55255 15.1997 5069153
1.66944 -1.55272 15.1914 4937310
1.68848 -1.55205 15.1879 4937311
1.7278 -1.54702 15.1381 4410964
1.74935 -1.54658 15.1294 3555395
1.7596 -1.5439301 15.1013 2567985
1.78976 -1.5525301 15.0293 5133914
1.8975101 -1.55521 15.0733 5134172
1.89116 -1.55067 15.0008 5002586
2.0715799 -1.56726 15.0499 2765616
2.19734 -1.57263 14.9216 5397605
2.1997299 -1.56793 14.9022 5397861
2.24757 -1.56958 14.8429 5792621
2.54845 -1.5527101 14.4948 5923945
2.5699601 -1.55279 14.4919 5858408
2.5947499 -1.5444601 14.5031 5661030
2.6997001 -1.53856 14.3075 5594722
2.74683 -1.54071 14.28 4804687
3.91997 -1.59016 14.0426 5462358
4.0818901 -1.5939699 14.1115 5067597
4.0792398 -1.59382 14.1034 5133390
4.0538001 -1.58726 14.0588 5133134
-2.72243 -1.24575 14.1413 4212289
-2.07165 -1.3202699 14.5898 3488558
-0.97283298 -1.39973 15.244 3422769
-0.83415502 -1.42022 15.1902 1778207
-0.81085497 -1.4131401 15.1878 2369830
-0.76352602 -1.4155101 15.1731 2961712
-0.74269098 -1.40598 15.1924 2566954
-0.75111002 -1.4046299 15.1849 2566954
-0.70527899 -1.42581 15.203 2830126
-0.66900402 -1.43109 15.2171 3027505
-0.441733 -1.44297 15.3201 4804943
-0.46129501 -1.43761 15.289 4410184
-0.42727599 -1.42906 15.3077 4870736
-0.40686399 -1.43882 15.273 4607821
-0.389229 -1.44127 15.2862 4410185
-0.36721101 -1.43159 15.2891 4015684
-0.312058 -1.4356 15.2822 3884099
-0.292694 -1.43346 15.2685 3884099
-0.278541 -1.44204 15.2911 3949893
-0.25057301 -1.43297 15.2548 3554877
-0.185302 -1.43673 15.1971 2501931
-0.107279 -1.43927 15.2147 3224627
-0.088489503 -1.43994 15.2121 3224883
-0.113461 -1.45515 15.1788 3290934
-0.063372701 -1.4412301 15.18 3093296
0.044184599 -1.46071 15.2704 2633002
0.023449101 -1.45209 15.2412 2501415
0.076824002 -1.46267 15.274 3159861
0.081285499 -1.46161 15.2813 3225653
0.118844 -1.45588 15.2684 3554621
0.102631 -1.46061 15.2556 3423291
0.129089 -1.4613 15.2636 3620671
0.14995299 -1.4622101 15.267 3686465
0.19563 -1.4692301 15.2759 2831668
0.21305899 -1.46042 15.261 2108199
0.233339 -1.46041 15.2513 2700081
0.35373601 -1.4733 15.2685 1844510
0.37834299 -1.47877 15.2808 1778463
0.432827 -1.47329 15.2465 1778208
0.43651399 -1.46209 15.1407 1317144
0.466564 -1.46428 15.1605 1515036
0.53877002 -1.48234 15.1779 3225142
0.786439 -1.49475 15.2622 4739410
0.82203799 -1.5005701 15.2749 5199704
0.86336797 -1.5007401 15.2636 5199703
0.86435199 -1.49814 15.2568 5134168
0.88071501 -1.49674 15.2544 5528925
0.96725601 -1.49637 15.2643 5397084
1.01179 -1.50395 15.2555 5660259
1.00781 -1.50511 15.2371 5660259
1.0418299 -1.50098 15.2401 4805205
1.02944 -1.50594 15.2493 5265757
1.05782 -1.51333 15.2411 4410447
1.05518 -1.50495 15.2321 4344654
1.07329 -1.5022 15.236 3818565
1.0875 -1.51475 15.2172 3489855
1.10625 -1.49494 15.162 2962997
1.11211 -1.5125901 15.1459 3357756
1.1332099 -1.51194 15.1141 5923944
1.17786 -1.51082 15.1283 6450036
1.1982501 -1.4999599 15.1248 5857897
1.2164 -1.49991 15.1234 5134173
1.23454 -1.49714 15.1243 4739414
1.24815 -1.51551 15.1163 5792360
1.26841 -1.51673 15.1218 5397599
1.29647 -1.50211 15.1432 3291705
1.53318 -1.5374 15.2042 5003357
1.52926 -1.52039 15.2234 5069151
1.54152 -1.51886 15.1961 5200738
1.54995 -1.53626 15.1852 5332067
1.57459 -1.5367301 15.1958 5529704
1.63801 -1.53303 15.1979 5266532
1.65639 -1.53272 15.1839 4871774
1.72799 -1.5351 15.1397 4410708
1.7491699 -1.53001 15.1219 3226172
1.78421 -1.52617 15.0373 4541776
1.8120199 -1.5343 15.0498 5726309
1.83492 -1.53259 15.0334 6055534
1.87878 -1.53359 15.0307 5068381
1.85751 -1.53128 15.0008 5134175
1.95714 -1.53787 15.0466 2633773
2.2057199 -1.54728 14.9278 5200226
2.2084799 -1.5367301 14.8382 5397862
2.25193 -1.5304101 14.846 5726829
2.2767899 -1.54521 14.8067 5990001
2.56688 -1.53089 14.4954 5989994
2.5875001 -1.52011 14.4839 6055788
2.60309 -1.53512 14.4832 5792617
2.7226 -1.52275 14.3125 5331291
2.7288899 -1.52832 14.3136 5331548
3.00718 -1.51658 14.081 5857380
3.9442101 -1.57376 14.0992 5725533
3.9400401 -1.56365 14.0526 5659482
4.0612898 -1.57129 14.0813 5330514
4.0542202 -1.56643 14.0644 5396307
4.0840302 -1.58073 14.1038 5330771
-0.94901699 -1.38948 15.237 3554354
-0.81177002 -1.39306 15.247 1251349
-0.76441002 -1.3956 15.1932 1711901
-0.72965902 -1.38693 15.2063 856336
-0.70959997 -1.38764 15.225 790543
-0.69743198 -1.40692 15.2236 2106402
-0.69684899 -1.4078799 15.2231 2172195
-0.44443601 -1.41794 15.3255 4607564
-0.41110501 -1.4133199 15.2796 4475978
-0.29787999 -1.41398 15.2853 3554876
-0.309892 -1.41291 15.2599 3620925
-0.31043199 -1.41315 15.2628 3620925
-0.20833001 -1.42703 15.2309 2765104
-0.098938599 -1.4219199 15.2357 3027503
-0.045177799 -1.43773 15.2152 2895917
0.039133102 -1.43246 15.2575 2698794
0.067545697 -1.43889 15.2431 3028274
0.097680502 -1.4457901 15.2725 3357497
0.120392 -1.4424599 15.2668 3489085
0.14123701 -1.44205 15.26 3554879
0.161763 -1.44326 15.2665 3357755
0.18268199 -1.44417 15.2777 2700078
0.202848 -1.44309 15.2741 1976863
0.247604 -1.43925 15.2401 2305574
0.301853 -1.4552799 15.2456 2436904
0.32593101 -1.44619 15.2361 1713431
0.378268 -1.45471 15.26 1713177
0.400543 -1.45453 15.2597 1910046
0.44532701 -1.45508 15.2548 2041123
0.485796 -1.45348 15.2171 1843487
0.495184 -1.45447 15.2232 2041123
0.50054502 -1.45076 15.1878 2435624
0.52301103 -1.44847 15.192 2961711
0.54878902 -1.46235 15.1796 2961969
0.70063299 -1.46163 15.256 4147271
0.70330697 -1.46911 15.2423 4278857
0.72983497 -1.46961 15.2606 4673617
0.77275401 -1.47219 15.2659 5002582
0.84011602 -1.47629 15.2608 5134167
0.93023598 -1.47122 15.258 5594463
0.95282602 -1.4709899 15.2614 5528671
0.930121 -1.4704601 15.2563 5594463
0.94813102 -1.48936 15.2604 5397340
1.00525 -1.47974 15.2518 5857636
1.04198 -1.49006 15.2385 4673620
1.02584 -1.4888 15.2434 5397342
1.05408 -1.48866 15.2391 4213068
1.07312 -1.47799 15.2325 3950151
1.18106 -1.4874001 15.1347 5528673
1.21497 -1.47969 15.1387 4541518
1.2321399 -1.48093 15.1501 4409933
1.27727 -1.4783601 15.1209 3752000
1.4033 -1.5027601 15.212 4278864
1.42471 -1.50289 15.2053 4739415
1.49239 -1.4979399 15.2132 4739929
1.52167 -1.5011801 15.2341 4806236
1.53382 -1.50024 15.2059 5069152
1.60388 -1.51095 15.1954 5595497
1.62483 -1.5099601 15.1727 5200740
1.68305 -1.51281 15.1707 5003360
1.75121 -1.50402 15.1513 3621189
1.8191 -1.49948 15.0477 4804948
1.7948999 -1.50769 15.0457 4673361
1.8461699 -1.51513 15.0482 5134174
1.86731 -1.51526 15.0412 4805465
1.89188 -1.51467 15.0428 4673620
1.89054 -1.51394 15.0313 4673619
2.07353 -1.52879 15.048 2634287
2.21576 -1.52443 14.909 5266275
2.2272601 -1.5229501 14.851 5595240
2.2412 -1.50532 14.8609 5661292
2.2741001 -1.50893 14.8271 5924466
2.28915 -1.51458 14.7604 6056052
2.32323 -1.50181 14.7207 6253433
2.3195701 -1.52223 14.7434 6121847
2.35692 -1.49903 14.67 6253176
2.43415 -1.5123399 14.5965 6121072
2.5545299 -1.49667 14.4721 5661032
2.5634501 -1.50841 14.5016 5924202
2.59093 -1.49764 14.4809 5529186
2.60868 -1.51388 14.4922 5792616
2.6308701 -1.5156 14.4695 5463651
2.7597899 -1.50778 14.3375 4278600
2.7804401 -1.50779 14.3319 4080964
4.0875101 -1.56303 14.1136 5593945
4.13201 -1.57118 14.2102 5725274
4.1296401 -1.57006 14.2006 5725275
4.1055799 -1.56678 14.1486 5856861
4.0836802 -1.55954 14.1068 5659481
-2.7808001 -1.2056201 14.0978 5331286
-1.31906 -1.35674 15.2123 2896426
-1.04032 -1.36391 15.2766 3028524
-0.99080998 -1.36219 15.2499 3422768
-0.92650098 -1.35949 15.2326 3620146
-0.91705698 -1.37295 15.2368 3488560
-0.93202901 -1.36395 15.2392 3554352
-0.77734202 -1.37834 15.2104 724750
-0.74937803 -1.3830301 15.241 790286
-0.72670799 -1.38158 15.2339 724750
-0.690323 -1.38964 15.2542 725006
-0.46715799 -1.3887399 15.3176 1711902
-0.47122499 -1.39152 15.3243 1514522
-0.45259699 -1.40212 15.3047 3225398
-0.44584301 -1.38982 15.2941 3225397
-0.425271 -1.38906 15.28 3949377
-0.40204701 -1.38949 15.276 3620925
-0.40352401 -1.3897001 15.275 3620925
-0.30853 -1.39475 15.2827 4081478
-0.22756501 -1.3918101 15.2496 3751996
-0.208681 -1.40523 15.2407 2830637
-0.18870801 -1.3953 15.2266 3225138
-0.117774 -1.40292 15.2568 2303524
-0.100976 -1.3965501 15.248 2369573
0.037204899 -1.41081 15.2571 2699050
0.064805202 -1.41617 15.261 3093810
0.086713403 -1.42005 15.2662 3291447
0.084743597 -1.42467 15.2535 3291190
0.12634601 -1.42285 15.2762 3489085
0.15297399 -1.4224 15.2575 3028790
0.172718 -1.42418 15.2678 2436649
0.19269 -1.42583 15.2875 1845277
0.213763 -1.4275301 15.2693 1911322
0.22871301 -1.4326299 15.2667 2108703
0.238792 -1.41303 15.2287 2240032
0.258331 -1.4234101 15.2422 2305826
0.293152 -1.43718 15.2657 2502951
0.38724801 -1.43137 15.2404 1713176
0.387898 -1.43007 15.2495 1713175
0.41380101 -1.43084 15.2634 2107423
0.463447 -1.4342901 15.2377 2041122
0.49628299 -1.43486 15.2406 1909279
0.51344198 -1.42454 15.2176 2040864
0.52687901 -1.42696 15.2108 2435365
0.556283 -1.4454401 15.2068 3093297
0.57045102 -1.4452699 15.203 3159090
0.57909101 -1.4444 15.1829 3225140
0.60360497 -1.44233 15.1676 3488055
0.71264601 -1.44277 15.2641 4410445
0.68942702 -1.44174 15.2491 4081220
0.72536999 -1.44848 15.2556 4805460
0.76088399 -1.44823 15.2678 5002584
0.76741397 -1.44886 15.2452 5002584
0.75629503 -1.44638 15.2298 5002583
0.917656 -1.45207 15.2586 5528671
0.941338 -1.45118 15.2547 5660257
0.96409202 -1.45164 15.2591 5660258
1.02144 -1.46284 15.2426 5331292
1.00006 -1.45322 15.241 5857636
1.0438499 -1.467 15.2406 4410447
1.04322 -1.46889 15.2343 4410447
1.06216 -1.45883 15.2348 4410446
1.09791 -1.46979 15.172 3423548
1.19321 -1.46153 15.158 4212294
1.21209 -1.46004 15.1575 4146501
1.23197 -1.45865 15.1387 4080708
1.38565 -1.4737 15.2076 4476498
1.41239 -1.4834 15.2035 4542292
1.45112 -1.46743 15.2159 4739671
1.49828 -1.48035 15.1922 4805722
1.5721999 -1.48446 15.197 5332325
1.59197 -1.49484 15.199 5463655
1.5721999 -1.48446 15.197 5397862
1.5721999 -1.48446 15.197 5332326
1.58793 -1.47302 15.1839 5332325
1.60642 -1.47584 15.2036 5397862
1.6016999 -1.48982 15.1943 5398119
1.6204 -1.4908 15.1887 5463911
1.6204 -1.4908 15.1887 5463911
1.62034 -1.49088 15.1897 5463911
1.69315 -1.49259 15.1649 5069152
1.76712 -1.4922 15.1157 2699569
1.84911 -1.47837 15.0635 4475725
1.83605 -1.49672 15.0563 4739156
1.8594 -1.4964499 15.0509 4936535
1.87165 -1.47777 15.0518 4804689
1.87121 -1.47753 15.0495 4738897
1.88115 -1.49669 15.0453 4673619
1.91309 -1.49447 15.0802 3554621
1.93857 -1.50043 15.0506 2436138
2.0295401 -1.4947799 15.052 3094325
2.1713099 -1.4881901 14.986 5397605
2.22086 -1.49088 14.9157 5266276
2.2873399 -1.48273 14.7226 5924467
2.3063099 -1.49968 14.7625 6122102
2.3060501 -1.47672 14.7148 5990258
2.3387599 -1.48935 14.694 6319225
2.3239999 -1.4790601 14.7088 6121845
2.36098 -1.4772 14.6646 5792623
2.5674801 -1.47675 14.4703 5792873
2.53759 -1.47753 14.4512 6121583
2.59131 -1.47579 14.4622 5134684
2.6129301 -1.49562 14.4625 4871254
2.7663701 -1.48718 14.3524 4936787
2.73718 -1.47741 14.3237 5660511
2.7899401 -1.48901 14.3255 5068115
3.14147 -1.51088 14.3046 6581623
4.10531 -1.5383199 14.1519 6054241
4.0713801 -1.54302 14.0961 5790811
4.1167598 -1.5379699 14.1789 6120292
4.1062899 -1.54661 14.1625 5922655
-2.7815001 -1.18275 14.0981 4739149
-1.32303 -1.33575 15.2236 3225391
-1.03058 -1.34465 15.272 3225647
-1.02944 -1.34519 15.2706 3225647
-1.03063 -1.34522 15.2719 3225647
-0.93518502 -1.34062 15.2553 3422766
-0.85640699 -1.35769 15.2418 2896169
-0.837488 -1.35702 15.2424 1909278
-0.81903499 -1.35631 15.2448 1185814
-0.76688898 -1.36218 15.2601 725009
-0.76688898 -1.36218 15.2601 725009
-0.72172803 -1.35254 15.3138 856852
-0.51303601 -1.36054 15.2559 988179
-0.47274199 -1.37134 15.2891 1514778
-0.47738001 -1.37711 15.2893 1448729
-0.47893 -1.37611 15.2976 1382936
-0.48052999 -1.37675 15.3057 1382936
-0.43465099 -1.3704799 15.2877 4015170
-0.41228801 -1.3702 15.2801 4541514
-0.392452 -1.37052 15.2756 4607565
-0.339416 -1.37457 15.2707 4608079
-0.31818101 -1.3751 15.2756 5792354
-0.29831201 -1.3759 15.282 5989733
-0.27621901 -1.37043 15.2945 6121062
-0.25490499 -1.37236 15.2513 6055011
-0.20914 -1.38326 15.2474 4080704
-0.128427 -1.37769 15.2612 3949120
-0.107172 -1.38472 15.2657 3488568
-0.084757499 -1.39046 15.2426 2896173
-0.0722019 -1.37752 15.2459 3817532
-0.050165601 -1.3774199 15.2531 3883324
-0.059029099 -1.39685 15.2426 2172193
0.0243397 -1.39089 15.2495 2764842
0.063051097 -1.3947999 15.2633 3093809
0.086741097 -1.3955899 15.284 3225396
0.114265 -1.40386 15.2776 3883584
0.138037 -1.40337 15.2731 3818050
0.161213 -1.40486 15.2718 3160373
0.18160699 -1.40671 15.2875 2239780
0.203205 -1.40992 15.2853 1647894
0.224562 -1.40693 15.2513 1647893
0.25794199 -1.39457 15.2506 1779223
0.39844599 -1.41022 15.2489 1976091
0.379134 -1.41081 15.2511 1647637
0.374109 -1.4127001 15.2278 1647637
0.42203599 -1.41056 15.2593 2502182
0.44860801 -1.41169 15.2669 2962479
0.49078801 -1.4141901 15.2535 1646105
0.51423401 -1.41096 15.2443 1974814
0.54787701 -1.4231499 15.2391 2106400
0.57271802 -1.41737 15.2142 2040607
0.59929901 -1.40874 15.2215 2040350
0.590285 -1.42282 15.1617 2830123
0.65204 -1.42933 15.247 2567208
0.662718 -1.4105 15.2513 3817532
0.64102203 -1.41043 15.2532 2369571
0.63802898 -1.42849 15.2375 2566694
0.674245 -1.42922 15.2463 3620411
0.69674098 -1.43057 15.267 4475980
0.73966002 -1.4246401 15.2672 5594722
0.716914 -1.42983 15.2631 4936789
0.73564798 -1.4292099 15.2509 5265757
0.78005898 -1.4295501 15.2482 5397344
0.75986201 -1.4299901 15.2504 5199965
0.80549699 -1.4302 15.2526 5134172
0.78395498 -1.42975 15.2503 5397344
0.93100101 -1.43103 15.2469 6318446
0.95131701 -1.43042 15.2443 6120811
0.99548 -1.43086 15.2509 5199707
1.01352 -1.44057 15.25 5133656
1.03311 -1.44717 15.2419 4278603
1.2022001 -1.45237 15.1671 3883070
1.20367 -1.4418499 15.1796 3027760
1.20213 -1.44314 15.1868 3159346
1.2319 -1.43945 15.1665 2172452
1.28855 -1.45555 15.172 2764846
1.37775 -1.44666 15.2262 4015687
1.3899 -1.44446 15.2088 4279118
1.40394 -1.4503 15.2189 4476754
1.3803 -1.45022 15.2061 4147530
1.40854 -1.44374 15.1936 4608340
1.3990901 -1.46339 15.2023 4410962
1.41267 -1.44748 15.196 4608597
1.44339 -1.44475 15.2028 4608339
1.47916 -1.46391 15.1893 4674391
1.50963 -1.4608999 15.1887 4805722
1.53203 -1.46069 15.1776 5003359
1.55382 -1.46105 15.1849 5069153
1.5742199 -1.45832 15.1777 5134946
1.5984401 -1.46754 15.1743 5266532
1.61809 -1.46864 15.1697 5332325
1.66427 -1.46824 15.153 5332325
1.73366 -1.47182 15.1584 3884362
1.75835 -1.47324 15.1101 3160378
1.84922 -1.45821 15.0799 3883072
1.86156 -1.4588701 15.0553 4080451
1.94419 -1.46234 15.0991 2304295
2.2081699 -1.47572 14.9258 5397605
2.24031 -1.46857 14.8669 5660777
2.2544899 -1.47966 14.8412 5792622
2.2998199 -1.47729 14.8047 5792880
2.30656 -1.45969 14.7934 5661037
2.2983201 -1.45961 14.7311 5595501
2.3178799 -1.45767 14.7141 5595500
2.33549 -1.4619 14.6977 5661037
2.5313101 -1.4645801 14.4911 6187634
2.54284 -1.45802 14.4619 6319219
2.5783 -1.4558001 14.4558 6055787
2.5676 -1.45425 14.4518 6187631
2.60041 -1.45682 14.4564 5200476
2.60026 -1.45626 14.4564 5266269
2.7476001 -1.46148 14.3402 4805458
2.9317801 -1.46544 14.2477 4673360
2.95474 -1.46017 14.2305 4739157
2.9741199 -1.46543 14.2189 4673623
3.02635 -1.45753 14.2133 5002843
3.1882801 -1.48658 14.3801 5792620
3.664 -1.47311 13.9605 6713464
3.66208 -1.4902 13.9524 6713205
3.9226 -1.49491 14.0625 5659225
4.03578 -1.5044 14.0722 5659482
-1.38797 -1.30519 15.2497 2765354
-1.04256 -1.3252701 15.2659 3620150
-1.04389 -1.3251801 15.2666 3620406
-1.0210201 -1.32525 15.2621 3291441
-0.97011399 -1.32341 15.2337 3291182
-0.87849802 -1.31944 15.2553 3290924
-0.84517401 -1.33741 15.2448 2304034
-0.86813802 -1.3370399 15.2305 3159340
-0.82452798 -1.33702 15.2427 1448729
-0.80561101 -1.3363 15.2371 988180
-0.78238302 -1.33784 15.247 725011
-0.52309698 -1.34225 15.2707 1119765
-0.49871999 -1.34075 15.2471 1251607
-0.43318301 -1.34557 15.2837 4146756
-0.418414 -1.35923 15.2878 4475978
-0.42360601 -1.33876 15.2492 4673101
-0.39494401 -1.34058 15.2648 4936531
-0.38132101 -1.35131 15.276 4805202
-0.35005 -1.35506 15.2655 5200217
-0.327402 -1.35439 15.26 5726819
-0.30866101 -1.35654 15.2785 7042679
-0.28687099 -1.35656 15.2777 6582127
-0.25899699 -1.35879 15.1926 5528410
-0.212211 -1.36183 15.2565 4541772
-0.109743 -1.36104 15.2747 4146499
-0.115981 -1.3589799 15.2624 4146755
-0.094657198 -1.37322 15.2687 3949119
-0.100506 -1.35373 15.2608 4146756
-0.062198099 -1.35664 15.2401 4146497
0.073512003 -1.37454 15.2477 3620153
0.0974591 -1.37691 15.2868 3554361
0.125104 -1.38379 15.271 3686205
0.16762599 -1.38448 15.286 2634284
0.146403 -1.38366 15.262 3291704
0.19232801 -1.38928 15.2786 2042399
0.20907199 -1.37002 15.2657 1647130
0.22506601 -1.38249 15.2532 1450005
0.23659401 -1.3687201 15.2274 1976094
0.25743201 -1.37181 15.2166 1844506
0.28218901 -1.37674 15.2104 1778968
0.32160899 -1.38948 15.237 1844759
0.29935601 -1.38857 15.2299 1910809
0.34398001 -1.38972 15.2366 2042138
0.36936 -1.39031 15.2456 2173469
0.392472 -1.39153 15.2578 2304802
0.41092601 -1.39083 15.2559 2962734
0.440705 -1.3889199 15.2652 3883583
0.460282 -1.39476 15.2566 3488311
0.48200399 -1.39454 15.2607 3290930
0.51921099 -1.38746 15.2519 3883325
0.50291902 -1.3947001 15.2514 3093551
0.53167999 -1.40264 15.2323 2830123
0.58918297 -1.38679 15.2703 3883582
0.60858297 -1.39191 15.2676 3619896
0.63033199 -1.3916399 15.2599 3027757
0.65176398 -1.3916 15.2539 3422516
0.686508 -1.4101501 15.2549 5133909
0.67570102 -1.39109 15.2556 4541513
0.70787698 -1.41065 15.2582 6186856
0.69706702 -1.39158 15.2589 5002324
0.69715601 -1.39151 15.2588 5002324
0.724558 -1.4101599 15.252 7042169
0.74728203 -1.41037 15.2511 6845050
0.77194202 -1.41096 15.2549 6647413
0.79404497 -1.41102 15.2529 6318705
0.81619501 -1.41099 15.2491 5792360
0.83859301 -1.41111 15.2492 6384497
0.86112201 -1.41076 15.2441 7042427
0.88360399 -1.41081 15.2454 7174271
0.89529598 -1.40922 15.2411 7240064
0.921058 -1.41125 15.2387 7568772
0.94556201 -1.41137 15.248 6844537
0.96343201 -1.41031 15.2397 6449779
0.98727798 -1.4105901 15.2445 6252399
1.02526 -1.42476 15.248 4936533
1.03152 -1.41467 15.2461 5594463
1.0592099 -1.4204 15.2307 5133910
1.1950901 -1.42454 15.2017 2501671
1.22996 -1.4197201 15.1889 1383192
1.2445101 -1.43063 15.1432 1251608
1.26056 -1.42746 15.1731 988436
1.2906801 -1.43083 15.1867 1449244
1.31426 -1.41731 15.2134 2041638
1.3042001 -1.43328 15.2077 1844001
1.33994 -1.42075 15.193 3883841
1.38599 -1.42391 15.2107 3884614
1.39512 -1.42812 15.2041 4213580
1.47016 -1.44269 15.1931 3950407
1.49643 -1.44117 15.1893 4213579
1.51814 -1.44178 15.188 4410960
1.53975 -1.44253 15.1883 4674389
1.5635 -1.44174 15.1733 5069149
1.57591 -1.43097 15.1784 4213580
1.59013 -1.44807 15.1732 5068894
1.61228 -1.44813 15.1677 5002843
1.62623 -1.4283299 15.1616 3226425
1.63196 -1.44892 15.1649 5003099
1.65141 -1.45058 15.1728 5134686
1.64504 -1.43051 15.1752 4081736
1.6621799 -1.43073 15.1721 4542288
1.70793 -1.4368401 15.1572 3555136
1.73748 -1.44346 15.1643 3028791
1.75976 -1.44491 15.1538 2436395
1.79117 -1.44311 15.1078 2172709
1.80208 -1.43898 15.1275 2172452
1.82917 -1.4394 15.1207 2501417
1.8234299 -1.43521 15.1138 2435368
1.84949 -1.43892 15.1006 2764333
1.8717901 -1.44107 15.0676 2764333
2.2230599 -1.45779 14.8554 5463397
2.25717 -1.45818 14.8558 5397863
2.29356 -1.44639 14.8164 5858672
2.3134401 -1.45131 14.7003 5661292
2.51982 -1.44596 14.5453 5989999
2.5325601 -1.44178 14.4941 5727082
2.5355501 -1.44019 14.4803 5858412
2.5511401 -1.43401 14.4411 6253169
2.7524199 -1.43827 14.3365 4673871
2.7701099 -1.4298199 14.2637 4541771
2.7820499 -1.4424 14.2442 4278599
2.9170799 -1.44601 14.244 4278859
2.9349999 -1.44639 14.2248 4607569
2.97716 -1.4438601 14.2265 4542035
2.99175 -1.45358 14.2121 4871256
3.01015 -1.43826 14.2118 4871257
3.03105 -1.43808 14.217 4937049
3.15148 -1.4607 14.3334 5266016
3.1818099 -1.46435 14.3611 5726311
3.63064 -1.46957 13.9661 6450288
3.9301901 -1.46972 14.0407 5527638
4.0631599 -1.48698 14.0727 5659482
4.07055 -1.4884599 14.0973 5593688
-1.62948 -1.27188 15.2268 5067599
-1.57333 -1.27319 15.2398 4409922
-1.15528 -1.29896 15.257 3686199
-1.16888 -1.28483 15.2672 3291441
-1.12447 -1.30196 15.2247 3488821
-1.03185 -1.30896 15.2661 3357234
-1.0248801 -1.2887501 15.2453 3291186
-0.88778001 -1.29968 15.2468 3159594
-0.86260003 -1.30869 15.2484 2895912
-0.84577 -1.29883 15.238 1909278
-0.83392102 -1.3181 15.2439 1711901
-0.82248199 -1.2990299 15.2409 1251609
-0.80379099 -1.29826 15.2359 922389
-0.81638902 -1.31695 15.2314 1119767
-0.81582803 -1.31756 15.2308 1119767
-0.79306197 -1.3179899 15.2407 791059
-0.54828602 -1.32821 15.2846 988437
-0.45040599 -1.32207 15.2973 3093810
-0.453242 -1.3311501 15.299 2896430
-0.42861199 -1.32199 15.2908 4475721
-0.426559 -1.32107 15.2781 4541771
-0.404643 -1.32177 15.2793 5002067
-0.36295 -1.33551 15.2617 5331291
-0.339726 -1.33683 15.2673 5529184
-0.32044199 -1.33784 15.2794 6581615
-0.27563801 -1.33763 15.2799 5200217
-0.23141301 -1.33735 15.2767 4410701
-0.163519 -1.33644 15.2696 4147270
-0.121715 -1.34767 15.2655 4212550
-0.095865197 -1.3489 15.2699 4147012
-0.072902001 -1.3365901 15.2321 4212034
0.0027219399 -1.35297 15.2614 3422514
0.15169699 -1.36201 15.2764 3357496
0.173876 -1.36199 15.276 2962993
0.222589 -1.3558199 15.2534 1318168
0.25036299 -1.34611 15.2262 3160115
0.37841901 -1.37125 15.2549 2830890
0.35181001 -1.3705 15.2354 2896937
0.40122199 -1.3714401 15.2551 3291444
0.42454901 -1.37175 15.2567 3028530
0.45154399 -1.3697701 15.2643 3356982
0.47332701 -1.3747 15.2568 3225394
0.483693 -1.36352 15.2623 2633000
0.50885701 -1.3703001 15.2483 3290931
0.52504802 -1.36314 15.25 4343877
0.53643399 -1.3793499 15.2424 4278085
0.55147898 -1.37385 15.2583 4278342
0.619627 -1.37288 15.2661 3225651
0.61956698 -1.37308 15.2683 3291187
0.64180303 -1.37257 15.2582 2896427
0.66520399 -1.37184 15.2539 3356982
0.68687499 -1.3722301 15.2568 4410443
0.68711799 -1.37218 15.2569 4410443
0.70833898 -1.37252 15.2574 5199964
0.708848 -1.37229 15.2569 5265756
0.70842201 -1.37252 15.2575 5199964
0.735282 -1.39115 15.2501 7634567
0.73043001 -1.37231 15.253 7305602
0.73045099 -1.37234 15.2531 7305602
0.76050103 -1.39182 15.2551 6450036
0.78271699 -1.39176 15.2517 5989485
0.804757 -1.3918 15.2492 6647159
0.79498798 -1.3724999 15.2516 5660262
0.82731998 -1.39161 15.2454 5923949
0.85010803 -1.39153 15.2433 7371396
0.87239701 -1.39142 15.2428 6910844
0.89450198 -1.3915401 15.2418 6450293
0.88384598 -1.39008 15.2414 6450293
0.91636002 -1.39161 15.2401 6779000
0.906178 -1.39009 15.2406 6450292
0.93177497 -1.39002 15.2278 6055021
0.95677501 -1.3902299 15.2383 5660007
0.97579998 -1.38744 15.231 5660007
1.00387 -1.38732 15.2452 5331040
1.04459 -1.39553 15.2434 5331290
1.13208 -1.40209 15.2233 1975327
1.1551 -1.40121 15.2177 2501671
1.1883301 -1.40546 15.2102 3817531
1.20116 -1.40284 15.2059 3159858
1.22271 -1.40312 15.2057 1975330
1.24942 -1.404 15.213 1185816
1.29773 -1.40504 15.2259 1383452
1.30124 -1.41527 15.2232 1449244
1.32295 -1.41509 15.2217 2633775
1.33926 -1.39659 15.1998 3949634
1.39823 -1.39872 15.22 4674131
1.37731 -1.40888 15.1965 4015942
1.39934 -1.4149899 15.2044 4476752
1.42419 -1.41582 15.1967 5003355
1.45524 -1.4026901 15.1855 4739924
1.4943 -1.4034801 15.1946 4147527
1.51969 -1.4033 15.1975 4213577
1.50718 -1.4214 15.1768 2700079
1.51258 -1.40516 15.1775 4015941
1.55358 -1.42424 15.1944 4016200
1.57697 -1.40686 15.1779 4476236
1.59086 -1.4213001 15.185 3423803
1.61456 -1.41026 15.1763 3028528
1.63636 -1.41014 15.1708 3818303
1.67522 -1.42327 15.1185 3621186
1.73202 -1.4235899 15.1732 2238758
1.7254601 -1.4148999 15.17 3028274
1.75466 -1.42319 15.164 1646364
1.78351 -1.42153 15.143 2238245
1.79176 -1.41979 15.129 2764589
1.85096 -1.41923 15.132 3291448
1.84718 -1.41399 15.1422 3620414
1.87033 -1.4204201 15.132 3488571
1.91242 -1.4174 15.1244 3093811
1.94674 -1.42828 15.1314 2304294
1.97873 -1.42141 15.1453 3160118
1.98768 -1.44111 15.1425 3160117
2.02282 -1.43506 15.1383 3357755
2.0417099 -1.43441 15.1389 3489341
2.1110899 -1.42742 15.1509 3686978
2.1215301 -1.44203 15.1277 3555394
2.1833 -1.43927 14.974 5200226
2.2839 -1.432 14.8193 5924464
2.5058401 -1.43109 14.5544 5858670
2.7548299 -1.41887 14.2785 4805200
2.78459 -1.41715 14.2657 4278855
2.78984 -1.40648 14.2461 4278598
2.93398 -1.4247 14.2425 4475982
2.9571199 -1.43057 14.2325 4344654
2.9578099 -1.4159499 14.1957 4344912
2.9544401 -1.41322 14.1544 4542035
3.0143499 -1.41427 14.1876 4805209
3.90395 -1.44812 14.0506 5725275
4.0749998 -1.47279 14.0673 5725275
4.0724602 -1.4683 14.0672 5593688
4.0467401 -1.45307 14.0313 5264978
4.0484099 -1.45374 14.0362 5264722
-2.64324 -1.14342 14.0547 3159853
-1.57881 -1.25428 15.2531 4804681
-1.54052 -1.24989 15.2562 4015162
-1.52238 -1.2589099 15.2492 3751990
-1.1867 -1.27412 15.2817 3028269
-1.15356 -1.27288 15.2548 3620407
-1.1703 -1.26231 15.2668 3357491
-1.12123 -1.2748801 15.2211 3751993
-1.05814 -1.26851 15.2413 3751739
-1.03778 -1.26914 15.2364 3488567
-1.0202399 -1.27153 15.2528 3422773
-1.01336 -1.2692699 15.2359 3422773
-0.87527001 -1.2922 15.2578 2896168
-0.85762399 -1.2819 15.2378 2106656
-0.81676698 -1.2857701 15.2559 1251353
-0.78258502 -1.29809 15.2398 791061
-0.55087698 -1.30088 15.2555 922388
-0.53502399 -1.2953399 15.2534 922388
-0.471044 -1.29561 15.2763 2172193
-0.44062901 -1.30311 15.2943 3751740
-0.37214401 -1.31648 15.2637 4804946
-0.345339 -1.3006099 15.2828 4542029
-0.35223499 -1.3194799 15.2631 5462876
-0.33065701 -1.31953 15.271 5134168
-0.32813099 -1.31769 15.2638 5002325
-0.30889001 -1.31846 15.2772 4607822
-0.286459 -1.31823 15.276 4015686
-0.26449999 -1.31839 15.2797 4673616
-0.243339 -1.31863 15.2813 5002582
-0.219979 -1.31806 15.2754 4015943
-0.17469899 -1.31759 15.2726 4278856
-0.152918 -1.31756 15.2694 4081477
-0.062602296 -1.31508 15.2673 4146498
-0.051076598 -1.33356 15.2606 4146496
-0.040159199 -1.31458 15.2626 3883323
-0.030591501 -1.3355401 15.2846 3685944
-0.0189487 -1.31497 15.265 3422770
0.00314043 -1.31464 15.2573 3291183
-0.00815925 -1.33367 15.2595 3159598
0.0135533 -1.33384 15.2587 3554357
0.0355126 -1.3342299 15.2697 3751736
0.14681 -1.33364 15.2606 3686462
0.141757 -1.34202 15.2656 3686462
0.16332 -1.34244 15.2705 3554875
0.217839 -1.32693 15.2541 1318172
0.29555699 -1.33525 15.254 3818041
0.32193199 -1.33226 15.2561 3751992
0.34817299 -1.3316801 15.2355 3423027
0.349199 -1.35039 15.2633 3291441
0.36842301 -1.35242 15.2578 3093806
0.379857 -1.3336 15.2609 3028271
0.38991001 -1.35237 15.255 3225395
0.40125799 -1.33342 15.2542 3620411
0.41271299 -1.35256 15.2552 3817791
0.473921 -1.34375 15.2669 3159344
0.49338299 -1.34424 15.262 2501414
0.51499599 -1.34401 15.2534 4277827
0.535887 -1.34444 15.253 4278086
0.56336999 -1.35404 15.2587 4475980
0.59213698 -1.35251 15.2545 4344138
0.65478301 -1.35291 15.2562 2764842
0.67743701 -1.3520499 15.2487 4541515
0.69793802 -1.3532799 15.2596 4410188
0.71955001 -1.35347 15.2577 5660516
0.74123901 -1.35331 15.2529 6515828
0.76116198 -1.3619699 15.2495 5594726
0.78436798 -1.3534 15.2525 5594466
0.80677003 -1.3534 15.2489 5528930
0.81607902 -1.37277 15.2499 5397348
0.85135102 -1.37112 15.242 6779518
0.87304002 -1.37035 15.2405 5660521
0.87364298 -1.37111 15.2432 5660777
0.896348 -1.37041 15.2383 5331295
0.88310498 -1.37229 15.2409 5397604
0.91642398 -1.37114 15.2405 5397344
0.92483097 -1.36821 15.2176 5265500
0.94594997 -1.36738 15.2177 5199708
0.99142402 -1.36682 15.2315 5199450
0.97094202 -1.3674901 15.2319 5397087
1.01378 -1.36663 15.2346 5133656
1.04085 -1.3738 15.2582 4936789
1.06016 -1.3818099 15.2319 5002579
1.12511 -1.38229 15.2264 1975327
1.13324 -1.36348 15.2167 2304805
1.1441 -1.38239 15.2226 2107170
1.1654299 -1.38261 15.2213 3159858
1.19198 -1.3826801 15.2105 4015169
1.21384 -1.3832901 15.2081 2896689
1.26509 -1.38977 15.2205 1120025
1.29908 -1.37927 15.2271 1383453
1.28487 -1.38934 15.2117 1251867
1.31192 -1.3937401 15.2214 1910052
1.32635 -1.38195 15.2115 3028276
1.34412 -1.38958 15.1973 4015683
1.3887399 -1.38967 15.1998 4542544
1.36893 -1.3873 15.1681 4213321
1.41881 -1.38341 15.2002 5266272
1.43388 -1.39592 15.1875 5332064
1.46268 -1.3832 15.1604 5003097
1.50449 -1.38589 15.1836 4608594
1.5242701 -1.38723 15.1912 4608594
1.54567 -1.38809 15.1927 4739924
1.59506 -1.38771 15.197 4344905
1.61437 -1.38653 15.1905 3555130
1.72025 -1.39371 15.1576 4278855
1.77636 -1.40319 15.1541 2830895
1.7995 -1.40342 15.1545 4147013
1.84294 -1.40058 15.1419 4081480
1.82286 -1.4008501 15.15 4344650
1.87032 -1.4004 15.1514 4673618
1.88858 -1.39976 15.1379 4739410
1.94863 -1.39915 15.1322 3291446
1.97672 -1.39991 15.146 3291960
1.9983 -1.39913 15.1497 3884097
2.0148799 -1.41397 15.1362 3752769
2.03071 -1.41283 15.1318 3686720
2.05915 -1.41329 15.1359 3884355
2.1709001 -1.4194601 15.0665 5331813
2.1709199 -1.41948 15.0667 5332068
2.17172 -1.42045 15.0771 5332068
2.1844399 -1.4101 14.9839 5266019
2.2191401 -1.40142 14.9181 5397862
2.5859599 -1.40043 14.4145 5463649
2.7507501 -1.3874201 14.3445 5463133
2.7491901 -1.39328 14.2708 4805457
2.7793701 -1.39125 14.26 4542027
2.93507 -1.3913 14.2176 3818564
2.94223 -1.40113 14.1933 4213324
4.0240898 -1.43476 14.0123 5264720
4.0621901 -1.44001 14.0396 5462101
4.0486202 -1.44828 14.016 5396308
4.2593999 -1.46368 14.1935 4607045
-2.63782 -1.11759 14.0481 3225645
-1.76246 -1.20029 14.9832 5922655
-1.6711 -1.22592 15.1374 5528150
-1.67497 -1.22815 15.1625 5593687
-1.5255001 -1.23545 15.2445 4212541
-1.50262 -1.2397701 15.2238 3554867
-1.1856 -1.24867 15.2833 2962476
-1.15474 -1.2466201 15.2526 3751993
-1.13825 -1.2609299 15.2425 3818043
-1.03306 -1.2503 15.2414 3422774
-0.87054598 -1.26662 15.2576 2501155
-0.85278499 -1.25615 15.2355 1777436
-0.84816802 -1.26244 15.2466 1711644
-0.840671 -1.27213 15.22 1514523
-0.82559597 -1.26559 15.2461 1382939
-0.80512601 -1.26608 15.2449 1053976
-0.54289502 -1.27635 15.2651 922388
-0.52312702 -1.27626 15.2526 1251351
-0.49402899 -1.2891901 15.2493 1317142
-0.43268701 -1.29432 15.2855 4146499
-0.41443601 -1.29344 15.2691 4541771
-0.36844099 -1.28125 15.2842 4541515
-0.381612 -1.2976 15.2679 4936531
-0.320903 -1.29945 15.2765 4476235
-0.33316699 -1.27958 15.2756 4475978
-0.25244501 -1.29916 15.2748 5462876
-0.230413 -1.29847 15.2698 4476237
-0.207839 -1.2983299 15.2711 4015942
-0.18568 -1.2984101 15.2699 4147272
-0.14250401 -1.29848 15.2665 4147013
-0.101417 -1.2886 15.2605 4278341
-0.038235199 -1.3041 15.2818 3883323
0.022848301 -1.31615 15.2816 3422770
0.053776801 -1.30906 15.2716 3685944
0.096326999 -1.3043 15.2505 3817789
0.116305 -1.2994699 15.2483 3949376
0.135948 -1.3080699 15.2581 4080963
0.190752 -1.32232 15.2651 3751997
0.206332 -1.3075 15.2554 2107431
0.225097 -1.30713 15.2416 1581345
0.246516 -1.31972 15.2377 3291704
0.266662 -1.3053499 15.2416 3752509
0.31197801 -1.31608 15.2765 3752250
0.315447 -1.313 15.2667 3752249
0.33969 -1.31137 15.2452 3620407
0.38957199 -1.3145601 15.2582 3159602
0.41119999 -1.31481 15.2574 3620412
0.43410501 -1.3143899 15.2523 4080964
0.465496 -1.32274 15.2549 3554103
0.484422 -1.32375 15.2579 2830379
0.50420702 -1.32495 15.258 3028015
0.52530998 -1.3251801 15.255 4278084
0.54438502 -1.3267601 15.2735 4212292
0.58017999 -1.33342 15.2549 4607310
0.60295099 -1.33337 15.2532 4081220
0.66673201 -1.3328 15.252 3488567
0.66704899 -1.33321 15.2521 3554360
0.71187502 -1.3303601 15.2506 4739154
0.73141402 -1.3364201 15.2469 5923688
0.73382002 -1.33031 15.2487 5462880
0.75022697 -1.3433599 15.2556 5594468
0.77289599 -1.33453 15.2557 5660258
0.81634301 -1.33499 15.2563 5726309
0.834831 -1.3425699 15.2468 5923693
0.87435001 -1.33122 15.2364 5528675
0.88345498 -1.35151 15.2415 5265502
0.89456701 -1.33214 15.2443 5331035
0.90617198 -1.35176 15.2421 4936277
0.91579199 -1.34613 15.2014 5133655
0.93958098 -1.3457299 15.2099 5396827
0.96336699 -1.34563 15.2213 5528412
0.98435998 -1.3464299 15.2264 5331034
1.00388 -1.34664 15.2277 5068118
1.02394 -1.34601 15.2247 4870738
1.07651 -1.34989 15.2372 4673613
1.15547 -1.36291 15.2153 3488824
1.14474 -1.3433501 15.2124 3225908
1.19777 -1.35835 15.2056 4146499
1.2025501 -1.3638 15.21 3883584
1.2239 -1.3646801 15.212 2238504
1.21252 -1.3454 15.2113 3291191
1.23434 -1.34579 15.2121 1515038
1.24586 -1.36479 15.2094 1120281
1.2999099 -1.35326 15.2277 1251611
1.2847 -1.36106 15.2149 1186075
1.28397 -1.36549 15.2165 1251868
1.32549 -1.3555 15.2166 2239018
1.31261 -1.3678499 15.2237 1646881
1.3393199 -1.36914 15.1996 3818048
1.35307 -1.35658 15.1944 4147270
1.3772 -1.3708301 15.2043 4147528
1.41993 -1.3571399 15.2045 5332065
1.43339 -1.36713 15.1542 5529189
1.43339 -1.36713 15.1542 5529189
1.43339 -1.36713 15.1542 5529189
1.5573601 -1.36654 15.1852 4674131
1.58359 -1.36796 15.1971 4739666
1.61444 -1.36369 15.1907 4015939
1.7657599 -1.3842 15.1574 2896945
1.79265 -1.38511 15.1663 4213063
1.81282 -1.38275 15.1605 4739666
1.83316 -1.38162 15.1466 4542289
1.8321199 -1.37946 15.1466 4476496
1.85297 -1.38131 15.1378 4673876
1.87805 -1.3805799 15.1403 5266014
1.87802 -1.37907 15.1197 5200220
1.9966 -1.37766 15.1512 3752511
2.0138199 -1.39731 15.137 3818561
2.00861 -1.3765301 15.1359 3752511
2.05249 -1.38902 15.1194 4213064
2.1738801 -1.39656 15.0241 5200226
2.18803 -1.38711 14.9746 5068640
2.18345 -1.39399 14.939 5002847
2.2130201 -1.39343 14.8965 5332069
2.35341 -1.3834 14.7072 5792879
2.36608 -1.37119 14.6773 5924465
2.39605 -1.38432 14.6557 5858415
2.3732901 -1.3692501 14.6341 5924208
2.39903 -1.3645101 14.6101 5529706
2.42471 -1.37615 14.6217 5727341
2.58393 -1.38424 14.434 5661030
2.6021399 -1.37612 14.4256 5463394
2.7701001 -1.38398 14.2975 5002579
2.98084 -1.3691601 14.1212 4739672
3.91098 -1.42135 14.0589 5659482
3.91557 -1.40653 14.0236 5132877
4.04954 -1.42581 14.0553 5198928
4.2372999 -1.43898 14.1843 6054238
4.26967 -1.43977 14.2047 4738629
-2.6452999 -1.09727 14.0697 3159852
-1.93054 -1.16092 14.743 5527893
-1.6230201 -1.21524 15.2467 5133392
-1.5311199 -1.2140599 15.209 4278334
-1.52108 -1.21904 15.2601 4080955
-1.51723 -1.21832 15.2491 3817783
-1.4999599 -1.22384 15.2596 3357231
-1.18782 -1.2226599 15.2843 3159855
-1.19863 -1.23438 15.2906 2896426
-1.17082 -1.23443 15.2669 3357491
-1.15567 -1.22062 15.2507 3883836
-1.13932 -1.23273 15.2352 3817787
-1.06635 -1.22649 15.2336 3620153
-1.04633 -1.2327 15.2579 3422775
-0.863141 -1.24861 15.27 2106655
-0.84648597 -1.23677 15.2516 1580315
-0.83865798 -1.24953 15.2503 1514524
-0.813317 -1.24001 15.2697 1185562
-0.776788 -1.25243 15.2331 856598
-0.55150598 -1.25694 15.2751 856852
-0.53175998 -1.25692 15.2633 1317144
-0.512568 -1.25825 15.268 2040865
-0.49366799 -1.25352 15.2536 2237986
-0.465103 -1.27073 15.2628 2369828
-0.475366 -1.25447 15.2564 2303778
-0.42322901 -1.25572 15.2763 4344134
-0.39390501 -1.27316 15.2556 4541515
-0.30012801 -1.25977 15.2674 4147269
-0.27672699 -1.26011 15.2686 4081476
-0.24424499 -1.28052 15.2836 4410444
-0.25479501 -1.26035 15.2704 4015684
-0.220871 -1.27999 15.2754 3884100
-0.197952 -1.27952 15.272 4213065
-0.191301 -1.26528 15.2517 4081478
-0.174887 -1.27941 15.2692 4278857
-0.169605 -1.26556 15.254 4212807
-0.139617 -1.2856801 15.2644 4147013
-0.131001 -1.26583 15.2596 4015426
-0.111325 -1.266 15.2559 4212548
-0.121459 -1.2848901 15.2573 4146756
-0.077492602 -1.28853 15.2619 4343877
-0.045717102 -1.27064 15.2758 4014909
-0.0242045 -1.27066 15.2701 3356977
0.029276101 -1.28458 15.2672 3883322
0.0442417 -1.28467 15.2584 3817530
0.048404999 -1.28521 15.2683 3751994
0.066922098 -1.28609 15.271 3751737
0.068866 -1.28659 15.2659 3751738
0.087202199 -1.2864 15.2651 3685946
0.105549 -1.28013 15.2456 3883326
0.127579 -1.27996 15.245 4080706
0.16467001 -1.29633 15.2591 3883840
0.18735901 -1.2964799 15.2671 3752255
0.2165 -1.28826 15.2508 1317916
0.239021 -1.29223 15.2261 3555135
0.32670799 -1.29365 15.262 3554615
0.378474 -1.29522 15.2552 3028272
0.42270601 -1.2953 15.2521 3291705
0.44917101 -1.30575 15.2555 3554619
0.49184799 -1.30542 15.2566 2896172
0.51548201 -1.30591 15.2564 3817275
0.53557998 -1.3065799 15.2593 4212291
0.55656302 -1.30677 15.2557 4212549
0.59156197 -1.31394 15.2493 4541772
0.621472 -1.3099999 15.234 3949375
0.63092399 -1.3135999 15.2475 3883581
0.656183 -1.31411 15.2523 2764587
0.72321397 -1.3112 15.2494 4409932
0.74298197 -1.32033 15.2465 4936791
0.78412902 -1.3134201 15.2528 5791843
0.82796901 -1.31806 15.2404 5528675
0.85041898 -1.31814 15.2418 6384244
0.88487202 -1.31287 15.2431 5594464
0.90772599 -1.31197 15.2272 5528669
0.94224 -1.3255301 15.2325 5528668
0.96666199 -1.32625 15.2246 5660255
0.98815697 -1.32616 15.2205 5528668
1.0128599 -1.32665 15.2148 4936787
1.03628 -1.31517 15.215 4608077
1.05051 -1.3351001 15.2272 4607821
1.0768501 -1.3267 15.2399 4476235
1.12791 -1.32765 15.2212 3225909
1.2258101 -1.32339 15.2085 2172967
1.25492 -1.3464 15.2184 1120538
1.28807 -1.33707 15.2098 1185818
1.32529 -1.3289 15.224 1646881
1.33904 -1.34219 15.203 3225912
1.3547 -1.3282599 15.1877 4081734
1.3708301 -1.34045 15.1801 3950149
1.47023 -1.33789 15.1911 4937307
1.55976 -1.34584 15.2004 4805718
1.76721 -1.36181 15.1661 3226423
1.79216 -1.36386 15.1726 4410956
1.80545 -1.36216 15.1564 4805716
1.8423001 -1.3613501 15.1595 4542291
1.87467 -1.35496 15.1488 5134430
1.91276 -1.3583 15.1101 4213321
1.95515 -1.3616 15.1426 3028786
1.99751 -1.35708 15.1329 3620925
2.0295501 -1.37606 15.1296 3949891
2.05828 -1.36541 15.122 3950147
2.1794701 -1.37318 15.0234 5266018
2.18646 -1.35926 14.9612 5200226
2.21034 -1.3643 14.8762 5397862
2.3068399 -1.35103 14.7176 5924208
2.3699701 -1.34387 14.6679 6121844
2.38765 -1.35598 14.6583 5924465
2.3936701 -1.34688 14.6336 5924465
2.4147201 -1.35332 14.6009 5924464
2.4374399 -1.34654 14.6222 6056050
2.74354 -1.3614399 14.3383 5792355
2.7432899 -1.3408099 14.2581 5199959
2.7774701 -1.36026 14.2437 4805200
2.93189 -1.3516001 14.2249 4213066
2.9792299 -1.3430901 14.106 4608085
3.69066 -1.37623 13.9303 8029588
4.2396898 -1.41462 14.1867 5659992
-2.61941 -1.08345 14.0255 2962471
-1.69241 -1.1853 15.0886 5725016
-1.54352 -1.1955301 15.2174 4146750
-1.5281301 -1.1981 15.243 4212284
-1.50922 -1.19899 15.2443 3686196
-1.173 -1.2087899 15.2701 3423028
-1.16711 -1.20473 15.2458 3554614
-1.1176701 -1.19811 15.2084 3751993
-1.01834 -1.20445 15.2528 3488567
-0.86033201 -1.22219 15.2658 1777691
-0.87680203 -1.2297699 15.2716 2567205
-0.84244198 -1.21289 15.2496 1448729
-0.77316999 -1.21359 15.2113 856599
-0.54127401 -1.23893 15.2728 1054229
-0.54261202 -1.23476 15.2774 988181
-0.52184701 -1.23399 15.2592 1909280
-0.48557299 -1.23519 15.2623 2698536
-0.455042 -1.23374 15.2548 3159344
-0.43472499 -1.23544 15.2676 4014912
-0.231737 -1.26074 15.2731 3949890
-0.222258 -1.24228 15.2803 4081220
-0.221054 -1.24458 15.2898 4081220
-0.211393 -1.2614501 15.2831 4015685
-0.180446 -1.24675 15.2555 3752255
-0.158815 -1.2476 15.2648 3752254
-0.14796899 -1.24555 15.2458 3818047
-0.121692 -1.24651 15.2518 3817789
-0.111588 -1.26531 15.2561 4212548
-0.099303097 -1.24646 15.2548 4278083
-0.087707996 -1.2659301 15.2582 4409669
-0.0780904 -1.24764 15.2699 4409669
0.0400111 -1.26499 15.2573 3554358
0.0360719 -1.26445 15.2508 3422516
0.059751902 -1.2659 15.259 3685945
0.057982001 -1.2659 15.2644 3685945
0.13862699 -1.2609299 15.2515 4080705
0.16179501 -1.25691 15.256 3752254
0.172892 -1.27614 15.2542 3818047
0.22017001 -1.2649601 15.2539 1252381
0.33721301 -1.2748899 15.2647 3423030
0.364021 -1.27534 15.2478 3225651
