ply                 
format ascii 1.0    
element vertex 1296
property float x    
property float y    
property float z    
property uchar red  
property uchar green
property uchar blue 
end_header          
0.352198 0.681656 1.55473 15 6 0 
0.244549 0.645374 1.47599 130 118 102 
0.379919 0.686226 1.50728 10 3 0 
0.362725 0.688538 1.48782 114 108 94 
0.439085 0.753506 1.55707 68 67 47 
0.454021 0.777821 1.56656 129 128 108 
0.401997 0.739118 1.49768 159 152 134 
0.341522 0.712661 1.44749 97 94 77 
0.37075 0.726475 1.47166 150 147 130 
0.303477 0.709618 1.41806 105 96 79 
0.223442 -0.730759 2.29861 43 40 35 
0.29811 0.154627 1.80846 20 15 9 
0.367184 0.433922 1.7497 106 98 87 
0.401673 0.56737 1.75784 64 60 49 
0.441833 0.674439 1.78695 123 111 99 
0.220419 0.571746 1.50031 90 85 82 
0.211497 -0.799485 2.36613 107 102 98 
0.209121 -0.739738 2.28627 128 120 109 
0.168641 -0.755136 2.25819 100 95 89 
0.405569 -0.314363 2.29135 6 6 4 
0.354119 0.439971 1.72965 88 85 76 
0.399071 0.74064 1.48544 55 48 29 
0.313119 -0.578084 2.15066 117 112 106 
0.358078 0.689966 1.54324 106 98 77 
-0.0203901 -2.05618 3.36887 230 234 233 
0.0448016 -1.66051 3.21837 84 79 75 
0.249838 0.440806 1.61575 15 10 7 
0.240917 -0.195085 1.95134 32 27 24 
0.0949766 -0.460256 2.04195 81 77 74 
-0.042479 -1.98239 3.32849 106 111 107 
-0.0322985 -1.82156 3.25365 131 121 112 
-0.0151982 -1.81898 3.25405 25 21 22 
-0.0406647 -1.80929 3.23924 34 34 32 
-0.0186272 -1.92013 3.30284 61 57 46 
0.00629976 -1.90784 3.30429 59 49 40 
-0.0240417 -1.8185 3.24753 140 130 120 
-0.0287692 -1.93493 3.30619 128 121 115 
-0.0126306 -1.90533 3.29347 58 54 51 
0.0169599 -1.79816 3.2453 119 109 97 
-0.00557785 -1.89075 3.28629 32 36 37 
-0.00883743 -2.06044 3.39413 142 143 145 
-0.00813792 -2.0787 3.40253 84 88 91 
0.270323 -0.962771 2.59303 108 104 93 
0.243385 -0.970516 2.5249 114 104 92 
0.243896 -1.00918 2.95397 48 48 40 
0.0208531 -1.06781 2.53048 6 0 0 
0.119098 -0.994626 2.48613 98 97 93 
0.293541 -0.87025 2.5601 7 0 0 
0.315799 -0.838116 2.61852 110 106 95 
0.108109 -0.940964 2.41597 109 105 94 
0.188612 -0.884152 2.44328 128 126 114 
0.151394 -0.884318 2.39536 155 150 144 
0.325619 -0.779087 2.50321 109 103 91 
0.290935 -0.827003 2.9333 30 30 28 
0.204011 -0.832574 2.4053 120 115 111 
0.300385 -0.765886 2.44785 125 122 117 
0.22464 -0.781873 2.37476 133 130 121 
0.186999 -0.785975 2.33529 122 119 110 
0.221512 -0.760173 2.34664 102 99 94 
0.0831688 -0.830188 2.31159 11 4 0 
0.240177 -0.739107 2.34631 42 38 27 
0.210983 -0.754197 2.3318 107 104 95 
0.269694 -0.712333 2.35534 20 17 8 
0.238938 -0.718956 2.3291 110 107 102 
0.297131 -0.677888 2.3558 31 28 23 
0.338981 -0.668932 2.81032 23 23 11 
0.361218 -0.636648 2.37312 141 137 126 
0.379948 -0.625697 2.55578 28 24 13 
0.356186 -0.643955 2.77917 65 58 50 
0.227833 -0.693544 2.26742 140 136 127 
0.18146 -0.714876 2.23321 137 133 122 
0.241498 -0.678646 2.26024 155 152 143 
0.218243 -0.688398 2.24158 143 140 131 
0.343046 -0.60707 2.28934 27 22 18 
-0.185739 -0.908528 2.40199 221 223 222 
0.413388 -0.477654 2.31652 72 68 67 
0.413951 -0.456091 2.3094 21 17 14 
0.238659 -0.548772 2.13682 6 3 0 
0.230531 -0.547758 2.12757 109 104 101 
0.270862 -0.519367 2.14451 9 5 4 
0.281371 -0.513354 2.14872 3 0 0 
0.443613 -0.420761 2.38281 4 0 0 
0.233672 -0.532035 2.12135 3 0 0 
0.245788 -0.525916 2.12479 3 0 0 
0.447024 -0.413797 2.41339 126 119 109 
0.428957 -0.415995 2.34586 5 0 0 
0.450687 -0.400694 2.40668 125 121 112 
0.245281 -0.513284 2.11381 88 86 74 
0.452707 -0.394935 2.44309 10 7 0 
0.408444 -0.416849 2.27253 3 0 0 
0.418357 -0.40891 2.29635 6 1 0 
0.306436 -0.45599 2.1432 117 112 108 
0.0534689 -0.580653 2.09527 5 1 0 
0.453575 -0.357436 2.46439 12 3 0 
0.450366 -0.359896 2.4065 5 1 0 
0.436872 -0.367687 2.33328 87 83 74 
0.366766 -0.40022 2.1851 124 121 116 
0.443021 -0.353228 2.36058 3 0 0 
0.2383 -0.456417 2.09186 117 112 108 
0.447854 -0.337809 2.37043 77 73 70 
0.118426 -0.510957 2.06944 9 6 1 
0.440774 -0.325567 2.55351 23 19 8 
0.38365 -0.36201 2.2442 8 4 0 
0.448881 -0.320681 2.40491 93 91 79 
0.192532 -0.458023 2.06508 22 19 12 
0.43995 -0.29909 2.54935 4 0 0 
0.204045 -0.422928 2.0505 7 3 0 
0.261799 -0.394292 2.06941 4 0 0 
0.447275 -0.27598 2.51083 97 90 80 
0.420223 -0.296599 2.34154 134 127 119 
-0.0879614 -0.550935 2.09049 105 104 100 
0.216673 -0.407529 2.0488 20 17 10 
0.432903 -0.268152 2.56279 3 0 0 
0.283085 -0.368034 2.07009 121 116 112 
0.288551 -0.359413 2.07503 114 106 104 
0.255812 -0.374844 2.05589 113 109 100 
0.198627 -0.402324 2.03644 18 18 10 
0.287508 -0.353182 2.06643 7 2 0 
0.401352 -0.28574 2.26416 138 130 119 
0.405305 -0.274976 2.25768 122 112 103 
0.415476 -0.263335 2.30638 31 24 16 
0.235843 -0.360679 2.03616 10 3 0 
0.272014 -0.342938 2.0499 95 90 84 
0.181517 -0.380155 2.02955 110 106 97 
0.426314 -0.234506 2.4161 22 18 7 
0.423841 -0.235895 2.33644 125 121 110 
0.420686 -0.213106 2.54496 91 88 83 
0.271785 -0.320855 2.03851 38 33 27 
0.209412 -0.34603 2.00656 44 37 27 
0.421905 -0.215767 2.33288 130 122 109 
0.283727 -0.299228 2.0371 120 116 107 
0.409097 -0.19897 2.51733 9 6 0 
0.197884 -0.337198 1.99651 117 110 100 
0.427014 -0.201178 2.33583 9 0 0 
0.388583 -0.230717 2.16164 120 113 103 
0.190746 -0.320728 1.99375 119 115 106 
0.183205 -0.315279 1.99452 86 82 79 
0.427539 -0.163739 2.36821 26 16 7 
0.327227 -0.233967 2.04191 103 99 88 
0.19861 -0.294361 1.97882 5 2 0 
0.286073 -0.251303 2.01714 19 14 11 
0.0433766 -0.336662 1.99194 17 13 10 
0.0460503 -0.325742 1.98748 2 1 0 
0.427349 -0.12407 2.34512 25 15 5 
0.331116 -0.195352 2.02756 116 107 100 
0.119132 -0.28261 1.97315 100 99 95 
0.426771 -0.0937368 2.3138 32 18 5 
0.40686 -0.11766 2.16992 129 120 103 
0.2941 -0.169538 1.9816 108 104 95 
0.295251 -0.15474 1.97835 28 18 8 
0.307892 -0.148636 1.98543 4 0 0 
0.202134 -0.196441 1.9261 23 16 8 
0.425731 -0.0469718 2.33406 40 32 19 
0.249303 -0.159146 1.94107 104 97 89 
0.190017 -0.183978 1.92147 101 96 92 
0.278341 -0.143649 1.9557 5 1 0 
0.420332 -0.0254446 2.37926 18 6 0 
0.387347 -0.0764743 2.08524 15 10 4 
0.0491124 -0.222208 1.93053 24 21 16 
0.298861 -0.12117 1.96209 99 95 86 
0.201481 -0.165206 1.90786 140 133 123 
0.277881 -0.126991 1.94199 8 0 0 
0.309561 -0.111269 1.9585 106 99 93 
0.314656 -0.108132 1.96858 138 131 121 
0.386751 -0.0618569 2.07089 102 92 83 
0.237359 -0.134995 1.91515 97 92 88 
0.298243 -0.104772 1.94487 15 8 2 
0.419257 -0.000577734 2.21977 32 0 0 
0.285487 -0.0952873 1.93115 94 90 81 
0.210581 -0.129074 1.89481 123 120 115 
0.27395 -0.0935974 1.92554 21 17 8 
0.225129 -0.115297 1.89573 102 97 93 
0.232826 -0.108687 1.90151 18 13 9 
0.0575999 -0.148966 1.88785 102 94 91 
0.277988 -0.0521751 1.90625 9 0 0 
0.122548 -0.102929 1.87531 100 99 97 
0.0725507 -0.117578 1.87323 100 97 92 
0.0969873 -0.107007 1.86771 107 103 100 
0.408737 0.0376264 2.03168 10 0 0 
0.226239 -0.0558593 1.86617 119 115 106 
0.0817188 -0.0871918 1.85877 4 0 0 
0.412412 0.130268 2.3269 36 22 9 
0.235097 -0.0148433 1.84792 111 108 103 
0.25392 0.000670754 1.85343 118 114 103 
0.233789 0.00300601 1.84137 100 96 87 
0.26133 0.0164918 1.84853 9 5 0 
0.247122 0.0229783 1.83684 4 0 0 
0.340213 0.0697439 1.90587 130 115 110 
0.271362 0.0426165 1.84495 7 0 0 
0.25401 0.0416169 1.82995 95 91 82 
0.222763 0.0303021 1.82321 6 2 0 
0.258778 0.0511158 1.83406 104 100 91 
0.295057 0.0695176 1.85427 26 19 9 
0.386595 0.123595 1.96445 35 23 11 
0.141827 0.0229833 1.81433 95 92 87 
0.419241 0.208358 2.25042 70 58 42 
0.40756 0.214278 2.28405 153 141 125 
0.251843 0.0674011 1.81886 132 124 113 
0.423521 0.212287 2.20781 43 30 11 
0.217848 0.0576863 1.80133 100 95 91 
0.421843 0.217946 2.22346 32 17 0 
0.0629696 0.0179197 1.80242 25 20 16 
0.144602 0.0423079 1.80564 14 13 9 
0.348966 0.123552 1.89358 116 106 97 
0.302342 0.100077 1.84876 115 111 102 
0.358018 0.129683 1.90048 110 100 91 
0.238739 0.084 1.79576 105 100 94 
0.11708 0.0608168 1.78798 3 0 0 
0.263652 0.105656 1.79904 5 1 0 
0.412212 0.259755 2.24995 138 129 114 
0.408178 0.240869 2.16221 156 138 124 
0.191956 0.0965447 1.7703 86 81 78 
0.414344 0.276062 2.23395 39 26 9 
0.425119 0.240549 2.07011 19 9 0 
0.296838 0.146939 1.80758 116 111 107 
0.417195 0.248296 2.04818 24 12 0 
0.415637 0.295227 2.22143 67 54 38 
0.381827 0.216407 1.94444 141 132 123 
0.420953 0.283182 2.12827 128 120 107 
0.116504 0.110863 1.76258 132 128 117 
0.42327 0.284249 2.10568 131 123 104 
0.421534 0.301362 2.1539 66 54 40 
0.206093 0.143016 1.74756 116 106 97 
0.423734 0.295068 2.0893 15 1 0 
0.427755 0.30545 2.11742 126 119 103 
0.42122 0.318303 2.17012 160 148 134 
0.0714046 0.116178 1.74956 98 93 89 
0.419095 0.323562 2.18003 151 139 123 
0.220147 0.155308 1.74817 16 9 0 
0.423874 0.300384 2.07537 38 26 14 
0.423327 0.311217 2.09718 21 8 0 
0.420312 0.326414 2.15481 47 35 21 
0.417942 0.333094 2.16985 30 17 8 
0.422934 0.322604 2.11902 22 15 0 
0.421343 0.305584 2.03876 32 22 10 
0.349356 0.22874 1.81476 152 145 126 
0.420533 0.305599 2.02323 43 35 22 
0.42293 0.332255 2.10629 156 147 132 
0.414652 0.349116 2.17313 8 0 0 
0.419623 0.342194 2.13516 41 33 20 
0.418101 0.349333 2.15885 138 128 116 
0.400952 0.358586 2.20634 54 46 33 
-0.00611832 0.129577 1.74061 12 8 5 
0.429505 0.340253 2.10403 138 130 117 
0.408208 0.363673 2.19434 131 118 102 
0.42316 0.346595 2.11155 34 22 8 
0.424742 0.350397 2.12313 42 34 21 
0.424383 0.343136 2.07629 137 127 115 
0.422647 0.355112 2.09206 32 25 7 
0.425204 0.361882 2.11317 53 45 34 
0.423333 0.35866 2.09925 44 38 22 
0.429085 0.344247 2.04314 110 100 90 
0.286223 0.231099 1.76099 154 148 136 
0.253035 0.220393 1.7353 140 132 121 
0.425944 0.355473 2.05779 14 5 0 
0.425131 0.353322 2.03253 18 7 1 
0.404118 0.39561 2.19062 43 36 20 
0.389598 0.312882 1.90799 23 11 0 
0.414811 0.395183 2.15893 78 67 47 
-0.0583551 0.159694 1.73163 102 101 99 
0.422013 0.353738 2.01265 66 56 44 
0.275997 0.242457 1.7456 158 147 129 
0.424764 0.364397 2.03869 8 0 0 
0.41022 0.403108 2.18009 159 145 132 
0.26752 0.240509 1.73942 132 124 113 
0.287337 0.248879 1.75025 167 158 143 
0.405769 0.409017 2.18753 58 46 32 
0.210979 0.224993 1.70923 109 100 91 
0.419537 0.40163 2.13806 9 0 0 
0.198346 0.221647 1.70688 109 105 96 
0.423242 0.373073 2.02693 47 37 25 
0.426445 0.382834 2.05656 143 133 121 
0.422752 0.394352 2.09762 28 16 4 
0.227007 0.242195 1.70507 141 132 123 
0.145211 0.226287 1.70794 102 97 93 
0.420505 0.376206 1.99915 19 6 0 
0.270323 0.263764 1.72907 129 120 105 
0.249235 0.257561 1.71235 143 139 128 
0.199361 0.242416 1.69463 107 103 91 
0.425441 0.406321 2.06198 43 33 21 
0.420897 0.421466 2.11294 165 154 136 
0.0837394 0.224028 1.69811 104 101 96 
0.269639 0.27294 1.72487 152 140 114 
0.417065 0.431052 2.12291 47 39 20 
0.423958 0.407129 2.03216 38 29 14 
0.221275 0.26076 1.69667 93 87 75 
0.2589 0.278175 1.70957 119 115 103 
0.425214 0.423991 2.05744 27 17 5 
0.40816 0.446685 2.14222 20 6 0 
0.0800025 0.24154 1.68505 21 16 12 
0.425471 0.421952 2.00616 38 28 16 
0.193182 0.270701 1.68215 109 105 102 
0.269314 0.296043 1.71265 133 121 109 
0.426264 0.43692 2.04434 125 119 103 
0.426488 0.431214 2.02194 9 0 0 
0.415635 0.458416 2.10773 45 35 23 
0.275664 0.305078 1.70963 54 38 22 
0.415575 0.416037 1.9515 134 124 114 
0.285825 0.314301 1.71833 136 128 115 
0.263409 0.307166 1.70227 116 106 94 
0.417786 0.474491 2.1043 12 2 0 
0.426725 0.45696 2.04153 17 7 0 
0.423554 0.440639 1.98541 38 29 14 
0.420319 0.430534 1.95263 16 4 0 
0.264488 0.3161 1.69657 140 133 107 
0.250805 0.316026 1.68948 129 119 109 
0.417158 0.442641 1.93941 76 64 50 
0.423447 0.464718 1.99423 130 124 110 
0.126208 0.299184 1.66718 97 89 86 
0.422766 0.475224 2.0234 27 18 3 
0.234784 0.327644 1.67113 20 15 11 
0.315964 0.366853 1.71994 138 129 120 
0.243324 0.337616 1.67266 8 4 0 
0.428967 0.493055 2.01122 122 112 100 
0.221884 0.335877 1.6548 132 129 120 
0.229403 0.339593 1.66181 112 108 99 
0.420746 0.50675 2.03187 37 28 13 
0.400189 0.446434 1.8693 15 7 0 
0.42388 0.504558 2.01768 146 137 122 
0.426209 0.498569 1.97791 16 6 0 
0.407809 0.460824 1.86902 144 136 125 
0.425315 0.51114 1.99413 9 0 0 
0.424408 0.515517 2.00659 46 37 22 
0.277991 0.372682 1.67545 87 80 70 
0.421798 0.523948 2.02507 45 37 18 
0.288251 0.379533 1.6826 10 1 0 
0.416011 0.481194 1.90628 125 118 102 
0.422104 0.53432 2.04002 19 9 0 
0.424513 0.49924 1.93987 143 133 121 
0.425336 0.534449 2.01894 61 51 41 
0.236525 0.373163 1.64818 13 9 0 
0.078726 0.343414 1.62331 133 130 125 
0.413372 0.47641 1.83473 56 48 37 
0.427338 0.502078 1.8969 135 129 115 
0.434363 0.533688 1.97668 22 15 0 
0.302616 0.405443 1.68015 119 117 105 
0.43832 0.521319 1.93193 27 19 6 
0.205685 0.375075 1.62361 5 2 0 
0.41308 0.484354 1.82448 30 21 12 
0.046616 0.351054 1.61337 133 129 126 
0.441784 0.527743 1.92471 146 138 127 
0.439392 0.550985 1.98459 7 0 0 
0.441656 0.535296 1.93667 41 32 17 
-0.215631 0.344397 1.68924 103 100 95 
0.212914 0.38722 1.62038 124 119 115 
0.0644917 0.362163 1.605 95 91 88 
0.423622 0.505936 1.84034 13 7 0 
0.281954 0.416262 1.65673 110 106 95 
0.442239 0.563451 1.97833 33 23 13 
0.251145 0.407127 1.63816 150 148 136 
0.44568 0.560342 1.96246 133 125 114 
0.0498595 0.368941 1.59183 6 1 0 
0.198879 0.398941 1.6077 112 107 103 
0.21145 0.402797 1.61245 100 95 91 
0.449558 0.574995 1.9677 23 13 3 
0.446617 0.555889 1.91448 133 123 111 
0.417636 0.511816 1.8056 180 177 162 
0.240903 0.420946 1.62455 100 93 83 
0.427425 0.531348 1.8374 123 115 104 
0.4268 0.529029 1.82798 20 12 0 
0.450416 0.587446 1.96443 13 3 0 
0.432272 0.542901 1.84862 36 28 15 
0.446399 0.573234 1.90585 14 0 0 
0.450024 0.586778 1.93303 10 0 0 
0.452188 0.588193 1.9255 144 132 120 
0.448393 0.584258 1.91296 25 16 1 
0.436723 0.564197 1.86287 113 105 94 
0.442384 0.624128 2.00158 7 0 0 
-0.0560152 0.395923 1.58252 129 126 119 
0.424662 0.551914 1.81717 18 10 0 
0.435434 0.568711 1.8476 44 36 25 
0.10707 0.422232 1.57305 95 92 87 
0.423562 0.568027 1.81567 25 17 4 
0.431369 0.655861 2.02818 13 3 0 
0.419509 0.562487 1.79718 106 98 87 
0.435383 0.589648 1.847 7 0 0 
0.429998 0.590215 1.81974 39 29 17 
0.434937 0.605263 1.84366 38 29 14 
0.0765153 0.446886 1.55565 94 91 86 
0.426738 0.605742 1.80052 45 39 25 
-0.0642944 0.459112 1.55272 4 0 0 
0.411078 0.598162 1.75782 136 128 117 
-0.00567557 0.471747 1.54229 150 142 140 
-0.0711743 0.473241 1.54792 6 3 0 
0.179824 0.502599 1.55948 133 130 125 
0.259336 0.526872 1.58978 195 191 182 
0.398939 0.603517 1.7284 39 31 18 
0.253985 0.536968 1.57511 39 36 29 
0.0727286 0.503682 1.52848 105 102 97 
0.415839 0.629751 1.74884 119 111 100 
0.409537 0.624928 1.7184 22 16 2 
0.44324 0.675855 1.80928 72 64 51 
0.450002 0.719501 1.89664 14 2 0 
0.447352 0.738332 1.93619 121 119 107 
0.398522 0.621024 1.68165 123 119 108 
0.427024 0.648075 1.73753 18 9 0 
0.451515 0.692165 1.79789 7 0 0 
0.154785 0.543969 1.50842 127 122 118 
0.45472 0.717135 1.84532 6 0 0 
0.466662 0.725036 1.8338 24 20 9 
0.0636362 0.542944 1.48718 22 21 17 
-0.0290661 0.543469 1.48418 137 132 128 
0.452241 0.797162 1.96884 4 0 0 
0.406786 0.663122 1.65698 120 116 105 
0.0869922 0.569947 1.4731 97 95 83 
0.467263 0.755415 1.82416 139 137 125 
0.416705 0.683615 1.6638 159 157 145 
0.434827 0.71473 1.69926 144 137 129 
0.272672 0.639036 1.51311 135 127 116 
0.275996 0.673179 1.44429 107 103 91 
0.82577 0.441112 0.922834 136 130 116 
0.777391 0.453436 0.933166 130 126 114 
0.220616 -1.09155 3.00009 222 222 222 
0.221489 -1.07845 2.987 94 90 79 
0.266135 -0.969191 2.77764 36 31 25 
0.269439 -0.93444 2.59155 19 15 12 
0.287743 -0.924429 2.71992 123 119 110 
0.263691 -0.952285 2.93566 217 222 218 
0.174856 -0.950029 2.4745 113 105 92 
0.241266 -0.93148 3.0559 70 70 62 
0.307537 -0.855624 2.7236 115 112 107 
0.317154 -0.832946 2.56011 146 140 126 
0.246493 -0.832378 2.46644 104 101 92 
-0.0335685 -0.989837 2.46753 100 97 90 
0.301506 -0.812466 2.88575 24 25 20 
0.206721 -0.82176 2.39841 125 121 112 
0.165033 -0.84139 2.38164 106 99 91 
0.23594 -0.795203 2.40374 118 115 110 
0.359584 -0.721029 2.50396 25 17 6 
0.160873 -0.827984 2.34897 147 143 132 
-0.207061 -1.05566 2.52781 86 87 81 
0.157317 -0.818412 2.33383 21 18 13 
0.347928 -0.716598 2.58132 35 32 25 
0.0245803 -0.887923 2.36627 9 6 1 
0.305321 -0.721529 2.41288 97 94 89 
-0.161617 -1.00095 2.48798 106 105 101 
0.275751 -0.733916 2.3856 117 114 105 
0.067407 -0.830998 2.31322 17 14 9 
0.229588 -0.73497 2.32705 93 90 83 
0.385228 -0.6458 2.43062 47 43 32 
0.335674 -0.691605 2.8152 62 60 47 
0.213879 -0.735133 2.31082 36 31 28 
0.156222 -0.765432 2.27738 100 96 93 
0.206781 -0.727217 2.29444 33 28 24 
0.346183 -0.659707 2.8068 226 228 227 
0.207433 -0.704275 2.24868 133 131 119 
0.343682 -0.638121 2.80913 66 62 59 
0.268081 -0.652477 2.26256 113 113 103 
0.362678 -0.599634 2.78266 213 215 212 
0.216009 -0.665067 2.20365 132 126 114 
0.25463 -0.631297 2.19891 130 127 122 
0.383815 -0.555012 2.73761 92 89 80 
0.382746 -0.54232 2.74872 217 219 218 
0.253919 -0.604325 2.15994 111 108 99 
0.391156 -0.516601 2.73499 230 232 231 
-0.186805 -0.823955 2.3257 43 44 39 
0.15267 -0.628573 2.12606 136 127 118 
0.353175 -0.52149 2.2196 32 27 23 
0.397554 -0.481113 2.27456 89 84 78 
0.247003 -0.551718 2.14495 98 95 90 
0.459716 -0.432955 2.52816 112 107 103 
0.444711 -0.436984 2.39023 7 2 0 
0.199992 -0.562223 2.12616 15 11 8 
0.450792 -0.419184 2.46274 91 87 84 
0.452762 -0.408974 2.46091 34 31 26 
0.333591 -0.472686 2.17751 5 0 0 
0.314423 -0.481378 2.16332 11 6 3 
0.278218 -0.4968 2.1443 4 0 0 
0.454714 -0.390739 2.49392 44 40 31 
0.0388045 -0.609664 2.1127 84 79 75 
0.444824 -0.393172 2.40303 57 54 47 
0.224392 -0.511439 2.10577 9 8 4 
0.209347 -0.517609 2.10429 3 0 0 
0.243006 -0.498521 2.09207 84 80 77 
0.455848 -0.377716 2.4534 107 104 95 
0.051679 -0.588473 2.10171 82 81 76 
0.242071 -0.486224 2.10103 27 23 20 
0.334931 -0.429495 2.16137 29 23 23 
0.358586 -0.415519 2.17342 132 129 120 
0.2721 -0.460386 2.11638 88 85 80 
0.323447 -0.433608 2.14106 87 82 78 
0.156157 -0.512291 2.0808 71 70 65 
0.205921 -0.487088 2.08301 44 40 37 
0.17166 -0.499396 2.07347 86 86 78 
0.317794 -0.424146 2.14113 86 81 75 
0.226251 -0.47067 2.08004 108 107 103 
0.338093 -0.403218 2.15431 109 105 96 
0.451964 -0.327128 2.47898 61 57 45 
0.184585 -0.476873 2.07741 79 74 70 
0.217658 -0.455888 2.07776 96 93 88 
0.291472 -0.414355 2.10932 94 91 86 
0.18427 -0.465868 2.07239 137 134 129 
0.205175 -0.451567 2.06147 52 49 42 
0.243503 -0.431732 2.07933 104 102 90 
0.251721 -0.427693 2.0849 88 85 80 
0.274673 -0.411601 2.09395 97 92 89 
0.293429 -0.400088 2.09947 104 100 97 
0.0811055 -0.500556 2.058 88 87 83 
0.203817 -0.441405 2.05535 102 99 94 
0.45189 -0.301403 2.39125 94 89 85 
0.294973 -0.388283 2.09023 90 86 77 
0.448421 -0.287914 2.47005 0 1 0 
0.194611 -0.433054 2.05485 99 91 80 
0.0760425 -0.489483 2.05443 82 82 80 
0.389738 -0.326971 2.1993 43 39 30 
0.291408 -0.379284 2.0835 118 113 107 
0.441573 -0.289017 2.37311 83 80 71 
0.459774 -0.275262 2.45999 93 86 76 
0.2718 -0.385789 2.0742 135 132 127 
0.382935 -0.322876 2.21428 134 126 115 
0.301504 -0.367523 2.09257 44 41 36 
0.240007 -0.396428 2.06104 86 82 73 
0.413531 -0.299834 2.30143 99 95 86 
0.307389 -0.360786 2.09488 96 93 88 
0.0930394 -0.464642 2.04666 85 80 76 
0.149653 -0.429805 2.0574 102 101 97 
0.247825 -0.38222 2.05247 136 132 123 
0.262999 -0.373653 2.06349 104 99 95 
0.428618 -0.272682 2.3835 1 0 0 
0.21614 -0.394786 2.0383 18 14 11 
0.387447 -0.295133 2.1978 93 89 80 
0.439917 -0.250715 2.4601 84 80 69 
0.145739 -0.415569 2.05429 85 86 81 
0.13241 -0.419498 2.04784 68 67 65 
0.232539 -0.372896 2.04052 17 12 8 
0.427612 -0.253895 2.40971 132 125 115 
0.259847 -0.354352 2.04979 9 5 0 
0.209356 -0.377254 2.03415 10 6 3 
0.409907 -0.263836 2.28099 63 56 46 
0.279423 -0.33613 2.05368 15 12 7 
0.422835 -0.236373 2.46966 1 0 0 
0.0993283 -0.417262 2.04586 7 1 1 
0.181978 -0.379171 2.02939 116 109 99 
0.296798 -0.320587 2.06595 110 107 102 
0.0890608 -0.405243 2.03119 7 6 2 
0.171284 -0.365256 2.02452 23 19 16 
0.373807 -0.258555 2.06546 106 101 98 
0.402954 -0.200298 2.55295 5 4 2 
0.360532 -0.255167 2.08042 45 42 33 
0.422566 -0.194942 2.4338 122 118 107 
0.216689 -0.319099 2.003 11 6 2 
0.235533 -0.307604 2.00643 110 105 101 
0.261394 -0.29519 2.02034 91 86 82 
0.300424 -0.275402 2.03868 85 81 78 
0.397394 -0.21643 2.21427 105 96 87 
-0.0411302 -0.426678 2.04241 10 6 3 
0.226138 -0.311057 2.00272 116 111 107 
0.340874 -0.248795 2.07534 105 95 86 
0.0727596 -0.371781 2.00868 83 80 75 
0.434531 -0.172779 2.40089 110 103 95 
0.418885 -0.172677 2.46266 14 10 0 
0.404826 -0.210661 2.10061 106 99 93 
0.38725 -0.212883 2.16062 39 34 30 
0.249967 -0.287276 2.00427 104 99 95 
0.265597 -0.279455 2.0127 96 93 88 
0.329893 -0.240963 2.05317 94 90 81 
0.427304 -0.170116 2.33592 30 24 12 
0.413592 -0.177783 2.23947 103 94 85 
0.427627 -0.160214 2.35059 43 35 24 
0.254582 -0.264235 1.99794 89 82 72 
0.274757 -0.253542 2.01072 99 94 90 
-0.124207 -0.413679 2.05632 81 77 74 
0.422539 -0.128186 2.43715 19 5 0 
0.424152 -0.126311 2.40212 55 43 31 
0.427946 -0.127795 2.30519 39 29 17 
0.391134 -0.161982 2.10995 54 44 34 
0.216872 -0.247537 1.95913 83 74 65 
0.421645 -0.119312 2.23388 137 127 115 
0.389083 -0.142669 2.1197 39 32 24 
0.270765 -0.201749 1.97894 32 25 17 
0.133439 -0.251851 1.96014 79 76 71 
0.231236 -0.211377 1.95677 104 95 90 
0.283479 -0.186269 1.98018 32 28 19 
0.40365 -0.106524 2.17323 118 108 96 
0.209443 -0.211587 1.94229 9 1 0 
0.408998 -0.0987086 2.18252 103 93 81 
0.42388 -0.0658104 2.33374 127 115 103 
0.198416 -0.206651 1.93581 9 4 0 
0.236918 -0.187258 1.94506 91 84 74 
0.0836212 -0.246957 1.94027 90 89 84 
0.339126 -0.135125 2.01604 52 43 36 
0.419338 -0.0761172 2.21633 8 0 0 
0.246678 -0.179512 1.94679 91 87 78 
0.255828 -0.169548 1.94965 10 0 0 
0.423527 -0.0436696 2.37142 112 102 92 
0.242302 -0.170748 1.93253 89 86 81 
0.295787 -0.144286 1.96766 40 33 25 
0.408373 -0.0688096 2.17623 116 112 100 
0.427006 -0.0651938 2.14835 120 118 103 
0.415377 -0.0543723 2.20061 78 66 52 
0.322612 -0.121038 1.97416 91 86 80 
0.210715 -0.169712 1.91824 95 88 82 
0.287824 -0.131223 1.95074 8 1 0 
0.423781 -0.0267218 2.30407 10 7 0 
0.246533 -0.149363 1.92523 95 92 83 
0.392374 -0.0754936 2.03687 86 82 73 
0.362258 -0.0861272 2.01887 14 5 0 
0.224437 -0.152865 1.91035 16 12 9 
0.179777 -0.16881 1.9114 7 1 1 
0.327542 -0.100894 1.97819 112 105 95 
0.136923 -0.180731 1.9228 78 77 75 
0.268185 -0.123776 1.93581 77 73 64 
0.0789609 -0.193982 1.90964 105 101 92 
0.249926 -0.116754 1.91665 74 71 66 
0.424903 0.0123338 2.31428 45 34 14 
0.195051 -0.13813 1.89973 16 15 13 
0.0972499 -0.174519 1.89791 89 88 84 
0.224301 -0.125475 1.89698 106 97 92 
0.245679 -0.109351 1.91198 107 104 99 
0.299758 -0.0794029 1.93333 115 106 97 
0.0887848 -0.162541 1.89505 102 101 97 
0.153216 -0.132316 1.90259 1 0 0 
0.134807 -0.138791 1.89669 2 0 1 
0.101432 -0.148116 1.89127 77 76 74 
0.420831 0.0127879 2.15372 116 107 92 
0.0745327 -0.155596 1.88398 14 13 8 
0.0828125 -0.148935 1.89255 88 84 81 
0.336813 -0.0421575 1.9591 91 82 73 
0.302961 -0.0587572 1.92201 84 81 72 
0.216937 -0.0926319 1.88046 3 0 0 
0.0693224 -0.137256 1.88591 82 79 74 
0.403924 0.0320853 2.09396 116 108 97 
0.28058 -0.0413006 1.89976 11 2 0 
0.259341 -0.0424627 1.88021 92 83 76 
0.253732 -0.0504569 1.84176 123 119 110 
0.420857 0.084945 2.25538 50 35 14 
0.0755572 -0.104985 1.867 23 21 9 
0.200653 -0.0597711 1.85165 107 103 94 
0.282274 -0.0215799 1.88726 15 6 0 
0.421524 0.101428 2.27366 31 18 9 
0.0695416 -0.0916164 1.85641 96 93 88 
0.317302 0.00375689 1.91437 27 18 11 
0.385413 0.0499994 2.01924 23 14 7 
0.213342 -0.0376689 1.84697 68 67 65 
0.425802 0.115814 2.26049 54 41 22 
0.22958 -0.0288659 1.85014 13 8 2 
0.277835 -0.00579311 1.88111 28 18 16 
0.381896 0.065134 2.0386 116 105 99 
0.413371 0.088836 2.10543 79 67 51 
0.137966 -0.0522216 1.85351 4 0 0 
0.319489 0.0238269 1.90671 7 0 0 
0.259937 -0.00217482 1.86324 11 7 0 
0.0673299 -0.0678292 1.8486 89 86 79 
0.120976 -0.0505075 1.84623 78 77 75 
0.0686638 -0.0565606 1.84293 74 70 61 
0.436113 0.146985 2.23218 51 42 27 
0.417955 0.147685 2.26137 74 64 52 
0.271341 0.0296467 1.85023 7 3 0 
0.422731 0.157587 2.21156 48 33 12 
0.126385 -0.0168766 1.83465 98 95 90 
0.278057 0.036544 1.85349 101 97 85 
0.210327 0.0119463 1.82271 17 13 4 
0.138526 -0.00357366 1.82966 91 88 81 
0.391482 0.106358 1.96612 42 32 23 
0.11104 -0.0120984 1.82429 45 38 32 
0.19731 0.0137465 1.81541 103 99 90 
0.237144 0.0290459 1.82961 91 82 73 
0.365049 0.0944309 1.92549 108 98 88 
0.122924 -0.00132669 1.82187 24 20 17 
0.422447 0.176238 2.20246 26 11 0 
0.308124 0.0669299 1.86246 87 80 72 
0.331135 0.0829014 1.88866 13 3 0 
0.203284 0.0291691 1.80564 96 89 83 
0.422179 0.198868 2.24203 149 136 119 
0.114378 0.0118015 1.81382 43 39 36 
0.239552 0.0541547 1.8139 87 83 74 
0.27474 0.0761463 1.83468 93 87 75 
0.384003 0.149924 2.00449 124 114 102 
0.429243 0.217981 2.21427 51 38 21 
0.282495 0.0912919 1.8296 144 137 127 
0.419985 0.2263 2.22912 136 120 104 
0.0699492 0.0241914 1.79713 116 111 105 
0.384751 0.157327 1.96417 24 17 9 
0.283222 0.101085 1.82733 100 98 86 
0.272294 0.102484 1.81722 12 3 0 
0.422609 0.243778 2.19845 74 65 50 
0.102437 0.0532862 1.7878 73 70 63 
0.211573 0.0880487 1.78129 105 98 88 
0.383004 0.185246 1.95989 104 94 84 
0.33628 0.287605 2.41842 93 89 77 
0.219437 0.0978268 1.77797 113 110 101 
0.389924 0.183891 1.9257 12 10 0 
0.308479 0.140154 1.82517 87 80 70 
0.421896 0.269941 2.2142 26 12 0 
0.0984034 0.0733935 1.77807 78 73 69 
0.383632 0.195971 1.93689 127 117 105 
0.252918 0.130898 1.78707 122 115 107 
0.309736 0.157169 1.82003 138 129 120 
0.431709 0.259771 2.06692 136 125 107 
0.252421 0.142215 1.77596 8 1 0 
0.26874 0.150256 1.78476 108 99 90 
0.383039 0.221396 1.9304 43 34 25 
0.430229 0.265517 2.03531 100 90 80 
0.42147 0.275192 2.0528 14 2 0 
0.423398 0.28508 2.07515 50 38 24 
0.391485 0.231676 1.89725 20 10 0 
0.264608 0.168485 1.77126 96 92 83 
0.307909 0.187959 1.803 104 95 88 
0.417192 0.3355 2.1823 114 102 88 
0.422851 0.326462 2.13891 122 110 96 
0.306416 0.205655 1.79224 105 97 86 
0.274617 0.193268 1.76928 88 79 72 
-0.00620254 0.119076 1.74897 6 2 0 
0.423149 0.320619 2.08 133 123 113 
0.284858 0.202449 1.77466 36 27 20 
0.420452 0.344988 2.1527 139 130 115 
0.0616688 0.142517 1.73682 20 16 7 
-0.0312534 0.12724 1.74572 4 0 0 
0.41596 0.317278 2.01336 115 105 93 
0.423109 0.339097 2.06363 117 109 96 
0.409096 0.38125 2.17663 141 129 115 
-0.0543079 0.145116 1.73984 9 5 2 
0.4203 0.340759 2.0123 50 38 26 
0.389812 0.30114 1.89314 116 106 96 
0.423081 0.36394 2.08011 9 1 0 
0.435838 0.323789 1.93149 23 13 3 
0.24958 0.230662 1.73044 9 5 0 
0.415166 0.344681 1.98399 130 120 108 
0.103408 0.196803 1.71404 31 27 18 
0.230324 0.22681 1.71842 26 19 13 
0.286251 0.260282 1.74694 12 2 0 
0.39856 0.343036 1.93589 53 45 34 
0.424056 0.39655 2.07676 57 47 35 
0.423208 0.40944 2.09391 74 65 50 
0.0606806 0.212365 1.69935 29 24 20 
0.424492 0.393306 2.0181 118 108 96 
0.137337 0.233674 1.7034 24 19 15 
0.41756 0.432212 2.13254 139 125 112 
0.234911 0.259811 1.70387 26 19 9 
0.0477258 0.219461 1.69851 68 65 60 
0.111392 0.231055 1.69406 18 10 8 
0.121321 0.241808 1.6926 13 8 4 
0.421225 0.398356 1.98552 15 7 0 
0.102822 0.239844 1.6918 8 3 0 
0.192515 0.257415 1.68956 51 50 45 
0.411619 0.456699 2.13077 38 26 12 
0.23261 0.279885 1.69112 90 81 72 
0.388476 0.359723 1.8402 120 112 101 
0.423461 0.445659 2.0804 46 37 20 
0.265051 0.292955 1.70343 133 124 109 
0.418602 0.457263 2.10108 64 57 41 
0.244652 0.293225 1.69514 93 84 75 
0.424333 0.448644 2.05748 36 27 12 
0.417077 0.468403 2.11016 122 115 96 
0.0782727 0.260815 1.67597 11 7 0 
0.395518 0.38994 1.87667 48 39 24 
0.341495 0.345609 1.7594 110 101 86 
0.128541 0.278095 1.67963 63 58 54 
0.240127 0.30098 1.68375 121 111 102 
0.219758 0.298351 1.67423 96 92 81 
0.111674 0.280591 1.67244 37 32 28 
0.193986 0.30062 1.66806 7 2 0 
0.264132 0.327227 1.68999 112 102 92 
0.420869 0.476116 2.04039 123 114 99 
0.418242 0.494016 2.08201 36 29 13 
0.202742 0.317635 1.65694 22 18 9 
0.0525081 0.292128 1.65858 92 87 83 
0.329597 0.373577 1.73266 139 130 115 
0.260933 0.343097 1.68014 35 26 17 
0.27575 0.349391 1.68779 11 4 0 
0.422802 0.483361 1.98564 37 29 16 
0.426367 0.493602 2.00602 9 0 0 
0.110799 0.319024 1.66002 104 97 87 
0.4143 0.461491 1.91294 139 132 116 
0.290766 0.364472 1.69098 38 31 21 
0.42126 0.513751 2.04908 55 49 37 
0.252021 0.351517 1.66738 108 106 93 
0.269612 0.36174 1.67249 125 121 110 
0.284338 0.36956 1.6838 113 106 96 
0.423515 0.485915 1.94325 64 55 38 
0.425302 0.49225 1.96075 42 33 16 
0.418705 0.479547 1.92346 136 127 112 
0.423679 0.49223 1.95102 132 123 106 
0.183722 0.346089 1.64923 65 62 55 
0.118577 0.334836 1.64649 19 14 10 
0.240839 0.359848 1.65811 39 34 28 
0.351119 0.409832 1.73928 28 18 8 
0.270814 0.371535 1.66799 106 97 90 
0.162745 0.34696 1.64714 29 27 28 
0.388008 0.43934 1.79991 25 17 6 
0.00928661 0.320077 1.64258 27 23 20 
0.105145 0.336387 1.64227 88 84 75 
0.022608 0.324575 1.63905 74 71 64 
0.0952985 0.336115 1.63493 81 78 73 
0.426863 0.512349 1.96715 141 133 120 
0.422532 0.482711 1.88391 129 121 110 
0.422597 0.493145 1.91141 134 124 114 
0.259467 0.376999 1.66368 101 97 86 
0.149745 0.353431 1.63637 16 12 9 
0.28098 0.387545 1.66925 51 44 34 
0.433787 0.509826 1.93466 129 119 107 
0.432686 0.530167 1.9891 55 48 30 
0.0583093 0.338346 1.6236 14 10 7 
0.126285 0.353631 1.62941 9 5 4 
0.419871 0.486864 1.85802 11 3 0 
0.234274 0.383375 1.64243 99 91 80 
0.276429 0.397155 1.66378 134 125 108 
0.185485 0.370477 1.62663 23 22 20 
0.0941144 0.353318 1.61595 108 105 100 
0.437158 0.514322 1.89765 134 126 115 
0.43334 0.563338 2.03034 25 17 0 
0.438131 0.541879 1.96431 68 60 49 
0.165891 0.371831 1.61861 89 85 82 
0.0175472 0.348755 1.61719 92 91 87 
0.133071 0.367062 1.61851 120 116 113 
0.404609 0.476264 1.79773 110 102 91 
0.117839 0.365204 1.61123 90 86 83 
-0.00402489 0.349031 1.61561 91 88 83 
0.19607 0.383173 1.62213 91 87 84 
0.242694 0.397109 1.63474 34 27 17 
0.090257 0.363707 1.60234 76 76 68 
0.441983 0.561867 1.9887 142 134 121 
0.187786 0.385289 1.61174 72 69 62 
0.431026 0.515676 1.86157 45 37 24 
0.431393 0.523725 1.86648 105 95 83 
0.0681107 0.372546 1.59331 72 67 61 
0.0788622 0.374822 1.59599 71 70 66 
0.443421 0.540417 1.88943 128 118 106 
-0.000986267 0.369311 1.59932 27 23 20 
0.185975 0.398714 1.60468 93 89 86 
0.438104 0.534198 1.86435 37 27 15 
-0.0203412 0.369883 1.59699 17 14 9 
0.0376828 0.378403 1.58833 80 71 62 
0.437374 0.60552 2.03321 27 21 7 
0.414105 0.521237 1.80068 112 102 92 
0.3916 0.503269 1.75525 14 5 0 
0.150924 0.414294 1.5869 7 3 0 
0.437692 0.5579 1.85611 14 4 0 
0.405798 0.526891 1.77839 99 91 80 
0.085471 0.40885 1.57594 71 70 65 
0.414776 0.54056 1.79181 59 52 36 
0.439043 0.574123 1.86129 24 18 4 
0.43124 0.561947 1.83258 45 39 27 
0.44301 0.58364 1.88122 45 35 23 
0.414694 0.552333 1.79262 126 120 104 
0.00109594 0.419578 1.56757 81 78 71 
0.117268 0.441933 1.56631 89 87 75 
0.206512 0.464093 1.58752 86 83 76 
0.402286 0.556054 1.75733 109 103 91 
0.174871 0.456828 1.57492 97 94 87 
0.126688 0.459951 1.56213 125 122 115 
0.44003 0.627255 1.8709 53 45 32 
0.0433208 0.454021 1.54856 18 14 11 
-0.0060314 0.46042 1.54848 109 104 100 
0.0260063 0.465516 1.54523 4 1 0 
0.427932 0.622491 1.80558 108 100 89 
0.397697 0.588589 1.7298 149 142 126 
0.446484 0.672708 1.90579 44 32 16 
0.412257 0.609909 1.75637 111 103 90 
0.404785 0.604698 1.74291 42 39 22 
0.441255 0.610428 1.73841 105 96 87 
0.415788 0.621475 1.76901 118 111 101 
-0.0162665 0.485775 1.53633 37 32 29 
0.443475 0.685713 1.90011 117 109 96 
0.388022 0.595862 1.70098 110 108 95 
0.266133 0.534912 1.58369 104 99 95 
0.426785 0.632598 1.76772 102 94 81 
0.284039 0.544038 1.59002 37 33 24 
0.443811 0.675836 1.84959 133 125 112 
0.440617 0.713381 1.93541 24 18 6 
0.293469 0.551154 1.59308 127 118 109 
0.0549317 0.502316 1.52446 106 98 95 
0.447966 0.694752 1.88378 127 120 102 
0.140507 0.514689 1.53083 27 23 20 
0.43874 0.655469 1.79327 132 124 113 
0.0881138 0.508272 1.51966 20 16 13 
0.439599 0.73627 1.96366 107 103 94 
0.447941 0.699487 1.87523 158 145 129 
0.246679 0.544407 1.56061 29 24 21 
0.202577 0.532858 1.53816 17 13 10 
0.369666 0.594822 1.64795 117 108 101 
0.449791 0.706523 1.88108 132 123 108 
0.447317 0.682522 1.82364 58 50 37 
0.0437588 0.515876 1.50983 18 15 10 
0.450649 0.68942 1.82757 118 110 99 
0.230031 0.547264 1.54678 10 6 5 
0.448307 0.728273 1.91176 54 44 34 
0.450758 0.703267 1.85446 149 143 127 
0.423114 0.64177 1.7158 94 88 76 
0.44417 0.673892 1.78425 125 113 101 
0.190325 0.541721 1.52406 89 85 74 
0.434054 0.657295 1.73939 30 26 17 
0.275321 0.563437 1.55204 27 23 12 
0.284192 0.568498 1.55383 127 123 112 
0.395419 0.62457 1.65775 109 105 94 
0.458917 0.726647 1.86603 29 25 14 
0.45751 0.701228 1.80042 131 123 112 
0.0709099 0.537843 1.49489 93 88 84 
0.272903 0.570339 1.54007 31 22 17 
0.288466 0.578601 1.55053 134 130 121 
0.245563 0.569865 1.52947 91 88 81 
0.101403 0.545812 1.49148 16 8 6 
0.460925 0.754878 1.89104 46 39 29 
0.466397 0.73807 1.84586 86 84 72 
0.436315 0.677829 1.715 46 42 30 
0.464139 0.762807 1.87848 14 5 0 
0.465867 0.735328 1.81765 112 104 93 
0.328758 0.618589 1.56547 108 104 95 
0.448796 0.704394 1.73576 16 7 0 
0.46192 0.80411 1.94414 93 90 81 
0.459782 0.725018 1.76846 138 130 117 
0.46694 0.76826 1.85807 20 13 3 
0.463498 0.75101 1.76857 61 55 43 
0.464593 0.75999 1.77498 137 133 121 
0.458671 0.761749 1.74803 25 22 13 
0.369189 0.690892 1.56493 141 132 115 
0.30161 0.641147 1.46502 112 102 92 
0.232258 0.650022 1.48444 130 118 102 
0.365915 0.677777 1.50974 127 117 105 
0.29735 0.659165 1.4622 30 23 7 
0.834632 0.458087 0.911481 52 49 32 
0.267522 -1.00755 2.6314 83 81 66 
0.19695 -0.829563 2.3959 98 95 88 
0.358092 -0.638926 2.75323 124 118 106 
0.387574 -0.527105 2.72925 63 60 55 
0.432106 -0.466727 2.34955 71 66 62 
0.401135 -0.431781 2.26241 105 100 96 
0.457206 -0.384665 2.44697 3 0 0 
0.308538 -0.456678 2.14139 89 84 80 
0.288744 -0.451528 2.12094 84 79 75 
0.228496 -0.475959 2.08764 9 6 1 
0.290517 -0.435739 2.12372 81 78 73 
0.44675 -0.327455 2.51803 91 85 71 
0.26231 -0.410908 2.07995 85 85 77 
0.245767 -0.417191 2.07639 96 91 85 
-0.0537233 -0.555623 2.08552 95 91 90 
0.150497 -0.45573 2.07386 36 32 29 
0.0822662 -0.47772 2.05604 25 24 20 
0.438694 -0.270152 2.54353 93 90 81 
0.369243 -0.326381 2.0986 117 112 106 
0.432644 -0.25874 2.37613 87 84 75 
0.236854 -0.348168 2.02985 57 54 47 
0.453628 -0.220016 2.24506 116 110 96 
0.0887088 -0.372249 2.00832 79 78 76 
0.420316 -0.19997 2.279 104 97 91 
0.198581 -0.309906 1.98925 62 59 52 
0.213123 -0.302797 1.99125 8 3 0 
0.367323 -0.166593 2.62987 6 0 0 
0.270403 -0.241091 1.99788 83 76 68 
0.412453 -0.130491 2.45518 79 65 56 
0.309069 -0.18958 2.0068 95 87 76 
0.215452 -0.184015 1.92949 5 1 0 
0.225752 -0.176311 1.9294 79 74 70 
0.250432 -0.131249 1.92092 77 74 69 
0.0877313 -0.175812 1.90518 86 85 81 
0.141949 -0.153002 1.91022 65 66 61 
0.363309 -0.0523883 2.00084 58 48 36 
0.248283 -0.0981824 1.90671 77 74 67 
0.0666429 -0.158228 1.89267 18 13 9 
0.286864 -0.0646799 1.92074 90 86 77 
0.403542 0.0114111 2.11482 34 26 15 
0.271122 -0.053537 1.8969 59 46 37 
0.283457 -0.0344139 1.90373 78 69 60 
0.0875437 -0.0773785 1.85469 81 78 73 
0.420574 0.102634 2.12467 35 23 11 
0.342398 0.037132 1.92064 101 94 84 
0.317926 0.0410139 1.88569 84 79 75 
0.279753 0.0273065 1.86013 94 83 79 
0.363693 0.0746991 1.93748 25 15 3 
0.410596 0.171836 2.05175 18 6 0 
0.119897 0.0437816 1.79664 83 82 77 
0.201473 0.0962856 1.77356 83 74 65 
0.425274 0.270793 2.14534 64 57 41 
0.387721 0.225983 1.9347 130 122 109 
0.366778 0.238836 1.85354 107 98 89 
0.0791705 0.146907 1.73868 13 8 2 
0.425669 0.35194 2.13324 122 114 101 
0.224106 0.203391 1.72831 83 79 70 
0.415422 0.379567 2.16712 129 120 105 
0.0244414 0.157455 1.72008 89 86 81 
0.416538 0.320722 1.92194 142 129 120 
0.261539 0.2527 1.72301 94 91 82 
0.423928 0.421091 2.10632 127 120 104 
0.267702 0.276821 1.71948 82 70 56 
0.414337 0.383899 1.94399 115 107 94 
0.420649 0.438279 2.0574 119 111 98 
0.422721 0.47314 2.08706 110 100 88 
0.384989 0.409318 1.81744 95 88 72 
0.420967 0.46684 1.94879 32 23 8 
0.438062 0.543708 1.97445 73 67 53 
0.445269 0.555729 1.94884 112 102 90 
0.439191 0.588074 2.02505 51 43 24 
0.427523 0.516668 1.834 41 33 22 
0.448929 0.570073 1.94676 123 113 101 
0.45093 0.57383 1.93615 69 60 45 
0.44454 0.601366 2.00829 138 129 114 
0.111778 0.451387 1.56183 37 36 31 
0.402138 0.713689 2.09407 162 154 141 
0.445138 0.667309 1.87618 59 50 35 
0.438307 0.658273 1.77224 91 83 72 
0.30208 0.564439 1.58202 36 32 21 
0.45743 0.714934 1.88628 33 23 11 
0.244788 0.549458 1.55135 38 33 29 
0.303776 0.576651 1.56587 99 88 82 
0.466266 0.725828 1.83561 21 11 2 
0.176473 0.567656 1.49879 96 93 88 
0.212767 0.574753 1.50638 96 91 85 
0.312886 0.646298 1.53608 36 32 23 
0.429416 0.72962 1.62386 135 132 117 
0.295379 -0.896086 2.56015 126 122 110 
0.265638 -0.923041 3.00872 77 78 64 
-0.241501 -1.12012 2.59675 84 86 75 
0.293315 -0.806593 2.92896 218 218 218 
0.204856 -0.803677 2.37499 105 102 93 
0.197587 -0.746178 2.30064 112 108 99 
0.263558 -0.626578 2.20239 64 63 59 
0.20182 -0.636898 2.15421 22 17 13 
-0.194144 -0.816274 2.31819 202 206 207 
0.450263 -0.447224 2.40698 13 10 5 
0.455399 -0.441963 2.55234 19 14 10 
0.455632 -0.433969 2.40724 85 82 77 
0.457984 -0.419523 2.46964 13 9 6 
0.241513 -0.537271 2.13136 92 89 84 
0.329811 -0.483591 2.17144 75 72 67 
0.351477 -0.453421 2.18923 96 88 77 
0.382226 -0.429998 2.2293 85 81 72 
0.250032 -0.46496 2.10295 103 99 96 
0.455032 -0.340691 2.4715 117 113 104 
0.348381 -0.406083 2.16658 107 102 98 
0.179899 -0.487003 2.07392 5 0 4 
0.447595 -0.32939 2.38241 8 7 3 
0.456646 -0.312023 2.40699 9 8 4 
0.101822 -0.499865 2.06496 3 3 3 
0.210852 -0.435968 2.06504 10 1 0 
0.0730901 -0.500139 2.05015 4 4 2 
0.45238 -0.295645 2.40341 3 3 3 
0.426037 -0.297386 2.36163 78 74 71 
0.364799 -0.319515 2.14243 14 11 6 
0.418207 -0.274802 2.29833 85 81 70 
0.425149 -0.238008 2.46463 10 5 9 
0.424113 -0.236452 2.4406 93 90 85 
0.175619 -0.378942 2.0212 50 46 43 
-0.0188864 -0.463479 2.05891 7 7 7 
0.430808 -0.222707 2.40411 86 77 68 
0.405144 -0.241394 2.26678 22 14 3 
0.375687 -0.258666 2.182 86 78 67 
0.260459 -0.318066 2.03118 71 70 65 
0.420774 -0.213674 2.29859 123 115 104 
0.0138327 -0.417044 2.03644 60 56 55 
0.210431 -0.331212 2.00632 79 74 68 
0.196204 -0.329516 2.00701 7 2 0 
0.431856 -0.189055 2.28497 120 112 99 
0.0812015 -0.357029 2.008 83 82 78 
0.245205 -0.193865 1.94674 26 21 17 
0.385963 -0.112799 2.1182 97 88 79 
0.389228 -0.109521 2.0865 81 75 63 
0.425401 -0.0366602 2.30024 7 4 0 
0.414481 -0.0420159 2.24198 114 102 88 
0.090555 -0.208905 1.92714 82 79 74 
-0.197441 -0.302852 2.0373 49 48 44 
-0.0223479 -0.247743 1.95517 3 3 3 
0.209126 -0.157854 1.90416 17 12 6 
0.42934 -0.00282646 2.29921 101 93 80 
0.165117 -0.120293 1.89559 96 93 86 
0.38644 0.0421948 2.02956 42 32 23 
0.346372 0.0459698 1.9205 47 38 31 
0.192662 -0.0103452 1.83296 79 72 64 
0.377312 0.0721095 1.93532 91 81 71 
0.408925 0.25089 2.15327 62 45 29 
0.380019 0.192623 1.93776 131 124 108 
0.303008 0.14445 1.81395 33 24 15 
0.414762 0.262244 2.1403 146 134 118 
0.266199 0.13898 1.79179 68 64 55 
0.422283 0.26705 2.10988 93 85 66 
0.310536 0.160145 1.80295 26 21 17 
0.206687 0.128373 1.7564 4 3 0 
0.103964 0.149171 1.73731 31 28 19 
0.448749 0.367699 2.00825 109 99 87 
0.322731 0.271119 1.77866 16 6 0 
0.352173 0.300716 1.79784 34 26 15 
0.405394 0.361707 1.93183 146 136 126 
0.356159 0.358287 1.91479 143 130 122 
0.408369 0.457574 2.09899 127 118 103 
0.425574 0.445695 2.01887 35 26 11 
0.390991 0.426722 1.86062 142 131 111 
0.420991 0.500696 2.04179 124 114 102 
0.427351 0.484361 1.96756 118 110 97 
0.420989 0.493978 1.99008 118 108 96 
0.17561 0.363935 1.62858 70 66 55 
0.229397 0.375809 1.6356 94 90 81 
0.186639 0.374449 1.61606 70 69 67 
0.28694 0.408755 1.66545 115 112 103 
0.383601 0.47389 1.78785 37 33 22 
0.440874 0.57458 1.9669 133 124 109 
0.438291 0.544894 1.86993 119 110 101 
0.386402 0.522141 1.74381 111 103 92 
0.448926 0.633432 1.95463 132 120 106 
0.302835 0.49164 1.64041 51 45 33 
0.417135 0.581449 1.78456 46 39 31 
0.422073 0.628319 1.78468 104 96 83 
0.458849 0.706529 1.82458 36 32 21 
-0.244417 0.546628 1.57139 174 176 175 
0.395996 0.644049 1.64582 120 115 109 
0.405325 0.714482 1.61705 25 22 7 
0.784432 0.444916 0.874088 119 110 81 
0.20963 -0.822672 2.38915 77 74 67 
0.369254 -0.603459 2.32014 143 139 130 
0.305392 -0.607396 2.23266 53 49 46 
0.448329 -0.373442 2.5507 103 100 93 
0.184465 -0.482585 2.08635 72 69 64 
0.378991 -0.368838 2.23545 103 97 85 
0.211147 -0.409934 2.03953 108 103 97 
0.411677 -0.212456 2.51634 72 68 57 
0.389738 -0.104569 2.10078 19 10 1 
0.109581 -0.137395 1.89005 4 3 1 
0.382491 0.00692774 2.06496 136 129 111 
0.410314 0.0625667 2.11554 43 33 21 
0.0884794 0.0214371 1.79827 3 0 0 
0.391316 0.256175 1.91416 46 39 29 
0.412521 0.318531 2.06235 72 63 54 
0.389858 0.45672 1.95134 82 76 60 
0.290375 0.399637 1.67359 112 105 95 
0.426698 0.614588 2.05467 22 19 4 
-0.230762 0.420338 1.6391 21 21 19 
0.16909 -1.24842 3.08072 217 221 220 
0.242541 -1.0309 2.96971 214 216 213 
0.275011 -0.955914 2.60383 28 27 23 
0.198608 -0.741984 2.29074 115 107 96 
0.326474 -0.68449 2.81632 42 38 27 
-0.186394 -0.927495 2.43984 44 41 36 
0.234761 -0.616468 2.15852 103 103 91 
0.375099 -0.532522 2.75294 83 82 78 
0.267906 -0.487753 2.11102 57 52 48 
0.421888 -0.385167 2.31044 44 41 36 
0.44477 -0.313839 2.39611 85 81 72 
0.342224 -0.349038 2.20299 108 107 102 
0.22466 -0.362256 2.03133 93 92 87 
0.405501 -0.262423 2.24185 28 15 6 
0.190965 -0.300452 1.99126 111 106 102 
0.408181 -0.0465243 2.25081 127 120 101 
0.417792 0.24661 2.09796 129 117 103 
0.389441 0.2121 1.9775 75 65 53 
0.297469 0.157659 1.80895 10 1 0 
0.388431 0.280334 1.94335 123 113 101 
0.259034 0.391512 1.65392 28 15 6 
0.430543 0.525385 1.8426 30 24 12 
0.465999 0.7465 1.81084 32 29 24 
0.0845652 -1.8752 3.276 231 232 234 
-0.128545 -1.27195 2.75985 79 74 70 
0.348489 -0.622043 2.77151 101 97 85 
0.358562 -0.610667 2.79012 217 218 220 
0.459142 -0.378448 2.51496 96 93 86 
0.428643 -0.349748 2.30923 78 71 61 
0.163436 -0.923951 2.4483 93 85 72 
0.33681 -0.629131 2.79419 106 102 90 
0.291327 -0.589571 2.18096 105 102 95 
0.42981 -0.506634 2.32567 129 125 114 
0.224396 -0.613876 2.16073 117 114 109 
0.396305 -0.516654 2.29594 28 23 20 
0.310592 -0.561552 2.18143 13 12 10 
0.398863 -0.454819 2.71734 98 95 90 
-0.272863 -0.496001 2.17028 29 28 24 
0.396841 -0.0388538 2.08393 125 111 100 
0.150002 -0.118312 1.89572 79 76 71 
-0.258002 0.102477 1.86031 68 67 65 
0.417761 0.381405 1.98631 10 2 0 
0.372906 0.877571 2.14415 175 180 174 
0.248929 -0.585899 2.15858 3 3 5 
0.371281 -0.232354 2.15364 121 112 103 
0.422056 -0.0496957 2.27691 57 53 44 
0.431738 -0.306294 2.322 80 77 68 
0.192578 -0.37713 2.03497 94 94 82 
0.234589 -0.330307 2.02643 47 44 37 
-0.256226 0.174128 1.80134 44 45 40 
0.206298 -1.18824 3.068 208 212 215 
0.322881 -0.654731 2.7955 70 63 53 
-0.187414 -0.806484 2.29469 204 208 209 
-0.288616 -0.467887 2.14603 209 211 210 
0.142047 -1.31945 2.84666 143 137 121 
0.120524 -1.26835 2.77052 120 120 112 
0.205801 -0.984486 2.49628 109 102 92 
0.236045 -0.77463 2.35909 149 146 141 
0.21636 -0.721427 2.28377 28 23 19 
0.410318 0.12676 2.22612 13 0 0 
0.413985 0.471579 1.87507 11 3 0 
0.417258 0.488987 1.83408 19 9 0 
0.4334 0.609069 1.82596 34 25 10 
0.389279 0.569057 1.72276 42 33 26 
0.163619 0.628377 1.44018 128 121 105 
0.245053 0.691777 1.37461 22 18 7 
-0.0388539 -1.8937 3.23532 123 123 115 
0.139527 -1.36235 2.8922 121 118 101 
0.186368 -1.22515 2.79829 138 133 129 
0.22249 -1.15953 2.76223 129 121 110 
0.24673 -1.05657 2.94196 94 90 79 
0.246411 -0.78816 2.38916 125 120 114 
0.247202 -0.713857 2.31668 122 119 114 
0.375583 -0.637915 2.38542 134 125 110 
0.3332 -0.318992 2.08448 121 116 112 
0.271219 -0.240428 1.99898 90 81 74 
0.378422 0.0283916 2.05029 8 0 0 
0.416483 0.262672 2.0592 16 6 0 
0.411821 0.4226 1.91451 124 116 103 
0.395657 0.438474 1.86265 13 4 0 
0.4195 0.487535 1.85875 7 0 0 
0.391031 0.580314 1.72146 109 105 93 
0.181297 0.495121 1.5517 31 28 23 
0.358908 0.588816 1.63902 144 137 121 
0.401273 0.635307 1.65546 110 106 97 
0.172457 0.628161 1.39508 14 12 0 
0.231726 0.675875 1.38977 72 69 60 
0.234918 0.690513 1.36322 148 145 130 
0.283929 -0.762491 2.41061 55 52 47 
0.381981 -0.223852 2.13637 31 22 17 
0.407106 0.565097 1.76164 110 106 94 
0.165049 0.621627 1.39263 35 28 20 
0.21778 0.657543 1.3924 87 83 72 
0.18667 -0.341877 1.99544 18 17 15 
0.387336 0.0710617 2.06718 91 83 72 
0.372016 0.589975 1.66363 118 109 100 
0.381389 0.624657 1.63189 114 104 95 
0.405454 0.85592 2.04418 61 59 47 
-0.0114589 -2.0602 3.42278 219 222 227 
-0.0630229 -1.84392 3.25168 67 59 57 
0.0584436 -1.85272 3.25384 112 102 93 
0.0781724 -1.65555 3.21706 213 217 220 
0.400381 -0.0096574 2.12307 20 12 0 
0.400954 0.223322 2.00221 56 42 31 
0.382529 0.355205 1.81692 25 15 3 
0.352669 -0.723351 2.4465 127 120 112 
0.284832 -0.72852 2.37284 117 114 105 
0.228245 -0.658547 2.18944 132 126 114 
0.34488 -0.586229 2.24255 19 14 10 
0.421455 -0.405544 2.30582 6 3 0 
0.327973 -0.412394 2.14273 11 6 2 
0.245463 -0.109038 1.91208 103 100 95 
0.375982 -0.0228763 2.01107 67 58 49 
0.400458 0.0319387 2.10012 135 129 115 
0.390842 0.0982762 2.0309 127 117 105 
0.411918 0.144739 2.08378 61 50 32 
0.321617 0.0950623 1.87298 95 89 77 
0.35263 0.215471 1.86313 114 101 93 
0.382232 0.238339 1.8845 57 47 37 
0.404953 0.371986 1.92571 119 109 99 
0.280818 0.647778 1.48007 112 105 87 
0.412641 0.527773 1.78823 118 109 92 
0.272872 -0.622111 2.19135 64 63 59 
0.277077 0.527327 1.59355 120 116 105 
0.377419 0.552999 1.7058 125 121 110 
0.363164 -0.341268 2.17656 113 110 101 
0.384886 0.363672 1.86259 51 46 40 
0.0450269 -1.6115 3.20924 67 66 62 
0.450849 0.692692 1.79904 3 0 0 
0.18522 -0.942972 2.46119 113 105 92 
0.0979912 -0.0969382 1.86305 92 82 80 
0.27128 0.0298051 1.8496 6 1 0 
0.364016 0.248237 1.84607 53 46 36 
0.322904 -0.0281394 1.93891 88 79 70 
0.433624 0.589979 1.82688 114 105 88 
-0.0506046 -1.9608 3.3284 132 124 113 
0.0622596 -1.6775 3.24457 213 217 220 
-0.05246 -1.90028 3.34113 29 28 34 
0.462444 0.761044 1.60614 122 120 105 
0.389361 0.646062 1.62614 125 117 114 
0.157595 0.628374 1.40705 41 38 29 
0.387315 0.726559 1.49607 60 54 32 
0.391431 0.735632 1.49934 154 146 125 
-0.0694173 -1.5653 3.03643 56 53 48 
-0.0161034 -1.97758 3.33738 49 50 45 
0.25895 0.391643 1.65408 39 26 17 
-0.0277395 -2.06854 3.36124 217 221 224 
0.0175898 -2.00655 3.32862 32 34 46 
-0.0246098 -1.98069 3.35177 41 40 35 
-0.0323596 -1.92623 3.30163 132 124 113 
0.30977 -0.934117 2.54463 6 2 0 
0.254511 -0.961438 2.51072 114 104 92 
0.268089 -0.951951 2.51198 108 97 95 
0.230193 -0.970605 2.48676 131 118 110 
0.218785 -0.973354 2.47829 123 106 99 
0.1769 -0.990351 2.44554 16 9 1 
0.320614 -0.882962 2.55526 145 141 130 
0.120997 -1.00235 2.45192 138 138 128 
0.307455 -0.871353 2.51339 34 30 18 
0.322301 -0.843722 2.50705 149 146 131 
0.333336 -0.836437 2.68212 124 119 113 
0.34795 -0.814169 2.56889 115 111 102 
-0.139948 -1.0911 2.55046 56 56 48 
-0.179586 -1.08221 2.52875 87 89 78 
-0.179734 -1.066 2.51254 225 227 224 
-0.162282 -1.01062 2.47338 22 21 17 
-0.153008 -0.994913 2.4638 10 10 10 
0.387323 -0.622706 2.56832 19 15 6 
0.448373 -0.482848 2.49389 57 48 41 
0.445037 -0.407938 2.40368 121 118 109 
0.452384 -0.400384 2.40473 132 128 119 
0.450661 -0.396072 2.44672 11 8 0 
0.45585 -0.356392 2.46106 12 3 0 
0.436193 -0.368165 2.3344 106 101 97 
0.443665 -0.353322 2.36014 4 1 0 
0.391183 -0.386483 2.2411 98 98 90 
0.454247 -0.335724 2.40448 124 117 109 
0.440086 -0.325839 2.55464 19 10 1 
0.447169 -0.32157 2.40771 122 114 101 
0.451544 -0.319632 2.38426 128 124 115 
0.441371 -0.309943 2.56655 16 8 0 
0.435679 -0.300665 2.55632 14 11 4 
