ply                 
format ascii 1.0    
element vertex 1286
property float x    
property float y    
property float z    
property uchar red  
property uchar green
property uchar blue 
end_header          
0.181488 -0.268709 1.96903 10 3 0 
-0.341307 -0.276814 2.14505 89 88 84 
-0.184369 -0.259777 1.99015 1 0 0 
-0.152063 -0.251674 1.96347 28 15 6 
-0.158788 -0.247364 1.97028 106 99 91 
0.0871143 -0.24514 1.93758 90 87 82 
-0.132072 -0.242579 1.95228 101 94 84 
0.276262 -0.252414 2.00993 99 94 90 
-0.440177 -0.277712 2.42621 227 228 230 
-0.143266 -0.228298 1.94521 95 87 84 
-0.17219 -0.228379 1.96122 10 5 1 
-0.269611 -0.232754 2.03026 9 0 0 
-0.0281138 -0.223009 1.91708 4 2 3 
0.0587216 -0.219484 1.92178 19 12 6 
0.0976662 -0.21958 1.924 61 57 54 
0.179266 -0.219745 1.93503 23 19 20 
-0.2605 -0.214355 2.01817 35 26 19 
-0.0330603 -0.204345 1.91103 102 97 93 
-0.315243 -0.214537 2.08102 15 7 4 
0.0586406 -0.199229 1.91023 5 2 0 
0.176355 -0.202425 1.94367 24 21 16 
-0.111452 -0.191994 1.91584 25 21 18 
0.187796 -0.195823 1.92657 13 4 0 
0.0736457 -0.191124 1.90065 101 92 83 
0.17828 -0.195385 1.93216 93 88 84 
-0.12249 -0.186981 1.93281 101 97 94 
-0.0731304 -0.184415 1.90396 24 21 16 
-0.254136 -0.188349 1.99173 19 9 7 
0.20488 -0.1873 1.92679 28 24 15 
0.18156 -0.186502 1.92555 10 5 1 
0.193042 -0.183392 1.91897 122 118 109 
-0.281977 -0.181164 2.01229 90 83 73 
0.184171 -0.176282 1.92802 3 0 0 
0.204576 -0.174286 1.9172 5 0 0 
-0.332853 -0.180178 2.08306 18 5 0 
-0.270169 -0.175283 2.01487 5 0 0 
-0.186498 -0.168129 1.93882 11 6 2 
-0.31613 -0.175779 2.05934 21 16 12 
0.0734776 -0.167595 1.89714 11 8 3 
0.0674346 -0.165105 1.8936 87 82 78 
0.200446 -0.165097 1.91036 130 121 112 
0.093327 -0.152551 1.8893 10 6 3 
0.107182 -0.151992 1.89251 15 10 6 
-0.326431 -0.147057 2.05303 6 0 0 
-0.132439 -0.138871 1.89579 108 104 95 
-0.301487 -0.14306 2.01518 8 3 0 
-0.0586426 -0.13731 1.87292 93 82 76 
-0.255318 -0.139412 1.96816 97 93 84 
-0.28753 -0.140144 2.00434 111 104 98 
-0.278598 -0.138999 1.9968 33 30 25 
-0.321656 -0.139957 2.04384 97 90 72 
-0.303559 -0.131712 2.01833 99 94 90 
-0.149819 -0.122562 1.89245 115 111 102 
-0.313299 -0.126682 2.02758 96 91 85 
-0.324077 -0.120842 2.04034 91 86 82 
0.0800996 -0.115395 1.86553 98 95 90 
-0.311178 -0.116766 2.02402 103 99 90 
-0.104611 -0.104816 1.864 19 15 6 
-0.0732687 -0.103646 1.8568 99 95 86 
0.0827303 -0.103081 1.86145 21 16 10 
0.127432 -0.101524 1.8705 100 95 91 
-0.331328 -0.103943 2.03857 101 91 90 
-0.130014 -0.096258 1.87264 111 102 97 
0.239216 -0.102044 1.90753 99 96 91 
-0.155884 -0.0962057 1.88765 6 1 0 
-0.168342 -0.0930456 1.88665 11 7 0 
-0.127242 -0.0854089 1.86368 85 76 71 
0.0894231 -0.0848138 1.85155 11 8 3 
-0.285536 -0.0826394 1.97607 41 35 35 
-0.0652917 -0.0650815 1.83916 11 8 3 
-0.0821687 -0.0622963 1.83948 28 24 21 
-0.329476 -0.064532 2.02494 68 65 60 
-0.304985 -0.0629784 1.98774 24 23 21 
-0.171285 -0.0528993 1.87601 8 7 5 
0.115483 -0.0521039 1.843 79 75 76 
0.302885 -0.0537022 1.93752 31 23 20 
-0.12832 -0.0446361 1.84297 16 13 8 
-0.10447 -0.0453502 1.84073 9 5 4 
0.280185 -0.0419901 1.90744 7 0 0 
0.200041 -0.0167083 1.8361 7 0 0 
0.131659 -0.0158727 1.83105 82 78 75 
-0.187129 -0.00872401 1.85239 10 5 1 
0.12002 -0.00755404 1.82181 126 121 117 
-0.276302 -0.00263574 1.9292 15 11 8 
-0.116427 0.0151864 1.80626 13 9 6 
-0.353962 0.0246691 2.02105 79 71 69 
0.072531 0.0189929 1.79485 19 14 8 
-0.068277 0.0244396 1.79016 96 93 88 
0.278425 0.0258957 1.87079 92 83 74 
-0.269727 0.0383813 1.89653 101 94 86 
-0.248304 0.0378912 1.87536 7 6 4 
-0.149861 0.0385719 1.81705 81 74 68 
0.191223 0.0445395 1.80388 96 85 79 
0.259807 0.0508858 1.83754 113 106 100 
0.236478 0.0540559 1.81686 93 89 80 
0.280662 0.0626988 1.85088 5 0 0 
-0.325904 0.0723055 1.96055 2 1 0 
-0.213169 0.0659173 1.83019 124 117 111 
-0.269634 0.0778581 1.88609 137 133 121 
-0.095841 0.0735769 1.77166 104 100 91 
-0.349359 0.0858174 1.97867 34 31 22 
-0.253284 0.0869967 1.86374 127 124 107 
0.197391 0.0905866 1.775 14 10 0 
-0.337169 0.107903 1.95108 110 100 90 
-0.325391 0.116 1.92464 93 86 78 
0.192977 0.109148 1.76044 109 99 90 
0.0810339 0.116433 1.74134 97 92 86 
-0.0136965 0.126973 1.73026 10 7 2 
0.219814 0.132011 1.7665 7 3 0 
0.297642 0.144085 1.82124 33 24 15 
0.0135626 0.139597 1.7242 82 77 73 
0.294064 0.148292 1.81225 80 71 64 
0.312014 0.162141 1.82534 44 35 26 
0.299843 0.171509 1.81997 15 11 8 
0.316241 0.172155 1.82499 107 98 89 
0.291786 0.177185 1.80501 10 6 3 
-0.138126 0.179135 1.73237 3 0 0 
-0.103811 0.185549 1.71509 16 9 3 
-0.203912 0.193114 1.76169 20 13 5 
-0.124038 0.189004 1.72013 6 1 0 
-0.0897465 0.199061 1.7039 21 18 9 
-0.0795059 0.199204 1.70279 7 2 0 
-0.133237 0.208549 1.71406 89 85 76 
-0.223017 0.216737 1.76058 10 5 0 
0.0712396 0.211862 1.69143 25 15 13 
-0.00760136 0.223237 1.67992 4 0 0 
0.14834 0.226139 1.70588 102 97 93 
0.22654 0.241528 1.7063 161 152 143 
0.288 0.256191 1.75356 7 2 0 
0.321099 0.270841 1.78328 14 4 0 
-0.100714 0.268526 1.66911 110 103 95 
0.251443 0.278707 1.70713 10 6 0 
0.0762128 0.273859 1.66121 12 7 3 
-0.0195984 0.274005 1.65462 118 110 99 
-0.0908431 0.280722 1.66503 3 0 0 
-0.158307 0.294765 1.68117 111 108 101 
0.0159282 0.319721 1.629 96 91 87 
-0.0220043 0.321272 1.62774 118 110 99 
0.178859 0.328231 1.66487 88 80 69 
0.0601704 0.328472 1.62746 24 19 13 
-0.0131424 0.327751 1.62108 11 2 0 
0.0252273 0.328269 1.62255 107 103 94 
0.26058 0.34269 1.68148 34 27 17 
-0.185031 0.335633 1.63975 114 110 98 
0.0968052 0.333789 1.62889 77 73 64 
-0.256911 0.374338 1.6695 2 1 0 
0.0851041 0.358807 1.60074 149 146 141 
0.287013 0.380986 1.68627 15 10 6 
0.140547 0.364572 1.60867 100 92 89 
0.237073 0.372562 1.64842 4 0 0 
0.187565 0.371151 1.6325 25 21 22 
-0.32838 0.396026 1.734 105 97 94 
0.0715996 0.366129 1.58904 9 2 0 
0.0597372 0.366241 1.5859 15 11 8 
0.205797 0.37451 1.62495 11 8 0 
-0.175785 0.378872 1.62103 116 113 104 
-0.252263 0.398125 1.67235 153 158 154 
-0.0729406 0.382278 1.57446 17 12 6 
-0.182033 0.398086 1.60456 136 133 124 
-0.0857596 0.396248 1.57056 109 106 97 
-0.304334 0.437503 1.71422 128 131 146 
-0.239385 0.417936 1.63836 105 97 94 
-0.267616 0.42896 1.6768 113 116 121 
-0.29421 0.439491 1.69866 30 35 39 
-0.318771 0.453545 1.72151 111 114 119 
0.113007 0.415708 1.56614 23 17 17 
-0.0479255 0.417892 1.553 103 99 90 
-0.307733 0.456943 1.68159 141 142 136 
-0.26525 0.463931 1.65629 58 53 49 
-0.311423 0.481876 1.70136 109 113 112 
-0.108242 0.439787 1.55182 4 0 0 
0.0892631 0.443168 1.5476 100 92 89 
-0.00170869 0.449832 1.53514 96 92 81 
-0.339261 0.505895 1.71474 92 93 79 
-0.300557 0.51037 1.67726 127 126 124 
-0.0646868 0.468679 1.5323 116 112 103 
-0.286336 0.515149 1.65748 94 99 93 
-0.163089 0.48278 1.55092 114 102 90 
-0.133531 0.481133 1.53591 16 8 5 
-0.0804067 0.477254 1.52489 5 0 0 
-0.294901 0.529316 1.6569 109 112 95 
-0.332716 0.538939 1.67763 4 0 1 
-0.292635 0.53876 1.65056 115 117 103 
-0.0911749 0.497288 1.51383 106 98 95 
-0.256135 0.536434 1.61307 90 102 92 
-0.219281 0.521229 1.56102 46 42 39 
0.225575 0.521168 1.55737 89 84 80 
-0.268483 0.551932 1.61978 111 115 114 
-0.0465704 0.512975 1.48681 136 125 121 
0.212908 0.536907 1.54325 113 109 100 
-0.271752 0.562548 1.6196 110 111 116 
-0.00637421 0.522713 1.47751 37 28 21 
-0.179088 0.544088 1.50941 14 9 5 
-0.0478684 0.546519 1.4599 103 99 90 
-0.180824 0.563186 1.49521 14 10 7 
-0.0936081 0.56267 1.46569 106 97 88 
0.106579 0.562672 1.46091 98 91 83 
-0.273558 0.614879 1.59634 97 100 107 
-0.0266829 0.567212 1.44544 144 134 132 
-0.0828593 0.572887 1.45107 99 90 83 
-0.157633 0.58236 1.47044 16 13 6 
-0.186759 0.586419 1.47927 102 101 96 
0.316119 0.644488 1.54058 184 180 171 
-0.279821 0.668004 1.56368 1 0 0 
-0.447903 0.802967 1.78592 50 51 45 
-0.045242 -1.76203 3.18008 42 40 41 
-0.0966808 -1.21649 2.6609 136 128 117 
-0.00811821 -0.922805 2.38785 42 42 40 
-0.0245605 -0.905225 2.36847 95 87 76 
0.0947489 -0.907443 2.36974 121 119 107 
0.0295427 -0.871831 2.34623 109 100 93 
-0.317505 -0.906346 2.61197 226 226 226 
-0.364844 -0.739002 2.50599 71 72 67 
-0.062306 -0.598298 2.08815 92 83 74 
0.0826438 -0.596104 2.09273 79 76 69 
-0.0327497 -0.471229 2.04536 26 25 23 
-0.325481 -0.495854 2.1934 24 24 24 
0.191241 -0.477944 2.07201 95 96 90 
0.154364 -0.41085 2.04436 90 87 82 
-0.0439921 -0.370017 1.9831 55 54 50 
0.292806 -0.362547 2.09545 111 108 103 
-0.0933093 -0.326456 1.97905 34 29 25 
0.207001 -0.325074 1.99591 38 33 30 
-0.199971 -0.309611 2.02237 5 0 0 
-0.128065 -0.303344 1.98169 21 18 13 
-0.143476 -0.227791 1.94323 98 89 82 
-0.296916 -0.210352 2.04587 10 2 0 
0.161863 -0.192436 1.9345 95 91 88 
-0.322053 -0.181698 2.06645 87 81 69 
0.186986 -0.177398 1.94307 4 0 0 
-0.260869 -0.172932 1.9993 85 76 61 
-0.265348 -0.154282 1.98975 5 2 0 
0.219314 -0.153287 1.91628 10 6 5 
0.0904965 -0.145889 1.88332 91 88 83 
-0.32037 -0.129998 2.03078 0 0 0 
0.0781482 -0.0545574 1.83313 86 82 70 
0.302885 -0.0537022 1.93752 31 23 20 
-0.150544 -0.0172954 1.83908 35 26 21 
-0.337473 -0.0135085 2.01359 94 86 83 
-0.0959355 -0.010812 1.82843 4 0 0 
0.20242 0.0293412 1.80727 100 90 81 
0.2059 0.0379535 1.80396 39 34 30 
-0.245505 0.0532694 1.86096 94 91 84 
-0.246795 0.0791513 1.85702 33 24 15 
-0.325335 0.0901771 1.92878 83 83 75 
-0.325684 0.141412 1.90315 74 69 65 
0.186112 0.127608 1.75998 13 10 3 
0.207692 0.129409 1.75943 3 0 0 
-0.322396 0.160553 1.89499 12 8 7 
-0.0302841 0.193335 1.69752 8 4 0 
0.125572 0.234155 1.69175 103 98 92 
0.269859 0.312357 1.70515 53 43 31 
0.20681 0.316623 1.65481 19 14 8 
0.186072 0.354806 1.64714 4 0 0 
-0.0718879 0.360178 1.59545 15 12 7 
-0.289623 0.414229 1.70608 34 38 39 
0.221642 0.406188 1.62326 86 82 73 
-0.354321 0.478363 1.72856 110 107 98 
-0.284085 0.49067 1.66494 161 159 160 
-0.184228 0.499075 1.55271 14 10 11 
-0.254093 0.522195 1.61519 67 85 71 
-0.144964 0.517104 1.51742 87 84 75 
-0.273814 0.590371 1.60961 32 32 34 
0.383048 0.737834 1.49294 46 43 26 
-0.0318655 -1.84973 3.18673 122 118 109 
0.175282 -1.33523 2.91747 224 228 229 
-0.113745 -1.20643 2.65772 143 134 125 
0.234204 -1.13789 2.62582 75 78 71 
-0.265441 -1.09768 2.61183 219 220 222 
0.247727 -1.10959 2.62435 215 218 223 
0.254172 -1.08608 2.61522 86 84 69 
-0.171326 -0.999187 2.46415 4 3 11 
0.276943 -1.04465 2.62954 83 83 73 
-0.30737 -0.948758 2.58668 83 84 78 
0.105718 -0.808106 2.29064 115 111 99 
0.075648 -0.800663 2.27231 144 140 129 
0.0579734 -0.599515 2.09365 95 90 87 
0.0613348 -0.56313 2.07049 64 61 56 
-0.232273 -0.569337 2.1406 91 88 81 
-0.167092 -0.557248 2.09876 10 6 3 
-0.0629894 -0.541076 2.06083 109 108 103 
0.112927 -0.489729 2.04086 3 2 7 
0.102251 -0.490556 2.04992 93 86 80 
-0.147691 -0.486356 2.0572 1 1 1 
-0.0715065 -0.48379 2.03781 64 56 45 
-0.176995 -0.480025 2.06284 1 0 0 
0.137028 -0.468362 2.07008 68 67 63 
0.163714 -0.466291 2.08725 80 79 75 
-0.155409 -0.447435 2.05071 71 70 65 
-0.0803193 -0.445228 2.03679 8 4 5 
0.151916 -0.442644 2.05772 95 91 88 
-0.14978 -0.43423 2.05522 0 1 0 
-0.160484 -0.434043 2.06523 4 4 2 
0.174744 -0.434665 2.06178 45 40 36 
-0.0252639 -0.408486 2.01309 80 76 73 
-0.226419 -0.417321 2.09175 0 0 4 
-0.259207 -0.414409 2.12098 86 81 75 
0.172589 -0.397606 2.04757 50 49 47 
0.160754 -0.393135 2.03682 92 84 82 
-0.288338 -0.395443 2.13202 0 2 1 
0.0817449 -0.368962 2.00067 88 84 81 
0.0942277 -0.351118 1.99492 87 84 79 
0.19048 -0.323628 1.99788 1 1 0 
0.262129 -0.285039 2.03043 92 88 85 
0.19129 -0.263564 1.96228 90 78 62 
-0.0136828 -0.245208 1.92885 81 78 71 
-0.439818 -0.28895 2.42301 25 26 21 
0.0210024 -0.209384 1.94144 12 16 15 
0.0389282 -0.205058 1.91114 66 63 58 
0.0979636 -0.206034 1.92017 91 87 76 
-0.257764 -0.204035 2.0029 103 94 79 
0.174898 -0.193256 1.91336 93 89 86 
-0.319807 -0.199076 2.07373 106 97 80 
0.0866196 -0.183676 1.90133 3 0 0 
0.0932536 -0.173793 1.90046 96 95 90 
-0.272116 -0.17159 1.99994 3 2 0 
0.188187 -0.169155 1.91566 135 125 113 
0.225906 -0.162353 1.92308 92 87 83 
0.208146 -0.157792 1.90956 10 5 1 
-0.317945 -0.149162 2.07329 89 81 70 
0.11438 -0.138832 1.88701 5 3 4 
0.203405 -0.137569 1.90226 24 20 19 
-0.174982 -0.113761 1.90322 115 110 106 
0.165444 -0.117774 1.89713 94 90 87 
-0.0951815 -0.100711 1.86446 99 94 90 
0.126438 0.000224519 1.81994 25 21 18 
0.191143 0.00248568 1.82327 82 72 70 
0.0733292 0.0114233 1.79744 81 76 72 
0.145644 0.0214971 1.80876 62 57 54 
0.0747189 0.0267402 1.79141 96 92 83 
0.129399 0.0262051 1.80642 51 46 43 
0.32266 0.0482972 1.89759 95 91 82 
0.116907 0.0485577 1.79052 35 32 23 
-0.254654 0.0539402 1.86747 0 0 0 
0.222253 0.0604631 1.80069 82 77 73 
0.246612 0.0684363 1.81436 81 72 63 
-0.15332 0.0719482 1.7978 14 9 6 
0.18376 0.0802123 1.78009 86 78 67 
0.0692154 0.0862853 1.75266 3 0 0 
0.239199 0.111491 1.78898 3 0 0 
0.221672 0.132341 1.77009 3 0 0 
0.387579 0.165818 1.95697 61 60 55 
-0.0900525 0.170425 1.71649 6 0 0 
0.0492641 0.175587 1.70798 4 0 0 
-0.11492 0.193442 1.71666 86 83 78 
-0.109456 0.200068 1.71231 26 18 16 
-0.120593 0.214239 1.70324 6 3 0 
0.0975149 0.221185 1.69125 111 104 96 
0.216144 0.255078 1.68955 16 11 8 
-0.30937 0.308143 1.75677 4 2 3 
0.198804 0.299927 1.66842 6 2 0 
-0.19862 0.336838 1.66704 42 38 37 
-0.185238 0.338341 1.64487 119 112 104 
0.050329 0.33844 1.61313 85 78 72 
0.189423 0.347459 1.6442 97 86 80 
-0.321306 0.385671 1.73239 0 0 4 
-0.265451 0.373638 1.6807 14 6 4 
-0.0436146 0.361194 1.5891 97 94 85 
-0.188682 0.374364 1.62155 153 149 137 
0.191913 0.381383 1.62072 16 12 9 
-0.341485 0.434899 1.74948 89 85 74 
-0.305002 0.439885 1.72461 123 127 139 
-0.237754 0.428165 1.63862 89 85 76 
-0.276761 0.46826 1.66857 41 42 46 
-0.189519 0.450363 1.57108 4 0 1 
-0.335736 0.532726 1.68671 175 112 9 
-0.131587 0.578561 1.46286 133 125 112 
-0.420297 0.530524 1.88766 76 75 71 
0.0519808 -1.83072 3.23873 114 105 96 
-0.10621 -1.54136 3.05465 78 74 63 
0.183501 -1.29267 2.87232 231 233 232 
-0.191426 -1.29041 2.89702 68 59 50 
-0.271233 -1.11453 2.65129 218 222 225 
-0.0110071 -0.973033 2.44216 107 104 99 
0.0939989 -0.822283 2.30301 36 26 24 
0.304596 -0.880491 2.60779 72 69 62 
-0.0656574 -0.562414 2.07597 88 87 83 
0.0601794 -0.560419 2.06382 71 66 60 
-0.0365514 -0.542748 2.05973 95 92 87 
0.182278 -0.484949 2.07241 6 1 5 
0.136459 -0.466368 2.06153 81 77 74 
-0.155641 -0.447471 2.0531 65 64 59 
0.209206 -0.411756 2.04789 98 94 83 
-0.0913386 -0.399418 2.01773 79 78 73 
0.183163 -0.412119 2.04109 98 98 86 
0.257811 -0.280899 2.0096 111 108 103 
0.0670303 -0.207382 1.91247 106 98 87 
0.153137 -0.129899 1.89659 2 1 0 
-0.0769862 -0.0216242 1.81871 101 93 80 
0.299301 0.0472084 1.88331 87 82 76 
0.221239 0.0581939 1.80385 99 95 92 
0.199968 0.0812484 1.77797 83 75 64 
0.0975089 0.220013 1.68522 77 72 68 
0.317764 0.271613 1.77906 21 16 12 
0.290095 0.398344 1.67903 92 92 82 
0.186707 0.385326 1.61052 72 69 64 
-0.110276 -1.58355 3.08162 224 228 231 
-0.130987 -1.48588 3.00709 92 88 79 
-0.121226 -1.49057 3.01991 94 92 80 
-0.141687 -1.41583 2.95535 63 60 51 
-0.361888 -0.759499 2.51592 219 224 220 
0.070126 -0.629733 2.15712 7 7 5 
-0.381557 -0.667492 2.45139 70 70 60 
-0.234865 -0.583432 2.14299 1 0 0 
-0.247156 -0.571988 2.14626 17 15 16 
-0.233931 -0.565318 2.14037 98 95 88 
-0.0768888 -0.507083 2.13077 70 67 60 
-0.0967877 -0.456267 2.06068 88 84 81 
0.00938797 -0.449 2.02366 3 3 3 
-0.240359 -0.454913 2.09099 63 62 60 
0.0935449 -0.445547 2.03981 1 2 4 
-0.26234 -0.204231 2.01345 93 84 69 
0.194185 -0.168963 1.92909 88 78 68 
-0.0949305 -0.159095 1.88771 121 116 112 
-0.188628 -0.0463694 1.87612 86 83 76 
-0.206138 -0.0268906 1.87697 6 0 0 
0.108417 0.00951594 1.80589 78 75 70 
0.25198 0.400471 1.64241 91 82 73 
-0.268789 0.600401 1.58542 26 27 29 
-0.0553315 -1.8679 3.1999 56 53 46 
-0.00583889 -1.82163 3.17105 29 33 32 
-0.152535 -1.41598 2.95925 86 87 81 
0.294074 -0.98227 2.61787 99 97 82 
-0.379962 -0.717911 2.49063 216 221 224 
-0.190665 -0.594549 2.12387 1 1 1 
-0.160973 -0.474936 2.06171 81 78 73 
-0.260098 -0.452935 2.10667 1 3 0 
0.192399 0.0768641 1.79066 91 83 72 
0.295737 0.261669 1.77358 18 14 13 
-0.284372 0.371499 1.69034 1 1 1 
-0.259116 0.392113 1.66695 93 97 96 
-0.252255 0.417429 1.65798 32 33 37 
0.0607287 -1.89331 3.27716 42 38 39 
-0.0954357 -1.60545 3.09127 70 67 62 
0.175607 -1.30592 2.89456 35 36 31 
-0.30814 -0.957889 2.58103 65 64 59 
-0.373772 -0.77487 2.5285 216 220 223 
-0.349503 -0.775043 2.5283 95 93 81 
0.109221 -0.608677 2.10063 2 2 4 
0.065126 -0.594703 2.09894 95 91 88 
-0.254483 0.350186 1.61372 98 90 79 
-0.25576 0.364728 1.68099 110 103 93 
-0.0771473 -1.84407 3.36012 215 217 216 
0.169705 -0.47746 2.06135 4 3 8 
-0.00740941 -0.224842 1.9085 0 2 1 
-0.310658 0.672027 1.62352 3 7 10 
-0.2796 -1.1149 2.63071 216 220 223 
-0.381117 -0.764332 2.50873 216 220 223 
-0.381883 -0.727677 2.52171 216 220 223 
0.377416 0.273737 1.90959 93 89 78 
0.0396407 -1.9466 3.34982 35 32 27 
-0.0631487 -1.8464 3.29116 63 58 54 
-0.293171 0.118213 1.92184 98 91 73 
0.392486 0.186772 1.94888 226 228 227 
-0.261612 0.479875 1.63373 64 56 54 
-0.198873 -0.531286 2.10045 23 18 15 
-0.294461 -0.410571 2.12803 96 92 89 
0.0348691 0.0260262 1.80856 124 114 105 
-0.276683 0.423881 1.68584 31 34 41 
-0.302321 0.456788 1.6995 29 31 26 
-0.277407 0.5003 1.65514 116 115 111 
-0.278501 0.555157 1.631 107 108 110 
5.01865e-05 -1.85881 3.34786 36 34 37 
-0.305042 -0.406614 2.14029 93 93 85 
-0.17212 -0.228099 1.96111 19 15 12 
-0.154917 -0.220309 1.94805 21 18 13 
-0.14788 -0.115 1.89 103 99 96 
-0.100875 0.268591 1.6688 105 95 94 
-0.303546 0.430329 1.71324 33 35 47 
-0.294715 0.447323 1.6965 49 50 55 
-0.299449 0.468765 1.69154 36 37 32 
-0.270797 0.461589 1.66312 105 104 99 
-0.251898 0.462216 1.64261 149 154 150 
-0.268402 0.551611 1.61964 96 97 99 
-0.280917 0.569036 1.626 101 102 104 
0.00137206 0.624109 1.3582 119 111 100 
0.1235 0.674072 1.34643 5 5 0 
-0.329536 -0.53331 2.20663 83 80 75 
-0.259221 -0.508489 2.13036 87 87 79 
-0.326647 -0.492736 2.18367 37 33 30 
-0.0432643 -0.372453 1.99704 55 54 50 
0.180901 -0.371261 2.03144 99 98 94 
-0.28824 -0.157318 2.00531 95 85 75 
-0.32154 -0.139248 2.03352 102 96 82 
-0.313339 -0.125958 2.02203 95 90 84 
0.0142449 0.13353 1.72593 111 106 102 
-0.289771 0.413898 1.7057 39 43 44 
-0.210154 -0.979384 2.48013 33 29 28 
0.0577179 -0.599075 2.0911 79 76 71 
-0.00409621 -0.498771 2.03589 3 2 0 
-0.147737 -0.486519 2.05732 1 1 1 
-0.253511 -0.189952 1.99072 14 4 3 
0.067605 -0.164914 1.89759 89 84 80 
-0.329094 0.394414 1.73866 94 90 81 
-0.0245914 -1.94214 3.36741 132 124 113 
-0.0801888 -0.484248 2.03299 94 84 82 
-0.304867 -0.431622 2.13823 84 83 81 
-0.0379951 -1.99431 3.36347 211 215 218 
-0.0303876 -0.545946 2.06111 101 97 94 
-0.0429212 -2.03673 3.34132 210 215 218 
-0.319531 -0.396348 2.16038 81 78 73 
-0.0199134 -2.08317 3.40663 233 234 239 
-0.0011333 -2.07201 3.40194 183 184 186 
0.0238709 -2.0609 3.40642 230 232 231 
0.00742167 -2.06417 3.41061 234 236 235 
-0.0347294 -2.05872 3.40002 232 234 233 
0.00178682 -2.04889 3.39533 65 66 68 
-0.0509465 -2.05757 3.39764 232 233 237 
-0.0190963 -2.03137 3.38773 238 239 244 
-0.0242137 -2.02412 3.38504 185 186 190 
0.0101999 -1.87142 3.23009 50 41 34 
0.0599926 -1.87015 3.26964 147 140 134 
-0.0130671 -1.77511 3.18631 28 25 20 
0.0122449 -1.63932 3.07473 61 48 39 
-0.057768 -1.42426 2.86819 138 132 120 
0.0458585 -1.38596 2.83476 21 11 1 
-0.0573062 -1.39862 2.84489 37 30 20 
0.0287032 -1.18282 2.63982 141 137 125 
0.163807 -1.00481 2.4776 10 6 0 
4.71646e-05 -1.01394 2.4736 93 88 84 
0.00822191 -0.990204 2.4559 122 113 104 
0.0768765 -0.966855 2.438 11 0 0 
-0.118837 -0.994876 2.46086 142 136 124 
-0.104942 -0.986007 2.45436 31 26 23 
0.0945082 -0.915896 2.38625 144 135 126 
-0.0156227 -0.934519 2.40364 140 133 125 
0.0457128 -0.916841 2.3877 137 129 118 
0.00459715 -0.914024 2.38354 139 134 128 
-0.237848 -0.993533 2.54123 22 0 0 
0.0914152 -0.859398 2.3261 14 8 0 
-0.102307 -0.884084 2.35682 126 113 104 
0.0701634 -0.793198 2.2776 143 135 124 
-0.0843479 -0.816609 2.29916 47 42 38 
-0.249166 -0.897699 2.50414 23 8 3 
0.0860759 -0.763203 2.25118 67 64 55 
0.00498295 -0.773446 2.25906 48 39 32 
0.0504023 -0.750208 2.22868 118 115 110 
0.0187404 -0.691904 2.15965 11 3 0 
-0.00568066 -0.665086 2.12425 47 39 28 
-0.0842916 -0.672195 2.13629 61 48 40 
-0.0836658 -0.587129 2.08573 17 7 0 
-0.0554669 -0.568652 2.07197 3 0 0 
0.109563 -0.549975 2.07556 4 1 0 
0.235812 -0.530337 2.11996 6 1 0 
-0.171643 -0.572118 2.1078 98 94 91 
0.214889 -0.513656 2.09681 11 6 0 
0.160213 -0.512967 2.07384 11 6 2 
-0.17947 -0.555908 2.10641 4 0 0 
-0.160329 -0.538814 2.08537 5 2 0 
0.226297 -0.477074 2.09269 4 0 0 
0.307961 -0.458727 2.15587 121 116 110 
-0.22141 -0.505888 2.10204 18 13 9 
0.219837 -0.405504 2.04676 6 1 0 
-0.130255 -0.43882 2.04718 102 98 89 
0.202298 -0.39984 2.03348 16 13 8 
0.070865 -0.397458 2.01468 1 2 0 
0.216296 -0.373939 2.02859 7 2 0 
0.233368 -0.370733 2.03793 11 8 0 
0.23714 -0.359411 2.03649 42 34 31 
0.259446 -0.354049 2.05062 15 10 4 
-0.148161 -0.37951 2.02632 117 114 109 
-0.220416 -0.356008 2.0567 18 15 10 
-0.175958 -0.334178 2.01542 12 9 0 
0.0837062 -0.280469 1.95547 9 6 1 
-0.225536 -0.274978 2.01907 21 16 12 
0.0639966 -0.236159 1.92767 101 97 94 
-0.183574 -0.25914 1.98157 5 2 0 
0.192196 -0.218703 1.93757 108 99 92 
-0.131287 -0.241018 1.94398 103 100 93 
-0.154503 -0.220465 1.94351 12 7 3 
-0.0328991 -0.20296 1.89967 110 107 102 
-0.123628 -0.198606 1.92104 4 0 0 
0.15112 -0.170375 1.91957 103 102 98 
-0.111374 -0.192272 1.91703 14 10 7 
-0.254571 -0.181411 1.98587 110 103 93 
-0.0766532 -0.159992 1.88238 109 104 100 
-0.27088 -0.180286 2.00615 88 83 79 
-0.243641 -0.167283 1.97383 7 0 0 
-0.132139 -0.138047 1.88986 108 104 95 
-0.301945 -0.145015 2.02165 7 0 0 
-0.0891772 -0.117272 1.86431 117 113 104 
0.187837 -0.0889578 1.87555 132 123 116 
0.224664 -0.0817734 1.88025 4 0 0 
0.089862 -0.0852747 1.84994 7 2 0 
-0.130189 -0.0967767 1.86952 113 104 99 
-0.154973 -0.0960365 1.87832 4 0 0 
-0.125262 -0.079679 1.86354 11 6 2 
-0.266787 -0.0447625 1.9345 113 109 100 
-0.0724996 -0.0296264 1.82135 13 3 0 
0.14532 0.00683321 1.82396 103 96 90 
0.210852 0.0120487 1.82245 19 12 4 
-0.12584 -0.000829028 1.81996 5 0 0 
-0.209252 -0.00337646 1.86655 7 3 0 
0.225083 0.0302464 1.81764 7 0 0 
-0.0671826 0.0236157 1.78614 106 102 93 
0.14631 0.0427557 1.80547 11 7 4 
-0.269955 0.0375857 1.89623 105 100 97 
0.121131 0.0610854 1.78512 8 3 0 
-0.15384 0.059157 1.80217 7 0 0 
-0.213336 0.0655853 1.83135 126 119 111 
-0.0963298 0.0742517 1.77412 98 94 85 
0.217756 0.0972057 1.77967 109 105 96 
0.257888 0.105357 1.80595 10 1 0 
-0.0619892 0.0861338 1.75457 113 106 98 
0.0133532 0.0914692 1.74392 10 6 0 
0.00824184 0.109975 1.73356 6 1 0 
-0.242677 0.118209 1.82433 72 67 64 
0.129907 0.152665 1.73394 16 12 1 
0.163017 0.163254 1.74135 102 99 94 
-0.099763 0.187453 1.71183 117 113 104 
0.202712 0.221495 1.70735 92 83 74 
0.271292 0.238457 1.74583 48 38 26 
0.0410884 0.234414 1.67551 148 140 137 
0.0877794 0.240471 1.67969 24 20 11 
0.102475 0.263753 1.6715 88 81 73 
0.0263891 0.27329 1.65398 105 100 94 
-0.189924 0.283183 1.70571 118 116 103 
-0.158185 0.294457 1.68206 103 99 90 
-0.166973 0.3028 1.68257 138 134 122 
-0.066505 0.307955 1.64255 7 0 0 
0.236574 0.326975 1.67075 28 19 12 
0.115737 0.340187 1.6291 17 12 6 
-0.105016 0.338413 1.63296 122 118 109 
-0.00354286 0.345804 1.60261 111 108 103 
-0.137841 0.351615 1.63535 145 142 135 
-0.0630402 0.349422 1.60934 7 0 0 
0.0591544 0.356212 1.59783 114 110 99 
0.0180624 0.36528 1.58602 20 16 13 
0.10517 0.371289 1.59323 99 96 91 
-0.127189 0.381258 1.59955 123 120 113 
0.0109114 0.388459 1.5635 127 118 111 
0.0624867 0.428909 1.54844 120 113 107 
0.060619 0.478777 1.52148 6 0 0 
0.0614052 0.519185 1.48735 126 122 113 
0.103945 0.539703 1.47811 145 141 138 
0.0493998 0.536515 1.46812 115 111 100 
-0.098836 0.603469 1.44483 92 83 74 
-0.0835319 0.61906 1.43001 108 101 91 
-0.201239 0.634513 1.4136 45 36 21 
-0.125035 0.642767 1.37975 123 120 111 
-0.00470283 -2.06319 3.40055 227 229 228 
0.0260658 -2.03834 3.39164 228 229 233 
-0.0429949 -2.04922 3.39457 55 56 58 
0.00715814 -2.03923 3.39229 231 232 234 
-0.0321787 -2.0371 3.38763 226 227 231 
-0.0511279 -2.04119 3.39266 232 233 235 
0.0254201 -1.89811 3.22297 39 38 33 
-0.0298124 -1.88532 3.23725 138 129 122 
-0.0165709 -1.86973 3.22815 54 47 37 
-0.0815959 -1.8962 3.2795 51 50 48 
0.0512789 -1.85626 3.25117 53 49 40 
0.0176803 -1.77025 3.17368 147 136 118 
0.0269276 -1.77532 3.18809 150 140 128 
0.00570507 -1.77679 3.18671 23 19 18 
-0.0733491 -1.7288 3.1958 53 45 42 
-0.0425231 -1.52214 2.94907 41 33 30 
0.0400608 -1.28028 2.73369 42 33 24 
0.0348185 -1.13646 2.59757 155 147 134 
0.0249392 -1.10563 2.56508 57 48 39 
-0.0993107 -1.12353 2.58221 44 34 25 
-0.230341 -1.14768 2.61408 96 93 88 
-0.24126 -1.1449 2.6208 80 80 70 
-0.0386702 -1.06503 2.52171 33 23 13 
0.0487973 -1.03318 2.49505 146 135 115 
-0.0630321 -1.01386 2.47754 140 129 125 
0.216561 -0.991765 2.5312 139 127 115 
-0.015207 -0.986275 2.45656 41 38 31 
-0.00167375 -0.964452 2.43402 136 127 120 
0.0224273 -0.952647 2.41771 108 103 99 
-0.0441011 -0.929585 2.39881 137 128 119 
0.00924548 -0.899989 2.37196 12 2 0 
-0.299387 -1.03755 2.63173 81 78 69 
0.0226107 -0.875371 2.35061 44 35 28 
0.124029 -0.845558 2.32664 67 57 45 
0.0516801 -0.849072 2.32882 108 105 98 
-0.0953669 -0.876026 2.35018 45 35 26 
-0.0632812 -0.864049 2.33957 129 119 109 
-0.0263656 -0.841615 2.32079 12 8 9 
0.12826 -0.790828 2.26493 35 29 17 
-0.0493491 -0.817113 2.29731 63 60 53 
-0.0909091 -0.807196 2.28845 136 129 121 
0.134401 -0.763981 2.25126 138 128 126 
-0.0298717 -0.789865 2.26669 98 93 89 
-0.0586742 -0.774589 2.25266 117 113 104 
-0.0640688 -0.750109 2.23936 155 147 134 
0.0782927 -0.718101 2.1994 29 22 12 
-0.0549159 -0.739643 2.22372 137 129 118 
0.0442403 -0.704855 2.17735 55 45 36 
-0.120991 -0.699384 2.17123 35 28 22 
-0.109088 -0.688436 2.15568 57 51 39 
0.206988 -0.631173 2.14247 23 18 12 
-0.139252 -0.621688 2.10179 137 130 114 
-0.149111 -0.620281 2.10354 138 130 119 
0.0385216 -0.573408 2.07123 7 2 0 
-0.126066 -0.580616 2.09127 27 18 9 
0.252294 -0.547961 2.13978 91 88 83 
-0.230423 -0.598799 2.13732 64 58 44 
-0.252149 -0.59957 2.1547 155 147 136 
-0.189389 -0.580176 2.12279 93 90 85 
0.0490346 -0.531103 2.05418 4 0 0 
-0.141126 -0.56081 2.08939 6 0 0 
-0.0464432 -0.53246 2.05274 15 10 7 
0.245328 -0.508252 2.12123 14 4 5 
0.127943 -0.505856 2.05987 19 14 10 
-0.112658 -0.53121 2.06696 22 19 12 
-0.0984179 -0.513864 2.05285 18 10 8 
0.242079 -0.48898 2.11608 34 30 21 
0.191242 -0.47637 2.0676 94 91 86 
0.105414 -0.479053 2.04038 66 62 59 
-0.2876 -0.554848 2.17919 103 98 95 
-0.138288 -0.510871 2.06334 88 81 73 
0.211778 -0.454506 2.06333 85 82 75 
0.200568 -0.453367 2.0578 35 31 22 
-0.177668 -0.494397 2.07349 18 13 9 
-0.253144 -0.510811 2.12946 13 10 1 
-0.221207 -0.48965 2.09704 18 13 9 
0.245312 -0.429937 2.07854 99 94 90 
-0.274443 -0.482603 2.13352 44 37 29 
0.262894 -0.40951 2.08042 100 96 87 
0.166634 -0.406953 2.04644 109 104 101 
-0.0841903 -0.429927 2.03134 13 8 2 
0.188702 -0.400962 2.03681 21 17 6 
0.177263 -0.403519 2.04832 115 112 105 
-0.112016 -0.431785 2.0377 78 71 65 
0.291703 -0.399543 2.1023 108 105 98 
0.216805 -0.39387 2.0389 24 19 15 
0.282841 -0.383905 2.08919 109 106 101 
0.0238057 -0.386525 1.9992 103 98 95 
0.259658 -0.347666 2.05191 93 84 75 
-0.0675685 -0.367894 1.9938 92 89 84 
0.205127 -0.332448 1.99896 109 105 96 
0.169341 -0.331279 2.01273 3 0 0 
0.112466 -0.331834 1.98858 83 82 80 
0.212983 -0.320796 1.99508 8 3 0 
-0.171967 -0.361772 2.02561 15 12 7 
-0.261917 -0.380946 2.10523 20 12 10 
-0.198628 -0.365266 2.04467 6 3 0 
-0.187959 -0.363319 2.03919 23 20 15 
0.214725 -0.301768 1.9888 4 0 0 
0.04341 -0.309876 1.96015 29 24 18 
-0.274725 -0.360078 2.1059 30 27 22 
-0.0716902 -0.321751 1.97204 11 4 0 
-0.252197 -0.346408 2.07334 118 110 107 
0.0607695 -0.286996 1.95512 71 68 59 
-0.112573 -0.304233 1.97253 11 6 2 
0.192091 -0.274062 1.96608 100 90 81 
-0.0548561 -0.295223 1.95808 8 3 0 
-0.153221 -0.307838 1.99013 9 5 0 
-0.193264 -0.30508 2.01025 98 93 89 
-0.216751 -0.305387 2.0265 14 9 5 
-0.245989 -0.300514 2.04408 121 116 110 
0.0737533 -0.256529 1.94161 82 77 73 
-0.116698 -0.275386 1.95828 12 7 3 
0.214892 -0.241216 1.95852 15 10 4 
-0.273594 -0.298373 2.07151 4 0 0 
0.157669 -0.245525 1.95952 69 66 59 
0.190545 -0.239899 1.94798 76 73 68 
-0.0701555 -0.254707 1.93952 106 97 92 
0.180568 -0.220548 1.94278 10 5 2 
-0.0736411 -0.238956 1.92791 118 109 102 
-0.158109 -0.246062 1.95702 115 105 95 
-0.143085 -0.243463 1.95187 44 35 26 
-0.114067 -0.238501 1.93843 16 8 5 
0.203223 -0.20472 1.93223 10 7 2 
0.203223 -0.20484 1.93224 4 0 0 
-0.142252 -0.227942 1.94064 93 84 77 
0.201965 -0.195259 1.92611 25 18 12 
-0.16862 -0.224505 1.95812 112 107 103 
0.163464 -0.191098 1.93238 87 83 80 
0.138608 -0.191141 1.92402 18 14 11 
0.270775 -0.181792 1.97482 39 30 23 
-0.121072 -0.211007 1.92993 97 96 92 
-0.230383 -0.224953 1.99541 39 30 23 
0.247002 -0.178747 1.94753 100 91 84 
0.0969463 -0.184506 1.9042 101 100 96 
0.0843496 -0.182725 1.9041 3 0 0 
0.238395 -0.171256 1.93811 95 88 80 
-0.10611 -0.199178 1.91567 11 6 3 
0.222957 -0.17048 1.92828 2 2 0 
0.14092 -0.170233 1.9117 80 79 75 
-0.181072 -0.198465 1.94673 98 93 89 
-0.0726583 -0.183765 1.89767 29 22 16 
-0.297133 -0.21061 2.04764 11 0 0 
-0.121386 -0.183928 1.90016 104 99 95 
0.232704 -0.149029 1.92314 5 1 0 
0.164391 -0.148926 1.90876 74 69 65 
-0.179445 -0.178955 1.93603 16 11 7 
0.18296 -0.141232 1.89933 87 82 76 
0.0634393 -0.149139 1.87362 72 62 52 
0.235866 -0.136986 1.93765 107 103 94 
0.235866 -0.136986 1.93765 107 103 94 
-0.186394 -0.168182 1.93507 11 6 2 
0.24725 -0.131473 1.92679 98 89 84 
0.19191 -0.131059 1.88957 76 69 63 
0.221877 -0.125583 1.89998 106 97 92 
0.269201 -0.123471 1.93588 77 73 64 
-0.119349 -0.147018 1.8961 6 3 0 
0.173816 -0.121113 1.89863 4 0 0 
-0.0584358 -0.137093 1.86877 66 57 48 
0.228934 -0.111091 1.89978 79 69 68 
-0.121202 -0.133199 1.89013 107 104 99 
-0.279853 -0.145824 1.99716 99 92 86 
0.105072 -0.10969 1.86749 29 26 21 
-0.0801943 -0.122096 1.86381 33 24 17 
-0.2009 -0.129801 1.92298 17 14 5 
0.164466 -0.0964588 1.88004 75 70 67 
0.27683 -0.0868663 1.92645 93 89 78 
-0.119416 -0.115693 1.87367 50 45 39 
-0.0687029 -0.108906 1.85597 4 0 0 
-0.153528 -0.109103 1.88156 10 5 1 
-0.0976152 -0.093865 1.85382 8 5 0 
0.177442 -0.0625125 1.86243 23 13 12 
0.26868 -0.0539312 1.90047 47 38 29 
0.0673047 -0.0652406 1.83896 48 38 29 
0.202269 -0.0530992 1.85141 18 15 6 
-0.0521609 -0.0658954 1.83633 20 11 6 
0.139927 -0.0515244 1.85321 3 0 0 
0.258611 -0.0428027 1.88122 98 92 80 
0.18441 -0.0436724 1.85287 14 7 1 
-0.0820125 -0.0623578 1.83494 16 13 8 
0.076183 -0.0483288 1.83513 10 8 0 
-0.231774 -0.0685114 1.91426 10 1 0 
0.230061 -0.0343446 1.85518 82 77 71 
-0.088088 -0.0488492 1.82715 9 4 0 
-0.228796 -0.05791 1.90947 11 4 0 
-0.170508 -0.0525312 1.86621 4 0 0 
-0.0734719 -0.0451942 1.82272 109 104 100 
-0.128382 -0.0446906 1.84346 16 13 8 
-0.218933 -0.0456814 1.89721 93 84 77 
0.182467 -0.0179711 1.83755 87 78 69 
-0.10222 -0.0317045 1.82544 98 95 88 
-0.23322 -0.0381459 1.89757 97 89 86 
0.109832 -0.00772518 1.81911 95 90 86 
-0.199883 -0.0269554 1.86873 9 4 0 
-0.129955 -0.0225711 1.83021 17 13 4 
-0.0688878 -0.0159602 1.81439 31 23 12 
-0.0952743 -0.0111958 1.81164 5 1 0 
-0.243851 -0.0133431 1.89886 7 0 0 
0.200264 0.0148487 1.81519 85 78 72 
-0.275515 -0.00292936 1.92212 11 7 0 
0.0933404 0.0263306 1.79471 80 77 72 
-0.081352 0.0161625 1.79552 95 91 82 
-0.11621 0.0151118 1.80422 13 9 6 
-0.216753 0.0135818 1.8608 3 0 0 
-0.201898 0.0208527 1.84946 10 7 2 
-0.23694 0.0210865 1.87439 8 4 0 
-0.1309 0.0250316 1.80434 98 94 85 
0.0863599 0.0383236 1.78733 101 97 86 
0.0999246 0.0393661 1.78798 104 99 93 
-0.185704 0.0308075 1.8314 8 4 0 
-0.28008 0.0319993 1.91394 90 85 81 
-0.226543 0.0340392 1.85783 89 85 76 
-0.149879 0.0382259 1.80991 97 92 88 
0.105665 0.053322 1.78549 107 100 92 
0.300333 0.0705793 1.86421 20 11 4 
-0.237908 0.0399873 1.86701 79 75 66 
-0.136464 0.0430514 1.7988 19 14 10 
-0.174484 0.0484762 1.81675 4 0 0 
-0.153676 0.0503519 1.807 88 84 75 
-0.24663 0.0529389 1.86615 100 99 95 
0.11316 0.0755707 1.77524 101 97 86 
-0.259778 0.0713168 1.87985 128 120 107 
-0.242908 0.070293 1.85331 24 20 11 
0.106402 0.0978072 1.76141 3 0 0 
-0.0856159 0.0888631 1.75773 7 3 0 
-0.0104675 0.0954366 1.7467 119 115 106 
-0.104263 0.0956011 1.75971 106 102 93 
-0.0678939 0.0986519 1.74895 87 83 74 
0.121038 0.110986 1.7592 114 107 99 
-0.0889217 0.101287 1.7527 131 127 115 
-0.238676 0.109276 1.82609 25 16 7 
-0.0115657 0.113587 1.73794 89 86 79 
0.249809 0.141859 1.77919 8 1 0 
0.0439732 0.127378 1.73366 29 26 19 
0.107567 0.132631 1.74042 18 5 0 
0.29555 0.154548 1.81237 19 10 3 
0.0714016 0.141956 1.7298 30 21 14 
0.0614735 0.144646 1.72474 11 6 2 
0.00929601 0.144215 1.72126 8 5 0 
-0.287787 0.151137 1.85915 16 11 5 
-0.056146 0.147742 1.72062 38 31 25 
0.234831 0.172163 1.75121 96 92 83 
0.181504 0.169693 1.73947 7 0 0 
-0.0368859 0.159158 1.71226 100 93 87 
0.00297339 0.162642 1.70715 12 7 1 
-0.179002 0.162829 1.7589 21 17 8 
-0.157147 0.163719 1.75076 20 11 4 
0.274508 0.193022 1.77029 99 95 84 
-0.0199441 0.174441 1.7047 7 4 0 
-0.138264 0.179052 1.73355 3 0 0 
-0.217359 0.182168 1.77547 109 102 92 
0.11551 0.189393 1.71074 108 104 95 
-0.0810764 0.185724 1.70694 85 81 72 
0.109901 0.196155 1.70942 26 22 13 
-0.0795096 0.198659 1.70192 5 0 0 
-0.164051 0.208766 1.72963 121 113 102 
-0.150748 0.210627 1.72079 96 89 79 
0.0554266 0.22089 1.68143 8 0 0 
0.197477 0.229903 1.69986 14 9 5 
0.0121849 0.222731 1.68065 10 6 3 
0.142822 0.233018 1.69968 20 16 5 
-0.058198 0.225915 1.68356 30 25 19 
0.202891 0.241527 1.69277 101 92 83 
0.248403 0.257381 1.71366 134 130 119 
0.217792 0.256294 1.69559 16 7 0 
-0.121295 0.24442 1.69157 11 6 2 
0.097171 0.249783 1.67669 7 4 0 
0.151144 0.256876 1.69132 11 6 0 
-0.0596565 0.247992 1.6729 23 19 10 
0.0815112 0.256422 1.66916 100 91 86 
0.198183 0.266163 1.68253 14 7 0 
0.179425 0.273658 1.69063 77 72 69 
0.133861 0.270795 1.67789 65 56 47 
0.0412216 0.272293 1.65573 18 9 4 
0.117435 0.279332 1.66873 27 23 14 
0.0541426 0.276206 1.65596 93 84 75 
0.231596 0.299112 1.68016 132 122 113 
0.0645327 0.290165 1.6498 92 87 83 
0.135783 0.295042 1.66652 38 29 20 
-0.182509 0.297846 1.69516 80 75 71 
0.252857 0.315598 1.68994 107 98 89 
0.240101 0.318146 1.6793 45 36 29 
0.0596193 0.320525 1.6343 7 6 1 
0.221517 0.331683 1.63989 116 112 101 
-0.123558 0.330121 1.64668 17 12 6 
0.107077 0.333009 1.63444 16 11 7 
0.0311491 0.345998 1.60446 100 96 85 
0.118763 0.350694 1.61699 4 0 0 
0.278596 0.387412 1.67209 40 33 25 
0.237009 0.382376 1.6413 86 77 70 
0.0451821 0.365898 1.58365 4 0 0 
-0.0697642 0.370117 1.58733 102 98 87 
0.233781 0.392763 1.63358 8 1 0 
0.0620573 0.380421 1.57497 7 1 1 
0.194693 0.396488 1.60819 8 4 0 
0.142336 0.393461 1.58564 72 68 65 
0.0842882 0.392471 1.57057 77 73 70 
0.242443 0.420673 1.6248 109 102 94 
0.0504957 0.402362 1.56109 4 0 0 
0.158192 0.412234 1.58298 6 1 0 
0.160163 0.42611 1.57624 102 98 89 
0.10098 0.424885 1.5577 78 75 70 
0.257307 0.44552 1.6211 18 14 5 
0.0382593 0.42717 1.54717 10 6 0 
0.07598 0.429677 1.55056 122 117 111 
0.212534 0.46187 1.58379 95 92 83 
0.0476601 0.45938 1.53154 3 0 0 
0.0170954 0.480993 1.51713 104 100 89 
0.0539258 0.501639 1.51019 28 24 15 
0.278778 0.544176 1.60201 104 100 91 
0.0633655 0.509427 1.49959 19 12 4 
0.264768 0.540309 1.57088 119 115 106 
0.130249 0.518219 1.50795 10 5 0 
0.30005 0.564646 1.5847 36 32 21 
0.0166864 0.566398 1.44393 95 86 79 
-0.0385314 0.568754 1.44618 112 102 100 
-0.076427 0.588146 1.45081 112 102 92 
-0.0137304 0.58199 1.4365 116 108 97 
0.00966435 0.602293 1.42743 119 110 101 
-0.130069 0.61504 1.44525 98 92 80 
-0.159968 0.626075 1.44886 122 118 109 
-0.0371526 0.620576 1.4247 130 117 101 
-0.178759 0.634055 1.40303 15 8 2 
-0.2349 0.655318 1.42332 31 23 10 
-0.0979888 0.631442 1.38253 8 0 0 
-0.14572 0.642824 1.38005 8 4 0 
-0.157265 0.652184 1.3844 109 101 90 
-0.170098 0.667963 1.38416 75 74 56 
-0.127523 0.66733 1.3679 86 80 64 
0.115061 -1.50065 3.03333 63 59 56 
0.0190333 -0.890337 2.36218 129 119 109 
0.242919 -0.900086 2.51492 116 107 98 
-0.110545 -0.846303 2.32274 43 38 32 
0.109619 -0.782292 2.25942 116 109 99 
0.248957 -0.523761 2.12738 11 7 4 
0.233984 -0.501752 2.1051 80 79 75 
-0.267935 -0.517435 2.14536 40 35 29 
-0.157224 -0.479798 2.05455 77 73 62 
0.235112 -0.444337 2.08383 75 66 61 
0.29315 -0.435053 2.12464 88 83 77 
0.317781 -0.426751 2.1558 78 74 71 
-0.243664 -0.437873 2.0978 8 4 3 
0.308885 -0.36167 2.10889 125 121 112 
0.280111 -0.337998 2.06481 8 3 0 
-0.201443 -0.384821 2.05356 98 95 90 
0.272613 -0.314247 2.04694 101 98 89 
-0.172019 -0.351411 2.02496 24 20 17 
0.0555692 -0.313018 1.96198 100 97 92 
0.304181 -0.272171 2.04763 94 84 75 
0.270325 -0.241635 2.00557 90 83 73 
-0.167377 -0.270398 1.97774 25 20 16 
0.2618 -0.222281 1.98713 96 85 79 
0.237545 -0.186739 1.94581 87 80 72 
-0.0919706 -0.204587 1.91598 79 76 69 
0.317249 -0.173175 2.02058 31 19 21 
0.200403 -0.165431 1.91146 141 128 119 
0.246998 -0.162316 1.94136 7 0 0 
-0.153897 -0.191107 1.92994 100 97 92 
-0.0681121 -0.165121 1.88738 6 1 0 
0.247641 -0.0979947 1.90839 77 73 64 
-0.128903 -0.116138 1.87746 48 44 35 
0.104311 -0.0854625 1.85715 79 74 70 
0.0795522 -0.0772908 1.84522 84 79 75 
0.244676 -0.0470388 1.87553 100 90 81 
-0.105412 -0.0451874 1.83366 6 2 0 
-0.160729 -0.0357348 1.84989 49 44 38 
0.316581 0.00228991 1.92446 35 27 25 
0.143141 -0.0026601 1.82709 87 84 77 
-0.202487 -0.011972 1.86565 83 80 73 
0.330056 0.0499445 1.91622 114 104 94 
0.231385 0.0482004 1.81661 31 20 16 
-0.250787 0.0431082 1.87465 81 76 73 
0.265359 0.094944 1.81711 88 81 73 
0.151656 0.125756 1.76222 116 112 101 
-0.0485028 0.184162 1.69946 100 95 91 
-0.203612 0.192989 1.76223 21 12 5 
0.0607983 0.212556 1.69029 16 11 5 
0.249374 0.230348 1.73189 27 19 8 
0.159773 0.228414 1.71031 81 77 68 
-0.084707 0.233907 1.68621 82 77 73 
0.0818457 0.246278 1.6756 12 8 0 
0.268553 0.274187 1.73286 136 124 112 
-0.0789438 0.255761 1.67212 89 85 74 
0.242465 0.296277 1.69085 42 33 24 
-0.144621 0.31443 1.66142 98 91 83 
0.312908 0.457058 1.68552 110 108 95 
0.254077 0.547198 1.55701 94 88 76 
0.0326899 0.582244 1.4385 110 101 94 
-0.135872 0.628694 1.384 66 62 53 
-0.220624 0.653846 1.41049 85 81 70 
0.0167798 -2.05017 3.39864 56 57 61 
0.00435306 -1.99764 3.35411 234 235 239 
-0.0277644 -1.9831 3.33037 229 230 232 
0.0248605 -1.90959 3.23662 82 83 77 
0.0459344 -1.90114 3.25479 49 48 43 
0.0669751 -1.89559 3.27815 43 42 40 
-0.0752107 -1.75291 3.21309 231 230 235 
0.0240656 -1.38706 2.82841 50 46 37 
0.0804852 -1.13114 2.59014 64 59 53 
0.23445 -1.10825 2.60164 75 71 60 
0.129563 -1.04621 2.52079 43 42 38 
-0.0546958 -1.06559 2.51942 19 10 1 
0.0136719 -1.0298 2.49301 148 140 129 
0.28766 -1.0104 2.61752 217 221 222 
0.259722 -0.9303 2.5522 24 14 13 
0.109911 -0.82887 2.30589 150 134 119 
0.168073 -0.6187 2.1085 137 128 119 
0.244645 -0.54662 2.13468 4 0 0 
-0.0645303 -0.561247 2.07277 96 91 87 
0.0824451 -0.495174 2.04183 1 1 1 
0.11325 -0.492397 2.04848 1 1 1 
0.184002 -0.485565 2.07376 2 2 0 
0.157712 -0.451668 2.06669 36 32 29 
-0.157145 -0.469889 2.04762 93 89 78 
-0.129568 -0.463607 2.05923 76 72 69 
-0.226908 -0.470027 2.08679 5 5 3 
0.0448226 -0.41942 2.01986 16 12 9 
-0.0290929 -0.424693 2.02212 73 69 66 
0.145033 -0.408708 2.04061 33 29 26 
0.246813 -0.393329 2.05292 113 106 96 
0.0935639 -0.382903 2.00516 103 98 92 
-0.258966 -0.414153 2.11991 86 81 75 
0.178415 -0.330992 2.00725 63 63 53 
-0.288525 -0.395637 2.1337 0 0 0 
0.262094 -0.318112 2.03833 103 94 87 
0.27915 -0.315665 2.04357 63 59 50 
0.201973 -0.308044 1.98634 65 62 53 
0.184441 -0.309946 1.99442 5 0 0 
0.209351 -0.29383 1.98128 113 109 100 
0.278426 -0.252136 2.01344 112 107 103 
-0.0132452 -0.243708 1.92071 85 80 74 
0.21109 -0.166815 1.91654 114 110 99 
0.0933934 -0.173459 1.89891 104 101 96 
-0.257341 -0.20459 1.99741 119 110 93 
0.145942 -0.151248 1.90594 63 62 58 
0.161878 -0.136118 1.90431 60 56 55 
-0.151311 -0.122804 1.88736 119 114 108 
-0.0829256 -0.110428 1.86443 81 76 72 
-0.174888 -0.113901 1.89973 115 110 106 
-0.195537 -0.104279 1.90606 50 47 42 
-0.113918 -0.0910588 1.87997 100 95 89 
0.214794 -0.0555972 1.86092 64 55 50 
0.227587 -0.0547041 1.86998 136 129 121 
0.298112 -0.0401302 1.92699 87 85 72 
-0.0910558 -0.0565357 1.83448 98 95 90 
-0.160774 -0.0588747 1.86702 83 75 72 
0.0915988 0.0133142 1.79628 86 81 78 
0.312533 0.0388381 1.90042 92 83 76 
0.0734572 0.0392709 1.78386 107 100 94 
0.310478 0.0707379 1.88675 26 21 17 
0.20745 0.0619146 1.79426 17 12 8 
0.24691 0.0685365 1.81549 94 85 80 
0.197346 0.100096 1.76414 7 0 0 
0.198319 0.139432 1.747 11 0 0 
0.110296 0.149052 1.73301 43 33 24 
0.0918684 0.187182 1.70733 88 77 71 
0.224672 0.202945 1.72821 91 85 73 
0.114943 0.230389 1.69208 12 7 1 
0.289954 0.257534 1.76035 14 6 4 
0.120325 0.245609 1.68387 78 69 64 
0.221645 0.297503 1.67511 94 90 81 
0.263337 0.319881 1.70802 129 118 98 
0.207163 0.317932 1.66056 25 21 12 
0.136939 0.327473 1.65222 20 13 7 
0.192807 0.334489 1.6448 101 94 86 
-0.197905 0.334617 1.65807 37 34 25 
0.0671887 0.336114 1.61812 14 10 7 
0.151203 0.344208 1.63748 3 0 0 
0.0137565 0.338419 1.61177 74 69 63 
0.288376 0.365371 1.69508 40 30 21 
0.179031 0.363912 1.62906 87 78 71 
-0.0150265 0.36503 1.5832 29 24 18 
-0.089886 0.383413 1.57573 21 16 13 
0.0333991 0.413121 1.554 89 86 81 
0.132015 0.432206 1.56333 25 18 12 
0.123827 0.44829 1.55457 46 42 33 
0.101574 0.502421 1.51129 30 25 21 
0.0754483 0.510818 1.49865 38 33 29 
0.237725 0.544112 1.5425 12 7 3 
0.230443 0.548586 1.54112 66 61 58 
-0.00187773 0.526729 1.48066 102 94 81 
0.0904147 0.531617 1.48311 93 88 84 
0.192223 0.544564 1.51226 120 117 110 
0.0104266 0.535483 1.4641 105 96 89 
-0.181602 0.665967 1.3877 102 97 78 
-0.300021 0.6576 1.29496 17 12 0 
-0.0336071 -1.87798 3.24207 139 130 113 
-0.0277983 -1.77317 3.18539 141 129 115 
-0.214592 -0.990702 2.51361 14 9 6 
-0.139265 -0.597421 2.10526 2 2 0 
0.0636578 -0.545872 2.06777 97 92 88 
0.324823 -0.488942 2.18866 105 100 97 
0.211051 -0.435204 2.06307 9 4 0 
0.243826 -0.377344 2.05119 71 68 59 
0.166089 -0.162997 1.92 54 51 44 
0.228833 -0.0277712 1.85435 11 7 0 
0.266698 0.0291264 1.85434 22 11 7 
0.245695 0.0487572 1.82645 29 20 13 
0.249368 0.0493874 1.85194 25 18 10 
0.266435 0.138671 1.79207 81 74 64 
0.103598 0.352898 1.6081 77 74 69 
0.228711 0.377112 1.6432 95 88 78 
0.0946157 0.37287 1.58443 89 86 79 
-0.25329 0.66373 1.29533 66 54 42 
-0.0329661 -2.07693 3.40836 231 232 236 
0.0420732 -1.83987 3.22523 38 34 31 
0.262877 -0.488586 2.11993 69 66 61 
0.0116931 -0.486834 2.03072 54 50 41 
-0.0756335 -0.476553 1.99923 94 84 82 
-0.154076 -0.431373 2.04672 5 6 1 
0.196406 -0.395711 2.05442 118 106 90 
0.108537 0.00977917 1.80628 72 63 56 
-0.155941 0.0720077 1.78463 13 10 5 
-0.231033 0.642008 1.42688 126 118 97 
-0.273006 0.652711 1.35159 107 97 87 
-0.281901 0.655273 1.29511 117 110 91 
0.0249129 -1.91586 3.25258 60 59 54 
-0.0872913 -1.68123 3.15552 218 222 223 
0.151801 -0.456212 2.05437 102 97 93 
0.213092 -0.395495 2.03147 9 4 1 
0.25277 0.402475 1.64905 97 93 82 
-0.0400157 -2.08237 3.4048 228 229 233 
0.0260348 -1.87737 3.24309 128 117 99 
0.144395 -1.48401 3.01469 221 225 228 
0.0871543 -0.517708 2.05555 58 57 52 
0.177108 -0.505766 2.08198 82 78 69 
0.267636 -0.325204 2.04686 84 84 74 
0.155003 -0.191303 1.92831 84 81 76 
0.147099 -0.120521 1.88816 91 86 83 
0.0463959 0.61265 1.36583 20 10 1 
0.198012 -0.377599 2.04404 129 120 111 
-0.00694932 -0.224125 1.90336 0 2 1 
0.0550372 0.0719805 1.76319 82 78 69 
-0.0179107 -2.06582 3.51871 47 43 40 
0.269324 -0.980223 2.5952 86 81 75 
0.171169 -0.479323 2.07102 1 1 1 
-0.191892 0.347972 1.63497 106 103 88 
0.00963054 -0.226845 1.92597 1 1 1 
0.188115 -0.342602 2.00906 41 37 26 
-0.129112 -0.225032 1.93888 18 11 5 
-0.123608 -0.184638 1.91032 104 99 95 
-0.265882 -0.155995 2.01491 89 84 78 
-0.199616 0.00832498 1.85522 7 2 0 
0.0432079 0.590865 1.43443 27 18 9 
-0.159924 0.620941 1.45483 160 152 141 
-0.204496 0.63268 1.41334 158 147 129 
-0.447347 0.714635 1.42194 89 86 71 
0.081981 -0.102279 1.85466 16 6 4 
0.166917 0.539611 1.50119 105 101 92 
-0.0227791 -0.472282 2.04437 81 72 67 
0.231631 0.278996 1.69064 99 90 81 
-0.198703 0.335518 1.65963 38 35 26 
-0.0477278 -1.8495 3.25236 24 17 25 
-0.138733 -0.794065 2.27426 44 40 37 
0.201825 -0.320076 1.99937 72 69 60 
0.226068 0.113695 1.77873 87 78 69 
0.0051477 0.530332 1.46796 44 40 31 
0.0121469 -2.04072 3.34737 228 229 233 
0.00439229 -0.618171 2.0486 156 149 141 
0.0277521 -1.82717 3.25687 30 26 23 
0.217175 -0.977175 2.49257 133 121 107 
0.205296 -0.980773 2.49468 123 106 99 
0.096935 -0.849695 2.3134 112 106 94 
0.136326 -0.803691 2.27043 134 125 116 
0.0368715 -0.553995 2.06119 11 8 3 
0.274848 -0.493747 2.12873 9 4 0 
0.0529626 -0.510635 2.04101 8 0 0 
-0.0933577 -0.533959 2.06057 122 115 107 
-0.15974 -0.539496 2.08285 20 15 9 
0.262962 -0.397847 2.0724 126 121 117 
0.313067 -0.377426 2.10944 131 122 115 
0.182667 -0.385438 2.02435 34 31 22 
0.279263 -0.36186 2.0684 9 6 1 
0.0825378 -0.400548 2.01772 4 0 0 
0.335829 -0.345731 2.12317 4 0 0 
0.31857 -0.324358 2.09046 8 3 0 
-0.0844215 -0.410727 2.02305 27 22 18 
0.122789 -0.280487 1.97028 101 97 94 
0.331139 -0.239002 2.0546 98 94 85 
0.0829636 -0.28077 1.95847 12 7 3 
0.0781158 -0.244656 1.93672 116 113 108 
0.0629759 -0.236462 1.93081 103 100 95 
0.25607 -0.169065 1.95082 8 0 0 
0.325848 -0.149952 2.00584 121 117 108 
0.307484 -0.148173 1.98641 4 0 0 
0.150496 -0.17042 1.92343 111 107 106 
0.161009 -0.166189 1.92183 93 88 85 
0.276754 -0.126704 1.94384 8 0 0 
0.125696 -0.14305 1.89399 75 73 74 
0.264851 -0.113253 1.92719 88 84 75 
0.283249 -0.0900572 1.93083 6 0 0 
0.269951 -0.0921205 1.92434 136 130 118 
-0.0601858 -0.156075 1.88772 110 103 95 
0.289207 -0.0770846 1.9312 4 0 0 
0.215121 -0.0825907 1.87617 18 9 2 
0.174908 -0.0826194 1.88294 4 0 0 
-0.0705745 -0.11718 1.86977 20 11 4 
0.219244 -0.048147 1.86327 5 1 0 
0.311922 -0.0131374 1.92133 9 1 0 
0.253153 0.000665188 1.85499 118 114 103 
0.32931 0.0323828 1.91451 96 86 76 
0.339845 0.0357536 1.92301 132 123 114 
0.245779 0.0230451 1.83897 4 0 0 
0.144002 0.00706066 1.83012 107 100 94 
0.36451 0.063515 1.94807 21 11 1 
0.122871 0.0198714 1.80914 101 97 94 
0.330399 0.0828488 1.89072 13 3 0 
0.251237 0.0672384 1.82026 132 124 113 
0.372578 0.0996913 1.94025 18 8 0 
0.234811 0.0836629 1.80006 119 115 104 
0.183942 0.0774385 1.78945 141 133 120 
0.368576 0.124418 1.91939 99 89 79 
-0.0759228 0.0364223 1.79209 92 87 81 
0.354345 0.123948 1.90266 14 4 0 
0.316287 0.129106 1.85202 12 5 0 
0.204944 0.142874 1.75228 111 101 92 
0.32961 0.182138 1.83359 107 98 89 
0.349953 0.189395 1.85723 7 3 0 
0.353716 0.197538 1.86254 11 0 0 
0.32133 0.193189 1.81956 135 126 117 
-0.0862197 0.133865 1.74192 11 4 0 
0.101639 0.169497 1.7224 9 4 0 
0.341285 0.229003 1.82401 144 135 126 
0.339277 0.244248 1.81593 141 130 112 
0.320796 0.24457 1.79231 11 5 0 
0.284904 0.237384 1.75711 161 151 141 
0.337263 0.266423 1.79865 65 56 41 
0.334924 0.274314 1.7929 150 142 123 
0.381579 0.298149 1.85111 16 8 0 
0.197947 0.252115 1.69105 19 11 0 
0.353105 0.30127 1.79926 30 22 11 
0.346779 0.308943 1.78993 137 125 109 
0.268795 0.288572 1.71727 133 121 109 
0.336186 0.31317 1.77458 44 36 17 
0.348613 0.318668 1.78534 37 25 11 
0.379015 0.385968 1.79725 21 11 1 
0.245388 0.336845 1.67179 4 0 0 
0.296133 0.35687 1.70586 133 124 115 
0.309694 0.363677 1.71669 139 130 121 
0.32333 0.369456 1.72791 106 98 87 
0.356379 0.38647 1.76165 24 14 4 
0.126818 0.333596 1.64109 8 0 0 
0.26965 0.365758 1.67122 17 12 8 
0.354948 0.404287 1.75036 8 0 0 
0.273409 0.376069 1.66973 14 11 6 
0.332523 0.423897 1.71133 135 126 117 
