ply                 
format ascii 1.0    
element vertex 886
property float x    
property float y    
property float z    
property uchar red  
property uchar green
property uchar blue 
end_header          
-0.0618707 -2.17547 3.5431 227 226 231 
0.0198599 -2.03253 3.37093 107 112 106 
-0.181089 -1.02398 2.49536 13 9 8 
-0.186837 -1.02088 2.50066 112 109 100 
-0.0441958 -0.553276 2.07055 6 5 1 
-0.111591 -0.548293 2.07739 7 3 0 
-0.0849503 -0.536997 2.06727 153 144 137 
-0.104418 -0.394542 2.02227 120 120 112 
-0.115452 -0.387988 2.02273 14 10 7 
-0.255572 -0.298024 2.05046 102 97 93 
-0.283567 -0.292636 2.07331 12 7 3 
-0.0732253 -0.256993 1.94095 5 0 0 
-0.0986996 -0.116 1.8715 4 0 0 
-0.0700596 -0.0250912 1.81493 11 5 5 
-0.30738 0.308662 1.74075 5 3 4 
-0.283821 0.324699 1.70577 18 13 7 
-0.142194 0.32238 1.64363 12 8 5 
-0.27347 0.363702 1.67251 4 0 0 
-0.269203 0.364306 1.671 119 112 104 
-0.319966 0.38531 1.71641 0 0 0 
-0.269838 0.406684 1.67454 32 39 47 
-0.257804 0.403522 1.66185 31 36 39 
-0.0296319 0.39091 1.55096 140 136 124 
-0.259079 0.420086 1.65635 142 146 155 
-0.320392 0.444819 1.71129 144 143 149 
-0.211634 0.414285 1.5968 117 113 102 
-0.279111 0.448553 1.66474 172 174 173 
-0.276613 0.46619 1.65459 39 39 37 
-0.270241 0.504847 1.62784 106 107 102 
-0.0761733 0.476615 1.50999 5 0 0 
-0.322344 0.528706 1.66476 160 117 48 
-0.13312 0.490593 1.51655 140 131 126 
-0.0134461 -2.19092 3.51093 223 226 233 
-0.111467 -0.548254 2.07759 7 3 0 
-0.0587571 -0.530049 2.06003 6 1 0 
-0.296534 -0.489253 2.15132 23 17 17 
-0.129108 -0.450522 2.05747 107 102 99 
-0.0787373 -0.435961 2.03869 87 82 78 
-0.233939 -0.408278 2.09259 59 57 58 
-0.104528 -0.3944 2.02238 120 120 112 
-0.115349 -0.387867 2.02268 14 10 7 
-0.0405868 -0.363046 1.99715 30 25 22 
-0.163585 -0.36661 2.02732 18 14 11 
-0.178825 -0.354198 2.02664 94 90 87 
-0.227478 -0.285009 2.02189 99 98 94 
-0.0731642 -0.257238 1.94176 10 2 0 
-0.151284 -0.24851 1.95468 28 15 6 
-0.158017 -0.243678 1.95765 106 99 91 
0.0769541 -0.188242 1.91316 84 80 71 
-0.121351 -0.182347 1.91392 101 97 94 
-0.126109 -0.132213 1.88758 5 2 0 
-0.298601 -0.132911 2.00534 112 107 101 
-0.0986737 -0.116053 1.87141 8 3 0 
-0.154451 -0.0921346 1.8772 6 1 0 
-0.162647 -0.0853551 1.87542 91 86 82 
-0.247552 -0.0414182 1.90627 89 79 77 
-0.0967433 -0.0116593 1.81157 75 66 67 
0.122571 0.0618563 1.79089 94 90 87 
-0.313269 0.108095 1.91062 133 129 117 
0.00591715 0.118821 1.73145 81 80 76 
-0.121148 0.192462 1.70682 6 1 0 
-0.154898 0.296683 1.66476 111 108 101 
-0.141873 0.322469 1.64365 4 0 0 
-0.23819 0.348575 1.65454 48 41 33 
-0.273706 0.363739 1.67177 4 0 0 
-0.268393 0.37039 1.66726 107 103 92 
-0.319762 0.385612 1.71693 2 2 4 
-0.0293317 0.390818 1.55103 139 135 123 
-0.204591 0.410491 1.59334 23 18 14 
-0.283348 0.434258 1.67559 136 140 152 
-0.32038 0.457037 1.70438 45 41 42 
-0.283145 0.447536 1.6679 45 49 52 
-0.262747 0.443839 1.64936 42 43 45 
-0.307461 0.480473 1.68057 109 113 112 
-0.18592 0.451012 1.56087 12 8 9 
-0.280981 0.4861 1.65191 34 34 34 
-0.335089 0.503431 1.69084 92 93 79 
-0.0654157 0.453842 1.52194 99 92 84 
-0.158123 0.480872 1.53305 114 102 90 
-0.076288 0.476569 1.51008 5 0 0 
-0.333397 0.529097 1.66648 174 121 27 
-0.0869207 0.496809 1.50089 106 98 95 
-0.311413 0.621599 1.62429 86 90 89 
-0.0889166 0.556571 1.44279 95 88 78 
-0.311029 0.627241 1.62163 111 113 108 
-0.0715402 0.580602 1.42653 98 89 84 
-0.0939002 0.596208 1.42174 93 89 78 
0.0560224 0.617754 1.34955 91 87 78 
-0.0912787 0.620376 1.35493 1 0 0 
-0.117809 0.632021 1.35329 124 125 117 
0.00475843 -0.606501 2.10012 89 81 78 
-0.270291 -0.327362 2.07642 85 82 77 
0.101197 -0.217429 1.93729 77 75 76 
-0.0741315 -0.155397 1.88746 104 99 95 
-0.0938353 -0.10981 1.86349 104 99 93 
-0.127797 -0.0924318 1.86713 100 97 90 
-0.169653 -0.0487419 1.86079 8 7 5 
-0.0969667 -0.0122945 1.81273 75 66 67 
-0.0940229 -0.00617884 1.81213 4 0 0 
-0.120788 0.192668 1.70677 16 11 8 
-0.275893 0.406405 1.68063 114 119 123 
-0.292708 0.432439 1.68436 138 142 154 
-0.350288 0.476222 1.70513 110 107 98 
-0.139833 0.513873 1.49936 87 84 75 
-0.31337 0.616415 1.62681 10 1 2 
-0.0721729 0.580458 1.42559 99 92 84 
-0.0911749 0.613758 1.35647 1 0 0 
-0.0126253 0.618875 1.34234 98 92 78 
0.0571551 0.655044 1.3291 32 23 16 
-0.11498 -0.452002 2.05392 99 98 94 
-0.0628998 -0.37149 2.00311 72 68 67 
-0.15044 -0.119352 1.88646 116 111 108 
-0.0892261 -0.0519667 1.83359 90 87 82 
-0.253408 0.0571688 1.85351 0 0 0 
-0.151066 0.0756556 1.78391 14 9 6 
0.0723395 0.0928103 1.75857 5 1 0 
-0.035449 0.162071 1.70639 96 91 85 
-0.275587 0.365931 1.67091 2 2 2 
-0.252278 0.375185 1.64677 13 12 8 
0.0257993 0.613361 1.35038 4 0 0 
-0.253776 0.0575638 1.85245 2 2 0 
-0.0965311 -0.454582 2.05403 88 84 81 
-0.0807872 -0.445952 2.03566 9 8 6 
-0.0195032 0.605453 1.33477 5 1 0 
-0.0964896 -1.99251 3.49073 31 29 34 
-0.088869 -1.97706 3.47466 18 16 19 
0.0676307 -1.78932 3.31186 226 230 231 
-0.174627 -1.46815 3.04901 82 81 77 
-0.0472169 -1.18514 2.65778 134 130 121 
-0.266742 -1.16044 2.65944 81 80 75 
-0.291954 -1.11777 2.67103 83 83 75 
-0.180367 -1.01586 2.47664 13 9 8 
0.166715 -1.02971 2.51808 15 15 7 
0.090301 -1.01644 2.4973 119 117 104 
-0.0874754 -0.996397 2.46839 123 121 109 
0.078218 -0.945074 2.42653 26 24 12 
-0.10464 -0.911162 2.38548 124 120 111 
0.300984 -0.995873 2.67059 75 76 71 
-0.318038 -0.962756 2.61732 222 220 221 
0.301003 -0.98643 2.6626 218 219 221 
0.0236659 -0.822115 2.30701 116 114 102 
-0.0311451 -0.821438 2.30808 122 119 110 
-0.136617 -0.729013 2.20238 17 8 0 
0.033344 -0.737734 2.22978 139 135 124 
0.0705163 -0.713232 2.20083 55 45 33 
0.0847502 -0.589076 2.09692 10 6 3 
-0.0136124 -0.553541 2.0667 5 1 0 
0.0288661 -0.554858 2.07022 6 2 3 
-0.0691664 -0.551902 2.07289 4 0 0 
-0.0971465 -0.526398 2.06149 5 2 0 
-0.200039 -0.535593 2.10815 11 8 3 
0.240836 -0.536394 2.14766 16 8 6 
-0.122293 -0.454211 2.05704 3 0 0 
-0.010506 -0.431054 2.03076 4 0 0 
0.210889 -0.434825 2.07026 14 9 5 
-0.367458 -0.436522 2.22479 15 12 5 
-0.298222 -0.413382 2.13296 89 89 87 
-0.270636 -0.412342 2.12963 3 0 0 
-0.0448305 -0.383903 2.00814 104 100 97 
-0.0724046 -0.374256 2.00386 5 1 0 
-0.184851 -0.348305 2.028 9 5 2 
0.18387 -0.345165 2.01982 112 111 106 
-0.291457 -0.357092 2.12208 3 0 0 
0.0607438 -0.317989 1.98068 3 0 0 
0.204928 -0.290597 1.98858 3 0 0 
-0.28423 -0.293775 2.0803 12 7 3 
-0.115671 -0.273385 1.9603 5 2 0 
-0.260846 -0.244821 2.02273 8 0 0 
-0.278845 -0.199487 2.01428 8 3 0 
-0.316018 -0.18565 2.05026 6 0 0 
-0.267154 -0.181553 2.00016 17 10 2 
-0.287442 -0.164177 2.01001 8 0 0 
0.0958906 -0.157246 1.90027 109 105 102 
-0.0567425 -0.151285 1.87554 112 109 102 
-0.315183 -0.160831 2.04625 15 5 0 
-0.296249 -0.156563 2.01441 11 5 0 
-0.276639 -0.152673 1.99138 11 3 1 
-0.290128 -0.149934 2.00885 8 1 0 
0.0745642 -0.142096 1.88012 12 2 0 
-0.316335 -0.138087 2.03213 7 0 0 
-0.336685 -0.120865 2.04914 7 2 0 
0.0993127 -0.100224 1.85615 87 82 79 
-0.339337 0.00509278 1.99314 5 4 0 
0.0367058 0.0169714 1.80771 150 141 132 
0.261093 0.0214219 1.86449 4 0 0 
0.0364966 0.0308 1.80153 147 137 128 
-0.371585 0.054233 2.03174 32 23 16 
0.254044 0.0475469 1.84189 105 100 97 
0.00227944 0.0706758 1.77235 196 183 175 
-0.275733 0.0894595 1.88226 160 154 140 
-0.314961 0.108368 1.91902 142 138 126 
-0.352303 0.141639 1.94973 5 5 0 
0.0118448 0.134206 1.71639 4 2 3 
-0.338269 0.155117 1.91439 39 32 24 
-0.184098 0.221001 1.72349 9 0 0 
-0.211482 0.229045 1.73291 91 87 86 
-0.0919369 0.22225 1.68243 6 0 0 
0.267762 0.310714 1.71316 20 14 2 
-0.28405 0.325131 1.70786 18 13 7 
-0.142187 0.322177 1.64301 12 8 5 
0.234231 0.33757 1.66206 22 18 9 
-0.18032 0.339684 1.64502 125 120 114 
-0.238368 0.349026 1.6566 48 41 33 
0.0876058 0.342806 1.60356 123 119 107 
-0.274013 0.364482 1.67401 4 0 0 
-0.269181 0.364484 1.671 119 112 104 
0.0603213 0.349882 1.58947 129 125 114 
-0.0497534 0.349855 1.58925 125 120 114 
-0.31934 0.385059 1.71449 2 2 4 
-0.325217 0.390416 1.72034 91 86 82 
-0.244084 0.383879 1.64231 6 2 1 
-0.249739 0.392566 1.66193 110 110 110 
-0.259247 0.397116 1.66978 99 101 100 
-0.269463 0.405964 1.67195 32 39 47 
-0.253507 0.402538 1.66019 164 168 169 
-0.27649 0.412655 1.68122 37 44 52 
-0.262738 0.414464 1.66156 26 29 48 
-0.255277 0.415126 1.65556 16 20 29 
-0.30349 0.42726 1.70145 134 137 144 
-0.314259 0.432 1.71294 18 21 28 
-0.275923 0.422142 1.67524 121 125 134 
-0.0296438 0.38966 1.5467 140 136 124 
0.0461556 0.391377 1.54859 106 99 91 
-0.293054 0.428746 1.6886 20 24 35 
-0.272515 0.423963 1.6651 40 44 53 
-0.326147 0.44296 1.71889 125 124 122 
-0.254039 0.424705 1.64885 126 130 133 
-0.27886 0.431603 1.67386 30 34 43 
-0.234337 0.415083 1.60877 100 92 89 
-0.312552 0.441023 1.70599 140 144 155 
-0.211165 0.412793 1.59063 117 113 102 
-0.24494 0.427033 1.63967 124 123 119 
-0.274755 0.436616 1.66507 175 176 180 
-0.32181 0.451047 1.71237 21 17 18 
-0.285227 0.444927 1.67357 140 141 143 
-0.297887 0.449051 1.68501 34 34 46 
-0.259581 0.439988 1.64561 149 153 156 
-0.293176 0.449701 1.67669 37 39 36 
-0.266947 0.443834 1.65318 130 132 129 
-0.279147 0.448382 1.66477 172 174 173 
-0.309558 0.464412 1.69297 154 154 152 
-0.300365 0.462655 1.68199 43 43 41 
-0.231179 0.439938 1.5949 16 7 0 
-0.283974 0.461471 1.66415 25 23 26 
-0.276473 0.460089 1.65596 41 41 39 
-0.295984 0.467651 1.67468 27 26 22 
-0.305918 0.471238 1.68424 156 157 152 
-0.285931 0.4707 1.65721 147 149 148 
-0.247297 0.460974 1.6207 161 166 159 
-0.294691 0.475615 1.66385 44 49 43 
-0.315468 0.483215 1.68892 68 66 67 
-0.300211 0.482744 1.67355 32 33 35 
-0.257972 0.471996 1.62795 115 116 110 
-0.288155 0.483151 1.65833 35 41 37 
-0.31055 0.498778 1.67669 137 139 138 
-0.30184 0.496383 1.66853 119 121 116 
0.0189123 0.452129 1.51393 123 119 110 
-0.280487 0.500319 1.64219 120 121 115 
-0.272736 0.497825 1.63104 125 126 121 
-0.311353 0.514579 1.67248 42 37 34 
-0.300814 0.517503 1.65664 120 117 108 
-0.328545 0.527758 1.6681 167 122 41 
-0.161012 0.492805 1.52269 11 6 0 
-0.133051 0.489581 1.5136 140 131 126 
-0.30619 0.551139 1.64427 99 108 103 
-0.259746 0.539442 1.60099 124 126 123 
-0.273746 0.552591 1.61027 102 103 107 
-0.260932 0.564339 1.58816 121 120 126 
-0.264564 0.57272 1.59264 123 120 127 
0.000939932 0.530043 1.44836 130 125 121 
-0.137329 0.553182 1.45892 111 107 96 
-0.312222 0.627241 1.62246 126 127 122 
-0.276339 0.614086 1.58707 120 119 125 
-0.358885 0.646491 1.61294 15 11 0 
-0.155779 0.589814 1.44444 135 131 120 
-0.052678 -1.95515 3.33628 53 48 44 
0.0320165 -1.93497 3.3461 32 28 29 
-0.0666351 -1.84043 3.28293 58 53 49 
-0.0969798 -1.74433 3.25687 73 73 65 
-0.114414 -1.68067 3.20338 72 72 64 
-0.134514 -1.63454 3.17409 223 227 228 
-0.155712 -1.55042 3.10518 224 226 221 
0.0238961 -1.45738 2.93082 56 48 45 
-0.182203 -1.45596 3.03672 228 233 229 
-0.124441 -1.26304 2.74843 148 142 130 
-0.258772 -1.17755 2.66113 225 227 226 
-0.0697461 -1.16916 2.63919 111 106 100 
0.244305 -1.18791 2.71367 71 76 69 
-0.273706 -1.12996 2.65112 226 226 224 
0.251678 -1.14638 2.6871 221 225 224 
0.0487236 -1.05895 2.53175 134 124 112 
0.264772 -1.13279 2.70076 99 99 87 
-0.18686 -1.02102 2.5034 101 98 89 
0.273618 -1.09872 2.69027 217 221 220 
0.0583351 -1.00142 2.47211 27 22 16 
-0.128692 -0.987595 2.46056 130 122 111 
0.286051 -1.08134 2.69889 77 77 67 
-0.231245 -1.01218 2.54844 21 11 10 
-0.0725727 -0.949254 2.42272 112 108 99 
0.285575 -1.04918 2.67998 65 66 61 
0.29404 -1.04592 2.68572 224 228 227 
-0.178263 -0.944778 2.4549 31 28 21 
-0.15382 -0.928509 2.4122 54 47 41 
-0.101531 -0.923503 2.39834 22 19 10 
-0.0987049 -0.90433 2.37638 54 49 43 
0.12031 -0.90906 2.39473 109 105 94 
0.0490814 -0.892879 2.38186 38 35 28 
-0.319462 -0.972782 2.62122 4 5 0 
-0.0944751 -0.864278 2.34642 121 118 111 
0.264903 -0.958688 2.60514 26 16 14 
-0.0670666 -0.85316 2.33483 36 33 28 
0.0864405 -0.833169 2.32306 34 26 15 
0.105284 -0.834669 2.32797 26 16 6 
-0.149257 -0.804839 2.28618 39 34 30 
0.114461 -0.785629 2.28501 65 61 52 
-0.135963 -0.732575 2.21286 9 0 0 
0.0328999 -0.712371 2.19751 145 141 130 
-0.022794 -0.657504 2.12408 141 133 112 
0.00420494 -0.604691 2.09336 89 81 78 
-0.0995807 -0.56932 2.08283 18 13 7 
-0.203531 -0.570779 2.12391 13 6 0 
0.071978 -0.558696 2.08422 22 18 17 
-0.0996794 -0.552702 2.07666 15 10 6 
-0.187869 -0.559384 2.11681 120 116 107 
-0.0130382 -0.536469 2.06275 6 2 1 
-0.0630132 -0.519087 2.05427 97 96 94 
-0.0536797 -0.516836 2.0518 88 84 81 
-0.0463144 -0.506963 2.04935 75 68 60 
-0.335457 -0.541782 2.22684 88 84 81 
0.253495 -0.526856 2.14592 23 19 16 
0.219383 -0.515401 2.11046 9 8 6 
-0.223552 -0.509808 2.10968 18 14 11 
-0.0687328 -0.494861 2.04343 77 74 69 
-0.0822518 -0.493087 2.04527 56 53 48 
0.0936913 -0.494484 2.05333 82 81 79 
-0.331843 -0.518746 2.21441 6 0 0 
-0.287445 -0.493574 2.15038 7 0 0 
-0.330021 -0.500885 2.19716 24 24 22 
-0.297571 -0.491813 2.1625 23 17 17 
0.019666 -0.464307 2.03575 67 66 62 
-0.108836 -0.465929 2.05634 85 80 76 
-0.0674631 -0.460805 2.03829 73 68 62 
0.0920224 -0.459817 2.04287 89 86 81 
0.105773 -0.458667 2.0449 87 84 77 
-0.101797 -0.433323 2.04358 82 78 75 
0.175828 -0.442864 2.0829 8 7 3 
-0.30583 -0.447503 2.14904 86 82 81 
-0.0134348 -0.419025 2.02316 91 90 86 
0.189916 -0.428004 2.06787 20 15 9 
0.203156 -0.424653 2.06559 65 58 48 
0.162053 -0.420185 2.06822 19 18 14 
-0.0828493 -0.408495 2.02371 40 35 32 
0.174351 -0.419535 2.07136 18 17 13 
0.100888 -0.412887 2.04358 16 12 11 
-0.314413 -0.428386 2.14953 82 78 77 
-0.11474 -0.399026 2.02795 14 9 6 
0.0859207 -0.399403 2.0239 5 1 0 
-0.234547 -0.410108 2.10192 59 57 58 
0.19149 -0.399535 2.04499 38 35 28 
0.205979 -0.399319 2.04443 24 21 14 
-0.308747 -0.409621 2.14426 91 87 84 
-0.129807 -0.384901 2.02413 24 19 16 
0.182796 -0.368635 2.03716 108 107 102 
-0.176923 -0.356527 2.03076 95 91 88 
0.192925 -0.353307 2.02119 18 10 7 
0.0528886 -0.339657 1.98404 16 12 11 
0.295672 -0.36137 2.10768 112 109 104 
-0.241087 -0.346319 2.06314 3 0 0 
-0.355942 -0.369902 2.20947 8 8 6 
0.0580841 -0.328348 1.9815 15 11 10 
-0.266035 -0.337579 2.08464 34 30 27 
0.284368 -0.337128 2.0811 26 23 18 
0.192981 -0.31971 2.00022 1 0 0 
0.173956 -0.31868 2.02051 6 2 3 
0.0909314 -0.30908 1.97763 96 90 90 
0.231363 -0.307281 2.01469 99 96 89 
0.191878 -0.300199 1.99787 124 121 114 
-0.247619 -0.300424 2.04549 95 92 87 
-0.260292 -0.299663 2.05052 14 6 4 
-0.276467 -0.299059 2.07706 11 3 1 
-0.227855 -0.285862 2.02758 99 98 94 
0.182087 -0.280617 1.9885 1 0 0 
-0.328947 -0.29586 2.14127 16 15 11 
-0.0968417 -0.268163 1.94623 7 1 1 
-0.28341 -0.275674 2.07519 2 1 0 
0.185464 -0.266645 1.98378 6 1 0 
-0.345984 -0.277992 2.1475 89 88 84 
-0.184305 -0.2577 1.98611 1 0 0 
-0.151395 -0.249025 1.95866 28 15 6 
-0.158298 -0.244839 1.96579 106 99 91 
0.0895559 -0.241617 1.94024 83 79 76 
-0.130956 -0.239817 1.95171 105 100 94 
0.281459 -0.251049 2.03096 112 104 102 
-0.455137 -0.284162 2.45111 227 228 230 
-0.142391 -0.226876 1.95442 97 94 89 
-0.171666 -0.225849 1.95528 1 1 0 
-0.270944 -0.23145 2.0265 9 0 0 
-0.0267502 -0.219152 1.91443 12 10 13 
0.0615165 -0.215813 1.92071 46 42 39 
0.101124 -0.217005 1.9358 77 75 76 
0.182085 -0.215808 1.94105 23 19 20 
-0.261586 -0.212735 2.01388 35 26 19 
-0.0315356 -0.200413 1.9081 102 97 93 
-0.318234 -0.214018 2.0795 15 7 4 
0.0606544 -0.194995 1.9103 5 2 0 
0.179219 -0.198377 1.94868 40 33 27 
-0.109954 -0.188922 1.91699 30 29 27 
0.191693 -0.192367 1.93924 8 4 0 
0.076376 -0.187463 1.90664 84 80 71 
0.180874 -0.191284 1.93738 78 77 73 
-0.121512 -0.183615 1.92731 101 97 94 
-0.0712571 -0.1808 1.90238 40 36 33 
-0.255119 -0.186996 1.99066 19 9 7 
0.209074 -0.183928 1.93909 42 37 34 
0.186222 -0.18386 1.9487 14 10 7 
0.196206 -0.179275 1.92572 108 99 92 
-0.283934 -0.180441 2.01459 90 83 73 
0.186729 -0.172204 1.9349 8 3 0 
0.208038 -0.170592 1.92692 6 1 0 
-0.336178 -0.179485 2.08127 18 5 0 
-0.271406 -0.173454 2.01018 5 0 0 
-0.186191 -0.165397 1.93456 17 9 6 
-0.318725 -0.174687 2.05634 21 16 12 
0.0758509 -0.16269 1.89249 33 28 22 
0.0705103 -0.161349 1.90035 76 72 61 
0.202815 -0.160402 1.91373 122 113 104 
0.095853 -0.148058 1.89053 1 0 0 
0.109658 -0.147535 1.89369 24 20 17 
-0.33075 -0.147001 2.06372 6 0 0 
-0.130723 -0.135064 1.89039 99 96 91 
-0.303914 -0.142981 2.01987 8 3 0 
-0.0561535 -0.133839 1.87537 78 71 63 
-0.255557 -0.137022 1.96124 101 98 93 
-0.288555 -0.137982 1.99656 94 89 85 
-0.279582 -0.136827 1.99077 33 30 25 
-0.324036 -0.138482 2.03977 97 90 72 
-0.30524 -0.129858 2.01327 99 94 90 
-0.148401 -0.119292 1.89002 108 103 100 
-0.315268 -0.124926 2.02268 96 91 85 
-0.326473 -0.119232 2.03608 91 86 82 
0.0825047 -0.110665 1.86562 97 93 90 
-0.313099 -0.114917 2.01903 103 99 90 
-0.102793 -0.10083 1.86051 22 14 11 
-0.0710104 -0.0996284 1.8581 95 90 87 
0.085886 -0.0981366 1.8652 22 18 15 
0.129804 -0.0968363 1.87107 105 101 98 
-0.33527 -0.103186 2.04598 101 91 90 
-0.128349 -0.0925437 1.86857 98 93 87 
0.24212 -0.0969138 1.91476 99 96 91 
-0.154535 -0.0923845 1.87894 6 1 0 
-0.16712 -0.0894877 1.88288 23 18 14 
-0.125575 -0.0814113 1.85824 88 85 80 
0.0926784 -0.0800486 1.85556 20 19 15 
-0.286294 -0.0801078 1.96877 41 35 35 
-0.063079 -0.06061 1.83319 21 17 18 
-0.080202 -0.0578689 1.83345 35 30 26 
-0.331746 -0.0625098 2.01964 68 65 60 
-0.306183 -0.0605642 1.98072 24 23 21 
-0.169903 -0.0490742 1.86628 8 7 5 
0.11805 -0.0468002 1.84121 80 80 78 
0.308908 -0.0486094 1.95988 22 17 13 
-0.126553 -0.0407038 1.84234 27 23 20 
-0.10322 -0.0410309 1.83253 9 5 4 
0.283018 -0.0365984 1.91562 11 6 3 
0.202307 -0.0109142 1.83773 7 0 0 
0.134347 -0.0104515 1.8281 90 85 82 
-0.185447 -0.00490646 1.84116 10 5 1 
0.122068 -0.00223193 1.81586 98 97 92 
-0.27627 0.000384032 1.91966 15 11 8 
-0.11397 0.0192769 1.80004 7 6 2 
-0.356673 0.0270157 2.01529 79 71 69 
0.0747833 0.0241779 1.78897 29 21 18 
-0.0658047 0.0290786 1.78599 87 82 78 
0.281599 0.0319431 1.88035 84 77 71 
-0.269093 0.0415509 1.8855 101 94 86 
-0.247201 0.0412282 1.86379 7 6 4 
-0.147844 0.0425777 1.80536 81 74 68 
0.193221 0.0507029 1.80338 96 85 79 
0.26188 0.0568122 1.84066 109 104 98 
0.237824 0.0599089 1.81527 86 84 72 
0.283184 0.0691196 1.85725 5 0 0 
-0.327073 0.0750792 1.95172 2 1 0 
-0.211744 0.0696737 1.82294 108 105 98 
-0.269361 0.0804166 1.87768 137 133 121 
-0.0933826 0.0780515 1.76324 100 95 89 
-0.351107 0.0884741 1.97024 34 31 22 
-0.252525 0.0902762 1.85236 127 124 107 
0.19958 0.0965273 1.77329 20 17 10 
-0.338248 0.11067 1.94146 110 100 90 
-0.325797 0.118824 1.91395 93 86 78 
0.195567 0.115437 1.76257 90 83 75 
0.0831229 0.121629 1.73429 90 88 76 
-0.0108999 0.131035 1.71751 14 5 6 
0.220588 0.13759 1.75998 5 1 2 
0.301229 0.15158 1.84016 30 26 17 
0.0161743 0.143942 1.71207 88 84 75 
0.296109 0.155268 1.81901 94 89 85 
0.314056 0.169763 1.83531 51 41 39 
0.301877 0.17836 1.8255 15 11 8 
0.31833 0.1798 1.83674 93 88 84 
0.293732 0.183938 1.80954 10 6 3 
-0.135533 0.182794 1.72071 13 9 0 
-0.10085 0.189108 1.70341 16 11 7 
-0.201619 0.196216 1.74695 10 6 3 
-0.121142 0.192233 1.70552 6 1 0 
-0.0868644 0.201768 1.68494 11 1 0 
-0.0765172 0.203149 1.69528 14 6 4 
-0.13049 0.211616 1.7001 86 77 72 
-0.220066 0.219086 1.74148 5 0 0 
0.0733049 0.216126 1.67955 21 16 12 
-0.00558591 0.225992 1.66136 6 0 0 
0.149892 0.231134 1.69835 92 87 83 
0.22748 0.246502 1.70165 149 145 133 
0.289 0.263234 1.75436 18 11 5 
0.323936 0.279626 1.80009 22 13 6 
-0.0975646 0.271274 1.65655 110 103 95 
0.252451 0.284484 1.70651 15 3 3 
0.0780013 0.277234 1.64874 14 8 8 
-0.017281 0.27633 1.63827 100 90 78 
-0.08777 0.283009 1.64963 3 0 0 
-0.154905 0.296571 1.66461 111 108 101 
0.0178813 0.321306 1.61217 69 64 58 
-0.0193328 0.322911 1.61211 88 81 71 
0.179142 0.331772 1.65456 75 68 62 
0.061218 0.329652 1.60824 23 18 15 
-0.0105044 0.329426 1.60604 15 8 2 
0.0274744 0.330322 1.60833 123 119 110 
0.260607 0.348374 1.67798 41 34 28 
-0.180389 0.334327 1.6121 91 87 78 
0.097821 0.335822 1.61341 81 78 73 
-0.252556 0.374497 1.65048 2 1 0 
0.0865702 0.360895 1.58707 104 99 93 
0.287652 0.386346 1.68524 15 10 6 
0.141842 0.3675 1.59935 100 92 89 
0.238678 0.378606 1.64837 19 13 13 
0.187586 0.373654 1.62066 25 21 22 
-0.324968 0.396245 1.71533 105 97 94 
0.0730411 0.3673 1.57287 14 9 6 
0.0616112 0.366671 1.56906 7 0 0 
0.2054 0.377485 1.61359 10 2 0 
-0.171511 0.379349 1.60434 116 113 104 
-0.248134 0.398045 1.65338 153 158 154 
-0.0693188 0.381914 1.55622 23 20 15 
-0.177337 0.397656 1.5855 136 133 124 
-0.0821408 0.395802 1.5516 101 99 87 
-0.300851 0.437231 1.69549 128 131 146 
-0.234734 0.41727 1.61884 105 97 94 
-0.26357 0.428502 1.65774 113 116 121 
-0.290504 0.440299 1.6838 30 35 39 
-0.315401 0.453113 1.7027 111 114 119 
0.114329 0.416939 1.55317 34 31 26 
-0.0445596 0.416874 1.5348 124 115 110 
-0.30347 0.455963 1.66188 141 142 136 
-0.260914 0.46278 1.63679 58 53 49 
-0.307744 0.480896 1.68213 109 113 112 
-0.103861 0.438588 1.53346 4 0 0 
0.0901787 0.441657 1.52867 59 54 50 
0.00111905 0.448384 1.51805 99 95 86 
-0.335757 0.504711 1.69543 92 93 79 
-0.296519 0.508733 1.65756 127 126 124 
-0.0609155 0.465023 1.50945 128 123 119 
-0.282009 0.51323 1.63762 94 99 93 
-0.15804 0.480446 1.53134 114 102 90 
-0.128674 0.478806 1.51671 16 8 5 
-0.0762128 0.475269 1.50681 5 0 0 
-0.290516 0.527139 1.63684 109 112 95 
-0.327959 0.53751 1.65783 4 0 1 
-0.288159 0.538207 1.63351 115 117 103 
-0.0867273 0.494696 1.49537 106 98 95 
-0.251253 0.533646 1.59278 90 102 92 
-0.213651 0.517432 1.53879 46 42 39 
0.226423 0.525472 1.55647 91 86 82 
-0.263533 0.549303 1.59987 111 115 114 
-0.0425474 0.510053 1.46915 136 125 121 
0.212551 0.536554 1.53175 98 93 87 
-0.266923 0.55938 1.59912 110 111 116 
-0.0025119 0.520867 1.46447 38 27 21 
-0.173251 0.539832 1.48889 14 9 5 
-0.0441071 0.540869 1.43852 109 101 98 
-0.174771 0.558335 1.47461 14 10 7 
-0.0888275 0.555261 1.44014 95 88 78 
0.107556 0.559418 1.44495 100 95 89 
-0.268407 0.610485 1.57549 97 100 107 
-0.0230161 0.561808 1.42638 121 116 112 
-0.0782936 0.566166 1.42923 96 89 79 
-0.151636 0.576836 1.45007 16 13 6 
-0.18039 0.580776 1.45844 102 101 96 
0.313976 0.646523 1.53554 124 121 116 
-0.274067 0.662091 1.54244 1 0 0 
-0.446993 0.800225 1.76786 50 51 45 
-0.0547205 -1.87974 3.3307 42 40 41 
-0.102955 -1.26203 2.72351 136 128 117 
-0.00889398 -0.943665 2.42147 42 42 40 
-0.0255832 -0.924578 2.39935 95 87 76 
0.0968961 -0.930091 2.41268 122 115 105 
0.0297232 -0.887773 2.37279 109 105 94 
-0.33193 -0.937059 2.6612 226 226 226 
-0.378308 -0.759611 2.54106 71 72 67 
-0.0612796 -0.598473 2.08474 88 85 78 
0.0852915 -0.59935 2.10562 85 80 77 
-0.0315529 -0.471772 2.05122 26 25 23 
-0.331369 -0.503287 2.20937 24 24 24 
0.194716 -0.478982 2.08496 99 95 94 
0.158071 -0.411702 2.06194 89 88 84 
-0.0426027 -0.367998 1.98243 55 54 50 
0.29794 -0.362992 2.11766 111 108 103 
-0.0920868 -0.325051 1.98149 36 34 22 
0.210483 -0.322966 2.00674 38 33 30 
-0.200403 -0.30839 2.01973 5 0 0 
-0.127397 -0.301161 1.97865 21 18 13 
-0.142598 -0.225392 1.9434 89 86 81 
-0.298881 -0.209232 2.0424 10 2 0 
0.166483 -0.18993 1.95547 91 85 85 
-0.32484 -0.180756 2.06373 87 81 69 
0.189567 -0.17324 1.94966 4 0 0 
-0.261714 -0.170879 1.99405 85 76 61 
-0.266046 -0.152039 1.98362 5 2 0 
0.223062 -0.149004 1.92646 19 16 11 
0.0921964 -0.140942 1.87922 91 87 84 
-0.323257 -0.130022 2.03421 5 5 5 
0.0805278 -0.0496742 1.831 84 77 71 
0.306366 -0.0482216 1.94971 31 23 20 
-0.148748 -0.0133293 1.83057 35 26 21 
-0.339705 -0.0112183 2.00746 94 86 83 
-0.0940501 -0.0064262 1.81875 4 0 0 
0.204365 0.0351034 1.80578 98 91 83 
0.206988 0.0439459 1.81065 52 43 34 
-0.244444 0.0565278 1.85203 94 91 84 
-0.245465 0.0824432 1.84462 33 24 15 
-0.326452 0.0931602 1.92402 83 83 75 
-0.326203 0.144396 1.89581 74 69 65 
0.187523 0.133058 1.75394 16 15 11 
0.209816 0.135043 1.75957 5 1 0 
-0.322201 0.163298 1.88274 12 8 7 
-0.0280883 0.196117 1.67675 11 7 6 
0.126052 0.237748 1.67507 95 91 88 
0.270319 0.317883 1.70291 57 47 38 
0.206725 0.320692 1.64518 25 15 14 
0.18642 0.358141 1.63752 5 0 0 
-0.0683232 0.361027 1.57896 15 12 7 
-0.28622 0.414692 1.68668 34 38 39 
0.221519 0.408893 1.61403 84 81 72 
-0.350912 0.477586 1.70938 110 107 98 
-0.279235 0.488287 1.64064 161 159 160 
-0.17895 0.496329 1.53269 14 10 11 
-0.249213 0.519637 1.5949 67 85 71 
-0.139709 0.512393 1.49516 87 84 75 
-0.268866 0.586645 1.58906 32 32 34 
0.381126 0.737554 1.49033 46 43 26 
-0.0400784 -1.97394 3.33869 122 118 109 
0.179789 -1.40747 3.03266 224 228 229 
-0.120655 -1.25128 2.71929 143 134 125 
0.241526 -1.18168 2.70028 75 78 71 
-0.277162 -1.13497 2.66204 219 220 222 
0.255529 -1.15234 2.69952 215 218 223 
0.262173 -1.12748 2.68977 86 84 69 
-0.177664 -1.02479 2.49685 9 8 13 
0.285732 -1.0853 2.7071 83 83 73 
-0.320516 -0.979563 2.63277 83 84 78 
0.108206 -0.822371 2.31951 115 111 99 
0.07786 -0.817165 2.30719 113 113 103 
0.0597608 -0.5985 2.08973 96 93 88 
0.0642541 -0.566249 2.08692 68 63 57 
-0.234843 -0.57563 2.15299 91 88 81 
-0.1676 -0.559212 2.09997 7 2 0 
-0.0620096 -0.54262 2.06597 106 105 100 
0.115743 -0.490121 2.04991 3 2 7 
0.104565 -0.490373 2.05651 85 82 77 
-0.147871 -0.488921 2.06508 3 3 3 
-0.0704617 -0.485118 2.04614 71 67 64 
-0.177476 -0.481442 2.06749 3 3 5 
0.14101 -0.469552 2.08407 80 76 73 
0.166882 -0.467184 2.10024 81 75 75 
-0.155204 -0.44638 2.04473 73 66 60 
-0.0794493 -0.446915 2.04837 6 5 3 
0.154942 -0.443088 2.07007 95 91 88 
-0.149853 -0.433452 2.05405 3 3 3 
-0.160937 -0.434565 2.06641 4 4 2 
0.178337 -0.43581 2.07822 60 56 53 
-0.0237271 -0.406381 2.01584 89 86 79 
-0.228024 -0.418435 2.09282 0 0 4 
-0.262013 -0.416976 2.12649 78 73 69 
0.175082 -0.396366 2.05527 50 49 47 
0.165372 -0.395509 2.06293 86 85 83 
-0.291558 -0.397422 2.13438 0 2 1 
0.0847037 -0.367331 2.00723 80 79 75 
0.0971131 -0.349992 2.00781 83 82 77 
0.195243 -0.323508 2.0178 6 5 0 
0.266199 -0.283117 2.0463 92 88 85 
0.195029 -0.261188 1.97455 94 86 73 
-0.0113281 -0.242176 1.93371 79 78 73 
-0.454602 -0.295602 2.44755 25 26 21 
0.0224736 -0.2058 1.9414 12 16 15 
0.0412329 -0.200942 1.90915 75 74 69 
0.100873 -0.201761 1.92366 82 77 71 
-0.258557 -0.202729 1.99703 103 94 79 
0.177563 -0.188831 1.91749 93 89 86 
-0.322699 -0.19835 2.07158 106 97 80 
0.0910164 -0.180481 1.91206 19 19 17 
0.0949301 -0.168094 1.89086 84 83 79 
-0.273507 -0.169849 1.99816 3 2 0 
0.191206 -0.164292 1.91926 119 115 103 
0.229442 -0.158169 1.93369 103 98 95 
0.211958 -0.1539 1.91859 17 15 16 
-0.321056 -0.148047 2.07115 89 81 70 
0.118002 -0.134542 1.89556 18 17 15 
0.206132 -0.132693 1.90746 24 20 19 
-0.173881 -0.110427 1.89788 103 100 95 
0.168854 -0.110775 1.90441 84 81 76 
-0.0927972 -0.0955341 1.86148 105 102 97 
0.128769 0.00603358 1.81652 50 45 41 
0.193287 0.00832126 1.82382 82 72 70 
0.0759325 0.0167298 1.79587 76 69 63 
0.148081 0.0270872 1.8103 70 69 65 
0.076155 0.0317783 1.77897 85 80 74 
0.131447 0.0316574 1.80217 36 31 28 
0.325825 0.0548215 1.90856 95 91 82 
0.119038 0.0538667 1.7863 43 40 33 
-0.253414 0.057229 1.85524 0 0 0 
0.224491 0.0672459 1.79845 84 83 78 
0.247252 0.074425 1.80927 87 77 75 
-0.151082 0.0758339 1.78512 14 9 6 
0.185659 0.0860306 1.77862 83 75 64 
0.071804 0.0919139 1.75095 5 1 0 
0.241155 0.117747 1.79034 3 0 0 
0.223713 0.138719 1.77108 3 0 0 
0.391382 0.173865 1.9751 61 60 55 
-0.0873015 0.173336 1.69784 6 0 0 
0.0518287 0.179934 1.69569 16 10 10 
-0.11206 0.196693 1.7023 86 83 78 
-0.106138 0.202271 1.69293 20 14 14 
-0.117529 0.216469 1.68264 3 0 0 
0.0968228 0.22323 1.66612 77 72 68 
0.217424 0.260361 1.68565 16 11 8 
-0.306307 0.309473 1.73918 4 2 3 
0.199608 0.304111 1.66085 11 3 0 
-0.194711 0.337812 1.64929 42 38 37 
-0.181021 0.339116 1.6266 119 112 104 
0.052209 0.340274 1.59847 67 59 56 
0.188568 0.349279 1.62744 90 79 73 
-0.317941 0.387609 1.7194 0 0 4 
-0.261247 0.373851 1.66169 14 6 4 
-0.0404746 0.36111 1.5715 86 79 69 
-0.18442 0.373749 1.60114 132 123 114 
0.191782 0.383332 1.60867 27 23 24 
-0.338566 0.434917 1.73118 89 85 74 
-0.301802 0.439759 1.7063 123 127 139 
-0.233186 0.427401 1.61922 89 85 76 
-0.272597 0.467157 1.64912 41 42 46 
-0.184294 0.448674 1.55132 4 0 1 
-0.333333 0.534278 1.67809 175 112 9 
-0.125913 0.572918 1.44218 133 125 112 
-0.421455 0.531886 1.87394 76 75 71 
0.0487885 -1.96053 3.40585 114 105 96 
-0.118485 -1.63262 3.17876 78 74 63 
0.188466 -1.35961 2.98092 231 233 232 
-0.206249 -1.35504 2.99135 68 59 50 
-0.284118 -1.15483 2.70659 218 222 225 
-0.0123165 -0.99803 2.48158 107 104 99 
0.0960043 -0.836741 2.3304 52 43 34 
0.31383 -0.913634 2.68489 72 69 62 
-0.0648307 -0.564288 2.08042 88 87 83 
0.0625053 -0.562069 2.07205 71 66 60 
-0.0351845 -0.544799 2.06712 88 85 78 
0.18623 -0.485294 2.08125 7 6 12 
0.139359 -0.467157 2.07341 81 77 74 
-0.155765 -0.44805 2.05467 75 68 62 
0.214366 -0.412869 2.06766 90 87 82 
-0.09056 -0.399331 2.02262 77 78 70 
0.186573 -0.411842 2.05364 98 98 86 
0.261818 -0.27999 2.02624 107 103 100 
0.0694539 -0.203459 1.91398 103 93 84 
0.155803 -0.125186 1.90168 1 0 0 
-0.0749302 -0.0166633 1.80669 106 100 78 
0.302096 0.0536096 1.89214 87 82 76 
0.224483 0.064685 1.81093 91 90 86 
0.202844 0.0872738 1.78219 107 98 89 
0.0992645 0.224461 1.67657 77 72 68 
0.319309 0.278524 1.78338 21 16 12 
0.290614 0.403536 1.67776 92 92 82 
0.186701 0.389178 1.60103 75 73 61 
-0.12308 -1.67988 3.21081 224 228 231 
-0.144018 -1.56941 3.12118 92 88 79 
-0.133955 -1.57575 3.13715 94 92 80 
-0.154609 -1.49135 3.06041 63 60 51 
-0.375481 -0.78112 2.55224 219 224 220 
0.0720499 -0.63526 2.17264 7 7 5 
-0.394098 -0.684081 2.48007 70 70 60 
-0.236885 -0.587677 2.14719 1 0 0 
-0.249076 -0.57613 2.14764 17 15 16 
-0.235987 -0.569324 2.14463 98 95 88 
-0.0773506 -0.510033 2.13941 70 67 60 
-0.0965421 -0.456773 2.06342 88 84 81 
0.0111453 -0.449544 2.03455 6 6 8 
-0.241844 -0.456333 2.09134 63 62 60 
0.095851 -0.44536 2.04771 2 2 2 
-0.263376 -0.202511 2.00893 93 84 69 
0.196893 -0.164588 1.93542 88 78 68 
-0.0932958 -0.155052 1.8792 121 117 114 
-0.187247 -0.0426296 1.86585 86 83 76 
-0.204848 -0.0232633 1.8665 6 0 0 
0.109049 0.0148938 1.78952 80 77 70 
0.251382 0.404133 1.6345 97 90 82 
-0.263403 0.596124 1.56467 26 27 29 
-0.0652218 -1.99437 3.35334 56 53 46 
-0.0122601 -1.9424 3.32069 29 33 32 
-0.166111 -1.49195 3.06499 86 87 81 
0.303873 -1.02113 2.69862 89 91 78 
-0.39344 -0.737326 2.52356 216 221 224 
-0.191757 -0.598262 2.12782 1 1 1 
-0.161144 -0.475697 2.06248 81 78 73 
-0.262397 -0.455497 2.111 1 3 0 
0.194272 0.0828033 1.78982 91 83 72 
0.297252 0.268374 1.77703 18 14 13 
-0.280172 0.371712 1.67116 1 1 1 
-0.254763 0.392024 1.64784 93 97 96 
-0.247893 0.416957 1.63874 32 33 37 
0.0581226 -2.03194 3.45279 42 38 39 
-0.107413 -1.70408 3.22276 70 67 62 
0.180081 -1.37495 3.00612 35 36 31 
-0.321093 -0.988661 2.62627 65 64 59 
-0.388018 -0.797542 2.56611 216 220 223 
-0.36307 -0.797665 2.56648 95 93 81 
0.112167 -0.612223 2.1136 2 2 4 
0.0673698 -0.597908 2.11007 95 91 88 
-0.248728 0.350031 1.5933 98 90 79 
-0.251616 0.365071 1.66201 110 103 93 
-0.0915007 -1.98489 3.5453 215 217 216 
0.173162 -0.478425 2.07458 4 3 8 
-0.00489721 -0.221705 1.91226 1 1 3 
-0.305915 0.667159 1.60265 3 7 10 
-0.292216 -1.15397 2.68308 216 220 223 
-0.394967 -0.785808 2.54367 216 220 223 
-0.396422 -0.748804 2.55878 216 220 223 
0.380184 0.282395 1.9243 93 89 78 
0.0348674 -2.09578 3.53817 35 32 27 
-0.0752471 -1.98054 3.46254 63 58 54 
-0.293566 0.121227 1.91193 98 91 73 
0.396225 0.195045 1.96676 226 228 227 
-0.256868 0.4782 1.61379 64 56 54 
-0.199963 -0.533952 2.10213 23 18 15 
-0.297898 -0.412417 2.12588 89 89 89 
0.0371327 0.0310022 1.80666 124 114 105 
-0.272722 0.42387 1.66723 31 34 41 
-0.298571 0.456311 1.68002 29 31 26 
-0.273064 0.499022 1.63588 116 115 111 
-0.27384 0.552724 1.61114 107 108 110 
-0.00974608 -1.99221 3.51531 36 34 37 
-0.308556 -0.409131 2.14016 93 93 85 
-0.171613 -0.225689 1.95635 19 15 12 
-0.154216 -0.217531 1.94383 21 18 13 
-0.14662 -0.111393 1.88216 103 99 96 
-0.097541 0.271429 1.65657 105 95 94 
-0.299689 0.430631 1.69553 33 35 47 
-0.290902 0.447143 1.67743 49 50 55 
-0.295532 0.4683 1.67263 36 37 32 
-0.266092 0.461115 1.64579 105 104 99 
-0.247668 0.460938 1.62294 149 154 150 
-0.263584 0.549201 1.60003 96 97 99 
-0.275746 0.566473 1.60542 101 102 104 
0.00668858 0.618933 1.34689 119 111 100 
0.127278 0.670176 1.34127 3 0 0 
-0.334112 -0.540391 2.2144 83 80 75 
-0.26255 -0.510725 2.12811 93 93 85 
-0.330241 -0.49942 2.19305 37 33 30 
-0.0411989 -0.371942 2.00219 78 75 70 
0.184896 -0.371062 2.04772 99 98 94 
-0.28956 -0.155816 2.0013 92 82 72 
-0.323361 -0.138069 2.02997 102 96 82 
-0.315225 -0.125162 2.01893 91 85 73 
0.0172511 0.138712 1.72082 104 101 94 
-0.286225 0.414172 1.68594 39 43 44 
-0.2178 -1.00479 2.51157 33 29 28 
0.062078 -0.60444 2.10942 93 92 88 
-0.000567988 -0.500789 2.04939 14 14 16 
-0.147959 -0.487256 2.05813 9 14 17 
-0.254242 -0.187921 1.98461 24 18 18 
0.070085 -0.160886 1.90097 89 84 80 
-0.325826 0.394867 1.72036 94 90 81 
-0.0360203 -2.08295 3.537 132 124 113 
-0.0825062 -0.483197 2.03173 80 77 72 
-0.30835 -0.434678 2.13825 84 83 81 
-0.0500406 -2.13823 3.53148 211 215 218 
-0.0290784 -0.547659 2.0684 101 97 94 
-0.0547094 -2.18123 3.50474 210 215 218 
-0.323542 -0.401107 2.16861 81 78 73 
