ply                 
format ascii 1.0    
element vertex 1281
property float x    
property float y    
property float z    
property uchar red  
property uchar green
property uchar blue 
end_header          
0.077267 -0.935875 2.40989 26 24 12 
-0.103516 -0.903826 2.37261 124 120 111 
0.295345 -0.97996 2.63818 75 76 71 
-0.313604 -0.951082 2.59519 222 220 221 
0.295412 -0.970832 2.63061 218 219 221 
0.0240328 -0.819433 2.30482 130 122 109 
-0.0305682 -0.818023 2.30399 141 132 123 
-0.13555 -0.726313 2.19703 17 8 0 
0.0333821 -0.73474 2.22514 145 142 127 
0.0703336 -0.710889 2.19601 35 25 15 
0.0847704 -0.588811 2.09621 12 5 0 
-0.0132951 -0.553397 2.06525 3 2 0 
0.0290456 -0.554731 2.0692 4 0 0 
-0.0686168 -0.552021 2.07253 4 0 0 
-0.0964654 -0.52731 2.06346 8 0 0 
-0.19894 -0.535733 2.10793 9 4 0 
0.239125 -0.534487 2.1399 16 8 6 
-0.121559 -0.454818 2.05695 3 0 0 
-0.0104054 -0.430826 2.0262 4 0 0 
0.209131 -0.433458 2.0612 11 2 0 
-0.364924 -0.435781 2.2201 15 12 5 
-0.297016 -0.414347 2.13642 96 92 89 
-0.269107 -0.412472 2.12768 3 0 0 
-0.0445552 -0.384121 2.00419 117 117 109 
-0.0718989 -0.375294 2.0043 5 1 0 
-0.184062 -0.349808 2.03077 3 0 0 
0.183219 -0.345707 2.017 112 111 106 
-0.289877 -0.357546 2.12047 3 0 0 
0.0603368 -0.318359 1.97509 6 5 1 
0.204226 -0.291479 1.98603 7 0 0 
-0.282883 -0.294763 2.07996 12 7 3 
-0.115116 -0.275006 1.96227 5 2 0 
-0.260118 -0.24676 2.02813 7 0 0 
-0.277835 -0.201105 2.01588 8 3 0 
-0.314746 -0.18717 2.05106 6 0 0 
-0.266232 -0.183265 2.0021 17 10 2 
-0.286434 -0.165892 2.01175 8 0 0 
0.0960354 -0.159135 1.90178 109 105 102 
-0.0563799 -0.153269 1.8779 113 104 99 
-0.313939 -0.162441 2.04721 15 5 0 
-0.295206 -0.158285 2.0161 11 5 0 
-0.275741 -0.154477 1.9936 11 3 1 
-0.289124 -0.151687 2.01067 8 1 0 
0.0741126 -0.14353 1.87563 12 3 0 
-0.315157 -0.139799 2.03342 7 0 0 
-0.335374 -0.122582 2.05012 7 2 0 
0.0993052 -0.102226 1.85651 108 103 99 
-0.338359 0.00300513 1.99575 5 4 0 
0.0366455 0.0143926 1.80673 125 117 106 
0.259986 0.0193844 1.86071 4 0 0 
0.036925 0.0286293 1.80599 147 137 128 
-0.370323 0.0520513 2.03351 32 23 16 
0.253014 0.0453376 1.83834 112 104 101 
0.00236785 0.0682931 1.77267 166 162 150 
-0.275359 0.087354 1.88728 160 154 140 
-0.314753 0.106444 1.92672 134 128 114 
-0.351587 0.139437 1.95358 5 5 0 
0.0123441 0.132308 1.72272 4 2 3 
-0.337768 0.152989 1.91904 39 32 24 
-0.184141 0.219486 1.73112 9 0 0 
-0.211589 0.227538 1.74054 91 87 86 
-0.0917355 0.220814 1.69013 6 0 0 
0.268759 0.309363 1.71829 23 11 0 
-0.284545 0.324146 1.71628 18 13 7 
-0.14231 0.321958 1.65467 9 6 0 
0.235986 0.336931 1.67087 24 20 9 
-0.180576 0.339024 1.65381 125 120 114 
-0.238879 0.348407 1.66555 48 41 33 
0.0888703 0.342607 1.61385 140 136 127 
-0.274622 0.363852 1.68285 4 0 0 
-0.269782 0.363873 1.67988 119 112 104 
0.0613978 0.349702 1.59964 130 122 109 
-0.049337 0.349921 1.60009 134 123 117 
-0.319948 0.384291 1.72294 2 2 4 
-0.325818 0.389637 1.72874 91 86 82 
-0.244687 0.383541 1.65153 6 2 1 
-0.250285 0.392133 1.67088 110 110 110 
-0.259807 0.396662 1.67868 99 101 100 
-0.270058 0.405536 1.68082 32 39 47 
-0.254079 0.40217 1.66918 164 168 169 
-0.277082 0.41221 1.69005 37 44 52 
-0.263354 0.414162 1.67061 26 29 48 
-0.255878 0.414853 1.66462 16 20 29 
-0.304107 0.426758 1.71012 134 137 144 
-0.314859 0.431435 1.72147 18 21 28 
-0.276541 0.421785 1.68416 121 125 134 
-0.029047 0.390494 1.5585 143 139 127 
0.0472642 0.391915 1.55972 115 107 96 
-0.29369 0.42834 1.69742 20 24 35 
-0.273166 0.423695 1.67417 40 44 53 
-0.326767 0.442407 1.72739 125 124 122 
-0.254665 0.424535 1.65802 126 130 133 
-0.2795 0.431308 1.68283 30 34 43 
-0.235022 0.415152 1.61838 100 92 89 
-0.313186 0.440552 1.71464 140 144 155 
-0.211772 0.412938 1.60027 117 113 102 
-0.245554 0.426932 1.64891 124 123 119 
-0.275414 0.4364 1.67411 175 176 180 
-0.322447 0.450571 1.72094 21 17 18 
-0.285901 0.444704 1.68258 140 141 143 
-0.298565 0.448768 1.69391 34 34 46 
-0.260252 0.439931 1.65486 149 153 156 
-0.293874 0.449483 1.68568 37 39 36 
-0.267622 0.443744 1.66237 130 132 129 
-0.279833 0.448238 1.67386 172 174 173 
-0.310247 0.46414 1.70179 154 154 152 
-0.301071 0.462462 1.69094 43 43 41 
-0.231895 0.440239 1.60459 16 7 0 
-0.284687 0.461399 1.67328 25 23 26 
-0.277187 0.460071 1.66517 41 41 39 
-0.296702 0.467529 1.68369 27 26 22 
-0.306638 0.47107 1.69319 156 157 152 
-0.286683 0.470721 1.66639 147 149 148 
-0.248007 0.461221 1.63023 161 166 159 
-0.295457 0.475619 1.67299 44 49 43 
-0.316207 0.483066 1.69782 68 66 67 
-0.300959 0.482714 1.68263 32 33 35 
-0.258713 0.472257 1.63744 115 116 110 
-0.288919 0.483241 1.66756 35 41 37 
-0.311336 0.498814 1.68579 137 139 138 
-0.302624 0.496467 1.67769 119 121 116 
0.0196445 0.452749 1.52301 123 119 110 
-0.281291 0.50064 1.65162 120 121 115 
-0.273549 0.498224 1.64058 125 126 121 
-0.312165 0.514729 1.68164 42 37 34 
-0.301656 0.517803 1.66597 120 117 108 
-0.329466 0.528019 1.67734 167 122 41 
-0.161485 0.493978 1.5328 11 6 0 
-0.133341 0.490767 1.52365 140 131 126 
-0.307128 0.551742 1.65379 99 108 103 
-0.260615 0.540338 1.61081 124 126 123 
-0.274663 0.553502 1.62006 102 103 107 
-0.26187 0.565535 1.59817 121 120 126 
-0.265502 0.573914 1.60258 123 120 127 
0.00194932 0.533389 1.46188 141 132 125 
-0.137763 0.555383 1.46935 111 107 96 
-0.313312 0.62851 1.63228 126 127 122 
-0.27738 0.615623 1.59714 120 119 125 
-0.360291 0.647962 1.62282 15 11 0 
-0.156402 0.592502 1.45502 135 131 120 
-0.0517316 -1.90042 3.26437 53 48 44 
0.0304874 -1.87994 3.27249 32 28 29 
-0.0653142 -1.79105 3.21545 58 53 49 
-0.0948472 -1.69859 3.19158 73 73 65 
-0.111894 -1.63856 3.14244 72 72 64 
-0.13153 -1.59462 3.11543 223 227 228 
-0.152359 -1.51491 3.05185 224 226 221 
0.0237637 -1.43463 2.89942 58 53 47 
-0.178418 -1.42476 2.98837 228 233 229 
-0.122468 -1.24309 2.71745 148 142 130 
-0.25495 -1.1616 2.63615 225 227 226 
-0.0685356 -1.15874 2.62624 125 116 107 
0.239541 -1.16797 2.67974 71 76 69 
-0.269715 -1.11502 2.62684 226 226 224 
0.246895 -1.12769 2.65444 221 225 224 
0.0487079 -1.05091 2.5222 146 135 115 
0.259641 -1.11392 2.66703 99 99 87 
-0.184575 -1.01046 2.4859 101 98 89 
0.268385 -1.08068 2.65709 217 221 220 
0.0575452 -0.990708 2.45352 27 22 16 
-0.127187 -0.978085 2.44454 130 122 111 
0.280496 -1.06329 2.66488 77 77 67 
-0.228263 -1.00096 2.52914 21 11 10 
-0.0715691 -0.944329 2.41743 114 107 101 
0.280166 -1.03217 2.64717 65 66 61 
0.288427 -1.0288 2.65247 224 228 227 
-0.176217 -0.936044 2.43961 31 28 21 
-0.152147 -0.920696 2.39868 54 47 41 
-0.100309 -0.920896 2.39812 9 8 3 
-0.0976036 -0.90083 2.37441 54 47 37 
0.119408 -0.902397 2.38427 136 128 117 
0.048453 -0.884548 2.3665 18 10 8 
-0.316549 -0.968746 2.61992 5 2 0 
-0.0934483 -0.860325 2.34177 139 130 123 
0.260339 -0.94484 2.57676 26 16 14 
-0.0661155 -0.8512 2.33531 19 15 12 
0.0856238 -0.826971 2.3108 34 26 15 
0.10456 -0.82935 2.31867 20 7 0 
-0.147882 -0.803481 2.28697 22 18 7 
0.113392 -0.779979 2.27378 34 29 23 
-0.134928 -0.730643 2.21073 14 1 0 
0.0327989 -0.709354 2.19076 145 141 130 
-0.0224759 -0.656008 2.12042 141 133 112 
0.0046025 -0.604721 2.09426 95 90 84 
-0.0988878 -0.569431 2.08289 16 9 3 
-0.202415 -0.570546 2.12391 8 1 0 
0.0717302 -0.557649 2.08021 7 4 0 
-0.0989866 -0.553069 2.07724 6 1 0 
-0.186758 -0.558967 2.11519 128 124 113 
-0.0127482 -0.536273 2.06095 6 2 1 
-0.0625133 -0.519203 2.05277 106 106 98 
-0.0532165 -0.516944 2.05064 81 77 68 
-0.0460389 -0.506063 2.0437 69 60 51 
-0.333097 -0.540322 2.22191 88 84 81 
0.252005 -0.525613 2.13989 11 7 4 
0.218047 -0.514103 2.10425 9 8 6 
-0.2223 -0.509619 2.10804 18 14 11 
-0.0682089 -0.495277 2.04264 74 70 61 
-0.0816886 -0.493354 2.04388 72 62 60 
0.093398 -0.49425 2.05003 84 80 69 
-0.329572 -0.517551 2.20987 6 0 0 
-0.285749 -0.493139 2.14784 7 0 0 
-0.327865 -0.499984 2.19325 24 24 22 
-0.295762 -0.491267 2.15957 23 17 17 
0.0198317 -0.464599 2.03442 67 66 62 
-0.108156 -0.46639 2.05651 93 88 84 
-0.0669516 -0.461269 2.03772 73 68 62 
0.0918213 -0.459879 2.04051 89 86 81 
0.105725 -0.459293 2.04435 86 81 75 
-0.101167 -0.433661 2.04191 84 80 71 
0.17495 -0.442421 2.07807 6 2 0 
-0.304056 -0.447327 2.14664 86 82 81 
-0.01319 -0.419421 2.02122 91 86 83 
0.18865 -0.427261 2.06102 11 0 0 
0.201797 -0.424006 2.05868 53 42 36 
0.160986 -0.419429 2.06153 3 0 0 
-0.0823131 -0.409136 2.02248 28 19 14 
0.173663 -0.419503 2.06786 12 4 1 
0.100642 -0.413132 2.0411 16 12 11 
-0.3126 -0.428311 2.14717 82 78 77 
-0.114085 -0.399413 2.02517 29 26 21 
0.0856071 -0.399605 2.02024 9 5 2 
-0.233278 -0.410439 2.10061 59 57 58 
0.190672 -0.399597 2.04126 38 35 28 
0.205065 -0.399352 2.04054 24 21 14 
-0.306986 -0.409678 2.14205 91 87 84 
-0.12911 -0.385828 2.02443 24 19 16 
0.181554 -0.368156 2.03002 121 117 108 
-0.176078 -0.357543 2.03119 95 91 88 
0.192326 -0.35387 2.01897 18 11 1 
0.0529923 -0.340737 1.98383 16 12 11 
0.294103 -0.361242 2.10264 124 119 115 
-0.239951 -0.347204 2.06307 3 0 0 
-0.353568 -0.369686 2.20528 8 8 6 
0.0580177 -0.32931 1.97953 18 14 11 
-0.264729 -0.338368 2.08409 34 30 27 
0.282619 -0.33703 2.07482 26 23 18 
0.191963 -0.320085 1.99534 1 1 0 
0.172816 -0.318781 2.014 7 2 0 
0.0909008 -0.310232 1.97718 96 90 90 
0.230291 -0.307818 2.0106 103 99 90 
0.190093 -0.29976 1.98802 126 122 111 
-0.246568 -0.301501 2.04645 121 116 110 
-0.259679 -0.301833 2.05864 14 9 3 
-0.275158 -0.30004 2.07676 11 3 1 
-0.226893 -0.287158 2.02848 99 98 94 
0.181406 -0.281515 1.98547 3 3 0 
-0.327114 -0.296496 2.13928 16 15 11 
-0.0963295 -0.26992 1.94918 4 0 0 
-0.282092 -0.27676 2.07502 2 1 0 
0.183921 -0.266811 1.97523 10 3 0 
-0.344039 -0.27868 2.14536 89 88 84 
-0.183571 -0.259263 1.98785 1 0 0 
-0.150787 -0.250732 1.96094 28 15 6 
-0.157661 -0.246516 1.9679 106 99 91 
0.0894485 -0.243066 1.9392 96 91 87 
-0.130355 -0.240778 1.94746 113 110 103 
0.279581 -0.251471 2.02398 125 121 110 
-0.450303 -0.283105 2.43818 227 228 230 
-0.141803 -0.228627 1.9567 97 94 89 
-0.171028 -0.227598 1.95735 10 5 1 
-0.269888 -0.232922 2.02766 9 0 0 
-0.0265595 -0.220601 1.91296 3 0 0 
0.0611159 -0.216734 1.91581 21 11 9 
0.0998338 -0.217178 1.92552 89 84 81 
0.181755 -0.217286 1.94035 23 19 20 
-0.260607 -0.214312 2.01536 35 26 19 
-0.031147 -0.202331 1.91074 102 97 93 
-0.31679 -0.215317 2.07941 15 7 4 
0.0608664 -0.196818 1.91195 5 2 0 
0.178514 -0.199622 1.94546 33 29 18 
-0.109472 -0.190872 1.92002 30 29 27 
0.190213 -0.193211 1.93152 13 4 0 
0.0759468 -0.188745 1.90228 101 92 83 
0.180617 -0.192855 1.93712 93 88 84 
-0.121001 -0.185536 1.93017 101 97 94 
-0.0709867 -0.182149 1.89916 29 22 16 
-0.254254 -0.188727 1.99275 19 9 7 
0.207677 -0.18501 1.93297 32 27 21 
0.184121 -0.184031 1.93671 3 0 0 
0.195469 -0.180455 1.92144 112 107 101 
-0.282911 -0.182101 2.01619 90 83 73 
0.186439 -0.173124 1.93137 3 0 0 
0.206967 -0.171817 1.92225 7 0 0 
-0.334674 -0.180907 2.08125 18 5 0 
-0.270427 -0.175143 2.01185 5 0 0 
-0.185523 -0.167187 1.93516 11 6 2 
-0.317411 -0.176215 2.05697 21 16 12 
0.0754529 -0.1641 1.8885 24 14 12 
0.0697943 -0.162344 1.89286 86 77 70 
0.202833 -0.162431 1.91543 141 128 119 
0.0956617 -0.149644 1.8891 13 10 5 
0.109374 -0.149148 1.89182 4 0 0 
-0.329361 -0.14859 2.06418 6 0 0 
-0.130244 -0.13671 1.88897 108 104 95 
-0.302828 -0.144718 2.02145 8 3 0 
-0.0557476 -0.135945 1.87899 78 71 63 
-0.254996 -0.138862 1.96674 97 93 84 
-0.288044 -0.139995 2.00387 111 104 98 
-0.278686 -0.138665 1.99305 33 30 25 
-0.322803 -0.140173 2.04091 97 90 72 
-0.30418 -0.131641 2.01497 99 94 90 
-0.147872 -0.121015 1.88882 115 111 102 
-0.314148 -0.126701 2.02426 96 91 85 
-0.325253 -0.120984 2.03732 91 86 82 
0.0821867 -0.112344 1.86277 89 86 77 
-0.312001 -0.116723 2.02068 103 99 90 
-0.102426 -0.102843 1.86144 19 15 6 
-0.0706115 -0.101791 1.86217 95 90 87 
0.0854219 -0.0999897 1.86118 8 0 0 
0.12944 -0.0985967 1.86909 101 98 91 
-0.333977 -0.104958 2.04701 101 91 90 
-0.127921 -0.0944665 1.86842 111 102 97 
0.241634 -0.0987774 1.91403 99 96 91 
-0.154109 -0.0945271 1.8832 6 1 0 
-0.166605 -0.091483 1.88384 11 7 0 
-0.125184 -0.0836403 1.86098 85 76 71 
0.0918673 -0.0817758 1.84877 10 5 1 
-0.285496 -0.082094 1.97167 41 35 35 
-0.0628426 -0.0626831 1.83304 11 7 6 
-0.0799216 -0.0600148 1.83386 16 13 8 
-0.330614 -0.0644377 2.02141 68 65 60 
-0.305304 -0.062559 1.98341 24 23 21 
-0.169515 -0.0512401 1.87098 8 7 5 
0.117544 -0.0487229 1.83791 96 92 91 
0.3053 -0.0501556 1.94716 31 23 20 
-0.126191 -0.0428932 1.84725 27 23 20 
-0.102858 -0.0432298 1.83745 9 5 4 
0.282359 -0.0383222 1.91446 7 0 0 
0.202373 -0.0130812 1.83945 7 0 0 
0.134261 -0.0127271 1.8269 92 87 84 
-0.185144 -0.00707352 1.84651 10 5 1 
0.121673 -0.00455386 1.81366 130 121 116 
-0.275714 -0.0017353 1.92374 15 11 8 
-0.113667 0.0171172 1.80577 7 6 2 
-0.35552 0.0248924 2.01726 79 71 69 
0.0747449 0.0219588 1.78884 18 13 9 
-0.0656532 0.0266723 1.78515 103 99 90 
0.280436 0.0298797 1.87669 92 83 74 
-0.268696 0.0394245 1.89036 101 94 86 
-0.246882 0.0391046 1.86901 7 6 4 
-0.147581 0.0404556 1.8112 81 74 68 
0.193496 0.0484946 1.80616 96 85 79 
0.261731 0.0545464 1.84156 109 104 98 
0.238524 0.0577637 1.82026 93 86 76 
0.282832 0.0668074 1.8574 5 0 0 
-0.326343 0.0729134 1.95531 2 1 0 
-0.211536 0.0675939 1.82884 108 105 98 
-0.269003 0.0783106 1.88277 137 133 121 
-0.0931373 0.075809 1.76702 104 100 91 
-0.35026 0.086283 1.97354 34 31 22 
-0.252262 0.0882006 1.85789 127 124 107 
0.19935 0.0941996 1.7731 14 10 0 
-0.337579 0.108496 1.9454 110 100 90 
-0.325282 0.116688 1.91845 93 86 78 
0.195108 0.112839 1.76111 109 99 90 
0.0832924 0.119204 1.73633 97 92 86 
-0.0106517 0.128733 1.72109 9 1 0 
0.221565 0.13555 1.76622 7 2 0 
0.300272 0.149227 1.83753 49 42 34 
0.0163158 0.141669 1.71376 99 90 85 
0.295997 0.153016 1.82006 90 83 75 
0.314227 0.167451 1.83779 39 30 21 
0.301685 0.175911 1.82632 15 11 8 
0.318503 0.177639 1.83915 115 105 95 
0.293662 0.181535 1.81077 10 6 3 
-0.135437 0.180951 1.72796 3 0 0 
-0.100703 0.187016 1.70786 4 1 0 
-0.201857 0.194773 1.75828 20 13 5 
-0.121011 0.190636 1.71306 6 1 0 
-0.0866149 0.200343 1.69544 23 18 14 
-0.0762493 0.201584 1.70265 14 6 4 
-0.130433 0.210164 1.70966 89 85 76 
-0.220471 0.218019 1.75398 10 5 0 
0.0738311 0.214192 1.68476 28 20 17 
-0.00491306 0.224713 1.67183 11 6 2 
0.150395 0.22907 1.7023 91 84 78 
0.2282 0.24463 1.70603 149 145 133 
0.289746 0.261268 1.7588 7 0 0 
0.323855 0.277126 1.80129 22 13 6 
-0.0974158 0.270154 1.6647 110 103 95 
0.253478 0.282972 1.71203 19 15 4 
0.0787616 0.275934 1.65557 14 8 8 
-0.0166715 0.275455 1.64897 101 92 83 
-0.0875868 0.281969 1.65786 3 0 0 
-0.154989 0.29558 1.67299 111 108 101 
0.0188316 0.321169 1.62417 104 100 89 
-0.018818 0.322276 1.6213 113 105 94 
0.180645 0.331032 1.66349 88 80 69 
0.0625054 0.329664 1.62033 17 13 10 
-0.00991518 0.32895 1.61559 13 8 2 
0.0281354 0.329461 1.61638 134 131 124 
0.262518 0.347834 1.68704 15 10 4 
-0.181121 0.336065 1.63162 114 110 98 
0.0992177 0.335473 1.62459 77 73 64 
-0.25316 0.374042 1.65952 2 1 0 
0.0877461 0.360568 1.59688 147 144 129 
0.288447 0.384668 1.6893 15 10 6 
0.142915 0.366715 1.60629 100 92 89 
0.239699 0.377298 1.65362 19 13 13 
0.188685 0.372648 1.62688 25 21 22 
-0.3256 0.395527 1.72383 105 97 94 
0.0744874 0.367835 1.58529 6 0 0 
0.0629046 0.367166 1.58075 4 1 0 
0.206555 0.376493 1.6197 10 2 0 
-0.171836 0.379151 1.61361 116 113 104 
-0.248709 0.397703 1.66246 153 158 154 
-0.0690178 0.38272 1.5682 21 18 9 
-0.177751 0.397704 1.59503 136 133 124 
-0.0819393 0.396921 1.56474 109 106 97 
-0.301485 0.43681 1.70423 128 131 146 
-0.235376 0.417259 1.62827 105 97 94 
-0.264204 0.42829 1.66682 113 116 121 
-0.291151 0.439975 1.69267 30 35 39 
-0.316066 0.452724 1.71141 111 114 119 
0.115788 0.41737 1.56319 24 20 17 
-0.044059 0.418147 1.54701 98 89 80 
-0.304291 0.455892 1.67106 141 142 136 
-0.261629 0.462908 1.64614 58 53 49 
-0.308485 0.480794 1.69112 109 113 112 
-0.103912 0.439195 1.54317 4 0 0 
0.092074 0.443631 1.54279 101 91 89 
0.00200346 0.450002 1.53014 100 96 85 
-0.336557 0.504624 1.70433 92 93 79 
-0.297334 0.508977 1.66687 127 126 124 
-0.0606985 0.465931 1.5191 128 123 119 
-0.282841 0.513655 1.64709 94 99 93 
-0.158469 0.481444 1.54134 114 102 90 
-0.128926 0.47988 1.52671 16 8 5 
-0.0761031 0.476313 1.51661 5 0 0 
-0.291402 0.527662 1.64637 109 112 95 
-0.328936 0.537917 1.6672 4 0 1 
-0.289049 0.538824 1.64309 115 117 103 
-0.0867046 0.496 1.50532 106 98 95 
-0.252105 0.534576 1.60265 90 102 92 
-0.214458 0.51871 1.549 46 42 39 
0.228252 0.526082 1.56457 96 93 84 
-0.264434 0.550286 1.60975 111 115 114 
-0.0422141 0.511626 1.47902 136 125 121 
0.214259 0.537064 1.53965 113 109 100 
-0.267849 0.560439 1.60903 110 111 116 
-0.00205112 0.521711 1.47158 37 29 18 
-0.173908 0.541699 1.49933 14 9 5 
-0.0434212 0.545612 1.4553 111 107 96 
-0.175478 0.56048 1.4851 14 10 7 
-0.088711 0.560164 1.45669 106 97 88 
0.109725 0.562987 1.45912 101 94 84 
-0.269449 0.612117 1.58564 97 100 107 
-0.0221819 0.566255 1.44182 136 127 118 
-0.0780665 0.571492 1.44662 103 95 82 
-0.152212 0.579355 1.46063 16 13 6 
-0.181189 0.583279 1.46904 102 101 96 
0.315815 0.64703 1.54172 124 121 116 
-0.275292 0.664426 1.55281 1 0 0 
-0.447757 0.800546 1.77605 50 51 45 
-0.0537126 -1.82736 3.25917 42 40 41 
-0.101385 -1.24265 2.69379 136 128 117 
-0.00878671 -0.934966 2.40608 42 42 40 
-0.0252804 -0.916581 2.38515 95 87 76 
0.0964666 -0.924284 2.40465 152 144 131 
0.0299103 -0.88317 2.367 109 100 93 
-0.327047 -0.924945 2.63683 226 226 226 
-0.373589 -0.752074 2.52318 71 72 67 
-0.0605973 -0.599621 2.08948 92 83 74 
0.0852143 -0.598625 2.10397 94 89 83 
-0.031176 -0.471995 2.04992 26 25 23 
-0.329129 -0.502238 2.205 24 24 24 
0.194001 -0.478616 2.08199 95 96 90 
0.156896 -0.410949 2.05425 99 96 91 
-0.04219 -0.369187 1.98329 55 54 50 
0.295848 -0.362431 2.11001 111 108 103 
-0.0916101 -0.32574 1.97844 34 29 25 
0.209704 -0.323622 2.00385 38 33 30 
-0.199534 -0.309649 2.02068 5 0 0 
-0.126789 -0.302625 1.9802 21 18 13 
-0.141994 -0.226811 1.94242 98 89 82 
-0.297688 -0.210708 2.04331 10 2 0 
0.16428 -0.190222 1.9416 98 93 89 
-0.323471 -0.182241 2.06419 87 81 69 
0.189199 -0.174822 1.94882 4 0 0 
-0.260819 -0.172625 1.99602 85 76 61 
-0.265199 -0.153867 1.986 5 2 0 
0.222041 -0.150528 1.92247 11 10 6 
0.0924006 -0.142929 1.88127 91 87 84 
-0.322062 -0.131755 2.03555 5 5 5 
0.080292 -0.0516902 1.82902 76 67 58 
0.3053 -0.0501556 1.94716 31 23 20 
-0.148431 -0.0155111 1.83587 35 26 21 
-0.338635 -0.0132686 2.00964 94 86 83 
-0.0936961 -0.00861033 1.82392 4 0 0 
0.204411 0.0328352 1.80731 109 100 93 
0.205786 0.0415953 1.80523 49 40 33 
-0.24417 0.0544201 1.85749 94 91 84 
-0.245226 0.0803673 1.85029 33 24 15 
-0.325886 0.0910165 1.92833 83 83 75 
-0.325804 0.142305 1.90083 74 69 65 
0.188043 0.130834 1.75797 16 16 14 
0.209575 0.13286 1.75923 4 0 0 
-0.321872 0.161245 1.88803 12 8 7 
-0.0273208 0.195072 1.69116 12 7 3 
0.12776 0.236917 1.68744 95 87 76 
0.271853 0.316872 1.71036 49 45 36 
0.208964 0.32051 1.65704 25 21 12 
0.187832 0.357429 1.64557 4 0 0 
-0.0681101 0.36075 1.58791 15 12 7 
-0.286833 0.414229 1.69549 34 38 39 
0.223169 0.408644 1.62206 86 82 73 
-0.351693 0.477266 1.71809 110 107 98 
-0.280039 0.488555 1.65008 161 159 160 
-0.179526 0.497464 1.5428 14 10 11 
-0.250045 0.520466 1.60476 67 85 71 
-0.140087 0.513931 1.50539 87 84 75 
-0.269845 0.587962 1.59904 32 32 34 
0.383413 0.738751 1.4963 46 43 26 
-0.0394968 -1.91851 3.26648 122 118 109 
0.175026 -1.37533 2.97982 224 228 229 
-0.118797 -1.23225 2.68996 143 134 125 
0.236876 -1.16214 2.66706 75 78 71 
-0.273072 -1.11973 2.63723 219 220 222 
0.2506 -1.13324 2.66609 215 218 223 
0.257156 -1.10897 2.6567 86 84 69 
-0.175317 -1.0167 2.48648 4 3 11 
0.280163 -1.0671 2.67284 83 83 73 
-0.315962 -0.967353 2.60984 83 84 78 
0.107163 -0.816241 2.30712 115 111 99 
0.0774442 -0.812444 2.29921 130 123 113 
0.0603166 -0.599632 2.09441 100 97 92 
0.0637295 -0.564264 2.07918 54 49 46 
-0.233379 -0.574674 2.15005 91 88 81 
-0.166706 -0.56017 2.10297 10 6 3 
-0.0614726 -0.542815 2.06553 109 108 103 
0.115388 -0.489915 2.04707 3 2 7 
0.104641 -0.491202 2.05697 93 86 80 
-0.146979 -0.488476 2.06073 1 1 1 
-0.0700046 -0.484878 2.0417 64 56 45 
-0.176559 -0.482211 2.06818 1 1 1 
0.140047 -0.469083 2.07959 76 73 66 
0.166054 -0.466513 2.09536 80 79 75 
-0.154514 -0.448556 2.0519 71 70 65 
-0.0789952 -0.446161 2.04185 7 6 4 
0.15427 -0.442797 2.066 95 91 88 
-0.149054 -0.4341 2.05471 0 1 0 
-0.160048 -0.435002 2.06566 4 4 2 
0.177455 -0.435464 2.07348 43 38 34 
-0.0234926 -0.406834 2.01283 88 84 81 
-0.226815 -0.418802 2.09177 0 0 4 
-0.260587 -0.417049 2.12529 86 81 75 
0.174334 -0.396399 2.05142 50 49 47 
0.163805 -0.394281 2.05278 93 90 81 
-0.289921 -0.397606 2.13241 0 2 1 
0.0841045 -0.367055 2.00089 86 82 79 
0.0965185 -0.350356 2.00206 92 89 84 
0.193014 -0.322285 2.0052 1 1 0 
0.26483 -0.28362 2.04149 92 88 85 
0.193791 -0.261531 1.9684 90 78 62 
-0.0115653 -0.242424 1.92508 85 80 74 
-0.449802 -0.294449 2.43476 25 26 21 
0.0227354 -0.207499 1.94258 12 16 15 
0.0410435 -0.202056 1.90571 90 85 81 
0.100236 -0.202844 1.91836 78 69 62 
-0.257661 -0.204404 1.99898 103 94 79 
0.177379 -0.190513 1.91766 93 89 86 
-0.321289 -0.199743 2.07177 106 97 80 
0.0900825 -0.18141 1.90367 9 10 5 
0.0958048 -0.17072 1.89887 104 101 96 
-0.272569 -0.171579 2.00001 3 2 0 
0.190381 -0.165603 1.91562 135 125 113 
0.228555 -0.159766 1.93061 115 114 110 
0.209873 -0.154734 1.90815 13 10 3 
-0.319658 -0.149611 2.07143 89 81 70 
0.116933 -0.135774 1.88761 6 2 3 
0.205853 -0.134508 1.90739 24 20 19 
-0.173407 -0.112523 1.90179 103 100 95 
0.167866 -0.115463 1.90159 74 71 66 
-0.0923944 -0.0976987 1.8657 105 102 97 
0.128444 0.00373917 1.81494 47 44 39 
0.193448 0.00612981 1.82601 82 72 70 
0.0756206 0.0144462 1.79325 68 64 53 
0.147841 0.0249296 1.80954 62 57 54 
0.0767223 0.0295878 1.78445 81 74 64 
0.131129 0.0293205 1.80069 52 48 45 
0.324909 0.0524918 1.90683 95 91 82 
0.119015 0.0515172 1.78683 32 25 17 
-0.253143 0.0551236 1.86074 0 0 0 
0.224682 0.0650158 1.80076 84 83 78 
0.247322 0.0721688 1.81104 87 77 75 
-0.150873 0.0737824 1.79144 14 9 6 
0.185892 0.0838699 1.78101 86 78 67 
0.0717073 0.0893473 1.75052 3 0 0 
0.241347 0.115494 1.7926 3 0 0 
0.224082 0.136531 1.77416 3 0 0 
0.389526 0.170875 1.97069 61 60 55 
-0.0870691 0.171673 1.70526 6 0 0 
0.0521186 0.177657 1.69911 11 6 2 
-0.111902 0.19511 1.70978 86 83 78 
-0.10596 0.20094 1.70194 25 16 9 
-0.117449 0.215585 1.69697 6 1 0 
0.0983723 0.222234 1.67887 78 73 67 
0.218219 0.258596 1.69039 16 11 8 
-0.306728 0.30827 1.74716 4 2 3 
0.200577 0.302768 1.6664 6 2 0 
-0.195023 0.337122 1.65804 42 38 37 
-0.181338 0.338573 1.63566 119 112 104 
0.0529893 0.339569 1.6063 67 59 56 
0.191175 0.349852 1.64172 97 86 80 
-0.31852 0.386823 1.7278 0 0 4 
-0.261852 0.37334 1.67067 14 6 4 
-0.039982 0.36147 1.58249 99 92 82 
-0.184829 0.37355 1.61049 132 123 114 
0.193684 0.383536 1.61863 16 12 9 
-0.339162 0.434242 1.7395 89 85 74 
-0.302381 0.439258 1.71485 123 127 139 
-0.233815 0.427437 1.62863 89 85 76 
-0.27332 0.467223 1.65839 41 42 46 
-0.184851 0.449307 1.5612 4 0 1 
-0.334209 0.534452 1.68713 175 112 9 
-0.126283 0.575438 1.45265 133 125 112 
-0.421311 0.530266 1.8799 76 75 71 
0.0466621 -1.90226 3.32698 114 105 96 
-0.115898 -1.5926 3.11975 78 74 63 
0.183683 -1.32983 2.93127 231 233 232 
-0.202077 -1.32739 2.94618 68 59 50 
-0.279704 -1.13828 2.67936 218 222 225 
-0.0121933 -0.987528 2.46343 107 104 99 
0.0954469 -0.831744 2.322 36 26 24 
0.307815 -0.898786 2.65125 72 69 62 
-0.0643068 -0.563895 2.07855 88 87 83 
0.0624014 -0.56145 2.06917 71 66 60 
-0.0348361 -0.544337 2.06435 95 92 87 
0.185296 -0.484588 2.07649 7 6 12 
0.138778 -0.46675 2.06944 81 77 74 
-0.154953 -0.448857 2.05581 65 64 59 
0.213069 -0.412395 2.06158 119 116 109 
-0.090016 -0.399761 2.02017 79 78 73 
0.185751 -0.411781 2.04971 98 98 86 
0.260607 -0.280646 2.02218 107 103 100 
0.0696392 -0.205247 1.91547 103 93 84 
0.154971 -0.126821 1.89702 5 1 2 
-0.0745719 -0.0188661 1.81194 106 100 78 
0.301449 0.0513048 1.89125 87 82 76 
0.223333 0.0620332 1.80629 99 95 92 
0.202106 0.0849908 1.77915 83 75 64 
0.0999984 0.222834 1.68273 77 72 68 
0.319357 0.276117 1.78501 21 16 12 
0.291467 0.401946 1.68198 92 92 82 
0.188266 0.38849 1.60883 73 70 63 
-0.120322 -1.63754 3.1493 224 228 231 
-0.140911 -1.53301 3.06684 92 88 79 
-0.131056 -1.53856 3.08137 94 92 80 
-0.151388 -1.45862 3.01035 63 60 51 
-0.370717 -0.773129 2.53377 219 224 220 
0.0717019 -0.633003 2.16641 7 7 5 
-0.389622 -0.678333 2.46513 70 70 60 
-0.235435 -0.586722 2.14442 1 0 0 
-0.247565 -0.57524 2.14491 17 15 16 
-0.234544 -0.568469 2.14186 98 95 88 
-0.0767097 -0.509271 2.13565 70 67 60 
-0.0958958 -0.457058 2.0623 88 84 81 
0.0113863 -0.450245 2.03371 8 4 5 
-0.2406 -0.456593 2.09048 63 62 60 
0.0957583 -0.445789 2.04644 1 2 4 
-0.262413 -0.20413 2.01052 93 84 69 
0.196531 -0.166231 1.93474 88 78 68 
-0.092833 -0.157289 1.88589 121 116 112 
-0.186873 -0.0447967 1.8707 86 83 76 
-0.20448 -0.0254216 1.87137 6 0 0 
0.109474 0.0127012 1.79347 80 77 70 
0.254 0.40472 1.64638 97 93 82 
-0.264449 0.597726 1.57478 26 27 29 
-0.0639051 -1.93797 3.28025 56 53 46 
-0.0124726 -1.88851 3.2498 29 33 32 
-0.162613 -1.45904 3.01452 86 87 81 
0.29792 -1.00409 2.66399 99 97 82 
-0.388668 -0.730346 2.50661 216 221 224 
-0.190583 -0.597412 2.1254 1 1 1 
-0.160268 -0.476019 2.06185 81 78 73 
-0.260982 -0.45557 2.1095 1 3 0 
0.194589 0.080597 1.79276 91 83 72 
0.29738 0.266023 1.77892 18 14 13 
-0.28083 0.371148 1.68011 1 1 1 
-0.255391 0.391678 1.65694 93 97 96 
-0.248526 0.416807 1.64797 32 33 37 
0.0556192 -1.96955 3.36982 42 38 39 
-0.105047 -1.66064 3.16022 70 67 62 
0.175413 -1.34426 2.95502 35 36 31 
-0.31657 -0.976461 2.60372 65 64 59 
-0.383 -0.789115 2.54695 216 220 223 
-0.358359 -0.789205 2.54721 95 93 81 
0.111651 -0.610675 2.10877 2 2 4 
0.0671605 -0.596624 2.10585 95 91 88 
-0.249554 0.349794 1.60294 98 90 79 
-0.252177 0.364523 1.67102 110 103 93 
-0.0891896 -1.92194 3.45711 215 217 216 
0.172345 -0.477854 2.07016 4 3 8 
-0.00455313 -0.223549 1.91453 1 1 3 
-0.307072 0.668895 1.61269 3 7 10 
-0.287796 -1.13797 2.65715 216 220 223 
-0.390032 -0.777918 2.52571 216 220 223 
-0.391335 -0.741086 2.53989 216 220 223 
0.378855 0.279149 1.92157 93 89 78 
0.0330283 -2.0286 3.449 35 32 27 
-0.073538 -1.92063 3.38097 63 58 54 
-0.293044 0.11908 1.91627 98 91 73 
0.394398 0.191969 1.96252 226 228 227 
-0.257659 0.478597 1.62338 64 56 54 
-0.198824 -0.53421 2.10286 23 18 15 
-0.295856 -0.413197 2.12954 96 92 89 
0.0374271 0.0287812 1.81003 124 114 105 
-0.273342 0.423373 1.67571 31 34 41 
-0.29926 0.455915 1.68861 29 31 26 
-0.273824 0.499081 1.64463 116 115 111 
-0.274715 0.553249 1.62008 107 108 110 
-0.00888721 -1.94001 3.44856 36 34 37 
-0.306944 -0.409594 2.14114 93 93 85 
-0.170974 -0.227567 1.9598 19 15 12 
-0.153626 -0.219461 1.94731 21 18 13 
-0.146185 -0.113571 1.88662 103 99 96 
-0.0974688 0.270075 1.66335 105 95 94 
-0.300307 0.430032 1.70397 33 35 47 
-0.291565 0.446711 1.68597 49 50 55 
-0.296241 0.467998 1.68126 36 37 32 
-0.266771 0.460911 1.65439 105 104 99 
-0.248345 0.460852 1.63156 149 154 150 
-0.264447 0.549777 1.60896 96 97 99 
-0.276658 0.567124 1.61442 101 102 104 
0.00700821 0.621364 1.35372 119 111 100 
0.128258 0.67255 1.34665 3 0 0 
-0.33202 -0.539719 2.21377 83 80 75 
-0.260337 -0.511757 2.1318 87 87 79 
-0.328282 -0.499122 2.19293 37 33 30 
-0.0407459 -0.373173 2.00314 78 75 70 
0.18418 -0.371534 2.04453 99 98 94 
-0.288669 -0.157622 2.00512 92 82 72 
-0.322305 -0.139802 2.03352 102 96 82 
-0.314233 -0.126948 2.02262 91 85 73 
0.0163365 0.136246 1.72318 128 118 116 
-0.286826 0.413544 1.69436 39 43 44 
-0.215105 -0.996521 2.5003 33 29 28 
0.060252 -0.601955 2.10236 100 97 92 
-0.00122187 -0.500714 2.04643 3 1 2 
-0.146872 -0.488212 2.05985 1 1 1 
-0.253445 -0.189751 1.98841 24 18 18 
0.0702263 -0.162856 1.90238 89 84 80 
-0.326439 0.394027 1.72878 94 90 81 
-0.0344251 -2.02785 3.46925 132 124 113 
-0.0789762 -0.485847 2.03793 94 84 82 
-0.306749 -0.435075 2.13928 84 83 81 
-0.0480651 -2.08197 3.46435 211 215 218 
-0.0286408 -0.547819 2.06775 101 97 94 
-0.0526339 -2.12485 3.43956 210 215 218 
-0.321738 -0.401387 2.16901 81 78 73 
-0.0291467 -2.18564 3.52968 233 234 239 
-0.00945479 -2.1736 3.52475 183 184 186 
0.0166353 -2.16227 3.5304 230 232 231 
-0.000648044 -2.16601 3.53484 234 236 235 
-0.0447079 -2.15964 3.52207 232 234 233 
-0.00642547 -2.14894 3.51743 65 66 68 
-0.0616709 -2.15829 3.51907 232 233 237 
-0.0282913 -2.13012 3.50853 238 239 244 
-0.0336528 -2.12238 3.50545 185 186 190 
0.00368795 -1.95249 3.3314 50 41 34 
0.0551321 -1.95367 3.377 147 140 134 
-0.0204572 -1.84962 3.28235 28 25 20 
0.00667432 -1.70204 3.15858 61 48 39 
-0.0639031 -1.46917 2.92946 138 132 120 
0.0431547 -1.42785 2.8946 21 11 1 
-0.0632043 -1.44165 2.90396 37 30 20 
0.02688 -1.21089 2.68221 141 137 125 
0.165716 -1.02233 2.50904 10 6 0 
-0.00111592 -1.03238 2.50284 93 88 84 
0.00732205 -1.00758 2.48405 122 113 104 
0.0773191 -0.983012 2.46609 11 0 0 
-0.122111 -1.01296 2.48741 142 136 124 
-0.107902 -1.00366 2.48068 31 26 23 
0.0955437 -0.929495 2.41117 144 135 126 
-0.0165282 -0.949324 2.4279 140 133 125 
0.0459344 -0.930658 2.41192 137 129 118 
0.00418742 -0.927805 2.40681 139 134 128 
-0.244976 -1.01478 2.57229 22 0 0 
0.0926395 -0.875486 2.36212 19 10 0 
-0.104148 -0.896988 2.37677 126 113 104 
0.0713716 -0.801977 2.29552 143 135 124 
-0.0853546 -0.826834 2.3159 47 42 38 
-0.256238 -0.915854 2.53249 23 8 3 
0.0876199 -0.770853 2.26785 67 64 55 
0.00548234 -0.781707 2.27485 48 39 32 
0.0513892 -0.760351 2.25467 148 143 140 
0.0202421 -0.696761 2.17022 11 3 0 
-0.00457859 -0.671296 2.14176 43 33 21 
-0.0834837 -0.676743 2.14415 61 48 40 
-0.0825071 -0.589936 2.09141 17 7 0 
-0.0540022 -0.570943 2.07746 3 0 0 
0.112175 -0.551522 2.08663 10 2 0 
0.239989 -0.535617 2.14513 10 2 0 
-0.171584 -0.57563 2.11344 98 94 91 
0.21785 -0.515025 2.10833 11 6 0 
0.162894 -0.514092 2.08317 11 6 2 
-0.179533 -0.559303 2.11194 4 0 0 
-0.159956 -0.5416 2.09018 5 2 0 
0.229208 -0.478046 2.10444 4 0 0 
0.311317 -0.460363 2.17298 121 116 110 
-0.222195 -0.509441 2.10804 18 13 9 
0.223317 -0.405785 2.06025 9 0 0 
-0.129545 -0.440157 2.05101 102 98 89 
0.205265 -0.400399 2.04688 12 7 4 
0.0731365 -0.39665 2.01898 4 0 0 
0.219514 -0.374542 2.04172 11 6 3 
0.236475 -0.371762 2.05373 19 12 4 
0.240132 -0.359319 2.04968 7 3 0 
0.262746 -0.355219 2.06962 7 0 0 
-0.147501 -0.380267 2.02917 117 114 109 
-0.220855 -0.35734 2.06003 18 15 10 
-0.175481 -0.334662 2.01756 12 9 0 
0.0858811 -0.27825 1.9551 14 9 6 
-0.22568 -0.275393 2.02089 21 16 12 
0.0662901 -0.233174 1.92384 85 81 72 
-0.182896 -0.258906 1.9824 5 2 0 
0.194662 -0.216273 1.94282 108 99 92 
-0.129862 -0.240117 1.94408 103 100 93 
-0.15324 -0.21959 1.94332 12 7 3 
-0.0307515 -0.201117 1.89961 110 107 102 
-0.122014 -0.197334 1.92048 4 0 0 
0.153276 -0.167521 1.91921 124 120 117 
-0.108769 -0.18968 1.90877 14 9 5 
-0.254659 -0.181174 1.98615 110 103 93 
-0.0745405 -0.158126 1.88119 109 104 100 
-0.27146 -0.180268 2.00706 88 83 79 
-0.24351 -0.16684 1.97378 7 0 0 
-0.130328 -0.13644 1.88821 108 104 95 
-0.304152 -0.145611 2.02674 7 0 0 
-0.0870189 -0.115283 1.86246 117 113 104 
0.19008 -0.0852955 1.87387 132 123 116 
0.226961 -0.0783609 1.88451 4 0 0 
0.0922512 -0.0823023 1.84455 10 5 1 
-0.128247 -0.0949732 1.86732 113 104 99 
-0.153206 -0.0943902 1.87607 4 0 0 
-0.122706 -0.0775478 1.85638 7 2 0 
-0.266544 -0.0437432 1.93292 113 109 100 
-0.0698696 -0.0272089 1.81224 7 0 0 
0.147162 0.00982841 1.81776 111 108 101 
0.212915 0.0154251 1.82297 7 3 0 
-0.123565 0.00125236 1.81648 5 0 0 
-0.207785 -0.00179443 1.86342 7 3 0 
0.227225 0.0340606 1.82014 7 0 0 
-0.0645672 0.026031 1.78257 106 102 93 
0.148701 0.046129 1.80104 4 0 0 
-0.269335 0.0389054 1.89339 105 100 97 
0.123492 0.0638524 1.77968 10 5 1 
-0.151545 0.0611234 1.79793 7 0 0 
-0.211549 0.0672552 1.82718 126 119 111 
-0.0932675 0.0760413 1.76581 114 110 101 
0.219687 0.1004 1.77995 116 107 100 
0.259541 0.10925 1.81089 6 0 0 
-0.0592357 0.0885215 1.75035 113 106 98 
0.0160404 0.094218 1.7406 10 6 0 
0.010979 0.112655 1.72993 6 1 0 
-0.240995 0.119749 1.81966 72 67 64 
0.132131 0.155912 1.73256 16 12 1 
0.165211 0.166428 1.74216 96 92 89 
-0.0967598 0.189357 1.70623 117 113 104 
0.204614 0.224932 1.70615 106 97 90 
0.272832 0.243794 1.75441 50 42 23 
0.0439652 0.235609 1.66698 129 126 119 
0.0905081 0.242389 1.67447 25 18 8 
0.104726 0.265823 1.66744 103 96 86 
0.0293118 0.274492 1.64737 133 126 120 
-0.186928 0.284304 1.69883 118 116 103 
-0.15497 0.295559 1.67511 103 99 90 
-0.163765 0.303827 1.67552 138 134 122 
-0.063206 0.309232 1.63615 7 0 0 
0.23846 0.33174 1.67618 22 17 11 
0.118023 0.342658 1.62669 19 8 2 
-0.101495 0.339258 1.62583 122 118 109 
-0.00026722 0.346938 1.59647 111 108 103 
-0.134223 0.352232 1.6278 145 142 135 
-0.0594821 0.350253 1.6024 7 0 0 
0.0619831 0.357874 1.5943 112 107 101 
0.0220415 0.365675 1.57749 17 12 6 
0.107727 0.372992 1.58983 105 102 95 
-0.123195 0.381458 1.5915 123 120 113 
0.0142412 0.389437 1.55902 133 126 116 
0.0655003 0.42978 1.54394 104 97 89 
0.0635998 0.480117 1.51953 16 7 0 
0.0645049 0.520081 1.48557 127 118 109 
0.106892 0.541277 1.47843 143 139 128 
0.0527001 0.537373 1.46698 130 127 112 
-0.09377 0.600245 1.4357 92 83 74 
-0.0795012 0.617788 1.42625 108 101 91 
-0.19457 0.629794 1.40273 45 36 21 
-0.118815 0.637871 1.3698 123 120 111 
-0.0132209 -2.16425 3.52312 227 229 228 
0.0190091 -2.13763 3.51377 228 229 233 
-0.0533341 -2.14929 3.51573 55 56 58 
-0.000806321 -2.13861 3.51413 231 232 234 
-0.0419657 -2.13615 3.50816 226 227 231 
-0.0618723 -2.14081 3.51353 232 233 235 
0.019791 -1.97973 3.32338 39 38 33 
-0.0380596 -1.96752 3.3387 138 129 122 
-0.024203 -1.95065 3.32874 54 47 37 
-0.0926924 -1.98174 3.38549 51 50 48 
0.0461863 -1.93799 3.35603 53 49 40 
0.0117001 -1.84372 3.2687 147 136 118 
0.0211645 -1.84988 3.28509 150 140 128 
-0.000908397 -1.85135 3.28313 23 19 18 
-0.0836232 -1.80222 3.29235 53 45 42 
-0.0488811 -1.57413 3.01852 41 33 30 
0.0378705 -1.31467 2.78423 42 33 24 
0.033424 -1.16179 2.63667 155 147 134 
0.0235688 -1.12909 2.6015 57 48 39 
-0.103556 -1.14843 2.61797 44 34 25 
-0.237991 -1.17483 2.65044 96 93 88 
-0.249315 -1.1723 2.65759 80 80 70 
-0.0409975 -1.08627 2.55381 33 23 13 
0.0484038 -1.05256 2.52661 146 135 115 
-0.0654429 -1.03265 2.5061 140 129 125 
0.219096 -1.01121 2.56904 139 127 115 
-0.0165666 -1.00369 2.48443 41 38 31 
-0.00259878 -0.980702 2.46058 136 127 120 
0.0220759 -0.968067 2.44348 108 103 99 
-0.0454347 -0.944252 2.4223 137 128 119 
0.00898865 -0.91318 2.39458 12 2 0 
-0.3096 -1.06309 2.66907 81 78 69 
0.0227054 -0.887511 2.37212 44 35 28 
0.125757 -0.856229 2.34835 67 57 45 
0.0523362 -0.860103 2.34949 108 105 98 
-0.0970376 -0.888588 2.36983 45 35 26 
-0.0643706 -0.875992 2.35903 129 119 109 
-0.0267673 -0.852573 2.33971 12 8 9 
0.130479 -0.803758 2.29815 34 25 20 
-0.0498556 -0.827159 2.31445 63 60 53 
-0.091882 -0.817031 2.30447 136 129 121 
0.136553 -0.771485 2.26873 138 128 126 
-0.030702 -0.802944 2.29646 109 106 91 
-0.0597044 -0.786013 2.27811 131 129 117 
-0.0642441 -0.757853 2.25303 155 147 134 
0.0800673 -0.723957 2.21304 29 22 12 
-0.0548049 -0.746832 2.23664 137 129 118 
0.0458409 -0.710163 2.18925 55 45 36 
-0.120942 -0.705145 2.18036 35 28 22 
-0.108726 -0.693678 2.16416 57 51 39 
0.210378 -0.636257 2.16134 8 4 0 
-0.138578 -0.625308 2.10731 137 130 114 
-0.148551 -0.623975 2.10904 138 130 119 
0.0405734 -0.575158 2.07951 18 13 7 
-0.125335 -0.583669 2.09666 27 18 9 
0.256625 -0.552972 2.16211 117 113 104 
-0.231268 -0.603383 2.14358 64 58 44 
-0.253533 -0.604611 2.16158 155 147 136 
-0.189709 -0.584131 2.12893 93 90 85 
0.0512248 -0.532394 2.06056 4 0 0 
-0.140394 -0.56347 2.09355 6 0 0 
-0.0450621 -0.534257 2.06032 6 5 1 
0.248399 -0.509927 2.1347 14 4 5 
0.13101 -0.506222 2.06738 26 21 18 
-0.111748 -0.532795 2.07206 14 9 6 
-0.097218 -0.515624 2.05705 18 10 8 
0.245057 -0.490411 2.12935 34 30 21 
0.194357 -0.479443 2.08422 87 88 82 
0.107846 -0.479573 2.04732 66 62 59 
-0.290062 -0.560084 2.18705 103 98 95 
-0.137525 -0.512967 2.06749 88 81 73 
0.21478 -0.456505 2.07718 107 104 97 
0.203381 -0.453676 2.06743 35 31 22 
-0.177429 -0.496732 2.07766 18 13 9 
-0.254475 -0.51458 2.13533 13 10 1 
-0.221747 -0.492546 2.10179 18 13 9 
0.248653 -0.432877 2.09979 119 108 102 
-0.27618 -0.486286 2.1394 44 37 29 
0.266228 -0.411957 2.10222 98 93 89 
0.169123 -0.407648 2.05756 124 114 112 
-0.0830055 -0.43077 2.03513 13 8 2 
0.191326 -0.400594 2.04552 21 17 6 
0.179735 -0.403437 2.05741 115 112 105 
-0.111079 -0.432855 2.04137 78 71 65 
0.295497 -0.404038 2.13007 105 102 97 
0.219989 -0.394828 2.05181 18 10 8 
0.286849 -0.385561 2.11106 116 112 103 
0.0257726 -0.386217 2.00336 103 98 95 
0.262459 -0.346947 2.06308 93 84 75 
-0.0660459 -0.367802 1.99639 92 89 84 
0.207945 -0.331905 2.01066 110 101 94 
0.171726 -0.330468 2.02073 7 3 0 
0.114614 -0.330986 1.99582 85 84 80 
0.215863 -0.320925 2.00966 11 7 0 
-0.171509 -0.362519 2.02814 15 12 7 
-0.263492 -0.383289 2.11025 20 12 10 
-0.198655 -0.366404 2.04771 6 3 0 
-0.18783 -0.364323 2.04211 23 20 15 
0.217357 -0.300152 1.99627 4 0 0 
0.0455392 -0.308647 1.96329 29 24 18 
-0.27652 -0.362318 2.11085 30 27 22 
-0.0698452 -0.320327 1.97081 6 1 0 
-0.253212 -0.348018 2.077 118 110 107 
0.0630277 -0.284983 1.95437 79 75 66 
-0.111233 -0.303789 1.97383 11 6 2 
0.194622 -0.272142 1.97223 100 90 81 
-0.0524489 -0.292798 1.9519 12 5 0 
-0.152317 -0.307784 1.99154 9 5 0 
-0.192927 -0.305424 2.01203 98 93 89 
-0.216841 -0.306021 2.02867 14 9 5 
-0.246607 -0.301441 2.04662 121 116 110 
0.0761768 -0.253935 1.93772 96 91 87 
-0.115159 -0.274585 1.95832 12 7 3 
0.217427 -0.238982 1.96498 15 10 4 
-0.274958 -0.299712 2.07495 4 0 0 
0.159916 -0.243759 1.9649 71 67 64 
0.193033 -0.237659 1.95353 76 73 68 
-0.0681261 -0.252946 1.93642 112 103 96 
0.182958 -0.218196 1.94811 10 5 2 
-0.071373 -0.237238 1.92487 118 109 102 
-0.156964 -0.245421 1.95723 115 105 95 
-0.141818 -0.242698 1.95212 44 35 26 
-0.112514 -0.237463 1.93856 16 8 5 
0.205451 -0.202029 1.93249 7 2 0 
0.206687 -0.202709 1.94257 14 9 5 
-0.140867 -0.227013 1.94049 93 84 77 
0.204549 -0.193555 1.93648 16 12 3 
-0.167328 -0.223242 1.9535 112 107 103 
0.165601 -0.189137 1.93761 95 90 86 
0.140959 -0.188494 1.92328 26 22 21 
0.273245 -0.179172 1.98349 39 30 23 
-0.11861 -0.208431 1.9223 94 89 86 
-0.230335 -0.224893 1.99627 39 30 23 
0.249652 -0.176592 1.95463 105 101 90 
0.0991513 -0.181967 1.90295 92 91 87 
0.0867973 -0.179667 1.90074 1 0 0 
0.240708 -0.169412 1.94809 91 86 80 
-0.104367 -0.197784 1.91516 11 6 3 
0.225379 -0.167657 1.93399 2 2 0 
0.142934 -0.167301 1.90778 100 94 94 
-0.180056 -0.197658 1.94636 98 93 89 
-0.0706493 -0.18204 1.89702 29 22 16 
-0.298576 -0.21122 2.04992 11 0 0 
-0.119494 -0.182442 1.89887 104 99 95 
0.23523 -0.146496 1.93076 1 0 0 
0.166635 -0.146139 1.91266 74 69 65 
-0.178331 -0.17799 1.93534 16 11 7 
0.185295 -0.138281 1.90323 87 82 76 
0.0657906 -0.146568 1.87439 72 62 52 
0.233888 -0.132288 1.91371 65 58 52 
0.238129 -0.134028 1.94418 107 103 94 
-0.185336 -0.167207 1.93429 11 6 2 
0.248899 -0.128941 1.93169 83 78 74 
0.19429 -0.127978 1.89328 76 69 63 
0.223982 -0.122644 1.8998 133 129 120 
0.271645 -0.121696 1.94639 105 100 94 
-0.117218 -0.14511 1.89176 22 17 11 
0.176031 -0.118135 1.90243 4 0 0 
-0.0561515 -0.134965 1.86703 66 57 48 
0.231091 -0.108425 1.90469 86 81 77 
-0.118599 -0.130853 1.88242 102 97 94 
-0.280457 -0.145604 1.99766 99 92 86 
0.107293 -0.106625 1.86439 33 30 21 
-0.0779973 -0.120069 1.86206 33 24 17 
-0.199845 -0.128691 1.92163 17 14 5 
0.166681 -0.0933556 1.88308 75 70 67 
0.279161 -0.0844229 1.93649 100 96 85 
-0.117439 -0.113892 1.87172 50 45 39 
-0.0664487 -0.106766 1.85416 4 0 0 
-0.151756 -0.107493 1.87944 10 5 1 
-0.0954161 -0.0918301 1.85156 8 5 0 
0.179655 -0.0591929 1.86518 23 13 12 
0.270901 -0.0512766 1.91126 58 49 40 
0.069753 -0.0623482 1.83238 30 20 11 
0.20418 -0.049918 1.85033 14 10 1 
-0.0492912 -0.0634741 1.82793 7 0 0 
0.14241 -0.0483905 1.85116 4 0 0 
0.260817 -0.0391208 1.88635 98 92 80 
0.186426 -0.0405218 1.85098 18 10 7 
-0.0796806 -0.0601402 1.83239 16 13 8 
0.0790437 -0.0448104 1.82167 18 9 4 
-0.23093 -0.0673244 1.91235 10 1 0 
0.232425 -0.0307075 1.86128 75 70 67 
-0.0857018 -0.0466242 1.82428 9 4 0 
-0.227904 -0.0566609 1.90745 11 4 0 
-0.168765 -0.0508364 1.86347 4 0 0 
-0.0710445 -0.0428839 1.81995 109 104 100 
-0.126165 -0.0426988 1.84003 16 13 8 
-0.217854 -0.0443114 1.89494 93 84 77 
0.184657 -0.014467 1.83971 87 78 69 
-0.0998891 -0.0295338 1.82237 98 95 88 
-0.232203 -0.0368272 1.8951 97 89 86 
0.112212 -0.0055595 1.81235 93 84 79 
-0.198332 -0.0253697 1.86574 9 4 0 
-0.12774 -0.0205416 1.82695 17 13 4 
-0.0660021 -0.0138999 1.80619 34 24 12 
-0.0928363 -0.00895142 1.80831 5 1 0 
-0.242996 -0.0120202 1.89635 7 0 0 
0.202195 0.0181599 1.81174 86 82 73 
-0.275242 -0.00178387 1.92005 11 7 0 
0.0957587 0.0290753 1.78637 90 81 74 
-0.0788216 0.0185003 1.79201 95 91 82 
-0.113674 0.0172668 1.79995 13 9 6 
-0.215265 0.015162 1.85741 3 0 0 
-0.200229 0.0225306 1.84592 10 7 2 
-0.235764 0.0225598 1.8712 8 4 0 
-0.128494 0.027115 1.80039 98 94 85 
0.088706 0.0411461 1.78072 110 99 93 
0.102241 0.0425911 1.78725 104 99 93 
-0.183753 0.0325937 1.82751 8 4 0 
-0.279825 0.0332385 1.91162 90 85 81 
-0.225101 0.0356017 1.85424 89 85 76 
-0.1475 0.0401869 1.80538 97 92 88 
0.108053 0.0555657 1.77976 115 111 102 
0.302486 0.074952 1.87633 27 18 13 
-0.236683 0.0414945 1.86361 79 75 66 
-0.134048 0.0451079 1.79463 19 14 10 
-0.172368 0.0503358 1.81263 4 0 0 
-0.151419 0.0523185 1.80289 88 84 75 
-0.245455 0.054423 1.86262 100 99 95 
0.115409 0.0782851 1.76806 100 92 89 
-0.260584 0.0726495 1.8843 128 120 107 
-0.241564 0.0718204 1.84946 24 20 11 
0.108703 0.100448 1.75529 14 9 5 
-0.0828687 0.0911324 1.75327 7 3 0 
-0.00745522 0.0974588 1.73777 106 102 93 
-0.101539 0.0977712 1.75507 106 102 93 
-0.065106 0.100987 1.74453 87 83 74 
0.123185 0.113549 1.7536 126 122 111 
-0.0861519 0.103518 1.74809 131 127 115 
-0.23724 0.110764 1.82252 25 16 7 
-0.00857138 0.115565 1.73003 86 83 78 
0.251597 0.145889 1.78399 7 0 0 
0.0467883 0.129272 1.72371 32 25 17 
0.10978 0.135406 1.73702 20 17 8 
0.297068 0.159326 1.8234 24 17 11 
0.07439 0.143748 1.72111 24 14 12 
0.0640869 0.146625 1.71582 11 4 0 
0.0119741 0.146276 1.71476 6 0 0 
-0.286962 0.152539 1.85503 16 11 5 
-0.0532282 0.149993 1.71578 38 31 25 
0.235962 0.175799 1.75352 106 97 90 
0.183509 0.173217 1.73926 7 0 0 
-0.0339773 0.16115 1.70408 110 107 100 
0.00579436 0.165127 1.70294 12 7 1 
-0.176522 0.164268 1.754 6 2 0 
-0.154405 0.165135 1.74479 27 18 11 
0.27614 0.197285 1.77375 89 84 80 
-0.0167837 0.17597 1.69626 5 2 0 
-0.135436 0.180851 1.72791 3 0 0 
-0.215084 0.183694 1.76985 109 102 92 
0.117801 0.192425 1.70859 108 104 95 
-0.0780229 0.187328 1.70117 110 106 97 
0.11248 0.197959 1.70179 26 17 10 
-0.0764407 0.200578 1.69618 5 0 0 
-0.162226 0.209999 1.72671 132 122 110 
-0.147822 0.212242 1.71473 96 89 79 
0.0580667 0.223393 1.67762 8 0 0 
0.199347 0.233319 1.70023 15 10 6 
0.0155124 0.22397 1.67135 14 5 0 
0.144921 0.235797 1.69794 18 15 8 
-0.0547374 0.226871 1.67395 25 21 12 
0.204623 0.244541 1.69046 115 106 99 
0.250187 0.262406 1.72191 148 144 133 
0.219567 0.260236 1.69821 20 11 6 
-0.118165 0.245953 1.6853 11 6 2 
0.0995648 0.251954 1.67272 11 7 0 
0.153062 0.25998 1.69029 11 4 0 
-0.0565333 0.249582 1.66814 22 15 9 
0.0840523 0.258021 1.66188 102 93 86 
0.200034 0.269227 1.68091 27 18 9 
0.181294 0.27678 1.68945 77 72 69 
0.135956 0.27318 1.67341 52 48 39 
0.0440594 0.273499 1.64846 23 14 7 
0.119751 0.281719 1.66644 39 35 26 
0.0568612 0.27784 1.65003 82 73 66 
0.233379 0.303629 1.686 101 97 88 
0.0673814 0.292631 1.64931 102 94 81 
0.137909 0.297846 1.66526 37 28 21 
-0.179428 0.298893 1.68818 80 75 71 
0.254663 0.320172 1.69329 103 93 84 
0.241908 0.32313 1.68466 18 11 5 
0.0622468 0.322396 1.63051 10 7 2 
0.223306 0.334519 1.63835 116 112 101 
-0.120104 0.331007 1.63953 17 12 6 
0.109373 0.335314 1.63189 10 5 2 
0.0341782 0.347345 1.59891 100 96 85 
0.121091 0.352983 1.61386 7 3 0 
0.280137 0.392475 1.67596 43 34 27 
0.238957 0.387766 1.64751 104 96 83 
0.0482245 0.367179 1.57895 6 5 3 
-0.0659396 0.3706 1.57991 102 98 87 
0.235618 0.397638 1.63768 13 6 0 
0.0650466 0.381486 1.56943 7 1 1 
0.196679 0.399762 1.60874 5 0 0 
0.144605 0.395663 1.58265 70 65 62 
0.0871296 0.394121 1.56699 70 69 64 
0.244337 0.425553 1.6307 100 91 82 
0.053588 0.403641 1.55653 8 3 0 
0.160588 0.415302 1.58423 3 0 0 
0.162508 0.429935 1.57963 89 81 78 
0.103674 0.427099 1.55622 65 61 58 
0.259006 0.451249 1.62794 20 17 8 
0.04151 0.427508 1.54087 10 6 0 
0.0788579 0.431668 1.54893 135 128 120 
0.21456 0.466736 1.58877 87 82 76 
0.0510611 0.460312 1.5285 8 5 0 
0.0204669 0.481248 1.51303 106 102 90 
0.0570984 0.501088 1.50377 28 24 15 
0.279523 0.546177 1.60143 104 100 91 
0.0663736 0.510384 1.49715 32 28 17 
0.266619 0.546347 1.57803 140 131 122 
0.132779 0.519857 1.50718 16 12 9 
0.301355 0.572357 1.59671 46 39 29 
0.0203003 0.566455 1.44233 90 85 81 
-0.0340348 0.567644 1.44235 88 80 69 
-0.0716027 0.585199 1.44188 112 102 92 
-0.0100138 0.582208 1.43585 118 108 96 
0.0135902 0.601111 1.42483 120 110 101 
-0.125757 0.613654 1.44041 98 92 80 
-0.155273 0.625081 1.44577 122 118 109 
-0.0325717 0.617154 1.41624 130 117 101 
-0.172186 0.629309 1.39242 15 8 2 
-0.228086 0.650308 1.41207 31 23 10 
-0.0921126 0.626889 1.37295 8 0 0 
-0.140689 0.641112 1.37761 9 0 0 
-0.150738 0.647049 1.37402 109 101 90 
-0.163473 0.662553 1.37362 75 74 56 
-0.1212 0.66192 1.3579 86 80 64 
0.113088 -1.55607 3.11535 63 59 56 
0.0190074 -0.903037 2.38429 129 119 109 
0.245686 -0.917165 2.55275 116 107 98 
-0.112138 -0.857693 2.34047 43 38 32 
0.111466 -0.794007 2.2894 108 100 89 
0.252104 -0.525677 2.14117 11 7 4 
0.237336 -0.502817 2.11382 84 81 76 
-0.269695 -0.521615 2.15185 40 35 29 
-0.156596 -0.481636 2.0582 77 73 62 
0.237994 -0.444876 2.09548 75 66 61 
0.297133 -0.438196 2.14852 84 79 75 
0.321107 -0.428032 2.17337 78 74 71 
-0.244651 -0.440476 2.10247 8 4 3 
0.311966 -0.361656 2.12403 125 121 112 
0.282978 -0.337301 2.07712 8 3 0 
-0.201287 -0.386007 2.05556 98 95 90 
0.275387 -0.313181 2.05836 101 98 89 
-0.171605 -0.352092 2.02751 24 20 17 
0.0577398 -0.311773 1.96539 100 97 92 
0.30824 -0.272859 2.07203 120 112 99 
0.272932 -0.23964 2.01534 90 83 73 
-0.166508 -0.270105 1.9786 25 20 16 
0.264346 -0.220028 1.99595 96 85 79 
0.240015 -0.185076 1.95563 88 84 75 
-0.0894369 -0.202167 1.90933 74 69 66 
0.319832 -0.170658 2.03253 31 19 21 
0.202824 -0.162566 1.91608 141 128 119 
0.249413 -0.159451 1.94816 7 0 0 
-0.152547 -0.19002 1.92933 100 97 92 
-0.0660373 -0.163261 1.88648 6 1 0 
0.249868 -0.0953159 1.91462 87 82 76 
-0.126998 -0.114403 1.87552 48 44 35 
0.106575 -0.0825303 1.85317 87 82 79 
0.0818242 -0.074412 1.84096 88 85 80 
0.247099 -0.0434477 1.88281 92 81 75 
-0.103054 -0.0430469 1.83032 6 2 0 
-0.158779 -0.0339184 1.84679 49 44 38 
0.318654 0.00632302 1.93291 35 27 25 
0.145389 0.000481241 1.82382 93 90 81 
-0.200956 -0.0103682 1.86257 83 80 73 
0.332013 0.0542926 1.92494 114 104 94 
0.233221 0.0514821 1.81821 27 20 10 
-0.249751 0.0445536 1.8714 81 76 73 
0.267251 0.0990609 1.82072 88 81 73 
0.153565 0.128359 1.75624 103 99 90 
-0.0454979 0.1863 1.69434 100 95 91 
-0.201466 0.194575 1.75813 20 13 5 
0.0634739 0.214252 1.6824 4 0 0 
0.251216 0.234844 1.73785 24 19 13 
0.161672 0.231193 1.70616 81 78 73 
-0.0815444 0.235225 1.67993 77 73 64 
0.0846122 0.247881 1.66836 15 12 3 
0.270002 0.278113 1.73456 136 124 112 
-0.0757627 0.257377 1.66608 89 85 74 
0.244334 0.300789 1.69549 35 31 20 
-0.141466 0.315702 1.65601 98 91 83 
0.313643 0.460671 1.68745 110 108 95 
0.255869 0.55158 1.5624 91 88 81 
0.0365671 0.581348 1.43541 103 94 85 
-0.130338 0.625608 1.37851 64 56 45 
-0.213765 0.648876 1.39947 85 81 70 
0.00924906 -2.1505 3.52146 56 57 61 
