ply                 
format ascii 1.0    
element vertex 1286
property float x    
property float y    
property float z    
property uchar red  
property uchar green
property uchar blue 
end_header          
-0.043039 0.544062 1.45051 103 99 90 
-0.17502 0.560436 1.48396 14 10 7 
-0.0883369 0.559618 1.45479 106 97 88 
0.109401 0.560446 1.45228 98 91 83 
-0.269078 0.612385 1.58496 97 100 107 
-0.021843 0.563929 1.43536 127 123 114 
-0.0775223 0.569603 1.44123 99 90 83 
-0.151735 0.57921 1.45936 16 13 6 
-0.180699 0.583182 1.46783 102 101 96 
0.315815 0.646688 1.54063 124 121 116 
-0.27485 0.664596 1.55199 1 0 0 
-0.447779 0.801612 1.77652 50 51 45 
-0.0554628 -1.84051 3.28201 42 40 41 
-0.102753 -1.24832 2.70614 136 128 117 
-0.00942092 -0.938031 2.41445 42 42 40 
-0.0259593 -0.919477 2.3932 95 87 76 
0.0957584 -0.922884 2.40138 121 119 107 
0.0295068 -0.886218 2.37566 109 100 93 
-0.329274 -0.92847 2.64735 226 226 226 
-0.375716 -0.754427 2.53195 71 72 67 
-0.0610713 -0.600572 2.09396 92 83 74 
0.0848652 -0.598379 2.10371 81 76 73 
-0.0315205 -0.472527 2.05371 26 25 23 
-0.330378 -0.502989 2.20993 24 24 24 
0.19412 -0.479266 2.08625 95 96 90 
0.156651 -0.410738 2.05447 88 85 80 
-0.0424789 -0.369389 1.98633 55 54 50 
0.29634 -0.362999 2.11505 111 108 103 
-0.0919666 -0.325797 1.98122 34 29 25 
0.209913 -0.323897 2.00753 38 33 30 
-0.200116 -0.309709 2.02373 5 0 0 
-0.127195 -0.302655 1.98297 21 18 13 
-0.142355 -0.226657 1.94473 98 89 82 
-0.298444 -0.210561 2.04636 10 2 0 
0.164136 -0.189908 1.94185 91 86 82 
-0.324301 -0.182041 2.06738 87 81 69 
0.18936 -0.174743 1.95168 4 0 0 
-0.261412 -0.172391 1.99863 85 76 61 
-0.265777 -0.153597 1.98851 5 2 0 
0.221943 -0.150112 1.92292 10 5 2 
0.0927229 -0.143043 1.88619 95 91 82 
-0.322814 -0.131447 2.03844 5 5 5 
0.0804474 -0.0513392 1.83411 75 70 66 
0.305679 -0.0499192 1.95005 31 23 20 
-0.148601 -0.0150799 1.83711 35 26 21 
-0.339314 -0.0127456 2.01215 94 86 83 
-0.0938059 -0.00819327 1.8251 4 0 0 
0.2044 0.03321 1.80776 109 100 93 
0.205915 0.0420972 1.80687 50 41 32 
-0.244432 0.0549538 1.85879 94 91 84 
-0.245467 0.0809215 1.8515 33 24 15 
-0.326349 0.0916552 1.93011 83 83 75 
-0.326194 0.142985 1.90235 74 69 65 
0.188059 0.131363 1.75829 13 10 3 
0.209483 0.133313 1.75865 3 0 0 
-0.322225 0.161932 1.88944 12 8 7 
-0.0272929 0.195809 1.69317 13 6 0 
0.127856 0.237425 1.68813 92 83 74 
0.270994 0.315978 1.70484 57 45 33 
0.208869 0.320574 1.65587 25 21 12 
0.187754 0.357434 1.64428 4 0 0 
-0.0678882 0.36098 1.58727 15 12 7 
-0.286719 0.41478 1.69548 34 38 39 
0.223037 0.40851 1.62052 86 82 73 
-0.351629 0.477927 1.71823 110 107 98 
-0.27982 0.489012 1.64978 161 159 160 
-0.17916 0.497602 1.54191 14 10 11 
-0.249739 0.520792 1.60419 67 85 71 
-0.139693 0.51394 1.50431 87 84 75 
-0.269505 0.588271 1.59842 32 32 34 
0.383296 0.738098 1.49495 46 43 26 
-0.0411715 -1.93253 3.28969 122 118 109 
0.175151 -1.3838 2.99799 224 228 229 
-0.120245 -1.23782 2.70219 143 134 125 
0.237348 -1.16781 2.68022 75 78 71 
-0.275144 -1.1243 2.6482 219 220 222 
0.251155 -1.13876 2.67925 215 218 223 
0.257745 -1.11431 2.66969 86 84 69 
-0.176699 -1.02079 2.4973 4 3 11 
0.280906 -1.07232 2.68614 83 83 73 
-0.318112 -0.97101 2.62012 83 84 78 
0.107033 -0.818623 2.3145 115 111 99 
0.0768456 -0.811235 2.29671 144 140 129 
0.0601205 -0.600612 2.09895 100 97 92 
0.0634477 -0.564477 2.07988 67 63 60 
-0.234326 -0.575565 2.15465 91 88 81 
-0.167435 -0.561046 2.10758 10 6 3 
-0.0619134 -0.543541 2.06963 109 108 103 
0.115367 -0.490589 2.05121 3 2 7 
0.10456 -0.491794 2.06088 93 86 80 
-0.147584 -0.489051 2.06472 1 1 1 
-0.0704269 -0.485397 2.04543 64 56 45 
-0.177341 -0.483324 2.07375 1 0 0 
0.139695 -0.468696 2.07865 72 71 66 
0.166117 -0.467147 2.0997 80 79 75 
-0.15511 -0.44901 2.05573 71 70 65 
-0.0794235 -0.447032 2.04608 8 4 5 
0.154348 -0.443406 2.07032 95 91 88 
-0.149636 -0.434524 2.05854 0 1 0 
-0.16066 -0.435405 2.06933 4 4 2 
0.177197 -0.435171 2.07372 45 40 36 
-0.0237893 -0.408042 2.01924 85 80 77 
-0.227595 -0.419182 2.09559 0 0 4 
-0.261533 -0.417571 2.12998 86 81 75 
0.174465 -0.396883 2.05557 50 49 47 
0.163096 -0.392964 2.04736 92 84 82 
-0.290897 -0.39797 2.13653 0 2 1 
0.0840544 -0.367475 2.00501 86 85 81 
0.0963401 -0.350381 2.00296 87 84 79 
0.193095 -0.322417 2.00826 1 1 0 
0.265191 -0.28388 2.0456 92 88 85 
0.193855 -0.261501 1.97094 90 78 62 
-0.0117476 -0.243054 1.93181 82 77 71 
-0.451794 -0.294791 2.44175 25 26 21 
0.0226171 -0.207392 1.94508 12 16 15 
0.0410589 -0.20235 1.91247 83 82 78 
0.100327 -0.202929 1.92289 89 83 71 
-0.258269 -0.20423 2.00167 103 94 79 
0.177514 -0.190439 1.92028 93 89 86 
-0.322136 -0.199584 2.07505 106 97 80 
0.0900188 -0.181183 1.90538 9 10 5 
0.0958809 -0.170731 1.90295 93 89 86 
-0.273188 -0.171341 2.00264 3 2 0 
0.190416 -0.165384 1.91744 135 125 113 
0.228366 -0.159298 1.93033 113 106 100 
0.210425 -0.154583 1.91442 10 5 1 
-0.320478 -0.14935 2.07463 89 81 70 
0.117071 -0.135504 1.89004 7 3 0 
0.206032 -0.134353 1.90987 24 20 19 
-0.173718 -0.112192 1.90363 103 100 95 
0.16788 -0.115474 1.90311 81 78 73 
-0.0927336 -0.0970691 1.856 99 96 89 
0.128748 0.00419709 1.81998 40 35 31 
0.193595 0.00646316 1.82757 82 72 70 
0.075741 0.0149784 1.79704 80 71 62 
0.14782 0.0253139 1.81003 62 57 54 
0.0769493 0.0302486 1.79031 86 77 70 
0.131523 0.0298516 1.80664 51 46 43 
0.325281 0.05286 1.90922 95 91 82 
0.119245 0.0521197 1.79077 21 16 10 
-0.253419 0.0556628 1.86207 0 0 0 
0.224854 0.0653771 1.80209 84 83 78 
0.247521 0.0725338 1.81248 87 77 75 
-0.150961 0.0742668 1.79228 14 9 6 
0.185868 0.0842395 1.78115 86 78 67 
0.07169 0.0897211 1.75047 3 0 0 
0.241531 0.115877 1.7938 3 0 0 
0.224246 0.136917 1.77517 3 0 0 
0.390058 0.171422 1.97348 61 60 55 
-0.0870074 0.172108 1.70546 6 0 0 
0.0522453 0.178342 1.70187 5 1 0 
-0.111842 0.195561 1.70997 86 83 78 
-0.106124 0.201983 1.70578 17 9 6 
-0.11753 0.216478 1.69919 6 3 0 
0.0988144 0.223572 1.68531 86 82 73 
0.218348 0.258914 1.69063 16 11 8 
-0.306756 0.308895 1.74754 4 2 3 
0.200494 0.302872 1.66533 6 2 0 
-0.194861 0.337547 1.65781 42 38 37 
-0.181147 0.338957 1.63532 119 112 104 
0.0532508 0.340089 1.60678 85 76 69 
0.191091 0.349856 1.64042 97 86 80 
-0.318489 0.38745 1.72802 0 0 4 
-0.261707 0.373829 1.67054 14 6 4 
-0.0398211 0.361942 1.58224 99 95 86 
-0.184903 0.375433 1.61663 153 149 137 
0.193586 0.383444 1.61713 16 12 9 
-0.339146 0.434919 1.73976 89 85 74 
-0.302296 0.439858 1.71493 123 127 139 
-0.23358 0.427823 1.62822 89 85 76 
-0.273121 0.467692 1.65813 41 42 46 
-0.184524 0.449517 1.56043 4 0 1 
-0.334054 0.535038 1.68704 175 112 9 
-0.125822 0.57525 1.45133 133 125 112 
-0.421618 0.53135 1.88103 76 75 71 
0.0456456 -1.91683 3.35178 114 105 96 
-0.117895 -1.60286 3.13943 78 74 63 
0.183864 -1.33772 2.94855 231 233 232 
-0.204319 -1.33465 2.96216 68 59 50 
-0.281883 -1.14311 2.6909 218 222 225 
-0.0128908 -0.991031 2.47257 107 104 99 
0.0953102 -0.834396 2.32998 36 26 24 
0.308711 -0.902968 2.66399 72 69 62 
-0.064772 -0.564696 2.0827 88 87 83 
0.0622364 -0.562316 2.07352 71 66 60 
-0.0352192 -0.545066 2.06843 95 92 87 
0.185454 -0.485359 2.0811 7 6 12 
0.138815 -0.467416 2.07379 81 77 74 
-0.155554 -0.44932 2.05968 65 64 59 
0.213219 -0.412834 2.06548 119 116 109 
-0.0904315 -0.400036 2.02352 79 78 73 
0.18591 -0.412311 2.05391 98 98 86 
0.260464 -0.279797 2.02362 104 101 96 
0.0693993 -0.204753 1.91574 106 98 87 
0.155323 -0.127083 1.90267 3 0 0 
-0.0745668 -0.0186999 1.81793 105 95 83 
0.301771 0.0516718 1.89346 87 82 76 
0.223325 0.0624097 1.80668 99 95 92 
0.20208 0.0853561 1.77928 83 75 64 
0.100105 0.223179 1.68284 77 72 68 
0.319596 0.276544 1.786 21 16 12 
0.291602 0.402194 1.68202 92 92 82 
0.188348 0.387914 1.60758 78 70 67 
-0.122395 -1.64829 3.16952 224 228 231 
-0.142999 -1.54249 3.08546 92 88 79 
-0.133096 -1.54816 3.10023 94 92 80 
-0.153452 -1.46723 3.02782 63 60 51 
-0.372863 -0.775604 2.5427 219 224 220 
0.0715201 -0.634306 2.17186 7 7 5 
-0.391657 -0.680221 2.47308 70 70 60 
-0.236383 -0.587634 2.14898 1 0 0 
-0.248539 -0.576116 2.14944 17 15 16 
-0.235478 -0.569321 2.14635 98 95 88 
-0.0772347 -0.510018 2.1402 70 67 60 
-0.0963806 -0.457538 2.06606 88 84 81 
0.0111028 -0.449937 2.03286 3 3 3 
-0.241425 -0.457062 2.09435 63 62 60 
0.0956654 -0.446241 2.05013 1 2 4 
-0.263046 -0.203959 2.01329 93 84 69 
0.196701 -0.166133 1.93747 88 78 68 
-0.0930516 -0.157003 1.88752 121 116 112 
-0.187134 -0.0443788 1.87222 86 83 76 
-0.204753 -0.0249771 1.87286 6 0 0 
0.109541 0.0130597 1.79464 80 77 70 
0.25385 0.404638 1.64498 97 93 82 
-0.264067 0.597966 1.57405 26 27 29 
-0.0657857 -1.95219 3.30363 56 53 46 
-0.0139159 -1.90227 3.27284 29 33 32 
-0.164752 -1.46763 3.03199 86 87 81 
0.298974 -1.00949 2.67839 99 97 82 
-0.39081 -0.732557 2.51513 216 221 224 
-0.191401 -0.598334 2.12986 1 1 1 
-0.160892 -0.476515 2.06556 81 78 73 
-0.261879 -0.456055 2.1135 1 3 0 
0.194731 0.0809731 1.79395 91 83 72 
0.297594 0.26644 1.77982 18 14 13 
-0.280706 0.371667 1.68005 1 1 1 
-0.255215 0.392138 1.65671 93 97 96 
-0.248325 0.417243 1.64768 32 33 37 
0.0546419 -1.98504 3.3956 42 38 39 
-0.107032 -1.67168 3.18075 70 67 62 
0.175542 -1.35237 2.97271 35 36 31 
-0.318717 -0.980146 2.61394 65 64 59 
-0.385229 -0.791691 2.55605 216 220 223 
-0.360488 -0.791792 2.55633 95 93 81 
0.111594 -0.611809 2.11371 2 2 4 
0.0669883 -0.597667 2.11061 95 91 88 
-0.249313 0.350173 1.6025 98 90 79 
-0.252033 0.365007 1.6709 110 103 93 
-0.0914221 -1.93735 3.48402 215 217 216 
0.172467 -0.478581 2.07465 4 3 8 
-0.00469918 -0.223439 1.91681 1 1 3 
-0.306727 0.669263 1.61215 3 7 10 
-0.289975 -1.1427 2.66837 216 220 223 
-0.392242 -0.780388 2.53454 216 220 223 
-0.393556 -0.743414 2.54878 216 220 223 
0.379288 0.279755 1.92366 93 89 78 
0.0318181 -2.0453 3.47658 35 32 27 
-0.0755731 -1.93548 3.40635 63 58 54 
-0.293427 0.11973 1.91789 98 91 73 
0.394926 0.192535 1.96521 226 228 227 
-0.257398 0.478981 1.62293 64 56 54 
-0.199612 -0.535158 2.10796 23 18 15 
-0.296934 -0.413787 2.13445 96 92 89 
0.0375999 0.0291311 1.81259 124 114 105 
-0.273188 0.423933 1.67568 31 34 41 
-0.29912 0.456573 1.68866 29 31 26 
-0.27358 0.499631 1.64431 116 115 111 
-0.274401 0.553773 1.61955 107 108 110 
-0.00959688 -1.95809 3.48296 36 34 37 
-0.308051 -0.410255 2.14623 93 93 85 
-0.171413 -0.227638 1.96314 19 15 12 
-0.154011 -0.219513 1.95058 21 18 13 
-0.146453 -0.113421 1.8892 103 99 96 
-0.0973234 0.270444 1.66374 105 95 94 
-0.30021 0.430703 1.70415 33 35 47 
-0.291423 0.447345 1.68601 49 50 55 
-0.296082 0.468648 1.68124 36 37 32 
-0.266561 0.461446 1.65419 105 104 99 
-0.248098 0.461298 1.63118 149 154 150 
-0.264117 0.550246 1.60835 96 97 99 
-0.276328 0.567643 1.61384 101 102 104 
0.00740253 0.620742 1.35206 119 111 100 
0.128577 0.671945 1.34539 3 0 0 
-0.333387 -0.540877 2.21977 83 80 75 
-0.261362 -0.512627 2.13688 87 87 79 
-0.329583 -0.500118 2.19865 37 33 30 
-0.040938 -0.373644 2.00776 78 75 70 
0.18484 -0.372222 2.05113 99 98 94 
-0.289386 -0.157556 2.00853 92 82 72 
-0.323136 -0.139697 2.03718 102 96 82 
-0.31502 -0.126812 2.02618 91 85 73 
0.0163209 0.136799 1.72437 115 112 107 
-0.286714 0.414154 1.69448 39 43 44 
-0.216597 -1.00042 2.51145 33 29 28 
0.0594254 -0.602517 2.10552 91 87 78 
-0.0023897 -0.500934 2.04815 1 1 0 
-0.147533 -0.488909 2.06439 1 1 1 
-0.254075 -0.18975 1.99174 24 18 18 
0.0704377 -0.162832 1.90631 89 84 80 
-0.326422 0.394725 1.72916 94 90 81 
-0.0354305 -2.0469 3.50404 132 124 113 
-0.0794713 -0.486532 2.04246 94 84 82 
-0.307862 -0.435801 2.14435 84 83 81 
-0.0492292 -2.10142 3.49888 211 215 218 
-0.0288639 -0.548864 2.07341 101 97 94 
-0.0538235 -2.14448 3.47346 210 215 218 
-0.322936 -0.402064 2.17442 81 78 73 
-0.0309072 -2.21049 3.56792 233 234 239 
-0.0109813 -2.19826 3.56285 183 184 186 
0.0154114 -2.1869 3.56872 230 232 231 
-0.00207662 -2.19071 3.57327 234 236 235 
-0.0466382 -2.18404 3.55999 232 234 233 
-0.00790835 -2.1732 3.55528 65 66 68 
-0.0637944 -2.18262 3.55688 232 233 237 
-0.030017 -2.154 3.54602 238 239 244 
-0.0354358 -2.14611 3.54281 185 186 190 
0.00245069 -1.9722 3.36349 50 41 34 
0.0544201 -1.97398 3.41051 147 140 134 
-0.0218932 -1.86759 3.31283 28 25 20 
0.00559781 -1.71721 3.18555 61 48 39 
-0.0653709 -1.48 2.95033 138 132 120 
0.0425357 -1.43812 2.91473 21 11 1 
-0.064637 -1.45204 2.92421 37 30 20 
0.0262579 -1.21787 2.69741 141 137 125 
0.165911 -1.02688 2.52041 10 6 0 
-0.00177704 -1.03707 2.51433 93 88 84 
0.006718 -1.01203 2.49517 122 113 104 
0.0770653 -0.987243 2.47688 11 0 0 
-0.123362 -1.01745 2.49861 142 136 124 
-0.109071 -1.00806 2.49174 31 26 23 
0.0953848 -0.933151 2.42094 144 135 126 
-0.0172009 -0.953143 2.43795 140 133 125 
0.0455544 -0.934306 2.42167 137 129 118 
0.00362486 -0.931403 2.41647 139 134 128 
-0.247007 -1.01975 2.58503 22 0 0 
0.0925429 -0.872547 2.35463 14 8 0 
-0.10515 -0.900281 2.38592 126 113 104 
0.0711416 -0.804452 2.30319 143 135 124 
-0.0861946 -0.829507 2.32396 47 42 38 
-0.258214 -0.92002 2.54434 23 8 3 
0.0874555 -0.773079 2.27506 67 64 55 
0.00502449 -0.783998 2.28218 48 39 32 
0.0513826 -0.759025 2.25047 118 115 110 
0.019899 -0.698307 2.17592 11 3 0 
-0.00457962 -0.670537 2.1396 47 39 28 
-0.084102 -0.678139 2.14955 61 48 40 
-0.0830427 -0.590878 2.09597 17 7 0 
-0.0544496 -0.571782 2.08179 3 0 0 
0.112109 -0.552325 2.09094 10 2 0 
0.240265 -0.536615 2.15034 10 2 0 
-0.172377 -0.57662 2.11836 98 94 91 
0.21804 -0.515807 2.11287 11 6 0 
0.162944 -0.514788 2.08736 11 6 2 
-0.180338 -0.56024 2.11683 4 0 0 
-0.160671 -0.542417 2.09474 5 2 0 
0.229423 -0.478714 2.10886 4 0 0 
0.311816 -0.461182 2.17837 121 116 110 
-0.223093 -0.510229 2.11286 18 13 9 
0.223487 -0.406154 2.06395 9 0 0 
-0.130095 -0.44059 2.05485 102 98 89 
0.20505 -0.399401 2.04355 16 13 8 
0.0730324 -0.39696 2.02175 9 5 2 
0.219262 -0.373448 2.03814 17 12 9 
0.236181 -0.370601 2.04989 27 22 16 
0.239914 -0.358518 2.04696 42 34 31 
0.263004 -0.355493 2.07335 7 0 0 
-0.14804 -0.380516 2.03268 117 114 109 
-0.221599 -0.357606 2.06398 18 15 10 
-0.176045 -0.334795 2.02091 12 9 0 
0.0857642 -0.278888 1.96221 12 7 3 
-0.226333 -0.275414 2.02426 21 16 12 
0.066208 -0.232982 1.92567 85 81 72 
-0.183392 -0.258841 1.98525 5 2 0 
0.194718 -0.216087 1.94476 108 99 92 
-0.130208 -0.239969 1.9464 103 100 93 
-0.153614 -0.219412 1.94564 12 7 3 
-0.0309148 -0.200865 1.90126 110 107 102 
-0.122305 -0.1971 1.92248 4 0 0 
0.153395 -0.167481 1.92532 111 107 106 
-0.110082 -0.190498 1.92005 19 15 12 
-0.255272 -0.180979 1.98905 110 103 93 
-0.0747206 -0.157815 1.88265 109 104 100 
-0.272148 -0.180088 2.01022 88 83 79 
-0.244071 -0.166611 1.97651 7 0 0 
-0.130569 -0.136112 1.8898 108 104 95 
-0.304939 -0.145378 2.03013 7 0 0 
-0.0871791 -0.114922 1.8637 117 113 104 
0.190102 -0.0849307 1.87484 132 123 116 
0.22701 -0.0779976 1.88557 4 0 0 
0.0922225 -0.0819204 1.84531 10 5 1 
-0.128446 -0.0945973 1.86865 113 104 99 
-0.153443 -0.094016 1.87754 4 0 0 
-0.123954 -0.0775724 1.8663 11 6 2 
-0.267019 -0.0433153 1.93509 113 109 100 
-0.0699665 -0.0268023 1.813 7 0 0 
0.147344 0.0105038 1.82631 107 100 94 
0.212918 0.0158279 1.82326 7 3 0 
-0.123666 0.00169123 1.8172 5 0 0 
-0.208033 -0.00133574 1.86474 7 3 0 
0.227227 0.0344632 1.82037 7 0 0 
-0.0645951 0.0264577 1.78285 106 102 93 
0.148809 0.0468952 1.80601 7 2 0 
-0.269705 0.03942 1.89508 105 100 97 
0.123536 0.0646567 1.7849 6 3 0 
-0.151621 0.0615804 1.79848 7 0 0 
-0.211717 0.0677451 1.82811 126 119 111 
-0.0940901 0.0769681 1.77314 98 94 85 
0.219662 0.100772 1.77969 116 107 100 
0.259449 0.109713 1.80988 4 0 0 
-0.059217 0.0889281 1.75028 113 106 98 
0.0160638 0.0945982 1.74029 10 6 0 
0.0110126 0.113021 1.72952 6 1 0 
-0.241162 0.120267 1.82053 72 67 64 
0.132125 0.156228 1.73191 16 12 1 
0.165192 0.166741 1.74153 96 92 89 
-0.0966721 0.1897 1.70579 117 113 104 
0.20451 0.224909 1.70436 92 83 74 
0.272763 0.244051 1.75364 50 42 23 
0.0438463 0.236775 1.67084 151 147 138 
0.0905379 0.242567 1.67333 25 18 8 
0.104746 0.266489 1.66843 100 91 82 
0.0292828 0.275296 1.64875 110 106 97 
-0.186811 0.284639 1.69847 118 116 103 
-0.154813 0.295825 1.67449 103 99 90 
-0.163606 0.304094 1.67492 138 134 122 
-0.0630319 0.309353 1.63502 7 0 0 
0.237897 0.330358 1.66907 34 31 22 
0.118027 0.342258 1.6239 16 6 5 
-0.101283 0.339355 1.62472 122 118 109 
-0.000109598 0.346891 1.59491 111 108 103 
-0.133997 0.352346 1.62678 145 142 135 
-0.0592734 0.350258 1.60103 7 0 0 
0.0621074 0.357521 1.59132 114 110 99 
0.022186 0.365542 1.57576 17 12 6 
0.107755 0.372816 1.58796 105 102 95 
-0.122925 0.381454 1.59023 123 120 113 
0.0144709 0.389023 1.55615 127 118 111 
0.0656388 0.428982 1.54053 106 97 92 
0.0638279 0.478151 1.51337 6 0 0 
0.064632 0.519372 1.48316 127 118 109 
0.106936 0.53765 1.46875 153 148 142 
0.0530951 0.534143 1.45819 122 115 105 
-0.0933621 0.599576 1.43372 92 83 74 
-0.0790783 0.616888 1.42403 108 101 91 
-0.193983 0.62902 1.40087 45 36 21 
-0.118285 0.636834 1.36759 123 120 111 
-0.0147895 -2.18879 3.56118 227 229 228 
0.0178242 -2.16173 3.55153 228 229 233 
-0.0553579 -2.17348 3.55345 55 56 58 
-0.00222078 -2.16271 3.55187 231 232 234 
-0.0438485 -2.16007 3.54562 226 227 231 
-0.0639891 -2.16484 3.55112 232 233 235 
0.0187196 -1.9997 3.35536 39 38 33 
-0.0397378 -1.98742 3.37094 138 129 122 
-0.0257276 -1.97028 3.36071 54 47 37 
-0.0949911 -2.00229 3.41899 51 50 48 
0.0453863 -1.95788 3.38889 53 49 40 
0.0105937 -1.86152 3.29887 147 136 118 
0.0201452 -1.86793 3.31572 150 140 128 
-0.00214907 -1.86937 3.31367 23 19 18 
-0.0856882 -1.81969 3.32288 53 45 42 
-0.0503283 -1.58669 3.04169 41 33 30 
0.0372661 -1.32315 2.80173 42 33 24 
0.032867 -1.16813 2.65089 155 147 134 
0.0229742 -1.13498 2.61497 57 48 39 
-0.104897 -1.15453 2.63176 44 34 25 
-0.240193 -1.18133 2.66497 96 93 88 
-0.251599 -1.17882 2.67225 80 80 70 
-0.041912 -1.09158 2.5663 33 23 13 
0.0479828 -1.05753 2.53859 146 135 115 
-0.0664321 -1.03735 2.51764 140 129 125 
0.219607 -1.01628 2.58192 139 127 115 
-0.0172873 -1.00811 2.49553 41 38 31 
-0.0032323 -0.984864 2.47123 136 127 120 
0.021569 -0.972077 2.45384 108 103 99 
-0.0462342 -0.948013 2.43225 137 128 119 
0.0084564 -0.916641 2.40401 12 2 0 
-0.312232 -1.06893 2.68375 81 78 69 
0.0222473 -0.890733 2.38114 44 35 28 
0.12573 -0.859215 2.35698 67 57 45 
0.0520127 -0.863086 2.3581 108 105 98 
-0.0979996 -0.891804 2.37885 45 35 26 
-0.0651811 -0.879094 2.36784 129 119 109 
-0.0274024 -0.855468 2.34815 12 8 9 
0.130282 -0.800627 2.28892 35 29 17 
-0.0505563 -0.829823 2.32248 63 60 53 
-0.0927327 -0.819611 2.31235 136 129 121 
0.13656 -0.773732 2.27597 138 128 126 
-0.0305706 -0.801171 2.29164 98 93 89 
-0.0597675 -0.785534 2.27686 117 113 104 
-0.0649259 -0.759957 2.26003 155 147 134 
0.0798888 -0.725771 2.21937 29 22 12 
-0.0554374 -0.748826 2.24337 137 129 118 
0.0455639 -0.711828 2.19522 55 45 36 
-0.121721 -0.706781 2.18632 35 28 22 
-0.109445 -0.69521 2.16988 57 51 39 
0.210581 -0.637595 2.16684 8 4 0 
-0.139292 -0.626428 2.11222 137 130 114 
-0.149294 -0.625098 2.11398 138 130 119 
0.040382 -0.576273 2.0833 7 2 0 
-0.125983 -0.58462 2.10133 27 18 9 
0.256961 -0.554047 2.1675 117 113 104 
-0.232298 -0.604577 2.14904 64 58 44 
-0.254667 -0.605873 2.1673 155 147 136 
-0.19058 -0.585198 2.1341 93 90 85 
0.0510312 -0.533066 2.06452 4 0 0 
-0.141049 -0.564329 2.09804 6 0 0 
-0.0454386 -0.535243 2.06426 15 10 7 
0.248687 -0.510777 2.13961 14 4 5 
0.130949 -0.506122 2.06775 29 24 20 
-0.112335 -0.533981 2.07723 29 18 12 
-0.097729 -0.516262 2.06108 18 10 8 
0.245331 -0.491185 2.13413 34 30 21 
0.194084 -0.477802 2.07962 105 102 95 
0.107778 -0.480075 2.05099 66 62 59 
-0.291346 -0.561275 2.19308 103 98 95 
-0.138143 -0.513636 2.07169 88 81 73 
0.214568 -0.455334 2.07444 96 93 86 
0.203514 -0.454177 2.07132 35 31 22 
-0.178154 -0.497393 2.08201 18 13 9 
-0.25552 -0.515464 2.14055 13 10 1 
-0.222626 -0.493268 2.1065 18 13 9 
0.248159 -0.431205 2.09325 107 102 96 
-0.277286 -0.487098 2.14466 44 37 29 
0.265681 -0.410195 2.09572 87 84 77 
0.169185 -0.408004 2.06121 124 114 112 
-0.083434 -0.431136 2.03871 13 8 2 
0.191422 -0.400965 2.04918 21 17 6 
0.179817 -0.403783 2.06104 115 112 105 
-0.111574 -0.433245 2.04506 78 71 65 
0.294693 -0.400988 2.12087 111 106 103 
0.220147 -0.395151 2.05539 18 10 8 
0.286044 -0.383661 2.10209 94 94 84 
0.025581 -0.386406 2.00637 103 98 95 
0.26271 -0.347189 2.06671 93 84 75 
-0.0663855 -0.367949 1.9994 92 89 84 
0.207758 -0.331112 2.00784 108 101 93 
0.17169 -0.330149 2.02101 10 4 4 
0.114576 -0.331064 1.99796 87 86 81 
0.215653 -0.31999 2.00669 5 2 0 
-0.172092 -0.362731 2.03165 15 12 7 
-0.264452 -0.383722 2.11491 20 12 10 
-0.19933 -0.366665 2.05149 6 3 0 
-0.18847 -0.364567 2.04581 23 20 15 
0.217473 -0.300173 1.99898 4 0 0 
0.0454083 -0.308619 1.9657 29 24 18 
-0.277508 -0.362697 2.11551 30 27 22 
-0.070682 -0.321604 1.97954 11 4 0 
-0.254065 -0.348297 2.0812 118 110 107 
0.062845 -0.285426 1.96039 72 68 59 
-0.111607 -0.303783 1.97654 11 6 2 
0.194692 -0.272075 1.9746 100 90 81 
-0.0533973 -0.29418 1.96292 10 6 0 
-0.152788 -0.307818 1.99452 9 5 0 
-0.193508 -0.30549 2.01529 98 93 89 
-0.217501 -0.306117 2.03217 14 9 5 
-0.247366 -0.301558 2.05037 121 116 110 
0.0760086 -0.254534 1.94579 97 92 88 
-0.115515 -0.274525 1.96084 12 7 3 
0.217523 -0.238857 1.96721 15 10 4 
-0.275842 -0.299869 2.07907 4 0 0 
0.159927 -0.24356 1.9667 78 75 70 
0.193093 -0.237515 1.95563 76 73 68 
-0.0685364 -0.253549 1.94372 106 97 92 
0.182999 -0.218071 1.95035 10 5 2 
-0.0716148 -0.237059 1.92689 118 109 102 
-0.157373 -0.2453 1.95975 115 105 95 
-0.142194 -0.242564 1.95454 44 35 26 
-0.112826 -0.237303 1.94079 16 8 5 
0.205513 -0.201816 1.93429 7 2 0 
0.205676 -0.202006 1.9375 4 0 0 
-0.141221 -0.226843 1.94277 93 84 77 
0.204351 -0.192693 1.93336 31 22 17 
-0.167739 -0.223092 1.95595 112 107 103 
0.165636 -0.188755 1.93998 92 87 83 
0.141016 -0.188433 1.92833 25 21 22 
0.273428 -0.178981 1.98582 39 30 23 
-0.119964 -0.209418 1.93349 87 82 78 
-0.230934 -0.224786 1.9993 39 30 23 
0.24952 -0.176078 1.95483 105 101 90 
0.0990942 -0.182041 1.90899 90 91 86 
0.086705 -0.179686 1.9063 6 3 0 
0.240627 -0.168692 1.9474 89 81 70 
-0.104628 -0.197546 1.91707 11 6 3 
0.225463 -0.167404 1.93574 2 2 0 
0.143083 -0.167596 1.91691 95 94 90 
-0.18047 -0.197452 1.94872 98 93 89 
-0.0708473 -0.181766 1.89867 29 22 16 
-0.299428 -0.211143 2.05365 11 0 0 
-0.119751 -0.182173 1.90063 104 99 95 
0.235029 -0.145742 1.92822 5 1 0 
0.166655 -0.145841 1.91414 74 69 65 
-0.178717 -0.177747 1.93756 16 11 7 
0.185326 -0.137972 1.9046 87 82 76 
0.0657333 -0.146241 1.87557 72 62 52 
0.233965 -0.131984 1.91518 65 58 52 
0.238234 -0.133743 1.94596 107 103 94 
-0.185728 -0.166947 1.93649 11 6 2 
0.249003 -0.128645 1.93333 83 78 74 
0.194323 -0.127655 1.89453 76 69 63 
0.224263 -0.122344 1.90472 89 82 74 
0.27146 -0.120823 1.94454 95 86 79 
-0.118263 -0.145358 1.90027 6 3 0 
0.176056 -0.117805 1.90375 4 0 0 
-0.0563142 -0.13465 1.86841 66 57 48 
0.231136 -0.107779 1.90581 87 83 74 
-0.119793 -0.13113 1.89212 102 94 91 
-0.281131 -0.145353 2.00068 99 92 86 
0.107273 -0.106487 1.87056 33 28 24 
-0.0781505 -0.119713 1.86329 33 24 17 
-0.200225 -0.128373 1.92368 17 14 5 
0.166694 -0.092997 1.88416 75 70 67 
0.279008 -0.0836458 1.93501 92 88 76 
-0.117639 -0.113535 1.8731 50 45 39 
-0.0665807 -0.106396 1.85528 4 0 0 
-0.152001 -0.107132 1.88095 10 5 1 
-0.095565 -0.0914479 1.85267 8 5 0 
0.179669 -0.0588092 1.86602 23 13 12 
0.271003 -0.0509011 1.91253 58 49 40 
0.0695807 -0.0620695 1.84005 48 38 29 
0.204434 -0.0494564 1.85548 17 13 2 
-0.0501319 -0.0632856 1.83758 20 11 6 
0.142467 -0.0478461 1.8551 7 2 0 
0.260887 -0.0387343 1.88734 98 92 80 
0.186571 -0.0399602 1.85477 14 7 1 
-0.0797879 -0.0597344 1.83325 16 13 8 
0.0788742 -0.0445252 1.83196 22 13 6 
-0.231318 -0.0669267 1.91429 10 1 0 
0.23246 -0.030314 1.86201 75 70 67 
-0.0858012 -0.0462103 1.82507 9 4 0 
-0.228275 -0.0562504 1.90931 11 4 0 
-0.168987 -0.0504211 1.86479 4 0 0 
-0.0711294 -0.0424693 1.82066 109 104 100 
-0.126329 -0.0422909 1.84112 16 13 8 
-0.218183 -0.0438875 1.89664 93 84 77 
0.184664 -0.0140643 1.84022 87 78 69 
-0.0999905 -0.0291105 1.82315 98 95 88 
-0.232551 -0.0363944 1.89683 97 89 86 
0.1122 -0.00515177 1.81265 93 84 79 
-0.198582 -0.0249309 1.8671 9 4 0 
-0.127864 -0.0201107 1.8278 17 13 4 
-0.0667616 -0.0133179 1.81402 41 31 21 
-0.092912 -0.00852201 1.80892 5 1 0 
-0.243352 -0.0115602 1.89808 7 0 0 
0.202391 0.0187733 1.81571 85 78 72 
-0.275689 -0.00130393 1.92206 11 7 0 
0.0957498 0.0294798 1.78641 90 81 74 
-0.0788657 0.0189313 1.79241 95 91 82 
-0.113767 0.0177001 1.80061 13 9 6 
-0.215506 0.0156334 1.85868 3 0 0 
-0.200432 0.0230008 1.84704 10 7 2 
-0.236051 0.0230448 1.87263 8 4 0 
-0.128571 0.0275591 1.80095 98 94 85 
0.0886339 0.041857 1.78738 109 100 91 
0.102234 0.0429945 1.78727 104 99 93 
-0.183907 0.0330602 1.82842 8 4 0 
-0.280248 0.0337566 1.91351 90 85 81 
-0.225341 0.0360886 1.85548 89 85 76 
-0.147611 0.0406401 1.8061 97 92 88 
0.108051 0.0562805 1.78417 112 107 101 
0.301966 0.0752795 1.87141 25 16 9 
-0.236951 0.0419919 1.86495 79 75 66 
-0.134114 0.0455555 1.79514 19 14 10 
-0.172484 0.0508014 1.81336 4 0 0 
-0.151505 0.0527756 1.80349 88 84 75 
-0.245728 0.0549317 1.86396 100 99 95 
0.115405 0.0786699 1.76784 100 92 89 
-0.260908 0.0731884 1.88583 128 120 107 
-0.241802 0.0723334 1.85065 24 20 11 
0.108702 0.100818 1.75494 14 9 5 
-0.0828553 0.0915467 1.75326 7 3 0 
-0.00790262 0.0984521 1.74472 114 110 101 
-0.10153 0.0981911 1.75511 106 102 93 
-0.0650793 0.101388 1.7444 87 83 74 
0.123234 0.114568 1.7588 130 123 113 
-0.0861304 0.103927 1.74803 131 127 115 
-0.237411 0.111279 1.82342 25 16 7 
-0.00891894 0.116536 1.73542 89 86 79 
0.251467 0.146223 1.78245 12 3 0 
0.0465593 0.13039 1.73058 40 33 25 
0.10976 0.136186 1.73946 24 14 5 
0.297071 0.159719 1.82338 24 17 11 
0.0743174 0.144804 1.7254 26 19 9 
0.0639402 0.147811 1.72213 18 9 4 
0.0120309 0.147011 1.71786 8 5 0 
-0.287237 0.153124 1.85628 16 11 5 
-0.0531642 0.150348 1.71535 38 31 25 
0.235785 0.175995 1.75119 109 102 92 
0.183479 0.173519 1.73857 7 0 0 
-0.0340017 0.162055 1.70809 104 101 92 
0.00585459 0.16544 1.70227 12 7 1 
-0.177108 0.165289 1.75778 21 17 8 
-0.155042 0.166209 1.74922 20 11 4 
0.275906 0.197345 1.77132 91 84 74 
-0.0171139 0.177135 1.70112 7 4 0 
-0.135378 0.181239 1.72773 3 0 0 
-0.215121 0.184167 1.77019 109 102 92 
0.117804 0.19269 1.70772 108 104 95 
-0.0782531 0.188215 1.70359 85 81 72 
0.112503 0.199025 1.70546 20 10 1 
-0.076375 0.200919 1.69577 5 0 0 
-0.162669 0.211007 1.7298 121 113 102 
-0.14774 0.21261 1.71445 96 89 79 
0.0581184 0.223608 1.67659 8 0 0 
0.199254 0.233473 1.69851 10 5 0 
0.0153562 0.22502 1.67474 16 13 4 
0.144918 0.236204 1.69733 24 20 11 
-0.055226 0.228245 1.67942 30 25 19 
0.204635 0.244962 1.69065 111 101 92 
0.250102 0.262595 1.72088 148 144 133 
0.21949 0.260392 1.69702 20 11 6 
-0.118037 0.246246 1.6847 11 6 2 
0.0995835 0.252446 1.67281 7 0 0 
0.153072 0.26026 1.6902 24 19 15 
-0.0564604 0.250107 1.66785 32 28 19 
0.0840388 0.258981 1.66455 100 91 86 
0.199957 0.269299 1.67946 11 5 0 
0.181249 0.276913 1.68822 77 72 69 
0.135976 0.27356 1.67371 65 56 47 
0.0439976 0.274469 1.65094 23 14 7 
0.119759 0.281985 1.66492 36 27 22 
0.0569296 0.277952 1.64874 82 73 66 
0.232903 0.302632 1.6797 98 91 83 
0.0675311 0.292148 1.64431 85 76 67 
0.137901 0.297924 1.66389 37 28 21 
-0.17929 0.299197 1.68771 80 75 71 
0.254161 0.3191 1.6876 112 103 94 
0.241374 0.321794 1.67806 30 21 12 
0.0623284 0.322447 1.62882 20 11 6 
0.223184 0.334458 1.63665 116 112 101 
-0.119901 0.331154 1.63856 17 12 6 
0.109394 0.335093 1.62939 8 3 0 
0.034297 0.347278 1.59729 100 96 85 
0.121093 0.352617 1.61151 4 0 0 
0.27945 0.390714 1.6694 57 50 40 
0.238238 0.385473 1.63863 99 89 77 
0.0483496 0.366944 1.57678 4 0 0 
-0.0657027 0.370535 1.57842 102 98 87 
0.234962 0.395399 1.62973 7 3 0 
0.0651386 0.381277 1.56754 7 1 1 
0.196334 0.398146 1.60252 8 4 0 
0.144548 0.394886 1.57958 72 68 65 
0.0872552 0.393134 1.56298 80 76 73 
0.24418 0.425311 1.62877 100 91 82 
0.0537426 0.402925 1.55337 14 9 5 
0.160356 0.413298 1.57706 5 0 0 
0.162174 0.427131 1.56979 91 87 78 
0.103718 0.42541 1.55017 75 70 66 
0.258192 0.448255 1.61793 20 15 11 
0.041651 0.427164 1.53884 10 6 0 
0.0790132 0.429877 1.5426 129 122 112 
0.214422 0.466314 1.58658 87 82 76 
0.0513361 0.45857 1.52251 11 4 0 
0.0208001 0.479975 1.50847 99 92 84 
0.0572758 0.500735 1.50227 28 24 15 
0.279279 0.545589 1.5991 104 100 91 
0.0664941 0.509727 1.49479 32 28 17 
0.26534 0.541756 1.56558 145 139 123 
0.132681 0.517213 1.49985 10 5 0 
0.301064 0.571685 1.5943 46 39 29 
0.0208658 0.563489 1.43449 95 86 79 
-0.0336449 0.565745 1.43665 92 82 73 
-0.0712079 0.584401 1.43969 112 102 92 
-0.00917273 0.578723 1.42693 116 108 97 
0.0142712 0.597583 1.41609 129 120 111 
-0.125283 0.612885 1.43839 98 92 80 
-0.15479 0.624498 1.44398 122 118 109 
-0.0322211 0.616145 1.41384 130 117 101 
-0.17161 0.628462 1.39045 15 8 2 
-0.227482 0.649594 1.41036 31 23 10 
-0.091628 0.625834 1.37066 8 0 0 
-0.140135 0.640135 1.3755 9 0 0 
-0.150166 0.646069 1.37193 109 101 90 
-0.162883 0.661567 1.37158 75 74 56 
-0.120653 0.6608 1.35568 86 80 64 
0.113012 -1.56947 3.14112 63 59 56 
0.0185248 -0.9064 2.39354 129 119 109 
0.246332 -0.921564 2.56515 116 107 98 
-0.113122 -0.860627 2.34899 43 38 32 
0.111355 -0.791956 2.28309 116 109 99 
0.252407 -0.526597 2.1462 11 7 4 
0.237578 -0.503583 2.11842 84 81 76 
-0.270822 -0.522569 2.15732 40 35 29 
-0.157234 -0.482201 2.06225 77 73 62 
0.238222 -0.445431 2.09972 75 66 61 
0.296405 -0.436219 2.14082 85 80 76 
0.321632 -0.42875 2.17869 78 74 71 
-0.245571 -0.441055 2.10712 8 4 3 
0.312396 -0.362065 2.12853 125 121 112 
0.283285 -0.33755 2.08093 8 3 0 
-0.201964 -0.386319 2.05936 98 95 90 
0.275657 -0.313339 2.06186 101 98 89 
-0.172182 -0.352279 2.031 24 20 17 
0.0576242 -0.311754 1.96781 100 97 92 
0.306952 -0.270386 2.05935 94 84 75 
0.27315 -0.239585 2.01817 90 83 73 
-0.166973 -0.270052 1.98139 25 20 16 
0.264531 -0.219914 1.9985 96 85 79 
0.239944 -0.184339 1.95511 87 78 69 
-0.090369 -0.202823 1.91802 80 75 71 
0.320143 -0.170501 2.03544 31 19 21 
0.202876 -0.162292 1.91763 141 128 119 
0.249533 -0.159202 1.95004 7 0 0 
-0.15289 -0.189787 1.93146 100 97 92 
-0.066215 -0.162959 1.88799 6 1 0 
0.249919 -0.0946482 1.91561 83 78 72 
-0.127212 -0.114048 1.87695 48 44 35 
0.106553 -0.0822285 1.85899 79 74 70 
0.0817125 -0.0741905 1.84784 82 77 73 
0.247158 -0.0430626 1.88377 92 81 75 
-0.103191 -0.0426432 1.83129 6 2 0 
-0.15896 -0.0334911 1.84791 49 44 38 
0.318814 0.0067436 1.9343 35 27 25 
0.145485 0.00113923 1.82899 93 88 85 
-0.201198 -0.0099173 1.86388 83 80 73 
0.332168 0.0547451 1.92614 114 104 94 
0.233332 0.0522376 1.81998 42 35 27 
-0.250049 0.0450596 1.87284 81 76 73 
0.267254 0.0994607 1.8208 88 81 73 
0.153698 0.129354 1.76119 125 114 108 
-0.0454093 0.186608 1.69369 100 95 91 
-0.202005 0.195424 1.76136 21 12 5 
0.0633841 0.215349 1.68668 19 16 9 
0.250747 0.234427 1.73228 16 12 1 
0.16171 0.231547 1.70708 86 78 75 
-0.0817319 0.236059 1.68198 78 73 70 
0.0845701 0.249252 1.6732 12 4 1 
0.269913 0.278305 1.73357 136 124 112 
-0.075622 0.257607 1.66523 89 85 74 
0.244231 0.300888 1.6942 35 31 20 
-0.141312 0.315961 1.65535 98 91 83 
0.313447 0.460502 1.68575 110 108 95 
0.254752 0.547332 1.55082 94 88 76 
0.0366214 0.578712 1.42843 106 97 88 
-0.1298 0.624646 1.37636 64 56 45 
-0.213163 0.648237 1.39775 85 81 70 
0.00794517 -2.17485 3.55947 56 57 61 
-0.00485477 -2.11547 3.50728 234 235 239 
-0.038542 -2.09809 3.4789 229 230 232 
0.0180045 -2.01285 3.37111 82 83 77 
0.0399353 -2.00542 3.39272 49 48 43 
0.0618167 -2.00148 3.42043 43 42 40 
-0.0878261 -1.8463 3.34274 231 230 235 
0.0200049 -1.43893 2.90717 50 46 37 
0.0799076 -1.16225 2.64359 64 59 53 
0.238206 -1.13904 2.65961 75 71 60 
0.130611 -1.07184 2.56841 43 42 38 
-0.0583116 -1.09211 2.56354 19 10 1 
0.0119915 -1.05408 2.53579 148 140 129 
0.292538 -1.03903 2.6791 217 221 222 
0.263591 -0.953977 2.60646 24 14 13 
0.111465 -0.841547 2.33429 150 134 119 
0.171719 -0.622479 2.12654 150 142 131 
0.248116 -0.549902 2.1538 4 0 0 
-0.0633087 -0.563336 2.07894 96 91 87 
0.0847004 -0.49628 2.05274 4 2 5 
0.115817 -0.492232 2.05709 0 4 3 
0.187732 -0.486099 2.0845 4 3 0 
0.160254 -0.452381 2.0805 41 37 36 
-0.15706 -0.472058 2.05487 93 89 78 
-0.129998 -0.466484 2.0718 76 72 69 
-0.228265 -0.473281 2.09563 5 5 3 
0.046622 -0.419901 2.02923 16 12 9 
-0.0276948 -0.425016 2.02977 78 75 68 
0.147363 -0.408718 2.05094 34 30 29 
0.24995 -0.393349 2.06734 113 106 96 
0.0957217 -0.382578 2.01381 103 98 92 
-0.261642 -0.41752 2.13046 86 81 75 
0.180919 -0.330004 2.01778 63 63 53 
-0.29194 -0.399152 2.14481 0 0 0 
0.265084 -0.317155 2.05246 103 94 87 
0.281918 -0.314651 2.05657 59 55 46 
0.204744 -0.306578 1.99373 64 60 51 
0.186977 -0.308597 2.00434 5 0 0 
0.211927 -0.291824 1.98976 125 121 112 
0.281091 -0.25063 2.02606 123 120 111 
-0.0112998 -0.241889 1.92349 85 80 74 
0.213808 -0.163762 1.92232 107 100 94 
0.0956132 -0.170703 1.90251 104 101 96 
-0.258214 -0.204431 2.00116 119 110 93 
0.14824 -0.148122 1.90993 67 64 57 
0.164078 -0.133116 1.90963 56 52 49 
-0.149814 -0.120894 1.88697 119 114 108 
-0.0808397 -0.107798 1.86431 76 71 65 
-0.173588 -0.112138 1.89899 115 110 106 
-0.19462 -0.102623 1.90606 50 47 42 
-0.112367 -0.0888448 1.87987 100 95 89 
0.21709 -0.0517006 1.86517 64 55 50 
0.22952 -0.0500586 1.87401 116 107 100 
0.300424 -0.0360136 1.93639 87 85 72 
-0.0888574 -0.0539456 1.83268 98 95 90 
-0.159226 -0.0567374 1.86577 83 75 72 
0.0938462 0.0166724 1.79707 82 75 69 
0.31462 0.0434885 1.90902 92 83 76 
0.0758338 0.0429525 1.78232 106 97 88 
0.312431 0.0755211 1.8947 26 21 17 
0.209457 0.06564 1.79506 15 10 4 
0.24892 0.0728889 1.81939 94 85 80 
0.199466 0.10416 1.7643 7 0 0 
0.200357 0.143417 1.74659 11 0 0 
0.112781 0.152582 1.73174 39 30 23 
0.0942051 0.190267 1.70477 88 78 69 
0.226423 0.206604 1.72766 90 77 68 
0.117448 0.233227 1.68834 25 16 11 
0.291295 0.262035 1.76263 14 6 4 
0.122661 0.248734 1.68062 101 90 86 
0.2234 0.300612 1.67213 93 86 76 
0.264587 0.323659 1.70785 129 118 98 
0.208852 0.320899 1.65769 25 21 12 
0.138998 0.329906 1.64791 20 13 7 
0.194523 0.336962 1.64037 106 97 90 
-0.194055 0.335397 1.64941 37 34 25 
0.0699843 0.337676 1.61303 4 0 0 
0.153007 0.34698 1.63492 6 1 0 
0.0170037 0.339828 1.60495 73 70 65 
0.289166 0.369189 1.69333 34 31 24 
0.180899 0.366152 1.62468 83 79 67 
-0.0113601 0.365725 1.57527 27 24 19 
-0.0858405 0.383963 1.56876 21 16 13 
0.0369903 0.412574 1.54497 117 113 104 
0.134191 0.433298 1.55769 9 1 0 
0.126246 0.448597 1.54732 46 42 33 
0.104298 0.502086 1.50437 33 26 16 
0.0789056 0.509257 1.48934 39 34 30 
0.238615 0.544875 1.53755 17 12 8 
0.231544 0.548581 1.53591 66 61 58 
0.00229532 0.524559 1.47077 102 94 81 
0.093936 0.529224 1.47196 99 89 87 
0.194123 0.546992 1.51258 83 79 70 
0.0148052 0.532591 1.45358 92 88 79 
-0.17428 0.659632 1.37504 102 97 78 
-0.289069 0.649368 1.28099 17 12 0 
-0.0438515 -1.98009 3.37651 139 130 113 
-0.0373801 -1.86551 3.31149 141 129 115 
-0.222535 -1.01564 2.555 14 9 6 
-0.139495 -0.601997 2.11603 2 2 0 
0.0656974 -0.548217 2.07916 97 92 88 
0.329024 -0.492456 2.21391 105 100 97 
0.21398 -0.435898 2.07717 9 4 0 
0.247245 -0.37852 2.07119 75 71 62 
0.168224 -0.160023 1.92533 45 41 38 
0.230915 -0.0235574 1.85468 15 12 7 
0.268769 0.0335255 1.85959 22 11 7 
0.247442 0.0529312 1.82847 29 20 13 
0.251303 0.0537589 1.85678 25 18 10 
0.268198 0.143445 1.79746 80 77 68 
0.105943 0.354278 1.60141 86 79 71 
0.230108 0.379744 1.64029 95 88 78 
0.0974888 0.37405 1.5762 81 77 68 
-0.243121 0.655522 1.28176 66 54 42 
-0.0448045 -2.20401 3.56967 231 232 236 
0.0359318 -1.93858 3.35863 38 34 31 
0.266093 -0.490089 2.13507 69 66 61 
0.0134607 -0.487338 2.03905 66 57 48 
-0.0740575 -0.477482 2.00471 94 84 82 
-0.154144 -0.433187 2.05411 5 6 1 
0.199057 -0.39592 2.06781 118 106 90 
0.11077 0.0133257 1.80633 72 63 56 
-0.15345 0.074407 1.78024 13 10 5 
-0.223677 0.63654 1.41397 126 118 97 
-0.26361 0.64561 1.33787 107 97 87 
-0.271219 0.647113 1.28126 117 110 91 
0.0178718 -2.02077 3.38968 60 59 54 
-0.0998692 -1.76686 3.27632 218 222 223 
0.154333 -0.457143 2.06675 102 97 93 
0.216029 -0.395264 2.04375 9 4 1 
0.253903 0.405213 1.64682 97 93 82 
-0.0521949 -2.20948 3.56535 228 229 233 
0.018988 -1.97946 3.37884 128 117 99 
0.143786 -1.55089 3.12051 221 225 228 
0.0894002 -0.51943 2.0666 58 57 52 
0.179914 -0.507638 2.09638 82 78 69 
0.270684 -0.324421 2.06165 84 84 74 
0.15728 -0.188605 1.93436 84 81 76 
0.149552 -0.117342 1.89513 96 92 81 
0.0508891 0.607711 1.35559 20 10 1 
0.200658 -0.377475 2.05694 129 120 111 
-0.00483982 -0.222027 1.90544 0 2 1 
0.0574543 0.0753381 1.76181 87 83 74 
-0.0306192 -2.20198 3.70042 47 43 40 
0.273561 -1.00706 2.65411 86 81 75 
0.173863 -0.480684 2.08472 1 1 1 
-0.187693 0.348487 1.6258 106 103 88 
0.011504 -0.224911 1.92944 1 1 1 
0.190745 -0.341204 2.01889 41 37 26 
-0.127593 -0.223601 1.93872 18 11 5 
-0.121995 -0.182922 1.91053 104 99 95 
-0.26698 -0.155613 2.01799 89 84 78 
-0.198434 0.0104452 1.85669 7 2 0 
0.0470864 0.58688 1.42372 34 23 17 
-0.154287 0.618481 1.44733 101 98 89 
-0.197253 0.627485 1.40082 158 147 129 
-0.437603 0.707845 1.40729 89 86 71 
0.0842682 -0.099086 1.85632 16 6 4 
0.169194 0.540194 1.49873 110 105 99 
-0.0214199 -0.47363 2.05249 81 72 67 
0.23265 0.282914 1.69252 109 99 90 
-0.194797 0.33629 1.65075 38 35 26 
-0.0581898 -1.94603 3.38003 24 17 25 
-0.140753 -0.805254 2.2943 44 40 37 
0.204493 -0.318874 2.01025 72 69 60 
0.227993 0.11794 1.78093 87 78 69 
0.00940136 0.528293 1.4587 44 40 31 
0.00442405 -2.15482 3.49054 228 229 233 
0.00659659 -0.620685 2.05702 156 149 141 
0.0213879 -1.9202 3.3828 30 26 23 
0.220548 -0.996138 2.53169 133 121 107 
0.210192 -0.993338 2.51765 113 103 94 
0.0984208 -0.861781 2.3402 112 106 94 
0.138706 -0.81333 2.29376 134 125 116 
0.0385893 -0.556596 2.07324 11 8 3 
0.278588 -0.494935 2.14148 14 6 3 
0.0549155 -0.512286 2.05175 8 0 0 
-0.0930285 -0.537321 2.0729 122 115 107 
-0.161841 -0.544602 2.10001 20 15 9 
0.266287 -0.397368 2.08233 109 104 100 
0.316555 -0.377487 2.12245 103 99 88 
0.185479 -0.384747 2.033 34 31 22 
0.282643 -0.360939 2.07813 15 9 9 
0.0844139 -0.400704 2.02716 4 0 0 
0.339374 -0.345002 2.13615 4 1 0 
0.321627 -0.32382 2.10362 20 16 7 
-0.0846298 -0.412453 2.03516 27 22 18 
0.125285 -0.278564 1.97669 107 103 100 
0.334151 -0.237041 2.06596 99 92 84 
0.0850295 -0.279267 1.96481 12 7 3 
0.080187 -0.242578 1.94235 129 126 121 
0.0650442 -0.234368 1.93561 104 97 89 
0.2584 -0.166286 1.95995 7 0 0 
0.328432 -0.147157 2.0171 137 134 125 
0.309929 -0.145317 1.99658 13 4 0 
0.15281 -0.167629 1.92765 111 107 106 
0.163289 -0.163437 1.92661 85 80 76 
0.278926 -0.12355 1.95273 8 4 0 
0.12725 -0.140483 1.90146 77 76 74 
0.267358 -0.109967 1.93669 124 120 111 
0.285149 -0.0865547 1.93996 5 1 0 
0.272315 -0.0887054 1.9294 126 117 110 
-0.059136 -0.154221 1.89272 110 103 95 
0.291332 -0.0736318 1.93943 10 0 0 
0.217057 -0.0791657 1.88192 8 5 0 
0.177025 -0.0792978 1.88704 6 1 0 
-0.0695329 -0.115089 1.87413 20 11 4 
0.221429 -0.0446102 1.86693 10 5 2 
0.313905 -0.00928541 1.92973 9 0 0 
0.254915 0.00464848 1.86054 103 99 88 
0.331016 0.0367916 1.92148 97 88 79 
0.341582 0.0403383 1.93154 136 127 118 
0.247457 0.0272526 1.8441 10 2 0 
0.146195 0.0106708 1.83059 107 100 94 
0.366172 0.0683451 1.95801 23 13 3 
0.124856 0.0234214 1.81091 97 92 88 
0.331794 0.0874258 1.89805 9 0 0 
0.252865 0.0714188 1.82421 118 111 101 
0.373936 0.105059 1.95055 9 0 0 
0.236557 0.0877614 1.8034 110 106 97 
0.185957 0.0813055 1.789 141 133 120 
0.370142 0.129713 1.92639 113 103 93 
-0.0744026 0.0392035 1.79328 92 87 81 
0.355762 0.129076 1.91021 11 2 0 
0.31794 0.133712 1.85361 12 5 0 
0.206852 0.146551 1.75183 104 94 85 
0.330694 0.187151 1.8382 111 102 93 
0.351106 0.194475 1.8613 12 5 0 
0.355042 0.202784 1.86644 15 11 0 
0.322464 0.198145 1.82319 136 128 117 
-0.0844039 0.136647 1.74136 11 4 0 
0.103849 0.172586 1.72027 5 0 0 
0.342318 0.233775 1.82496 143 135 116 
0.340437 0.248956 1.81656 141 130 112 
0.321937 0.2493 1.79398 7 0 0 
0.286149 0.241636 1.75735 161 151 139 
0.338318 0.271619 1.8002 59 47 31 
0.335966 0.279016 1.79276 143 136 120 
0.382129 0.304312 1.85541 29 23 11 
0.199905 0.255179 1.68685 19 11 0 
0.353644 0.306784 1.80171 3 3 0 
0.347438 0.314425 1.79048 149 137 123 
0.270038 0.292247 1.71555 121 110 92 
0.337138 0.317998 1.77453 29 19 7 
0.349392 0.32356 1.78566 46 37 22 
0.379478 0.390927 1.79803 21 11 1 
0.247107 0.339523 1.66644 8 1 0 
0.297096 0.360589 1.70282 138 130 117 
0.310295 0.367617 1.71406 150 140 128 
0.324088 0.373295 1.72443 128 120 107 
0.35676 0.391091 1.75957 30 20 11 
0.129194 0.33582 1.63597 13 4 0 
0.270953 0.368664 1.66646 34 30 21 
0.355275 0.40909 1.74897 22 14 3 
0.274668 0.378633 1.66413 19 14 11 
0.333037 0.427645 1.7072 138 134 125 
0.285532 0.480514 1.62107 108 104 93 
0.119359 0.456367 1.54198 126 119 111 
-0.0321946 0.464195 1.51603 148 144 135 
-0.0457261 0.466063 1.51829 101 97 88 
0.190658 0.498703 1.54504 140 136 127 
-0.116625 0.490729 1.52101 118 114 102 
0.136574 -0.895006 2.36775 113 104 95 
0.246822 -0.906425 2.52078 94 89 83 
0.0387936 -0.839367 2.32137 101 101 91 
0.00676758 -0.838384 2.32254 93 90 85 
0.138538 -0.763262 2.24555 117 112 109 
0.0618977 -0.762209 2.25308 98 97 92 
-0.031336 -0.707086 2.18521 127 114 105 
0.0279535 -0.65563 2.12602 45 36 27 
-0.0406472 -0.671819 2.12983 144 136 125 
0.0709921 -0.579679 2.08905 92 89 84 
-0.0229345 -0.580755 2.08286 11 6 3 
0.214191 -0.483245 2.08505 38 33 27 
-0.0644085 -0.54027 2.07121 95 91 88 
-0.112234 -0.550656 2.0859 6 2 0 
0.254687 -0.454614 2.09818 11 6 2 
0.0931168 -0.481624 2.04409 95 90 84 
-0.205682 -0.574423 2.13871 9 8 3 
0.293014 -0.442222 2.1316 47 42 38 
0.323315 -0.435427 2.16121 85 80 76 
0.223561 -0.415964 2.05951 12 4 0 
0.340381 -0.404606 2.17624 104 99 95 
0.29506 -0.388902 2.10687 98 94 85 
0.38649 -0.382726 2.23506 32 30 17 
0.266448 -0.386439 2.07693 105 100 94 
0.275416 -0.384772 2.08771 124 121 116 
0.282774 -0.376172 2.09339 11 8 3 
-0.110342 -0.469038 2.0688 88 83 80 
0.259801 -0.373121 2.06582 108 108 98 
0.27022 -0.369218 2.06931 108 103 97 
0.0984756 -0.405898 2.03033 87 83 80 
0.229092 -0.370089 2.04004 47 42 39 
0.15037 -0.384662 2.03367 17 13 10 
-0.120014 -0.454031 2.06921 112 107 103 
0.288521 -0.353261 2.08142 22 17 13 
-0.10386 -0.437031 2.05668 83 78 74 
-0.138219 -0.443055 2.06949 91 84 78 
0.275509 -0.340717 2.06009 94 89 86 
0.211653 -0.343643 2.01463 32 30 18 
0.0444247 -0.378349 2.00818 41 37 34 
0.327768 -0.322039 2.11575 108 105 100 
0.302 -0.317582 2.07304 116 111 107 
-0.116601 -0.402348 2.03829 42 41 36 
0.310388 -0.301825 2.07774 98 94 85 
-0.117447 -0.391613 2.03658 21 16 12 
0.288033 -0.279759 2.03619 14 11 6 
0.346807 -0.272729 2.10578 7 2 0 
0.301923 -0.273567 2.04986 89 85 74 
-0.050378 -0.349048 1.99515 96 95 90 
0.340829 -0.261814 2.09486 25 21 12 
-0.165419 -0.370456 2.04204 14 11 6 
0.352466 -0.256485 2.11141 48 38 36 
-0.0719715 -0.322393 1.98306 11 4 0 
0.326674 -0.232155 2.05809 102 98 87 
0.0720518 -0.271927 1.9585 101 98 93 
0.169304 -0.246399 1.97466 20 15 12 
0.0613719 -0.268321 1.95236 18 13 9 
-0.0551814 -0.295069 1.96787 10 6 0 
0.0750594 -0.254995 1.94905 97 92 88 
-0.203381 -0.313746 2.03839 18 15 10 
0.236194 -0.20733 1.96283 117 106 104 
0.272678 -0.198828 1.98966 27 18 9 
0.342425 -0.175774 2.05119 96 92 83 
0.284859 -0.18323 1.99143 34 30 21 
0.153978 -0.199185 1.94128 93 89 80 
0.293899 -0.160932 1.98787 65 56 47 
-0.0287374 -0.221785 1.92611 4 3 0 
0.0862144 -0.189232 1.90864 116 110 98 
0.145462 -0.174844 1.92284 72 68 65 
0.335525 -0.133062 2.01961 31 29 17 
0.281138 -0.139984 1.96368 5 1 0 
-0.13 -0.225128 1.94939 25 17 14 
0.354502 -0.121282 2.03984 91 82 75 
0.345014 -0.120311 2.02501 20 11 2 
0.287098 -0.128329 1.96458 7 3 0 
-0.157205 -0.221072 1.96046 10 5 1 
-0.122145 -0.210119 1.9389 87 82 78 
0.23866 -0.131656 1.92414 92 85 79 
0.111697 -0.157141 1.90335 88 84 83 
0.307815 -0.10785 1.97259 96 89 81 
0.327538 -0.103859 1.99494 47 45 33 
0.223883 -0.122324 1.90651 89 82 74 
0.319405 -0.101393 1.98002 87 83 72 
0.252542 -0.112658 1.92399 84 81 74 
0.0790422 -0.146377 1.88339 88 84 75 
0.229647 -0.113311 1.90688 12 0 0 
0.0774481 -0.121785 1.87595 83 78 74 
0.298484 -0.0761767 1.94667 106 102 93 
0.150989 -0.106333 1.89086 6 3 0 
0.226159 -0.0884733 1.89253 13 10 5 
0.0934251 -0.106345 1.87104 7 2 0 
0.280897 -0.0540613 1.91564 97 87 77 
0.336842 -0.0377867 1.97294 107 98 89 
0.0879107 -0.0864808 1.85871 127 123 114 
0.198002 -0.062199 1.86319 32 23 18 
0.321326 -0.0316928 1.95136 9 0 0 
-0.121238 -0.114691 1.88884 36 28 25 
0.203914 -0.0494239 1.85774 17 13 2 
0.333207 -0.0202626 1.96015 108 98 86 
0.231944 -0.0345891 1.86673 27 22 16 
0.282154 -0.0174213 1.89773 10 3 0 
0.280742 -0.00192528 1.88823 36 29 23 
-0.0520807 -0.0633553 1.84265 20 11 6 
0.318813 0.0177033 1.91992 42 35 29 
0.121079 -0.02233 1.83641 79 74 70 
0.320837 0.0279501 1.91563 14 7 1 
0.149665 -0.0040485 1.8345 2 1 0 
0.346701 0.042854 1.93982 116 109 101 
0.116948 -0.00721307 1.82179 53 49 38 
0.346697 0.0489232 1.92949 8 0 0 
0.353004 0.0527277 1.94071 106 93 84 
0.202036 0.0184316 1.8193 92 85 79 
-0.177524 -0.0413721 1.87463 30 22 20 
0.357894 0.0628937 1.94817 25 13 1 
0.375052 0.0677238 1.97022 101 92 85 
0.19886 0.0268174 1.81402 10 1 0 
0.227734 0.0347091 1.82528 7 0 0 
0.258245 0.0442927 1.83983 16 12 9 
0.192316 0.0384118 1.80843 109 95 82 
0.22906 0.0472826 1.82032 96 92 83 
0.137599 0.0359509 1.80862 95 90 84 
0.091188 0.0394267 1.79416 25 18 8 
0.279907 0.0775695 1.84553 49 40 31 
0.282851 0.0954538 1.83731 117 108 103 
0.303094 0.104567 1.85769 116 112 101 
0.34702 0.121577 1.90275 10 2 0 
-0.108788 0.0328986 1.80404 93 90 85 
0.284018 0.105147 1.83405 91 87 78 
0.211756 0.0920409 1.78589 107 98 89 
0.273241 0.106655 1.82293 28 19 12 
0.0981397 0.0731 1.77777 13 6 0 
0.351032 0.137182 1.89724 100 91 82 
-0.128251 0.0566841 1.80178 4 0 0 
0.306892 0.144213 1.83302 74 70 59 
0.324981 0.163019 1.84534 41 33 22 
0.0460218 0.107692 1.74698 106 99 93 
-0.133725 0.0855191 1.78769 11 7 0 
0.268016 0.154301 1.79157 91 84 76 
0.302246 0.164245 1.81959 10 3 0 
0.32898 0.172184 1.83871 117 108 99 
0.344148 0.181129 1.86437 114 107 97 
0.0608227 0.118159 1.74315 95 90 86 
0.226726 0.159668 1.75574 14 3 0 
0.0137953 0.122763 1.7326 9 4 0 
0.0574898 0.138028 1.7316 126 117 108 
0.305227 0.195645 1.80099 112 108 97 
0.33476 0.216908 1.8258 110 106 94 
0.350344 0.223835 1.84124 104 94 84 
0.306553 0.209794 1.79587 96 93 84 
0.344609 0.224126 1.83106 39 29 19 
0.0651391 0.163195 1.71711 89 84 80 
0.286887 0.215072 1.77228 39 29 27 
0.0263167 0.16704 1.71001 15 11 2 
-0.166673 0.150677 1.76379 17 8 1 
0.297106 0.226795 1.77823 56 52 40 
0.350323 0.252468 1.83039 32 23 14 
0.253242 0.224343 1.7388 119 112 102 
0.351425 0.261798 1.82558 14 7 0 
0.0882928 0.19915 1.70298 51 42 33 
0.0634886 0.196676 1.69749 13 3 0 
0.231982 0.230504 1.71959 35 26 17 
0.262406 0.240944 1.73963 26 16 7 
0.104084 0.210122 1.69721 105 101 92 
0.286999 0.252983 1.75243 153 144 129 
0.272693 0.256919 1.73567 127 122 102 
0.0328927 0.21381 1.6854 113 104 95 
0.356527 0.288731 1.81859 15 7 0 
-0.0401073 0.214327 1.68442 12 8 0 
0.270793 0.268249 1.72855 111 99 85 
0.0347396 0.228419 1.67585 73 66 58 
0.237121 0.26338 1.70209 38 29 20 
0.131726 0.248493 1.68605 99 90 83 
-0.107339 0.222847 1.69675 12 3 0 
-0.04654 0.230388 1.68039 119 112 104 
0.263327 0.296328 1.70437 137 128 113 
0.352693 0.338775 1.78159 49 43 31 
0.141709 0.284981 1.67133 18 9 0 
0.278853 0.313408 1.70951 149 137 121 
-0.036827 0.292057 1.64391 8 1 0 
0.0394703 0.306372 1.63425 96 87 78 
-0.10997 0.295202 1.6578 86 77 68 
-0.0317169 0.300672 1.63956 34 27 19 
0.276608 0.352104 1.68527 16 8 0 
0.226715 0.33852 1.65745 58 49 44 
0.347292 0.382101 1.75078 50 43 33 
0.175399 0.342857 1.65054 21 16 13 
0.0832047 0.326532 1.62971 83 80 71 
0.0365055 0.32213 1.62432 142 139 130 
