ply                 
format ascii 1.0    
element vertex 1282
property float x    
property float y    
property float z    
property uchar red  
property uchar green
property uchar blue 
end_header          
-0.2051 0.409741 1.61177 13 9 0 
-0.283851 0.433033 1.6944 136 140 152 
-0.320771 0.455877 1.72367 45 41 42 
-0.283693 0.44647 1.68677 45 49 52 
-0.263343 0.442818 1.66798 42 43 45 
-0.307953 0.479624 1.69987 109 113 112 
-0.186597 0.450514 1.57852 12 8 9 
-0.281581 0.485459 1.67088 34 34 34 
-0.335627 0.502803 1.71054 92 93 79 
-0.0654394 0.453226 1.53718 115 107 96 
-0.158358 0.481246 1.55115 111 103 92 
-0.0761177 0.476427 1.52602 12 8 0 
-0.334141 0.528931 1.68634 174 121 27 
-0.0869872 0.497022 1.51688 112 109 100 
-0.312226 0.622602 1.64408 86 90 89 
-0.088995 0.558034 1.45913 109 105 96 
-0.311823 0.628368 1.64146 111 113 108 
-0.0720275 0.582061 1.44104 115 108 100 
-0.0938448 0.598357 1.43847 94 85 76 
0.0568075 0.619796 1.36218 91 87 78 
-0.0919654 0.62358 1.36997 1 0 0 
-0.118107 0.636639 1.37088 144 140 131 
0.00297154 -0.603695 2.10114 85 81 78 
-0.268668 -0.328285 2.08686 85 82 77 
0.098029 -0.21908 1.93832 67 64 59 
-0.0741468 -0.158724 1.89941 104 99 95 
-0.0935185 -0.113449 1.87746 122 119 114 
-0.127957 -0.0958608 1.87944 97 88 83 
-0.169488 -0.0522458 1.87498 12 8 5 
-0.0971837 -0.0160339 1.82655 91 87 78 
-0.0946372 -0.0100547 1.82418 8 1 0 
-0.120576 0.189305 1.72432 18 13 9 
-0.276365 0.404917 1.69925 114 119 123 
-0.293189 0.431169 1.70328 138 142 154 
-0.350832 0.47535 1.72496 110 107 98 
-0.140465 0.514304 1.51613 87 84 75 
-0.314184 0.617352 1.64663 10 1 2 
-0.0722659 0.582166 1.44105 99 92 84 
-0.0914725 0.61728 1.37273 10 1 0 
-0.0125067 0.621595 1.35599 98 92 78 
0.0582334 0.658034 1.34164 32 23 16 
-0.114584 -0.452282 2.06264 113 108 104 
-0.0630926 -0.373324 2.01228 98 97 92 
-0.150155 -0.122452 1.90137 138 133 130 
-0.0896094 -0.0557727 1.84596 97 94 87 
-0.252978 0.0537623 1.86933 0 0 0 
-0.151026 0.0720059 1.79904 14 9 6 
0.0725754 0.0884922 1.77057 5 1 0 
-0.0359224 0.158254 1.71925 103 100 93 
-0.276252 0.364276 1.68953 2 2 2 
-0.252995 0.373663 1.66513 13 12 8 
0.0265028 0.615762 1.36364 4 0 0 
-0.253381 0.0541024 1.86827 2 2 0 
-0.0963469 -0.4548 2.06215 88 84 81 
-0.0804744 -0.446787 2.04504 4 3 1 
-0.019311 0.60834 1.34858 5 1 0 
-0.0930357 -1.89123 3.3761 31 29 34 
-0.0858471 -1.87744 3.36181 18 16 19 
0.0628608 -1.70639 3.21426 226 230 231 
-0.169044 -1.41444 2.98617 82 81 77 
-0.0466852 -1.16265 2.64181 146 137 130 
-0.260956 -1.1334 2.63376 81 80 75 
-0.285313 -1.09143 2.64468 83 83 75 
-0.177749 -0.997926 2.46206 13 9 8 
0.16078 -1.00598 2.48829 11 6 3 
0.0877267 -0.999854 2.48425 136 127 112 
-0.0865436 -0.983888 2.46588 146 139 129 
0.0753834 -0.928808 2.40965 26 24 12 
-0.103788 -0.897704 2.37514 124 120 111 
0.290737 -0.969278 2.62993 75 76 71 
-0.311018 -0.942143 2.59548 222 220 221 
0.29083 -0.960355 2.62254 218 219 221 
0.0226176 -0.812404 2.3005 130 126 117 
-0.0314459 -0.813329 2.30716 141 132 123 
-0.135891 -0.723312 2.20279 17 8 0 
0.0320278 -0.731429 2.22899 145 142 127 
0.0687259 -0.708025 2.2 35 25 15 
0.0830975 -0.587157 2.09899 4 0 0 
-0.0143588 -0.552264 2.07114 3 2 0 
0.027769 -0.554154 2.0747 8 5 0 
-0.0693271 -0.551047 2.07993 4 0 0 
-0.0970598 -0.526743 2.07025 11 7 0 
-0.198915 -0.534244 2.11488 9 4 0 
0.236549 -0.53306 2.14233 16 8 6 
-0.12191 -0.454062 2.06358 3 0 0 
-0.0112921 -0.431039 2.03386 1 0 0 
0.207169 -0.433326 2.0658 11 2 0 
-0.363301 -0.434185 2.22785 15 12 5 
-0.296124 -0.413245 2.14394 96 92 89 
-0.268408 -0.411561 2.13551 3 0 0 
-0.0452635 -0.384027 2.01059 117 117 109 
-0.0724595 -0.375317 2.01128 5 1 0 
-0.184023 -0.349577 2.03809 3 0 0 
0.181461 -0.346034 2.02132 112 111 106 
-0.289008 -0.356893 2.12854 3 0 0 
0.0593034 -0.319088 1.98224 7 4 0 
0.202307 -0.291803 1.9885 5 1 0 
-0.282134 -0.294555 2.08838 12 7 3 
-0.115441 -0.275518 1.96999 5 2 0 
-0.259589 -0.246886 2.03618 7 0 0 
-0.277265 -0.20146 2.02486 8 3 0 
-0.313835 -0.187419 2.06013 6 0 0 
-0.265729 -0.183733 2.01108 17 10 2 
-0.285781 -0.166352 2.02081 8 0 0 
0.0936582 -0.159623 1.89792 105 102 97 
-0.0571166 -0.155134 1.89257 110 107 100 
-0.312999 -0.162789 2.05635 15 5 0 
-0.294491 -0.158746 2.02524 11 5 0 
-0.275197 -0.155034 2.00273 11 3 1 
-0.288439 -0.152191 2.01978 8 1 0 
0.0733741 -0.145242 1.88668 8 5 0 
-0.31424 -0.140245 2.0426 7 0 0 
-0.334267 -0.123019 2.05944 7 2 0 
0.0987619 -0.104223 1.87027 93 90 85 
-0.337314 0.00213578 2.00556 5 4 0 
0.0360496 0.0125525 1.81331 125 117 106 
0.258531 0.0173976 1.86408 7 2 0 
0.0363999 0.0267492 1.81305 147 137 128 
-0.368851 0.0511277 2.04339 32 23 16 
0.251842 0.0431229 1.84334 109 100 91 
0.00189375 0.0664166 1.7796 166 162 150 
-0.274874 0.086157 1.89712 160 154 140 
-0.31389 0.105081 1.93604 134 128 114 
-0.350493 0.138303 1.96388 5 5 0 
0.0116853 0.130524 1.73164 8 0 0 
-0.336888 0.151835 1.92942 39 32 24 
-0.18421 0.218117 1.74058 9 0 0 
-0.2116 0.22624 1.75025 91 87 86 
-0.091971 0.219223 1.69871 6 0 0 
0.267151 0.305049 1.71692 25 15 3 
-0.284536 0.32322 1.72685 18 13 7 
-0.142475 0.320414 1.66305 9 6 0 
0.234968 0.333086 1.67228 11 6 0 
-0.18073 0.337904 1.66327 125 120 114 
-0.239034 0.347498 1.67566 48 41 33 
0.0885694 0.340484 1.62023 135 126 121 
-0.2747 0.363033 1.6933 4 0 0 
-0.269871 0.363049 1.6903 119 112 104 
0.0610971 0.347773 1.60646 158 155 148 
-0.0496126 0.348273 1.60756 134 123 117 
-0.319812 0.383522 1.73388 2 2 4 
-0.325644 0.388875 1.73975 91 86 82 
-0.24485 0.38276 1.66174 6 2 1 
-0.250326 0.391293 1.68111 110 110 110 
-0.259809 0.395836 1.68902 99 101 100 
-0.270041 0.404744 1.69123 32 39 47 
-0.254111 0.401364 1.67945 164 168 169 
-0.277011 0.411427 1.70058 37 44 52 
-0.26337 0.413412 1.68102 26 29 48 
-0.25591 0.414089 1.67491 16 20 29 
-0.303929 0.42602 1.72095 134 137 144 
-0.314616 0.430693 1.73239 18 21 28 
-0.276483 0.421037 1.69469 121 125 134 
-0.0293482 0.388965 1.56576 143 139 127 
0.0469547 0.389868 1.56526 109 100 95 
-0.29357 0.427618 1.70815 20 24 35 
-0.27316 0.422988 1.6847 40 44 53 
-0.326483 0.441703 1.73845 125 124 122 
-0.254711 0.423813 1.66832 126 130 133 
-0.279435 0.430594 1.69342 30 34 43 
-0.235276 0.414526 1.62851 100 92 89 
-0.312964 0.439847 1.72557 140 144 155 
-0.212072 0.412271 1.61006 117 113 102 
-0.245628 0.426211 1.65909 124 123 119 
-0.275378 0.435707 1.68463 175 176 180 
-0.322177 0.449883 1.73195 21 17 18 
-0.285819 0.444037 1.69324 140 141 143 
-0.298427 0.448105 1.7047 34 34 46 
-0.260292 0.439272 1.66524 149 153 156 
-0.293777 0.448842 1.69643 37 39 36 
-0.267624 0.443085 1.67281 130 132 129 
-0.279782 0.447588 1.68446 172 174 173 
-0.310045 0.463505 1.71269 154 154 152 
-0.300925 0.461843 1.70177 43 43 41 
-0.232152 0.439689 1.6146 16 7 0 
-0.284618 0.460789 1.68392 25 23 26 
-0.277154 0.459466 1.67573 41 41 39 
-0.296578 0.466924 1.69444 27 26 22 
-0.30647 0.470474 1.70407 156 157 152 
-0.286634 0.470157 1.67701 147 149 148 
-0.248113 0.460662 1.64047 161 166 159 
-0.295377 0.475073 1.68373 44 49 43 
-0.315999 0.482501 1.70879 68 66 67 
-0.300817 0.48216 1.69345 32 33 35 
-0.258776 0.471729 1.64781 115 116 110 
-0.288843 0.48271 1.67825 35 41 37 
-0.311161 0.49832 1.69675 137 139 138 
-0.302485 0.495968 1.68854 119 121 116 
0.0197556 0.452297 1.53231 164 155 146 
-0.281256 0.500191 1.66225 120 121 115 
-0.273568 0.497797 1.65113 125 126 121 
-0.311982 0.514283 1.69261 42 37 34 
-0.30154 0.5174 1.67683 120 117 108 
-0.329318 0.527696 1.68848 167 122 41 
-0.161805 0.493583 1.54197 11 6 0 
-0.133641 0.490278 1.53252 140 131 126 
-0.307024 0.551495 1.66472 99 108 103 
-0.260674 0.540083 1.62117 124 126 123 
-0.274676 0.553298 1.63061 102 103 107 
-0.26195 0.565431 1.60857 121 120 126 
-0.265543 0.573806 1.61299 123 120 127 
0.00169332 0.531418 1.4658 165 161 152 
-0.138152 0.555389 1.47804 111 107 96 
-0.313184 0.628584 1.64328 126 127 122 
-0.277391 0.61571 1.60769 120 119 125 
-0.360317 0.64837 1.6342 15 11 0 
-0.156824 0.592802 1.46379 135 131 120 
-0.0519487 -1.86454 3.23955 53 48 44 
0.0287091 -1.84397 3.24631 32 28 29 
-0.0651719 -1.75846 3.19281 58 53 49 
-0.0940244 -1.66821 3.17 73 73 65 
-0.110808 -1.61045 3.12313 72 72 64 
-0.130107 -1.56783 3.09729 223 227 228 
-0.150675 -1.49089 3.03649 224 226 221 
0.0224685 -1.41531 2.88895 58 53 47 
-0.176401 -1.40343 2.97551 228 233 229 
-0.121985 -1.22876 2.71223 148 142 130 
-0.253188 -1.14983 2.63484 225 227 226 
-0.0688089 -1.14711 2.62365 125 116 107 
0.235261 -1.15432 2.671 71 76 69 
-0.267749 -1.10393 2.62595 226 226 224 
0.242601 -1.11488 2.64619 221 225 224 
0.0471426 -1.04185 2.521 146 135 115 
0.255174 -1.10105 2.65819 99 99 87 
-0.183919 -1.00217 2.4872 101 98 89 
0.263893 -1.06842 2.64852 217 221 220 
0.055802 -0.98257 2.45252 27 22 16 
-0.127146 -0.970499 2.44597 130 122 111 
0.275839 -1.05108 2.65581 77 77 67 
-0.226972 -0.992258 2.52999 21 11 10 
-0.0720392 -0.937417 2.41908 114 107 101 
0.275624 -1.02066 2.63873 65 66 61 
0.283772 -1.01727 2.64381 224 228 227 
-0.175678 -0.92897 2.44174 31 28 21 
-0.151959 -0.914237 2.4014 54 47 41 
-0.100551 -0.914385 2.40034 9 8 3 
-0.097913 -0.89476 2.37705 54 47 37 
0.116659 -0.892335 2.37412 116 109 99 
0.0469461 -0.878783 2.36815 18 10 8 
-0.313819 -0.959317 2.61966 5 2 0 
-0.0938172 -0.854904 2.34486 139 130 123 
0.256333 -0.935342 2.57035 26 16 14 
-0.0666973 -0.845923 2.33827 19 15 12 
0.0837623 -0.821956 2.31231 34 26 15 
0.102631 -0.82459 2.32076 20 7 0 
-0.147947 -0.799013 2.2914 22 18 7 
0.111445 -0.776036 2.27652 34 29 23 
-0.135233 -0.727356 2.21609 14 1 0 
0.0314112 -0.706419 2.19476 145 141 130 
-0.0235671 -0.654018 2.12591 141 133 112 
0.00338701 -0.602441 2.09662 92 84 81 
-0.0995062 -0.568405 2.08959 16 9 3 
-0.202383 -0.568788 2.13079 8 1 0 
0.0701826 -0.556247 2.08331 15 12 7 
-0.0995527 -0.551843 2.08296 10 5 0 
-0.186809 -0.557325 2.12198 128 124 113 
-0.0137781 -0.535325 2.06694 6 2 1 
-0.0632657 -0.518453 2.05852 97 93 90 
-0.0541455 -0.517444 2.06028 68 63 59 
-0.0468878 -0.505529 2.05015 77 72 66 
-0.331854 -0.538185 2.22938 88 84 81 
0.249599 -0.524638 2.1436 11 7 4 
0.216257 -0.514079 2.10978 5 0 0 
-0.222128 -0.508421 2.11566 18 14 11 
-0.0689474 -0.494481 2.04906 74 70 61 
-0.0823577 -0.492543 2.05038 72 62 60 
0.0918963 -0.493646 2.05532 84 80 69 
-0.328365 -0.515605 2.2174 6 0 0 
-0.285063 -0.491748 2.15572 7 0 0 
-0.326737 -0.49825 2.20103 24 24 22 
-0.294956 -0.489793 2.16736 23 17 17 
0.0187358 -0.464153 2.04028 67 66 62 
-0.108597 -0.465601 2.06306 93 88 84 
-0.0676202 -0.460779 2.04444 73 68 62 
0.0903599 -0.45945 2.04555 89 86 81 
0.10418 -0.458896 2.0485 88 84 75 
-0.101777 -0.434283 2.05292 83 78 74 
0.173153 -0.44207 2.08256 6 2 0 
-0.303195 -0.446139 2.15469 86 82 81 
-0.0141036 -0.420101 2.03034 84 81 76 
0.186805 -0.427109 2.06565 11 0 0 
0.199287 -0.422594 2.05721 55 48 40 
0.159019 -0.418577 2.06282 27 24 17 
-0.082951 -0.409688 2.03242 34 29 25 
0.171915 -0.419318 2.07242 12 4 1 
0.0985693 -0.411626 2.03893 3 0 0 
-0.311658 -0.427204 2.1553 82 78 77 
-0.114463 -0.399069 2.03196 29 26 21 
0.0843047 -0.399574 2.02567 9 5 2 
-0.232862 -0.409702 2.10834 59 57 58 
0.188747 -0.399529 2.04524 38 35 28 
0.20305 -0.399306 2.04442 24 21 14 
-0.306052 -0.408684 2.15016 91 87 84 
-0.129397 -0.385662 2.03181 24 19 16 
0.179858 -0.368421 2.03489 121 117 108 
-0.176097 -0.35741 2.03895 95 91 88 
0.190604 -0.354274 2.0239 18 11 1 
0.0519113 -0.341104 1.98972 16 12 11 
0.291804 -0.361489 2.10639 124 119 115 
-0.239567 -0.346912 2.07125 3 0 0 
-0.35193 -0.368509 2.21302 8 8 6 
0.0569845 -0.330295 1.98778 27 23 20 
-0.264123 -0.337994 2.09233 34 30 27 
0.280177 -0.337232 2.07743 26 23 18 
0.190307 -0.320733 2.00043 1 1 0 
0.171256 -0.319317 2.01893 7 2 0 
0.0897222 -0.310819 1.98314 98 95 90 
0.228355 -0.308375 2.01418 102 99 94 
0.188201 -0.299875 1.99039 117 112 106 
-0.246112 -0.301353 2.05423 121 116 110 
-0.259109 -0.301624 2.06644 14 9 3 
-0.274464 -0.299829 2.0851 11 3 1 
-0.226593 -0.287247 2.03681 99 98 94 
0.179872 -0.282339 1.99059 3 3 0 
-0.325848 -0.295994 2.14754 16 15 11 
-0.0970101 -0.271416 1.96274 4 1 0 
-0.281333 -0.276644 2.08348 2 1 0 
0.182404 -0.267738 1.98041 10 3 0 
-0.342627 -0.27821 2.1537 89 88 84 
-0.183538 -0.259643 1.99603 1 0 0 
-0.150954 -0.251281 1.96904 28 15 6 
-0.157766 -0.24704 1.97596 106 99 91 
0.0884285 -0.24418 1.94661 95 92 85 
-0.131108 -0.242532 1.96296 101 94 84 
0.276916 -0.251775 2.02302 107 102 96 
-0.446218 -0.281357 2.44332 227 228 230 
-0.141848 -0.227405 1.94911 98 89 82 
-0.171087 -0.228113 1.96504 10 5 1 
-0.26934 -0.233144 2.03641 9 0 0 
-0.0273287 -0.222301 1.92669 6 2 1 
0.0603091 -0.218181 1.92737 30 22 19 
0.098729 -0.21827 1.93139 89 84 81 
0.180249 -0.21847 1.94518 23 19 20 
-0.260111 -0.214648 2.02413 35 26 19 
-0.0317479 -0.20335 1.91798 102 97 93 
-0.315753 -0.215376 2.08819 15 7 4 
0.0599468 -0.197988 1.91824 5 2 0 
0.177336 -0.201044 1.95277 24 21 16 
-0.110083 -0.191521 1.92415 25 21 18 
0.188808 -0.194567 1.93691 13 4 0 
0.0749587 -0.189948 1.90839 101 92 83 
0.179253 -0.194179 1.9425 93 88 84 
-0.121226 -0.186409 1.93813 101 97 94 
-0.0717007 -0.183805 1.91269 24 21 16 
-0.253843 -0.189218 2.00164 19 9 7 
0.206196 -0.186028 1.93726 28 24 15 
0.18253 -0.185427 1.93952 14 9 6 
0.194122 -0.181703 1.92741 122 118 109 
-0.282279 -0.182506 2.02519 90 83 73 
0.185091 -0.174551 1.93674 3 0 0 
0.205555 -0.173109 1.92776 5 1 0 
-0.333496 -0.181065 2.09022 18 5 0 
-0.269833 -0.1756 2.02075 5 0 0 
-0.185502 -0.167941 1.9431 11 6 2 
-0.316427 -0.176481 2.066 21 16 12 
0.0747953 -0.165969 1.90219 31 27 18 
0.0689555 -0.163808 1.90159 84 77 67 
0.201376 -0.163872 1.9199 142 132 122 
0.0947351 -0.151047 1.89657 4 0 0 
0.108486 -0.150642 1.90018 15 10 6 
-0.328229 -0.148913 2.07322 6 0 0 
-0.130499 -0.137736 1.89667 108 104 95 
-0.302029 -0.145195 2.03061 8 3 0 
-0.0569955 -0.136705 1.88171 91 80 74 
-0.254574 -0.139549 1.97519 97 93 84 
-0.287326 -0.140563 2.01237 111 104 98 
-0.278101 -0.139266 2.00222 33 30 25 
-0.321824 -0.140589 2.05013 97 90 72 
-0.30338 -0.132166 2.02413 99 94 90 
-0.148048 -0.122056 1.89667 115 111 102 
-0.313264 -0.12721 2.03354 96 91 85 
-0.324244 -0.121465 2.04657 91 86 82 
0.0814477 -0.114021 1.87293 81 80 76 
-0.311118 -0.117273 2.02993 103 99 90 
-0.102778 -0.104054 1.86901 19 15 6 
-0.0710231 -0.103106 1.86998 95 90 87 
0.0844725 -0.101416 1.86631 12 7 3 
0.128648 -0.100276 1.87817 100 95 91 
-0.332847 -0.105459 2.05629 101 91 90 
-0.128167 -0.0956463 1.87618 111 102 97 
0.240091 -0.100623 1.91852 99 96 91 
-0.154241 -0.0956666 1.89177 6 1 0 
-0.166691 -0.0925836 1.89187 11 7 0 
-0.12544 -0.0848625 1.86873 85 76 71 
0.0911377 -0.0834581 1.85792 7 2 0 
-0.284892 -0.0828751 1.98105 41 35 35 
-0.0634213 -0.0642628 1.84538 11 8 3 
-0.0805048 -0.0616191 1.8466 28 24 21 
-0.329565 -0.0651112 2.03086 68 65 60 
-0.304545 -0.0633362 1.99291 24 23 21 
-0.169573 -0.0524532 1.87979 8 7 5 
0.116919 -0.050498 1.84827 79 75 74 
0.303485 -0.0523049 1.95079 31 23 20 
-0.126406 -0.0442376 1.85573 27 23 20 
-0.103153 -0.0446325 1.84571 9 5 4 
0.280919 -0.040506 1.91945 7 0 0 
0.201222 -0.015235 1.84479 7 0 0 
0.133588 -0.0144882 1.83551 97 92 88 
-0.185193 -0.00834753 1.85561 10 5 1 
0.121308 -0.00626774 1.82693 99 95 86 
-0.275221 -0.00277098 1.93334 15 11 8 
-0.113962 0.0157515 1.80784 13 9 6 
-0.354231 0.0240085 2.02694 79 71 69 
0.0740669 0.0202291 1.79899 20 11 4 
-0.0661257 0.0250901 1.79527 96 93 88 
0.279167 0.0274445 1.88182 92 83 74 
-0.26831 0.0382873 1.90008 101 94 86 
-0.24664 0.0379139 1.87862 7 6 4 
-0.147721 0.039015 1.82003 81 74 68 
0.19254 0.0461808 1.81189 96 85 79 
0.260369 0.0522518 1.8458 113 106 100 
0.237424 0.0555271 1.82516 87 84 69 
0.281479 0.0641894 1.86182 5 0 0 
-0.325412 0.0718439 1.96524 2 1 0 
-0.211471 0.0662815 1.83828 108 105 98 
-0.268572 0.0771133 1.89256 137 133 121 
-0.0934442 0.0741462 1.77477 104 100 91 
-0.349154 0.0852405 1.98366 34 31 22 
-0.251962 0.0869569 1.86763 127 124 107 
0.198476 0.0918247 1.77891 14 10 0 
-0.336621 0.10739 1.95555 110 100 90 
-0.324491 0.115554 1.92861 93 86 78 
0.194279 0.110441 1.76694 109 99 90 
0.0828853 0.117464 1.74638 115 111 102 
-0.0111049 0.1275 1.73302 3 0 0 
0.22079 0.13318 1.77245 7 3 0 
0.297941 0.145726 1.83453 57 48 41 
0.0159055 0.140426 1.7272 91 82 75 
0.29451 0.149999 1.82219 80 71 64 
0.312286 0.164018 1.83743 41 33 22 
0.300542 0.172897 1.83083 15 11 8 
0.316498 0.17415 1.83872 102 92 83 
0.292571 0.178548 1.81538 10 6 3 
-0.135613 0.179287 1.73616 3 0 0 
-0.101093 0.185766 1.71848 16 9 3 
-0.201832 0.193213 1.7671 20 13 5 
-0.121225 0.1891 1.72191 6 1 0 
-0.0870661 0.199153 1.7073 21 18 9 
-0.0768326 0.199238 1.70577 5 1 0 
-0.13062 0.208493 1.71785 89 85 76 
-0.220414 0.216497 1.76303 10 5 0 
0.0734249 0.212326 1.69396 28 24 13 
-0.00529095 0.223503 1.68284 6 2 0 
0.149969 0.22683 1.70946 106 102 93 
0.227608 0.242284 1.71186 169 161 150 
0.288472 0.257534 1.76076 12 2 0 
0.32123 0.272724 1.79526 13 9 0 
-0.0976295 0.268652 1.67337 110 103 95 
0.252273 0.279547 1.71326 19 8 4 
0.0785618 0.274001 1.66353 8 4 1 
-0.0169741 0.273904 1.65736 118 110 99 
-0.0877951 0.280461 1.66647 3 0 0 
-0.155134 0.294271 1.68221 111 108 101 
0.0185649 0.319361 1.63103 96 91 87 
-0.019089 0.320816 1.62944 118 110 99 
0.180267 0.328481 1.66931 88 80 69 
0.0624453 0.328075 1.62927 32 28 19 
-0.0101889 0.327179 1.62248 11 2 0 
0.0278776 0.32784 1.62429 107 103 94 
0.2613 0.343754 1.68748 28 19 10 
-0.181392 0.334762 1.64047 114 110 98 
0.0989081 0.333276 1.63089 77 73 64 
-0.253309 0.373231 1.66972 2 1 0 
0.0874264 0.358222 1.60283 149 146 141 
0.287976 0.381584 1.6945 15 10 6 
0.142682 0.364517 1.61275 100 92 89 
0.239355 0.374549 1.65927 19 13 13 
0.188423 0.370199 1.63297 25 21 22 
-0.325445 0.394795 1.73486 105 97 94 
0.0741285 0.365445 1.59036 9 2 0 
0.0625638 0.365072 1.58635 4 0 0 
0.207095 0.374631 1.62868 4 0 0 
-0.172074 0.378199 1.623 116 113 104 
-0.248783 0.396903 1.6727 153 158 154 
-0.0693045 0.381199 1.57513 17 12 6 
-0.178044 0.396885 1.60446 136 133 124 
-0.0822455 0.395553 1.57249 109 106 97 
-0.301315 0.436093 1.71502 128 131 146 
-0.235566 0.416576 1.63834 105 97 94 
-0.264208 0.42757 1.6772 113 116 121 
-0.291026 0.439273 1.70337 30 35 39 
-0.315843 0.452061 1.72239 111 114 119 
0.115475 0.415002 1.56824 23 20 15 
-0.0443191 0.416513 1.55334 103 99 90 
-0.30429 0.455374 1.68189 141 142 136 
-0.261666 0.462323 1.6565 58 53 49 
-0.308311 0.48023 1.70203 109 113 112 
-0.104195 0.438367 1.55181 4 0 0 
0.091973 0.441553 1.54815 74 69 65 
0.00176312 0.447968 1.53509 96 92 81 
-0.336303 0.504153 1.71555 92 93 79 
-0.297224 0.508536 1.67769 127 126 124 
-0.0606962 0.4663 1.53036 107 103 94 
-0.282804 0.513252 1.65772 94 99 93 
-0.158772 0.480955 1.55049 114 102 90 
-0.129229 0.479332 1.53556 16 8 5 
-0.0763457 0.475567 1.52493 5 0 0 
-0.291359 0.527334 1.65711 109 112 95 
-0.328832 0.53767 1.67834 4 0 1 
-0.288996 0.538526 1.65381 115 117 103 
-0.0869621 0.495401 1.51368 106 98 95 
-0.252203 0.534318 1.61291 90 102 92 
-0.214782 0.518541 1.55875 46 42 39 
0.226846 0.520301 1.56036 83 79 70 
-0.264488 0.550086 1.62018 111 115 114 
-0.0424339 0.510995 1.48688 136 125 121 
0.214262 0.53485 1.54507 113 109 100 
-0.267895 0.560285 1.6195 110 111 116 
-0.0022657 0.520297 1.47723 37 28 21 
-0.174305 0.541681 1.50851 14 9 5 
-0.0436175 0.543624 1.45887 103 99 90 
-0.175901 0.560595 1.49421 14 10 7 
-0.0890531 0.559637 1.46429 106 97 88 
0.109348 0.55988 1.46046 98 91 83 
-0.269513 0.612233 1.59608 97 100 107 
-0.0224001 0.564061 1.44452 144 134 132 
-0.0781917 0.569372 1.44968 99 90 83 
-0.152627 0.579565 1.46941 16 13 6 
-0.181653 0.583592 1.47812 102 101 96 
0.315908 0.644293 1.54625 192 182 180 
-0.275439 0.664914 1.56317 1 0 0 
-0.446576 0.800535 1.7886 50 51 45 
-0.0537398 -1.79291 3.23437 42 40 41 
-0.101251 -1.22868 2.68904 136 128 117 
-0.00984759 -0.928063 2.40689 42 42 40 
-0.0262047 -0.910123 2.3866 95 87 76 
0.094014 -0.913777 2.39438 121 119 107 
0.0285646 -0.877387 2.36875 109 100 93 
-0.323988 -0.915739 2.63612 226 226 226 
-0.370507 -0.745879 2.52578 71 72 67 
-0.0614598 -0.598061 2.09557 92 83 74 
0.0834345 -0.596601 2.10539 84 81 76 
-0.031997 -0.471393 2.05611 26 25 23 
-0.327918 -0.500401 2.21257 24 24 24 
0.19203 -0.478111 2.08649 95 96 90 
0.155078 -0.410709 2.05712 90 87 82 
-0.0429205 -0.36938 1.99026 55 54 50 
0.293225 -0.362333 2.11212 111 108 103 
-0.0920812 -0.325926 1.98536 34 29 25 
0.207817 -0.324131 2.00794 38 33 30 
-0.199413 -0.30972 2.0288 5 0 0 
-0.127069 -0.30296 1.98788 21 18 13 
-0.142205 -0.227411 1.94995 98 89 82 
-0.296924 -0.210922 2.05225 10 2 0 
0.162841 -0.191375 1.94501 90 87 82 
-0.322441 -0.182459 2.07324 87 81 69 
0.187779 -0.17619 1.95364 4 0 0 
-0.260329 -0.173139 2.00488 85 76 61 
-0.264721 -0.154462 1.99507 5 2 0 
0.220459 -0.151884 1.92631 17 13 10 
0.0918452 -0.144794 1.89132 91 88 83 
-0.321104 -0.132215 2.04486 5 5 5 
0.0796881 -0.0534188 1.83987 86 82 70 
0.303485 -0.0523049 1.95079 31 23 20 
-0.148594 -0.0168618 1.8446 35 26 21 
-0.337529 -0.0140857 2.01929 94 86 83 
-0.0939761 -0.0101045 1.83216 4 0 0 
0.203581 0.030785 1.81468 114 105 90 
0.206655 0.0389954 1.80764 56 46 37 
-0.243958 0.0532013 1.86713 94 91 84 
-0.244993 0.0791199 1.86 33 24 15 
-0.325096 0.0899263 1.93849 83 83 75 
-0.325077 0.141157 1.91119 74 69 65 
0.187376 0.128635 1.7648 13 10 3 
0.208778 0.130544 1.76518 3 0 0 
-0.321185 0.160076 1.89841 12 8 7 
-0.0277297 0.19368 1.70128 8 4 0 
0.127405 0.234809 1.69514 91 82 73 
0.270585 0.313032 1.71119 57 50 34 
0.208067 0.317073 1.65919 29 20 15 
0.187494 0.354896 1.65136 4 0 0 
-0.0683696 0.359451 1.59625 15 12 7 
-0.286744 0.41347 1.70614 34 38 39 
0.222899 0.40607 1.62765 86 82 73 
-0.351441 0.476759 1.72944 110 107 98 
-0.280039 0.48809 1.66069 161 159 160 
-0.179836 0.497108 1.55217 14 10 11 
-0.250161 0.520166 1.61502 67 85 71 
-0.140426 0.513633 1.51427 87 84 75 
-0.269885 0.587922 1.60947 32 32 34 
0.383799 0.736169 1.50067 46 43 26 
-0.0399882 -1.88221 3.24146 122 118 109 
0.171286 -1.35383 2.9624 224 228 229 
-0.118445 -1.2185 2.68551 143 134 125 
0.232642 -1.14872 2.65861 75 78 71 
-0.271023 -1.10845 2.63615 219 220 222 
0.246231 -1.12018 2.65747 215 218 223 
0.252742 -1.09631 2.64815 86 84 69 
-0.174784 -1.00849 2.48892 4 3 11 
0.275528 -1.05481 2.66377 83 83 73 
-0.313297 -0.958067 2.60981 83 84 78 
0.10513 -0.811333 2.30846 115 111 99 
0.0753697 -0.80479 2.29273 144 140 129 
0.0588325 -0.598186 2.09962 100 97 92 
0.0621946 -0.563354 2.0827 49 46 41 
-0.233094 -0.572893 2.15738 91 88 81 
-0.16691 -0.558615 2.10971 10 6 3 
-0.0622767 -0.541673 2.07175 109 108 103 
0.113731 -0.489315 2.05184 3 2 7 
0.103098 -0.490589 2.0621 93 86 80 
-0.147286 -0.487529 2.06762 1 1 1 
-0.0707132 -0.484127 2.04811 64 56 45 
-0.176667 -0.481359 2.07506 1 0 0 
0.138101 -0.468024 2.08025 79 75 72 
0.164264 -0.465922 2.09973 80 79 75 
-0.154733 -0.44783 2.0589 71 70 65 
-0.0795461 -0.445827 2.04796 8 4 5 
0.152486 -0.442321 2.07003 95 91 88 
-0.149248 -0.433426 2.0616 0 1 0 
-0.160151 -0.43439 2.07295 4 4 2 
0.175414 -0.434642 2.07528 45 40 36 
-0.0243744 -0.40821 2.02373 77 76 72 
-0.226493 -0.418086 2.09954 0 0 4 
-0.259913 -0.416007 2.1325 86 81 75 
0.172519 -0.396273 2.0554 50 49 47 
0.161479 -0.392852 2.04945 92 84 82 
-0.289081 -0.396728 2.14044 0 2 1 
0.0829346 -0.367782 2.00875 78 77 75 
0.0951637 -0.3506 2.0058 87 84 79 
0.191352 -0.322891 2.01021 1 1 0 
0.262675 -0.284264 2.0447 92 88 85 
0.192241 -0.262527 1.97362 90 78 62 
-0.0123307 -0.244148 1.93723 80 75 71 
-0.445777 -0.29263 2.43998 25 26 21 
0.0220026 -0.208476 1.94892 12 16 15 
0.0402896 -0.203934 1.91902 67 67 59 
0.0993331 -0.204463 1.92772 80 78 66 
-0.257245 -0.204827 2.00788 103 94 79 
0.175977 -0.191885 1.92291 93 89 86 
-0.320255 -0.199879 2.0807 106 97 80 
0.0887226 -0.182013 1.90401 7 4 0 
0.0949251 -0.172311 1.9074 82 79 74 
-0.272021 -0.172062 2.00888 3 2 0 
0.189029 -0.167098 1.9211 135 125 113 
0.22684 -0.161015 1.93371 116 111 105 
0.209064 -0.156473 1.91891 10 5 1 
-0.318514 -0.149936 2.08036 89 81 70 
0.116089 -0.137261 1.8948 3 0 0 
0.204413 -0.136155 1.91228 24 20 19 
-0.173458 -0.113554 1.91043 103 100 95 
0.166728 -0.116645 1.90723 88 83 79 
-0.0933633 -0.0995929 1.87066 102 97 93 
0.127945 0.00185051 1.82573 34 29 23 
0.19238 0.00393282 1.83153 82 72 70 
0.0750644 0.0126787 1.8032 80 71 62 
0.146971 0.0228208 1.81551 62 57 54 
0.0762948 0.0280052 1.79687 72 63 54 
0.130754 0.0273904 1.81256 51 46 43 
0.323252 0.0498116 1.91056 95 91 82 
0.118526 0.0497249 1.79665 29 25 16 
-0.252909 0.0539283 1.87053 0 0 0 
0.223615 0.0625747 1.80607 84 83 78 
0.246177 0.0696446 1.8161 87 77 75 
-0.151018 0.0723184 1.80043 14 9 6 
0.185031 0.0815408 1.78686 86 78 67 
0.0710897 0.087289 1.75703 3 0 0 
0.240328 0.112873 1.79775 3 0 0 
0.223212 0.133937 1.77971 3 0 0 
0.387622 0.167383 1.97323 61 60 55 
-0.0873666 0.170049 1.7138 6 0 0 
0.0517566 0.176058 1.70952 8 1 0 
-0.112121 0.193545 1.71851 86 83 78 
-0.106492 0.200156 1.71455 40 35 31 
-0.117752 0.21431 1.70641 6 3 0 
0.0995469 0.221218 1.69312 88 81 73 
0.217639 0.255942 1.69616 16 11 8 
-0.306594 0.307314 1.75791 4 2 3 
0.200115 0.300214 1.6722 6 2 0 
-0.195175 0.336033 1.6676 42 38 37 
-0.181583 0.337531 1.64517 119 112 104 
0.0528678 0.338024 1.61452 85 76 69 
0.190817 0.34734 1.64751 97 86 80 
-0.318346 0.386034 1.73874 0 0 4 
-0.261959 0.372531 1.68102 14 6 4 
-0.0403049 0.360455 1.59081 97 94 85 
-0.185296 0.373712 1.62446 153 149 137 
0.193389 0.381082 1.6244 16 12 9 
-0.338837 0.433525 1.75066 89 85 74 
-0.302136 0.438488 1.72561 123 127 139 
-0.233974 0.426753 1.63865 89 85 76 
-0.273302 0.466641 1.66889 41 42 46 
-0.185197 0.448759 1.57061 4 0 1 
-0.333982 0.534078 1.69824 175 112 9 
-0.126659 0.575548 1.46114 133 125 112 
-0.419845 0.529159 1.8915 76 75 71 
0.0445961 -1.86432 3.29799 114 105 96 
-0.114724 -1.5658 3.1014 78 74 63 
0.179865 -1.30981 2.91522 231 233 232 
-0.19968 -1.30827 2.93487 68 59 50 
-0.277373 -1.12616 2.67719 218 222 225 
-0.0131926 -0.979424 2.46308 107 104 99 
0.0935902 -0.826917 2.32408 36 26 24 
0.303159 -0.888905 2.64221 72 69 62 
-0.0650913 -0.562688 2.08489 88 87 83 
0.0609255 -0.560339 2.07433 71 66 60 
-0.0357757 -0.543226 2.07038 95 92 87 
0.18373 -0.484769 2.0837 2 3 0 
0.137041 -0.466114 2.0736 81 77 74 
-0.155153 -0.448107 2.06276 65 64 59 
0.210296 -0.410635 2.05795 98 94 83 
-0.0905141 -0.399467 2.02681 79 78 73 
0.183831 -0.411596 2.05364 98 98 86 
0.258316 -0.280484 2.02431 111 107 104 
0.0685134 -0.206062 1.92007 106 98 87 
0.153904 -0.128415 1.90432 3 0 0 
-0.0748686 -0.0205757 1.82363 105 95 83 
0.299953 0.048693 1.89537 87 82 76 
0.222331 0.0596592 1.8119 99 95 92 
0.201208 0.0826274 1.78496 83 75 64 
0.0995744 0.220624 1.68953 77 72 68 
0.318422 0.272834 1.78961 21 16 12 
0.291045 0.398864 1.68721 92 92 82 
0.188135 0.385393 1.61445 76 71 65 
-0.119058 -1.60926 3.12972 224 228 231 
-0.139394 -1.50849 3.05105 92 88 79 
-0.129652 -1.51351 3.06467 94 92 80 
-0.149771 -1.43636 2.99658 63 60 51 
-0.36763 -0.76663 2.53609 219 224 220 
0.0701793 -0.630762 2.17036 7 7 5 
-0.386669 -0.673319 2.46911 70 70 60 
-0.235199 -0.584921 2.15184 1 0 0 
-0.247246 -0.573484 2.15242 17 15 16 
-0.234277 -0.566748 2.14919 98 95 88 
-0.0771059 -0.507891 2.14123 70 67 60 
-0.0963385 -0.456411 2.069 88 84 81 
0.0103101 -0.449077 2.03502 3 3 3 
-0.240332 -0.455744 2.09855 63 62 60 
0.0943438 -0.445431 2.05163 1 2 4 
-0.261913 -0.204506 2.0193 93 84 69 
0.195071 -0.167673 1.9395 88 78 68 
-0.0932472 -0.158323 1.89331 121 116 112 
-0.186893 -0.0459862 1.87973 86 83 76 
-0.204423 -0.0266053 1.8805 6 0 0 
0.109924 0.0109285 1.81114 75 71 60 
0.252951 0.400577 1.64693 100 96 85 
-0.264585 0.597816 1.58504 26 27 29 
-0.0639191 -1.90107 3.25501 56 53 46 
-0.0134637 -1.85321 3.22535 29 33 32 
-0.1608 -1.43662 3.00054 86 87 81 
0.293719 -0.994192 2.65816 99 97 82 
-0.385541 -0.724519 2.50976 216 221 224 
-0.190667 -0.595704 2.13258 1 1 1 
-0.160486 -0.475268 2.06924 81 78 73 
-0.260519 -0.454569 2.11743 1 3 0 
0.193679 0.0781988 1.79842 91 83 72 
0.296481 0.262833 1.78356 18 14 13 
-0.280923 0.370383 1.69068 1 1 1 
-0.255517 0.390909 1.66717 93 97 96 
-0.248633 0.416087 1.65817 32 33 37 
0.0532811 -1.92908 3.33876 42 38 39 
-0.104066 -1.63169 3.14007 70 67 62 
0.171724 -1.32367 2.93839 35 36 31 
-0.313966 -0.967185 2.60391 65 64 59 
-0.379749 -0.782324 2.54906 216 220 223 
-0.35531 -0.782393 2.54901 95 93 81 
0.109814 -0.608995 2.11295 2 2 4 
0.0656334 -0.59503 2.11046 95 91 88 
-0.250072 0.349154 1.61304 98 90 79 
-0.252291 0.363677 1.68134 110 103 93 
-0.0880316 -1.88137 3.42477 215 217 216 
0.17037 -0.477183 2.07403 4 3 8 
-0.00528335 -0.224532 1.92148 1 1 3 
-0.306957 0.669166 1.62361 3 7 10 
-0.285516 -1.1262 2.65567 216 220 223 
-0.386866 -0.771485 2.52848 216 220 223 
-0.387933 -0.734753 2.54203 216 220 223 
0.377359 0.275243 1.92457 93 89 78 
0.0312419 -1.98547 3.41553 35 32 27 
-0.0729763 -1.88178 3.3517 63 58 54 
-0.292281 0.117846 1.926 98 91 73 
0.392526 0.188364 1.96509 226 228 227 
-0.25778 0.478133 1.63367 64 56 54 
-0.198821 -0.533068 2.11082 23 18 15 
-0.295141 -0.412323 2.13785 96 92 89 
0.0370506 0.0268712 1.81824 124 114 105 
-0.273301 0.422562 1.68582 31 34 41 
-0.299105 0.45526 1.69904 29 31 26 
-0.273779 0.49859 1.65469 116 115 111 
-0.27468 0.553042 1.63009 107 108 110 
-0.00831429 -1.90209 3.42571 36 34 37 
-0.306061 -0.408786 2.14969 93 93 85 
-0.171053 -0.228342 1.96859 19 15 12 
-0.153781 -0.220321 1.95606 21 18 13 
-0.146381 -0.11486 1.89555 103 99 96 
-0.097706 0.268446 1.67206 105 95 94 
-0.300125 0.429267 1.71443 33 35 47 
-0.291436 0.446008 1.69631 49 50 55 
-0.296097 0.467388 1.69164 36 37 32 
-0.26675 0.460241 1.6644 105 104 99 
-0.248421 0.460173 1.6413 149 154 150 
-0.264462 0.549551 1.61881 96 97 99 
-0.276626 0.567001 1.62443 101 102 104 
0.00671993 0.62132 1.35988 119 111 100 
0.128448 0.672328 1.35227 3 0 0 
-0.330872 -0.537792 2.22175 83 80 75 
-0.259962 -0.510384 2.1397 87 87 79 
-0.327195 -0.497555 2.20112 37 33 30 
-0.0413187 -0.373401 2.01105 78 75 70 
0.182987 -0.371803 2.05152 99 98 94 
-0.288089 -0.158322 2.01462 92 82 72 
-0.321438 -0.140432 2.04322 102 96 82 
-0.313421 -0.127651 2.03232 91 85 73 
0.015845 0.134442 1.73118 115 112 107 
-0.286721 0.41271 1.70464 39 43 44 
-0.213934 -0.988401 2.50358 33 29 28 
0.0581526 -0.600056 2.1056 86 82 73 
-0.00334187 -0.499507 2.04921 4 4 6 
-0.147259 -0.487437 2.0675 1 1 1 
-0.25311 -0.190452 1.99766 24 18 18 
0.0695779 -0.164276 1.91032 89 84 80 
-0.326231 0.393205 1.7395 94 90 81 
-0.0334873 -1.98768 3.44565 132 124 113 
-0.0797156 -0.485269 2.04532 94 84 82 
-0.305937 -0.434158 2.1478 84 83 81 
-0.0470065 -2.04074 3.44086 211 215 218 
-0.0294288 -0.546941 2.0752 101 97 94 
-0.0516428 -2.08334 3.41698 210 215 218 
-0.320609 -0.400459 2.1775 81 78 73 
-0.0295892 -2.14101 3.49862 233 234 239 
-0.0102991 -2.12932 3.49372 183 184 186 
0.0152784 -2.11808 3.49889 230 232 231 
-0.00163561 -2.12162 3.50327 234 236 235 
-0.0447874 -2.1157 3.49138 232 234 233 
-0.00729805 -2.10533 3.48662 65 66 68 
-0.0614023 -2.11446 3.48866 232 233 237 
-0.0286882 -2.0871 3.47821 238 239 244 
-0.0339289 -2.07957 3.47527 185 186 190 
0.00257125 -1.91705 3.30789 50 41 34 
0.0531179 -1.9172 3.35131 147 140 134 
-0.0210213 -1.81702 3.26062 28 25 20 
0.00562978 -1.67451 3.14097 61 48 39 
-0.0639666 -1.44931 2.91948 138 132 120 
0.041546 -1.40928 2.88494 21 11 1 
-0.0632985 -1.4226 2.89469 37 30 20 
0.0255119 -1.19824 2.67806 141 137 125 
0.162997 -1.01389 2.50747 10 6 0 
-0.00220852 -1.02386 2.50264 93 88 84 
0.00615517 -0.999523 2.48415 122 113 104 
0.0754921 -0.975527 2.46618 11 0 0 
-0.122045 -1.00468 2.48834 142 136 124 
-0.107972 -0.995552 2.48161 31 26 23 
0.0935807 -0.92313 2.41218 144 135 126 
-0.0174853 -0.942379 2.42913 140 133 125 
0.0444168 -0.924155 2.41309 137 129 118 
0.00303817 -0.921302 2.40828 139 134 128 
-0.243339 -1.00545 2.57247 22 0 0 
0.0908052 -0.864838 2.34933 14 8 0 
-0.104396 -0.890924 2.37946 126 113 104 
0.0697107 -0.79769 2.29836 143 135 124 
-0.08581 -0.821924 2.31935 47 42 38 
-0.254471 -0.907928 2.53345 23 8 3 
0.0858595 -0.767077 2.27103 67 64 55 
0.00432412 -0.777618 2.27829 48 39 32 
0.0501468 -0.753662 2.24784 118 115 110 
0.0189234 -0.694137 2.17496 11 3 0 
-0.00536916 -0.666959 2.13937 47 39 28 
-0.0842144 -0.674286 2.14985 61 48 40 
-0.0832218 -0.588303 2.09753 17 7 0 
-0.0548627 -0.56953 2.08349 3 0 0 
0.110491 -0.550257 2.08903 14 7 0 
0.236393 -0.531933 2.1376 4 3 1 
-0.171733 -0.573838 2.12001 98 94 91 
0.215673 -0.514336 2.11294 11 6 0 
0.16101 -0.513388 2.08811 11 6 2 
-0.179609 -0.557596 2.11856 4 0 0 
-0.160181 -0.540133 2.09684 5 2 0 
0.227044 -0.477604 2.109 4 0 0 
0.308678 -0.459927 2.1767 121 116 110 
-0.221972 -0.507984 2.11504 18 13 9 
0.22098 -0.404865 2.05837 7 2 0 
-0.129824 -0.439416 2.05759 102 98 89 
0.203102 -0.399492 2.04614 16 13 8 
0.0718607 -0.397026 2.02517 7 4 0 
0.217281 -0.373731 2.04067 9 4 0 
0.234078 -0.370703 2.05152 6 0 0 
0.237841 -0.358968 2.04963 42 34 31 
0.260027 -0.354033 2.06548 17 12 6 
-0.147648 -0.379882 2.03601 117 114 109 
-0.220503 -0.356861 2.06724 18 15 10 
-0.175458 -0.334496 2.0247 12 9 0 
0.0846918 -0.279811 1.9661 3 0 0 
-0.225314 -0.275425 2.02841 21 16 12 
0.0652813 -0.234111 1.92989 85 81 72 
-0.182827 -0.25917 1.98982 5 2 0 
0.193193 -0.217526 1.94835 108 99 92 
-0.130093 -0.240628 1.95129 103 100 93 
-0.153351 -0.220149 1.95072 12 7 3 
-0.0313835 -0.202038 1.90632 110 107 102 
-0.122264 -0.198071 1.92774 4 0 0 
0.152196 -0.169057 1.92903 120 116 113 
-0.110392 -0.191872 1.92702 14 10 7 
-0.254165 -0.18166 1.99419 110 103 93 
-0.0749892 -0.159149 1.88827 109 104 100 
-0.270799 -0.180699 2.01511 88 83 79 
-0.243081 -0.167422 1.9818 7 0 0 
-0.130541 -0.137431 1.89568 108 104 95 
-0.3032 -0.146121 2.03497 7 0 0 
-0.0873957 -0.116447 1.86968 117 113 104 
0.188882 -0.0871164 1.87961 132 123 116 
0.225655 -0.0802825 1.89013 4 0 0 
0.0912877 -0.0840838 1.85737 7 2 0 
-0.128451 -0.0961257 1.87484 113 104 99 
-0.153312 -0.095494 1.88378 4 0 0 
-0.123785 -0.0790835 1.87109 11 6 2 
-0.265998 -0.044798 1.9414 113 109 100 
-0.0705113 -0.0288365 1.82713 13 3 0 
0.146475 0.00815614 1.83193 105 102 97 
0.211959 0.0135142 1.83079 17 8 1 
-0.123756 -0.000205763 1.82412 5 0 0 
-0.20762 -0.00309276 1.87166 7 3 0 
0.226158 0.0317796 1.82588 7 0 0 
-0.0649391 0.0244044 1.78982 106 102 93 
0.148011 0.0443483 1.81112 17 12 8 
-0.268822 0.0375874 1.90214 105 100 97 
0.122819 0.0622521 1.79074 13 8 2 
-0.151625 0.0595789 1.80586 7 0 0 
-0.211401 0.0657956 1.83562 126 119 111 
-0.0941793 0.0748418 1.77922 98 94 85 
0.218863 0.0984567 1.78719 117 113 102 
0.258465 0.106859 1.81496 6 3 0 
-0.0595776 0.0867667 1.7576 113 106 98 
0.0155474 0.0922984 1.74733 10 6 0 
0.0105122 0.110723 1.7367 6 1 0 
-0.240741 0.118236 1.82845 72 67 64 
0.131519 0.153613 1.7386 16 12 1 
0.164563 0.164274 1.74833 104 100 88 
-0.0969747 0.187578 1.71384 117 113 104 
0.203974 0.222226 1.71161 92 83 74 
0.272101 0.24095 1.7599 50 42 23 
0.0433631 0.234673 1.67889 148 140 137 
0.0900655 0.24063 1.6826 30 25 19 
0.104343 0.26412 1.67552 120 111 102 
0.0288298 0.273308 1.65698 105 100 94 
-0.18694 0.282668 1.7074 118 116 103 
-0.155057 0.293898 1.68335 103 99 90 
-0.163835 0.302184 1.68386 138 134 122 
-0.0634133 0.307424 1.64349 7 0 0 
0.237573 0.32761 1.67596 19 12 2 
0.117718 0.340034 1.63161 16 6 5 
-0.101673 0.33759 1.63356 122 118 109 
-0.000521005 0.345084 1.60327 111 108 103 
-0.134382 0.350658 1.63587 145 142 135 
-0.0597092 0.348549 1.60972 7 0 0 
0.0617636 0.355553 1.59911 114 110 99 
0.0217192 0.36411 1.58516 23 20 13 
0.107467 0.370804 1.59529 99 96 91 
-0.123431 0.380015 1.59949 123 120 113 
0.0140836 0.387347 1.56405 127 118 111 
0.0652878 0.427686 1.54944 120 113 107 
0.0635837 0.47689 1.52147 6 0 0 
0.0645351 0.517104 1.48779 126 122 113 
0.106838 0.536955 1.47714 160 155 151 
0.0528325 0.533648 1.46683 132 123 116 
-0.0941125 0.599965 1.44326 92 83 74 
-0.0797776 0.617412 1.43348 108 101 91 
-0.195368 0.630321 1.41132 45 36 21 
-0.1194 0.638233 1.37724 123 120 111 
-0.0139703 -2.12022 3.49219 227 229 228 
0.0176175 -2.09433 3.4829 228 229 233 
-0.0532307 -2.10573 3.48538 55 56 58 
-0.0017827 -2.09529 3.4834 231 232 234 
-0.0420915 -2.093 3.47798 226 227 231 
-0.0615772 -2.09745 3.48328 232 233 235 
0.0182892 -1.94404 3.30023 39 38 33 
-0.0383968 -1.93162 3.31523 138 129 122 
-0.0247941 -1.91529 3.30554 54 47 37 
-0.0918586 -1.94449 3.36055 51 50 48 
0.0443401 -1.90229 3.33122 53 49 40 
0.0105203 -1.81156 3.2473 147 136 118 
0.0198352 -1.81725 3.26297 150 140 128 
-0.00183596 -1.81872 3.26125 23 19 18 
-0.0828773 -1.77016 3.27049 53 45 42 
-0.0491227 -1.55122 3.00585 41 33 30 
0.0363559 -1.2993 2.77754 42 33 24 
0.0319883 -1.15032 2.63352 155 147 134 
0.0222394 -1.11841 2.59916 57 48 39 
-0.103483 -1.13719 2.61612 44 34 25 
-0.236406 -1.16292 2.64917 96 93 88 
-0.247567 -1.16032 2.65625 80 80 70 
-0.0416645 -1.07655 2.55286 33 23 13 
0.04682 -1.04365 2.52571 146 135 115 
-0.0658925 -1.024 2.50624 140 129 125 
0.21585 -1.00268 2.56666 139 127 115 
-0.0174911 -0.99562 2.48463 41 38 31 
-0.00366792 -0.973132 2.46113 136 127 120 
0.0207607 -0.960855 2.44425 108 103 99 
-0.0461376 -0.937377 2.42381 137 128 119 
0.00779983 -0.906935 2.39622 12 2 0 
-0.306874 -1.05214 2.66779 81 78 69 
0.0214032 -0.881727 2.37404 44 35 28 
0.123614 -0.851182 2.35027 67 57 45 
0.0507977 -0.854818 2.35161 108 105 98 
-0.0973498 -0.882666 2.37256 45 35 26 
-0.0649572 -0.870313 2.36169 129 119 109 
-0.0276629 -0.847305 2.3424 12 8 9 
0.128195 -0.794763 2.28561 35 29 17 
-0.0505874 -0.822298 2.31768 63 60 53 
-0.0923069 -0.812294 2.30814 136 129 121 
0.13443 -0.767832 2.27178 138 128 126 
-0.0308771 -0.794464 2.28761 98 93 89 
-0.0597573 -0.779038 2.27311 117 113 104 
-0.0649069 -0.754015 2.25718 155 147 134 
0.0783791 -0.720946 2.21698 29 22 12 
-0.0555617 -0.743224 2.24096 137 129 118 
0.0443691 -0.707356 2.19363 55 45 36 
-0.121388 -0.702204 2.18592 35 28 22 
-0.109279 -0.690945 2.16983 57 51 39 
0.207997 -0.634558 2.16561 8 4 0 
-0.139041 -0.623344 2.11381 137 130 114 
-0.148953 -0.621995 2.11559 138 130 119 
0.0392546 -0.574195 2.08445 7 2 0 
-0.1258 -0.581985 2.10304 27 18 9 
0.254138 -0.55189 2.16618 117 113 104 
-0.231057 -0.60122 2.15045 64 58 44 
-0.253123 -0.602312 2.16846 155 147 136 
-0.189717 -0.582179 2.1355 93 90 85 
0.0498665 -0.531455 2.06611 4 0 0 
-0.140769 -0.561981 2.10016 6 0 0 
-0.0458559 -0.533288 2.06555 15 10 7 
0.246056 -0.509211 2.13898 14 4 5 
0.129263 -0.505308 2.06968 30 27 22 
-0.112427 -0.53271 2.08101 22 19 12 
-0.0978066 -0.514541 2.0635 18 10 8 
0.242772 -0.489816 2.13362 34 30 21 
0.192037 -0.477092 2.08145 105 102 95 
0.106292 -0.479085 2.05267 66 62 59 
-0.289218 -0.557855 2.19391 103 98 95 
-0.137882 -0.511793 2.07415 88 81 73 
0.212619 -0.454881 2.0762 96 93 86 
0.201404 -0.453466 2.07235 35 31 22 
-0.177522 -0.495541 2.08453 18 13 9 
-0.253977 -0.512923 2.14235 13 10 1 
-0.221517 -0.491209 2.10882 18 13 9 
0.245807 -0.430746 2.09397 103 99 90 
-0.275494 -0.484749 2.14657 44 37 29 
0.263304 -0.409957 2.09783 108 103 99 
0.167335 -0.406978 2.0597 105 102 97 
-0.0835326 -0.430208 2.04148 13 8 2 
0.189517 -0.400653 2.05024 21 17 6 
0.177978 -0.403442 2.06228 115 112 105 
-0.111461 -0.432217 2.04789 78 71 65 
0.292011 -0.400542 2.12071 100 99 94 
0.217776 -0.393912 2.05137 7 6 2 
0.28331 -0.383438 2.10431 94 94 84 
0.0247515 -0.386181 2.00925 103 98 95 
0.260401 -0.347451 2.06777 93 84 75 
-0.0666318 -0.367716 2.00288 92 89 84 
0.205947 -0.331913 2.01114 99 92 84 
0.17008 -0.330782 2.02462 3 0 0 
0.113314 -0.331397 2.0003 81 80 76 
0.213786 -0.320416 2.00778 3 0 0 
-0.171522 -0.362194 2.0352 15 12 7 
-0.262758 -0.382439 2.11739 20 12 10 
-0.198476 -0.365953 2.05483 6 3 0 
-0.187717 -0.363916 2.04919 23 20 15 
0.215626 -0.300976 2.00153 4 0 0 
0.0445206 -0.30913 1.96927 29 24 18 
-0.275677 -0.361566 2.1181 30 27 22 
-0.0708111 -0.3216 1.98249 11 4 0 
-0.252625 -0.347494 2.08438 118 110 107 
0.0618268 -0.28634 1.96522 71 68 59 
-0.111565 -0.303988 1.98073 11 6 2 
0.193045 -0.273097 1.97766 100 90 81 
-0.0539444 -0.294943 1.96878 8 3 0 
-0.152435 -0.307855 1.99868 9 5 0 
-0.192794 -0.305386 2.01934 98 93 89 
-0.21654 -0.305899 2.03607 14 9 5 
-0.246097 -0.301254 2.05417 121 116 110 
0.0749882 -0.255569 1.9504 92 91 86 
-0.115503 -0.275005 1.96554 12 7 3 
0.215821 -0.240151 1.97037 15 10 4 
-0.274182 -0.299414 2.08252 4 0 0 
0.158549 -0.244669 1.97042 75 71 70 
0.191529 -0.238798 1.95902 76 73 68 
-0.0687657 -0.254159 1.94755 106 97 92 
0.181535 -0.219397 1.95343 10 5 2 
-0.0718696 -0.237899 1.93175 118 109 102 
-0.157064 -0.245841 1.96459 115 105 95 
-0.141982 -0.243161 1.95936 44 35 26 
-0.112818 -0.238024 1.94566 16 8 5 
0.204166 -0.203589 1.94178 10 7 2 
0.204168 -0.203651 1.94194 4 0 0 
-0.141047 -0.227568 1.94781 93 84 77 
0.202859 -0.19424 1.93706 21 17 8 
-0.167406 -0.223789 1.96119 112 107 103 
0.16434 -0.190197 1.94315 89 85 82 
0.13982 -0.189914 1.93275 21 16 12 
0.27152 -0.1807 1.98857 39 30 23 
-0.120224 -0.210714 1.94039 97 96 92 
-0.229963 -0.225207 2.00401 39 30 23 
0.247841 -0.177526 1.95855 102 93 84 
0.0980778 -0.183538 1.91376 93 89 86 
0.0857217 -0.181292 1.91159 3 0 0 
0.238993 -0.1703 1.95051 84 75 70 
-0.104695 -0.19856 1.9223 11 6 3 
0.22389 -0.169193 1.93946 2 2 0 
0.14191 -0.169232 1.92174 87 85 86 
-0.180019 -0.198256 1.95396 98 93 89 
-0.0711125 -0.182962 1.904 29 22 16 
-0.297656 -0.211394 2.05792 11 0 0 
-0.119804 -0.183278 1.90625 104 99 95 
0.233521 -0.147743 1.93292 5 1 0 
0.165409 -0.14765 1.91829 74 69 65 
-0.178302 -0.178686 1.94298 16 11 7 
0.184012 -0.139876 1.90889 87 82 76 
0.064891 -0.147907 1.88061 72 62 52 
0.232445 -0.134007 1.91926 65 58 52 
0.236655 -0.135716 1.94948 107 103 94 
-0.185266 -0.167935 1.94199 11 6 2 
0.247484 -0.130336 1.93832 93 86 80 
0.192995 -0.129642 1.89899 76 69 63 
0.222855 -0.124313 1.90941 87 80 72 
0.26982 -0.122719 1.94865 88 79 72 
-0.118093 -0.146502 1.90453 6 3 0 
0.174823 -0.119785 1.90806 4 0 0 
-0.0566788 -0.136162 1.87422 66 57 48 
0.22973 -0.109827 1.91047 93 88 82 
-0.120072 -0.132691 1.89947 107 104 99 
-0.279744 -0.146186 2.00587 99 92 86 
0.106335 -0.10842 1.87573 33 28 24 
-0.0784116 -0.121235 1.86922 33 24 17 
-0.199708 -0.129556 1.92954 17 14 5 
0.16555 -0.0950916 1.8888 75 70 67 
0.277395 -0.0857721 1.93866 87 78 71 
-0.117697 -0.114998 1.87914 50 45 39 
-0.0668901 -0.108003 1.86126 4 0 0 
-0.151879 -0.108552 1.88712 10 5 1 
-0.0957554 -0.0930627 1.85888 8 5 0 
0.178543 -0.0610858 1.87093 23 13 12 
0.269141 -0.0528836 1.91245 68 55 49 
0.0688306 -0.0641084 1.84554 48 38 29 
0.203266 -0.0517408 1.86056 19 11 8 
-0.0504097 -0.0650473 1.84285 20 11 6 
0.14152 -0.0499811 1.85984 7 3 0 
0.25948 -0.0412574 1.89187 98 92 80 
0.185484 -0.0423351 1.86037 14 7 1 
-0.0800522 -0.0615084 1.83964 16 13 8 
0.0781129 -0.0466499 1.83757 22 13 6 
-0.230622 -0.0683634 1.92059 10 1 0 
0.231203 -0.0328104 1.86693 75 70 67 
-0.0860569 -0.0480219 1.83161 9 4 0 
-0.227604 -0.0577444 1.91568 11 4 0 
-0.168788 -0.0520573 1.87135 4 0 0 
-0.0714391 -0.0443216 1.82717 109 104 100 
-0.126409 -0.0440427 1.84788 16 13 8 
-0.217607 -0.0454579 1.90312 93 84 77 
0.183614 -0.0165197 1.8455 87 78 69 
-0.100179 -0.0309535 1.82981 98 95 88 
-0.231913 -0.0379714 1.90345 97 89 86 
0.111384 -0.00718126 1.82524 70 66 57 
-0.198228 -0.0266138 1.87389 9 4 0 
-0.127931 -0.0219326 1.83459 17 13 4 
-0.0671237 -0.0151833 1.82133 31 23 12 
-0.0931439 -0.0104402 1.81573 5 1 0 
-0.242624 -0.0132271 1.9048 7 0 0 
0.20139 0.0161961 1.82182 85 78 72 
-0.274658 -0.00297013 1.92871 11 7 0 
0.0949399 0.0275169 1.8012 86 83 76 
-0.07915 0.0169162 1.79934 95 91 82 
-0.113962 0.0157515 1.80784 13 9 6 
-0.215079 0.0138309 1.86576 3 0 0 
-0.200106 0.0211533 1.85416 10 7 2 
-0.235458 0.0212396 1.8797 8 4 0 
-0.128681 0.0256073 1.80812 98 94 85 
0.087948 0.0395562 1.79359 109 100 93 
0.101515 0.040565 1.79342 104 99 93 
-0.183722 0.0311675 1.83567 8 4 0 
-0.279199 0.0319448 1.92036 90 85 81 
-0.224871 0.0342332 1.86272 89 85 76 
-0.14766 0.0386949 1.81352 97 92 88 
0.107324 0.0541314 1.79082 76 71 68 
0.300636 0.0723107 1.87499 13 12 8 
-0.236372 0.0401244 1.87215 79 75 66 
-0.134208 0.0435706 1.80243 19 14 10 
-0.172379 0.04885 1.82072 4 0 0 
-0.151499 0.0507912 1.8108 88 84 75 
-0.24511 0.0530349 1.87127 100 99 95 
0.114715 0.0766549 1.78094 101 97 86 
-0.260053 0.0712107 1.89296 128 120 107 
-0.241255 0.0703887 1.85812 24 20 11 
0.108035 0.0988241 1.7668 3 0 0 
-0.0831569 0.0894205 1.7607 7 3 0 
-0.00840271 0.0962933 1.75205 116 111 107 
-0.101778 0.0960838 1.76265 106 102 93 
-0.065429 0.0992262 1.75183 87 83 74 
0.122584 0.112112 1.76533 123 119 110 
-0.086425 0.101794 1.75555 131 127 115 
-0.236995 0.10926 1.83127 25 16 7 
-0.00932117 0.114234 1.742 89 86 79 
0.250661 0.143317 1.7891 12 3 0 
0.0459794 0.128104 1.73826 29 26 19 
0.109156 0.133728 1.74627 20 16 5 
0.295431 0.156026 1.82256 30 21 12 
0.0737281 0.142536 1.73302 27 25 13 
0.0633601 0.145518 1.72984 15 11 0 
0.0115614 0.144664 1.72474 8 5 0 
-0.286403 0.150986 1.86421 16 11 5 
-0.0535475 0.148157 1.72302 38 31 25 
0.235186 0.173674 1.76113 96 87 80 
0.182827 0.17076 1.74509 7 0 0 
-0.0344443 0.159852 1.71592 110 107 100 
0.00539099 0.16315 1.70973 12 7 1 
-0.176813 0.163077 1.76405 21 17 8 
-0.154868 0.163986 1.75559 20 11 4 
0.275175 0.194382 1.77788 92 88 77 
-0.0174839 0.17483 1.70803 7 4 0 
-0.135556 0.179132 1.73585 3 0 0 
-0.214962 0.182078 1.77853 109 102 92 
0.117271 0.19013 1.7147 108 104 95 
-0.0784656 0.185974 1.71043 85 81 72 
0.111981 0.196657 1.71271 27 18 11 
-0.0767303 0.198795 1.70387 5 0 0 
-0.162492 0.208747 1.7364 121 113 102 
-0.147919 0.210538 1.72282 96 89 79 
0.0576619 0.221252 1.68406 8 0 0 
0.198729 0.230803 1.70516 31 22 15 
0.0148732 0.222924 1.68279 5 1 0 
0.144445 0.233694 1.70424 14 10 1 
-0.055502 0.226002 1.6865 30 25 19 
0.204141 0.242381 1.6978 113 105 94 
0.249556 0.259661 1.72749 148 144 133 
0.218834 0.257384 1.7014 11 3 0 
-0.11832 0.244205 1.69313 11 6 2 
0.099141 0.250138 1.68032 11 0 0 
0.152648 0.257574 1.69636 17 12 8 
-0.0570228 0.248064 1.6766 23 19 10 
0.0836183 0.256595 1.67191 100 91 86 
0.199522 0.266702 1.68691 11 5 0 
0.180815 0.27423 1.6952 77 72 69 
0.135567 0.271061 1.6811 65 56 47 
0.0435787 0.272343 1.65874 18 9 4 
0.119361 0.279671 1.67248 38 31 25 
0.0564324 0.276367 1.65929 93 84 75 
0.232502 0.299877 1.68621 111 107 95 
0.067182 0.28988 1.65131 93 83 74 
0.137511 0.295269 1.67002 38 29 20 
-0.179456 0.297255 1.69667 80 75 71 
0.253799 0.316271 1.69457 112 104 93 
0.24105 0.319138 1.68562 30 21 12 
0.0619472 0.320401 1.63695 12 8 0 
0.222887 0.332006 1.64401 116 112 101 
-0.120254 0.329347 1.64745 17 12 6 
0.10906 0.33294 1.63741 11 6 0 
0.0339183 0.345383 1.60545 100 96 85 
0.120787 0.350523 1.61952 10 5 1 
0.279269 0.387841 1.6766 51 42 35 
0.238024 0.382698 1.64571 93 85 74 
0.0479891 0.365086 1.58462 4 0 0 
-0.0661986 0.369017 1.58729 102 98 87 
0.234825 0.392918 1.63729 11 8 1 
0.0647935 0.379559 1.57573 7 1 1 
0.196187 0.396022 1.61045 8 4 0 
0.144332 0.392904 1.58763 72 68 67 
0.0868736 0.39158 1.57168 86 83 76 
0.244079 0.42287 1.63611 100 91 82 
0.0533536 0.401386 1.56211 21 18 11 
0.160198 0.411333 1.58507 7 3 0 
0.162044 0.42527 1.57789 102 98 89 
0.103475 0.42378 1.55847 84 81 76 
0.25818 0.445625 1.62513 19 12 4 
0.0413056 0.42577 1.54728 10 6 0 
0.0787153 0.428416 1.55115 146 143 138 
0.213919 0.461442 1.58627 90 86 77 
0.0509773 0.457465 1.53154 8 0 0 
0.0203662 0.479192 1.51769 104 100 89 
0.0570343 0.499752 1.51075 28 24 15 
0.279487 0.543386 1.6065 104 100 91 
0.0662792 0.508812 1.50323 32 28 17 
0.265632 0.539788 1.57352 148 138 129 
0.132645 0.516113 1.50803 10 5 0 
0.300054 0.565051 1.59058 41 32 25 
0.0205248 0.563156 1.44264 95 86 79 
-0.0342211 0.565694 1.44546 112 102 100 
-0.0718734 0.584614 1.44908 112 102 92 
-0.00959023 0.578523 1.4351 116 108 97 
0.0138375 0.598082 1.42508 138 130 119 
-0.126131 0.613409 1.44825 98 92 80 
-0.155712 0.625121 1.45409 122 118 109 
-0.0327585 0.616623 1.42291 130 117 101 
-0.172926 0.62978 1.40065 15 8 2 
-0.228975 0.651044 1.4212 31 23 10 
-0.0926009 0.627041 1.38009 8 0 0 
