ply                 
format ascii 1.0    
element vertex 1287
property float x    
property float y    
property float z    
property uchar red  
property uchar green
property uchar blue 
end_header          
0.0619475 -0.560622 2.06541 71 66 60 
-0.0347238 -0.543387 2.06172 95 92 87 
0.18471 -0.48489 2.07368 0 0 0 
0.13807 -0.466452 2.06399 81 77 74 
-0.153992 -0.448257 2.05449 65 64 59 
0.211244 -0.410916 2.04797 98 94 83 
-0.089497 -0.399837 2.01895 79 78 73 
0.184797 -0.412033 2.04388 98 98 86 
0.259283 -0.280955 2.01462 111 107 104 
0.0692537 -0.20676 1.91241 106 98 87 
0.154738 -0.12918 1.89704 4 0 0 
-0.0744783 -0.0214798 1.81956 101 93 80 
0.300796 0.0477649 1.88634 87 82 76 
0.223126 0.0587229 1.80511 99 95 92 
0.201958 0.0817191 1.77872 83 75 64 
0.100058 0.220033 1.685 77 72 68 
0.319251 0.271948 1.78167 21 16 12 
0.291824 0.398265 1.6808 92 92 82 
0.188785 0.384933 1.61046 80 75 71 
-0.114303 -1.59762 3.09893 224 228 231 
-0.134764 -1.49833 3.02252 92 88 79 
-0.12503 -1.50319 3.03574 94 92 80 
-0.14526 -1.42718 2.96955 63 60 51 
-0.363909 -0.763813 2.52041 219 224 220 
0.0714415 -0.630553 2.15986 7 7 5 
-0.3832 -0.671125 2.45482 70 70 60 
-0.233679 -0.584626 2.1431 1 0 0 
-0.245703 -0.573182 2.14369 17 15 16 
-0.232757 -0.566485 2.14048 98 95 88 
-0.0757057 -0.507878 2.13205 70 67 60 
-0.0951812 -0.456699 2.06104 88 84 81 
0.0112752 -0.449213 2.02553 3 3 3 
-0.238976 -0.45578 2.09066 63 62 60 
0.0953464 -0.445788 2.04257 1 2 4 
-0.260761 -0.204854 2.01258 93 84 69 
0.195941 -0.168489 1.93115 88 78 68 
-0.0925878 -0.159033 1.88733 121 116 112 
-0.186275 -0.0465929 1.8747 86 83 76 
-0.203802 -0.0271797 1.8755 6 0 0 
0.110572 0.0100643 1.80424 72 67 61 
0.253746 0.399878 1.64179 91 89 77 
-0.265048 0.598566 1.58319 26 27 29 
-0.0592817 -1.88582 3.22038 56 53 46 
-0.00927597 -1.83877 3.1914 29 33 32 
-0.156205 -1.42738 2.97342 86 87 81 
0.295068 -0.989628 2.63556 99 97 82 
-0.381877 -0.721955 2.49464 216 221 224 
-0.189287 -0.595541 2.12403 1 1 1 
-0.159322 -0.475489 2.06156 81 78 73 
-0.259053 -0.454508 2.10927 1 3 0 
0.194411 0.0773193 1.79182 91 83 72 
0.297305 0.261978 1.77593 18 14 13 
-0.281048 0.370417 1.68795 1 1 1 
-0.255699 0.391002 1.66462 93 97 96 
-0.248828 0.416248 1.65569 32 33 37 
0.0572762 -1.91269 3.3011 42 38 39 
-0.099388 -1.6198 3.10894 70 67 62 
0.174229 -1.31579 2.91098 35 36 31 
-0.310212 -0.963288 2.5867 65 64 59 
-0.375919 -0.779351 2.5331 216 220 223 
-0.351573 -0.779471 2.53305 95 93 81 
0.11087 -0.609066 2.10306 2 2 4 
0.0667384 -0.595128 2.10094 95 91 88 
-0.250544 0.349194 1.61105 98 90 79 
-0.252417 0.3637 1.67866 110 103 93 
-0.0825137 -1.86429 3.38514 215 217 216 
0.171352 -0.477505 2.06413 4 3 8 
-0.00450186 -0.22532 1.91507 1 1 3 
-0.307264 0.670013 1.62143 3 7 10 
-0.281714 -1.1213 2.63724 216 220 223 
-0.38312 -0.76865 2.51296 216 220 223 
-0.38408 -0.731975 2.52623 216 220 223 
0.378312 0.27419 1.91407 93 89 78 
0.0356265 -1.96766 3.37565 35 32 27 
-0.0678744 -1.86557 3.31425 63 58 54 
-0.29138 0.117482 1.92055 98 91 73 
0.393412 0.187313 1.95382 226 228 227 
-0.258071 0.47848 1.63142 64 56 54 
-0.197462 -0.533267 2.104 23 18 15 
-0.29377 -0.412338 2.13064 96 92 89 
0.0375465 0.0260863 1.81152 124 114 105 
-0.273447 0.422759 1.68384 31 34 41 
-0.299227 0.455531 1.69713 29 31 26 
-0.27403 0.49899 1.65294 116 115 111 
-0.27502 0.553607 1.62851 107 108 110 
-0.00309271 -1.88699 3.39029 36 34 37 
-0.304401 -0.408762 2.1433 93 93 85 
-0.170136 -0.228931 1.96304 19 15 12 
-0.152909 -0.220947 1.95045 21 18 13 
-0.145699 -0.115536 1.89049 103 99 96 
-0.0976524 0.268104 1.66843 105 95 94 
-0.300188 0.429472 1.7124 33 35 47 
-0.291558 0.446257 1.69437 49 50 55 
-0.296241 0.46769 1.68976 36 37 32 
-0.266959 0.460537 1.66253 105 104 99 
-0.248696 0.460478 1.63947 149 154 150 
-0.264832 0.550118 1.61725 96 97 99 
-0.276991 0.567611 1.62291 101 102 104 
0.00594532 0.622013 1.35693 119 111 100 
0.126389 0.671697 1.34539 5 5 0 
-0.328904 -0.53742 2.21466 83 80 75 
-0.258644 -0.510384 2.13229 87 87 79 
-0.325315 -0.497289 2.19426 37 33 30 
-0.0403629 -0.373961 2.00343 78 75 70 
0.183617 -0.372129 2.04 99 98 94 
-0.286966 -0.158661 2.00964 92 82 72 
-0.320174 -0.140665 2.03813 102 96 82 
-0.312201 -0.127911 2.02729 91 85 73 
0.0163462 0.133675 1.72611 130 126 117 
-0.286811 0.41288 1.70262 39 43 44 
-0.210979 -0.985996 2.49106 33 29 28 
0.0591616 -0.600035 2.09566 79 76 71 
-0.00254811 -0.499687 2.03997 4 4 6 
-0.146213 -0.487761 2.06021 1 1 1 
-0.25207 -0.190883 1.9926 24 18 18 
0.0702046 -0.16505 1.9022 89 84 80 
-0.326253 0.393341 1.73748 94 90 81 
-0.0280426 -1.9718 3.41012 132 124 113 
-0.0787341 -0.485669 2.03768 94 84 82 
-0.304305 -0.43414 2.14147 84 83 81 
-0.041509 -2.02456 3.40569 211 215 218 
-0.0283777 -0.547252 2.06669 101 97 94 
-0.0462401 -2.06717 3.3826 210 215 218 
-0.318793 -0.400319 2.17081 81 78 73 
-0.0245074 -2.11944 3.45434 233 234 239 
-0.00541603 -2.10796 3.44957 183 184 186 
0.0199368 -2.09677 3.45449 230 232 231 
0.00320197 -2.10022 3.45877 234 236 235 
-0.039562 -2.09447 3.44737 232 234 233 
-0.00245002 -2.08431 3.4427 65 66 68 
-0.0560227 -2.09327 3.44477 232 233 237 
-0.0236467 -2.06636 3.43462 238 239 244 
-0.0288406 -2.05894 3.43177 185 186 190 
0.00685188 -1.90014 3.26972 50 41 34 
0.0570994 -1.89975 3.31158 147 140 134 
-0.0166269 -1.80156 3.22397 28 25 20 
0.00950161 -1.66159 3.10782 61 48 39 
-0.0602545 -1.44024 2.89269 138 132 120 
0.0445274 -1.40083 2.85873 21 11 1 
-0.0596658 -1.41394 2.86855 37 30 20 
0.0280629 -1.19277 2.65706 141 137 125 
0.164621 -1.01053 2.48964 10 6 0 
-1.19454e-05 -1.02047 2.48568 93 88 84 
0.0082776 -0.996354 2.46755 122 113 104 
0.0773448 -0.972561 2.44966 11 0 0 
-0.119471 -1.00136 2.47195 142 136 124 
-0.105469 -0.992331 2.46534 31 26 23 
0.0952566 -0.920689 2.39667 144 135 126 
-0.0154381 -0.939768 2.41376 140 133 125 
0.0462404 -0.921718 2.39781 137 129 118 
0.00496747 -0.918899 2.39325 139 134 128 
-0.239891 -1.00136 2.55427 22 0 0 
0.0923538 -0.862266 2.33319 14 8 0 
-0.102251 -0.888717 2.36527 126 113 104 
0.0712076 -0.796298 2.28519 143 135 124 
-0.0839076 -0.820288 2.3063 47 42 38 
-0.251108 -0.904496 2.51614 23 8 3 
0.0872631 -0.765907 2.25828 67 64 55 
0.00590888 -0.776383 2.26578 48 39 32 
0.0515979 -0.752069 2.23391 118 115 110 
0.0201914 -0.693614 2.16425 11 3 0 
-0.00408812 -0.666136 2.12761 47 39 28 
-0.0828885 -0.673849 2.13985 61 48 40 
-0.0820416 -0.588219 2.08838 17 7 0 
-0.0537487 -0.569551 2.07451 3 0 0 
0.111311 -0.5504 2.07884 4 1 0 
0.237333 -0.531603 2.12575 5 1 0 
-0.170341 -0.573571 2.11057 98 94 91 
0.216639 -0.514301 2.10198 11 6 0 
0.161996 -0.513488 2.07802 11 6 2 
-0.1782 -0.557346 2.10915 4 0 0 
-0.158884 -0.540019 2.08778 5 2 0 
0.228012 -0.477631 2.09798 4 0 0 
0.309595 -0.459654 2.16358 121 116 110 
-0.220482 -0.507753 2.10567 18 13 9 
0.221786 -0.40511 2.04834 6 3 0 
-0.128655 -0.439586 2.04913 102 98 89 
0.204016 -0.399701 2.03607 16 13 8 
0.0727673 -0.397406 2.01643 5 4 0 
0.218211 -0.373864 2.03035 8 4 0 
0.235014 -0.370807 2.04093 9 4 0 
0.238761 -0.359232 2.03937 42 34 31 
0.260994 -0.354347 2.05532 17 12 6 
-0.146516 -0.380148 2.0279 117 114 109 
-0.21914 -0.356966 2.05864 18 15 10 
-0.174323 -0.334793 2.01677 12 9 0 
0.0855886 -0.280313 1.9575 9 6 1 
-0.224077 -0.275691 2.02042 21 16 12 
0.065954 -0.235949 1.92943 101 97 94 
-0.181792 -0.259583 1.98241 5 2 0 
0.194062 -0.218283 1.94006 108 99 92 
-0.129232 -0.241187 1.9444 103 100 93 
-0.152475 -0.220687 1.94386 12 7 3 
-0.0306562 -0.202774 1.89988 110 107 102 
-0.121473 -0.198686 1.92117 4 0 0 
0.153128 -0.16968 1.92001 121 116 113 
-0.109356 -0.192357 1.91832 14 10 7 
-0.253001 -0.182014 1.98668 110 103 93 
-0.0743175 -0.15987 1.88217 109 104 100 
-0.269513 -0.180997 2.00728 88 83 79 
-0.24198 -0.167817 1.97448 7 0 0 
-0.129843 -0.138082 1.88956 108 104 95 
-0.301748 -0.146372 2.02679 7 0 0 
-0.0867716 -0.117168 1.86385 117 113 104 
0.189702 -0.0880136 1.87231 132 123 116 
0.226497 -0.0811884 1.88236 4 0 0 
0.0920214 -0.0848955 1.85047 7 2 0 
-0.12781 -0.0967928 1.86899 113 104 99 
-0.15264 -0.0961263 1.87783 4 0 0 
-0.122949 -0.0797087 1.86361 11 6 2 
-0.264994 -0.0452485 1.93462 113 109 100 
-0.0699697 -0.0295545 1.82083 13 3 0 
0.147302 0.00728205 1.82458 104 99 95 
0.212748 0.0125862 1.82261 19 15 6 
-0.123256 -0.000867892 1.8189 5 0 0 
-0.206942 -0.00364899 1.86585 7 3 0 
0.226959 0.0308228 1.81898 7 0 0 
-0.0645043 0.023692 1.78493 106 102 93 
0.148854 0.043349 1.80359 7 3 0 
-0.267955 0.0371153 1.89587 105 100 97 
0.123589 0.0613484 1.78383 4 0 0 
-0.151178 0.0589818 1.80087 7 0 0 
-0.210843 0.0652615 1.83025 126 119 111 
-0.0936461 0.074155 1.77324 98 94 85 
0.219637 0.0975635 1.78005 109 105 96 
0.259367 0.105932 1.80868 6 3 0 
-0.059213 0.0861093 1.75309 113 106 98 
0.0159863 0.0915786 1.74272 10 6 0 
0.0109214 0.110031 1.73223 6 1 0 
-0.240184 0.117758 1.82315 72 67 64 
0.132147 0.152846 1.73352 16 12 1 
0.16531 0.163424 1.74173 91 88 83 
-0.0967587 0.187098 1.70986 117 113 104 
0.204703 0.221493 1.70679 92 83 74 
0.272607 0.239041 1.74804 66 57 40 
0.0437624 0.234108 1.67435 148 140 137 
0.0905483 0.24006 1.67789 31 27 18 
0.104869 0.263547 1.6709 110 106 97 
0.0291677 0.272827 1.65267 105 100 94 
-0.186799 0.282399 1.7035 118 116 103 
-0.154974 0.293654 1.67971 103 99 90 
-0.163756 0.301958 1.68021 138 134 122 
-0.0633264 0.307191 1.6402 7 0 0 
0.238394 0.326857 1.67082 19 12 4 
0.118181 0.339682 1.62793 16 6 5 
-0.101679 0.337457 1.6304 122 118 109 
-0.000414528 0.344927 1.60025 111 108 103 
-0.134429 0.350566 1.63271 145 142 135 
-0.0597138 0.348443 1.60676 7 0 0 
0.0620176 0.35534 1.59582 114 110 99 
0.0218687 0.363747 1.58122 23 20 13 
0.107828 0.370546 1.59178 99 96 91 
-0.123589 0.380032 1.59667 123 120 113 
0.0141376 0.387302 1.56111 127 118 111 
0.0654653 0.427697 1.54648 120 113 107 
0.0636916 0.477161 1.51906 6 0 0 
0.0645822 0.517461 1.48529 126 122 113 
0.106871 0.537926 1.47628 169 164 160 
0.0526362 0.534797 1.46628 115 111 100 
-0.0946963 0.600933 1.44181 92 83 74 
-0.080312 0.61844 1.43197 108 101 91 
-0.196292 0.631371 1.40984 45 36 21 
-0.120261 0.639457 1.37609 123 120 111 
-0.00905015 -2.09898 3.44811 227 229 228 
0.0222185 -2.07348 3.43902 228 229 233 
-0.047938 -2.08469 3.44161 55 56 58 
0.00300818 -2.07442 3.43956 231 232 234 
-0.0369244 -2.07219 3.43441 226 227 231 
-0.0562027 -2.0765 3.43957 232 233 235 
0.0223845 -1.927 3.26228 39 38 33 
-0.0337449 -1.91446 3.27692 138 129 122 
-0.0202837 -1.89841 3.26751 54 47 37 
-0.0865646 -1.92659 3.3209 51 50 48 
0.0483467 -1.88524 3.29217 53 49 40 
0.0146097 -1.79631 3.21097 147 136 118 
0.023897 -1.80176 3.22611 150 140 128 
0.00239936 -1.80324 3.22451 23 19 18 
-0.077888 -1.75494 3.23365 53 45 42 
-0.0452537 -1.54062 2.97669 41 33 30 
0.0391035 -1.29247 2.75408 42 33 24 
0.0343998 -1.14543 2.61353 155 147 134 
0.0246026 -1.11393 2.57998 57 48 39 
-0.100544 -1.13242 2.59689 44 34 25 
-0.232718 -1.15754 2.62919 96 93 88 
-0.243785 -1.15487 2.6361 80 80 70 
-0.0391816 -1.07257 2.53492 33 23 13 
0.0489042 -1.04003 2.50807 146 135 115 
-0.0634589 -1.02055 2.48937 140 129 125 
0.217403 -0.998761 2.54694 139 127 115 
-0.0152841 -0.992453 2.4681 41 38 31 
-0.00157239 -0.970207 2.44504 136 127 120 
0.0227294 -0.958095 2.42843 108 103 99 
-0.0440209 -0.934801 2.40863 137 128 119 
0.00968499 -0.904655 2.38142 12 2 0 
-0.30266 -1.04704 2.64737 81 78 69 
0.0231957 -0.879662 2.35962 44 35 28 
0.125087 -0.849324 2.33581 67 57 45 
0.0524618 -0.852966 2.3375 108 105 98 
-0.0952464 -0.880534 2.3585 45 35 26 
-0.0629757 -0.868316 2.34779 129 119 109 
-0.0258306 -0.845512 2.32877 12 8 9 
0.129502 -0.792867 2.27088 35 29 17 
-0.0487746 -0.820702 2.30459 63 60 53 
-0.0904273 -0.81074 2.29532 136 129 121 
0.13573 -0.766633 2.25873 138 128 126 
-0.0290631 -0.7924 2.27267 98 93 89 
-0.0578876 -0.777065 2.25842 117 113 104 
-0.0632449 -0.752903 2.24525 155 147 134 
0.0796706 -0.720165 2.20527 29 22 12 
-0.0539727 -0.74223 2.2293 137 129 118 
0.0456524 -0.706721 2.18249 55 45 36 
-0.119878 -0.701502 2.17535 35 28 22 
-0.107848 -0.690356 2.15952 57 51 39 
0.208992 -0.634111 2.1539 8 4 0 
-0.137757 -0.623082 2.10446 137 130 114 
-0.147648 -0.621712 2.10622 138 130 119 
0.0403313 -0.573879 2.07381 7 2 0 
-0.124547 -0.581839 2.09386 27 18 9 
0.255105 -0.551539 2.15397 117 113 104 
-0.229442 -0.600688 2.14048 64 58 44 
-0.251376 -0.601663 2.15816 155 147 136 
-0.188232 -0.581808 2.1258 93 90 85 
0.0508738 -0.531639 2.05705 4 0 0 
-0.13954 -0.561897 2.09128 6 0 0 
-0.0446657 -0.53302 2.05507 15 10 7 
0.247023 -0.509054 2.12728 14 4 5 
0.130172 -0.5055 2.06022 27 24 19 
-0.111173 -0.532357 2.0702 22 19 12 
-0.0966957 -0.514657 2.05491 18 10 8 
0.243752 -0.489715 2.12203 34 30 21 
0.192945 -0.476574 2.07082 94 91 86 
0.107263 -0.47937 2.0435 66 62 59 
-0.287234 -0.557127 2.18316 103 98 95 
-0.136689 -0.511827 2.06544 88 81 73 
0.213516 -0.454882 2.06622 93 90 83 
0.202352 -0.453674 2.06216 35 31 22 
-0.176228 -0.495503 2.07567 18 13 9 
-0.2523 -0.512533 2.13251 13 10 1 
-0.220045 -0.491024 2.09955 18 13 9 
0.246867 -0.430526 2.08254 97 93 84 
-0.273736 -0.484355 2.13665 44 37 29 
0.264185 -0.409943 2.08615 102 97 93 
0.168321 -0.407097 2.04964 109 104 101 
-0.0824557 -0.430486 2.03321 13 8 2 
0.190473 -0.40104 2.04047 21 17 6 
0.178974 -0.403751 2.0524 115 112 105 
-0.110342 -0.432445 2.03956 78 71 65 
0.292919 -0.400642 2.10844 107 104 99 
0.218706 -0.393987 2.04095 16 13 8 
0.284492 -0.384097 2.09258 96 92 83 
0.0257027 -0.386663 2.00114 103 98 95 
0.261336 -0.347778 2.05702 93 84 75 
-0.0656676 -0.368168 1.99515 92 89 84 
0.206864 -0.332274 2.0014 109 105 96 
0.171035 -0.331141 2.0151 3 0 0 
0.114264 -0.331758 1.99098 83 82 80 
0.214712 -0.320596 1.99748 8 3 0 
-0.170363 -0.362447 2.02712 15 12 7 
-0.261105 -0.382311 2.10797 20 12 10 
-0.197204 -0.366113 2.04644 6 3 0 
-0.186481 -0.364109 2.04089 23 20 15 
0.216528 -0.301554 1.99227 4 0 0 
0.0453995 -0.309766 1.96166 29 24 18 
-0.273982 -0.361445 2.10865 30 27 22 
-0.0697477 -0.321891 1.97338 11 4 0 
-0.251131 -0.347519 2.07551 118 110 107 
0.06273 -0.28683 1.9566 71 68 59 
-0.11063 -0.304483 1.97341 11 6 2 
0.193936 -0.273759 1.96896 100 90 81 
-0.0529093 -0.295306 1.9597 8 3 0 
-0.151413 -0.308262 1.99113 9 5 0 
-0.191649 -0.305694 2.01149 98 93 89 
-0.215295 -0.306135 2.02796 14 9 5 
-0.244729 -0.301411 2.04578 121 116 110 
0.0758416 -0.256144 1.94225 89 86 81 
-0.114641 -0.275562 1.95862 12 7 3 
0.216706 -0.24085 1.96156 15 10 4 
-0.272632 -0.299467 2.07366 4 0 0 
0.1595 -0.245152 1.96099 74 70 67 
0.192406 -0.239521 1.95059 76 73 68 
-0.0679217 -0.254652 1.93942 106 97 92 
0.182421 -0.220157 1.94512 10 5 2 
-0.0710851 -0.238555 1.92506 118 109 102 
-0.156144 -0.246342 1.95754 115 105 95 
-0.141086 -0.24369 1.95237 44 35 26 
-0.111981 -0.238612 1.93883 16 8 5 
0.205026 -0.20428 1.93366 10 7 2 
0.205026 -0.204357 1.93367 4 0 0 
-0.140191 -0.228124 1.94098 93 84 77 
0.203765 -0.194799 1.92772 22 18 9 
-0.166528 -0.224307 1.95442 112 107 103 
0.165265 -0.19078 1.93418 87 83 80 
0.140718 -0.190487 1.92414 23 19 16 
0.27243 -0.181412 1.9789 39 30 23 
-0.119125 -0.211147 1.93141 97 96 92 
-0.228805 -0.225551 1.99638 39 30 23 
0.24877 -0.17812 1.94877 91 87 78 
0.0989289 -0.184199 1.90564 101 100 96 
0.0866305 -0.181899 1.90289 9 5 2 
0.239916 -0.170895 1.94104 86 81 75 
-0.103924 -0.199202 1.91579 11 6 3 
0.224762 -0.169995 1.93101 2 2 0 
0.142802 -0.169896 1.91324 80 79 75 
-0.179106 -0.198763 1.94707 98 93 89 
-0.0703953 -0.183666 1.89769 29 22 16 
-0.296137 -0.211558 2.04941 11 0 0 
-0.119094 -0.183934 1.89999 104 99 95 
0.234404 -0.148518 1.92469 5 1 0 
0.166274 -0.148475 1.91064 74 69 65 
-0.177425 -0.179216 1.93624 16 11 7 
0.184857 -0.140725 1.90123 87 82 76 
0.0656239 -0.148741 1.87413 72 62 52 
0.233298 -0.13486 1.91102 65 58 52 
0.237568 -0.136523 1.94075 107 103 94 
-0.184384 -0.168459 1.93525 11 6 2 
0.248085 -0.13108 1.92593 84 79 73 
0.193824 -0.130513 1.8914 76 69 63 
0.223753 -0.12502 1.90042 104 96 93 
0.270755 -0.123275 1.93862 89 87 75 
-0.117166 -0.147057 1.89654 6 3 0 
0.175686 -0.120634 1.90048 4 0 0 
-0.0560518 -0.136925 1.86838 66 57 48 
0.230642 -0.110585 1.90141 77 67 65 
-0.119093 -0.133254 1.89114 107 104 99 
-0.278472 -0.146509 1.99816 99 92 86 
0.107107 -0.109321 1.86867 29 26 21 
-0.0777881 -0.121967 1.86338 33 24 17 
-0.198852 -0.130086 1.92298 17 14 5 
0.166386 -0.095963 1.88155 75 70 67 
0.278341 -0.0864485 1.92851 93 89 78 
-0.117048 -0.115678 1.87322 50 45 39 
-0.0662805 -0.108749 1.8555 4 0 0 
-0.1512 -0.109186 1.88111 10 5 1 
-0.0951623 -0.0937785 1.8532 8 5 0 
0.179364 -0.0619843 1.86383 23 13 12 
0.270084 -0.0535099 1.90335 71 61 52 
0.0695325 -0.0649113 1.83892 48 38 29 
0.204141 -0.0525739 1.85215 9 4 1 
-0.0497308 -0.0657623 1.83608 20 11 6 
0.142356 -0.0508595 1.8517 3 0 0 
0.260342 -0.0421921 1.88376 98 92 80 
0.186298 -0.0432077 1.85344 14 7 1 
-0.0795016 -0.0622408 1.83418 16 13 8 
0.0788082 -0.0474647 1.83108 22 13 6 
-0.229755 -0.0688701 1.91413 10 1 0 
0.232035 -0.0337496 1.85944 75 70 67 
-0.0855333 -0.048748 1.82626 9 4 0 
-0.226754 -0.0582582 1.90928 11 4 0 
-0.168141 -0.0526709 1.86556 4 0 0 
-0.0709178 -0.0450619 1.82185 109 104 100 
-0.125875 -0.0447213 1.84253 16 13 8 
-0.21681 -0.0459917 1.89689 93 84 77 
0.184413 -0.0174375 1.8387 87 78 69 
-0.0996602 -0.0316558 1.8245 98 95 88 
-0.231106 -0.0384904 1.89721 97 89 86 
0.112116 -0.00790682 1.81815 82 77 73 
-0.197556 -0.0271871 1.86806 9 4 0 
-0.127405 -0.0225997 1.82925 17 13 4 
-0.0664422 -0.0158973 1.81445 31 23 12 
-0.0926612 -0.0111438 1.81058 5 1 0 
-0.24179 -0.0137299 1.89854 7 0 0 
0.202178 0.0152946 1.81546 85 78 72 
-0.273683 -0.00342484 1.92209 11 7 0 
0.0956271 0.0267167 1.79448 94 91 82 
-0.0786984 0.0162142 1.79436 95 91 82 
-0.11354 0.0150785 1.80297 13 9 6 
-0.214418 0.0132847 1.86003 3 0 0 
-0.199492 0.0205912 1.84858 10 7 2 
-0.234724 0.0207226 1.87376 8 4 0 
-0.128232 0.0249608 1.8031 98 94 85 
0.0886463 0.038694 1.78711 105 98 88 
0.102169 0.0397208 1.78785 104 99 93 
-0.183181 0.0305873 1.83033 8 4 0 
-0.278237 0.0314902 1.91383 90 85 81 
-0.22421 0.0337034 1.85701 89 85 76 
-0.147231 0.0380768 1.80862 97 92 88 
0.108075 0.0536159 1.78481 89 86 81 
0.301628 0.0713321 1.86768 13 12 8 
-0.235661 0.0396116 1.86631 79 75 66 
-0.133775 0.0429427 1.79749 19 14 10 
-0.171888 0.0482664 1.81556 4 0 0 
-0.151037 0.0501881 1.80576 88 84 75 
-0.244392 0.052534 1.86543 100 99 95 
0.115375 0.0758305 1.77515 101 97 86 
-0.259213 0.0707371 1.88683 128 120 107 
-0.240589 0.0698879 1.85245 24 20 11 
0.108666 0.0980191 1.76119 3 0 0 
-0.0828084 0.0887869 1.75618 7 3 0 
-0.00790479 0.095572 1.74639 116 111 107 
-0.101438 0.0954739 1.75813 106 102 93 
-0.0650852 0.098589 1.74739 87 83 74 
0.123331 0.111226 1.75869 127 123 114 
-0.0860917 0.101178 1.7511 131 127 115 
-0.236432 0.108773 1.82593 25 16 7 
-0.00887621 0.113535 1.73678 89 86 79 
0.251485 0.142159 1.77996 7 0 0 
0.0464905 0.127382 1.73295 29 26 19 
0.109836 0.132856 1.74017 20 10 1 
0.296434 0.155083 1.81614 30 21 12 
0.0742121 0.141804 1.72791 30 26 17 
0.0638916 0.144725 1.72458 11 6 2 
0.0119451 0.143998 1.71993 8 5 0 
-0.285639 0.150555 1.85839 16 11 5 
-0.0532594 0.147578 1.71887 38 31 25 
0.236707 0.172677 1.75391 94 90 79 
0.183543 0.169941 1.73958 7 0 0 
-0.0341366 0.159217 1.71085 110 107 100 
0.00574014 0.162544 1.70558 12 7 1 
-0.176244 0.162456 1.75792 21 17 8 
-0.154353 0.163367 1.74967 20 11 4 
0.276106 0.1933 1.77072 78 74 65 
-0.0171248 0.174213 1.70325 7 4 0 
-0.135307 0.17866 1.73166 3 0 0 
-0.214588 0.181647 1.77383 109 102 92 
0.117844 0.189437 1.71 108 104 95 
-0.0781331 0.185388 1.70544 85 81 72 
0.112579 0.19591 1.70753 33 22 18 
-0.0765342 0.198326 1.70007 5 0 0 
-0.162029 0.208168 1.73071 121 113 102 
-0.147716 0.210124 1.71876 96 89 79 
0.0580663 0.220698 1.67999 8 0 0 
0.199479 0.229984 1.69961 27 16 12 
0.015146 0.222401 1.6788 12 3 0 
0.145119 0.232926 1.69885 21 13 10 
-0.0552212 0.225477 1.6819 30 25 19 
0.204887 0.241567 1.69246 113 104 95 
0.250361 0.258831 1.72166 148 144 133 
0.219597 0.256704 1.69673 11 3 0 
-0.118178 0.243845 1.68938 11 6 2 
0.0996558 0.249565 1.67569 17 6 0 
0.153355 0.256775 1.69072 15 10 4 
-0.0567133 0.247543 1.67172 23 19 10 
0.0840629 0.256066 1.66774 100 91 86 
0.200217 0.265996 1.68182 14 7 0 
0.181497 0.273576 1.69031 77 72 69 
0.136144 0.270495 1.67678 65 56 47 
0.0439425 0.271853 1.65444 18 9 4 
0.119938 0.279035 1.66767 36 29 21 
0.0568175 0.275851 1.65491 93 84 75 
0.233313 0.299109 1.68086 111 107 96 
0.0675136 0.2895 1.64768 81 75 63 
0.13808 0.294735 1.66567 38 29 20 
-0.179343 0.297016 1.69289 80 75 71 
0.254666 0.315492 1.68938 112 101 95 
0.241857 0.318102 1.67947 58 50 39 
0.062267 0.320055 1.63333 12 4 2 
0.223557 0.331422 1.63942 116 112 101 
-0.120244 0.329192 1.64417 17 12 6 
0.109521 0.33254 1.6335 11 6 0 
0.0341151 0.345188 1.6023 100 96 85 
0.121221 0.350179 1.61605 4 0 0 
0.280204 0.38718 1.67187 52 47 41 
0.2388 0.382035 1.64128 106 96 86 
0.0481724 0.364932 1.5815 4 0 0 
-0.0662894 0.368995 1.58455 102 98 87 
0.23561 0.39243 1.63334 14 9 3 
0.0649975 0.379454 1.57278 7 1 1 
0.196826 0.395738 1.60694 8 4 0 
0.144786 0.392697 1.58436 72 68 67 
0.0870703 0.391603 1.56918 83 80 73 
0.244288 0.420177 1.62442 109 102 94 
0.053423 0.40149 1.55976 4 0 0 
0.1607 0.411153 1.58183 7 3 0 
0.162545 0.425133 1.57474 102 98 89 
0.103687 0.423954 1.55634 78 75 70 
0.258949 0.444917 1.62063 21 11 9 
0.0413922 0.425866 1.54469 10 6 0 
0.0788186 0.428694 1.54917 122 117 111 
0.214492 0.460975 1.58295 85 80 74 
0.0509467 0.457914 1.52978 13 2 0 
0.0203744 0.479417 1.51495 104 100 89 
0.0570594 0.499875 1.50765 28 24 15 
0.280351 0.543162 1.60201 104 100 91 
0.0664484 0.508182 1.49841 19 12 4 
0.266493 0.539733 1.5703 148 138 129 
0.132952 0.516489 1.50578 10 5 0 
0.301087 0.565013 1.58741 41 32 25 
0.0203081 0.56396 1.44099 95 86 79 
-0.0345956 0.5664 1.44337 112 102 100 
-0.0723496 0.585494 1.44747 112 102 92 
-0.00991344 0.579397 1.43344 116 108 97 
0.0132142 0.600104 1.42547 119 110 101 
-0.126744 0.614377 1.44662 98 92 80 
-0.156425 0.626135 1.45257 122 118 109 
-0.0331835 0.617671 1.42147 130 117 101 
-0.173844 0.630876 1.39928 15 8 2 
-0.229907 0.652096 1.41957 31 23 10 
-0.0933759 0.62823 1.37893 8 0 0 
-0.141057 0.64005 1.37762 8 4 0 
-0.152356 0.648822 1.38068 109 101 90 
-0.165147 0.664503 1.38044 75 74 56 
-0.122693 0.663814 1.36424 86 80 64 
0.113536 -1.5204 3.06583 63 59 56 
0.0195589 -0.894827 2.37144 129 119 109 
0.243825 -0.906337 2.53072 116 107 98 
-0.110325 -0.850411 2.33032 43 38 32 
0.110831 -0.784316 2.26525 116 109 99 
0.250664 -0.524635 2.13356 11 7 4 
0.235955 -0.50246 2.10779 90 87 82 
-0.267264 -0.519325 2.1487 40 35 29 
-0.155632 -0.480709 2.05647 77 73 62 
0.236814 -0.444781 2.0891 75 66 61 
0.294596 -0.435457 2.12933 88 83 77 
0.319384 -0.4276 2.16372 78 74 71 
-0.242643 -0.439232 2.10034 8 4 3 
0.310487 -0.362093 2.11578 125 121 112 
0.281755 -0.338153 2.07045 8 3 0 
-0.199909 -0.385637 2.05464 98 95 90 
0.274264 -0.314284 2.05218 101 98 89 
-0.17043 -0.352077 2.02647 24 20 17 
0.0575481 -0.312896 1.9636 100 97 92 
0.305591 -0.271926 2.05123 94 84 75 
0.271983 -0.241412 2.01011 90 83 73 
-0.165539 -0.27079 1.97854 25 20 16 
0.263482 -0.221976 1.99125 96 85 79 
0.239208 -0.186336 1.94786 82 78 67 
-0.0899089 -0.204625 1.91719 79 76 69 
0.318787 -0.1729 2.02615 31 19 21 
0.20228 -0.164922 1.91369 141 128 119 
0.248733 -0.161845 1.9446 7 0 0 
-0.151813 -0.191288 1.93011 100 97 92 
-0.0658137 -0.164995 1.88729 6 1 0 
0.249355 -0.0974677 1.90948 80 76 67 
-0.126554 -0.116152 1.87703 48 44 35 
0.106409 -0.0850768 1.85741 79 74 70 
0.0816731 -0.076957 1.84609 84 79 75 
0.246394 -0.0464553 1.87665 91 82 73 
-0.10287 -0.0451507 1.83273 6 2 0 
-0.158269 -0.0358418 1.84907 49 44 38 
0.318078 0.00290581 1.92853 35 27 25 
0.145475 -0.00212627 1.82588 100 97 92 
-0.20016 -0.0122201 1.86496 83 80 73 
0.331495 0.0505966 1.92043 114 104 94 
0.233158 0.0486176 1.8174 31 20 16 
-0.24861 0.0426966 1.87405 81 76 73 
0.267058 0.0955083 1.81898 88 81 73 
0.153733 0.125918 1.762 116 112 101 
-0.0455599 0.183903 1.69758 100 95 91 
-0.200911 0.192536 1.76132 21 12 5 
0.0633944 0.212417 1.689 22 18 9 
0.251041 0.230742 1.73406 16 12 1 
0.161883 0.228326 1.70973 81 77 68 
-0.0817795 0.233488 1.68517 82 77 73 
0.0847707 0.24592 1.67415 19 12 4 
0.27021 0.274384 1.73389 136 124 112 
-0.0758385 0.2552 1.66993 89 85 74 
0.244271 0.296242 1.69074 41 33 22 
-0.141642 0.313971 1.66109 98 91 83 
0.314271 0.456788 1.6867 110 108 95 
0.255867 0.545858 1.55597 94 88 76 
0.0360685 0.58018 1.43665 110 101 94 
-0.131254 0.626002 1.38154 66 62 53 
-0.215681 0.650861 1.40705 85 81 70 
0.0127623 -2.08569 3.44628 56 57 61 
0.000334252 -2.03123 3.39951 234 235 239 
-0.032138 -2.01591 3.37439 229 230 232 
0.0217512 -1.93896 3.27656 82 83 77 
0.0429916 -1.93082 3.29579 49 48 43 
0.0641817 -1.92575 3.32049 43 42 40 
-0.0798599 -1.77976 3.25169 231 230 235 
0.0225709 -1.40184 2.85198 50 46 37 
0.0804083 -1.13992 2.60621 64 59 53 
0.235347 -1.11698 2.61956 75 71 60 
0.130017 -1.05341 2.53523 43 42 38 
-0.0552845 -1.07313 2.53247 19 10 1 
0.0135888 -1.03665 2.50574 148 140 129 
0.288721 -1.01872 2.63692 217 221 222 
0.260656 -0.937204 2.5693 24 14 13 
0.110997 -0.832351 2.31443 150 134 119 
0.170122 -0.619149 2.11036 126 122 111 
0.246358 -0.547593 2.14092 4 0 0 
-0.0625719 -0.56132 2.07214 96 91 87 
0.0843067 -0.495473 2.04454 5 5 3 
0.115037 -0.492629 2.05143 1 1 1 
0.186664 -0.484859 2.07368 2 2 0 
0.159322 -0.451662 2.06936 29 24 21 
-0.15551 -0.470741 2.0494 93 89 78 
-0.128079 -0.46439 2.06184 76 72 69 
-0.225702 -0.47132 2.08913 5 5 3 
0.0466617 -0.419521 2.02185 16 12 9 
-0.0274467 -0.425086 2.0253 73 69 66 
0.146719 -0.408846 2.04376 33 29 26 
0.248557 -0.393506 2.0578 113 106 96 
0.0954197 -0.382965 2.00772 103 98 92 
-0.258223 -0.415652 2.1229 86 81 75 
0.180179 -0.330936 2.01069 63 63 53 
-0.288012 -0.397259 2.13692 0 0 0 
0.26377 -0.318117 2.04326 103 94 87 
0.280605 -0.315777 2.0486 59 55 46 
0.203911 -0.307678 1.98753 57 52 48 
0.186226 -0.309804 1.9977 5 0 0 
0.210933 -0.292649 1.98221 102 98 87 
0.279913 -0.251992 2.01684 116 112 101 
-0.011088 -0.243539 1.9213 85 80 74 
0.213245 -0.166016 1.91679 105 98 92 
0.0954415 -0.173073 1.9 104 101 96 
-0.255839 -0.205249 1.99839 119 110 93 
0.147988 -0.150632 1.9061 71 68 63 
0.163812 -0.135558 1.90505 58 57 55 
-0.149005 -0.122885 1.88697 119 114 108 
-0.0808599 -0.110329 1.86619 81 76 72 
-0.172633 -0.114085 1.89923 115 110 106 
-0.193393 -0.10452 1.90585 50 47 42 
-0.111655 -0.09108 1.87971 100 95 89 
0.216666 -0.0550069 1.86267 64 55 50 
0.229278 -0.053938 1.87221 126 122 113 
0.299674 -0.0395502 1.9308 87 85 72 
-0.0885376 -0.0564443 1.83368 98 95 90 
-0.158414 -0.0589902 1.86641 83 75 72 
0.0938064 0.0136187 1.79668 86 81 78 
0.314034 0.0394744 1.9041 92 83 76 
0.0757953 0.0397658 1.78301 112 106 94 
0.31196 0.0713715 1.89023 26 21 17 
0.209361 0.0623119 1.79474 17 12 8 
0.24869 0.0690853 1.81718 94 85 80 
0.199368 0.100537 1.76459 7 0 0 
0.200339 0.139791 1.74729 11 0 0 
0.112904 0.149256 1.7322 40 29 23 
0.0942338 0.187192 1.70702 88 77 71 
0.226623 0.202952 1.72775 85 77 66 
0.117571 0.23009 1.69028 12 7 4 
0.291509 0.257866 1.76198 14 6 4 
0.122816 0.245463 1.68264 59 52 44 
0.223763 0.297098 1.6739 96 89 79 
0.26501 0.319909 1.70877 129 118 98 
0.209193 0.317725 1.66019 25 21 12 
0.139241 0.327047 1.6512 20 13 7 
0.194901 0.334051 1.64384 101 94 86 
-0.194449 0.333591 1.65543 37 34 25 
0.0699944 0.335256 1.61666 6 1 0 
0.153339 0.344004 1.6378 6 5 3 
0.0166589 0.337802 1.61063 84 77 71 
0.289848 0.365164 1.69511 40 30 21 
0.181336 0.363129 1.62776 87 78 71 
-0.011925 0.364587 1.58275 29 24 18 
-0.0863147 0.382201 1.57322 21 16 13 
0.0364518 0.411885 1.55251 75 71 62 
0.134428 0.431377 1.56283 8 0 0 
0.126453 0.447032 1.55261 46 42 33 
0.104432 0.500827 1.50926 30 25 21 
0.0783613 0.509216 1.49733 42 39 32 
0.239596 0.543084 1.54242 8 5 0 
0.232438 0.547144 1.54015 66 61 58 
0.00169652 0.52463 1.47769 102 94 81 
0.0937175 0.529517 1.48014 102 95 87 
0.194386 0.543347 1.5116 96 92 81 
0.0138663 0.533747 1.46226 105 96 89 
-0.176612 0.662535 1.38396 102 97 78 
-0.293597 0.653864 1.29081 17 12 0 
-0.0376424 -1.90714 3.28197 139 130 113 
-0.0315545 -1.79959 3.22291 141 129 115 
-0.216236 -0.998088 2.52588 14 9 6 
-0.137847 -0.598814 2.10806 2 2 0 
0.0654531 -0.546505 2.07099 97 92 88 
0.326467 -0.490178 2.1973 105 100 97 
0.21279 -0.435518 2.06768 9 4 0 
0.245425 -0.377261 2.05429 71 68 59 
0.167897 -0.162507 1.92149 50 46 43 
0.230627 -0.0270845 1.85472 21 14 8 
0.268386 0.0297367 1.85669 22 11 7 
0.247354 0.0492292 1.82738 29 20 13 
0.251043 0.0499444 1.85411 25 18 10 
0.268018 0.139123 1.79305 82 72 63 
0.105957 0.352046 1.60658 79 75 66 
0.230626 0.376718 1.64293 95 88 78 
0.0975081 0.372173 1.5818 86 83 78 
-0.247133 0.659929 1.29125 66 54 42 
-0.0377935 -2.11317 3.4561 231 232 236 
0.0391415 -1.86801 3.26494 38 34 31 
0.264408 -0.488866 2.12407 69 66 61 
0.0135633 -0.487207 2.03322 54 50 41 
-0.0735643 -0.476889 2.00043 94 84 82 
-0.152507 -0.432186 2.04859 5 6 1 
0.198092 -0.395947 2.0588 118 106 90 
0.110695 0.0101092 1.80617 72 63 56 
-0.153154 0.0718206 1.7831 13 10 5 
-0.226063 0.638874 1.42312 126 118 97 
-0.267202 0.64921 1.34754 107 97 87 
-0.275564 0.651535 1.29097 117 110 91 
0.0217119 -1.94571 3.29328 60 59 54 
-0.0917997 -1.70589 3.19152 218 222 223 
0.153564 -0.456554 2.05821 102 97 93 
0.21489 -0.395566 2.03553 9 4 1 
0.254533 0.402077 1.64911 97 93 82 
-0.0449201 -2.11862 3.4523 228 229 233 
0.0228366 -1.90646 3.28344 128 117 99 
0.143283 -1.5032 3.04669 221 225 228 
0.0889833 -0.518185 2.05874 58 57 52 
0.178858 -0.506325 2.0865 82 78 69 
0.269302 -0.325259 2.05202 84 84 74 
0.156879 -0.190913 1.93035 84 81 76 
0.148973 -0.119883 1.88817 92 87 83 
0.0502227 0.609599 1.36268 20 10 1 
0.199711 -0.377756 2.04828 129 120 111 
-0.00471953 -0.223886 1.90374 0 2 1 
0.0574252 0.0722742 1.76302 89 85 74 
-0.0232952 -2.10477 3.57254 47 43 40 
0.270266 -0.988029 2.61373 86 81 75 
0.172919 -0.479687 2.07495 1 1 1 
-0.188287 0.346868 1.63215 106 103 88 
0.0116994 -0.226671 1.92684 1 1 1 
0.18993 -0.341992 2.01116 41 37 26 
-0.126762 -0.225024 1.93741 18 11 5 
-0.121333 -0.184687 1.91002 104 99 95 
-0.264448 -0.1567 2.01558 89 84 78 
-0.197254 0.00808636 1.85501 7 2 0 
0.0465247 0.588803 1.43253 27 18 9 
-0.155971 0.619167 1.45348 160 152 141 
-0.199683 0.629829 1.41 158 147 129 
-0.441786 0.711491 1.41837 89 86 71 
0.0841588 -0.10187 1.85508 16 6 4 
0.169304 0.537869 1.50023 133 130 121 
-0.0209498 -0.472739 2.04622 81 72 67 
0.233109 0.279199 1.69272 113 103 94 
-0.195302 0.334536 1.65714 38 35 26 
-0.0514792 -1.87499 3.28678 24 17 25 
-0.138071 -0.797082 2.27926 44 40 37 
0.203623 -0.319916 2.00261 72 69 60 
0.227937 0.114152 1.77984 87 78 69 
0.0086956 0.52828 1.46522 44 40 31 
0.00890731 -2.07062 3.38586 228 229 233 
0.00647665 -0.618664 2.05041 156 149 141 
0.025126 -1.85229 3.29424 30 26 23 
0.218276 -0.980875 2.50156 133 121 107 
0.208105 -0.978369 2.48824 113 103 94 
0.098184 -0.851882 2.31921 112 106 94 
0.137808 -0.805322 2.27545 134 125 116 
0.0387782 -0.554283 2.06338 11 8 3 
0.276661 -0.493756 2.13093 14 6 3 
0.0549269 -0.510753 2.04292 8 0 0 
-0.0916966 -0.53471 2.06308 122 115 107 
-0.158516 -0.540569 2.08621 20 15 9 
0.264619 -0.397886 2.07557 114 111 106 
0.314572 -0.378049 2.11394 109 104 98 
0.184551 -0.385188 2.02611 34 31 22 
0.281025 -0.361771 2.07089 17 12 9 
0.0843042 -0.400563 2.01963 4 0 0 
0.337301 -0.345737 2.12701 4 0 0 
0.319779 -0.324927 2.09606 17 14 9 
-0.0827575 -0.411126 2.02525 27 22 18 
0.124958 -0.279875 1.97138 98 94 91 
0.332585 -0.238902 2.0581 98 94 85 
0.0849687 -0.280514 1.95953 12 7 3 
0.0802369 -0.244141 1.93732 127 124 119 
0.0649701 -0.236249 1.93205 103 100 95 
0.257819 -0.16859 1.95236 4 0 0 
0.327318 -0.149664 2.00879 135 132 123 
0.309007 -0.147758 1.98888 7 0 0 
0.152446 -0.170021 1.9242 111 107 106 
0.162913 -0.165829 1.92291 93 88 85 
0.278352 -0.126148 1.94571 7 3 0 
0.127559 -0.142743 1.89552 75 73 74 
0.267324 -0.112448 1.92489 123 119 108 
0.284653 -0.0895129 1.93331 4 0 0 
0.271619 -0.0916587 1.92562 136 130 118 
-0.0580206 -0.155987 1.88823 110 103 95 
0.290867 -0.0765798 1.93263 10 7 2 
0.216939 -0.0820845 1.8772 23 14 7 
0.17682 -0.0822366 1.88367 4 0 0 
-0.06836 -0.117105 1.87011 20 11 4 
0.221125 -0.0477133 1.8638 5 1 0 
0.31345 -0.0128349 1.92303 9 1 0 
0.254879 0.0012097 1.85587 106 102 93 
0.330405 0.0329216 1.91844 102 92 83 
0.34108 0.0363051 1.92569 140 136 127 
0.247529 0.0236408 1.83967 11 4 0 
0.146068 0.00737429 1.83003 107 100 94 
0.36552 0.0640341 1.95175 9 0 0 
0.124998 0.0201303 1.80917 101 97 94 
0.331494 0.0832891 1.89373 8 0 0 
0.25297 0.0677062 1.82094 123 116 106 
0.373349 0.100369 1.94477 8 0 0 
0.236773 0.0838832 1.79996 125 121 110 
0.185895 0.0777609 1.78945 141 133 120 
0.369688 0.124999 1.92194 97 84 75 
-0.0734359 0.0363952 1.79164 92 87 81 
0.355442 0.124505 1.90538 9 0 0 
0.317717 0.129529 1.85304 12 5 0 
0.20695 0.143023 1.7519 111 101 92 
0.330617 0.182832 1.83805 111 102 93 
0.351042 0.189915 1.85935 10 5 0 
0.354927 0.197949 1.86398 11 0 0 
0.322599 0.193724 1.82111 151 141 131 
-0.0835394 0.13365 1.74101 11 4 0 
0.103964 0.169447 1.72175 9 4 0 
0.342321 0.229688 1.82619 137 126 108 
0.340555 0.244563 1.81696 141 130 112 
0.322213 0.244833 1.79294 7 0 0 
0.286509 0.237579 1.75732 189 180 165 
0.338619 0.266874 1.79931 60 51 34 
0.336224 0.274519 1.79361 150 142 123 
0.382265 0.299136 1.85456 18 10 0 
0.200042 0.251931 1.69007 19 11 0 
0.353977 0.302083 1.80178 10 3 0 
0.347801 0.309688 1.79132 164 151 132 
0.270365 0.288664 1.71834 121 110 92 
0.337582 0.313362 1.77487 46 34 18 
0.349768 0.319203 1.78683 46 37 22 
0.380003 0.386231 1.79879 21 11 1 
0.24752 0.336414 1.67035 4 0 0 
0.297699 0.356876 1.70582 131 123 110 
0.311158 0.361754 1.70942 177 169 156 
0.324674 0.369547 1.72812 135 127 114 
0.357326 0.387267 1.76341 16 6 0 
0.129152 0.333199 1.64037 8 0 0 
0.271509 0.365409 1.67036 33 29 20 
0.355951 0.40505 1.75185 7 0 0 
0.275229 0.375606 1.66872 25 20 16 
0.33378 0.424262 1.71156 137 127 115 
0.286476 0.477677 1.62575 122 113 106 
0.119477 0.455064 1.54804 128 124 115 
-0.0324201 0.462956 1.52078 148 144 135 
-0.046292 0.465044 1.52367 101 97 88 
0.190961 0.497717 1.55243 157 150 142 
-0.116641 0.489341 1.52489 118 114 102 
0.135715 -0.884354 2.34577 113 104 95 
0.244292 -0.893234 2.49146 94 89 83 
0.0395377 -0.829669 2.30061 101 101 91 
0.00808567 -0.828397 2.3013 93 90 85 
0.13763 -0.756779 2.2295 117 112 109 
0.0621298 -0.755035 2.23587 98 97 92 
-0.0299005 -0.700972 2.16981 127 114 105 
0.0282999 -0.651505 2.1139 45 36 27 
-0.0393556 -0.666898 2.11661 144 136 125 
0.070824 -0.577163 2.07894 92 89 84 
-0.0219789 -0.577632 2.07183 11 6 3 
0.212507 -0.483473 2.07964 44 40 37 
-0.0634029 -0.53781 2.06164 95 91 88 
-0.109877 -0.547124 2.07347 6 2 0 
0.253079 -0.454171 2.08924 11 6 2 
0.0923659 -0.481554 2.03875 89 86 81 
-0.20123 -0.569166 2.12253 9 8 3 
0.290977 -0.442198 2.12385 46 43 38 
0.320973 -0.435682 2.15324 83 80 75 
0.222049 -0.416627 2.05404 16 9 1 
0.338044 -0.404356 2.16474 106 101 97 
0.293291 -0.389133 2.09777 98 94 85 
0.3836 -0.383016 2.22484 31 26 22 
0.26494 -0.386661 2.06873 104 104 96 
0.273895 -0.384954 2.07778 140 135 131 
0.281147 -0.376583 2.08477 11 8 3 
-0.10796 -0.466623 2.05718 88 83 80 
0.258317 -0.373756 2.05879 114 110 101 
0.268714 -0.369842 2.06156 108 103 97 
0.0978501 -0.406385 2.02506 76 75 71 
0.227767 -0.371167 2.0346 11 8 3 
0.149731 -0.384932 2.02651 17 13 10 
-0.117442 -0.45171 2.05744 112 107 103 
0.286868 -0.3541 2.07403 7 4 0 
-0.101599 -0.435127 2.04566 83 78 74 
-0.137226 -0.443143 2.0663 87 84 77 
0.27404 -0.341882 2.05306 97 89 86 
0.210606 -0.34462 2.00897 22 13 6 
0.0446757 -0.378337 2.00093 41 37 34 
0.325837 -0.322592 2.10627 101 98 89 
0.300362 -0.318838 2.06621 116 113 108 
-0.114221 -0.400887 2.0278 42 41 36 
0.30877 -0.303184 2.06999 95 92 87 
-0.115043 -0.390272 2.02615 21 16 12 
0.286652 -0.28139 2.02973 14 11 6 
0.344885 -0.274295 2.0992 8 3 0 
0.300494 -0.275124 2.04322 87 83 74 
-0.0502677 -0.350102 1.99193 94 93 89 
0.339059 -0.263418 2.08634 25 21 12 
-0.162171 -0.368982 2.03067 14 11 6 
0.350635 -0.258148 2.10117 38 33 27 
-0.0704473 -0.32239 1.97528 11 4 0 
0.325143 -0.234158 2.05093 102 98 87 
0.0722368 -0.273305 1.95254 97 94 89 
0.168742 -0.248169 1.96976 20 15 12 
0.0614771 -0.269607 1.94726 18 13 9 
-0.0539029 -0.295486 1.96086 10 6 0 
0.0750734 -0.256451 1.94421 97 92 88 
-0.199403 -0.312688 2.0266 18 15 10 
0.235584 -0.209262 1.95661 110 103 97 
0.271849 -0.200741 1.98217 26 19 11 
0.34104 -0.178214 2.04292 99 92 84 
0.283996 -0.185459 1.98436 28 21 13 
0.153606 -0.201264 1.93698 93 90 85 
0.292878 -0.163494 1.98206 77 69 58 
-0.0282582 -0.223394 1.92275 6 2 1 
0.0860085 -0.191448 1.90608 105 101 92 
0.145577 -0.177059 1.91626 67 66 62 
0.334383 -0.135692 2.01222 37 33 24 
0.280393 -0.142369 1.95734 6 3 0 
-0.127782 -0.225835 1.94203 25 17 14 
0.353184 -0.124176 2.03146 92 88 77 
0.343846 -0.122963 2.01683 11 6 0 
0.286483 -0.130879 1.9566 10 6 0 
-0.154505 -0.22163 1.95232 10 5 1 
-0.120084 -0.211035 1.93202 87 82 78 
0.238385 -0.134157 1.91735 80 75 71 
0.11194 -0.159392 1.89811 94 90 87 
0.306852 -0.110775 1.96789 100 91 84 
0.326607 -0.106894 1.98647 37 33 24 
0.223241 -0.125253 1.90413 89 82 74 
0.318617 -0.104149 1.97168 97 90 80 
0.252136 -0.115289 1.91803 86 83 76 
0.0789244 -0.148804 1.88102 88 84 75 
0.229389 -0.116061 1.90128 6 1 0 
0.0774495 -0.124332 1.8736 80 77 72 
0.297949 -0.0792412 1.93962 102 95 79 
0.150838 -0.108934 1.88741 25 22 17 
0.225924 -0.0913887 1.88807 16 11 5 
0.0933706 -0.108995 1.86888 7 2 0 
0.280495 -0.0571887 1.91006 101 91 82 
0.335972 -0.0414173 1.96552 77 67 57 
0.0884017 -0.0892305 1.85422 114 111 106 
0.197706 -0.0652507 1.86053 24 13 7 
0.320516 -0.0353127 1.94788 9 0 0 
-0.119398 -0.116482 1.88368 36 28 25 
0.203484 -0.0526736 1.85671 17 13 2 
0.332535 -0.0238877 1.95264 92 85 75 
0.231933 -0.037838 1.8614 27 23 14 
0.281813 -0.020888 1.89301 22 13 4 
0.280609 -0.00528617 1.88224 32 28 17 
-0.0511742 -0.0657674 1.83982 20 11 6 
0.318188 0.0138431 1.91742 42 35 29 
0.121702 -0.0254451 1.83141 89 86 81 
0.320449 0.0240516 1.90957 9 0 0 
0.149497 -0.00730728 1.83384 2 1 0 
0.346144 0.0386999 1.93368 110 106 95 
0.116921 -0.0103862 1.82046 60 53 47 
0.346166 0.0447227 1.92521 4 0 0 
0.352476 0.0486808 1.93371 95 85 73 
0.201735 0.0149723 1.81934 92 85 79 
-0.174964 -0.0434945 1.86917 30 22 20 
0.357333 0.0586064 1.94159 28 18 8 
0.374273 0.0638704 1.96697 105 96 89 
0.198582 0.0233489 1.81419 10 1 0 
0.227888 0.0310279 1.8221 8 0 0 
0.257905 0.0405852 1.83953 16 12 9 
0.192077 0.0349369 1.80871 109 95 82 
0.229244 0.0435575 1.81629 86 79 69 
0.137504 0.0326214 1.8086 95 90 84 
0.0912116 0.0362227 1.79418 25 18 8 
0.279915 0.0735478 1.84107 49 41 30 
0.282981 0.0914451 1.83263 128 124 115 
0.303113 0.100421 1.8529 126 122 111 
0.34674 0.116974 1.89814 7 0 0 
-0.107457 0.0301836 1.80166 93 90 85 
0.284139 0.101083 1.83001 97 94 87 
0.211983 0.0884254 1.78385 107 100 92 
0.273391 0.10269 1.81927 8 0 0 
0.0988015 0.0697215 1.775 11 6 0 
0.350718 0.132882 1.89367 106 98 87 
-0.126702 0.0539036 1.79924 4 0 0 
0.30692 0.140083 1.83028 80 76 65 
0.324942 0.158666 1.84319 43 34 25 
0.0464088 0.104517 1.74678 124 120 109 
-0.132183 0.0826457 1.78548 11 7 0 
0.268312 0.150266 1.78896 80 76 65 
0.302399 0.159936 1.81689 6 0 0 
0.328948 0.167724 1.83717 114 106 93 
0.344091 0.176485 1.8611 117 115 103 
0.0610474 0.115075 1.74356 99 96 91 
0.22708 0.155845 1.75436 14 5 0 
0.0140274 0.119678 1.7335 9 4 0 
0.057757 0.134812 1.7321 127 123 114 
0.305422 0.191264 1.7992 120 116 105 
0.334826 0.212415 1.82451 112 108 97 
0.350395 0.218986 1.83947 94 85 76 
0.30672 0.205609 1.79531 104 94 84 
0.344574 0.220327 1.83463 65 56 49 
0.0652253 0.160027 1.71886 89 84 80 
0.287167 0.211007 1.77164 37 29 26 
0.0264852 0.163957 1.71158 15 11 2 
-0.165918 0.147943 1.76506 10 6 0 
0.297379 0.222658 1.77775 62 52 43 
0.350469 0.247704 1.82875 19 13 0 
0.253714 0.220231 1.73751 134 127 117 
0.351567 0.257287 1.82537 17 8 1 
0.0883625 0.195985 1.70524 51 42 33 
0.063604 0.193705 1.69946 6 2 0 
0.232431 0.226701 1.71941 29 25 16 
0.26304 0.236811 1.73827 21 14 4 
0.104327 0.206877 1.69869 121 112 103 
0.287342 0.249027 1.75305 188 179 164 
0.273115 0.252971 1.73622 139 127 111 
0.0330254 0.210801 1.6876 113 104 95 
0.356746 0.283896 1.81855 33 24 15 
-0.0397344 0.211391 1.68593 12 8 0 
0.271208 0.264513 1.72936 111 101 89 
0.0345708 0.225929 1.67974 72 63 56 
0.237539 0.259653 1.70351 34 26 15 
0.131823 0.245354 1.68898 99 90 83 
-0.106486 0.219869 1.69724 12 3 0 
-0.0461293 0.227463 1.68195 119 112 104 
0.263658 0.292844 1.70739 137 128 113 
0.35312 0.334416 1.78285 49 43 31 
0.141857 0.28194 1.67464 18 9 0 
0.27941 0.309317 1.71061 126 118 97 
-0.0365638 0.289338 1.64637 8 1 0 
0.0391623 0.304101 1.63919 95 89 77 
-0.111348 0.293439 1.66545 88 84 75 
-0.0314789 0.297984 1.64217 34 27 19 
0.277163 0.348603 1.68818 11 1 0 
0.227205 0.33521 1.65987 58 54 45 
0.347939 0.377696 1.75259 45 37 26 
0.175678 0.339987 1.65443 21 16 13 
0.0832674 0.324074 1.63358 89 85 76 
0.036575 0.319564 1.62784 142 139 130 
0.245852 0.358528 1.65543 37 28 21 
-0.121807 0.316496 1.65506 4 0 0 
0.196784 0.358699 1.62999 86 79 73 
0.157942 0.356785 1.6211 89 84 78 
0.370665 0.428414 1.76233 112 104 93 
-0.117725 0.33827 1.6328 5 1 0 
0.116206 0.360399 1.59898 85 80 76 
0.100173 0.360305 1.59711 85 80 76 
0.0784116 0.358638 1.59559 92 88 79 
0.218131 0.383847 1.62189 31 24 16 
0.303996 0.417952 1.67703 108 105 96 
-0.164517 0.357428 1.64256 75 71 68 
0.283573 0.411801 1.66009 36 27 18 
0.319912 0.429769 1.69137 9 0 0 
0.21566 0.395817 1.6132 14 12 0 
0.238661 0.404779 1.62399 13 4 0 
0.328378 0.439154 1.69663 124 114 102 
0.375866 0.474053 1.74744 127 119 108 
0.198444 0.418544 1.59276 111 107 98 
0.298067 0.450726 1.65012 104 95 86 
0.241461 0.478656 1.58953 96 87 80 
0.109238 0.453546 1.54314 131 122 115 
0.118848 0.467498 1.53594 18 11 5 
0.0709327 0.46298 1.52952 38 34 25 
0.00845441 0.463995 1.52234 128 123 117 
0.138906 0.488143 1.53396 89 84 80 
0.0878155 0.481046 1.52155 114 110 101 
0.117443 0.511219 1.50025 27 22 18 
0.0854467 0.513113 1.49508 86 83 76 
0.0184304 0.506696 1.48553 21 17 8 
0.0586538 0.516797 1.48518 128 118 116 
-0.152701 0.615788 1.44595 100 93 85 
-0.149521 0.628785 1.44385 35 31 22 
-0.172722 0.65663 1.37293 99 96 81 
0.0828599 -0.825693 2.29372 131 124 108 
0.382902 -0.51178 2.27789 90 87 80 
0.236043 -0.502168 2.10644 93 89 86 
0.406122 -0.457901 2.31064 96 91 87 
0.135825 -0.439718 2.04993 3 0 0 
-0.131501 -0.452122 2.05906 100 96 87 
0.0813491 -0.378219 2.00611 5 4 0 
0.0614905 -0.362633 1.99525 29 25 22 
0.359725 -0.307552 2.14044 51 44 36 
-0.105031 -0.397118 2.02385 129 128 123 
0.238825 -0.305053 2.00632 108 105 100 
-0.127615 -0.387169 2.02682 7 4 0 
0.264523 -0.293991 2.02187 86 86 74 
0.25217 -0.285165 2.00669 88 85 76 
-0.124139 -0.365976 2.0129 101 96 92 
0.360396 -0.262382 2.11696 61 52 45 
-0.174316 -0.37626 2.04317 94 93 89 
0.192319 -0.286903 1.97702 30 21 14 
0.360384 -0.230007 2.10237 12 8 0 
0.140428 -0.248918 1.95615 84 81 76 
-0.158658 -0.306636 2.00837 97 93 84 
-0.167772 -0.272589 1.98717 23 20 15 
0.373319 -0.157091 2.08361 101 98 89 
0.180996 -0.18746 1.939 24 19 13 
0.227516 -0.174803 1.93075 71 67 66 
-0.143546 -0.246074 1.9645 42 33 24 
0.137952 -0.137074 1.89692 3 0 0 
0.0799495 -0.134298 1.87756 87 84 79 
0.235498 -0.0716072 1.8813 76 65 59 
-0.0810954 -0.122877 1.87688 32 24 21 
-0.104813 -0.105314 1.8736 27 22 19 
0.0765618 -0.0655367 1.84089 90 83 77 
0.16146 -0.0432805 1.85871 81 77 74 
-0.209939 -0.0631979 1.90258 7 3 0 
0.270529 0.0428485 1.8499 19 10 3 
0.212869 0.0365371 1.80727 83 73 64 
0.304175 0.0647632 1.87261 84 74 64 
0.335478 0.0967897 1.89057 37 29 18 
0.19208 0.0678044 1.7931 85 82 77 
-0.135338 0.0430493 1.80977 11 8 3 
-0.0591323 0.130705 1.73595 32 27 21 
0.376251 0.228593 1.88418 107 98 89 
0.261525 0.252722 1.7255 99 95 86 
-0.0121902 0.256714 1.66169 16 11 5 
-0.0231584 0.286824 1.64834 36 27 22 
0.194828 0.322187 1.65262 85 76 67 
0.168731 0.345531 1.64458 28 22 22 
0.0815802 0.33279 1.62438 102 98 89 
0.263653 0.367467 1.66485 94 90 79 
0.0458941 0.334433 1.61569 5 0 0 
0.139568 0.350708 1.62024 3 0 0 
-0.000751872 0.33671 1.60732 83 80 75 
-0.0103547 0.340575 1.60226 31 26 20 
-0.0229291 0.347819 1.59992 83 76 68 
0.100424 0.404331 1.56586 74 71 66 
0.0760164 0.494633 1.51055 118 110 99 
-0.158942 0.540609 1.49858 134 127 119 
-0.130299 0.625015 1.37924 66 62 53 
-0.0399735 -0.828575 2.30238 85 80 76 
-0.0363225 -0.628208 2.07583 111 110 106 
0.276072 -0.456839 2.1151 82 77 74 
-0.0886147 -0.492928 2.03712 2 1 0 
-0.0273156 -0.424596 2.02285 78 75 68 
-0.0238231 -0.408383 2.01383 85 80 77 
-0.159837 -0.435535 2.06574 6 5 3 
0.142631 -0.354137 2.01268 19 15 14 
0.0092565 -0.380014 2.00348 8 9 4 
-0.0288443 -0.382421 2.00544 25 21 18 
0.326994 -0.157242 2.01316 43 40 35 
0.0393865 -0.204976 1.91559 67 67 59 
0.337262 -0.144002 2.0285 100 92 89 
0.124584 -0.153871 1.89794 59 60 55 
0.179728 -0.127519 1.91391 55 48 42 
0.170431 -0.127403 1.90711 13 13 11 
0.141405 -0.127826 1.89621 83 78 75 
0.0684702 -0.139509 1.87823 5 0 0 
0.269142 -0.0357348 1.88843 58 49 40 
0.345577 0.00877194 1.94954 85 77 66 
0.187352 0.0102895 1.82297 54 45 36 
0.296294 0.0464566 1.86576 89 85 74 
0.148267 0.0362842 1.80692 75 71 68 
0.126515 0.0447238 1.79325 88 84 75 
0.0849878 0.0513511 1.77952 77 67 57 
0.204429 0.0965075 1.77825 77 69 58 
0.309802 0.155559 1.82861 102 95 89 
0.318091 0.194635 1.8116 92 84 73 
0.0353428 0.157397 1.71332 92 85 77 
-0.0786257 0.173164 1.71748 112 107 101 
0.262593 0.241976 1.73298 110 103 93 
0.337478 0.330438 1.76825 86 73 57 
0.195529 0.291098 1.66302 76 72 63 
0.357717 0.361179 1.77701 126 118 107 
0.127444 0.315825 1.64887 113 105 94 
0.207406 0.367912 1.62544 85 81 72 
0.0573951 0.372757 1.57454 94 85 76 
0.33935 0.462887 1.69115 102 93 84 
0.349527 0.475583 1.706 38 31 21 
0.0246535 0.404842 1.54335 7 2 0 
0.141045 0.455408 1.55427 124 115 106 
-0.0705144 0.435937 1.54357 118 111 101 
0.061649 0.447292 1.53749 12 3 0 
-0.0956551 0.485148 1.51859 159 155 146 
0.0143746 0.494677 1.49779 52 48 39 
0.0540782 0.504152 1.49085 50 40 38 
-0.130278 0.551858 1.47552 37 34 29 
-0.153359 0.6471 1.37669 118 114 103 
0.355313 -0.222349 2.08901 102 93 84 
-0.0949814 -0.159738 1.89934 115 114 109 
-0.165826 0.630997 1.38675 6 1 0 
0.229968 -0.510351 2.10876 18 14 13 
-0.0342574 -0.458715 2.03834 77 69 66 
-0.0799825 -0.449408 2.04496 10 6 7 
0.230206 -0.358928 2.03021 91 88 79 
0.0782317 -0.193429 1.91953 110 104 92 
0.240271 -0.155521 1.93283 100 94 94 
0.177356 0.255272 1.70046 1 0 0 
0.322347 0.445792 1.68609 121 114 104 
0.0848284 -0.644575 2.10516 118 112 98 
-0.0637475 -2.29174 3.78171 81 86 90 
-0.323195 0.535235 1.69086 152 114 33 
0.102498 0.587684 1.44327 174 167 159 
0.153064 0.606639 1.45139 20 11 2 
0.0753296 0.609089 1.36705 147 138 129 
0.133088 0.618938 1.37776 115 109 97 
0.0736054 0.663346 1.33311 28 16 4 
-0.189732 0.407046 1.60398 21 14 8 
-0.104741 0.408351 1.56598 95 90 86 
-0.0377569 0.450871 1.53335 9 6 1 
0.00996126 0.476834 1.51748 42 38 27 
0.103102 0.50188 1.51022 23 18 14 
-0.0153318 0.565191 1.44278 121 111 110 
0.158202 0.623559 1.38293 6 0 0 
0.100534 0.619421 1.36758 99 90 81 
0.122721 0.633028 1.36059 82 73 66 
0.0577302 0.636807 1.34969 112 104 93 
-0.0213867 0.644168 1.3426 94 82 70 
0.11425 0.655407 1.34949 42 32 20 
0.124607 0.657429 1.35313 28 18 8 
0.0195828 0.647747 1.33878 28 19 10 
0.126504 0.668673 1.34279 10 3 0 
0.266626 -0.1061 1.92604 14 10 0 
0.195359 0.532349 1.52075 17 16 11 
0.27566 0.563097 1.55503 29 19 17 
0.0860159 0.534698 1.47438 31 26 22 
0.0584655 0.596541 1.43038 39 29 19 
0.14831 0.630448 1.37376 17 12 8 
0.0828063 0.633113 1.35502 29 21 19 
0.0711708 0.370459 1.57817 109 97 83 
0.0185778 0.61934 1.35252 80 78 65 
0.0339008 0.608215 1.38085 139 127 113 
0.111837 0.59536 1.44197 126 124 112 
