ply                 
format ascii 1.0    
element vertex 1301
property float x    
property float y    
property float z    
property uchar red  
property uchar green
property uchar blue 
end_header          
0.401569 -0.0043236 2.12444 128 122 110 
0.0832307 -0.114964 1.86035 95 90 86 
0.385616 0.00399577 2.08119 86 76 66 
0.370497 -0.00851618 1.98416 25 16 9 
0.395366 0.0133849 2.10601 80 68 54 
0.281016 -0.0410323 1.90156 8 0 0 
0.125916 -0.0826142 1.84497 71 68 63 
0.390987 0.022604 2.08924 120 110 98 
0.10633 -0.085107 1.85199 79 76 71 
0.189814 -0.0579703 1.85418 93 88 84 
0.402079 0.0320319 2.09932 129 119 107 
0.0830104 -0.0770903 1.83974 84 79 75 
0.0655309 -0.0771479 1.83819 89 80 71 
0.316543 0.00345942 1.91782 16 11 7 
0.0409932 -0.0804582 1.84997 100 86 77 
-0.0750406 -0.105746 1.86295 104 99 95 
0.128515 -0.049251 1.83405 71 70 68 
-0.108614 -0.10654 1.87564 20 15 11 
0.400288 0.0610121 2.08739 17 5 0 
0.363014 0.0362773 1.96066 12 2 0 
0.411146 0.0711889 2.11365 109 95 82 
0.150835 -0.0313636 1.8302 27 24 19 
0.405935 0.0748117 2.09888 124 112 98 
0.401561 0.0769008 2.08974 48 36 24 
0.407977 0.089483 2.09416 125 112 96 
0.2798 0.0273322 1.86344 87 78 73 
-0.0608268 -0.0622847 1.84154 80 77 70 
0.331116 0.0511522 1.90703 95 88 78 
0.388375 0.0768958 1.97043 8 0 0 
0.141562 -0.0031587 1.82713 92 87 84 
0.394353 0.0986967 2.04671 20 11 4 
0.339563 0.0647774 1.91152 118 111 101 
0.363187 0.0752398 1.94104 22 14 1 
0.192716 0.0119564 1.80696 37 33 24 
0.349594 0.0703642 1.92271 116 106 96 
0.388031 0.0900262 1.97129 57 44 36 
0.387785 0.104286 2.03018 42 32 22 
0.41097 0.123776 2.10081 49 37 13 
0.407336 0.127658 2.07424 57 47 35 
0.237913 0.046029 1.81839 12 5 0 
0.259225 0.0563147 1.83134 4 0 0 
0.409932 0.138287 2.08375 132 122 113 
0.107482 0.0155433 1.79168 88 84 81 
0.364371 0.108652 1.92628 100 92 81 
0.0993999 0.0269401 1.78453 94 91 82 
0.406745 0.151368 2.06065 48 36 24 
0.0754918 0.0255383 1.79282 115 111 102 
0.362871 0.119542 1.91667 108 95 86 
0.252577 0.0752214 1.81498 26 23 14 
-0.137102 -0.00683454 1.83384 37 32 28 
0.0791403 0.0389878 1.77508 125 116 109 
0.235452 0.0845745 1.80051 92 85 75 
0.399231 0.177648 2.02725 23 14 0 
0.332734 0.133355 1.85303 8 0 0 
0.408439 0.189508 2.04721 13 1 0 
0.384649 0.175595 1.9866 62 48 37 
0.402235 0.18805 2.02235 32 22 10 
0.102034 0.0695812 1.76533 11 6 0 
-0.13739 0.0245422 1.81763 93 90 85 
0.10319 0.0744204 1.77544 71 63 60 
0.390019 0.188031 1.99571 120 108 94 
0.383659 0.172087 1.91584 95 89 77 
0.338838 0.155683 1.86043 92 84 71 
0.388139 0.180685 1.92182 19 10 1 
-0.141899 0.0425787 1.81531 11 8 3 
-0.102613 0.0480647 1.80026 36 33 28 
0.403265 0.210078 2.01122 110 100 90 
0.204563 0.114312 1.74802 14 6 0 
0.0902508 0.0913237 1.74986 76 72 69 
0.378321 0.189288 1.90331 34 26 24 
0.308235 0.16918 1.80312 92 83 74 
0.369749 0.201096 1.88316 139 130 123 
0.39202 0.226692 1.97513 142 134 123 
-0.158642 0.0711492 1.80658 16 15 10 
0.205692 0.143516 1.74862 93 89 78 
0.084576 0.116642 1.73487 111 107 98 
0.419533 0.270677 2.10743 138 131 115 
0.0618745 0.115148 1.73796 98 94 83 
0.207811 0.152092 1.73166 80 71 62 
0.416001 0.26942 2.0621 113 103 91 
0.112956 0.132607 1.73118 20 10 1 
0.379043 0.226061 1.89108 28 20 9 
0.242355 0.172052 1.74072 94 90 79 
0.392987 0.254871 1.96182 70 61 46 
0.374696 0.235425 1.86447 131 122 115 
0.382842 0.255336 1.93861 45 37 26 
0.0773176 0.141725 1.71903 18 14 5 
0.0657081 0.144636 1.71824 11 6 2 
0.394517 0.258859 1.89948 47 37 27 
-0.0602577 0.130492 1.7348 32 28 19 
0.00888085 0.144423 1.72179 14 9 6 
0.398031 0.264888 1.88699 119 116 101 
0.320218 0.233764 1.79745 53 47 35 
0.215864 0.1957 1.723 34 24 15 
0.388462 0.280297 1.93127 50 40 31 
0.415986 0.305709 2.00946 17 8 0 
0.383901 0.294048 1.909 95 91 79 
0.419197 0.336512 2.03579 135 125 113 
0.271148 0.234756 1.71887 21 14 4 
0.134541 0.204341 1.70408 82 78 69 
0.418486 0.341947 2.01823 53 41 25 
0.361261 0.283023 1.82747 107 103 92 
-0.0952069 0.172402 1.72577 7 3 0 
0.0705756 0.198708 1.69665 77 70 64 
0.381857 0.299227 1.85355 23 14 5 
0.105866 0.207157 1.69281 121 112 103 
-0.0311414 0.19403 1.69958 10 5 0 
0.379058 0.30939 1.84352 47 39 28 
0.386873 0.312577 1.85039 37 33 22 
0.0743018 0.211889 1.68534 25 22 15 
0.146973 0.232876 1.69217 21 13 10 
0.226391 0.250571 1.70012 92 84 73 
0.0884057 0.225025 1.688 14 7 1 
0.113714 0.232665 1.68142 98 93 89 
0.414478 0.364833 1.96242 124 112 100 
0.386268 0.342812 1.88965 103 93 84 
0.356568 0.314487 1.80187 40 35 29 
-0.0450036 0.212943 1.69204 11 7 0 
0.370133 0.323105 1.81886 23 16 6 
0.395238 0.35923 1.93116 142 134 121 
-0.256195 0.209141 1.8104 82 79 70 
0.0130557 0.223256 1.6785 12 3 0 
0.0317394 0.227319 1.68058 72 63 56 
0.325297 0.305989 1.76537 108 99 82 
0.403299 0.367482 1.92653 43 33 21 
0.155288 0.25639 1.68365 15 10 4 
0.209529 0.266798 1.68001 35 26 19 
0.386042 0.358831 1.88831 133 127 113 
0.416257 0.392108 1.97438 63 53 44 
0.385805 0.349324 1.84086 14 5 0 
0.351838 0.334945 1.78431 53 43 34 
0.19055 0.279832 1.67374 112 105 97 
0.392531 0.382342 1.88998 71 59 43 
0.416879 0.411162 1.97602 127 117 105 
0.398927 0.398726 1.9162 131 122 107 
0.121745 0.278983 1.6614 36 29 21 
0.416547 0.428749 1.98954 116 107 92 
0.35749 0.361828 1.77959 126 118 107 
0.33825 0.352413 1.75508 67 59 40 
0.38623 0.398143 1.83771 50 40 31 
0.34561 0.368644 1.75547 93 83 71 
0.397152 0.42208 1.88646 48 36 20 
0.393047 0.418011 1.86781 103 89 76 
0.416691 0.448103 1.92741 62 50 36 
0.350692 0.389127 1.75402 113 104 95 
0.414072 0.462801 1.91541 140 131 116 
0.390888 0.438528 1.84832 147 133 120 
0.0837333 0.324571 1.6294 85 78 72 
0.0325883 0.322159 1.63186 78 71 63 
0.167921 0.346234 1.64311 19 15 16 
0.0795966 0.333696 1.6239 101 97 88 
0.101112 0.337134 1.62331 37 34 29 
0.388128 0.43966 1.79317 108 99 90 
0.41947 0.486141 1.90857 53 45 34 
0.0504923 0.33858 1.61365 72 65 57 
0.384653 0.440279 1.77773 61 51 39 
0.395744 0.458363 1.82043 150 140 128 
0.394634 0.460338 1.80956 47 39 28 
0.39289 0.459776 1.79547 107 101 89 
0.00478925 0.347823 1.61051 94 89 83 
0.127954 0.363292 1.60324 84 76 74 
0.13933 0.365642 1.60474 90 85 79 
0.299001 0.412151 1.67766 112 112 102 
0.383085 0.454458 1.76802 56 50 36 
0.0971058 0.362498 1.59921 84 81 74 
0.408175 0.495404 1.85401 26 18 7 
0.337845 0.437198 1.71182 40 33 27 
0.324107 0.435272 1.698 52 45 35 
0.399626 0.479379 1.7942 49 40 31 
0.424014 0.511671 1.86722 111 104 94 
0.431936 0.51732 1.87783 109 100 93 
0.083983 0.37135 1.58111 92 89 80 
-0.00342946 0.366035 1.58398 26 21 15 
0.430519 0.524586 1.86984 137 125 113 
0.415029 0.510573 1.82922 47 37 27 
0.426207 0.518585 1.83739 34 25 16 
0.439848 0.543987 1.9001 142 130 118 
-0.161593 0.3796 1.63477 101 96 92 
0.425722 0.52267 1.82499 107 105 93 
0.372541 0.484729 1.73549 109 97 81 
0.438956 0.561298 1.92159 25 16 1 
0.385481 0.493768 1.75345 124 116 105 
0.438221 0.543926 1.87243 131 125 111 
0.0841044 0.393364 1.57093 83 80 73 
0.424421 0.53069 1.83197 28 26 13 
0.29569 0.452243 1.65315 104 95 86 
0.356716 0.490607 1.71034 102 98 86 
0.436557 0.558958 1.8594 15 7 0 
0.33761 0.484128 1.68519 60 57 50 
0.385335 0.513604 1.74448 41 39 26 
0.320572 0.483513 1.66714 108 99 90 
0.423464 0.553376 1.82146 48 40 29 
0.286436 0.467855 1.63373 98 94 83 
0.429274 0.563843 1.83689 51 43 32 
0.437864 0.575449 1.86466 42 30 18 
0.0319093 0.414807 1.55635 75 71 62 
0.364549 0.513725 1.71161 25 17 6 
0.409679 0.549189 1.78844 124 116 105 
-0.124748 0.419329 1.58117 32 28 19 
0.298574 0.490742 1.63837 39 36 27 
0.181931 0.455155 1.57037 99 96 91 
-0.0410167 0.429424 1.55487 19 12 4 
0.434182 0.601916 1.85573 61 51 39 
0.406066 0.56583 1.76304 122 116 104 
0.337758 0.522342 1.66583 93 89 80 
-0.0832153 0.442754 1.55983 107 102 96 
0.415768 0.582367 1.78727 55 45 36 
0.0596267 0.449747 1.53934 17 8 1 
0.440415 0.628506 1.87298 71 61 49 
0.345438 0.539913 1.66792 43 39 28 
0.0150854 0.455875 1.53513 104 101 94 
0.372631 0.557636 1.70014 36 27 18 
-0.0496267 0.45701 1.5475 6 1 0 
0.0460189 0.460843 1.5341 13 2 0 
0.40866 0.588647 1.76251 65 55 45 
0.31119 0.527096 1.63093 144 136 125 
0.351567 0.548974 1.67209 33 29 20 
0.428433 0.626218 1.8284 142 132 120 
0.369278 0.567657 1.69445 94 90 78 
0.339595 0.556219 1.66403 41 33 22 
-0.175674 0.477505 1.58271 135 131 122 
0.325579 0.548676 1.63865 80 77 72 
0.364653 0.569314 1.67958 138 134 122 
0.405562 0.606039 1.74328 54 46 33 
0.277978 0.535377 1.59238 26 23 14 
0.414878 0.622388 1.77107 106 99 89 
-0.0024871 0.48367 1.52472 86 77 68 
0.207202 0.515939 1.55274 99 95 84 
0.405811 0.611391 1.74087 116 107 92 
0.363461 0.58022 1.66778 133 130 115 
0.263793 0.540777 1.58153 39 32 22 
0.0220712 0.494901 1.51738 21 16 12 
0.233497 0.527985 1.54975 94 89 85 
0.352329 0.577016 1.64326 138 130 117 
-0.0126773 0.497399 1.52275 13 9 0 
0.0497423 0.502871 1.5122 33 24 17 
0.251941 0.542718 1.55746 32 27 23 
0.287625 0.5597 1.58558 132 124 113 
0.306285 0.565201 1.59156 116 107 98 
0.389354 0.609928 1.67924 107 102 96 
0.0601154 0.511688 1.50284 19 12 4 
0.326588 0.575787 1.60332 70 62 51 
0.290207 0.560736 1.57449 44 33 29 
0.362934 0.594315 1.63769 24 13 7 
0.399485 0.621524 1.68153 110 105 99 
0.274006 0.561105 1.56539 132 123 114 
0.0119986 0.516454 1.50111 80 76 67 
0.42129 0.643194 1.71865 103 95 82 
0.411664 0.643677 1.71489 58 52 40 
0.378575 0.613313 1.64306 144 140 131 
0.339294 0.591852 1.5978 112 103 96 
0.438314 0.682241 1.77576 98 94 85 
0.334461 0.591905 1.58329 22 17 11 
0.350311 0.601801 1.60313 25 19 5 
-0.0135696 0.527714 1.48682 36 29 21 
0.364112 0.611005 1.61375 129 122 112 
0.454298 0.706436 1.81195 126 124 111 
0.2513 0.56738 1.5262 84 79 76 
0.400496 0.636024 1.6568 108 104 93 
0.426652 0.662417 1.70973 99 95 86 
0.214237 0.560443 1.51328 112 107 103 
0.2774 0.580627 1.54843 108 98 89 
0.41541 0.657409 1.68917 37 28 19 
0.00130095 0.53573 1.47602 39 30 23 
0.396862 0.644202 1.64675 111 102 93 
0.350988 0.615782 1.59003 105 101 89 
0.401566 0.652875 1.64577 32 28 17 
0.326809 0.620838 1.57338 102 99 90 
0.0272185 0.554959 1.46289 101 96 90 
0.463166 0.749579 1.82574 17 17 9 
-0.147118 0.590502 1.48422 112 108 96 
0.156748 0.614424 1.46283 4 0 0 
0.0585967 0.607163 1.43869 27 16 10 
0.255634 0.651173 1.49955 22 19 4 
0.239623 0.649514 1.48596 137 121 106 
-0.179295 0.634003 1.47697 102 99 94 
0.120506 0.625936 1.44136 93 90 75 
-0.0339019 0.627628 1.43663 60 48 34 
0.0197029 0.623693 1.42524 157 141 126 
0.324147 0.665889 1.48454 156 144 128 
0.271686 0.650571 1.45553 144 134 122 
0.303458 0.658439 1.46342 44 32 16 
0.111859 0.616252 1.38922 158 148 136 
0.0620158 0.611116 1.37785 151 139 125 
0.134239 0.620385 1.39 29 30 16 
0.158627 0.625004 1.39837 30 26 14 
0.0674724 0.61834 1.38486 71 68 53 
-0.00584168 0.622505 1.37436 86 79 73 
0.0423 0.626647 1.37378 6 5 0 
0.309982 0.684401 1.45915 129 126 111 
-0.0138928 0.634101 1.36867 146 136 124 
0.278981 0.68781 1.43356 85 81 69 
-0.269939 0.673467 1.37999 8 9 0 
0.337189 0.717004 1.45811 103 96 78 
0.178411 0.679374 1.37904 36 33 26 
0.327746 0.719714 1.45265 100 93 75 
0.0561368 0.667976 1.35343 115 105 93 
0.0233874 0.668585 1.34923 39 32 16 
0.206967 0.690665 1.38065 30 29 9 
0.0405463 0.672587 1.3448 28 19 4 
0.318803 0.722843 1.43735 105 98 82 
0.229533 0.696411 1.37131 150 145 126 
0.183009 0.686711 1.34842 143 138 119 
0.144454 0.682505 1.33196 86 77 60 
0.0348882 0.669555 1.29868 150 141 126 
0.359818 0.738877 1.42599 48 47 26 
0.175124 0.685169 1.32592 82 75 57 
0.277906 0.711016 1.36702 127 121 99 
0.305707 0.721553 1.38209 139 133 107 
0.237241 0.703493 1.31671 67 64 45 
0.286431 0.718924 1.33878 152 148 121 
0.195457 0.693705 1.28248 53 41 15 
-0.0406748 -2.13193 3.50338 231 235 234 
-0.0448599 -2.0636 3.45237 29 37 50 
-0.0445915 -1.91497 3.29551 52 49 44 
0.0444012 -1.75074 3.23264 45 37 35 
0.0631198 -1.6429 3.25206 49 50 44 
0.122064 -1.38887 2.94936 121 114 104 
0.0788394 -1.3484 2.88474 23 18 14 
0.0761508 -1.24475 2.72199 63 55 52 
0.0102222 -1.19199 2.65963 29 20 13 
0.0909271 -1.05584 2.52856 109 100 85 
0.040843 -0.992432 2.47135 74 71 66 
-0.0131386 -1.01377 2.48962 84 81 72 
-0.0528491 -0.955238 2.4399 97 95 82 
0.283021 -0.779163 2.44607 107 103 100 
0.36639 -0.608983 2.34181 137 131 119 
0.271841 -0.522133 2.15312 10 6 3 
0.208631 -0.521236 2.11756 5 2 0 
0.351395 -0.320865 2.12091 107 103 92 
0.302422 -0.331819 2.06788 102 99 94 
0.411278 -0.29024 2.30234 22 13 6 
0.388294 -0.290589 2.21946 113 110 103 
0.404858 -0.281851 2.28367 37 30 20 
0.387042 -0.25719 2.1676 90 86 77 
0.162558 -0.244973 1.95115 74 70 67 
0.361615 -0.164999 2.05538 93 85 72 
0.233666 -0.210903 1.95489 95 86 79 
0.390479 -0.10461 2.10113 40 36 27 
0.412805 -0.076335 2.24605 46 33 24 
0.394011 -0.0713709 2.13813 123 113 101 
0.150883 -0.150419 1.89632 71 68 63 
0.199046 -0.124388 1.88621 16 12 13 
0.38347 -0.0327464 2.08893 127 119 108 
0.176626 -0.0837358 1.86383 57 56 51 
0.389284 0.0672847 2.00535 37 32 26 
0.265154 0.0221709 1.85242 88 84 75 
0.380101 0.0901115 1.9491 91 79 67 
0.393312 0.113322 2.02774 116 112 101 
0.0769641 0.0116743 1.79073 71 62 53 
0.410825 0.152215 2.08078 102 94 81 
-0.07574 0.025861 1.80126 94 91 86 
0.39249 0.187194 1.98707 111 101 89 
0.359368 0.215393 1.85399 87 79 68 
0.38895 0.269979 1.93752 58 50 39 
-0.0347487 0.145135 1.72224 12 8 5 
0.086421 0.206997 1.69984 91 86 80 
0.420741 0.350932 1.99266 115 105 93 
-0.254284 0.19525 1.81381 88 80 77 
-0.113256 0.201737 1.71681 39 35 26 
0.392614 0.356072 1.91018 75 67 54 
0.414855 0.43986 1.92151 142 132 120 
0.415161 0.467663 1.94457 158 145 129 
0.377969 0.428042 1.77141 122 112 103 
0.0666015 0.337222 1.61858 6 2 0 
0.0137707 0.339137 1.61167 84 77 71 
-0.120808 0.3366 1.64809 85 81 70 
0.415743 0.483821 1.83871 118 112 100 
0.406953 0.498271 1.79387 72 68 56 
-0.0322743 0.372661 1.58251 82 78 69 
0.312203 0.457519 1.66798 46 41 35 
0.375104 0.496631 1.73523 72 65 49 
0.328751 0.51933 1.65741 121 114 104 
0.281858 0.520524 1.61278 121 112 103 
0.375898 0.569135 1.70023 92 85 75 
0.40961 0.613838 1.79175 111 103 92 
0.151506 0.511 1.52399 25 17 15 
0.317844 0.569675 1.60274 130 122 109 
0.404754 0.632794 1.719 43 36 26 
0.355307 0.594944 1.62005 62 56 44 
0.408624 0.635622 1.68456 131 122 113 
0.0223033 0.527688 1.48993 45 40 34 
0.332789 0.593753 1.58661 18 14 5 
0.331175 0.607588 1.576 112 103 94 
0.344557 0.623986 1.57638 80 79 74 
0.215429 0.644369 1.46844 145 129 116 
0.0304306 0.625263 1.4267 159 148 130 
0.213748 0.661328 1.39993 74 65 56 
0.160577 0.656441 1.37892 66 61 58 
0.284858 0.70463 1.43115 38 35 20 
-0.0141724 0.666342 1.35354 14 10 0 
0.0211871 0.657512 1.33927 120 114 100 
0.237686 0.695525 1.39675 43 35 22 
0.176956 0.688896 1.37163 16 13 0 
0.0879608 0.680546 1.35407 8 0 0 
0.217401 0.694954 1.37853 122 119 102 
0.294937 0.716151 1.37023 138 131 112 
0.267955 0.713849 1.33208 68 63 44 
0.204068 0.694873 1.29612 136 133 114 
-0.0522837 -2.07796 3.4481 226 231 234 
0.0394133 -1.94278 3.3481 51 51 49 
0.00212819 -1.91112 3.27984 132 123 116 
-0.0693211 -1.96536 3.31648 67 67 65 
0.0416052 -1.91519 3.40159 41 41 41 
-0.027075 -1.91403 3.29892 59 54 48 
0.0228677 -1.89309 3.33323 137 131 115 
0.0104833 -1.81492 3.26157 32 32 34 
-0.0913822 -1.64819 3.10237 238 240 237 
0.0876778 -1.57394 3.23317 231 233 232 
-0.10886 -1.51274 2.97597 237 237 237 
-0.0975492 -1.45167 2.91865 48 44 35 
-0.135874 -1.26914 2.74775 228 230 229 
0.14189 -1.0664 2.53171 87 83 71 
0.138001 -1.01475 2.50834 27 27 29 
0.178212 -0.979337 2.5079 113 101 89 
-0.14352 -1.16925 2.64598 222 224 223 
0.291993 -0.890863 2.54906 54 50 41 
-0.248385 -1.1748 2.69333 72 69 60 
0.209033 -0.830346 2.41324 89 86 81 
0.204534 -0.811621 2.39681 97 93 84 
0.186223 -0.798237 2.35023 101 97 88 
0.163452 -0.763107 2.27842 108 105 100 
0.272595 -0.654539 2.26959 133 130 125 
0.306776 -0.611922 2.23977 58 55 50 
0.344201 -0.4267 2.16875 124 119 113 
0.352925 -0.404935 2.16063 97 92 88 
0.418927 -0.371728 2.32443 2 2 2 
0.417192 -0.339694 2.33208 26 21 18 
0.266827 -0.381504 2.07123 62 59 50 
0.330267 -0.348264 2.11501 95 92 87 
-0.0995486 -0.497427 2.0743 61 58 49 
0.252267 -0.348759 2.03419 108 103 97 
0.262076 -0.317631 2.03149 97 94 85 
0.194419 -0.33075 1.98913 106 101 98 
0.199489 -0.319437 1.99269 92 84 81 
0.213783 -0.312906 1.99516 91 86 82 
0.0931248 -0.353014 1.99659 79 75 72 
0.404705 -0.221567 2.24716 113 103 101 
0.378458 -0.216755 2.12801 28 23 19 
0.328923 -0.181914 2.03289 76 66 64 
0.385727 -0.134558 2.10012 89 81 70 
0.216511 -0.18363 1.92977 7 2 0 
0.397936 -0.0983192 2.1592 101 91 81 
0.416712 -0.0681538 2.22003 117 109 98 
0.172638 -0.161902 1.90805 50 46 43 
0.0912691 -0.182756 1.88946 4 0 0 
0.0989251 -0.17261 1.88855 78 77 73 
0.22119 -0.133284 1.85827 13 12 7 
0.108812 -0.146542 1.87805 90 85 82 
0.170397 -0.118559 1.88735 104 99 96 
0.225718 -0.0216619 1.84664 84 82 70 
0.221172 -0.0167076 1.82251 36 27 18 
0.367954 0.0715213 1.94896 99 90 81 
0.132225 0.000829847 1.80817 37 34 29 
0.369391 0.0838709 1.93935 81 71 61 
-0.0397754 -0.0215427 1.80731 99 88 70 
-0.0801861 -0.0221315 1.82393 101 93 80 
-0.110883 -0.0186452 1.83334 87 80 74 
0.214311 0.0623022 1.78191 17 12 8 
0.323472 0.172 1.81116 107 99 88 
0.385455 0.219002 1.96775 136 128 115 
0.117309 0.148856 1.72096 40 29 23 
0.307332 0.218824 1.78965 74 70 59 
0.0359484 0.157166 1.70763 89 85 76 
0.331129 0.252065 1.80468 39 29 17 
0.192777 0.210752 1.7077 83 76 68 
0.397865 0.327873 1.8694 113 105 94 
0.180293 0.255156 1.69371 9 1 0 
0.392482 0.350897 1.86532 120 110 101 
0.0412934 0.256178 1.65972 19 14 10 
0.394031 0.408917 1.88485 114 102 90 
0.386064 0.39052 1.81292 108 97 91 
0.382558 0.422873 1.7909 98 88 78 
0.0398141 0.351798 1.59799 53 48 45 
0.407042 0.493249 1.80446 144 134 124 
0.431359 0.579797 2.00316 73 63 51 
0.435811 0.536654 1.86412 52 46 34 
0.339417 0.49851 1.68285 62 56 44 
0.133049 0.432254 1.5623 8 0 0 
0.355992 0.52485 1.69042 93 80 63 
0.374397 0.538638 1.71745 127 121 109 
0.312192 0.561158 1.60802 105 101 90 
0.273585 0.546459 1.57185 80 76 67 
0.437628 0.65939 1.79692 123 115 104 
0.371772 0.614378 1.6272 21 16 12 
0.344748 0.603714 1.59137 128 126 114 
0.215846 0.574929 1.50988 100 93 85 
0.284321 0.664607 1.48937 120 114 98 
0.0111656 0.628859 1.36449 86 78 65 
-0.159803 0.648787 1.3975 76 67 58 
0.118672 0.660955 1.36537 88 84 73 
0.127436 0.680666 1.35561 66 54 38 
-0.21329 0.697296 1.30595 78 71 43 
-0.112876 0.678076 1.26557 143 135 112 
-0.042926 -2.09263 3.45782 38 41 50 
-0.0837807 -1.93877 3.31668 58 57 53 
0.140748 -1.04641 2.52293 100 97 78 
0.447142 -0.423788 2.60435 46 47 39 
0.190134 -0.479269 2.08034 73 70 65 
0.379208 -0.405468 2.23963 100 95 89 
0.394784 -0.397301 2.26327 3 5 4 
0.352061 -0.267084 2.10206 110 106 97 
0.112092 -0.136506 1.8891 2 0 1 
0.192979 0.2602 1.68748 82 72 63 
0.414574 0.472618 1.92929 80 72 53 
-0.257808 0.690018 1.35714 119 112 86 
-0.204525 0.692139 1.29705 72 65 36 
-0.0340048 -2.09808 3.4938 228 232 235 
-0.116388 -1.95907 3.37865 82 77 74 
0.0250118 -1.80367 3.28311 116 107 92 
-0.0934985 -1.89242 3.34153 92 83 74 
-0.131294 -1.26655 2.73776 224 225 227 
-0.134342 -1.24929 2.73411 88 84 75 
-0.232152 -1.15634 2.66221 79 77 65 
0.204491 -0.741125 2.28922 126 118 105 
0.24494 -0.612388 2.15016 100 98 86 
0.351284 -0.572033 2.23386 98 95 90 
0.154176 -0.467124 2.08191 64 63 58 
0.168135 -0.377613 2.02613 43 42 40 
0.0289475 -0.374155 1.99747 58 57 55 
0.362484 -0.108852 2.03343 87 78 69 
0.250604 0.134106 1.77832 86 77 72 
0.337666 0.304272 1.78329 64 52 36 
0.289753 0.406433 1.67024 118 114 105 
-0.070824 0.631092 1.42955 126 110 95 
0.180446 0.625898 1.40697 147 143 131 
0.0314851 -1.94694 3.35998 39 35 36 
0.0149523 -1.88453 3.29313 35 34 40 
0.0426117 -1.77754 3.33124 226 227 229 
0.0684965 -1.67874 3.28327 224 225 229 
0.194393 0.679084 1.37153 40 35 31 
-0.131562 -1.9874 3.4253 39 34 31 
-0.0888106 -1.55647 3.036 82 78 75 
-0.100679 -1.49699 2.96409 71 68 63 
-0.131762 -1.21418 2.67524 219 223 224 
0.42921 -0.289261 2.61501 215 216 218 
0.241882 -0.157235 1.91377 95 91 90 
0.0427798 -0.214958 1.91975 80 77 72 
0.0590252 0.0723369 1.75668 89 85 74 
-0.0405251 -2.03193 3.43367 87 89 86 
0.114048 -1.83338 3.22109 225 229 232 
0.0905854 -1.65558 3.236 224 225 229 
-0.138528 -1.22176 2.69124 218 222 223 
0.115786 -0.489654 2.06186 1 1 1 
0.0042743 0.736441 1.46531 53 43 33 
0.25722 -0.580974 2.15081 16 16 16 
0.434406 -0.456875 2.59807 44 44 36 
0.363741 -0.472204 2.22387 149 142 134 
0.396535 -0.398397 2.24641 4 0 0 
-0.145396 -0.459733 2.08219 103 100 93 
-0.0974095 -0.421387 2.04345 98 94 85 
-0.10938 -0.37017 2.02097 41 37 34 
0.413859 0.395794 1.95271 39 31 18 
0.338 0.340989 1.76195 51 42 25 
0.399946 0.460833 1.83905 42 34 23 
0.370642 0.45298 1.74626 152 142 130 
0.253909 0.648913 1.42421 131 128 119 
0.34685 -0.463156 2.20405 97 93 82 
0.307552 -0.458389 2.14844 118 111 105 
0.306879 -0.362073 2.1003 113 106 96 
-0.282173 -0.428069 2.1613 79 78 76 
0.232172 -0.169648 1.93292 27 24 15 
-0.167826 -0.150978 1.92997 92 81 75 
0.332722 0.098496 1.87587 96 88 77 
-0.14083 -0.00671349 1.83865 37 32 28 
0.152595 0.125698 1.75999 115 111 100 
0.00357126 0.133835 1.72631 80 75 71 
-0.0626127 0.131087 1.73779 32 28 19 
-0.0389401 0.168997 1.71335 89 84 78 
0.409977 0.45021 1.90459 140 131 116 
0.397212 0.44892 1.84415 139 129 117 
0.119593 0.387204 1.58341 64 63 59 
0.260178 0.516261 1.59308 12 10 0 
-0.171148 0.476556 1.57764 135 131 122 
0.194426 0.532114 1.52991 94 87 77 
-0.0513114 0.515774 1.50264 56 53 48 
0.355121 0.696973 1.48786 101 91 79 
0.348286 0.705674 1.47695 139 137 122 
0.0719469 -0.15719 1.88977 31 26 22 
0.392173 -0.0370637 2.11114 103 91 79 
0.192843 -0.0282145 1.8321 99 90 81 
0.0858836 0.0514769 1.77383 77 67 57 
-0.035264 0.14553 1.72286 12 8 5 
0.406092 0.499463 1.79745 59 53 41 
-0.0692685 0.371868 1.59493 45 40 34 
0.36795 0.487861 1.7305 52 44 31 
0.242172 0.537854 1.55245 20 12 9 
0.256215 0.575252 1.52404 21 16 13 
0.232604 0.595261 1.50171 18 10 8 
0.18229 -0.394166 2.04135 80 73 65 
0.320948 0.134838 1.83808 87 78 69 
-0.0118329 0.11659 1.73586 72 71 67 
0.333406 0.251074 1.80024 39 29 17 
0.267669 0.302368 1.70305 23 14 5 
0.0391539 0.256787 1.66254 19 14 10 
0.373768 0.539968 1.72048 133 127 115 
-0.14554 -1.17385 2.65259 236 235 231 
-0.135356 -1.27061 2.74622 224 225 227 
0.163451 -0.191001 1.92013 100 96 93 
0.211868 -0.153798 1.89984 14 6 3 
0.311325 0.493149 1.6507 112 108 96 
0.291571 0.658562 1.47637 129 123 107 
0.0317609 0.628078 1.39619 61 54 44 
0.118231 -0.358967 2.00533 6 5 1 
0.216358 -0.204746 1.94069 82 79 74 
0.217399 -0.116729 1.89191 96 86 85 
0.264456 -0.0477132 1.8914 19 10 1 
0.106221 0.0796593 1.76891 19 9 8 
0.0238398 0.293694 1.64335 8 3 0 
-0.00685658 0.323474 1.62993 84 79 76 
0.243024 -0.900687 2.50502 90 92 81 
0.249996 -0.439077 2.0884 26 23 18 
0.238407 -0.34769 2.03057 60 52 49 
0.298332 -0.462431 2.14017 23 22 20 
-0.0487566 -1.95981 3.37439 65 61 52 
-0.0224066 0.622842 1.37185 16 8 5 
-0.0230297 -1.85215 3.30934 134 125 116 
-0.0355924 -2.02023 3.37915 227 232 235 
-0.0367438 -2.0073 3.38875 65 67 64 
-0.0114567 -2.06206 3.41216 229 233 234 
-0.0266864 -2.06218 3.4042 29 34 40 
0.219427 -0.98829 2.51119 118 112 100 
0.293427 -0.9526 2.57775 20 16 15 
0.168251 -1.00049 2.45996 7 6 1 
0.291224 -0.950539 2.62289 130 129 124 
0.298574 -0.937934 2.61561 127 124 117 
0.306541 -0.898563 2.58456 136 132 123 
0.0911705 -0.992171 2.44932 125 123 111 
0.311094 -0.860354 2.53944 10 4 0 
0.170489 -0.873639 2.37398 136 132 123 
0.307521 -0.821022 2.91909 29 30 24 
0.316047 -0.377538 2.10653 105 101 92 
0.289313 -0.385758 2.09501 18 13 7 
0.265086 -0.390725 2.07409 139 135 126 
0.219583 -0.406586 2.04818 24 19 15 
0.388174 -0.328678 2.17417 108 105 96 
0.167514 -0.422112 2.06548 9 5 4 
0.288514 -0.365752 2.08038 5 0 0 
0.202317 -0.401166 2.03512 24 20 19 
0.274284 -0.369615 2.06802 95 90 86 
0.257598 -0.374354 2.05559 114 111 102 
0.28746 -0.353418 2.06809 6 0 0 
0.231809 -0.372425 2.04286 5 2 0 
0.214201 -0.375756 2.03374 5 1 0 
0.379946 -0.301297 2.15331 89 84 78 
0.237698 -0.360143 2.0365 15 7 4 
0.322602 -0.324027 2.08566 6 5 1 
0.389312 -0.293205 2.15889 28 21 15 
0.380849 -0.291796 2.14738 96 91 88 
0.17079 -0.372662 2.03752 110 109 104 
0.42209 -0.262114 2.29532 39 35 26 
0.271434 -0.321363 2.04159 36 33 28 
0.431474 -0.234192 2.40977 22 18 9 
0.381876 -0.259945 2.13021 4 0 0 
0.281975 -0.299841 2.04219 120 113 103 
0.392179 -0.247231 2.14965 7 2 0 
0.42064 -0.224988 2.29481 30 23 15 
0.362569 -0.249819 2.10553 14 7 0 
0.404573 -0.228109 2.22654 110 102 89 
0.391579 -0.220945 2.19771 115 107 96 
0.403658 -0.206396 2.22474 30 24 12 
0.195735 -0.295042 1.98763 6 0 0 
0.404107 -0.197696 2.21192 20 13 3 
0.324915 -0.234838 2.04743 119 115 104 
-0.117431 -0.372932 2.03275 30 29 25 
0.377282 -0.1426 2.07678 98 89 80 
0.295049 -0.169105 1.98257 123 116 106 
0.325867 -0.150457 2.00781 124 119 113 
0.314757 -0.147193 1.99273 16 6 0 
0.383019 -0.115841 2.064 11 7 0 
0.369716 -0.118936 2.05187 129 123 111 
0.395933 -0.0993843 2.14561 18 11 1 
0.415898 -0.0842105 2.20373 23 13 4 
0.340932 -0.123746 2.01705 9 5 0 
0.420488 -0.0760304 2.21717 7 0 0 
0.35891 -0.111627 2.0295 126 117 108 
0.247707 -0.159214 1.94678 110 106 97 
0.405383 -0.0806055 2.1687 23 15 2 
0.398667 -0.0857232 2.12934 4 0 0 
0.426192 -0.0585095 2.28414 9 2 0 
0.38952 -0.0911445 2.0718 125 120 114 
0.323834 -0.121037 1.9884 102 93 86 
0.402053 -0.0742871 2.15888 136 130 118 
0.407892 -0.0694723 2.16671 11 2 0 
0.392199 -0.0753071 2.13027 18 9 0 
0.298387 -0.121038 1.9653 102 99 90 
0.413656 -0.0554492 2.19479 119 109 99 
0.273977 -0.127551 1.95 14 5 0 
0.405088 -0.0590249 2.16166 111 103 92 
0.407414 -0.0483626 2.15915 24 17 1 
0.2918 -0.105807 1.95578 8 0 0 
0.414169 -0.0378381 2.17552 17 5 0 
0.396869 -0.045958 2.12743 10 2 0 
0.391073 -0.0450338 2.11174 14 2 0 
0.398688 -0.035879 2.13049 19 6 0 
0.414193 -0.0214484 2.18439 40 28 16 
0.218557 -0.116069 1.90715 102 97 94 
0.279852 -0.0907283 1.93842 4 0 0 
0.275537 -0.0928471 1.92582 13 8 4 
0.284999 -0.0777461 1.93969 8 1 0 
0.275923 -0.0816941 1.91933 4 0 0 
0.409529 0.00072205 2.15391 42 34 23 
0.39305 -0.00556786 2.09401 141 131 121 
0.315432 -0.0449994 1.94678 20 11 2 
0.412541 0.0131835 2.12246 111 107 96 
0.414304 0.0194014 2.14841 120 110 101 
0.405762 0.0176754 2.13517 6 0 0 
0.27621 -0.0522178 1.91079 11 2 0 
0.362998 -0.0071724 1.98914 130 119 113 
0.404422 0.0294451 2.11593 135 127 114 
0.357401 -0.00083639 1.97488 137 130 122 
0.388664 0.0253764 2.079 18 8 0 
0.388801 0.0273344 2.06284 138 130 119 
0.382853 0.0355766 2.0716 30 18 6 
0.399738 0.0500897 2.09695 15 7 0 
0.405457 0.0630916 2.10112 131 122 113 
0.402693 0.0609564 2.08209 25 17 4 
0.392082 0.0588059 2.06251 29 20 11 
0.419211 0.0865473 2.14119 114 106 93 
0.398658 0.0714899 2.07172 11 1 0 
0.228713 -0.0149834 1.85869 108 103 97 
0.400988 0.0772293 2.09101 33 23 13 
0.338943 0.0358667 1.92611 121 112 107 
0.24879 0.000513866 1.8627 119 115 106 
0.394935 0.0789322 2.06013 21 11 1 
0.349595 0.0484814 1.93483 107 97 87 
0.419707 0.101975 2.12578 13 1 0 
0.411748 0.103115 2.09885 28 18 6 
0.364055 0.0637949 1.95115 20 11 2 
0.400328 0.0961866 2.06936 8 0 0 
0.258613 0.0165329 1.85323 10 5 1 
0.40428 0.101088 2.07925 9 0 0 
-0.12298 -0.0923415 1.88214 99 96 89 
0.241236 0.0230156 1.84673 7 2 0 
0.393133 0.110136 2.04164 21 12 3 
0.412468 0.127692 2.07847 18 11 1 
0.269669 0.0426689 1.84853 12 8 0 
0.373058 0.100086 1.94173 17 7 5 
0.336766 0.0827189 1.905 113 104 95 
0.377643 0.103805 1.94686 9 0 0 
0.396084 0.126283 2.03828 34 26 15 
0.329163 0.0832741 1.89466 6 0 0 
0.386574 0.11464 1.96009 34 24 15 
0.292721 0.0695192 1.85894 32 23 18 
0.36791 0.125035 1.92246 101 88 79 
0.421083 0.178564 2.1069 14 2 0 
0.347237 0.116337 1.89512 12 2 0 
0.352822 0.124622 1.90727 7 0 0 
0.41939 0.183038 2.09503 28 20 7 
0.388748 0.1515 1.94742 105 98 88 
0.383833 0.152397 1.9387 16 6 0 
0.378846 0.149807 1.93214 10 0 0 
0.389536 0.169071 1.99967 122 109 100 
0.402493 0.185011 2.04631 14 4 0 
0.387853 0.171501 1.9318 9 2 0 
0.40777 0.241934 2.16662 157 139 127 
0.383999 0.194309 1.97386 33 20 11 
0.415021 0.22208 2.05771 110 100 88 
0.395915 0.209249 1.99756 16 6 0 
0.294142 0.147134 1.81203 106 101 95 
0.40713 0.230897 2.02069 27 17 8 
0.401768 0.230177 1.99441 23 11 0 
0.392418 0.227761 1.97455 140 130 120 
0.348425 0.190394 1.86156 10 7 2 
0.424782 0.268316 2.09187 122 112 102 
0.32532 0.183619 1.84289 102 93 84 
0.398581 0.237365 1.98492 39 27 13 
0.415173 0.256472 2.04716 18 7 1 
0.420231 0.268568 2.06924 40 32 21 
0.423471 0.283553 2.12749 145 133 119 
0.42324 0.284953 2.10852 127 115 103 
0.425232 0.290899 2.11913 113 105 94 
0.319478 0.194251 1.82372 139 129 119 
0.424355 0.284933 2.0832 128 119 104 
0.308621 0.188515 1.80403 120 111 104 
0.424372 0.295609 2.09077 8 0 0 
0.419445 0.285568 2.04391 12 2 0 
0.422309 0.305356 2.11919 41 33 22 
0.348505 0.218863 1.83984 96 88 77 
0.422981 0.305654 2.07568 118 109 100 
0.422172 0.298775 2.04697 26 18 7 
0.333166 0.219665 1.81955 102 95 85 
0.411518 0.285197 1.99787 40 32 19 
0.423534 0.323222 2.12126 24 17 1 
0.423658 0.317556 2.09597 134 124 112 
0.422214 0.31506 2.08533 50 40 28 
0.423073 0.32457 2.10584 42 32 22 
0.338807 0.231747 1.82121 16 6 0 
0.385475 0.272773 1.93075 130 123 113 
0.384226 0.259859 1.87889 143 133 123 
0.35551 0.247566 1.84201 10 0 0 
0.39721 0.288742 1.94899 28 22 8 
0.338366 0.241414 1.81582 21 9 0 
0.403721 0.296917 1.96398 21 13 2 
0.389365 0.278184 1.89457 11 9 0 
0.411196 0.308498 1.98438 18 8 0 
0.391646 0.291278 1.93311 9 0 0 
0.409873 0.307774 1.97188 158 148 139 
0.39011 0.276793 1.87229 129 122 114 
0.41791 0.319533 2.002 38 28 18 
0.403293 0.304455 1.95626 18 11 1 
0.322481 0.242533 1.79527 112 102 92 
0.396606 0.303967 1.94104 47 38 23 
0.284461 0.231583 1.76419 148 139 130 
0.401994 0.313442 1.96143 15 7 0 
0.388392 0.289104 1.87673 9 0 0 
0.342012 0.261333 1.81132 152 140 124 
0.387188 0.294558 1.89186 37 28 21 
0.41127 0.32174 1.96979 10 0 0 
0.423787 0.345585 2.04541 26 16 7 
0.417751 0.338374 2.00617 20 8 0 
0.415978 0.333332 1.98548 119 109 97 
0.40406 0.322988 1.95574 17 8 0 
0.42518 0.356902 2.06193 7 0 0 
0.421683 0.37094 2.11454 60 50 40 
0.33547 0.263934 1.79779 142 131 113 
0.423834 0.364623 2.08009 12 4 0 
0.426423 0.353914 2.03224 24 16 3 
0.418958 0.343681 1.9958 36 26 16 
0.267578 0.240794 1.74044 140 134 120 
0.38344 0.298666 1.84958 26 16 7 
0.399612 0.326063 1.93173 47 37 25 
0.408559 0.335146 1.95592 161 151 141 
0.423611 0.35431 2.01167 11 3 0 
0.284166 0.249856 1.75574 159 150 133 
0.390122 0.304351 1.85857 12 8 0 
0.404031 0.331654 1.94315 23 13 3 
0.333971 0.2752 1.79494 148 135 119 
0.393811 0.324863 1.91054 37 33 22 
0.354748 0.288964 1.81422 46 37 22 
0.402346 0.335901 1.92909 25 17 6 
0.388966 0.319094 1.8759 44 35 28 
0.39646 0.338896 1.91503 139 125 116 
0.390808 0.336548 1.90599 132 125 109 
0.404392 0.349277 1.93431 149 137 123 
0.34914 0.300116 1.79642 29 20 5 
0.421345 0.376846 1.99948 19 9 0 
0.425754 0.388797 2.02927 46 34 22 
0.395106 0.348594 1.91508 20 7 0 
0.422438 0.376544 1.98309 134 124 114 
-0.277224 0.178723 1.83894 27 23 20 
0.407045 0.364476 1.94792 24 15 6 
0.425121 0.407852 2.0647 30 22 9 
0.425961 0.394418 2.01556 142 134 121 
0.346268 0.310252 1.79224 138 127 109 
0.415688 0.373515 1.93177 32 22 12 
0.409378 0.377268 1.94733 15 2 0 
0.333097 0.311365 1.77585 142 134 115 
0.342286 0.317618 1.78373 41 28 12 
0.27132 0.283108 1.71891 139 127 111 
0.257885 0.278716 1.7116 120 113 105 
0.421869 0.399462 1.98666 16 8 0 
0.397142 0.369547 1.89939 17 7 0 
0.392639 0.346641 1.82619 17 7 0 
0.416666 0.394944 1.94716 43 33 23 
0.266712 0.292202 1.7127 59 50 35 
0.341062 0.32985 1.77417 33 24 15 
0.42567 0.42312 2.00777 43 33 21 
0.40695 0.392389 1.91108 45 37 24 
0.425232 0.42992 2.01658 21 11 0 
0.274776 0.305687 1.71122 54 41 24 
0.366092 0.355047 1.80108 21 9 0 
0.282831 0.315332 1.72327 130 118 106 
0.416838 0.41716 1.9519 122 114 101 
0.368767 0.356914 1.79153 136 124 112 
0.337549 0.341221 1.7623 21 12 0 
0.423124 0.426237 1.94972 104 96 83 
0.425925 0.458628 2.04551 20 12 0 
0.262538 0.313819 1.6948 50 41 24 
0.424078 0.441435 1.98649 21 11 0 
0.402503 0.411171 1.88383 37 28 19 
0.335456 0.354232 1.75056 122 114 93 
0.411159 0.427506 1.91018 59 49 40 
0.413553 0.440132 1.90995 15 7 0 
0.354275 0.380116 1.75745 36 30 18 
0.296843 0.357494 1.70481 131 123 110 
0.322738 0.370795 1.72969 121 117 105 
0.308862 0.364965 1.71891 145 137 124 
0.421283 0.467975 1.94955 58 46 32 
0.389421 0.427444 1.84168 15 2 0 
0.429615 0.480899 1.97342 36 24 10 
0.428409 0.494435 2.01303 122 114 101 
0.289265 0.365487 1.69355 30 21 14 
0.383946 0.413071 1.77863 30 22 9 
0.389669 0.4195 1.7934 15 2 0 
0.358682 0.400908 1.7517 138 125 119 
0.416139 0.469234 1.91467 55 45 33 
0.427041 0.499673 1.97815 16 6 0 
0.28513 0.370845 1.68443 121 114 106 
0.399679 0.448232 1.83841 125 115 103 
0.415852 0.474542 1.90223 18 8 0 
0.425355 0.524649 2.02237 44 34 22 
0.391127 0.448344 1.81397 27 18 9 
0.402853 0.459502 1.83328 42 34 23 
0.416748 0.479038 1.88125 120 111 104 
0.37246 0.428431 1.75978 107 97 87 
0.327602 0.422149 1.70822 116 109 101 
0.417489 0.489664 1.83478 22 14 3 
0.431312 0.507708 1.86863 20 13 3 
0.416869 0.487275 1.81478 115 113 101 
0.436936 0.523839 1.90397 33 25 14 
0.44437 0.536235 1.93408 42 38 26 
0.440335 0.533699 1.91854 13 7 0 
0.407979 0.487924 1.80765 24 15 8 
0.281437 0.412709 1.66034 36 32 21 
0.424439 0.506523 1.83988 18 9 0 
0.433558 0.528958 1.88643 18 8 0 
0.435913 0.546047 1.92022 34 24 15 
0.449092 0.562485 1.93627 164 156 143 
0.450257 0.555241 1.90898 145 135 123 
0.418557 0.512233 1.80453 149 141 130 
0.434823 0.530514 1.84151 116 112 103 
0.416184 0.521725 1.79892 119 109 99 
0.448388 0.573135 1.90333 24 12 0 
0.357666 0.483286 1.70927 108 104 95 
0.452661 0.586279 1.92936 23 9 0 
0.433771 0.551219 1.84629 34 24 14 
0.344089 0.479309 1.6989 31 28 21 
0.450406 0.58417 1.91031 20 10 0 
0.409689 0.533004 1.7786 8 0 0 
0.427755 0.550996 1.81171 11 5 0 
0.364218 0.501406 1.7087 165 155 145 
0.375839 0.516928 1.71365 30 23 13 
0.421743 0.561941 1.79401 102 98 89 
0.425542 0.573454 1.81165 22 12 0 
0.437507 0.589207 1.84369 8 0 0 
0.431144 0.590242 1.81834 38 28 16 
0.305426 0.498823 1.63631 121 113 110 
0.38663 0.546757 1.72196 112 105 95 
0.43549 0.608303 1.82256 38 28 18 
0.303019 0.508754 1.62766 123 119 110 
0.428627 0.605173 1.79753 37 35 22 
0.448189 0.666454 1.87173 28 20 7 
0.403915 0.600922 1.72083 37 29 18 
0.357568 0.569236 1.65914 40 34 22 
0.378283 0.58915 1.67025 143 134 125 
0.41512 0.621646 1.7097 23 13 3 
0.40679 0.625347 1.71354 158 150 137 
0.388632 0.604652 1.66663 99 95 84 
0.458071 0.714052 1.88334 25 15 5 
0.381777 0.599466 1.64948 118 106 94 
0.430102 0.646147 1.73244 17 8 0 
0.456065 0.676529 1.79155 40 36 24 
0.376839 0.598751 1.64081 9 0 0 
0.457338 0.688126 1.78807 20 18 6 
0.366361 0.600229 1.62121 6 0 0 
0.376629 0.604753 1.6274 166 161 155 
0.387922 0.61806 1.62898 14 7 0 
0.471087 0.721486 1.82515 16 14 2 
0.313045 0.584625 1.5606 115 112 107 
0.381856 0.624359 1.61177 119 116 109 
0.325159 0.601926 1.57477 12 7 1 
0.362251 0.61496 1.59269 124 120 109 
-0.152526 0.537781 1.52062 143 138 132 
0.476442 0.760205 1.84221 25 16 9 
0.749131 0.34709 0.935399 36 44 47 
-0.257907 0.601688 1.54059 38 34 31 
0.10225 0.589495 1.44318 165 162 155 
-0.0158935 0.585646 1.44165 108 101 91 
0.216282 0.619732 1.46448 20 13 7 
0.118683 0.609323 1.4453 113 104 97 
0.156657 0.626004 1.44528 147 139 128 
0.213801 0.633413 1.45134 134 124 115 
0.039276 0.620458 1.41896 157 151 137 
0.198135 0.625416 1.40577 170 164 150 
0.0479192 0.619151 1.40442 38 26 10 
0.169616 0.630285 1.39949 14 7 0 
0.262198 0.643684 1.414 131 128 119 
0.0711427 0.614166 1.37314 143 137 121 
0.133869 0.619914 1.37662 103 100 95 
0.157703 0.630199 1.38581 101 101 93 
0.198712 -0.951741 2.46493 51 41 31 
0.134518 -0.967231 2.43618 119 114 110 
-0.116236 -1.13305 2.59093 50 51 45 
0.214414 -0.910442 2.46527 95 88 78 
0.0599439 -0.985232 2.44447 12 7 3 
0.0439757 -0.983763 2.4442 10 5 1 
0.286399 -0.924298 2.91294 224 228 227 
-0.118981 -1.08542 2.55466 81 74 64 
-0.254661 -1.17694 2.66313 91 90 85 
0.275906 -0.924337 3.0161 80 80 70 
0.280091 -0.908501 2.99574 68 65 56 
0.284246 -0.905159 3.00624 216 218 213 
0.298236 -0.870201 2.97023 212 218 218 
0.355723 -0.75284 2.47685 52 41 35 
-0.136187 -0.988088 2.46522 117 112 108 
-0.176371 -0.815135 2.31206 204 205 207 
-0.18621 -0.80649 2.31293 218 220 219 
-0.179349 -0.791187 2.29647 76 72 69 
-0.0173455 -0.670331 2.14212 107 99 88 
0.223229 -0.453986 2.07456 84 83 79 
0.25777 -0.425523 2.07889 87 82 76 
0.278451 -0.410832 2.09169 100 95 92 
0.294966 -0.399216 2.09928 90 89 84 
0.206035 -0.434143 2.05373 44 39 33 
0.293371 -0.378762 2.08247 114 111 102 
0.329431 -0.361934 2.1134 95 90 86 
0.243854 -0.395325 2.05907 74 71 64 
0.156227 -0.427224 2.05134 93 89 86 
0.32709 -0.351965 2.11485 118 117 112 
0.364201 -0.333772 2.13406 91 86 80 
0.246996 -0.382849 2.05666 106 106 98 
0.213277 -0.39649 2.04723 23 13 12 
0.264244 -0.373583 2.06503 99 92 86 
0.344266 -0.335548 2.11185 92 89 82 
0.148652 -0.414054 2.0539 93 89 86 
0.342218 -0.324168 2.11279 64 61 56 
0.390702 -0.301301 2.2231 112 109 100 
0.361914 -0.313428 2.13124 93 88 84 
0.388936 -0.299421 2.21109 54 51 42 
0.260681 -0.354471 2.05168 15 11 2 
0.420574 -0.284506 2.30624 35 31 20 
0.433907 -0.277984 2.39806 20 18 6 
0.413221 -0.286599 2.2738 106 103 96 
0.327616 -0.321459 2.09886 93 88 84 
0.27156 -0.343493 2.05427 85 77 74 
0.392771 -0.289593 2.20731 113 110 103 
0.427828 -0.269848 2.34128 37 32 26 
-0.0955409 -0.490916 2.05934 71 68 61 
0.0401662 -0.433315 2.04338 75 74 70 
0.366999 -0.292277 2.12648 31 31 21 
0.394461 -0.277557 2.1594 37 32 26 
0.361169 -0.282707 2.1166 14 3 1 
0.309449 -0.303389 2.06443 82 77 73 
0.205446 -0.346972 2.01481 14 10 1 
0.426434 -0.24877 2.34472 53 49 38 
0.421761 -0.245623 2.29083 59 55 44 
0.363672 -0.272898 2.11281 37 30 24 
0.385755 -0.261278 2.14286 92 94 83 
0.32031 -0.288006 2.07105 15 10 4 
0.427998 -0.232392 2.47748 92 89 80 
0.421136 -0.237991 2.30296 58 51 41 
0.415595 -0.238743 2.26734 122 116 104 
0.351706 -0.266402 2.09994 98 94 91 
0.327883 -0.273545 2.07039 96 89 79 
0.336683 -0.268241 2.07398 105 101 90 
0.352935 -0.258043 2.0914 43 38 32 
0.23673 -0.306898 2.00832 115 107 104 
-0.147499 -0.460952 2.08619 102 98 95 
0.427403 -0.216126 2.32362 107 97 87 
0.306929 -0.272747 2.04832 88 79 70 
0.298061 -0.276268 2.04433 85 78 70 
0.16551 -0.322157 2.01428 9 8 4 
0.248012 -0.287938 2.0095 93 93 85 
0.381694 -0.227452 2.11724 122 117 111 
0.431001 -0.197056 2.36808 110 106 95 
0.389308 -0.222592 2.12529 16 11 5 
0.389954 -0.211195 2.17769 22 9 0 
-0.207052 -0.451873 2.11641 64 56 53 
0.389478 -0.210102 2.13419 46 43 36 
0.385702 -0.184115 2.64279 20 21 15 
0.255833 -0.263798 1.99866 98 89 82 
0.376406 -0.203384 2.10274 78 72 60 
0.417448 -0.173179 2.25367 105 98 90 
0.432152 -0.15923 2.34279 44 40 29 
-0.148548 -0.396191 2.05829 9 5 2 
0.341362 -0.199138 2.05139 88 81 71 
0.252899 -0.235293 1.97982 97 90 84 
0.213131 -0.248067 1.96592 81 78 73 
0.327632 -0.19643 2.03485 110 103 95 
0.407456 -0.153938 2.20912 49 42 32 
0.181566 -0.252584 1.96757 89 85 74 
0.387984 -0.16126 2.15669 104 94 82 
0.33998 -0.179062 2.04113 82 78 67 
0.191953 -0.235614 1.9526 8 3 0 
0.374744 -0.156446 2.07579 94 87 77 
0.149703 -0.248541 1.9739 69 66 59 
0.267952 -0.202134 1.98582 27 17 15 
0.375112 -0.150645 2.08275 15 8 0 
0.229854 -0.211293 1.96304 110 101 96 
0.390194 -0.140357 2.0972 37 28 19 
0.37029 -0.147755 2.07049 81 70 64 
0.388202 -0.136242 2.13533 106 97 88 
0.280569 -0.186933 1.98688 28 24 15 
0.393576 -0.129685 2.15377 108 98 88 
0.319546 -0.16568 2.00899 93 86 80 
0.349819 -0.151522 2.03947 97 90 82 
0.386685 -0.125065 2.13573 93 86 80 
0.401662 -0.116447 2.16645 40 27 18 
0.393303 -0.119235 2.14897 113 106 96 
0.40815 -0.11128 2.18718 116 108 95 
0.198359 -0.206337 1.93896 12 7 1 
0.237854 -0.186592 1.9458 87 80 72 
0.3344 -0.144296 2.01284 141 137 128 
0.339638 -0.140973 2.021 103 98 92 
0.394736 -0.110033 2.1536 33 30 21 
0.243604 -0.179807 1.95412 97 90 80 
0.290866 -0.156559 1.97896 95 89 77 
0.293279 -0.144714 1.9734 18 8 0 
0.227125 -0.170788 1.94088 23 19 16 
0.386344 -0.0916257 2.1214 33 26 18 
0.41373 -0.0706178 2.18325 74 66 55 
0.358287 -0.10177 2.02413 92 83 74 
0.282224 -0.132281 1.96071 9 4 1 
0.365341 -0.0949396 2.02966 42 33 28 
0.338272 -0.104618 1.99849 102 95 85 
0.220494 -0.153409 1.9166 13 8 5 
0.32376 -0.107924 1.98859 26 21 15 
0.381384 -0.0776701 2.05498 92 83 76 
0.400534 -0.0597711 2.14511 11 1 0 
0.304182 -0.111757 1.96745 91 86 80 
0.312524 -0.107697 1.97477 98 94 85 
0.267924 -0.123755 1.93925 81 78 71 
0.23238 -0.135883 1.92389 90 83 77 
0.370443 -0.0681291 2.02952 16 13 8 
0.388272 -0.0566571 2.05314 24 17 9 
0.26543 -0.112819 1.92638 126 123 118 
0.246772 -0.116637 1.92399 84 81 72 
0.387575 -0.0456983 2.07831 100 92 81 
0.413255 -0.0269301 2.15953 14 4 0 
0.36536 -0.054441 2.01271 118 109 100 
0.325011 -0.0711437 1.97198 30 26 17 
0.389557 -0.0318828 2.10902 48 40 27 
0.410396 -0.0165483 2.14824 97 87 77 
0.293013 -0.0805557 1.94513 121 113 102 
0.402186 -0.0166433 2.1407 28 16 4 
0.381893 -0.0288134 2.02911 12 5 0 
0.401282 -0.00445983 2.12528 123 113 104 
0.367894 -0.0292074 2.0061 21 11 2 
0.343213 -0.0395333 1.96819 105 96 87 
0.28928 -0.0630435 1.92004 101 98 89 
0.293835 -0.059741 1.93818 90 83 75 
0.404802 0.00436949 2.13031 30 22 11 
0.302431 -0.0533011 1.93883 5 0 0 
0.385966 0.003685 2.08011 80 70 61 
0.225923 -0.0734086 1.89327 73 66 58 
0.395812 0.0133021 2.10507 71 63 50 
0.27162 -0.0532417 1.90144 57 51 39 
0.330117 -0.0245729 1.95381 87 76 70 
0.420652 0.0346391 2.16684 26 13 4 
0.387436 0.0079419 2.02066 96 87 78 
0.37498 0.00478565 2.00044 26 17 8 
0.381017 0.0150929 2.05224 28 19 10 
0.38405 0.0282866 2.04123 24 17 9 
0.410035 0.0485467 2.12655 70 60 48 
0.279397 -0.0215661 1.89375 9 1 0 
0.381539 0.0338165 1.99623 95 86 77 
0.38748 0.0405565 2.02475 40 31 22 
0.314748 0.00341354 1.91986 18 11 5 
0.274288 -0.00589921 1.88966 33 25 22 
0.385996 0.0594342 2.04828 30 26 14 
0.181376 -0.0293901 1.85122 92 88 77 
0.317396 0.02365 1.91177 10 4 4 
0.344097 0.038188 1.93421 114 105 100 
0.3295 0.0322131 1.91481 93 83 74 
0.408695 0.0890341 2.09252 119 105 92 
0.402042 0.0886013 2.08173 45 37 26 
0.370626 0.0630413 1.96541 108 101 93 
0.230488 0.00363366 1.84728 100 91 82 
0.354857 0.058381 1.9428 25 14 8 
0.385644 0.0769448 1.97703 10 5 0 
0.328195 0.0509533 1.91185 93 82 76 
0.396315 0.0985492 2.04242 20 11 4 
0.405738 0.110504 2.08822 116 106 94 
0.362126 0.0751528 1.94279 35 23 11 
0.370665 0.0820825 1.95998 23 11 0 
0.38601 0.0900781 1.97552 57 44 36 
0.406587 0.114735 2.07734 34 24 12 
0.272479 0.0366024 1.86402 87 78 69 
0.347838 0.0702345 1.92569 91 81 71 
0.411547 0.123804 2.09965 46 30 14 
0.326407 0.0760222 1.88725 114 105 90 
0.40967 0.138074 2.08458 116 108 97 
0.304695 0.0670845 1.86751 90 83 73 
0.271472 0.0587548 1.85054 80 73 65 
0.38306 0.12054 1.9451 116 108 97 
0.339351 0.0983397 1.89224 97 89 76 
0.237939 0.0545411 1.81703 101 93 82 
0.406857 0.151295 2.06058 44 35 26 
0.330628 0.0985913 1.87977 96 88 77 
0.416845 0.171545 2.08533 118 106 94 
0.251257 0.0748985 1.81622 19 12 4 
0.30803 0.101927 1.85648 97 93 84 
0.278353 0.0913845 1.83698 118 113 109 
0.384618 0.152004 1.95636 105 98 88 
0.350041 0.133111 1.89181 96 87 78 
0.279907 0.101118 1.83366 92 85 77 
0.400938 0.177342 2.02378 17 7 0 
0.413006 0.194911 2.07185 106 94 82 
0.381618 0.16021 1.92903 29 17 5 
0.26805 0.10484 1.81476 81 72 67 
0.388163 0.169426 1.95775 43 33 23 
0.399942 0.188357 2.02821 23 13 3 
0.314229 0.129432 1.85287 15 6 0 
0.320881 0.133947 1.85964 44 35 26 
0.258236 0.105812 1.80623 8 4 0 
0.337008 0.155814 1.86311 92 84 71 
0.303655 0.140388 1.83301 77 68 61 
0.405389 0.209376 2.00624 103 93 84 
0.319224 0.159459 1.85144 56 49 39 
0.378644 0.189281 1.90265 34 26 24 
0.319608 0.159951 1.8356 102 96 84 
0.342172 0.176778 1.86159 106 102 93 
0.324649 0.16833 1.84275 108 102 90 
0.298362 0.160331 1.82078 12 7 1 
0.377241 0.201649 1.89746 16 6 4 
0.38512 0.205329 1.9032 46 39 29 
0.187062 0.122754 1.76327 85 80 76 
0.4234 0.284786 2.14118 35 27 14 
0.376525 0.228977 1.95291 131 123 112 
0.391967 0.22287 1.90184 7 0 0 
0.417922 0.283554 2.10292 47 34 18 
0.386744 0.240613 1.94789 131 121 111 
0.422223 0.301898 2.15555 33 23 14 
0.406113 0.262491 2.00738 35 23 9 
0.422949 0.286426 2.06211 120 106 95 
0.39367 0.25486 1.96036 65 55 43 
0.337343 0.21517 1.83256 126 121 102 
0.385022 0.254709 1.93423 45 37 26 
0.36722 0.235189 1.86386 19 11 0 
0.304957 0.205933 1.7956 93 86 76 
0.270474 0.194181 1.77691 74 67 59 
0.357964 0.237422 1.8428 30 19 13 
0.403156 0.284774 1.97854 36 24 12 
0.284749 0.202922 1.77618 29 22 14 
0.393999 0.276741 1.95484 9 0 0 
0.401561 0.286086 1.96336 106 96 84 
0.427907 0.32827 2.08983 104 98 86 
0.418683 0.305111 2.004 21 13 0 
0.424199 0.327075 2.07785 10 4 0 
0.293806 0.223536 1.78117 61 52 47 
0.179476 0.186671 1.73646 82 73 64 
0.427296 0.338753 2.07112 51 39 25 
0.35101 0.257655 1.82382 18 11 1 
0.386769 0.293228 1.91947 19 10 3 
0.411837 0.320601 1.99456 49 37 25 
0.386122 0.292917 1.90385 93 89 80 
0.421659 0.33589 2.03058 124 114 104 
0.381014 0.280938 1.8612 14 8 0 
0.403937 0.317389 1.94218 19 9 0 
0.420812 0.341643 2.01398 40 32 19 
0.360873 0.283208 1.82809 108 100 89 
0.414762 0.345507 1.98708 115 109 95 
0.321179 0.271943 1.78447 15 4 0 
0.344899 0.287113 1.80149 145 130 109 
0.422253 0.372003 2.03029 22 12 3 
0.388042 0.312246 1.84809 37 29 18 
0.285653 0.260784 1.74858 20 7 0 
0.424823 0.377451 2.03064 36 26 17 
0.410013 0.354951 1.94437 146 137 122 
-0.292759 0.173356 1.85532 194 194 194 
0.417544 0.363876 1.95595 117 109 96 
0.376382 0.321498 1.82881 111 102 95 
0.221571 0.251432 1.70688 91 81 72 
0.388774 0.341839 1.88421 84 75 66 
0.414819 0.371727 1.96359 53 49 37 
-0.295578 0.174054 1.83196 59 58 56 
0.414234 0.36825 1.94069 137 131 119 
0.3571 0.314549 1.8008 40 35 29 
0.370944 0.322878 1.81734 23 16 6 
0.378937 0.34589 1.88951 31 22 17 
0.392967 0.359019 1.89744 130 120 110 
0.427379 0.406958 2.02878 43 35 22 
0.323665 0.306265 1.76753 105 92 75 
0.388425 0.357956 1.88283 129 121 110 
0.423814 0.388841 1.95716 59 49 40 
0.376481 0.33965 1.82188 136 126 114 
0.402446 0.375084 1.90601 38 28 18 
0.408468 0.385252 1.93044 37 27 17 
0.393174 0.475521 2.20942 87 85 72 
0.351504 0.335205 1.78491 45 35 26 
0.423657 0.415541 1.99083 31 21 9 
0.393623 0.382154 1.88794 88 78 68 
0.38531 0.370923 1.85034 39 32 22 
0.388253 0.371801 1.82379 24 17 7 
0.250693 0.312544 1.68733 35 28 18 
0.408403 0.416143 1.90307 123 119 107 
-0.0883397 0.250415 1.69763 81 80 75 
0.419712 0.442939 1.93711 54 44 32 
0.387351 0.393931 1.80213 34 26 15 
0.405494 0.424197 1.8821 113 103 91 
0.382571 0.408229 1.83513 9 0 0 
0.420944 0.44604 1.91898 67 60 44 
0.389699 0.406665 1.79886 52 44 33 
0.273846 0.350298 1.69147 15 5 0 
0.398943 0.435885 1.86882 125 115 103 
0.411551 0.449289 1.90086 129 117 103 
0.388224 0.414994 1.80491 108 102 88 
0.391156 0.438866 1.84782 133 121 107 
0.400241 0.444972 1.85469 128 120 109 
0.401435 0.455343 1.86975 55 46 37 
0.424544 0.486411 1.94284 56 48 35 
0.422626 0.504831 1.98989 18 10 0 
0.38918 0.439276 1.79081 90 84 72 
0.421589 0.485525 1.90454 62 56 44 
0.273609 0.376826 1.66952 16 13 6 
0.426473 0.498352 1.92738 43 33 23 
0.43129 0.51113 1.96033 146 137 128 
0.393103 0.449218 1.80074 107 103 91 
0.386448 0.439691 1.7744 53 45 32 
0.398847 0.457251 1.81514 131 122 113 
0.355394 0.427391 1.74089 112 106 94 
0.433029 0.511742 1.92916 53 44 35 
0.396114 0.457953 1.78824 113 104 97 
0.420474 0.487693 1.85809 12 3 0 
0.427527 0.498915 1.87728 23 16 6 
0.274859 0.398456 1.66732 113 103 91 
0.384866 0.453769 1.76467 56 50 36 
0.365385 0.447304 1.74304 110 102 91 
0.301483 0.419492 1.67961 100 93 85 
0.395074 0.47156 1.77529 21 12 5 
