ply                 
format ascii 1.0    
element vertex 1268
property float x    
property float y    
property float z    
property uchar red  
property uchar green
property uchar blue 
end_header          
-5.6977 -4.35705 33.0198 28 33 37 
-5.29379 -4.38573 33.2518 62 61 66 
-5.09433 -4.37993 33.3463 82 82 84 
-5.94131 -4.33507 33.0937 160 161 163 
-5.76268 -4.32356 33.0577 154 162 164 
-5.65921 -4.33377 33.1015 165 164 170 
-5.72747 -4.27576 33.1081 14 19 22 
-7.09238 -4.29408 33.362 87 92 95 
-8.89915 -4.31602 33.6095 204 218 219 
0.655787 -0.896738 7.01265 70 103 74 
-9.7519 -4.2668 33.5802 85 110 107 
-7.53311 -4.23997 33.4376 60 68 70 
-5.66963 -4.1953 33.1931 0 0 4 
-7.11392 -4.22042 33.4887 62 68 68 
-5.73344 -4.16519 33.0341 24 29 32 
-7.33255 -4.18223 33.4193 139 145 143 
-5.88484 -4.1152 33.1847 249 253 252 
0.971429 -0.867801 7.04774 220 239 220 
-5.72011 -4.10704 33.2239 38 43 46 
0.88061 -0.863788 7.03381 210 222 210 
0.900349 -0.864888 7.03422 209 230 211 
0.950898 -0.866099 7.04198 221 237 224 
-8.02721 -4.10088 33.5699 87 92 96 
0.961731 -0.856887 7.04327 73 113 79 
-6.07862 -3.99465 33.1058 248 250 249 
0.732954 -0.840109 7.01359 27 59 36 
0.648347 -0.837567 7.00403 232 236 235 
-4.91375 -4.02138 33.565 50 52 51 
-8.57639 -3.86876 32.8397 196 200 201 
-7.20922 -3.94204 33.4258 143 152 149 
-7.08436 -3.89342 33.2918 57 63 63 
1.02252 -0.821779 7.03783 81 98 80 
0.83297 -0.816268 7.01857 74 98 76 
0.033689 -0.802216 6.90689 111 105 105 
0.649307 -0.808083 6.99748 220 227 219 
1.19467 -0.787381 7.05782 88 125 94 
-6.30974 -3.64642 33.1448 15 24 23 
-9.60533 -3.22282 30.4668 0 5 8 
-9.28311 -3.22165 30.5796 1 6 9 
1.23121 -0.72899 7.06082 124 112 96 
0.916568 -0.708229 7.01314 228 246 224 
-6.35667 -3.36892 33.3966 11 21 22 
1.45742 -0.707926 7.07561 85 73 57 
0.906093 -0.696094 7.00878 79 107 85 
0.958686 -0.697271 7.01541 69 102 71 
0.969566 -0.688508 7.01579 217 240 214 
1.40997 -0.669666 7.06299 110 98 82 
1.04351 -0.65905 7.0171 68 112 77 
1.4094 -0.653673 7.05582 218 206 190 
1.40011 -0.64467 7.05852 95 83 67 
-8.61604 -2.76797 31.1422 55 64 63 
-6.47871 -2.88247 32.7285 13 19 19 
-5.63727 -2.89633 33.023 26 36 35 
-5.4945 -2.89632 33.0705 1 12 6 
1.31273 -0.613104 7.03736 97 83 72 
-5.69235 -2.85948 33.0047 182 191 190 
-8.77485 -2.63152 30.6188 75 87 85 
-7.2547 -2.7073 31.7651 60 61 63 
-8.79741 -2.55489 30.3209 62 75 68 
-8.61914 -2.61358 31.157 67 69 68 
1.33999 -0.592271 7.04869 221 209 197 
-7.24634 -2.65024 31.7077 71 75 76 
-6.52118 -2.71522 32.5044 19 19 21 
1.23814 -0.588291 7.02539 71 59 47 
-5.85296 -2.71117 32.5768 66 72 70 
-8.72709 -2.5147 30.5002 190 205 200 
0.962733 -0.577771 6.9911 68 108 73 
0.993698 -0.577749 6.99574 62 95 66 
-7.27701 -2.62469 32.0124 196 200 199 
1.07878 -0.575942 7.00972 219 243 217 
0.649861 -0.571254 6.96114 131 116 109 
-8.80484 -2.45695 30.3481 66 77 73 
-8.60962 -2.50755 31.1856 29 35 33 
-7.29285 -2.56448 31.8971 67 71 70 
-5.90043 -2.63351 32.8671 59 65 63 
-8.80166 -2.43048 30.4904 159 169 168 
0.844341 -0.554407 6.97644 68 81 71 
0.908579 -0.55552 6.98935 76 94 82 
-8.45711 -2.47734 31.3685 159 161 160 
-7.31666 -2.5037 31.6716 188 190 189 
-7.2647 -2.51975 31.9713 176 182 182 
0.781736 -0.552052 6.97033 80 87 80 
1.42862 -0.55657 7.03761 97 85 73 
-6.28193 -2.58562 32.8739 162 160 161 
0.720468 -0.548483 6.96443 69 86 76 
1.35471 -0.553405 7.03317 219 209 199 
-8.77047 -2.38266 30.5429 80 95 92 
0.872203 -0.547045 6.98223 79 111 87 
-8.65092 -2.42613 31.2915 39 48 45 
-8.54119 -2.43717 31.4545 68 72 71 
-8.40545 -2.43164 31.3968 36 36 34 
-7.46291 -2.4705 31.9338 28 28 28 
-7.29716 -2.46839 31.9299 71 75 74 
-7.26211 -2.49029 32.2529 27 29 28 
-6.37309 -2.53652 32.8699 11 11 11 
-6.03913 -2.55186 33.0471 43 49 47 
1.24445 -0.54099 7.02505 59 44 37 
-8.80649 -2.33282 30.4835 178 190 190 
0.940379 -0.535997 6.98561 64 82 66 
-8.77581 -2.34105 30.7053 181 195 195 
-8.46413 -2.3849 31.4141 196 196 196 
-8.06707 -2.37876 31.1985 173 173 171 
0.81864 -0.53388 6.96817 69 101 77 
1.36488 -0.53757 7.03046 221 211 202 
-7.27826 -2.43198 32.0781 161 165 164 
1.39199 -0.53481 7.03086 218 205 196 
1.42189 -0.534575 7.05161 152 139 130 
0.848039 -0.526383 6.97443 83 96 87 
-8.79076 -2.33107 31.2832 82 97 94 
-8.63133 -2.32655 31.2766 51 55 54 
-7.94496 -2.30574 30.9512 25 28 21 
-7.52407 -2.38993 32.1961 27 29 24 
-7.30704 -2.3773 31.9837 55 59 58 
-7.25513 -2.39194 32.2526 10 12 9 
-6.35776 -2.42967 32.7738 11 11 11 
-6.05353 -2.45713 33.1284 41 47 45 
0.765523 -0.51942 6.96217 212 236 212 
-6.51689 -2.37431 31.9764 4 3 0 
0.654796 -0.518924 6.9524 124 111 103 
1.39419 -0.523088 7.0316 68 55 46 
1.06522 -0.514959 6.9894 69 108 77 
-8.80039 -2.25298 30.8179 181 197 194 
-8.50995 -2.30093 31.5936 201 199 200 
-7.27441 -2.30465 31.5453 180 182 179 
-7.2563 -2.33063 31.9666 178 183 179 
-7.45965 -2.2876 31.4093 158 154 151 
0.730185 -0.502693 6.95663 70 107 76 
-9.57547 -2.16858 30.3996 71 83 81 
-8.81441 -2.23158 31.2902 101 116 113 
-8.66714 -2.23498 31.3779 63 65 64 
-7.99223 -2.22132 31.1535 51 56 50 
-6.00005 -2.34633 32.9439 33 42 39 
0.562362 -0.498501 6.93941 168 164 163 
-7.29718 -2.21668 31.6674 171 173 172 
-8.78492 -2.15303 30.7749 178 194 191 
-7.88542 -2.23342 32.1154 173 174 166 
-7.30022 -2.24533 32.2058 187 187 185 
-7.15894 -2.26862 32.6463 186 183 176 
-8.8937 -2.12802 30.9934 80 96 93 
-8.72189 -2.14711 31.557 38 42 41 
-8.4822 -2.13206 31.2819 64 73 72 
-7.51847 -2.1883 32.1446 43 42 38 
-7.28989 -2.20729 32.4409 26 26 24 
-7.09379 -2.21905 32.6022 4 0 0 
-6.32195 -2.22679 32.606 11 9 10 
-8.77496 -2.12657 31.2784 46 58 56 
-8.05916 -2.11988 31.0475 40 39 34 
-7.98629 -2.12485 31.1382 44 45 39 
-7.80198 -2.17898 32.0134 16 16 6 
-7.30439 -2.18318 32.0107 75 77 74 
-7.21954 -2.21934 32.6551 19 16 9 
-6.78993 -2.22404 32.6835 13 8 5 
-8.81301 -2.04805 30.537 180 199 195 
-8.0153 -2.14378 32.277 161 157 148 
1.06736 -0.469793 6.98369 219 244 222 
1.08097 -0.465611 6.9821 67 111 76 
-8.79466 -2.01812 30.6338 68 89 84 
1.05333 -0.464263 6.97964 64 109 70 
1.00794 -0.459718 6.97383 74 116 76 
-9.57451 -1.97584 30.396 79 89 88 
-9.20242 -2.03991 31.3613 108 129 124 
-8.69899 -2.04695 31.5053 51 55 54 
-8.48793 -2.06486 31.8106 17 17 15 
-7.92074 -2.08682 32.0668 47 42 36 
-7.5591 -2.10514 32.3681 32 28 25 
-7.2795 -2.10818 32.4037 19 19 17 
-7.21544 -2.12181 32.6438 18 15 6 
-6.74155 -2.11354 32.4563 26 22 19 
-6.73698 -2.14711 33.0271 10 7 2 
0.839138 -0.453366 6.95664 61 98 65 
1.02138 -0.454298 6.97292 213 234 217 
-7.28021 -2.03302 31.6944 168 166 167 
1.05939 -0.452467 6.97932 222 245 229 
1.25382 -0.452112 7.00396 26 13 5 
-7.7766 -2.04987 32.2277 175 166 159 
-7.30002 -2.05477 32.2711 140 136 135 
0.85174 -0.447612 6.95219 212 240 218 
1.43177 -0.444058 6.9974 235 222 213 
-7.89102 -1.98464 31.9369 52 43 36 
-7.59008 -2.01844 32.5465 32 24 21 
-7.06762 -2.0207 32.5462 33 25 22 
-6.74797 -2.02307 32.5136 21 16 12 
1.08243 -0.44004 6.98021 68 112 76 
1.33029 -0.440457 7.0065 91 81 71 
-8.62094 -1.93644 31.2291 69 65 64 
-8.28429 -1.93376 31.1228 23 11 11 
-7.82396 -1.99453 32.1621 41 32 25 
-7.29336 -2.01518 32.4892 20 9 5 
1.2692 -0.434962 6.99773 24 14 4 
1.48909 -0.437182 7.01461 154 142 128 
-7.84123 -1.9533 31.9535 136 125 119 
1.28598 -0.432861 6.99475 218 208 199 
-9.32275 -1.90067 31.2504 162 168 164 
1.51547 -0.426026 7.01342 81 69 55 
1.26857 -0.423434 6.99944 218 208 196 
1.08345 -0.41826 6.9728 75 116 82 
1.30164 -0.417147 6.99485 231 221 212 
1.35425 -0.415732 6.99708 93 83 73 
1.58434 -0.417895 7.01465 85 73 61 
1.34308 -0.412762 7.00231 216 206 196 
1.29588 -0.40927 7.00772 110 99 93 
1.3661 -0.409085 6.99842 218 208 198 
1.08102 -0.404232 6.97107 210 247 216 
1.41382 -0.40451 7.00437 222 212 203 
1.5197 -0.40402 7.00513 58 45 36 
1.43326 -0.401722 7.00168 242 231 225 
1.38141 -0.397571 6.99715 92 82 70 
1.4724 -0.395923 7.00702 117 105 93 
1.42587 -0.394382 7.00288 138 127 121 
1.44333 -0.393844 7.00138 59 49 40 
1.47483 -0.381442 7.00148 217 204 195 
1.43248 -0.379301 6.99962 216 206 196 
1.41899 -0.37659 6.99961 50 37 28 
1.47148 -0.325339 6.9885 232 218 209 
1.5134 -0.324618 6.99701 153 143 134 
1.36907 -0.322556 6.98491 24 16 3 
1.50186 -0.315169 6.98879 214 204 195 
1.352 -0.307268 6.97563 34 24 14 
1.22557 -0.305452 6.95881 65 84 64 
1.5733 -0.304186 6.99349 218 208 199 
-7.8899 -1.28344 31.1104 172 166 152 
0.996447 -0.275119 6.94142 27 22 19 
0.736641 -0.265387 6.91682 49 44 40 
-7.67118 -1.02423 29.8654 74 77 58 
-7.60557 -0.993054 29.8444 226 228 214 
-8.57286 -0.941716 30.1357 25 25 13 
-0.533886 -0.194344 6.72529 16 14 15 
-7.61462 -0.801612 29.668 9 10 4 
-7.20338 -0.816994 30.1593 239 235 232 
-8.32909 -0.779337 29.8193 240 240 238 
-0.265178 -0.166589 6.75395 68 66 67 
-6.59087 -0.640033 30.0353 59 44 37 
-0.437953 -0.136435 6.72432 215 215 215 
-7.63488 -0.403399 29.4588 77 56 51 
-8.65355 -0.355091 28.8726 69 52 45 
-0.762543 -0.0724855 6.65554 222 223 225 
-8.63592 -0.259297 28.8477 80 56 52 
-0.725544 -0.0337691 6.55899 7 7 9 
-0.529117 -0.0304188 6.68999 44 42 43 
-8.68673 -0.00623303 28.7981 255 253 244 
-8.64196 -0.00415754 28.9582 220 206 197 
0.398147 -0.0104544 6.81719 215 215 213 
-0.595059 -0.00885689 6.67222 198 196 197 
-0.584323 0.00237175 6.6731 40 38 39 
0.348643 0.0446535 6.79158 35 35 35 
-8.57413 0.267334 28.76 70 58 42 
-8.95667 0.300338 28.4357 88 70 50 
-0.66993 0.11246 6.62801 17 15 16 
-0.333926 0.115598 6.69115 47 45 46 
0.181446 0.150684 6.7449 207 207 207 
0.0327031 0.156039 6.74139 36 36 36 
-0.273831 0.176754 6.69203 229 227 228 
0.0253349 0.186593 6.73431 208 206 207 
-0.900167 0.205398 6.57394 194 194 196 
-0.887569 0.211398 6.57815 11 11 13 
-1.04271 0.21232 6.55098 209 209 209 
-0.12211 0.219575 6.70767 22 22 22 
0.644915 0.226313 6.81341 22 20 23 
-0.842316 0.218715 6.59093 218 218 220 
-0.659887 0.231921 6.6198 221 223 222 
-1.00388 0.252577 6.55032 39 39 41 
-0.706263 0.254059 6.60052 184 186 185 
-0.877404 0.262125 6.55475 222 222 224 
-0.929696 0.270172 6.55612 224 222 227 
-0.687963 0.27356 6.60501 17 19 18 
-0.0789742 0.294701 6.69849 200 200 202 
-0.533471 0.323137 6.60424 19 19 19 
-0.972619 0.322577 6.53252 18 18 20 
-0.048564 0.344406 6.68681 38 36 37 
-1.14079 0.356648 6.50435 121 121 123 
-1.10475 0.365773 6.5029 14 14 16 
0.0344748 0.379657 6.68368 31 29 30 
0.24881 0.388487 6.70439 38 38 38 
-0.583974 0.390155 6.59951 20 20 20 
0.262157 0.400579 6.71021 19 17 18 
0.241516 0.401608 6.68878 22 22 22 
-0.872325 0.412661 6.54121 20 20 22 
-0.156512 0.436608 6.63885 233 233 233 
-0.836179 0.435432 6.54214 180 180 182 
-0.147384 0.445883 6.63744 20 20 22 
-0.0133804 0.448756 6.66439 217 215 216 
0.0459226 0.449085 6.66664 231 227 226 
-0.414045 0.471987 6.61763 5 5 7 
-0.11139 0.473658 6.64793 50 48 49 
-0.0174187 0.474742 6.64041 47 45 46 
0.256724 0.480685 6.68272 232 232 232 
0.0335837 0.483344 6.66776 58 54 55 
-0.421846 0.48411 6.61557 225 225 227 
-0.103561 0.486689 6.64457 236 232 233 
-0.00594299 0.486518 6.65502 212 211 209 
0.246696 0.488867 6.68465 24 24 24 
0.0245926 0.492288 6.66094 193 187 189 
-0.113708 0.492016 6.63836 18 18 18 
-0.0322868 0.496047 6.64801 233 232 228 
-0.144855 0.508327 6.63608 28 26 27 
-0.388249 0.507372 6.60982 228 228 228 
0.297165 0.515844 6.67739 224 222 223 
-0.152425 0.519985 6.63815 228 226 227 
0.03545 0.527154 6.6451 58 57 55 
1.2109 0.540719 6.74107 99 97 98 
1.22793 0.545818 6.73228 152 150 151 
-0.927331 0.528158 6.50903 22 22 24 
-0.00331683 0.542931 6.64475 25 25 27 
-0.239517 0.55193 6.62714 215 217 216 
-0.817896 0.543178 6.53166 19 19 21 
0.036699 0.563902 6.64713 115 114 112 
-0.487338 0.564 6.57673 216 216 216 
-0.503738 0.565123 6.5753 231 231 231 
0.044619 0.572292 6.64216 218 214 213 
-0.863915 0.560239 6.51208 24 24 26 
-0.435922 0.572062 6.57466 28 28 28 
0.0367624 0.580304 6.6397 69 65 64 
-0.39991 0.580208 6.59529 231 231 231 
-0.166875 0.591582 6.62316 29 29 29 
-0.527906 0.599367 6.55937 224 224 222 
0.0425885 0.608949 6.63353 202 198 197 
1.06816 0.623112 6.70605 133 133 135 
-0.541442 0.608375 6.55264 20 20 20 
0.0457374 0.623308 6.62902 224 220 219 
0.0237607 0.62513 6.62151 150 150 150 
-0.547904 0.618456 6.54663 203 202 207 
-0.961691 0.62022 6.48507 225 225 227 
-0.561757 0.625649 6.55025 32 31 36 
-0.952177 0.641868 6.47962 35 35 37 
-0.970352 0.65086 6.47399 1 1 3 
0.0478662 0.684997 6.6047 38 37 35 
0.0247609 0.689836 6.60412 41 41 41 
-0.504213 0.689318 6.54345 19 19 19 
-0.554057 0.691924 6.52495 24 24 24 
-0.492722 0.726996 6.53236 32 32 32 
-0.0636166 0.783137 6.57574 229 235 235 
0.0262559 0.811406 6.56452 70 65 62 
0.120732 0.83237 6.57907 88 84 83 
0.130489 0.854097 6.57459 121 121 113 
0.0963574 0.897546 6.55707 136 134 121 
1.05552 0.921855 6.61268 121 117 106 
2.44675 1.75199 9.23479 41 21 14 
2.13851 1.77691 9.03813 220 185 179 
2.11114 1.7799 8.97304 130 97 90 
2.70642 1.76848 8.81583 45 14 9 
1.82127 1.80336 8.74932 232 195 187 
1.82875 1.81719 8.74547 81 44 36 
2.21166 1.80034 8.63849 240 223 215 
1.05171 1.38215 6.51909 246 235 229 
2.4935 1.81398 8.49519 65 32 23 
2.17923 1.84669 8.24496 82 53 45 
2.45561 1.84648 8.09609 49 22 13 
1.88118 1.89966 7.75627 51 41 32 
2.01633 1.92909 7.42049 164 144 137 
1.46765 1.99544 6.87841 19 6 0 
1.47235 2.00144 6.81217 39 30 23 
1.47022 2.01948 6.67754 126 121 117 
-0.866167 1.89375 6.24586 160 159 154 
-0.76333 1.92483 6.25367 82 79 72 
1.24357 2.0452 6.48569 85 82 73 
1.20504 2.05194 6.48394 190 187 180 
-0.212972 2.13989 6.30085 38 28 19 
-0.48948 2.12944 6.26611 132 128 119 
-0.177836 2.15565 6.30235 173 165 152 
-0.269433 2.15283 6.29134 210 198 184 
-0.186949 2.15307 6.29138 146 138 127 
-0.228856 2.16301 6.28799 136 126 117 
-0.478557 2.15848 6.2641 135 125 113 
-0.232324 2.16685 6.26481 35 28 22 
-0.519728 2.17156 6.26062 234 225 216 
-0.690749 2.16969 6.23819 135 129 117 
-0.435772 2.18011 6.26503 87 78 69 
-0.369065 2.18463 6.27883 32 23 14 
-0.467652 2.18312 6.26895 222 212 203 
-0.63999 2.17568 6.24634 99 96 87 
-0.479458 2.19322 6.2672 68 59 54 
-0.461528 2.19232 6.26567 66 57 52 
-0.673743 2.18783 6.24035 222 214 203 
-0.651626 2.19381 6.24276 195 185 176 
-0.6222 2.19686 6.24781 67 52 45 
1.59321 2.09466 5.86333 194 177 169 
1.26571 2.11373 5.91106 182 165 157 
0.297785 2.14137 5.97291 40 29 27 
-0.113789 2.18442 6.05195 42 37 33 
0.355855 2.15233 5.95097 155 134 129 
-0.407551 2.20786 6.0822 142 137 133 
0.287905 2.15921 5.92979 149 145 144 
0.214608 2.16884 5.93134 64 56 54 
0.115164 2.17278 5.91918 35 31 32 
0.145177 2.1782 5.90449 189 189 191 
0.134234 2.1803 5.90534 61 59 60 
0.0728355 2.18244 5.89266 179 166 160 
0.145051 2.18187 5.88002 48 43 40 
0.167509 2.17754 5.85538 144 136 134 
0.222782 2.18315 5.8146 154 146 143 
-0.0547244 2.19655 5.85077 130 119 113 
0.201692 2.18491 5.80396 141 133 130 
0.632357 2.17398 5.6784 245 228 220 
0.618111 2.17318 5.66776 255 241 232 
0.603952 2.17388 5.66277 235 218 210 
0.253581 2.2044 5.68121 240 231 222 
-0.093725 2.22031 5.72003 211 192 188 
0.0873313 2.20809 5.68579 195 185 176 
1.15211 2.1562 5.54723 179 151 147 
0.597122 2.19374 5.52068 202 183 176 
1.44518 2.15195 5.40621 139 124 117 
1.26138 2.17162 5.33788 233 206 199 
1.28794 2.17178 5.32134 179 160 153 
1.44883 2.16583 5.26082 249 225 221 
0.474842 2.21993 5.33751 199 179 170 
1.19732 2.18555 5.1867 215 190 183 
1.15553 2.19322 5.15228 189 165 155 
0.172136 2.2491 5.24782 162 144 140 
1.07075 2.2019 5.13206 213 190 182 
0.563482 2.22951 5.15407 62 42 31 
0.617478 2.23692 5.06357 179 146 139 
0.538162 2.23883 5.05785 200 156 145 
-5.56544 -7.04928 32.0697 216 225 232 
-5.67019 -6.97266 32.1241 29 40 46 
-4.16538 -7.18689 33.1924 159 169 171 
-4.40328 -7.1192 32.9701 50 62 60 
-5.55733 -6.91741 32.0843 227 236 243 
-9.44253 -6.99564 32.4686 195 205 207 
-5.17516 -6.95751 32.3089 197 204 212 
-4.58329 -7.00506 32.53 168 181 174 
-4.29977 -7.13638 33.1189 34 46 46 
-5.31529 -6.9207 32.2302 166 175 182 
-4.47694 -7.06358 32.9202 170 178 180 
-6.65071 -6.96167 32.4641 113 131 133 
-6.44287 -6.83422 32.1604 241 246 249 
-6.67226 -6.84003 32.26 235 244 249 
-6.97854 -6.8615 32.3881 88 97 102 
-6.2931 -6.79663 32.3801 115 125 127 
-5.67644 -6.77157 32.2597 91 100 109 
-7.02692 -6.74297 32.4979 74 81 87 
-4.87104 -6.7855 32.7549 13 16 21 
-6.27381 -6.6586 32.3556 73 81 84 
-3.53016 -6.96248 33.8045 153 156 161 
-6.46062 -6.55803 32.3303 241 245 248 
-7.44551 -6.58492 32.5438 101 106 110 
-4.63353 -6.47361 32.0501 62 66 67 
-7.00879 -6.53549 32.4794 107 112 116 
-4.55227 -6.63747 33.0057 62 68 66 
-4.41269 -6.67841 33.1606 68 74 74 
-6.73538 -6.49854 32.4797 226 234 237 
-6.96003 -6.49146 32.5599 216 221 225 
-7.44021 -6.45931 32.6056 75 79 88 
-6.83484 -6.44045 32.6937 101 119 119 
-7.92649 -6.37881 32.7231 91 98 104 
-9.25169 -6.31137 32.7895 55 65 74 
-9.52569 -6.35739 33.0785 238 243 246 
-8.11677 -6.26047 32.7174 237 241 244 
-10.0885 -6.25356 33.06 199 208 217 
-8.80437 -6.18744 32.9977 209 221 221 
-8.17813 -6.05404 32.7084 109 125 124 
-4.77869 -5.5833 33.4077 88 107 105 
-4.5339 -5.54233 33.2943 72 88 87 
-4.82177 -5.47161 33.2232 158 159 164 
-6.78016 -5.29669 32.9907 224 235 237 
-6.83263 -5.20226 33.0112 134 153 151 
-8.13429 -5.0609 33.0185 238 250 250 
-8.3556 -5.10254 33.4162 230 244 244 
-8.61921 -5.01011 33.1818 216 226 227 
-8.85986 -4.90932 33.3278 83 97 97 
-9.5207 -4.8747 33.3277 235 249 250 
-6.51962 -4.85091 33.0996 223 238 235 
-8.7864 -4.86261 33.3553 181 206 202 
-8.70434 -4.90315 33.5891 198 217 215 
-6.80111 -4.83749 33.2854 201 217 214 
-6.59306 -4.77612 33.1778 86 113 106 
-5.60365 -4.74257 32.9378 211 215 224 
-6.7233 -4.79142 33.3876 104 127 121 
-5.21025 -4.74891 33.1103 191 202 208 
-9.6146 -4.79284 33.4589 119 135 134 
-6.9706 -4.74142 33.2857 170 189 187 
-5.70315 -4.67048 33.0221 44 48 57 
-6.25753 -4.67326 33.146 188 195 203 
-5.08137 -4.67194 33.1581 68 71 78 
-6.82881 -4.64894 33.149 60 72 70 
-5.59698 -4.60275 32.9401 214 219 225 
-6.53403 -4.61483 33.1797 237 241 244 
-6.74951 -4.60293 33.1805 233 237 238 
-6.32927 -4.60041 33.1989 51 60 65 
-6.25604 -4.54192 33.2019 193 197 206 
-5.34712 -4.52244 33.1372 164 169 175 
-7.45548 -4.53435 33.416 191 199 210 
0.639322 -0.943533 7.01783 208 209 203 
-6.27537 -4.46432 33.3507 194 201 209 
-7.93968 -4.46703 33.446 198 208 218 
0.746067 -0.935335 7.02767 45 58 51 
-7.51589 -4.4508 33.4014 78 87 94 
-8.58156 -4.43669 33.4992 110 136 133 
-8.71039 -4.41263 33.4654 151 178 173 
-8.37539 -4.4036 33.4908 229 245 245 
-8.21002 -4.40564 33.4717 238 250 248 
0.913781 -0.922694 7.0469 84 124 90 
0.983159 -0.924471 7.05702 79 120 86 
-8.89387 -4.39407 33.5334 103 122 120 
-8.00629 -4.387 33.4574 70 81 87 
0.861877 -0.919981 7.04334 79 121 85 
-7.03403 -4.37302 33.4468 200 205 208 
-5.58444 -4.31232 33.0285 186 190 193 
-8.67511 -4.37622 33.6024 226 236 238 
0.646574 -0.90928 7.01463 210 217 201 
-9.60889 -4.38795 33.7486 215 229 229 
-9.73597 -4.36285 33.6819 200 220 218 
-7.45412 -4.31269 33.4743 189 199 201 
-5.66499 -4.2446 33.0508 35 36 41 
-9.60078 -4.28057 33.5272 71 87 86 
-7.73406 -4.27322 33.5038 232 237 241 
-7.95986 -4.2594 33.5954 196 207 211 
-9.85867 -4.26351 33.6438 99 124 121 
-8.93378 -4.252 33.5654 72 86 87 
-9.70642 -4.22378 33.6525 223 237 237 
-9.54244 -4.19374 33.5247 234 244 245 
-9.37103 -4.20464 33.6173 81 91 101 
0.645009 -0.869345 7.00778 223 225 214 
-5.08241 -4.14218 33.3619 93 95 92 
-10.1427 -4.15177 33.5668 192 202 211 
1.03958 -0.8613 7.05191 211 234 214 
-5.35544 -4.07201 33.3045 190 189 194 
0.659884 -0.85369 7.00353 32 56 40 
1.00698 -0.85769 7.04555 211 217 207 
-5.91493 -4.04526 33.2425 239 244 240 
0.810847 -0.852285 7.02353 207 230 210 
0.845334 -0.85226 7.03248 213 219 209 
0.751716 -0.849869 7.02487 89 128 97 
-5.55599 -4.00459 33.2337 17 20 25 
-5.38781 -3.97063 33.0281 42 42 44 
-5.70349 -3.98763 33.2319 31 37 37 
-5.30597 -4.01003 33.4078 32 37 40 
0.624887 -0.83649 7.00083 226 218 215 
1.05062 -0.843316 7.05193 84 114 90 
-6.13618 -3.94514 33.3819 26 30 29 
-8.39462 -3.91517 33.272 241 245 246 
-8.03494 -3.86075 32.8727 250 255 255 
1.00846 -0.825293 7.04908 217 230 213 
1.0439 -0.825529 7.04962 204 227 207 
-7.26304 -3.90591 33.3607 231 235 234 
0.813237 -0.817003 7.01983 219 229 220 
0.84872 -0.817955 7.02169 208 231 213 
-6.19518 -3.83738 33.2484 172 178 176 
0.804058 -0.7966 7.01882 51 58 51 
1.20393 -0.797875 7.05316 233 237 222 
-6.10776 -3.73931 33.1738 34 43 40 
0.668041 -0.77991 7.0009 90 118 96 
0.642691 -0.771741 6.99192 84 78 78 
0.652074 -0.7534 6.99067 216 212 200 
-8.55233 -3.26581 31.406 19 24 28 
-7.42621 -3.3141 32.3868 22 26 29 
0.65575 -0.708038 6.9833 215 213 200 
0.984107 -0.698393 7.017 75 117 81 
0.930892 -0.695751 7.01382 73 112 81 
1.00109 -0.693005 7.01279 219 243 221 
0.900263 -0.68854 7.00742 81 121 94 
0.648727 -0.684171 6.97672 62 61 59 
0.674264 -0.682416 6.98645 63 74 68 
0.951134 -0.68271 7.01255 211 225 208 
-7.599 -3.09999 32.344 6 10 13 
0.85292 -0.671148 6.99737 215 219 218 
0.88681 -0.673055 7.00639 213 234 219 
1.03122 -0.673631 7.0196 221 231 222 
0.96898 -0.669348 7.01325 89 126 95 
0.65737 -0.664665 6.97566 216 212 200 
0.992727 -0.666313 7.01697 214 224 215 
0.871116 -0.655365 7.00013 92 129 98 
0.900314 -0.656043 7.00421 82 133 92 
1.01065 -0.654831 7.01192 94 116 95 
0.921297 -0.641865 7.00368 216 234 218 
0.952105 -0.643358 7.00695 222 241 221 
0.854033 -0.639355 6.99481 221 235 220 
-8.80835 -2.78656 31.0843 68 83 80 
-7.20515 -2.85032 32.0714 28 35 41 
-6.61297 -2.90827 32.7831 10 14 15 
-6.33743 -2.8909 32.5737 7 18 14 
-7.27314 -2.78284 32.0282 210 212 211 
-6.30084 -2.84254 32.839 208 217 214 
-6.46981 -2.75903 31.9867 128 126 127 
-9.10027 -2.60699 30.6401 37 47 39 
-8.81732 -2.58505 30.3507 58 73 66 
-8.63343 -2.64643 31.2117 65 67 66 
-8.12077 -2.64159 31.1363 14 19 15 
1.31011 -0.595439 7.03665 222 208 197 
-7.59535 -2.72961 32.4005 21 23 22 
-7.26144 -2.72456 32.3378 25 29 30 
-6.41688 -2.69773 32.0387 22 22 24 
-6.54404 -2.78736 33.1894 27 29 28 
-6.39399 -2.76411 32.901 18 24 22 
-5.86075 -2.73935 32.5662 69 75 73 
1.05061 -0.590766 7.00396 212 236 214 
1.12099 -0.592871 7.01711 216 226 215 
1.13977 -0.591876 7.01305 70 123 79 
1.20387 -0.593574 7.03078 81 126 93 
1.0686 -0.588029 7.00485 81 129 87 
-9.6404 -2.7832 33.4135 168 181 174 
1.03319 -0.58303 7.00639 75 128 82 
-6.50947 -2.64275 32.1422 147 150 143 
1.08347 -0.574498 7.0066 227 246 226 
1.18624 -0.574137 7.01353 214 233 211 
1.15145 -0.573016 7.01584 213 231 209 
1.02028 -0.57037 7.00932 225 233 222 
1.05616 -0.567431 6.99986 217 227 218 
0.955288 -0.564346 6.99149 216 226 215 
0.98979 -0.562145 6.99515 223 230 222 
0.704825 -0.555878 6.96439 218 236 220 
1.35625 -0.558694 7.03318 191 181 171 
1.07403 -0.554279 7.00196 85 125 98 
0.765685 -0.550304 6.97313 214 231 215 
0.92772 -0.549839 6.98394 215 229 216 
0.972156 -0.551532 6.99096 71 105 80 
1.00668 -0.552756 6.9942 83 123 89 
1.41341 -0.552106 7.03704 222 209 200 
0.809788 -0.545621 6.97603 94 126 102 
0.890322 -0.542212 6.97493 221 228 221 
1.33038 -0.54576 7.03069 212 202 192 
0.734103 -0.539653 6.96492 206 220 207 
1.07453 -0.542944 6.99475 89 130 98 
0.690589 -0.538588 6.96138 89 137 99 
0.75582 -0.532401 6.96333 87 121 94 
1.16983 -0.534575 7.00189 222 227 220 
0.909147 -0.531309 6.9775 78 94 84 
1.40562 -0.53489 7.02663 132 119 110 
1.1248 -0.529537 7.00268 217 232 213 
0.701048 -0.522191 6.96142 211 224 214 
0.721095 -0.523935 6.96035 76 96 84 
0.804184 -0.524516 6.96993 213 227 212 
0.956447 -0.523598 6.98429 211 225 208 
0.990953 -0.525308 6.98707 219 236 220 
1.02509 -0.526039 6.99079 219 238 219 
1.15355 -0.521144 7.00338 74 119 80 
1.00782 -0.512806 6.98628 75 128 86 
0.816871 -0.508737 6.97033 82 128 89 
0.75718 -0.503561 6.95998 83 131 93 
0.686375 -0.500818 6.94736 90 136 97 
1.16287 -0.504745 7.00106 221 245 223 
-8.76316 -2.20032 31.4481 198 210 208 
-6.3585 -2.21652 33.2457 171 171 171 
0.97905 -0.457532 6.97391 87 127 90 
1.03334 -0.451696 6.99146 216 233 223 
0.883251 -0.447269 6.95939 54 100 64 
0.929671 -0.448872 6.96837 220 234 219 
-8.48284 -1.99968 31.5393 181 177 178 
0.999139 -0.445864 6.96978 217 227 219 
0.901769 -0.444616 6.96423 221 231 223 
0.831571 -0.439148 6.95642 213 218 211 
1.01785 -0.433891 6.97194 74 115 81 
1.44276 -0.437132 7.01395 222 210 196 
0.852064 -0.426278 6.96122 81 131 94 
0.918632 -0.415457 6.95602 83 129 92 
1.28604 -0.417696 6.99329 57 47 38 
0.851256 -0.414353 6.94881 84 125 91 
1.0377 -0.406881 6.96593 213 230 214 
1.07415 -0.406576 6.97025 209 231 210 
1.00063 -0.405408 6.96295 205 222 204 
0.835686 -0.398934 6.9457 220 230 222 
0.904908 -0.400559 6.96227 227 245 231 
0.885848 -0.39607 6.9513 83 133 96 
0.986497 -0.391391 6.96412 83 141 93 
1.31834 -0.390875 6.98559 217 207 198 
0.850252 -0.380784 6.94358 97 134 103 
0.833507 -0.374591 6.94425 213 225 215 
1.3826 -0.350595 6.99004 58 48 39 
1.36197 -0.33679 6.9816 215 205 195 
-8.18537 -1.30572 31.1622 143 140 125 
1.2078 -0.297134 6.9803 204 212 199 
0.699223 -0.293263 6.91424 87 139 100 
0.827177 -0.285839 6.9189 211 222 206 
1.22902 -0.283254 6.97267 119 115 106 
-6.67397 -1.21205 31.0516 6 13 5 
-6.54596 -1.07681 30.708 8 11 4 
-6.99909 -1.0293 30.8113 28 29 23 
-7.50524 -1.00394 30.1885 223 220 215 
-8.33462 -0.954866 29.6662 41 42 34 
-6.9689 -0.956109 30.3777 243 240 235 
-7.59934 -0.923677 29.9495 27 29 18 
-8.0095 -0.886977 30.1255 58 60 47 
-7.60206 -0.880739 30.382 234 235 230 
-0.48223 -0.204182 6.74308 31 29 30 
-0.433612 -0.203016 6.74878 31 29 30 
-8.6949 -0.788042 28.6946 255 255 246 
-0.378639 -0.192929 6.75761 28 26 27 
-8.64897 -0.749029 28.7659 45 45 33 
-0.343072 -0.182541 6.7547 226 226 226 
-0.2842 -0.150217 6.75016 109 107 108 
-0.386651 -0.122083 6.73157 219 219 219 
-0.304419 -0.114315 6.74094 226 224 225 
-0.638372 -0.107227 6.68 26 26 28 
-0.507669 -0.0984145 6.70251 217 217 217 
-0.46226 -0.0856359 6.70937 219 219 219 
-8.65506 -0.301482 28.7141 253 243 234 
-0.503223 -0.0773412 6.70351 21 21 21 
-0.857976 -0.0694367 6.62112 23 23 25 
-7.59709 -0.18466 29.6138 252 250 238 
-0.520608 -0.0519154 6.69451 201 201 203 
-7.25397 -0.156401 30.2709 69 61 48 
-7.30836 -0.136835 29.8977 66 57 42 
-7.99125 -0.100924 29.3263 226 206 197 
-7.66346 -0.093992 29.6011 69 59 49 
-7.95829 -0.0392557 29.4726 72 70 55 
-0.573636 -0.0219636 6.67839 211 209 210 
-8.64825 -0.0283794 28.788 247 247 239 
-0.67066 -0.0147237 6.67012 19 17 18 
-8.21156 -0.00168648 29.0833 89 75 64 
-7.94747 0.0217511 29.1977 130 122 109 
-8.46049 0.0360563 28.9705 78 69 54 
-7.23927 0.139174 29.5692 63 47 34 
-7.1499 0.140089 29.6601 60 42 30 
0.0746388 0.0224577 6.75378 227 226 224 
-8.47038 0.185325 28.8771 137 127 115 
-7.74472 0.20626 29.3491 29 11 1 
-8.06769 0.220679 29.2343 83 70 54 
-8.11352 0.238039 28.7761 78 62 49 
-0.503004 0.0511583 6.67476 16 16 16 
-0.684316 0.054894 6.6461 26 24 25 
-0.925315 0.0560754 6.59568 220 220 220 
-0.775093 0.0649416 6.61777 18 18 18 
-0.100872 0.0691905 6.74873 35 33 34 
-0.721316 0.0749908 6.6334 19 17 18 
7.95287 0.338896 23.2077 185 178 162 
-1.0588 0.0987071 6.55517 200 200 200 
-0.830789 0.140795 6.60215 25 25 25 
-0.873366 0.149384 6.59135 212 212 214 
-0.810396 0.147952 6.60795 214 214 214 
-0.46681 0.150959 6.66316 26 26 26 
0.217462 0.152719 6.75898 218 218 218 
0.421251 0.157517 6.78359 29 29 29 
-0.281003 0.160643 6.69738 13 11 12 
-0.0658804 0.162232 6.72405 237 235 236 
0.135027 0.168014 6.75101 22 24 23 
-0.454471 0.17181 6.6675 233 229 230 
-1.0485 0.170783 6.53429 26 26 26 
-0.0765926 0.177572 6.71906 30 28 29 
-0.499002 0.178488 6.64897 225 225 225 
-0.859371 0.177724 6.59399 210 210 212 
0.0417835 0.18237 6.73358 49 49 51 
7.166 0.597025 19.3099 235 218 200 
-0.482469 0.193371 6.64105 24 26 25 
-0.464434 0.19495 6.63376 24 26 25 
-0.852161 0.195847 6.5905 223 223 225 
-1.03838 0.197058 6.55281 18 18 18 
-0.319313 0.20253 6.692 223 223 223 
-0.957841 0.201916 6.56649 207 207 209 
-0.451986 0.213491 6.65024 220 218 219 
0.224008 0.216144 6.73588 223 221 222 
-0.940557 0.210742 6.56686 29 29 31 
-0.652573 0.215933 6.61855 219 221 220 
-0.48806 0.219827 6.64616 227 229 228 
-1.02803 0.220349 6.55108 18 18 18 
-0.159885 0.225051 6.68986 24 24 26 
-0.0950829 0.227556 6.70879 66 66 66 
-0.966294 0.227044 6.56216 44 43 48 
0.0328468 0.23441 6.69407 33 31 34 
-0.891159 0.229789 6.58059 227 227 229 
-1.00116 0.232662 6.55221 218 218 220 
-0.947253 0.233188 6.56823 206 205 210 
-0.694485 0.235435 6.61791 24 26 25 
-0.0687265 0.243284 6.71256 67 65 66 
-0.711686 0.239939 6.60998 210 212 211 
-0.110175 0.245487 6.69891 236 236 236 
-0.082719 0.250921 6.72474 27 27 27 
-0.673741 0.248529 6.61042 15 17 16 
-0.570538 0.251405 6.63217 28 26 27 
-0.826667 0.25134 6.59145 217 217 217 
-0.762526 0.251036 6.54596 14 14 16 
0.416196 0.259833 6.75966 226 224 225 
-1.02679 0.251751 6.54066 218 218 220 
0.0391397 0.2627 6.71464 34 32 35 
-0.636422 0.259982 6.61993 224 226 225 
-1.00874 0.257811 6.54165 29 29 31 
-0.601299 0.261825 6.6273 212 210 211 
-1.14278 0.258701 6.5187 198 198 200 
-1.11262 0.259641 6.52698 28 28 30 
-0.987135 0.260451 6.55655 213 213 215 
0.231288 0.270194 6.72964 41 39 40 
-0.673368 0.270636 6.61239 222 224 223 
-0.0884974 0.275081 6.70006 218 218 218 
0.319509 0.283773 6.74988 229 229 229 
-0.51327 0.278689 6.58144 228 226 227 
-0.916511 0.276258 6.54673 14 14 16 
-1.01287 0.279611 6.54269 208 208 210 
0.436652 0.293915 6.75055 49 48 46 
-0.767169 0.289427 6.58239 221 219 220 
0.230392 0.297335 6.73004 223 223 223 
-1.07659 0.289296 6.52121 202 202 204 
-0.702469 0.298541 6.59967 24 26 25 
-0.165854 0.307833 6.66764 233 233 235 
-1.00198 0.304095 6.54214 215 215 217 
-0.468977 0.309629 6.63605 226 226 226 
-0.438773 0.310212 6.63496 227 225 226 
0.276566 0.31341 6.73053 25 25 25 
-0.79349 0.310195 6.57192 220 220 222 
-0.577259 0.312287 6.61381 16 18 17 
0.257165 0.318309 6.72716 219 219 219 
-0.500592 0.317717 6.66001 227 225 226 
-0.369749 0.317525 6.64693 232 232 232 
-1.14049 0.310567 6.50243 20 20 22 
-1.08253 0.310669 6.52285 21 21 23 
-0.711369 0.315596 6.60316 203 203 205 
-1.06637 0.321486 6.53008 192 192 194 
-0.797145 0.328247 6.57105 18 18 20 
0.304041 0.338419 6.73156 230 230 230 
-0.98608 0.330999 6.53532 35 35 37 
0.266331 0.34326 6.72582 29 29 29 
-0.538629 0.339371 6.60749 220 220 220 
-0.336777 0.340254 6.64313 217 217 217 
-0.780273 0.339797 6.57704 222 222 224 
-0.570211 0.343235 6.62079 223 223 223 
-1.13891 0.337327 6.50086 208 208 210 
-0.519038 0.343045 6.60127 31 31 31 
0.036874 0.350799 6.69024 34 32 33 
-1.11949 0.344397 6.50511 28 28 30 
-0.360294 0.354782 6.63658 20 20 20 
0.33717 0.366028 6.72854 20 20 20 
-0.572999 0.362655 6.60909 222 222 222 
-0.500935 0.363749 6.60764 29 29 29 
0.049842 0.370341 6.69461 225 223 224 
0.244767 0.373185 6.71247 228 226 227 
-0.118684 0.373407 6.65053 28 28 30 
-0.441524 0.375182 6.61967 41 39 42 
0.301945 0.388098 6.72281 234 234 234 
-0.432009 0.385416 6.62522 35 35 37 
0.253885 0.392755 6.71486 41 41 41 
-0.75274 0.38962 6.58988 209 209 211 
0.339874 0.399369 6.71876 230 230 230 
-0.595313 0.393683 6.5955 29 29 29 
-0.412263 0.394806 6.60134 219 219 221 
0.0326882 0.399935 6.67967 38 36 37 
-0.803225 0.394154 6.55247 220 220 222 
-1.10296 0.392888 6.50888 213 213 215 
0.310766 0.406522 6.72322 36 36 36 
0.193198 0.408113 6.69519 233 231 234 
4.61028 0.975814 15.278 19 12 0 
0.0205209 0.415506 6.67694 224 222 223 
-0.87351 0.40877 6.54669 17 17 19 
0.238515 0.424073 6.70072 20 20 20 
-0.779091 0.420077 6.5536 16 16 18 
-0.738841 0.419274 6.57785 211 211 213 
-0.0318413 0.432267 6.66873 27 25 26 
0.189682 0.432331 6.6753 230 226 227 
0.0361151 0.435517 6.67032 50 46 47 
0.265364 0.438459 6.67436 230 230 230 
-0.0990405 0.440876 6.64812 231 230 228 
-0.781314 0.441197 6.5691 220 220 222 
-0.0398543 0.449392 6.66922 224 222 225 
-0.764262 0.447487 6.5599 26 26 28 
-0.722167 0.448886 6.5651 208 208 208 
-0.0233015 0.46283 6.67173 42 40 43 
-0.841002 0.454593 6.54896 31 31 33 
0.190876 0.466224 6.69127 222 221 219 
-0.0980028 0.468883 6.65421 232 228 227 
-0.14332 0.46888 6.63342 24 24 24 
-0.0379394 0.473036 6.64863 235 233 234 
0.0474342 0.473332 6.66674 229 225 224 
-0.865835 0.469329 6.54227 219 219 221 
-0.730994 0.470715 6.56758 26 26 26 
-0.155933 0.481227 6.64867 232 230 231 
-0.118892 0.482456 6.64869 33 33 33 
-0.744506 0.477355 6.54908 29 29 29 
-0.392235 0.481795 6.57969 232 230 233 
-0.830579 0.482043 6.55914 36 36 38 
-0.714225 0.484919 6.56092 186 186 186 
0.242224 0.498268 6.67371 23 23 23 
0.268629 0.499561 6.67937 237 235 236 
-0.980582 0.486481 6.50362 218 218 220 
-0.142007 0.498352 6.65072 37 37 37 
-0.0138445 0.500458 6.65323 24 23 21 
0.033191 0.505943 6.65892 34 30 29 
-0.826834 0.499478 6.53999 17 17 19 
-0.740491 0.501251 6.55454 219 219 219 
-0.24824 0.507166 6.61479 226 224 225 
0.200196 0.511614 6.66418 226 224 225 
-0.416999 0.507572 6.60499 233 233 233 
-0.863045 0.503256 6.52339 213 213 215 
0.0485227 0.515519 6.65982 237 233 232 
-1.02379 0.504525 6.50694 20 20 22 
-0.225114 0.513823 6.62596 229 227 228 
-0.117175 0.515762 6.63655 35 35 35 
0.279465 0.521855 6.68737 39 37 38 
-0.0218786 0.522799 6.64968 227 223 222 
-0.81668 0.521741 6.53502 193 193 195 
-0.906515 0.521974 6.51854 24 24 26 
-0.102511 0.533356 6.63938 234 232 233 
0.240117 0.543469 6.67156 216 216 216 
-0.319458 0.545076 6.59411 24 24 24 
-0.718092 0.540878 6.54709 220 220 220 
-0.140523 0.550103 6.62645 35 35 37 
-0.113115 0.552136 6.64712 27 27 27 
-1.00844 0.537448 6.44715 205 205 207 
-0.246245 0.551779 6.60525 220 220 220 
-0.277693 0.555922 6.60282 25 27 26 
-0.15721 0.56087 6.62586 224 224 226 
-0.534298 0.558021 6.5734 31 31 31 
-0.703435 0.556725 6.54377 14 14 16 
-0.820717 0.557945 6.52058 30 30 32 
-0.317135 0.564549 6.59689 38 38 38 
-0.174749 0.567034 6.61606 23 23 23 
-0.208106 0.567391 6.60201 217 215 216 
0.0184339 0.570481 6.6287 229 229 229 
0.197322 0.573499 6.66155 26 26 26 
0.2614 0.574498 6.66243 24 24 24 
-0.469204 0.570261 6.58068 220 220 220 
-0.404616 0.572736 6.58992 231 231 231 
-0.881988 0.567818 6.4938 219 219 221 
-0.451971 0.576905 6.57198 229 229 229 
0.247466 0.587376 6.67221 31 31 31 
0.217201 0.589739 6.66618 25 25 25 
-0.182188 0.588238 6.6182 216 216 216 
0.00698982 0.590593 6.6406 32 30 33 
-0.695725 0.582694 6.5378 27 27 29 
-0.311737 0.587561 6.59396 220 220 220 
0.0364629 0.596127 6.63669 43 39 38 
-0.648594 0.591897 6.54564 34 34 32 
-0.0669043 0.604101 6.62484 198 181 174 
-0.610556 0.59885 6.54511 26 26 26 
-0.702006 0.601677 6.5373 216 216 218 
-0.55811 0.607721 6.55932 229 229 231 
-0.63507 0.609035 6.54425 222 222 222 
-0.955166 0.606543 6.48656 34 34 36 
-0.653457 0.612372 6.54014 23 24 26 
-0.11319 0.620404 6.63004 25 25 23 
-0.972096 0.608013 6.48207 23 24 26 
-0.518874 0.62102 6.53532 229 229 231 
0.000954863 0.628476 6.61797 237 233 232 
-0.66868 0.622289 6.53532 28 29 31 
-0.837502 0.622211 6.50938 24 24 26 
0.0391682 0.636804 6.6234 46 44 45 
-0.644668 0.631457 6.53649 217 217 219 
-0.156981 0.641643 6.59781 225 225 225 
-0.117356 0.643369 6.61097 38 38 38 
-0.681445 0.638351 6.52218 217 217 219 
-0.553832 0.645857 6.55238 220 220 222 
-0.657927 0.64959 6.53028 28 28 30 
-0.613912 0.648834 6.52886 25 25 27 
0.0464507 0.658595 6.61992 25 23 24 
-0.110894 0.660574 6.59645 226 226 226 
0.0132052 0.6645 6.60713 30 30 30 
-0.957057 0.655741 6.47828 215 215 217 
-0.845252 0.656959 6.49935 226 226 228 
-0.340205 0.664465 6.56923 33 35 34 
-0.888302 0.66179 6.50031 23 23 25 
-0.356822 0.671108 6.56275 20 20 20 
-0.905052 0.666757 6.48687 225 225 227 
-0.500248 0.673678 6.55209 30 30 30 
-0.668717 0.680124 6.51915 226 226 228 
-0.522821 0.683769 6.5408 224 224 226 
0.0350906 0.693325 6.60393 36 34 35 
-0.498324 0.691457 6.54472 35 35 35 
-0.882662 0.689758 6.4877 224 224 226 
-0.690095 0.694425 6.51505 225 225 227 
-0.540235 0.705389 6.53351 227 227 227 
-0.517395 0.709717 6.55532 23 23 23 
-0.917675 0.712245 6.47577 24 24 26 
-0.462905 0.723922 6.54482 31 31 31 
-0.279383 0.728106 6.55155 32 34 33 
-0.496212 0.743526 6.53867 225 225 225 
-0.467208 0.744821 6.53152 37 35 36 
-0.441649 0.749739 6.53717 214 212 213 
-0.477336 0.76307 6.53098 215 211 212 
-0.0681102 0.770926 6.57049 96 97 102 
-0.302471 0.774772 6.54244 225 224 222 
-0.705913 0.815809 6.50596 21 20 18 
-1.28209 1.0865 5.82363 112 103 94 
1.62135 1.8755 8.23217 191 158 153 
2.28465 1.85923 8.13643 173 145 134 
1.79503 1.86426 8.10567 182 153 149 
2.49058 1.85685 8.02209 161 132 126 
2.18634 1.90212 7.76962 90 61 53 
1.27837 2.03065 6.56091 28 21 15 
-0.667322 1.95175 6.26005 88 80 77 
1.22917 2.0605 6.4858 68 64 55 
0.769549 2.08258 6.39387 47 45 33 
-0.0961233 2.14218 6.2949 17 8 3 
-0.211851 2.15868 6.2862 40 26 25 
-0.329619 2.16725 6.28599 67 58 49 
-0.507543 2.15764 6.26015 83 74 65 
-0.460404 2.16382 6.26814 222 212 200 
-0.348783 2.16932 6.28512 182 172 160 
-0.4109 2.16938 6.27556 217 205 193 
-0.380359 2.17289 6.27453 199 186 177 
-0.487853 2.17001 6.26395 222 214 203 
-0.429598 2.17674 6.26846 92 83 74 
-0.54863 2.17337 6.25581 219 210 201 
-0.361211 2.17972 6.27256 31 21 11 
-0.630349 2.17144 6.24618 114 111 104 
-0.411324 2.18396 6.26681 59 53 41 
-0.614383 2.18245 6.24863 196 189 179 
-0.570885 2.18509 6.25 214 204 195 
-0.554631 2.19221 6.25729 58 49 40 
-0.651207 2.1883 6.24246 189 180 171 
0.255509 2.09314 5.95452 196 182 169 
-0.732265 2.19102 6.23003 175 166 157 
-0.681495 2.19468 6.23875 197 187 177 
-0.636621 2.1995 6.24834 78 69 64 
-0.692891 2.20772 6.23754 67 58 51 
-0.103593 2.18552 6.08644 116 111 107 
-0.253579 2.1998 6.11156 136 133 128 
0.0667758 2.1647 5.9962 50 45 41 
0.0927645 2.16706 6.00341 40 34 34 
0.318894 2.15595 5.97151 80 70 69 
0.206064 2.15328 5.94704 45 41 38 
0.145409 2.1619 5.94611 167 165 166 
0.110557 2.17468 5.97308 184 180 177 
-0.280088 2.19547 6.02839 36 32 29 
0.328318 2.15979 5.92688 137 128 129 
0.294493 2.16278 5.91194 159 155 152 
0.0935366 2.17559 5.92999 88 84 81 
0.274351 2.16934 5.90163 194 194 192 
0.19906 2.18351 5.84133 51 41 39 
0.432971 2.17974 5.7475 255 254 248 
1.17839 2.1555 5.46516 141 110 107 
0.643803 2.187 5.53752 181 163 153 
1.13542 2.16049 5.44398 151 114 108 
1.35352 2.1778 5.21499 166 150 137 
1.22174 2.19115 5.16227 191 171 162 
1.22514 2.18627 5.14578 193 173 164 
-5.6634 -4.15106 33.1889 95 96 100 
0.795222 -0.538854 6.97551 223 233 225 
-7.96114 -0.913428 29.5946 170 170 160 
-0.607619 -0.139683 6.69387 9 11 10 
-0.647954 -0.0241879 6.66602 31 29 30 
0.37565 0.0222005 6.81539 33 33 33 
-0.858382 0.21388 6.60305 20 20 22 
-0.634178 0.225167 6.60794 17 19 18 
-0.88275 0.245145 6.57941 214 214 216 
0.586751 0.267884 6.77486 34 32 33 
-0.067257 0.302763 6.69425 25 26 30 
0.25895 0.422288 6.70316 24 24 24 
0.313791 0.43642 6.70097 32 32 32 
-0.410728 0.4918 6.61192 25 25 25 
-0.993623 0.563252 6.47914 19 20 22 
-0.822341 0.612966 6.50399 22 22 24 
-0.87617 0.64762 6.49584 28 28 30 
-2.15096 -2.24194 6.66766 56 55 50 
-6.82613 -7.48661 32.0596 224 232 235 
-8.74255 -7.20757 32.5247 144 154 156 
-5.58426 -7.08342 32.1379 210 219 226 
-4.65557 -7.08021 32.4417 57 79 58 
-5.66819 -6.97383 32.1245 29 40 46 
-5.07551 -7.02618 32.5765 30 34 43 
-4.31762 -7.1672 33.2094 50 62 62 
-4.60171 -7.02799 32.6444 168 181 174 
-6.62044 -6.97123 32.4108 104 123 127 
-6.33601 -6.98125 32.4658 224 229 233 
-4.09502 -7.15696 33.2974 82 94 94 
-5.17306 -6.95036 32.3514 197 206 213 
-6.97848 -6.87935 32.39 85 94 99 
-4.95518 -6.88209 32.4267 160 164 173 
-6.46192 -6.82754 32.2007 239 242 247 
-6.28733 -6.79772 32.2841 96 106 107 
-5.49623 -6.79434 32.2816 74 83 90 
-4.80752 -6.88527 32.6935 160 163 168 
-3.71416 -7.01478 33.5516 61 62 64 
-5.09162 -6.8101 32.6823 56 61 65 
-3.45194 -7.01246 33.7238 46 49 54 
-8.6888 -6.85595 32.9922 221 232 238 
-5.57535 -6.68188 32.1868 208 217 226 
-4.87475 -6.79721 32.804 13 16 21 
-4.11826 -6.88412 33.2006 156 163 171 
-6.27311 -6.66497 32.3727 73 81 84 
-7.83825 -6.6868 32.6334 208 216 227 
-6.92478 -6.65376 32.4769 201 210 217 
-3.33724 -6.90526 33.8695 166 169 174 
-6.4748 -6.56896 32.3386 248 249 253 
-4.46874 -6.69074 32.9491 161 166 169 
-7.92123 -6.5765 32.6276 44 51 61 
-4.73366 -6.61852 32.8503 66 70 69 
-4.39611 -6.6587 33.1564 70 76 76 
-4.55603 -6.60845 32.9158 69 75 73 
-3.40445 -6.78462 33.7917 40 39 44 
-6.9461 -6.51723 32.6161 222 227 231 
-7.8466 -6.50614 32.7262 206 215 222 
-7.4422 -6.46654 32.6308 75 79 88 
-6.81678 -6.39989 32.5542 102 120 120 
-9.17572 -6.42749 32.8329 207 215 226 
-7.36364 -6.39078 32.6524 202 206 217 
-8.75914 -6.33793 32.8992 213 217 226 
-9.25431 -6.31427 32.8043 55 65 74 
-8.14725 -6.28326 32.8077 237 241 244 
-9.20888 -6.26499 33.0023 212 221 230 
-8.81244 -6.22696 33.1395 212 222 223 
-8.6203 -6.19015 32.9258 219 231 231 
-9.98385 -6.04677 32.8189 209 217 228 
-4.76828 -5.60052 33.4275 93 112 110 
-4.81693 -5.46894 33.1978 158 159 164 
-6.89888 -5.27459 32.8863 216 226 227 
-6.79722 -5.30093 33.0251 220 230 231 
-6.92918 -5.23851 32.8695 217 227 228 
-6.82947 -5.16744 32.9378 115 135 133 
-7.04853 -5.17879 33.1345 93 107 107 
-8.15733 -5.07019 33.0977 234 246 246 
-8.64003 -5.02263 33.2094 219 231 231 
-8.85368 -4.89528 33.2919 89 103 103 
-6.51988 -4.86815 33.0926 227 242 239 
-9.48058 -4.85682 33.1974 235 249 250 
-8.77894 -4.84434 33.3715 173 202 197 
-8.70699 -4.87937 33.5708 171 191 189 
-5.61903 -4.77304 33.0036 211 215 224 
-5.18041 -4.75316 32.9888 191 200 207 
-0.758842 -1.0043 7.03837 111 102 85 
-6.94344 -4.75001 33.1744 170 189 187 
-6.23694 -4.69727 33.1389 202 211 220 
-5.51901 -4.68854 33.0342 65 70 76 
-6.84132 -4.66579 33.1549 83 95 93 
-5.09042 -4.68113 33.2307 68 71 78 
-5.61172 -4.58377 33.0074 203 208 214 
-6.55172 -4.60575 33.2005 239 243 246 
-6.32736 -4.60275 33.2124 51 60 65 
-6.9844 -4.56103 33.2838 219 227 229 
-7.43548 -4.55669 33.3996 202 211 220 
-6.26259 -4.49913 33.3858 209 216 224 
-7.91758 -4.49027 33.4352 200 210 220 
-7.5222 -4.45788 33.45 78 87 94 
0.746056 -0.93227 7.03063 48 59 55 
-5.52346 -4.41367 33.2671 67 66 71 
-5.29727 -4.38919 33.2103 64 65 69 
-7.0332 -4.41888 33.5358 206 211 215 
-8.89542 -4.41414 33.5394 107 126 124 
-5.09469 -4.40473 33.4662 63 63 65 
-8.01237 -4.39291 33.4989 87 100 106 
-5.98329 -4.34135 33.12 151 155 156 
-9.71463 -4.37331 33.5887 200 222 219 
-7.30265 -4.33465 33.3021 223 227 230 
-7.4149 -4.33332 33.3774 201 209 211 
-7.9351 -4.29364 33.5661 204 215 219 
-7.78321 -4.31056 33.6519 224 229 233 
-5.67432 -4.22475 33.0146 57 61 64 
-9.85101 -4.29162 33.7471 133 162 157 
-7.52319 -4.23311 33.4167 29 35 35 
-5.76305 -4.17839 33.02 68 73 76 
0.716653 -0.881835 7.01693 72 122 84 
0.994395 -0.882301 7.0506 79 125 86 
-9.37863 -4.21018 33.6599 98 108 118 
0.856296 -0.877198 7.03611 79 124 85 
-10.1527 -4.18661 33.6589 204 215 221 
-7.99134 -4.17136 33.5183 71 79 82 
-5.58572 -4.08559 33.1697 205 206 208 
-8.00305 -4.11077 33.5329 91 94 99 
-5.91996 -4.05683 33.1991 216 221 217 
-8.28493 -4.07137 33.5219 134 138 139 
-8.03008 -4.05977 33.5753 100 104 107 
0.840316 -0.847332 7.0281 216 217 211 
0.980872 -0.846523 7.04462 76 127 84 
0.871588 -0.84235 7.02697 79 127 85 
0.624513 -0.836153 7.00196 226 218 215 
-5.39732 -3.95605 33.0662 44 44 44 
-8.70299 -3.92393 33.1632 169 177 179 
-8.02475 -3.87023 32.8207 247 252 255 
-8.52331 -3.96048 33.6981 237 241 242 
-7.81228 -3.89206 33.1055 184 188 189 
-6.13407 -3.93447 33.4091 58 62 61 
-7.24133 -3.90175 33.248 241 245 244 
0.757355 -0.82086 7.00796 81 127 91 
0.813681 -0.817867 7.02088 219 229 220 
-6.22297 -3.85486 33.3053 165 171 169 
0.786859 -0.806885 7.01915 54 59 55 
0.649971 -0.797449 6.99609 208 213 207 
1.20451 -0.797176 7.05548 233 240 222 
-6.12148 -3.73196 33.2787 40 51 47 
-5.91516 -3.74452 33.3157 228 239 235 
0.671588 -0.783078 6.9963 6 40 13 
-5.95753 -3.62642 33.0909 68 81 74 
-8.56283 -3.25811 31.4344 21 26 30 
-7.43712 -3.30905 32.4258 16 20 23 
0.65581 -0.711429 6.98147 214 212 199 
0.94111 -0.707493 7.01572 79 132 90 
0.672311 -0.687236 6.9881 73 77 76 
-7.33869 -3.11353 32.7123 25 34 39 
0.993025 -0.657542 7.03046 219 240 223 
0.897268 -0.652501 7.00481 79 127 85 
0.9741 -0.63416 7.00532 77 128 85 
-7.6954 -2.84656 31.7674 12 16 15 
-7.51573 -2.86243 31.9584 22 28 28 
-7.18117 -2.8639 31.9985 24 35 39 
-6.37243 -2.92022 32.6978 15 24 23 
-8.41384 -2.73391 31.3615 226 231 227 
-7.27063 -2.77962 31.9827 210 212 211 
-6.29181 -2.84163 32.8363 218 227 224 
1.23048 -0.606774 7.03576 213 204 195 
-9.14454 -2.61326 30.785 37 47 39 
-8.62855 -2.64449 31.2038 65 67 66 
1.19716 -0.597847 7.02044 80 132 93 
1.14248 -0.594278 7.01216 73 129 82 
1.0285 -0.588602 7.00404 74 132 82 
-8.63666 -2.56445 30.8474 86 102 99 
0.936422 -0.576308 6.98888 80 128 90 
0.687616 -0.572656 6.96355 84 134 96 
1.08485 -0.573532 7.00459 227 246 226 
0.751032 -0.568182 6.97122 86 132 95 
1.05747 -0.568888 6.99939 220 232 222 
1.35857 -0.566606 7.03377 221 209 197 
0.989731 -0.561397 6.99734 223 230 222 
0.76846 -0.551977 6.97259 219 233 220 
1.07384 -0.548518 6.99728 87 131 104 
0.689814 -0.539001 6.95925 84 132 94 
0.862828 -0.526198 6.97415 219 234 227 
1.08769 -0.525708 6.99775 216 235 215 
1.15053 -0.52439 7.00365 77 128 87 
0.702823 -0.520032 6.96005 211 225 212 
1.10746 -0.516889 7.00069 74 126 87 
1.00756 -0.511798 6.98532 75 128 86 
1.0412 -0.512912 6.99132 86 139 95 
1.45891 -0.512314 7.03162 73 61 49 
0.693806 -0.492511 6.95459 84 137 93 
1.23451 -0.473128 6.99253 224 218 204 
1.04351 -0.46635 6.97885 77 133 86 
1.06812 -0.45635 6.97826 222 225 214 
0.930844 -0.448273 6.96965 220 234 219 
0.862014 -0.445489 6.96111 213 234 215 
1.00001 -0.444696 6.97049 219 226 219 
0.831446 -0.437829 6.95558 213 218 211 
1.08765 -0.429384 6.97823 80 133 91 
0.851519 -0.42027 6.95441 81 133 94 
1.45545 -0.415147 7.006 223 211 197 
1.07437 -0.407669 6.97088 209 231 210 
0.836829 -0.397743 6.94665 220 230 222 
1.35706 -0.399453 7.00201 54 44 35 
1.30073 -0.396153 6.99064 161 151 142 
0.951347 -0.392288 6.95821 71 128 83 
1.4426 -0.372017 7.00493 223 210 201 
1.21657 -0.31583 6.96576 82 139 98 
0.701754 -0.296554 6.91473 83 140 95 
1.20298 -0.297501 6.96467 214 222 211 
-8.19838 -1.30413 31.2779 132 136 113 
-8.31788 -1.16149 31.0806 124 122 107 
-7.28482 -1.04465 30.3874 233 225 222 
-0.481495 -0.203939 6.73639 31 29 30 
-0.379927 -0.192112 6.75555 32 30 31 
-0.337633 -0.177371 6.77831 217 217 217 
-0.35863 -0.167954 6.7985 35 35 35 
-0.191936 -0.133675 6.76348 33 35 32 
-0.494303 -0.127064 6.71206 31 31 31 
-0.326603 -0.126102 6.73634 18 16 19 
-0.640841 -0.106184 6.67939 26 26 28 
-0.871163 -0.099467 6.62455 18 18 18 
-0.50901 -0.0998864 6.70212 218 218 218 
-0.460039 -0.08815 6.70932 216 216 216 
-0.502418 -0.0760015 6.70266 25 25 25 
-0.202149 -0.0715328 6.72781 221 221 221 
-0.856951 -0.0676821 6.62245 14 14 16 
-0.753717 -0.066986 6.65707 216 217 219 
-0.302936 -0.0685751 6.73172 19 18 16 
-0.659623 -0.0654763 6.67222 216 214 215 
-0.47421 -0.0630926 6.70627 24 26 25 
-7.59479 -0.187824 29.5996 252 250 238 
-7.41289 -0.178377 29.9117 191 174 164 
0.239739 -0.0446987 6.81733 36 36 38 
-7.27149 -0.125779 29.7726 62 53 38 
-0.50603 -0.0350996 6.69364 22 22 22 
-0.857027 -0.033875 6.61749 196 196 198 
-0.647911 -0.0297909 6.6642 30 28 29 
-8.64516 -0.029986 28.7775 247 247 239 
-7.94951 -0.0227819 29.4823 85 82 67 
-0.838805 -0.00893162 6.62685 29 29 31 
0.0111271 -0.00161244 6.71355 28 28 28 
-0.322902 0.00553646 6.68607 226 228 227 
-0.179026 0.00709085 6.69263 22 22 24 
-0.788295 0.00591586 6.63005 27 27 27 
-0.283708 0.01159 6.71385 23 21 22 
-7.24425 0.133387 29.5824 63 47 34 
0.0763601 0.0240605 6.76885 231 230 228 
-8.39895 0.160691 28.6355 152 140 128 
-0.830692 0.0242461 6.61713 13 13 13 
-0.109767 0.0311619 6.73909 31 31 31 
-7.76275 0.208917 29.412 29 11 1 
-0.316477 0.0360411 6.68655 229 229 229 
0.0109697 0.0459405 6.74637 230 230 228 
-0.279675 0.0499862 6.67855 20 20 20 
-0.502576 0.0511332 6.67766 16 16 16 
-0.835977 0.0550724 6.62857 206 206 206 
-0.755931 0.0730149 6.62867 216 214 215 
-0.27873 0.0913797 6.67306 23 23 23 
-1.10698 0.0900213 6.54609 204 204 204 
-1.0579 0.0945697 6.55221 206 206 206 
