ply                 
format ascii 1.0    
element vertex 1222
property float x    
property float y    
property float z    
property uchar red  
property uchar green
property uchar blue 
end_header          
-0.146125 -0.270772 1.87223 88 72 75 
-0.148273 -0.435325 1.90374 220 167 113 
-0.153131 -0.520209 1.97181 151 135 145 
-0.150667 -0.58141 1.94375 240 208 187 
-0.150667 -0.58141 1.94375 240 208 187 
-0.145099 -0.278503 1.87606 74 45 37 
-0.148702 -0.552232 1.93305 248 215 200 
-0.148718 -0.579604 1.94302 139 104 82 
-0.142509 -0.259766 1.86877 171 91 82 
-0.141696 -0.232296 1.85575 238 206 193 
-0.141935 -0.262961 1.86944 255 222 207 
-0.15611 -0.741322 2.05907 35 0 0 
-0.142301 -0.28185 1.87639 171 96 90 
-0.155877 -0.738425 2.0595 136 52 50 
-0.140636 -0.258944 1.869 250 202 182 
-0.139838 -0.265825 1.86998 76 60 47 
-0.139526 -0.275858 1.87444 72 59 42 
-0.138353 -0.241387 1.86061 241 224 208 
-0.153056 -0.743375 2.0606 130 124 112 
-0.139689 -0.302134 1.88324 119 39 32 
-0.143785 -0.570318 1.93798 150 122 100 
-0.13896 -0.289414 1.88003 187 82 87 
-0.137999 -0.279701 1.87533 94 57 41 
-0.136676 -0.24265 1.8607 155 155 143 
-0.142379 -0.566664 1.93777 244 213 193 
-0.137432 -0.270761 1.8723 72 50 39 
-0.10823 0.166773 1.46666 223 215 204 
-0.136865 -0.267703 1.87093 246 223 207 
-0.136865 -0.267703 1.87093 246 223 207 
-0.136875 -0.281616 1.87645 118 72 59 
-0.135835 -0.246053 1.86171 223 217 205 
-0.13625 -0.302861 1.8853 202 144 132 
-0.139906 -0.563588 1.93559 134 101 84 
-0.134897 -0.276329 1.87427 238 216 192 
-0.134897 -0.276329 1.87427 238 216 192 
-0.134897 -0.276329 1.87427 238 216 192 
-0.134517 -0.285604 1.87787 247 212 193 
-0.134517 -0.285604 1.87787 247 212 193 
-0.132996 -0.259039 1.86779 235 208 179 
-0.132996 -0.259039 1.86779 235 208 179 
-0.138338 -0.567172 1.93571 131 100 82 
-0.133438 -0.273124 1.87339 83 60 44 
-0.133404 -0.268838 1.87043 92 64 52 
-0.133556 -0.304763 1.88547 182 145 136 
-0.136219 -0.556095 1.93323 141 104 88 
-0.144276 -0.730986 2.05652 23 49 48 
-0.131808 -0.289916 1.87957 105 77 65 
-0.130927 -0.271104 1.87181 109 85 73 
-0.129656 -0.245386 1.86143 98 117 113 
-0.128744 -0.288 1.87879 92 67 47 
-0.128007 -0.276721 1.87412 251 229 208 
-0.128007 -0.276721 1.87412 251 229 208 
-0.127215 -0.304443 1.88437 59 41 31 
-0.126528 -0.294031 1.88107 82 59 45 
-0.124673 -0.214566 1.84891 210 176 139 
-0.126365 -0.298638 1.88257 93 70 56 
-0.124413 -0.267564 1.86968 99 76 58 
-0.134577 -0.701031 2.04489 8 41 48 
-0.123423 -0.292171 1.87945 101 79 68 
-0.122717 -0.283951 1.87775 87 60 39 
-0.119383 -0.208162 1.8344 213 183 147 
-0.125492 -0.553989 1.932 242 206 184 
-0.125492 -0.553989 1.932 242 206 184 
-0.121179 -0.28605 1.87808 247 219 198 
-0.121179 -0.28605 1.87808 247 219 198 
-0.119987 -0.265692 1.86861 93 75 65 
-0.119636 -0.273761 1.87265 105 78 71 
-0.122721 -0.559736 1.93369 242 208 183 
-0.11843 -0.262766 1.86872 155 182 177 
-0.116839 -0.207072 1.8445 255 229 205 
-0.117903 -0.287123 1.8773 87 58 40 
-0.117903 -0.287123 1.8773 87 58 40 
-0.128701 -0.715786 2.04998 79 123 124 
-0.128701 -0.715786 2.04998 79 123 124 
-0.11659 -0.29255 1.87999 231 209 195 
-0.119462 -0.551623 1.9315 247 211 189 
-0.115792 -0.298171 1.88207 102 79 61 
-0.113559 -0.296163 1.88145 243 219 195 
-0.113002 -0.265077 1.86907 103 75 71 
-0.112688 -0.27069 1.87081 240 214 197 
-0.112138 -0.258719 1.86683 136 172 170 
-0.122401 -0.73199 2.05639 79 118 117 
-0.110962 -0.260299 1.8674 152 174 171 
-0.10841 -0.25946 1.86554 140 162 159 
-0.107059 -0.287624 1.87734 233 209 185 
-0.107192 -0.295417 1.88076 235 218 200 
-0.105817 -0.270204 1.87001 232 205 186 
-0.106638 -0.301651 1.88306 153 176 170 
-0.115095 -0.731889 2.05557 22 21 17 
-0.104732 -0.296599 1.88125 107 120 110 
-0.114726 -0.747189 2.06287 74 96 94 
-0.103619 -0.300643 1.88238 100 129 125 
-0.1053 -0.548938 1.92971 117 81 57 
-0.1053 -0.548938 1.92971 117 81 57 
-0.101445 -0.263502 1.86723 100 77 71 
-0.101019 -0.291113 1.87836 158 185 178 
-0.0994541 -0.273347 1.87149 237 204 185 
-0.0996212 -0.300218 1.8819 144 180 176 
-0.0978137 -0.277709 1.87309 83 74 65 
-0.106337 -0.735394 2.05693 154 84 72 
-0.0955056 -0.259945 1.86523 99 81 69 
-0.095163 -0.263302 1.86664 219 191 180 
-0.095163 -0.263302 1.86664 219 191 180 
-0.0983925 -0.56136 1.93433 141 88 70 
-0.0929568 -0.26874 1.86879 243 220 202 
-0.100948 -0.719831 2.04849 105 40 34 
-0.092255 -0.266329 1.86797 139 113 96 
-0.092255 -0.266329 1.86797 139 113 96 
-0.0919703 -0.264435 1.86751 232 205 194 
-0.0896915 -0.268408 1.86737 215 203 191 
-0.0840994 -0.308922 1.88494 125 137 133 
-0.0828572 -0.311824 1.88521 65 52 46 
-0.0790436 -0.311191 1.88584 209 175 166 
-0.0827843 -0.69835 2.03943 50 13 0 
-0.0827843 -0.69835 2.03943 50 13 0 
-0.0827843 -0.69835 2.03943 50 13 0 
-0.0768124 -0.391289 1.91429 134 91 108 
-0.0729212 -0.520296 1.96577 137 84 76 
-0.0747441 -0.705931 2.03674 23 0 0 
-0.0713045 -0.51082 1.96235 44 2 0 
-0.0212872 0.247354 1.66074 73 61 49 
-0.0195221 -0.471463 1.88957 228 142 125 
-0.0191682 -0.596495 1.93848 152 107 101 
-0.016378 -0.547043 1.91552 149 108 102 
-0.014417 -0.541502 1.91918 27 19 16 
-0.0129548 -0.491448 1.89802 165 100 94 
-0.0123983 -0.355474 1.80963 159 158 163 
0.00383361 -0.366908 1.81573 231 231 239 
0.00890905 -0.52739 1.96129 235 223 211 
0.0125785 -0.526824 1.95978 83 69 58 
0.0162144 -0.527111 1.96012 219 203 190 
0.0196635 -0.52633 1.95933 87 77 65 
0.0717322 -0.291384 1.78615 92 92 92 
0.0717322 -0.291384 1.78615 92 92 92 
0.0926807 -0.469249 1.94624 165 152 135 
0.0971674 -0.45419 1.94185 216 200 184 
0.101076 -0.45341 1.94001 144 131 114 
0.0949582 0.0417314 1.73881 81 53 32 
0.104343 0.040653 1.74003 65 52 46 
0.104343 0.040653 1.74003 65 52 46 
0.117802 0.103979 1.71624 218 208 196 
0.118589 0.102962 1.71641 223 209 198 
0.141992 0.0491144 1.73656 74 55 38 
0.144355 0.0245515 1.74736 71 49 35 
0.143688 0.0785148 1.72266 156 114 76 
0.144656 0.0562272 1.73191 174 122 83 
0.145342 0.0482373 1.73552 167 123 88 
0.146118 0.0378402 1.7397 165 121 94 
0.147091 0.0303857 1.74259 165 120 97 
0.149246 0.0131632 1.74978 166 116 81 
0.149154 0.0233468 1.74638 176 124 87 
0.148649 0.043213 1.73758 74 56 52 
0.150347 0.00279558 1.75378 169 125 90 
0.150767 0.0303974 1.74359 72 55 39 
0.151371 0.0266779 1.74428 73 48 28 
0.151371 0.0266779 1.74428 73 48 28 
0.153555 0.0471501 1.7354 175 122 82 
0.154222 0.0395023 1.73874 172 114 74 
0.15477 0.058835 1.73051 176 140 104 
0.155277 0.0570189 1.73176 184 130 86 
0.155277 0.0570189 1.73176 184 130 86 
0.15658 0.0539175 1.73508 89 60 46 
0.157331 0.0313398 1.74182 72 63 56 
0.158321 0.043803 1.73669 82 46 24 
0.158321 0.043803 1.73669 82 46 24 
0.164676 0.00925263 1.75101 74 52 41 
0.164676 0.00925263 1.75101 74 52 41 
0.161319 0.0981669 1.71666 70 61 54 
0.167987 0.0262328 1.74433 173 121 82 
0.167693 0.0304456 1.74172 162 122 97 
0.167693 0.0304456 1.74172 162 122 97 
0.169068 0.0135339 1.74853 170 111 67 
0.169817 0.0102866 1.75095 170 120 85 
0.173688 -0.0350118 1.77079 223 204 189 
0.17193 0.0282007 1.74208 75 46 28 
0.174918 0.00978368 1.74988 78 57 52 
0.174918 0.00978368 1.74988 78 57 52 
0.17757 -0.0108122 1.75839 71 62 53 
0.177154 0.024561 1.74355 181 125 88 
0.177154 0.024561 1.74355 181 125 88 
0.175615 0.0748546 1.72325 69 60 61 
0.175615 0.0748546 1.72325 69 60 61 
0.178261 0.0636365 1.72792 68 51 41 
0.182037 0.0295036 1.74177 76 54 40 
0.182037 0.0295036 1.74177 76 54 40 
0.180208 0.0820151 1.71979 169 115 77 
0.181958 0.0454524 1.73509 173 114 72 
0.181958 0.0454524 1.73509 173 114 72 
0.182003 0.0673044 1.7258 165 112 78 
0.182 0.0720647 1.72409 71 43 29 
0.18255 0.0591179 1.72924 171 114 84 
0.181629 0.0867009 1.71782 158 123 101 
0.181629 0.0867009 1.71782 158 123 101 
0.182563 0.0756742 1.72287 164 117 87 
0.182563 0.0756742 1.72287 164 117 87 
0.186058 0.033563 1.73896 172 123 90 
0.186252 0.0438394 1.73603 155 120 90 
0.186252 0.0438394 1.73603 155 120 90 
0.186182 0.0486457 1.73352 160 125 103 
0.187533 0.0158623 1.74669 175 123 86 
0.18637 0.0435455 1.73566 155 120 90 
0.18637 0.0435455 1.73566 155 120 90 
0.18815 0.00536344 1.75075 175 116 82 
0.188003 0.0239602 1.74349 171 124 98 
0.185712 0.0863676 1.71818 80 49 28 
0.185712 0.0863676 1.71818 80 49 28 
0.187604 0.053868 1.73079 66 62 61 
0.192835 0.00575091 1.74967 76 46 22 
0.19361 0.0191193 1.74532 70 59 53 
0.191035 0.0759682 1.72209 166 117 84 
0.191035 0.0759682 1.72209 166 117 84 
0.193209 0.049497 1.73249 173 122 91 
0.193768 0.0391766 1.73693 160 114 78 
0.194895 0.0238113 1.74332 172 127 98 
0.195105 0.0319007 1.74 167 121 85 
0.195105 0.0319007 1.74 167 121 85 
0.19636 0.00478739 1.75174 169 123 89 
0.196556 0.0302767 1.7402 184 139 98 
0.196516 0.0444649 1.73453 73 52 35 
0.196516 0.0444649 1.73453 73 52 35 
0.199153 0.00600491 1.7501 174 117 72 
0.197176 0.0628859 1.72667 82 64 52 
0.197176 0.0628859 1.72667 82 64 52 
0.198899 0.0353929 1.73804 78 49 31 
0.202328 0.0113517 1.7477 75 56 52 
0.199963 0.0826432 1.71904 168 123 92 
0.202403 0.0328553 1.73866 69 60 53 
0.202403 0.0328553 1.73866 69 60 53 
0.202294 0.0684933 1.72481 169 123 87 
0.210848 -0.109067 1.7877 234 224 214 
0.207481 0.0169363 1.74481 182 123 79 
0.216774 -0.107383 1.78702 216 202 193 
0.211059 0.0805488 1.71948 167 111 74 
0.216779 0.0208681 1.74292 71 51 44 
0.215926 0.072536 1.72262 71 54 46 
0.222438 0.0124095 1.74609 83 56 47 
0.222438 0.0124095 1.74609 83 56 47 
0.22112 0.0696234 1.72333 164 116 78 
0.226927 0.0431348 1.73429 176 125 94 
0.226563 0.0650538 1.72495 80 56 46 
0.226563 0.0650538 1.72495 80 56 46 
0.21864 0.236498 1.65687 157 142 123 
0.226825 0.0865416 1.71672 168 124 95 
0.230821 0.0469785 1.73214 172 115 70 
0.230128 0.0788975 1.71938 168 115 75 
0.230128 0.0788975 1.71938 168 115 75 
0.234575 0.0276653 1.7396 177 125 86 
0.23564 0.00921615 1.74704 162 108 72 
0.234273 0.0448463 1.733 168 120 82 
0.234273 0.0448463 1.733 168 120 82 
0.23454 0.0445691 1.73297 168 123 90 
0.236184 0.0145056 1.74474 170 125 92 
0.237396 0.00735688 1.74766 163 121 97 
0.24769 0.0189703 1.74094 67 59 56 
0.250383 0.112767 1.705 135 101 76 
0.254869 0.0664358 1.72394 166 130 104 
0.256591 0.0684411 1.72346 167 117 80 
0.256591 0.0684411 1.72346 167 117 80 
0.258399 0.0340575 1.73651 159 118 96 
0.258399 0.0340575 1.73651 159 118 96 
0.260229 0.0276134 1.73961 169 115 77 
0.262976 -0.00879609 1.75315 168 119 79 
0.260051 0.0724582 1.72106 81 51 40 
0.268228 0.0457682 1.73132 176 118 72 
0.272945 0.0136482 1.74407 77 49 35 
0.272945 0.0136482 1.74407 77 49 35 
0.275358 0.0153154 1.74335 179 129 96 
0.274241 0.0312731 1.73712 73 45 24 
0.275843 0.0498047 1.73008 185 132 90 
0.277904 0.033305 1.73592 159 117 92 
0.279238 0.014054 1.74396 161 114 86 
0.28004 0.00485955 1.74729 75 57 55 
0.283994 0.00133546 1.74835 180 122 84 
0.285087 -0.00315343 1.74991 89 60 46 
0.290574 0.0152663 1.74308 78 51 40 
0.292235 -0.00257973 1.7497 76 49 32 
0.292032 0.0324693 1.73376 182 138 103 
0.291894 0.0533825 1.72779 174 126 78 
0.291894 0.0533825 1.72779 174 126 78 
0.292997 0.040666 1.7328 76 47 33 
0.293694 0.0298744 1.73766 181 123 86 
0.292783 0.0446063 1.73119 184 134 97 
0.292783 0.0446063 1.73119 184 134 97 
0.293325 0.0362087 1.73341 163 123 88 
0.295173 0.0114095 1.74389 176 116 79 
0.296541 -0.00641725 1.75067 174 114 80 
0.296541 -0.00641725 1.75067 174 114 80 
0.296541 -0.00641725 1.75067 174 114 80 
0.296916 0.0098806 1.74495 184 131 100 
0.296981 0.00980271 1.74485 184 131 100 
0.296981 0.00980271 1.74485 184 131 100 
0.27973 0.235887 1.6311 205 121 0 
0.297257 0.049866 1.72827 74 64 54 
0.300688 0.00450365 1.74508 74 65 58 
0.301954 -0.010562 1.75179 74 61 55 
0.300557 0.0226297 1.73837 72 63 54 
0.306164 -0.0137694 1.75391 222 205 197 
0.30912 -0.0166057 1.75481 64 49 42 
0.309811 0.0407186 1.73197 225 208 198 
0.309928 0.0589552 1.72468 168 137 108 
0.312827 0.0528897 1.72711 135 102 71 
0.299126 0.251046 1.62785 140 96 25 
0.299126 0.251046 1.62785 140 96 25 
0.306333 0.253544 1.62718 200 158 82 
0.332452 0.21977 1.63883 183 147 89 
0.368161 0.13153 1.66888 201 145 60 
0.393101 0.245928 1.62807 192 128 4 
0.401384 0.248086 1.62682 175 71 10 
0.401384 0.248086 1.62682 175 71 10 
0.407511 0.251654 1.62467 245 228 200 
0.426002 0.224359 1.63447 173 131 49 
0.435184 0.171011 1.64755 210 155 52 
0.426313 0.079467 1.58047 223 179 140 
0.44196 0.175827 1.64023 240 195 104 
0.43371 0.257667 1.60306 165 87 2 
0.442479 0.206889 1.63287 176 72 9 
0.442743 0.215527 1.62991 174 81 4 
0.446228 0.179103 1.63602 210 124 3 
0.448241 0.174641 1.63402 238 185 73 
0.447328 0.209004 1.62742 166 71 3 
0.452393 0.199753 1.62608 237 136 20 
0.459408 0.205709 1.58588 190 120 22 
1.06576 -0.371489 2.80406 140 127 118 
1.0585 -0.21341 2.74149 182 165 147 
-1.63248 -0.442986 2.86493 58 40 30 
-1.66295 -0.568306 2.91942 121 103 89 
-1.61607 -0.467099 2.87551 100 83 67 
-1.67625 -0.738551 2.98803 110 94 79 
-1.6436 -0.673049 2.96315 53 33 26 
-1.58848 -0.611428 2.93574 119 102 84 
-1.56092 -0.5134 2.90397 130 107 89 
-1.56839 -0.635038 2.95197 115 93 70 
-1.46468 -0.193636 2.76301 125 101 77 
-1.56861 -0.678268 2.96548 107 84 66 
-1.55098 -0.597758 2.93218 120 100 76 
-1.53777 -0.599024 2.93335 117 95 72 
-1.40963 -0.170897 2.75623 75 52 36 
-1.38817 -0.115605 2.71948 178 152 125 
-1.39281 -0.171034 2.75108 213 187 160 
-1.45338 -0.465897 2.87328 137 113 87 
-1.42552 -0.333873 2.81839 138 112 87 
-1.39325 -0.180876 2.75494 159 132 105 
-1.3468 -0.0459414 2.6872 208 181 151 
-1.45464 -0.544692 2.90901 84 59 39 
-1.40133 -0.284191 2.80503 158 139 107 
-1.4411 -0.469673 2.88786 79 57 33 
-1.40121 -0.307963 2.81058 129 102 81 
-1.44381 -0.522482 2.89767 60 41 26 
-1.42916 -0.487917 2.87965 142 117 95 
-1.4125 -0.430468 2.85669 129 103 78 
-1.38025 -0.274221 2.79283 184 158 125 
-1.39937 -0.361974 2.8323 122 97 75 
-1.33068 -0.0979901 2.70091 167 140 111 
-1.41576 -0.481491 2.87448 153 127 104 
-1.45548 -0.671622 2.95914 126 102 78 
-1.47506 -0.761705 3.00388 139 114 92 
-1.3888 -0.392002 2.83609 149 125 99 
-1.36962 -0.298315 2.80247 186 156 130 
-1.3481 -0.194487 2.75884 164 133 104 
-1.45667 -0.736221 2.98443 126 104 81 
-1.3275 -0.13771 2.72373 175 136 97 
-1.37312 -0.331043 2.81757 166 140 115 
-1.37039 -0.349463 2.82573 86 61 39 
-1.31907 -0.125242 2.71948 98 72 49 
-1.38334 -0.457936 2.86331 154 131 100 
-1.29611 -0.0302362 2.68524 167 132 100 
-1.34627 -0.278049 2.79052 180 150 124 
-1.42629 -0.667776 2.95749 72 48 24 
-1.28651 0.0466672 2.66895 209 177 138 
-1.33506 -0.215307 2.77638 212 179 138 
-1.29721 -0.0716882 2.69935 140 110 74 
-1.35113 -0.333239 2.81397 179 149 123 
-1.39763 -0.558088 2.91118 111 86 56 
-1.37263 -0.467395 2.86207 96 71 49 
-1.37089 -0.44335 2.86515 107 81 56 
-1.41153 -0.668378 2.95597 149 122 95 
-1.29431 -0.11622 2.71099 190 153 109 
-1.31315 -0.189909 2.75129 180 152 115 
-1.3508 -0.369291 2.83251 174 143 114 
-1.36215 -0.442552 2.85942 94 66 42 
-1.33226 -0.281632 2.79702 215 180 140 
-1.39946 -0.616447 2.93944 142 114 90 
-1.36911 -0.497473 2.87629 88 66 43 
-1.31109 -0.200243 2.7564 197 162 130 
-1.40584 -0.674563 2.9608 139 112 85 
-1.28595 -0.0859664 2.70899 197 163 126 
-1.39316 -0.621082 2.93368 157 131 108 
-1.2752 -0.0101241 2.6872 193 159 121 
-1.36088 -0.480957 2.87145 190 161 117 
-1.27678 -0.0239764 2.69459 195 163 125 
-1.31322 -0.240834 2.7849 138 100 64 
-1.31661 -0.284877 2.79625 220 182 135 
-1.33001 -0.35778 2.82791 129 93 59 
-1.3994 -0.740798 2.98612 149 123 98 
-1.36991 -0.593246 2.92388 160 127 94 
-1.37452 -0.643246 2.94128 157 124 89 
-1.27992 -0.172611 2.74057 203 172 144 
-1.27228 -0.140019 2.7361 213 180 145 
-1.30449 -0.311752 2.81242 220 187 152 
-1.33593 -0.510574 2.88307 226 185 133 
-1.38169 -0.772086 2.99678 151 121 93 
-1.29581 -0.337405 2.81612 191 158 127 
-1.31937 -0.424834 2.86504 205 172 127 
-1.3241 -0.510672 2.88012 123 87 53 
-1.28853 -0.308151 2.81174 207 174 141 
-1.33298 -0.564273 2.91038 125 86 47 
-1.31448 -0.480386 2.87229 209 171 134 
-1.24017 -0.113384 2.7193 143 109 72 
-1.33439 -0.591966 2.93025 147 114 79 
-1.25695 -0.198653 2.76232 182 152 114 
-1.28499 -0.365675 2.82935 124 94 58 
-1.3013 -0.445518 2.86522 179 136 101 
-1.25826 -0.222642 2.77146 203 173 135 
-1.26544 -0.26237 2.78948 187 154 119 
-1.28044 -0.357338 2.82341 179 149 111 
-1.28791 -0.444543 2.8544 145 115 81 
-1.29571 -0.47736 2.87124 124 95 61 
-1.29892 -0.499901 2.88001 130 101 69 
-1.30513 -0.539954 2.89917 112 83 53 
-1.26736 -0.334189 2.81757 203 170 135 
-1.20573 -0.0185595 2.68343 195 161 134 
-1.27095 -0.36132 2.83065 184 156 119 
-1.2034 -0.0316355 2.68857 132 97 67 
-1.32084 -0.66025 2.95431 190 159 130 
-1.32238 -0.690481 2.96159 160 133 106 
-1.28584 -0.510043 2.88433 202 163 122 
-1.30244 -0.591757 2.92152 130 97 64 
-1.26407 -0.39892 2.84388 131 97 70 
-1.2413 -0.261959 2.79294 212 184 147 
-1.31471 -0.673083 2.95916 93 65 41 
-1.20282 -0.0817112 2.70876 184 153 122 
-1.28762 -0.568458 2.90692 207 178 138 
-1.2959 -0.603423 2.93007 180 151 117 
-1.23133 -0.262265 2.788 137 109 72 
-1.28055 -0.553541 2.90179 136 107 77 
-1.21374 -0.184686 2.7517 121 88 55 
-1.27018 -0.518536 2.88295 185 156 122 
-1.30525 -0.698415 2.96303 153 119 82 
-1.29688 -0.692043 2.96011 224 191 150 
-1.18933 -0.109918 2.72269 133 97 63 
-1.18054 -0.0320739 2.70348 187 152 114 
-1.30624 -0.755027 2.99249 206 170 138 
-1.28217 -0.622246 2.93737 139 109 83 
-1.29751 -0.715104 2.97352 133 98 70 
-1.26733 -0.565214 2.91159 165 136 104 
-1.24257 -0.455635 2.85668 199 166 133 
-1.23915 -0.416043 2.84935 198 163 135 
-1.22427 -0.330905 2.81834 136 103 72 
-1.29109 -0.719574 2.97984 203 170 137 
-1.20061 -0.227126 2.77208 143 110 77 
-1.2525 -0.524562 2.8905 202 172 136 
-2.02029 -0.3417 4.7031 231 203 166 
-1.17672 -0.0987595 2.72445 233 200 157 
-1.20728 -0.270383 2.79426 239 209 171 
-1.20572 -0.283851 2.79175 143 110 77 
-1.16015 -0.0167435 2.68807 145 111 73 
-1.25635 -0.56888 2.91417 200 172 135 
-1.22628 -0.414867 2.84795 204 169 131 
-1.28469 -0.733826 2.98465 174 145 115 
-1.23564 -0.48278 2.87165 141 108 73 
-1.20769 -0.305686 2.80814 209 181 141 
-1.20735 -0.318545 2.81111 236 207 173 
-1.22036 -0.402116 2.84373 132 102 66 
-1.26473 -0.659452 2.95323 131 100 69 
-1.17499 -0.154608 2.74399 137 103 68 
-1.25932 -0.622626 2.94071 192 160 135 
-1.24305 -0.550937 2.90357 180 150 122 
-1.23844 -0.541659 2.89749 118 87 58 
-1.17807 -0.198242 2.75942 151 116 76 
-1.21376 -0.375407 2.84432 214 181 136 
-1.25022 -0.623782 2.93559 137 104 69 
-1.22327 -0.48313 2.87385 230 201 167 
-1.2726 -0.75487 2.98871 121 95 60 
-1.24383 -0.597224 2.92286 122 92 64 
-1.23698 -0.557878 2.90674 163 134 100 
-1.16337 -0.114504 2.73796 204 167 123 
-1.14807 -0.0598911 2.70316 226 192 147 
-1.19695 -0.322481 2.81875 233 197 149 
-1.21552 -0.465671 2.86512 192 161 130 
-1.22127 -0.488566 2.88135 217 183 145 
-1.18008 -0.260753 2.78596 154 116 80 
-1.15899 -0.159761 2.73911 159 125 87 
-1.24977 -0.696634 2.96457 213 181 142 
-1.19628 -0.380645 2.84007 158 129 87 
-1.19245 -0.371092 2.83057 164 131 86 
-1.23486 -0.609248 2.93362 238 209 167 
-1.14454 -0.111833 2.72048 128 94 57 
-1.25598 -0.756204 2.98935 222 189 154 
-1.15557 -0.180149 2.75373 227 186 140 
-1.15609 -0.193241 2.75635 216 182 134 
-1.22007 -0.573698 2.91193 204 171 128 
-1.2406 -0.667329 2.9612 230 196 158 
-1.17534 -0.31585 2.80525 155 121 84 
-1.20533 -0.504245 2.88471 153 119 82 
-1.24568 -0.718734 2.98164 212 179 148 
-1.10748 0.0473308 2.65557 117 78 49 
-1.18135 -0.350453 2.8319 230 198 160 
-1.21012 -0.550044 2.90342 156 121 81 
-1.13976 -0.144356 2.73673 155 120 82 
-1.24315 -0.728055 2.98632 226 192 155 
-1.11299 -0.0058001 2.67611 188 149 106 
-1.15285 -0.234753 2.77276 211 179 140 
-1.10591 0.015467 2.6715 123 87 53 
-1.18871 -0.471764 2.87086 216 186 148 
-1.15955 -0.310738 2.8058 199 165 127 
-1.0903 0.0976278 2.64406 193 159 122 
-1.14028 -0.207507 2.76558 229 200 160 
-1.22123 -0.691257 2.96795 132 99 64 
-1.10939 -0.0470773 2.69697 140 96 59 
-1.09508 0.0369954 2.66567 123 87 55 
-1.18241 -0.483898 2.87803 142 108 73 
-1.17385 -0.429828 2.85828 208 175 134 
-1.18461 -0.533496 2.89161 153 121 83 
-1.1053 -0.0666082 2.70024 203 159 120 
-1.16228 -0.377772 2.84008 205 170 138 
-1.17212 -0.444506 2.86609 222 188 153 
-1.2026 -0.628953 2.94254 202 167 127 
-1.22417 -0.755428 2.99571 213 175 130 
-1.08644 0.0217401 2.66726 200 161 122 
-1.18748 -0.56349 2.91465 210 177 136 
-1.12883 -0.24275 2.77476 215 175 123 
-1.11049 -0.142701 2.73568 132 94 57 
-1.18348 -0.577201 2.91469 161 127 92 
-1.14215 -0.348618 2.81491 139 100 61 
-1.08867 -0.033525 2.69062 201 162 119 
-1.18955 -0.635478 2.942 127 96 67 
-1.21008 -0.758794 2.99573 220 182 145 
-1.1196 -0.258965 2.77957 126 95 64 
-1.09227 -0.0950009 2.71439 232 196 148 
-1.10408 -0.175317 2.74894 127 91 55 
-1.11993 -0.290652 2.79352 186 151 109 
-1.0766 -0.046063 2.69191 123 93 69 
-1.0639 0.0262254 2.66412 122 91 62 
-1.15253 -0.517074 2.88693 216 181 139 
-1.17313 -0.637429 2.93831 151 117 82 
-1.16967 -0.612671 2.93229 136 103 68 
-1.16208 -0.594431 2.91719 208 169 130 
-1.12279 -0.346198 2.81853 187 148 109 
-1.12293 -0.361854 2.81877 206 170 138 
-1.05266 0.0581762 2.64718 137 104 69 
-1.08573 -0.134198 2.73061 135 95 60 
-1.10576 -0.260903 2.77989 220 188 147 
-1.10239 -0.223892 2.77285 210 171 132 
-1.18597 -0.728641 2.98344 215 178 136 
-1.10808 -0.278629 2.79044 233 199 154 
-1.09095 -0.16258 2.74852 128 89 56 
-1.16511 -0.630188 2.93651 208 173 133 
-1.16863 -0.658787 2.94516 135 97 60 
-1.13764 -0.463887 2.86749 205 166 127 
-1.16527 -0.648103 2.93769 197 158 119 
-1.07333 -0.0856249 2.7142 124 91 60 
-1.14368 -0.533043 2.89289 182 146 110 
-1.10834 -0.318532 2.80532 213 180 139 
-1.05357 0.0117428 2.6701 112 79 48 
-1.09973 -0.274362 2.78676 143 108 68 
-1.1496 -0.588186 2.91478 211 177 139 
-1.10847 -0.331132 2.8114 217 184 131 
-1.11629 -0.374953 2.83223 212 177 139 
-1.05823 -0.0327029 2.68677 188 153 115 
-1.04157 0.0783864 2.64786 218 184 146 
-1.11602 -0.386461 2.83606 237 198 157 
-1.15568 -0.644825 2.9409 190 153 111 
-1.09016 -0.256551 2.77573 123 89 62 
-1.12624 -0.446198 2.86739 220 177 132 
-1.16288 -0.69184 2.96647 140 101 68 
-1.08541 -0.241067 2.77278 143 113 75 
-1.15611 -0.66566 2.95401 142 109 76 
-1.1354 -0.548727 2.90566 213 180 139 
-1.06291 -0.12535 2.72166 212 169 127 
-1.0591 -0.0900845 2.71319 177 148 114 
-1.03366 0.0618037 2.65134 125 91 63 
-1.05508 -0.0740057 2.70576 125 91 53 
-1.16451 -0.748108 2.98486 153 119 84 
-1.10944 -0.423459 2.84614 191 158 123 
-1.0465 -0.0347064 2.68788 152 118 81 
-1.10347 -0.386497 2.83502 190 155 123 
-1.11351 -0.457397 2.86257 127 97 59 
-1.05605 -0.105181 2.71782 140 106 71 
-1.13169 -0.563217 2.9162 150 112 75 
-1.16149 -0.772299 2.99396 197 162 122 
-1.14945 -0.700459 2.96279 121 86 58 
-1.06093 -0.140879 2.73569 121 84 57 
-1.05166 -0.0837849 2.71399 142 111 82 
-1.06653 -0.202755 2.76173 186 151 119 
-1.09568 -0.394564 2.83671 133 99 64 
-1.06846 -0.238403 2.76687 118 88 54 
-1.0399 -0.0472106 2.6971 222 189 146 
-1.10745 -0.47004 2.87259 114 84 56 
-1.01836 0.0719776 2.64805 99 68 37 
-1.09474 -0.423205 2.84336 187 153 116 
-1.12822 -0.61392 2.93489 208 177 131 
-1.0929 -0.432464 2.84885 184 150 115 
-1.0421 -0.100397 2.7182 229 199 161 
-1.14565 -0.76585 2.98933 187 154 123 
-1.02356 0.0047666 2.67301 139 102 60 
-1.08593 -0.387685 2.83462 187 152 120 
-1.04133 -0.110845 2.72344 183 152 121 
-1.10438 -0.523112 2.88881 210 180 142 
-1.12154 -0.621229 2.93469 141 111 73 
-1.11249 -0.574046 2.91627 189 160 128 
-1.01221 0.0315028 2.65781 124 91 58 
-1.00866 0.0415362 2.65157 177 144 109 
-1.08243 -0.413177 2.84392 206 175 144 
-1.06169 -0.298948 2.79191 126 95 66 
-1.05862 -0.265043 2.78591 215 182 147 
-0.989921 0.134025 2.61126 115 87 50 
-1.07603 -0.401902 2.83983 137 105 66 
-1.09501 -0.533016 2.89522 205 176 146 
-1.07656 -0.423368 2.84961 138 105 72 
-1.03516 -0.166352 2.74485 192 159 116 
-1.00395 -0.00153802 2.66819 153 118 80 
-1.00185 0.019316 2.66473 178 148 114 
-1.0594 -0.359016 2.81618 184 150 113 
-1.02294 -0.105473 2.72085 128 95 64 
-1.05816 -0.327476 2.81256 195 161 124 
-1.11432 -0.702551 2.96358 133 99 64 
-1.10594 -0.652504 2.94351 187 154 121 
-1.0678 -0.417242 2.84406 192 157 129 
-1.00477 -0.00784728 2.67996 179 140 99 
-1.10641 -0.6614 2.94954 194 163 132 
-1.08238 -0.503508 2.8852 205 167 128 
-1.02559 -0.15607 2.7357 139 106 73 
-1.09147 -0.587168 2.9155 116 86 58 
-1.10805 -0.710079 2.96716 224 191 156 
-1.02138 -0.178067 2.74127 190 160 122 
-1.09511 -0.624905 2.93815 229 195 158 
-1.11379 -0.75726 2.9901 208 173 131 
-1.00948 -0.097599 2.71444 184 148 112 
-0.985303 0.0589165 2.64982 130 97 66 
-1.08266 -0.56554 2.91034 219 182 138 
-1.09857 -0.621442 2.95398 203 170 135 
-1.09756 -0.669277 2.95356 204 174 140 
-0.978425 0.0782418 2.63848 138 108 70 
-1.09789 -0.683727 2.96112 217 183 146 
-0.959587 0.173094 2.59452 192 150 100 
-0.977719 0.0522283 2.64695 177 146 118 
-0.971058 0.0889956 2.6292 203 170 139 
-0.979391 0.0364205 2.65609 135 101 74 
-1.08534 -0.658468 2.94295 125 96 62 
-1.10011 -0.741189 2.9837 230 196 159 
-1.03711 -0.350713 2.81483 190 157 122 
-0.972414 0.0653696 2.64665 175 141 104 
-1.05056 -0.456513 2.86091 134 104 70 
-0.979773 -0.0127805 2.6745 189 158 127 
-1.01554 -0.238153 2.77143 194 155 116 
-1.09112 -0.729723 2.97876 170 136 101 
-1.02846 -0.32521 2.80739 124 91 58 
-1.01854 -0.261991 2.78167 189 155 120 
-1.00269 -0.174801 2.74016 129 96 61 
-1.0537 -0.49718 2.87882 148 114 79 
-1.08198 -0.687865 2.96061 190 155 115 
-1.02827 -0.358702 2.81324 203 163 127 
-0.973487 0.00976498 2.66808 207 177 143 
-0.992487 -0.110697 2.71955 174 142 104 
-0.963656 0.0521488 2.64506 213 181 142 
-0.955177 0.0982031 2.62658 128 83 44 
-0.964435 0.0438608 2.65214 202 168 130 
-0.986677 -0.103499 2.71443 147 117 79 
-1.03454 -0.426093 2.84491 201 156 115 
-1.07097 -0.661177 2.94692 213 177 145 
-0.97824 -0.0497557 2.69505 216 190 153 
-0.985106 -0.118201 2.71861 126 95 67 
-1.04341 -0.510909 2.88131 191 157 120 
-0.981403 -0.0931225 2.71555 221 189 150 
-0.951995 0.0762077 2.64009 167 132 102 
-1.0317 -0.443955 2.85863 93 62 41 
-1.03351 -0.474262 2.86387 202 164 125 
-0.963491 -0.0129521 2.67512 223 188 148 
-0.951692 0.038528 2.65576 196 154 106 
-0.97432 -0.105622 2.71893 106 77 47 
-0.945668 0.0475458 2.64722 122 87 55 
-1.00163 -0.318981 2.80464 149 117 79 
-0.975362 -0.153946 2.73314 135 105 71 
-1.00804 -0.375861 2.82429 148 114 79 
-0.956667 -0.0341399 2.68289 197 165 127 
-0.940406 0.0769948 2.64199 188 156 118 
-0.978889 -0.18495 2.74696 151 118 83 
-1.02108 -0.473071 2.86697 134 104 70 
-1.04647 -0.669984 2.94991 125 94 66 
-1.05988 -0.757227 2.98917 196 159 117 
-0.933457 0.0892596 2.63529 136 103 72 
-0.927161 0.134482 2.61917 182 146 114 
-0.978815 -0.224088 2.76664 119 90 60 
-0.926669 0.125232 2.62408 180 145 115 
-1.04108 -0.649632 2.94407 142 111 83 
-1.04336 -0.679162 2.95394 192 159 128 
-1.00406 -0.40957 2.84582 206 174 135 
-0.926876 0.0805173 2.63654 143 110 77 
-0.931671 0.0360957 2.65068 118 87 58 
-0.961167 -0.13304 2.73108 224 178 128 
-1.04428 -0.7098 2.96868 143 114 80 
-0.945741 -0.0767866 2.69599 131 95 59 
-1.03833 -0.690064 2.9578 147 113 78 
-1.02317 -0.582642 2.91754 175 145 111 
-0.996597 -0.401991 2.84207 140 108 70 
-0.985186 -0.324064 2.81056 137 98 65 
-0.930568 0.0309601 2.66191 177 142 104 
-0.999193 -0.446147 2.86165 136 103 68 
-0.913748 0.103077 2.62277 180 143 99 
-1.02987 -0.678018 2.95098 213 179 141 
-0.929502 0.0198921 2.66724 195 161 124 
-0.950951 -0.138725 2.72782 129 94 56 
-0.984409 -0.374109 2.82644 143 104 61 
-1.00651 -0.53916 2.89686 216 178 139 
-0.93163 -0.0470117 2.68778 138 105 64 
-0.916583 0.046616 2.64699 196 161 123 
-0.935252 -0.0792753 2.70136 119 85 48 
-1.03523 -0.752297 2.98969 200 166 129 
-0.979703 -0.388874 2.83311 133 98 60 
-1.02384 -0.689316 2.95964 144 110 73 
-0.992359 -0.469138 2.86915 134 101 68 
-0.93001 -0.0637247 2.69404 174 144 120 
-0.908977 0.0720326 2.63774 170 136 111 
-0.962868 -0.296224 2.79186 128 94 57 
-0.934655 -0.0872533 2.71178 200 163 118 
-0.944328 -0.185739 2.74384 189 160 130 
-0.950566 -0.220754 2.76499 172 142 106 
-0.907347 0.0511732 2.64637 207 164 119 
-0.982318 -0.473191 2.86737 192 160 119 
-0.930722 -0.120129 2.72111 124 88 52 
-0.901302 0.0585788 2.64149 210 166 121 
-0.898203 0.0895549 2.63757 124 86 47 
-0.951343 -0.299067 2.79298 126 96 60 
-0.935714 -0.185637 2.74841 126 99 70 
-0.909416 -0.0295196 2.68076 117 77 41 
-0.962246 -0.382409 2.8329 144 110 73 
-0.921414 -0.109856 2.71566 138 102 68 
-0.977057 -0.501815 2.88035 189 160 126 
-0.906886 -0.04535 2.68601 202 162 127 
-0.995456 -0.663526 2.95025 185 151 124 
-0.966242 -0.477668 2.87112 126 97 63 
-0.88746 0.043372 2.64602 186 150 116 
-0.972043 -0.538869 2.89505 196 163 132 
-0.893197 0.0221363 2.66363 219 178 126 
-0.884096 0.0779451 2.63928 137 95 57 
-0.877509 0.102565 2.62348 187 154 119 
-0.942324 -0.33989 2.8127 133 99 64 
-0.96093 -0.464628 2.86782 202 165 123 
-0.882333 0.0535338 2.64231 179 147 109 
-0.919419 -0.190309 2.74987 227 184 139 
-0.908481 -0.13979 2.7225 222 177 122 
-0.911868 -0.157224 2.73472 191 156 118 
-0.94369 -0.385781 2.82952 126 87 54 
-0.981681 -0.663134 2.94603 134 100 63 
-0.956388 -0.471721 2.87311 104 75 41 
-0.869743 0.109154 2.62593 135 101 64 
-0.890819 -0.04191 2.68682 221 181 132 
-0.960207 -0.534972 2.89539 183 149 114 
-0.907724 -0.174904 2.7449 134 92 54 
-0.989645 -0.769662 2.99544 105 80 49 
-0.895726 -0.101739 2.71604 216 173 131 
-0.877975 0.0124501 2.66375 183 145 109 
-0.917982 -0.284439 2.7846 126 87 54 
-0.943819 -0.462133 2.8662 172 142 108 
-0.96525 -0.618196 2.93361 131 90 60 
-0.908538 -0.248443 2.76131 141 106 68 
-0.896723 -0.144522 2.7275 195 156 117 
-0.935371 -0.428148 2.84372 185 142 97 
-0.947242 -0.496746 2.88146 142 104 67 
-0.92486 -0.347365 2.81588 135 100 60 
-0.963405 -0.63143 2.93625 177 145 106 
-0.879541 -0.0476033 2.6846 123 85 49 
-0.931195 -0.397064 2.84321 144 104 69 
-0.966949 -0.691913 2.95648 181 148 113 
-0.865025 0.0406114 2.64858 185 147 110 
-0.901622 -0.223147 2.7612 190 151 112 
-0.869773 0.000706848 2.66769 125 86 53 
-0.886318 -0.129314 2.72137 178 144 99 
-0.855679 0.0757233 2.63909 150 119 90 
-0.839795 0.180039 2.59606 179 144 116 
-0.866739 -0.0306227 2.68041 129 90 57 
-0.908539 -0.33961 2.80775 150 115 73 
-0.859195 0.0164364 2.66215 167 133 95 
-0.877618 -0.120922 2.7198 128 93 63 
-0.946891 -0.6351 2.939 201 159 117 
-0.924649 -0.477259 2.87157 133 101 63 
-0.844907 0.0830013 2.63299 131 98 63 
-0.847131 0.0655663 2.6408 96 64 41 
-0.840007 0.133381 2.62118 218 183 151 
-0.950693 -0.693341 2.96266 199 159 123 
-0.869997 -0.110995 2.71658 122 83 44 
-0.865819 -0.124281 2.71412 156 109 63 
-0.928745 -0.561638 2.90752 189 152 108 
-0.845922 0.0273163 2.65647 120 89 61 
-0.84744 0.0124985 2.66535 120 90 54 
-0.854934 -0.0470962 2.68673 189 155 120 
-0.818645 0.227947 2.57934 168 134 97 
-0.854506 -0.0769049 2.69713 182 151 120 
-0.940028 -0.720078 2.9646 189 156 121 
-0.932054 -0.652756 2.94575 138 98 62 
-0.908077 -0.476148 2.86808 119 85 50 
-0.856284 -0.0941038 2.70895 115 85 51 
-0.899335 -0.426239 2.84532 209 167 119 
-0.94526 -0.777094 2.99387 192 158 123 
-0.831278 0.0731025 2.63922 196 161 121 
-0.941646 -0.758527 2.98721 153 124 94 
-0.929136 -0.671004 2.95116 147 102 69 
-0.921259 -0.597979 2.92525 214 171 126 
-0.843915 -0.0576106 2.69221 182 150 109 
-0.833114 0.0203639 2.658 198 165 130 
-0.88802 -0.384368 2.82883 181 143 106 
-0.898073 -0.476366 2.86628 194 156 119 
-0.922479 -0.662103 2.94598 204 160 123 
-0.925813 -0.686805 2.9596 137 103 66 
-0.850179 -0.123332 2.72093 126 92 64 
-0.853519 -0.158477 2.73126 153 123 87 
-0.871683 -0.290561 2.78854 134 99 61 
-0.807987 0.171805 2.59342 133 99 64 
-0.88212 -0.375524 2.82389 124 88 52 
-0.868055 -0.263744 2.7811 141 102 69 
-0.823385 0.0617337 2.64338 199 161 125 
-0.842582 -0.0961058 2.70919 165 131 94 
-0.837007 -0.0403292 2.69079 211 177 139 
-0.860093 -0.232847 2.76363 144 109 71 
-0.90686 -0.585349 2.918 128 98 64 
-0.828833 -0.0235557 2.67655 211 173 136 
-0.909623 -0.616354 2.93174 133 106 76 
-0.899899 -0.554256 2.90199 147 114 83 
-0.909923 -0.631211 2.93391 186 156 118 
-0.794628 0.22981 2.573 95 65 37 
-0.855122 -0.217657 2.76313 221 186 146 
-0.825593 -0.0355778 2.67217 215 181 144 
-0.848023 -0.168018 2.7425 164 130 92 
-0.831192 -0.0609393 2.69347 195 165 131 
-0.797848 0.204104 2.5906 116 89 60 
-0.91371 -0.686138 2.96127 174 145 115 
-0.814585 0.0518286 2.64403 197 163 125 
-0.90975 -0.65846 2.94735 196 160 124 
-0.829267 -0.0491446 2.6925 215 181 143 
-0.832598 -0.0938025 2.70456 225 190 152 
-0.811587 0.040762 2.64727 179 139 103 
-0.819542 -0.0357809 2.68163 133 94 61 
-0.891237 -0.560588 2.91057 210 172 133 
-0.837627 -0.17728 2.73988 209 175 137 
-0.843677 -0.219633 2.76002 216 181 143 
-0.810814 0.0192011 2.65994 161 133 96 
-0.894995 -0.614043 2.93088 208 175 132 
-0.89102 -0.586771 2.92007 195 160 120 
-0.906386 -0.712189 2.97358 138 99 66 
-0.868069 -0.400457 2.8513 197 159 120 
-0.858124 -0.358213 2.81867 142 108 73 
-0.873346 -0.477263 2.86858 139 109 71 
-0.816314 -0.0547721 2.68636 175 139 107 
-0.830675 -0.166404 2.73456 138 105 72 
-0.815769 -0.0651677 2.6893 198 164 126 
-0.879053 -0.537208 2.89389 145 112 77 
-0.901073 -0.692903 2.96708 211 176 134 
-0.908434 -0.769038 2.99332 134 106 69 
-0.875187 -0.510873 2.88448 197 158 115 
-0.819077 -0.0821737 2.70305 190 155 113 
-0.810398 -0.0307123 2.67783 169 137 99 
-0.797718 0.0498595 2.64159 164 134 110 
-0.889965 -0.623746 2.9429 193 155 116 
-0.800774 0.0275601 2.65743 132 105 78 
-0.825748 -0.178474 2.73973 181 147 109 
-0.807152 -0.072774 2.69136 88 54 26 
-0.898787 -0.746396 2.99157 201 168 127 
-0.781542 0.131502 2.61261 109 75 48 
-0.786953 0.0716962 2.63179 183 149 122 
-0.803894 -0.0475614 2.68812 171 140 111 
-0.835208 -0.29714 2.7876 194 153 109 
-0.795003 0.0140023 2.66083 113 83 57 
-0.801216 -0.060827 2.68723 90 63 46 
-0.812541 -0.149819 2.72654 88 62 37 
-0.888837 -0.74359 2.98103 221 187 150 
-0.815419 -0.177869 2.73847 111 80 51 
-0.885043 -0.70851 2.9722 127 94 63 
-0.867229 -0.575107 2.9142 138 105 74 
-0.787509 0.0259183 2.65628 172 140 119 
-0.867493 -0.592746 2.92104 198 168 132 
-0.824892 -0.282105 2.78106 165 133 95 
-0.873313 -0.648597 2.94463 219 188 144 
-0.764052 0.197199 2.58814 141 111 83 
-0.802822 -0.122379 2.71758 109 78 49 
-0.856206 -0.545394 2.89547 188 160 123 
-0.847789 -0.494301 2.86991 209 180 148 
-0.876148 -0.721468 2.96722 203 170 137 
-0.874551 -0.700097 2.96447 192 160 122 
-0.775267 0.0659553 2.63478 121 96 65 
-0.801068 -0.134155 2.71932 105 78 51 
-0.786484 -0.0297698 2.67422 158 133 93 
-0.755093 0.226079 2.57248 149 117 92 
-0.776093 0.0584771 2.64207 96 66 42 
-0.836477 -0.434911 2.84286 125 92 61 
-0.826507 -0.362611 2.81297 117 79 43 
-0.802446 -0.152728 2.73448 101 74 47 
-0.803048 -0.173856 2.73922 111 79 54 
-0.848168 -0.531165 2.89241 181 149 111 
-0.792007 -0.100747 2.70615 189 156 121 
-0.779926 -0.00246892 2.6679 96 67 37 
-0.872674 -0.738636 2.97998 148 119 87 
-0.848048 -0.556633 2.89797 131 101 67 
-0.827535 -0.388421 2.82974 138 107 76 
-0.860467 -0.656348 2.94524 180 152 115 
-0.791361 -0.111829 2.71295 185 152 117 
-0.773848 0.00726477 2.65917 100 72 48 
-0.751175 0.159573 2.59359 93 64 34 
-0.788043 -0.140913 2.71785 163 132 101 
-0.792985 -0.178868 2.73577 156 122 94 
-0.780791 -0.0845434 2.69969 110 77 44 
-0.858916 -0.703333 2.96735 126 92 65 
-0.861692 -0.738443 2.98048 104 75 43 
-0.856007 -0.716221 2.9661 126 98 59 
-0.78799 -0.161708 2.73223 122 92 54 
-0.803318 -0.306392 2.79214 181 152 122 
-0.788027 -0.188378 2.74039 166 138 101 
-0.832982 -0.530143 2.89535 208 172 136 
-0.847081 -0.659138 2.94499 176 146 110 
-0.777834 -0.123421 2.71772 108 72 38 
-0.771537 -0.0979595 2.69755 107 76 48 
-0.782281 -0.178226 2.7349 95 64 36 
-0.759234 0.0137831 2.65783 111 80 51 
-0.831195 -0.556897 2.90327 144 112 74 
-0.778057 -0.146304 2.72782 107 71 37 
-0.786314 -0.214399 2.75587 177 145 107 
-0.826804 -0.537684 2.89541 130 97 62 
-0.750712 0.0576643 2.63701 103 73 47 
-0.851003 -0.744912 2.98398 210 176 139 
-0.823878 -0.527651 2.89125 134 96 59 
-0.796936 -0.337186 2.80617 166 133 98 
-0.827579 -0.584894 2.91375 188 150 111 
-0.727889 0.222013 2.5745 105 75 47 
-0.766017 -0.101853 2.70717 172 143 113 
-0.758551 -0.0512336 2.68576 153 123 99 
-0.794676 -0.346262 2.81285 173 141 102 
-0.771736 -0.180591 2.73591 160 128 90 
-0.768484 -0.149082 2.72685 162 128 90 
-0.837033 -0.694194 2.96579 194 161 118 
-0.829071 -0.635053 2.93939 196 161 119 
-0.779385 -0.2424 2.7665 179 137 97 
-0.758088 -0.0872276 2.6969 118 83 45 
-0.714201 0.280773 2.54824 116 80 46 
-0.721561 0.231202 2.57379 173 139 114 
-0.749031 -0.00449129 2.66961 92 61 33 
-0.766448 -0.162319 2.73273 186 156 118 
-0.762291 -0.173247 2.73724 126 93 62 
-0.783346 -0.343838 2.81011 172 141 113 
-0.775896 -0.280838 2.78421 177 144 113 
-0.739756 -0.000862635 2.66216 187 154 121 
-0.738014 -0.0135231 2.66437 165 135 109 
-0.713366 0.209435 2.57893 105 68 42 
-0.716323 0.151284 2.59591 174 145 111 
-0.752112 -0.141282 2.72388 133 102 73 
-0.739988 -0.0590567 2.68738 174 141 100 
-0.70692 0.21805 2.57184 160 126 99 
-0.79921 -0.550972 2.90041 186 156 120 
-0.724211 0.0179654 2.64746 155 122 89 
-0.736436 -0.0708607 2.68928 178 147 116 
-0.816382 -0.721097 2.97496 180 144 108 
-0.74975 -0.174317 2.74028 198 167 123 
-0.720776 0.04276 2.64073 102 72 44 
-0.718717 0.0606303 2.63839 62 36 9 
-0.728988 -0.0359224 2.67664 158 127 98 
-0.743785 -0.159688 2.73469 132 100 59 
-0.729234 -0.0599765 2.68953 140 115 85 
-0.737449 -0.139879 2.71824 179 148 117 
-0.722173 -0.022839 2.66723 109 79 55 
-0.741538 -0.180982 2.73755 111 78 47 
-0.720159 3.38028e-05 2.66601 79 49 25 
-0.72748 -0.0997869 2.69909 164 129 97 
-0.72361 -0.0734724 2.69109 110 81 49 
-0.693695 0.20232 2.58549 183 154 124 
-0.711037 0.0176685 2.65382 148 118 90 
-0.726282 -0.114227 2.71179 105 77 40 
-0.666714 0.423596 2.49592 194 162 123 
-0.730117 -0.166732 2.73222 107 78 46 
-0.716582 -0.0618878 2.69052 162 131 103 
-0.696373 0.106059 2.61848 93 62 31 
-0.716963 -0.0889498 2.69815 163 128 100 
-0.682984 0.200182 2.58182 161 128 93 
-0.711038 -0.109928 2.70876 164 133 105 
-0.707781 -0.125765 2.71257 155 119 85 
-0.685997 0.066137 2.63757 118 85 54 
-0.695515 -0.0377688 2.67758 80 52 28 
-0.697093 -0.057356 2.68377 107 78 48 
-0.698645 -0.074131 2.69418 104 74 46 
-0.690674 -0.0174586 2.66307 79 51 27 
-0.689142 0.00557591 2.66075 178 143 111 
-0.699023 -0.088067 2.70025 74 47 18 
-0.66521 0.201764 2.57874 146 116 82 
-0.644514 0.372189 2.51277 187 151 115 
-0.67866 0.00383868 2.66026 155 125 97 
-0.646608 0.292307 2.54842 109 79 45 
-0.629549 0.461027 2.48278 195 157 118 
-0.682648 -0.0563429 2.68771 150 123 93 
-0.671269 0.0149097 2.64975 83 57 30 
-0.48185 -0.716446 1.88213 117 1 40 
-0.660356 0.0933137 2.6157 107 74 41 
-0.641695 0.248115 2.56107 158 127 99 
-0.670098 -0.0321587 2.67219 145 118 89 
-0.666485 -0.00599296 2.66138 147 115 92 
-0.661179 0.00898666 2.65348 111 85 60 
-0.636058 0.255813 2.55708 79 53 26 
-0.620099 0.414857 2.49627 169 136 105 
-0.659171 0.0192247 2.6474 104 74 46 
-0.665219 -0.0473449 2.68153 129 99 71 
-0.504166 -0.702148 2.01067 176 59 101 
-0.652581 0.0376444 2.63581 158 123 85 
-0.660297 -0.0199495 2.66774 118 81 55 
-0.623063 0.320356 2.52527 168 133 93 
-0.66546 -0.0912405 2.69713 94 61 30 
-0.654887 -0.00464384 2.66087 163 128 100 
-0.641269 0.120034 2.60911 150 119 90 
-0.505816 -0.759088 2.0363 178 52 89 
-0.659743 -0.0580965 2.68618 147 112 80 
-0.473944 -0.421209 1.91164 186 50 52 
-0.656355 -0.0359978 2.6773 146 115 86 
-0.638142 0.11012 2.61301 161 131 95 
-0.647366 -0.022326 2.66533 117 86 57 
-0.489493 -0.695227 2.02393 218 58 118 
-0.473569 -0.500532 1.96 175 55 67 
-0.444645 -0.280427 1.88175 216 200 187 
-0.465921 -0.630324 2.01336 205 75 111 
-0.467747 -0.676247 2.03079 155 42 88 
-0.404634 -0.453672 1.95356 232 45 40 
-0.385149 -0.395776 1.92189 187 82 79 
-0.38575 -0.620769 2.01369 70 10 18 
-0.360082 -0.467065 1.94942 237 188 218 
-0.377091 -0.700399 2.03968 102 88 62 
-0.364439 -0.695687 2.04335 38 31 13 
-0.324032 -0.334068 1.83895 183 107 107 
-0.334683 -0.554422 1.96037 120 75 70 
-0.319171 -0.363213 1.90476 210 51 56 
-0.322179 -0.41085 1.92717 235 81 79 
-0.337001 -0.673361 2.03437 116 156 106 
-0.333333 -0.643887 2.02186 89 125 97 
-0.290655 -0.265261 1.77459 154 154 152 
-0.322335 -0.598761 1.98123 13 9 6 
-0.319244 -0.658468 2.0272 57 92 72 
-0.306312 -0.493555 1.9582 229 175 137 
-0.2775 -0.273658 1.78224 232 232 232 
-0.306775 -0.657157 2.02203 6 26 15 
-0.309014 -0.688919 2.0407 178 105 96 
-0.295568 -0.508402 1.9664 112 61 30 
-0.298693 -0.699261 2.03482 254 248 234 
-0.286721 -0.625991 2.01487 161 36 44 
-0.276404 -0.506672 1.96424 195 144 117 
-0.258595 -0.454402 1.90755 248 236 222 
-0.266161 -0.508538 1.96583 187 144 125 
-0.264526 -0.658919 2.0267 133 52 35 
-0.253409 -0.599617 2.00066 158 31 40 
-0.249854 -0.547495 1.98046 66 33 14 
-0.243343 -0.566577 1.98884 112 137 107 
-0.238643 -0.515245 1.96719 58 22 0 
-0.238 -0.580011 1.99348 88 134 105 
-0.229755 -0.645255 2.01947 197 148 115 
-0.229583 -0.699157 2.04158 122 85 69 
-0.219065 -0.559294 1.98428 90 138 112 
-0.199332 -0.315427 1.88685 171 140 120 
-0.216747 -0.707411 2.04598 152 80 32 
-0.208998 -0.550039 1.97994 51 106 85 
-0.181214 -0.312605 1.88521 176 145 125 
-0.157722 -0.126338 1.71829 226 227 229 
-0.169113 -0.429378 1.89124 215 165 114 
-0.176225 -0.523215 1.9673 169 101 66 
-0.147244 -0.563817 1.92983 250 217 198 
-0.146414 -0.514257 1.96363 166 150 153 
-0.134026 -0.314811 1.88426 193 137 124 
-0.143709 -0.734141 2.0522 78 102 102 
-0.0964362 -0.38907 1.91027 102 77 83 
-0.091416 -0.559474 1.92846 177 138 123 
-0.0860836 -0.476606 1.91484 146 104 64 
-0.0661934 -0.547937 1.96922 141 94 88 
-0.0617509 -0.513971 1.95196 130 70 69 
-0.0588216 -0.494539 1.94259 128 56 41 
-0.0527175 -0.363786 1.84358 200 135 155 
-0.0453843 -0.434696 1.88753 134 104 52 
-0.0445423 0.513712 2.00697 223 200 194 
-0.00915847 -0.538714 1.9612 136 132 129 
0.313287 0.0591162 1.73757 168 137 108 
-1.14948 0.720519 2.46346 171 141 107 
-1.10585 0.962645 2.37313 133 101 76 
-1.08602 0.928939 2.38674 169 141 117 
-1.07957 1.01215 2.35204 188 160 123 
-1.07884 0.981757 2.36462 132 101 73 
-1.08324 0.842623 2.42422 187 153 118 
-1.08074 0.78895 2.45163 192 158 120 
-1.07294 0.967701 2.3913 138 106 81 
-1.05658 0.848079 2.41121 169 133 107 
-1.04976 0.980074 2.36551 176 142 104 
-1.05266 0.624315 2.48752 119 86 55 
-1.0471 0.786038 2.43572 97 67 41 
-1.04314 0.911212 2.3874 137 108 78 
-1.04575 0.66794 2.46977 123 87 63 
-1.04558 0.768438 2.44177 181 151 117 
-1.03999 0.805442 2.42021 190 155 115 
-1.04113 0.897286 2.39715 118 87 59 
-1.03939 0.868054 2.40491 108 77 48 
-1.03226 1.02846 2.35135 214 180 145 
-1.03527 0.90985 2.40654 145 111 76 
-1.03126 1.03412 2.35937 145 106 75 
-1.02774 1.0138 2.35579 210 182 145 
-1.03089 0.91073 2.39625 117 84 53 
-1.03706 0.62758 2.50254 173 141 100 
-1.02626 0.866931 2.40948 178 148 120 
-1.02351 0.82115 2.42659 113 82 64 
-1.022 0.860586 2.41746 196 165 134 
-1.0222 0.853437 2.42416 192 161 130 
-1.02146 0.99525 2.38113 185 156 116 
-1.01433 0.831477 2.41424 191 157 129 
-1.01617 0.894874 2.40207 120 85 55 
-1.015 0.94992 2.38597 188 155 112 
-1.01195 0.994042 2.36505 137 102 64 
-1.00883 1.02676 2.35166 185 154 126 
-1.0153 0.695354 2.47011 113 83 55 
-1.00961 0.956148 2.37602 191 160 129 
-1.01256 0.87278 2.41167 210 175 135 
-1.01465 0.73196 2.46027 190 159 128 
-1.0125 0.83969 2.42432 107 77 49 
-1.01563 0.648574 2.4935 132 102 66 
-1.01184 0.71916 2.46193 197 166 137 
-1.00864 0.768902 2.44511 113 79 52 
-1.00616 0.796246 2.43661 187 151 117 
-1.00134 0.99575 2.36782 129 95 67 
-1.00195 0.90981 2.39759 184 154 120 
-1.00356 0.743255 2.45342 189 150 107 
-1.00273 0.691731 2.46902 138 103 71 
-1.00403 0.867181 2.4207 150 107 72 
-0.998363 0.795989 2.42735 204 161 129 
-0.997048 0.97036 2.37629 129 98 67 
-0.999991 0.720115 2.46013 115 84 56 
-0.997529 0.762562 2.44376 184 151 116 
-0.999493 0.661879 2.48117 90 61 31 
-0.992648 0.941348 2.38394 122 90 65 
-0.993494 0.748106 2.4464 116 73 39 
-0.988792 0.91572 2.38426 111 80 51 
-0.996324 0.710163 2.46889 166 136 108 
-0.989858 0.864756 2.4061 186 146 110 
-0.988159 1.02949 2.3569 186 158 121 
-0.984537 0.855169 2.40625 128 90 69 
-0.9888 0.812908 2.43326 171 132 93 
-0.98906 0.684658 2.47226 151 109 71 
-0.988766 0.71678 2.46317 167 133 105 
-0.983745 0.74521 2.44484 194 153 109 
-0.985221 0.802935 2.43322 122 88 60 
-0.980389 0.922866 2.3842 194 164 136 
-0.984805 0.728918 2.45612 166 127 84 
-0.983342 0.782538 2.43791 128 95 64 
-0.971726 0.969068 2.35493 120 90 62 
-0.979641 0.974643 2.37582 178 150 113 
-0.977542 0.945643 2.38229 177 150 123 
-0.974468 1.00679 2.35891 88 57 28 
-0.97707 0.908785 2.3992 195 158 129 
-0.978927 0.475353 2.53808 113 80 49 
-0.973315 0.864352 2.4084 175 144 116 
-0.979407 0.663229 2.48693 167 133 106 
-0.973362 0.753685 2.44443 125 95 61 
-0.973303 0.764492 2.44442 167 133 96 
-0.973811 0.624176 2.48757 190 146 97 
-0.970117 0.549183 2.50019 178 132 80 
-0.971978 0.922594 2.39433 113 82 51 
-0.967284 0.974943 2.36931 175 141 103 
-0.970811 0.734717 2.45163 175 144 116 
-0.971732 0.859175 2.41996 139 108 80 
-0.970663 0.708027 2.46414 166 132 104 
-0.97075 0.668934 2.47731 86 64 41 
-0.9657 0.932631 2.38742 198 162 128 
-0.968044 0.893518 2.40673 97 66 38 
-0.964391 0.914784 2.39068 176 140 104 
-0.966117 0.80409 2.43038 179 145 117 
-0.965919 0.718478 2.45857 128 97 68 
-0.960172 0.953301 2.37508 183 150 115 
-0.963026 0.854989 2.41362 82 52 16 
-0.96313 0.482344 2.53562 117 83 48 
-0.965719 0.735548 2.4686 179 150 118 
-0.962117 0.78712 2.44339 163 129 101 
-0.960127 0.827611 2.42698 95 63 38 
-0.961611 0.617325 2.49324 179 148 119 
-0.963935 0.72448 2.46884 190 159 130 
-0.960629 0.635771 2.48654 115 81 54 
-0.954122 0.865783 2.40927 136 104 66 
-0.960011 0.668662 2.48555 183 149 122 
-0.951493 0.994925 2.36862 115 82 49 
-0.959375 0.658 2.49074 197 165 140 
-0.955354 0.763357 2.4498 86 60 35 
-0.950671 0.892834 2.39957 188 152 116 
-0.950238 0.983433 2.37197 112 79 44 
-0.953544 0.719796 2.45935 80 50 22 
-0.958325 0.528062 2.53189 115 82 51 
-0.952629 0.69911 2.46967 83 62 43 
-0.944205 0.860756 2.39907 220 187 146 
-0.948522 0.947875 2.38897 130 92 55 
-0.954253 0.580054 2.51406 163 127 93 
-0.948065 0.795295 2.43276 128 95 60 
-0.948752 0.623043 2.48901 137 107 79 
-0.943631 1.02325 2.35809 140 102 65 
-0.950586 0.605241 2.5047 75 40 18 
-0.944337 0.968089 2.3795 188 151 109 
-0.9459 0.737037 2.45265 140 105 65 
-0.944467 0.757015 2.44676 123 91 53 
-0.943075 0.922718 2.39492 110 76 49 
-0.950776 0.649981 2.49769 90 59 28 
-0.948824 0.308862 2.60272 128 101 71 
-0.944136 0.676694 2.48087 147 115 76 
-0.936282 0.880471 2.40252 95 60 28 
-0.938227 0.900651 2.40536 193 156 114 
-0.934175 0.984331 2.36711 194 161 128 
-0.943325 0.518517 2.53489 83 53 27 
-0.937169 0.815096 2.4312 101 68 33 
-0.934924 0.672258 2.47266 218 176 136 
-0.936002 0.519022 2.52203 155 123 98 
-0.936929 0.62281 2.49383 199 160 117 
-0.938182 0.73094 2.46654 176 143 100 
-0.935866 0.709924 2.46931 181 151 117 
-0.937335 0.841831 2.43911 174 135 96 
-0.931309 0.73606 2.45178 99 69 33 
-0.936942 0.547788 2.52412 112 72 36 
-0.933219 0.55494 2.51629 195 156 115 
-0.929779 0.953042 2.39119 180 145 105 
-0.92455 0.978774 2.36895 128 94 57 
-0.929896 0.79451 2.44208 172 142 106 
-0.924291 0.923761 2.38912 178 144 107 
-0.930225 0.741527 2.462 134 100 72 
-0.930798 0.67271 2.48312 165 135 99 
-0.923451 0.804451 2.42388 172 141 110 
-0.92598 0.766767 2.44297 169 139 103 
-0.929443 0.694019 2.48026 116 81 43 
-0.923229 0.799395 2.43279 164 134 96 
-0.920348 0.881841 2.40168 173 135 99 
-0.922547 0.709581 2.46283 200 158 120 
-0.925529 0.613627 2.50293 91 61 27 
-0.91455 0.975505 2.36334 192 157 119 
