ply                 
format ascii 1.0    
element vertex 1241
property float x    
property float y    
property float z    
property uchar red  
property uchar green
property uchar blue 
end_header          
-0.685534 0.946461 2.3712 72 41 23 
-0.693359 0.318511 2.57074 134 99 69 
-0.682305 0.983868 2.34954 108 73 43 
-0.699389 0.224099 2.6216 158 127 99 
-0.689781 0.570605 2.49223 157 129 105 
-0.695335 0.182045 2.61728 173 139 102 
-0.683632 0.97556 2.36093 148 115 82 
-0.699393 0.100761 2.65732 85 61 25 
-0.691314 0.192132 2.6007 183 153 119 
-0.502886 -0.631461 2.03384 194 50 101 
-0.696903 0.135552 2.64119 206 176 138 
-0.684019 0.70644 2.4399 111 78 47 
-0.683828 0.911998 2.38526 84 50 25 
-0.687933 0.41072 2.53543 146 119 90 
-0.689213 0.557648 2.5041 89 62 35 
-0.680318 0.960997 2.3611 163 134 104 
-0.699946 0.0321312 2.68736 76 45 25 
-0.686807 0.641202 2.47442 145 115 89 
-0.684143 0.650785 2.46114 195 157 120 
-0.685115 0.683066 2.45705 161 131 105 
-0.496948 -0.529592 1.98682 57 0 0 
-0.680759 0.883945 2.38697 82 55 25 
-0.689294 0.235043 2.59631 159 129 95 
-0.685133 0.671053 2.46372 115 79 43 
-0.681514 0.584 2.47428 148 117 71 
-0.681638 0.720967 2.44032 132 98 61 
-0.678632 0.951339 2.36282 170 144 107 
-0.679974 0.353235 2.52943 126 106 73 
-0.499678 -0.643745 2.03387 91 28 55 
-0.679381 0.76818 2.42208 203 157 107 
-0.680315 0.691498 2.45188 107 76 45 
-0.679527 0.533572 2.49073 149 116 81 
-0.693044 0.0873284 2.66474 134 105 71 
-0.678202 0.847828 2.40389 118 88 60 
-0.687224 0.25554 2.59827 158 128 100 
-0.675486 0.920882 2.37803 111 80 36 
-0.679981 0.555838 2.49296 163 134 104 
-0.685874 0.279919 2.59043 82 54 32 
-0.69573 -0.0116824 2.70912 144 114 86 
-0.680357 0.624591 2.47874 119 91 52 
-0.67823 0.616448 2.47345 167 137 101 
-0.682533 0.367931 2.55922 53 27 2 
-0.685383 0.169759 2.62295 169 142 112 
-0.689924 0.0608364 2.67727 89 58 38 
-0.675268 0.659027 2.4616 185 146 107 
-0.681865 0.229206 2.59958 96 66 32 
-0.672008 0.778819 2.41868 97 64 31 
-0.675287 0.571477 2.48726 75 47 25 
-0.689933 -0.00252529 2.70072 148 121 94 
-0.67402 0.638832 2.46789 156 124 83 
-0.673158 0.516032 2.49634 85 59 24 
-0.684094 0.104548 2.65295 155 128 101 
-0.674661 0.510359 2.50676 72 46 19 
-0.670488 0.755545 2.42412 89 58 29 
-0.678452 0.21558 2.60087 110 77 44 
-0.671287 0.931658 2.38684 185 147 110 
-0.67041 0.829851 2.40802 173 139 112 
-0.666217 0.980078 2.35167 108 73 51 
-0.671753 0.70107 2.45105 168 132 98 
-0.670347 0.679101 2.45841 90 63 33 
-0.672588 0.69895 2.46357 89 63 26 
-0.666514 0.947763 2.37238 100 65 43 
-0.664668 1.00504 2.35281 184 149 121 
-0.667675 0.752853 2.43316 183 150 119 
-0.668441 0.366465 2.53575 152 123 89 
-0.669612 0.597492 2.48254 173 137 101 
-0.667266 0.654369 2.45853 157 124 91 
-0.670649 0.436537 2.53055 144 115 85 
-0.670246 0.373311 2.54519 164 135 103 
-0.669692 0.406724 2.53751 93 58 20 
-0.668484 0.535465 2.50047 157 128 84 
-0.674326 0.147364 2.62649 87 62 32 
-0.669126 0.610018 2.48507 156 122 85 
-0.486132 -0.498619 1.98471 92 5 0 
-0.664863 0.664186 2.45745 52 27 5 
-0.681317 0.0800038 2.67965 79 52 25 
-0.663582 0.706927 2.44499 165 135 109 
-0.676872 0.128202 2.64924 68 42 15 
-0.667392 0.445747 2.52771 68 42 19 
-0.661599 0.956244 2.37087 190 156 119 
-0.666235 0.421965 2.53028 99 66 33 
-0.661698 0.972696 2.36748 187 152 122 
-0.665923 0.390641 2.53685 63 33 0 
-0.668177 0.314644 2.56712 123 93 67 
-0.663992 0.635296 2.46732 79 55 29 
-0.672618 0.189819 2.62097 136 111 80 
-0.668713 0.711577 2.47293 142 112 84 
-0.66137 0.855251 2.40557 174 141 100 
-0.663769 0.544648 2.4968 157 122 92 
-0.669175 0.263353 2.59383 135 109 82 
-0.666866 0.36726 2.55709 85 55 27 
-0.664385 0.563731 2.50119 84 57 30 
-0.662617 0.578362 2.49075 52 21 0 
-0.660911 0.644925 2.46705 162 135 105 
-0.66514 0.283019 2.57808 69 42 12 
-0.661613 0.455998 2.51901 168 130 94 
-0.478642 -0.417993 1.94949 201 21 20 
-0.6546 0.955719 2.3605 131 91 65 
-0.665023 0.25602 2.58912 116 87 55 
-0.655609 0.989066 2.35803 162 128 91 
-0.660064 0.445484 2.52084 154 122 97 
-0.658405 0.686726 2.45365 111 80 49 
-0.654656 0.929231 2.37352 171 138 107 
-0.670893 0.0611754 2.66936 140 111 79 
-0.666163 0.112244 2.64014 97 67 31 
-0.659745 0.626834 2.48196 147 116 85 
-0.670482 0.0818496 2.66775 153 122 91 
-0.656349 0.531073 2.49935 139 111 87 
-0.665922 0.150285 2.63917 81 51 25 
-0.655944 0.521185 2.50238 146 116 90 
-0.649961 0.945387 2.36992 134 97 70 
-0.656762 0.32854 2.55971 130 103 74 
-0.66199 0.183401 2.61905 91 61 25 
-0.656022 0.284109 2.56872 170 132 95 
-0.65482 0.562463 2.49349 139 109 83 
-0.652681 0.637801 2.46618 94 64 38 
-0.65253 0.392054 2.5345 157 125 86 
-0.649476 0.79235 2.42061 96 66 38 
-0.651308 0.583043 2.48206 173 143 117 
-0.653762 0.453754 2.52868 150 119 88 
-0.649095 0.861662 2.40301 171 138 105 
-0.648661 0.703311 2.44704 102 71 42 
-0.655995 0.262128 2.59253 124 94 70 
-0.650075 0.552232 2.49466 71 42 8 
-0.6617 0.122212 2.65885 156 121 83 
-0.479736 -0.663476 2.05354 172 75 110 
-0.65357 0.240552 2.59461 147 110 68 
-0.643728 1.00354 2.35683 113 77 43 
-0.645737 0.648677 2.46383 103 79 55 
-0.481946 -0.712749 2.0824 123 112 110 
-0.646717 0.695939 2.45545 108 78 44 
-0.645581 0.520795 2.4955 160 131 101 
-0.659474 0.0509457 2.67747 157 118 79 
-0.65332 0.21895 2.60761 165 131 93 
-0.646894 0.506011 2.50843 95 61 24 
-0.649781 0.325153 2.56846 66 40 17 
-0.642737 0.987603 2.36576 106 73 42 
-0.646398 0.575274 2.4916 168 138 104 
-0.647165 0.382676 2.54272 156 125 94 
-0.646205 0.73695 2.44911 86 59 30 
-0.64223 0.923749 2.38341 126 91 63 
-0.656913 0.059483 2.67048 164 132 93 
-0.461449 -0.344798 1.90276 2 0 3 
-0.651269 0.279887 2.59161 97 67 41 
-0.643162 0.712801 2.44828 188 153 121 
-0.639534 0.937447 2.37541 108 76 55 
-0.644495 0.406467 2.53371 151 124 95 
-0.641687 0.604436 2.47623 161 127 92 
-0.641871 0.668997 2.4618 83 55 33 
-0.643531 0.31894 2.56009 147 117 89 
-0.474887 -0.595758 2.03644 41 30 36 
-0.641087 0.512245 2.50158 151 117 90 
-0.638964 0.734453 2.43848 158 131 104 
-0.64771 0.169074 2.62208 93 62 33 
-0.475504 -0.625966 2.05228 219 80 113 
-0.651619 0.0870801 2.66231 76 46 20 
-0.649336 0.107813 2.64801 82 56 19 
-0.64164 0.585122 2.4949 109 79 43 
-0.650603 0.119554 2.65313 66 36 10 
-0.641008 0.669353 2.47425 144 112 89 
-0.633591 1.01268 2.35258 112 75 48 
-0.636822 0.691343 2.45222 98 68 40 
-0.638269 0.426874 2.52592 173 145 108 
-0.636222 0.820074 2.41943 153 127 100 
-0.636358 0.643383 2.46336 156 122 87 
-0.640171 0.305627 2.56686 78 50 13 
-0.64413 0.222305 2.60585 158 127 96 
-0.634603 0.541243 2.48747 129 97 72 
-0.63649 0.629554 2.47225 96 67 37 
-0.636893 0.530254 2.50002 103 73 35 
-0.467631 -0.48118 1.9913 183 108 105 
-0.469653 -0.518252 2.01068 226 115 148 
-0.633631 0.799666 2.42095 158 129 99 
-0.644391 0.156159 2.63303 152 122 94 
-0.6352 0.611654 2.47729 79 49 21 
-0.636136 0.491847 2.51188 98 67 36 
-0.628112 0.978503 2.3552 187 152 122 
-0.640034 0.267543 2.59071 65 35 11 
-0.633842 0.50556 2.50429 71 39 16 
-0.633735 0.654374 2.46584 79 52 25 
-0.643823 0.146325 2.63969 159 130 100 
-0.631361 0.70886 2.44628 177 143 108 
-0.643447 0.121665 2.64777 154 125 95 
-0.633486 0.688322 2.46262 160 130 102 
-0.633237 0.548614 2.49752 37 6 0 
-0.626025 0.994296 2.35207 175 139 107 
-0.631061 0.483125 2.5092 176 146 108 
-0.637039 0.237204 2.60073 83 55 31 
-0.640887 0.158453 2.6421 85 55 27 
-0.628146 0.576536 2.47919 118 85 52 
-0.630473 0.368664 2.54383 77 51 26 
-0.464014 -0.512817 2.00358 183 117 129 
-0.630227 0.434619 2.5284 156 126 98 
-0.632143 0.554021 2.50998 132 100 77 
-0.467277 -0.673145 2.06481 143 40 67 
-0.464716 -0.584269 2.03472 241 165 191 
-0.62594 0.743421 2.44221 118 89 59 
-0.63107 0.314187 2.57531 94 65 35 
-0.621698 0.944538 2.3727 172 142 114 
-0.633577 0.18276 2.62263 98 68 30 
-0.46868 -0.708162 2.08653 147 57 83 
-0.458549 -0.392749 1.96187 31 26 23 
-0.626657 0.33182 2.55766 170 140 104 
-0.621522 0.518631 2.49025 114 84 48 
-0.624877 0.580551 2.49055 155 122 87 
-0.617111 0.970243 2.35625 151 117 92 
-0.630832 0.213479 2.61723 86 54 31 
-0.621714 0.473135 2.51076 85 53 30 
-0.627709 0.237993 2.59871 99 68 40 
-0.462419 -0.628457 2.05163 226 105 150 
-0.621363 0.393389 2.53454 164 133 104 
-0.616158 0.974767 2.36773 95 65 37 
-0.44849 -0.342533 1.91811 194 15 11 
-0.62666 0.287911 2.5918 164 131 98 
-0.625453 0.24954 2.59672 65 35 7 
-0.61806 0.696217 2.45387 154 126 102 
-0.617885 0.637536 2.47235 55 24 3 
-0.62053 0.700685 2.47351 174 143 114 
-0.612616 0.756583 2.42732 106 79 52 
-0.45547 -0.558124 2.01937 68 61 45 
-0.614956 0.580796 2.48776 86 57 25 
-0.614134 0.667027 2.46569 157 125 100 
-0.612626 0.685525 2.45995 112 82 48 
-0.45385 -0.534149 2.01583 192 170 149 
-0.616117 0.291912 2.5752 110 81 49 
-0.612901 0.381255 2.53982 138 108 82 
-0.611733 0.606535 2.47899 181 150 122 
-0.456587 -0.697446 2.07703 143 50 79 
-0.60775 0.702574 2.44237 160 130 106 
-0.611838 0.457583 2.5242 157 129 90 
-0.456435 -0.683419 2.07437 235 117 152 
-0.607721 0.51695 2.49561 76 50 23 
-0.61117 0.33496 2.55826 94 67 37 
-0.610007 0.423507 2.53277 82 52 26 
-0.608674 0.572654 2.49099 180 150 122 
-0.605011 0.436689 2.50939 105 71 43 
-0.607492 0.593945 2.48214 161 132 102 
-0.4498 -0.516362 2.00814 61 49 7 
-0.448715 -0.46662 1.99237 116 2 0 
-0.44799 -0.454209 1.9852 126 116 115 
-0.606943 0.392774 2.53684 147 117 89 
-0.451854 -0.628946 2.05007 164 48 83 
-0.446537 -0.490509 1.99679 48 45 38 
-0.603496 0.450576 2.51487 82 52 26 
-0.602795 0.700837 2.45061 92 62 38 
-0.450612 -0.712511 2.07648 226 186 116 
-0.43087 -0.330187 1.88375 156 45 51 
-0.451408 -0.673843 2.07176 155 54 86 
-0.601772 0.500608 2.50409 150 124 89 
-0.604239 0.358947 2.55158 87 57 29 
-0.602975 0.409289 2.53496 62 32 8 
-0.602256 0.64496 2.47711 102 72 46 
-0.600291 0.650833 2.46532 99 72 43 
-0.600879 0.621664 2.4782 179 145 117 
-0.597021 0.394742 2.53819 158 132 99 
-0.595666 0.581316 2.48521 107 76 48 
-0.591886 0.584747 2.47321 109 79 55 
-0.440601 -0.433163 1.98956 73 71 72 
-0.445288 -0.683581 2.07689 161 35 72 
-0.593074 0.700208 2.45978 171 140 109 
-0.592061 0.614522 2.47982 159 132 103 
-0.440297 -0.554236 2.02706 87 78 71 
-0.442446 -0.660976 2.06459 141 127 126 
-0.590056 0.641904 2.47358 171 137 102 
-0.589344 0.462588 2.51797 107 83 47 
-0.441909 -0.717924 2.08356 241 185 138 
-0.438787 -0.62806 2.05337 93 31 56 
-0.587667 0.654018 2.47675 172 143 113 
-0.584029 0.579612 2.48563 124 93 64 
-0.582969 0.671748 2.46258 80 54 31 
-0.432833 -0.484437 1.99909 208 91 82 
-0.582293 0.615018 2.47702 159 132 105 
-0.580994 0.635883 2.46869 104 73 53 
-0.43697 -0.695631 2.07675 131 59 45 
-0.425527 -0.360234 1.94743 42 22 11 
-0.576178 0.650523 2.4619 164 138 113 
-0.424698 -0.384611 1.95489 147 144 137 
-0.573812 0.604111 2.47595 73 42 22 
-0.574987 0.638663 2.47694 137 111 86 
-0.430991 -0.63285 2.05905 162 45 74 
-0.570976 0.620714 2.47774 106 76 42 
-0.429154 -0.702294 2.07962 42 25 9 
-0.568566 0.585412 2.48049 162 135 108 
-0.422065 -0.446992 1.98276 87 0 0 
-0.430101 -0.710293 2.08817 48 17 12 
-0.403895 -0.183484 1.82924 20 15 19 
-0.424859 -0.584004 2.03499 129 28 62 
-0.417824 -0.403858 1.95635 61 59 60 
-0.420859 -0.468483 1.99352 228 101 142 
-0.413069 -0.3934 1.94143 250 255 247 
-0.562779 0.633259 2.47374 163 133 105 
-0.417157 -0.438798 1.97942 189 98 95 
-0.560675 0.652248 2.46403 152 122 96 
-0.560898 0.671648 2.46281 90 60 32 
-0.413442 -0.360734 1.94675 170 169 148 
-0.408638 -0.335768 1.91706 2 0 3 
-0.411529 -0.412302 1.95666 16 15 13 
-0.412611 -0.446891 1.98724 227 45 41 
-0.415405 -0.611508 2.04373 57 0 9 
-0.409453 -0.435707 1.974 199 71 70 
-0.405917 -0.352661 1.93735 19 8 6 
-0.405208 -0.396896 1.96004 173 61 59 
-0.409037 -0.625117 2.04988 194 95 126 
-0.40493 -0.637766 2.05663 55 24 22 
-0.398958 -0.526268 2.00796 234 134 146 
-0.398557 -0.511038 2.00375 45 36 39 
-0.395121 -0.386052 1.9585 153 102 98 
-0.394769 -0.413189 1.96783 42 0 0 
-0.397854 -0.618173 2.04908 50 46 47 
-0.393427 -0.550535 2.02055 217 166 135 
-0.394655 -0.631017 2.05463 220 131 153 
-0.393642 -0.699887 2.07153 125 107 103 
-0.393456 -0.721141 2.07765 135 129 129 
-0.384733 -0.387438 1.95825 187 98 100 
-0.388787 -0.561123 2.03203 83 77 77 
-0.391108 -0.677534 2.07366 166 69 78 
-0.381891 -0.419513 1.97094 219 124 156 
-0.385083 -0.616828 2.05112 75 27 27 
-0.380395 -0.562574 2.02186 60 50 58 
-0.384443 -0.690438 2.07679 231 107 45 
-0.382526 -0.66045 2.06511 224 142 94 
-0.378708 -0.588302 2.03104 168 120 84 
-0.370158 -0.506123 1.97121 249 225 215 
-0.371589 -0.421908 1.97081 229 79 142 
-0.373045 -0.579173 2.02196 84 42 18 
-0.377655 -0.681977 2.07268 219 59 45 
-0.377401 -0.713309 2.08267 159 167 170 
-0.369534 -0.449277 1.98377 236 181 202 
-0.374965 -0.648731 2.06582 39 44 38 
-0.374681 -0.69211 2.07639 198 161 152 
-0.364453 -0.527231 1.97949 253 223 215 
-0.37136 -0.646019 2.05207 48 48 48 
-0.36708 -0.460463 1.98351 228 184 209 
-0.369122 -0.670025 2.06957 62 103 59 
-0.367724 -0.654817 2.05757 19 65 36 
-0.359021 -0.374671 1.95077 172 101 99 
-0.361256 -0.590783 2.01514 230 226 214 
-0.356918 -0.357883 1.93971 44 43 41 
-0.366256 -0.719917 2.08637 51 34 27 
-0.353262 -0.345403 1.92822 78 0 0 
-0.365277 -0.684271 2.0761 225 140 73 
-0.36362 -0.658647 2.06615 84 142 104 
-0.359248 -0.632255 2.05346 25 40 33 
-0.351291 -0.365385 1.94561 54 0 0 
-0.35215 -0.404321 1.96261 76 0 0 
-0.359035 -0.674371 2.06992 33 17 0 
-0.359557 -0.730238 2.09352 144 86 72 
-0.356971 -0.699224 2.07424 233 220 211 
-0.343468 -0.33638 1.90892 162 62 62 
-0.344084 -0.340694 1.92046 143 61 63 
-0.35605 -0.65061 2.06751 98 114 101 
-0.348449 -0.532489 1.99559 193 171 158 
-0.346875 -0.547458 1.98916 99 49 48 
-0.354806 -0.683163 2.0718 106 120 103 
-0.346502 -0.418071 1.96853 122 0 0 
-0.338566 -0.333035 1.89851 148 49 54 
-0.347373 -0.525987 2.00379 17 10 0 
-0.344416 -0.557859 1.99636 221 161 163 
-0.350257 -0.656093 2.05999 102 135 118 
-0.352396 -0.71824 2.08874 63 101 62 
-0.348575 -0.67116 2.0677 128 152 118 
-0.348728 -0.728811 2.09042 179 117 78 
-0.342635 -0.523909 2.01242 106 123 87 
-0.339931 -0.476508 1.98869 231 92 151 
-0.343603 -0.641988 2.05692 21 48 29 
-0.336422 -0.572097 2.00301 228 180 178 
-0.337003 -0.559995 2.00523 167 134 127 
-0.331178 -0.277333 1.91483 93 81 67 
-0.339233 -0.617352 2.04837 50 57 41 
-0.338945 -0.632987 2.0526 188 146 130 
-0.335178 -0.499636 2.00237 229 182 202 
-0.340394 -0.712424 2.08595 89 124 100 
-0.335589 -0.533065 2.01557 25 70 39 
-0.337775 -0.668608 2.06818 124 155 113 
-0.317207 -0.317248 1.87012 84 0 0 
-0.33374 -0.706215 2.07482 28 45 27 
-0.33392 -0.678017 2.07484 230 192 155 
-0.329592 -0.551174 2.02134 86 113 96 
-0.328486 -0.524737 2.00888 211 160 133 
-0.324289 -0.410768 1.96551 73 4 0 
-0.3296 -0.711782 2.08498 19 54 32 
-0.319437 -0.360218 1.94283 201 110 92 
-0.327008 -0.667765 2.06565 131 150 104 
-0.323929 -0.533831 2.01691 26 31 8 
-0.323937 -0.645432 2.05906 23 40 30 
-0.32253 -0.548924 2.03027 0 39 13 
-0.319751 -0.519634 2.00992 90 72 72 
-0.322678 -0.697493 2.07127 223 225 212 
-0.319025 -0.505894 2.00624 156 114 100 
-0.320741 -0.612979 2.04677 75 100 79 
-0.316705 -0.498068 1.9979 174 142 119 
-0.318272 -0.583947 2.03553 108 89 75 
-0.317285 -0.569032 2.0258 34 36 33 
-0.318427 -0.622611 2.05151 151 119 94 
-0.320137 -0.681289 2.07899 141 43 44 
-0.316023 -0.594639 2.03854 101 131 81 
-0.313446 -0.544237 2.01892 122 145 116 
-0.309135 -0.519882 2.00892 143 123 112 
-0.31251 -0.60441 2.05243 12 28 17 
-0.311734 -0.638496 2.05561 169 110 102 
-0.311105 -0.673548 2.06183 76 46 20 
-0.309054 -0.529183 2.01441 47 19 15 
-0.302979 -0.39401 1.95649 210 58 21 
-0.305905 -0.51087 2.00606 39 25 14 
-0.306421 -0.552021 2.02212 121 149 111 
-0.306711 -0.572518 2.0305 91 104 95 
-0.307053 -0.617252 2.0478 174 121 103 
-0.30927 -0.714497 2.0856 108 128 93 
-0.300365 -0.383085 1.95314 229 216 223 
-0.308577 -0.734729 2.09106 184 123 92 
-0.295621 -0.446753 1.9447 239 235 224 
-0.305215 -0.696223 2.06987 229 227 212 
-0.305132 -0.652801 2.06215 38 24 13 
-0.301682 -0.537054 2.01543 52 24 13 
-0.293565 -0.429937 1.93783 144 135 126 
-0.299476 -0.501095 2.00162 188 147 115 
-0.29886 -0.489855 1.99609 58 26 15 
-0.302438 -0.64264 2.05684 146 52 52 
-0.298606 -0.521723 2.00778 148 128 117 
-0.288719 -0.342174 1.91184 33 3 0 
-0.297352 -0.569822 2.02635 27 44 28 
-0.292226 -0.477064 1.99006 227 184 203 
-0.296394 -0.692418 2.06678 117 115 90 
-0.297081 -0.704182 2.07336 143 116 95 
-0.292729 -0.580647 2.03065 166 109 90 
-0.293111 -0.621841 2.04843 152 35 43 
-0.290118 -0.494582 1.99894 169 121 83 
-0.291892 -0.599464 2.04015 164 113 82 
-0.287322 -0.460221 1.98379 127 72 93 
-0.291937 -0.640043 2.05231 169 116 74 
-0.289531 -0.564197 2.02321 54 32 19 
-0.291824 -0.680813 2.07109 125 43 32 
-0.286778 -0.653631 2.05988 130 43 33 
-0.276845 -0.446632 1.94401 245 238 228 
-0.279793 -0.500316 1.99902 79 33 9 
-0.27361 -0.455401 1.94855 113 106 98 
-0.28067 -0.554347 2.02809 146 37 43 
-0.278183 -0.525393 2.00824 164 116 93 
-0.281271 -0.644041 2.05673 87 22 0 
-0.277599 -0.54435 2.01668 153 122 104 
-0.270947 -0.360003 1.93841 185 38 46 
-0.269645 -0.349785 1.92644 255 145 138 
-0.276464 -0.576355 2.0312 178 115 97 
-0.276003 -0.602351 2.04114 176 131 98 
-0.275617 -0.656075 2.05739 102 60 38 
-0.276649 -0.710165 2.0822 115 90 83 
-0.27386 -0.625456 2.04508 143 40 43 
-0.264371 -0.447628 1.94213 242 231 229 
-0.269487 -0.532892 2.01615 42 10 0 
-0.272223 -0.664795 2.06224 129 43 42 
-0.262915 -0.35449 1.93216 168 31 21 
-0.268002 -0.530081 2.00549 41 17 7 
-0.261647 -0.423904 1.93368 253 172 106 
-0.269606 -0.595669 2.03361 185 105 98 
-0.270108 -0.632523 2.05194 106 56 29 
-0.267912 -0.546759 2.01954 140 117 103 
-0.265871 -0.496324 1.99764 205 169 147 
-0.266373 -0.51833 2.00552 139 111 99 
-0.268946 -0.672762 2.06887 79 43 19 
-0.259549 -0.456508 1.94688 214 203 201 
-0.265438 -0.559978 2.0275 99 30 25 
-0.258424 -0.469933 1.9542 112 103 98 
-0.267128 -0.687609 2.07307 53 23 13 
-0.255093 -0.350812 1.92592 223 203 214 
-0.261076 -0.54003 2.01597 45 9 0 
-0.261903 -0.622153 2.04225 118 39 22 
-0.260036 -0.522815 2.01176 186 145 113 
-0.261728 -0.647795 2.05666 157 95 82 
-0.259474 -0.595153 2.03273 152 34 46 
-0.257616 -0.5103 2.00534 213 177 145 
-0.256378 -0.486524 1.99295 227 123 124 
-0.25412 -0.751055 2.01639 97 93 92 
-0.259795 -0.66616 2.06552 146 104 90 
-0.234861 -0.148827 1.7584 52 52 54 
-0.256516 -0.563441 2.02312 39 34 30 
-0.242733 -0.331829 1.86963 41 0 0 
-0.255762 -0.582077 2.02996 177 94 88 
-0.257301 -0.617153 2.05411 134 51 33 
-0.253562 -0.547293 2.01897 155 119 103 
-0.252064 -0.532553 2.01284 44 16 4 
-0.250952 -0.520011 2.00243 185 159 124 
-0.245539 -0.478326 1.95466 245 233 233 
-0.252846 -0.625066 2.04906 42 9 0 
-0.250962 -0.572578 2.02866 39 31 20 
-0.252212 -0.640826 2.05464 132 93 60 
-0.247567 -0.49931 1.99709 216 181 151 
-0.235565 -0.632451 1.90409 114 81 72 
-0.249252 -0.615042 2.04465 87 43 18 
-0.246626 -0.541095 2.01418 54 23 3 
-0.247325 -0.5621 2.02734 32 61 43 
-0.239038 -0.348982 1.92263 134 21 7 
-0.244213 -0.509379 2.00234 29 0 0 
-0.240264 -0.742913 2.01218 209 208 204 
-0.244108 -0.632896 2.04556 153 106 86 
-0.242905 -0.595089 2.0365 68 30 19 
-0.235671 -0.474261 1.95257 171 164 158 
-0.2438 -0.675514 2.07084 143 93 70 
-0.241782 -0.605508 2.04052 64 30 18 
-0.235151 -0.48577 1.95976 110 105 101 
-0.240322 -0.572863 2.0279 95 141 113 
-0.236476 -0.550869 2.0173 130 160 124 
-0.2273 -0.267178 1.90216 220 198 177 
-0.214276 -0.216275 1.77501 226 227 231 
-0.234929 -0.641571 2.05281 198 154 127 
-0.23062 -0.513898 2.00289 179 138 118 
-0.226627 -0.492097 1.96027 253 245 243 
-0.22457 -0.281737 1.91285 203 187 172 
-0.228628 -0.544514 2.0146 166 171 141 
-0.228908 -0.576442 2.02872 100 96 95 
-0.215661 -0.338482 1.87361 241 150 106 
-0.227189 -0.561608 2.02664 10 48 23 
-0.227984 -0.686886 2.06209 31 4 0 
-0.226377 -0.599171 2.03405 145 97 77 
-0.219771 -0.480236 1.95484 239 230 221 
-0.226996 -0.678289 2.06799 44 19 12 
-0.227618 -0.704587 2.07879 118 57 26 
-0.223443 -0.551474 2.01951 34 78 55 
-0.224286 -0.643365 2.05475 191 162 146 
-0.221902 -0.668411 2.06585 106 117 100 
-0.219471 -0.572931 2.02714 79 95 84 
-0.214177 -0.501297 1.96386 255 253 244 
-0.220077 -0.694351 2.07739 89 34 40 
-0.207523 -0.227299 1.88639 138 103 84 
-0.216364 -0.582312 2.02915 150 170 142 
-0.215305 -0.565339 2.02238 41 41 39 
-0.213691 -0.545107 2.01086 51 100 79 
-0.207573 -0.489153 1.95863 227 217 205 
-0.212043 -0.592148 2.02378 52 34 22 
-0.211362 -0.55446 2.01921 43 87 64 
-0.209924 -0.525864 2.00874 137 115 94 
-0.211579 -0.628493 2.04614 88 113 94 
-0.2104 -0.673541 2.06777 178 58 68 
-0.187519 -0.124784 1.75142 162 155 162 
-0.204972 -0.543227 2.01602 72 117 88 
-0.206713 -0.648269 2.0585 79 117 96 
-0.191432 -0.123853 1.82098 233 233 235 
-0.199202 -0.498992 1.96119 254 246 243 
-0.201742 -0.536087 2.0097 32 47 26 
-0.1993 -0.524959 2.0028 159 142 116 
-0.200955 -0.625063 2.04399 10 21 5 
-0.196498 -0.525571 1.99265 158 132 105 
-0.17934 -0.152839 1.76451 160 160 162 
-0.195757 -0.580162 2.02868 153 153 141 
-0.187606 -0.248808 1.8959 224 195 177 
-0.191281 -0.516761 2.00118 101 46 5 
-0.194305 -0.712233 2.07671 130 44 45 
-0.181236 -0.219268 1.88377 238 179 165 
-0.189726 -0.600394 2.02836 85 88 71 
-0.192521 -0.68314 2.07001 197 135 84 
-0.172442 -0.124011 1.75046 221 222 226 
-0.186717 -0.502642 1.99774 183 152 160 
-0.184534 -0.564323 1.97127 40 26 17 
-0.183536 -0.552972 1.97391 82 55 44 
-0.189258 -0.670846 2.0648 110 131 98 
-0.182903 -0.57322 1.96292 29 29 21 
-0.187269 -0.666003 2.04937 104 108 91 
-0.183429 -0.535131 2.00157 84 58 33 
-0.17882 -0.497042 1.99415 101 84 100 
-0.184365 -0.723323 2.08529 134 54 57 
-0.176348 -0.515326 2.00241 43 33 34 
-0.174414 -0.572647 1.97012 236 208 194 
-0.171126 -0.412222 1.92764 208 155 103 
-0.172802 -0.555723 1.96738 118 90 69 
-0.168555 -0.248623 1.90389 255 209 195 
-0.178358 -0.709082 2.07849 81 66 61 
-0.172669 -0.525876 2.00483 143 113 103 
-0.155601 -0.146244 1.76141 146 145 151 
-0.172856 -0.685591 2.06663 216 109 29 
-0.171612 -0.654158 2.04634 124 120 93 
-0.167043 -0.582912 1.97556 141 114 97 
-0.167238 -0.488451 1.99036 87 70 89 
-0.154865 -0.180197 1.78867 155 148 142 
-0.167338 -0.509983 1.99975 192 152 140 
-0.15209 -0.119535 1.76385 209 208 213 
-0.162109 -0.554824 1.96502 227 196 178 
-0.162635 -0.473218 1.98383 91 76 95 
-0.164196 -0.604216 2.01824 66 66 30 
-0.161077 -0.565654 1.96853 227 198 184 
-0.160776 -0.57624 1.97109 100 71 55 
-0.155999 -0.419992 1.9324 135 85 36 
-0.158532 -0.481779 1.98774 72 60 72 
-0.158512 -0.616099 2.00513 143 144 112 
-0.154589 -0.498231 1.99263 119 105 118 
-0.152145 -0.545304 1.96266 240 209 191 
-0.159283 -0.736342 2.09224 43 14 10 
-0.15134 -0.558931 1.96518 230 201 183 
-0.151735 -0.506961 1.99772 73 59 76 
-0.146627 -0.303448 1.9141 116 42 41 
-0.15029 -0.569507 1.96774 113 84 66 
-0.154757 -0.699404 2.0766 90 102 98 
-0.154709 -0.723486 2.08699 61 79 79 
-0.145651 -0.483103 1.98676 90 62 85 
-0.142872 -0.550157 1.96011 105 75 65 
-0.138407 -0.562785 1.96572 149 120 102 
-0.135249 -0.493411 1.98829 164 163 171 
-0.134817 -0.501449 1.99414 27 26 34 
-0.132874 -0.546272 1.96261 116 84 69 
-0.13677 -0.706128 2.07902 19 32 38 
-0.130093 -0.51311 1.99838 1 5 8 
-0.122838 -0.221049 1.88372 120 137 131 
-0.130903 -0.678561 2.06703 40 29 33 
-0.128163 -0.621619 2.01634 139 134 104 
-0.131286 -0.720873 2.08323 78 104 103 
-0.122334 -0.495106 1.99057 0 9 6 
-0.120727 -0.555522 1.96765 131 96 90 
-0.125088 -0.687953 2.06896 64 27 19 
-0.114005 -0.364471 1.90615 7 0 0 
-0.118229 -0.720502 2.07461 36 16 17 
-0.117835 -0.742787 2.09182 74 94 93 
-0.10802 -0.542019 1.95683 96 70 47 
-0.111594 -0.683898 2.06336 56 6 7 
-0.112411 -0.72554 2.08123 42 13 7 
-0.112245 -0.734845 2.08643 33 13 4 
-0.103898 -0.693053 2.06742 37 34 27 
-0.0991661 -0.56008 1.96607 135 101 92 
-0.102564 -0.702851 2.07185 125 76 71 
-0.0810146 -0.372604 1.92898 51 87 83 
-0.0840171 -0.528267 2.00175 52 20 0 
-0.0654607 0.140783 1.53608 99 24 28 
-0.0853632 -0.694051 2.06431 50 12 3 
-0.0637555 0.13962 1.52359 80 36 35 
-0.0783461 -0.51454 1.99429 35 0 0 
-0.069963 -0.37381 1.92123 3 8 11 
-0.0683962 -0.3577 1.88282 12 2 3 
-0.071976 -0.524083 1.99406 14 0 0 
-0.0695931 -0.570215 2.02008 16 1 0 
-0.0723429 -0.735451 2.07167 2 1 6 
-0.0679102 -0.583669 2.02348 20 8 8 
-0.0691096 -0.660292 2.03907 17 3 3 
-0.0631829 -0.467486 1.9699 55 84 64 
-0.0615124 -0.488734 1.9759 117 58 42 
-0.0557882 -0.461142 1.9613 47 85 60 
-0.0577433 -0.633511 2.02098 40 5 3 
-0.0537246 -0.447186 1.95531 66 83 65 
-0.0578595 -0.710089 2.04445 2 0 1 
-0.0428077 -0.428086 1.92098 182 169 135 
-0.038777 -0.386736 1.88996 0 18 23 
-0.0364002 -0.479635 1.94131 36 0 0 
-0.0264307 -0.400729 1.8918 108 127 123 
-0.0287369 -0.692789 2.00533 59 35 33 
-0.0156997 -0.456622 1.91356 191 127 100 
-0.0121028 -0.470145 1.92195 35 5 0 
-0.00593356 -0.36671 1.84921 142 142 142 
-0.00624614 -0.460264 1.90037 142 130 116 
0.000722185 -0.344612 1.83586 227 225 228 
0.00560837 -0.332529 1.83003 211 212 216 
0.0103282 -0.470646 1.96559 220 213 207 
0.0269538 -0.329685 1.82616 17 16 21 
0.0515673 -0.528447 1.97977 222 218 209 
0.086723 0.0815596 1.74107 177 161 145 
0.0981751 0.0890171 1.75581 186 170 155 
0.101771 0.0136509 1.79029 187 171 155 
0.146015 0.0836926 1.75809 131 86 55 
0.152569 0.145735 1.7411 180 162 152 
0.156851 -0.0174102 1.80336 195 181 168 
0.143311 -0.306803 1.81246 222 220 223 
0.171888 0.0805144 1.75888 50 36 35 
0.1822 0.232194 1.70458 208 194 181 
0.165975 -0.329965 1.83569 170 168 169 
0.165972 -0.29675 1.81718 189 184 188 
0.188559 0.0686953 1.75778 41 37 28 
0.182428 -0.320193 1.88272 94 88 90 
0.17859 -0.323387 1.82541 211 209 212 
0.218827 0.144116 1.73312 152 109 77 
0.221646 0.257847 1.68786 134 120 107 
0.23053 0.152694 1.73188 175 159 146 
0.228102 0.198448 1.58234 123 73 2 
0.248459 0.0775323 1.7621 63 53 52 
0.26035 0.0732878 1.7585 157 107 72 
0.261793 0.108875 1.74578 50 31 25 
0.262146 0.0633109 1.76325 170 116 80 
0.262996 0.0338956 1.77265 177 120 75 
0.266902 0.128611 1.74012 45 35 23 
0.267142 0.0159389 1.77936 170 129 85 
0.272574 0.255948 1.66086 241 166 47 
0.277794 0.130668 1.73962 48 34 31 
0.270243 0.280916 1.61387 208 171 119 
0.278144 0.0124648 1.78099 71 53 41 
0.27767 0.266733 1.65661 205 143 30 
0.280915 0.253212 1.66792 226 156 34 
0.285555 0.107676 1.74621 142 103 74 
0.288961 0.0934279 1.7522 46 27 20 
0.287342 0.279387 1.65592 192 165 118 
0.291602 0.245135 1.67474 115 44 0 
0.295031 0.138848 1.732 33 24 17 
0.296077 0.288134 1.65671 174 131 80 
0.281715 0.293249 1.54908 236 222 213 
0.308087 0.30298 1.6378 204 170 122 
0.312058 0.0892925 1.75437 181 172 165 
0.310958 0.0783917 1.75106 48 33 26 
0.320706 0.101552 1.74746 112 81 53 
0.32209 0.0872622 1.74743 112 84 63 
0.323596 0.275519 1.66217 204 158 80 
0.323946 0.0993887 1.73813 178 161 151 
0.339813 0.25463 1.66989 194 168 111 
0.342079 0.204717 1.69196 205 173 114 
0.350222 0.320145 1.62036 161 96 2 
0.361387 0.322762 1.61799 128 58 0 
0.382202 0.278021 1.65941 230 141 15 
0.379993 0.319485 1.61687 206 136 4 
0.384069 0.170142 1.69973 114 53 8 
0.360375 0.309599 1.53778 194 122 12 
0.380877 0.24118 1.64333 99 87 75 
0.377528 0.314217 1.57236 221 177 112 
0.382017 0.316793 1.58529 91 32 0 
0.396624 0.162545 1.70394 229 197 138 
0.400054 0.316159 1.61198 137 65 0 
0.394435 0.31456 1.58481 176 110 16 
0.402192 0.312918 1.59829 219 175 100 
0.385794 0.0813555 1.62521 232 161 43 
0.410993 0.308534 1.62013 186 121 39 
0.402425 0.307924 1.57698 222 158 71 
0.40845 0.308729 1.58807 166 96 0 
0.399274 0.303258 1.54757 203 134 15 
0.421489 0.29721 1.63586 230 195 153 
0.398787 0.0827243 1.62261 108 49 7 
0.662515 -0.657427 2.92957 153 120 85 
0.433056 0.241576 1.67166 255 212 159 
0.667336 -0.644779 2.92803 193 160 125 
0.434997 0.281972 1.65267 158 70 0 
0.435169 0.292383 1.63239 233 187 93 
0.418281 0.294668 1.5546 165 99 3 
0.450004 0.219577 1.67429 202 107 0 
0.692794 -0.647961 2.92396 110 80 52 
0.449325 0.273644 1.64254 204 125 0 
0.695832 -0.636033 2.9213 94 63 42 
0.442712 0.288704 1.60789 209 135 14 
0.449582 0.189673 1.67452 212 144 9 
0.445942 0.280895 1.62165 222 186 128 
0.45323 0.243214 1.65752 154 65 0 
0.440555 0.28726 1.5924 224 174 103 
0.429818 0.28716 1.55113 212 144 17 
0.703498 -0.617692 2.90476 111 80 59 
0.708317 -0.603676 2.9043 178 152 119 
0.446076 0.278947 1.58962 215 136 31 
0.459685 0.205752 1.66352 239 172 57 
0.451794 0.156641 1.65114 154 93 12 
0.451959 0.269286 1.59338 139 67 0 
0.724137 -0.651488 2.92449 101 73 52 
0.450443 0.272166 1.57887 228 174 78 
0.727803 -0.630617 2.91159 162 132 106 
0.733117 -0.647679 2.92424 158 131 104 
0.468947 0.22038 1.64736 226 182 121 
0.465139 0.186249 1.64672 148 79 0 
0.466519 0.248302 1.61763 165 98 7 
0.735134 -0.606603 2.88962 165 134 113 
0.737378 -0.614289 2.89684 103 77 54 
0.454329 0.121232 1.61675 242 222 185 
0.741804 -0.637494 2.90452 103 73 47 
0.469127 0.193765 1.62918 100 30 0 
0.746534 -0.626443 2.91315 193 164 134 
0.470717 0.220432 1.62061 98 39 0 
0.472405 0.210858 1.6292 176 81 0 
0.75399 -0.645166 2.9245 179 140 111 
0.755299 -0.627051 2.91675 126 95 67 
0.474565 0.209847 1.61277 223 185 122 
0.759311 -0.614904 2.90052 165 135 109 
0.761156 -0.595443 2.89872 171 135 99 
0.760961 -0.586259 2.89303 188 157 129 
0.471736 0.222894 1.58671 196 133 36 
0.766246 -0.645933 2.92595 198 165 132 
0.773354 -0.594671 2.90107 177 145 104 
0.772475 -0.581441 2.89017 183 153 117 
0.774024 -0.63317 2.91447 117 89 65 
0.774115 -0.620474 2.90539 99 71 47 
0.783988 -0.538702 2.89091 185 150 120 
0.780899 -0.641618 2.91922 152 122 96 
0.781745 -0.613664 2.90817 179 148 119 
0.780888 -0.559015 2.8781 98 71 44 
0.781631 -0.634017 2.90481 117 86 58 
0.789548 -0.541214 2.88201 106 75 57 
0.791765 -0.5969 2.90334 103 78 47 
0.797071 -0.61842 2.9091 184 152 113 
0.798266 -0.568715 2.88484 128 94 59 
0.801346 -0.540273 2.88083 105 74 45 
0.80271 -0.649278 2.92831 166 136 112 
0.802435 -0.583459 2.89043 101 74 55 
0.80913 -0.589188 2.89483 171 143 121 
0.810502 -0.611671 2.9041 171 139 116 
0.814338 -0.649222 2.92065 176 146 120 
0.819777 -0.533005 2.87901 173 147 124 
0.819357 -0.663585 2.92931 210 171 142 
0.819852 -0.573967 2.88553 116 84 61 
0.825197 -0.628911 2.91215 180 141 110 
0.825007 -0.640664 2.91481 177 149 125 
0.825527 -0.60468 2.90076 185 150 118 
0.826764 -0.612923 2.90777 212 178 141 
0.828331 -0.568763 2.89139 108 81 52 
0.829114 -0.487249 2.85727 91 64 43 
0.831871 -0.521594 2.86944 146 117 85 
0.834422 -0.591051 2.90622 169 140 106 
0.833373 -0.590699 2.8966 150 123 93 
0.838849 -0.650654 2.93304 122 91 63 
0.840031 -0.544202 2.88611 162 135 106 
0.836654 -0.560585 2.88246 209 179 143 
0.838913 -0.60569 2.90461 202 159 124 
0.840549 -0.626398 2.9163 194 162 123 
0.837895 -0.638809 2.91216 116 88 67 
0.840069 -0.617443 2.90249 203 170 129 
0.846679 -0.45465 2.8475 147 121 94 
0.846375 -0.476342 2.85293 76 55 34 
0.844638 -0.659798 2.92391 195 163 140 
0.849968 -0.462347 2.8526 59 37 14 
0.849319 -0.647528 2.91545 99 76 62 
0.865248 -0.468596 2.85724 107 80 61 
0.862542 -0.654047 2.92016 101 76 54 
0.864724 -0.495152 2.85525 123 93 67 
0.866268 -0.560323 2.88141 158 128 100 
0.892794 0.929582 2.33875 103 72 44 
0.869175 -0.514162 2.86823 125 94 65 
0.872504 -0.601413 2.9059 180 144 108 
0.873842 -0.659859 2.92789 111 73 37 
0.874548 -0.498867 2.86297 155 125 101 
0.872452 -0.619012 2.9044 190 151 112 
0.894572 0.89188 2.33991 161 132 98 
0.874461 -0.650423 2.91983 134 104 68 
0.879552 -0.484357 2.85737 151 121 97 
0.875144 -0.644383 2.91104 167 137 109 
0.878051 -0.558637 2.88298 181 148 117 
0.903076 0.936321 2.3346 153 123 89 
0.882972 -0.651291 2.92421 195 169 142 
0.883865 -0.539021 2.87866 98 67 39 
0.883521 -0.596075 2.90044 180 149 118 
0.906565 0.926792 2.33009 94 68 43 
0.883151 -0.586307 2.88821 162 132 106 
0.890134 -0.43027 2.83747 164 134 98 
0.913819 0.926228 2.34165 162 137 107 
0.887634 -0.496154 2.85337 189 157 119 
0.889435 -0.52848 2.86836 170 143 113 
0.892069 -0.583236 2.89359 105 80 58 
0.896546 -0.54809 2.88893 205 175 147 
0.896832 -0.416357 2.83168 107 74 43 
0.896653 -0.654228 2.93033 191 176 157 
0.915892 0.916359 2.33296 103 74 42 
0.897335 -0.496847 2.85943 121 91 63 
0.899882 -0.430494 2.83789 117 78 47 
0.918443 0.885203 2.34532 159 132 105 
0.899511 -0.474375 2.85164 170 144 119 
0.903336 -0.643634 2.92873 197 181 165 
0.927678 0.942555 2.34005 207 179 157 
0.907106 -0.377702 2.82708 196 162 125 
0.901969 -0.531651 2.87001 117 95 74 
0.924905 0.899932 2.34104 184 155 121 
0.906019 -0.460277 2.8499 172 145 116 
0.905412 -0.423656 2.83161 179 146 111 
0.907616 -0.50086 2.86892 129 107 86 
0.922711 0.901906 2.32933 108 82 55 
0.906869 -0.385462 2.81441 132 99 64 
0.929245 0.84362 2.36498 197 172 141 
0.929051 0.833312 2.36646 86 63 45 
0.914948 -0.393957 2.83114 181 158 127 
0.917438 -0.383207 2.82108 179 153 120 
0.920793 -0.408513 2.84051 123 103 78 
0.932032 0.876648 2.34166 111 88 57 
0.926041 -0.487719 2.87069 190 177 161 
0.940511 0.811803 2.37369 176 159 141 
0.939307 0.816011 2.36372 198 183 164 
0.983648 -0.439881 2.87089 153 140 124 
1.02403 -0.200752 2.76487 166 149 133 
1.05597 -0.203803 2.76132 190 173 155 
1.06282 -0.361874 2.8234 130 117 109 
1.07001 -0.348271 2.83031 190 178 164 
1.08018 -0.348867 2.81913 138 124 113 
1.12857 -0.36611 2.82593 197 184 165 
1.19854 0.359045 2.5518 140 124 109 
1.29222 -0.604931 2.91389 208 192 169 
1.28225 -0.576847 2.87943 148 130 116 
1.44115 -0.608628 2.85706 144 127 109 
1.54695 0.705224 2.38166 146 128 114 
-1.32211 -0.505836 2.87539 226 185 133 
-1.11889 -0.557352 2.90314 150 112 75 
-0.910699 0.197748 2.61009 172 140 102 
-0.791918 0.284691 2.57197 191 161 127 
-0.467599 -0.488567 1.98343 164 75 81 
-0.463946 -0.595772 2.03118 103 0 25 
-0.458126 -0.542434 2.00758 63 7 8 
-0.450217 -0.466426 1.98067 179 102 92 
-0.47434 -0.765012 2.09462 185 70 113 
-0.469412 -0.788957 2.11025 150 27 74 
-0.4607 -0.732818 2.08151 159 40 80 
-0.393412 -0.396275 1.95299 187 82 79 
-0.362582 -0.663694 2.05396 81 143 96 
-0.330872 -0.397979 1.95136 213 78 72 
-0.330178 -0.612626 2.0017 109 104 101 
-0.318925 -0.516799 1.99741 64 37 26 
-0.290152 -0.270921 1.82062 240 235 239 
-0.308866 -0.747288 2.08516 233 109 49 
-0.249678 -0.484031 1.95067 174 169 165 
-0.238446 -0.762488 2.00822 89 86 81 
-0.232131 -0.80907 2.02324 196 195 193 
-0.227141 -0.68702 2.05886 147 87 76 
-0.212592 -0.782731 2.01365 87 86 84 
-0.210136 -0.796729 2.01768 208 207 203 
-0.205572 -0.805253 2.02211 86 84 85 
-0.199044 -0.814372 2.02515 206 207 193 
-0.183955 -0.248546 1.89153 239 209 185 
-0.192626 -0.687989 2.05909 212 149 98 
-0.144854 -0.707911 2.06435 25 45 56 
-0.136258 -0.749241 2.07913 5 36 41 
-0.117191 -0.215861 1.87435 125 116 99 
-0.124947 -0.752782 2.08123 14 53 58 
-0.120935 -0.710933 2.0638 47 10 4 
-0.115306 -0.736164 2.07327 132 115 108 
-0.114072 -0.755939 2.08152 23 29 29 
-0.106879 -0.535478 1.94887 136 100 84 
-0.109796 -0.716269 2.06602 109 31 21 
-0.0990362 -0.700192 2.05843 132 117 98 
-0.0955852 -0.76823 2.08448 150 20 68 
-0.0332652 -0.768253 2.02471 179 60 92 
0.0645245 -0.323122 1.82097 13 13 15 
0.0748327 -0.321196 1.81964 1 1 3 
0.139339 -0.328328 1.81869 177 175 178 
0.260605 0.013019 1.76759 167 124 92 
-1.20147 0.68091 2.44458 115 89 62 
-1.21032 0.381156 2.56499 195 157 112 
-1.19229 0.926402 2.36954 181 148 103 
-1.20227 0.182563 2.62514 210 174 122 
-1.18925 0.666586 2.45474 144 112 74 
-1.17063 0.770732 2.41616 114 79 49 
-1.1692 0.856239 2.38723 107 76 45 
-1.19179 -0.135785 2.76712 214 185 143 
-1.16803 0.392439 2.55575 139 106 65 
-1.17052 0.0971957 2.66177 219 184 142 
-1.15657 0.426718 2.54177 143 103 68 
-1.15339 0.631769 2.47206 200 164 128 
-1.13998 0.908398 2.37049 130 94 60 
-1.14605 0.532984 2.50477 191 152 111 
-1.15168 0.357391 2.57581 131 97 60 
-1.14886 0.299905 2.59328 105 69 35 
-1.16337 -0.228245 2.78844 218 189 149 
-1.14433 0.383083 2.56198 108 77 48 
-1.13532 0.636276 2.46974 114 81 48 
-1.13317 0.515983 2.50728 201 169 130 
-1.13688 0.393235 2.55414 136 102 65 
-1.13529 0.464274 2.53367 199 165 128 
-1.13799 0.17206 2.63125 175 141 106 
-1.11996 0.939359 2.35514 221 188 153 
-1.12105 0.909755 2.3668 116 85 56 
-1.12676 0.448976 2.53397 113 83 49 
-1.11767 0.732276 2.42642 171 134 92 
-1.1363 0.145843 2.65122 135 101 73 
-1.12585 0.4013 2.55127 106 80 43 
-1.12762 0.318018 2.58111 139 105 68 
-1.11338 0.865293 2.38316 177 145 106 
-1.12261 0.47805 2.52428 197 157 121 
-1.12137 0.505359 2.51248 124 88 56 
-1.11554 0.70307 2.44247 169 136 103 
-1.12281 0.338593 2.57284 119 88 59 
-1.10787 0.655251 2.45262 173 137 103 
-1.12025 0.3601 2.57227 194 156 119 
-1.12183 0.12933 2.64655 128 92 58 
-1.11321 0.564801 2.49438 189 152 110 
-1.12755 0.0518467 2.68511 198 165 134 
-1.12681 0.0912656 2.67294 208 183 142 
-1.12588 0.0802379 2.67504 183 153 115 
-1.11561 0.300337 2.5881 102 71 42 
-1.10177 0.829602 2.39599 165 134 106 
-1.11304 0.366736 2.56581 131 93 54 
-1.11049 0.402694 2.55163 182 148 121 
-1.11873 0.0351428 2.68728 128 97 66 
-1.10505 0.418777 2.53757 186 150 114 
-1.09485 0.912902 2.36433 185 152 109 
-1.11026 0.286367 2.59441 119 88 57 
-1.11876 0.0269943 2.69428 111 82 50 
-1.10772 0.389692 2.55862 189 155 120 
-1.09901 0.628433 2.46566 181 147 109 
-1.1044 0.371916 2.55841 185 150 110 
-1.09375 0.747163 2.41975 160 127 94 
-1.09921 0.499344 2.51205 113 79 52 
-1.10052 0.479067 2.5242 81 50 29 
-1.10281 0.348528 2.57283 121 88 55 
-1.09452 0.515626 2.50524 186 152 107 
-1.1043 0.214669 2.62052 173 143 105 
-1.10155 0.316257 2.58537 105 71 43 
-1.09836 0.359499 2.56544 105 72 39 
-1.10314 0.166569 2.63707 106 76 40 
-1.08429 0.802124 2.4003 177 141 109 
-1.09971 0.265932 2.60367 126 94 56 
-1.09855 0.181547 2.63018 115 84 53 
-1.08068 0.772095 2.41035 182 151 122 
-1.09619 0.192925 2.62484 107 76 45 
-1.08501 0.686858 2.4512 71 40 12 
-1.10511 -0.0647305 2.72912 175 141 103 
-1.10057 -0.0109639 2.70453 175 138 93 
-1.07738 0.849703 2.38689 186 156 128 
-1.08363 0.65081 2.46338 78 44 17 
-1.08413 0.597463 2.48069 85 54 25 
-1.09258 0.222281 2.61551 179 145 107 
-1.09233 0.232587 2.61346 178 144 109 
-1.07981 0.620966 2.4658 92 66 41 
-1.08314 0.571505 2.493 113 80 49 
-1.0726 0.816176 2.39997 143 114 80 
-1.1048 -0.386003 2.8438 139 103 69 
-1.091 0.0696891 2.67243 113 82 51 
-1.08591 0.19308 2.62492 177 147 109 
-1.07595 0.614695 2.47255 173 139 104 
-1.09524 -0.162192 2.76057 197 160 116 
-1.07222 0.658337 2.4562 109 77 39 
-1.07521 0.564454 2.49314 181 145 109 
-1.07285 0.537884 2.49545 183 146 117 
-1.09177 -0.0679257 2.72759 202 168 130 
-1.06986 0.735939 2.42981 176 148 124 
-1.06997 0.601911 2.47826 126 95 66 
-1.06559 0.839021 2.39612 197 168 138 
-1.07698 0.319066 2.58155 89 60 28 
-1.06544 0.7561 2.42113 141 112 78 
-1.06851 0.635492 2.46633 192 163 133 
-1.06416 0.766326 2.41628 119 93 56 
-1.0806 0.121628 2.65305 181 155 122 
-1.06894 0.594133 2.4863 109 82 53 
-1.06327 0.657217 2.45217 168 138 104 
-1.08125 0.0148096 2.69204 101 71 45 
-1.06397 0.690325 2.44927 128 95 62 
-1.08597 -0.314334 2.80958 110 79 51 
-1.06486 0.524075 2.50993 180 148 123 
-1.07966 -0.115365 2.74049 124 89 61 
-1.06761 0.353307 2.57017 170 138 100 
-1.07443 0.166066 2.64296 122 90 52 
-1.06304 0.481203 2.52047 120 86 59 
-1.08128 -0.187951 2.76959 96 66 38 
-1.0597 0.600567 2.48099 92 66 41 
-1.0613 0.429293 2.5368 115 82 51 
-1.0736 0.0327163 2.6896 195 162 127 
-1.05885 0.620705 2.47579 108 81 51 
-1.0529 0.775859 2.41352 130 97 64 
-1.07739 -0.260911 2.79119 104 73 45 
-1.05123 0.6954 2.43949 164 134 98 
-1.07557 -0.0898989 2.73822 112 80 55 
-1.059 0.367982 2.55774 121 88 57 
-1.07481 -0.148981 2.75626 108 77 48 
-1.0636 0.194598 2.62372 185 150 108 
-1.06204 0.342061 2.57758 170 142 103 
-1.05873 0.451894 2.53638 170 136 109 
-1.04773 0.766571 2.41528 202 169 126 
-1.04929 0.636433 2.46687 149 116 81 
-1.064 0.0821887 2.67125 117 81 47 
-1.05895 0.235702 2.61556 180 148 109 
-1.06198 0.0613096 2.67481 195 163 125 
-1.04895 0.516219 2.5078 208 174 137 
-1.05758 0.292874 2.60132 115 84 55 
-1.04762 0.463738 2.52939 211 181 143 
-1.04104 0.745821 2.42887 96 65 37 
-1.05592 0.167513 2.63993 111 81 53 
-1.05605 0.113509 2.65708 123 97 64 
-1.04255 0.652512 2.46136 171 142 102 
-1.05552 0.101817 2.65902 109 78 47 
-1.05945 -0.0360383 2.71279 106 71 39 
-1.05019 0.374577 2.5647 106 79 52 
-1.05207 0.19585 2.62506 171 142 108 
-1.05842 0.0277191 2.69281 119 90 60 
-1.05262 0.206827 2.62369 125 97 60 
-1.04059 0.618445 2.47217 172 142 106 
-1.06108 -0.152572 2.75735 158 126 88 
-1.05725 0.00925895 2.69888 105 69 43 
-1.05847 -0.171785 2.76322 169 135 98 
-1.0531 -0.00997914 2.70258 94 64 28 
-1.0473 0.287279 2.59907 206 169 127 
-1.05188 0.0571325 2.67938 175 141 113 
-1.03545 0.645746 2.46419 85 56 26 
-1.05255 -0.0539158 2.71807 190 160 132 
-1.04587 0.235372 2.61875 203 169 131 
-1.03536 0.537546 2.5027 123 93 65 
-1.05465 -0.279665 2.8002 212 183 149 
-1.04308 0.162842 2.6371 208 179 137 
-1.0376 0.354054 2.57396 188 158 124 
-1.04649 0.0959905 2.67866 181 149 108 
-1.05081 -0.145161 2.76116 215 183 136 
-1.03832 0.172085 2.6358 115 82 49 
-1.0405 0.045987 2.68375 211 182 150 
-1.03587 0.294112 2.59845 169 139 101 
-1.04418 -0.0816699 2.73509 206 180 147 
-1.02139 0.696905 2.44452 167 133 98 
-1.02563 0.454883 2.53231 114 84 50 
-1.02897 0.342468 2.57827 113 84 52 
-1.01969 0.565085 2.49115 117 84 53 
-1.01802 0.543813 2.49271 122 91 60 
-1.0281 0.178964 2.63386 88 57 28 
-1.0343 -0.0685997 2.72572 126 97 63 
-1.026 0.287938 2.59893 120 90 56 
-1.03744 -0.146719 2.76025 196 163 122 
-1.00781 0.778937 2.40949 177 146 117 
-1.03569 -0.300203 2.80845 205 173 132 
-1.01404 0.515848 2.50859 173 142 114 
-1.01171 0.548989 2.49928 188 149 108 
-1.00425 0.73434 2.42684 107 77 43 
-1.01773 0.227959 2.61692 115 86 54 
-1.00908 0.409093 2.53994 242 211 183 
-1.01836 0.111555 2.65662 168 135 104 
-1.01482 0.270211 2.60102 182 153 119 
-1.0205 0.00331896 2.69999 113 82 51 
-1.02555 -0.190579 2.77435 175 149 114 
-0.996128 0.657816 2.44957 181 148 115 
-1.00898 0.295521 2.59283 181 143 106 
-0.9972 0.710839 2.43949 190 159 128 
-1.00887 0.199177 2.62668 178 140 101 
-1.00052 0.474862 2.52207 92 62 34 
-1.01861 -0.27385 2.79538 171 139 101 
-1.01593 -0.152983 2.75598 175 145 107 
-0.992151 0.594397 2.48486 173 140 107 
-0.987858 0.65419 2.45438 108 74 37 
-0.99492 0.328721 2.57317 167 137 101 
-0.9861 0.685141 2.44961 100 72 50 
-1.02133 -0.631948 2.93968 203 169 131 
-0.989949 0.41378 2.54558 107 73 45 
-0.983782 0.643663 2.46232 90 61 31 
-0.983034 0.590539 2.47771 126 90 58 
-0.998763 -0.0645451 2.71897 113 84 54 
-1.00289 -0.099182 2.74139 115 87 50 
-0.984012 0.445021 2.52908 190 161 127 
-0.998352 -0.0434365 2.71694 99 70 40 
-0.981142 0.579514 2.48639 118 83 51 
-0.984909 0.398878 2.551 195 165 131 
-0.985263 0.387314 2.55758 199 168 137 
-0.98588 0.352858 2.57413 181 153 116 
-0.979305 0.503607 2.51403 101 71 45 
-0.998615 -0.260861 2.79776 119 85 50 
-0.989162 -0.0665515 2.72239 170 143 116 
-0.967779 0.707234 2.43434 166 127 84 
-0.991338 -0.184767 2.76593 186 158 121 
-0.994227 -0.365466 2.8336 154 118 84 
-0.969209 0.523113 2.50523 112 70 45 
-0.967839 0.583243 2.48428 93 57 35 
-0.994815 -0.440431 2.86523 126 92 65 
-0.982412 -0.0725468 2.73057 170 141 107 
-0.985963 -0.269547 2.80136 117 87 49 
-0.985286 -0.279879 2.80455 103 74 44 
-0.959602 0.539773 2.493 178 132 80 
-0.96889 0.35214 2.57665 108 73 33 
-0.954641 0.71387 2.4315 175 144 116 
-0.980493 -0.203091 2.77982 103 72 44 
-0.954593 0.687927 2.44412 166 132 104 
-0.960001 0.393889 2.55306 168 138 104 
-0.953902 0.594819 2.48058 102 66 40 
-0.960661 0.328088 2.5789 167 137 103 
-0.972012 -0.258697 2.79289 132 92 56 
-0.948595 0.669104 2.4531 179 150 120 
-0.972113 -0.225636 2.78388 118 82 48 
-0.974307 -0.349774 2.82857 138 96 56 
-0.948419 0.652768 2.46044 90 66 40 
-0.956719 0.227895 2.60943 190 148 106 
-0.971242 -0.268987 2.80132 172 139 106 
-0.947324 0.601206 2.4763 179 148 119 
-0.946457 0.562424 2.49126 56 30 15 
-0.94474 0.549685 2.49371 162 134 97 
-0.960932 -0.109822 2.73976 183 145 109 
-0.943671 0.340237 2.56639 82 56 21 
-0.94177 0.495304 2.51627 117 83 55 
-0.946815 0.292482 2.59146 96 62 27 
-0.937824 0.647345 2.46649 99 68 47 
-0.938687 0.532661 2.50781 156 122 87 
-0.957087 -0.221229 2.78369 118 87 58 
-0.95911 -0.37695 2.83843 117 87 51 
-0.93791 0.359986 2.56281 164 134 106 
-0.945072 0.110135 2.65757 99 64 32 
-0.934937 0.407986 2.54794 179 149 115 
-0.933346 0.39661 2.5476 171 138 107 
-0.951714 -0.301932 2.80799 172 139 106 
-0.931274 0.494038 2.51813 119 88 60 
-0.930138 0.522749 2.50697 82 48 20 
-0.947084 -0.240007 2.78749 182 153 121 
-0.929252 0.503973 2.51686 83 53 27 
-0.948166 -0.312084 2.82116 165 138 109 
-0.947592 -0.47079 2.87395 180 145 115 
-0.917677 0.539819 2.49324 196 157 114 
-0.918562 0.454694 2.52943 177 145 120 
-0.943712 -0.490661 2.88502 132 97 65 
-0.916302 0.532911 2.50645 167 130 86 
-0.913438 0.569441 2.49255 83 49 22 
-0.934836 -0.368903 2.83189 125 90 50 
-0.937899 -0.481653 2.87634 222 184 135 
-0.91483 0.356449 2.56198 125 92 51 
-0.911823 0.597518 2.48593 91 61 27 
-0.929065 -0.217963 2.78263 224 196 172 
-0.908963 0.424237 2.53693 212 177 135 
-0.931544 -0.398071 2.84993 175 137 101 
-0.90478 0.528995 2.50625 154 118 86 
-0.905757 0.469886 2.5258 73 46 17 
-0.920261 -0.160075 2.7609 170 139 108 
-0.927625 -0.450579 2.87614 202 159 117 
-0.919854 -0.4096 2.84514 163 124 93 
-0.896387 0.639142 2.46801 172 134 97 
-0.923602 -0.392195 2.85354 202 168 122 
-0.895308 0.598693 2.47865 174 140 113 
-0.895341 0.52784 2.50044 81 49 24 
-0.899549 0.390439 2.55722 170 138 99 
-0.900017 0.301429 2.58995 113 80 47 
-0.90715 -0.324951 2.81944 135 102 59 
-0.885512 0.406122 2.5466 117 84 53 
-0.905869 -0.469956 2.87498 103 72 41 
-0.905099 -0.609549 2.93018 134 108 83 
-0.873016 0.581518 2.48579 103 71 48 
-0.895752 -0.384849 2.84553 125 92 59 
-0.895074 -0.429749 2.86003 194 154 119 
-0.868526 0.526981 2.50054 101 66 26 
-0.894555 -0.485963 2.87793 119 89 53 
-0.8932 -0.475467 2.87555 132 100 59 
-0.888199 -0.421745 2.85178 125 89 57 
-0.889492 -0.443927 2.86827 114 80 52 
-0.862959 0.559421 2.49568 103 69 44 
-0.863782 0.515094 2.51285 160 130 102 
-0.884121 -0.313748 2.81884 181 142 99 
-0.887658 -0.527245 2.89729 122 83 54 
-0.882614 -0.334404 2.82781 179 146 115 
-0.869753 0.0417181 2.68141 105 66 27 
-0.857575 0.458584 2.53026 105 77 55 
-0.880581 -0.400438 2.85191 119 85 48 
-0.88297 -0.505418 2.89049 198 164 127 
-0.877415 -0.443591 2.86852 203 173 139 
-0.875895 -0.467393 2.87702 189 157 119 
-0.875202 -0.53105 2.8949 133 101 76 
-0.846204 0.506305 2.51106 186 152 114 
-0.843581 0.585537 2.48706 198 163 125 
-0.86948 -0.588885 2.91817 134 101 66 
-0.870537 -0.713784 2.96128 200 176 138 
-0.838105 0.4568 2.53318 205 171 133 
-0.835124 0.530489 2.50538 132 100 61 
-0.842591 0.2721 2.60667 171 136 98 
-0.858557 -0.596909 2.91803 146 120 87 
-0.855255 -0.466213 2.87136 111 81 47 
-0.854646 -0.482592 2.87323 200 169 138 
-0.851832 -0.451668 2.86723 110 81 51 
-0.829633 0.395232 2.55325 189 155 120 
-0.822678 0.540673 2.5043 107 75 37 
-0.847404 -0.53543 2.89595 193 162 134 
-0.819804 0.567763 2.49141 165 134 105 
-0.8207 0.508134 2.51269 158 130 91 
-0.821902 0.449511 2.53359 177 148 118 
-0.843032 -0.411498 2.85114 132 96 62 
-0.8454 -0.559271 2.90901 109 80 50 
-0.840789 -0.456137 2.86873 174 145 113 
-0.814672 0.47897 2.51806 162 129 98 
-0.817932 0.387929 2.55525 176 149 119 
-0.836889 -0.42825 2.85752 114 80 55 
-0.811974 0.577681 2.49286 77 47 23 
-0.814035 0.35679 2.56058 165 135 107 
-0.834212 -0.377174 2.83954 185 156 126 
-0.836522 -0.489552 2.88237 124 94 70 
-0.810597 0.405107 2.54123 171 144 114 
-0.843331 -0.621248 2.94694 198 169 127 
-0.832864 -0.44379 2.86491 122 91 63 
-0.808487 0.517311 2.51187 95 64 36 
