ply                 
format ascii 1.0    
element vertex 1223
property float x    
property float y    
property float z    
property uchar red  
property uchar green
property uchar blue 
end_header          
-0.756201 0.210818 2.57073 172 134 97 
-0.760917 0.178691 2.58642 81 51 25 
-0.746288 0.266395 2.55031 198 164 136 
-0.763927 0.0976252 2.60832 121 88 55 
-0.768207 0.0375741 2.63532 166 135 104 
-0.743626 0.210037 2.57242 162 131 100 
-0.747168 0.135509 2.59788 83 51 26 
-0.732804 0.253377 2.55088 192 159 126 
-0.742315 0.179652 2.58319 172 142 108 
-0.735551 0.233835 2.56488 176 144 105 
-0.754529 0.0489252 2.6263 161 129 91 
-0.741782 0.146145 2.59133 145 115 87 
-0.743763 0.130465 2.60046 157 126 97 
-0.713153 0.319626 2.52434 205 170 130 
-0.713737 0.296203 2.53564 106 76 48 
-0.661645 0.801604 2.35861 154 115 84 
-0.719025 0.229475 2.56268 79 53 26 
-0.704739 0.344787 2.51614 109 73 47 
-0.70817 0.28566 2.54183 172 139 108 
-0.721073 0.129025 2.59368 116 84 59 
-0.715882 0.166258 2.58094 114 84 56 
-0.711667 0.121519 2.59852 75 48 19 
-0.719064 0.060435 2.62629 104 72 34 
-0.705747 0.158573 2.58299 169 136 105 
-0.713735 0.069654 2.61699 153 122 94 
-0.698677 0.155812 2.58162 120 85 53 
-0.7042 0.0985454 2.60494 160 129 101 
-0.68895 0.226638 2.56182 67 39 15 
-0.691797 0.151595 2.58115 157 125 87 
-0.695842 0.125826 2.59926 160 130 102 
-0.682817 0.233446 2.55915 182 148 111 
-0.688999 0.169099 2.58162 101 71 35 
-0.688639 0.131835 2.59619 64 36 12 
-0.676984 0.237892 2.5564 105 71 44 
-0.700305 0.00467859 2.64556 146 119 89 
-0.686822 0.113136 2.60244 101 70 41 
-0.673451 0.236383 2.55783 149 119 93 
-0.673451 0.236383 2.55783 149 119 93 
-0.674412 0.208675 2.56489 172 141 113 
-0.682105 0.119314 2.59803 188 155 120 
-0.675879 0.11835 2.5997 118 87 59 
-0.65253 0.264117 2.54024 88 53 23 
-0.645209 0.269029 2.53817 182 140 100 
-0.511215 -0.547786 1.96554 30 1 6 
-0.653022 0.0988587 2.60183 99 68 40 
-0.632215 0.300737 2.52587 146 121 91 
-0.650582 0.108298 2.60146 101 67 39 
-0.61708 0.381531 2.49907 190 153 111 
-0.636588 0.141337 2.58686 88 58 22 
-0.642528 0.078169 2.60918 156 116 81 
-0.633317 0.179717 2.57881 160 129 101 
-0.625331 0.219859 2.56242 90 60 36 
-0.630127 0.154246 2.58313 146 118 94 
-0.630127 0.154246 2.58313 146 118 94 
-0.619782 0.237024 2.55434 180 150 112 
-0.62669 0.13911 2.59394 105 74 43 
-0.625068 0.126571 2.59612 109 74 44 
-0.625068 0.126571 2.59612 109 74 44 
-0.614067 0.231953 2.55882 81 49 24 
-0.611391 0.214707 2.55976 171 138 105 
-0.60496 0.272584 2.53709 118 82 56 
-0.611482 0.204566 2.56657 176 142 105 
-0.47471 -0.397863 1.94369 13 1 3 
-0.610615 0.195299 2.57062 148 122 89 
-0.473835 -0.418178 1.95029 201 58 52 
-0.471274 -0.389268 1.93721 182 59 52 
-0.60559 0.203435 2.56609 107 74 39 
-0.603434 0.173422 2.57979 163 133 105 
-0.599786 0.203546 2.56584 154 123 94 
-0.480985 -0.561346 2.01103 223 63 125 
-0.5818 0.339349 2.5137 96 72 38 
-0.602074 0.108786 2.59903 102 70 45 
-0.601162 0.115036 2.5969 159 130 100 
-0.586632 0.283389 2.54 179 145 117 
-0.472343 -0.515151 1.99251 24 0 1 
-0.594129 0.148065 2.58019 154 124 88 
-0.594462 0.166565 2.58239 81 53 29 
-0.590454 0.185241 2.57055 88 61 34 
-0.457764 -0.39646 1.95056 40 21 23 
-0.460228 -0.432422 1.9647 114 108 108 
-0.467424 -0.524626 2.00002 234 136 161 
-0.459452 -0.437091 1.96729 77 71 71 
-0.465297 -0.524068 2.00188 223 109 145 
-0.474423 -0.625594 2.04153 205 75 111 
-0.462488 -0.50304 1.99308 141 76 58 
-0.585737 0.141382 2.58554 86 59 38 
-0.454968 -0.417389 1.96079 114 110 107 
-0.454968 -0.417389 1.96079 114 110 107 
-0.462094 -0.498933 1.992 51 21 13 
-0.578539 0.157811 2.58265 105 81 57 
-0.472762 -0.71302 2.07502 192 88 121 
-0.454622 -0.503026 1.99606 227 102 136 
-0.462552 -0.626861 2.04639 240 104 152 
-0.449471 -0.495742 1.99294 62 16 16 
-0.450441 -0.518197 2.00216 155 137 91 
-0.450441 -0.518197 2.00216 155 137 91 
-0.44683 -0.491027 1.99066 57 32 25 
-0.448741 -0.546581 2.01158 215 177 141 
-0.429442 -0.364109 1.93855 157 144 125 
-0.441978 -0.516038 2.0012 55 25 25 
-0.441978 -0.516038 2.0012 55 25 25 
-0.452093 -0.645252 2.05488 213 94 122 
-0.453756 -0.691289 2.07095 197 92 125 
-0.439811 -0.558441 2.01709 50 24 23 
-0.419689 -0.362224 1.93888 67 15 1 
-0.433648 -0.528224 2.00612 157 141 128 
-0.435918 -0.555999 2.01605 180 138 140 
-0.443221 -0.635082 2.04994 116 0 26 
-0.444643 -0.690718 2.06732 248 198 145 
-0.432232 -0.545279 2.01595 45 36 27 
-0.4389 -0.62673 2.04679 98 0 32 
-0.414416 -0.360667 1.9387 54 10 0 
-0.433783 -0.622584 2.04444 115 0 29 
-0.437788 -0.69312 2.07125 151 68 60 
-0.419749 -0.47382 1.98493 208 66 114 
-0.436366 -0.689516 2.07074 230 108 131 
-0.429089 -0.615306 2.04186 104 8 36 
-0.426494 -0.591912 2.02981 195 150 155 
-0.425359 -0.583595 2.02664 124 21 51 
-0.421616 -0.540623 2.00954 181 138 132 
-0.429519 -0.640009 2.05005 158 55 59 
-0.426245 -0.618563 2.04178 215 152 161 
-0.421786 -0.588738 2.02831 117 49 62 
-0.416166 -0.610228 2.03797 86 2 28 
-0.39599 -0.417964 1.96034 203 94 91 
-0.395909 -0.418066 1.96007 203 94 91 
-0.406077 -0.564383 2.01996 48 21 28 
-0.406077 -0.564383 2.01996 48 21 28 
-0.407035 -0.640942 2.04892 121 92 84 
-0.387048 -0.419665 1.96107 60 39 38 
-0.384642 -0.399783 1.95298 234 47 42 
-0.394216 -0.557523 2.016 52 24 23 
-0.398162 -0.62866 2.04357 62 22 23 
-0.374487 -0.416147 1.96007 65 3 16 
-0.390066 -0.620636 2.04312 58 4 17 
-0.393708 -0.671461 2.06445 238 87 130 
-0.362957 -0.523358 1.97119 246 233 224 
-0.357404 -0.375566 1.9434 79 18 17 
-0.37598 -0.642293 2.04853 21 33 23 
-0.374105 -0.639671 2.04914 15 31 20 
-0.35726 -0.409341 1.95694 225 87 85 
-0.373121 -0.643449 2.051 30 35 28 
-0.354042 -0.379589 1.94447 229 71 72 
-0.351444 -0.370442 1.94103 193 85 83 
-0.373557 -0.68622 2.06894 231 150 68 
-0.369472 -0.652219 2.05555 25 66 34 
-0.368661 -0.649199 2.05434 20 49 21 
-0.368661 -0.649199 2.05434 20 49 21 
-0.368857 -0.664708 2.0594 52 109 66 
-0.358147 -0.57178 2.00124 247 193 183 
-0.349791 -0.413332 1.95836 197 85 81 
-0.349668 -0.423035 1.96174 161 0 20 
-0.347236 -0.422256 1.9619 255 102 133 
-0.360785 -0.669093 2.06124 121 161 109 
-0.36015 -0.672579 2.06204 43 27 0 
-0.35628 -0.674499 2.06189 204 157 113 
-0.358276 -0.722623 2.0806 160 113 85 
-0.343806 -0.52481 2.00269 105 120 91 
-0.354403 -0.688421 2.06591 24 29 6 
-0.350514 -0.685859 2.06981 185 136 104 
-0.337143 -0.522079 2.00258 222 137 72 
-0.334771 -0.529004 2.00314 130 152 114 
-0.333597 -0.525725 2.00356 56 26 0 
-0.325898 -0.412917 1.95777 111 0 0 
-0.340945 -0.650585 2.05179 14 32 16 
-0.332457 -0.519889 2.00112 230 125 42 
-0.341756 -0.673425 2.06171 169 134 104 
-0.344215 -0.720596 2.08059 33 40 6 
-0.330409 -0.524419 2.00363 209 149 99 
-0.339321 -0.666946 2.05968 114 144 106 
-0.331051 -0.551404 2.01263 76 99 83 
-0.329696 -0.529197 2.0049 44 42 17 
-0.336077 -0.650961 2.05226 20 43 23 
-0.340456 -0.718113 2.08038 121 147 108 
-0.316036 -0.378204 1.94307 221 52 31 
-0.325384 -0.534352 2.00807 24 33 12 
-0.318275 -0.498788 1.9906 207 163 138 
-0.317458 -0.540813 2.01006 29 39 14 
-0.313933 -0.538741 2.00802 127 111 95 
-0.297845 -0.448275 1.93858 250 240 238 
-0.310383 -0.583678 2.02599 44 43 23 
-0.295542 -0.427715 1.93005 255 240 225 
-0.277054 -0.251063 1.80329 248 246 249 
-0.305076 -0.517971 1.99929 48 23 1 
-0.308249 -0.572599 2.02105 97 111 96 
-0.295057 -0.439308 1.93381 247 239 228 
-0.304831 -0.528244 2.00383 143 115 104 
-0.303667 -0.52408 2.00187 46 23 9 
-0.308994 -0.641096 2.0484 130 48 50 
-0.290472 -0.443113 1.93531 248 241 233 
-0.301957 -0.571957 2.02024 111 128 109 
-0.297806 -0.50822 1.99487 177 127 94 
-0.304301 -0.624431 2.04419 147 39 36 
-0.310416 -0.731891 2.08426 187 127 90 
-0.297237 -0.514058 1.99709 56 29 12 
-0.297237 -0.514058 1.99709 56 29 12 
-0.3068 -0.694364 2.0612 254 248 234 
-0.304658 -0.647308 2.0515 210 156 132 
-0.299469 -0.569157 2.02005 13 32 10 
-0.307563 -0.717943 2.07903 150 114 82 
-0.2956 -0.543492 2.00921 135 81 53 
-0.2956 -0.543492 2.00921 135 81 53 
-0.296155 -0.563367 2.01762 130 141 109 
-0.293283 -0.516655 1.99742 174 129 96 
-0.29577 -0.569475 2.01962 131 135 121 
-0.282511 -0.377245 1.94317 88 0 0 
-0.292992 -0.576595 2.02147 176 114 99 
-0.298505 -0.686135 2.06274 83 22 17 
-0.291641 -0.564043 2.01528 48 23 3 
-0.301504 -0.733066 2.085 177 123 89 
-0.278219 -0.37305 1.94126 217 93 129 
-0.276557 -0.447644 1.93647 157 147 138 
-0.29389 -0.6791 2.06181 159 58 50 
-0.291627 -0.675848 2.06151 225 149 125 
-0.291627 -0.675848 2.06151 225 149 125 
-0.2889 -0.652527 2.0496 131 34 28 
-0.284956 -0.587618 2.02825 158 33 41 
-0.282445 -0.555835 2.01384 153 42 49 
-0.287921 -0.647435 2.05093 181 121 87 
-0.271532 -0.456407 1.94017 244 235 228 
-0.284692 -0.613654 2.03721 153 45 43 
-0.279971 -0.540163 2.00744 77 40 24 
-0.279673 -0.545499 2.01009 158 113 90 
-0.248609 -0.195991 1.78335 8 12 23 
-0.27801 -0.532341 2.00437 126 93 78 
-0.277286 -0.539691 2.00749 127 89 78 
-0.277286 -0.539691 2.00749 127 89 78 
-0.282016 -0.620543 2.04091 212 121 103 
-0.278624 -0.576271 2.02189 193 103 94 
-0.281921 -0.6477 2.0501 171 95 82 
-0.282472 -0.677596 2.06209 179 120 90 
-0.274584 -0.54489 2.00908 53 31 18 
-0.277891 -0.601806 2.03246 197 148 108 
-0.275332 -0.57969 2.02205 138 46 33 
-0.272181 -0.520475 2.00009 83 52 31 
-0.274557 -0.573473 2.02282 139 43 27 
-0.26968 -0.522171 2.00014 80 46 21 
-0.262118 -0.458218 1.93968 194 184 174 
-0.269061 -0.524695 2.00172 176 135 105 
-0.274343 -0.636294 2.04491 116 41 10 
-0.269003 -0.524662 2.00188 176 135 105 
-0.268192 -0.516604 1.9981 65 27 4 
-0.275848 -0.658478 2.05496 171 99 77 
-0.271834 -0.594811 2.02683 191 106 85 
-0.274459 -0.643907 2.04805 160 33 42 
-0.269541 -0.555473 2.01242 199 142 115 
-0.23887 -0.18482 1.77823 9 8 13 
-0.268385 -0.538223 2.00645 168 118 93 
-0.259134 -0.465667 1.9431 252 243 236 
-0.265545 -0.517618 1.99795 132 101 73 
-0.267351 -0.549707 2.01211 160 133 116 
-0.267389 -0.561347 2.01345 112 19 11 
-0.271094 -0.63445 2.04496 212 132 107 
-0.269235 -0.603938 2.03306 190 126 90 
-0.263318 -0.503796 1.99267 201 161 126 
-0.263186 -0.503912 1.99233 201 161 126 
-0.263261 -0.515593 1.9971 49 17 0 
-0.263968 -0.544219 2.00855 78 42 18 
-0.268066 -0.624287 2.04023 177 112 74 
-0.270088 -0.661307 2.05361 171 107 82 
-0.263433 -0.540289 2.00783 58 21 3 
-0.262478 -0.535046 2.00515 69 37 16 
-0.263204 -0.55822 2.01385 45 24 7 
-0.259939 -0.511572 1.99506 211 173 150 
-0.259073 -0.505746 1.99324 169 135 100 
-0.259838 -0.534133 2.00444 129 100 84 
-0.264414 -0.619996 2.04016 141 39 24 
-0.258324 -0.581396 2.02288 191 94 78 
-0.251847 -0.514955 1.99543 59 27 6 
-0.244991 -0.47264 1.94555 154 147 139 
-0.257732 -0.643529 2.04808 90 44 28 
-0.253116 -0.572727 2.01905 44 26 14 
-0.251976 -0.567922 2.01775 92 106 93 
-0.253081 -0.619567 2.03871 106 65 37 
-0.250208 -0.598457 2.0295 162 99 84 
-0.246523 -0.540534 2.00402 162 126 104 
-0.250599 -0.622188 2.03974 131 99 78 
-0.24898 -0.618853 2.0382 66 30 6 
-0.237939 -0.487275 1.95186 149 142 132 
-0.244003 -0.596268 2.02918 77 35 19 
-0.233312 -0.49026 1.95275 171 161 152 
-0.211109 -0.176114 1.77358 225 226 230 
-0.194661 0.341584 1.65798 188 165 151 
-0.228148 -0.482867 1.94927 175 169 157 
-0.234792 -0.570181 2.01814 94 130 104 
-0.219098 -0.284627 1.9061 227 197 173 
-0.236445 -0.679543 2.06285 143 92 65 
-0.221323 -0.485442 1.94963 164 153 151 
-0.229553 -0.598578 2.02545 148 95 63 
-0.226171 -0.568999 2.01682 18 35 29 
-0.225323 -0.560571 2.01368 87 131 108 
-0.229878 -0.675981 2.06253 47 0 0 
-0.211679 -0.281096 1.90406 88 76 64 
-0.227068 -0.642061 2.04657 180 147 128 
-0.209727 -0.251475 1.89246 93 69 59 
-0.211214 -0.286734 1.90629 244 213 193 
-0.209975 -0.256234 1.89473 111 81 57 
-0.221457 -0.547911 2.00913 88 141 111 
-0.209389 -0.267058 1.89886 105 71 46 
-0.222439 -0.572688 2.01882 85 98 89 
-0.208114 -0.249132 1.89192 232 209 195 
-0.208593 -0.253987 1.89381 244 214 190 
-0.208712 -0.260919 1.89613 115 83 60 
-0.208166 -0.258149 1.89514 233 202 174 
-0.208166 -0.258149 1.89514 233 202 174 
-0.224958 -0.654054 2.05429 13 18 11 
-0.220898 -0.577546 2.0208 8 20 10 
-0.206918 -0.255828 1.89431 96 63 32 
-0.206918 -0.255828 1.89431 96 63 32 
-0.207254 -0.268428 1.89916 243 208 188 
-0.207907 -0.286783 1.90672 129 97 76 
-0.206684 -0.274706 1.90163 163 135 114 
-0.205494 -0.250781 1.89243 139 112 95 
-0.212275 -0.500052 1.95638 248 239 232 
-0.211694 -0.494704 1.95381 171 163 161 
-0.204228 -0.262242 1.89724 233 200 183 
-0.204228 -0.262242 1.89724 233 200 183 
-0.205378 -0.288832 1.90687 237 209 185 
-0.204745 -0.293282 1.9084 188 159 145 
-0.20477 -0.298851 1.91089 171 150 133 
-0.203722 -0.290775 1.90745 58 27 9 
-0.202177 -0.279524 1.90452 242 214 193 
-0.202041 -0.299936 1.91077 31 11 0 
-0.201453 -0.287802 1.90647 245 214 193 
-0.212485 -0.56951 2.01528 156 148 129 
-0.200855 -0.292109 1.90788 184 152 141 
-0.200855 -0.292109 1.90788 184 152 141 
-0.198342 -0.26599 1.89746 206 175 155 
-0.198342 -0.26599 1.89746 206 175 155 
-0.198337 -0.290632 1.90669 45 11 0 
-0.198337 -0.290632 1.90669 45 11 0 
-0.195499 -0.266312 1.89789 124 96 75 
-0.169946 0.354369 1.65064 189 167 156 
-0.194645 -0.273865 1.90053 135 106 90 
-0.194102 -0.270361 1.89939 239 211 197 
-0.194102 -0.270361 1.89939 239 211 197 
-0.190996 -0.333898 1.86746 231 61 72 
-0.193321 -0.276434 1.90157 244 216 195 
-0.193552 -0.292663 1.90791 191 160 142 
-0.193215 -0.28486 1.90478 125 96 80 
-0.193215 -0.28486 1.90478 125 96 80 
-0.192223 -0.262565 1.89585 243 213 189 
-0.1929 -0.295298 1.90809 76 48 34 
-0.1881 -0.291158 1.90672 182 150 127 
-0.17482 -0.139475 1.75888 226 227 231 
-0.17482 -0.139475 1.75888 226 227 231 
-0.17482 -0.139475 1.75888 226 227 231 
-0.187014 -0.268546 1.89824 240 213 196 
-0.187014 -0.268546 1.89824 240 213 196 
-0.187413 -0.278088 1.90242 241 212 194 
-0.186755 -0.295627 1.90846 72 49 31 
-0.186755 -0.295627 1.90846 72 49 31 
-0.186118 -0.288297 1.90542 235 203 182 
-0.184037 -0.271824 1.89993 142 110 95 
-0.18322 -0.259686 1.89532 237 200 182 
-0.18362 -0.297345 1.90957 191 164 155 
-0.18362 -0.297345 1.90957 191 164 155 
-0.182323 -0.272586 1.9003 114 74 62 
-0.180834 -0.293797 1.90726 83 44 29 
-0.180807 -0.290157 1.90633 245 204 186 
-0.179497 -0.301159 1.91117 58 16 4 
-0.178567 -0.289706 1.90642 246 192 180 
-0.176251 -0.246521 1.88867 183 78 82 
-0.161774 -0.154028 1.74342 109 113 116 
-0.174066 -0.239262 1.88628 238 202 188 
-0.173304 -0.268109 1.89661 177 69 69 
-0.174371 -0.292755 1.9066 84 19 15 
-0.173928 -0.287511 1.905 185 75 78 
-0.171816 -0.291093 1.90634 246 172 171 
-0.16672 -0.225796 1.88024 180 77 80 
-0.166884 -0.255573 1.89259 203 92 98 
-0.169646 -0.425004 1.92201 147 95 45 
-0.156422 -0.151738 1.76767 213 213 215 
-0.172362 -0.555759 1.96009 141 109 84 
-0.172362 -0.555759 1.96009 141 109 84 
-0.166072 -0.26177 1.89509 251 221 210 
-0.180845 -0.709982 2.0706 14 13 0 
-0.16634 -0.299751 1.90965 52 15 7 
-0.16634 -0.299751 1.90965 52 15 7 
-0.171128 -0.566296 1.96297 167 137 111 
-0.163048 -0.256925 1.89289 139 49 51 
-0.161655 -0.232042 1.88303 105 62 55 
-0.161655 -0.232042 1.88303 105 62 55 
-0.163071 -0.286471 1.90385 189 76 80 
-0.167831 -0.553699 1.95737 160 130 106 
-0.176162 -0.722867 2.07532 35 0 0 
-0.163917 -0.431102 1.92285 216 165 118 
-0.161055 -0.259905 1.89425 253 223 215 
-0.160829 -0.263741 1.8955 85 63 50 
-0.166955 -0.580905 1.96803 138 107 79 
-0.158352 -0.228043 1.88096 246 209 193 
-0.158702 -0.258366 1.89334 72 43 35 
-0.1647 -0.575967 1.96603 136 102 75 
-0.172804 -0.703433 2.06943 176 44 55 
-0.172766 -0.703406 2.06963 179 33 44 
-0.16363 -0.563351 1.96157 167 135 110 
-0.157288 -0.247039 1.88891 235 217 197 
-0.158157 -0.286202 1.90378 127 43 43 
-0.157504 -0.275637 1.89989 106 61 55 
-0.156679 -0.255689 1.89217 255 199 188 
-0.157035 -0.296973 1.90817 78 39 34 
-0.161615 -0.560989 1.96043 255 226 198 
-0.155624 -0.272506 1.89874 249 209 199 
-0.160995 -0.573491 1.96481 240 208 185 
-0.153844 -0.240022 1.88636 222 63 83 
-0.168789 -0.720148 2.07558 183 43 56 
-0.155182 -0.290824 1.90556 246 214 201 
-0.153236 -0.263793 1.89483 88 72 75 
-0.155605 -0.428697 1.92638 220 167 113 
-0.160324 -0.51346 1.9928 151 135 145 
-0.15814 -0.575114 1.96616 240 208 187 
-0.15814 -0.575114 1.96616 240 208 187 
-0.152211 -0.271543 1.89859 74 45 37 
-0.15616 -0.545892 1.95558 248 215 200 
-0.156192 -0.573307 1.96543 139 104 82 
-0.149616 -0.252768 1.8914 171 91 82 
-0.148802 -0.225224 1.87861 238 206 193 
-0.149047 -0.255969 1.89207 255 222 207 
-0.16338 -0.734293 2.0786 35 0 0 
-0.149423 -0.274898 1.89892 171 96 90 
-0.163139 -0.731378 2.07898 136 52 50 
-0.147742 -0.251947 1.89162 250 202 182 
-0.146956 -0.25884 1.89261 76 60 47 
-0.146646 -0.268896 1.89699 72 59 42 
-0.145461 -0.234345 1.88337 241 224 208 
-0.160334 -0.73633 2.08008 130 124 112 
-0.146828 -0.295223 1.90567 119 39 32 
-0.151264 -0.564023 1.96047 150 122 100 
-0.146086 -0.28248 1.90249 187 82 87 
-0.145126 -0.272747 1.89787 94 57 41 
-0.143788 -0.235611 1.88346 155 155 143 
-0.149852 -0.560353 1.96024 244 213 193 
-0.144554 -0.263789 1.89487 72 50 39 
-0.115882 0.180039 1.49423 223 215 204 
-0.143987 -0.260725 1.89353 246 223 207 
-0.143987 -0.260725 1.89353 246 223 207 
-0.144002 -0.274667 1.89897 118 72 59 
-0.14295 -0.239022 1.88446 223 217 205 
-0.143386 -0.295955 1.90767 202 144 132 
-0.147384 -0.557283 1.9581 134 101 84 
-0.142026 -0.26937 1.89681 238 216 192 
-0.142026 -0.26937 1.89681 238 216 192 
-0.142026 -0.26937 1.89681 238 216 192 
-0.14165 -0.278665 1.90035 247 212 193 
-0.14165 -0.278665 1.90035 247 212 193 
-0.140117 -0.252045 1.89043 235 208 179 
-0.140117 -0.252045 1.89043 235 208 179 
-0.145823 -0.560883 1.95823 131 100 82 
-0.140565 -0.266161 1.89594 83 60 44 
-0.140534 -0.261863 1.89304 92 64 52 
-0.140699 -0.297863 1.90783 182 145 136 
-0.143692 -0.549776 1.95575 141 104 88 
-0.151575 -0.723956 2.07601 23 49 48 
-0.138947 -0.282988 1.90202 105 77 65 
-0.13806 -0.264137 1.89438 109 85 73 
-0.136778 -0.23836 1.88417 98 117 113 
-0.135887 -0.281071 1.90124 92 67 47 
-0.135145 -0.269768 1.89665 251 229 208 
-0.135145 -0.269768 1.89665 251 229 208 
-0.134372 -0.297545 1.90675 59 41 31 
-0.133677 -0.287115 1.90348 82 59 45 
-0.131786 -0.207462 1.87183 210 176 139 
-0.133518 -0.291731 1.90496 93 70 56 
-0.131554 -0.260592 1.89228 99 76 58 
-0.141895 -0.694061 2.06455 8 41 48 
-0.130578 -0.285253 1.9019 101 79 68 
-0.129863 -0.277019 1.9002 87 60 39 
-0.126541 -0.200986 1.85769 213 183 147 
-0.132973 -0.547673 1.9545 242 206 184 
-0.132973 -0.547673 1.9545 242 206 184 
-0.12833 -0.279123 1.90053 247 219 198 
-0.12833 -0.279123 1.90053 247 219 198 
-0.127134 -0.258719 1.89122 93 75 65 
-0.126785 -0.266808 1.89519 105 78 71 
-0.130208 -0.553434 1.95618 242 208 183 
-0.125573 -0.255791 1.89131 155 182 177 
-0.12396 -0.199946 1.86749 255 229 205 
-0.125064 -0.280198 1.89977 87 58 40 
-0.125064 -0.280198 1.89977 87 58 40 
-0.136048 -0.708796 2.06955 79 123 124 
-0.136048 -0.708796 2.06955 79 123 124 
-0.123753 -0.285638 1.90241 231 209 195 
-0.126944 -0.545302 1.95399 247 211 189 
-0.122961 -0.29127 1.90445 102 79 61 
-0.120729 -0.289261 1.90383 243 219 195 
-0.120155 -0.258111 1.89165 103 75 71 
-0.119846 -0.263735 1.89337 240 214 197 
-0.119288 -0.25174 1.88943 136 172 170 
-0.129778 -0.724964 2.07582 79 118 117 
-0.118114 -0.253324 1.88999 152 174 171 
-0.11557 -0.25248 1.88818 140 162 159 
-0.114236 -0.280708 1.89978 233 209 185 
-0.114372 -0.288517 1.90314 235 218 200 
-0.112985 -0.263252 1.89257 232 205 186 
-0.113823 -0.294763 1.9054 153 176 170 
-0.122501 -0.724875 2.075 22 21 17 
-0.111916 -0.289704 1.90361 107 120 110 
-0.122137 -0.740121 2.08214 74 96 94 
-0.110809 -0.293756 1.90473 100 129 125 
-0.112792 -0.542624 1.95219 117 81 57 
-0.112792 -0.542624 1.95219 117 81 57 
-0.108615 -0.256537 1.88982 100 77 71 
-0.108207 -0.284208 1.90077 158 185 178 
-0.106632 -0.266407 1.894 237 204 185 
-0.106817 -0.293332 1.90426 144 180 176 
-0.104997 -0.27078 1.89557 83 74 65 
-0.113776 -0.728372 2.07631 154 84 72 
-0.102683 -0.252975 1.88784 99 81 69 
-0.102343 -0.25634 1.88923 219 191 180 
-0.102343 -0.25634 1.88923 219 191 180 
-0.105898 -0.555067 1.95673 141 88 70 
-0.100143 -0.261793 1.89134 243 220 202 
-0.108402 -0.712877 2.06805 105 40 34 
-0.0994401 -0.259377 1.89054 139 113 96 
-0.0994401 -0.259377 1.89054 139 113 96 
-0.0991537 -0.25748 1.89007 232 205 194 
-0.0968848 -0.26146 1.88995 215 203 191 
-0.0913253 -0.302063 1.90721 125 137 133 
-0.090089 -0.304971 1.90749 65 52 46 
-0.086279 -0.30434 1.90808 209 175 166 
-0.0902878 -0.691447 2.0591 50 13 0 
-0.0902878 -0.691447 2.0591 50 13 0 
-0.0902878 -0.691447 2.0591 50 13 0 
-0.0841176 -0.384556 1.93611 134 91 108 
-0.0803308 -0.513619 1.98673 137 84 76 
-0.0822907 -0.699094 2.05655 23 0 0 
-0.0787103 -0.504143 1.98336 44 2 0 
-0.0280238 0.256927 1.68622 73 61 49 
-0.0270068 -0.465101 1.91249 228 142 125 
-0.0267762 -0.590359 1.96075 152 107 101 
-0.0239379 -0.540864 1.93816 149 108 102 
-0.021975 -0.535268 1.94166 27 19 16 
-0.0204622 -0.485131 1.92081 165 100 94 
-0.0197485 -0.348806 1.83402 159 158 163 
-0.00350658 -0.360302 1.83999 231 231 239 
0.00128516 -0.520795 1.9822 235 223 211 
0.00494769 -0.520239 1.98073 83 69 58 
0.00857382 -0.520526 1.98104 219 203 190 
0.0120158 -0.519749 1.98027 87 77 65 
0.0645854 -0.28446 1.81057 92 92 92 
0.0645854 -0.28446 1.81057 92 92 92 
0.0848841 -0.462644 1.96701 165 152 135 
0.0893744 -0.44758 1.96266 216 200 184 
0.0932803 -0.446808 1.96087 144 131 114 
0.0880243 0.0497743 1.763 81 53 32 
0.0974039 0.0486668 1.76417 65 52 46 
0.0974039 0.0486668 1.76417 65 52 46 
0.110974 0.11234 1.7407 218 208 196 
0.111761 0.11132 1.74087 223 209 198 
0.135068 0.0571346 1.76068 74 55 38 
0.137375 0.0324174 1.77131 71 49 35 
0.136837 0.0867425 1.747 156 114 76 
0.137758 0.0643122 1.75611 174 122 83 
0.138425 0.0562683 1.75966 167 123 88 
0.13918 0.045809 1.76377 165 121 94 
0.140137 0.0383126 1.76662 165 120 97 
0.142255 0.0209887 1.7737 166 116 81 
0.14218 0.0312194 1.77035 176 124 87 
0.141722 0.05121 1.76168 74 56 52 
0.143335 0.0105675 1.77763 169 125 90 
0.143807 0.0383066 1.76759 72 55 39 
0.144408 0.0345764 1.76828 73 48 28 
0.144408 0.0345764 1.76828 73 48 28 
0.146639 0.0551731 1.75953 175 122 82 
0.147288 0.0474751 1.76282 172 114 74 
0.14788 0.0669291 1.75471 176 140 104 
0.14838 0.0650929 1.75594 184 130 86 
0.14838 0.0650929 1.75594 184 130 86 
0.149663 0.0619429 1.7592 89 60 46 
0.150381 0.0392661 1.76585 72 63 56 
0.151398 0.0518016 1.76079 82 46 24 
0.151398 0.0518016 1.76079 82 46 24 
0.157675 0.0170438 1.77487 74 52 41 
0.157675 0.0170438 1.77487 74 52 41 
0.154501 0.106467 1.74104 70 61 54 
0.161021 0.0341119 1.76829 173 121 82 
0.160743 0.0383606 1.76573 162 122 97 
0.160743 0.0383606 1.76573 162 122 97 
0.162079 0.0213523 1.77243 170 111 67 
0.162814 0.0180731 1.7748 170 120 85 
0.166572 -0.0274783 1.79431 223 204 189 
0.164977 0.0361058 1.76608 75 46 28 
0.167921 0.0175783 1.77375 78 57 52 
0.167921 0.0175783 1.77375 78 57 52 
0.170525 -0.00313277 1.78213 71 62 53 
0.170193 0.0324395 1.76751 181 125 88 
0.170193 0.0324395 1.76751 181 125 88 
0.168767 0.0830334 1.74752 69 60 61 
0.168767 0.0830334 1.74752 69 60 61 
0.171387 0.0717402 1.75212 68 51 41 
0.175084 0.0374014 1.76575 76 54 40 
0.175084 0.0374014 1.76575 76 54 40 
0.173381 0.0902423 1.74411 169 115 77 
0.175043 0.0534448 1.75917 173 114 72 
0.175043 0.0534448 1.75917 173 114 72 
0.175142 0.0754359 1.75003 165 112 78 
0.175149 0.0802226 1.74834 71 43 29 
0.175669 0.0671967 1.75341 171 114 84 
0.174815 0.0949578 1.74217 158 123 101 
0.174815 0.0949578 1.74217 158 123 101 
0.175719 0.083851 1.74713 164 117 87 
0.175719 0.083851 1.74713 164 117 87 
0.179123 0.0414947 1.76298 172 123 90 
0.179332 0.051814 1.76009 155 120 90 
0.179332 0.051814 1.76009 155 120 90 
0.179277 0.0566567 1.75762 160 125 103 
0.180552 0.0236844 1.77059 175 123 86 
0.179452 0.0515245 1.75972 155 120 90 
0.179452 0.0515245 1.75972 155 120 90 
0.181146 0.01313 1.77459 175 116 82 
0.18104 0.0318267 1.76743 171 124 98 
0.178896 0.094614 1.74251 80 49 28 
0.178896 0.094614 1.74251 80 49 28 
0.180716 0.0619177 1.75493 66 62 61 
0.185838 0.0135259 1.77352 76 46 22 
0.186635 0.026954 1.76923 70 59 53 
0.184198 0.0841462 1.74635 166 117 84 
0.184198 0.0841462 1.74635 166 117 84 
0.186311 0.0575147 1.7566 173 122 91 
0.186844 0.0471289 1.76096 160 114 78 
0.187932 0.031672 1.76726 172 127 98 
0.188162 0.0398078 1.76399 167 121 85 
0.188162 0.0398078 1.76399 167 121 85 
0.189345 0.0125319 1.77553 169 123 89 
0.189612 0.0381787 1.76418 184 139 98 
0.189605 0.0524481 1.7586 73 52 35 
0.189605 0.0524481 1.7586 73 52 35 
0.19215 0.0137688 1.77393 174 117 72 
0.190313 0.0709857 1.75086 82 64 52 
0.190313 0.0709857 1.75086 82 64 52 
0.191968 0.0433236 1.76206 78 49 31 
0.195339 0.019143 1.77156 75 56 52 
0.193145 0.0908582 1.74334 168 123 92 
0.195469 0.0407726 1.76266 69 60 53 
0.195469 0.0407726 1.76266 69 60 53 
0.195442 0.0766153 1.74901 169 123 87 
0.203638 -0.101782 1.81099 234 224 214 
0.200509 0.0247613 1.76871 182 123 79 
0.209563 -0.100097 1.81031 216 202 193 
0.204241 0.0887441 1.74375 167 111 74 
0.209817 0.0287082 1.76683 71 51 44 
0.209089 0.0806759 1.74684 71 54 46 
0.215456 0.0201989 1.76994 83 56 47 
0.215456 0.0201989 1.76994 83 56 47 
0.21428 0.0777457 1.74752 164 116 78 
0.220015 0.0510844 1.7583 176 125 94 
0.219714 0.0731448 1.74912 80 56 46 
0.219714 0.0731448 1.74912 80 56 46 
0.212222 0.245826 1.68203 157 142 123 
0.220026 0.0947599 1.74101 168 124 95 
0.223925 0.054956 1.75619 172 115 70 
0.223315 0.0870707 1.74362 168 115 75 
0.223315 0.0870707 1.74362 168 115 75 
0.227631 0.0355307 1.76353 177 125 86 
0.228648 0.0169769 1.77086 162 108 72 
0.227371 0.0528076 1.75703 168 120 82 
0.227371 0.0528076 1.75703 168 120 82 
0.227639 0.0525303 1.757 168 123 90 
0.229207 0.0222975 1.76859 170 125 92 
0.2304 0.0151075 1.77146 163 121 97 
0.240741 0.0267989 1.76484 67 59 56 
0.243671 0.121148 1.72942 135 101 76 
0.248027 0.0745087 1.74807 166 130 104 
0.249752 0.0765196 1.74759 167 117 80 
0.249752 0.0765196 1.74759 167 117 80 
0.251472 0.0419392 1.76044 159 118 96 
0.251472 0.0419392 1.76044 159 118 96 
0.253279 0.0354502 1.76349 169 115 77 
0.255936 -0.00114725 1.77682 168 119 79 
0.25323 0.0805684 1.74523 81 51 40 
0.261336 0.0537138 1.75531 176 118 72 
0.265962 0.0214057 1.76786 77 49 35 
0.265962 0.0214057 1.76786 77 49 35 
0.26838 0.0230811 1.76715 179 129 96 
0.267307 0.0391264 1.76102 73 45 24 
0.268957 0.0577597 1.75407 185 132 90 
0.270979 0.041172 1.75983 159 117 92 
0.272254 0.0218069 1.76774 161 114 86 
0.273034 0.0125667 1.77102 75 57 55 
0.27698 0.00902297 1.77206 180 122 84 
0.278062 0.00451212 1.7736 89 60 46 
0.283593 0.0230177 1.76685 78 51 40 
0.285207 0.00507996 1.77337 76 49 32 
0.285129 0.0403487 1.75769 182 138 103 
0.285026 0.0613523 1.75179 174 126 78 
0.285026 0.0613523 1.75179 174 126 78 
0.286092 0.048561 1.75673 76 47 33 
0.28675 0.0376986 1.76151 181 123 86 
0.28589 0.0525248 1.75515 184 134 97 
0.28589 0.0525248 1.75515 184 134 97 
0.28642 0.0440927 1.75733 163 123 88 
0.288188 0.0191442 1.76765 176 116 79 
0.289506 0.00122475 1.77432 174 114 80 
0.289506 0.00122475 1.77432 174 114 80 
0.289506 0.00122475 1.77432 174 114 80 
0.289921 0.0176007 1.76868 184 131 100 
0.289987 0.0175236 1.76859 184 131 100 
0.289987 0.0175236 1.76859 184 131 100 
0.273659 0.245672 1.65658 205 121 0 
0.290388 0.0578219 1.75226 74 64 54 
0.293699 0.0122147 1.76882 74 65 58 
0.294911 -0.00294109 1.77541 74 61 55 
0.293615 0.0304343 1.76221 72 63 54 
0.299098 -0.00617987 1.77749 222 205 197 
0.302048 -0.0090309 1.77837 64 49 42 
0.302912 0.0486059 1.75588 225 208 198 
0.303084 0.0669506 1.74871 168 137 108 
0.305963 0.0608439 1.75109 135 102 71 
0.293106 0.260886 1.65333 140 96 25 
0.293106 0.260886 1.65333 140 96 25 
0.30033 0.263389 1.65266 200 158 82 
0.326408 0.229313 1.66412 183 147 89 
0.361939 0.140384 1.69374 201 145 60 
0.387251 0.255635 1.65341 192 128 4 
0.395562 0.25781 1.65216 175 71 10 
0.395562 0.25781 1.65216 175 71 10 
0.401724 0.261418 1.65004 245 228 200 
0.420157 0.233873 1.65968 173 131 49 
0.429281 0.180206 1.6726 210 155 52 
0.421767 0.0895207 1.60655 223 179 140 
0.436178 0.185156 1.66538 240 195 104 
0.428311 0.267868 1.62869 165 87 2 
0.436735 0.216396 1.6581 176 72 9 
0.437025 0.225103 1.65517 174 81 4 
0.440516 0.18851 1.66122 210 124 3 
0.44258 0.184076 1.65926 238 185 73 
0.44168 0.218616 1.65272 166 71 3 
0.446804 0.209373 1.6514 237 136 20 
0.454524 0.216119 1.61172 190 120 22 
1.01886 -0.363831 2.76515 140 127 118 
1.01315 -0.210808 2.70702 182 165 147 
-1.58549 -0.431947 2.83209 58 40 30 
-1.61301 -0.553015 2.8818 121 103 89 
-1.56922 -0.455276 2.84164 100 83 67 
-1.62351 -0.717081 2.9442 110 94 79 
-1.59277 -0.654001 2.92144 53 33 26 
-1.54046 -0.594646 2.89629 119 102 84 
-1.51469 -0.499994 2.86724 130 107 89 
-1.52036 -0.617346 2.91088 115 93 70 
-1.42621 -0.190281 2.73837 125 101 77 
-1.52024 -0.659035 2.9232 107 84 66 
-1.50428 -0.581455 2.89287 120 100 76 
-1.49147 -0.582674 2.89388 117 95 72 
-1.37296 -0.168243 2.73193 75 52 36 
-1.35348 -0.114372 2.69822 178 152 125 
-1.35689 -0.16836 2.72714 213 187 160 
-1.41182 -0.454196 2.83885 137 113 87 
-1.38654 -0.326413 2.78872 138 112 87 
-1.3572 -0.177927 2.73068 159 132 105 
-1.31432 -0.0465037 2.66848 208 181 151 
-1.41189 -0.530295 2.87136 84 59 39 
-1.36339 -0.278269 2.77643 158 139 107 
-1.39926 -0.457796 2.85202 79 57 33 
-1.36318 -0.301315 2.78149 129 102 81 
-1.4018 -0.508869 2.86099 60 41 26 
-1.38825 -0.475504 2.84456 142 117 95 
-1.37279 -0.41996 2.82357 129 103 78 
-1.34345 -0.268594 2.76521 184 158 125 
-1.36074 -0.353657 2.80128 122 97 75 
-1.29836 -0.0971811 2.68095 167 140 111 
-1.37548 -0.469311 2.83979 153 127 104 
-1.41122 -0.652692 2.91692 126 102 78 
-1.42861 -0.73926 2.95753 139 114 92 
-1.35054 -0.382753 2.80471 149 125 99 
-1.33287 -0.291975 2.77394 186 156 130 
-1.31329 -0.191188 2.73403 164 133 104 
-1.41163 -0.714882 2.93988 126 104 81 
-1.29451 -0.135914 2.70184 175 136 97 
-1.33579 -0.323705 2.78774 166 140 115 
-1.33289 -0.341556 2.79516 86 61 39 
-1.28644 -0.123792 2.69791 98 72 49 
-1.34445 -0.446558 2.82948 154 131 100 
-1.26505 -0.0312932 2.66648 167 132 100 
-1.31064 -0.272326 2.76295 180 150 124 
-1.38307 -0.648992 2.91528 72 48 24 
-1.25596 0.043543 2.65159 209 177 138 
-1.3 -0.211468 2.75 212 179 138 
-1.26576 -0.0716703 2.6794 140 110 74 
-1.31466 -0.325846 2.78436 179 149 123 
-1.35676 -0.543266 2.87307 111 86 56 
-1.33422 -0.455732 2.82832 96 71 49 
-1.33221 -0.43243 2.83107 107 81 56 
-1.3689 -0.649594 2.91384 149 122 95 
-1.26271 -0.114996 2.69003 190 153 109 
-1.2797 -0.186739 2.72698 180 152 115 
-1.31375 -0.360775 2.80125 174 143 114 
-1.32401 -0.431681 2.82583 94 66 42 
-1.2968 -0.275823 2.76882 215 180 140 
-1.35762 -0.599512 2.89874 142 114 90 
-1.33037 -0.484802 2.84125 88 66 43 
-1.27753 -0.19679 2.73163 197 162 130 
-1.36321 -0.655524 2.91817 139 112 85 
-1.25449 -0.0856272 2.68818 197 163 126 
-1.35186 -0.604056 2.89353 157 131 108 
-1.24453 -0.0118174 2.66823 193 159 121 
-1.32251 -0.468832 2.83679 190 161 117 
-1.24582 -0.025341 2.675 195 163 125 
-1.2786 -0.236263 2.75766 138 100 64 
-1.28168 -0.278978 2.76804 220 182 135 
-1.29373 -0.349639 2.79696 129 93 59 
-1.35631 -0.719291 2.94115 149 123 98 
-1.32963 -0.577206 2.8845 160 127 94 
-1.33365 -0.625436 2.90035 157 124 89 
-1.24781 -0.16993 2.71703 203 172 144 
-1.24039 -0.138295 2.71293 213 180 145 
-1.2694 -0.305055 2.78273 220 187 152 
-1.29805 -0.497467 2.84727 226 185 133 
-1.33895 -0.749406 2.95074 151 121 93 
-1.261 -0.32992 2.78606 191 158 127 
-1.28224 -0.414527 2.83071 205 172 127 
-1.28674 -0.497583 2.84454 123 87 53 
-1.25395 -0.301577 2.78204 207 174 141 
-1.29434 -0.549279 2.87205 125 86 47 
-1.27757 -0.468296 2.83735 209 171 134 
-1.20977 -0.112364 2.69742 143 109 72 
-1.295 -0.57592 2.89008 147 114 79 
-1.22476 -0.195325 2.73681 182 152 114 
-1.25013 -0.357314 2.79807 124 94 58 
-1.26489 -0.434563 2.83082 179 136 101 
-1.2258 -0.218621 2.74516 203 173 135 
-1.23224 -0.257187 2.76164 187 154 119 
-1.24593 -0.349243 2.79265 179 149 111 
-1.2524 -0.433663 2.82094 145 115 81 
-1.25944 -0.465378 2.8363 124 95 61 
-1.2623 -0.487162 2.8443 130 101 69 
-1.26775 -0.525826 2.86175 112 83 53 
-1.23336 -0.326823 2.78727 203 170 135 
-1.17724 -0.0200409 2.66446 195 161 134 
-1.23645 -0.353103 2.7992 184 156 119 
-1.17483 -0.0327909 2.66915 132 97 67 
-1.28132 -0.641761 2.91189 190 159 130 
-1.28271 -0.670927 2.91854 160 133 106 
-1.24954 -0.496964 2.84818 202 163 122 
-1.26453 -0.575802 2.88206 130 97 64 
-1.22948 -0.389511 2.81122 131 97 70 
-1.2087 -0.256816 2.76469 212 184 147 
-1.27528 -0.654123 2.91627 93 65 41 
-1.17375 -0.0815823 2.68762 184 153 122 
-1.25068 -0.553371 2.86873 207 178 138 
-1.25791 -0.587019 2.88976 180 151 117 
-1.19925 -0.257107 2.76014 137 109 72 
-1.24397 -0.53897 2.86403 136 107 77 
-1.18321 -0.181764 2.72692 121 88 55 
-1.23451 -0.505202 2.84686 185 156 122 
-1.26616 -0.678589 2.91979 153 119 82 
-1.25817 -0.67246 2.9171 224 191 150 
-1.16026 -0.109078 2.7003 133 97 63 
-1.15205 -0.0334008 2.68274 187 152 114 
-1.26622 -0.732965 2.94646 206 170 138 
-1.24446 -0.605169 2.89634 139 109 83 
-1.25835 -0.694605 2.92924 133 98 70 
-1.23085 -0.550201 2.87285 165 136 104 
-1.2085 -0.444421 2.82283 199 166 133 
-1.20524 -0.406097 2.8161 198 163 135 
-1.19158 -0.32367 2.78777 136 103 72 
-1.25191 -0.698847 2.9349 203 170 137 
-1.1699 -0.223018 2.74547 143 110 77 
-1.21713 -0.510998 2.85363 202 172 136 
-1.84169 -0.333678 4.39937 231 203 166 
-1.14789 -0.0982829 2.70188 233 200 157 
-1.17574 -0.265008 2.76575 239 209 171 
-1.1744 -0.278055 2.76346 143 110 77 
-1.13277 -0.0183817 2.66853 145 111 73 
-1.22014 -0.553732 2.87514 200 172 135 
-1.19284 -0.404968 2.81477 204 169 131 
-1.24563 -0.712568 2.93925 174 145 115 
-1.20134 -0.47065 2.8364 141 108 73 
-1.17579 -0.29924 2.7784 209 181 141 
-1.17542 -0.311702 2.78111 236 207 173 
-1.1872 -0.39263 2.8109 132 102 66 
-1.2272 -0.641008 2.91065 131 100 69 
-1.14577 -0.152587 2.71973 137 103 68 
-1.22225 -0.605509 2.89924 192 160 135 
-1.20762 -0.536447 2.86546 180 150 122 
-1.20336 -0.52751 2.85992 118 87 58 
-1.14839 -0.194979 2.73383 151 116 76 
-1.18062 -0.366768 2.81138 214 181 136 
-1.21369 -0.606679 2.89458 137 104 69 
-1.18929 -0.470984 2.83833 230 201 167 
-1.23394 -0.732868 2.94291 121 95 60 
-1.20787 -0.581096 2.883 122 92 64 
-1.20167 -0.543146 2.86832 163 134 100 
-1.1345 -0.113673 2.71418 204 167 123 
-1.1207 -0.0604171 2.68227 226 192 147 
-1.16506 -0.315528 2.78802 233 197 149 
-1.18204 -0.454119 2.83037 192 161 130 
-1.18708 -0.476211 2.84514 217 183 145 
-1.14966 -0.255673 2.75806 154 116 80 
-1.13046 -0.157567 2.71519 159 125 87 
-1.21253 -0.676852 2.9209 213 181 142 
-1.16391 -0.371856 2.80744 158 129 87 
-1.16053 -0.362616 2.79879 164 131 86 
-1.19884 -0.592637 2.89269 238 209 167 
-1.11689 -0.110961 2.6981 128 94 57 
-1.21789 -0.73415 2.94341 222 189 154 
-1.1267 -0.177427 2.72853 227 186 140 
-1.12717 -0.190133 2.73093 216 182 134 
-1.18522 -0.558424 2.87296 204 171 128 
-1.20362 -0.648543 2.91773 230 196 158 
-1.14463 -0.309106 2.77564 155 121 84 
-1.17163 -0.491379 2.84813 153 119 82 
-1.20801 -0.698013 2.93631 212 179 148 
-1.08249 0.044147 2.63853 117 78 49 
-1.14961 -0.342633 2.79993 230 198 160 
-1.1758 -0.535595 2.86517 156 121 81 
-1.11181 -0.14263 2.71293 155 120 82 
-1.20544 -0.706965 2.94053 226 192 155 
-1.08736 -0.00767791 2.65736 188 149 106 
-1.12363 -0.230451 2.74589 211 179 140 
-1.08054 0.01301 2.65312 123 87 53 
-1.15592 -0.460007 2.83546 216 186 148 
-1.12929 -0.304164 2.77606 199 165 127 
-1.06596 0.0931203 2.62795 193 159 122 
-1.11157 -0.204022 2.73929 229 200 160 
-1.18481 -0.671612 2.92379 132 99 64 
-1.08331 -0.0479641 2.67645 140 96 59 
-1.07012 0.0339658 2.64775 123 87 55 
-1.14962 -0.471724 2.84196 142 108 73 
-1.14179 -0.419455 2.82393 208 175 134 
-1.15151 -0.519665 2.85434 153 121 83 
-1.07932 -0.0669503 2.67942 203 159 120 
-1.131 -0.369094 2.8073 205 170 138 
-1.13989 -0.433642 2.83102 222 188 153 
-1.16746 -0.611624 2.90064 202 167 127 
-1.18693 -0.733307 2.94897 213 175 130 
-1.06175 0.0191288 2.64915 200 161 122 
-1.15355 -0.548533 2.87525 210 177 136 
-1.10033 -0.238229 2.74762 215 175 123 
-1.08345 -0.141045 2.71185 132 94 57 
-1.14978 -0.561802 2.8753 161 127 92 
-1.11231 -0.340881 2.7843 139 100 61 
-1.06336 -0.0347717 2.67055 201 162 119 
-1.15492 -0.617944 2.90011 127 96 67 
-1.17337 -0.736562 2.94893 220 182 145 
-1.09129 -0.253968 2.75196 126 95 64 
-1.06631 -0.0946355 2.69231 232 196 148 
-1.07692 -0.172759 2.72394 127 91 55 
-1.09127 -0.284711 2.76469 186 151 109 
-1.05165 -0.0469636 2.67167 123 93 69 
-1.03994 0.0234959 2.64618 122 91 62 
-1.12058 -0.503806 2.84992 216 181 139 
-1.13923 -0.619873 2.89672 151 117 82 
-1.13596 -0.595976 2.89121 136 103 68 
-1.12911 -0.578462 2.8775 208 169 130 
-1.09342 -0.338549 2.78751 187 148 109 
-1.09363 -0.353716 2.78775 206 170 138 
-1.02945 0.0547246 2.6306 137 104 69 
-1.05957 -0.132786 2.70711 135 95 60 
-1.07788 -0.255857 2.7522 220 188 147 
-1.07467 -0.219965 2.74576 210 171 132 
-1.15041 -0.707574 2.93768 215 178 136 
-1.07983 -0.273062 2.76184 233 199 154 
-1.06414 -0.160421 2.72351 128 89 56 
-1.13151 -0.612886 2.89504 208 173 133 
-1.13475 -0.640468 2.90293 135 97 60 
-1.10661 -0.452417 2.83217 205 166 127 
-1.13173 -0.63021 2.89615 197 158 119 
-1.04789 -0.085559 2.69207 124 91 60 
-1.1119 -0.519232 2.85532 182 146 110 
-1.07976 -0.31175 2.77541 213 180 139 
-1.02977 0.00935249 2.65161 112 79 48 
-1.07186 -0.268924 2.75844 143 108 68 
-1.11711 -0.572443 2.87525 211 177 139 
-1.07973 -0.323961 2.78096 217 184 131 
-1.08678 -0.366398 2.79996 212 177 139 
-1.03393 -0.0339654 2.66689 188 153 115 
-1.01856 0.0743234 2.63122 218 184 146 
-1.08643 -0.37754 2.80346 237 198 157 
-1.12232 -0.627006 2.89899 190 153 111 
-1.06289 -0.251638 2.74834 123 89 62 
-1.09549 -0.435298 2.832 220 177 132 
-1.12858 -0.6722 2.92219 140 101 68 
-1.05831 -0.236624 2.74563 143 113 75 
-1.12236 -0.647022 2.91086 142 109 76 
-1.1035 -0.534328 2.86686 213 180 139 
-1.03772 -0.12416 2.69882 212 169 127 
-1.03413 -0.0898895 2.69107 177 148 114 
-1.01084 0.0581663 2.63436 125 91 63 
-1.03041 -0.0742305 2.68426 125 91 53 
-1.12979 -0.726383 2.93892 153 119 84 
-1.0799 -0.413354 2.81261 191 158 123 
-1.02251 -0.0359337 2.66786 152 118 81 
-1.07434 -0.377583 2.80246 190 155 123 
-1.08343 -0.446164 2.82759 127 97 59 
-1.03109 -0.104574 2.69529 140 106 71 
-1.0996 -0.548273 2.8764 150 112 75 
-1.12667 -0.749648 2.94717 197 162 122 
-1.11582 -0.680584 2.91884 121 86 58 
-1.03538 -0.139324 2.71166 121 84 57 
-1.02685 -0.083794 2.69178 142 111 82 
-1.04021 -0.199458 2.73545 186 151 119 
-1.06678 -0.385397 2.80396 133 99 64 
-1.04208 -0.234033 2.74016 118 88 54 
-1.01585 -0.0481686 2.67629 222 189 146 
-1.07727 -0.458365 2.83666 114 84 56 
-0.996025 0.0680704 2.63128 99 68 37 
-1.06578 -0.413124 2.81003 187 153 116 
-1.09585 -0.597169 2.89336 208 177 131 
-1.06386 -0.422076 2.81502 184 150 115 
-1.01752 -0.0999505 2.69559 229 199 161 
-1.11154 -0.74348 2.94291 187 154 123 
-1.00056 0.00251292 2.65416 139 102 60 
-1.05738 -0.378743 2.80201 187 152 120 
-1.01665 -0.110127 2.70038 183 152 121 
-1.07402 -0.509657 2.85143 210 180 142 
-1.08945 -0.604245 2.89318 141 111 73 
-1.08112 -0.558756 2.8764 189 160 128 
-0.989918 0.028639 2.64018 124 91 58 
-0.986624 0.0384568 2.63443 177 144 109 
-1.0538 -0.403416 2.81047 206 175 144 
-1.03496 -0.292787 2.76299 126 95 66 
-1.03202 -0.259922 2.75749 215 182 147 
-0.969315 0.128854 2.59738 115 87 50 
-1.0477 -0.392509 2.80671 137 105 66 
-1.06478 -0.519207 2.85721 205 176 146 
-1.04798 -0.413273 2.81563 138 105 72 
-1.0102 -0.164104 2.71991 192 159 116 
-0.981705 -0.00357084 2.64964 153 118 80 
-0.97968 0.0167101 2.64648 178 148 114 
-1.03221 -0.351006 2.7851 184 150 113 
-0.99887 -0.104914 2.69793 128 95 64 
-1.03097 -0.320452 2.78179 195 161 124 
-1.0819 -0.6826 2.9194 133 99 64 
-1.07426 -0.634417 2.90114 187 154 121 
-1.03966 -0.407359 2.81053 192 157 129 
-0.982141 -0.00982992 2.66046 179 140 99 
-1.07455 -0.642957 2.9066 194 163 132 
-1.05277 -0.49071 2.84802 205 167 128 
-1.00118 -0.154085 2.71151 139 106 73 
-1.06094 -0.571466 2.87563 116 86 58 
-1.07576 -0.689838 2.92262 224 191 156 
-0.997023 -0.175453 2.71657 190 160 122 
-1.06384 -0.607773 2.89618 229 195 158 
-1.08073 -0.73516 2.94343 208 173 131 
-0.985991 -0.0972372 2.69201 184 148 112 
-0.963912 0.0553265 2.63277 130 97 66 
-1.05248 -0.550579 2.87089 219 182 138 
-1.06657 -0.604269 2.91046 203 170 135 
-1.0659 -0.650533 2.9102 204 174 140 
-0.957507 0.0742407 2.62233 138 108 70 
-1.06602 -0.664423 2.91705 217 183 146 
-0.940173 0.167059 2.58189 192 150 100 
-0.956664 0.048863 2.63008 177 146 118 
-0.950596 0.0848104 2.61376 203 170 139 
-0.958066 0.033397 2.63847 135 101 74 
-1.05443 -0.640196 2.90055 125 96 62 
-1.06769 -0.719708 2.93755 230 196 159 
-1.01063 -0.342976 2.78378 190 157 122 
-0.951461 0.0616194 2.62981 175 141 104 
-1.02261 -0.445342 2.8258 134 104 70 
-0.958067 -0.0145821 2.65533 189 158 127 
-0.990647 -0.233849 2.7441 194 155 116 
-1.05913 -0.708687 2.93303 170 136 101 
-1.00238 -0.318273 2.77696 124 91 58 
-0.993328 -0.256981 2.75345 189 155 120 
-0.978922 -0.172296 2.71548 129 96 61 
-1.02524 -0.48463 2.84211 148 114 79 
-1.05072 -0.668433 2.91653 190 155 115 
-1.00217 -0.350722 2.7823 203 163 127 
-0.952066 0.00736679 2.64944 207 177 143 
-0.969399 -0.109999 2.69661 174 142 104 
-0.943061 0.048795 2.62828 213 181 142 
-0.9352 0.0937724 2.61131 128 83 44 
-0.94363 0.0406545 2.63479 202 168 130 
-0.963896 -0.102982 2.6919 147 117 79 
-1.00751 -0.415946 2.81118 201 156 115 
-1.04043 -0.642775 2.90408 213 177 145 
-0.956087 -0.0506811 2.67414 216 190 153 
-0.962306 -0.117276 2.69571 126 95 67 
-1.01528 -0.497911 2.84435 191 157 120 
-0.958694 -0.0929328 2.69292 221 189 150 
-0.931779 0.0722102 2.6237 167 132 102 
-1.00439 -0.433201 2.82364 93 62 41 
-1.00613 -0.462523 2.82844 202 164 125 
-0.94224 -0.0147732 2.65584 223 188 148 
-0.93116 0.0354151 2.63806 196 154 106 
-0.951774 -0.105089 2.69597 106 77 47 
-0.925535 0.0442756 2.63019 122 87 55 
-0.976473 -0.312254 2.77434 149 117 79 
-0.952555 -0.152053 2.70896 135 105 71 
-0.982307 -0.367348 2.79228 148 114 79 
-0.935464 -0.0354267 2.66291 197 165 127 
-0.920455 0.0729329 2.62541 188 156 118 
-0.955676 -0.182194 2.7216 151 118 83 
-0.993991 -0.461362 2.83119 134 104 70 
-1.01674 -0.651265 2.90668 125 94 66 
-1.02879 -0.735141 2.94233 196 159 117 
-0.913858 0.0849305 2.61923 136 103 72 
-0.908038 0.129087 2.60444 182 146 114 
-0.955155 -0.220227 2.73957 119 90 60 
-0.90745 0.120024 2.60895 180 145 115 
-1.01162 -0.631642 2.90134 142 111 83 
-1.01365 -0.660098 2.91033 192 159 128 
-0.97791 -0.399959 2.81185 206 174 135 
-0.907461 0.0764155 2.62034 143 110 77 
-0.911879 0.033097 2.6333 118 87 58 
-0.938759 -0.131781 2.70702 224 178 128 
-1.01419 -0.689553 2.92369 143 114 80 
-0.924641 -0.0769477 2.67485 131 95 59 
-1.00873 -0.670599 2.91382 147 113 78 
-0.994883 -0.567086 2.87716 175 145 111 
-0.970782 -0.392632 2.80841 140 108 70 
-0.960385 -0.317193 2.77966 137 98 65 
-0.910486 0.0279656 2.64363 177 142 104 
-0.97287 -0.435327 2.82624 136 103 68 
-0.895023 0.0985122 2.60764 180 143 99 
-1.00073 -0.659028 2.9076 213 179 141 
-0.909337 0.017156 2.6485 195 161 124 
-0.928982 -0.13728 2.70399 129 94 56 
-0.959366 -0.365662 2.79413 143 104 61 
-0.979259 -0.525171 2.85831 216 178 139 
-0.911067 -0.0479934 2.66729 138 105 64 
-0.897289 0.0433421 2.62986 196 161 123 
-0.914308 -0.0794216 2.67973 119 85 48 
-1.00498 -0.730366 2.94267 200 166 129 
-0.95467 -0.379955 2.80018 133 98 60 
-0.994677 -0.669854 2.9154 144 110 73 
-0.966137 -0.457557 2.83304 134 101 68 
-0.909378 -0.0642723 2.67301 174 144 120 
-0.890067 0.0681382 2.62136 170 136 111 
-0.939249 -0.290215 2.76252 128 94 57 
-0.913443 -0.0872537 2.68928 200 163 118 
-0.922279 -0.182971 2.7186 189 160 130 
-0.927824 -0.217011 2.73794 172 142 106 
-0.888314 0.0477639 2.62926 207 164 119 
-0.956512 -0.461492 2.83139 192 160 119 
-0.90949 -0.119216 2.69778 124 88 52 
-0.882555 0.0550135 2.62476 210 166 121 
-0.879531 0.0851402 2.6212 124 86 47 
-0.928069 -0.292979 2.76349 126 96 60 
-0.913787 -0.182905 2.72274 126 99 70 
-0.889641 -0.0309705 2.66077 117 77 41 
-0.937759 -0.373705 2.79991 144 110 73 
-0.900584 -0.109219 2.69276 138 102 68 
-0.951153 -0.489138 2.84317 189 160 126 
-0.887097 -0.0463885 2.66557 202 162 127 
-0.967473 -0.645021 2.90674 185 151 124 
-0.940876 -0.465816 2.83473 126 97 63 
-0.869037 0.0401717 2.62885 186 150 116 
-0.946023 -0.524912 2.85652 196 163 132 
-0.874184 0.0193381 2.64504 219 178 126 
-0.865822 0.0738268 2.6227 137 95 57 
-0.859778 0.0979595 2.60815 187 154 119 
-0.918917 -0.33255 2.78143 133 99 64 
-0.935782 -0.45321 2.83169 202 165 123 
-0.864122 0.0500818 2.62543 179 147 109 
-0.897972 -0.187455 2.72401 227 184 139 
-0.887967 -0.138313 2.69895 222 177 122 
-0.890962 -0.155298 2.71013 191 156 118 
-0.919935 -0.376985 2.79676 126 87 54 
-0.954324 -0.644692 2.90288 134 100 63 
-0.931259 -0.460055 2.83647 104 75 41 
-0.852134 0.104311 2.6104 135 101 64 
-0.871466 -0.0430759 2.66625 221 181 132 
-0.93456 -0.521143 2.85677 183 149 114 
-0.886719 -0.172505 2.71942 134 92 54 
-0.960952 -0.747072 2.94769 105 80 49 
-0.875623 -0.101375 2.69301 216 173 131 
-0.85944 0.00991927 2.64507 183 145 109 
-0.895959 -0.278812 2.7557 126 87 54 
-0.919284 -0.450809 2.83014 172 142 108 
-0.938631 -0.601352 2.89149 131 90 60 
-0.88735 -0.243868 2.73441 141 106 68 
-0.876439 -0.142947 2.70347 195 156 117 
-0.911654 -0.417988 2.80967 185 142 97 
-0.922284 -0.484237 2.84403 142 104 67 
-0.901955 -0.3398 2.78425 135 100 60 
-0.936836 -0.614128 2.8939 177 145 106 
-0.860609 -0.0485885 2.66416 123 85 49 
-0.907478 -0.387895 2.80916 144 104 69 
-0.939926 -0.67241 2.9123 181 148 113 
-0.847181 0.037432 2.63112 185 147 110 
-0.880536 -0.219352 2.73428 190 151 112 
-0.851412 -0.00153387 2.64865 125 86 53 
-0.866464 -0.128166 2.69783 178 144 99 
-0.838229 0.0716387 2.6224 150 119 90 
-0.823578 0.173619 2.58288 179 144 116 
-0.848234 -0.032082 2.66029 129 90 57 
-0.886374 -0.332298 2.77678 150 115 73 
-0.841234 0.0137869 2.64354 167 133 95 
-0.858037 -0.120024 2.69636 128 93 63 
-0.920834 -0.617653 2.89631 201 159 117 
-0.900667 -0.465435 2.83495 133 101 63 
-0.827905 0.0787803 2.61675 131 98 63 
-0.829918 0.0617436 2.62392 96 64 41 
-0.823273 0.127874 2.60596 218 183 151 
-0.924057 -0.673718 2.91779 199 159 123 
-0.850698 -0.11038 2.69339 122 83 44 
-0.846774 -0.123249 2.69111 156 109 63 
-0.903932 -0.54687 2.86765 189 152 108 
-0.828462 0.0244029 2.63828 120 89 61 
-0.829748 0.00991313 2.64643 120 90 54 
-0.836667 -0.0481435 2.66602 189 155 120 
-0.803281 0.220448 2.56746 168 134 97 
-0.836082 -0.0771628 2.67553 182 151 120 
-0.913855 -0.699554 2.91958 189 156 121 
-0.9064 -0.634662 2.90237 138 98 62 
-0.884756 -0.464382 2.83172 119 85 50 
-0.837545 -0.0939483 2.68636 115 85 51 
-0.876753 -0.416152 2.81097 209 167 119 
-0.918275 -0.754281 2.9461 192 158 123 
-0.814532 0.0690636 2.62243 196 161 121 
-0.914903 -0.736426 2.94004 153 124 94 
-0.903512 -0.652253 2.90729 147 102 69 
-0.896342 -0.581884 2.8837 214 171 126 
-0.825865 -0.0584096 2.671 182 150 109 
-0.81601 0.0176213 2.63963 198 165 130 
-0.866103 -0.375647 2.7959 181 143 106 
-0.875145 -0.464605 2.83004 194 156 119 
-0.897207 -0.643703 2.90256 204 160 123 
-0.900127 -0.667437 2.91491 137 103 66 
-0.831411 -0.122394 2.69728 126 92 64 
-0.834508 -0.156541 2.70673 153 123 87 
-0.851044 -0.284784 2.75911 134 99 61 
-0.792747 0.165623 2.58029 133 99 64 
-0.860502 -0.367093 2.79138 124 88 52 
-0.847627 -0.258787 2.7523 141 102 69 
-0.806796 0.0579593 2.6262 199 161 125 
-0.824259 -0.0959048 2.68652 165 131 94 
-0.819132 -0.0416392 2.66968 211 177 139 
-0.840281 -0.228796 2.73633 144 109 71 
-0.882604 -0.569731 2.87707 128 98 64 
-0.811522 -0.0252224 2.65659 211 173 136 
