ply
format ascii 1.0
comment PCL generated
element vertex 1156
property float x
property float y
property float z
property uchar red
property uchar green
property uchar blue
element face 0
element camera 0
property float view_px
property float view_py
property float view_pz
property float x_axisx
property float x_axisy
property float x_axisz
property float y_axisx
property float y_axisy
property float y_axisz
property float z_axisx
property float z_axisy
property float z_axisz
property float focal
property float scalex
property float scaley
property float centerx
property float centery
property int viewportx
property int viewporty
property float k1
property float k2
end_header
-0.401853 -0.83237702 5.6043301 49 54 51
-0.380786 -0.83034497 5.6068702 45 49 47
-0.38835099 -0.82869399 5.6047902 44 48 45
-0.384417 -0.83918101 5.6108699 46 51 49
-0.35942599 -0.83843899 5.6252699 45 50 49
-0.347599 -0.83518702 5.6364298 44 48 47
-0.355221 -0.83346999 5.6361899 44 48 47
-0.185681 -0.83853298 5.66998 44 50 53
-0.193597 -0.84208 5.65837 43 49 52
-0.184286 -0.84180802 5.68782 44 51 54
-0.062570699 -0.830446 5.6135602 52 59 58
0.0056029302 -0.85129398 5.7406998 47 52 51
0.031390399 -0.852476 5.7543998 49 55 54
0.042284001 -0.85421199 5.7450099 45 51 51
0.048712201 -0.85368299 5.7618098 49 55 55
0.054871298 -0.85319102 5.7786002 54 60 62
0.14145599 -0.85908198 5.78233 59 65 70
0.15197399 -0.85918999 5.7909899 58 65 70
-0.89033401 -0.812783 5.5819602 9 11 8
-0.86892599 -0.81773001 5.54741 16 17 15
-0.84974802 -0.81134999 5.5148001 19 22 21
-0.85456002 -0.80235201 5.5166101 14 17 16
-0.845577 -0.80256498 5.5136399 32 37 37
-0.84333098 -0.80225801 5.5101099 43 49 49
-0.83888799 -0.810404 5.51021 79 86 88
-0.83144403 -0.81115001 5.5125599 100 109 115
-0.83461398 -0.80239999 5.5086899 97 106 111
-0.83489501 -0.80241001 5.5095501 97 106 111
-0.82232702 -0.81111401 5.50986 94 104 110
-0.79907101 -0.805821 5.5155001 82 89 93
-0.66220301 -0.82393098 5.5975299 18 20 18
-0.66303903 -0.81828201 5.6135802 12 14 12
-0.65470803 -0.82535398 5.6171498 16 19 17
-0.634794 -0.823138 5.61027 14 17 16
-0.63720602 -0.81779599 5.63521 8 12 10
-0.61164701 -0.81879699 5.57201 15 17 16
-0.62328303 -0.818057 5.6198201 11 14 13
-0.60640901 -0.81922299 5.5791402 24 27 27
-0.59466201 -0.81688499 5.56427 47 52 52
-0.59520501 -0.81761098 5.57724 51 56 56
-0.581366 -0.81983203 5.5739298 48 53 54
-0.5733 -0.820638 5.5770502 51 56 57
-0.54614699 -0.81927198 5.61127 26 28 25
-0.54130399 -0.81332803 5.6104002 21 22 18
-0.550879 -0.81297398 5.6027799 47 50 49
-0.406214 -0.82542402 5.6049299 38 41 39
-0.40723601 -0.817752 5.6085701 17 19 17
-0.390764 -0.82350999 5.6090002 29 31 29
-0.398296 -0.82558203 5.6069298 36 39 37
-0.38652 -0.82082802 5.61026 21 23 21
-0.370442 -0.82403499 5.64396 16 19 18
-0.359781 -0.82714301 5.6406598 30 33 33
-0.30772001 -0.82820302 5.68855 21 23 21
-0.180355 -0.82458699 5.66225 30 34 34
-0.17248499 -0.825652 5.67168 29 32 34
-0.17656501 -0.832919 5.6697798 43 48 50
-0.168299 -0.83242899 5.66921 41 46 49
-0.055157099 -0.82646 5.6247902 55 60 59
-0.039003301 -0.81743199 5.6182499 52 56 55
-0.0379273 -0.82130498 5.62254 53 58 56
-0.045026999 -0.82440197 5.61344 54 60 59
0.018462401 -0.82018203 5.6215301 55 60 59
0.023679299 -0.82374001 5.6289802 54 60 59
0.0158321 -0.813945 5.6103501 51 54 53
0.0752277 -0.807257 5.5401902 51 56 57
0.077286497 -0.80798697 5.5507798 51 56 56
0.255236 -0.82116699 5.65764 48 55 58
0.27355599 -0.81497902 5.59373 49 56 59
-1.0156 -0.800506 5.6508398 40 43 36
-0.86083698 -0.79603499 5.5244398 11 14 12
-0.84528297 -0.786663 5.51508 38 43 44
-0.85149503 -0.795614 5.52 17 20 20
-0.85616797 -0.78777599 5.5261798 14 18 16
-0.84091902 -0.794559 5.5123 72 78 80
-0.83298898 -0.79555303 5.5152202 97 106 112
-0.83665103 -0.78677398 5.5130901 89 97 100
-0.83329499 -0.79597503 5.5164399 98 106 113
-0.81440097 -0.79419798 5.5084901 89 97 104
-0.80378801 -0.79290402 5.4999299 87 94 100
-0.801332 -0.786479 5.51862 77 84 87
-0.634763 -0.81346703 5.6416898 7 10 9
-0.62205797 -0.80470997 5.6289101 17 21 21
-0.61148298 -0.79888499 5.61695 55 60 61
-0.61193401 -0.80837297 5.61167 43 48 49
-0.59523702 -0.80524999 5.5646801 63 68 70
-0.59278297 -0.79571301 5.5768099 71 77 80
-0.58894801 -0.80537599 5.5729098 68 74 77
-0.54557699 -0.80661201 5.61063 23 24 22
-0.41335201 -0.82296801 5.7459402 9 11 9
-0.394593 -0.81369001 5.7165198 9 12 9
-0.36443299 -0.815063 5.6597199 44 49 49
-0.369854 -0.80685502 5.6631098 36 41 41
-0.37337899 -0.81313699 5.6521502 18 22 20
-0.36235201 -0.804636 5.6651502 49 54 55
-0.35588601 -0.80809301 5.6455202 51 56 57
-0.36230701 -0.80461502 5.665 49 54 56
-0.34320301 -0.81402999 5.6400299 51 55 56
-0.34839499 -0.80918401 5.6549702 52 57 60
-0.33749899 -0.80526203 5.6502099 59 64 67
-0.33222699 -0.81150401 5.6384702 57 61 63
-0.28906399 -0.82558602 5.81531 11 13 9
-0.29857299 -0.82886702 5.79177 15 16 13
-0.27891999 -0.82562101 5.75281 17 19 15
-0.28064701 -0.82723302 5.8267598 11 12 9
-0.189484 -0.79560202 5.5834098 12 14 12
-0.186937 -0.80461001 5.5978999 17 19 17
-0.17522401 -0.81291997 5.6322799 18 20 18
-0.17874201 -0.80091202 5.6065001 14 16 14
-0.16287801 -0.805664 5.6348 14 16 15
-0.128537 -0.81283802 5.7228599 50 54 54
-0.107028 -0.809681 5.7182798 73 81 87
-0.097634196 -0.81039399 5.7221098 75 84 89
0.018480901 -0.80163503 5.58706 31 32 30
0.029206401 -0.80878198 5.5891199 48 51 49
0.042709701 -0.80873299 5.57618 53 57 56
0.0429499 -0.801548 5.5820298 30 32 30
0.0529177 -0.797683 5.5838799 25 26 24
0.052888099 -0.804443 5.5752101 40 43 42
0.063662 -0.80455703 5.5747299 41 44 44
0.073959798 -0.80377799 5.5711298 43 46 46
0.222233 -0.81253201 5.71597 33 35 31
0.222625 -0.82292902 5.7234702 45 50 50
0.239471 -0.81698298 5.68502 46 51 52
0.247348 -0.80477899 5.63941 36 38 36
0.258412 -0.80853498 5.63203 46 51 52
0.26783299 -0.80768001 5.6215401 47 53 55
0.276577 -0.80487698 5.5831599 49 56 59
0.28676999 -0.80652702 5.5757399 49 57 59
0.28749001 -0.79857999 5.5805502 45 51 51
0.302744 -0.78998399 5.5146899 54 59 61
0.303399 -0.79460502 5.4777498 55 62 67
0.326287 -0.81611198 5.6271901 67 75 81
-1.01097 -0.79284 5.6513901 45 48 41
-1.01097 -0.79284 5.6513901 45 48 41
-1.01451 -0.79243201 5.7011499 45 48 42
-0.860488 -0.77981299 5.53652 13 17 14
-0.85254103 -0.78039402 5.5320401 25 29 28
-0.83538401 -0.78109902 5.52494 84 90 93
-0.81747103 -0.774257 5.51581 71 75 76
-0.82713401 -0.784172 5.52319 86 92 97
-0.632496 -0.79096001 5.65134 11 14 12
-0.63192999 -0.79772598 5.6399899 8 12 10
-0.62166899 -0.79677498 5.6316199 23 28 27
-0.61711597 -0.78598303 5.6203399 36 40 39
-0.54777497 -0.79602402 5.62639 24 26 24
-0.55361199 -0.79078799 5.6198001 44 47 47
-0.40822801 -0.79984701 5.7597899 9 13 10
-0.39454201 -0.80711901 5.72995 11 14 12
-0.374172 -0.79934698 5.6870799 40 44 44
-0.377195 -0.80562001 5.6945801 31 36 35
-0.36297899 -0.792382 5.6709399 50 55 56
-0.156128 -0.802531 5.6525602 11 13 12
-0.15119 -0.80270201 5.7690301 14 17 17
-0.13205101 -0.80225098 5.7284198 48 51 52
-0.120132 -0.80913198 5.7255402 59 64 67
0.071168602 -0.79739499 5.6422501 18 19 17
0.092800297 -0.806611 5.7958498 23 25 24
0.106783 -0.80608702 5.7883 58 60 59
0.158759 -0.81418103 5.8175702 37 39 36
0.16431101 -0.81298399 5.82301 21 23 19
0.240025 -0.792624 5.6339998 27 29 23
0.259004 -0.79783201 5.6202998 32 33 30
0.284311 -0.79370099 5.5989199 33 35 31
0.30285501 -0.78028297 5.5289502 29 31 27
0.310619 -0.78262401 5.5392299 30 32 28
0.31110999 -0.78345299 5.48034 47 52 52
0.31618899 -0.80180401 5.6624398 35 37 34
0.34294999 -0.81326598 5.84518 41 44 43
0.34787601 -0.81112999 5.8435998 71 76 78
0.34663999 -0.82033497 5.8424501 49 54 54
0.33532199 -0.81234998 5.83954 27 28 26
0.35666701 -0.81097603 5.8387799 96 103 109
0.35220501 -0.81287098 5.8408999 93 99 103
-1.06505 -0.76009899 5.4237599 32 35 32
-1.00314 -0.77053303 5.6195598 54 56 51
-1.0020601 -0.76922601 5.6172199 54 56 51
-0.99283302 -0.78184402 5.6665602 37 39 34
-0.88834202 -0.77864599 5.61238 8 12 10
-0.88834202 -0.77864599 5.61238 8 12 10
-0.86238903 -0.773458 5.5490699 15 19 16
-0.88151401 -0.76887202 5.6061702 11 15 13
-0.85027701 -0.76416701 5.5515199 46 48 46
-0.83916599 -0.76300901 5.54108 49 50 49
-0.83254403 -0.76720899 5.54459 53 55 54
-0.82353199 -0.76690298 5.5429201 52 53 53
-0.82069403 -0.75906599 5.53684 40 41 40
-0.82822502 -0.77400202 5.5419598 66 69 70
-0.79797298 -0.76978397 5.5155902 51 54 53
-0.81346297 -0.76167101 5.5394101 39 40 38
-0.81282598 -0.77226299 5.5299602 57 61 60
-0.79687297 -0.76805699 5.5507398 42 44 42
-0.63896197 -0.78068602 5.6675701 11 14 11
-0.63050503 -0.77227402 5.6515098 14 18 14
-0.616678 -0.77936399 5.6284299 41 45 44
-0.56989098 -0.772695 5.57932 60 64 64
-0.55383199 -0.77845103 5.6313701 34 36 32
-0.420679 -0.799106 5.8029699 10 13 10
-0.37983701 -0.78206801 5.7192602 37 40 39
-0.370002 -0.78237402 5.69554 43 47 46
-0.31633699 -0.78727502 5.69766 23 25 21
-0.30211401 -0.79136598 5.8273602 18 20 15
-0.29988801 -0.79806203 5.8056402 15 16 12
-0.29596701 -0.80319899 5.83043 14 16 12
-0.149281 -0.78884101 5.7641501 18 21 20
-0.13085499 -0.78450602 5.7118802 44 48 47
-0.121366 -0.79323399 5.71872 59 65 67
-0.11268 -0.79233301 5.7103901 68 75 79
-0.116346 -0.78682703 5.7325201 64 70 72
-0.115179 -0.78621 5.7277799 65 71 73
0.106947 -0.79478502 5.7860398 60 62 62
0.099715903 -0.80037999 5.7909899 47 49 49
0.153441 -0.80352098 5.81075 74 77 77
0.14566401 -0.80266201 5.80516 75 80 82
0.15676799 -0.79773998 5.8207698 51 54 52
0.164685 -0.79844099 5.82406 23 25 21
0.33682901 -0.79863602 5.8537998 30 32 32
0.34492299 -0.805444 5.8514099 55 59 60
0.353627 -0.80404902 5.8470602 97 104 109
0.413178 -0.80333501 5.90698 16 18 16
0.42898601 -0.806683 5.89147 16 18 15
-1.05483 -0.73463202 5.4234099 52 56 53
-1.0501699 -0.74021798 5.4293799 66 70 68
-0.89108402 -0.75805199 5.6352801 11 15 13
-0.87036902 -0.756868 5.6054201 28 32 31
-0.855156 -0.75242198 5.5668602 55 59 58
-0.84378397 -0.75270301 5.5546999 56 59 59
-0.830998 -0.758268 5.54562 37 38 37
-0.81825799 -0.74713898 5.5621901 60 65 67
-0.80443799 -0.75847203 5.57128 30 32 30
-0.80545998 -0.75899798 5.5782599 32 34 31
-0.81150699 -0.75423002 5.57618 41 44 43
-0.80132401 -0.75158799 5.5813799 47 50 49
-0.79021603 -0.76093298 5.59445 13 15 11
-0.63796502 -0.769988 5.6688099 14 17 13
-0.62539202 -0.75787699 5.63767 20 23 20
-0.40951899 -0.78070498 5.7899699 14 18 15
-0.397468 -0.77097899 5.7702799 23 26 24
-0.38063401 -0.776878 5.7107601 34 37 35
-0.145823 -0.77084202 5.7671299 28 31 29
-0.146524 -0.78016901 5.7609301 26 29 27
-0.12991101 -0.77540302 5.7397399 50 53 52
-0.13474201 -0.76924002 5.7468901 40 43 41
-0.137752 -0.78188401 5.74687 43 46 45
-0.121666 -0.78098297 5.7251 60 65 65
-0.119892 -0.77016002 5.7174501 53 56 55
0.094097599 -0.77990597 5.7983198 28 30 28
0.107529 -0.779185 5.7867498 54 56 56
0.152528 -0.791044 5.8266301 64 67 66
0.14713401 -0.784657 5.8320198 65 68 66
0.16031501 -0.79187298 5.8308201 31 33 29
0.160612 -0.79171902 5.8327599 30 32 28
0.163745 -0.78683197 5.8467999 25 27 22
0.16806801 -0.79291201 5.8421302 20 22 17
0.33721599 -0.79037303 5.8572001 32 35 34
0.34722599 -0.79027301 5.8666201 75 79 81
0.35910901 -0.79111302 5.87784 87 92 96
0.35546401 -0.78766602 5.8688502 86 92 94
0.355234 -0.795739 5.8639698 91 98 102
0.36551699 -0.79274702 5.8568802 89 95 100
0.37249601 -0.79393202 5.8362598 92 99 105
0.40814999 -0.79264402 5.91186 28 30 28
0.47745299 -0.81912798 6.19064 30 32 28
0.494055 -0.812576 6.0995998 33 36 32
0.50285 -0.80846399 6.0925698 38 42 38
0.51195502 -0.804932 6.0838799 46 51 47
-1.05398 -0.72198403 5.4196601 61 65 63
-1.0497 -0.72785002 5.4275799 65 69 67
-1.04582 -0.73288298 5.5531402 85 89 88
-1.0493799 -0.73079199 5.54566 76 80 79
-0.88805401 -0.75116903 5.6400599 12 17 15
-0.88637501 -0.74104798 5.6310401 15 20 18
-0.89103597 -0.74272197 5.6343598 12 17 15
-0.87375498 -0.748712 5.6172099 26 31 30
-0.876495 -0.74005198 5.6226902 24 29 27
-0.85836798 -0.74418801 5.57763 52 58 58
-0.85950798 -0.73417002 5.5749402 46 52 53
-0.83661902 -0.74063802 5.5534902 77 84 88
-0.84514201 -0.74040997 5.5475202 82 89 91
-0.805852 -0.74555701 5.56703 61 67 68
-0.81614703 -0.74131298 5.57268 67 74 77
-0.80197102 -0.73809701 5.5711398 63 68 69
-0.796682 -0.74327898 5.58078 34 37 35
-0.79132199 -0.74841899 5.5893002 15 18 13
-0.79104 -0.741063 5.5968299 20 23 18
-0.62985402 -0.751719 5.63903 17 20 16
-0.62221402 -0.74584198 5.6412201 40 44 41
-0.61830503 -0.75265199 5.6447201 58 62 59
-0.61706501 -0.75151002 5.6417499 62 65 62
-0.59099698 -0.75384498 5.6477098 64 68 65
-0.40499699 -0.76439703 5.7677999 15 20 16
-0.39496201 -0.75476903 5.7315102 20 24 21
-0.394997 -0.75483501 5.7320099 20 24 21
-0.394997 -0.75483501 5.7320099 20 24 21
-0.101359 -0.75828803 5.6894302 42 43 42
0.099969499 -0.77249497 5.79459 43 44 43
0.157811 -0.77868497 5.84302 33 36 31
0.165544 -0.77869898 5.8512301 25 27 22
0.158686 -0.77056301 5.8477602 37 39 34
0.166908 -0.77078199 5.85812 26 28 23
0.33243099 -0.77372497 5.92102 35 38 34
0.32222301 -0.793037 5.9745798 21 23 20
0.33600101 -0.77885598 5.8970699 33 36 34
0.35889 -0.78499299 5.89504 81 85 85
0.35903901 -0.77688301 5.8987002 70 72 70
0.37177801 -0.77828801 5.8485599 81 86 86
0.38294101 -0.77952302 5.85817 85 89 90
0.39320001 -0.78337198 5.8824902 89 94 94
0.409675 -0.783566 5.9082899 23 26 23
0.45727101 -0.810911 6.23349 22 26 23
0.46579701 -0.80727398 6.2322998 29 33 30
0.467989 -0.81179202 6.18857 27 30 27
0.47243601 -0.81118101 6.1984 31 34 32
0.500476 -0.80289 6.1237898 41 46 44
0.48970699 -0.80426502 6.1922402 38 42 41
0.51216298 -0.79691797 6.1241598 52 57 56
0.51581502 -0.80617797 6.1145401 50 55 52
0.51854497 -0.80112702 6.1122198 53 58 56
-1.05765 -0.71337199 5.4077101 54 57 54
-1.04985 -0.72643399 5.5440698 75 79 79
-1.0491 -0.72152698 5.5585799 86 90 90
-1.0455199 -0.72076899 5.5551701 90 94 93
-1.04342 -0.72687602 5.55585 91 95 94
-1.03573 -0.72241402 5.5961499 97 99 100
-1.0262001 -0.72440201 5.5907698 96 98 98
-0.88915098 -0.72523898 5.63484 17 22 18
-0.885297 -0.73278803 5.6343198 18 23 21
-0.88187802 -0.73335099 5.6295099 19 24 22
-0.880009 -0.72495699 5.6318798 23 28 26
-0.85249799 -0.72180802 5.5644398 65 72 76
-0.846645 -0.72770798 5.5539699 76 83 87
-0.84371102 -0.72075999 5.56393 82 89 95
-0.80541199 -0.72084302 5.5620799 66 73 75
-0.80677402 -0.73229301 5.5639601 67 74 76
-0.81206501 -0.72681302 5.56076 72 79 83
-0.80098999 -0.72698498 5.5704799 57 63 63
-0.79492497 -0.72141999 5.5749998 30 34 30
-0.79657501 -0.73314202 5.5803499 32 36 33
-0.79142898 -0.728293 5.5965099 21 25 19
-0.63505203 -0.73068601 5.6433301 17 22 17
-0.61870801 -0.73803502 5.6431699 64 69 67
-0.61304897 -0.72995698 5.6412902 77 82 82
-0.38613799 -0.74565899 5.7114701 29 33 31
-0.379435 -0.73743898 5.7041602 49 53 53
-0.37185299 -0.73743999 5.7113199 61 65 68
-0.36114299 -0.74671 5.7293701 52 57 58
-0.133692 -0.749529 5.7815599 58 62 62
-0.124101 -0.74932998 5.7740002 58 63 63
0.092149198 -0.755826 5.8421302 47 50 48
0.101329 -0.754565 5.8373199 58 61 59
0.15315799 -0.75415897 5.8831701 35 36 34
0.452308 -0.79548901 6.28475 25 29 27
0.447658 -0.80832398 6.2800298 17 21 19
0.44356 -0.79752201 6.2789001 17 21 19
0.48217401 -0.80089599 6.2197599 37 42 40
0.51358998 -0.78727001 6.1277299 55 61 62
0.51958901 -0.78009802 6.1100998 59 67 69
-1.0500799 -0.70228797 5.5405798 73 77 76
-1.04928 -0.71428102 5.5447302 76 80 80
-1.04747 -0.70961398 5.5552001 83 87 87
-1.04486 -0.70840901 5.55549 88 93 93
-1.04234 -0.70433301 5.5647202 97 101 101
-1.0424 -0.71711802 5.5637698 97 101 101
-1.04363 -0.71601999 5.5657701 95 100 100
-1.0351501 -0.71180397 5.5866899 99 102 102
-1.0392801 -0.71468103 5.56778 100 104 104
-1.0190001 -0.71237302 5.6008701 95 98 97
-1.0238301 -0.70920998 5.5976701 101 103 103
-1.02895 -0.71542901 5.5936098 99 101 101
-1.01239 -0.71675801 5.5999699 88 90 90
-1.0008399 -0.71772999 5.6109099 71 73 71
-0.87581599 -0.71942699 5.62115 28 33 32
-0.88551098 -0.71561199 5.6306901 18 23 19
-0.87999898 -0.71062201 5.6304898 26 31 28
-0.85981899 -0.71601498 5.5896201 65 71 74
-0.85422599 -0.70714402 5.5869999 64 68 70
-0.83875901 -0.71293497 5.5605302 72 79 84
-0.83735299 -0.70439601 5.56705 62 67 67
-0.84634697 -0.71144903 5.5574698 70 76 79
-0.82810301 -0.70512998 5.5673699 63 68 68
-0.82002699 -0.70872003 5.5644202 61 67 69
-0.81313401 -0.70904899 5.5704598 59 64 66
-0.805049 -0.70846301 5.5699201 56 60 60
-0.790317 -0.71669102 5.5865898 17 21 15
-0.63606 -0.71780902 5.6522899 19 24 19
-0.62817103 -0.725694 5.6467299 24 28 25
-0.61914402 -0.72531497 5.6416502 61 66 65
-0.58852798 -0.71773499 5.65663 65 68 70
-0.390122 -0.72718102 5.7234101 26 30 29
-0.38567299 -0.73297298 5.7066598 29 33 32
-0.38060701 -0.72501302 5.7076502 45 49 49
0.088533998 -0.74705398 5.8502798 39 43 43
0.097559303 -0.74601501 5.8470302 73 78 78
0.11399 -0.74658102 5.8393202 58 63 64
0.132866 -0.74145299 5.8488402 72 77 80
0.14361501 -0.749753 5.8860502 69 73 73
0.44838801 -0.78393298 6.2781501 24 29 27
0.43995401 -0.78573102 6.2644 19 23 21
0.45794001 -0.77899301 6.26192 34 40 38
0.46991399 -0.78778702 6.2661099 39 45 43
0.46991399 -0.78778702 6.2661099 39 45 43
0.49931899 -0.76874799 6.1507902 52 61 62
0.514148 -0.77097201 6.1153698 62 71 73
-1.08429 -0.67323798 5.3352799 60 66 60
-1.0794801 -0.66691101 5.3393202 60 67 60
-1.0518399 -0.68000603 5.4345198 66 70 67
-1.0338 -0.690413 5.5391698 99 103 104
-1.0398999 -0.70238298 5.5650001 99 103 103
-1.01825 -0.70235097 5.6025701 94 97 97
-1.02271 -0.69665802 5.5896802 101 103 104
-1.0130399 -0.69529301 5.6040702 87 90 90
-1.0017 -0.70542002 5.6117501 74 76 74
-1.00369 -0.693887 5.6189098 77 80 78
-0.89772499 -0.70027202 5.6648698 17 22 19
-0.88648099 -0.70443702 5.6367698 17 22 19
-0.88283598 -0.69710201 5.6388102 24 29 25
-0.87438899 -0.70003498 5.62393 35 40 37
-0.86665303 -0.70788097 5.6124902 54 58 57
-0.84959 -0.70167398 5.58815 57 59 58
-0.82829702 -0.69955403 5.5714798 52 54 54
-0.81975502 -0.70053601 5.5675998 49 53 52
-0.80676401 -0.69561398 5.5893102 38 40 35
-0.80028099 -0.70286798 5.5852098 26 29 24
-0.63713998 -0.71075201 5.6636 19 24 20
-0.62435901 -0.70376498 5.6557899 42 46 42
-0.63137603 -0.70139599 5.6477098 21 26 21
-0.62747002 -0.70975399 5.6480398 28 32 29
-0.61507797 -0.70343101 5.66046 57 59 58
-0.60606003 -0.70339102 5.66751 59 61 59
-0.59824002 -0.70058602 5.6696601 50 52 50
-0.38142699 -0.71137702 5.7129898 45 48 47
-0.350972 -0.70508599 5.6722398 53 57 56
0.326419 -0.735273 5.9507098 36 41 38
0.449669 -0.77524501 6.2589002 27 32 30
0.46699399 -0.76206201 6.237 44 51 51
0.46926799 -0.76579201 6.1870599 41 48 46
0.469971 -0.77161598 6.2392502 43 50 49
0.479875 -0.76225001 6.1972198 48 57 56
0.48669401 -0.75472701 6.18856 52 61 62
0.49168199 -0.76291198 6.1796699 52 61 62
0.50598699 -0.75417101 6.12925 65 74 76
0.50854498 -0.76214403 6.12079 63 72 74
0.51686901 -0.75752002 6.11654 71 81 84
0.50459802 -0.75416797 6.1426101 65 74 76
0.504704 -0.75393897 6.1353998 64 74 76
0.57684201 -0.74145901 6.0139098 80 91 95
-1.07425 -0.660303 5.34132 53 60 50
-1.07907 -0.65525699 5.3336401 61 68 60
-1.0792201 -0.65542197 5.33355 61 68 61
-1.05038 -0.66852599 5.43257 65 70 66
-1.03912 -0.67489898 5.5009098 78 83 82
-1.03143 -0.681036 5.5215702 97 102 102
-1.0178 -0.68973601 5.5928898 99 102 103
-1.02047 -0.679241 5.6003499 99 103 103
-1.00886 -0.68841702 5.6104202 84 88 87
-1.00065 -0.68728101 5.6300902 75 78 75
-1.00599 -0.70354003 5.74751 57 60 57
-1.0046999 -0.69167602 5.73807 59 63 60
-0.99456298 -0.696073 5.7643299 36 41 37
-0.89361298 -0.695907 5.66816 20 24 21
-0.82765901 -0.68064302 5.605 48 52 52
-0.81287903 -0.690938 5.5851102 32 34 30
-0.81525397 -0.68761802 5.5969 29 31 27
-0.80537498 -0.690014 5.61023 22 26 20
-0.80400598 -0.68320501 5.6336699 18 22 15
-0.80312401 -0.68439299 5.6280999 18 23 16
-0.63791102 -0.694628 5.6587701 21 26 21
-0.63954002 -0.689354 5.6816702 21 26 22
-0.62483501 -0.69743103 5.6693301 39 42 38
-0.63408101 -0.691131 5.6771002 24 28 24
0.101534 -0.70966601 5.8564401 58 61 61
0.120393 -0.70978999 5.8461199 60 64 63
0.110442 -0.70764798 5.8501201 54 58 57
0.118475 -0.71879202 5.8379002 64 68 70
0.127361 -0.71996701 5.8441801 68 73 75
0.323645 -0.72564697 5.9325399 32 38 35
0.33567601 -0.72659701 5.92132 52 58 57
0.33971101 -0.71834701 5.9158602 67 72 72
0.34371701 -0.72599 5.9167199 90 96 97
0.45515499 -0.74795002 6.2526398 36 44 43
0.44569099 -0.75236797 6.2718902 29 35 33
0.450681 -0.76029801 6.2628798 31 38 36
0.46049201 -0.75409698 6.2315698 40 47 46
0.475723 -0.75314099 6.19168 49 57 57
0.49884799 -0.74779999 6.1531901 60 70 71
0.49193001 -0.74256599 6.1831002 56 65 67
0.49313399 -0.73572499 6.1405501 57 65 67
0.50764501 -0.73792303 6.1297302 69 79 82
-1.08404 -0.650352 5.3259201 65 71 64
-1.07465 -0.64944798 5.3389301 56 62 53
-1.0796 -0.644503 5.3315401 65 71 63
-1.07507 -0.638605 5.33746 60 66 56
-1.06835 -0.64248198 5.33599 52 58 46
-1.05705 -0.65373802 5.4236202 48 53 48
-1.05474 -0.65241599 5.42486 51 56 52
-1.0499099 -0.65843302 5.43644 68 73 70
-1.0489399 -0.64805901 5.43397 67 72 70
-1.03492 -0.66158003 5.5314202 96 100 101
-1.00985 -0.67617601 5.6084199 85 90 89
-1.01071 -0.66364503 5.6038499 90 94 94
-1.00108 -0.66600698 5.5879402 86 90 88
-1.0006 -0.66485101 5.5865302 86 90 88
-0.99715197 -0.68618298 5.7646399 41 46 43
-1.00334 -0.68166399 5.7582502 54 58 55
-0.99057603 -0.67898601 5.7614102 34 39 35
-0.988796 -0.68857199 5.7614799 32 37 33
-0.81874198 -0.66807097 5.6206102 60 66 68
-0.82096601 -0.67322397 5.5985799 54 60 62
-0.80547303 -0.67122102 5.6374202 23 27 20
-0.80929399 -0.67725599 5.6242199 27 32 27
-0.64068699 -0.67710203 5.6768999 21 26 22
-0.64020097 -0.67272699 5.6768899 22 28 23
-0.63299298 -0.68127501 5.6794 30 35 32
-0.62400597 -0.684057 5.6703 47 50 48
-0.63389599 -0.67430401 5.69314 37 43 41
-0.61584598 -0.67653799 5.6902299 66 71 71
-0.36016801 -0.68387401 5.7700601 54 56 54
-0.33744201 -0.68691897 5.7978101 32 35 30
0.110873 -0.69977999 5.8597698 48 50 48
0.122973 -0.700091 5.8418198 54 57 55
0.33140799 -0.71392798 5.9429102 44 51 49
0.33624899 -0.70249099 5.96136 59 62 61
0.349547 -0.71058899 5.9141102 86 91 90
0.358421 -0.71079201 5.9060502 90 95 95
0.45050001 -0.73930597 6.2557001 33 41 39
0.44689399 -0.73173898 6.2588201 31 38 36
0.44681299 -0.73043901 6.2596698 31 38 36
0.44126099 -0.74284202 6.2685199 29 36 33
0.45921299 -0.73952299 6.2627802 42 51 50
0.46464601 -0.74162501 6.21908 44 53 52
0.48347199 -0.73465002 6.1865802 53 63 63
0.48396799 -0.73429799 6.1962399 54 63 63
0.499203 -0.72610497 6.13377 62 72 75
0.50119799 -0.73130602 6.1347899 63 72 75
0.50662899 -0.71960402 6.12607 71 81 85
0.55011302 -0.72097999 6.0401602 83 93 101
-1.08796 -0.62910098 5.3386502 71 76 71
-1.0904 -0.62546998 5.3555498 68 74 68
-1.05476 -0.64135402 5.42553 53 59 54
-1.04704 -0.64494902 5.41711 58 63 60
-1.01309 -0.64726299 5.5872402 94 98 100
-1.00231 -0.65221101 5.59091 86 89 89
-0.99646997 -0.645661 5.57166 83 87 87
-0.99055099 -0.65968198 5.7210698 53 57 54
-0.98749 -0.66669101 5.7411699 39 44 40
-0.98978603 -0.66703802 5.7494602 40 45 41
-0.82275802 -0.66246903 5.5975699 68 76 80
-0.81683201 -0.66439301 5.6161199 57 64 65
-0.81965899 -0.65664202 5.6119399 61 68 70
-0.80891103 -0.66457701 5.62253 27 32 28
-0.80630398 -0.65882701 5.6402402 22 26 17
-0.63034803 -0.66720998 5.6960802 54 59 59
-0.62387401 -0.65892601 5.6897998 64 70 70
-0.61880499 -0.670219 5.6896 70 74 76
-0.37552801 -0.67882198 5.7774501 61 65 64
-0.358134 -0.67577499 5.77916 58 61 59
-0.34869799 -0.66993099 5.7927098 45 48 45
0.451258 -0.71946597 6.25172 37 45 44
0.45561501 -0.72982103 6.2607098 41 49 48
0.44232601 -0.72228098 6.2566199 31 37 35
0.46035999 -0.71333998 6.2342701 43 52 53
0.47020599 -0.72015703 6.2044301 49 58 59
0.48661101 -0.71614599 6.15064 55 64 66
0.50214899 -0.711573 6.1377401 69 78 82
0.491348 -0.70562202 6.11869 58 68 70
0.510629 -0.70751202 6.1422801 74 84 89
0.57663602 -0.70668203 6.0198998 89 99 107
-1.1027 -0.61865801 5.3846302 55 60 55
-1.10113 -0.62176698 5.3742099 59 64 58
-1.09886 -0.624874 5.3868699 57 62 56
-1.05536 -0.62249899 5.4153399 51 55 51
-1.03247 -0.62948501 5.4672799 100 106 109
-1.0391099 -0.62612402 5.4639802 95 101 104
-1.00273 -0.63973403 5.5928898 86 90 90
-0.99648601 -0.64377302 5.5878901 82 86 85
-0.99093503 -0.64096898 5.5617199 82 85 85
-0.99596298 -0.654257 5.7146201 61 64 62
-0.815485 -0.65027601 5.6223602 39 44 42
-0.821576 -0.64480001 5.6184902 49 56 55
-0.816998 -0.639319 5.6311698 33 38 32
-0.81219 -0.64539802 5.63412 26 31 23
-0.802935 -0.636235 5.6167202 20 26 15
-0.63604498 -0.65036201 5.6669202 23 28 25
-0.630808 -0.655595 5.6851802 46 51 50
-0.35733601 -0.65755498 5.7781901 51 54 53
-0.367558 -0.652004 5.7683401 58 61 61
-0.35343501 -0.66553903 5.7725801 50 54 52
-0.35096699 -0.66072899 5.7891798 42 45 42
-0.33728099 -0.67074001 5.8218398 32 34 30
0.121917 -0.66707802 5.8484001 72 77 81
0.114111 -0.674649 5.9169002 70 76 78
0.36093399 -0.67045897 5.9136901 90 98 102
0.440056 -0.701747 6.2541699 35 42 40
0.45493901 -0.70404899 6.2376699 39 48 48
0.44583201 -0.71018398 6.2553101 33 40 39
0.460641 -0.69869602 6.2215199 45 55 56
0.460641 -0.69869602 6.2215199 45 55 56
0.48289701 -0.699148 6.17769 56 66 69
0.48655301 -0.70117497 6.15769 58 67 71
0.50078398 -0.686508 6.1096802 70 79 85
0.496593 -0.69390398 6.11343 64 73 78
0.499874 -0.68967402 6.1031299 68 77 83
0.50776398 -0.69387501 6.1015401 73 82 88
-1.10401 -0.607728 5.3880901 59 64 59
-1.09928 -0.613437 5.395 47 52 47
-1.03529 -0.620942 5.4734998 87 92 95
-1.02931 -0.61384702 5.4886498 84 89 92
-1.01761 -0.61447603 5.5008101 85 89 92
-1.0289201 -0.62322003 5.5013199 92 97 101
-1.01817 -0.61470503 5.5187402 89 92 95
-1.01193 -0.62938899 5.67348 75 79 78
-0.82049298 -0.63244098 5.6151299 38 42 39
-0.81038398 -0.62248403 5.5952802 25 29 22
-0.63725197 -0.637797 5.6674299 21 28 24
-0.35942999 -0.64925599 5.7737799 50 53 51
-0.36337101 -0.64229703 5.7724199 51 54 53
-0.349419 -0.646541 5.7614598 44 46 44
-0.35416701 -0.64010799 5.7572198 48 51 49
-0.34177801 -0.64187902 5.7613602 42 44 41
0.45043999 -0.69535601 6.2259202 36 44 43
0.44633701 -0.68758702 6.2375102 34 42 41
0.463431 -0.68417102 6.2200599 51 60 62
0.46541601 -0.69113898 6.2256598 51 61 63
0.48710001 -0.68690401 6.15657 62 71 75
0.475265 -0.683218 6.2023301 59 68 71
0.50063902 -0.67308998 6.1149502 72 81 87
0.49977601 -0.67649102 6.1101098 71 80 86
0.504664 -0.68283302 6.1290998 73 83 90
0.50533199 -0.68233103 6.1198001 74 84 90
-1.1039799 -0.59072202 5.3734999 55 62 57
-1.1023901 -0.59594297 5.3856301 49 55 49
-1.1002899 -0.584952 5.3839798 48 54 48
-1.0962 -0.59091902 5.39147 47 53 45
-1.0221601 -0.60836202 5.5128498 78 82 86
-1.01194 -0.616817 5.67135 86 90 90
-0.985448 -0.62876803 5.7682099 35 41 36
-0.81273103 -0.61613703 5.5821199 24 28 22
-0.81017298 -0.610879 5.6056499 25 30 21
-0.82080501 -0.61254102 5.6062799 29 33 28
-0.36169401 -0.62920898 5.7718701 46 48 45
-0.34650001 -0.63542199 5.7568598 45 47 45
-0.35306701 -0.63204801 5.78091 42 46 43
0.34752899 -0.64414197 5.9615202 89 94 96
0.45025599 -0.66934502 6.24614 41 50 51
0.45658201 -0.67594802 6.2262201 47 56 57
0.46963799 -0.669052 6.1823001 56 65 69
0.460682 -0.68199301 6.2378998 50 60 62
0.47760201 -0.65978003 6.1558299 60 69 73
0.486489 -0.66301298 6.11973 64 74 78
0.49085 -0.67058498 6.1178598 66 76 79
0.50685298 -0.66829199 6.1191201 76 86 92
-1.0997 -0.57290101 5.3825898 42 49 40
-0.99906099 -0.59972101 5.6343398 86 89 88
-0.81803101 -0.60525602 5.6721802 22 29 17
0.44899601 -0.658997 6.2288098 38 46 47
0.464304 -0.649571 6.2066598 53 62 65
0.46750799 -0.66191399 6.24052 56 66 69
0.47725201 -0.64575702 6.1574998 59 68 73
0.49228799 -0.65437698 6.1222401 66 76 81
0.50560302 -0.64618498 6.13938 73 83 90
-1.0102299 -0.58603698 5.61726 85 88 88
-1.0015399 -0.58968002 5.6164098 89 93 92
-0.99808902 -0.59927398 5.7255001 76 79 77
-0.99425501 -0.58870101 5.7177801 78 81 79
-0.36605799 -0.60446501 5.7786798 51 56 56
0.448295 -0.64858103 6.2469501 37 45 45
0.45680401 -0.64819002 6.2379498 48 57 59
0.453316 -0.64003098 6.2438598 42 51 52
0.46771899 -0.63638198 6.21065 55 64 67
0.47255501 -0.64561999 6.2048998 57 66 70
0.51254201 -0.64226598 6.1435199 74 84 91
-1.0059 -0.55919099 5.5820799 79 81 80
-0.99585098 -0.57733202 5.7253799 79 81 78
-0.99966401 -0.57678801 5.6999102 85 87 85
0.355836 -0.60774601 6.0571098 78 87 90
0.44973701 -0.631594 6.2420402 39 48 49
0.460987 -0.62875998 6.22369 54 63 66
0.46897599 -0.62597799 6.2399802 61 71 75
0.459934 -0.63156098 6.2386799 52 61 63
-1.0408601 -0.53721702 5.4046102 64 70 66
-1.0085 -0.55415899 5.6101999 83 86 83
-0.37821099 -0.574301 5.8354301 55 60 60
-0.372924 -0.58062601 5.8429999 54 59 58
-0.36801901 -0.57520503 5.8615398 46 51 47
0.45277199 -0.607844 6.23281 54 63 65
0.45505399 -0.60876602 6.23348 56 65 68
0.48547599 -0.602768 6.18012 69 79 85
0.499639 -0.60427397 6.1595898 73 83 91
0.49140599 -0.60947299 6.16891 71 81 87
-0.66501099 -0.55351597 5.7905102 29 35 31
-0.391256 -0.56356603 5.7895699 50 55 54
-0.396736 -0.55688602 5.7939901 45 49 47
-0.37842301 -0.56228101 5.8451099 46 49 47
-0.38489401 -0.55610597 5.8421602 40 42 40
-0.37256801 -0.567734 5.8422899 49 54 51
-0.36174199 -0.56760901 5.85742 44 48 43
0.45391399 -0.596255 6.2255602 57 66 69
0.46014601 -0.604922 6.2382898 62 72 75
0.46044001 -0.59313899 6.2397799 64 75 79
0.48171601 -0.59395301 6.1866598 65 75 82
0.51007497 -0.58112001 6.1023798 77 88 96
0.53069001 -0.58352703 6.0600801 82 93 102
0.52571398 -0.58052099 6.0950298 81 92 101
0.54002899 -0.57863402 6.0406699 85 97 106
-1.04076 -0.50663602 5.4217701 69 74 71
-1.03125 -0.50508797 5.4306698 78 84 85
-0.667781 -0.53953898 5.8249798 39 45 43
-0.64721501 -0.546422 5.7961001 51 55 53
-0.65786201 -0.54522002 5.8048 50 55 52
-0.64684802 -0.53560001 5.8067098 67 73 75
-0.63993698 -0.54270703 5.8210101 62 67 68
-0.63118201 -0.54349899 5.8322201 59 64 65
0.35006499 -0.5668 6.0539098 59 66 65
0.34163699 -0.56641901 6.0511098 58 66 65
0.45685399 -0.58183002 6.2210898 61 72 76
0.49449599 -0.57867998 6.1470599 75 85 93
0.498016 -0.57423401 6.1061401 75 85 93
0.50038397 -0.565763 6.1187301 76 87 95
0.491436 -0.56775999 6.1070299 73 83 91
0.490964 -0.568344 6.11269 73 83 90
0.52621198 -0.56690902 6.0608301 81 93 103
0.53359503 -0.572716 6.0567198 82 94 104
-1.04149 -0.500081 5.40311 58 64 58
-1.04211 -0.495294 5.41922 64 69 63
-1.0398099 -0.49481899 5.4180698 65 71 65
-1.03602 -0.48861301 5.4170499 69 74 69
-1.03259 -0.49349299 5.4307299 76 82 79
-0.66994101 -0.52712297 5.8124099 32 39 37
-0.66478503 -0.52107799 5.8250499 47 54 53
-0.658023 -0.53472298 5.8179798 60 66 66
-0.65561402 -0.52095801 5.8211098 63 69 72
-0.412521 -0.54402399 5.9229398 54 59 59
-0.40216199 -0.53603202 5.91573 51 56 56
-0.411129 -0.53479499 5.92981 57 62 63
-0.392712 -0.53650498 5.8934798 49 54 54
0.453742 -0.56248403 6.2312799 61 72 75
0.45108399 -0.56256002 6.2257299 56 66 68
0.515769 -0.55046499 6.0585299 80 90 100
0.52272499 -0.55193001 6.0592098 82 93 104
-1.03556 -0.478172 5.4121399 60 66 61
-1.0395 -0.47489601 5.3696098 51 57 47
-1.02982 -0.479808 5.4075098 68 74 69
-1.0257601 -0.485383 5.4207602 78 84 82
-1.0246201 -0.485816 5.4706998 82 87 88
-0.66613698 -0.50559598 5.8183999 37 44 42
-0.65007502 -0.51207602 5.81144 69 75 79
-0.65824902 -0.50681102 5.8274598 55 62 62
-0.40813699 -0.52684897 5.93503 56 61 63
-0.39849299 -0.527197 5.9106498 53 58 59
-0.401564 -0.51702398 5.9152098 55 59 60
0.44048399 -0.545376 6.2382102 49 58 58
0.43908501 -0.54666197 6.2389002 47 56 56
0.458619 -0.54952002 6.2174602 68 79 84
0.45624399 -0.54762697 6.21346 65 76 81
0.44596699 -0.55371398 6.2368798 51 60 63
0.44934201 -0.553509 6.22929 56 65 69
0.51270902 -0.54240203 6.0648699 76 87 96
0.52273399 -0.54081601 6.0530601 81 92 102
-1.03986 -0.462464 5.3705702 55 61 52
-1.02573 -0.47654301 5.4689798 78 84 82
-0.70079499 -0.49981299 5.8780999 40 46 40
-0.67014402 -0.49388701 5.8350201 31 37 34
-0.65016699 -0.501616 5.8004398 54 60 60
-0.40126899 -0.50164002 5.9078202 49 53 52
-0.39575499 -0.50736398 5.8975601 51 55 55
-0.39117301 -0.51206398 5.8875799 52 57 57
-0.38681701 -0.50510401 5.88692 49 53 52
-0.39109099 -0.497933 5.8884902 46 50 49
0.45285201 -0.537485 6.2155099 62 72 77
0.44913301 -0.54066002 6.2298102 58 68 71
0.46030101 -0.53672999 6.2277098 71 81 87
0.48942199 -0.51991397 6.0936499 75 85 93
0.51436001 -0.52688801 6.08319 83 93 102
0.51066703 -0.52832198 6.0892901 81 92 100
0.51131099 -0.52057803 6.0959501 80 90 100
0.51990497 -0.51818001 6.07271 81 92 102
-1.0240999 -0.46219701 5.4863801 83 88 86
-1.02522 -0.45612699 5.4700599 74 79 77
-1.02179 -0.45083201 5.4379201 69 74 71
-1.02057 -0.45274901 5.47931 83 88 86
-0.99270099 -0.475247 5.7673402 75 79 78
-0.98520899 -0.47642401 5.7740998 65 70 68
-0.68118 -0.49083501 5.8400002 32 37 33
-0.69481999 -0.49058801 5.8611498 41 47 41
-0.69881701 -0.481125 5.86373 45 50 42
-0.678065 -0.48192599 5.8506398 16 21 19
-0.58176303 -0.47246 5.7370601 33 38 36
-0.560175 -0.46600699 5.6370401 34 38 37
-0.559955 -0.46841201 5.6540399 39 44 42
-0.56228 -0.47468901 5.6352901 48 52 51
-0.55858701 -0.47630399 5.6270299 49 55 53
-0.55758101 -0.47742301 5.7606802 48 54 52
-0.54179198 -0.47865301 5.7672601 56 62 59
-0.546924 -0.486379 5.7715502 62 68 66
-0.55197603 -0.478522 5.77671 50 56 53
-0.54536301 -0.485466 5.9091001 48 55 53
-0.40642601 -0.49550799 5.9121599 46 50 48
0.45816201 -0.52584302 6.2112298 69 79 86
0.46513501 -0.52617502 6.2193398 73 83 91
0.505602 -0.51317102 6.09937 79 89 98
0.52371502 -0.49983999 6.04914 84 94 108
-1.03441 -0.43921101 5.3972998 57 63 56
-1.03001 -0.43415901 5.4067502 64 70 64
-0.98269802 -0.45273399 5.6694698 85 89 87
-0.98685402 -0.457441 5.6544099 89 93 92
-0.98696297 -0.46617499 5.7524199 74 78 76
-0.98760003 -0.457138 5.7400699 76 81 79
-0.69634801 -0.47263199 5.8717299 42 47 39
-0.68907499 -0.47335601 5.8744798 30 35 30
-0.567936 -0.45772299 5.6497698 15 19 18
-0.55677098 -0.45780399 5.6431899 15 19 18
-0.56344002 -0.470249 5.7617002 21 25 24
-0.55802298 -0.46260601 5.7570701 16 21 20
-0.54199898 -0.47838399 5.9216099 42 48 48
0.52911597 -0.49140301 6.0415201 85 95 107
-1.02508 -0.42752001 5.41011 70 76 71
-1.02903 -0.422095 5.3963399 60 66 60
-1.02676 -0.41671899 5.41258 68 73 68
-1.02088 -0.427008 5.4517698 77 83 79
-1.0118001 -0.426043 5.4642501 86 92 90
-0.98396099 -0.440826 5.6788802 83 87 86
-0.99084002 -0.4474 5.6764102 86 90 89
-0.99461901 -0.44055399 5.6684699 88 92 91
-0.69246501 -0.46086299 5.8651199 35 40 34
-0.67530799 -0.454364 5.8778601 13 18 20
-0.55415899 -0.461889 5.9330301 29 34 31
-0.54921597 -0.45459199 5.9203601 34 40 36
-0.544209 -0.465821 5.9212699 38 43 41
-0.54017901 -0.46117699 5.9276299 57 63 61
-0.53237301 -0.46141201 5.9341402 66 74 73
-0.53577 -0.468835 5.9302902 60 67 66
-0.40185899 -0.45798901 5.8663201 59 65 63
-0.35988301 -0.455259 5.7671499 51 57 52
-1.03054 -0.41133201 5.3972902 57 63 57
-0.975196 -0.42077801 5.66469 81 86 83
-0.97765601 -0.43338001 5.6763101 82 87 84
-0.70195001 -0.43896601 5.8513999 40 45 37
-0.691199 -0.44716901 5.8550701 25 30 26
-0.68489403 -0.44210899 5.86097 24 30 27
-0.69270498 -0.43862799 5.8492498 27 32 27
-0.69134599 -0.43668801 5.85744 22 27 25
-0.68238401 -0.43840599 5.8641901 21 26 26
-0.68042701 -0.44811699 5.8713102 17 22 22
-0.67767 -0.44421199 5.87638 15 20 21
-0.67660397 -0.44282901 5.8739901 15 20 21
-0.55420101 -0.44950801 5.9321799 34 38 34
-0.54792601 -0.443077 5.91642 41 46 42
-0.54196399 -0.44860899 5.9170198 49 55 52
-0.52829099 -0.44156799 5.9228902 64 72 70
-0.52897203 -0.45393899 5.9370999 70 78 77
-1.01806 -0.38881001 5.4274101 75 80 75
-0.98914897 -0.41217899 5.5830798 88 94 93
-0.97305399 -0.40894601 5.6543798 80 85 81
-0.70118701 -0.425515 5.8481398 39 43 37
-0.68292898 -0.431541 5.85742 21 27 26
-0.68552703 -0.42302701 5.8517499 25 30 28
-0.693703 -0.42633301 5.8521399 24 29 26
-0.68061602 -0.426395 5.8550801 20 25 25
-0.67688602 -0.43255901 5.8714399 15 20 22
-0.67633897 -0.421987 5.8653402 17 22 24
-0.66838801 -0.42591399 5.8652701 12 17 20
-0.546606 -0.427627 5.9087901 39 44 40
-0.53753 -0.423628 5.91431 54 60 57
-0.53827298 -0.427921 5.9165301 56 62 60
-0.54395503 -0.43594101 5.9205599 49 55 52
-0.52964699 -0.42795801 5.9170299 62 70 68
-0.53444999 -0.435828 5.9227901 60 68 65
-1.01941 -0.37300301 5.4051099 69 74 69
-1.02898 -0.379632 5.40448 57 63 56
-1.0099601 -0.38183999 5.42871 79 85 81
-1.01574 -0.37783 5.4223499 73 78 73
-0.97342497 -0.39843199 5.6595001 81 86 83
-0.97321802 -0.39799601 5.6585102 81 86 83
-0.71414697 -0.40792501 5.8403602 43 49 42
-0.71789801 -0.41553301 5.8399 45 50 45
-0.70567501 -0.41621399 5.8508701 39 44 36
-0.70215303 -0.415979 5.8387699 38 43 35
-0.70053798 -0.40587699 5.83916 36 41 35
-0.69682801 -0.41686299 5.85427 30 34 30
-0.69337398 -0.40749601 5.85672 24 29 26
-0.67672002 -0.40481499 5.8455601 18 23 24
-0.55630797 -0.413836 5.89644 37 42 38
-0.544195 -0.406966 5.9013901 48 54 50
-0.53822201 -0.414314 5.9008598 51 57 54
-0.54526001 -0.41804001 5.8986201 42 48 43
-0.53006202 -0.41457501 5.9015198 57 65 63
0.44377601 -0.44116801 6.2041001 61 72 74
-1.02948 -0.36352 5.37747 57 62 55
-1.0233001 -0.355459 5.3439898 57 63 55
-1.02404 -0.35414699 5.3575902 60 66 59
-0.71628302 -0.39950201 5.8317599 48 53 48
-0.70032299 -0.39262801 5.83494 37 42 35
-0.69562602 -0.39910799 5.8467002 27 32 28
-0.68431598 -0.39214599 5.8604898 14 20 19
-0.67680299 -0.39288101 5.85007 12 18 20
-0.570472 -0.40661299 5.89992 18 23 22
-0.54997998 -0.39951199 5.90731 45 51 48
-0.55341399 -0.406739 5.9008598 39 44 40
-0.56242299 -0.406818 5.9021902 27 32 30
-1.02791 -0.34461001 5.3756599 73 78 73
-0.98353201 -0.372289 5.6977901 83 87 86
-0.69785202 -0.387474 5.8547201 26 31 27
-0.70028597 -0.379572 5.8333702 35 40 33
-0.70784301 -0.37454 5.8484001 39 45 38
-0.70648098 -0.37447199 5.8531399 37 42 35
-0.69617498 -0.385941 5.8491702 25 30 26
-0.69146299 -0.37684301 5.8512001 19 25 21
-0.68238801 -0.384808 5.8511801 14 19 19
-0.56103897 -0.381744 5.89082 39 45 43
-0.55405498 -0.38461399 5.8839598 42 47 45
-0.54667503 -0.379154 5.88236 50 56 53
-0.53889197 -0.37669 5.8799601 52 59 56
0.44940001 -0.41205299 6.19663 67 78 82
-1.01731 -0.32694101 5.2884002 59 65 55
-0.97874498 -0.35952401 5.6796298 79 83 82
-0.70035303 -0.36714199 5.83915 33 39 32
-0.70516902 -0.36095199 5.84688 34 41 33
-0.70414901 -0.36250699 5.83779 37 43 36
-0.705616 -0.360845 5.8389502 38 44 36
-0.69084299 -0.36330801 5.8484998 17 23 20
-0.68502402 -0.36964601 5.8553901 13 20 18
-0.56407899 -0.36653 5.9061699 29 35 32
-0.56713402 -0.37544301 5.9071999 33 39 37
-0.57504499 -0.36678001 5.9151502 19 24 23
-0.55675203 -0.37556699 5.9042001 44 50 47
-0.54470098 -0.36772001 5.8860402 48 53 50
-0.52037698 -0.35760301 5.81352 53 59 55
-0.52007198 -0.358244 5.8116698 53 59 56
-1.03581 -0.319767 5.3242502 50 57 45
-1.04287 -0.31041899 5.3306298 46 52 39
-1.03144 -0.31208101 5.3200898 55 62 51
-0.984501 -0.337724 5.6601 82 87 87
-0.70196003 -0.347772 5.83214 22 28 24
-0.70980799 -0.353975 5.8331599 29 35 28
-0.56449503 -0.34819901 5.8840098 18 23 22
-0.57513398 -0.35634199 5.90485 15 21 20
-0.55065298 -0.35238501 5.8928499 38 44 39
-0.53994203 -0.34704801 5.8861499 47 53 47
-0.52297503 -0.35899299 5.86695 56 63 60
-0.518408 -0.35150999 5.8667598 59 66 62
-1.02687 -0.29936299 5.3130398 58 66 55
-1.0268199 -0.29545301 5.2883401 53 61 48
-0.98784602 -0.32356301 5.6055799 89 94 98
-0.98563498 -0.31693 5.6215301 87 92 96
-0.98061103 -0.32287401 5.62955 86 92 93
-0.53985602 -0.338052 5.8771801 47 52 46
-0.53587103 -0.33089 5.8831801 52 58 52
-0.52159399 -0.33479899 5.8906298 61 68 64
-0.513816 -0.339526 5.8902998 64 72 69
-1.0270801 -0.28118199 5.3157201 57 64 54
-1.02315 -0.29001799 5.3670902 68 75 70
-1.0259399 -0.28673199 5.3698201 67 74 68
-0.74454802 -0.31574899 5.8249998 16 22 18
-0.752038 -0.310835 5.8178101 27 33 28
-0.73040801 -0.319204 5.80301 12 17 14
-0.73411202 -0.31701899 5.8197899 13 19 16
-0.54985201 -0.31975001 5.8658099 37 42 37
-0.541201 -0.32681999 5.8761902 49 54 48
-0.53217399 -0.325616 5.8892498 56 62 56
-0.53555501 -0.31798199 5.8780398 55 60 54
-0.51967102 -0.32473299 5.88555 63 69 65
-0.51350403 -0.31966001 5.8916998 65 72 69
-0.51317102 -0.32954401 5.8889699 64 71 68
-1.01984 -0.26942801 5.29917 61 68 60
-1.02301 -0.278615 5.36689 70 77 72
-0.97773403 -0.300017 5.67311 82 88 91
-0.75258899 -0.29861799 5.8038802 34 39 32
-0.747715 -0.302766 5.8202701 25 30 25
-0.74052203 -0.29957801 5.8146801 20 25 19
-0.72843099 -0.30213499 5.7803602 17 22 17
-0.549182 -0.306676 5.8787198 34 39 33
-0.53247201 -0.31265801 5.8957601 58 64 58
-0.53806198 -0.30693999 5.8874798 50 56 48
-0.54174799 -0.312341 5.8723001 45 49 43
-0.54165399 -0.30068401 5.8719401 47 52 45
-0.51902997 -0.30997401 5.8889899 62 71 67
-0.51435 -0.30244401 5.88657 63 71 68
-1.03098 -0.25980201 5.3216901 61 68 60
-1.03005 -0.264274 5.30896 58 65 56
-1.02101 -0.254399 5.3579798 75 81 77
-1.0220799 -0.266399 5.3610301 73 79 74
-0.75121999 -0.290126 5.8124499 31 37 28
-0.55063701 -0.28902 5.8464999 27 31 27
-0.54699802 -0.28959799 5.8713698 39 44 38
-0.53759801 -0.28519201 5.87673 54 60 55
-0.52831602 -0.298493 5.8900299 58 65 59
-0.51916099 -0.29581401 5.8850098 62 70 66
-0.52384502 -0.29049101 5.8867302 62 69 64
-0.51963699 -0.291271 5.8950901 64 71 68
-1.02477 -0.248446 5.3478198 70 76 71
-1.02779 -0.24331 5.3425202 66 72 67
-1.02358 -0.23908 5.3429298 68 74 69
-1.0217 -0.242671 5.35953 75 81 77
-0.76863199 -0.27521101 5.80022 55 62 57
-0.75264603 -0.27553701 5.8053598 42 48 38
-0.758843 -0.275168 5.7967 47 54 47
-0.764449 -0.26688799 5.7964802 50 58 52
-0.748963 -0.27113599 5.80336 38 44 34
-0.74127197 -0.27139801 5.8062201 31 37 26
-0.549573 -0.282381 5.8587699 28 33 29
-0.54726303 -0.27337599 5.8624001 32 36 32
-0.529993 -0.28123599 5.87573 61 67 62
-0.53015703 -0.27248901 5.8720999 59 65 61
-0.54275203 -0.28016901 5.8677602 42 48 42
-0.54114902 -0.27401301 5.8731198 44 50 44
-0.52713102 -0.282758 5.8787899 61 68 64
-0.51784497 -0.28214401 5.8689399 65 72 70
-1.02268 -0.236184 5.3415899 69 75 70
-1.02499 -0.22728901 5.3355799 63 70 65
-1.02001 -0.22402599 5.34798 70 76 72
-0.76958901 -0.26060501 5.7909899 53 60 57
-0.75583303 -0.26360199 5.8095598 38 44 34
-0.76363403 -0.25639099 5.8004198 48 55 50
-0.74817902 -0.25646201 5.8055201 37 44 33
-0.54293102 -0.26583999 5.8601198 33 38 33
-0.54378998 -0.25687101 5.8562298 32 37 32
-0.53077501 -0.26810801 5.8685002 56 62 58
-0.53572202 -0.25710699 5.8620601 47 52 48
-0.52160901 -0.268199 5.8706102 62 70 67
-0.52229601 -0.254024 5.8559499 59 67 63
-1.02417 -0.219336 5.3471498 67 73 68
-1.0262001 -0.208782 5.30825 63 69 63
-1.02075 -0.209364 5.3379698 69 76 72
-0.77195299 -0.248337 5.8024101 50 57 55
-0.76023 -0.24439199 5.8001399 46 52 48
-0.74458802 -0.24593499 5.8003001 39 46 36
-0.74857903 -0.238584 5.7981601 39 46 39
-0.740789 -0.238702 5.80305 43 50 41
-0.734945 -0.245737 5.7990899 38 44 32
-0.54140198 -0.24202099 5.8427401 32 37 32
-0.53974497 -0.24961001 5.8578 37 42 38
-0.52983499 -0.2489 5.8530002 52 58 54
-0.53400999 -0.239272 5.8505201 45 50 46
-0.52673203 -0.239382 5.8564701 53 60 56
-1.03022 -0.203371 5.2975898 53 59 53
-1.02993 -0.1996 5.30408 54 60 54
-1.00639 -0.198239 5.3991199 86 94 97
-0.76227403 -0.233135 5.8017101 43 50 46
-0.54741502 -0.232949 5.8914099 33 38 33
-0.52026999 -0.23499 5.8632002 59 67 63
-0.52582401 -0.225936 5.8721199 56 64 60
-1.025 -0.184047 5.3041902 64 71 65
-1.02874 -0.19001 5.2961202 56 63 56
-1.00603 -0.18776 5.4016199 93 100 104
-0.54804999 -0.219717 5.89744 34 39 32
-0.54227501 -0.211502 5.8341198 32 38 29
-0.531344 -0.219552 5.8693099 50 56 51
-0.520298 -0.214187 5.8699498 58 66 62
-1.00775 -0.181633 5.3877201 86 95 98
-1.00855 -0.17251299 5.3874798 86 95 97
-0.540941 -0.19821499 5.84056 41 48 36
-0.54000902 -0.206331 5.8563399 40 46 36
-0.53317899 -0.198285 5.8439598 44 50 40
-0.52693897 -0.198219 5.8515501 52 59 50
-0.52217603 -0.205948 5.8552599 56 63 57
-0.51842999 -0.19505601 5.8568702 56 64 58
-1.01118 -0.167373 5.3762698 81 89 91
-0.54230797 -0.183046 5.85607 33 38 29
-0.53623098 -0.190852 5.83921 41 47 36
-0.52850199 -0.19132 5.8502498 51 57 47
-0.533705 -0.18319701 5.8576598 48 54 45
-0.51736999 -0.189394 5.8512998 56 63 58
-0.52682698 -0.183073 5.8660798 54 61 53
-0.51370299 -0.187861 5.8552499 57 65 60
-0.54854 -0.177284 5.85497 27 31 24
-0.542772 -0.170194 5.8518 31 36 29
-0.54668802 -0.163443 5.8326998 25 29 24
-0.53639102 -0.169585 5.86762 46 52 45
-0.52784997 -0.16523901 5.8593302 54 60 54
-0.53657597 -0.163939 5.8525801 42 47 41
-0.52307302 -0.171976 5.8584199 55 62 56
-0.52059501 -0.176581 5.85953 56 62 57
-0.51257402 -0.17656399 5.8627501 58 66 62
-0.54210502 -0.157675 5.8508701 40 44 38
-0.54732698 -0.152825 5.8347902 30 34 29
-0.55341202 -0.15620901 5.8425202 24 28 24
-0.52672201 -0.149786 5.8413401 50 57 51
-1.00455 -0.122338 5.3684902 92 101 103
-1.00428 -0.110213 5.3677201 88 97 100
-0.559798 -0.13394301 5.8257399 20 25 21
-0.56361002 -0.139146 5.8117099 20 25 22
-0.55168301 -0.146514 5.8212199 24 28 24
-0.55205399 -0.13741 5.8220901 24 28 24
-0.534356 -0.144679 5.8573098 50 55 49
-0.533678 -0.13471401 5.8507299 51 57 51
-1.03011 -0.096620202 5.2708802 53 59 52
-1.02325 -0.098141 5.29561 64 71 65
-1.02754 -0.103816 5.2883301 61 67 62
-1.02609 -0.0924934 5.2800598 57 63 57
-1.02525 -0.091794103 5.2793198 56 63 56
-1.00927 -0.105116 5.3604002 77 86 88
-0.55526501 -0.117132 5.8190999 22 26 22
-0.54188901 -0.125232 5.8348098 36 40 34
-0.547934 -0.120861 5.8194499 28 31 27
-0.53968501 -0.129805 5.8415298 42 46 40
-0.537076 -0.118155 5.83356 37 42 36
-0.53276002 -0.123782 5.83252 46 51 45
-1.02047 -0.087070502 5.2886701 63 69 65
-0.56270599 -0.107414 5.8224301 19 24 21
-0.54395998 -0.112961 5.8217602 27 31 25
-0.53210002 -0.111311 5.8400798 44 50 44
-0.537323 -0.108633 5.82584 34 39 32
-0.52678698 -0.104431 5.8419499 48 55 50
-0.52080101 -0.110508 5.8402801 54 61 57
-1.01803 -0.076397397 5.2829599 68 74 71
-0.56443101 -0.089547701 5.8477898 19 24 21
-0.55218202 -0.101464 5.8152099 23 27 23
-0.54200202 -0.088650003 5.8254199 39 44 36
-0.53827298 -0.095955499 5.82827 40 46 39
-0.54625601 -0.095930196 5.8242798 34 39 33
-0.550928 -0.088673398 5.8263502 28 32 27
-0.52601397 -0.0919782 5.8362002 48 54 48
-0.52066398 -0.098191902 5.8415999 54 61 56
-0.509745 -0.091574699 5.83887 56 64 60
-0.51596898 -0.091393597 5.8295598 53 61 57
-0.55499798 -0.081348099 5.8235798 22 27 23
-0.55914402 -0.073562302 5.8227901 20 25 22
-0.55074102 -0.074017003 5.82165 27 32 26
-0.53943503 -0.073824599 5.8127398 43 48 38
-0.546417 -0.081380203 5.82479 34 38 31
-0.50848597 -0.084154002 5.82056 56 63 60
-0.51387298 -0.077033497 5.8245401 55 62 57
-1.01044 -0.037325099 5.3051901 77 85 87
-1.01097 -0.038019601 5.2827401 75 83 83
-1.00544 -0.049456999 5.3129101 80 87 91
-0.55525899 -0.0654658 5.8243299 24 28 25
-0.55717301 -0.057140999 5.8172598 16 21 19
-0.54553097 -0.065417401 5.8180699 34 39 33
-0.545039 -0.056585498 5.8019099 24 29 23
-0.520329 -0.064511798 5.7502499 43 48 40
-0.53008801 -0.059276901 5.7839699 42 47 39
-1.0086 -0.0211128 5.2804198 70 78 78
-1.01179 -0.0299815 5.2934899 75 83 84
-0.52236998 -0.051626898 5.7498899 37 42 35
-0.99942702 -0.0062539899 5.2521701 74 83 83
-1.01232 -0.00336717 5.2817602 71 79 78
-1.01015 0.00019660901 5.28089 74 83 83
-1.01253 0.0133175 5.2708402 58 64 62
-1.01986 0.031171 5.2897301 65 71 70
-1.01149 0.050863098 5.2733302 73 80 79
-1.0216 0.044482201 5.2897301 62 68 67
-1.01026 0.044489201 5.28335 77 85 87
-1.01578 0.065081097 5.2568102 61 68 66
-1.01334 0.0571617 5.26473 66 72 70
-1.02126 0.072824501 5.2646399 60 66 65
-1.0115 0.0934809 5.2487402 66 73 71
-1.00297 0.093244001 5.2635102 71 79 77
-1.00258 0.092701703 5.2631302 71 80 78
-1.00766 0.087093398 5.2600899 66 74 72
-1.01051 0.104839 5.2456102 65 72 69
-1.00265 0.104579 5.2630601 72 81 78
-1.00684 0.099001899 5.2547598 65 73 70
-0.99004197 0.105698 5.3117399 88 97 95
-0.98605102 0.100903 5.3228002 88 96 97
-1.00747 0.123068 5.2479 63 71 67
-1.01047 0.115502 5.2442598 66 73 70
-0.98935002 0.114909 5.3106298 90 98 96
