ply                 
format ascii 1.0    
element vertex 1298
property float x    
property float y    
property float z    
property uchar red  
property uchar green
property uchar blue 
end_header          
-1.26239 2.47095 7.90561 58 49 44 
-1.60279 2.21296 8.02782 114 76 31 
-0.312702 2.55738 6.83018 158 145 137 
-0.880306 1.9736 8.21653 65 57 36 
-1.58493 2.24714 8.06627 142 109 68 
-1.27836 2.51448 7.89891 129 113 97 
-1.82503 2.96506 5.89874 197 181 166 
1.23733 0.68368 11.1719 105 101 98 
1.65204 2.35591 11.9261 159 155 146 
-0.185923 1.20036 11.3658 77 98 93 
-1.24615 -6.1687 9.7108 35 24 22 
1.15734 -3.24491 8.40283 118 137 151 
-0.828655 2.91084 7.60205 105 95 83 
-0.601007 2.00336 7.95077 166 133 116 
0.31084 4.28837 8.89588 185 164 135 
1.488 0.792575 10.9234 13 51 54 
0.436344 -3.46804 7.66663 37 46 63 
1.81484 2.53664 12.2705 146 141 138 
0.685202 4.44035 8.35776 96 78 66 
0.876746 0.699304 11.4617 75 86 82 
-0.21597 1.17908 11.4278 80 102 99 
-0.745863 2.89857 7.38757 112 105 87 
1.98314 2.41335 12.2973 37 84 90 
1.06919 1.61069 11.0068 173 160 152 
0.577644 -3.4497 7.72312 20 30 42 
-1.73124 2.73747 7.34415 131 106 86 
0.877224 0.700793 11.4777 75 86 82 
-0.899374 3.19942 7.302 255 253 227 
-1.87938 2.89841 7.02532 4 8 9 
-1.57397 2.20004 7.99988 161 126 84 
2.1401 2.19694 12.0746 76 100 102 
-1.18804 3.26621 7.43169 95 78 68 
0.785187 4.47985 8.26835 106 91 72 
0.59773 2.80653 11.4941 126 131 124 
1.0938 1.14401 10.8287 161 149 149 
1.55751 -4.63931 8.85013 60 78 100 
1.10218 4.48559 8.18955 144 132 106 
1.1553 4.59571 8.09884 102 84 72 
0.62116 2.76243 11.5571 144 140 131 
0.553121 4.39431 8.49331 94 77 59 
-0.344553 4.38997 8.66443 115 94 67 
-0.17338 4.65856 8.1645 109 89 64 
-1.19212 3.27599 7.45893 100 83 73 
-0.532006 -6.81417 11.2755 171 97 58 
-0.751284 2.9146 7.42637 112 105 87 
-0.530192 -6.79856 11.245 173 98 59 
-1.1157 -6.27199 10.0388 23 21 26 
1.18363 0.919089 10.9507 146 134 122 
-0.60254 4.58939 8.06101 157 144 128 
1.22829 4.58772 8.02345 76 62 49 
1.40657 0.78641 10.9978 96 98 97 
0.333541 4.2837 8.86906 97 79 65 
1.22934 -4.54441 8.72911 65 87 100 
0.75917 4.00738 9.55078 129 117 101 
2.7603 3.89497 8.51535 29 29 29 
-0.600864 2.61682 7.10948 64 60 51 
-0.754039 4.71236 7.96261 88 72 49 
-1.55795 2.21167 8.06818 66 40 17 
-1.54141 3.80938 6.59069 102 74 53 
1.79378 4.5414 8.1913 121 104 78 
-0.294205 1.03315 11.9198 103 119 119 
2.15881 2.2755 12.1077 155 149 149 
0.968072 3.85113 9.59886 126 113 97 
0.663407 4.36168 8.60856 194 174 147 
-0.904277 1.98007 8.09604 130 122 99 
-1.54669 3.82362 6.61426 106 75 55 
0.764946 4.52274 8.31211 189 175 140 
1.01146 4.48888 8.22083 149 128 101 
1.08156 -0.237177 8.24357 50 46 43 
1.12533 -0.0749163 8.24392 22 20 23 
-1.21175 2.31306 7.81313 3 4 6 
1.1671 4.59116 8.25428 183 162 135 
1.35458 0.672353 11.2792 23 51 54 
2.18185 2.3594 12.3318 151 152 156 
0.554697 4.35754 8.65983 150 128 104 
1.35865 0.780143 11.0647 20 57 65 
0.768518 4.43041 8.36834 156 135 108 
-1.8588 3.00673 6.03764 79 57 36 
1.31938 0.671834 11.252 77 93 93 
1.43958 0.670848 11.1051 23 54 57 
-1.86245 3.09669 6.26329 76 51 31 
1.87718 2.34212 12.1252 156 172 171 
0.546119 0.781838 11.772 61 57 56 
1.6776 0.570854 11.3406 24 39 44 
-0.892767 1.9855 8.25166 13 8 2 
1.86433 2.13468 11.8085 36 80 83 
1.0454 -4.76787 8.66952 59 76 92 
0.384404 4.28914 8.63957 178 161 135 
-0.407775 2.63272 6.94125 100 83 73 
-1.85491 2.99941 6.0321 85 58 39 
-1.15393 2.30843 7.76444 152 141 135 
-1.19055 2.2704 7.68646 2 4 3 
0.93428 3.80207 9.72236 134 118 105 
1.53744 0.548622 11.3894 25 39 39 
1.59549 2.66448 12.4467 147 139 136 
1.33659 0.734604 11.2038 21 50 56 
-0.760476 2.73753 7.41559 95 82 73 
0.282459 -3.21491 7.75535 101 119 129 
-1.3288 2.94012 7.04497 1 0 8 
-0.898275 1.98523 8.18282 51 43 24 
0.986833 4.57046 8.20465 95 83 67 
0.141108 1.14142 11.255 139 142 133 
0.37512 4.30282 8.72891 123 106 90 
1.18565 4.60395 8.07506 102 91 71 
1.89858 -2.61082 8.88753 112 131 145 
-0.911283 1.38369 12.6967 56 51 47 
-0.142364 4.38231 8.70203 185 168 138 
-1.74727 2.75045 7.25337 22 13 6 
2.19091 2.32864 12.2842 158 149 152 
0.465908 4.66281 8.01151 178 160 138 
-0.0275837 0.36335 15.719 112 101 83 
0.00921492 1.14688 11.3039 123 129 127 
-1.37144 -6.10343 9.41114 49 30 36 
0.780569 4.1819 9.07485 153 129 101 
1.02058 -3.33641 8.11635 114 131 149 
-0.849514 1.31754 11.781 55 51 42 
0.396208 0.86511 11.5323 151 141 132 
0.123247 4.10253 9.26256 199 176 145 
1.42222 0.704478 11.0131 84 103 109 
2.5554 4.53099 8.20466 42 35 29 
-1.28383 -0.81322 9.84757 141 145 131 
-0.789398 -6.7117 10.7185 163 110 68 
1.01419 -0.55219 8.26787 167 155 141 
1.18475 4.61544 8.01268 134 113 92 
0.363856 4.69153 7.9792 107 93 82 
1.24663 3.89677 9.64216 110 98 84 
0.419874 -3.65911 7.82762 51 67 82 
0.377717 4.07001 9.10956 123 101 80 
1.61114 -3.01191 8.47666 115 131 147 
0.31249 0.827542 11.5342 83 83 81 
0.647434 3.80156 9.77791 203 180 149 
0.095682 1.04635 11.4722 105 110 106 
1.77989 -4.73404 8.95632 70 86 102 
0.770041 4.15011 9.0689 201 180 151 
-0.953603 2.97345 7.59587 211 190 163 
-0.867611 -6.63497 10.4162 161 103 55 
0.901391 3.97648 9.55843 114 101 84 
1.4543 -4.18855 8.73074 69 88 102 
1.07219 -0.351956 8.36661 50 45 49 
-0.384755 -6.75389 11.4923 207 186 155 
-1.3881 1.66248 13.1109 192 168 134 
0.290823 4.54176 8.29054 190 174 148 
0.599314 4.16329 9.03899 203 179 153 
1.42723 -4.63611 8.76956 71 86 105 
2.22514 3.73277 9.93164 186 171 152 
-1.2827 2.46706 7.83448 102 92 82 
-1.82215 2.99787 5.94208 86 60 47 
1.15127 4.03997 9.46516 108 95 86 
0.266477 0.941619 11.5052 168 154 143 
-0.341767 1.08172 11.8238 166 152 139 
0.597869 4.54204 8.20826 201 182 152 
2.74355 4.4911 8.26022 169 155 129 
-0.763815 4.72301 8.06365 145 134 114 
0.258667 0.887098 11.6593 144 137 127 
-1.75979 2.78428 7.32413 7 3 4 
-0.0130235 4.5699 8.20394 146 130 104 
-0.232907 1.08285 11.6604 72 90 90 
-0.941055 -5.81344 10.1521 102 65 47 
1.96353 1.79751 11.5164 177 164 156 
-1.0187 3.12114 7.3656 147 125 104 
-0.471898 -7.242 11.3319 207 190 164 
-0.135036 4.46145 8.4303 177 161 138 
0.582483 2.74088 11.3818 34 36 31 
-0.342529 1.07629 11.7641 163 149 136 
3.07304 -1.78016 10.7033 55 53 54 
2.30044 2.21053 12.1651 93 101 104 
-0.23103 1.07934 11.6314 72 90 90 
1.01294 2.69729 11.8278 161 152 143 
3.06679 -1.77779 10.6786 54 52 53 
2.11932 2.21477 11.8295 158 155 148 
-0.357572 -6.76925 11.5055 203 183 150 
0.909001 4.55608 8.08248 173 155 131 
1.46789 4.15795 8.97227 157 144 125 
1.90099 2.29178 12.158 114 132 134 
-0.554244 1.11299 12.387 142 130 118 
-0.010731 1.07115 11.5151 98 105 98 
0.632569 4.40071 8.57856 154 137 109 
-0.334205 2.59195 6.84683 25 21 20 
-1.63588 2.2962 8.04595 34 21 13 
1.13724 4.52929 8.23612 178 161 135 
2.55885 4.5391 8.2163 49 42 36 
1.01354 4.49241 8.172 212 195 169 
-2.01699 -3.42738 8.56522 174 160 134 
3.11058 -3.06435 9.72118 102 120 134 
1.00155 4.46068 8.16913 158 137 108 
0.38979 4.72745 8.20537 136 114 91 
-1.16377 3.18939 7.35618 200 179 152 
-0.490085 4.33575 8.56711 153 137 111 
1.38237 -4.72691 8.78552 125 143 155 
-0.512074 -7.24048 11.3964 152 144 123 
-0.612051 -6.72912 11.0355 18 18 28 
0.0609694 -3.06818 8.01535 35 45 57 
-1.15868 3.1802 7.33456 202 181 154 
3.45297 -2.06955 10.2586 24 33 42 
1.22603 4.65246 8.07806 154 138 115 
0.896339 3.98243 9.47289 180 158 135 
-2.09965 3.81389 6.71144 75 65 55 
3.11876 -3.53686 9.56516 106 125 139 
0.062319 3.98826 9.57244 209 182 155 
0.122024 4.60117 8.10298 192 170 146 
0.394482 3.98616 9.47492 197 173 139 
3.02859 -3.58085 9.58796 104 125 146 
0.98277 4.54979 8.1264 150 138 112 
1.1256 4.66341 7.85839 148 130 106 
-0.415451 -6.82054 11.5784 209 188 157 
1.18041 4.11815 9.02282 197 175 151 
0.0748908 0.978467 11.5935 165 152 144 
-0.0234855 1.06739 11.6761 128 133 127 
-0.0249931 1.00389 11.6816 144 137 127 
-0.397322 4.59069 8.01219 177 159 135 
-1.13079 2.28686 7.67504 140 124 101 
0.211895 1.0032 11.5893 102 117 114 
0.32382 4.53697 8.2007 190 168 144 
-0.191399 4.60784 8.21086 136 119 91 
-0.0434784 0.948445 11.7501 132 122 113 
-0.612055 -6.72335 11.024 19 17 28 
0.597176 4.155 9.17197 196 174 150 
2.16368 2.51596 12.5125 73 78 74 
-0.132112 4.41476 8.52021 178 156 132 
-0.181936 2.87559 10.7946 72 62 52 
1.31876 0.702893 11.2794 29 53 53 
0.466147 4.37958 8.55028 185 163 139 
0.0444717 1.21562 11.0828 105 110 104 
0.114342 1.11839 11.2089 94 98 97 
0.342692 4.39624 8.71481 178 164 137 
2.06299 -2.4765 9.00513 50 68 82 
1.87378 4.66268 8.00171 142 128 101 
3.38536 -2.32882 10.2683 85 103 113 
-1.80825 2.88214 5.91062 90 65 43 
0.232934 4.59799 8.15469 193 176 148 
-0.317216 4.28452 8.84315 151 129 105 
-1.2355 2.49166 8.04823 114 100 87 
0.208485 3.89497 9.5521 158 132 105 
-0.476797 -6.97357 11.2129 213 188 158 
1.52549 -4.72248 8.86377 126 144 158 
-2.33547 3.30404 7.18129 109 92 72 
3.02414 -3.57842 9.5772 104 125 146 
-0.09783 4.42367 8.53104 186 164 140 
0.841103 4.30664 8.88573 200 178 154 
2.97255 -5.04552 9.31625 79 102 116 
1.3941 0.650472 11.2477 33 54 55 
2.57614 4.55496 8.26782 35 29 31 
-0.196128 0.856789 12.3796 109 107 95 
1.56492 0.588271 11.2783 76 82 80 
1.36057 4.37838 8.86254 180 162 138 
-0.151145 -5.82686 11.2368 174 153 126 
1.36636 4.59489 8.02359 167 147 122 
1.06764 -0.0974099 8.20403 116 108 97 
0.15187 4.29762 8.9297 184 165 135 
-0.269132 4.34568 8.60682 187 162 132 
0.11724 4.55519 8.13023 191 171 144 
0.868575 3.83292 9.67688 145 131 104 
2.32156 -2.30618 9.26672 93 113 124 
0.662419 3.75827 9.78306 161 139 115 
3.32759 -2.93862 9.84097 94 110 125 
0.870006 3.94394 9.49269 127 114 98 
1.54042 4.642 8.00481 202 185 157 
-0.325091 4.40139 8.63737 165 146 116 
-0.283106 4.14846 9.11922 152 126 99 
-1.65012 2.29115 8.12363 40 24 8 
-1.75755 3.00825 5.92387 129 103 78 
3.48228 -2.22833 10.2203 84 99 106 
0.403767 2.71601 11.3228 30 29 27 
0.696333 4.11949 9.10739 196 172 146 
-0.437658 -6.65881 11.3927 208 190 154 
1.21061 4.50387 8.18628 146 126 102 
-1.67171 3.84246 6.58191 102 77 55 
0.906397 3.78983 9.57539 155 138 110 
0.0246904 1.11612 11.346 99 104 100 
-0.309083 4.1852 9.02536 190 166 140 
1.21274 4.40653 8.45399 150 130 103 
-0.823628 1.2902 12.6608 150 138 124 
2.80751 -2.91447 9.76595 92 111 125 
3.48346 -2.2296 10.2262 84 99 106 
1.56593 -3.73365 8.5719 113 133 144 
2.40561 4.28547 8.69526 136 128 117 
0.491772 1.90066 10.6423 137 124 115 
0.341305 4.18306 8.9944 208 183 153 
-1.70321 2.7427 7.42775 18 8 9 
1.25556 4.57924 7.91576 158 143 122 
1.53843 3.65393 10.2874 136 124 98 
0.586711 4.3213 8.48984 184 160 126 
2.11964 2.19244 11.6334 159 149 147 
1.30438 4.35774 8.62768 147 130 102 
-1.20939 3.45104 7.38517 132 116 103 
2.98027 -3.07253 9.63866 94 111 127 
1.50786 -4.51433 8.77673 128 148 159 
2.40076 4.50954 8.25839 190 168 147 
0.826754 -3.42153 7.93387 121 138 154 
0.140098 4.45151 8.66624 184 164 140 
1.1891 4.49535 8.27462 182 168 141 
0.519071 3.64378 10.0353 192 170 133 
1.36017 0.597406 11.4764 27 52 56 
0.697455 4.4825 8.37553 170 154 131 
0.349641 4.65471 8.04779 181 167 140 
1.08785 -0.469281 8.35582 61 57 54 
1.02583 4.12783 9.13949 213 190 159 
2.27503 4.2197 8.70824 185 168 140 
-0.336875 -6.55388 11.3846 193 173 146 
-0.346751 4.26037 9.10226 143 119 95 
1.97688 -2.70136 8.946 57 75 89 
0.517704 4.10565 9.26717 152 132 107 
1.54879 0.470304 11.6371 62 73 75 
1.5176 4.60616 8.15026 159 142 112 
0.173223 3.93501 9.53253 192 168 134 
2.87062 -3.16063 9.63126 91 110 125 
-1.52193 2.28455 7.98654 44 31 22 
0.456624 4.39313 8.55112 184 160 134 
0.426937 3.83047 9.80342 139 124 101 
-1.3728 2.90104 7.26668 1 1 3 
1.3732 4.22632 8.86031 171 151 124 
1.61111 2.55707 12.3067 145 138 130 
1.22334 4.58826 7.98828 161 149 127 
0.21455 4.63715 8.06231 132 116 90 
2.08043 3.89734 9.57905 123 110 94 
0.58982 4.36175 8.56474 186 162 128 
2.73915 4.55715 8.23392 171 153 131 
0.493557 1.72873 10.6632 150 137 129 
0.313152 4.63303 8.20547 149 127 103 
1.49307 4.43297 8.38214 149 133 110 
-1.4035 2.98134 7.37113 1 1 3 
-1.79751 3.0353 6.04889 65 46 29 
-0.986133 3.05736 6.05703 139 113 86 
0.931998 0.580968 11.811 120 110 101 
0.884924 -3.51199 7.98572 111 134 148 
3.57918 -2.10367 10.1568 85 102 112 
0.597158 4.68081 8.03907 115 99 86 
3.12108 -4.116 9.50434 61 82 101 
1.24245 4.38108 8.48768 184 163 136 
0.232903 4.57668 8.11843 195 178 150 
1.52273 4.62828 8.18984 154 137 107 
1.1632 4.50805 8.22463 184 166 142 
2.29997 3.42221 10.7646 179 162 136 
-0.193228 1.02147 11.6744 159 145 134 
-0.189844 1.08646 11.7058 155 148 138 
1.92546 -3.09408 8.93698 63 80 96 
0.778793 -3.56644 7.95809 121 144 162 
-0.929346 1.98295 7.83506 194 183 153 
0.769084 4.64799 8.03744 149 137 115 
-1.17514 -6.23904 9.9551 38 20 20 
0.99768 4.21939 8.97407 170 144 119 
1.3407 -3.31727 8.51825 60 76 91 
-0.283467 4.64985 8.1997 131 115 90 
-0.923603 -6.47602 10.3511 161 99 62 
1.06327 -2.99922 8.20088 34 52 66 
-0.127971 4.21852 8.90411 144 120 96 
1.19884 4.61548 8.059 137 122 101 
0.691648 4.35776 8.67223 184 164 139 
-1.49873 -3.76322 7.76925 212 196 173 
-0.911172 1.46122 12.3865 57 53 44 
-0.229166 4.40488 8.73899 144 123 94 
2.41014 3.66948 10.0854 137 121 105 
3.09093 3.18357 11.3168 140 125 104 
-1.3075 2.50018 8.06269 89 86 77 
3.20083 -3.77765 9.60953 102 125 139 
-1.52834 3.37869 8.09731 0 1 6 
0.296433 4.02272 9.52085 152 131 102 
-0.429016 -6.75816 11.474 210 189 158 
0.826241 -3.42464 7.94223 124 141 157 
1.38981 0.62538 11.364 37 51 52 
0.561003 0.709547 11.6603 141 129 117 
2.11186 -2.86974 8.88329 69 84 103 
-1.96034 2.8157 6.82537 147 120 90 
0.177934 4.28629 8.9045 139 119 92 
0.121795 4.56916 8.06557 193 171 147 
1.67802 -4.61114 8.88356 119 137 149 
0.689237 4.32249 8.79221 193 172 145 
-1.13724 3.2481 6.97435 133 117 101 
0.00385625 4.3309 9.05548 189 168 139 
-0.525419 4.3973 8.74178 114 96 76 
-0.215213 4.54866 8.13656 173 151 130 
0.568386 4.61431 8.00887 172 156 133 
0.447136 4.02313 9.27968 168 144 120 
2.83027 -4.20688 9.35624 94 113 130 
-1.6737 3.84844 6.59145 102 77 55 
0.184305 4.51037 8.34572 144 123 92 
0.478652 4.41782 8.44597 176 159 129 
0.354218 -3.25616 7.70088 104 121 131 
-1.97238 -3.18799 8.33575 167 152 129 
2.04095 -4.75283 8.9696 70 87 105 
2.05434 -2.81122 8.88754 105 123 137 
1.70811 -4.28409 8.79526 77 95 115 
1.63339 -4.55304 8.84913 126 144 156 
3.45072 -2.67381 9.93962 78 96 110 
0.795528 3.72846 9.84048 141 127 101 
-1.43551 -3.90453 7.77228 199 207 192 
1.454 -4.61118 8.79385 62 81 96 
0.889104 3.88358 9.59007 153 137 112 
1.38363 -4.99147 8.81914 82 101 116 
0.0884878 4.58799 8.066 159 137 113 
1.7934 -4.01257 8.79521 125 143 155 
0.76812 4.43047 8.41593 185 165 138 
1.59868 4.67925 7.92934 166 149 123 
2.78333 -2.69694 10.0349 92 110 122 
2.83362 -4.21157 9.3695 92 111 128 
0.0079279 4.08188 9.44833 176 153 119 
1.31776 4.58304 8.06368 163 146 120 
3.21478 -3.04058 9.775 107 125 137 
1.70562 -2.67178 8.79752 112 130 144 
0.166524 3.83651 9.70044 201 175 140 
0.291703 4.61999 7.94336 163 145 123 
-0.773981 -6.77034 10.8132 109 59 36 
2.01876 4.01988 9.37656 130 117 101 
2.53879 4.58015 8.28801 191 169 145 
-0.357537 4.5616 8.11942 142 122 97 
0.732654 -3.40807 7.78889 111 132 149 
0.292005 4.61662 7.93951 164 143 126 
2.28882 -2.38898 9.23674 57 73 89 
0.768585 -4.05818 8.32828 71 90 105 
0.186033 4.34391 8.98779 159 139 114 
-0.406029 2.20133 8.03516 216 196 171 
0.412498 0.996495 11.2212 161 152 145 
-0.319612 4.5108 8.24269 177 156 127 
1.33612 4.59185 8.04766 194 175 143 
2.01115 -4.6355 8.98058 106 132 145 
1.58849 0.873783 10.8763 92 88 87 
-0.0216255 3.95231 9.51928 146 122 94 
2.72886 -2.56713 9.8528 102 118 133 
3.12139 -3.74683 9.51963 90 114 126 
3.02397 -3.61078 9.53702 104 122 142 
1.51238 0.487629 11.6253 26 45 43 
1.67577 0.863586 10.6921 75 73 74 
1.63778 -4.87448 8.93198 77 95 107 
0.175738 -4.16222 8.45873 57 73 86 
2.01547 -4.64417 9.00217 106 132 145 
-0.396142 4.49223 8.29535 180 159 130 
-0.982154 3.02356 7.41968 9 17 19 
2.52277 4.49744 8.28198 152 135 119 
0.364038 1.01907 11.1898 110 119 114 
3.59966 -2.08612 10.1103 40 56 71 
0.318799 1.08323 11.0527 166 152 141 
2.70229 -2.48239 9.91801 92 111 125 
-0.711711 -6.78496 10.7491 133 77 42 
-1.43213 1.15657 12.5438 177 157 130 
2.09922 4.597 7.92609 166 146 122 
1.02802 -0.165809 8.26406 153 137 121 
1.67718 -4.60672 8.88409 119 137 149 
0.297272 3.78708 9.83961 136 119 93 
2.92562 4.50857 8.3577 205 184 155 
-0.236978 4.19792 9.26649 186 159 132 
0.104669 -2.84062 7.96295 101 115 128 
-1.43978 2.8819 8.19873 60 53 45 
2.37547 2.46759 12.4872 78 68 67 
2.37876 3.935 9.51079 144 129 110 
3.31068 -4.43934 9.3216 53 73 97 
-0.349124 4.09456 9.42051 193 169 141 
3.09331 -3.63234 9.58531 63 82 97 
-1.34835 2.76213 7.32056 4 3 8 
0.620087 4.2186 9.28827 188 166 142 
1.63586 0.701821 11.0665 90 84 86 
0.976189 -0.643463 8.19973 172 159 143 
-0.17221 1.1372 11.5856 155 152 143 
0.63729 -3.43509 7.65059 111 134 152 
0.942187 -2.94565 8.07225 73 93 104 
3.08945 -3.66164 9.5607 61 80 97 
2.35189 -3.11268 9.0449 65 83 105 
0.297221 4.0802 9.25492 180 160 135 
2.3913 4.18604 9.08062 150 144 128 
0.998439 4.04439 9.00348 182 159 128 
0.985534 -0.644059 8.19528 169 160 145 
0.804178 4.14735 9.00823 203 182 151 
1.46343 0.883459 10.8999 129 119 109 
1.40188 4.61808 8.01783 179 164 135 
1.49124 4.32002 8.74423 166 145 118 
1.51842 -3.1126 8.51946 74 90 103 
0.229372 3.09907 11.4533 127 114 97 
-0.396522 4.49519 8.30064 180 159 130 
2.07368 4.39779 8.45855 180 160 135 
0.0500186 4.2516 8.91816 155 134 107 
2.92346 -4.37788 9.32061 64 89 109 
0.440204 4.33753 8.57183 158 142 116 
1.63172 0.567093 11.3573 55 69 72 
0.703056 4.46827 8.24234 174 154 127 
2.9324 -4.39068 9.35493 65 90 110 
2.51403 4.0595 9.24648 170 155 134 
-0.180672 0.914238 12.4107 113 106 100 
0.61495 4.67754 8.09211 152 136 113 
0.969198 -0.643622 8.25539 168 155 139 
0.537705 3.97521 9.55012 187 163 135 
-0.441129 4.2128 9.06398 136 112 86 
2.29035 2.40072 12.3163 66 68 65 
3.37943 -2.86245 9.97042 42 60 74 
0.504016 4.30035 8.65244 172 151 120 
1.00756 4.13182 9.14073 193 170 139 
1.18137 -0.621886 8.76558 75 68 62 
2.67818 -4.3622 9.31044 71 89 103 
3.36545 -2.85329 9.9244 43 61 75 
1.59304 4.2497 8.72937 184 162 138 
-1.29072 2.49502 7.3703 76 67 58 
-1.33799 2.83054 7.31931 1 2 6 
2.28306 -2.34344 9.20592 69 87 101 
3.23835 4.12042 9.06563 184 158 135 
2.89321 -4.94943 9.24462 118 139 156 
-1.14206 3.2318 7.27349 160 144 129 
-0.526875 4.36311 8.92321 103 85 73 
2.74512 -2.59804 9.83662 70 87 103 
3.23071 -3.03429 9.80645 101 119 131 
0.0492827 4.2673 8.94979 157 136 109 
2.3007 -4.44916 9.03052 74 93 110 
-1.33415 2.70682 7.9022 90 74 61 
-1.97904 1.36214 10.8402 156 146 134 
3.44531 -3.37336 9.73084 75 94 109 
0.767683 -4.05572 8.32126 73 90 108 
-0.556108 4.52702 8.08988 156 139 121 
0.304741 3.80134 9.76973 184 163 134 
1.04413 4.34405 8.79516 155 131 105 
1.01102 4.37404 8.86526 192 169 138 
0.793069 2.62594 11.4038 166 154 142 
1.50445 0.537277 11.5145 73 82 77 
0.0742082 1.10546 11.1562 157 147 135 
1.14778 4.54962 8.22546 166 146 122 
0.582197 4.63778 8.26929 179 158 131 
2.73337 3.9591 9.59219 147 130 114 
-0.486853 4.61555 8.0099 130 114 91 
0.306597 3.74725 9.54175 176 153 122 
0.619219 4.43271 8.39764 161 143 119 
2.10955 -2.86639 8.86963 69 84 103 
0.895738 4.28107 8.75221 159 143 120 
1.50614 0.538963 11.5373 76 82 78 
1.06917 4.33151 8.70455 162 140 117 
1.50854 0.439041 11.828 26 38 38 
3.35084 -4.66954 9.41843 123 142 159 
-1.38217 3.13755 7.75964 86 79 69 
-2.41833 1.73923 13.1073 156 146 134 
0.00283184 -2.58132 8.31301 43 59 72 
2.2701 -2.65884 9.20984 68 85 101 
2.05534 -2.81481 8.90015 102 120 134 
-0.0514176 4.17222 9.01732 167 146 117 
1.639 0.553434 11.3601 63 71 74 
0.264897 3.85723 9.60197 170 145 115 
2.28042 2.38529 12.2435 63 65 62 
-2.03585 1.51134 10.8621 156 146 134 
0.738424 4.61505 7.94065 134 123 105 
2.22484 4.10432 9.13957 161 154 138 
0.0430384 4.35348 8.75933 147 130 102 
1.07154 4.34709 8.7353 160 138 115 
0.404666 0.729744 11.6094 134 121 112 
-0.357914 2.52507 6.81104 167 157 147 
1.52957 -3.14949 8.60377 72 88 101 
2.63698 -2.91825 9.67469 73 92 109 
2.02037 -3.05818 8.88918 69 85 101 
1.86363 -2.82834 8.84944 73 89 104 
0.806685 -3.19411 7.88586 89 112 130 
-1.23029 3.63101 7.42303 102 90 74 
1.58432 -4.49188 8.81666 92 111 125 
0.975342 3.9532 9.43464 157 141 118 
-1.31719 2.5597 7.45525 73 65 54 
-1.3812 2.61513 8.49014 92 88 77 
-0.0710297 3.97543 9.63038 148 124 96 
-0.527468 4.63716 7.91262 155 143 127 
0.00375719 -2.56827 8.25175 44 60 73 
-0.798384 -1.29488 10.9759 99 103 89 
1.20041 -4.83932 8.75014 88 107 122 
0.856693 3.80415 9.64667 140 128 104 
0.741699 -4.16066 8.3393 75 91 107 
2.93711 -4.69781 9.42694 100 121 140 
0.283742 4.18565 8.98541 159 138 109 
1.77856 -2.89202 8.93855 69 88 105 
-0.307923 3.95896 9.40033 172 149 117 
-0.227588 4.2815 8.86543 149 123 96 
0.506248 4.32555 8.69807 183 162 131 
-0.3013 4.47363 8.35625 150 130 105 
0.2459 3.94426 9.59029 199 175 137 
1.90667 -2.4696 9.15989 47 61 72 
0.791955 3.94026 9.55606 160 140 116 
0.724971 2.75563 11.5401 114 129 122 
2.43717 3.40131 10.8463 152 136 113 
-0.0622431 4.10368 9.26338 144 120 92 
1.68867 0.541058 11.3134 51 66 69 
2.23312 -2.44746 9.22977 61 77 93 
2.95367 -3.17786 9.64168 56 78 91 
0.900871 4.66391 7.88746 174 158 132 
-0.160779 3.83333 9.81418 140 116 90 
0.7395 -4.84283 8.63328 121 139 151 
-1.23197 3.31994 7.26078 191 167 139 
1.26 4.62846 8.04574 107 92 73 
3.09294 -3.39893 9.6549 95 114 129 
-0.201062 4.221 8.98275 173 149 121 
-0.328625 4.69641 8.15618 132 114 90 
2.80469 -3.29743 9.71004 81 97 113 
1.06381 -4.94605 8.74613 131 145 156 
0.77934 4.44993 8.35863 207 187 154 
0.910298 -3.15587 8.06161 67 84 100 
3.02113 -4.48109 9.36925 105 128 144 
-0.279797 1.97303 4.86846 143 114 84 
-0.349265 4.22188 8.84443 179 155 131 
1.49818 -2.96967 8.52629 118 138 147 
0.307602 3.79827 9.66225 177 154 123 
1.47622 4.58182 7.85945 180 161 129 
3.16916 -4.33023 9.46771 60 81 100 
1.11036 -4.33119 8.75482 103 121 135 
-1.23885 3.65442 7.46911 100 91 76 
1.00659 4.34124 8.79951 190 167 136 
-1.81436 2.70808 7.07996 23 19 20 
0.615337 0.678416 11.2029 141 129 117 
1.75871 -4.83824 8.87284 82 98 111 
3.17709 3.55649 10.3935 124 112 98 
3.08965 -4.56952 9.38253 63 82 99 
2.91173 -3.60094 9.52794 93 113 124 
1.21776 -3.61727 8.51285 96 119 133 
1.65668 0.609783 11.3509 79 79 79 
-0.756159 1.98631 8.11091 80 65 58 
1.30605 4.55177 8.0228 177 159 135 
1.51232 0.466188 11.625 24 42 42 
1.85704 -2.59485 8.93192 76 99 113 
3.45364 -2.91292 9.96007 84 101 117 
0.993082 3.69252 9.33089 150 139 119 
1.43928 -4.49662 8.74391 99 118 133 
-0.397679 4.18999 9.29229 146 122 96 
1.51384 0.467127 11.6209 26 44 44 
-0.0695723 3.95574 9.58532 151 127 99 
1.03359 -4.20765 8.57718 90 108 128 
-0.166016 1.39707 10.9075 166 156 146 
-1.43911 -5.93231 9.16987 22 23 27 
1.8537 4.33334 8.72088 175 158 132 
2.56259 4.56926 8.01773 200 183 155 
-0.413989 4.09457 9.22319 153 129 105 
-0.575406 4.65452 7.86667 115 101 88 
2.3974 2.48946 12.5275 104 94 84 
0.890432 2.0272 11.5484 165 154 148 
0.0123338 4.26328 9.01829 164 140 114 
0.602346 4.63953 8.11243 147 129 107 
1.72959 -3.27639 8.5366 117 135 149 
-0.735524 1.73318 11.9798 202 184 162 
-0.115195 4.53083 8.29192 182 160 136 
2.9554 -4.01304 9.45538 79 102 116 
0.38894 0.93291 11.381 164 151 142 
2.97288 -2.31875 10.1172 95 112 122 
2.23596 4.02758 9.41118 113 104 95 
-0.922286 -6.47117 10.342 161 99 62 
2.32851 4.56699 8.14514 168 146 122 
0.90691 4.35075 8.68748 158 138 113 
0.251745 4.13783 9.20569 157 133 105 
0.229961 1.13521 11.2109 164 151 142 
-0.29828 3.94584 9.62509 183 160 128 
0.667127 4.4469 8.57911 171 145 122 
1.48337 4.61341 7.91403 179 158 127 
0.383134 4.21343 8.9326 179 159 132 
0.00879832 -2.792 8.36412 36 50 63 
-1.31117 2.98115 7.326 79 70 63 
1.3727 -2.7169 8.50756 36 52 67 
2.10622 -2.48565 9.03869 43 59 74 
1.03071 4.35346 8.44184 187 163 135 
2.33106 2.32672 12.2285 162 152 151 
1.26435 4.18864 9.05194 181 161 136 
0.0636427 2.1818 6.69392 218 206 180 
-1.27438 2.58193 7.57174 71 59 45 
0.840183 4.2019 9.13831 196 171 141 
0.395106 -3.01822 7.79313 50 66 79 
-0.377961 4.26534 9.00211 142 121 92 
-0.069594 4.00415 9.65809 142 118 90 
0.38869 4.54397 8.31469 171 149 125 
-0.156531 0.56017 14.613 44 43 39 
0.301439 0.888092 11.5851 117 123 119 
1.90327 -4.89776 8.94329 97 114 132 
2.98903 -2.32668 10.1752 98 115 125 
1.02438 -2.93346 8.32721 71 87 100 
-0.166591 4.16486 8.95113 180 156 130 
-1.73702 2.35755 5.42349 204 199 179 
3.56742 -6.43021 10.4786 38 47 56 
-0.249964 4.00802 9.47318 150 124 97 
3.25579 -2.97509 9.8306 72 90 102 
2.58443 4.57141 8.05848 199 182 152 
0.892998 3.90557 9.63835 156 138 114 
2.11784 3.59616 10.1353 164 149 126 
1.9402 2.64607 12.5565 114 106 93 
1.7365 -3.28635 8.57341 116 135 149 
1.93372 2.63481 12.5147 113 105 92 
2.30778 3.95188 9.48734 133 121 105 
3.27667 -3.84715 9.61699 54 75 94 
0.197556 1.05081 11.4128 156 150 138 
1.10481 3.97066 9.37763 125 115 103 
-1.46494 3.33381 7.98181 45 36 29 
3.11963 -2.99055 9.71702 57 74 90 
-0.0573485 3.94688 9.56674 142 118 92 
0.75716 4.50521 8.33902 132 113 96 
0.81928 4.46905 8.23407 140 122 98 
1.50457 4.29654 8.75012 179 159 134 
0.20669 3.07929 11.1614 131 118 101 
1.82009 -4.54405 8.83673 92 113 130 
0.337764 3.85882 9.79735 196 173 142 
0.490928 1.87419 10.7046 155 143 131 
1.93058 2.49545 12.2223 113 129 129 
2.91809 -3.60952 9.55594 91 109 123 
0.572028 4.27668 8.75819 191 167 139 
2.21904 -3.21608 8.80749 106 125 142 
2.24216 -5.35279 9.14384 83 104 125 
0.530858 4.70507 8.05782 121 110 90 
0.00668049 1.27058 11.063 166 158 147 
0.475124 1.84584 10.5735 156 146 134 
2.70536 -4.57011 9.32219 58 77 91 
1.39712 0.548321 11.4902 20 49 53 
0.509487 -0.358903 15.9048 75 65 53 
0.36554 3.97923 9.42478 164 140 112 
0.869146 3.89191 9.55062 172 151 130 
-0.083238 4.4472 8.54547 148 128 101 
2.21561 2.25406 12.0267 160 151 144 
0.873712 4.84519 8.78872 155 139 116 
2.1873 2.39447 12.2066 113 117 120 
1.98429 4.2795 9.00014 168 152 129 
1.91693 4.52038 8.1782 159 145 118 
1.26868 4.59812 8.13152 190 169 142 
1.44546 4.35369 8.84232 126 110 95 
-1.34498 2.8359 7.34093 1 2 6 
0.602204 4.63869 8.11135 147 129 107 
1.2312 4.20715 8.94545 184 164 137 
2.41177 3.93907 9.50456 174 159 138 
2.81735 3.8891 9.72915 180 163 143 
1.85823 4.25309 8.73515 136 119 103 
1.46006 4.28432 8.79493 132 116 101 
-0.113719 4.46052 8.57513 134 113 84 
1.58248 4.4905 8.24792 161 141 116 
-1.42039 -3.89664 7.6894 184 184 174 
2.25602 4.53805 8.18948 172 147 125 
0.35114 4.4492 8.49375 160 139 112 
3.08981 -3.5805 9.64088 88 106 126 
-0.796955 2.82856 7.52488 111 101 91 
1.0138 4.20433 8.97437 192 168 140 
0.0305762 4.31846 8.68874 149 132 104 
0.801703 4.50297 8.24949 164 148 122 
0.0854449 4.70645 8.03957 169 149 125 
-0.163424 4.2302 8.83826 184 160 136 
2.82323 3.64556 10.3045 178 163 140 
1.95348 4.49786 8.19134 194 172 148 
3.00895 -2.36394 10.1557 96 112 125 
-1.43105 -3.81238 7.67794 191 192 187 
0.0468242 1.13807 11.4115 140 137 132 
2.95901 -2.43604 10.1127 60 78 90 
1.60663 -3.83859 8.6135 89 110 129 
-1.56403 3.48633 8.90863 89 73 60 
0.935571 4.13932 9.01703 199 175 151 
0.00732622 1.27105 11.0636 166 158 147 
0.740838 4.5166 8.25115 163 143 119 
2.2125 4.26533 8.80832 201 180 149 
-1.21072 3.28496 7.52286 197 177 153 
-1.43948 -3.89144 7.74028 181 178 169 
0.757289 3.93656 9.36671 114 102 90 
2.27158 4.33167 8.47695 158 135 117 
-0.541101 -7.11618 11.2499 132 119 102 
0.766575 0.596035 11.9032 127 115 101 
3.08698 -4.56435 9.37027 62 81 98 
0.666571 4.40503 8.58977 173 151 127 
2.51447 -4.99627 9.23097 95 118 132 
1.39557 -4.60279 8.74682 58 77 94 
2.66743 -3.18386 9.49701 48 66 80 
3.30851 -2.21744 10.2679 79 97 107 
0.00694534 3.92715 9.67571 190 166 132 
2.39843 4.37417 8.52816 181 163 143 
-0.689521 2.70588 7.44502 143 131 119 
2.59264 -4.46465 9.37181 70 86 101 
0.426516 4.15476 9.06041 180 159 128 
1.48875 -3.70274 8.58092 50 66 82 
2.81787 -2.74354 9.86124 50 67 83 
1.926 -4.71007 8.89799 54 75 92 
1.98332 -3.126 8.93019 97 115 129 
0.826712 4.05539 9.58823 152 134 114 
2.33347 3.85705 9.68423 170 155 134 
2.01852 -3.59672 8.86514 96 117 136 
1.51739 0.501961 11.5469 32 42 41 
1.37818 -5.0768 8.84239 92 111 126 
0.191409 -2.95625 7.83084 10 22 34 
1.37335 4.13674 9.04912 158 140 118 
2.6782 4.09518 9.21705 169 154 135 
0.737723 4.31684 8.98892 158 138 114 
1.57669 4.33951 8.83558 165 145 120 
3.25877 -3.82797 9.55513 54 75 94 
3.22706 -2.99202 9.77921 99 117 129 
1.83544 -3.95948 8.78248 102 121 138 
1.11807 -3.90679 8.61511 82 100 114 
0.285808 3.92533 9.60255 196 170 133 
3.0496 -3.1266 9.6167 53 75 89 
0.00128042 4.0859 8.77223 141 120 89 
0.686868 -3.30335 7.88445 37 51 62 
1.07385 4.07953 9.52021 156 138 114 
0.334241 4.03994 9.36942 182 158 132 
-0.0799028 4.4958 8.25044 161 139 115 
0.00138034 1.11008 11.3987 152 151 146 
2.2213 -4.08268 9.09758 78 94 110 
1.56892 -5.10914 8.95122 120 139 146 
0.0564442 4.53948 8.09933 152 136 110 
1.54824 -3.65596 8.58397 93 110 120 
1.13844 4.49326 8.12522 168 148 123 
0.902726 4.49002 8.3045 199 178 147 
0.307697 1.09726 11.2128 166 154 140 
0.551395 4.35077 8.75908 154 132 108 
-1.37989 2.75949 7.35549 3 1 4 
0.96715 4.10133 8.90563 187 163 135 
0.208096 0.772366 12.0395 90 83 77 
-1.42198 3.3053 7.76845 61 51 52 
-1.37494 2.84874 7.21556 0 2 1 
0.04683 3.96852 9.62369 170 145 114 
1.98302 4.27677 8.99807 153 136 116 
3.23136 -2.9962 9.79636 99 117 129 
0.0457926 3.99336 9.68024 172 147 116 
1.05191 3.9532 9.24171 169 151 129 
1.87389 -4.40798 8.88948 114 136 149 
1.36598 4.63178 7.9048 178 161 141 
2.36484 3.67686 9.88436 139 126 107 
1.92441 -2.7517 8.93669 98 114 127 
3.37778 -2.98011 9.82553 58 79 96 
0.925397 -3.30597 8.00931 77 97 106 
1.71507 0.400363 11.5646 67 71 74 
3.02771 -2.94273 9.67087 55 74 88 
0.175486 -2.65762 8.72451 18 31 40 
-1.56995 -2.52872 7.82558 204 191 172 
1.96433 -3.01387 8.90297 98 116 130 
-0.429725 4.38082 8.38068 122 104 82 
0.402155 4.50874 8.2271 175 154 127 
-0.16524 0.582726 15.5152 44 43 39 
2.90458 -2.55818 9.90647 52 68 84 
2.37024 4.63411 7.97612 190 168 147 
2.56118 3.01359 11.4497 138 126 104 
2.75327 -2.99481 9.73206 54 73 88 
2.6816 -3.19713 9.55281 49 67 81 
1.10868 3.99296 9.42822 125 115 103 
2.8662 -2.96348 9.75698 41 59 73 
3.30281 -2.29732 10.2457 55 73 85 
1.52338 0.457087 11.6026 23 43 44 
-2.14152 -0.0640927 10.1458 174 165 150 
-0.47435 4.30765 8.8446 149 134 103 
3.2746 -2.6058 9.98096 55 73 87 
-1.39895 2.82029 8.14492 39 27 27 
-0.842748 2.91813 7.71607 108 95 86 
3.62917 -2.68106 10.0598 72 90 102 
-0.210457 4.49225 8.21147 151 126 104 
1.41071 4.17976 8.86145 158 142 126 
-1.49009 3.43033 8.06923 49 45 44 
2.20972 2.24574 11.9915 160 151 144 
0.624192 1.22868 10.6163 192 176 163 
2.18982 -3.35954 8.99 76 92 105 
2.8682 4.5979 8.5079 198 174 150 
-1.39885 -3.82009 7.6419 188 198 190 
2.47114 4.46743 8.1993 156 138 114 
0.0201421 -2.50468 8.23503 94 108 119 
2.7458 -3.44884 9.42962 51 69 83 
-0.952279 -5.79313 10.1783 111 74 56 
0.075939 4.2012 9.02527 179 158 129 
1.66832 0.843531 10.7531 75 73 74 
1.65456 -2.54885 8.82819 69 87 97 
2.66027 -5.11179 9.16312 105 125 136 
-1.48379 3.44831 8.08438 58 53 50 
0.485291 4.34166 8.60392 189 168 139 
0.773441 4.1964 8.86608 178 154 130 
-0.0509526 -2.7347 8.29585 72 88 101 
-0.113799 4.02123 9.38334 159 135 109 
2.75307 -3.45817 9.46204 51 69 83 
3.32795 -5.30777 9.56146 92 111 128 
0.205038 4.45924 8.46612 180 158 134 
3.45655 -1.76572 10.5681 56 56 56 
-0.0516279 -2.73714 8.30581 73 90 100 
0.323935 1.01823 11.2518 152 148 137 
0.610804 1.22201 10.6355 191 175 162 
2.00728 4.34454 8.65834 173 157 132 
3.29552 -2.37799 10.0823 37 55 69 
2.14775 4.49403 8.27136 199 175 147 
0.679971 4.41346 8.51216 192 167 145 
0.784299 4.07927 9.50765 168 149 119 
1.77641 4.0849 9.11438 122 113 96 
3.21994 3.37328 10.6192 131 119 103 
0.512903 3.94282 9.15183 164 142 118 
3.48531 -2.73274 10.0077 63 85 98 
-0.0139086 3.93615 9.58462 157 136 105 
2.87677 -2.61006 9.89139 44 57 73 
3.0569 -3.13282 9.6431 54 76 90 
2.29129 4.32487 8.69739 167 147 120 
0.430865 4.14641 8.90814 190 164 141 
1.38163 4.32204 8.72211 162 144 124 
2.98933 -3.77118 9.38148 74 93 110 
1.87247 -4.40498 8.88167 114 136 149 
0.323596 3.03154 11.6575 69 66 51 
-0.855722 2.9484 7.68959 127 113 102 
0.202807 4.62259 8.13181 178 161 133 
0.459272 -0.0211162 17.7334 2 3 7 
1.56322 -5.07765 8.90302 121 139 149 
0.825787 4.2651 8.83389 168 147 120 
2.0272 4.65788 8.03256 163 145 121 
1.29208 -3.08829 8.53843 50 67 77 
0.295599 4.64809 8.11687 154 134 107 
0.285937 -4.06751 8.35088 94 108 117 
2.72062 4.65776 8.10548 208 188 163 
2.4487 -4.48562 9.10567 85 108 126 
0.794824 4.04345 9.50895 169 151 129 
0.649236 3.89166 9.44564 174 154 130 
1.82946 4.36138 8.73232 159 141 117 
0.382556 4.54336 8.18464 177 156 127 
0.2102 -2.9253 8.07305 27 40 48 
0.782868 4.1724 8.96669 189 165 141 
-1.34477 2.68826 7.32982 32 28 25 
3.2774 -2.60918 9.99511 54 72 86 
1.67491 -2.57997 8.97876 72 90 100 
1.84148 4.17124 9.14967 132 121 103 
-1.5069 3.27804 7.90178 0 1 6 
0.705895 -4.38921 8.44046 88 105 121 
0.0558335 4.55567 8.12727 159 142 116 
1.33495 4.16477 9.14725 142 124 102 
1.97074 -3.02187 8.93643 98 116 130 
1.41471 4.2959 8.71092 132 114 100 
-1.42269 -3.81706 7.67413 193 198 191 
-1.7441 2.76979 7.36697 49 36 27 
1.33401 4.6268 7.83335 181 166 137 
-0.0227436 4.54061 8.36538 134 113 86 
2.20305 3.81974 9.95619 136 123 104 
-1.47433 3.34429 8.09299 60 51 44 
3.13299 -2.13168 10.6281 63 63 65 
-0.0664012 1.0711 11.602 160 153 145 
0.723648 4.41435 8.47566 174 153 124 
2.94615 4.46306 8.35246 187 168 138 
2.54051 4.62452 8.07267 194 177 151 
2.21718 4.14627 9.07603 133 124 109 
0.0817121 4.2029 9.16563 158 133 111 
0.811745 4.19077 8.94281 174 153 124 
2.96567 3.48238 10.4758 170 152 130 
1.15417 4.31565 8.82583 162 138 112 
0.370036 4.08078 9.02196 190 168 144 
0.513581 -2.46522 8.37055 92 88 85 
-1.46782 2.32829 8.18808 81 61 37 
-0.231459 4.06781 9.2106 171 148 116 
2.19619 4.59365 7.88592 171 150 129 
2.3083 2.13991 12.0533 140 135 131 
2.07891 4.44313 8.27747 167 142 122 
0.178772 3.93035 9.67258 204 180 142 
0.40977 4.27508 8.9312 181 157 131 
0.937329 1.70977 11.138 161 152 145 
-1.78696 2.50703 6.60432 89 64 42 
2.28778 2.11174 11.9144 142 134 131 
2.54045 -4.57928 9.20217 104 124 135 
-0.147063 2.14966 6.59478 227 212 191 
-0.255156 2.29184 10.4951 156 139 123 
0.206884 3.86738 9.66004 178 153 122 
-1.37445 3.08224 7.66958 106 88 78 
2.58518 -4.45206 9.33869 70 86 101 
0.423339 4.37106 8.50309 182 158 130 
2.8315 4.55956 8.12057 203 186 156 
0.678664 4.48519 8.26021 170 148 124 
-0.592684 1.73724 10.4751 219 203 178 
3.52329 -2.46367 10.0252 44 62 76 
-0.273819 4.23331 9.06235 182 158 130 
-1.89337 2.86021 6.78388 75 52 36 
-0.380113 -5.24041 10.7409 111 117 105 
-0.826798 3.22138 7.11356 209 188 161 
2.62658 -4.39517 9.34151 89 107 121 
1.06392 -4.52937 8.73821 64 86 97 
1.34661 0.713703 11.3387 72 97 102 
0.0945432 4.48372 8.40253 166 145 118 
0.4099 4.34337 8.69964 152 134 110 
-0.521875 4.36728 9.16471 123 98 78 
0.646556 3.83937 9.90856 168 147 120 
0.184272 4.34261 8.76525 162 144 120 
-0.139318 4.5537 8.18638 153 133 108 
2.87095 -3.30067 9.64634 61 79 93 
1.63645 -4.99756 8.96788 82 100 114 
2.64334 -4.42394 9.41739 89 106 124 
1.37954 -4.30365 8.6994 106 126 137 
2.48824 3.5405 10.3474 141 129 107 
0.579394 4.15813 9.48025 164 144 117 
-0.114535 3.86502 9.67973 150 126 100 
2.62966 -4.39918 9.35286 89 107 121 
0.774202 -4.59137 8.53469 93 110 130 
0.239058 4.39709 8.5889 165 149 116 
-0.123552 4.38183 8.72677 136 116 89 
1.65041 -0.0160336 7.38162 107 99 88 
1.66458 0.919559 10.8242 145 139 143 
0.807404 3.77705 9.70989 132 119 102 
2.00449 -2.49325 9.02036 38 54 69 
3.06326 -3.50319 9.59308 67 90 108 
2.90709 4.50535 8.25479 199 177 153 
2.00997 -3.31205 8.87688 94 111 127 
1.36791 4.60781 7.95593 174 159 140 
-1.40274 -3.85834 7.65151 190 200 191 
0.169264 0.867927 11.5548 106 102 99 
1.99266 -4.26516 8.92381 99 122 136 
-1.4044 -3.84238 7.71404 184 195 187 
-1.52992 3.51998 8.26854 48 44 43 
3.18075 3.20945 10.9808 155 140 119 
-0.148882 2.16065 6.62483 230 215 192 
2.11952 -5.28021 9.06467 100 119 133 
0.785623 3.85549 9.35585 152 135 109 
0.873855 4.18183 9.20529 164 143 116 
1.41662 4.09773 9.0928 115 105 96 
2.15481 1.80651 11.4229 186 173 167 
-0.664365 4.62414 7.99936 129 115 102 
2.89005 4.47191 8.19677 196 175 148 
2.26464 -4.10482 9.04093 65 84 99 
2.61135 -2.05576 10.5945 62 64 63 
0.0663081 -2.65166 8.20246 52 70 80 
-1.41583 -3.88102 7.7097 194 202 189 
1.88265 3.97705 9.4653 130 118 106 
1.00904 -4.53715 8.69538 106 123 139 
-0.311102 2.13261 10.571 166 151 130 
3.06015 3.0319 11.7811 164 148 123 
1.64825 3.62899 10.0344 140 125 102 
-0.565025 3.40687 6.84937 172 161 143 
1.01216 -4.54938 8.71799 106 123 139 
1.64325 -5.05755 8.91124 93 112 127 
3.05841 -3.02794 9.69506 54 71 87 
-1.34462 2.68663 7.321 30 26 23 
1.6173 4.61843 7.90203 173 156 130 
1.1576 4.01078 9.45424 132 123 108 
2.13374 -3.32044 8.92369 71 89 101 
-1.57323 -3.9298 7.80163 237 222 189 
-1.21611 0.770139 13.324 125 113 97 
2.10019 3.98256 9.18266 143 130 114 
1.20083 4.32116 8.75658 159 141 117 
1.63599 -4.99654 8.96549 82 100 114 
1.28554 4.39114 8.51264 159 143 118 
3.44409 -3.47954 9.74404 45 64 79 
-1.45849 -3.86683 7.78897 190 189 185 
1.74223 -2.9473 8.80715 79 97 117 
1.57392 -2.59755 8.91352 67 87 98 
-1.86967 2.5315 7.2651 100 73 46 
2.81245 -2.49801 9.90481 63 81 95 
0.235604 4.17096 9.07445 156 135 108 
0.816458 -3.50247 8.02742 101 121 145 
0.366282 -4.36148 8.37848 91 105 116 
0.705414 1.14205 11.0965 164 152 140 
0.317469 4.0063 9.43513 163 142 111 
0.839783 3.87864 9.54887 161 135 118 
0.117073 2.06381 10.6403 192 176 161 
1.8673 -2.75636 8.97479 82 102 113 
-0.208398 -2.33173 8.35689 81 95 106 
1.81539 -4.57781 8.87037 97 116 131 
0.0727783 4.42204 8.55743 156 135 106 
1.92036 4.36368 8.64427 165 149 126 
3.32555 -4.05507 9.54309 56 77 96 
-0.0951673 4.34329 8.89724 172 148 122 
0.748702 4.43386 8.36589 207 186 157 
0.340415 4.5391 8.34537 169 147 124 
2.53795 2.84791 11.6336 143 127 111 
1.43391 4.3772 8.3736 177 160 132 
-0.0197219 4.30121 8.65524 144 127 101 
-0.386437 4.05529 9.31898 170 145 115 
-0.592966 3.54777 7.11777 168 159 142 
2.91262 -2.885 9.76709 70 87 103 
1.44628 4.62522 8.05242 166 149 123 
0.168354 0.876378 11.6281 117 114 109 
0.620997 4.40476 8.67746 190 167 135 
0.179363 3.68231 9.54665 169 145 117 
1.55074 4.63672 7.9317 180 163 137 
1.16132 3.96371 9.58229 127 115 103 
-1.61587 1.54043 12.4016 152 137 118 
3.25247 -3.95464 9.61672 86 109 127 
-0.168492 4.08274 9.04488 165 141 113 
0.218548 4.04736 9.15162 183 158 128 
0.960963 3.74779 9.97753 174 158 132 
1.27701 -1.67373 9.68893 131 122 113 
1.22913 4.20864 9.02474 163 147 124 
-0.519456 4.54335 8.08583 124 106 84 
2.83197 -2.13189 10.6851 72 70 71 
1.30306 -4.46917 8.7765 83 99 112 
1.30644 0.73526 11.2084 55 69 69 
-0.332801 4.53585 8.28738 170 149 118 
-0.0924404 1.26673 11.2315 162 150 138 
-0.539408 -7.05235 11.3042 108 86 73 
-0.268971 0.594938 2.21831 172 154 130 
1.42946 4.48891 8.41005 176 156 129 
1.09533 4.62493 8.09032 179 162 136 
0.575844 3.18807 11.3004 133 121 105 
2.76696 -2.61584 9.89133 69 86 102 
0.440824 4.03519 9.45098 183 159 125 
0.449242 -0.625412 17.0354 78 66 52 
0.678993 4.35713 8.78902 153 136 108 
-1.7397 -5.53622 8.66311 225 213 187 
0.168815 3.80816 9.92111 172 148 122 
0.652683 -2.00211 8.05149 111 102 93 
1.53577 0.550013 11.5552 51 55 56 
0.083673 4.05088 9.47113 171 145 118 
-0.035346 4.03333 9.50288 157 132 102 
1.92126 4.36641 8.64943 165 149 126 
0.322792 4.66405 8.05944 157 141 116 
2.66689 -4.84419 9.30793 60 79 94 
-0.270845 3.92328 9.52505 155 132 101 
0.549891 1.21151 10.5762 182 169 153 
1.76691 0.55141 11.3328 66 72 70 
2.0359 3.94625 9.06754 140 127 111 
-1.38934 3.04435 7.50951 1 1 1 
1.2286 4.16551 9.18727 164 147 121 
2.78137 3.64006 10.263 162 147 124 
2.87103 -3.24469 9.62979 59 76 92 
1.8907 3.76608 9.93142 160 145 126 
0.907211 3.92906 9.5868 144 126 102 
0.0263465 3.8218 9.66772 150 126 98 
1.8401 -3.35159 8.65125 97 116 130 
1.03811 4.48526 8.34099 155 138 108 
-0.480612 4.47631 8.3204 129 111 89 
-1.65519 3.0499 5.66097 82 64 44 
1.67907 4.43416 8.45451 170 154 128 
2.34115 -2.48586 9.25072 70 89 103 
0.164999 1.23044 11.107 165 151 138 
-0.370807 4.71282 8.01368 140 121 104 
2.34616 4.34227 8.7566 185 165 141 
-0.57448 2.96867 6.98642 13 9 6 
0.651368 -4.2061 8.28198 86 105 122 
3.3239 2.58139 12.5439 119 115 112 
-1.05793 2.16806 8.34895 124 117 99 
0.423004 4.2027 9.27858 202 180 156 
1.81371 0.100914 7.27782 109 102 94 
3.09201 -2.78406 9.92149 41 59 71 
-0.912208 3.18288 6.90191 219 201 179 
0.144594 0.819978 11.509 77 72 66 
2.45948 3.34863 10.9938 155 139 114 
0.600113 4.50446 8.49939 175 159 134 
1.29944 3.0155 11.5403 143 128 109 
2.80774 -2.3912 9.99839 91 107 120 
-1.95594 3.26173 7.08358 3 0 9 
1.85472 -4.93679 8.92352 119 137 149 
1.78042 0.702646 10.758 62 62 64 
2.26888 3.53097 10.1102 147 132 111 
2.81284 -2.49748 9.90394 63 81 95 
0.813048 3.83313 9.96688 146 131 110 
-1.50195 3.45613 8.12695 47 43 42 
0.00799106 4.44961 7.99158 166 147 117 
3.13604 -3.76942 9.51264 75 98 112 
0.751396 4.36165 8.7491 168 146 125 
-0.151747 4.5628 8.10139 151 134 108 
3.25236 -3.95449 9.6163 86 109 127 
1.30622 -4.06894 8.69783 66 84 96 
1.15342 4.5501 8.38186 138 125 109 
0.079845 4.00657 9.2979 164 139 109 
1.44174 4.28565 8.83621 134 118 103 
1.13696 -0.046142 8.31441 67 67 59 
1.30752 -4.07487 8.7136 66 84 96 
0.994902 -4.02759 8.49426 88 106 126 
0.00501528 4.61239 7.92275 133 119 92 
0.489138 3.85114 9.53305 168 147 118 
2.1773 -4.12263 9.06568 68 90 103 
-1.23759 2.38903 7.86833 1 0 2 
3.13743 -2.56848 10.1753 38 56 70 
-1.01286 2.04605 7.79264 19 15 4 
1.25424 -4.42793 8.78894 88 106 118 
-0.187989 4.43023 8.34642 163 141 117 
0.988276 -4.70139 8.73732 101 118 134 
1.67473 3.70636 10.0804 152 137 118 
-1.31284 3.11774 7.21346 93 84 79 
-0.392987 2.55265 6.91815 140 126 117 
3.20599 -4.28189 9.4775 79 101 122 
2.1723 -4.1194 9.05307 68 90 104 
2.44866 3.51596 10.5717 160 145 126 
1.58716 4.44436 8.31962 162 144 120 
1.65323 0.628055 11.2203 60 59 57 
2.52073 4.29852 8.59885 122 114 103 
2.20488 4.53983 8.25992 184 162 138 
0.328251 4.69938 8.0529 130 117 101 
-0.270921 -2.65141 8.22509 70 87 97 
3.48404 -2.43299 10.0435 32 47 66 
2.11375 -3.56984 8.9704 79 97 109 
-0.885645 3.18346 6.87035 224 204 179 
0.593352 3.9988 9.19744 157 143 117 
1.09294 -2.84969 8.37473 52 69 79 
0.622952 4.61166 8.10579 160 140 115 
2.22258 4.66347 7.94901 178 157 136 
3.30865 2.56552 12.4743 118 114 111 
1.83136 4.35657 8.70251 167 149 125 
2.18741 -3.73676 8.98614 84 101 117 
1.7929 4.53121 8.05071 153 135 111 
1.25356 -5.19408 8.94613 105 122 130 
-1.10234 2.17928 7.90875 70 62 51 
3.18466 -2.97615 9.79392 63 82 96 
2.6599 -5.27625 9.14582 125 143 155 
1.46897 4.27144 8.79115 155 140 119 
3.53289 -2.16103 10.1732 56 72 85 
0.778723 4.28089 8.74587 157 140 114 
0.950811 4.60081 8.19475 154 137 111 
-1.49564 1.45919 12.0674 152 137 116 
2.66394 -5.28321 9.16107 125 143 155 
1.87107 -3.40429 8.83379 98 120 133 
-0.00687615 0.568368 15.0111 109 96 79 
1.49711 -4.33509 8.74211 113 131 141 
-0.720431 2.76477 7.3694 181 173 184 
3.73087 2.12059 12.7309 10 15 11 
-0.675307 2.81611 7.46538 7 2 8 
-0.668316 2.87722 7.49326 23 21 22 
-0.649904 2.76037 7.25735 42 41 37 
1.77475 2.26241 11.5211 56 88 85 
1.94072 2.28587 11.6045 175 164 158 
0.260513 2.66105 10.6561 180 166 155 
1.86036 2.3105 11.6467 155 172 166 
-0.64446 2.78633 7.25275 22 20 21 
0.267152 2.74038 10.9855 183 169 158 
1.97356 2.2216 11.5846 44 87 93 
1.98539 2.15112 11.5131 164 166 165 
1.74046 2.24356 11.4774 166 187 180 
1.70802 1.98 11.0507 142 154 154 
1.73934 2.21106 11.545 153 183 183 
1.67185 1.99935 11.1246 142 151 156 
1.94813 2.13976 11.4996 50 96 85 
1.79468 2.24397 11.5505 166 180 180 
1.84736 2.34744 11.689 51 89 90 
1.73237 2.00812 11.2133 151 151 151 
-0.187789 -2.13353 8.04926 125 140 147 
0.117761 0.641328 11.5658 12 12 12 
1.95063 2.14311 11.5117 43 94 85 
1.60175 2.2838 11.5726 180 170 161 
1.78444 2.41527 11.6862 49 90 94 
2.01661 2.07011 11.371 66 90 92 
1.68495 2.11451 11.3839 41 93 91 
1.71886 2.22935 11.4794 57 108 112 
0.73243 2.62216 11.0019 161 152 143 
-0.605542 2.02087 8.02205 184 144 119 
0.731756 2.61987 10.9942 165 156 147 
2.07487 2.18695 11.636 170 167 160 
1.41883 2.40834 11.4471 99 100 102 
-0.335751 4.28077 8.44646 131 103 81 
-0.160995 4.39848 8.19902 216 193 161 
-0.401041 4.34188 8.33295 189 165 141 
-0.167608 4.53325 7.94206 102 84 62 
1.87373 2.28002 11.6149 51 96 101 
2.12321 2.04584 11.3595 122 137 134 
-0.305331 2.68542 7.14569 15 5 4 
1.88886 2.16577 11.4954 170 163 155 
0.0979138 -2.63113 7.9159 109 126 133 
1.87713 2.28373 11.6386 52 91 96 
2.04205 2.19082 11.4996 171 166 162 
-0.147151 2.70713 10.2183 199 185 174 
3.5943 2.13869 12.691 20 16 13 
1.72405 2.23613 11.5146 55 110 115 
0.854513 2.4753 11.0047 124 136 134 
1.7941 2.23794 11.5891 145 166 161 
0.905727 2.63023 11.2099 99 101 90 
2.05278 2.21954 11.5963 159 160 154 
1.57801 -2.95519 8.31233 140 154 163 
-0.660202 4.63816 7.71309 202 181 152 
1.9593 2.2391 11.4875 159 163 164 
-0.661557 4.64579 7.72595 200 179 150 
-0.4736 4.53957 7.92581 182 163 133 
0.785551 2.62687 10.9937 86 81 75 
1.69849 2.1822 11.4356 47 103 102 
0.323791 2.44224 10.6136 165 155 143 
1.47459 2.46197 11.497 167 160 150 
0.850579 2.4638 10.9543 128 140 138 
-0.750827 4.62182 7.73942 173 149 121 
1.8463 2.19201 11.563 59 104 109 
1.4725 2.45841 11.4806 167 160 150 
-0.479979 4.12334 8.76936 195 168 141 
-0.0947462 4.33995 8.36653 201 176 146 
1.50259 2.547 11.7003 100 91 74 
-0.0711607 4.46946 8.05862 212 188 160 
1.85529 1.69638 10.8721 196 183 174 
1.77667 2.20617 11.505 71 91 89 
-0.136162 4.24401 8.42222 204 181 150 
1.42811 2.50598 11.5381 101 100 98 
-0.280483 4.25998 8.46084 207 180 151 
1.70436 2.30258 11.5536 181 174 168 
-0.137157 4.26893 8.47218 205 182 151 
-0.616018 2.74425 7.45381 66 56 55 
-0.144503 4.39321 8.24711 145 121 95 
-0.34611 2.69387 7.12421 13 4 9 
-0.299328 4.20801 8.67887 152 128 100 
-1.27117 1.52425 12.0085 203 175 138 
-0.484421 4.287 8.46717 156 134 110 
0.121211 4.51254 7.9444 209 188 157 
2.06888 2.07749 11.4003 86 100 101 
-0.297965 4.1986 8.65956 150 126 98 
-0.314199 4.21988 8.60087 158 132 97 
1.42699 2.50399 11.5288 101 100 98 
-0.612 2.72851 7.41044 67 57 56 
-0.645766 4.61896 7.78715 149 131 117 
0.360976 4.54922 7.76275 128 112 96 
-0.312675 4.20344 8.56711 157 131 98 
-0.191721 4.35217 8.30342 196 172 146 
1.77398 2.31765 11.5889 100 125 129 
0.964125 2.56813 11.2627 176 166 157 
0.0920344 4.43581 8.08976 159 138 109 
2.00249 2.31691 11.6911 59 94 96 
-0.135797 4.25143 8.53731 205 181 153 
-0.343144 4.19588 8.58004 195 170 139 
1.74106 -2.49862 8.6275 113 131 143 
-0.373417 4.18027 8.58256 195 170 140 
1.34874 2.46632 11.341 161 156 153 
3.61246 2.16182 12.67 121 120 118 
1.94576 2.1019 11.4678 124 136 132 
1.83536 -2.78994 8.72432 92 109 125 
-0.277109 4.07061 8.94504 162 137 106 
0.702305 2.56492 10.8801 172 162 153 
2.60401 -3.30164 9.15448 72 85 102 
0.744601 2.45329 10.8529 181 169 155 
-0.346041 2.04195 7.37143 160 147 128 
0.386941 2.60524 10.8579 38 35 30 
-0.0113346 4.48155 8.04318 162 138 110 
-0.503919 4.35611 8.38275 128 114 88 
2.02681 2.25599 11.6224 68 103 105 
2.02507 -2.91389 8.6999 114 131 139 
-0.678083 1.99103 7.95135 135 107 93 
0.137623 4.61858 7.71217 180 160 135 
0.854282 2.35848 11.0127 193 183 174 
-0.551995 4.48733 8.01717 166 148 124 
-0.0620078 2.85566 10.7469 185 171 158 
-0.737121 2.7533 7.40453 134 132 133 
3.08267 -3.131 9.38905 62 80 92 
1.70102 2.12794 11.2212 73 93 92 
-0.312116 4.48743 8.02338 195 171 145 
2.82217 -3.36941 9.20807 62 81 96 
2.66907 -2.52524 9.55903 59 80 99 
-0.303761 2.29278 10.8595 195 179 156 
1.87215 -2.67822 8.69421 125 139 152 
-1.17995 3.17391 7.57784 196 178 158 
-0.651947 4.53021 8.00281 146 131 112 
0.12621 4.33818 8.37056 176 152 126 
0.690279 2.62486 10.9907 140 144 143 
