ply                 
format ascii 1.0    
element vertex 1214
property float x    
property float y    
property float z    
property uchar red  
property uchar green
property uchar blue 
end_header          
-1.27665 -0.810459 3.41354 198 177 158 
-1.25824 -0.262008 3.38756 130 93 74 
-1.26624 -0.644777 3.39465 244 215 185 
-1.25952 -0.359752 3.38888 141 103 80 
-1.29768 -1.22298 3.44874 255 250 231 
-1.28675 -1.05056 3.43219 170 143 124 
-1.23756 0.103892 3.34391 254 237 219 
-1.29786 -1.28595 3.44786 237 209 188 
-1.29786 -1.28595 3.44786 237 209 188 
-1.25625 -0.294351 3.3875 244 208 182 
-1.25621 -0.25917 3.38967 252 224 203 
-1.2587 -0.414787 3.39197 177 137 112 
-1.2587 -0.414787 3.39197 177 137 112 
-1.27123 -0.783694 3.40947 199 178 159 
-1.28532 -1.10837 3.42846 170 139 119 
-1.29225 -1.24457 3.43911 233 200 169 
-1.25949 -0.508222 3.39469 173 145 123 
-1.2838 -1.07792 3.43091 250 218 197 
-1.29049 -1.23711 3.43995 188 154 129 
-1.25374 -0.328272 3.38886 241 209 184 
-1.25976 -0.670549 3.39181 139 104 82 
-1.26402 -0.607715 3.40666 248 224 200 
-1.281 -1.05236 3.4279 192 163 145 
-1.28093 -1.10245 3.4256 254 248 222 
-1.28093 -1.10245 3.4256 254 248 222 
-1.25961 -0.666157 3.39404 224 193 172 
-1.25386 -0.426079 3.38935 241 209 186 
-1.2803 -1.11811 3.42437 255 241 220 
-1.26695 -0.798991 3.40808 255 244 226 
-1.26621 -0.777318 3.40754 255 245 227 
-1.25056 -0.296764 3.38744 229 201 179 
-1.25147 -0.388408 3.38773 221 183 160 
-1.22424 0.226812 3.32537 252 233 218 
-1.25166 -0.438913 3.38973 223 180 161 
-1.22277 0.14804 3.32365 249 223 206 
-1.24557 -0.177305 3.38414 196 167 151 
-1.25294 -0.685033 3.38678 244 209 189 
-1.25665 -0.647243 3.39934 252 236 210 
-1.25947 -0.778931 3.39983 155 134 113 
-1.26697 -0.910272 3.41274 211 192 175 
-1.28176 -1.23665 3.43513 255 246 226 
-1.26515 -0.903458 3.41128 165 144 125 
-1.27246 -1.09088 3.42064 177 146 125 
-1.247 -0.36725 3.38918 93 60 43 
-1.26873 -1.0537 3.41373 253 237 222 
-1.26638 -0.936308 3.41563 206 187 172 
-1.27287 -1.10599 3.42447 211 181 157 
-1.24749 -0.436166 3.39274 122 81 61 
-1.23954 -0.0928139 3.38268 208 182 157 
-1.24482 -0.309334 3.39369 107 72 50 
-1.2128 0.207647 3.31507 196 177 163 
-1.21219 0.240267 3.31402 255 249 233 
-1.27453 -1.2451 3.42835 244 210 185 
-1.26255 -1.03904 3.41124 189 164 142 
-1.24592 -0.522036 3.39508 99 69 45 
-1.24385 -0.438249 3.39355 207 166 146 
-1.26479 -1.08895 3.41604 255 251 226 
-1.21211 0.091469 3.31979 191 164 147 
-1.23907 -0.733744 3.36908 140 110 86 
-1.26988 -1.23124 3.42565 244 223 206 
-1.2479 -0.845664 3.39049 251 230 209 
-1.23732 -0.206763 3.38963 200 169 148 
-1.2639 -1.18652 3.41492 178 138 112 
-1.21572 -0.0359374 3.33533 253 240 224 
-1.24697 -0.819738 3.39241 208 189 174 
-1.26913 -1.24492 3.42727 172 140 115 
-1.2369 -0.729302 3.37115 205 173 150 
-1.26569 -1.22184 3.42145 255 248 235 
-1.24037 -0.702693 3.38341 252 234 210 
-1.25911 -1.07913 3.41216 247 228 211 
-1.25525 -1.03482 3.40496 188 159 141 
-1.25525 -1.03482 3.40496 188 159 141 
-1.26592 -1.23791 3.42276 254 242 220 
-1.25124 -0.890183 3.40454 253 244 227 
-1.2616 -1.1829 3.41518 153 118 90 
-1.2616 -1.1829 3.41518 153 118 90 
-1.26517 -1.29697 3.41947 233 216 190 
-1.20685 0.0241347 3.31968 223 194 176 
-1.23474 -0.338853 3.38986 231 201 177 
-1.20125 0.230684 3.30631 205 182 168 
-1.24431 -0.833087 3.39398 250 234 218 
-1.25297 -1.03958 3.40559 187 158 140 
-1.20188 0.117114 3.31012 197 176 157 
-1.20506 0.00218082 3.31862 220 198 177 
-1.2591 -1.17167 3.4179 240 206 181 
-1.23791 -0.841618 3.3847 170 143 122 
-1.20955 -0.079438 3.33909 229 205 177 
-1.25617 -1.3005 3.41028 173 159 146 
-1.19527 0.198762 3.3038 183 156 139 
-1.24739 -1.12378 3.39854 253 231 208 
-1.25719 -1.24032 3.41994 222 186 160 
-1.23131 -0.819586 3.37617 254 241 224 
-1.2554 -1.26479 3.41548 165 121 94 
-1.19548 0.120393 3.30822 255 232 216 
-1.22939 -0.681386 3.38037 198 163 143 
-1.24313 -1.02645 3.39978 175 146 128 
-1.22655 -0.360516 3.39071 118 98 89 
-1.2402 -1.05106 3.39343 254 246 225 
-1.22683 -0.692855 3.378 200 168 147 
-1.18906 0.15123 3.29716 196 169 150 
-1.18653 0.234578 3.29357 253 237 222 
-1.23341 -0.931309 3.38625 217 194 178 
-1.22448 -0.389059 3.38928 163 145 135 
-1.22055 -0.750431 3.363 142 110 89 
-1.22273 -0.705728 3.37213 108 68 43 
-1.24236 -1.18951 3.39871 248 223 201 
-1.23764 -0.977131 3.40033 255 236 221 
-1.23759 -1.12951 3.39183 206 165 145 
-1.18312 0.154696 3.29132 255 235 216 
-1.22893 -0.943203 3.38094 220 202 188 
-1.23387 -1.03137 3.39041 253 228 206 
-1.23388 -1.03975 3.39224 179 144 122 
-1.23388 -1.03975 3.39224 179 144 122 
-1.23019 -1.00244 3.38475 248 229 212 
-1.23446 -1.07178 3.39227 177 148 130 
-1.2207 -0.635929 3.38038 229 191 170 
-1.22102 -0.626808 3.38393 231 195 169 
-1.19072 -0.0444441 3.31864 153 125 103 
-1.18335 0.101104 3.29992 189 161 140 
-1.22106 -0.619922 3.38704 119 83 59 
-1.23034 -1.06553 3.38708 255 234 213 
-1.23061 -1.04622 3.38924 255 239 221 
-1.1814 0.0591646 3.30038 178 156 135 
-1.1814 0.0591646 3.30038 178 156 135 
-1.21761 -0.632571 3.38188 171 130 108 
-1.23413 -1.19494 3.39515 167 137 113 
-1.22424 -1.00001 3.38169 193 172 155 
-1.21726 -0.852854 3.37224 254 234 210 
-1.22071 -0.929769 3.37907 216 193 177 
-1.23234 -1.23482 3.39281 170 132 109 
-1.22435 -1.0828 3.38152 255 234 213 
-1.17286 0.207131 3.28502 181 159 138 
-1.17181 0.202029 3.28526 255 238 222 
-1.17072 0.185935 3.28292 241 218 200 
-1.17529 0.0946266 3.2957 255 242 226 
-1.22209 -1.04381 3.38262 247 226 207 
-1.21734 -0.957595 3.37549 190 168 154 
-1.17535 0.0366624 3.29667 255 240 219 
-1.22271 -1.13396 3.38149 175 143 120 
-1.19754 -0.175948 3.36011 169 160 153 
-1.20318 -0.76229 3.3526 247 219 198 
-1.20643 -0.826939 3.35827 153 134 117 
-1.22436 -1.19324 3.38657 172 134 113 
-1.22436 -1.19324 3.38657 172 134 113 
-1.20881 -0.865906 3.36439 238 210 186 
-1.22583 -1.21676 3.38965 182 145 118 
-1.21942 -1.0835 3.38035 242 210 187 
-1.21463 -0.979518 3.3737 174 155 140 
-1.21463 -0.979518 3.3737 174 155 140 
-1.20743 -0.853618 3.36281 176 148 127 
-1.21073 -0.608513 3.38589 87 76 72 
-1.20875 -0.888494 3.36484 252 233 218 
-1.21533 -1.026 3.37558 181 154 135 
-1.21739 -1.08655 3.37849 150 115 95 
-1.20754 -0.532094 3.38512 162 151 147 
-1.1995 -0.746985 3.35257 223 186 160 
-1.21641 -1.12726 3.37685 251 229 206 
-1.20291 -0.862972 3.35686 212 182 158 
-1.20459 -0.632116 3.3751 233 209 181 
-1.15895 0.28813 3.27082 252 231 214 
-1.19968 -0.859798 3.35633 185 153 130 
-1.21051 -1.07377 3.37399 171 136 114 
-1.21051 -1.07377 3.37399 171 136 114 
-1.2196 -1.28283 3.38739 176 140 116 
-1.20289 -0.602467 3.38335 91 82 77 
-1.16774 -0.0402486 3.30146 202 174 152 
-1.1918 -0.778941 3.34364 249 217 192 
-1.2153 -1.2305 3.38258 150 126 102 
-1.21507 -1.2373 3.38259 255 244 222 
-1.20897 -1.1522 3.37244 254 237 211 
-1.21527 -1.25018 3.38529 255 240 214 
-1.21527 -1.25018 3.38529 255 240 214 
-1.20559 -1.12898 3.36897 249 219 195 
-1.20123 -1.05948 3.36149 189 157 134 
-1.19347 -0.84764 3.35409 255 242 225 
-1.19353 -0.852267 3.35534 187 162 142 
-1.21028 -1.18905 3.38149 164 129 109 
-1.20742 -1.16047 3.37545 173 138 110 
-1.19691 -0.959159 3.35951 170 140 116 
-1.20048 -1.03518 3.36675 255 238 220 
-1.20553 -1.19359 3.37064 178 147 126 
-1.18317 -0.658852 3.34203 227 192 170 
-1.19514 -0.998632 3.35917 200 178 157 
-1.2013 -1.17086 3.36701 142 106 84 
-1.19984 -1.12638 3.36733 208 181 160 
-1.18137 -0.769318 3.33789 160 114 90 
-1.19335 -0.988007 3.35974 228 209 192 
-1.2046 -1.25456 3.37523 166 132 107 
-1.20447 -1.2482 3.37578 237 207 181 
-1.18513 -0.855054 3.34737 189 163 140 
-1.18889 -0.970527 3.35208 214 195 178 
-1.1945 -1.04713 3.3634 253 232 215 
-1.19354 -1.05626 3.36036 254 246 227 
-1.19245 -1.06091 3.35697 242 221 202 
-1.19031 -1.02477 3.35883 202 181 164 
-1.17605 -0.773989 3.33431 149 103 77 
-1.19356 -1.13091 3.3619 255 233 210 
-1.184 -0.938065 3.34871 161 140 121 
-1.18495 -0.959524 3.3506 195 170 150 
-1.18488 -0.964879 3.35118 255 235 222 
-1.17502 -0.742152 3.34129 91 58 51 
-1.18955 -1.15731 3.35867 174 134 109 
-1.19464 -1.24951 3.36745 173 138 116 
-1.1934 -1.22059 3.36713 169 132 105 
-1.18467 -1.02604 3.35512 208 186 173 
-1.18924 -1.20777 3.36349 255 249 225 
-1.18236 -1.12263 3.34946 157 120 101 
-1.18417 -1.1616 3.35385 254 236 214 
-1.16201 -0.811667 3.31643 173 146 119 
-1.18227 -1.17915 3.35589 156 124 103 
-1.16919 -0.734466 3.34937 172 140 119 
-1.16244 -0.781579 3.32803 170 126 99 
-1.17955 -1.19991 3.35435 255 239 216 
-1.16054 -0.776649 3.32664 250 218 195 
-1.16721 -0.937897 3.33605 246 221 199 
-1.17002 -1.07929 3.33678 254 236 216 
-1.1718 -1.04557 3.34445 253 237 221 
-1.17306 -1.12533 3.34304 194 167 146 
-1.16347 -0.746072 3.34154 185 153 132 
-1.16865 -0.999853 3.34152 255 238 222 
-1.1699 -1.12887 3.33838 254 242 220 
-1.17626 -1.21028 3.35478 254 237 211 
-1.17626 -1.21028 3.35478 254 237 211 
-1.15974 -0.880862 3.32878 203 178 158 
-1.16624 -1.04059 3.34107 205 182 168 
-1.1511 -0.806019 3.31332 243 221 198 
-1.17095 -1.25004 3.34768 240 215 195 
-1.15657 -0.964981 3.32737 230 209 188 
-1.15741 -0.962362 3.33109 139 118 99 
-1.14986 -0.851141 3.31698 213 192 173 
-1.1538 -0.938085 3.32354 200 179 160 
-1.16836 -1.2456 3.34623 232 206 181 
-1.16445 -1.16672 3.3412 255 235 214 
-1.14009 -0.531225 3.30835 248 220 198 
-1.16101 -1.10386 3.33583 255 232 212 
-1.1553 -0.980183 3.32881 248 226 205 
-1.14592 -0.765144 3.31637 75 46 40 
-1.16274 -1.1776 3.34011 248 214 189 
-1.15663 -1.03954 3.33209 201 175 160 
-1.13618 -0.448272 3.30664 112 82 56 
-1.14991 -0.901782 3.32553 194 167 150 
-1.13732 -0.576811 3.30718 252 222 198 
-1.13722 -0.526993 3.30946 144 114 90 
-1.16295 -1.21137 3.34443 250 220 194 
-1.1371 -0.538693 3.31081 169 139 113 
-1.13636 -0.561648 3.30868 98 70 48 
-1.13676 -0.555774 3.31034 104 78 55 
-1.13466 -0.614177 3.30167 178 143 111 
-1.16276 -1.25148 3.34448 250 226 202 
-1.14632 -0.941368 3.31813 253 231 210 
-1.16078 -1.27836 3.33946 243 217 192 
-1.14935 -0.986414 3.32658 164 127 101 
-1.15845 -1.22634 3.3378 138 96 71 
-1.138 -0.83352 3.30368 247 229 209 
-1.14134 -0.872043 3.313 242 224 200 
-1.13056 -0.619732 3.29823 156 117 84 
-1.14501 -0.97462 3.32237 249 227 206 
-1.14614 -1.0102 3.32522 195 159 135 
-1.14292 -0.962264 3.31963 170 143 122 
-1.14539 -1.03418 3.32307 252 230 207 
-1.13779 -0.888616 3.31192 212 191 172 
-1.1278 -0.616167 3.29892 253 218 186 
-1.15366 -1.24429 3.33607 155 119 93 
-1.14526 -1.11795 3.32108 248 229 212 
-1.14221 -1.04214 3.31911 255 248 232 
-1.13338 -0.862265 3.3075 245 220 200 
-1.136 -0.903957 3.31378 195 169 152 
-1.14132 -1.07001 3.31974 255 248 232 
-1.14899 -1.26278 3.33052 152 115 88 
-0.921261 -0.179061 2.71477 126 101 61 
-1.14484 -1.17901 3.32403 176 134 109 
-1.14987 -1.24951 3.33531 241 209 184 
-1.14003 -1.09537 3.31702 185 152 133 
-1.14003 -1.09537 3.31702 185 152 133 
-1.13708 -0.993772 3.31553 172 134 111 
-1.14766 -1.27224 3.33006 236 213 199 
-1.14585 -1.21721 3.32911 171 137 110 
-1.13728 -1.08843 3.31418 255 244 224 
-1.13728 -1.08843 3.31418 255 244 224 
-1.12567 -0.547962 3.31207 220 194 169 
-1.14126 -1.1389 3.32278 255 248 230 
-1.13869 -1.05355 3.32255 200 173 152 
-1.13671 -1.0403 3.3192 193 168 146 
-1.13566 -1.05791 3.31561 254 237 209 
-1.11655 -0.640546 3.28611 135 94 64 
-1.11655 -0.640546 3.28611 135 94 64 
-1.13568 -1.03551 3.32006 255 230 210 
-1.13568 -1.03551 3.32006 255 230 210 
-1.12237 -0.846487 3.29689 245 224 207 
-1.12141 -0.828032 3.2951 203 180 162 
-1.1416 -1.28602 3.32561 247 230 210 
-1.11272 -0.644187 3.28181 156 117 88 
-1.11272 -0.644187 3.28181 156 117 88 
-1.14225 -1.24566 3.33151 253 243 218 
-1.11395 -0.636595 3.28683 229 192 163 
-1.13257 -1.06853 3.3159 192 156 134 
-1.12842 -1.00222 3.3086 203 169 144 
-1.11469 -0.630332 3.29057 186 151 119 
-1.11469 -0.630332 3.29057 186 151 119 
-1.12788 -0.981326 3.30885 250 229 212 
-1.11454 -0.623572 3.29587 254 223 192 
-1.11065 -0.640602 3.2838 230 191 162 
-1.11718 -0.855645 3.29137 192 164 142 
-1.12769 -1.05956 3.30973 178 142 116 
-1.11495 -0.441372 3.30637 99 76 58 
-1.11792 -0.597257 3.30862 124 91 72 
-0.923379 -0.217943 2.74352 145 118 91 
-1.12185 -0.944126 3.30159 214 193 174 
-1.11355 -0.458499 3.30924 171 152 145 
-1.10849 -0.637549 3.28678 166 129 100 
-1.11707 -0.936731 3.29643 225 206 191 
-1.11729 -0.949127 3.29682 213 190 172 
-1.12537 -1.16553 3.31027 192 169 151 
-1.12628 -1.17466 3.31286 255 233 212 
-1.11021 -0.861163 3.28614 255 238 220 
-1.11118 -0.606246 3.30474 90 67 49 
-1.11491 -0.95295 3.29613 252 235 217 
-1.11953 -1.06944 3.30288 192 163 145 
-1.10899 -0.60325 3.30438 187 173 160 
-1.1032 -0.80314 3.27609 255 238 218 
-1.12522 -1.2549 3.31335 249 228 207 
-1.11357 -1.00827 3.29649 255 241 222 
-1.11357 -1.00827 3.29649 255 241 222 
-1.11617 -1.06148 3.30253 253 232 213 
-1.10625 -0.598896 3.30223 130 119 113 
-1.09614 -0.698421 3.26941 154 121 102 
-1.12193 -1.28347 3.30907 177 142 120 
-1.12193 -1.28347 3.30907 177 142 120 
-1.1117 -1.08449 3.29372 255 242 223 
-1.11407 -1.14251 3.29711 254 233 214 
-1.10789 -0.949623 3.29172 187 162 142 
-1.10789 -0.949623 3.29172 187 162 142 
-1.11203 -1.0998 3.29455 254 231 213 
-1.10537 -0.895115 3.29012 250 235 216 
-1.09443 -0.791443 3.26891 206 179 160 
-1.09178 -0.665187 3.27052 181 148 129 
-1.09358 -0.673065 3.27579 98 65 46 
-1.09901 -0.566965 3.29888 203 192 188 
-1.11357 -1.20343 3.30324 252 239 223 
-1.10449 -1.01849 3.29048 254 233 216 
-1.10754 -1.13749 3.29145 165 139 122 
-1.11348 -1.24599 3.30383 254 239 216 
-0.894744 -0.187442 2.69878 229 206 192 
-1.11336 -1.25135 3.30339 254 242 218 
-0.886242 0.108127 2.6792 255 236 217 
-0.886242 0.108127 2.6792 255 236 217 
-1.09044 -0.794553 3.2668 253 235 213 
-1.09263 -0.493513 3.29117 212 203 198 
-1.09512 -0.864451 3.27966 254 239 220 
-1.09509 -0.559171 3.29799 109 100 93 
-1.08748 -0.665812 3.27143 245 212 195 
-1.09504 -0.9032 3.28052 182 154 133 
-1.10626 -1.20517 3.29401 208 179 165 
-1.09274 -0.587474 3.29256 109 106 101 
-1.09986 -1.01527 3.28917 252 229 211 
-1.0886 -0.800395 3.27078 183 155 134 
-1.10466 -1.19066 3.29393 255 250 234 
-1.09637 -1.00201 3.28307 157 130 109 
-0.885715 -0.130315 2.68491 249 233 208 
-1.08485 -0.804917 3.26573 183 155 133 
-1.0874 -0.855694 3.27208 249 224 202 
-1.0869 -0.876818 3.2714 165 134 116 
-1.08961 -0.920026 3.27898 186 142 115 
-1.08589 -0.590527 3.2886 182 179 174 
-1.09809 -1.21088 3.28689 255 254 234 
-1.09309 -1.09855 3.28115 206 176 152 
-1.09393 -1.14163 3.28167 248 231 215 
-1.09423 -1.13534 3.28473 196 170 155 
-1.09423 -1.13534 3.28473 196 170 155 
-1.07976 -0.807591 3.2631 253 237 221 
-1.07976 -0.807591 3.2631 253 237 221 
-1.08349 -0.93435 3.2684 255 243 227 
-1.08349 -0.93435 3.2684 255 243 227 
-1.09546 -1.25669 3.28716 254 242 220 
-0.868473 0.213962 2.65506 216 195 176 
-1.0877 -1.10169 3.27884 227 199 175 
-1.08722 -1.13668 3.27705 202 170 157 
-1.08386 -1.07686 3.27512 255 248 235 
-0.886895 -0.214617 2.71604 111 84 55 
-0.886613 -0.220193 2.71701 145 115 87 
-1.07542 -0.953448 3.26531 173 141 118 
-1.07463 -0.92926 3.26565 243 220 206 
-1.08384 -1.21671 3.27866 255 250 231 
-1.07154 -0.95836 3.26119 255 244 226 
-1.0716 -1.00458 3.26352 253 231 218 
-1.06394 -0.833257 3.25151 255 240 217 
-1.07384 -1.14746 3.26223 255 250 234 
-1.07384 -1.14746 3.26223 255 250 234 
-1.08033 -1.2466 3.27721 154 119 99 
-1.07206 -1.13974 3.26568 180 144 120 
-1.08071 -1.2735 3.28439 255 250 231 
-1.06756 -1.02785 3.26108 255 241 228 
-1.0654 -0.99654 3.26066 255 239 223 
-1.06482 -1.02581 3.25951 254 248 232 
-1.06581 -1.07971 3.25952 191 165 152 
-1.06754 -1.1166 3.26348 251 229 215 
-1.06754 -1.1166 3.26348 251 229 215 
-0.90764 -0.529697 2.80298 254 235 220 
-1.07355 -1.27826 3.27693 235 208 189 
-1.06203 -1.10443 3.255 255 245 227 
-1.07146 -1.25804 3.27598 254 254 244 
-0.901433 -0.451966 2.79539 223 203 192 
-0.853209 -0.0698274 2.66112 188 156 131 
-1.05716 -1.12471 3.25312 178 142 120 
-1.05716 -1.12471 3.25312 178 142 120 
-0.850289 -0.118688 2.65694 210 209 144 
-0.906782 -0.777511 2.80969 254 246 225 
-1.05451 -1.15562 3.2517 178 154 130 
-0.848624 -0.180272 2.6567 158 131 110 
-1.05234 -1.16083 3.24791 242 218 194 
-0.900864 -0.666465 2.80269 254 240 231 
-1.05063 -1.13126 3.24538 252 240 224 
-1.04933 -1.10829 3.24413 176 149 130 
-1.04933 -1.10829 3.24413 176 149 130 
-0.903864 -0.77553 2.80894 215 194 175 
-1.05756 -1.25099 3.26367 176 147 129 
-0.888496 -0.404435 2.78553 254 245 228 
-0.887554 -0.39178 2.78398 192 163 145 
-1.05636 -1.26945 3.26525 184 144 118 
-1.0435 -1.0851 3.24192 255 243 227 
-1.04373 -1.12332 3.24248 184 157 138 
-1.04701 -1.19906 3.24754 127 91 69 
-0.900561 -0.836346 2.8089 225 199 176 
-0.884234 -0.369636 2.7832 171 143 122 
-0.884213 -0.369786 2.78335 176 148 127 
-1.04778 -1.20423 3.25235 135 94 74 
-1.04115 -1.10289 3.24043 255 252 235 
-0.85293 -0.216631 2.69273 134 109 79 
-0.886449 -0.53788 2.7884 253 238 219 
-0.897452 -0.849615 2.80582 254 243 213 
-0.893054 -0.747605 2.79965 218 201 185 
-1.0428 -1.20063 3.24909 204 168 144 
-0.883284 -0.567059 2.78452 252 233 216 
-1.03879 -1.1703 3.24281 213 176 150 
-0.894319 -0.845063 2.80437 180 154 127 
-0.894319 -0.845063 2.80437 180 154 127 
-0.894319 -0.845063 2.80437 180 154 127 
-1.0333 -1.11045 3.23125 246 225 208 
-0.876423 -0.400155 2.77594 186 153 134 
-0.881745 -0.575906 2.78586 241 218 202 
-1.03532 -1.1732 3.24016 117 75 51 
-0.892188 -0.862016 2.80328 196 178 158 
-0.892188 -0.862016 2.80328 196 178 158 
-0.883826 -0.661396 2.79079 255 247 234 
-1.03059 -1.14208 3.23043 178 142 116 
-0.870846 -0.306482 2.76837 251 223 201 
-1.0287 -1.10321 3.23056 214 183 165 
-1.02795 -1.1076 3.22919 166 140 123 
-0.879337 -0.610876 2.78619 252 231 212 
-0.883939 -0.794024 2.79264 204 178 161 
-0.876602 -0.535839 2.78508 184 157 138 
-0.869064 -0.366458 2.76885 244 218 193 
-0.875003 -0.569496 2.78022 192 171 150 
-0.867572 -0.397671 2.76613 249 222 201 
-0.875796 -0.584975 2.78396 209 182 161 
-0.849361 -0.250193 2.71671 129 102 83 
-0.878472 -0.726416 2.78872 236 213 195 
-0.881961 -0.844181 2.79413 154 128 111 
-0.846364 -0.253066 2.71466 214 187 168 
-0.870506 -0.631726 2.77891 246 225 204 
-0.873224 -0.686246 2.78455 255 250 234 
-0.819444 -0.179401 2.6334 144 114 88 
-0.873335 -0.722281 2.7834 167 145 124 
-0.876515 -0.799804 2.78885 255 240 224 
-0.876515 -0.799804 2.78885 255 240 224 
-0.878192 -0.858783 2.79168 234 211 193 
-0.876183 -0.827654 2.78906 250 225 205 
-0.859006 -0.365198 2.75968 244 216 194 
-0.874262 -0.804613 2.78798 255 242 226 
-0.862185 -0.495658 2.76706 220 187 168 
-0.862185 -0.495658 2.76706 220 187 168 
-1.01328 -1.12089 3.21848 181 153 131 
-0.816091 -0.183267 2.63008 233 206 187 
-0.874991 -0.857372 2.79037 164 142 121 
-0.874991 -0.857372 2.79037 164 142 121 
-1.01509 -1.17393 3.22529 168 128 103 
-1.01091 -1.10571 3.21723 254 238 213 
-1.01297 -1.16251 3.21999 166 132 105 
-1.01417 -1.20345 3.22151 170 125 104 
-0.861659 -0.53533 2.76982 176 151 131 
-0.85433 -0.337624 2.75588 183 146 119 
-0.865132 -0.664357 2.77516 195 168 149 
-0.854826 -0.359639 2.7588 152 119 100 
-1.0086 -1.10927 3.21776 184 154 130 
-0.825503 -0.217206 2.67086 130 107 89 
-0.870475 -0.827969 2.78691 88 63 41 
-1.00925 -1.21122 3.21924 255 242 223 
-1.00291 -1.08651 3.20895 200 169 149 
-1.00392 -1.10413 3.21223 255 236 211 
-0.848011 -0.323391 2.75073 173 141 120 
-0.866335 -0.824774 2.78461 240 215 193 
-0.866335 -0.824774 2.78461 240 215 193 
-0.861904 -0.761654 2.77595 197 176 159 
-1.00474 -1.19833 3.2163 255 246 231 
-0.845919 -0.319424 2.74973 226 212 209 
-0.857317 -0.694414 2.77107 163 137 112 
-0.863711 -0.848592 2.78237 176 154 131 
-0.805741 -0.186599 2.62759 239 216 198 
-0.846769 -0.426883 2.75436 247 222 202 
-0.851911 -0.565248 2.76457 232 203 185 
-0.999008 -1.17962 3.2122 154 119 97 
-0.852606 -0.672146 2.76663 247 219 198 
-1.00294 -1.29132 3.22004 220 193 172 
-0.850488 -0.635781 2.76283 253 230 212 
-0.842976 -0.424775 2.75017 194 163 145 
-0.80242 -0.152163 2.62614 134 108 85 
-0.852325 -0.694441 2.7686 252 228 202 
-0.849257 -0.628383 2.76355 240 219 198 
-0.99586 -1.22828 3.21027 255 250 226 
-0.991435 -1.13964 3.20242 255 244 226 
-0.85368 -0.792258 2.77247 198 180 160 
-0.836164 -0.314261 2.7459 255 253 238 
-0.836164 -0.314261 2.7459 255 253 238 
-0.852643 -0.846196 2.77192 233 213 189 
-0.852643 -0.846196 2.77192 233 213 189 
-0.987808 -1.13388 3.20091 163 131 108 
-0.851449 -0.825837 2.77103 237 217 192 
-0.835676 -0.393405 2.74341 246 229 209 
-0.994455 -1.25871 3.21512 182 146 120 
-0.986639 -1.14315 3.19791 199 178 159 
-0.79841 -0.0472279 2.63041 81 58 42 
-0.837589 -0.517461 2.74815 224 198 183 
-0.806545 -0.217198 2.65744 129 110 93 
-0.848356 -0.792876 2.76824 254 232 208 
-0.84869 -0.786748 2.77224 247 234 225 
-0.990404 -1.28908 3.2108 84 55 37 
-0.844652 -0.760372 2.76299 254 251 236 
-0.843031 -0.730521 2.75983 252 239 222 
-0.841195 -0.701611 2.7575 255 237 215 
-0.839109 -0.6509 2.75447 190 159 138 
-0.980583 -1.14707 3.19398 178 150 128 
-0.82788 -0.384765 2.73488 254 233 214 
-0.82983 -0.427519 2.73969 222 194 180 
-0.825139 -0.352865 2.73411 243 217 194 
-0.84068 -0.80296 2.7634 228 207 176 
-0.825179 -0.370997 2.73585 254 228 211 
-0.828727 -0.530199 2.74078 254 237 221 
-0.974884 -1.15475 3.18948 167 141 124 
-0.974884 -1.15475 3.18948 167 141 124 
-0.842795 -0.846674 2.76889 144 114 88 
-0.973401 -1.16317 3.18476 170 133 106 
-0.828204 -0.543236 2.7415 214 192 178 
-0.828204 -0.543236 2.7415 214 192 178 
-0.828973 -0.567316 2.74596 179 158 139 
-0.794705 -0.221978 2.64681 252 231 210 
-0.792339 -0.174918 2.64038 165 138 117 
-0.824608 -0.526819 2.73805 204 183 166 
-0.830471 -0.7213 2.75141 188 167 148 
-0.829765 -0.72696 2.75085 200 174 157 
-0.826854 -0.659991 2.74718 233 206 185 
-0.969516 -1.20416 3.19125 189 162 145 
-0.970532 -1.25674 3.19506 254 234 210 
-0.789609 -0.204872 2.64591 125 96 78 
-0.967108 -1.18742 3.19105 255 235 208 
-0.816246 -0.506022 2.73205 222 199 183 
-0.823227 -0.691374 2.74556 217 190 171 
-0.960825 -1.17424 3.17885 255 252 230 
-0.811886 -0.364913 2.72588 251 220 199 
-0.958738 -1.14984 3.17663 253 245 226 
-0.81256 -0.42982 2.7273 255 234 215 
-0.813361 -0.490375 2.72841 228 197 177 
-0.811106 -0.378753 2.72689 199 166 147 
-0.814582 -0.539685 2.73218 245 228 212 
-0.810054 -0.353724 2.72569 147 117 93 
-0.817776 -0.675773 2.74062 245 223 199 
-0.822609 -0.820322 2.74832 115 88 69 
-0.81222 -0.549067 2.73002 247 229 215 
-0.955218 -1.17233 3.17579 175 158 140 
-0.807716 -0.367575 2.72345 190 162 140 
-0.807565 -0.381217 2.72315 185 154 136 
-0.952774 -1.11953 3.17518 158 132 117 
-0.954633 -1.20346 3.17728 243 217 202 
-0.783815 -0.177801 2.65382 42 26 11 
-0.783634 -0.210067 2.65322 72 54 34 
-0.804808 -0.369527 2.72343 255 235 216 
-0.950429 -1.14605 3.17618 163 121 96 
-0.950429 -1.14605 3.17618 163 121 96 
-0.949221 -1.17612 3.17053 254 254 228 
-0.813937 -0.757499 2.73921 251 233 219 
-0.810306 -0.67847 2.73386 251 227 203 
-0.809915 -0.675289 2.73429 189 163 138 
-0.948361 -1.21467 3.17249 179 156 138 
-0.808625 -0.662792 2.73469 230 211 196 
-0.804882 -0.567606 2.72745 248 227 206 
-0.943092 -1.13657 3.16837 249 221 197 
-0.780797 -0.249277 2.6643 152 131 110 
-0.808583 -0.764769 2.73455 252 230 216 
-0.808583 -0.764769 2.73455 252 230 216 
-0.94242 -1.17479 3.16655 170 129 107 
-0.811313 -0.823698 2.74058 112 88 60 
-0.778508 -0.168961 2.66179 55 45 36 
-0.799978 -0.540502 2.72263 161 134 115 
-0.806786 -0.761426 2.73347 189 167 154 
-0.777576 -0.164602 2.66112 180 165 146 
-0.939258 -1.1533 3.16395 138 100 81 
-0.799658 -0.572679 2.72195 166 139 118 
-0.799685 -0.563821 2.72303 188 166 145 
-0.775101 -0.0486539 2.65821 221 200 169 
-0.794179 -0.430241 2.71271 187 152 130 
-0.805348 -0.77285 2.732 229 210 195 
-0.804727 -0.781901 2.73281 173 156 140 
-0.776884 -0.248752 2.66464 200 173 154 
-0.801873 -0.716089 2.72911 247 226 207 
-0.803822 -0.775446 2.73294 246 227 212 
-0.939175 -1.29051 3.16524 178 151 130 
-0.795975 -0.566611 2.72066 239 220 203 
-0.934208 -1.13328 3.16262 166 130 106 
-0.775148 -0.240277 2.66376 117 92 72 
-0.932622 -1.13752 3.15843 254 234 210 
-0.932622 -1.13752 3.15843 254 234 210 
-0.798433 -0.676073 2.72517 210 186 162 
-0.775925 -0.261581 2.66763 218 197 178 
-0.79955 -0.810647 2.73056 225 204 183 
-0.79687 -0.768192 2.72788 194 173 156 
-0.79687 -0.768192 2.72788 194 173 156 
-0.769884 -0.0633289 2.6648 200 178 155 
-0.785234 -0.494598 2.70624 213 178 158 
-0.796559 -0.813616 2.72674 230 209 188 
-0.924438 -1.13812 3.15478 243 216 195 
-0.796421 -0.843645 2.7287 161 139 116 
-0.779669 -0.37065 2.69757 255 239 219 
-0.780197 -0.366994 2.70047 206 179 158 
-0.780131 -0.392394 2.70051 202 185 169 
-0.780948 -0.43833 2.70159 180 143 116 
-0.787211 -0.678046 2.71634 207 186 165 
-0.785264 -0.673395 2.71411 254 236 216 
-0.777149 -0.436194 2.69918 249 215 190 
-0.766345 -0.206768 2.67319 108 77 57 
-0.766345 -0.206768 2.67319 108 77 57 
-0.914819 -1.16106 3.14313 253 238 215 
-0.776511 -0.519664 2.70129 253 226 207 
-0.776511 -0.519664 2.70129 253 226 207 
-0.914829 -1.17796 3.14486 169 129 104 
-0.773404 -0.434583 2.69637 207 171 149 
-0.772575 -0.42693 2.69723 202 175 156 
-0.911047 -1.14843 3.14143 200 172 148 
-0.783478 -0.808118 2.71725 176 152 128 
-0.772487 -0.517839 2.69811 192 165 146 
-0.780309 -0.786373 2.71298 176 159 141 
-0.76671 -0.443967 2.68967 80 43 24 
-0.76671 -0.443967 2.68967 80 43 24 
-0.767977 -0.509362 2.69138 253 227 210 
-0.760971 -0.177456 2.67884 79 53 38 
-0.763209 -0.349 2.6827 223 198 178 
-0.76345 -0.342824 2.68386 253 230 212 
-0.762805 -0.283808 2.68378 116 89 68 
-0.779718 -0.858006 2.71267 203 183 159 
-0.766777 -0.486377 2.69206 228 202 179 
-0.77754 -0.771604 2.71358 174 149 129 
-0.763306 -0.372132 2.6865 246 215 195 
-0.762765 -0.387378 2.68636 248 219 201 
-0.762765 -0.387378 2.68636 248 219 201 
-0.763139 -0.401531 2.68718 245 228 212 
-0.762568 -0.369214 2.68723 246 215 195 
-0.766901 -0.562444 2.69408 187 161 138 
-0.773428 -0.776906 2.7051 183 158 138 
-0.758957 -0.173786 2.68265 235 212 198 
-0.76406 -0.507408 2.68955 244 215 197 
-0.762963 -0.491773 2.6884 238 207 186 
-0.759077 -0.231897 2.68459 193 164 146 
-0.76667 -0.746437 2.68631 220 199 180 
-0.762079 -0.453877 2.68813 118 88 64 
-0.759583 -0.301071 2.68687 249 221 199 
-0.763404 -0.524518 2.69177 227 206 187 
-0.76024 -0.380591 2.68697 124 83 65 
-0.760568 -0.398975 2.68753 154 136 116 
-0.759975 -0.377203 2.68632 110 73 54 
-0.796801 -0.942779 2.78582 154 122 101 
-0.757397 -0.209695 2.68472 186 157 141 
-0.77299 -0.812703 2.71057 235 215 191 
-0.760101 -0.417839 2.68853 135 108 91 
-0.761737 -0.423479 2.69453 255 245 227 
-0.770244 -0.783943 2.70534 251 243 224 
-0.757902 -0.27687 2.68786 238 213 191 
-0.75642 -0.177398 2.68658 81 56 36 
-0.757846 -0.330645 2.68809 104 73 52 
-0.754967 -0.143064 2.68532 142 111 90 
-0.754411 -0.112901 2.68521 181 158 142 
-0.766981 -0.7797 2.70048 187 160 143 
-0.759574 -0.502209 2.69073 109 73 51 
-0.758894 -0.444839 2.69263 73 45 24 
-0.758894 -0.444839 2.69263 73 45 24 
-0.758868 -0.472591 2.69232 246 222 196 
-0.762866 -0.704582 2.69445 227 206 187 
-0.76516 -0.766162 2.69916 254 239 218 
-0.791407 -0.943519 2.7819 150 122 98 
-0.764784 -0.761293 2.70009 192 169 151 
-0.762971 -0.723821 2.69667 254 236 214 
-0.75518 -0.304411 2.69091 117 83 58 
-0.75306 -0.188328 2.69112 85 59 44 
-0.761836 -0.742746 2.69784 251 234 208 
-0.757055 -0.510139 2.69437 121 83 62 
-0.887318 -1.1888 3.1233 253 254 238 
-0.756219 -0.517066 2.69631 89 51 30 
-0.755287 -0.507095 2.69619 212 183 165 
-0.757625 -0.685281 2.6951 94 58 36 
-0.753962 -0.429996 2.69979 214 172 148 
-0.751454 -0.313709 2.69634 128 96 73 
-0.884018 -1.20702 3.12218 254 241 224 
-0.750604 -0.285256 2.6966 132 97 77 
-0.756529 -0.721777 2.69959 58 35 19 
-0.752282 -0.502891 2.6973 198 176 155 
-0.757341 -0.771395 2.70039 102 71 51 
-0.749184 -0.267291 2.69637 149 124 104 
-0.749603 -0.290045 2.69753 68 42 25 
-0.749603 -0.290045 2.69753 68 42 25 
-0.74889 -0.247597 2.69725 212 193 178 
-0.74694 -0.0719804 2.69428 97 80 64 
-0.752261 -0.523592 2.70062 116 83 64 
-0.74683 -0.148829 2.69636 194 181 164 
-0.74941 -0.393839 2.70407 96 61 42 
-0.751191 -0.627872 2.70185 207 187 162 
-0.749317 -0.496168 2.70243 124 97 80 
-0.746803 -0.314298 2.70086 202 170 147 
-0.744056 -0.145002 2.69911 104 83 62 
-0.753012 -0.791422 2.70248 57 34 16 
-0.75198 -0.667956 2.707 88 60 39 
-0.753218 -0.814232 2.7031 57 40 20 
-0.752313 -0.775044 2.70375 189 165 131 
-0.875509 -1.2836 3.11922 217 187 161 
-0.750444 -0.725945 2.70311 221 207 180 
-0.741729 -0.024967 2.6994 145 128 112 
-0.747512 -0.590129 2.7053 219 191 170 
-0.747512 -0.590129 2.7053 219 191 170 
-0.744617 -0.391902 2.7069 204 172 149 
-0.742525 -0.314867 2.70497 91 57 32 
-0.742525 -0.314867 2.70497 91 57 32 
-0.747405 -0.695879 2.7057 79 52 31 
-0.747021 -0.672701 2.70598 214 187 166 
-0.746503 -0.629105 2.70678 132 104 82 
-0.742035 -0.320166 2.70577 202 174 152 
-0.744161 -0.43272 2.70962 80 48 35 
-0.741046 -0.233181 2.70609 181 160 143 
-0.742652 -0.404655 2.70703 205 177 156 
-0.74735 -0.762963 2.70862 97 72 31 
-0.747502 -0.770598 2.70875 64 39 9 
-0.738969 -0.168361 2.70701 54 42 28 
-0.738967 -0.176619 2.70787 76 58 44 
-0.739796 -0.298581 2.70872 205 173 150 
-0.739703 -0.289882 2.70908 78 45 28 
-0.739676 -0.31252 2.70831 180 146 121 
-0.747202 -0.796056 2.71083 189 165 137 
-0.747002 -0.813853 2.71139 67 53 26 
-0.746707 -0.807924 2.71105 75 54 35 
-0.738427 -0.260156 2.70845 151 132 117 
-0.743362 -0.626722 2.71177 194 162 141 
-0.744205 -0.712824 2.71332 218 193 171 
-0.742509 -0.685359 2.71206 98 70 49 
-0.740935 -0.58893 2.71247 224 184 159 
-0.740935 -0.58893 2.71247 224 184 159 
-0.736618 -0.234792 2.71138 91 77 64 
-0.734686 -0.0817679 2.70949 207 189 177 
-0.735512 -0.213565 2.71123 79 65 56 
-0.736059 -0.250236 2.71284 86 67 60 
-0.744145 -0.793442 2.71603 90 64 41 
-0.739519 -0.468712 2.71831 91 65 50 
-0.731393 0.165467 2.70245 75 49 36 
-0.738573 -0.477607 2.71704 74 47 28 
-0.737876 -0.496449 2.71586 179 152 131 
-0.735219 -0.267448 2.71665 186 160 145 
-0.732969 -0.195975 2.71238 84 67 47 
-0.734273 -0.239061 2.71687 197 193 192 
-0.733947 -0.288866 2.71656 100 69 49 
-0.737677 -0.64549 2.71828 118 83 63 
-0.737677 -0.64549 2.71828 118 83 63 
-0.739252 -0.773636 2.71955 165 164 134 
-0.734375 -0.438159 2.72117 188 153 133 
-0.738247 -0.767886 2.72027 47 34 15 
-0.738247 -0.767886 2.72027 47 34 15 
-0.738688 -0.801286 2.72148 180 157 126 
-0.736153 -0.717799 2.71937 200 175 178 
-0.735024 -0.624195 2.72125 136 99 80 
-0.726969 -0.0736811 2.71562 52 33 19 
-0.731604 -0.438358 2.72273 191 156 134 
-0.725737 -0.0663808 2.71182 59 45 32 
-0.725737 -0.0663808 2.71182 59 45 32 
-0.72765 -0.156874 2.72074 201 174 163 
-0.733097 -0.633681 2.7241 208 179 163 
-0.840891 -1.22683 3.09501 239 211 189 
-0.729949 -0.49967 2.72639 76 44 21 
-0.729573 -0.48968 2.72638 75 44 26 
-0.728683 -0.458194 2.72732 47 19 8 
-0.722918 -0.223202 2.7241 174 148 131 
-0.723321 -0.230787 2.72596 192 166 149 
-0.727087 -0.529667 2.73021 76 45 25 
-0.723434 -0.297622 2.72612 116 85 57 
-0.725594 -0.426265 2.73063 102 67 47 
-0.722232 -0.200763 2.72745 213 177 151 
-0.72488 -0.358765 2.73254 97 68 54 
-0.720827 -0.142521 2.72632 47 33 22 
-0.728943 -0.7356 2.73164 113 86 67 
-0.83102 -1.22846 3.08616 244 209 189 
-0.725802 -0.577641 2.73193 48 21 2 
-0.720737 -0.217888 2.72856 80 59 38 
-0.720737 -0.217888 2.72856 80 59 38 
-0.723983 -0.49923 2.73291 36 19 9 
-0.725831 -0.668243 2.73234 69 45 43 
-0.728406 -0.816458 2.73392 83 56 37 
-0.721584 -0.428905 2.73407 162 124 101 
-0.720533 -0.353584 2.7346 60 29 9 
-0.720533 -0.353584 2.7346 60 29 9 
-0.717611 -0.0904105 2.73104 143 127 112 
-0.724244 -0.672344 2.73415 201 186 181 
-0.722474 -0.534814 2.73494 217 186 157 
-0.722474 -0.534814 2.73494 217 186 157 
-0.717225 -0.103502 2.73015 98 75 59 
-0.717224 -0.215223 2.73292 235 225 198 
-0.721855 -0.581712 2.7363 186 168 154 
-0.715404 -0.149202 2.73276 58 43 24 
-0.722053 -0.648223 2.74227 91 77 68 
-0.722114 -0.708704 2.74052 222 219 210 
-0.715855 -0.310213 2.73761 147 117 91 
-0.717302 -0.577878 2.7397 51 31 22 
-0.71975 -0.700924 2.74245 200 187 178 
-0.71796 -0.703552 2.74129 145 130 99 
-0.715405 -0.505968 2.74253 60 44 28 
-0.71003 -0.0318508 2.73803 60 41 27 
-0.710723 -0.154414 2.74047 65 39 22 
-0.70958 -0.180411 2.74042 208 177 149 
-0.710527 -0.338716 2.74248 75 43 22 
-0.718724 -0.870676 2.74751 204 193 148 
-0.712742 -0.621159 2.75057 183 161 147 
-0.7112 -0.565337 2.74815 163 124 85 
-0.706582 -0.267433 2.74714 155 142 123 
-0.708294 -0.550918 2.74334 139 102 73 
-0.704306 -0.168447 2.74244 74 49 29 
-0.705043 -0.205465 2.74555 215 185 161 
-0.71041 -0.609042 2.75408 186 168 146 
-0.705655 -0.305145 2.75182 208 191 175 
-0.704334 -0.275042 2.74988 67 46 25 
-0.702808 -0.141488 2.75333 191 174 156 
-0.708833 -0.654068 2.75705 57 41 28 
-0.706797 -0.579424 2.75368 153 140 132 
-0.707616 -0.704216 2.7568 192 176 151 
-0.710002 -0.825081 2.75923 123 104 89 
-0.700173 -0.12979 2.75236 146 125 106 
-0.710044 -0.931518 2.75649 184 191 140 
-0.698393 -0.193292 2.75016 143 109 74 
-0.704263 -0.5839 2.75846 51 34 26 
-0.698356 -0.105751 2.75406 48 26 12 
-0.694889 0.117797 2.74551 150 118 95 
-0.702319 -0.552336 2.75888 110 69 37 
-0.703903 -0.655348 2.76015 174 166 155 
-0.700346 -0.383748 2.76251 211 184 165 
-0.702033 -0.597015 2.75927 171 144 127 
-0.702321 -0.600855 2.76051 64 45 30 
-0.696103 -0.0824645 2.76061 56 42 29 
-0.705104 -0.90996 2.76475 53 35 13 
-0.701527 -0.817435 2.76848 101 74 55 
-0.692526 -0.261123 2.76154 46 25 8 
-0.698227 -0.700904 2.76608 200 197 192 
-0.698227 -0.700904 2.76608 200 197 192 
-0.691334 -0.204632 2.76146 87 66 49 
-0.696474 -0.475622 2.77322 59 40 25 
-0.689738 0.012531 2.76227 154 127 108 
-0.700043 -0.838773 2.77436 40 27 18 
-0.700384 -0.929203 2.76963 77 64 45 
-0.694545 -0.59851 2.76902 52 35 19 
-0.693263 -0.502132 2.77307 122 93 79 
-0.69313 -0.527036 2.77225 191 168 152 
-0.694034 -0.643528 2.77237 215 208 192 
-0.692668 -0.581332 2.771 48 30 16 
-0.68695 -0.049468 2.76547 209 192 184 
-0.686635 -0.146748 2.76641 74 44 34 
-0.686085 -0.0904562 2.76784 223 196 177 
-0.689908 -0.479423 2.77378 142 113 99 
-0.685027 -0.126107 2.76836 183 169 142 
-0.690044 -0.525392 2.77525 42 26 11 
-0.687077 -0.322827 2.77567 108 80 59 
-0.684905 -0.211152 2.77121 170 153 143 
-0.69226 -0.791213 2.775 187 158 144 
-0.690833 -0.709478 2.77472 172 165 159 
-0.690833 -0.709478 2.77472 172 165 159 
-0.688302 -0.572264 2.77621 209 172 143 
-0.687847 -0.463361 2.77998 82 59 43 
-0.686441 -0.422742 2.77676 139 94 73 
-0.682491 -0.185029 2.77192 186 160 145 
-0.681493 -0.10539 2.77118 57 38 23 
-0.680893 -0.063415 2.77403 75 49 34 
-0.681523 -0.153204 2.77583 73 54 47 
-0.682781 -0.301821 2.77765 113 79 54 
-0.682781 -0.301821 2.77765 113 79 54 
-0.685566 -0.575939 2.78081 62 35 14 
-0.679852 -0.244516 2.77522 216 195 176 
-0.687774 -0.800708 2.78123 196 174 163 
-0.678264 0.006475 2.77476 220 194 177 
-0.687283 -0.760209 2.78332 135 136 130 
-0.690524 -1.00781 2.78104 189 167 120 
-0.684222 -0.662887 2.78185 48 31 21 
-0.67768 -0.143021 2.77718 176 153 135 
-0.6897 -1.02236 2.78244 166 143 112 
-0.68044 -0.370945 2.78412 183 150 131 
-0.678187 -0.259022 2.77961 67 40 19 
-0.680525 -0.404913 2.78663 147 105 81 
-0.676417 -0.214568 2.78054 58 35 27 
-0.671892 0.221395 2.76847 184 162 139 
-0.67434 -0.0640686 2.77904 193 167 154 
-0.67434 -0.0640686 2.77904 193 167 154 
-0.68429 -0.852433 2.79097 97 93 84 
-0.676209 -0.318975 2.78606 233 215 201 
-0.683643 -0.864474 2.79057 204 200 197 
-0.67382 -0.239805 2.78555 88 69 54 
-0.67382 -0.239805 2.78555 88 69 54 
-0.676716 -0.472013 2.78947 181 150 129 
-0.676716 -0.472013 2.78947 181 150 129 
-0.673638 -0.317036 2.78908 64 38 25 
-0.672592 -0.351847 2.79123 120 82 45 
-0.674231 -0.487445 2.79279 194 168 145 
-0.674187 -0.509729 2.79668 87 64 50 
-0.67387 -0.534367 2.79448 62 36 21 
-0.669463 -0.242779 2.78791 69 51 31 
-0.668782 -0.106609 2.78884 61 44 34 
-0.674816 -0.614399 2.7962 149 123 106 
-0.674242 -0.594705 2.79541 66 43 27 
-0.667974 -0.168733 2.7873 72 48 36 
-0.670254 -0.340462 2.79328 160 121 88 
-0.668134 -0.119471 2.79055 228 197 177 
-0.668336 -0.216992 2.79052 205 177 153 
-0.668336 -0.216992 2.79052 205 177 153 
-0.669692 -0.283594 2.7949 241 220 201 
-0.673812 -0.661121 2.79561 55 37 23 
-0.673253 -0.58995 2.79807 74 48 33 
-0.67061 -0.520238 2.79726 186 162 138 
-0.665068 -0.0539812 2.78983 157 129 108 
-0.66934 -0.47042 2.79686 42 22 11 
-0.674964 -0.791744 2.80264 188 161 142 
-0.670837 -0.592434 2.7975 178 166 166 
-0.669504 -0.48846 2.7984 222 195 174 
-0.669504 -0.48846 2.7984 222 195 174 
-0.66552 -0.140963 2.79332 65 46 32 
-0.665175 -0.115825 2.79374 72 54 40 
-0.672721 -0.760158 2.79913 204 194 182 
-0.668636 -0.47753 2.7984 52 32 21 
-0.668636 -0.47753 2.7984 52 32 21 
-0.667368 -0.364384 2.7994 70 48 34 
-0.663842 -0.149047 2.79428 79 62 42 
-0.668424 -0.434717 2.80608 89 57 44 
-0.669227 -0.628447 2.80087 184 158 141 
-0.664672 -0.273215 2.79687 121 96 76 
-0.662713 -0.0754438 2.79359 54 33 14 
-0.668765 -0.632119 2.79999 70 43 32 
-0.662805 -0.110141 2.79486 201 176 145 
-0.664904 -0.369622 2.80018 151 125 108 
-0.670679 -0.756052 2.80524 41 23 11 
-0.664351 -0.343636 2.80012 179 145 100 
-0.670368 -0.815852 2.80351 61 33 19 
-0.663532 -0.264936 2.80137 132 105 88 
-0.665326 -0.493431 2.80298 93 62 42 
-0.662521 -0.276653 2.79948 64 42 21 
-0.666704 -0.609519 2.80354 172 145 118 
-0.66097 -0.241311 2.79899 59 33 18 
-0.65939 -0.0738889 2.79682 202 174 153 
-0.662658 -0.383127 2.80322 99 64 44 
-0.662154 -0.347727 2.80257 211 171 135 
-0.66467 -0.599233 2.80391 210 176 151 
-0.65944 -0.138076 2.80235 65 45 34 
-0.666506 -0.72486 2.80916 30 21 12 
-0.662847 -0.526836 2.80495 210 187 171 
-0.661917 -0.417813 2.80641 54 31 23 
-0.662577 -0.484591 2.80608 60 43 33 
-0.669389 -0.908606 2.81042 168 163 157 
-0.660539 -0.339213 2.80488 107 76 55 
-0.667649 -0.835068 2.80956 100 82 70 
-0.662203 -0.431267 2.80908 98 61 42 
-0.664225 -0.627403 2.81052 82 56 39 
-0.657259 -0.166443 2.80368 191 167 143 
-0.662609 -0.656694 2.80856 195 164 146 
-0.657616 -0.249192 2.80466 205 178 161 
-0.659756 -0.399104 2.80949 211 189 168 
-0.660639 -0.688351 2.81172 132 110 97 
-0.653738 -0.172763 2.80525 215 198 180 
-0.653211 -0.0662472 2.8052 191 165 140 
-0.654693 -0.276059 2.80707 68 51 31 
-0.658761 -0.61276 2.81379 188 158 134 
-0.65729 -0.505737 2.81303 51 30 11 
-0.660359 -0.768189 2.81188 51 37 34 
-0.652395 -0.124124 2.80563 198 180 160 
-0.658017 -0.616618 2.81308 59 28 10 
-0.657149 -0.605774 2.8134 180 152 130 
-0.650978 -0.126588 2.80881 217 204 187 
-0.652814 -0.405367 2.81483 253 236 220 
-0.651032 -0.242709 2.81642 104 72 49 
-0.647379 -0.0297394 2.80565 195 169 154 
-0.652342 -0.426046 2.81821 157 132 112 
-0.648282 -0.11689 2.80985 79 52 31 
-0.647896 -0.159067 2.80852 211 195 179 
-0.646659 -0.0580745 2.80836 68 40 19 
-0.659636 -1.05648 2.81811 71 53 41 
-0.649572 -0.348144 2.81764 188 150 113 
-0.655037 -0.741281 2.82282 59 46 37 
-0.646106 -0.0352462 2.81033 116 82 57 
-0.654623 -0.778476 2.82053 107 104 95 
-0.647777 -0.24819 2.81577 219 191 170 
-0.650017 -0.381233 2.82141 123 96 79 
-0.647257 -0.257678 2.81516 60 31 13 
-0.656343 -0.883793 2.82658 46 36 27 
-0.645919 -0.19374 2.81443 60 37 19 
-0.646746 -0.289845 2.8191 114 85 67 
-0.651363 -0.665477 2.82317 65 47 33 
-0.655929 -0.902246 2.82844 54 41 32 
-0.647602 -0.36084 2.82289 239 213 198 
-0.650517 -0.658532 2.82432 61 44 28 
-0.648103 -0.467276 2.82508 52 33 18 
-0.654943 -0.930554 2.82931 192 195 142 
-0.647462 -0.482963 2.82914 75 53 42 
-0.64488 -0.311159 2.82429 96 70 53 
-0.652553 -0.867525 2.82924 196 185 163 
-0.646037 -0.43851 2.82748 234 205 187 
-0.651845 -0.902269 2.82783 57 47 38 
-0.644114 -0.362271 2.82497 86 57 39 
-0.640575 -0.149443 2.81954 67 44 30 
-0.649833 -0.887315 2.83154 152 136 123 
-0.637867 -0.0497953 2.81852 167 136 116 
-0.643097 -0.462736 2.83244 81 58 42 
-0.643769 -0.654764 2.82969 72 50 36 
-0.642527 -0.493055 2.83267 56 38 26 
-0.640312 -0.435628 2.83103 104 77 60 
-0.641375 -0.530566 2.83228 52 35 28 
-0.636686 -0.189099 2.82439 115 92 74 
-0.64788 -0.973245 2.83761 167 146 129 
-0.63679 -0.246103 2.8286 82 46 24 
-0.644115 -0.754087 2.84087 88 73 66 
-0.647275 -0.99247 2.83801 193 167 150 
-0.647098 -0.96593 2.83971 185 166 152 
-0.638169 -0.388198 2.83604 157 132 112 
-0.634299 -0.230294 2.8276 82 51 30 
-0.632809 -0.0511551 2.82544 77 50 33 
-0.632817 -0.11988 2.82953 225 223 184 
-0.638301 -0.677779 2.83781 153 134 117 
-0.636009 -0.476027 2.83811 62 39 23 
-0.636009 -0.476027 2.83811 62 39 23 
-0.63094 0.0248956 2.82898 198 167 139 
-0.634935 -0.460781 2.8379 55 38 22 
-0.639465 -0.726429 2.8461 63 45 33 
-0.635397 -0.543258 2.83963 162 158 146 
-0.632766 -0.408476 2.83893 153 117 93 
-0.638192 -0.733542 2.84801 42 32 22 
-0.634456 -0.556526 2.84147 41 28 22 
-0.634456 -0.556526 2.84147 41 28 22 
-0.632883 -0.392086 2.84168 66 48 28 
-0.640737 -0.909314 2.85007 45 41 32 
-0.640737 -0.909314 2.85007 45 41 32 
-0.636604 -0.741573 2.84408 228 210 200 
-0.636548 -0.758049 2.84408 175 165 156 
-0.628184 -0.189935 2.83766 134 108 91 
-0.633804 -0.691331 2.84307 46 30 17 
-0.640348 -1.06014 2.84713 126 88 69 
-0.636558 -0.821021 2.84833 201 185 162 
-0.628155 -0.148215 2.84062 62 45 27 
-0.625076 -0.0432361 2.83427 222 203 205 
-0.629413 -0.416168 2.84448 129 89 64 
-0.628784 -0.427596 2.84263 89 48 20 
-0.628462 -0.407759 2.8442 147 107 82 
-0.627142 -0.341269 2.84447 204 187 179 
-0.626289 -0.326937 2.84247 79 61 49 
-0.636811 -1.01342 2.85118 188 160 146 
-0.631302 -0.74917 2.8495 154 138 125 
-0.63088 -0.733518 2.85014 133 124 107 
-0.623967 -0.144337 2.84272 224 211 169 
-0.62764 -0.559933 2.84705 194 170 142 
-0.631215 -0.823821 2.85206 189 168 151 
-0.630962 -0.804234 2.85548 64 50 41 
-0.630119 -0.788305 2.85351 58 39 25 
-0.625901 -0.480645 2.85265 219 188 167 
-0.62252 -0.291967 2.84543 135 103 80 
-0.628323 -0.73055 2.85297 68 41 24 
-0.625353 -0.506602 2.85171 182 164 150 
-0.621313 -0.278078 2.84557 238 217 200 
-0.620844 -0.175461 2.84665 74 49 29 
-0.622549 -0.351989 2.85143 75 55 46 
-0.622549 -0.351989 2.85143 75 55 46 
-0.621687 -0.316963 2.8502 157 124 105 
-0.621687 -0.316963 2.8502 157 124 105 
-0.623583 -0.483564 2.85346 75 44 24 
-0.61963 -0.188578 2.84846 121 96 76 
-0.627027 -0.784621 2.85725 106 90 75 
-0.61896 -0.185659 2.84744 135 106 88 
-0.629532 -0.992115 2.86018 207 189 177 
-0.616876 -0.118652 2.84598 244 224 200 
-0.616692 -0.126036 2.84852 200 169 148 
-0.627122 -0.860105 2.86558 53 43 34 
-0.628185 -0.982677 2.86313 181 161 152 
-0.619504 -0.499066 2.8564 60 32 18 
-0.615286 -0.13658 2.85074 221 211 209 
-0.627381 -1.00981 2.86472 106 84 71 
-0.619495 -0.519322 2.86043 132 101 81 
-0.620618 -0.678909 2.85831 165 142 128 
-0.618666 -0.506882 2.85972 67 42 22 
-0.613523 -0.112374 2.84778 217 210 204 
-0.617025 -0.358892 2.86085 244 227 219 
-0.612856 -0.162409 2.84916 194 168 143 
-0.614506 -0.248927 2.85491 234 206 185 
-0.61181 0.0472469 2.84885 226 203 171 
-0.62486 -0.97876 2.86778 71 57 48 
-0.621294 -0.813167 2.86393 167 155 139 
-0.620253 -0.768808 2.86266 24 20 9 
-0.618518 -0.64337 2.86264 184 162 148 
-0.622631 -0.916022 2.86924 166 150 134 
-0.622631 -0.916022 2.86924 166 150 134 
-0.614141 -0.324479 2.86128 251 234 218 
-0.621283 -0.847822 2.87061 177 153 141 
-0.612263 -0.265335 2.85685 95 64 46 
-0.616806 -0.676449 2.86432 71 48 34 
-0.62175 -0.989729 2.87097 87 65 52 
-0.613739 -0.473835 2.86724 72 46 29 
-0.618996 -0.843467 2.87156 41 27 16 
-0.619202 -0.9122 2.87128 76 58 46 
-0.605914 0.174776 2.84846 50 36 23 
-0.611525 -0.42366 2.86594 157 120 91 
-0.613393 -0.699606 2.86776 152 144 133 
-0.61918 -1.01759 2.87412 78 59 45 
-0.611902 -0.64882 2.86747 64 47 31 
-0.605473 -0.1568 2.86188 104 74 48 
-0.605473 -0.1568 2.86188 104 74 48 
-0.609738 -0.542223 2.87153 185 159 144 
-0.60907 -0.520083 2.8715 216 198 184 
-0.610912 -0.694108 2.87232 79 57 44 
-0.602049 0.0957194 2.85581 79 54 32 
-0.605451 -0.285711 2.86625 189 156 137 
-0.608977 -0.53693 2.87435 142 113 95 
-0.609127 -0.621552 2.87484 204 169 147 
-0.60585 -0.362337 2.87097 240 222 200 
-0.60585 -0.362337 2.87097 240 222 200 
-0.609971 -0.717023 2.8749 126 112 99 
-0.602852 -0.165681 2.86279 106 72 45 
-0.603689 -0.309746 2.86881 250 235 216 
-0.603651 -0.250056 2.8709 195 164 143 
-0.605961 -0.458231 2.87824 209 187 166 
-0.613614 -1.0425 2.88375 138 121 111 
-0.601047 -0.211276 2.86784 80 49 29 
-0.601898 -0.29457 2.87186 136 108 87 
-0.596925 0.257574 2.85708 136 111 91 
-0.599571 -0.05184 2.87125 58 39 24 
-0.598871 -0.127003 2.86875 73 52 33 
-0.598417 0.0119617 2.86908 72 44 20 
-0.604452 -0.673391 2.87729 184 170 161 
-0.5995 -0.252402 2.87258 80 53 34 
-0.5995 -0.252402 2.87258 80 53 34 
-0.595668 0.170831 2.86073 139 119 84 
-0.607414 -0.837335 2.88529 125 111 102 
-0.602673 -0.549078 2.87969 77 49 35 
-0.596023 0.0699008 2.8648 227 205 182 
-0.601457 -0.412203 2.88084 173 127 93 
-0.59558 -0.0695284 2.86733 64 35 17 
-0.60054 -0.502683 2.88079 205 190 157 
-0.599938 -0.496547 2.87856 79 51 29 
-0.595503 0.0157701 2.8725 205 175 151 
-0.599049 -0.427233 2.88151 250 222 198 
-0.608152 -1.03515 2.88986 51 38 29 
-0.597872 -0.398887 2.88085 149 104 73 
-0.595153 0.00379048 2.87726 79 53 36 
-0.618623 -1.28308 2.9241 199 166 151 
-0.594818 -0.170201 2.87779 85 53 38 
-0.604814 -0.931548 2.89095 54 44 34 
-0.59419 -0.198616 2.8763 162 127 105 
-0.592551 -0.0206673 2.87297 72 45 28 
-0.599405 -0.646036 2.887 64 36 15 
-0.592099 -0.0644078 2.87182 118 90 68 
-0.590636 0.163228 2.86652 67 44 30 
-0.598855 -0.641875 2.88734 194 161 142 
-0.597316 -0.541512 2.88632 224 194 170 
-0.597109 -0.546897 2.886 202 181 164 
-0.591011 0.0583817 2.8746 179 147 124 
-0.588018 0.153608 2.8634 66 44 30 
-0.590669 0.0148582 2.87656 76 46 20 
-0.591371 -0.170857 2.87848 199 171 150 
-0.601457 -0.930335 2.89389 130 116 105 
-0.586167 0.338948 2.86011 222 200 159 
-0.602623 -1.01155 2.89555 193 175 125 
-0.588105 -0.00170434 2.88002 216 190 165 
-0.582793 0.351344 2.85443 209 190 147 
-0.589758 -0.272411 2.88622 97 71 58 
-0.588067 -0.134962 2.8825 65 38 19 
-0.585663 0.122993 2.87527 197 173 147 
-0.585937 0.0394819 2.878 160 130 106 
-0.596482 -0.823311 2.8988 231 210 191 
-0.586475 0.010465 2.88072 234 208 183 
-0.591307 -0.468838 2.89491 54 31 15 
-0.590062 -0.433264 2.89071 140 110 86 
-0.583986 0.178153 2.87338 151 117 92 
-0.59094 -0.639842 2.89401 217 198 165 
-0.596314 -0.899302 2.90448 141 127 116 
-0.588865 -0.497789 2.89171 69 47 36 
-0.58679 -0.321653 2.88833 198 162 138 
-0.590014 -0.629054 2.89539 95 74 57 
-0.584213 -0.120872 2.88417 66 37 19 
-0.59165 -0.791796 2.89862 76 54 40 
-0.582475 0.00594952 2.88296 246 220 195 
-0.589422 -0.663575 2.89725 65 42 24 
-0.586499 -0.423606 2.89542 153 142 114 
-0.586731 -0.444276 2.89628 215 183 160 
-0.58669 -0.444407 2.8965 215 183 160 
-0.583349 -0.179272 2.88835 89 58 38 
-0.581898 -0.117577 2.88463 224 199 177 
-0.581898 -0.117577 2.88463 224 199 177 
-0.586085 -0.526293 2.8961 247 241 217 
-0.580294 0.0427459 2.88413 88 60 36 
-0.592286 -0.966798 2.9084 131 112 98 
-0.580875 -0.0294649 2.89258 242 215 194 
-0.584291 -0.467906 2.90162 156 124 103 
-0.591481 -0.991588 2.91024 80 57 43 
-0.582792 -0.439094 2.89993 90 58 33 
-0.581339 -0.349432 2.89597 241 212 194 
-0.584836 -0.671207 2.90139 222 201 196 
-0.577666 -0.119119 2.88736 214 186 165 
-0.577553 0.0102199 2.89091 83 51 28 
-0.583901 -0.618069 2.90517 167 139 118 
-0.583647 -0.6928 2.90477 172 154 140 
-0.57773 -0.199299 2.89675 151 116 96 
-0.578038 -0.244373 2.89956 209 186 168 
-0.57975 -0.414641 2.90413 64 38 23 
-0.578685 -0.518776 2.90781 72 45 26 
-0.575301 -0.159593 2.90192 114 86 65 
-0.571361 0.0334413 2.89375 206 182 154 
