ply                 
format ascii 1.0    
element vertex 1014
property float x    
property float y    
property float z    
property uchar red  
property uchar green
property uchar blue 
end_header          
-0.450479 -0.779426 4.11343 210 196 187 
-0.453882 -0.125163 2.90732 174 109 103 
-1.90895 1.4345 4.35829 110 71 40 
0.140668 0.0166131 3.31953 124 108 93 
-0.459316 -0.10631 2.91666 227 127 129 
-0.465879 -0.106143 2.91344 220 117 120 
-0.478082 -0.111626 2.91857 162 71 68 
-0.431471 -0.112307 2.91521 104 62 64 
-0.290725 0.0958951 3.26244 73 61 39 
0.378675 -0.143934 3.33919 111 72 3 
-0.235251 0.0971331 3.26479 136 117 102 
0.377771 -0.145744 3.33231 111 74 6 
-0.436861 -0.120325 2.91137 112 45 52 
-0.423893 -0.121562 2.91451 93 33 32 
-0.439862 -0.125351 2.91009 124 53 59 
-0.465967 -0.127504 2.9115 242 149 141 
-0.471532 -0.131528 2.90939 239 126 122 
-0.383291 -0.140851 2.92599 242 137 142 
0.197681 -0.208327 3.5245 165 133 112 
0.121374 -0.220063 3.54489 78 33 4 
0.0672289 -0.22556 3.55036 153 129 101 
0.0674367 -0.232257 3.556 169 137 116 
0.185081 -0.247535 3.5633 107 57 24 
0.0831428 -0.248384 3.56884 81 46 27 
-0.0366932 -0.254589 3.5811 89 47 22 
-2.10427 1.31336 4.46053 114 73 43 
0.129549 -0.277192 3.5983 84 47 20 
0.13223 -0.308805 3.62374 106 56 31 
0.117812 -0.309368 3.63027 89 48 20 
-0.640645 0.234968 3.14558 109 86 68 
0.328337 -0.335336 3.63936 98 47 18 
-0.482884 -0.652859 3.98672 195 163 138 
-0.584951 -0.608172 3.70547 229 227 232 
-0.962317 -1.44628 4.80025 154 128 105 
-0.548559 -0.73524 4.07487 249 160 156 
0.36336 -0.691674 3.81476 196 126 118 
-0.567592 -0.750011 4.09189 141 60 59 
-0.466039 -0.757923 4.08942 195 166 148 
-0.519261 -0.758798 4.09346 105 72 57 
-0.529454 -0.761925 4.10389 105 83 70 
-0.527539 -0.77143 4.10758 255 217 204 
-0.550495 -0.772659 4.11286 145 122 108 
-0.544643 -0.773072 4.10834 95 67 53 
-0.492454 -0.792038 4.12491 97 65 52 
-0.581907 -0.797564 4.13945 228 140 139 
-0.508142 -0.796903 4.12714 196 168 154 
-0.564052 -0.806031 4.14234 246 208 197 
-0.551982 -0.815566 4.15444 69 28 22 
-0.584503 -0.823831 4.15923 193 123 123 
-0.537367 -0.825255 4.15871 201 132 127 
-0.787053 -0.77449 3.87548 171 169 170 
-0.790807 -0.789764 3.90229 64 64 66 
-0.78907 -0.790295 3.89994 74 74 76 
-0.518126 -0.873595 4.20873 167 122 116 
-0.629713 -0.926944 4.11063 159 8 17 
-1.01343 -1.00419 4.36281 148 74 91 
-0.914161 -1.0076 4.35898 238 94 119 
-3.12863 -1.29068 5.32126 47 43 44 
-0.672029 -1.28915 4.61472 65 36 18 
-1.12251 -1.11499 4.47295 103 13 38 
-1.21733 -1.29849 4.64667 102 47 50 
-1.01 -1.12858 4.46697 175 106 125 
-0.92188 -1.18359 4.53558 180 131 90 
-1.15215 -1.21581 4.57544 156 140 117 
-0.864044 -1.22725 4.58025 62 46 20 
0.0620069 -0.189801 3.51856 160 134 119 
-0.47909 -0.867498 4.19507 53 46 36 
0.164881 -0.195377 3.51305 166 128 115 
-0.476271 -0.762 4.0965 204 176 164 
-0.463092 -0.763536 4.09676 150 120 96 
0.234365 -0.302384 3.61333 124 72 48 
-0.43414 -1.17283 4.39279 78 29 0 
-0.963675 -1.24276 4.51506 166 112 110 
0.230378 -0.207007 3.52145 156 125 107 
-1.97711 1.14164 4.62672 205 166 135 
-3.17966 -1.35763 5.11932 62 55 63 
0.197985 -0.213629 3.52909 147 123 97 
-1.32552 -1.4284 4.6319 179 88 123 
-2.15453 1.39233 4.3968 131 91 56 
0.104086 -0.217452 3.54278 96 60 38 
-0.533733 -0.810811 4.14447 130 42 38 
-2.36015 1.38548 4.40373 200 164 132 
-2.12864 0.967943 4.78299 101 66 34 
-1.76114 1.38466 4.38581 101 66 36 
0.176064 -0.286272 3.60214 157 127 101 
-0.351109 0.606359 2.76059 169 153 130 
-1.79177 1.32354 4.44252 229 186 152 
-0.88372 -1.30417 4.65385 50 68 44 
0.422315 -0.218707 3.32879 168 97 7 
-0.46602 -0.867139 4.19975 102 100 88 
-0.96752 -1.45793 4.79928 132 137 117 
-0.586909 -1.49466 4.82621 43 25 13 
-0.555158 -1.53662 4.87362 124 113 107 
0.11424 -0.277217 3.59895 104 57 27 
-2.68101 0.820141 4.93533 158 128 90 
0.162841 -0.252101 3.57275 142 109 90 
-2.97644 0.811122 4.94428 130 94 62 
0.315883 -0.315322 3.61922 154 127 106 
-0.962721 -1.01267 4.36694 172 0 3 
-3.14499 -1.27778 5.45169 85 74 72 
-2.36118 1.37898 4.41871 207 169 130 
-0.706086 -1.43505 4.78249 59 1 0 
-2.61227 1.395 4.40636 162 123 82 
0.0779855 -0.313674 3.63348 150 124 99 
-2.76145 0.742594 4.98658 122 89 54 
-0.842636 -1.44868 4.78779 78 27 24 
-0.657986 -0.839504 4.18486 88 63 41 
-2.86294 0.234419 5.44988 105 69 37 
-1.21186 -1.16004 4.51288 94 12 1 
-1.10506 -1.29074 4.63816 92 52 61 
-2.58998 1.15441 4.62684 132 94 49 
0.520775 -0.171845 3.37237 193 123 11 
-1.77879 1.41909 4.34633 201 160 128 
-2.7765 1.37115 4.4501 209 173 137 
-2.55819 1.27479 4.53685 203 170 127 
-1.76261 1.41542 4.36375 107 73 36 
-2.48045 1.13835 4.63316 109 76 41 
-0.961307 -1.01775 4.36882 245 81 116 
-0.568412 -0.868657 4.20531 180 128 115 
-0.584071 -0.8297 4.17105 193 119 118 
-0.604418 -0.82188 4.16682 66 31 11 
-0.611788 -0.814452 4.15631 174 146 125 
-0.62582 -0.849073 4.18735 50 23 4 
-0.790761 -0.789818 3.90117 64 64 66 
-0.462575 -0.802955 4.13596 235 223 211 
-0.488361 -0.79598 4.12785 230 201 187 
-0.608396 -0.797299 4.14089 108 65 48 
-0.0833946 -0.812111 3.96206 149 146 127 
-0.582057 -0.795587 4.13182 255 184 178 
-0.577012 -0.782406 4.11814 149 87 90 
-0.451104 -0.779212 4.10457 222 203 189 
-0.445525 -0.762393 4.09781 211 182 168 
-0.528915 -0.761472 4.10026 105 83 70 
-0.526786 -0.755667 4.09687 239 211 197 
-0.547069 -0.75034 4.08635 82 56 39 
-0.490245 -0.656443 3.99136 117 86 57 
-0.3833 -0.141516 2.9236 247 151 155 
-0.434651 -0.128348 2.91119 251 160 159 
-0.442083 -0.122041 2.90973 108 53 59 
0.378444 -0.146225 3.33659 111 74 6 
-0.592943 0.513833 2.87405 128 112 97 
-0.448321 -0.107493 2.91219 235 146 148 
0.138306 0.025251 3.31364 80 65 44 
-0.290389 0.0955037 3.26307 75 63 39 
-0.326494 0.152029 2.63357 127 47 56 
-0.431065 0.18374 2.62125 242 153 155 
-1.12907 -1.46758 4.82373 55 31 7 
-0.209011 0.247083 3.11418 54 34 23 
-0.45128 -0.761748 4.09381 106 78 64 
-1.20834 -1.48458 4.83302 245 166 151 
-0.582637 -0.85151 4.1925 133 84 77 
-0.91493 -1.00956 4.36454 238 94 119 
-0.921683 -1.46035 4.7902 147 138 107 
0.117973 -0.307626 3.62713 79 42 16 
0.217878 -0.305926 3.6142 91 45 21 
-0.640733 0.234727 3.14324 109 86 68 
-1.27854 -1.43087 4.72917 159 79 104 
-0.962177 -1.44263 4.79673 157 121 95 
-0.283972 -1.13921 4.30764 209 146 131 
-0.376483 -0.144146 2.92647 235 139 140 
-0.27079 -1.35646 4.52297 81 56 51 
-1.32397 -1.47526 4.6757 223 102 143 
-3.15076 -1.29497 5.4352 37 35 38 
-0.594749 -0.808611 4.15402 105 27 25 
-3.12692 -1.29059 5.31807 47 43 44 
-1.206 -1.35595 4.7092 85 15 25 
0.0679735 -0.22665 3.54801 169 142 113 
0.12135 -0.220118 3.54123 78 33 4 
-0.512859 -1.27374 4.4698 218 182 160 
0.153909 -0.178859 3.50396 183 150 133 
0.329018 -0.33554 3.63639 84 38 14 
0.169072 -0.311752 3.62456 167 134 103 
-0.496015 -1.27996 4.47184 228 195 176 
-1.12281 -1.27884 4.6314 134 37 68 
-3.20278 -1.54094 5.18118 141 141 143 
-1.9283 1.34572 4.42231 121 78 46 
-1.32557 -1.42988 4.63721 192 92 128 
-0.473073 -0.866795 4.19927 16 9 1 
-0.352942 0.160692 2.62067 171 92 95 
-1.75413 1.31576 4.44568 98 61 35 
-0.310897 0.50504 2.8608 146 130 115 
-1.76313 1.38546 4.39149 101 66 36 
-2.12866 0.966082 4.78053 109 76 43 
-0.494046 -0.818576 4.15281 175 155 144 
-0.705931 -1.43497 4.78116 59 1 0 
0.162131 -0.183128 3.49973 145 109 87 
-2.36022 1.38441 4.41193 125 85 50 
0.319339 -0.344663 3.6499 152 119 100 
-1.23396 -1.02611 4.35325 86 0 0 
0.169715 -0.317434 3.63471 161 127 115 
0.143757 -0.1957 3.51398 92 57 29 
0.168526 -0.300159 3.6152 154 119 99 
0.105757 -0.221682 3.54411 99 55 28 
0.1581 -0.229357 3.54722 169 134 114 
-1.02777 -1.45332 4.7981 107 42 20 
0.114001 -0.277324 3.59626 92 51 23 
-0.761311 -1.05337 4.2472 63 17 0 
0.0687777 -0.244943 3.56887 127 105 91 
-1.22082 -1.35616 4.716 92 22 22 
0.117082 -0.270793 3.59035 153 131 108 
0.124584 -0.270771 3.59022 146 121 99 
-2.87956 1.41612 4.39652 179 140 99 
-0.476202 -0.761744 4.09291 190 162 151 
-1.13464 -1.10766 4.47518 203 74 79 
-1.76233 1.41442 4.36157 107 75 37 
0.225554 -0.294408 3.60348 109 67 42 
-2.35324 1.2744 4.49688 231 197 162 
0.0788193 -0.319381 3.63717 154 128 111 
0.373226 -0.647037 3.86947 97 84 76 
-2.38591 1.09645 4.67506 154 119 89 
-0.927138 -1.284 4.5855 176 141 137 
-2.75412 0.665172 5.03014 137 98 67 
-2.60969 1.33104 4.46158 220 176 137 
-0.431124 -0.123204 2.90953 215 159 158 
-2.18526 1.38695 4.40177 207 177 139 
-2.09174 -0.00210301 5.64391 233 199 162 
-0.968319 -1.45743 4.79381 151 156 136 
-0.460803 -0.870409 4.20396 20 13 3 
-0.625403 -0.849095 4.18973 60 31 13 
-0.581937 -0.85179 4.19303 133 84 77 
-0.518749 -0.817236 4.14965 166 129 121 
-0.612906 -0.814599 4.15585 174 146 125 
-0.0720256 -0.812083 3.95981 144 139 119 
-0.593494 -0.870183 4.21065 176 125 108 
-0.111624 -0.817569 3.96611 158 150 127 
-0.585616 -0.807885 4.14317 214 141 135 
-0.592413 -0.805633 4.1429 102 23 19 
-0.487525 -0.799453 4.12488 199 173 158 
-0.533426 -0.769105 4.10559 89 61 50 
-2.86701 0.235149 5.45553 99 64 34 
-1.78972 1.32093 4.43388 227 187 151 
-0.915506 -1.0109 4.36119 250 101 139 
0.365356 -0.639311 3.86649 193 124 117 
-0.582166 -1.49087 4.82134 21 2 0 
-2.10138 1.31165 4.45583 110 69 41 
-0.841739 -1.46383 4.78573 231 225 203 
-0.284939 0.0948806 3.26446 85 70 49 
-0.290368 0.0932123 3.27083 74 62 40 
-3.20179 -1.55524 5.17498 61 59 60 
0.116786 -0.307262 3.62772 85 50 28 
0.190894 -0.30623 3.61904 78 32 9 
-1.12548 -1.11632 4.48028 103 13 38 
0.506707 -0.268689 3.31794 132 43 0 
0.166529 -0.295978 3.60782 181 143 122 
-3.13577 -1.32404 5.21883 143 141 146 
-1.7641 1.38493 4.39218 89 52 25 
-0.921449 -1.18064 4.53039 205 142 88 
0.0691332 -0.241906 3.56537 166 136 112 
-0.920921 -1.19317 4.55151 40 26 0 
-1.89899 1.37922 4.3948 91 60 31 
-1.20641 -1.35693 4.70951 87 25 26 
-0.497909 -1.2804 4.47324 232 199 180 
0.158978 -0.228059 3.55331 171 134 107 
0.197105 -0.210079 3.52988 176 141 113 
-1.14527 -1.23264 4.58387 167 111 114 
0.325473 -0.97758 3.66532 26 18 5 
-2.44971 1.24774 4.53357 101 61 26 
-0.462986 -0.111605 2.91249 133 42 49 
-0.441428 -0.112956 2.9097 99 57 59 
0.37871 -0.145372 3.33974 106 67 0 
-0.461915 -0.123354 2.90939 133 49 49 
-0.44865 -0.134604 2.90431 243 154 150 
-0.416177 -0.125459 2.91973 234 167 158 
-0.422792 -0.126057 2.90929 117 59 58 
-1.23347 -1.02583 4.35571 66 0 0 
-0.473229 -0.868043 4.20261 19 12 2 
0.319562 -0.343793 3.64934 170 132 111 
-1.89395 1.17591 4.58926 142 109 76 
0.329311 -0.334854 3.63504 88 46 22 
-0.760965 -1.05205 4.24341 65 19 0 
-3.21408 -1.55689 5.19679 69 67 68 
0.496236 -0.200721 3.36065 151 54 0 
0.459546 -0.244552 3.32563 174 110 13 
0.652052 -0.235049 3.28218 136 62 0 
-1.93681 1.34023 4.42429 226 184 146 
-2.40794 1.40614 4.38991 102 71 43 
-3.17784 -1.34658 5.10939 116 114 115 
-0.494498 -0.831287 4.15716 170 156 143 
-0.310476 0.50386 2.85863 133 117 102 
-1.15089 -1.34871 4.71398 132 1 45 
0.0635706 -0.190237 3.51933 163 132 112 
-0.963825 -1.24263 4.5167 166 112 110 
-1.74463 1.37027 4.40024 209 166 132 
-0.442395 -1.17262 4.38338 95 50 19 
0.521275 -0.171247 3.37372 193 125 14 
-2.47098 1.12343 4.63753 183 149 121 
-2.67258 0.719969 5.00511 153 123 87 
-1.18013 -1.12274 4.48664 151 14 8 
0.440056 -0.214572 3.34553 181 116 16 
-0.0736355 -0.811844 3.95658 110 105 83 
-0.58092 -0.852023 4.19324 179 135 126 
-1.18391 -1.18009 4.52454 176 153 135 
-0.459177 -0.791269 4.11858 89 70 56 
-1.15158 -1.21413 4.55966 192 168 140 
-1.21405 -1.30533 4.64896 188 148 140 
-0.605329 -1.51097 4.83777 148 109 94 
-0.448203 -0.13591 2.90517 223 121 119 
-0.422178 -0.125696 2.91086 116 62 62 
-0.586545 -1.51203 4.85038 91 6 0 
-0.451862 -0.125455 2.90703 114 53 50 
-1.7916 1.32313 4.43777 235 196 157 
0.150455 -0.179011 3.49799 178 134 107 
0.433447 -0.172326 3.35889 247 186 93 
-2.10328 1.31319 4.45867 114 73 43 
-0.467337 -0.106681 2.91692 192 87 91 
-0.594328 -1.49544 4.82485 136 119 101 
-0.753267 -1.05383 4.23957 73 28 0 
0.0660535 -0.211923 3.53479 172 134 98 
0.496848 -0.200882 3.36251 151 54 0 
-3.13318 -1.32502 5.21323 155 150 154 
-0.518995 -0.872607 4.20671 156 103 97 
-3.19762 -1.5542 5.16587 107 105 106 
-1.87285 1.13075 4.62152 213 177 143 
-0.536445 -0.863359 4.19952 204 130 127 
-0.564436 -0.857483 4.19388 59 6 0 
-3.19373 -1.5351 5.16439 136 136 138 
0.164166 -0.284344 3.60185 178 131 101 
-1.21805 -1.17392 4.52124 201 117 133 
0.166263 -0.297906 3.6081 174 130 103 
0.216079 -0.30486 3.61384 86 44 28 
0.190841 -0.307365 3.61511 101 51 24 
0.116486 -0.308515 3.62635 89 52 26 
0.318995 -0.342919 3.64304 152 119 100 
-1.13931 -1.18959 4.54033 163 144 130 
-3.19287 -1.53158 5.32259 65 63 64 
-1.20696 -1.31703 4.66938 91 35 38 
-2.97361 0.783572 4.95257 198 169 139 
-0.284873 0.0955513 3.26657 89 74 53 
-0.490868 -0.657712 3.99334 123 92 63 
-3.04038 0.108646 5.59851 212 183 153 
-2.58133 -1.16384 6.74348 112 72 36 
-1.135 -1.10689 4.47189 217 74 80 
-2.75937 0.671467 5.04227 116 81 53 
0.25711 -0.304721 3.61357 90 51 36 
-0.496609 -0.832936 4.16312 173 155 141 
-2.47054 1.12304 4.63557 172 139 108 
-1.85041 1.21777 4.53116 132 97 67 
-2.0894 0.000490289 5.65076 221 183 146 
-2.6715 0.719761 4.99853 150 118 79 
-2.63811 0.872019 4.8822 223 182 136 
-0.488352 -0.109798 2.92748 241 163 159 
-0.490941 -0.807692 4.1386 84 61 47 
-0.434557 -0.117395 2.91349 102 56 58 
-0.434794 -0.108975 2.91509 224 164 164 
-3.17997 -1.52772 5.30098 47 46 51 
-0.604882 -0.846641 4.19305 66 35 17 
-0.524313 -0.804162 4.13374 255 195 184 
-3.20167 -1.53987 5.17487 184 184 182 
-0.958569 -1.43927 4.78929 181 141 115 
-1.00479 -1.45082 4.79331 56 41 20 
-0.922957 -1.45973 4.7903 147 138 107 
-0.582341 -1.49252 4.83285 24 3 0 
-2.44879 1.24618 4.5269 95 55 20 
0.434151 -0.171101 3.36371 247 190 103 
0.165447 -0.179389 3.49921 182 137 114 
-1.14164 -1.18824 4.5447 175 154 137 
-1.75302 1.31495 4.43766 91 55 29 
0.496289 -0.202278 3.36201 157 57 0 
-2.24008 1.06779 4.70624 116 83 48 
-0.933927 -1.29461 4.588 222 178 175 
-0.985471 -1.47372 4.80043 249 244 224 
-0.491681 -0.872032 4.2004 144 131 123 
0.16789 -0.198336 3.51749 178 129 97 
0.0672837 -0.229846 3.55597 168 137 109 
-2.87227 0.235069 5.46435 99 64 34 
-1.20965 -1.14417 4.50153 80 0 0 
-2.67288 0.721418 4.99997 144 109 71 
-1.85004 1.21851 4.53238 132 97 67 
-0.616731 0.233962 3.15046 104 81 65 
-2.59673 -1.17005 6.78003 112 72 36 
0.182062 -0.250726 3.56422 90 60 36 
0.268783 -0.313855 3.62604 174 122 98 
-2.17218 1.38964 4.38074 133 103 77 
-2.73303 1.11934 4.65165 121 87 59 
-0.402098 0.0365376 2.70956 53 46 38 
-0.399264 0.0509665 2.69417 44 37 31 
-1.04622 -1.4843 4.79402 87 77 68 
-0.487895 -0.815951 4.15259 176 162 151 
-1.92351 1.3411 4.42052 114 69 40 
-0.519629 -0.840216 4.16313 180 110 102 
-0.544919 -0.843814 4.18115 208 141 133 
-0.417672 -0.128225 2.90663 218 154 145 
-0.441758 -0.108606 2.91682 125 48 54 
-1.0353 -1.04585 4.40689 86 4 16 
-2.6854 0.826535 4.93641 120 87 52 
-0.963457 -1.42992 4.7667 74 50 24 
0.271145 -0.20888 3.19244 208 134 1 
-0.863566 -1.38354 4.73626 210 142 123 
-1.78848 1.31932 4.42398 203 163 127 
0.452518 -0.191611 3.35954 241 177 87 
-2.30055 1.00415 4.74361 251 216 176 
0.16749 -0.198732 3.51561 174 130 103 
-1.88004 1.32577 4.43296 206 163 128 
0.148656 -0.195461 3.51367 179 122 93 
-3.04229 0.103234 5.59938 200 173 144 
-2.9812 0.787842 4.96104 202 173 141 
-0.501908 -0.832114 4.15974 182 147 128 
-2.76208 0.672429 5.05465 107 73 46 
-1.94092 1.34119 4.4347 231 189 149 
-2.39069 1.09774 4.66955 147 111 87 
-0.496036 -0.806493 4.11317 48 26 13 
-0.64783 -1.47835 4.80891 184 86 49 
-0.435926 -0.122205 2.91208 120 44 54 
-0.470839 -0.776426 4.11295 90 61 43 
-2.68802 0.827851 4.93996 120 87 52 
-3.13059 -1.27381 5.31929 26 19 26 
-0.495184 -0.125324 2.91358 189 104 99 
-0.928489 -1.28389 4.59624 159 126 121 
-3.17644 -1.49388 5.30065 47 41 53 
-2.96818 0.0482523 5.62913 221 192 160 
0.474733 -0.173422 3.36887 238 180 57 
-2.24092 1.06712 4.70642 126 93 58 
0.452184 -0.193275 3.35325 240 190 119 
-2.96228 0.416949 5.29838 207 177 149 
0.0812609 -0.319779 3.64099 166 138 117 
-2.7471 1.11926 4.65994 120 89 58 
-1.89804 0.117748 5.53399 124 88 56 
-2.85844 0.386904 5.33623 202 164 117 
-0.501153 -0.832485 4.15522 179 148 128 
-0.45607 -0.117649 2.91629 212 170 171 
-3.15754 -1.47009 5.62236 29 26 33 
-3.15711 -1.39103 5.205 35 42 52 
-0.440146 -0.231013 2.98022 29 21 10 
2.08128 0.448512 3.65055 246 248 243 
-0.419258 -0.128403 2.91405 214 154 146 
-1.94836 1.34327 4.45354 238 194 149 
-2.68382 0.830206 4.92974 125 91 56 
-0.468507 -0.232271 2.99232 224 214 205 
0.452985 -0.196159 3.3545 234 192 142 
0.156774 -0.273773 3.58187 176 122 84 
-2.99259 0.4138 5.32115 200 169 123 
-2.67755 0.79586 4.98607 248 220 181 
-2.90749 0.363356 5.34141 221 186 144 
-2.97225 0.420267 5.31924 204 174 146 
0.137444 0.0218236 3.31825 108 92 76 
0.267305 -0.276646 3.58256 171 139 118 
-3.28619 -1.51477 5.01931 177 181 184 
-0.56519 -0.761633 4.10731 91 51 43 
-0.606327 -0.79917 4.14384 131 84 68 
-0.794974 -0.818884 3.92885 133 131 136 
-0.552236 -1.06776 4.30882 140 83 30 
-1.12095 -1.2099 4.57649 141 122 107 
-0.440884 -1.16803 4.3802 81 34 4 
-0.203073 -1.19381 4.48868 127 111 98 
-0.925497 -1.4685 4.80768 172 168 139 
-1.04211 -1.46612 4.82003 171 125 110 
-1.21474 -1.30492 4.66903 205 145 145 
-0.673922 -1.65346 4.78491 86 82 79 
-0.88386 -1.30563 4.65846 50 68 44 
-0.970483 -1.46315 4.81615 132 137 117 
-0.292613 -1.58032 4.74989 116 90 89 
-3.2756 -1.50836 5.03286 151 153 166 
-1.05143 -1.48918 4.81652 83 74 67 
0.200168 -0.249552 3.55791 97 40 11 
0.170114 -0.238594 3.55116 173 138 118 
-0.592199 -1.4913 4.83533 114 90 80 
-0.729093 -1.63595 4.77195 95 92 87 
-0.916349 -1.01268 4.3682 250 101 139 
-0.592429 -1.50613 4.84663 141 115 98 
0.570396 -0.29998 3.26991 125 86 31 
0.55833 -0.295902 3.27739 71 41 0 
-3.27694 -1.50103 5.04728 58 55 64 
0.145727 -0.219489 3.53587 80 41 12 
-3.25663 -1.57586 5.26128 69 67 68 
-1.15543 -1.21909 4.57761 192 168 140 
-3.24115 -1.47035 5.11308 88 84 85 
-1.05881 -1.49321 4.81188 196 185 181 
-1.12776 -1.22117 4.58579 65 42 28 
-3.2434 -1.57559 5.23757 107 105 106 
-0.920586 -1.43224 4.79333 214 186 149 
-3.25102 -1.56174 5.2544 136 136 138 
-0.719671 -1.63434 4.76807 197 193 184 
-0.50702 -0.818516 4.16419 55 31 19 
-3.24457 -1.56086 5.24204 170 170 168 
-1.0017 -1.44048 4.79999 228 156 97 
0.0752193 -0.284204 3.60618 157 121 99 
2.21354 -0.529742 4.07248 155 150 146 
-1.25916 -1.46316 4.8007 220 80 127 
-3.20138 -1.40258 5.26978 33 38 44 
0.67099 -0.295291 3.23199 167 75 0 
0.31107 -0.211134 3.5039 92 53 22 
0.255718 -0.200937 3.49795 143 112 91 
0.143309 -0.179197 3.49234 137 116 99 
-0.846031 -0.985009 4.35413 239 197 199 
-0.594575 -1.5108 4.86346 70 36 26 
-1.19394 -1.51133 4.91024 239 149 151 
0.0678476 -0.245297 3.56498 146 118 97 
-0.999709 -1.50844 4.9054 148 88 60 
0.307667 -0.256431 3.55025 135 114 83 
-0.0184604 -0.252535 3.58315 103 88 81 
-1.03002 -1.48799 4.85762 107 107 105 
-1.22166 -1.48901 4.89865 228 147 128 
-0.0192561 -0.257937 3.57028 136 122 113 
-1.13579 -1.48551 4.86889 85 55 44 
-0.846349 -1.47648 4.82034 215 194 177 
-0.493386 -0.787599 4.13926 190 162 148 
0.162962 -0.26507 3.57593 151 119 94 
-1.05914 -1.47253 4.85599 242 218 206 
0.309031 -0.268136 3.56382 148 125 107 
-1.00231 -1.46729 4.84467 155 153 130 
-0.853198 -1.46442 4.82057 165 155 128 
0.0820895 -0.265331 3.58303 81 54 35 
0.179325 -0.267121 3.57851 171 130 98 
-0.973146 -1.46126 4.84327 132 130 109 
0.358208 -0.27114 3.56731 143 121 100 
0.382771 -0.274843 3.56797 93 53 28 
-1.33675 -1.43271 4.68415 171 88 118 
0.394769 -0.28177 3.57918 150 119 99 
-0.961317 -1.43017 4.80818 156 118 95 
0.310615 -0.288375 3.58151 140 109 91 
0.168135 -0.299989 3.61352 141 103 80 
0.399953 -0.343567 3.63117 155 123 98 
0.420036 -0.353143 3.6512 217 200 190 
-1.07347 -1.34732 4.733 151 134 116 
-0.592683 -0.806073 4.16152 91 23 20 
-1.78891 1.42915 4.47017 110 77 44 
0.234674 -0.140542 3.07208 133 98 30 
-0.654269 -0.602739 3.74132 247 246 251 
-0.931809 -1.28312 4.62087 166 131 127 
-0.550273 -1.26385 4.4809 197 161 145 
-1.2159 -1.25391 4.64239 96 3 32 
-1.07494 -1.24165 4.62336 179 94 123 
-1.15303 -1.2342 4.6264 156 110 113 
-1.93443 1.47307 4.43006 110 74 48 
-0.615236 -1.21465 4.53201 76 49 20 
-0.354745 -0.158174 2.90122 97 26 22 
-1.12157 -1.20515 4.58542 111 91 82 
-0.799839 -1.19945 4.58024 68 32 18 
-0.359916 -0.670854 3.97791 72 61 55 
-0.925708 -1.18421 4.56132 185 122 79 
-0.542808 -0.691373 4.04375 239 198 192 
-0.361422 -0.148643 2.89495 190 104 105 
-0.738357 -0.716835 3.82746 179 252 255 
-1.17403 -1.17501 4.55465 163 155 119 
-0.568136 -0.697546 4.05373 125 36 38 
-0.779572 -1.17064 4.53277 86 49 22 
-0.567217 -0.707725 4.06526 121 73 69 
-0.588572 -0.707739 4.06546 161 107 95 
-1.15363 -1.16324 4.55034 199 101 139 
-0.588301 -0.715904 4.08479 231 153 151 
-0.553253 -0.726754 4.0883 255 166 165 
-0.428093 -0.743055 4.09254 92 79 70 
-0.372007 -0.140244 2.88898 204 123 122 
-0.435545 -0.746541 4.10206 108 81 70 
-0.549362 -0.746683 4.1026 109 75 63 
-0.584308 -0.747439 4.11162 135 65 67 
-1.9385 1.60484 4.26856 104 72 47 
-0.560037 -0.750897 4.10337 99 65 53 
-0.49883 -0.752889 4.09392 188 174 161 
-0.372269 -1.10706 4.41928 28 35 4 
-0.435592 -0.757068 4.11175 210 184 171 
-0.473872 -0.757137 4.11179 106 78 66 
-0.520652 -0.757668 4.1055 97 69 57 
-0.616458 -0.757176 4.11419 172 141 123 
-0.447273 -0.758313 4.114 188 160 148 
-0.55158 -1.06698 4.31393 157 101 54 
-0.530419 -0.759623 4.11674 84 66 56 
-0.632894 -0.759325 4.12345 228 201 180 
-0.635621 -0.768476 4.13399 234 206 192 
-0.461163 -0.771097 4.11257 182 150 135 
-0.540188 -0.771629 4.12658 222 188 179 
-0.55168 -0.771634 4.1267 185 159 146 
-0.916223 -1.00619 4.37704 221 77 102 
-0.444293 -0.774857 4.11864 93 93 85 
-0.66 -0.776779 4.13658 144 113 93 
-0.665064 -0.7762 4.14499 130 99 79 
-0.671493 -0.778164 4.13709 230 205 183 
-0.578744 -0.779436 4.13708 157 110 104 
-0.6096 -0.78368 4.13799 127 88 73 
-0.461069 -0.785413 4.12965 159 136 120 
-0.65994 -0.786722 4.15639 177 145 130 
-0.680919 -0.78664 4.1572 84 60 48 
0.61469 0.0534963 3.14329 164 70 0 
-0.578405 -0.788005 4.15649 234 156 154 
-0.671461 -0.789501 4.15728 80 60 53 
-0.763772 -0.971874 4.24574 106 24 0 
-0.908707 -0.968495 4.32452 251 127 91 
-0.514252 -0.79395 4.14993 98 76 63 
-0.530015 -0.793468 4.15806 120 37 31 
-0.615881 -0.794961 4.15877 209 181 160 
-1.13173 -0.956861 4.33288 112 108 97 
-0.4617 -0.800934 4.15086 231 214 204 
-0.828844 -0.94277 4.31871 104 6 0 
-0.882115 -0.937348 4.30922 246 120 79 
-0.656233 -0.801915 4.16109 91 63 52 
-0.644673 -0.803303 4.16133 71 43 31 
-0.574513 -0.804149 4.16937 109 50 42 
-0.836975 -0.819711 3.92942 169 164 170 
-0.604978 -0.807384 4.16258 100 58 44 
-0.61861 -0.809647 4.17188 92 67 47 
-0.662584 -0.811724 4.16319 90 61 43 
-0.52891 -0.812417 4.17166 175 116 112 
-0.569687 -0.869337 4.22083 153 95 94 
-0.466698 -0.86687 4.21102 85 76 67 
-0.614125 -0.813392 4.18082 166 140 125 
-0.472231 -0.863575 4.21946 58 51 43 
-0.568349 -0.858099 4.21809 105 54 53 
-0.535527 -0.856707 4.21622 176 97 93 
-0.57071 -0.855724 4.2089 111 50 49 
-0.829434 -0.851257 3.96206 152 150 155 
-0.536962 -0.835166 4.19479 183 104 100 
-0.524881 -0.832844 4.18548 159 92 83 
-0.627149 -0.81479 4.18132 169 146 130 
-0.586374 -0.828177 4.19354 183 115 114 
-0.560694 -0.816603 4.17309 74 41 34 
-0.585901 -0.82365 4.17463 150 96 94 
-0.496304 -0.822089 4.1744 84 75 58 
-0.575832 -0.818077 4.17307 70 33 27 
-0.603931 -0.818972 4.18217 80 42 29 
-0.649412 -0.818575 4.18944 113 93 82 
-0.615407 -0.830139 4.18519 106 79 60 
-0.480531 -0.866801 4.2117 74 61 52 
-0.66486 -0.802857 4.16939 117 86 68 
-1.43141 1.51058 4.33865 118 89 55 
-1.21703 1.55993 4.28557 117 89 65 
-1.00106 -1.5213 4.93176 77 16 0 
0.378269 -0.987168 3.63723 135 127 125 
-0.86532 -0.979314 4.35001 253 195 171 
-0.981291 -0.99487 4.36626 151 35 35 
-1.15339 -1.45346 4.86746 204 103 119 
-1.17269 -1.16601 4.54424 189 148 130 
-0.902713 -1.13047 4.48876 152 83 26 
-0.38104 -1.14818 4.47484 90 28 17 
-0.439928 -1.16706 4.38803 80 39 11 
-1.61699 1.2518 4.62723 94 62 37 
-1.46827 1.21178 4.66748 209 175 140 
-0.614675 -0.653601 3.75591 171 169 174 
-0.784429 -1.23079 4.59232 62 34 20 
-0.582795 -0.646358 3.77392 128 127 132 
-1.16712 -1.23815 4.60904 99 86 78 
-1.11573 -1.30351 4.69098 37 7 7 
0.206773 -0.546409 3.83876 170 158 146 
-0.667316 -1.29441 4.63391 69 55 46 
-0.581632 -1.11084 4.32147 182 97 77 
-0.303027 -0.987563 4.04975 150 148 149 
-0.991296 -1.51451 4.92265 129 81 59 
-0.504274 -0.716455 4.07633 94 113 111 
-0.943595 -1.53625 4.92595 179 39 6 
-1.2302 -1.35804 4.74646 158 64 78 
-0.540751 -0.806958 4.15496 226 148 144 
-0.575116 -0.841811 4.19888 169 132 116 
-1.05505 -1.47465 4.8439 249 232 224 
-0.845244 -1.46579 4.81366 219 207 181 
-0.644696 0.228247 3.10614 128 105 89 
-0.96966 -1.46472 4.8525 103 103 77 
-0.89494 -1.46209 4.83972 89 91 67 
-1.16974 -1.45277 4.84571 234 162 137 
-0.968758 -1.44931 4.8404 117 91 74 
-1.16406 -1.18217 4.55937 84 67 49 
-0.919374 -1.1969 4.5751 75 88 60 
-1.28811 -1.37946 4.71777 124 46 72 
-1.22791 -1.35866 4.75924 81 25 26 
-1.21472 -1.35868 4.75897 73 18 24 
-1.15867 -1.35074 4.74392 131 0 47 
-1.92773 1.42465 4.48333 105 75 47 
-1.07554 -1.33164 4.7167 115 17 55 
-1.21376 -1.31254 4.69807 127 61 71 
-0.565843 -0.698312 4.07299 254 196 192 
-1.21913 -1.30802 4.6769 168 146 125 
-0.885262 -1.30467 4.66702 36 60 36 
-0.732372 -0.716608 3.81815 142 208 255 
-0.674087 -1.29158 4.64388 76 54 43 
0.659758 0.0590108 3.13056 190 122 37 
-0.489257 -1.26748 4.46725 214 179 157 
-0.951268 -1.26685 4.56286 129 78 74 
-1.121 -1.26781 4.64597 98 13 46 
-0.467213 -1.25899 4.47105 219 182 163 
-1.20772 -1.26083 4.6538 160 87 106 
-0.541076 -0.747674 4.10788 218 185 176 
-0.499787 -0.749305 4.10797 221 217 205 
-0.769796 -1.24202 4.60305 113 119 85 
-0.461029 -0.760753 4.11154 205 175 164 
-1.207 -1.22006 4.59594 89 8 17 
-0.424888 -0.762389 4.11168 98 89 84 
-0.575158 -0.761926 4.12181 177 105 108 
-0.574109 -0.764513 4.13273 158 88 86 
-0.588862 -0.771864 4.12476 207 156 152 
-0.387022 -0.151176 2.87855 215 137 137 
-1.19479 -1.1801 4.54653 78 23 26 
-0.360417 -0.159282 2.89203 187 110 116 
-0.359585 -0.180947 2.89252 203 120 116 
-1.19138 -1.13578 4.51768 149 59 61 
-0.355884 -0.183807 2.90163 205 126 122 
-0.583199 -0.795407 4.15161 255 166 169 
-0.336925 -0.198163 2.92816 224 122 120 
-0.64973 -0.802717 4.14409 191 162 154 
-0.187284 -1.09393 4.41018 110 103 87 
0.427272 -0.36226 3.64784 106 71 49 
0.417654 -0.357948 3.63654 134 116 102 
-0.563521 -0.792733 4.14047 205 114 113 
0.366514 -0.336134 3.62602 110 66 37 
-1.06311 -1.34314 4.73183 158 136 115 
-0.520472 -0.818013 4.16791 141 112 106 
0.179603 -0.317974 3.62514 159 118 96 
-0.66082 -0.820869 4.17974 72 45 28 
0.315476 -0.315903 3.61597 140 113 102 
-0.539708 -0.82376 4.1848 177 96 95 
0.232801 -0.307647 3.61118 91 50 30 
-0.831353 -0.842783 3.95043 126 121 127 
-0.302865 -0.983243 4.07124 149 147 148 
-1.20572 -0.975392 4.33648 80 0 0 
-1.78355 1.4189 4.45555 100 67 36 
-0.339078 -0.968077 4.15161 49 26 34 
-0.627495 -0.84152 4.20531 154 127 116 
0.146018 -0.202141 3.51059 153 129 105 
-0.655498 -0.848139 4.20935 81 56 34 
0.395682 -0.278923 3.59035 150 119 99 
0.319602 -0.280113 3.57117 109 68 40 
-0.372111 -0.946014 4.11341 209 114 148 
-0.570221 -0.867355 4.23248 175 124 120 
0.595264 -0.333187 3.24981 112 58 11 
0.388393 -0.25433 3.54077 175 141 113 
0.39125 -0.255046 3.55967 160 130 102 
-0.51362 -0.807991 4.1652 224 188 176 
-0.47293 -0.802878 4.16409 193 166 149 
-0.941909 -1.53702 4.9135 170 24 1 
0.164012 -0.196276 3.50796 141 111 85 
-0.659774 -0.838718 4.19463 90 62 41 
-1.63541 1.61414 4.25407 141 97 60 
-0.968983 -1.00051 4.37128 157 67 66 
-0.964903 -1.01242 4.38417 176 0 13 
-1.13745 -1.53901 4.94372 54 0 10 
-1.18578 -1.07604 4.4529 136 75 72 
-0.578558 -0.599812 3.72224 251 255 255 
-1.11017 -1.30218 4.65974 37 7 7 
-1.05165 -1.24194 4.61206 98 95 86 
-0.965637 -1.2429 4.52783 166 115 114 
-1.29727 -1.54876 4.93359 154 50 83 
-2.2794 1.55989 4.35836 132 84 46 
-0.588355 -0.719037 4.07526 243 153 153 
-0.4877 -0.660695 4.00787 182 149 114 
-0.479989 -1.49787 4.85116 144 100 97 
-0.508926 -0.769527 4.12655 219 192 181 
-0.558225 -0.778778 4.14107 110 68 54 
-0.545217 -0.781568 4.12964 255 212 199 
-0.902512 -1.46029 4.82986 169 163 139 
-0.523996 -0.784635 4.14315 227 188 173 
-0.489088 -0.78953 4.13113 113 85 71 
-1.28959 -1.43425 4.78091 145 77 102 
-0.670994 -0.796875 4.14638 224 195 179 
-0.549531 -0.799834 4.15982 240 161 156 
-0.562999 -0.799952 4.15919 246 189 180 
0.246986 -0.221024 3.51676 75 45 19 
-1.16846 -1.40915 4.82385 112 44 55 
-0.58663 -0.811222 4.17476 193 135 133 
-0.399662 -1.39231 4.66185 165 167 162 
-0.632457 -0.812088 4.16232 55 30 23 
-0.663727 -0.811232 4.17561 80 53 34 
-0.552465 -0.815962 4.16333 58 24 15 
-1.18878 -1.38239 4.77748 105 33 45 
0.427227 -0.207446 3.32201 220 148 76 
-0.604005 -0.832619 4.19287 91 56 36 
-0.602688 -0.846064 4.20866 66 34 23 
-0.583628 -0.85023 4.207 155 108 98 
-1.21256 -1.31322 4.68802 94 41 49 
0.375288 -0.325407 3.25322 218 203 198 
-1.22186 -1.30676 4.6878 179 152 135 
-0.631525 -0.926268 4.13129 143 0 0 
-0.930355 -1.28472 4.60691 172 132 130 
-1.21181 -1.27824 4.67175 182 81 115 
-0.549617 -1.26544 4.47028 215 182 163 
0.30687 -1.01238 3.67266 183 176 166 
-0.462648 -0.230745 2.94258 252 244 231 
-1.76943 1.25361 4.61913 126 94 73 
-1.15518 -1.21594 4.58762 156 137 107 
-1.16923 -1.13231 4.51642 171 75 103 
-1.18693 -1.17921 4.55297 190 176 141 
0.739464 -0.124194 3.1486 114 39 0 
-0.902163 -1.15562 4.51693 154 116 93 
0.389321 -0.332961 3.6286 74 37 11 
-0.849581 -1.16857 4.53399 110 69 49 
-1.0349 -1.45687 4.84722 116 54 29 
-0.920879 -1.42842 4.80907 194 164 128 
-0.661059 -1.47985 4.8497 63 15 0 
-1.13699 -1.08997 4.47601 98 0 0 
-0.65675 -0.847476 4.22029 81 54 33 
0.347488 -0.305318 3.60384 90 49 29 
0.385214 -0.305281 3.59328 91 53 32 
-0.431647 -0.878452 4.21168 107 46 41 
-1.78472 1.45106 4.43168 109 80 50 
-0.736847 -1.21848 4.58333 102 74 53 
0.313838 -0.300151 3.60146 154 122 97 
-0.836285 -0.993407 4.34496 211 124 114 
0.11315 -0.276669 3.5992 95 53 29 
0.152318 -0.276818 3.58826 84 48 26 
-0.996091 -1.5207 4.90839 81 19 0 
-2.30791 1.52935 4.37321 233 200 165 
-1.18368 -0.95871 4.33048 86 11 5 
-0.787713 -0.782373 3.90099 188 188 188 
0.0674858 -0.226089 3.55013 143 116 89 
-0.875458 -0.83606 3.93514 160 158 161 
-0.785357 -1.22962 4.60465 62 36 23 
-1.19445 -1.14709 4.52486 188 94 118 
-1.23335 -1.02628 4.35553 74 0 4 
0.261664 -0.242178 3.55006 141 107 95 
-1.77559 1.63183 4.24503 111 75 51 
-1.76168 1.41354 4.46178 221 187 142 
-0.864667 -1.13006 4.48647 127 71 24 
-0.79602 -1.22713 4.59003 112 70 45 
-0.47865 -0.146259 2.87076 137 39 36 
-0.39565 0.0162434 2.64174 35 26 19 
-0.53061 -0.7774 4.12558 102 50 39 
-0.521651 -0.759645 4.1352 91 62 54 
-0.438782 -0.760279 4.09149 131 103 89 
-1.12448 -1.09508 4.47567 198 99 128 
-1.18874 -1.20245 4.57197 196 159 133 
-1.20207 -1.20274 4.58547 105 23 37 
-1.21946 -1.23181 4.62575 62 12 13 
-1.094 -1.4316 4.80487 255 252 241 
-1.21641 -1.2532 4.65483 66 12 28 
-1.20769 -1.26319 4.64473 216 102 136 
-0.430906 0.14634 2.55851 135 44 43 
-0.503888 0.107371 2.61183 109 48 45 
-0.44556 -0.772021 4.13026 90 83 75 
0.745038 -0.0670145 3.11425 104 32 0 
-0.113362 -0.815882 3.96913 120 108 92 
-0.93045 -1.48165 4.84261 132 155 135 
-0.78554 -0.792836 3.91016 85 84 89 
-0.586651 -0.761421 4.11244 210 125 132 
-0.555399 -0.71156 4.06826 255 207 196 
-0.482408 -0.156042 2.85762 176 79 73 
-1.17414 -1.45344 4.85997 226 143 129 
-0.903543 -1.1563 4.52933 148 112 88 
-1.22337 -1.17378 4.53724 113 39 62 
-0.631642 -0.821747 4.19766 75 46 30 
-0.539422 -0.825851 4.16808 205 141 132 
-0.789205 -1.19254 4.56499 63 32 14 
-1.13131 -1.21862 4.60585 70 40 32 
-1.2115 -1.2212 4.6109 79 0 8 
0.217195 -0.306899 3.61461 80 42 23 
0.115821 -0.307239 3.6272 76 48 34 
0.395426 -0.312328 3.60579 176 136 110 
-1.11206 -1.20507 4.57081 101 61 61 
-1.09409 -0.987025 4.31594 115 96 90 
0.248125 -0.216585 3.52981 72 45 24 
0.698314 0.000302508 3.16787 210 138 28 
0.185162 -0.275989 3.5859 95 59 35 
-1.017 -0.993569 4.36139 75 0 0 
-0.992453 -1.47585 4.83678 241 243 230 
-1.95831 1.39057 4.51144 109 75 40 
0.400248 -0.339381 3.64526 172 128 99 
0.0991423 -0.610994 3.8854 72 64 61 
-1.76791 1.40667 4.46858 193 159 121 
-1.2839 -1.38008 4.68801 155 64 95 
-0.675737 -1.24292 4.63109 31 48 30 
0.657804 -0.0514839 3.26716 214 147 32 
-1.9255 1.41934 4.47225 98 68 42 
0.349926 -0.990924 3.64433 122 116 102 
0.350638 -0.335695 3.62941 86 57 39 
-0.982013 -1.43025 4.81973 169 127 87 
0.734355 -0.0859006 3.07887 106 36 0 
-0.486815 -1.26749 4.45666 210 175 153 
-0.502998 -1.27054 4.47264 218 183 161 
-0.615832 -1.21519 4.54826 76 49 20 
-1.49174 1.20822 4.65304 215 186 154 
-0.853297 -0.865764 3.96863 237 231 233 
-1.30876 -1.293 4.56848 137 65 79 
-1.0639 -1.33059 4.71462 118 35 65 
-1.21801 -1.49121 4.88969 231 155 129 
-0.544511 -0.73568 4.09288 191 83 83 
-1.51227 1.41144 4.498 210 174 148 
-0.848012 -1.47572 4.83825 221 204 186 
-0.786522 -0.772355 3.88099 194 193 198 
-0.437268 -0.238018 2.95517 48 42 26 
-0.617853 -0.79898 4.14666 231 203 182 
-0.86605 -1.38584 4.75344 174 127 99 
0.065972 -0.212935 3.53051 166 119 93 
0.305158 -0.236385 3.52991 165 126 93 
-0.0374932 -0.254205 3.58342 70 42 21 
0.321564 -0.274824 3.58142 90 55 36 
-1.05035 -1.34302 4.71497 145 59 72 
0.162274 -0.282915 3.59985 173 127 94 
-1.05096 -1.3306 4.71436 206 107 127 
-1.76945 1.41309 4.47815 204 171 130 
-1.91968 1.46678 4.41551 206 171 141 
0.043715 -0.948911 3.98118 186 188 187 
-0.930427 -1.46312 4.83981 128 123 94 
-1.11241 -1.28539 4.67103 175 98 116 
-1.12712 -1.28145 4.65284 126 36 62 
-0.442195 -0.743983 4.09554 89 72 64 
-1.12134 -1.27294 4.67195 49 8 24 
-0.634266 -0.792097 4.16265 118 89 75 
-0.526813 -0.804542 4.14838 249 193 180 
-0.607354 -0.813178 4.15156 67 39 28 
-0.607029 -0.820937 4.17006 67 40 23 
-1.21635 -1.23081 4.60925 62 12 13 
-0.629387 -0.822801 4.18856 75 46 30 
-0.650496 -0.826547 4.17323 150 124 109 
-0.803124 -1.22082 4.56311 58 26 11 
-1.15971 -1.2155 4.60663 156 137 107 
0.0454702 -0.936984 4.00423 169 171 168 
-0.90919 -0.964813 4.33358 240 168 109 
-0.594158 -1.4932 4.85205 105 97 78 
-1.10012 -0.97713 4.3193 187 167 160 
-0.637736 -0.74864 4.1151 124 93 73 
-0.987607 -0.996675 4.37795 208 63 66 
-1.01516 -1.00562 4.38007 205 102 132 
-1.09895 -1.16539 4.54001 190 114 144 
-1.16396 -1.507 4.88816 158 37 78 
-1.00927 -1.13719 4.45884 218 158 168 
-1.12318 -1.11014 4.47959 101 8 35 
-1.21603 -1.16209 4.52958 67 0 0 
-1.14352 -1.15621 4.53968 138 42 79 
-1.46351 1.52711 4.3444 210 177 146 
-0.608923 -1.49666 4.85759 12 3 0 
-1.94913 1.54346 4.3319 189 159 121 
-1.06806 -1.23026 4.60146 235 140 148 
-0.490805 -0.140953 2.86076 150 49 53 
-0.562471 -0.807629 4.13811 227 194 177 
-0.523319 -0.786978 4.13211 217 175 163 
-0.485194 -0.779433 4.13867 220 192 178 
-0.485726 -0.800534 4.13677 235 207 195 
-0.526267 -0.802666 4.15893 246 200 185 
-0.649962 -0.813255 4.16167 35 18 11 
-1.03743 -1.46116 4.83345 108 66 44 
-0.533333 -0.816502 4.16267 124 42 48 
-0.583187 -0.818914 4.18374 68 16 18 
-0.523451 -0.769787 4.12733 238 210 198 
-0.522346 -0.840721 4.16881 184 133 116 
-0.561469 -0.761012 4.10415 81 56 49 
-0.5366 -0.754163 4.10194 76 63 54 
-0.63281 -0.740538 4.09889 231 204 183 
-0.401022 -1.39097 4.64777 143 145 140 
-0.562164 -0.699186 4.08996 255 206 197 
-1.03615 -1.01806 4.38673 228 102 140 
-1.06944 -1.33393 4.7062 64 13 28 
-1.12672 -1.11515 4.49427 90 0 26 
-0.851365 -1.17382 4.52196 56 24 9 
-1.19211 -1.17805 4.57485 188 175 133 
-0.9674 -1.18879 4.54875 32 14 0 
-1.12211 -1.21118 4.5772 138 114 102 
-1.108 -0.641076 3.92076 19 20 15 
-0.749658 -1.2194 4.59648 146 114 91 
-1.11886 -1.26495 4.65469 71 2 30 
-1.11046 -1.2706 4.60782 53 2 21 
0.174482 -0.258663 3.57261 159 119 94 
0.0771062 -0.254248 3.56495 80 59 40 
0.43619 -0.363346 3.65934 159 122 95 
-0.919371 -1.23458 4.61945 15 32 24 
-1.229 1.50414 4.35192 207 178 146 
0.256037 -0.218921 3.51103 177 129 93 
-1.50873 1.39744 4.48153 221 185 161 
-0.872015 -1.37344 4.74353 141 47 45 
-1.84412 1.38767 4.51699 127 91 57 
-1.23644 -1.17349 4.52893 76 0 0 
0.249961 -0.2024 3.48316 178 126 86 
-0.872021 -0.976157 4.33195 204 95 62 
-1.77815 1.35235 4.51945 113 78 46 
-0.490183 -0.659796 3.98939 171 138 105 
-2.109 1.33695 4.563 106 67 38 
-1.00315 -1.43861 4.83268 224 144 81 
-0.933312 -1.48193 4.85615 129 152 132 
0.707149 -0.00144913 3.17176 187 81 0 
-0.444717 -1.4659 4.75651 56 20 20 
-0.640306 -1.44387 4.7654 71 48 34 
-0.503172 -0.230927 2.94051 142 142 130 
-0.962779 -1.44282 4.82684 183 138 109 
-0.644458 -0.743455 4.1074 127 103 93 
-0.509728 -0.74724 4.10892 237 212 190 
-0.511408 -0.250509 2.97038 223 224 210 
-0.573879 -0.755489 4.11192 243 210 201 
-0.562684 -0.757761 4.13786 88 65 59 
-0.876014 -1.37536 4.75215 128 47 44 
-1.22646 -1.3577 4.77104 49 21 17 
-0.607249 -0.801697 4.17604 216 168 156 
-0.513547 -0.808964 4.12618 238 201 185 
-1.94802 1.51604 4.40332 100 74 49 
0.611417 0.0562828 3.15673 175 69 7 
-0.546319 -0.843351 4.18618 193 149 136 
0.489073 -0.215842 3.31835 165 68 0 
-0.576538 -0.84752 4.18756 154 118 104 
-0.621765 -0.846175 4.21343 67 40 29 
0.397025 -0.304556 3.62856 179 127 90 
0.0360831 -0.945697 4.0053 87 89 88 
0.30733 -0.965317 3.63046 42 42 40 
-0.446126 0.0646033 2.6033 26 21 17 
-1.83372 1.36498 4.48361 133 98 60 
-0.907513 -0.964913 4.34888 249 188 131 
-0.853604 -1.17269 4.54632 60 27 12 
-2.20255 1.28541 4.59244 67 49 29 
-1.16666 -1.13689 4.49881 235 106 147 
0.671211 -0.299805 3.22224 153 68 0 
0.173382 -0.26397 3.55997 167 121 97 
-1.13358 -1.11518 4.50791 67 2 10 
-1.00857 -1.11075 4.48361 217 132 174 
-0.839991 -1.43841 4.82424 190 123 96 
-0.393049 -1.16819 4.51048 60 18 2 
-0.791361 -1.20906 4.55994 168 119 86 
-0.639602 -0.876721 4.2149 29 4 0 
0.255648 -0.252311 3.54578 173 115 75 
0.385006 -0.203118 3.29275 122 53 0 
0.405948 -0.173963 3.33694 166 85 3 
-1.18936 -1.38849 4.78905 71 30 36 
-0.562062 -0.733731 4.0796 247 220 211 
-1.23419 -1.37559 4.75426 218 153 133 
0.466663 -0.107622 3.3088 185 93 10 
-0.994491 -1.31024 4.60585 238 225 209 
-0.512449 -0.760955 4.11729 101 72 66 
-0.543298 -0.76097 4.11758 84 72 72 
-0.60982 -1.29059 4.49844 236 204 189 
-0.516913 -0.84504 4.14004 184 132 119 
-0.551129 -1.26994 4.49567 227 195 174 
-0.414586 0.023565 2.63082 120 116 105 
-0.805671 -1.22052 4.59494 56 27 13 
-0.426493 0.0475874 2.63262 52 48 37 
-1.12522 -1.20962 4.59969 160 128 117 
0.296622 -0.999862 3.66264 232 235 218 
0.31482 -1.0131 3.66552 124 117 107 
-1.03062 -1.01997 4.40328 232 81 134 
-0.936353 -1.15035 4.52246 243 186 201 
-0.971827 -1.43427 4.82099 51 23 0 
-1.02821 -1.09244 4.44771 238 162 200 
-1.01512 -1.01014 4.36917 233 87 136 
-0.866002 -1.22577 4.59651 40 27 8 
