ply                 
format ascii 1.0    
element vertex 1250
property float x    
property float y    
property float z    
property uchar red  
property uchar green
property uchar blue 
end_header          
-0.590476 -1.50217 4.82772 43 25 13 
-0.558632 -1.54457 4.87562 124 113 107 
0.114293 -0.282097 3.5861 104 57 27 
-2.68885 0.833174 4.94668 158 128 90 
0.162985 -0.257135 3.55956 142 109 90 
-2.98615 0.825258 4.95669 130 94 62 
0.316267 -0.321036 3.60588 154 127 106 
-0.966831 -1.01584 4.36449 172 0 3 
-3.16439 -1.27606 5.47178 85 74 72 
-2.36365 1.39174 4.42211 207 169 130 
-0.710098 -1.44173 4.78389 59 1 0 
-2.61582 1.40872 4.41035 162 123 82 
0.0779527 -0.31847 3.621 150 124 99 
-2.77023 0.755616 4.99892 122 89 54 
-0.84736 -1.45492 4.78973 78 27 24 
-0.660567 -0.843015 4.17951 88 63 41 
-2.87595 0.245541 5.46986 105 69 37 
-1.21745 -1.16307 4.51289 94 12 1 
-1.11059 -1.29495 4.63924 92 52 61 
-2.59505 1.16784 4.63361 132 94 49 
0.520944 -0.178254 3.35675 193 123 11 
-1.77826 1.42949 4.34713 201 160 128 
-2.7811 1.3856 4.45515 209 173 137 
-2.56238 1.28834 4.54234 203 170 127 
-1.76205 1.42585 4.36473 107 73 36 
-2.48501 1.1513 4.63966 109 76 41 
-0.965428 -1.02094 4.36638 245 81 116 
-0.570753 -0.872624 4.19986 180 128 115 
-0.586386 -0.833447 4.16531 193 119 118 
-0.606782 -0.825521 4.16111 66 31 11 
-0.614167 -0.818032 4.15052 174 146 125 
-0.628321 -0.852739 4.18191 50 23 4 
-0.793962 -0.792399 3.89368 64 64 66 
-0.464453 -0.807048 4.12947 235 223 211 
-0.490315 -0.799946 4.12137 230 201 187 
-0.610729 -0.800824 4.13494 108 65 48 
-0.0846048 -0.8175 3.9527 149 146 127 
-0.584312 -0.799198 4.12569 255 184 178 
-0.579226 -0.785985 4.11187 149 87 90 
-0.452924 -0.783248 4.09774 222 203 189 
-0.44728 -0.766395 4.09091 211 182 168 
-0.53093 -0.765156 4.09366 105 83 70 
-0.52878 -0.759339 4.09023 239 211 197 
-0.549128 -0.75391 4.07968 82 56 39 
-0.491972 -0.659898 3.98363 117 86 57 
-0.38525 -0.144804 2.90869 247 151 155 
-0.436582 -0.131451 2.8964 251 160 159 
-0.443995 -0.125116 2.89496 108 53 59 
0.378362 -0.152087 3.3212 111 74 6 
-0.592592 0.511263 2.85924 128 112 97 
-0.450174 -0.110543 2.89743 235 146 148 
0.138493 0.0204839 3.29884 80 65 44 
-0.290597 0.09238 3.24931 75 63 39 
-0.328047 0.148035 2.61745 127 47 56 
-0.432451 0.180099 2.60541 242 153 155 
-1.13526 -1.47292 4.82715 55 31 7 
-0.208975 0.243522 3.09933 54 34 23 
-0.45306 -0.765723 4.08689 106 78 64 
-1.21499 -1.48973 4.83684 245 166 151 
-0.584989 -0.855354 4.18697 133 84 77 
-0.918843 -1.0129 4.3619 238 94 119 
-0.926834 -1.46634 4.79245 147 138 107 
0.118021 -0.312566 3.61448 79 42 16 
0.218083 -0.31125 3.60114 91 45 21 
-0.641001 0.232861 3.1299 109 86 68 
-1.28536 -1.43524 4.73194 159 79 104 
-0.967462 -1.44842 4.79921 157 121 95 
-0.286064 -1.14528 4.30219 209 146 131 
-0.378435 -0.147458 2.91155 235 139 140 
-0.273076 -1.3638 4.51975 81 56 51 
-1.33116 -1.4795 4.67797 223 102 143 
-3.17016 -1.29331 5.45503 37 35 38 
-0.597054 -0.812235 4.14815 105 27 25 
-3.14556 -1.28873 5.33594 47 43 44 
-1.21221 -1.36022 4.71148 85 15 25 
0.0679484 -0.231291 3.53495 169 142 113 
0.121422 -0.224956 3.52795 78 33 4 
-0.515959 -1.27974 4.46685 218 182 160 
0.154057 -0.183778 3.49033 183 150 133 
0.329423 -0.341336 3.62314 84 38 14 
0.169197 -0.316896 3.61173 167 134 103 
-0.499066 -1.28605 4.46885 228 195 176 
-1.12838 -1.28292 4.63246 134 37 68 
-3.22202 -1.53993 5.19723 141 141 143 
-1.92885 1.35671 4.42447 121 78 46 
-1.3326 -1.43382 4.63902 192 92 128 
-0.475089 -0.871111 4.19343 16 9 1 
-0.354474 0.156771 2.6046 171 92 95 
-1.75399 1.32606 4.44762 98 61 35 
-0.310598 0.50136 2.84506 146 130 115 
-1.76271 1.39587 4.39279 101 66 36 
-2.13229 0.977327 4.78797 109 76 43 
-0.496052 -0.822613 4.14659 175 155 144 
-0.709944 -1.44164 4.78255 59 1 0 
0.162419 -0.18809 3.48792 145 109 87 
-2.36265 1.39715 4.41524 125 85 50 
0.319746 -0.350436 3.63677 152 119 100 
-1.23919 -1.02828 4.35159 86 0 0 
0.169859 -0.322588 3.62195 161 127 115 
0.14386 -0.200601 3.50044 92 57 29 
0.168659 -0.305282 3.6023 154 119 99 
0.105805 -0.226461 3.5309 99 55 28 
0.158226 -0.234348 3.53387 169 134 114 
-1.03342 -1.45891 4.80083 107 42 20 
0.114043 -0.282205 3.5834 92 51 23 
-0.764931 -1.05725 4.2428 63 17 0 
0.0687584 -0.249607 3.55595 127 105 91 
-1.2271 -1.36039 4.71841 92 22 22 
0.117134 -0.275676 3.57743 153 131 108 
0.124649 -0.275683 3.57728 146 121 99 
-2.88427 1.4309 4.40123 179 140 99 
-0.478064 -0.765623 4.08607 190 162 151 
-1.13973 -1.1107 4.4745 203 74 79 
-1.76176 1.42483 4.36251 107 75 37 
0.225776 -0.299744 3.59031 109 67 42 
-2.35626 1.28698 4.50123 231 197 162 
0.0787796 -0.32419 3.62471 154 128 111 
0.373524 -0.653695 3.85785 97 84 76 
-2.39024 1.10899 4.68184 154 119 89 
-0.931876 -1.28874 4.58532 176 141 137 
-2.76326 0.677807 5.04308 137 98 67 
-2.61365 1.3447 4.46626 220 176 137 
-0.43304 -0.126322 2.89472 215 159 158 
-2.18683 1.399 4.40443 207 177 139 
-2.10027 0.00456826 5.66471 233 199 162 
-0.973688 -1.46325 4.79627 151 156 136 
-0.462779 -0.874789 4.19813 20 13 3 
-0.627898 -0.852765 4.18431 60 31 13 
-0.584286 -0.855638 4.1875 133 84 77 
-0.520839 -0.821172 4.14348 166 129 121 
-0.615291 -0.818174 4.15007 174 146 125 
-0.0732111 -0.817513 3.95039 144 139 119 
-0.595919 -0.874065 4.20533 176 125 108 
-0.112921 -0.822869 3.95688 158 150 127 
-0.587907 -0.811531 4.13717 214 141 135 
-0.594719 -0.809246 4.13692 102 23 19 
-0.489496 -0.803429 4.11837 199 173 158 
-0.535473 -0.772799 4.09905 89 61 50 
-2.88007 0.246302 5.47563 99 64 34 
-1.7897 1.33133 4.43577 227 187 151 
-0.919429 -1.01423 4.35851 250 101 139 
0.365651 -0.64592 3.85488 193 124 117 
-0.585706 -1.49836 4.82278 21 2 0 
-2.10294 1.32327 4.45891 110 69 41 
-0.846514 -1.47013 4.78764 231 225 203 
-0.285139 0.0917375 3.25069 85 70 49 
-0.290564 0.0900979 3.25712 74 62 40 
-3.22103 -1.5543 5.19094 61 59 60 
0.116835 -0.312196 3.61507 85 50 28 
0.191063 -0.311449 3.60609 78 32 9 
-1.13056 -1.11944 4.47963 103 13 38 
0.506214 -0.275189 3.30205 132 43 0 
0.166646 -0.301089 3.59487 181 143 122 
-3.15409 -1.32212 5.23521 143 141 146 
-1.76369 1.39536 4.3935 89 52 25 
-0.925846 -1.18487 4.52958 205 142 88 
0.0691137 -0.246568 3.55243 166 136 112 
-0.925341 -1.1975 4.55094 40 26 0 
-1.89923 1.39013 4.39653 91 60 31 
-1.21263 -1.3612 4.7118 87 25 26 
-0.500966 -1.28649 4.47027 232 199 180 
0.159134 -0.233047 3.54 171 134 107 
0.197308 -0.215197 3.51629 176 141 113 
-1.1508 -1.23635 4.58446 167 111 114 
0.323497 -0.984494 3.65225 26 18 5 
-2.45342 1.26071 4.53868 101 61 26 
-0.464855 -0.114599 2.89779 133 42 49 
-0.443306 -0.116035 2.89492 99 57 59 
0.378646 -0.151232 3.32437 106 67 0 
-0.463833 -0.126354 2.89468 133 49 49 
-0.45062 -0.137658 2.88955 243 154 150 
-0.418078 -0.128625 2.90491 234 167 158 
-0.424719 -0.129207 2.89445 117 59 58 
-1.23869 -1.02801 4.35408 66 0 0 
-0.475243 -0.872367 4.1968 19 12 2 
0.31997 -0.349566 3.6362 170 132 111 
-1.89522 1.18666 4.59344 142 109 76 
0.329713 -0.340651 3.62177 88 46 22 
-0.764584 -1.05592 4.23897 65 19 0 
-3.23352 -1.55597 5.21311 69 67 68 
0.496202 -0.20708 3.34503 151 54 0 
0.459129 -0.250842 3.30993 174 110 13 
0.651676 -0.242089 3.26563 136 62 0 
-1.93742 1.35123 4.4265 226 184 146 
-2.41044 1.41905 4.39309 102 71 43 
-3.19596 -1.34438 5.12432 116 114 115 
-0.496543 -0.835365 4.15099 170 156 143 
-0.310187 0.500174 2.84289 133 117 102 
-1.15681 -1.35316 4.71613 132 1 45 
0.0635745 -0.194819 3.50609 163 132 112 
-0.968633 -1.24691 4.51586 166 112 110 
-1.7442 1.38059 4.40161 209 166 132 
-0.445026 -1.17835 4.37927 95 50 19 
0.521453 -0.177656 3.3581 193 125 14 
-2.47556 1.13628 4.64405 183 149 121 
-2.68095 0.73257 5.01745 153 123 87 
-1.18546 -1.12569 4.48625 151 14 8 
0.439825 -0.220743 3.33001 181 116 16 
-0.0748347 -0.817264 3.94714 110 105 83 
-0.583266 -0.855875 4.1877 179 135 126 
-1.18945 -1.18332 4.52458 176 153 135 
-0.461038 -0.795323 4.11191 89 70 56 
-1.15709 -1.21769 4.55999 192 168 140 
-1.22014 -1.30922 4.65055 188 148 140 
-0.609027 -1.51851 4.83949 148 109 94 
-0.450176 -0.138965 2.89041 223 121 119 
-0.4241 -0.128847 2.89603 116 62 62 
-0.59013 -1.51968 4.8522 91 6 0 
-0.453792 -0.128495 2.89229 114 53 50 
-1.79159 1.33357 4.43972 235 196 157 
0.150573 -0.183921 3.48432 178 134 107 
0.433435 -0.178412 3.34346 247 186 93 
-2.10485 1.32485 4.46179 114 73 43 
-0.469179 -0.109654 2.90225 192 87 91 
-0.597938 -1.50291 4.82637 136 119 101 
-0.75687 -1.05773 4.23505 73 28 0 
0.066034 -0.21654 3.52164 172 134 98 
0.496823 -0.207242 3.3469 151 54 0 
-3.15146 -1.32311 5.22952 155 150 154 
-0.521176 -0.876776 4.20109 156 103 97 
-3.21679 -1.55325 5.18168 107 105 106 
-1.87421 1.14132 4.62605 213 177 143 
-0.538667 -0.867424 4.1939 204 130 127 
-0.566743 -0.861416 4.18829 59 6 0 
-3.2128 -1.53404 5.18016 136 136 138 
0.1643 -0.289427 3.58887 178 131 101 
-1.22371 -1.17699 4.52137 201 117 133 
0.166373 -0.30302 3.59515 174 130 103 
0.216283 -0.310174 3.60078 86 44 28 
0.190991 -0.312587 3.60214 101 51 24 
0.116525 -0.313451 3.61369 89 52 26 
0.319379 -0.348689 3.62986 152 119 100 
-1.14468 -1.19305 4.5404 163 144 130 
-3.21271 -1.53096 5.34074 65 63 64 
-1.21305 -1.32103 4.67119 91 35 38 
-2.98342 0.797551 4.96508 198 169 139 
-0.285065 0.092412 3.25281 89 74 53 
-0.492597 -0.66117 3.98563 123 92 63 
-3.0558 0.119757 5.62164 212 183 153 
-2.60106 -1.16598 6.7877 112 72 36 
-1.14008 -1.10992 4.47118 217 74 80 
-2.76858 0.684203 5.05543 116 81 53 
0.257394 -0.310193 3.60037 90 51 36 
-0.498654 -0.837018 4.15701 173 155 141 
-2.4751 1.13588 4.64207 172 139 108 
-1.85121 1.22832 4.53444 132 97 67 
-2.09791 0.0071815 5.67168 221 183 146 
-2.67984 0.732335 5.01077 150 118 79 
-2.64532 0.885019 4.89264 223 182 136 
-0.490186 -0.112681 2.91291 241 163 159 
-0.492925 -0.811693 4.13223 84 61 47 
-0.436443 -0.120497 2.8987 102 56 58 
-0.436646 -0.112075 2.9003 224 164 164 
-3.19961 -1.52705 5.31874 47 46 51 
-0.607292 -0.850386 4.1876 66 35 17 
-0.526404 -0.808021 4.12744 255 195 184 
-3.22086 -1.53884 5.19081 184 184 182 
-0.96383 -1.44504 4.79167 181 141 115 
-1.01031 -1.45648 4.7959 56 41 20 
-0.928113 -1.46572 4.79255 147 138 107 
-0.585866 -1.50005 4.83444 24 3 0 
-2.45247 1.25911 4.53192 95 55 20 
0.434166 -0.177185 3.34831 247 190 103 
0.165594 -0.184357 3.48551 182 137 114 
-1.14702 -1.1917 4.54482 175 154 137 
-1.75286 1.3252 4.43949 91 55 29 
0.496255 -0.208638 3.3464 157 57 0 
-2.24381 1.07975 4.71301 116 83 48 
-0.93873 -1.29936 4.58787 222 178 175 
-0.990977 -1.47957 4.80304 249 244 224 
-0.493777 -0.876295 4.19463 144 131 123 
0.168039 -0.203331 3.5039 178 129 97 
0.0672733 -0.234485 3.54297 168 137 109 
-2.88541 0.24626 5.48462 99 64 34 
-1.21518 -1.14712 4.50141 80 0 0 
-2.68122 0.734011 5.01222 144 109 71 
-1.85083 1.22907 4.53568 132 97 67 
-0.616973 0.232018 3.13708 104 81 65 
-2.61678 -1.17227 6.82518 112 72 36 
0.182215 -0.255836 3.55091 90 60 36 
0.269107 -0.319384 3.6129 174 122 98 
-2.17362 1.40154 4.3831 133 103 77 
-2.73907 1.13322 4.65918 121 87 59 
-0.403859 0.0330319 2.69395 53 46 38 
-0.401007 0.0474196 2.6785 44 37 31 
-1.05207 -1.48994 4.79675 87 77 68 
-0.489871 -0.820003 4.14635 176 162 151 
-1.92404 1.35204 4.42264 114 69 40 
-0.521779 -0.844232 4.1571 180 110 102 
-0.547133 -0.847765 4.17538 208 141 133 
-0.419612 -0.131397 2.89177 218 154 145 
-0.443605 -0.111677 2.90207 125 48 54 
-1.03979 -1.04892 4.40512 86 4 16 
-2.69326 0.83963 4.94779 120 87 52 
-0.968728 -1.43557 4.76881 74 50 24 
0.270093 -0.214497 3.17661 208 134 1 
-0.868216 -1.38929 4.73765 210 142 123 
-1.78845 1.32965 4.42573 203 163 127 
0.452457 -0.197792 3.34405 241 177 87 
-2.30492 1.01613 4.75107 251 216 176 
0.16763 -0.203727 3.50201 174 130 103 
-1.88044 1.33653 4.43511 206 163 128 
0.148768 -0.20038 3.50012 179 122 93 
-3.05774 0.114312 5.62254 200 173 144 
-2.99108 0.801907 4.97371 202 173 141 
-0.503976 -0.83617 4.15361 182 147 128 
-2.77136 0.685221 5.06802 107 73 46 
-1.94157 1.35227 4.43706 231 189 149 
-2.39503 1.11029 4.67627 147 111 87 
-0.498083 -0.810446 4.10657 48 26 13 
-0.65167 -1.48551 4.81042 184 86 49 
-0.437833 -0.125302 2.89729 120 44 54 
-0.472696 -0.780386 4.10627 90 61 43 
-2.6959 0.840977 4.95141 120 87 52 
-3.14922 -1.27184 5.3372 26 19 26 
-0.497104 -0.128193 2.89899 189 104 99 
-0.933223 -1.28864 4.59619 159 126 121 
-3.19595 -1.49303 5.3184 47 41 53 
-2.98336 0.058663 5.65254 221 192 160 
0.474816 -0.17966 3.35336 238 180 57 
-2.24466 1.07908 4.7132 126 93 58 
0.452087 -0.199462 3.33772 240 190 119 
-2.97477 0.429446 5.3162 207 177 149 
0.0812384 -0.324596 3.62855 166 138 117 
-2.75325 1.13324 4.66763 120 89 58 
-1.90448 0.124442 5.5523 124 88 56 
-2.87046 0.39888 5.35434 202 164 117 
-0.503228 -0.836539 4.14905 179 148 128 
-0.457953 -0.120665 2.90158 212 170 171 
-3.17843 -1.47002 5.64527 29 26 33 
-3.17571 -1.3894 5.22124 35 42 52 
-0.442312 -0.234046 2.96577 29 21 10 
2.08926 0.437896 3.63254 246 248 243 
-0.421183 -0.131562 2.89923 214 154 146 
-1.94908 1.35448 4.45616 238 194 149 
-2.69162 0.843292 4.94101 125 91 56 
-0.47066 -0.235189 2.978 224 214 205 
0.452883 -0.202351 3.33898 234 192 142 
0.156859 -0.278818 3.56877 176 122 84 
-3.00541 0.426446 5.33945 200 169 123 
-2.68565 0.808905 4.99816 248 220 181 
-2.91995 0.375363 5.35976 221 186 144 
-2.9849 0.432877 5.33745 204 174 146 
0.137635 0.0170616 3.30348 108 92 76 
0.267769 -0.282324 3.57116 171 139 118 
-3.29783 -1.50951 5.02225 177 181 184 
-0.567214 -0.764979 4.09988 91 51 43 
-0.608518 -0.802447 4.13665 131 84 68 
-0.798214 -0.821479 3.92131 133 131 136 
-0.554871 -1.07199 4.30208 140 83 30 
-1.12525 -1.21231 4.57224 141 122 107 
-0.44338 -1.173 4.37343 81 34 4 
-0.204618 -1.19986 4.48184 127 111 98 
-0.929641 -1.47258 4.80385 172 168 139 
-1.04661 -1.46973 4.81655 171 125 110 
-1.21951 -1.30726 4.66538 205 145 145 
-0.677937 -1.65903 4.78002 86 82 79 
-0.887596 -1.30932 4.65397 50 68 44 
-0.974742 -1.46704 4.81249 132 137 117 
-0.295197 -1.58724 4.74405 116 90 89 
-3.28722 -1.50314 5.03586 151 153 166 
-1.05605 -1.49281 4.813 83 74 67 
0.200487 -0.254928 3.54658 97 40 11 
0.17038 -0.243834 3.53986 173 138 118 
-0.595238 -1.49683 4.83083 114 90 80 
-0.733252 -1.64124 4.76716 95 92 87 
-0.919727 -1.01531 4.36264 250 101 139 
-0.595495 -1.51171 4.84218 141 115 98 
0.57021 -0.307172 3.257 125 86 31 
0.558167 -0.303033 3.26452 71 41 0 
-3.28857 -1.49579 5.05038 58 55 64 
0.145957 -0.224606 3.52458 80 41 12 
-3.26866 -1.57112 5.26552 69 67 68 
-1.15987 -1.22139 4.57345 192 168 140 
-3.25271 -1.46523 5.11654 88 84 85 
-1.06347 -1.49682 4.80835 196 185 181 
-1.13211 -1.22359 4.58159 65 42 28 
-3.25535 -1.57088 5.24162 107 105 106 
-0.924616 -1.43624 4.78946 214 186 149 
-3.26299 -1.55698 5.25861 136 136 138 
-0.723803 -1.63966 4.76324 197 193 184 
-0.508951 -0.822241 4.15685 55 31 19 
-3.25651 -1.5561 5.24614 170 170 168 
-1.00601 -1.44417 4.79635 228 156 97 
0.0752665 -0.289129 3.59532 157 121 99 
2.2216 -0.543379 4.05836 155 150 146 
-1.26439 -1.46586 4.79763 220 80 127 
-3.21291 -1.39753 5.27425 33 38 44 
0.670871 -0.302901 3.21876 167 75 0 
0.313935 -0.212634 3.50453 92 53 22 
0.256721 -0.204959 3.48971 143 112 91 
0.144001 -0.18277 3.48422 137 116 99 
-0.848651 -0.98866 4.34396 239 197 199 
-0.597107 -1.51707 4.84874 70 36 26 
-1.19698 -1.51529 4.89557 239 149 151 
0.0682282 -0.248918 3.55689 146 118 97 
-1.00258 -1.51316 4.89068 148 88 60 
0.308771 -0.260875 3.54191 135 114 83 
-0.0183371 -0.255914 3.57513 103 88 81 
-1.03301 -1.4925 4.84328 107 107 105 
-1.22469 -1.49283 4.88417 228 147 128 
-0.0191905 -0.261302 3.56231 136 122 113 
-1.13883 -1.48961 4.85455 85 55 44 
-0.849214 -1.48165 4.80619 215 194 177 
-0.495157 -0.791723 4.13002 190 162 148 
0.163608 -0.26909 3.56771 151 119 94 
-1.06212 -1.47692 4.84176 242 218 206 
0.310129 -0.272641 3.55546 148 125 107 
-1.00525 -1.47187 4.8305 155 153 130 
-0.856032 -1.46956 4.80647 165 155 128 
0.0824865 -0.269087 3.57491 81 54 35 
0.180024 -0.27121 3.57026 171 130 98 
-0.976037 -1.46595 4.82911 132 130 109 
0.359475 -0.275831 3.55888 143 121 100 
0.384112 -0.279629 3.55951 93 53 28 
-1.3404 -1.43569 4.67127 171 88 118 
0.396154 -0.286637 3.57069 150 119 99 
-0.964205 -1.43482 4.79435 156 118 95 
0.311687 -0.292974 3.57314 140 109 91 
0.168761 -0.304189 3.60525 141 103 80 
0.401245 -0.348726 3.62261 155 123 98 
0.421412 -0.358437 3.64256 217 200 190 
-1.07646 -1.35133 4.72 151 134 116 
-0.594694 -0.80992 4.15225 91 23 20 
-1.78257 1.43048 4.4539 110 77 44 
0.234714 -0.143558 3.06486 133 98 30 
-0.656874 -0.605089 3.73393 247 246 251 
-0.934764 -1.28741 4.60863 166 131 127 
-0.552952 -1.26935 4.46919 197 161 145 
-1.21906 -1.25711 4.6303 96 3 32 
-1.07795 -1.24534 4.61132 179 94 123 
-1.15611 -1.23758 4.61443 156 110 113 
-1.92803 1.47475 4.41378 110 74 48 
-0.617712 -1.2199 4.52023 76 49 20 
-0.357141 -0.158927 2.8954 97 26 22 
-1.12465 -1.20854 4.57373 111 91 82 
-0.80244 -1.20406 4.56838 68 32 18 
-0.361354 -0.674874 3.96925 72 61 55 
-0.928513 -1.18827 4.54969 185 122 79 
-0.544608 -0.694907 4.03503 239 198 192 
-0.363818 -0.149342 2.88913 190 104 105 
-0.741341 -0.719325 3.81984 179 252 255 
-1.17718 -1.1781 4.54326 163 155 119 
-0.569993 -0.701024 4.04497 125 36 38 
-0.782179 -1.17519 4.52122 86 49 22 
-0.569077 -0.711252 4.05645 121 73 69 
-0.590484 -0.711188 4.05667 161 107 95 
-1.15673 -1.16639 4.53898 199 101 139 
-0.58956 -0.720685 4.06801 231 153 151 
-0.555086 -0.730419 4.07938 255 166 165 
-0.429666 -0.747221 4.08346 92 79 70 
-0.374418 -0.140881 2.88316 204 123 122 
-0.437123 -0.750707 4.09294 108 81 70 
-0.551219 -0.750438 4.0936 109 75 63 
-0.586226 -0.751085 4.10262 135 65 67 
-1.93171 1.6063 4.25183 104 72 47 
-0.561933 -0.754625 4.09437 99 65 53 
-0.500612 -0.756826 4.0849 188 174 161 
-0.374183 -1.11284 4.40817 28 35 4 
-0.437183 -0.761278 4.10258 210 184 171 
-0.475558 -0.761208 4.10266 106 78 66 
-0.522473 -0.761558 4.09646 97 69 57 
-0.618479 -0.760734 4.1052 172 141 123 
-0.448892 -0.762488 4.10485 188 160 148 
-0.554024 -1.07183 4.30357 157 101 54 
-0.532195 -0.764044 4.10363 84 66 56 
-0.634935 -0.762845 4.11443 228 201 180 
-0.637671 -0.772029 4.12492 234 206 192 
-0.462869 -0.77525 4.10342 182 150 135 
-0.542048 -0.775522 4.11745 222 188 179 
-0.553567 -0.775484 4.11758 185 159 146 
-0.918975 -1.00966 4.36677 221 77 102 
-0.445954 -0.779091 4.10945 93 93 85 
-0.662129 -0.780267 4.12751 144 113 93 
-0.667178 -0.779684 4.13589 130 99 79 
-0.673652 -0.781615 4.12803 230 205 183 
-0.580694 -0.783227 4.12793 157 110 104 
-0.611634 -0.787371 4.12886 127 88 73 
-0.46278 -0.789634 4.12042 159 136 120 
-0.662049 -0.79027 4.14723 177 145 130 
-0.683072 -0.790112 4.14806 84 60 48 
0.616992 0.0495327 3.13475 164 70 0 
-0.580331 -0.791853 4.14725 234 156 154 
-0.673602 -0.793016 4.14812 80 60 53 
-0.766506 -0.975611 4.23606 106 24 0 
-0.911475 -0.971827 4.31457 251 127 91 
-0.516068 -0.798032 4.14066 98 76 63 
-0.531843 -0.797508 4.14876 120 37 31 
-0.617913 -0.798693 4.14955 209 181 160 
-1.13482 -0.959356 4.3231 112 108 97 
-0.463412 -0.805228 4.14152 231 214 204 
-0.831391 -0.946335 4.30877 104 6 0 
-0.884773 -0.940687 4.29938 246 120 79 
-0.658222 -0.805496 4.15215 91 63 52 
-0.646794 -0.806953 4.15212 71 43 31 
-0.576453 -0.808073 4.16006 109 50 42 
-0.840255 -0.822274 3.92142 169 164 170 
-0.60702 -0.81119 4.15333 100 58 44 
-0.620665 -0.813426 4.1626 92 67 47 
-0.66477 -0.815333 4.15397 90 61 43 
-0.530767 -0.816531 4.16229 175 116 112 
-0.57171 -0.873523 4.21122 153 95 94 
-0.468502 -0.87141 4.20136 85 76 67 
-0.616158 -0.817214 4.17148 166 140 125 
-0.474012 -0.868102 4.20978 58 51 43 
-0.570336 -0.862259 4.2085 105 54 53 
-0.537439 -0.86098 4.20662 176 97 93 
-0.572719 -0.859853 4.19936 111 50 49 
-0.832713 -0.853979 3.95389 152 150 155 
-0.538857 -0.839346 4.1853 183 104 100 
-0.526766 -0.837046 4.17602 159 92 83 
-0.629214 -0.818568 4.172 169 146 130 
-0.588361 -0.832157 4.18411 183 115 114 
-0.562638 -0.820613 4.16374 74 41 34 
-0.587924 -0.827588 4.16528 150 96 94 
-0.498113 -0.826349 4.16498 84 75 58 
-0.577816 -0.822036 4.16372 70 33 27 
-0.605957 -0.822847 4.17281 80 42 29 
-0.651518 -0.822296 4.1801 113 93 82 
-0.617491 -0.834003 4.17582 106 79 60 
-0.482366 -0.87129 4.20206 74 61 52 
-0.667001 -0.806449 4.16016 117 86 68 
-1.42469 1.51085 4.32181 118 89 55 
-1.21 1.55953 4.26828 117 89 65 
-1.00389 -1.52607 4.91682 77 16 0 
0.376835 -0.994129 3.62889 135 127 125 
-0.867969 -0.982873 4.33989 253 195 171 
-0.984152 -0.998057 4.35612 151 35 35 
-1.15636 -1.45747 4.85328 204 103 119 
-1.17584 -1.16908 4.53293 189 148 130 
-0.905523 -1.13442 4.47764 152 83 26 
-0.382975 -1.15411 4.46334 90 28 17 
-0.442298 -1.17265 4.37697 80 39 11 
-1.61103 1.25277 4.61141 94 62 37 
-1.46225 1.21231 4.65163 209 175 140 
-0.61733 -0.656246 3.74844 171 169 174 
-0.787073 -1.23552 4.58029 62 34 20 
-0.58529 -0.649134 3.76633 128 127 132 
-1.17028 -1.24146 4.59716 99 86 78 
-1.11877 -1.30723 4.67839 37 7 7 
0.207131 -0.551857 3.82996 170 158 146 
-0.669868 -1.29977 4.62138 69 55 46 
-0.584276 -1.11568 4.311 182 97 77 
-0.305339 -0.992704 4.04052 150 148 149 
-0.994125 -1.5193 4.90778 129 81 59 
-0.505982 -0.720251 4.06741 94 113 111 
-0.946435 -1.54125 4.91095 179 39 6 
-1.23334 -1.36147 4.73341 158 64 78 
-0.542664 -0.810984 4.14568 226 148 144 
-0.577112 -0.845875 4.1894 169 132 116 
-1.05807 -1.47904 4.82974 249 232 224 
-0.848092 -1.47095 4.79958 219 207 181 
-0.645787 0.228716 3.09886 128 105 89 
-0.972528 -1.46945 4.83826 103 103 77 
-0.897759 -1.46708 4.82554 89 91 67 
-1.1728 -1.45668 4.83168 234 162 137 
-0.971615 -1.454 4.8263 117 91 74 
-1.16721 -1.18532 4.54792 84 67 49 
-0.922169 -1.20103 4.56335 75 88 60 
-1.29147 -1.38264 4.70486 124 46 72 
-1.23102 -1.36212 4.74612 81 25 26 
-1.21782 -1.36219 4.74584 73 18 24 
-1.16173 -1.35444 4.73089 131 0 47 
-1.92147 1.42636 4.46719 105 75 47 
-1.07854 -1.33559 4.70384 115 17 55 
-1.21692 -1.31591 4.68547 127 61 71 
-0.567643 -0.701834 4.06416 254 196 192 
-1.22235 -1.31133 4.66445 168 146 125 
-0.888082 -1.30925 4.65441 36 60 36 
-0.735367 -0.719102 3.81056 142 208 255 
-0.676611 -1.29692 4.6313 76 54 43 
0.662213 0.0549323 3.12195 190 122 37 
-0.491874 -1.2732 4.45555 214 179 157 
-0.954372 -1.27095 4.551 129 78 74 
-1.12408 -1.27139 4.63376 98 13 46 
-0.469747 -1.26479 4.45936 219 182 163 
-1.21086 -1.26409 4.64162 160 87 106 
-0.542901 -0.751471 4.09885 218 185 176 
-0.501517 -0.753256 4.0989 221 217 205 
-0.772424 -1.24684 4.59092 113 119 85 
-0.462698 -0.764878 4.10241 205 175 164 
-1.2102 -1.22317 4.5842 89 8 17 
-0.426473 -0.76665 4.1025 98 89 84 
-0.577078 -0.76566 4.11273 177 105 108 
-0.576005 -0.768278 4.1236 158 88 86 
-0.590843 -0.775578 4.11568 207 156 152 
-0.389549 -0.151767 2.87282 215 137 137 
-1.19801 -1.18311 4.53518 78 23 26 
-0.36286 -0.160002 2.88624 187 110 116 
-0.362108 -0.181719 2.88679 203 120 116 
-1.19455 -1.13869 4.5066 149 59 61 
-0.358383 -0.184614 2.89588 205 126 122 
-0.585177 -0.799246 4.14239 255 166 169 
-0.33935 -0.199112 2.92235 224 122 120 
-0.65191 -0.806316 4.13497 191 162 154 
-0.188753 -1.10038 4.39896 110 103 87 
0.428631 -0.367595 3.63923 106 71 49 
0.418968 -0.363215 3.62798 134 116 102 
-0.565474 -0.796617 4.13128 205 114 113 
0.367706 -0.341144 3.61752 110 66 37 
-1.06608 -1.34718 4.71883 158 136 115 
-0.522341 -0.822164 4.15854 141 112 106 
0.180227 -0.322286 3.61684 159 118 96 
-0.662988 -0.824535 4.17045 72 45 28 
0.316544 -0.320663 3.60752 140 113 102 
-0.541597 -0.827883 4.17538 177 96 95 
0.233606 -0.31209 3.60284 91 50 30 
-0.834641 -0.845457 3.94232 126 121 127 
-0.305102 -0.988412 4.06192 149 147 148 
-1.20898 -0.977653 4.32672 80 0 0 
-1.7773 1.42025 4.43938 100 67 36 
-0.341124 -0.97322 4.14197 49 26 34 
-0.62959 -0.845402 4.19584 154 127 116 
0.146678 -0.205819 3.50246 153 129 105 
-0.657668 -0.851941 4.19989 81 56 34 
0.39711 -0.283805 3.58182 150 119 99 
0.320709 -0.284703 3.56279 109 68 40 
-0.374259 -0.950915 4.104 209 114 148 
-0.572205 -0.871555 4.22282 175 124 120 
0.596347 -0.338273 3.24206 112 58 11 
0.389762 -0.25903 3.53234 175 141 113 
0.392675 -0.259794 3.55118 160 130 102 
-0.515443 -0.812138 4.15584 224 188 176 
-0.47464 -0.807158 4.15471 193 166 149 
-0.944787 -1.542 4.89857 170 24 1 
0.164748 -0.199993 3.49981 141 111 85 
-0.661962 -0.842456 4.18525 90 62 41 
-1.62846 1.61472 4.23692 141 97 60 
-0.971827 -1.00376 4.3611 157 67 66 
-0.96774 -1.01573 4.3739 176 0 13 
-1.14041 -1.54327 4.9287 54 0 10 
-1.18896 -1.07876 4.44231 136 75 72 
-0.581014 -0.602388 3.71483 251 255 255 
-1.1133 -1.30587 4.64733 37 7 7 
-1.05466 -1.2457 4.60007 98 95 86 
-0.968792 -1.24685 4.51625 166 115 114 
-1.3004 -1.55237 4.91864 154 50 83 
-2.27279 1.56238 4.34214 132 84 46 
-0.59028 -0.722532 4.06643 243 153 153 
-0.489347 -0.664285 3.99923 182 149 114 
-0.482348 -1.50456 4.8365 144 100 97 
-0.510704 -0.773527 4.1174 219 192 181 
-0.560113 -0.782649 4.13189 110 68 54 
-0.547117 -0.785471 4.12049 255 212 199 
-0.905363 -1.46524 4.81575 169 163 139 
-0.52582 -0.788646 4.13393 227 188 173 
-0.490879 -0.793661 4.12191 113 85 71 
-1.2929 -1.43757 4.76741 145 77 102 
-0.673713 -0.799052 4.14716 224 195 179 
-0.551424 -0.803819 4.15055 240 161 156 
-0.564925 -0.803889 4.14991 246 189 180 
0.247932 -0.225102 3.50853 75 45 19 
-1.17146 -1.41299 4.81014 112 44 55 
-0.588608 -0.815127 4.16543 193 135 133 
-0.402031 -1.39889 4.64863 165 167 162 
-0.634578 -0.815806 4.15308 55 30 23 
-0.665697 -0.815284 4.16305 80 53 34 
-0.554414 -0.819983 4.15402 58 24 15 
-1.19187 -1.38606 4.76415 105 33 45 
0.428354 -0.211739 3.31404 220 148 76 
-0.60605 -0.836544 4.18346 91 56 36 
-0.604735 -0.850053 4.19916 66 34 23 
-0.585651 -0.854296 4.19748 155 108 98 
-1.21574 -1.31657 4.67548 94 41 49 
0.375601 -0.329711 3.24579 218 203 198 
-1.22504 -1.31007 4.67528 179 152 135 
-0.634151 -0.930192 4.12209 143 0 0 
-0.933354 -1.28899 4.59474 172 132 130 
-1.21495 -1.28153 4.65942 182 81 115 
-0.55233 -1.27093 4.45862 215 182 163 
0.305187 -1.01921 3.66425 183 176 166 
-0.465535 -0.231363 2.93702 252 244 231 
-1.76362 1.25501 4.60347 126 94 73 
-1.15833 -1.21922 4.57592 156 137 107 
-1.17236 -1.13529 4.50533 171 75 103 
-1.19011 -1.18226 4.54158 190 176 141 
0.741628 -0.12901 3.14041 114 39 0 
-0.904972 -1.15966 4.50561 154 116 93 
0.390612 -0.338045 3.62005 74 37 11 
-0.852297 -1.17286 4.5225 110 69 49 
-1.03783 -1.46132 4.83309 116 54 29 
-0.923712 -1.43323 4.79522 194 164 128 
-0.663614 -1.4858 4.83523 63 15 0 
-1.14007 -1.09293 4.46523 98 0 0 
-0.65889 -0.851289 4.21079 81 54 33 
0.348676 -0.310137 3.59537 90 49 29 
0.387438 -0.308546 3.5907 91 53 32 
-0.433409 -0.88315 4.20197 107 46 41 
-1.77835 1.45237 4.41537 109 80 50 
-0.739399 -1.22336 4.57136 102 74 53 
0.314926 -0.304831 3.59304 154 122 97 
-0.838944 -0.997094 4.33482 211 124 114 
0.113648 -0.28059 3.591 95 53 29 
0.152915 -0.280855 3.58004 84 48 26 
-0.998988 -1.52545 4.89359 81 19 0 
-2.30145 1.532 4.35719 233 200 165 
-1.18687 -0.961012 4.32075 86 11 5 
-0.790833 -0.784976 3.89309 188 188 188 
0.0678997 -0.229634 3.54204 143 116 89 
-0.878861 -0.83853 3.92715 160 158 161 
-0.787964 -1.23437 4.59257 62 36 23 
-1.19764 -1.15001 4.51372 188 94 118 
-1.23675 -1.02856 4.34559 74 0 4 
0.262665 -0.246425 3.54175 141 107 95 
-1.76864 1.63276 4.22797 111 75 51 
-1.75543 1.41485 4.44561 221 187 142 
-0.86742 -1.13415 4.47535 127 71 24 
-0.798678 -1.23181 4.57803 112 70 45 
-0.481448 -0.146514 2.86518 137 39 36 
-0.398188 0.0163814 2.63602 35 26 19 
-0.53247 -0.78134 4.11643 102 50 39 
-0.523397 -0.763594 4.12601 91 62 54 
-0.440449 -0.764447 4.08241 131 103 89 
-1.12756 -1.09811 4.46486 198 99 128 
-1.19193 -1.20556 4.56041 196 159 133 
-1.20524 -1.20582 4.57384 105 23 37 
-1.22262 -1.23493 4.61383 62 12 13 
-1.09705 -1.43573 4.79113 255 252 241 
-1.21953 -1.25641 4.64268 66 12 28 
-1.21086 -1.26643 4.63259 216 102 136 
-0.433249 0.146877 2.5525 135 44 43 
-0.506446 0.10803 2.606 109 48 45 
-0.447181 -0.776265 4.12102 90 83 75 
0.747338 -0.0716408 3.10596 104 32 0 
-0.114716 -0.821154 3.9602 120 108 92 
-0.933358 -1.48653 4.82834 132 155 135 
-0.788668 -0.795487 3.90222 85 84 89 
-0.588622 -0.765095 4.10342 210 125 132 
-0.557235 -0.715145 4.05942 255 207 196 
-0.485292 -0.156283 2.85211 176 79 73 
-1.17715 -1.45736 4.84585 226 143 129 
-0.906317 -1.16035 4.51792 148 112 88 
-1.22663 -1.17666 4.52598 113 39 62 
-0.633696 -0.825554 4.18826 75 46 30 
-0.541364 -0.829953 4.15871 205 141 132 
-0.791809 -1.19714 4.55322 63 32 14 
-1.13437 -1.22203 4.59401 70 40 32 
-1.21466 -1.22432 4.59909 79 0 8 
0.21796 -0.311291 3.60628 80 42 23 
0.116281 -0.311306 3.61897 76 48 34 
0.396762 -0.317332 3.59727 176 136 110 
-1.11517 -1.20847 4.5592 101 61 61 
-1.09727 -0.989686 4.30617 115 96 90 
0.249124 -0.220683 3.52152 72 45 24 
0.700811 -0.00410024 3.15932 210 138 28 
0.185866 -0.280133 3.57765 95 59 35 
-1.01994 -0.996613 4.3513 75 0 0 
-0.995425 -1.48047 4.82259 241 243 230 
-1.95219 1.39241 4.49547 109 75 40 
0.401596 -0.344551 3.63667 172 128 99 
0.0990189 -0.616324 3.87661 72 64 61 
-1.76168 1.40799 4.45243 193 159 121 
-1.28735 -1.38323 4.67526 155 64 95 
-0.678133 -1.24816 4.61875 31 48 30 
0.66022 -0.0560544 3.25861 214 147 32 
-1.91929 1.42108 4.45619 98 68 42 
0.348402 -0.997803 3.63599 122 116 102 
0.351785 -0.340655 3.62092 86 57 39 
-0.98489 -1.43484 4.80585 169 127 87 
0.736456 -0.0904746 3.07073 106 36 0 
-0.489457 -1.2732 4.44502 210 175 153 
-0.505636 -1.27623 4.46092 218 183 161 
-0.618263 -1.22048 4.53639 76 49 20 
-1.4858 1.20884 4.63728 215 186 154 
-0.856659 -0.868442 3.96045 237 231 233 
-1.31237 -1.29577 4.55676 137 65 79 
-1.06689 -1.33458 4.70177 118 35 65 
-1.22107 -1.49504 4.87525 231 155 129 
-0.546342 -0.73941 4.08391 191 83 83 
-1.50573 1.412 4.48145 210 174 148 
-0.850823 -1.48091 4.824 221 204 186 
-0.789664 -0.774901 3.87318 194 193 198 
-0.440074 -0.238759 2.94956 48 42 26 
-0.619938 -0.802692 4.13749 231 203 182 
-0.868847 -1.39073 4.74004 174 127 99 
0.0663794 -0.216405 3.52245 166 119 93 
0.306277 -0.240732 3.52158 165 126 93 
-0.0374356 -0.257522 3.57543 70 42 21 
0.322724 -0.279427 3.573 90 55 36 
-1.05336 -1.34709 4.70207 145 59 72 
0.162911 -0.287025 3.59159 173 127 94 
-1.05393 -1.33465 4.70151 206 107 127 
-1.76317 1.4144 4.46195 204 171 130 
-1.91334 1.46846 4.39931 206 171 141 
0.0422987 -0.955128 3.97191 186 188 187 
-0.933287 -1.46797 4.82564 128 123 94 
-1.11545 -1.28907 4.6586 175 98 116 
-1.13023 -1.28503 4.64056 126 36 62 
-0.443798 -0.748107 4.08646 89 72 64 
-1.12436 -1.27657 4.65959 49 8 24 
-0.636318 -0.795763 4.15343 118 89 75 
-0.528702 -0.808601 4.13912 249 193 180 
-0.609455 -0.816968 4.14236 67 39 28 
-0.609103 -0.824783 4.16076 67 40 23 
-1.21955 -1.23392 4.59743 62 12 13 
-0.631466 -0.826603 4.17919 75 46 30 
-0.652682 -0.83025 4.16397 150 124 109 
-0.805854 -1.22542 4.5513 58 26 11 
-1.1628 -1.21879 4.59483 156 137 107 
0.0441678 -0.943218 3.99488 169 171 168 
-0.91192 -0.968151 4.3236 240 168 109 
-0.596661 -1.49943 4.83748 105 97 78 
-1.10326 -0.979758 4.30952 187 167 160 
-0.639773 -0.752103 4.10613 124 93 73 
-0.99045 -0.999862 4.36775 208 63 66 
-1.01807 -1.00872 4.36987 205 102 132 
-1.10201 -1.16873 4.52867 190 114 144 
-1.16703 -1.51104 4.87364 158 37 78 
-1.01236 -1.14069 4.44795 218 158 168 
-1.1263 -1.11319 4.46875 101 8 35 
-1.21928 -1.16497 4.51838 67 0 0 
-1.14662 -1.15936 4.52839 138 42 79 
-1.45671 1.52741 4.32744 210 177 146 
-0.611444 -1.50285 4.843 12 3 0 
-1.94257 1.54509 4.31546 189 159 121 
-1.07109 -1.23392 4.58956 235 140 148 
-0.493644 -0.141143 2.8552 150 49 53 
-0.564484 -0.811548 4.12891 227 194 177 
-0.52518 -0.79098 4.12292 217 175 163 
-0.486916 -0.783568 4.12942 220 192 178 
-0.487535 -0.804712 4.12753 235 207 195 
-0.528119 -0.80674 4.14964 246 200 185 
-0.65213 -0.81691 4.15246 35 18 11 
-1.04042 -1.46559 4.81938 108 66 44 
-0.535243 -0.82059 4.15336 124 42 48 
-0.58516 -0.822867 4.17435 68 16 18 
-0.525261 -0.773739 4.11817 238 210 198 
-0.524303 -0.844918 4.15943 184 133 116 
-0.563403 -0.764761 4.09514 81 56 49 
-0.538456 -0.757982 4.09292 76 63 54 
-0.634852 -0.743968 4.08999 231 204 183 
-0.403428 -1.39752 4.63464 143 145 140 
-0.563909 -0.702757 4.08104 255 206 197 
-1.03912 -1.02112 4.3765 228 102 140 
-1.07247 -1.33789 4.69338 64 13 28 
-1.12981 -1.11823 4.48331 90 0 26 
-0.854135 -1.17809 4.51052 56 24 9 
-1.19523 -1.18112 4.56335 188 175 133 
-0.970321 -1.19268 4.5372 32 14 0 
-1.12523 -1.21457 4.56554 138 114 102 
-1.11124 -0.642239 3.91313 19 20 15 
-0.752196 -1.22425 4.58444 146 114 91 
-1.12191 -1.26855 4.64244 71 2 30 
-1.11366 -1.27416 4.59582 53 2 21 
0.175182 -0.262698 3.56438 159 119 94 
0.0774814 -0.257927 3.55685 80 59 40 
0.437604 -0.368738 3.65068 159 122 95 
-0.922156 -1.23885 4.60736 15 32 24 
-1.22209 1.50386 4.33486 207 178 146 
0.257007 -0.223015 3.5028 177 129 93 
-1.50231 1.39803 4.46513 221 185 161 
-0.874809 -1.37827 4.73024 141 47 45 
-1.83793 1.38919 4.50091 127 91 57 
-1.23975 -1.1763 4.51773 76 0 0 
0.250901 -0.206378 3.47497 178 126 86 
-0.874726 -0.979653 4.32193 204 95 62 
-1.77209 1.35375 4.50351 113 78 46 
-0.491886 -0.663341 3.98083 171 138 105 
-2.10314 1.33927 4.54738 106 67 38 
-1.00603 -1.44315 4.8187 224 144 81 
-0.936184 -1.48682 4.8418 129 152 132 
0.709685 -0.00588924 3.1632 187 81 0 
-0.447172 -1.47254 4.74253 56 20 20 
-0.642952 -1.44973 4.75156 71 48 34 
-0.506182 -0.231404 2.93502 142 142 130 
-0.965651 -1.44751 4.81285 183 138 109 
-0.646513 -0.746868 4.09846 127 103 93 
-0.511474 -0.751151 4.09985 237 212 190 
-0.514437 -0.251056 2.96487 223 224 210 
-0.575802 -0.759191 4.10291 243 210 201 
-0.564514 -0.761559 4.12872 88 65 59 
-0.878795 -1.3802 4.73881 128 47 44 
-1.22953 -1.36118 4.75787 49 21 17 
-0.609237 -0.805505 4.16674 216 168 156 
-0.515483 -0.813041 4.11701 238 201 185 
-1.94145 1.51767 4.38683 100 74 49 
0.613752 0.0523145 3.14815 175 69 7 
-0.548291 -0.847499 4.17673 193 149 136 
0.490385 -0.22036 3.31034 165 68 0 
-0.578592 -0.85157 4.17814 154 118 104 
-0.623842 -0.850102 4.20393 67 40 29 
0.398456 -0.309585 3.61996 179 127 90 
0.0347207 -0.951921 3.99594 87 89 88 
0.305746 -0.97194 3.62225 42 42 40 
-0.448719 0.0650319 2.59755 26 21 17 
-1.82773 1.36655 4.46777 133 98 60 
-0.910197 -0.968283 4.33884 249 188 131 
-0.856304 -1.17699 4.53477 60 27 12 
-2.19695 1.28805 4.57714 67 49 29 
-1.16986 -1.13986 4.48782 235 106 147 
0.672648 -0.305 3.21441 153 68 0 
0.174026 -0.267989 3.55179 167 121 97 
-1.13663 -1.11825 4.49689 67 2 10 
-1.0115 -1.11425 4.47265 217 132 174 
-0.842714 -1.44357 4.81022 190 123 96 
-0.394986 -1.17417 4.49876 60 18 2 
-0.79404 -1.21368 4.54815 168 119 86 
-0.641824 -0.880656 4.20537 29 4 0 
0.256578 -0.256557 3.53751 173 115 75 
0.385921 -0.207204 3.28491 122 53 0 
0.407164 -0.178122 3.32889 166 85 3 
-1.19243 -1.39218 4.77563 71 30 36 
-0.563966 -0.737366 4.07071 247 220 211 
-1.23737 -1.37904 4.74112 218 153 133 
0.468272 -0.111769 3.30057 185 93 10 
-0.99766 -1.3143 4.59364 238 225 209 
-0.514228 -0.764907 4.10818 101 72 66 
-0.54515 -0.764809 4.1085 84 72 72 
-0.612651 -1.29593 4.48661 236 204 189 
-0.518953 -0.849218 4.13077 184 132 119 
-0.553789 -1.27547 4.48386 227 195 174 
-0.417179 0.0237915 2.62513 120 116 105 
-0.808308 -1.22516 4.58295 56 27 13 
-0.429019 0.0478849 2.62685 52 48 37 
-1.12827 -1.21303 4.58793 160 128 117 
0.294936 -1.0066 3.65429 232 235 218 
0.313142 -1.01994 3.65713 124 117 107 
-1.03354 -1.02308 4.39295 232 81 134 
-0.939183 -1.15426 4.51115 243 186 201 
-0.974701 -1.43891 4.80707 51 23 0 
-1.03122 -1.09577 4.43699 238 162 200 
-1.01808 -1.01323 4.35903 233 87 136 
-0.868746 -1.23019 4.58453 40 27 8 
-1.04347 -1.47098 4.8216 110 92 68 
-1.00419 -1.47106 4.8196 155 153 130 
0.413782 -0.353498 3.63347 110 93 83 
-0.909737 -1.14764 4.48779 130 68 27 
-0.46908 -0.758542 4.09996 174 150 140 
-0.523087 -0.767639 4.11056 102 73 65 
-0.499088 -0.786713 4.12523 99 72 55 
-0.682351 -0.790421 4.14374 84 60 48 
-0.490284 -0.803591 4.14305 220 193 182 
-0.567817 -0.808691 4.14962 238 201 185 
-0.587921 -0.832446 4.17907 183 115 114 
-0.663937 -0.829893 4.1704 155 126 108 
0.355737 -0.301014 3.58663 124 79 48 
-0.481375 -1.50411 4.84283 149 104 99 
-0.480949 -1.4899 4.82462 88 44 31 
-0.56297 -0.772136 4.11618 100 71 53 
-0.508625 -0.807789 4.14312 186 163 149 
-0.628281 -0.819816 4.16507 150 127 111 
-0.0272059 -0.253543 3.57756 194 180 167 
-0.473843 -0.80772 4.14604 193 166 149 
-0.623271 -0.769315 4.11681 233 208 188 
-0.660578 -0.799726 4.14718 171 139 126 
-0.453449 -1.2713 4.45513 219 182 163 
-0.689812 -1.28084 4.62403 55 59 44 
-1.2063 -1.51538 4.8693 163 41 88 
-0.896724 -1.46689 4.80805 95 98 71 
-0.632453 -0.826474 4.17222 75 46 30 
-0.47971 -1.27895 4.4633 224 189 170 
0.311454 -0.251534 3.54855 143 107 85 
-1.21938 -1.49393 4.86124 231 155 129 
-0.432168 -0.759165 4.07916 183 156 149 
-0.641096 -0.789682 4.13791 225 196 182 
-0.63419 -0.796082 4.14848 115 86 72 
-0.162388 -0.975508 4.02652 217 217 217 
0.264007 -1.01344 3.70201 41 41 31 
-0.595829 -0.7476 4.0902 254 217 209 
-0.515767 -0.811899 4.13655 238 201 185 
-0.630453 -0.834491 4.17844 170 142 120 
0.257472 -0.220235 3.51508 179 129 92 
1.71921 1.5878 4.09428 124 98 75 
-0.7345 -1.15288 4.39718 181 172 163 
-0.624249 -0.7399 4.08799 228 197 179 
-0.587485 -0.74366 4.09645 190 119 113 
-0.437603 -0.752379 4.08619 87 60 51 
-0.82051 -1.10569 4.36053 239 235 224 
-0.822618 -1.14909 4.5006 85 38 10 
-0.644425 -0.763336 4.11217 111 83 61 
-0.708441 -1.16606 4.41764 152 148 139 
-0.663579 -0.764878 4.11212 110 75 55 
-0.742568 -1.14724 4.39587 156 146 137 
-0.383625 -1.16597 4.48378 45 0 0 
-0.658048 -1.17664 4.42643 145 134 128 
-0.745984 -1.1347 4.38202 138 129 122 
-0.388365 -1.1761 4.49616 60 6 0 
-0.790656 -1.12157 4.37145 169 156 148 
-1.06097 -1.49532 4.81622 208 203 197 
-0.942493 -1.18635 4.54196 155 104 57 
-0.953783 -1.18645 4.54131 115 110 88 
-0.837097 -0.834391 3.94143 137 135 138 
-0.871816 -1.48864 4.81225 38 55 37 
-0.19192 -1.19943 4.49148 90 80 70 
-0.531496 -0.80003 4.13777 120 49 43 
-0.920182 -1.20088 4.55678 113 128 99 
-1.01599 -1.46368 4.81745 46 38 27 
-0.84879 -1.07165 4.32701 154 144 135 
-0.73679 -1.2226 4.56564 73 47 24 
-0.861372 -1.06447 4.3258 162 154 143 
-0.863979 -1.23295 4.58777 125 103 82 
-0.771032 -1.24992 4.59753 122 124 103 
-0.660499 -0.819991 4.16587 171 150 133 
-0.850597 -1.26109 4.61515 129 127 112 
-0.560076 -1.2814 4.47741 122 91 70 
-0.864707 -1.26641 4.62059 111 128 109 
-0.829055 -0.948767 4.29687 109 14 0 
-0.248016 -0.975635 4.03882 233 231 236 
-1.11974 -0.920899 4.27807 67 15 1 
-1.08355 -1.34341 4.70812 149 74 104 
-1.07544 -1.35222 4.7107 144 133 113 
-0.39967 -1.19155 4.513 73 22 5 
-1.17177 -1.17377 4.53199 74 59 36 
-0.89904 -1.21806 4.57437 43 69 32 
-0.962119 -1.25191 4.53018 155 106 102 
-0.484788 -0.76335 4.10087 178 150 138 
-0.57232 -1.32504 4.51705 229 198 170 
-0.586452 -1.31919 4.51648 139 104 84 
-0.554141 -1.31706 4.51039 139 104 82 
-0.633747 -0.736335 4.08476 224 199 177 
-0.519325 -1.30169 4.49218 227 194 175 
-0.863829 -1.19176 4.54735 106 79 62 
-0.885032 -1.17463 4.53034 111 97 86 
-0.735151 -1.2743 4.61996 22 60 35 
-0.87329 -0.984027 4.33722 255 134 108 
-1.21781 -1.42785 4.78626 161 66 74 
-1.06006 -1.42904 4.7954 224 83 117 
-0.928273 -1.23456 4.58566 63 81 67 
-0.789043 -1.11042 4.35888 210 200 191 
-0.821596 -1.37834 4.72823 126 62 18 
-0.555877 -1.27544 4.46705 183 150 131 
-0.861906 -1.18735 4.53584 111 86 66 
-0.933523 -1.19444 4.54873 122 132 98 
-0.56144 -0.702306 4.04205 255 184 178 
-0.803555 -1.09555 4.34529 143 133 124 
-0.425177 -0.747685 4.07912 202 197 191 
-0.66638 -0.748367 4.0965 96 63 32 
-0.469433 -1.5326 4.86809 126 111 106 
-0.990184 -1.521 4.88218 144 91 77 
-0.57274 -0.753209 4.09858 177 119 118 
-0.666806 -0.756344 4.10712 94 62 41 
-0.399499 -0.221522 3.57643 108 92 76 
-0.677198 -1.1721 4.42101 157 152 149 
-0.980469 -0.993353 4.34994 119 0 0 
-0.856506 -1.46898 4.801 131 124 98 
-0.848579 -1.46003 4.80058 74 22 11 
-0.770736 -1.1738 4.5188 67 35 14 
-0.978889 -1.43313 4.7926 183 146 101 
-0.212774 -1.19962 4.49695 170 156 143 
-0.587644 -1.28764 4.47891 141 109 84 
-0.673645 -1.30736 4.62834 137 123 112 
-0.776291 -1.19654 4.54892 71 43 22 
-0.708933 -1.44832 4.79311 148 85 76 
-0.49117 -1.47742 4.81472 141 102 87 
-1.06588 -1.24205 4.59511 53 3 14 
-0.671692 -0.767006 4.11727 138 103 81 
-1.21359 -1.36416 4.71899 71 12 18 
-0.991295 -1.43177 4.79514 54 30 0 
-0.897714 -1.12945 4.47761 83 15 0 
-1.28795 -1.43986 4.73985 168 98 124 
-0.560734 -0.783804 4.12689 94 51 44 
-1.16271 -1.45826 4.81165 142 35 43 
-0.980793 -1.44605 4.80738 104 108 91 
-0.255492 -0.985305 4.05622 128 127 132 
-0.785398 -1.23917 4.58868 128 105 87 
-0.96434 -1.02055 4.37993 253 103 140 
-1.16554 -1.4154 4.77732 64 5 11 
-0.861327 -1.17765 4.53094 136 111 91 
-1.16343 -1.50887 4.86488 161 46 77 
-0.747466 -1.21331 4.5561 76 45 25 
-0.704528 -0.796418 4.15401 127 106 85 
-0.677455 -0.778915 4.14653 230 206 180 
-1.22519 -1.17681 4.52529 104 42 55 
-0.552872 -0.804469 4.14699 255 203 192 
-1.07702 -1.24667 4.60602 199 106 135 
-0.799562 -0.849376 3.95877 255 254 255 
-0.662962 -1.48579 4.83606 35 1 2 
-0.512159 -0.774722 4.11234 239 217 196 
-1.11413 -1.28718 4.6579 188 117 135 
-1.00986 -1.14118 4.43841 210 168 172 
-1.17312 -1.5161 4.86688 145 34 67 
-0.882588 -1.40752 4.76187 97 108 94 
-0.595136 -0.703108 4.04706 238 208 197 
-0.551613 -0.79061 4.13677 252 202 193 
-1.10487 -1.31863 4.67487 199 99 133 
-0.578298 -0.807686 4.15547 112 44 41 
-0.587702 -0.815718 4.16037 202 149 143 
-0.984148 -1.4352 4.80168 212 159 117 
-1.12435 -1.0987 4.45865 231 122 151 
-1.17315 -1.46112 4.82396 250 200 147 
-0.620248 -0.942878 4.10527 158 45 75 
-0.622628 -1.27897 4.49333 84 62 39 
-0.622383 -0.791284 4.13408 255 225 210 
-1.13774 -1.09265 4.45743 125 16 13 
-1.19078 -1.1361 4.49664 227 79 67 
-0.85594 -1.25285 4.60232 125 149 113 
-0.750097 -1.22697 4.56364 144 112 97 
-1.12849 -1.2872 4.64303 117 32 53 
-0.583254 -0.770824 4.11422 142 67 62 
-1.1851 -1.12884 4.48707 121 22 17 
-0.992626 -1.00238 4.35772 202 76 80 
-0.27308 -1.03665 4.14049 14 15 10 
-0.967114 -1.4513 4.81164 185 136 104 
-1.00782 -1.1171 4.4549 221 147 180 
-0.899595 -1.16263 4.5068 151 110 90 
-0.460473 -0.79794 4.12497 103 85 75 
-0.633783 -0.781211 4.12035 111 82 64 
-0.463799 -0.249211 2.96043 19 16 11 
-0.431404 -1.3659 4.55241 168 169 161 
-0.490833 -0.229686 2.93372 9 6 1 
-0.4711 -1.26613 4.44925 192 155 136 
-0.855082 -1.48175 4.80559 167 161 139 
0.657844 -0.0637006 3.27385 191 119 34 
-0.486143 -0.654739 3.99369 189 158 127 
-0.565476 -0.767438 4.11109 201 164 155 
-0.652788 -0.805351 4.14698 191 162 154 
0.0982233 -0.254699 3.56354 94 52 27 
-0.789156 -1.19708 4.54508 63 32 14 
0.365506 -0.309888 3.59652 95 57 34 
0.0778474 -0.255007 3.56989 80 59 40 
0.265368 -0.321531 3.60104 161 115 81 
0.241884 -0.222539 3.51932 81 62 58 
-0.821762 -1.14691 4.49519 96 49 21 
-0.75722 -1.17508 4.51879 59 27 6 
-1.0158 -1.46394 4.81302 46 38 27 
-1.21137 -1.28172 4.64887 170 71 102 
-0.541004 -1.31346 4.50316 119 87 64 
-0.870529 -1.39324 4.74402 193 147 124 
-1.11288 -1.31924 4.67954 66 4 17 
-0.701304 -1.15181 4.40679 237 229 218 
-0.973565 -1.46744 4.80926 143 150 116 
-0.580712 -1.32786 4.51681 224 190 163 
-0.563742 -1.32118 4.512 149 117 94 
-1.228 -1.36354 4.71372 100 32 33 
-0.950822 -1.42428 4.78273 59 86 43 
-1.18332 -1.08956 4.45572 159 76 62 
-0.667046 -1.17507 4.42845 179 170 163 
-0.859571 -1.08412 4.35144 185 178 170 
-0.916725 -1.20548 4.55993 25 39 13 
-1.0725 -1.50331 4.81832 218 203 200 
-1.14864 -1.46795 4.82795 61 24 5 
-1.16988 -1.45787 4.81684 244 165 150 
-1.17489 -1.17902 4.53929 181 166 135 
-1.14283 -1.19476 4.55685 120 110 98 
-0.888883 -1.22294 4.57783 37 56 24 
-0.780512 -1.22737 4.57456 158 124 99 
-0.880126 -1.2278 4.58202 112 121 92 
-1.15411 -1.24487 4.60029 74 23 30 
-0.958729 -1.25244 4.55942 215 164 160 
-1.14692 -1.34577 4.71303 118 0 32 
-1.13861 -1.33599 4.70244 123 13 50 
-0.663608 -0.791914 4.13533 167 138 122 
-0.865802 -1.1962 4.55022 62 36 21 
-1.19014 -1.46619 4.8253 144 47 64 
-1.18888 -1.09529 4.46256 165 76 62 
-1.0741 -1.35233 4.70984 160 148 124 
-1.21243 -1.36457 4.71461 71 12 18 
-0.989829 -1.43247 4.78663 54 30 0 
-1.12908 -1.47464 4.8265 199 168 165 
-1.00276 -1.47182 4.80972 135 137 116 
-0.849584 -1.47093 4.79892 246 246 222 
-0.644104 -1.46219 4.80793 161 105 72 
-1.21152 -1.27545 4.63719 116 23 52 
-1.18446 -1.24352 4.59809 141 126 119 
-0.862303 -1.17796 4.52751 136 111 91 
-0.636854 -0.729663 4.07983 135 107 85 
-0.946017 -1.19029 4.54746 26 34 0 
-1.09601 -1.35809 4.71836 137 84 100 
-1.08351 -1.34447 4.70276 174 89 122 
-1.21116 -1.22599 4.5834 95 6 28 
-1.04087 -1.47314 4.81484 102 88 62 
-0.614357 -0.777483 4.12195 106 77 61 
-0.89493 -1.46949 4.79994 116 120 87 
-0.734406 -1.27702 4.61845 17 40 24 
-1.22776 -1.30505 4.65866 39 5 19 
-0.57752 -0.809211 4.14936 112 44 41 
-1.09353 -1.25077 4.61477 93 7 36 
-0.923787 -1.43663 4.78571 219 181 144 
-0.80842 -1.36532 4.71368 209 147 106 
-1.21031 -1.25072 4.60437 158 91 108 
-1.05374 -1.34797 4.70574 90 12 28 
-0.909003 -1.15402 4.4972 63 6 0 
-1.19215 -1.13535 4.49376 230 67 58 
-0.847136 -1.47629 4.78525 238 242 219 
-0.872952 -1.38012 4.72613 138 41 34 
-1.02232 -1.13168 4.44804 44 23 32 
-0.581141 -0.753094 4.09149 129 54 51 
-0.562814 -0.711071 4.04938 241 213 199 
-0.779027 -1.11004 4.37438 144 130 127 
-0.759933 -1.12214 4.37388 255 252 250 
-0.789759 -1.10007 4.35447 114 102 104 
-0.745261 -1.12444 4.38253 131 126 123 
-0.581541 -1.32143 4.50508 213 184 166 
-0.733577 -1.13498 4.39213 255 253 248 
-0.838296 -1.07361 4.33228 137 129 126 
-0.848315 -1.06918 4.32975 103 99 90 
-0.550094 -1.31113 4.49987 113 84 66 
-0.746516 -1.14327 4.39944 124 117 111 
-1.13226 -0.962613 4.31969 153 150 143 
-0.693527 -1.15449 4.40398 112 107 101 
-1.10804 -0.920218 4.2864 170 169 148 
-0.729252 -1.15226 4.41154 116 107 100 
-0.542623 -1.30109 4.49573 117 90 71 
-0.681234 -1.16014 4.41429 87 80 72 
-0.926042 -1.1913 4.545 165 147 127 
-0.594965 -1.29878 4.48784 226 199 178 
-0.70926 -1.16223 4.41704 249 244 238 
-0.695831 -1.17213 4.42991 122 115 107 
-0.668033 -0.783948 4.12964 101 71 61 
-0.559112 -0.785019 4.1268 100 73 54 
-0.641857 -0.78376 4.12443 102 72 62 
-0.508681 -0.775832 4.11089 229 207 194 
-0.67239 -0.766605 4.11263 82 51 30 
-0.633603 -0.766067 4.11456 94 70 58 
-0.961789 -1.24957 4.53264 122 77 74 
-0.672938 -0.757361 4.10193 95 64 44 
-0.460897 -1.26577 4.45207 95 68 47 
-0.9749 -1.43627 4.78524 190 153 126 
-0.580136 -1.28091 4.48043 103 72 52 
-1.0121 -1.50559 4.85128 56 54 59 
-0.669073 -0.743087 4.08919 91 59 46 
-0.553605 -1.28482 4.47415 234 205 189 
-0.6257 -0.740753 4.08276 236 207 193 
-0.893854 -1.14668 4.50026 61 20 0 
-0.565305 -1.2764 4.47893 233 202 184 
-0.871842 -1.21296 4.57531 145 123 112 
-0.507899 -1.27809 4.46815 99 71 50 
-0.556002 -1.27379 4.46893 112 83 65 
-0.774589 -1.16468 4.51769 210 175 147 
-0.55289 -1.27234 4.45923 243 212 194 
-0.192852 -1.20514 4.48139 89 71 57 
-0.851151 -0.819264 3.93412 242 240 245 
-0.808308 -1.11203 4.37727 136 133 126 
-0.862682 -1.27083 4.61295 134 150 139 
-0.630246 -1.17513 4.51167 102 66 42 
-1.07148 -1.50896 4.80944 190 164 167 
-0.949356 -1.29048 4.56353 243 189 189 
-0.748012 -1.16782 4.51598 79 44 25 
-1.00474 -1.48806 4.82733 41 46 39 
-0.967834 -1.22506 4.52316 110 72 69 
-0.367728 -1.09427 4.39858 67 75 62 
-0.955162 -1.49364 4.81054 36 57 42 
-0.873112 -1.21206 4.56319 131 103 92 
-0.942124 -1.49287 4.81003 27 43 32 
-0.907137 -1.16104 4.51515 142 110 99 
-0.585463 -1.3346 4.52168 136 110 93 
-0.892374 -1.21048 4.56839 119 109 100 
-0.924225 -1.49066 4.80989 40 58 46 
-0.933567 -1.49237 4.80256 138 155 145 
-0.656248 -1.21804 4.54686 23 45 24 
-0.864663 -1.48678 4.81213 43 56 39 
-0.968563 -1.48808 4.80151 130 148 136 
-0.782835 -1.21778 4.5638 41 5 0 
-0.917287 -1.20513 4.55922 37 57 22 
-0.793225 -1.122 4.38273 164 156 153 
-0.811974 -1.20766 4.55814 130 98 87 
-0.894974 -1.48676 4.79587 112 139 122 
-0.85045 -1.26223 4.61086 139 143 129 
-0.490621 -1.27916 4.46921 212 185 168 
-0.838284 -1.08655 4.35614 136 131 125 
