ply                 
format ascii 1.0    
element vertex 1250
property float x    
property float y    
property float z    
property uchar red  
property uchar green
property uchar blue 
end_header          
-0.856243 -1.47198 4.80876 165 155 128 
0.0838687 -0.268303 3.57706 81 54 35 
0.181619 -0.270362 3.57248 171 130 98 
-0.976478 -1.46844 4.83131 132 130 109 
0.361469 -0.274864 3.56122 143 121 100 
0.386163 -0.278652 3.56188 93 53 28 
-1.34144 -1.43829 4.6731 171 88 118 
0.398232 -0.285668 3.57308 150 119 99 
-0.964635 -1.43724 4.79656 156 118 95 
0.313582 -0.292076 3.57547 140 109 91 
0.17034 -0.303418 3.60752 141 103 80 
0.403356 -0.347885 3.62509 155 123 98 
0.423568 -0.357604 3.64509 217 200 190 
-1.07714 -1.35364 4.72213 151 134 116 
-0.594605 -0.810774 4.15459 91 23 20 
-1.78606 1.43249 4.45307 110 77 44 
0.236491 -0.14238 3.06659 133 98 30 
-0.656875 -0.605489 3.73589 247 246 251 
-0.935181 -1.2895 4.61087 166 131 127 
-0.552603 -1.27114 4.47169 197 161 145 
-1.22003 -1.25931 4.63231 96 3 32 
-1.07866 -1.24744 4.61345 179 94 123 
-1.15697 -1.23971 4.6165 156 110 113 
-1.93174 1.47666 4.41271 110 74 48 
-0.617541 -1.22166 4.52272 76 49 20 
-0.356492 -0.158184 2.89664 97 26 22 
-1.12546 -1.21059 4.57582 111 91 82 
-0.802654 -1.2059 4.57074 68 32 18 
-0.360805 -0.675267 3.97161 72 61 55 
-0.928969 -1.19016 4.55193 185 122 79 
-0.544447 -0.695473 4.0373 239 198 192 
-0.363185 -0.148587 2.89034 190 104 105 
-0.741469 -0.720019 3.82183 179 252 255 
-1.1781 -1.18012 4.54529 163 155 119 
-0.569882 -0.701621 4.04723 125 36 38 
-0.782356 -1.17696 4.52358 86 49 22 
-0.568963 -0.711872 4.05872 121 73 69 
-0.590413 -0.711822 4.05893 161 107 95 
-1.15763 -1.16837 4.54103 199 101 139 
-0.589724 -0.721624 4.069 231 153 151 
-0.55494 -0.731072 4.08169 255 166 165 
-0.429257 -0.747828 4.08587 92 79 70 
-0.373807 -0.14012 2.88435 204 123 122 
-0.43673 -0.751328 4.09535 108 81 70 
-0.551058 -0.751131 4.09592 109 75 63 
-0.586139 -0.751804 4.10492 135 65 67 
-1.93531 1.60823 4.25029 104 72 47 
-0.562538 -0.754965 4.09854 99 65 53 
-0.500341 -0.757498 4.08726 188 174 161 
-0.373557 -1.11421 4.41084 28 35 4 
-0.436787 -0.761922 4.105 210 184 171 
-0.475241 -0.761877 4.10505 106 78 66 
-0.522248 -0.762256 4.0988 97 69 57 
-0.618452 -0.761495 4.10747 172 141 123 
-0.448521 -0.763142 4.10726 188 160 148 
-0.553743 -1.0732 4.30603 157 101 54 
-0.531864 -0.764979 4.10462 84 66 56 
-0.634943 -0.763622 4.1167 228 201 180 
-0.637682 -0.772829 4.12719 234 206 192 
-0.462517 -0.775938 4.10582 182 150 135 
-0.541862 -0.776265 4.1198 222 188 179 
-0.553405 -0.776234 4.11992 185 159 146 
-0.919471 -1.01115 4.36897 221 77 102 
-0.445568 -0.779777 4.11186 93 93 85 
-0.662185 -0.7811 4.12977 144 113 93 
-0.667248 -0.78052 4.13814 130 99 79 
-0.67373 -0.782458 4.13028 230 205 183 
-0.580585 -0.784013 4.13025 157 110 104 
-0.611585 -0.788186 4.13115 127 88 73 
-0.462425 -0.790355 4.12283 159 136 120 
-0.662105 -0.791127 4.1495 177 145 130 
-0.683172 -0.790981 4.15032 84 60 48 
0.619447 0.0513275 3.13656 164 70 0 
-0.580223 -0.792661 4.14959 234 156 154 
-0.673681 -0.793886 4.15038 80 60 53 
-0.76668 -0.976915 4.23831 106 24 0 
-0.911963 -0.973234 4.31675 251 127 91 
-0.515824 -0.798808 4.14305 98 76 63 
-0.531635 -0.798295 4.15114 120 37 31 
-0.617877 -0.799538 4.15186 209 181 160 
-1.13574 -0.960882 4.32509 112 108 97 
-0.463057 -0.805986 4.14395 231 214 204 
-0.83174 -0.947642 4.31102 104 6 0 
-0.885226 -0.942014 4.30157 246 120 79 
-0.65814 -0.80651 4.15348 91 63 52 
-0.646811 -0.807834 4.15442 71 43 31 
-0.576332 -0.808913 4.16241 109 50 42 
-0.840548 -0.823252 3.92343 169 164 170 
-0.606957 -0.812054 4.15565 100 58 44 
-0.620631 -0.814304 4.16492 92 67 47 
-0.664818 -0.816243 4.15625 90 61 43 
-0.53055 -0.817359 4.16468 175 116 112 
-0.571558 -0.874501 4.21361 153 95 94 
-0.468139 -0.872316 4.20384 85 76 67 
-0.616115 -0.8181 4.17381 166 140 125 
-0.473665 -0.869006 4.21226 58 51 43 
-0.570186 -0.863213 4.2109 105 54 53 
-0.537224 -0.86191 4.20904 176 97 93 
-0.572573 -0.860802 4.20175 111 50 49 
-0.832984 -0.855021 3.95593 152 150 155 
-0.53865 -0.840229 4.1877 183 104 100 
-0.526532 -0.837914 4.17843 159 92 83 
-0.629197 -0.819465 4.17432 169 146 130 
-0.588258 -0.833057 4.18648 183 115 114 
-0.562482 -0.821469 4.16611 74 41 34 
-0.587816 -0.828475 4.16763 150 96 94 
-0.497825 -0.827176 4.1674 84 75 58 
-0.57769 -0.822905 4.16607 70 33 27 
-0.60589 -0.823738 4.17515 80 42 29 
-0.651546 -0.823216 4.1824 113 93 82 
-0.617442 -0.834923 4.17815 106 79 60 
-0.482032 -0.872204 4.20452 74 61 52 
-0.667062 -0.807344 4.16243 117 86 68 
-1.42749 1.51319 4.32093 118 89 55 
-1.21242 1.56208 4.26741 117 89 65 
-1.00437 -1.5287 4.91898 77 16 0 
0.379223 -0.994603 3.63167 135 127 125 
-0.868376 -0.984281 4.34212 253 195 171 
-0.984776 -0.99957 4.35825 151 35 35 
-1.15714 -1.46005 4.85532 204 103 119 
-1.17677 -1.17108 4.53497 189 148 130 
-0.905947 -1.13617 4.47988 152 83 26 
-0.382361 -1.15559 4.46602 90 28 17 
-0.441759 -1.17417 4.37954 80 39 11 
-1.61428 1.25479 4.61125 94 62 37 
-1.46524 1.21441 4.6517 209 175 140 
-0.617226 -0.656721 3.75046 171 169 174 
-0.78724 -1.23742 4.58266 62 34 20 
-0.585135 -0.649579 3.76838 128 127 132 
-1.1701 -1.24377 4.59565 99 86 78 
-1.11953 -1.30948 4.68049 37 7 7 
0.208866 -0.551596 3.8326 170 158 146 
-0.669781 -1.30172 4.62384 69 55 46 
-0.584029 -1.11716 4.31344 182 97 77 
-0.304512 -0.993704 4.04304 150 148 149 
-0.994586 -1.52191 4.90995 129 81 59 
-0.505738 -0.72085 4.06974 94 113 111 
-0.946795 -1.54387 4.91315 179 39 6 
-1.23429 -1.3639 4.73539 158 64 78 
-0.542468 -0.811804 4.14805 226 148 144 
-0.576979 -0.846796 4.19177 169 132 116 
-1.05864 -1.48159 4.83185 249 232 224 
-0.848284 -1.47336 4.80187 219 207 181 
-0.645984 0.229846 3.09955 128 105 89 
-0.972963 -1.47194 4.84046 103 103 77 
-0.898055 -1.46953 4.8278 89 91 67 
-1.1736 -1.45927 4.8337 234 162 137 
-0.972056 -1.45646 4.8285 117 91 74 
-1.16811 -1.18734 4.54996 84 67 49 
-0.922609 -1.20294 4.56561 75 88 60 
-1.29249 -1.38513 4.70678 124 46 72 
-1.23197 -1.36456 4.74812 81 25 26 
-1.21874 -1.36461 4.74785 73 18 24 
-1.16256 -1.35681 4.73295 131 0 47 
-1.9252 1.42826 4.46628 105 75 47 
-1.07922 -1.33788 4.70596 115 17 55 
-1.21786 -1.31823 4.68748 127 61 71 
-0.567535 -0.702435 4.06644 254 196 192 
-1.22329 -1.31364 4.66645 168 146 125 
-0.888413 -1.31136 4.6567 36 60 36 
-0.735481 -0.71979 3.81255 142 208 255 
-0.676542 -1.29888 4.63376 76 54 43 
0.664766 0.0567702 3.12378 190 122 37 
-0.491397 -1.27496 4.45809 214 179 157 
-0.954814 -1.273 4.55319 129 78 74 
-1.12486 -1.27357 4.63585 98 13 46 
-0.469234 -1.26652 4.46193 219 182 163 
-1.21181 -1.2663 4.64364 160 87 106 
-0.542725 -0.752162 4.10118 218 185 176 
-0.501256 -0.753925 4.10126 221 217 205 
-0.772559 -1.24876 4.59331 113 119 85 
-0.462352 -0.765545 4.10481 205 175 164 
-1.21116 -1.22529 4.58621 89 8 17 
-0.426052 -0.767297 4.10493 98 89 84 
-0.576967 -0.766405 4.11504 177 105 108 
-0.575894 -0.76903 4.12592 158 88 86 
-0.590755 -0.776352 4.11798 207 156 152 
-0.388957 -0.151036 2.87401 215 137 137 
-1.19896 -1.18514 4.53719 78 23 26 
-0.362217 -0.159265 2.88747 187 110 116 
-0.361452 -0.181018 2.88804 203 120 116 
-1.19551 -1.14063 4.50861 149 59 61 
-0.357721 -0.183915 2.89714 205 126 122 
-0.585072 -0.80007 4.14472 255 166 169 
-0.338652 -0.198427 2.92366 224 122 120 
-0.651931 -0.807194 4.13724 191 162 154 
-0.187752 -1.10161 4.40177 110 103 87 
0.430809 -0.366774 3.64177 106 71 49 
0.421126 -0.362391 3.6305 134 116 102 
-0.565327 -0.797421 4.13362 205 114 113 
0.36974 -0.34031 3.61997 110 66 37 
-1.06673 -1.34948 4.72097 158 136 115 
-0.522101 -0.822996 4.16093 141 112 106 
0.181838 -0.321544 3.61914 159 118 96 
-0.663033 -0.825465 4.17274 72 45 28 
0.318455 -0.319823 3.6099 140 113 102 
-0.5414 -0.828742 4.17778 177 96 95 
0.235332 -0.31129 3.60516 91 50 30 
-0.834917 -0.846481 3.94435 126 121 127 
-0.304284 -0.989408 4.06445 149 147 148 
-1.21002 -0.97926 4.32866 80 0 0 
-1.78077 1.42226 4.43857 100 67 36 
-0.340418 -0.974231 4.14451 49 26 34 
-0.629565 -0.846358 4.19817 154 127 116 
0.148182 -0.204861 3.50454 153 129 105 
-0.657696 -0.852929 4.20221 81 56 34 
0.399186 -0.282831 3.58422 150 119 99 
0.322622 -0.283783 3.56512 109 68 40 
-0.373619 -0.951893 4.1065 209 114 148 
-0.572059 -0.872532 4.22522 175 124 120 
0.598981 -0.337219 3.24437 112 58 11 
0.39182 -0.258007 3.53467 175 141 113 
0.394734 -0.258772 3.55353 160 130 102 
-0.515195 -0.812946 4.15824 224 188 176 
-0.474312 -0.807929 4.15714 193 166 149 
-0.945138 -1.54462 4.90077 170 24 1 
0.166289 -0.19901 3.50189 141 111 85 
-0.661999 -0.843424 4.18755 90 62 41 
-1.63157 1.61691 4.23556 141 97 60 
-0.972425 -1.00528 4.36326 157 67 66 
-0.968327 -1.01727 4.37606 176 0 13 
-1.14112 -1.54601 4.93073 54 0 10 
-1.18994 -1.08058 4.44431 136 75 72 
-0.580859 -0.602729 3.71683 251 255 255 
-1.11404 -1.30811 4.64942 37 7 7 
-1.05533 -1.24778 4.60221 98 95 86 
-0.969265 -1.24886 4.51843 166 115 114 
-1.30137 -1.55521 4.92051 154 50 83 
-2.27701 1.56404 4.34056 132 84 46 
-0.590205 -0.72319 4.0687 243 153 153 
-0.489079 -0.664747 4.0015 182 149 114 
-0.481844 -1.50684 4.83911 144 100 97 
-0.510785 -0.77501 4.11414 219 192 181 
-0.559964 -0.783421 4.13423 110 68 54 
-0.546936 -0.786238 4.12284 255 212 199 
-0.90567 -1.46768 4.818 169 163 139 
-0.525599 -0.789408 4.1363 227 188 173 
-0.49058 -0.794409 4.1243 113 85 71 
-1.2939 -1.44017 4.76931 145 77 102 
-0.673628 -0.800131 4.14803 224 195 179 
-0.551252 -0.804631 4.15291 240 161 156 
-0.56478 -0.804711 4.15226 246 189 180 
0.249665 -0.224109 3.51071 75 45 19 
-1.17229 -1.4155 4.81218 112 44 55 
-0.58851 -0.81599 4.16778 193 135 133 
-0.401371 -1.40088 4.65129 165 167 162 
-0.634566 -0.816697 4.15538 55 30 23 
-0.665628 -0.81632 4.1644 80 53 34 
-0.554239 -0.82083 4.15638 58 24 15 
-1.19274 -1.38851 4.76618 105 33 45 
0.430524 -0.21057 3.31618 220 148 76 
-0.605979 -0.837464 4.1858 91 56 36 
-0.604659 -0.851003 4.20152 66 34 23 
-0.585533 -0.855242 4.19986 155 108 98 
-1.21668 -1.3189 4.67748 94 41 49 
0.377746 -0.328793 3.24794 218 203 198 
-1.22599 -1.31239 4.67728 179 152 135 
-0.634052 -0.931297 4.12439 143 0 0 
-0.933761 -1.29108 4.59697 172 132 130 
-1.2159 -1.28379 4.66143 182 81 115 
-0.551974 -1.27272 4.46112 215 182 163 
0.307424 -1.01978 3.66701 183 176 166 
-0.465068 -0.230821 2.9383 252 244 231 
-1.76714 1.2569 4.60317 126 94 73 
-1.1592 -1.22131 4.57797 156 137 107 
-1.17329 -1.13721 4.50736 171 75 103 
-1.19105 -1.18429 4.5436 190 176 141 
0.744477 -0.127444 3.14252 114 39 0 
-0.905388 -1.16147 4.50786 154 116 93 
0.392694 -0.337189 3.62252 74 37 11 
-0.852611 -1.17466 4.52481 110 69 49 
-1.03839 -1.46383 4.83523 116 54 29 
-0.92407 -1.43563 4.79746 194 164 128 
-0.663466 -1.48815 4.83769 63 15 0 
-1.14096 -1.09475 4.46729 98 0 0 
-0.658927 -0.852278 4.21312 81 54 33 
0.350656 -0.309252 3.59776 90 49 29 
0.389234 -0.308061 3.59157 91 53 32 
-0.432967 -0.884057 4.20447 107 46 41 
-1.78181 1.45439 4.41445 109 80 50 
-0.73948 -1.22521 4.57377 102 74 53 
0.31683 -0.303957 3.59541 154 122 97 
-0.839282 -0.998509 4.33707 211 124 114 
0.115099 -0.279809 3.5932 95 53 29 
0.154455 -0.280046 3.58226 84 48 26 
-0.999448 -1.52808 4.89575 81 19 0 
-2.30573 1.53362 4.35567 233 200 165 
-1.18788 -0.962572 4.3227 86 11 5 
-0.791045 -0.785845 3.89511 188 188 188 
0.0692373 -0.228781 3.54412 143 116 89 
-0.879219 -0.839566 3.92913 160 158 161 
-0.788138 -1.23627 4.59494 62 36 23 
-1.19861 -1.15198 4.51573 188 94 118 
-1.23782 -1.03028 4.34752 74 0 4 
0.264434 -0.245466 3.54399 141 107 95 
-1.77197 1.63485 4.22646 111 75 51 
-1.75887 1.41687 4.44484 221 187 142 
-0.867772 -1.13588 4.47763 127 71 24 
-0.798868 -1.23371 4.58038 112 70 45 
-0.481032 -0.145837 2.86631 137 39 36 
-0.397618 0.0173695 2.63682 35 26 19 
-0.5323 -0.781639 4.12085 102 50 39 
-0.523184 -0.764304 4.12837 91 62 54 
-0.440051 -0.765095 4.08482 131 103 89 
-1.12842 -1.09992 4.46692 198 99 128 
-1.19287 -1.20764 4.56242 196 159 133 
-1.20621 -1.20791 4.57585 105 23 37 
-1.2236 -1.23709 4.61584 62 12 13 
-1.09771 -1.43822 4.79322 255 252 241 
-1.22051 -1.25862 4.6447 66 12 28 
-1.21181 -1.26865 4.6346 216 102 136 
-0.432783 0.148009 2.55303 135 44 43 
-0.506111 0.109063 2.60659 109 48 45 
-0.446803 -0.776949 4.12345 90 83 75 
0.750168 -0.0699643 3.10798 104 32 0 
-0.113566 -0.821676 3.96279 120 108 92 
-0.933704 -1.48903 4.83056 132 155 135 
-0.788873 -0.796377 3.90425 85 84 89 
-0.588531 -0.765844 4.10571 210 125 132 
-0.557096 -0.715766 4.0617 255 207 196 
-0.484872 -0.155625 2.85323 176 79 73 
-1.17797 -1.45995 4.84788 226 143 129 
-0.906739 -1.16216 4.52018 148 112 88 
-1.22764 -1.1787 4.52796 113 39 62 
-0.63369 -0.826472 4.19058 75 46 30 
-0.541158 -0.830813 4.16109 205 141 132 
-0.792001 -1.19897 4.55559 63 32 14 
-1.1352 -1.22412 4.59609 70 40 32 
-1.21563 -1.22645 4.6011 79 0 8 
0.21965 -0.3105 3.60859 80 42 23 
0.117747 -0.310588 3.62121 76 48 34 
0.398853 -0.316426 3.59971 176 136 110 
-1.11596 -1.21051 4.56128 101 61 61 
-1.09809 -0.99124 4.30819 115 96 90 
0.250854 -0.219682 3.52371 72 45 24 
0.703483 -0.00233854 3.16128 210 138 28 
0.187477 -0.279299 3.57989 95 59 35 
-1.02063 -0.998144 4.3534 75 0 0 
-0.995886 -1.48299 4.82475 241 243 230 
-1.95598 1.39425 4.49464 109 75 40 
0.403702 -0.343702 3.63917 172 128 99 
0.100539 -0.616275 3.87923 72 64 61 
-1.76513 1.40999 4.45166 193 159 121 
-1.28835 -1.38571 4.67717 155 64 95 
-0.678097 -1.25002 4.62123 31 48 30 
0.662818 -0.0544218 3.26069 214 147 32 
-1.92301 1.42297 4.45529 98 68 42 
0.350729 -0.998303 3.63876 122 116 102 
0.353782 -0.339831 3.62336 86 57 39 
-0.985362 -1.43727 4.80804 169 127 87 
0.73928 -0.088838 3.07274 106 36 0 
-0.488972 -1.27495 4.44756 210 175 153 
-0.505187 -1.278 4.46346 218 183 161 
-0.618099 -1.22223 4.53888 76 49 20 
-1.48882 1.21092 4.63732 215 186 154 
-0.856969 -0.869528 3.96248 237 231 233 
-1.31344 -1.29807 4.55864 137 65 79 
-1.06755 -1.33686 4.70391 118 35 65 
-1.22194 -1.49772 4.87723 231 155 129 
-0.546174 -0.740077 4.08622 191 83 83 
-1.50875 1.41425 4.48091 210 174 148 
-0.851023 -1.48336 4.82629 221 204 186 
-0.789872 -0.775745 3.87519 194 193 198 
-0.43956 -0.238212 2.95088 48 42 26 
-0.619899 -0.803544 4.13979 231 203 182 
-0.869115 -1.393 4.74234 174 127 99 
0.0677119 -0.215527 3.5245 166 119 93 
0.308143 -0.239731 3.52382 165 126 93 
-0.0363161 -0.256801 3.57749 70 42 21 
0.324635 -0.278496 3.57533 90 55 36 
-1.05399 -1.34937 4.70421 145 59 72 
0.164472 -0.286223 3.59383 173 127 94 
-1.05457 -1.33691 4.70365 206 107 127 
-1.76663 1.41643 4.46119 204 171 130 
-1.91702 1.47037 4.39825 206 171 141 
0.0438487 -0.955821 3.97466 186 188 187 
-0.933647 -1.47044 4.82787 128 123 94 
-1.11622 -1.29128 4.66069 175 98 116 
-1.13102 -1.28724 4.64265 126 36 62 
-0.443418 -0.748726 4.08885 89 72 64 
-1.12515 -1.27877 4.66169 49 8 24 
-0.636322 -0.796615 4.15573 118 89 75 
-0.528477 -0.809405 4.1415 249 193 180 
-0.609388 -0.817841 4.14469 67 39 28 
-0.609037 -0.825677 4.16308 67 40 23 
-1.22053 -1.23607 4.59943 62 12 13 
-0.63145 -0.82752 4.18151 75 46 30 
-0.652701 -0.831181 4.16627 150 124 109 
-0.806053 -1.2273 4.55365 58 26 11 
-1.16368 -1.22089 4.59689 156 137 107 
0.0457078 -0.943891 3.99763 169 171 168 
-0.912415 -0.969554 4.32578 240 168 109 
-0.596379 -1.50177 4.83999 105 97 78 
-1.1041 -0.981298 4.31154 187 167 160 
-0.639794 -0.75286 4.10839 124 93 73 
-0.99109 -1.00139 4.36989 208 63 66 
-1.01876 -1.01028 4.37199 205 102 132 
-1.1028 -1.17068 4.53076 190 114 144 
-1.16779 -1.51373 4.87565 158 37 78 
-1.01297 -1.14251 4.45009 218 158 168 
-1.12715 -1.11504 4.47081 101 8 35 
-1.22027 -1.16698 4.52037 67 0 0 
-1.14749 -1.16132 4.53045 138 42 79 
-1.45957 1.52973 4.3265 210 177 146 
-0.611189 -1.5052 4.8455 12 3 0 
-1.94624 1.54701 4.31413 189 159 121 
-1.07179 -1.23599 4.59169 235 140 148 
-0.49325 -0.140467 2.8563 150 49 53 
-0.564325 -0.812379 4.13126 227 194 177 
-0.524952 -0.791745 4.12528 217 175 163 
-0.486618 -0.784294 4.13182 220 192 178 
-0.487225 -0.805479 4.12994 235 207 195 
-0.527898 -0.807543 4.15202 246 200 185 
-0.652152 -0.817814 4.15475 35 18 11 
-1.04097 -1.46811 4.82151 108 66 44 
-0.535029 -0.821426 4.15574 124 42 48 
-0.585052 -0.823745 4.1767 68 16 18 
-0.525043 -0.774468 4.12053 238 210 198 
-0.524053 -0.845796 4.16183 184 133 116 
-0.563259 -0.765492 4.09745 81 56 49 
-0.538264 -0.758683 4.09524 76 63 54 
-0.634862 -0.744703 4.09224 231 204 183 
-0.402766 -1.3995 4.63729 143 145 140 
-0.5638 -0.703363 4.08332 255 206 197 
-1.03984 -1.02272 4.3786 228 102 140 
-1.07313 -1.34017 4.69551 64 13 28 
-1.13067 -1.12009 4.48537 90 0 26 
-0.854442 -1.1799 4.51281 56 24 9 
-1.19619 -1.18315 4.56537 188 175 133 
-0.970846 -1.1946 4.5394 32 14 0 
-1.12603 -1.21663 4.56761 138 114 102 
-1.11217 -0.64305 3.91486 19 20 15 
-0.752306 -1.22611 4.58685 146 114 91 
-1.1227 -1.27073 4.64454 71 2 30 
-1.11441 -1.27633 4.59791 53 2 21 
0.176764 -0.261835 3.56659 159 119 94 
0.0788516 -0.257124 3.55897 80 59 40 
0.4398 -0.367916 3.65324 159 122 95 
-0.922586 -1.24084 4.60963 15 32 24 
-1.22455 1.50638 4.33417 207 178 146 
0.25876 -0.22201 3.50498 177 129 93 
-1.50531 1.40026 4.46459 221 185 161 
-0.875094 -1.38052 4.73253 141 47 45 
-1.84154 1.39114 4.50018 127 91 57 
-1.24077 -1.17834 4.51971 76 0 0 
0.252639 -0.205343 3.47711 178 126 86 
-0.87514 -0.981054 4.32414 204 95 62 
-1.77558 1.35572 4.50291 113 78 46 
-0.491616 -0.663799 3.98309 171 138 105 
-2.10722 1.34094 4.5466 106 67 38 
-1.00654 -1.44561 4.82087 224 144 81 
-0.93654 -1.48933 4.84401 129 152 132 
0.712378 -0.0041235 3.16518 187 81 0 
-0.446588 -1.47472 4.74516 56 20 20 
-0.642759 -1.45198 4.75403 71 48 34 
-0.505793 -0.230891 2.93627 142 142 130 
-0.966081 -1.44996 4.81506 183 138 109 
-0.646548 -0.747618 4.1007 127 103 93 
-0.511234 -0.751822 4.10221 237 212 190 
-0.514064 -0.250585 2.96615 223 224 210 
-0.575689 -0.75992 4.10522 243 210 201 
-0.564387 -0.762291 4.13105 88 65 59 
-0.879089 -1.38246 4.74111 128 47 44 
-1.23049 -1.36362 4.75988 49 21 17 
-0.609187 -0.806362 4.16907 216 168 156 
-0.51522 -0.813841 4.11938 238 201 185 
-1.94517 1.51959 4.38563 100 74 49 
0.616196 0.054112 3.14997 175 69 7 
-0.548095 -0.848402 4.17912 193 149 136 
0.492699 -0.219161 3.31252 165 68 0 
-0.578455 -0.8525 4.18051 154 118 104 
-0.623806 -0.851065 4.20628 67 40 29 
0.40054 -0.308666 3.62242 179 127 90 
0.0362449 -0.952618 3.99869 87 89 88 
0.307974 -0.972412 3.62497 42 42 40 
-0.448253 0.066048 2.59823 26 21 17 
-1.83128 1.36847 4.46705 133 98 60 
-0.910695 -0.969688 4.34104 249 188 131 
-0.856628 -1.17881 4.53708 60 27 12 
-2.2012 1.2896 4.57641 67 49 29 
-1.17077 -1.14178 4.48984 235 106 147 
0.67544 -0.303823 3.21672 153 68 0 
0.175612 -0.267136 3.554 167 121 97 
-1.13751 -1.12012 4.49896 67 2 10 
-1.01214 -1.11603 4.47481 217 132 174 
-0.842922 -1.44594 4.81254 190 123 96 
-0.394396 -1.1757 4.50144 60 18 2 
-0.794223 -1.21553 4.55051 168 119 86 
-0.641804 -0.881691 4.2077 29 4 0 
0.25834 -0.255621 3.53975 173 115 75 
0.388003 -0.206053 3.28698 122 53 0 
0.409264 -0.176906 3.33099 166 85 3 
-1.1933 -1.39465 4.77766 71 30 36 
-0.563831 -0.738037 4.073 247 220 211 
-1.23832 -1.3815 4.74311 218 153 133 
0.470471 -0.110382 3.30261 185 93 10 
-0.998165 -1.31646 4.59579 238 225 209 
-0.513989 -0.76561 4.11053 101 72 66 
-0.544974 -0.765531 4.11083 84 72 72 
-0.612405 -1.29781 4.48906 236 204 189 
-0.518679 -0.850095 4.13315 184 132 119 
-0.553442 -1.27728 4.48637 227 195 174 
-0.416644 0.024775 2.6259 120 116 105 
-0.808523 -1.22705 4.5853 56 27 13 
-0.42852 0.048894 2.62758 52 48 37 
-1.12909 -1.21509 4.59002 160 128 117 
0.297148 -1.00715 3.65704 232 235 218 
0.315398 -1.02051 3.65989 124 117 107 
-1.03425 -1.02468 4.39507 232 81 134 
-0.93967 -1.15608 4.51338 243 186 201 
-0.975152 -1.44135 4.80928 51 23 0 
-1.0319 -1.09751 4.43912 238 162 200 
-1.01876 -1.01479 4.36114 233 87 136 
-0.869073 -1.23213 4.58683 40 27 8 
-1.0442 -1.47358 4.82465 110 92 68 
-1.00483 -1.47364 4.82265 155 153 130 
0.415649 -0.352937 3.63447 110 93 83 
-0.910127 -1.14942 4.48989 130 68 27 
-0.468638 -0.759283 4.10131 174 150 140 
-0.522731 -0.768489 4.11163 102 73 65 
-0.498894 -0.787591 4.12707 99 72 55 
-0.682306 -0.791352 4.1451 84 60 48 
-0.489873 -0.80443 4.14448 220 193 182 
-0.567549 -0.809586 4.15103 238 201 185 
-0.587693 -0.833399 4.18054 183 115 114 
-0.663845 -0.830887 4.17182 155 126 108 
0.35749 -0.300399 3.58754 124 79 48 
-0.480862 -1.50644 4.84604 149 104 99 
-0.480433 -1.4922 4.82777 88 44 31 
-0.562699 -0.772959 4.11753 100 71 53 
-0.508244 -0.808646 4.14454 186 163 149 
-0.628128 -0.82077 4.1665 150 127 111 
-0.0261032 -0.253102 3.57827 194 180 167 
-0.473401 -0.808556 4.14748 193 166 149 
-0.623114 -0.77017 4.11814 233 208 188 
-0.660488 -0.800662 4.14856 171 139 126 
-0.452795 -1.27301 4.45708 219 182 163 
-0.689756 -1.28278 4.62656 55 59 44 
-1.20741 -1.5182 4.87249 163 41 88 
-0.897116 -1.46939 4.81108 95 98 71 
-0.632307 -0.827443 4.17366 75 46 30 
-0.479106 -1.2807 4.46526 224 189 170 
0.313117 -0.25086 3.5494 143 107 85 
-1.22054 -1.49671 4.86442 231 155 129 
-0.431644 -0.759883 4.08047 183 156 149 
-0.640971 -0.790587 4.13928 225 196 182 
-0.634055 -0.796994 4.14988 115 86 72 
-0.161202 -0.976432 4.0275 217 217 217 
0.265942 -1.0141 3.70224 41 41 31 
-0.595597 -0.748455 4.09121 254 217 209 
-0.515391 -0.812767 4.13793 238 201 185 
-0.630301 -0.835474 4.17989 170 142 120 
0.259037 -0.219547 3.51586 179 129 92 
1.72442 1.59624 4.10065 124 98 75 
-0.734428 -1.15466 4.39876 181 172 163 
-0.624075 -0.740965 4.08892 228 197 179 
-0.587549 -0.745617 4.09526 190 119 113 
-0.437098 -0.753374 4.08715 87 60 51 
-0.820607 -1.10744 4.36201 239 235 224 
-0.822832 -1.15086 4.50271 85 38 10 
-0.644286 -0.764445 4.11315 111 83 61 
-0.708328 -1.16785 4.41931 152 148 139 
-0.663471 -0.765999 4.1131 110 75 55 
-0.742515 -1.14902 4.39747 156 146 137 
-0.382955 -1.16757 4.48582 45 0 0 
-0.657839 -1.17842 4.42813 145 134 128 
-0.745935 -1.13646 4.38357 138 129 122 
-0.387704 -1.17771 4.49825 60 6 0 
-0.790693 -1.12333 4.37296 169 156 148 
-1.06175 -1.49781 4.81959 208 203 197 
-0.942965 -1.18824 4.54422 155 104 57 
-0.954278 -1.18834 4.54357 115 110 88 
-0.837034 -0.835867 3.94155 137 135 138 
-0.872167 -1.49103 4.81559 38 55 37 
-0.191774 -1.20304 4.48679 90 80 70 
-0.531142 -0.801237 4.13856 120 49 43 
-0.920611 -1.20278 4.5591 113 128 99 
-1.0167 -1.46609 4.82087 46 38 27 
-0.848936 -1.07335 4.32838 154 144 135 
-0.73683 -1.22445 4.56798 73 47 24 
-0.861548 -1.06617 4.32718 162 154 143 
-0.864296 -1.23487 4.59021 125 103 82 
-0.77115 -1.25183 4.6 122 124 103 
-0.660384 -0.82119 4.16698 171 150 133 
-0.85089 -1.26305 4.6177 129 127 112 
-0.559636 -1.28331 4.4792 122 91 70 
-0.865032 -1.26839 4.62315 111 128 109 
-0.829255 -0.950235 4.29831 109 14 0 
-0.247021 -0.977018 4.03923 233 231 236 
-1.12051 -0.922465 4.27941 67 15 1 
-1.08439 -1.34563 4.71107 149 74 104 
-1.07626 -1.35445 4.71365 144 133 113 
-0.399028 -1.1932 4.51513 73 22 5 
-1.17272 -1.17575 4.5342 74 59 36 
-0.899429 -1.21998 4.57675 43 69 32 
-0.962548 -1.25395 4.53227 155 106 102 
-0.484365 -0.764385 4.10186 178 150 138 
-0.571898 -1.32703 4.51898 229 198 170 
-0.586061 -1.32117 4.51841 139 104 84 
-0.553686 -1.31903 4.51229 139 104 82 
-0.633573 -0.737503 4.08541 224 199 177 
-0.518804 -1.30361 4.49401 227 194 175 
-0.864139 -1.19362 4.54963 106 79 62 
-0.885383 -1.17647 4.53257 111 97 86 
-0.735195 -1.27624 4.62251 22 60 35 
-0.873584 -0.985566 4.33878 255 134 108 
-1.21899 -1.43028 4.78956 161 66 74 
-1.06088 -1.4314 4.79874 224 83 117 
-0.928721 -1.23652 4.58808 63 81 67 
-0.789074 -1.11216 4.36035 210 200 191 
-0.821843 -1.3805 4.73124 126 62 18 
-0.555426 -1.27734 4.4688 183 150 131 
-0.862203 -1.1892 4.53806 111 86 66 
-0.933977 -1.19634 4.55102 122 132 98 
-0.561154 -0.703293 4.04287 255 184 178 
-0.803613 -1.09728 4.34671 143 133 124 
-0.42465 -0.74867 4.08007 202 197 191 
-0.666279 -0.749466 4.09743 96 63 32 
-0.468903 -1.53488 4.87164 126 111 106 
-0.990869 -1.5235 4.88592 144 91 77 
-0.572465 -0.754367 4.09928 177 119 118 
-0.666708 -0.757452 4.10809 94 62 41 
-0.399025 -0.22169 3.57657 108 92 76 
-0.677025 -1.17388 4.42269 157 152 149 
-0.980976 -0.994957 4.35153 119 0 0 
-0.856827 -1.47132 4.80429 131 124 98 
-0.848891 -1.46235 4.80389 74 22 11 
-0.770842 -1.17558 4.52097 67 35 14 
-0.979515 -1.43546 4.79591 183 146 101 
-0.21177 -1.20119 4.49901 170 156 143 
-0.587251 -1.28957 4.4807 141 109 84 
-0.673539 -1.30933 4.63088 137 123 112 
-0.776418 -1.19837 4.55121 71 43 22 
-0.708936 -1.45055 4.79637 148 85 76 
-0.490693 -1.4796 4.81805 141 102 87 
-1.06663 -1.24409 4.59757 53 3 14 
-0.671575 -0.768244 4.11796 138 103 81 
-1.21472 -1.36649 4.72197 71 12 18 
-0.991954 -1.4341 4.79847 54 30 0 
-0.898074 -1.13123 4.47963 83 15 0 
-1.2892 -1.44237 4.74286 168 98 124 
-0.560443 -0.784904 4.12792 94 51 44 
-1.16376 -1.46073 4.81505 142 35 43 
-0.981429 -1.44841 4.81076 104 108 91 
-0.25451 -0.986701 4.05668 128 127 132 
-0.785546 -1.24107 4.59111 128 105 87 
-0.964644 -1.02243 4.38084 253 103 140 
-1.16659 -1.41779 4.78058 64 5 11 
-0.861627 -1.17948 4.53316 136 111 91 
-1.16452 -1.51144 4.86855 161 46 77 
-0.747526 -1.21515 4.55841 76 45 25 
-0.704502 -0.797595 4.15511 127 106 85 
-0.67739 -0.780049 4.14762 230 206 180 
-1.22625 -1.17882 4.52746 104 42 55 
-0.552555 -0.805699 4.14778 255 203 192 
-1.07781 -1.24872 4.60852 199 106 135 
-0.799444 -0.850849 3.95893 255 254 255 
-0.662872 -1.48807 4.83952 35 1 2 
-0.511968 -0.775605 4.11368 239 217 196 
-1.11503 -1.28932 4.66064 188 117 135 
-1.01038 -1.14305 4.4402 210 168 172 
-1.17423 -1.51869 4.87055 145 34 67 
-0.882981 -1.40976 4.76503 97 108 94 
-0.594911 -0.704107 4.0479 238 208 197 
-0.551308 -0.791713 4.13783 252 202 193 
-1.10573 -1.32082 4.67767 199 99 133 
-0.57804 -0.808824 4.15657 112 44 41 
-0.587458 -0.816875 4.16148 202 149 143 
-0.984796 -1.43753 4.80505 212 159 117 
-1.12518 -1.10053 4.46059 231 122 151 
-1.17425 -1.4636 4.82744 250 200 147 
-0.619896 -0.944349 4.10591 158 45 75 
-0.622321 -1.2809 4.4952 84 62 39 
-0.622199 -0.792425 4.13511 255 225 210 
-1.1386 -1.09448 4.45938 125 16 13 
-1.19176 -1.13802 4.49872 227 79 67 
-0.856237 -1.25481 4.6048 125 149 113 
-0.750158 -1.22883 4.56596 144 112 97 
-1.1294 -1.28934 4.64569 117 32 53 
-0.58299 -0.77202 4.11494 142 67 62 
-1.18607 -1.13075 4.48911 121 22 17 
-0.993157 -1.00401 4.35933 202 76 80 
-0.272128 -1.0381 4.14119 14 15 10 
-0.967718 -1.45366 4.81503 185 136 104 
-1.00839 -1.11892 4.45681 221 147 180 
-0.899983 -1.1631 4.51178 151 110 90 
-0.459997 -0.799018 4.126 103 85 75 
-0.633616 -0.782347 4.12134 111 82 64 
-0.462996 -0.250066 2.95907 19 16 11 
-0.430711 -1.36788 4.55444 168 169 161 
-0.490055 -0.230536 2.93233 9 6 1 
-0.470398 -1.26783 4.45052 192 155 136 
-0.854919 -1.4841 4.80644 167 161 139 
0.660006 -0.0626393 3.27405 191 119 34 
-0.485769 -0.65533 3.99449 189 158 127 
-0.565209 -0.768283 4.11203 201 164 155 
-0.65264 -0.806353 4.14805 191 162 154 
0.0994803 -0.254276 3.56383 94 52 27 
-0.789085 -1.19888 4.54618 63 32 14 
0.367211 -0.309334 3.59717 95 57 34 
0.0790655 -0.254602 3.57016 80 59 40 
0.266929 -0.32107 3.60163 161 115 81 
0.243368 -0.221969 3.51963 81 62 58 
-0.821739 -1.14888 4.496 96 49 21 
-0.757092 -1.17707 4.5196 59 27 6 
-1.01583 -1.4666 4.81352 46 38 27 
-1.21184 -1.28414 4.64963 170 71 102 
-0.540399 -1.31554 4.50405 119 87 64 
-0.870437 -1.3957 4.74461 193 147 124 
-1.11317 -1.32168 4.68027 66 4 17 
-0.701019 -1.15369 4.40772 237 229 218 
-0.973536 -1.47008 4.80976 143 150 116 
-0.580147 -1.32999 4.51769 224 190 163 
-0.563161 -1.32329 4.51288 149 117 94 
-1.22841 -1.36612 4.71444 100 32 33 
-0.950812 -1.42684 4.78327 59 86 43 
-1.1839 -1.09161 4.45653 159 76 62 
-0.666706 -1.17697 4.42938 179 170 163 
-0.859554 -1.08595 4.35237 185 178 170 
-0.916807 -1.20761 4.56071 25 39 13 
-1.07254 -1.50605 4.81884 218 203 200 
-1.14885 -1.47068 4.82848 61 24 5 
-1.17012 -1.4606 4.8174 244 165 150 
-1.17538 -1.18123 4.5401 181 166 135 
-1.14326 -1.19698 4.55766 120 110 98 
-0.888918 -1.2251 4.5786 37 56 24 
-0.780395 -1.22946 4.57534 158 124 99 
-0.880146 -1.22996 4.58278 112 121 92 
-1.15452 -1.24719 4.60109 74 23 30 
-0.958799 -1.25465 4.56026 215 164 160 
-1.14724 -1.34828 4.71373 118 0 32 
-1.13893 -1.33848 4.70314 123 13 50 
-0.663483 -0.793173 4.13597 167 138 122 
-0.86582 -1.19829 4.55101 62 36 21 
-1.1904 -1.46894 4.82585 144 47 64 
-1.18946 -1.09734 4.46336 165 76 62 
-1.0743 -1.35482 4.71051 160 148 124 
-1.21281 -1.36714 4.71533 71 12 18 
-0.989857 -1.43506 4.78718 54 30 0 
-1.12925 -1.47737 4.82702 199 168 165 
-1.00275 -1.47448 4.81022 135 137 116 
-0.849398 -1.4735 4.79939 246 246 222 
-0.643731 -1.46465 4.80833 161 105 72 
-1.21199 -1.27786 4.63796 116 23 52 
-1.18491 -1.24585 4.59889 141 126 119 
-0.86232 -1.18001 4.5283 136 111 91 
-0.636712 -0.730804 4.0804 135 107 85 
-0.946153 -1.1924 4.54825 26 34 0 
-1.09624 -1.36059 4.71905 137 84 100 
-1.08373 -1.34695 4.70346 174 89 122 
-1.21166 -1.22829 4.58422 95 6 28 
-1.04091 -1.47582 4.81535 102 88 62 
-0.614163 -0.778683 4.12261 106 77 61 
-0.894798 -1.47208 4.80043 116 120 87 
-0.734202 -1.27919 4.61918 17 40 24 
-1.22823 -1.30751 4.65943 39 5 19 
-0.577259 -0.810443 4.15006 112 44 41 
-1.09384 -1.25307 4.61555 93 7 36 
-0.923728 -1.4392 4.78624 219 181 144 
-0.808268 -1.36769 4.7143 209 147 106 
-1.2108 -1.25306 4.60519 158 91 108 
-1.05392 -1.35043 4.70642 90 12 28 
-0.90907 -1.15535 4.49806 63 6 0 
-1.1927 -1.13748 4.49459 230 67 58 
-0.846924 -1.47886 4.78575 238 242 219 
-0.872866 -1.38255 4.72675 138 41 34 
-1.02256 -1.1337 4.4489 44 23 32 
-0.580896 -0.754243 4.09211 129 54 51 
-0.562552 -0.712147 4.04994 241 213 199 
-0.778783 -1.11284 4.37419 144 130 127 
-0.75965 -1.12493 4.37373 255 252 250 
-0.789525 -1.10278 4.35439 114 102 104 
-0.744965 -1.12728 4.38231 131 126 123 
-0.580942 -1.32477 4.50438 213 184 166 
-0.733264 -1.13782 4.39192 255 253 248 
-0.838143 -1.07622 4.33228 137 129 126 
-0.848179 -1.07178 4.32976 103 99 90 
-0.549479 -1.31441 4.49924 113 84 66 
-0.74621 -1.14618 4.39917 124 117 111 
-1.13257 -0.965659 4.31907 153 150 143 
-0.693155 -1.15737 4.40373 112 107 101 
-1.10838 -0.923018 4.28596 170 169 148 
-0.728925 -1.15523 4.4112 116 107 100 
-0.542012 -1.30435 4.4951 117 90 71 
-0.680827 -1.1636 4.41322 87 80 72 
-0.925883 -1.19539 4.54333 165 147 127 
-0.594387 -1.30203 4.48726 226 199 178 
-0.708904 -1.16523 4.41667 249 244 238 
-0.695459 -1.1752 4.42945 122 115 107 
-0.667855 -0.785792 4.12974 101 71 61 
-0.558785 -0.786716 4.12703 100 73 54 
-0.641641 -0.78551 4.12462 102 72 62 
-0.50828 -0.777377 4.11124 229 207 194 
-0.672224 -0.768367 4.11277 82 51 30 
-0.633389 -0.767759 4.11476 94 70 58 
-0.961577 -1.25355 4.53122 122 77 74 
-0.672775 -0.759045 4.10212 95 64 44 
-0.460206 -1.26861 4.45194 95 68 47 
-0.974395 -1.442 4.78109 190 153 126 
-0.579563 -1.28412 4.47987 103 72 52 
-1.01146 -1.51178 4.84627 56 54 59 
-0.66891 -0.744753 4.08936 91 59 46 
-0.552999 -1.28796 4.47368 234 205 189 
-0.625472 -0.742364 4.08296 236 207 193 
-0.893723 -1.15046 4.49894 61 20 0 
-0.564725 -1.27961 4.47836 233 202 184 
-0.871629 -1.21718 4.57342 145 123 112 
-0.507255 -1.28111 4.46782 99 71 50 
-0.555406 -1.2769 4.46849 112 83 65 
-0.774346 -1.16852 4.51621 210 175 147 
-0.552282 -1.27535 4.45893 243 212 194 
-0.192107 -1.20804 4.48091 89 71 57 
-0.851085 -0.8198 3.93547 242 240 245 
-0.808094 -1.11488 4.37704 136 133 126 
-0.862395 -1.27527 4.61079 134 150 139 
-0.62989 -1.17879 4.51037 102 66 42 
-1.07084 -1.51491 4.80495 190 164 167 
-0.949079 -1.29465 4.56186 243 189 189 
-0.74775 -1.17159 4.51461 79 44 25 
-1.00414 -1.49408 4.82263 41 46 39 
-0.967657 -1.22901 4.52175 110 72 69 
-0.367126 -1.09691 4.39836 67 75 62 
-0.954566 -1.4995 4.80608 36 57 42 
-0.872889 -1.21626 4.56134 131 103 92 
-0.941535 -1.4987 4.80561 27 43 32 
-0.907001 -1.16492 4.51372 142 110 99 
-0.584866 -1.33805 4.52084 136 110 93 
-0.892171 -1.2147 4.56652 119 109 100 
-0.923644 -1.49648 4.80549 40 58 46 
-0.932983 -1.49813 4.79826 138 155 145 
-0.655883 -1.22192 4.54532 23 45 24 
-0.864099 -1.49258 4.80769 43 56 39 
-0.967977 -1.49388 4.79719 130 148 136 
-0.782554 -1.2219 4.56202 41 5 0 
-0.917107 -1.20929 4.55746 37 57 22 
-0.792984 -1.12487 4.38248 164 156 153 
-0.811724 -1.21174 4.55642 130 98 87 
-0.894405 -1.49244 4.79168 112 139 122 
-0.850166 -1.26668 4.60868 139 143 129 
-0.489964 -1.28218 4.46886 212 185 168 
-0.838125 -1.08932 4.35598 136 131 125 
-0.682896 -1.29696 4.62667 54 46 25 
-0.747989 -1.15662 4.50785 185 138 118 
-0.407311 -1.49518 4.77923 120 100 89 
-0.935123 -1.47673 4.79573 189 177 153 
-0.828798 -0.80209 3.92308 82 81 89 
-0.405169 -1.48665 4.78919 101 69 56 
-0.848982 -1.08703 4.34747 253 243 244 
-0.759093 -1.22697 4.56685 147 115 104 
-0.898891 -1.47658 4.78829 145 146 130 
-0.563075 -1.32343 4.50256 234 205 191 
-0.825106 -1.08631 4.34738 134 124 115 
-0.727353 -1.23277 4.56273 37 24 16 
-0.787292 -1.1846 4.52092 139 111 100 
-0.496086 -1.47303 4.77994 131 97 70 
-0.381452 -1.16917 4.48237 40 0 0 
-0.657113 -1.17748 4.42178 229 221 219 
-0.780087 -1.21011 4.55302 53 21 6 
-0.747921 -0.828436 3.96828 124 122 127 
-0.499826 -1.46618 4.77112 177 126 83 
-0.663401 -1.18948 4.51915 149 120 102 
-0.622465 -0.764296 4.06701 199 173 156 
-0.758249 -1.13724 4.39659 153 145 143 
-0.964011 -1.4426 4.78337 118 86 71 
-0.531024 -1.31986 4.50239 122 95 76 
-0.34113 -1.13709 4.41247 45 6 0 
-0.751138 -1.20861 4.55383 41 14 0 
-0.642474 -1.1925 4.51634 43 15 0 
-0.963486 -1.43777 4.77309 114 127 109 
-0.677812 -1.18543 4.4345 157 148 143 
-0.574513 -0.761455 4.09485 250 218 203 
-0.877947 -1.18249 4.52941 147 119 108 
-0.598222 -1.31425 4.50583 139 110 94 
-0.884663 -1.20228 4.55527 111 86 81 
-0.574649 -1.31485 4.5027 225 196 180 
-1.22629 -1.17811 4.52793 173 94 115 
-0.785936 -1.23539 4.57418 43 17 4 
-0.522096 -1.3152 4.50124 113 90 74 
-0.671279 -1.20744 4.54547 34 48 25 
-0.767342 -1.18941 4.53091 59 30 0 
-0.670261 -0.778655 4.11856 107 75 54 
-0.801096 -1.18234 4.54492 44 16 2 
-0.542817 -0.789049 4.11609 161 91 83 
-1.00625 -1.21362 4.48451 115 96 92 
-0.665109 -1.18303 4.42221 141 131 122 
-0.664028 -1.19864 4.52548 138 120 108 
-0.996257 -1.52498 4.85626 149 100 59 
-0.248735 -1.25725 4.56018 80 65 62 
-0.864146 -1.15596 4.50483 164 127 101 
-0.800753 -1.19207 4.53273 147 119 105 
-0.860572 -1.19162 4.53182 148 128 117 
-0.465077 -0.796964 4.12434 229 203 186 
-0.521971 -1.29653 4.47924 215 188 171 
-0.875546 -1.23509 4.58202 21 38 19 
-0.683392 -0.78704 4.14057 136 107 99 
-1.33208 -1.4422 4.65514 44 2 16 
-0.511663 -0.801749 4.13568 195 173 162 
-0.467921 -1.54822 4.84026 123 105 95 
-0.95232 -1.27748 4.54703 102 49 43 
-0.770067 -1.25749 4.59122 97 103 89 
-0.995765 -0.942624 4.30978 176 115 112 
-0.55306 -1.29616 4.48422 231 202 186 
-0.481136 -0.812037 4.14176 208 179 163 
-0.643669 -0.808617 4.14661 218 191 174 
-0.871331 -1.39669 4.7367 190 156 128 
-0.307464 -1.01872 4.18986 7 32 39 
-0.566113 -1.30902 4.49825 227 198 180 
-0.976064 -0.934756 4.29265 172 94 94 
-0.787749 -1.24055 4.5829 36 8 0 
-0.862891 -1.23842 4.58404 159 128 110 
-0.197041 -1.02545 4.16511 43 35 32 
-1.11395 -0.919145 4.29363 75 74 53 
-0.959019 -1.26518 4.53348 99 43 44 
-0.530346 -0.824756 4.15088 180 116 116 
-0.624709 -0.816477 4.16006 57 31 16 
-0.564934 -1.13015 4.45666 72 60 72 
-0.778716 -1.38759 4.73065 70 12 11 
-0.40088 -0.834506 4.16255 122 77 56 
-0.758839 -1.35384 4.68769 63 22 0 
-0.289776 -1.00292 4.1763 0 12 15 
-1.05428 -1.34641 4.69144 181 134 152 
-0.817037 -1.38545 4.72499 195 133 112 
-0.943241 -1.18859 4.54189 183 129 95 
-0.895177 -1.13255 4.47463 79 3 0 
-0.603727 -1.30489 4.49692 132 101 83 
-0.271701 -0.945789 4.0535 233 233 233 
-0.722558 -1.16744 4.41746 170 163 157 
-0.864035 -1.19796 4.54336 127 103 91 
-1.21136 -1.37209 4.71148 57 8 14 
-0.932026 -0.90236 4.11196 145 90 87 
0.0825913 -0.980924 4.05115 196 194 197 
-0.947935 -1.3738 4.71265 165 143 129 
-1.15945 -1.36432 4.7182 143 33 72 
-0.76443 -1.36199 4.69305 54 21 2 
-0.229589 -0.992139 4.07996 143 142 147 
-0.955219 -1.26813 4.54353 213 165 165 
-1.07462 -1.35785 4.70663 163 156 138 
-0.543153 -1.18663 4.5099 45 31 31 
-0.47666 -1.49794 4.81265 70 33 17 
-0.294603 -1.1309 4.32564 34 0 0 
-0.533898 -1.13372 4.45666 96 77 97 
-0.531905 -1.46917 4.78427 38 31 15 
-0.577795 -1.3068 4.49472 171 142 128 
-0.821232 -1.38927 4.71684 88 34 6 
-0.980185 -0.92375 4.28608 142 78 79 
-0.785017 -1.24993 4.58662 49 22 5 
0.404288 -0.313843 3.60475 148 117 97 
-0.824298 -1.09599 4.35972 196 186 177 
0.613562 0.119765 3.06761 119 83 35 
-0.556884 -0.755143 4.09205 192 165 154 
-0.883142 -1.08393 4.34173 239 215 215 
-1.03292 -1.2531 4.59217 58 39 41 
-0.87998 -0.840299 3.98753 235 235 235 
-0.878697 -0.850571 3.98149 221 221 221 
-1.05943 -1.35512 4.69893 160 142 130 
-0.622866 -0.77227 4.11355 233 207 194 
-0.643605 -0.769524 4.11634 94 72 58 
-0.597842 -1.29048 4.48285 127 99 78 
-0.537142 -0.77915 4.11147 92 71 54 
0.430022 -0.20972 3.51051 167 158 149 
-0.898936 -1.22084 4.57385 0 16 0 
-0.771185 -1.22376 4.56354 46 17 9 
-1.00246 -1.51284 4.83931 179 187 189 
-0.613223 -0.801545 4.15103 97 65 44 
-0.667071 -0.804656 4.14534 82 54 32 
-0.50835 -0.8142 4.13922 222 200 179 
-0.574889 -0.815141 4.14889 94 62 49 
-0.768607 -1.13292 4.39941 253 239 238 
-0.628462 -0.825746 4.16165 172 147 140 
-1.0245 -1.49942 4.82837 45 29 32 
-0.722788 -1.14105 4.40179 86 78 75 
-1.13198 -1.50481 4.80748 221 187 150 
-0.78201 -1.17369 4.54444 49 18 0 
-0.716327 -1.14859 4.39781 255 252 250 
-0.613814 -1.18239 4.51343 50 7 0 
-0.727168 -1.16497 4.50962 50 8 0 
-0.77666 -1.15696 4.50687 71 26 0 
-0.803631 -0.813706 3.93263 239 237 240 
-0.822577 -1.15553 4.49861 102 58 31 
-0.784654 -0.922759 4.24985 143 67 44 
-0.207738 -0.971389 4.05044 78 78 80 
-0.637314 -1.45743 4.78368 163 120 86 
-0.529229 -1.1536 4.4811 24 8 21 
-0.190281 -1.01183 4.10715 219 218 223 
-0.690353 -1.16372 4.41137 255 255 246 
-1.0414 -1.48332 4.80217 74 66 30 
-0.777197 -1.13407 4.39131 166 157 148 
-0.841791 -1.48938 4.79327 235 218 202 
-0.25873 -1.00996 4.10841 232 231 236 
-1.01453 -1.47435 4.80184 30 21 6 
-0.967749 -1.48205 4.7941 99 103 78 
0.415426 -0.222184 3.49783 89 79 70 
-0.590898 -1.32808 4.51167 154 126 112 
-0.566034 -1.30091 4.48626 225 196 178 
-0.625833 -0.748964 4.09352 199 171 157 
-0.55503 -1.14278 4.47509 83 69 86 
-0.854146 -1.48228 4.78043 124 128 101 
-0.871397 -1.13594 4.48224 95 41 13 
-0.771881 -1.23225 4.56948 88 48 36 
-0.807167 -0.846646 3.99009 212 210 213 
-0.968852 -1.46436 4.80106 166 139 120 
0.633146 0.0754932 3.16505 165 98 30 
-0.728611 -1.24004 4.57228 126 155 125 
0.690592 -0.280815 3.22313 148 73 6 
-0.576707 -0.189467 2.99998 81 43 42 
-0.749788 -1.36268 4.70262 150 113 95 
-0.669225 -0.729919 4.10223 228 192 178 
-0.759878 -1.11422 4.37 170 155 150 
-0.623185 -0.758151 4.07693 220 193 176 
-1.17345 -1.1403 4.49867 192 110 133 
-0.353056 -1.07729 4.37981 16 5 0 
-0.695735 -0.804895 4.14979 175 148 131 
-0.516365 -1.28634 4.46251 198 169 155 
-0.95451 -1.51643 4.8514 120 142 106 
-0.572574 -0.687732 3.8317 58 54 51 
-1.05787 -1.4387 4.78298 223 105 139 
-0.987897 -1.44296 4.77603 26 10 0 
-0.386403 -1.18344 4.47297 135 102 97 
-0.579258 -1.12515 4.45668 78 64 79 
-0.529642 -1.28972 4.49648 174 148 131 
-0.635758 -1.44602 4.77307 162 124 103 
-1.0156 -1.18146 4.459 141 121 110 
-0.755015 -1.1634 4.50202 124 76 56 
-0.564728 -0.783434 4.11785 170 123 113 
-1.0401 -1.49646 4.8094 87 100 72 
-0.885915 -1.23134 4.5236 32 16 3 
-0.73616 -1.17192 4.51244 45 12 0 
-0.594259 -0.730788 4.07052 253 174 169 
-1.00394 -0.949992 4.31501 170 119 118 
-0.381819 -1.20369 4.50131 124 104 97 
-0.762697 -1.2105 4.54756 41 13 1 
-0.543235 -1.32193 4.51015 136 109 92 
-0.426311 -0.773431 4.09412 69 62 52 
-0.793994 -1.18386 4.52912 159 131 120 
-1.17973 -1.17611 4.53027 91 82 39 
-0.93693 -1.19438 4.54885 108 120 84 
-0.662842 -0.736306 4.09659 133 100 85 
-1.04021 -1.34439 4.68802 83 28 23 
-1.00344 -1.44173 4.77437 42 49 7 
-0.576438 -0.188264 2.98802 82 21 26 
-0.780629 -1.4114 4.7261 64 25 8 
-0.941896 -1.34773 4.69515 143 129 116 
-0.766456 -1.20031 4.53734 158 131 114 
-0.567954 -0.676311 3.80668 114 115 120 
-0.751385 -1.33432 4.65905 67 28 13 
-0.981116 -0.941208 4.3016 151 102 88 
-0.628699 -1.44323 4.75471 113 129 102 
0.397728 -0.28943 3.56993 169 136 117 
-1.18102 -1.46971 4.81279 139 54 61 
-0.754798 -1.08096 4.25267 113 51 2 
0.365373 -0.324343 3.61725 74 42 21 
-1.01439 -1.43936 4.7835 73 22 0 
-0.933656 -1.44004 4.77806 207 181 154 
-0.503014 -0.724692 4.05766 84 96 96 
-1.22706 -1.37026 4.70879 72 20 22 
0.3256 -0.279954 3.57341 90 53 26 
-0.523875 -1.30461 4.48705 109 81 60 
-1.18807 -1.47272 4.82015 152 65 74 
-0.38743 -1.18243 4.49012 31 0 0 
-0.767979 -1.14191 4.46902 124 46 8 
-0.671704 -1.16874 4.42281 159 155 144 
-1.2235 -1.12207 4.47443 179 109 111 
-0.20309 -1.20035 4.48299 112 96 83 
-0.765861 -1.15642 4.50188 81 37 8 
-0.81763 -0.822468 3.95707 71 69 72 
-0.776243 -1.12192 4.39299 119 109 110 
-0.237578 -0.977575 4.05075 94 92 97 
-0.769065 -1.17965 4.51216 54 22 0 
-0.591705 -1.18252 4.52041 48 0 0 
-1.06657 -1.16872 4.52962 50 28 31 
-0.955334 -1.18299 4.53734 125 54 22 
-0.552516 -0.807905 4.14461 246 185 182 
-0.867234 -1.18847 4.54112 40 17 11 
-0.979698 -0.995707 4.35079 104 0 0 
-0.570775 -1.33244 4.5089 225 196 178 
-0.96119 -1.23037 4.53252 148 115 108 
-0.702318 -1.22068 4.56311 61 67 39 
-0.666857 -0.791947 4.11993 93 63 52 
-0.795912 -1.23777 4.57818 60 34 7 
0.613612 0.115069 3.05759 82 47 0 
-0.270228 -0.969407 4.05843 222 221 227 
-0.898638 -1.49326 4.80023 159 183 170 
-0.576108 -0.77335 4.10447 173 91 95 
-1.05005 -1.24745 4.60024 169 169 159 
-0.553007 -1.32265 4.50554 122 92 81 
-0.464573 -0.816652 4.13171 225 215 203 
-0.580551 -1.33427 4.51216 215 186 168 
-0.638008 -0.799004 4.14807 108 80 76 
-0.92873 -1.29158 4.58582 162 139 133 
-1.16376 -1.46489 4.80559 117 12 29 
-1.02019 -1.29046 4.60866 88 31 1 
-0.637718 -0.777857 4.11798 240 213 196 
-0.554149 -0.784214 4.11188 253 226 209 
-0.487812 -1.46908 4.78572 57 15 0 
-0.773522 -0.913621 4.21685 251 154 147 
-0.88742 -1.31603 4.65313 13 33 5 
0.426785 -0.219653 3.50112 167 158 149 
-0.67368 -0.740105 4.09738 109 77 64 
-0.640291 -0.747738 4.08817 236 209 188 
-1.21262 -1.29997 4.65303 89 0 29 
-0.552964 -0.740737 4.08162 255 196 183 
-1.21702 -1.43596 4.77681 139 40 61 
-0.567418 -0.712082 4.04339 246 191 186 
-0.617158 -0.69355 4.04493 229 159 149 
0.434029 -0.260927 3.55122 205 190 187 
-0.494541 -0.66971 3.98709 117 87 63 
-0.941191 -1.35393 4.68747 167 145 131 
-1.06588 -1.36832 4.70606 67 20 30 
0.392223 -0.303987 3.59673 73 42 21 
0.351644 -0.310939 3.59734 64 41 27 
-0.701798 -1.39342 4.72099 190 161 145 
-1.1891 -1.39128 4.74859 93 31 32 
0.394499 -0.33619 3.62345 65 38 21 
0.373534 -0.335333 3.62652 75 39 17 
-0.335347 -1.07155 4.34736 6 0 0 
-0.867551 -1.18282 4.52556 50 27 13 
-0.344761 -1.11581 4.3956 58 79 62 
-0.841395 -1.07872 4.34532 236 231 225 
-0.341639 -1.13103 4.42138 37 2 0 
-1.1096 -0.989551 4.30634 234 242 231 
-1.09498 -1.36786 4.70931 134 72 97 
-0.229227 -1.01181 4.10931 118 117 122 
-0.537642 -0.760042 4.09241 78 58 47 
-0.953397 -1.19518 4.53748 106 123 87 
0.397391 -0.254624 3.56667 155 124 103 
0.426548 -0.256252 3.5598 58 48 38 
-1.22476 -1.3154 4.66971 166 156 129 
0.393449 -0.215224 3.52638 177 133 106 
-0.464481 -1.27748 4.46157 169 141 127 
-0.909989 -1.1516 4.49242 58 3 0 
-1.29107 -1.44075 4.74573 157 98 116 
-0.601307 -0.705808 4.04938 207 167 157 
-0.484122 -0.671053 3.98295 115 84 64 
-1.09619 -1.45257 4.7634 130 128 107 
-0.67315 -0.811121 4.13799 226 196 168 
-1.2113 -1.30481 4.64324 89 0 29 
-0.966759 -1.49287 4.80856 86 113 98 
-0.901533 -1.48849 4.8103 210 223 214 
-0.363038 -1.09027 4.38361 14 9 0 
-0.781541 -1.18973 4.5232 64 33 13 
-0.505225 -1.2927 4.46764 114 86 65 
-1.33675 -1.5155 4.70398 203 113 141 
-0.349921 -0.973667 4.13822 108 55 75 
-0.332165 -0.987427 4.1603 12 48 48 
-0.383367 -0.261382 3.04384 84 34 33 
-0.776218 -1.1323 4.3808 104 94 93 
-0.994569 -1.49206 4.8141 215 216 208 
-0.857938 -0.854218 3.9909 241 240 245 
-0.951937 -1.2575 4.54897 167 129 126 
-0.601273 -1.29489 4.49576 118 91 70 
-1.21342 -1.16048 4.51532 84 38 23 
-0.625759 -0.733626 4.07774 81 52 38 
-1.06441 -1.34012 4.68899 91 17 42 
-0.585823 -0.703583 4.04543 242 190 179 
-0.662209 -1.21181 4.54883 42 71 51 
-0.706663 -1.45561 4.7733 46 3 0 
-0.480864 -1.51556 4.8251 120 85 81 
-0.513713 -1.45223 4.75752 166 84 88 
-0.955946 -1.43254 4.77718 123 144 113 
-0.739236 -1.34314 4.67537 210 171 142 
0.346953 0.0456573 3.19547 151 75 0 
-1.10173 -0.988384 4.32827 22 2 0 
0.387292 -0.279802 3.5648 70 41 25 
-1.18859 -1.47778 4.8121 146 55 73 
-1.12522 -1.05131 4.42035 126 76 77 
-0.540578 -1.32241 4.4951 104 77 58 
0.526069 0.139192 3.04679 127 57 0 
0.432901 -0.362171 3.64856 68 42 29 
-0.96769 -1.19477 4.53962 14 1 0 
-0.788422 -1.20426 4.53943 44 22 8 
-0.797597 -1.21166 4.54655 46 10 0 
-0.75804 -1.18398 4.51299 51 23 0 
-0.486225 -1.28754 4.46126 207 178 160 
-0.736368 -1.22629 4.56555 63 35 21 
0.41837 -0.209271 3.50449 35 24 20 
0.432479 -0.199747 3.51619 175 166 157 
-0.663811 -1.48665 4.8006 175 93 33 
-0.529891 -0.813421 4.13342 248 182 168 
-0.566294 -0.728425 4.06124 255 188 184 
-0.681767 -0.797188 4.13793 75 52 46 
-0.532349 -0.789309 4.11279 111 80 62 
-0.854738 -1.25501 4.60711 132 153 122 
-0.931316 -1.49289 4.81904 23 36 26 
-0.733785 -1.28198 4.61581 15 46 38 
-0.45846 -0.7934 4.10908 232 208 196 
-1.02119 -1.2869 4.61824 84 42 18 
-0.775021 -1.162 4.4924 95 48 22 
-0.463641 -0.783296 4.10049 187 160 151 
-0.52227 -0.77352 4.10669 129 107 86 
-0.680448 -1.18724 4.44664 98 88 86 
-0.448924 -0.771543 4.09388 241 212 194 
-1.11258 -1.29738 4.64447 205 130 151 
-0.886518 -0.823725 3.95058 111 112 114 
-1.22744 -1.30863 4.65815 54 19 26 
-0.234131 -1.00469 4.10426 200 200 202 
-0.637562 -0.754154 4.07383 229 200 182 
-1.10861 -1.33867 4.67809 71 24 34 
-0.590053 -0.717256 4.05353 158 101 90 
-0.96481 -1.38833 4.72739 94 123 103 
-0.732893 -0.829687 3.97532 219 217 218 
0.321554 -0.313722 3.60856 172 122 97 
-0.770407 -0.922912 4.27247 203 185 173 
-1.14294 -0.924494 4.28874 152 142 130 
-0.19972 -1.03284 4.15832 117 108 103 
-1.16698 -1.47599 4.79693 231 179 132 
-1.16537 -1.41817 4.75826 143 128 125 
0.628707 0.120166 3.05826 93 40 8 
-1.10843 -1.43867 4.76455 106 84 97 
-0.920646 -1.44942 4.7679 207 179 139 
-0.631683 -1.46515 4.75154 54 3 0 
-0.535696 -1.4659 4.79659 65 35 24 
-0.977992 -1.46005 4.78482 106 125 106 
-0.746477 -1.21585 4.54626 58 30 9 
-0.431772 -0.763866 4.07895 226 199 192 
-0.661346 -1.18103 4.51524 160 124 108 
0.443332 -0.259196 3.5473 72 48 36 
-0.963076 -1.23891 4.55626 172 128 125 
-0.599628 -1.17851 4.51137 57 11 0 
-0.689372 -1.28613 4.62012 28 29 21 
-0.490293 -1.49093 4.79207 154 119 99 
0.159456 -0.271948 3.5703 131 93 72 
-0.887523 -1.21298 4.54676 146 126 117 
-0.348566 -1.13418 4.39486 62 85 75 
-1.0998 -1.36764 4.72313 24 5 9 
-0.852937 -1.18088 4.51283 44 24 13 
-0.883624 -0.942721 4.29998 252 169 99 
-0.871959 -0.811755 3.93231 237 235 238 
-0.621321 -0.687743 4.05726 227 181 165 
-0.639515 -1.17094 4.50547 192 117 86 
-0.600231 -0.714075 4.04064 236 202 190 
-1.01315 -1.31596 4.62196 61 54 26 
-0.574983 -0.734202 4.05661 237 140 147 
-0.636971 -0.738734 4.07442 123 93 82 
-1.03929 -1.02309 4.38021 216 94 135 
-0.577143 -0.821123 4.1401 117 79 66 
-1.28871 -1.44978 4.73468 175 85 110 
-0.531381 -1.39178 4.70157 78 69 60 
-0.490922 -1.46226 4.76172 52 25 16 
-0.344575 -1.07879 4.36407 18 14 5 
-1.00365 -1.48069 4.80327 121 128 97 
-0.846088 -1.48406 4.80294 225 218 202 
-1.12619 -1.09878 4.46458 215 108 138 
-0.637067 -0.762545 4.0955 196 163 148 
-0.551717 -0.79321 4.13587 252 198 186 
-0.846405 -1.48777 4.77198 212 216 193 
0.727251 0.0192268 3.18976 158 67 0 
0.391853 -0.236952 3.53599 173 117 80 
-0.665972 -0.753961 4.09552 100 71 53 
-1.22068 -1.43325 4.7882 143 40 67 
0.334301 -0.145437 3.4416 129 97 74 
