ply                 
format ascii 1.0    
element vertex 435
property float x    
property float y    
property float z    
property uchar red  
property uchar green
property uchar blue 
end_header          
-0.443311 -0.788099 4.05118 210 196 187 
-0.432535 -0.139581 2.75634 174 109 103 
-1.97722 1.51767 4.34613 110 71 40 
0.152154 0.00690171 3.18161 124 108 93 
-0.437966 -0.121074 2.76568 227 127 129 
-0.444327 -0.120956 2.76243 220 117 120 
-0.456293 -0.126195 2.76781 162 71 68 
-0.410784 -0.126971 2.76413 104 62 64 
-0.275663 0.0845129 3.12226 73 61 39 
0.388424 -0.152193 3.20219 111 72 3 
-0.22074 0.0857428 3.12453 136 117 102 
0.387367 -0.154096 3.1949 111 74 6 
-0.41599 -0.13483 2.76033 112 45 52 
-0.403379 -0.136001 2.76347 93 33 32 
-0.418898 -0.139738 2.75909 124 53 59 
-0.444371 -0.141778 2.76072 242 149 141 
-0.449767 -0.14572 2.75863 239 126 122 
-0.363878 -0.154654 2.77523 242 137 142 
0.211444 -0.213412 3.40065 165 133 112 
0.135366 -0.224793 3.42291 78 33 4 
0.081225 -0.230163 3.42902 153 129 101 
0.0814803 -0.236789 3.43512 169 137 116 
0.199346 -0.252102 3.44252 107 57 24 
0.0973201 -0.252779 3.44893 81 46 27 
-0.0226587 -0.258722 3.46267 89 47 22 
-2.18927 1.39865 4.46549 114 73 43 
0.144121 -0.281337 3.48056 84 47 20 
0.147083 -0.312756 3.50813 106 56 31 
0.132684 -0.313249 3.51522 89 48 20 
-0.620013 0.218902 2.99982 109 86 68 
0.344161 -0.339416 3.5242 98 47 18 
-0.474909 -0.65838 3.90998 195 163 138 
-0.573837 -0.611932 3.6019 229 227 232 
-0.988544 -1.49264 4.84454 154 128 105 
-0.543098 -0.742665 4.00876 249 160 156 
0.382269 -0.697213 3.71493 196 126 118 
-0.562814 -0.757844 4.02795 141 60 59 
-0.458947 -0.765946 4.02442 195 166 148 
-0.513409 -0.766839 4.02934 105 72 57 
-0.523502 -0.769606 4.03677 105 83 70 
-0.522071 -0.779841 4.04522 255 217 204 
-0.545642 -0.781134 4.05131 145 122 108 
-0.539577 -0.78151 4.04621 95 67 53 
-0.486396 -0.801049 4.06438 97 65 52 
-0.577429 -0.805934 4.07465 228 140 139 
-0.502478 -0.806023 4.06701 196 168 154 
-0.559959 -0.815472 4.08452 246 208 197 
-0.54778 -0.825352 4.09802 69 28 22 
-0.581178 -0.833825 4.10366 193 123 123 
-0.532853 -0.8353 4.10271 201 132 127 
-0.781434 -0.78034 3.78997 171 169 170 
-0.785913 -0.796051 3.81956 64 64 66 
-0.784087 -0.796563 3.81697 74 74 76 
-0.513817 -0.88536 4.15888 167 122 116 
-0.626306 -0.938141 4.04971 159 8 17 
-1.02788 -1.02175 4.33829 148 74 91 
-0.925084 -1.0252 4.33293 238 94 119 
-3.34787 -1.34958 5.50411 47 43 44 
-0.67979 -1.32247 4.62461 65 36 18 
-1.14482 -1.13839 4.46568 103 13 38 
-1.25044 -1.33343 4.66789 102 47 50 
-1.02767 -1.15225 4.45761 175 106 125 
-0.938243 -1.2109 4.53574 180 131 90 
-1.17957 -1.24544 4.58439 156 140 117 
-0.879268 -1.25736 4.58678 62 46 20 
0.0757374 -0.194848 3.39477 160 134 119 
-0.473558 -0.878951 4.14315 53 46 36 
0.178512 -0.200598 3.38848 166 128 115 
-0.469495 -0.770159 4.03242 204 176 164 
-0.456022 -0.771735 4.03261 150 120 96 
0.249428 -0.306525 3.4964 124 72 48 
-0.429315 -1.19579 4.36681 78 29 0 
-0.980802 -1.27143 4.51248 166 112 110 
0.244098 -0.212164 3.39729 156 125 107 
-2.06847 1.23033 4.66171 205 166 135 
-3.37546 -1.41407 5.25851 62 55 63 
0.211809 -0.218648 3.40559 147 123 97 
-1.36226 -1.46775 4.65214 179 88 123 
-2.23686 1.47643 4.39094 131 91 56 
0.118044 -0.222193 3.4207 96 60 38 
-0.528928 -0.820391 4.08667 130 42 38 
-2.45261 1.46973 4.39917 200 164 132 
-2.24117 1.05675 4.84828 101 66 34 
-1.82447 1.46779 4.37837 101 66 36 
0.190805 -0.290437 3.48453 157 127 101 
-0.331554 0.566812 2.59807 169 153 130 
-1.86024 1.40812 4.4445 229 186 152 
-0.901817 -1.33941 4.67241 50 68 44 
0.431294 -0.226477 3.19128 168 97 7 
-0.460209 -0.87866 4.14834 102 100 88 
-0.99393 -1.50475 4.84341 132 137 117 
-0.594503 -1.54386 4.87055 43 25 13 
-0.561873 -1.58965 4.92603 124 113 107 
0.128777 -0.281339 3.48131 104 57 27 
-2.84467 0.908937 5.03368 158 128 90 
0.177194 -0.256539 3.45279 142 109 90 
-3.16198 0.900117 5.04588 130 94 62 
0.331294 -0.319517 3.50242 154 127 106 
-0.975548 -1.03057 4.3425 172 0 3 
-3.38358 -1.34019 5.66632 85 74 72 
-2.45513 1.46417 4.41664 207 169 130 
-0.718895 -1.48006 4.82067 59 1 0 
-2.71678 1.47988 4.40245 162 123 82 
0.0927289 -0.317493 3.5189 150 124 99 
-2.93599 0.828814 5.09615 122 89 54 
-0.862365 -1.49456 4.82843 78 27 24 
-0.657022 -0.850119 4.13313 88 63 41 
-3.09782 0.300565 5.67064 105 69 37 
-1.23928 -1.18598 4.51269 94 12 1 
-1.13268 -1.32506 4.65667 92 52 61 
-2.7159 1.24391 4.66273 132 94 49 
0.530318 -0.179523 3.23699 193 123 11 
-1.84015 1.50042 4.33212 201 160 128 
-2.89392 1.45872 4.45432 209 173 137 
-2.6736 1.36428 4.55606 203 170 127 
-1.82462 1.49826 4.35269 107 73 36 
-2.60063 1.22727 4.66982 109 76 41 
-0.974131 -1.03582 4.34463 245 81 116 
-0.565404 -0.880237 4.15545 180 128 115 
-0.58094 -0.839967 4.11697 193 119 118 
-0.601744 -0.831919 4.11237 66 31 11 
-0.609113 -0.824203 4.1006 174 146 125 
-0.624041 -0.859943 4.13567 50 23 4 
-0.785836 -0.796092 3.81832 64 64 66 
-0.455943 -0.812324 4.07655 235 223 211 
-0.482241 -0.805102 4.06764 230 201 187 
-0.605377 -0.806522 4.08324 108 65 48 
-0.0683935 -0.819777 3.87993 149 146 127 
-0.578234 -0.804688 4.07284 255 184 178 
-0.572849 -0.791104 4.05745 149 87 90 
-0.443839 -0.787785 4.04126 222 203 189 
-0.438077 -0.770594 4.03365 211 182 168 
-0.523382 -0.769623 4.03703 105 83 70 
-0.521161 -0.76368 4.03321 239 211 197 
-0.541737 -0.75814 4.0216 82 56 39 
-0.482464 -0.662036 3.91519 117 86 57 
-0.363864 -0.155338 2.77279 247 151 155 
-0.413828 -0.142644 2.76022 251 160 159 
-0.421062 -0.136519 2.7587 108 53 59 
0.388128 -0.154507 3.19942 111 74 6 
-0.568259 0.482091 2.71565 128 112 97 
-0.427186 -0.122313 2.76106 235 146 148 
0.149747 0.0153398 3.17536 80 65 44 
-0.275334 0.0841411 3.12292 75 63 39 
-0.306475 0.122743 2.47499 127 47 56 
-0.407166 0.153054 2.46265 242 153 155 
-1.16481 -1.51594 4.87421 55 31 7 
-0.194442 0.229409 2.96542 54 34 23 
-0.443912 -0.769893 4.02922 106 78 64 
-1.24864 -1.53415 4.88617 245 166 151 
-0.579814 -0.862528 4.14112 133 84 77 
-0.926053 -1.02733 4.33929 238 94 119 
-0.945435 -1.50686 4.83217 147 138 107 
0.132812 -0.31153 3.51185 79 42 16 
0.232894 -0.310049 3.4974 91 45 21 
-0.620051 0.218592 2.99738 109 86 68 
-1.31783 -1.47404 4.76499 159 79 104 
-0.988288 -1.48869 4.84039 157 121 95 
-0.273767 -1.15905 4.26853 209 146 131 
-0.357238 -0.157864 2.77572 235 139 140 
-0.261088 -1.38872 4.51411 81 56 51 
-1.3626 -1.51809 4.70313 223 102 143 
-3.38736 -1.35815 5.64577 37 35 38 
-0.591618 -0.818226 4.09789 105 27 25 
-3.34559 -1.34938 5.50017 47 43 44 
-1.24114 -1.39529 4.74072 85 15 25 
0.0819478 -0.231282 3.4265 169 142 113 
0.135301 -0.224893 3.41899 78 33 4 
-0.511632 -1.30182 4.45561 218 182 160 
0.167448 -0.184225 3.37874 183 150 133 
0.344784 -0.339643 3.521 84 38 14 
0.184064 -0.315741 3.50884 167 134 103 
-0.494198 -1.30828 4.45777 228 195 176 
-1.15101 -1.31249 4.64899 134 37 68 
-3.40688 -1.61174 5.33479 141 141 143 
-2.00187 1.42968 4.42075 121 78 46 
-1.36258 -1.46948 4.65832 192 92 128 
-0.467443 -0.878298 4.14784 16 9 1 
-0.331867 0.130764 2.46206 171 92 95 
-1.82098 1.40024 4.4483 98 61 35 
-0.293176 0.47274 2.70138 146 130 115 
-1.82695 1.46911 4.38495 101 66 36 
-2.24089 1.05456 4.8452 109 76 43 
-0.488382 -0.828437 4.09572 175 155 144 
-0.718701 -1.47992 4.81911 59 1 0 
0.176058 -0.188526 3.37784 145 109 87 
-2.45351 1.46932 4.40877 125 85 50 
0.335316 -0.348676 3.53566 152 119 100 
-1.25554 -1.04406 4.32971 86 0 0 
0.184842 -0.321347 3.51984 161 127 115 
0.157408 -0.200887 3.38955 92 57 29 
0.183404 -0.304211 3.49869 154 119 99 
0.119726 -0.226406 3.42212 99 55 28 
0.172139 -0.234092 3.42529 169 134 114 
-1.05725 -1.49994 4.84277 107 42 20 
0.128508 -0.281473 3.47844 92 51 23 
-0.764076 -1.06974 4.20464 63 17 0 
0.0829344 -0.249321 3.44902 127 105 91 
-1.257 -1.39576 4.74884 92 22 22 
0.131538 -0.274999 3.47204 153 131 108 
0.139056 -0.274986 3.47187 146 121 99 
-2.99584 1.50139 4.39186 179 140 99 
-0.469376 -0.769862 4.02841 190 162 151 
-1.15755 -1.13088 4.46838 203 74 79 
-1.82412 1.49697 4.35007 107 75 37 
0.240445 -0.29862 3.48579 109 67 42 
-2.45368 1.36044 4.50836 231 197 162 
0.0935971 -0.323183 3.5229 154 128 111 
0.39357 -0.652593 3.77496 97 84 76 
-2.50474 1.18596 4.71968 154 119 89 
-0.944999 -1.31627 4.59349 176 141 137 
-2.93234 0.747974 5.14891 137 98 67 
-2.71974 1.4173 4.46733 220 176 137 
-0.410372 -0.137669 2.75845 215 159 158 
-2.26945 1.4712 4.3968 207 177 139 
-2.27084 0.0464624 5.91131 233 199 162 
-0.994578 -1.504 4.83698 151 156 136 
-0.454904 -0.882064 4.15303 20 13 3 
-0.62366 -0.859999 4.13835 60 31 13 
-0.579105 -0.862822 4.14171 133 84 77 
-0.513646 -0.827016 4.09236 166 129 121 
-0.61025 -0.824346 4.1001 174 146 125 
-0.056854 -0.819731 3.87738 144 139 119 
-0.591256 -0.881862 4.16168 176 125 108 
-0.0970574 -0.825332 3.88464 158 150 127 
-0.58206 -0.81736 4.08563 214 141 135 
-0.589023 -0.815056 4.08537 102 23 19 
-0.481337 -0.808607 4.0643 199 173 158 
-0.528066 -0.777448 4.04304 89 61 50 
-3.10304 0.301582 5.67788 99 64 34 
-1.85739 1.40461 4.43431 227 187 151 
-0.926536 -1.02864 4.33547 250 101 139 
0.385557 -0.644777 3.77172 193 124 117 
-0.589439 -1.5397 4.86477 21 2 0 
-2.18579 1.39644 4.45995 110 69 41 
-0.861307 -1.51025 4.82595 231 225 203 
-0.269944 0.0835549 3.12437 85 70 49 
-0.275357 0.082073 3.13113 74 62 40 
-3.4049 -1.62671 5.32741 61 59 60 
0.131626 -0.31116 3.51246 85 50 28 
0.205893 -0.310281 3.50275 78 32 9 
-1.14821 -1.13996 4.47416 103 13 38 
0.514525 -0.276168 3.17962 132 43 0 
0.181304 -0.300092 3.4907 181 143 122 
-3.34158 -1.38174 5.37857 143 141 146 
-1.82802 1.46861 4.38577 89 52 25 
-0.937633 -1.2077 4.52974 205 142 88 
0.0832598 -0.246326 3.44524 166 136 112 
-0.937735 -1.22126 4.55414 40 26 0 
-1.96921 1.4626 4.38853 91 60 31 
-1.24158 -1.39632 4.74108 87 25 26 
-0.49618 -1.30878 4.4594 232 199 180 
0.1731 -0.23272 3.43183 171 134 107 
0.210948 -0.215089 3.40645 176 141 113 
-1.17266 -1.26312 4.59406 167 111 114 
0.340454 -0.981642 3.55342 26 18 5 
-2.55869 1.33529 4.55181 101 61 26 
-0.441488 -0.126292 2.76151 133 42 49 
-0.42043 -0.127679 2.75856 99 57 59 
0.388466 -0.153611 3.20277 106 67 0 
-0.440396 -0.137777 2.75848 133 49 49 
-0.427391 -0.148819 2.75336 243 154 150 
-0.395907 -0.139722 2.76882 234 167 158 
-0.402243 -0.140459 2.75819 117 59 58 
-1.25515 -1.04383 4.33252 66 0 0 
-0.467645 -0.879621 4.1516 19 12 2 
0.335524 -0.34781 3.535 170 132 111 
-1.97792 1.26382 4.61729 142 109 76 
0.345045 -0.33897 3.51947 88 46 22 
-0.763626 -1.0683 4.20035 65 19 0 
-3.42104 -1.62946 5.35407 69 67 68 
0.505524 -0.208315 3.2247 151 54 0 
0.468058 -0.252146 3.18786 174 110 13 
0.657486 -0.243446 3.14133 136 62 0 
-2.0109 1.42405 4.42309 226 184 146 
-2.50135 1.49021 4.383 102 71 43 
-3.37233 -1.40197 5.2465 116 114 115 
-0.488885 -0.841458 4.10062 170 156 143 
-0.292749 0.471496 2.69917 133 117 102 
-1.1836 -1.38789 4.74565 132 1 45 
0.077309 -0.195272 3.39563 163 132 112 
-0.981016 -1.27134 4.51438 166 112 110 
-1.80817 1.45392 4.3953 209 166 132 
-0.437728 -1.19532 4.35616 95 50 19 
0.530855 -0.17891 3.23842 193 125 14 
-2.59092 1.21174 4.67496 183 149 121 
-2.84266 0.80552 5.11846 153 123 87 
-1.20527 -1.14675 4.48208 151 14 8 
0.449311 -0.22219 3.20889 181 116 16 
-0.0584998 -0.81945 3.87383 110 105 83 
-0.578063 -0.863062 4.14193 179 135 126 
-1.21061 -1.20702 4.52586 176 153 135 
-0.452257 -0.800215 4.05702 89 70 56 
-1.1783 -1.24324 4.56608 192 168 140 
-1.24709 -1.34061 4.67054 188 148 140 
-0.614046 -1.56136 4.88433 148 109 94 
-0.426965 -0.150077 2.75424 223 121 119 
-0.401663 -0.140084 2.75979 116 62 62 
-0.594534 -1.563 4.89902 91 6 0 
-0.430562 -0.139871 2.75604 114 53 50 
-1.85967 1.40726 4.43886 235 196 157 
0.163916 -0.184462 3.37231 178 134 107 
0.443199 -0.180109 3.22297 247 186 93 
-2.18805 1.39831 4.46328 114 73 43 
-0.445793 -0.121421 2.766 192 87 91 
-0.602272 -1.54462 4.86904 136 119 101 
-0.755608 -1.07004 4.19594 73 28 0 
0.0799165 -0.21673 3.41227 172 134 98 
0.506183 -0.20845 3.22668 151 54 0 
-3.33807 -1.3826 5.37177 155 150 154 
-0.51468 -0.88432 4.15661 156 103 97 
-3.39914 -1.62518 5.31618 107 105 106 
-1.95781 1.21835 4.65538 213 177 143 
-0.532497 -0.874756 4.14864 204 130 127 
-0.561145 -0.868658 4.14252 59 6 0 
-3.39494 -1.60476 5.31424 136 136 138 
0.178872 -0.288497 3.48427 178 131 101 
-1.24604 -1.20056 4.52242 201 117 133 
0.18104 -0.30202 3.49102 174 130 103 
0.231084 -0.308982 3.49701 86 44 28 
0.205783 -0.311452 3.49853 101 51 24 
0.131308 -0.312428 3.51097 89 52 26 
0.334837 -0.346978 3.52823 152 119 100 
-1.1648 -1.21728 4.5436 163 144 130 
-3.41525 -1.60799 5.50747 65 63 64 
-1.24053 -1.35344 4.69423 91 35 38 
-3.15961 0.871012 5.05579 198 169 139 
-0.269891 0.0842734 3.1266 89 74 53 
-0.483124 -0.663334 3.9174 123 92 63 
-3.31087 0.168071 5.86062 212 183 153 
-2.92611 -1.25735 7.37222 112 72 36 
-1.15779 -1.13001 4.46458 217 74 80 
-2.9397 0.755511 5.1641 116 81 53 
0.272242 -0.308889 3.49653 90 51 36 
-0.491132 -0.843217 4.10734 173 155 141 
-2.59023 1.21117 4.67264 172 139 108 
-1.92773 1.30353 4.54848 132 97 67 
-2.26895 0.0494938 5.92017 221 183 146 
-2.84072 0.804909 5.11042 150 118 79 
-2.79317 0.961115 4.96914 223 182 136 
-0.466436 -0.124257 2.77696 241 163 159 
-0.485016 -0.817166 4.07973 84 61 47 
-0.41377 -0.131948 2.76244 102 56 58 
-0.414026 -0.123726 2.76397 224 164 164 
-3.39839 -1.60287 5.48068 47 46 51 
-0.602668 -0.85755 4.14192 66 35 17 
-0.519122 -0.813489 4.07455 255 195 184 
-3.40477 -1.61029 5.32696 184 184 182 
-0.984247 -1.4849 4.83159 181 141 115 
-1.03292 -1.49713 4.83686 56 41 20 
-0.94678 -1.50622 4.8323 147 138 107 
-0.589833 -1.5419 4.87835 24 3 0 
-2.55698 1.33309 4.54392 95 55 20 
0.444022 -0.178823 3.22809 247 190 103 
0.178913 -0.184833 3.37362 182 137 114 
-1.16742 -1.21601 4.54865 175 154 137 
-1.81918 1.39867 4.4388 91 55 29 
0.505599 -0.209845 3.2261 157 57 0 
-2.35315 1.15776 4.7566 116 83 48 
-0.95212 -1.32733 4.59644 222 178 175 
-1.01278 -1.52127 4.84495 249 244 224 
-0.486546 -0.883653 4.14926 144 131 123 
0.181575 -0.203496 3.39323 178 129 97 
0.0813295 -0.234377 3.43509 168 137 109 
-3.10999 0.301839 5.68917 99 64 34 
-1.23655 -1.16928 4.49959 80 0 0 
-2.84231 0.806737 5.11202 144 109 71 
-1.92743 1.30441 4.5499 132 97 67 
-0.596533 0.21804 3.00483 104 81 65 
-2.94853 -1.26568 7.424 112 72 36 
0.196329 -0.255281 3.4435 90 60 36 
0.284159 -0.31794 3.50998 174 122 98 
-2.25373 1.4721 4.37204 133 103 77 
-2.86957 1.20862 4.69257 121 87 59 
-0.380102 0.0133595 2.55331 53 46 38 
-0.377211 0.0269369 2.5376 44 37 31 
-1.07636 -1.53208 4.83813 87 77 68 
-0.48208 -0.825761 4.09542 176 162 151 
-1.99666 1.42465 4.41866 114 69 40 
-0.514714 -0.850632 4.10754 180 110 102 
-0.540929 -0.854533 4.12802 208 141 133 
-0.39722 -0.142617 2.75547 218 154 145 
-0.420839 -0.123329 2.76579 125 48 54 
-1.052 -1.06555 4.38892 86 4 16 
-2.84961 0.915894 5.0351 120 87 52 
-0.988628 -1.47427 4.80512 74 50 24 
0.278989 -0.218333 3.04844 208 134 1 
-0.882999 -1.42478 4.76833 210 142 123 
-1.85526 1.40199 4.42254 203 163 127 
0.462102 -0.19925 3.22365 241 177 87 
-2.42032 1.09267 4.8014 251 216 176 
0.181149 -0.203916 3.39122 174 130 103 
-1.95202 1.4096 4.43328 206 163 128 
0.1623 -0.200659 3.38919 179 122 93 
-3.31299 0.16215 5.86168 200 173 144 
-3.16897 0.876155 5.06625 202 173 141 
-0.496515 -0.842332 4.10358 182 147 128 
-2.94419 0.757271 5.17939 107 73 46 
-2.01613 1.42602 4.43541 231 189 149 
-2.50924 1.18692 4.71312 147 111 87 
-0.489865 -0.815635 4.05126 48 26 13 
-0.658201 -1.52618 4.85093 184 86 49 
-0.415086 -0.13665 2.76106 120 44 54 
-0.464138 -0.785025 4.0508 90 61 43 
-2.85286 0.917542 5.03946 120 87 52 
-3.35001 -1.33145 5.50185 26 19 26 
-0.472896 -0.139587 2.76297 189 104 99 
-0.946766 -1.31651 4.60595 159 126 121 
-3.39481 -1.56661 5.48002 47 41 53 
-3.23464 0.10249 5.89876 221 192 160 
0.484454 -0.181098 3.23337 238 180 57 
-2.35411 1.15709 4.75695 126 93 58 
0.461598 -0.20099 3.21694 240 190 119 
-3.18868 0.49343 5.48174 207 177 149 
0.0960868 -0.323551 3.52702 166 138 117 
-2.8855 1.20921 4.70257 120 89 58 
-2.0498 0.174686 5.77122 124 88 56 
-3.0804 0.462327 5.52853 202 164 117 
-0.495673 -0.84265 4.09849 179 148 128 
-0.434786 -0.132123 2.76542 212 170 171 
-3.41831 -1.55475 5.88041 29 26 33 
-3.3622 -1.45281 5.3624 35 42 52 
-0.419922 -0.241748 2.83222 29 21 10 
2.12055 0.450806 3.53896 246 248 243 
-0.398849 -0.142672 2.76307 214 154 146 
-2.02558 1.4299 4.45764 238 194 149 
-2.84707 0.919359 5.0268 125 91 56 
-0.447807 -0.242804 2.84483 224 214 205 
0.462416 -0.203833 3.21826 234 192 142 
0.171211 -0.278112 3.46272 176 122 84 
-3.2247 0.491085 5.51048 200 169 123 
-2.84678 0.886076 5.09562 248 220 181 
-3.13412 0.436967 5.53516 221 186 144 
-3.20246 0.498024 5.50807 204 174 146 
0.148943 0.0120417 3.18022 108 92 76 
