ply                 
format ascii 1.0    
element vertex 1204
property float x    
property float y    
property float z    
property uchar red  
property uchar green
property uchar blue 
end_header          
0.427083 0.154808 0.938699 40 31 48 
0.335264 -0.336938 0.941903 80 65 86 
-0.373531 -0.0700968 0.791088 67 50 66 
-0.462496 -0.427984 0.785684 117 112 135 
0.27178 0.0793311 0.912424 143 124 144 
0.0790472 -0.18585 0.830175 67 25 29 
0.477431 0.213934 1.0439 120 117 148 
0.154779 -0.384445 0.907926 92 68 92 
0.177524 0.141077 0.744729 100 51 72 
-0.320639 -0.174026 0.804421 71 58 76 
-0.109238 -0.431557 0.858368 85 61 74 
0.0631721 0.0461722 0.805131 113 60 70 
0.261229 0.0487674 0.912237 74 59 82 
0.152722 0.0850563 0.800335 140 87 103 
0.00672409 -0.0197858 0.785247 176 175 180 
-0.337908 -0.115632 0.798796 61 47 62 
0.0321382 -0.396081 0.884019 132 104 127 
0.237224 0.0753142 0.825865 74 39 46 
-0.331736 -0.538521 0.819247 69 57 71 
0.258822 0.0751031 0.909632 57 35 47 
-0.299786 -0.344024 0.814782 55 39 50 
0.145695 -0.338661 0.903695 88 76 100 
-0.186363 0.0602426 0.741562 118 83 89 
0.167487 0.111498 0.659477 89 54 74 
0.1703 -0.342139 0.909716 106 77 95 
0.288468 -0.33494 0.932382 90 72 94 
-0.464881 -0.370204 0.784967 108 94 129 
0.162119 0.133194 0.649868 100 53 73 
-0.0481663 -0.0868189 0.803202 52 23 28 
0.43382 -0.0636365 0.958447 90 67 87 
-0.183515 0.0442796 0.757596 70 49 48 
0.452888 0.18002 0.941171 77 74 95 
0.433893 0.0259285 0.954113 138 114 128 
0.243909 -0.341386 0.924843 91 68 78 
-0.414308 -0.174248 0.786491 77 63 76 
0.36733 -0.274139 0.945803 66 47 67 
0.133151 -0.177698 0.846161 55 30 34 
-0.347933 -0.111524 0.795811 125 106 126 
-0.0265856 -0.133502 0.812674 109 64 69 
-0.422468 -0.312257 0.789127 72 58 75 
0.23492 0.0587892 0.90479 68 50 66 
-0.30804 -0.454438 0.819036 88 65 85 
0.152056 0.144076 0.630901 118 82 108 
0.0467198 0.0102536 0.818829 73 34 37 
-0.660479 -0.637552 0.626484 114 135 192 
-0.222896 -0.276736 0.829767 75 51 64 
0.0224936 -0.29488 0.803656 59 38 45 
-0.531428 0.0633433 0.743811 91 111 144 
-0.0173923 -0.108843 0.815656 40 16 16 
0.285282 -0.353428 0.932502 151 132 160 
-0.030567 -0.267989 0.782957 42 21 20 
0.280264 0.0911049 0.913169 134 108 121 
-0.0857451 0.0457172 0.776535 105 63 75 
0.089717 -0.076102 0.853716 70 40 48 
0.426725 0.204002 0.919318 75 57 105 
0.146348 -0.175821 0.858398 50 19 17 
0.00441774 0.0929208 0.767288 65 48 56 
0.0838775 -0.283439 0.799952 127 73 86 
-0.466985 0.00788332 0.76912 104 90 113 
0.105127 -0.276099 0.817564 42 22 24 
-0.419202 -0.598779 0.805131 92 70 91 
-0.296268 -0.235317 0.813632 127 101 114 
-0.285939 -0.512988 0.826332 83 65 81 
-0.0843814 -0.276088 0.767069 130 86 101 
-0.233284 -0.393557 0.830884 71 53 67 
0.0510566 -0.414347 0.889921 72 54 76 
-0.365967 -0.428545 0.80559 128 118 142 
-0.462441 -0.181383 0.77625 99 84 103 
0.0918669 -0.115547 0.855309 60 30 32 
-0.387952 -0.175762 0.790578 116 100 126 
-0.0324885 -0.189203 0.811702 63 31 42 
-0.0383525 -0.187198 0.794195 57 22 28 
-0.461229 -0.470476 0.789212 103 87 114 
-0.32967 -0.172044 0.80211 90 73 92 
-0.329767 -0.00987397 0.79827 64 53 67 
-0.466622 0.0769758 0.76494 100 94 122 
0.0238188 -0.423392 0.889296 119 96 122 
0.247244 0.154128 0.906839 101 85 112 
-0.0574698 -0.195749 0.790272 71 34 42 
0.232193 0.0133599 0.909129 121 109 129 
0.186334 0.113555 0.70613 79 42 59 
-0.465325 -0.410732 0.785875 116 115 146 
-0.143296 0.0659629 0.749552 129 81 97 
-0.462985 -0.10523 0.77449 100 85 116 
0.133301 -0.277782 0.826684 35 25 24 
0.175676 0.115054 0.753668 73 42 58 
-0.389493 -0.114145 0.78906 66 51 70 
0.252885 0.129111 0.90469 72 55 73 
-0.330859 -0.41674 0.812774 78 65 83 
0.249613 0.178623 0.889533 67 61 73 
0.262208 0.191901 0.820657 62 55 62 
0.254395 0.0639351 0.909638 137 107 119 
0.0796639 -0.313795 0.828847 146 93 113 
0.16955 0.133722 0.661257 116 65 82 
-0.454603 -0.285576 0.782205 107 87 115 
-0.0140328 -0.436645 0.863549 153 135 121 
0.0985978 -0.322702 0.894044 136 115 134 
-0.458898 -0.321401 0.782791 115 97 121 
-0.0381386 -0.201168 0.794256 54 22 25 
0.104545 -0.120692 0.8558 64 38 49 
-0.0358682 -0.175037 0.79744 123 75 87 
0.169241 0.116693 0.791307 61 33 47 
-0.231117 -0.488293 0.835697 130 106 128 
0.118526 -0.119741 0.857525 61 29 34 
0.325185 0.146481 0.919673 128 100 115 
-0.36031 -0.393323 0.803579 75 61 78 
-0.404729 -0.0851644 0.784286 73 65 86 
0.300741 -0.0627563 0.924823 94 73 90 
0.297046 -0.268932 0.931699 85 73 87 
-0.896658 0.141117 1.49741 75 43 56 
0.315395 -0.209516 0.933422 122 105 121 
0.0729753 -0.268854 0.805125 43 23 25 
-0.113146 -0.456988 0.859129 85 60 81 
-0.127882 -0.0773048 0.81097 58 32 41 
-0.0157739 -0.42478 0.864902 137 92 121 
0.205892 0.117092 0.815032 61 40 47 
0.0819518 0.130321 0.61661 81 44 62 
-0.060783 0.0572199 0.766113 71 41 53 
0.217423 0.0840566 0.818099 143 90 108 
0.292111 0.199031 0.892501 106 118 132 
0.181703 0.150105 0.807136 74 55 61 
0.247024 -0.039394 0.914102 130 115 138 
-0.00440432 -0.434811 0.86688 145 132 113 
0.361978 -0.133706 0.938859 122 98 120 
0.168768 0.0662528 0.81258 134 81 99 
0.170211 -0.231265 0.905314 97 66 82 
-0.394808 -0.514744 0.803475 95 74 93 
-0.431038 -0.24222 0.785926 81 63 79 
0.2033 0.0199355 0.856237 86 35 40 
0.0901582 -0.426732 0.899897 121 103 125 
0.127973 -0.0130141 0.856926 42 21 26 
0.147976 0.163306 0.61305 156 107 129 
0.184535 -0.178465 0.906932 103 83 108 
-0.0344563 -0.344991 0.800603 138 90 102 
0.0641356 -0.018449 0.825466 119 65 78 
-0.538014 0.0143217 0.73796 37 45 64 
0.161376 -0.368591 0.909409 85 57 79 
0.162851 0.144927 0.649758 92 49 68 
0.318666 -0.159879 0.930659 78 71 89 
-0.0410458 -0.18677 0.807155 56 22 23 
0.107209 -0.214292 0.841426 124 72 84 
-1.07799 0.128822 1.25741 82 45 62 
0.175448 0.0901188 0.786296 134 85 106 
0.109405 -0.36823 0.900065 85 61 75 
0.280074 -0.250246 0.927407 91 67 81 
0.280286 0.101261 0.913001 137 122 143 
-0.527007 -0.628997 0.771605 97 107 143 
0.454819 0.19653 0.980733 61 54 62 
-0.262154 -0.394961 0.823929 77 60 76 
-0.270059 -0.229143 0.818478 68 61 69 
-0.536612 -0.038205 0.738539 34 45 67 
-0.372333 -0.216426 0.795837 131 107 123 
-0.158717 -0.397314 0.846968 66 53 71 
0.0726767 -0.0526985 0.829077 120 70 81 
-0.332763 0.0182346 0.792599 105 91 108 
-0.25724 -0.0556215 0.767157 116 91 110 
0.42538 0.0659291 1.00779 71 63 87 
-0.190501 -0.481345 0.845446 124 105 125 
0.315798 -0.27465 0.9356 65 42 62 
0.340626 -0.0359474 0.93077 112 95 113 
-0.298683 -0.116172 0.809229 54 40 57 
0.0257423 -0.40292 0.879819 105 82 108 
0.172092 0.0100746 0.867828 65 22 29 
0.15479 0.118196 0.639556 147 100 116 
0.313277 -0.262803 0.933776 132 106 119 
0.0621758 0.00904634 0.826911 131 80 89 
-0.466647 -0.296331 0.778533 169 185 234 
0.200318 0.0363802 0.842864 158 104 120 
-0.160616 0.0729514 0.747046 53 30 38 
-0.388121 -0.20684 0.793424 86 73 90 
0.260122 -0.0385156 0.914805 143 127 154 
0.225197 -0.372402 0.922049 100 69 84 
0.153884 -0.146417 0.898926 136 103 122 
0.274299 -0.241571 0.92786 67 53 66 
0.259221 0.137045 0.907958 101 85 111 
-0.224754 -0.400666 0.834065 81 60 75 
0.452013 0.180607 0.980211 131 120 134 
-0.463306 -0.0195339 0.768847 105 88 107 
-0.641803 -0.463291 0.712475 170 182 234 
0.431828 0.164276 0.941826 93 85 106 
0.231741 0.0393922 0.907733 128 120 144 
-0.242907 -0.275085 0.824135 131 112 132 
-0.422733 -0.43196 0.79476 87 63 77 
0.326484 0.0703216 0.925491 142 127 146 
-0.0721723 0.0712222 0.765072 97 69 84 
0.430326 0.0394991 0.959073 54 37 56 
0.180537 -0.168816 0.906821 129 120 139 
0.0514878 -0.437671 0.891067 101 69 90 
0.186308 0.115216 0.81132 91 55 59 
0.00292037 -0.272058 0.785459 91 61 73 
0.278995 0.136624 0.911344 79 60 80 
-0.350641 -0.398398 0.807945 125 108 126 
-0.23579 -0.423642 0.832339 80 65 84 
-0.293857 -0.172313 0.811669 61 43 59 
-0.31181 -0.143287 0.80635 134 119 140 
0.181718 0.0951366 0.80214 122 70 82 
-0.287592 -0.342988 0.819349 71 48 56 
0.0782298 -0.343342 0.891564 99 69 81 
0.0635184 0.132494 0.605932 84 46 61 
0.17326 0.102876 0.794 100 59 65 
0.18418 0.142659 0.680226 91 47 62 
0.187891 0.181689 0.738902 87 69 83 
-0.419849 0.0354848 0.776138 83 79 102 
-0.461525 -0.496628 0.789294 114 108 142 
0.244524 0.0335484 0.908855 73 51 64 
-0.0492997 0.156485 0.582536 143 103 127 
0.334323 -0.240443 0.937469 118 108 132 
0.222741 -0.351494 0.919875 101 70 88 
0.450515 -0.0625437 1.05273 158 177 220 
-0.17377 0.0504618 0.744405 118 77 91 
-0.409446 -0.551311 0.802032 143 120 140 
-0.351789 -0.469207 0.810351 97 73 87 
0.423639 -0.170392 0.994213 120 99 116 
0.143984 -0.285559 0.901804 112 78 102 
0.225858 0.026542 0.905585 77 48 66 
0.167584 0.164794 0.797674 146 102 125 
-0.211594 -0.27823 0.832047 70 48 61 
0.0677087 -0.344222 0.889285 131 111 136 
-0.254355 -0.509334 0.832621 124 106 128 
0.108696 -0.338261 0.897877 138 120 142 
-0.430116 0.0695776 0.772787 125 115 140 
0.464287 0.217429 1.11752 85 94 99 
-0.330682 -0.281693 0.808938 82 60 72 
-0.436578 0.182308 0.620602 47 69 56 
-0.0785023 0.0544684 0.763973 83 55 70 
0.0640038 -0.0395262 0.826319 126 70 79 
-0.533386 -0.333314 0.753758 53 63 90 
-0.364221 -0.115994 0.792975 98 79 101 
-0.42519 -0.270798 0.786785 140 119 138 
0.16828 0.147261 0.791898 81 40 54 
0.432134 0.0690898 0.949634 83 57 70 
-0.0458334 0.000785029 0.804183 115 70 77 
0.11845 -0.390518 0.902229 95 74 89 
-0.293676 -0.427498 0.821114 127 112 135 
-0.23949 -0.480834 0.833329 132 109 127 
-0.139536 0.0512355 0.753862 125 84 102 
0.0549735 -0.340918 0.888198 138 116 137 
-0.466394 -0.237847 0.777878 111 113 152 
0.453949 0.183089 1.05161 147 138 159 
0.25592 0.167553 0.822286 134 82 104 
-0.266865 -0.367515 0.822808 107 82 103 
0.254862 -0.220701 0.921482 137 118 137 
0.0124226 0.0720574 0.782034 148 103 123 
0.309951 -0.284138 0.934478 103 72 88 
-0.344034 -0.369739 0.808674 76 62 75 
0.183257 0.114758 0.680268 117 85 109 
0.242079 0.100326 0.816969 42 28 27 
-0.0747334 -0.488801 0.867847 135 114 133 
0.43127 0.0141857 0.950556 132 114 130 
0.301288 -0.296008 0.933668 77 55 78 
-0.404249 -0.259403 0.792087 79 57 70 
0.203341 0.133004 0.814447 83 41 51 
0.45529 0.20645 1.05612 79 73 101 
-0.465802 -0.381085 0.782242 168 186 232 
-0.166233 -0.0232715 0.801615 54 21 28 
0.119111 -0.360744 0.900345 134 111 137 
0.0647014 -0.241609 0.814697 128 81 97 
0.450349 -0.344423 1.28154 39 57 81 
-0.0715328 -0.430171 0.866282 78 60 76 
-0.533647 -0.041732 0.757818 147 162 205 
0.37954 -0.170001 0.943889 88 64 80 
0.246433 0.0698447 0.908823 121 113 137 
0.194336 -0.128263 0.905703 103 75 97 
0.0594623 -0.19035 0.812952 122 68 82 
-0.305287 -0.357054 0.813337 122 97 116 
0.129055 0.126536 0.618699 90 44 57 
0.182135 -0.213167 0.90732 103 73 83 
0.189868 -0.38892 0.916088 92 67 88 
-0.0817876 -0.432429 0.865572 84 66 82 
0.232953 0.114527 0.820069 105 59 69 
0.236988 -0.00751905 0.910091 130 111 130 
0.267214 0.0676967 0.913432 122 107 128 
0.163539 -0.140998 0.901441 89 62 79 
-0.0286814 0.132873 0.588638 72 45 60 
0.222663 0.143433 0.818133 71 33 46 
-0.0940304 -0.464897 0.862924 91 67 83 
0.193824 0.140467 0.812869 121 71 82 
0.0464773 -0.40411 0.887306 106 80 105 
0.0879019 -0.320154 0.893102 148 121 136 
-0.465617 0.0536282 0.765697 101 87 112 
-0.200233 -0.495372 0.841665 123 100 120 
-0.529842 -0.410488 0.762941 117 134 180 
-0.450539 -0.600778 0.792368 135 104 122 
0.217881 -0.362413 0.919124 100 75 97 
0.089109 0.0304763 0.822522 153 102 119 
0.181571 0.187817 0.769998 62 57 64 
-0.323021 -0.486447 0.818525 132 113 133 
0.063526 -0.398324 0.890887 93 76 95 
-0.53841 -0.0150916 0.739119 32 43 65 
0.123182 -0.253172 0.896504 124 99 118 
0.220483 -0.0587114 0.840363 122 70 83 
0.43349 -0.146975 0.957842 138 113 132 
-0.696218 -0.574878 0.59939 152 168 227 
0.35116 -0.192046 0.93968 132 115 134 
0.214484 -0.333131 0.917405 103 76 91 
0.135451 0.169078 0.609048 120 81 100 
-0.332463 -0.342014 0.81076 128 109 129 
0.15019 -0.14878 0.841695 127 73 87 
0.408346 -0.208693 0.949501 89 66 86 
0.0636859 -0.269399 0.799833 82 52 62 
-0.469361 -0.601497 0.793155 175 191 242 
0.0734914 -0.421223 0.892976 101 73 88 
-3.69664 0.22733 2.78345 98 69 89 
-0.382874 -0.0852965 0.788624 128 114 140 
0.185674 0.173705 0.800568 64 35 40 
0.238598 0.0579921 0.89121 73 41 56 
0.384391 0.00135649 0.938536 82 67 86 
0.231288 -0.358633 0.921866 100 74 99 
0.325901 -0.272845 0.936874 134 112 133 
0.0840962 -0.230878 0.81627 111 60 75 
0.243224 -0.371773 0.926353 105 72 89 
-0.407365 -0.269807 0.791436 98 75 83 
0.0808785 -0.244106 0.822036 75 37 48 
0.238741 0.0500803 0.908119 71 49 62 
0.187843 -0.313052 0.913233 132 110 123 
0.425476 0.0722235 0.978309 115 94 103 
0.0985964 0.0422351 0.809489 146 93 113 
0.148486 0.179791 0.611589 67 55 69 
-0.405108 -0.373719 0.796115 130 113 132 
-0.306422 -0.31444 0.814531 79 53 66 
-0.6648 -0.454222 0.6374 132 111 128 
0.0899458 -0.309795 0.892508 138 120 146 
-0.113334 -0.040532 0.809048 124 76 88 
0.0289258 0.0730238 0.784949 101 74 93 
-0.416618 -0.150023 0.784738 86 72 97 
0.193436 0.098604 0.688597 119 73 84 
-0.297191 -0.407824 0.817726 129 110 129 
-0.418842 -0.0958521 0.781955 122 105 124 
0.281306 -0.201589 0.927274 129 112 128 
-0.695932 -0.534032 0.593774 121 147 206 
-0.201253 -0.0246782 0.787214 43 21 24 
0.129499 0.0501721 0.806533 144 111 128 
0.423953 -0.28163 0.955844 92 68 82 
0.103905 -0.274271 0.805142 114 63 70 
0.185647 0.104282 0.80625 93 57 59 
-0.0149371 0.108325 0.588475 66 42 56 
0.0930705 -0.270369 0.804822 51 23 22 
0.235594 -0.316555 0.923068 89 73 84 
-0.20147 -0.429459 0.83909 128 109 129 
0.354945 0.111087 0.926684 125 101 114 
0.307991 -0.321212 0.936091 85 63 84 
-0.121232 0.0570586 0.755466 128 81 97 
0.0796745 -0.181142 0.820539 78 33 40 
0.151035 -0.0337083 0.865126 99 56 73 
0.290083 0.113407 0.91654 127 124 145 
-0.4641 0.0310472 0.767459 93 82 99 
0.147921 -0.319865 0.905077 113 87 100 
-0.464858 -0.443959 0.788628 121 108 136 
0.169161 -0.215332 0.904365 104 72 85 
0.0631996 -0.354605 0.888523 137 112 134 
-0.0051389 0.0653089 0.778549 145 97 113 
0.21949 -0.0131346 0.908841 64 45 64 
0.105887 -0.313923 0.894827 131 108 134 
0.174155 -0.385308 0.912821 120 107 133 
0.26098 0.15258 0.909285 97 93 118 
-0.355134 -0.147894 0.796854 122 98 120 
-0.27641 -0.145168 0.814405 121 98 116 
-0.537766 -0.0510449 0.740084 33 45 67 
-0.205753 0.0122674 0.7715 75 39 51 
0.150738 0.12505 0.631106 90 49 67 
-0.0825856 -0.400394 0.862214 122 105 124 
0.262263 0.175677 0.815589 145 111 128 
0.268722 0.138032 0.910039 85 62 80 
0.160147 -0.1878 0.878459 111 64 72 
0.278642 0.0540679 0.915584 72 57 78 
-0.464333 -0.334581 0.782566 122 107 128 
0.195809 -0.278056 0.912659 97 70 85 
-0.0061695 -0.348366 0.804462 150 98 111 
-0.280854 -0.311121 0.818631 99 73 84 
0.191849 -0.224612 0.909921 150 126 148 
-0.315854 -0.0379205 0.800025 122 107 126 
0.198183 0.0665392 0.818762 105 74 89 
-0.0731935 -0.254521 0.791478 60 31 33 
0.45703 -0.235252 1.28289 46 58 84 
0.16836 0.146916 0.65846 149 102 122 
-0.262828 -0.380059 0.824904 90 63 80 
0.42797 0.066563 1.03445 59 68 109 
0.272792 0.159323 0.911361 104 98 132 
-0.0973837 -0.432072 0.862608 89 64 85 
0.245592 -0.357026 0.924099 146 127 147 
0.0906636 0.0365264 0.811906 137 79 91 
-0.45977 0.0329341 0.768526 100 87 105 
0.15564 0.169415 0.622863 144 100 115 
0.20898 -0.239342 0.912616 106 83 101 
-0.597778 0.177473 0.620994 63 75 61 
-0.329331 -0.517676 0.818115 126 105 124 
0.264259 0.0937907 0.912212 127 120 138 
-0.248278 -0.439504 0.831801 131 104 119 
0.183772 -0.232826 0.906523 100 76 98 
0.178933 -0.19959 0.904928 133 104 122 
0.143524 -0.299836 0.901574 108 75 96 
0.20718 0.167496 0.81017 107 71 85 
0.0836446 -0.389765 0.899428 121 104 123 
-0.0568443 0.0182744 0.802201 79 47 60 
0.208431 -0.0945546 0.907633 99 77 100 
-0.463412 -0.308388 0.78161 111 94 126 
0.24993 0.0493445 0.910431 80 53 68 
-0.242028 -0.515372 0.833911 128 109 128 
-0.535906 -0.573151 0.765687 48 68 92 
-0.367149 -0.201856 0.797159 128 108 133 
-0.539454 -0.307962 0.744377 151 169 217 
-0.0519978 -0.0654 0.805465 72 38 52 
-0.249414 -0.142028 0.818741 138 113 132 
-0.159744 -0.0929401 0.797494 78 33 40 
0.425824 -0.301599 0.957401 138 117 136 
-0.28227 -0.414361 0.822438 83 60 78 
0.22289 -0.076754 0.843923 143 91 103 
0.0316 -0.444486 0.886805 114 88 113 
0.272005 -0.337023 0.929596 128 112 139 
0.202351 -0.140462 0.908583 80 67 85 
0.189282 -0.374903 0.913973 96 69 88 
-0.397435 0.029624 0.780658 129 115 140 
0.19728 0.185339 0.684514 96 66 68 
0.034214 -0.434529 0.8837 131 111 139 
-0.225997 -0.533228 0.83891 128 106 129 
-0.453796 -0.266506 0.780997 121 103 127 
0.146049 -0.390083 0.906751 79 56 72 
0.246406 0.0818498 0.847993 83 47 59 
-0.139416 -0.437862 0.852262 106 76 88 
0.240268 0.142032 0.903294 102 74 89 
-0.187534 -0.507988 0.846376 131 110 127 
0.0425002 -0.431881 0.889743 120 106 132 
0.442121 -0.193672 1.03818 50 45 65 
0.401494 -0.235197 0.950802 132 118 144 
0.205754 -0.205726 0.913546 122 89 100 
-0.0390513 -0.271878 0.777064 82 54 68 
0.135224 -0.0313005 0.851755 145 94 113 
0.166984 0.124266 0.658921 109 55 78 
-0.197621 -0.269843 0.833381 98 79 98 
-0.696438 -0.523254 0.596848 139 166 221 
0.432027 -0.228346 0.960643 104 82 105 
-0.0231649 -0.191136 0.810826 116 64 76 
0.124541 -0.26746 0.86628 78 46 51 
0.328174 -0.0860127 0.930006 96 73 83 
-0.0386831 -0.201552 0.807456 44 17 22 
0.187447 0.117495 0.691208 136 91 111 
0.0467288 -0.293888 0.803744 78 43 47 
0.109421 0.110068 0.615788 76 44 59 
0.335825 0.0751688 0.925664 136 116 128 
-0.541262 0.0448292 0.749549 98 110 148 
0.410828 -0.0974002 0.946556 125 101 123 
-0.295877 -0.246525 0.813075 120 97 115 
-0.272347 -0.116824 0.813113 68 47 56 
-0.178507 -0.469133 0.847661 128 104 120 
0.155325 -0.240857 0.903172 97 70 87 
-0.319669 -0.34884 0.813226 120 97 107 
-0.202902 -0.505654 0.841936 128 106 129 
0.184684 0.143624 0.712277 139 93 119 
-0.46389 -0.0513687 0.770526 100 85 106 
-0.15407 -0.0351655 0.804293 84 50 64 
-0.467049 -0.569436 0.790087 175 191 242 
0.238269 -0.0469915 0.870517 66 31 35 
0.112582 -0.410915 0.901938 126 105 124 
0.107843 -0.241201 0.856018 115 62 72 
0.16712 -0.00749578 0.862632 134 83 92 
-0.346866 -0.00975263 0.793524 71 58 76 
0.428034 0.0247892 0.944581 130 106 119 
-0.383811 0.0190132 0.781274 123 102 119 
0.397007 -0.173968 0.946623 104 79 100 
0.141895 -0.238681 0.900557 129 111 137 
-0.211961 -0.375525 0.835253 125 94 110 
0.0980666 -0.284532 0.799914 84 43 51 
-0.192135 0.0313476 0.782076 86 39 47 
-0.269394 -0.292759 0.819377 99 75 89 
0.176821 -0.372894 0.91225 134 114 139 
0.261063 0.179313 0.892804 116 92 108 
0.155121 -0.230315 0.903624 101 73 87 
-0.203758 -0.476034 0.835441 138 117 134 
0.146576 0.159984 0.625732 162 117 140 
-0.138538 -0.412528 0.852365 132 117 140 
0.0281731 0.167361 0.588087 87 67 78 
-0.438523 0.0879058 0.771239 92 86 114 
0.119359 -0.349023 0.90083 99 73 86 
0.448026 0.206017 0.923404 53 59 49 
-0.240217 -0.465839 0.832908 137 114 122 
-0.390456 -0.551888 0.80854 139 114 133 
-0.458474 -0.403004 0.785082 111 95 121 
-0.533079 -0.0861449 0.745713 37 48 66 
-0.530454 0.0664275 0.752209 127 140 185 
0.239793 0.0754395 0.884335 84 51 68 
0.32108 -0.253939 0.934955 85 60 82 
0.281462 -0.310171 0.930934 120 108 128 
0.252164 -0.29148 0.924196 135 116 135 
-0.0349137 -0.243131 0.797643 124 72 85 
0.287653 0.147194 0.913009 122 99 119 
-0.365365 0.0111567 0.788879 64 50 67 
0.218025 0.189341 0.806046 63 46 52 
-0.644181 -0.442421 0.633136 99 107 146 
-0.53351 -0.322895 0.756871 44 55 85 
0.0665141 -0.064803 0.828872 83 42 56 
0.164005 -0.354835 0.907996 106 78 100 
-0.529809 -0.420158 0.763259 122 132 181 
-0.644032 -0.496261 0.712137 168 178 229 
0.165892 -0.0214194 0.867897 57 28 33 
-0.463861 -0.149291 0.776005 117 97 122 
-0.372036 -0.0149262 0.788668 123 113 138 
0.187388 0.171104 0.670401 140 98 110 
-0.198509 -0.457965 0.843382 128 103 124 
-0.257174 -0.465802 0.829816 129 101 113 
-0.032233 0.0140443 0.801704 106 59 69 
-0.459304 -0.528796 0.790458 128 111 130 
-0.371414 -0.564062 0.813196 124 108 134 
0.0982134 -0.242172 0.838521 111 63 77 
0.241747 0.041832 0.845285 171 117 131 
0.445636 -0.220035 1.03856 153 177 221 
-0.337145 -0.400675 0.81154 120 101 120 
0.147953 -0.247165 0.90079 138 114 128 
-0.533674 -0.0319789 0.746482 41 46 76 
0.154515 0.140873 0.641105 145 103 123 
0.237479 -0.273513 0.920116 123 110 130 
0.176865 0.120912 0.673808 146 101 121 
0.0569164 -0.0783017 0.827282 62 29 38 
0.37165 -0.249476 0.945536 98 76 97 
0.200675 -0.355626 0.91547 123 111 133 
-0.252745 -0.341635 0.825905 76 60 73 
0.0510302 -0.394857 0.889018 96 77 96 
-0.39096 -0.0464163 0.784886 73 60 80 
-0.639902 -0.455625 0.700066 143 131 155 
-0.124029 -0.397472 0.853819 77 63 78 
-0.131139 0.0809731 0.757389 134 87 107 
-0.180864 -0.453617 0.845335 94 69 90 
0.189754 0.149672 0.812129 65 44 51 
0.305897 -0.0739088 0.926004 119 95 111 
-0.207825 -0.522453 0.841899 128 108 133 
0.447946 -0.235106 1.27688 76 82 116 
0.395513 -0.272424 0.951415 120 100 125 
0.159478 0.185963 0.627239 132 89 109 
0.166239 -0.316767 0.909386 116 80 94 
0.0826017 -0.377917 0.893824 133 111 134 
0.0804917 -0.0919207 0.833899 116 65 74 
-0.34382 -0.533969 0.816406 122 105 124 
0.422909 -0.239052 1.00237 104 76 91 
0.200903 0.175299 0.803452 93 71 74 
0.177993 0.19161 0.786511 109 86 102 
0.117114 -0.276555 0.823593 38 28 27 
0.177335 0.167351 0.804088 84 64 73 
-0.218068 -0.411014 0.834583 100 78 99 
0.424947 -0.0976882 0.94869 134 107 124 
-0.392328 -0.404445 0.799621 87 63 79 
0.173836 0.162111 0.660886 124 80 103 
0.27328 0.177183 0.895033 71 64 82 
-0.425246 -0.287581 0.776179 114 103 135 
-0.138891 -0.397187 0.850573 86 74 96 
0.214364 0.176176 0.806886 106 70 74 
-0.0165807 0.0549096 0.778039 79 56 72 
0.198006 0.17165 0.687372 136 98 111 
-0.562409 0.183287 0.66483 23 48 29 
-0.420341 -0.418549 0.794041 89 67 80 
0.263218 0.165 0.907165 56 57 78 
-0.335552 -0.22695 0.803916 123 103 115 
0.0999443 0.0472153 0.82044 124 61 70 
0.195093 0.0861918 0.687892 114 62 74 
0.243717 -0.260901 0.921975 105 91 106 
0.112733 -0.227017 0.839007 65 32 41 
0.0872049 -0.341877 0.896944 101 77 93 
0.175656 0.15311 0.755519 95 70 92 
0.366847 -0.312095 0.946671 123 101 124 
-0.46983 -0.0943418 0.768133 160 173 218 
0.38443 -0.201643 0.946677 88 72 98 
-0.0322498 0.0789548 0.773551 98 57 73 
0.130121 -0.372089 0.902418 134 113 132 
-0.370427 -0.54683 0.810685 95 81 106 
0.18315 -0.323143 0.910691 146 123 139 
0.296234 0.0712584 0.917614 131 123 146 
-0.362212 -0.071161 0.792869 79 62 81 
0.299358 -0.352163 0.935189 142 123 143 
-0.467264 0.0947491 0.764215 97 103 137 
-0.190377 0.0276342 0.766152 121 76 97 
0.073162 0.109461 0.60748 76 48 63 
0.241292 0.0471598 0.831999 124 69 75 
0.132114 -0.080487 0.86215 66 29 37 
-0.389374 -0.362487 0.799792 106 87 107 
-0.319818 -0.152134 0.803567 85 61 83 
0.130132 -0.39328 0.902929 134 111 127 
0.450469 -0.0502246 1.052 142 154 196 
-0.124537 -0.150075 0.797295 73 47 60 
-0.0162669 -0.179269 0.814043 120 74 85 
0.408024 -0.30094 0.952893 129 104 126 
-0.466239 -0.614703 0.79234 178 191 243 
0.197852 0.188706 0.802212 73 54 56 
0.433217 -0.0277007 0.954135 96 72 88 
0.174118 0.168084 0.65077 101 59 71 
-0.55748 0.17682 0.656421 21 58 25 
0.440725 0.16565 0.992525 19 17 28 
0.166138 0.102067 0.652926 83 41 45 
-0.216689 -0.513125 0.840939 91 74 93 
0.179287 0.173233 0.780978 79 50 55 
0.457414 0.199288 1.18598 99 93 121 
-0.0223584 -0.117346 0.803131 54 26 25 
-0.00602342 -0.0601769 0.801452 118 95 77 
0.335694 0.0225745 0.926562 87 64 72 
0.0174243 0.090813 0.769285 60 47 57 
0.0850819 -0.125649 0.853389 111 60 69 
0.126254 -0.278192 0.898807 126 112 135 
0.492434 0.213561 1.00694 90 106 129 
-0.327113 -0.44227 0.814593 100 73 88 
0.348277 -0.262489 0.941097 96 74 97 
0.0385417 0.0155997 0.814228 63 30 37 
0.0358329 -0.133046 0.823605 90 54 56 
0.440694 -0.26192 1.03607 70 73 104 
-0.154406 -0.417602 0.84847 110 86 108 
0.185131 0.162347 0.676727 120 80 104 
0.164567 0.167903 0.636193 100 54 65 
-0.347872 -0.25438 0.803156 99 71 86 
-0.6265 0.169539 0.584683 130 122 137 
0.213846 -0.322615 0.917172 113 85 100 
0.17777 -0.306579 0.909056 129 111 135 
-0.643966 -0.545685 0.709618 108 119 164 
0.253564 0.0402736 0.910439 142 118 131 
0.431231 -0.218385 0.961346 128 109 129 
0.245261 0.103428 0.906113 113 87 100 
0.0915739 0.120347 0.611082 126 83 102 
0.420717 -0.17583 0.95204 129 114 133 
0.309673 -0.311074 0.937523 85 70 89 
0.0765279 -0.0985254 0.82426 105 54 59 
-0.467336 -0.116711 0.770478 158 177 219 
0.400451 -0.0771677 0.943791 126 101 123 
-0.0860026 -0.485954 0.864338 125 103 126 
-0.285379 -0.206789 0.814196 84 58 71 
-0.417896 0.0137502 0.775414 115 105 130 
-0.463207 -0.581196 0.793427 117 121 158 
0.333844 -0.308714 0.943181 109 105 130 
-0.34394 -0.519267 0.813212 122 105 123 
-0.124629 -0.411313 0.853478 134 116 138 
0.127083 -0.266692 0.853861 48 24 24 
0.320098 -0.285493 0.936341 101 73 87 
0.04286 0.148757 0.602063 89 64 85 
0.458693 -0.311834 1.2808 51 68 98 
-0.344584 -0.42434 0.810318 88 67 84 
-0.16579 -0.432583 0.848593 88 60 83 
-0.283852 -0.461258 0.826078 131 114 133 
0.18217 0.0897542 0.758507 116 62 75 
-0.341771 0.00148313 0.797266 119 95 109 
0.407161 0.131605 0.936685 88 64 77 
-0.202065 -0.48347 0.84318 131 114 132 
0.249971 0.0838987 0.907727 126 101 120 
0.184216 0.120679 0.712902 134 87 107 
0.00742809 0.109417 0.59388 105 63 75 
0.13397 -0.344335 0.902243 137 109 131 
-0.158905 -0.0531221 0.799025 113 60 70 
0.296992 -0.105814 0.925013 122 103 125 
-0.141847 -0.514343 0.856949 91 78 98 
-0.344731 -0.333861 0.805945 103 78 97 
0.372696 0.0474267 0.932444 100 77 85 
0.441422 -0.147757 1.03452 75 86 114 
-0.172165 -0.509898 0.848369 124 106 130 
-0.404396 -0.141657 0.784781 108 92 105 
-0.316938 -0.130932 0.802913 120 102 124 
-0.381862 -0.254611 0.79526 128 111 130 
-0.370212 -0.37751 0.801861 127 104 120 
-0.0255646 -0.0842354 0.814143 95 53 55 
0.268934 0.114574 0.917623 87 65 78 
0.0664374 -0.324513 0.888564 144 117 132 
-0.170853 -0.402107 0.844432 121 97 119 
0.155785 0.130439 0.640408 149 102 122 
-0.40191 -0.217225 0.789239 100 75 96 
0.456067 0.214174 1.16558 104 100 115 
-0.213985 -0.454518 0.838749 131 106 125 
0.453326 0.180069 0.95231 105 96 117 
0.185365 0.189361 0.666516 119 90 110 
-0.430348 -0.328936 0.791707 142 121 138 
-0.404324 -0.466924 0.801598 102 79 95 
-0.466928 -0.211635 0.774112 168 185 231 
0.24216 0.116224 0.905688 65 45 56 
0.228326 0.0352511 0.886897 115 61 75 
-0.165395 -0.060155 0.791036 105 55 66 
0.191303 0.171139 0.720845 103 66 84 
0.430875 -0.0116657 0.948355 91 73 99 
-0.376905 0.183668 0.630261 43 66 50 
0.243673 0.167655 0.818461 120 81 99 
-0.387396 -0.535143 0.805922 132 113 133 
0.430289 -0.0378174 0.955489 123 101 124 
0.162014 -0.188371 0.862044 98 55 62 
0.262586 -0.0553457 0.915247 97 73 87 
-0.38702 -0.597076 0.809863 111 78 99 
0.414307 -0.227868 0.951723 132 115 133 
0.178405 -0.223542 0.9062 130 103 120 
-0.551095 0.170721 0.589832 60 76 66 
0.180354 0.170896 0.659846 149 102 118 
0.139843 -0.313146 0.902599 107 76 92 
-0.290317 -0.540147 0.825533 129 104 123 
0.375641 0.0569126 0.934112 130 106 122 
0.218171 -0.287965 0.917531 109 75 92 
-0.373998 -0.0545871 0.789865 69 60 81 
-0.15708 -0.114485 0.790354 52 27 33 
0.176616 0.0875609 0.813405 111 70 76 
-0.171307 -0.481957 0.850467 127 108 128 
0.378482 -0.187273 0.943752 111 84 99 
-0.622208 -0.450444 0.630559 124 111 128 
-0.055934 -0.408062 0.86668 98 83 106 
-0.531972 0.0394376 0.745504 102 111 152 
-0.285459 -0.435022 0.82403 113 86 101 
0.00631389 0.121719 0.594605 76 43 62 
-0.314579 -0.437105 0.816842 127 101 114 
-0.100077 -0.406044 0.860046 119 106 126 
-0.309137 -0.119059 0.804494 120 95 114 
-0.300816 -0.368133 0.818388 133 110 128 
0.154366 0.179863 0.620204 129 84 105 
0.257359 -0.195469 0.920536 120 101 120 
-0.128504 -0.0660803 0.808554 121 67 80 
-0.314657 -0.229044 0.808861 122 100 121 
0.116553 -0.375246 0.900816 136 118 140 
0.37365 -0.29956 0.945478 106 82 96 
0.359542 -0.286274 0.943611 134 111 127 
-0.232475 -0.543269 0.839122 91 64 83 
0.45107 -0.0515354 1.26814 37 52 75 
0.12807 -0.408393 0.904973 134 116 140 
-0.637756 -0.482127 0.705088 112 119 161 
-0.359321 -0.214042 0.797041 110 88 101 
0.212448 0.143028 0.815984 94 46 60 
-0.0480575 -0.240762 0.794394 116 72 85 
0.352035 -0.13567 0.93773 126 99 118 
-0.125294 -0.162373 0.797989 76 44 57 
0.0811224 -0.220448 0.831879 60 25 31 
-0.372461 -0.347852 0.799853 118 105 123 
-0.0427658 0.167189 0.573513 87 55 66 
0.166478 0.108927 0.796597 63 34 38 
0.121355 -0.268971 0.88033 48 24 24 
-0.34673 -0.484345 0.812209 128 104 120 
-0.294491 -0.280626 0.815037 123 93 105 
0.0941035 -0.403027 0.899399 124 101 127 
-0.155965 -0.0156087 0.803134 113 71 85 
0.21242 -0.312375 0.917674 105 77 91 
0.157411 0.160866 0.633521 119 84 108 
-0.385201 0.0335492 0.781602 123 110 136 
0.140936 0.15358 0.619111 134 83 98 
-0.139631 -0.492005 0.853371 102 74 96 
0.367976 -0.19122 0.942564 101 72 102 
0.398936 -0.0489481 0.942213 128 105 125 
-0.185372 -0.39695 0.842563 88 65 81 
0.431955 -0.254874 0.963772 126 102 124 
0.109631 -0.236811 0.842026 64 32 37 
-0.525337 -0.399776 0.77123 162 174 224 
0.103483 -0.131145 0.856359 62 31 37 
-0.164037 -0.0989854 0.788106 71 38 45 
0.42469 -0.0605388 1.01201 58 44 57 
0.356646 -0.159064 0.938444 109 85 101 
0.015412 0.0156831 0.811525 56 25 31 
0.219072 0.0197743 0.901303 131 103 125 
-0.369571 -0.418678 0.805896 118 106 130 
0.454746 0.187248 1.03903 67 81 92 
0.404021 0.107199 0.937008 109 82 91 
0.26574 -0.219063 0.92394 119 91 106 
-0.0161074 -0.300398 0.791986 75 39 43 
0.324787 -0.311828 0.939745 85 69 82 
-0.267503 -0.351834 0.824065 96 78 94 
-0.249342 -0.538517 0.836116 126 109 125 
0.179727 -0.102393 0.901717 142 113 133 
-0.410653 -0.242744 0.789804 114 86 98 
-0.423246 -0.250256 0.786828 132 104 119 
-0.0776943 0.0304797 0.789215 142 88 101 
-0.347119 -0.185231 0.799116 81 71 96 
-0.364866 -0.345623 0.804504 103 85 99 
-0.222598 0.0847683 0.728763 105 82 98 
-0.245224 -0.179381 0.818805 111 89 101 
-0.154765 -0.106575 0.798624 62 23 28 
0.237876 -0.21938 0.917271 113 81 96 
-0.0391252 -0.396535 0.870245 124 96 118 
-0.360925 -0.167332 0.790289 103 92 122 
0.110643 -0.250983 0.841635 109 59 70 
-0.462545 -0.0316727 0.768441 112 95 113 
0.223914 0.164431 0.808994 159 114 135 
-0.402745 -0.0519692 0.78409 128 109 129 
-0.199594 -0.373432 0.839052 105 73 84 
-0.375495 -0.128001 0.791812 134 114 142 
-0.149758 -0.470095 0.850721 101 74 89 
-0.38102 -0.394681 0.806194 129 110 129 
0.428894 0.00106876 0.946062 132 111 128 
0.00563465 0.158823 0.588785 104 72 93 
-0.385469 -0.511989 0.808335 124 106 128 
0.393623 0.0241489 0.938183 99 73 86 
0.0378758 -0.371958 0.88584 133 110 130 
-0.144851 -0.456847 0.852934 103 72 90 
0.180516 0.137155 0.729712 87 48 66 
-0.547805 0.177784 0.685393 23 58 26 
-0.408132 -0.353919 0.793338 128 109 131 
0.432359 -0.127034 0.958798 103 75 97 
0.251139 -0.268916 0.923948 106 82 96 
-0.0973851 0.0697605 0.759649 135 88 104 
0.434065 0.149834 0.944878 108 88 100 
-0.409491 -0.309996 0.792871 130 107 127 
0.207146 -0.366299 0.918361 135 116 136 
-0.339437 -0.139644 0.798131 132 107 129 
-0.279251 -0.133256 0.812332 100 72 87 
-0.164045 0.0631063 0.74725 100 64 78 
-0.462281 -0.549238 0.787523 176 192 243 
0.360051 -0.232656 0.941102 101 77 93 
-0.155799 -0.452141 0.852095 124 102 123 
0.192396 -0.113253 0.904949 109 78 96 
0.384403 -0.259646 0.948223 96 84 108 
-0.293072 -0.260695 0.814381 84 62 75 
0.126614 -0.107396 0.861088 72 29 36 
-0.462586 -0.539115 0.787397 176 193 239 
-0.260205 -0.169423 0.815665 112 97 116 
0.120103 -0.314317 0.898584 132 114 136 
-0.0402992 -0.100737 0.804191 50 24 25 
0.0241149 -0.265513 0.797686 72 40 45 
0.0852782 0.0618586 0.798231 106 75 93 
-0.202035 -0.41288 0.839788 128 110 132 
0.149527 0.0768875 0.809334 114 73 91 
-0.658248 -0.462013 0.636885 132 118 135 
-0.282174 -0.485172 0.830128 126 102 116 
0.16439 -0.208572 0.863944 156 104 117 
-0.0948103 -0.475191 0.863427 121 102 124 
-0.123985 -0.182248 0.793551 110 67 76 
0.242211 -0.242291 0.920257 143 121 133 
-0.630054 0.172148 0.61828 130 119 136 
0.312034 -0.237126 0.931957 110 97 117 
0.256702 0.110007 0.90775 125 94 110 
0.022044 -0.388631 0.88113 130 102 117 
-0.193734 0.00654324 0.774641 147 92 111 
0.181142 0.0894698 0.774971 132 78 94 
-0.120021 0.0710143 0.755589 143 96 116 
-0.451213 0.0116162 0.772454 106 97 124 
-0.26305 -0.501248 0.829599 98 77 96 
-0.467759 -0.455252 0.784824 173 191 241 
0.128785 -0.267958 0.844231 61 39 41 
-0.596959 0.171078 0.672706 39 83 50 
0.293 -0.258407 0.930643 132 113 133 
0.17247 0.164295 0.775045 153 111 133 
0.433673 0.136145 0.946094 133 116 135 
0.424568 0.0843613 0.940759 101 75 88 
0.451501 0.183045 1.09902 159 160 188 
0.277219 -0.219707 0.925861 126 107 127 
-0.424482 0.027554 0.774403 121 112 131 
0.367818 0.179041 0.911819 121 107 122 
0.101443 0.166406 0.602451 80 44 56 
0.234805 -0.0542582 0.899227 86 46 54 
-0.177438 -0.0410565 0.787979 104 57 63 
-0.276278 -0.203612 0.815639 130 108 131 
0.155024 0.0841893 0.625051 115 65 76 
0.478157 0.212528 1.00679 31 33 45 
0.274023 -0.319837 0.929352 116 91 110 
0.235863 -0.0237593 0.910091 123 95 109 
-0.181325 -0.515492 0.848358 104 76 98 
0.421429 -0.0417558 0.94683 94 67 84 
-0.108649 -0.0280425 0.806506 77 32 39 
0.396643 -0.218662 0.947928 103 79 101 
-0.538317 -0.464339 0.755301 37 57 94 
0.145561 0.0899068 0.612674 103 54 58 
0.17286 0.150236 0.765217 141 101 125 
-0.236989 -0.249627 0.825534 132 102 112 
0.334578 -0.19018 0.9359 109 81 95 
0.226812 0.0275514 0.867179 116 65 74 
0.331091 0.055533 0.924639 107 81 92 
0.229772 0.189242 0.809044 61 46 49 
0.291172 -0.306708 0.932977 114 99 128 
0.206578 0.029703 0.853754 126 77 98 
-0.195874 -0.400903 0.839392 116 94 115 
0.132816 -0.333854 0.902535 98 79 99 
-0.44367 -0.471776 0.791907 104 85 105 
0.243619 -0.329135 0.922413 140 119 138 
0.36307 -0.265035 0.943793 109 85 107 
0.125476 -0.30241 0.900845 139 109 133 
-0.319893 -0.473689 0.817285 122 101 118 
-0.312055 -0.167919 0.808135 106 92 115 
-0.467721 -0.178476 0.772434 162 176 223 
0.214354 -0.380544 0.918957 106 81 103 
-0.388051 -0.343256 0.798974 119 104 125 
-0.159849 -0.467246 0.849454 101 73 88 
-0.644252 -0.442532 0.608283 94 109 150 
-0.0435128 0.0458379 0.780106 123 65 77 
-0.669665 -0.454059 0.682628 136 115 134 
-0.374507 -0.140674 0.791395 116 96 121 
0.24824 -0.0589702 0.913283 128 103 125 
0.0417957 -0.389883 0.887676 120 103 122 
0.310629 -0.129718 0.934788 130 99 115 
-0.464647 -0.224796 0.778126 121 107 132 
-0.386348 -0.2808 0.794973 90 71 90 
-0.439576 -0.351096 0.786203 126 103 131 
0.178524 0.0953035 0.664925 78 42 46 
-0.628366 0.170771 0.607825 127 123 138 
0.445872 -0.0249829 1.26359 138 147 188 
0.18617 0.168628 0.644001 122 78 95 
0.238633 -0.302455 0.92089 131 112 132 
0.160964 -0.196681 0.88363 90 44 54 
-0.467952 0.017611 0.765517 154 173 215 
-0.386361 -0.24087 0.796206 79 56 72 
0.328063 -0.292333 0.938781 115 84 100 
0.224444 0.00574242 0.909412 95 71 85 
0.254621 0.0936825 0.909383 67 48 67 
-0.262193 -0.309598 0.823231 115 96 116 
0.172829 0.118381 0.762953 80 49 67 
0.00433723 -0.308412 0.79651 73 37 41 
-0.462504 0.0845168 0.765161 108 99 120 
-0.233768 -0.346777 0.830053 92 69 85 
0.224205 -0.272573 0.917245 128 110 132 
0.219201 -0.19567 0.912628 118 90 105 
0.164552 -0.192859 0.902103 131 104 121 
-0.0500605 0.0834072 0.60819 154 119 143 
-0.131685 -0.467451 0.858334 125 105 130 
0.190773 0.0952734 0.804374 126 75 92 
0.353981 -0.093831 0.935474 124 100 116 
0.239412 -0.0702105 0.912958 112 87 108 
-0.212015 0.0843454 0.735174 70 51 55 
-0.443218 0.0380462 0.768616 117 107 132 
-0.0294163 -0.109732 0.808912 44 20 20 
0.421983 -0.270055 0.95534 103 85 111 
0.302708 0.0163579 0.922311 120 89 97 
0.378074 -0.126797 0.941199 126 104 117 
0.177653 0.0979339 0.778562 72 36 40 
-0.213385 -0.486954 0.839293 98 79 98 
-0.538105 -0.0716158 0.74254 39 50 70 
-0.208876 -0.247336 0.830666 138 110 125 
-0.152974 -0.0840519 0.800123 113 66 74 
-0.330886 -0.151097 0.79706 120 96 120 
-0.168478 -0.0507759 0.790271 112 61 68 
0.306474 0.0808559 0.933175 132 108 122 
-0.297466 -0.208038 0.811239 111 79 90 
-0.346124 -0.135472 0.79864 116 92 116 
-0.0406591 -0.0361099 0.805372 93 61 76 
0.354762 0.121531 0.927497 129 114 135 
-0.544814 -0.0160581 0.730734 150 167 213 
0.181386 0.0849223 0.664602 116 65 82 
0.26808 -0.195187 0.922504 133 110 128 
0.10573 -0.387076 0.898701 124 106 132 
0.142573 -0.169878 0.844617 118 72 83 
0.00689547 0.0191212 0.808056 93 54 59 
0.0165558 -0.37739 0.880191 108 79 97 
0.392439 0.166641 0.92806 118 118 142 
-0.139826 0.07672 0.752841 143 98 118 
0.028348 0.105553 0.60156 112 68 85 
0.252044 -0.366306 0.927468 122 108 134 
-0.532696 -0.178593 0.748377 46 58 80 
-0.398167 0.0693352 0.78003 122 105 124 
-0.532891 -0.591583 0.765184 49 64 93 
-0.402587 -0.406028 0.797551 100 79 98 
-0.536172 -0.145133 0.745647 48 56 75 
-0.419089 -0.0491896 0.779111 123 104 126 
-0.416776 -0.405931 0.796118 102 85 103 
0.082399 0.155491 0.595898 149 101 123 
0.181821 -0.273103 0.911987 135 108 123 
0.381188 -0.283714 0.94762 127 103 119 
0.174304 0.188162 0.649057 100 69 84 
-0.306081 -0.399157 0.81759 123 95 110 
0.407582 -0.0861621 0.945049 122 97 119 
0.292833 -0.196014 0.926565 113 88 109 
0.13214 -0.142683 0.891951 119 67 79 
0.0924377 -0.325754 0.885176 138 111 128 
0.161196 -0.183183 0.900494 122 94 108 
-0.424045 -0.487818 0.796599 104 87 106 
0.184531 0.190705 0.758241 117 86 102 
-0.637204 -0.459529 0.590341 135 127 151 
-0.342524 -0.201447 0.799583 113 98 119 
0.089929 -0.108731 0.831531 48 20 19 
0.424136 -0.157174 0.950886 115 84 102 
0.257805 -0.124928 0.917334 131 109 122 
0.104163 -0.40122 0.899449 119 87 111 
-0.05121 -0.253425 0.792176 104 59 66 
0.191081 0.0925266 0.727978 128 72 83 
0.240142 -0.0725645 0.876515 147 91 102 
0.229278 -0.124826 0.913952 116 93 111 
-0.0720688 -0.47754 0.868702 126 100 125 
-0.0415336 0.109941 0.585485 87 53 67 
-0.119561 -0.487248 0.858833 126 94 109 
-0.384706 -0.01261 0.784352 122 110 132 
-0.118741 -0.149229 0.804998 114 63 72 
-0.301277 -0.467355 0.822058 120 101 121 
0.164564 -0.273871 0.909253 134 103 118 
-0.64388 -0.441362 0.644621 97 111 150 
0.109235 -0.302477 0.894644 116 90 117 
0.191908 0.160299 0.687244 174 126 152 
0.010961 -0.205796 0.822086 52 29 37 
0.224181 -0.15669 0.912441 112 81 99 
-0.333119 -0.21271 0.802766 115 97 113 
-0.288754 -0.526347 0.827742 108 77 93 
0.101224 -0.175634 0.855533 65 32 39 
0.44213 0.16556 1.11129 153 174 219 
-0.0831061 -0.459107 0.866207 105 81 103 
0.164747 0.18262 0.635523 103 73 83 
0.220697 0.131427 0.817702 108 54 68 
-0.269718 -0.532255 0.82994 109 81 104 
0.0644765 -0.430367 0.892835 89 70 90 
-0.466574 -0.131637 0.774667 117 104 124 
0.234171 0.0318322 0.855444 157 110 126 
0.18204 0.174549 0.770306 121 88 99 
0.0821297 0.0209176 0.839671 110 59 66 
0.186253 0.151117 0.702988 122 89 118 
0.249182 0.073863 0.841374 124 79 86 
0.252936 0.174251 0.866491 116 68 80 
-0.0699773 0.0453238 0.779746 134 76 91 
-0.0604582 -0.455673 0.870936 128 108 133 
-0.430453 -0.0436451 0.776385 119 104 125 
0.234629 -0.0648708 0.896843 109 57 69 
0.0718014 0.140941 0.603799 101 75 102 
-0.399365 -0.422213 0.797687 127 103 116 
0.124448 0.000332392 0.847719 89 53 65 
-0.0583122 -0.430242 0.869399 136 115 134 
-0.054694 -0.0755293 0.804213 111 65 76 
-0.359034 -0.230012 0.800666 84 57 74 
0.173483 0.114679 0.80731 85 49 53 
0.190745 -0.362738 0.91495 126 104 127 
0.349499 -0.181909 0.938282 130 106 120 
-0.453704 -0.61173 0.80049 145 117 139 
0.0761013 -0.386923 0.892598 112 93 121 
0.311988 -0.298997 0.935031 113 84 104 
0.0569707 0.0380815 0.80252 137 80 97 
-0.700019 -0.491428 0.640229 126 153 208 
0.323818 -0.344221 0.939652 101 76 95 
0.0386195 -0.41433 0.886047 128 102 129 
0.152146 -0.368158 0.909393 127 105 126 
0.1921 0.190033 0.71683 101 74 83 
-0.412352 -0.344886 0.792199 135 118 137 
0.249341 -0.0742484 0.914082 134 110 126 
-0.120849 -0.209549 0.790328 118 65 75 
-0.658813 -0.61417 0.603822 131 161 213 
-0.165861 -0.0813463 0.786382 86 53 70 
0.277201 -0.1913 0.925878 132 110 131 
-0.542737 -0.128187 0.727098 157 173 222 
0.417525 -0.185178 0.95126 126 104 125 
0.443536 -0.0873462 1.03369 64 78 117 
0.183668 0.128943 0.68107 118 90 113 
-0.0231884 -0.277411 0.778488 68 36 41 
0.048814 0.0910238 0.595607 75 36 39 
-0.3589 -0.257742 0.801465 126 99 114 
0.198191 -0.317156 0.913844 118 92 105 
-0.245058 -0.547504 0.836067 130 102 124 
0.127947 -0.269713 0.897818 122 101 120 
0.120056 -0.242023 0.895575 106 73 84 
-0.355294 -0.239695 0.798831 115 91 107 
0.0731651 -0.250293 0.818295 111 63 75 
0.170093 -0.328932 0.908179 136 113 129 
0.259931 -0.159915 0.919518 128 111 129 
0.0566436 0.185708 0.591812 72 58 71 
0.443621 -0.327351 1.25441 147 164 207 
0.342385 0.118688 0.925904 97 84 102 
0.0742725 -0.432867 0.896857 99 80 99 
-0.314218 -0.421068 0.816817 100 79 96 
-0.0254841 0.0516084 0.775324 129 86 106 
0.331789 -0.140276 0.933878 122 95 110 
-0.46078 0.0743087 0.773165 121 103 125 
-0.52227 -0.544203 0.771651 157 173 224 
0.456341 0.211618 1.18826 111 108 125 
0.261425 0.0962013 0.816674 121 68 78 
-0.161381 -0.0715539 0.790812 110 60 71 
0.160208 -0.21407 0.892287 154 107 127 
0.399965 -0.281731 0.951652 128 103 125 
0.180209 0.0658355 0.814789 135 91 108 
-0.32693 -0.241366 0.808256 118 91 106 
-0.341542 -0.495634 0.814054 128 101 120 
0.228412 0.0318766 0.876212 147 103 120 
0.0615968 -0.440299 0.893232 109 79 103 
-0.224612 0.0916815 0.987225 132 85 101 
0.198862 -0.120539 0.91218 136 106 118 
-0.683523 -0.603743 0.639495 116 137 194 
-0.464343 -0.483966 0.785585 176 192 241 
0.226387 -0.0339614 0.869251 101 58 65 
-0.537716 0.0893998 0.731554 30 50 83 
0.356887 -0.325602 0.94434 122 107 130 
-0.272149 -0.493837 0.832987 105 89 100 
-0.35593 -0.514636 0.811389 100 79 96 
-0.196627 0.0280544 0.794023 125 74 91 
0.0809981 -0.360395 0.892186 119 90 108 
0.378464 0.171623 0.927985 115 107 131 
0.362402 0.171665 0.918606 121 115 141 
-0.36098 -0.0339274 0.790528 124 101 117 
-0.634407 -0.442694 0.686503 134 117 133 
-0.617599 0.171298 0.636375 129 118 135 
0.228755 -0.0392439 0.910578 89 76 93 
-0.294746 -0.318674 0.815725 122 94 108 
-0.513016 -0.593259 0.773705 167 183 235 
-0.338338 -0.464026 0.81467 124 106 122 
-0.391461 -0.585986 0.807763 109 80 98 
-0.527267 -0.579457 0.772029 141 148 200 
-0.0164731 -0.208175 0.816243 51 28 34 
0.19925 0.100706 0.809026 53 27 28 
0.265496 -0.253437 0.924444 110 91 111 
-0.0705325 0.089979 0.752686 98 60 75 
-0.469171 -0.0650011 0.768592 151 170 210 
0.16264 0.0849339 0.63605 117 67 78 
-0.53511 -0.488389 0.74595 162 178 229 
0.219287 0.0260389 0.891324 120 70 81 
0.159806 0.0799176 0.808643 141 88 104 
0.332848 -0.188581 0.920853 131 109 122 
0.0596824 -0.365597 0.888995 142 118 142 
-0.411315 -0.232333 0.786597 99 80 99 
0.067648 0.0876298 0.779687 133 99 116 
-0.187346 -0.378007 0.841204 118 101 120 
0.293134 -0.128545 0.924604 119 92 111 
0.182218 0.141164 0.810284 109 68 82 
0.268544 0.0578669 0.91246 111 84 91 
-0.441162 -0.369301 0.783583 128 110 134 
0.17974 0.151592 0.732881 135 100 120 
0.426668 -0.167961 0.954165 111 82 100 
-0.545878 -0.491817 0.748827 161 177 229 
-0.447896 0.0650303 0.76831 88 80 104 
0.278471 0.183038 0.876657 111 92 112 
-0.483674 -0.522305 0.790441 166 181 236 
0.176734 -0.00463765 0.869151 120 68 80 
-0.260238 -0.534005 0.833609 130 103 118 
0.205815 0.0916281 0.808635 116 64 76 
-0.66754 -0.612545 0.628319 139 164 221 
0.433652 0.0853091 0.952939 116 88 110 
0.206277 0.0769373 0.819361 139 95 110 
-0.34656 -0.225042 0.805681 121 98 108 
0.0548267 0.0203815 0.822451 134 78 91 
-0.396569 -0.120006 0.78683 128 109 129 
-0.361494 -0.523198 0.810961 102 83 105 
0.202044 -0.379191 0.917048 109 83 110 
0.0977605 -0.303686 0.893444 129 110 138 
0.0251272 -0.249314 0.811585 112 65 75 
0.427183 0.165083 0.992144 59 47 51 
0.268638 -0.0192625 0.922109 129 105 119 
-0.640445 -0.471528 0.724704 168 185 237 
-0.0712742 -0.44589 0.864965 124 102 125 
0.077733 0.0111706 0.827782 105 73 96 
0.108541 0.148881 0.613535 110 72 95 
-0.396803 -0.0794475 0.784188 106 88 110 
-0.376142 -0.0445518 0.790944 109 97 119 
-0.104345 -0.488979 0.863384 121 96 117 
0.11743 -0.327173 0.89807 128 109 131 
-0.660056 -0.531371 0.601182 130 157 212 
0.141652 -0.361247 0.904777 119 90 110 
-0.400261 -0.188126 0.78747 130 108 129 
-0.400761 -0.571782 0.808017 115 84 102 
0.382469 -0.05267 0.93876 98 85 102 
0.290792 -0.29111 0.930339 106 77 95 
0.455727 -0.28834 1.28088 49 63 90 
-0.00924716 0.0776295 0.779599 140 92 106 
0.145756 -0.167771 0.896637 112 81 97 
0.00417714 -0.0817002 0.811104 122 101 82 
-0.650072 -0.464695 0.620061 137 141 178 
0.441895 0.167569 1.04978 157 172 215 
0.412385 -0.263312 0.952767 98 75 95 
0.394432 -0.196699 0.946625 97 78 100 
-0.39923 -0.597598 0.808239 113 84 106 
-0.1866 -0.413748 0.841164 104 75 93 
0.276734 0.196342 0.895243 118 98 110 
0.290245 -0.0877799 0.925701 102 78 100 
-0.16577 -0.0407824 0.800659 86 56 66 
0.0798685 -0.0996078 0.853223 56 25 30 
0.0908873 0.0480566 0.813272 140 76 90 
0.449173 -0.13849 1.2752 42 46 73 
0.187687 0.0981943 0.680084 126 78 90 
0.454747 0.206617 0.935713 71 75 87 
0.257478 0.17674 0.845198 128 85 102 
-0.335266 -0.198945 0.803522 112 99 119 
-0.253718 -0.3754 0.825996 116 93 111 
0.253514 -0.00731476 0.923983 120 93 108 
0.407105 0.11722 0.937076 102 75 84 
0.128648 -0.280856 0.869535 119 85 101 
0.257153 0.0969523 0.841739 120 66 80 
-0.57388 0.171353 0.669226 45 89 56 
0.25866 0.194373 0.832479 68 58 69 
-0.120029 -0.135284 0.802441 120 69 78 
0.159719 -0.164176 0.896729 118 85 102 
-0.442294 -0.519838 0.794929 134 111 127 
-4.25028 0.112835 4.11349 145 91 105 
0.410206 0.176904 0.920836 114 109 129 
0.159824 0.111404 0.649805 90 58 81 
0.22007 0.108269 0.817475 56 26 24 
0.186801 0.188523 0.74655 85 62 68 
0.353395 -0.125051 0.936727 136 108 122 
0.0119163 -0.395197 0.878875 58 39 45 
-0.642555 -0.586865 0.709968 113 120 162 
0.188089 0.100616 0.719879 116 69 77 
0.0975758 -0.343563 0.895061 142 110 123 
-0.296589 -0.445707 0.82161 105 80 102 
0.446326 0.173223 1.12616 150 146 169 
0.405147 -0.308236 0.955559 98 73 94 
-0.269638 -0.545875 0.83089 128 97 115 
-0.183556 0.0156265 0.796891 94 50 63 
0.452567 0.184764 1.08889 152 147 170 
-0.0472195 -0.123839 0.791296 109 58 67 
-0.364229 0.00178634 0.785013 101 82 102 
-0.626349 0.173685 0.642613 126 113 131 
-0.0938178 0.0860033 0.757351 139 92 112 
-0.531695 0.0611905 0.733247 39 46 64 
0.0739973 -0.0758477 0.829417 125 72 82 
0.45493 0.191522 1.13391 121 118 137 
0.186439 0.171309 0.746782 108 66 78 
0.43144 -0.17935 0.960444 110 85 104 
-0.343959 -0.0854035 0.794471 106 92 109 
-0.360862 -0.290053 0.802347 116 93 111 
-0.42141 -0.539416 0.797484 132 109 129 
0.170983 0.123426 0.78175 123 79 96 
0.152583 0.103777 0.686706 71 30 36 
-0.257978 -0.192578 0.817917 126 102 115 
0.0245005 -0.0206555 0.810777 134 117 97 
0.444238 0.174436 1.16497 134 138 173 
0.44466 -0.354246 1.28322 87 96 139 
0.0986147 0.187594 0.59945 96 95 109 
0.439786 -0.177647 1.03391 72 76 103 
-0.103803 -0.465969 0.860857 101 76 97 
0.0986388 0.129191 0.616269 131 83 105 
0.424937 -0.114043 0.995489 52 37 44 
0.169921 -0.111849 0.850941 88 51 58 
0.452068 0.196745 0.925761 115 107 118 
0.0169095 -0.157039 0.821572 106 60 70 
-0.380206 0.181893 0.579156 50 72 51 
-0.330094 -0.571397 0.823315 103 78 99 
-0.356791 -0.00721235 0.791431 109 92 110 
-0.00856874 0.101005 0.592373 71 40 46 
0.0960103 0.0786896 0.795838 138 87 104 
-0.197776 -0.00689093 0.790135 105 57 69 
-0.0326623 -0.14386 0.803982 114 62 74 
0.162125 0.161382 0.643245 132 93 112 
0.343269 -0.32167 0.940714 124 110 136 
0.0173436 0.085159 0.609787 100 54 64 
0.269527 0.132876 0.9253 87 67 94 
0.33203 -0.155681 0.933106 108 76 97 
0.209369 0.103624 0.812988 97 56 62 
0.448466 -0.211858 1.27502 65 69 104 
0.401317 -0.140391 0.949087 112 84 106 
