ply                 
format ascii 1.0    
element vertex 1203
property float x    
property float y    
property float z    
property uchar red  
property uchar green
property uchar blue 
end_header          
-0.415608 0.0678792 0.775503 134 121 149 
0.116823 -0.0598766 0.857223 57 31 40 
-0.408673 -0.112286 0.785333 76 63 83 
0.453162 0.17646 0.930457 142 131 148 
0.0505837 -0.025997 0.823234 69 37 48 
-0.177237 -0.414021 0.843725 72 59 79 
0.456267 0.21093 1.1378 122 117 139 
0.261249 -0.358202 0.929009 80 54 79 
-0.140853 -0.42458 0.851961 82 58 71 
0.210032 -0.356269 0.918019 90 65 86 
-0.668579 -0.599232 0.627292 113 138 194 
0.0220332 -0.0642031 0.824859 150 140 113 
-0.031662 -0.154006 0.810773 62 36 45 
0.165487 -0.17171 0.902255 89 62 77 
0.258738 -0.303502 0.925816 86 65 82 
0.0131277 -0.0436809 0.825467 111 90 71 
0.137252 -0.277629 0.900602 93 70 88 
-0.153795 0.0123616 0.80348 53 22 30 
0.426695 -0.186263 1.01543 86 87 107 
-0.345792 -0.243559 0.804333 64 44 53 
0.354198 0.0982422 0.929003 131 113 129 
-0.45454 -0.348214 0.789152 117 97 122 
0.0909297 -0.116125 0.820154 61 27 26 
-0.00035425 -0.153708 0.817918 110 67 74 
0.170345 -0.109682 0.902669 78 56 69 
-0.534416 -0.282887 0.756003 45 52 80 
0.175378 0.134984 0.670777 81 44 61 
0.454033 0.0223044 1.04424 133 146 190 
0.0931295 0.00914303 0.851441 59 26 33 
-0.0104061 -0.15078 0.815174 113 61 73 
0.390557 -0.042731 0.942245 66 49 59 
-0.304993 -0.51295 0.823425 87 63 85 
0.230633 -0.0811682 0.912434 75 47 61 
-0.127771 -0.432383 0.854979 78 58 69 
-0.665839 -0.517358 0.574709 116 135 193 
0.26432 0.121888 0.911554 113 109 134 
-0.555142 0.177669 0.597101 127 139 139 
-0.665108 -0.481109 0.621473 122 147 204 
-0.139858 -0.0615789 0.809151 50 27 37 
-0.15547 -0.492404 0.851623 76 52 78 
0.186806 0.127384 0.704396 86 49 66 
-0.0395792 0.0894045 0.758104 72 51 58 
-0.0620339 -0.027624 0.804058 65 35 43 
0.0887063 0.143218 0.609588 84 41 58 
-0.384713 -0.266909 0.795154 61 48 58 
-0.219721 -0.422696 0.835821 77 63 76 
-0.198542 -0.0885461 0.78212 156 111 131 
0.141426 -0.0598998 0.861888 55 32 40 
0.445083 -0.331717 1.28327 65 64 108 
0.188613 0.129702 0.812098 60 48 48 
0.0118957 -0.311846 0.789287 39 20 24 
-0.5345 -0.451957 0.757892 43 55 79 
0.0517291 0.0552023 0.791043 67 43 57 
0.258213 -0.343233 0.927334 75 52 70 
0.0406549 0.00717396 0.808705 92 53 58 
-0.659868 -0.638176 0.687089 172 186 231 
0.25418 -0.0489035 0.91414 137 113 135 
-0.0304869 0.0901785 0.760368 69 50 56 
-0.0199792 -0.143438 0.813835 116 64 76 
0.145611 -0.140486 0.896536 68 46 59 
0.447415 -0.14693 1.04992 151 173 210 
0.177454 0.152839 0.74314 85 51 68 
0.386874 -0.238617 0.94995 67 51 64 
-0.293904 -0.147415 0.811784 59 46 64 
-0.293799 -0.489899 0.825348 63 49 64 
-0.101084 -0.268537 0.778621 49 29 31 
0.0745188 -0.193913 0.816087 70 31 36 
0.212693 0.155005 0.815783 80 43 60 
0.0942302 -0.388776 0.897346 134 119 142 
0.33661 -0.0814018 0.933217 64 44 56 
0.195648 0.171349 0.699142 108 83 89 
-0.208155 0.0645879 0.737443 119 73 86 
-0.466713 -0.00565401 0.76817 96 103 132 
0.187078 0.187264 0.799822 48 42 44 
0.0218772 -0.0239615 0.798661 159 154 160 
-0.0774453 -0.420255 0.864145 124 103 118 
-0.27193 -0.342908 0.823331 90 76 89 
0.427019 0.15483 0.938816 46 33 50 
0.335245 -0.336945 0.941957 80 65 86 
-0.373527 -0.0700899 0.791117 67 50 66 
-0.462484 -0.427962 0.785743 117 112 135 
0.271665 0.0793514 0.912573 152 128 150 
0.0790293 -0.185847 0.830211 67 25 29 
0.477419 0.21396 1.04393 120 117 148 
0.154753 -0.384449 0.907987 92 68 92 
0.177472 0.141077 0.744758 100 51 72 
-0.320769 -0.174114 0.804508 71 58 76 
-0.109324 -0.431583 0.858466 85 61 74 
0.0631052 0.0461709 0.805178 113 60 70 
0.261159 0.0487808 0.912329 75 61 86 
0.15267 0.0850559 0.800373 140 87 103 
0.00665167 -0.0197933 0.7853 176 175 180 
-0.338021 -0.115587 0.798896 54 41 59 
0.0320707 -0.396103 0.884107 132 104 127 
0.23722 0.0753125 0.825872 74 39 46 
-0.331794 -0.538527 0.819339 69 57 71 
0.258811 0.0751042 0.909649 57 35 47 
-0.299874 -0.344039 0.814869 55 39 50 
0.145643 -0.338678 0.903771 88 76 100 
-0.186332 0.0602399 0.741563 118 83 89 
0.167766 0.111438 0.659278 96 61 81 
0.17025 -0.342156 0.909793 106 77 95 
0.288432 -0.334956 0.932451 90 72 94 
-0.465001 -0.370225 0.785068 108 94 129 
0.16206 0.133185 0.649891 100 53 73 
-0.0481827 -0.0868183 0.803232 52 23 28 
0.433805 -0.0636373 0.958487 90 67 87 
-0.181869 0.0442147 0.756706 78 54 54 
0.452877 0.180033 0.941194 77 74 95 
0.433878 0.0259324 0.954147 138 114 128 
0.243872 -0.341401 0.924912 91 68 78 
-0.414305 -0.174208 0.786516 74 62 72 
0.367298 -0.274154 0.945871 66 47 67 
0.133114 -0.177708 0.846211 55 30 34 
-0.347453 -0.111377 0.795527 134 116 138 
-0.0266991 -0.133432 0.812783 107 64 71 
-0.422546 -0.312264 0.789208 72 58 75 
0.23491 0.0587923 0.904806 68 50 66 
-0.308153 -0.454467 0.819144 88 65 85 
0.152081 0.144065 0.630884 118 82 108 
0.0467167 0.010254 0.818842 73 34 37 
-0.660583 -0.637584 0.626598 114 135 192 
-0.222752 -0.276736 0.829713 77 57 68 
0.0222485 -0.294888 0.803856 60 39 46 
-0.531113 0.0633325 0.74373 91 111 144 
-0.0176644 -0.108782 0.815881 38 19 15 
0.285261 -0.353434 0.932558 151 132 160 
-0.0305894 -0.267986 0.783002 42 21 20 
0.280238 0.0911085 0.913206 137 113 126 
-0.0857304 0.0457161 0.77654 105 63 75 
0.0897789 -0.0761091 0.853676 67 37 47 
0.426703 0.204011 0.919354 75 57 105 
0.146315 -0.175827 0.858446 50 19 17 
0.00446825 0.0929141 0.767264 65 48 56 
0.0835378 -0.283439 0.800273 139 78 94 
-0.467195 0.00788472 0.769218 104 90 113 
0.105092 -0.276104 0.817618 42 22 24 
-0.419262 -0.598784 0.805231 92 70 91 
-0.296318 -0.235318 0.813695 127 101 114 
-0.285994 -0.512994 0.826421 83 65 81 
-0.0844409 -0.276106 0.767134 130 86 101 
-0.233308 -0.393551 0.830944 71 53 67 
0.0510249 -0.414351 0.889987 72 54 76 
-0.366052 -0.42856 0.805683 128 118 142 
-0.461323 -0.181019 0.77581 94 80 97 
0.0918422 -0.115548 0.855346 60 30 32 
-0.387847 -0.175734 0.790572 116 100 126 
-0.0324242 -0.189141 0.81169 63 31 42 
-0.0383543 -0.187189 0.794223 57 22 28 
-0.461325 -0.470494 0.789314 103 87 114 
-0.329701 -0.17204 0.80216 90 73 92 
-0.329925 -0.00987425 0.798357 64 53 67 
-0.466812 0.0770218 0.764973 103 99 124 
0.0237858 -0.423395 0.889363 119 96 122 
0.24724 0.154127 0.906845 101 85 112 
-0.057534 -0.195764 0.790335 71 34 42 
0.232179 0.0133627 0.909152 121 109 129 
0.186284 0.113548 0.706156 79 42 59 
-0.46531 -0.410709 0.785927 116 115 146 
-0.143269 0.0659599 0.749551 129 81 97 
-0.464182 -0.105342 0.775016 101 87 122 
0.133271 -0.277794 0.826735 35 25 24 
0.175625 0.115052 0.753699 73 42 58 
-0.389648 -0.114156 0.789153 66 51 70 
0.25288 0.129115 0.904697 72 55 73 
-0.330939 -0.416754 0.812865 78 65 83 
0.249573 0.178636 0.889566 67 61 73 
0.262171 0.19191 0.820683 62 55 62 
0.254385 0.0639384 0.909654 137 107 119 
0.0796308 -0.313807 0.828903 146 93 113 
0.169566 0.133714 0.661245 116 65 82 
-0.45474 -0.285597 0.782304 107 87 115 
-0.014067 -0.43665 0.863617 153 135 121 
0.0985449 -0.322717 0.894118 136 115 134 
-0.459028 -0.321422 0.782891 115 97 121 
-0.0381986 -0.201183 0.794317 54 22 25 
0.10452 -0.120693 0.855838 64 38 49 
-0.0359024 -0.175041 0.797486 123 75 87 
0.169189 0.116694 0.791341 61 33 47 
-0.231169 -0.488299 0.835781 130 106 128 
0.118049 -0.119782 0.857987 63 32 38 
0.325213 0.146434 0.91964 130 103 118 
-0.360401 -0.39334 0.803672 75 61 78 
-0.405276 -0.0851875 0.78458 71 70 88 
0.300719 -0.0627561 0.924861 94 73 90 
0.296975 -0.268958 0.931815 89 74 93 
-0.896983 0.141215 1.49765 75 43 56 
0.315373 -0.209522 0.933471 122 105 121 
0.0729428 -0.268856 0.805176 43 23 25 
-0.113188 -0.456992 0.859205 85 60 81 
-0.127894 -0.0773019 0.810998 58 32 41 
-0.0158093 -0.424785 0.86497 137 92 121 
0.205863 0.117122 0.815059 61 40 49 
0.0820033 0.130308 0.616583 81 44 62 
-0.0608804 0.0572188 0.766169 71 41 53 
0.216541 0.0841289 0.819003 147 94 112 
0.292078 0.199045 0.892529 106 118 132 
0.181809 0.150078 0.807035 71 50 57 
0.246405 -0.03943 0.914804 137 117 142 
-0.0044377 -0.434816 0.866948 145 132 113 
0.361376 -0.133878 0.93994 134 112 133 
0.16857 0.0663778 0.812776 144 93 110 
0.170227 -0.231216 0.90532 98 66 79 
-0.394881 -0.514755 0.803571 95 74 93 
-0.431245 -0.242252 0.786055 81 63 79 
0.20329 0.0199357 0.856253 86 35 40 
0.0901302 -0.426735 0.899961 121 103 125 
0.127923 -0.0130162 0.856974 42 21 26 
0.147908 0.163298 0.61307 156 107 129 
0.184512 -0.178481 0.90697 103 83 108 
-0.0344996 -0.345004 0.800667 138 90 102 
0.0640745 -0.0184535 0.825517 119 65 78 
-0.537961 0.0143258 0.737974 37 45 64 
0.161323 -0.368611 0.909491 85 57 79 
0.162798 0.144927 0.649795 92 49 68 
0.318541 -0.159921 0.93085 82 69 87 
-0.0412277 -0.186829 0.807308 61 25 27 
0.107184 -0.214292 0.841469 124 72 84 
-1.0784 0.128902 1.25765 82 45 62 
0.175452 0.0901166 0.786296 134 85 106 
0.109363 -0.368242 0.900134 85 61 75 
0.28005 -0.250252 0.927459 91 67 81 
0.280229 0.101268 0.913077 140 125 144 
-0.527079 -0.629006 0.771713 97 107 143 
0.454807 0.196548 0.980759 61 54 62 
-0.262246 -0.394981 0.824024 77 60 76 
-0.270105 -0.229098 0.818512 68 61 69 
-0.536354 -0.0381889 0.738486 34 45 67 
-0.372378 -0.216424 0.795898 131 107 123 
-0.158772 -0.397323 0.847045 66 53 71 
0.0726203 -0.052705 0.829128 120 70 81 
-0.332927 0.0182372 0.792685 105 91 108 
-0.257372 -0.0556304 0.767234 116 91 110 
0.425362 0.0659408 1.00783 71 63 87 
-0.190548 -0.48135 0.845527 124 105 125 
0.316003 -0.27454 0.935321 62 43 62 
0.340577 -0.0359511 0.93085 114 97 115 
-0.298737 -0.116099 0.809298 58 45 62 
0.0257082 -0.402925 0.879885 105 82 108 
0.172047 0.0100742 0.867872 65 22 29 
0.15481 0.118181 0.639543 147 100 116 
0.313146 -0.262989 0.933904 136 108 123 
0.0621122 0.00904401 0.826961 131 80 89 
-0.466032 -0.296084 0.77832 166 187 232 
0.200391 0.0363947 0.842793 161 109 122 
-0.160744 0.0729528 0.74711 53 30 38 
-0.38803 -0.206811 0.793426 86 73 90 
0.259427 -0.0385172 0.915161 143 127 154 
0.225174 -0.372407 0.922107 100 69 84 
0.153283 -0.146607 0.899488 137 106 124 
0.274486 -0.241463 0.92764 75 59 85 
0.259276 0.137031 0.90789 103 88 111 
-0.224782 -0.400661 0.834126 81 60 75 
0.452002 0.180619 0.980236 131 120 134 
-0.464763 -0.0195328 0.76943 105 88 106 
-0.641951 -0.463324 0.712589 170 182 234 
0.431814 0.164288 0.941851 93 85 106 
0.231729 0.0393953 0.907752 128 120 144 
-0.242996 -0.275099 0.824218 131 112 132 
-0.422829 -0.431977 0.794858 87 63 77 
0.326461 0.0703198 0.925517 142 127 146 
-0.0720994 0.071217 0.765042 97 69 84 
0.430311 0.0395044 0.959108 54 37 56 
0.180505 -0.16882 0.90687 129 120 139 
0.0514583 -0.437673 0.891133 101 69 90 
0.186329 0.115211 0.811302 95 56 57 
0.00286799 -0.272072 0.785522 91 61 73 
0.279185 0.136574 0.911099 82 63 83 
-0.350647 -0.398382 0.807999 125 108 126 
-0.235824 -0.42364 0.832405 80 65 84 
-0.293974 -0.172325 0.811755 61 43 59 
-0.312109 -0.143378 0.806522 133 115 137 
0.181942 0.0950945 0.801934 124 72 85 
-0.287247 -0.34287 0.819201 70 47 53 
0.0781951 -0.343348 0.891627 99 69 81 
0.0635533 0.132476 0.605916 84 46 61 
0.173264 0.102872 0.793999 100 59 65 
0.183974 0.142758 0.680374 86 42 59 
0.187908 0.181678 0.738885 87 69 83 
-0.420048 0.0354039 0.77628 79 83 110 
-0.461616 -0.496644 0.789396 114 108 142 
0.244659 0.0335325 0.908697 75 51 64 
-0.0494269 0.156482 0.582571 143 103 127 
0.334291 -0.240454 0.937532 118 108 132 
0.222702 -0.351509 0.919944 101 70 88 
0.450496 -0.0625368 1.05278 158 177 220 
-0.173898 0.0504606 0.744471 118 77 91 
-0.409514 -0.55132 0.80213 143 120 140 
-0.351863 -0.469219 0.810444 97 73 87 
0.42362 -0.170394 0.994265 120 99 116 
0.143952 -0.285566 0.901861 112 78 102 
0.225909 0.0265201 0.905531 82 53 71 
0.167595 0.164788 0.797664 146 102 125 
-0.211584 -0.278214 0.83208 70 48 61 
0.0676711 -0.344228 0.889348 131 111 136 
-0.254407 -0.509339 0.832707 124 106 128 
0.108658 -0.338269 0.89794 138 120 142 
-0.430057 0.0695783 0.772787 125 115 140 
0.46427 0.217463 1.11757 85 94 99 
-0.329823 -0.281743 0.808422 81 57 70 
-0.436457 0.182285 0.620584 47 69 56 
-0.0784853 0.0544661 0.763976 83 55 70 
0.0639445 -0.039532 0.826371 126 70 79 
-0.533536 -0.33334 0.753864 53 63 90 
-0.36437 -0.116005 0.793066 98 79 101 
-0.425391 -0.27081 0.786905 140 119 138 
0.16829 0.147255 0.79189 81 40 54 
0.432119 0.069096 0.949665 83 57 70 
-0.0459189 0.000781763 0.804242 115 70 77 
0.118421 -0.390523 0.902291 95 74 89 
-0.293747 -0.42751 0.821202 127 112 135 
-0.239544 -0.480841 0.833413 132 109 127 
-0.139654 0.0512344 0.753925 125 84 102 
0.0549364 -0.340924 0.888262 138 116 137 
-0.465722 -0.237738 0.777625 113 113 151 
0.453933 0.183113 1.05165 147 138 159 
0.255923 0.16755 0.822281 134 82 104 
-0.266943 -0.367528 0.822893 107 82 103 
0.254822 -0.220743 0.921545 139 122 140 
0.0124345 0.0720546 0.782034 148 103 123 
0.309929 -0.28415 0.934527 107 78 98 
-0.344127 -0.369755 0.808765 76 62 75 
0.183152 0.114777 0.680348 121 89 112 
0.241992 0.100315 0.817065 45 29 29 
-0.0747685 -0.488802 0.867921 135 114 133 
0.431255 0.0141885 0.950591 132 114 130 
0.301494 -0.295908 0.933395 78 60 86 
-0.404246 -0.259508 0.792179 79 57 70 
0.203341 0.132984 0.81445 80 37 47 
0.455274 0.206477 1.05615 79 73 101 
-0.465772 -0.381058 0.782286 168 186 232 
-0.16623 -0.0232683 0.801633 54 21 28 
0.119055 -0.360763 0.900425 134 111 137 
0.0646572 -0.24162 0.814755 128 81 97 
0.450309 -0.344421 1.28166 39 57 81 
-0.0715737 -0.430176 0.866354 78 60 76 
-0.533619 -0.0417244 0.757844 147 162 205 
0.379506 -0.170005 0.943958 93 70 86 
0.246354 0.0698638 0.908921 130 118 142 
0.194336 -0.128253 0.905717 105 80 102 
0.0592817 -0.190326 0.813125 129 75 89 
-0.305373 -0.357069 0.813425 122 97 116 
0.128987 0.126525 0.618723 90 44 57 
0.182299 -0.213065 0.907162 104 76 91 
0.189843 -0.388924 0.916147 92 67 88 
-0.0818294 -0.432434 0.865646 84 66 82 
0.232626 0.114629 0.820378 112 65 75 
0.236692 -0.00758197 0.910438 137 116 133 
0.267209 0.0677008 0.913441 125 110 131 
0.163521 -0.140996 0.901475 89 62 79 
-0.0287977 0.132866 0.588673 72 45 60 
0.222621 0.143438 0.818164 71 33 46 
-0.0940698 -0.4649 0.862998 91 67 83 
0.19383 0.140463 0.812864 121 71 82 
0.0464445 -0.404115 0.887372 106 80 105 
0.0878665 -0.320161 0.893163 148 121 136 
-0.466093 0.0535809 0.765948 104 91 111 
-0.20028 -0.495377 0.841747 123 100 120 
-0.529805 -0.410459 0.762994 117 134 180 
-0.450604 -0.600785 0.79247 135 104 122 
0.217857 -0.362419 0.919182 100 75 97 
0.0890486 0.0304747 0.82257 153 102 119 
0.181518 0.187824 0.770027 62 57 64 
-0.323144 -0.486482 0.818639 132 113 133 
0.063494 -0.398328 0.890952 93 76 95 
-0.538137 -0.0150807 0.739059 32 43 65 
0.123146 -0.253178 0.896561 124 99 118 
0.22045 -0.058719 0.840403 122 70 83 
0.433475 -0.146979 0.957887 138 113 132 
-0.696358 -0.574923 0.599504 152 168 227 
0.351132 -0.192053 0.939737 132 115 134 
0.214447 -0.333143 0.917471 103 76 91 
0.135953 0.169032 0.608815 130 89 107 
-0.331583 -0.341753 0.810338 130 113 132 
0.150153 -0.14879 0.841743 127 73 87 
0.408284 -0.208736 0.949624 87 66 85 
0.063648 -0.269413 0.799888 82 52 62 
-0.469428 -0.601505 0.793258 175 191 242 
0.0734621 -0.421227 0.893041 101 73 88 
-3.69845 0.227656 2.78453 98 69 89 
-0.383017 -0.0852707 0.788752 128 114 140 
0.185656 0.173707 0.800584 58 33 39 
0.238561 0.057996 0.891249 73 41 56 
0.384369 0.00135749 0.938579 82 67 86 
0.231252 -0.358647 0.921935 100 74 99 
0.325966 -0.272777 0.936799 133 111 132 
0.0840695 -0.230878 0.816315 111 60 75 
0.243202 -0.371778 0.92641 105 72 89 
-0.407428 -0.26981 0.791508 98 75 83 
0.0808347 -0.244117 0.822094 75 37 48 
0.238731 0.0500816 0.908135 71 49 62 
0.187913 -0.313009 0.913178 135 114 129 
0.425459 0.0722328 0.978345 115 94 103 
0.098537 0.0422331 0.809534 146 93 113 
0.148546 0.17978 0.611547 72 58 73 
-0.405204 -0.373734 0.796209 130 113 132 
-0.30722 -0.314725 0.815003 75 51 65 
-0.664966 -0.454266 0.637511 132 111 128 
0.08991 -0.309802 0.892569 138 120 146 
-0.113338 -0.0405291 0.809069 124 76 88 
0.0288851 0.0728429 0.78502 104 73 89 
-0.416775 -0.150037 0.784834 86 72 97 
0.193388 0.0985938 0.688622 119 73 84 
-0.297211 -0.407815 0.817786 129 110 129 
-0.418792 -0.0958804 0.781974 125 107 131 
0.281281 -0.201595 0.927324 129 112 128 
-0.696086 -0.53408 0.593887 121 147 206 
-0.201247 -0.0246751 0.787233 43 21 24 
0.129444 0.0501699 0.806574 144 111 128 
0.423937 -0.281639 0.955896 92 68 82 
0.103858 -0.274287 0.805204 114 63 70 
0.185674 0.104259 0.806229 98 59 62 
-0.0150457 0.108314 0.588509 66 42 56 
0.093157 -0.270323 0.804775 49 23 26 
0.235583 -0.316623 0.923088 97 79 93 
-0.201504 -0.429458 0.839159 128 109 129 
0.354504 0.111313 0.927307 133 106 121 
0.307956 -0.321227 0.936159 85 63 84 
-0.121345 0.0570579 0.755526 128 81 97 
0.0796301 -0.181154 0.820592 78 33 40 
0.151029 -0.0337054 0.865142 99 56 73 
0.290051 0.113416 0.916575 127 124 145 
-0.464947 0.0310496 0.767814 97 85 105 
0.147872 -0.319879 0.90515 113 87 100 
-0.464962 -0.443978 0.78873 121 108 136 
0.169125 -0.215338 0.904421 104 72 85 
0.0631601 -0.354613 0.888587 137 112 134 
-0.00509128 0.0653056 0.778528 145 97 113 
0.219452 -0.0131334 0.908886 64 45 64 
0.105853 -0.313929 0.894887 131 108 134 
0.17413 -0.385313 0.912881 120 107 133 
0.260876 0.152552 0.909424 97 92 122 
-0.355547 -0.148048 0.7971 119 100 120 
-0.275974 -0.145058 0.81418 125 98 117 
-0.537516 -0.051026 0.740034 33 45 67 
-0.204738 0.0122319 0.770985 76 39 46 
0.150757 0.125041 0.631091 90 49 67 
-0.082627 -0.400399 0.862282 122 105 124 
0.262258 0.175674 0.815591 145 111 128 
0.268686 0.138044 0.910075 85 62 80 
0.160113 -0.187805 0.878509 111 64 72 
0.278429 0.0540642 0.915905 87 67 94 
-0.46428 -0.33455 0.782597 122 107 128 
0.195763 -0.278042 0.912735 99 73 86 
-0.00620874 -0.348379 0.804525 150 98 111 
-0.281494 -0.311279 0.818999 96 70 79 
0.191782 -0.224578 0.90999 150 126 148 
-0.315843 -0.0379145 0.800046 122 107 126 
0.19814 0.0665379 0.818798 105 74 89 
-0.073254 -0.254537 0.791544 60 31 33 
0.456993 -0.235241 1.283 46 58 84 
0.168378 0.146907 0.658445 149 102 122 
-0.262843 -0.380049 0.824958 90 63 80 
0.427951 0.0665773 1.0345 59 68 109 
0.272757 0.159337 0.911395 104 98 132 
-0.097427 -0.432078 0.862683 89 64 85 
0.245556 -0.35704 0.924169 146 127 147 
0.0906034 0.0365242 0.811952 137 79 91 
-0.459721 0.0329377 0.768534 100 87 105 
0.15574 0.169381 0.622795 152 110 124 
0.208942 -0.239351 0.912677 106 83 101 
-0.598118 0.1775 0.621082 63 75 61 
-0.329392 -0.517684 0.818207 126 105 124 
0.264224 0.0937987 0.91225 127 120 138 
-0.24834 -0.439514 0.831886 131 104 119 
0.18374 -0.232832 0.906577 100 76 98 
0.179015 -0.199469 0.904876 131 104 121 
0.143578 -0.299747 0.901549 120 87 106 
0.207095 0.16751 0.810257 105 75 87 
0.0836134 -0.389769 0.899492 121 104 123 
-0.0569344 0.0182727 0.802261 79 47 60 
0.208395 -0.0945575 0.907682 99 77 100 
-0.464856 -0.308893 0.782232 110 100 134 
0.249965 0.0492897 0.910396 82 55 72 
-0.242077 -0.515376 0.833996 128 109 128 
-0.535995 -0.573167 0.765796 48 68 92 
-0.367189 -0.201853 0.797216 128 108 133 
-0.539361 -0.307923 0.7444 151 169 217 
-0.0520769 -0.065408 0.805526 72 38 52 
-0.250334 -0.142348 0.819327 135 114 133 
-0.159758 -0.0929375 0.797526 78 33 40 
0.425898 -0.301584 0.957297 140 119 138 
-0.282342 -0.414373 0.822524 83 60 78 
0.222858 -0.0767622 0.843964 143 91 103 
0.0315694 -0.444489 0.886872 114 88 113 
0.271963 -0.337042 0.929671 128 112 139 
0.202404 -0.140391 0.908541 85 70 93 
0.189257 -0.374908 0.914032 96 69 88 
-0.397624 0.0296282 0.780749 129 115 140 
0.197294 0.185328 0.684499 96 66 68 
0.0341829 -0.434533 0.883767 131 111 139 
-0.226042 -0.533231 0.838995 128 106 129 
-0.45386 -0.266508 0.781069 121 103 127 
0.146022 -0.390088 0.906812 79 56 72 
0.246401 0.0818494 0.848001 83 47 59 
-0.139507 -0.437889 0.852362 106 76 88 
0.240265 0.142035 0.903299 102 74 89 
-0.187578 -0.507991 0.846457 131 110 127 
0.0424694 -0.431885 0.88981 120 106 132 
0.442101 -0.193673 1.03824 50 45 65 
0.401476 -0.235192 0.950856 132 118 144 
0.205687 -0.205731 0.913622 122 89 100 
-0.0391057 -0.271892 0.777127 82 54 68 
0.135176 -0.0313044 0.851803 145 94 113 
0.166927 0.124257 0.658945 109 55 78 
-0.197545 -0.269685 0.833384 97 80 99 
-0.696597 -0.523303 0.59696 139 166 221 
0.432011 -0.228353 0.960693 104 82 105 
-0.0232017 -0.191141 0.810875 116 64 76 
0.124496 -0.267471 0.866344 78 46 51 
0.32815 -0.0860143 0.930051 96 73 83 
-0.0387228 -0.201557 0.807508 44 17 22 
0.187397 0.117487 0.691233 136 91 111 
0.0466939 -0.293891 0.803798 78 43 47 
0.109531 0.110076 0.615723 80 48 63 
0.335837 0.0751845 0.925647 142 118 134 
-0.541511 0.0448359 0.749652 98 110 148 
0.410881 -0.0973856 0.946471 128 107 124 
-0.295982 -0.24654 0.813162 120 97 115 
-0.271606 -0.116711 0.812607 71 50 57 
-0.178555 -0.469138 0.847741 128 104 120 
0.155291 -0.240864 0.903227 97 70 87 
-0.31976 -0.348855 0.813316 120 97 107 
-0.202948 -0.505658 0.842018 128 106 129 
0.184632 0.143621 0.712303 139 93 119 
-0.463744 -0.0512977 0.770507 109 92 110 
-0.157644 -0.0350765 0.805988 77 39 54 
-0.467123 -0.569446 0.790189 175 191 242 
0.238237 -0.046996 0.870558 66 31 35 
0.112554 -0.410919 0.902001 126 105 124 
0.107805 -0.241211 0.856073 115 62 72 
0.167076 -0.00749768 0.862676 134 83 92 
-0.347322 -0.00968408 0.793765 76 67 86 
0.428016 0.0247893 0.944619 136 110 123 
-0.382992 0.0189655 0.780917 127 106 121 
0.397021 -0.17396 0.946611 112 84 106 
0.141855 -0.238688 0.900618 129 111 137 
-0.211982 -0.375518 0.835309 125 94 110 
0.098017 -0.284549 0.799977 84 43 51 
-0.192115 0.0313487 0.782083 86 39 47 
-0.269296 -0.292754 0.81936 99 75 91 
0.176795 -0.372899 0.912309 134 114 139 
0.261025 0.179326 0.892837 116 92 108 
0.155094 -0.230316 0.903672 101 73 87 
-0.203808 -0.47604 0.835522 138 117 134 
0.14651 0.159977 0.625754 162 117 140 
-0.138623 -0.412551 0.85246 132 117 140 
0.028069 0.167358 0.588115 87 67 78 
-0.438533 0.0877738 0.771286 84 78 106 
0.11932 -0.349033 0.900896 99 73 86 
0.448016 0.206031 0.923423 53 59 49 
-0.240325 -0.465871 0.833016 137 114 122 
-0.39052 -0.551896 0.808637 139 114 133 
-0.458585 -0.403024 0.785182 111 95 121 
-0.533293 -0.0861569 0.745816 37 48 66 
-0.53014 0.0664158 0.752125 127 140 185 
0.239756 0.075444 0.884373 84 51 68 
0.321046 -0.253951 0.935019 85 60 82 
0.281271 -0.310149 0.931187 127 114 134 
0.25213 -0.291491 0.924259 135 116 135 
-0.0349616 -0.24314 0.797701 124 72 85 
0.287681 0.147174 0.912972 124 103 120 
-0.36617 0.0111098 0.789267 61 49 61 
0.217993 0.189329 0.806078 63 46 54 
-0.644343 -0.442465 0.633245 99 107 146 
-0.533418 -0.322856 0.756899 44 55 85 
0.0665195 -0.0647986 0.828884 83 42 56 
0.163977 -0.354841 0.908055 106 78 100 
-0.529782 -0.42013 0.76331 122 132 181 
-0.644169 -0.496292 0.712251 168 178 229 
0.165878 -0.0214184 0.86792 57 28 33 
-0.463881 -0.149285 0.776053 117 97 122 
-0.372207 -0.0149274 0.788759 123 113 138 
0.187436 0.171087 0.670361 146 106 117 
-0.198562 -0.457972 0.843463 128 103 124 
-0.257233 -0.465811 0.829902 129 101 113 
-0.0323165 0.0140417 0.801761 106 59 69 
-0.459388 -0.52881 0.790561 128 111 130 
-0.371474 -0.564067 0.813292 124 108 134 
0.0981874 -0.242173 0.838568 111 63 77 
0.241712 0.0418303 0.84532 171 117 131 
0.445616 -0.220038 1.03862 153 177 221 
-0.337245 -0.400695 0.811637 120 101 120 
0.147919 -0.247171 0.900846 138 114 128 
-0.533416 -0.0319642 0.746427 41 46 76 
0.154452 0.140865 0.641128 145 103 123 
0.237439 -0.273525 0.920182 123 110 130 
0.177191 0.120883 0.673561 153 108 128 
0.0570508 -0.0783102 0.827188 67 31 43 
0.371632 -0.249483 0.945587 98 76 97 
0.200635 -0.355641 0.91554 123 111 133 
-0.252824 -0.341648 0.825989 76 60 73 
0.050997 -0.394861 0.889083 96 77 96 
-0.391131 -0.0464211 0.784978 73 60 80 
-0.640052 -0.455659 0.700179 143 131 155 
-0.12408 -0.39748 0.853894 77 63 78 
-0.131258 0.0809757 0.757451 134 87 107 
-0.180915 -0.453623 0.845415 94 69 90 
0.189761 0.149666 0.812123 65 44 51 
0.305893 -0.0738196 0.926018 123 98 117 
-0.20787 -0.522456 0.841982 128 108 133 
0.447908 -0.235095 1.27699 76 82 116 
0.395639 -0.272415 0.9512 128 109 131 
0.159486 0.185983 0.627226 135 96 115 
0.165606 -0.317044 0.910012 116 80 94 
0.0825586 -0.377928 0.893893 133 111 134 
0.0802861 -0.0919126 0.834092 122 67 72 
-0.343881 -0.533976 0.816499 122 105 124 
0.42289 -0.239056 1.00243 104 76 91 
0.200895 0.175366 0.803437 96 74 77 
0.178007 0.191602 0.786496 109 86 102 
0.117082 -0.276568 0.823646 38 28 27 
0.177397 0.167309 0.804033 86 59 68 
-0.218131 -0.411024 0.834665 100 78 99 
0.424922 -0.0976928 0.948746 134 107 124 
-0.392423 -0.404462 0.799717 87 63 79 
0.173975 0.162079 0.660782 130 87 107 
0.273257 0.17722 0.895052 72 64 85 
-0.425375 -0.287602 0.776276 114 103 135 
-0.138943 -0.397195 0.85065 86 74 96 
0.214318 0.176183 0.806916 106 70 74 
-0.0165487 0.0550039 0.778026 83 59 73 
0.198025 0.171636 0.687354 136 98 111 
-0.562722 0.183316 0.664921 23 48 29 
-0.420335 -0.418529 0.794099 89 67 80 
0.263181 0.165013 0.9072 56 57 78 
-0.33549 -0.226924 0.803928 123 103 115 
0.0998853 0.0472147 0.820485 124 61 70 
0.195047 0.0861802 0.687917 114 62 74 
0.243752 -0.260862 0.921951 105 90 111 
0.112705 -0.227018 0.839052 65 32 41 
0.0871709 -0.341882 0.897006 101 77 93 
0.175603 0.153112 0.755549 95 70 92 
0.366724 -0.312236 0.946877 123 103 131 
-0.467594 -0.0938722 0.767561 162 176 223 
0.384403 -0.201652 0.946737 88 72 98 
-0.0322324 0.0789516 0.77355 98 57 73 
0.130079 -0.372101 0.902488 134 113 132 
-0.370489 -0.546837 0.81078 95 81 106 
0.18298 -0.323226 0.9109 150 125 144 
0.296368 0.0712026 0.917405 142 136 164 
-0.362636 -0.0712528 0.793119 76 62 79 
0.299338 -0.35217 0.935245 142 123 143 
-0.466856 0.0947334 0.764076 99 105 139 
-0.190505 0.0276326 0.766221 121 76 97 
0.07308 0.109449 0.607508 76 48 63 
0.241257 0.0471573 0.832033 124 69 75 
0.132094 -0.0804871 0.862182 66 29 37 
-0.389478 -0.362504 0.799887 106 87 107 
-0.319946 -0.152146 0.803654 85 61 83 
0.130105 -0.393285 0.902991 134 111 127 
0.45045 -0.050217 1.05206 142 154 196 
-0.124311 -0.150056 0.797186 80 52 67 
-0.0163262 -0.179281 0.814104 120 74 85 
0.407995 -0.300957 0.952963 129 104 126 
-0.466304 -0.614709 0.792444 178 191 243 
0.197861 0.188698 0.802202 73 54 56 
0.433203 -0.0277 0.954173 96 72 88 
0.174143 0.168067 0.65075 101 59 71 
-0.557792 0.176847 0.656511 21 58 25 
0.440714 0.165662 0.992552 19 17 28 
0.166148 0.10206 0.652917 83 41 45 
-0.216735 -0.513129 0.841023 91 74 93 
0.179234 0.173239 0.781009 79 50 55 
0.457392 0.199328 1.18604 99 93 121 
-0.022426 -0.117358 0.803191 54 26 25 
-0.00603561 -0.0601767 0.801477 118 95 77 
0.335757 0.022603 0.926472 90 67 77 
0.0173424 0.0908138 0.769332 60 47 57 
0.0850332 -0.125656 0.853443 111 60 69 
0.12637 -0.278103 0.898719 124 114 139 
0.492425 0.213582 1.00696 90 106 129 
-0.327188 -0.442283 0.814684 100 73 88 
0.348285 -0.262492 0.9411 101 77 99 
0.0385403 0.0155998 0.81424 63 30 37 
0.0357773 -0.133056 0.823661 90 54 56 
0.440672 -0.26193 1.03613 70 73 104 
-0.154493 -0.417626 0.848566 110 86 108 
0.1851 0.162305 0.676747 126 88 109 
0.164671 0.167838 0.636124 112 62 74 
-0.347929 -0.254381 0.803224 99 71 86 
-0.626865 0.169562 0.584768 130 122 137 
0.213814 -0.322634 0.917229 118 87 103 
0.177733 -0.306494 0.909135 126 108 132 
-0.644089 -0.545713 0.709733 108 119 164 
0.253552 0.0402767 0.910458 142 118 131 
0.431216 -0.218392 0.961396 128 109 129 
0.245254 0.103429 0.906124 113 87 100 
0.0914961 0.120336 0.611108 126 83 102 
0.420691 -0.175839 0.9521 129 114 133 
0.309709 -0.311077 0.937486 91 74 92 
0.0763639 -0.0985388 0.824414 108 59 62 
-0.467639 -0.116742 0.77066 157 178 221 
0.400368 -0.077183 0.943942 128 109 129 
-0.0860386 -0.485956 0.864412 125 103 126 
-0.285488 -0.206802 0.814281 84 58 71 
-0.418089 0.0137521 0.775508 115 105 130 
-0.463278 -0.581205 0.79353 117 121 158 
0.334011 -0.308359 0.943003 119 110 137 
-0.344005 -0.519276 0.813305 122 105 123 
-0.12467 -0.411316 0.853546 134 116 138 
0.127039 -0.266704 0.853923 48 24 24 
0.320054 -0.285473 0.936422 113 84 106 
0.0427644 0.148751 0.602092 89 64 85 
0.458654 -0.311829 1.28091 51 68 98 
-0.344692 -0.424364 0.81042 88 67 84 
-0.165882 -0.432608 0.848692 88 60 83 
-0.283917 -0.461267 0.826166 131 114 133 
0.182122 0.0897497 0.758538 116 62 75 
-0.341934 0.00148427 0.797354 119 95 109 
0.407158 0.13161 0.93669 91 69 82 
-0.202114 -0.483475 0.843262 131 114 132 
0.249808 0.0838678 0.907934 127 109 125 
0.184165 0.120673 0.712929 134 87 107 
0.0073265 0.109405 0.593913 105 63 75 
0.133931 -0.344345 0.902309 137 109 131 
-0.15901 -0.0531287 0.799095 113 60 70 
0.296995 -0.105825 0.92502 125 106 126 
-0.141885 -0.514344 0.857028 91 78 98 
-0.344711 -0.333839 0.805983 103 78 97 
0.372478 0.04745 0.932794 108 81 88 
0.441403 -0.147756 1.03458 75 86 114 
-0.172207 -0.509901 0.84845 124 106 130 
-0.404584 -0.14149 0.784921 114 92 113 
-0.317842 -0.130486 0.803288 129 105 127 
-0.381796 -0.254582 0.795275 128 111 130 
-0.370308 -0.377527 0.801954 127 104 120 
-0.0207091 -0.0862434 0.812589 95 56 57 
0.269875 0.114444 0.916416 92 68 82 
0.0664004 -0.32452 0.888626 144 117 132 
-0.170888 -0.402106 0.844496 121 97 119 
0.156684 0.130006 0.639915 154 109 129 
-0.401956 -0.217223 0.7893 100 75 96 
0.456045 0.214213 1.16563 104 100 115 
-0.21404 -0.454526 0.838832 131 106 125 
0.453317 0.180079 0.952332 105 96 117 
0.185308 0.18936 0.666536 119 90 110 
-0.428811 -0.328365 0.791095 140 121 140 
-0.404409 -0.466939 0.801696 102 79 95 
-0.466829 -0.21156 0.774123 168 186 234 
0.242154 0.116224 0.905697 65 45 56 
0.228288 0.0352532 0.886938 115 61 75 
-0.1655 -0.0601628 0.791106 105 55 66 
0.191319 0.171127 0.720829 103 66 84 
0.430861 -0.0116646 0.948391 91 73 99 
-0.377147 0.183687 0.630329 43 66 50 
0.24367 0.167652 0.818461 120 81 99 
-0.387463 -0.535152 0.806018 132 113 133 
0.430274 -0.037817 0.955528 123 101 124 
0.161981 -0.188378 0.862094 98 55 62 
0.262447 -0.055361 0.915431 100 76 90 
-0.387075 -0.59708 0.80996 111 78 99 
0.414307 -0.22788 0.951736 137 118 137 
0.178379 -0.223544 0.906249 130 103 120 
-0.551421 0.170742 0.589911 60 76 66 
0.180648 0.170845 0.659625 152 108 123 
0.139807 -0.313153 0.90266 107 76 92 
-0.290369 -0.540151 0.825622 129 104 123 
0.375544 0.0569177 0.934271 134 111 127 
0.218145 -0.287991 0.917578 113 79 95 
-0.374119 -0.0546389 0.789964 71 59 79 
-0.157176 -0.114497 0.790425 52 27 33 
0.176704 0.0875143 0.813334 117 74 81 
-0.171353 -0.481962 0.850547 127 108 128 
0.378331 -0.187395 0.943923 122 95 110 
-0.622361 -0.450487 0.630665 124 111 128 
-0.0560111 -0.408085 0.866772 98 83 106 
-0.53191 0.0394404 0.745513 102 111 152 
-0.285564 -0.435048 0.824133 113 86 101 
0.00621072 0.121709 0.594637 76 43 62 
-0.314653 -0.437117 0.816932 127 101 114 
-0.100124 -0.406051 0.86012 119 106 126 
-0.309666 -0.119131 0.804814 124 99 118 
-0.30082 -0.368118 0.818438 133 110 128 
0.154397 0.179848 0.620181 129 84 105 
0.257613 -0.195331 0.920165 135 111 133 
-0.128513 -0.0660773 0.80858 121 67 80 
-0.314859 -0.229055 0.808945 122 100 121 
0.11651 -0.375258 0.900886 136 118 140 
0.37344 -0.299715 0.945836 109 86 104 
0.359484 -0.2863 0.943721 138 117 132 
-0.232519 -0.543271 0.839207 91 64 83 
0.451037 -0.0515097 1.26824 37 52 75 
0.128043 -0.408397 0.905035 134 116 140 
-0.637927 -0.482168 0.705209 112 119 161 
-0.359985 -0.214265 0.797397 117 96 105 
0.212404 0.143033 0.816016 94 46 60 
-0.0481056 -0.240771 0.794453 116 72 85 
0.352009 -0.135674 0.937781 126 99 118 
-0.125325 -0.162374 0.798033 76 44 57 
0.0810814 -0.22046 0.831934 60 25 31 
-0.372563 -0.347869 0.799947 118 105 123 
-0.0428939 0.167188 0.573545 87 55 66 
0.166483 0.108923 0.796595 63 34 38 
0.12132 -0.268979 0.880387 48 24 24 
-0.346802 -0.484357 0.812302 128 104 120 
-0.294829 -0.280715 0.815265 124 97 106 
0.094074 -0.403031 0.899463 124 101 127 
-0.156075 -0.0156118 0.803204 113 71 85 
0.212375 -0.31239 0.917746 105 77 91 
0.157348 0.16086 0.633542 119 84 108 
-0.38516 0.0335526 0.78161 123 110 136 
0.141566 0.153672 0.618764 140 89 104 
-0.139672 -0.492008 0.853449 102 74 96 
0.368023 -0.191195 0.942501 103 79 105 
0.39884 -0.0489771 0.942384 131 107 129 
-0.185403 -0.396947 0.842625 88 65 81 
0.43194 -0.254882 0.963823 126 102 124 
0.109594 -0.236822 0.842079 64 32 37 
-0.525465 -0.399799 0.771336 162 174 224 
0.103532 -0.131177 0.856329 64 31 38 
-0.164177 -0.0989218 0.788221 77 47 59 
0.424671 -0.0605347 1.01206 58 44 57 
0.356457 -0.159186 0.938763 120 95 117 
0.0156766 0.0156754 0.811339 62 29 36 
0.219034 0.0197768 0.901346 131 103 125 
-0.369582 -0.418664 0.805955 118 106 130 
0.454731 0.187272 1.03906 67 81 92 
0.403953 0.107203 0.937126 113 83 95 
0.265711 -0.219069 0.923994 119 91 106 
-0.0161527 -0.300413 0.792047 75 39 43 
0.324628 -0.311892 0.939958 90 69 86 
-0.267584 -0.351847 0.824151 96 78 94 
-0.249389 -0.53852 0.836203 126 109 125 
0.17965 -0.102433 0.901813 145 117 139 
-0.410706 -0.242744 0.789871 114 86 98 
-0.428497 -0.251466 0.789069 131 100 116 
-0.0776314 0.03048 0.789192 142 88 101 
-0.347249 -0.185246 0.799206 81 71 96 
-0.363016 -0.344989 0.803616 101 89 101 
-0.222747 0.0847714 0.728831 105 82 98 
-0.246022 -0.180125 0.819115 111 87 101 
-0.154783 -0.106573 0.798659 62 23 28 
0.237789 -0.219412 0.917388 116 84 95 
-0.0391665 -0.396541 0.870315 124 96 118 
-0.360827 -0.167306 0.790283 103 92 122 
0.1106 -0.250994 0.841694 109 59 70 
-0.46252 -0.0316661 0.768463 112 95 113 
0.22392 0.164426 0.808986 159 114 135 
-0.402732 -0.0519623 0.784115 128 109 129 
-0.199617 -0.373425 0.839108 105 73 84 
-0.37563 -0.128052 0.791929 134 114 142 
-0.149802 -0.4701 0.8508 101 74 89 
-0.381115 -0.394697 0.806289 129 110 129 
0.429001 0.00105518 0.945871 134 113 128 
0.00552507 0.158819 0.588815 104 72 93 
-0.385541 -0.512 0.808431 124 106 128 
0.393609 0.0241042 0.938224 100 74 87 
0.0378397 -0.371963 0.885906 133 110 130 
-0.144897 -0.456852 0.853012 103 72 90 
0.180465 0.137152 0.72974 87 48 66 
-0.548105 0.177812 0.685486 23 58 26 
-0.408242 -0.353938 0.793435 128 109 131 
0.432344 -0.127037 0.958842 103 75 97 
0.251113 -0.268923 0.924001 106 82 96 
-0.0974941 0.0697611 0.759708 135 88 104 
0.434051 0.149846 0.944905 108 88 100 
-0.409611 -0.310015 0.792968 130 107 127 
0.207109 -0.366313 0.918431 135 116 136 
-0.339445 -0.139688 0.79826 132 107 129 
-0.279372 -0.133266 0.812416 100 72 87 
-0.164172 0.0631066 0.747315 100 64 78 
-0.462359 -0.54925 0.787626 176 192 243 
0.359925 -0.232794 0.941342 108 89 109 
-0.155894 -0.452169 0.852198 124 102 123 
0.192378 -0.113252 0.904983 109 78 96 
0.384386 -0.259654 0.948274 96 84 108 
-0.293036 -0.260672 0.814404 84 62 75 
0.126569 -0.107403 0.861139 72 29 36 
-0.462667 -0.539128 0.787499 176 193 239 
-0.26119 -0.16972 0.816321 123 106 125 
0.120027 -0.314265 0.898696 134 116 138 
-0.040372 -0.100748 0.804251 50 24 25 
0.0240713 -0.265528 0.797744 72 40 45 
0.0853827 0.0618311 0.798156 109 76 93 
-0.202127 -0.412903 0.839885 128 110 132 
0.149843 0.0768301 0.809001 129 87 109 
-0.658409 -0.462057 0.636995 132 118 135 
-0.282234 -0.485179 0.830217 126 102 116 
0.164354 -0.20858 0.863997 156 104 117 
-0.0948493 -0.475195 0.863502 121 102 124 
-0.124006 -0.182264 0.793594 110 67 76 
0.242159 -0.242298 0.920328 143 121 133 
-0.630409 0.172175 0.61837 130 119 136 
0.312013 -0.237132 0.932007 110 97 117 
0.256098 0.110089 0.908343 132 104 119 
0.0220004 -0.38864 0.881199 130 102 117 
-0.193634 0.00654694 0.77461 147 92 111 
0.181146 0.089465 0.774971 132 78 94 
-0.119929 0.0710083 0.755554 143 96 116 
-0.451173 0.0116212 0.772467 106 97 124 
-0.263104 -0.501255 0.829685 98 77 96 
-0.467861 -0.45527 0.784926 173 191 241 
0.128741 -0.267972 0.844293 61 39 41 
-0.597282 0.171106 0.672802 39 83 50 
0.293089 -0.258325 0.930543 132 114 138 
0.172416 0.1643 0.775076 153 111 133 
0.433659 0.136156 0.946121 133 116 135 
0.424499 0.0843799 0.940887 108 81 96 
0.451483 0.183075 1.09906 159 160 188 
0.277186 -0.219715 0.92592 126 107 127 
-0.424439 0.0275578 0.774412 121 112 131 
0.367468 0.179146 0.912239 125 111 126 
0.101361 0.166401 0.602475 80 44 56 
0.234772 -0.0542604 0.899272 86 46 54 
-0.177389 -0.0410754 0.787978 109 58 67 
-0.27665 -0.203752 0.815882 133 112 131 
0.154966 0.0841731 0.625075 115 65 76 
0.478147 0.21255 1.00682 31 33 45 
0.273881 -0.319937 0.929542 119 94 116 
0.235848 -0.0237574 0.910117 123 95 109 
-0.181367 -0.515495 0.848439 104 76 98 
0.421629 -0.041731 0.946512 91 68 86 
-0.108745 -0.0280469 0.806571 77 32 39 
0.396618 -0.21869 0.947983 104 82 105 
-0.538433 -0.464363 0.755407 37 57 94 
0.1455 0.0898904 0.612698 103 54 58 
0.172872 0.150229 0.765207 141 101 125 
-0.236589 -0.249452 0.825343 135 105 117 
0.334557 -0.190186 0.935947 109 81 95 
0.226774 0.0275512 0.867218 116 65 74 
0.33111 0.0555472 0.924591 123 92 107 
0.229861 0.189211 0.808949 65 49 52 
0.291138 -0.306722 0.933043 114 99 128 
0.206699 0.0297215 0.853632 124 75 96 
-0.195905 -0.4009 0.839455 116 94 115 
0.132785 -0.33386 0.902595 98 79 99 
-0.443762 -0.471792 0.792008 104 85 105 
0.243595 -0.329141 0.922468 140 119 138 
0.363179 -0.264983 0.943602 124 102 125 
0.125427 -0.302422 0.900916 139 109 133 
-0.319961 -0.4737 0.817376 122 101 118 
-0.312177 -0.167932 0.808222 106 92 115 
-0.467608 -0.178139 0.772609 163 180 224 
0.214331 -0.380549 0.919015 106 81 103 
-0.388159 -0.343274 0.799069 119 104 125 
-0.159895 -0.467251 0.849533 101 73 88 
-0.644418 -0.44258 0.608389 94 109 150 
-0.0435016 0.0458365 0.780111 123 65 77 
-0.669827 -0.454098 0.682743 136 115 134 
-0.374654 -0.140687 0.791487 116 96 121 
0.248251 -0.0589422 0.913279 131 106 128 
0.0417516 -0.389893 0.887746 120 103 122 
0.310604 -0.129721 0.934834 130 99 115 
-0.464801 -0.224815 0.778226 121 107 132 
-0.386414 -0.280803 0.795047 90 71 90 
-0.439491 -0.350981 0.786228 124 104 131 
0.178532 0.0952997 0.66492 78 42 46 
-0.628724 0.170796 0.607913 127 123 138 
0.445839 -0.0249551 1.26368 138 147 188 
0.186113 0.168622 0.64402 122 78 95 
0.238567 -0.302499 0.920987 138 123 146 
0.160929 -0.196688 0.883682 90 44 54 
-0.467908 0.0176154 0.765529 154 173 215 
-0.38649 -0.240887 0.7963 79 56 72 
0.328027 -0.292349 0.938851 115 84 100 
0.224406 0.00574471 0.909456 95 71 85 
0.254585 0.0936904 0.909422 67 48 67 
-0.263203 -0.309966 0.82378 119 100 120 
0.172778 0.11838 0.762985 80 49 67 
0.00434964 -0.3084 0.79653 75 36 41 
-0.462731 0.0845295 0.765257 108 99 120 
-0.23381 -0.346756 0.830124 97 73 87 
0.224491 -0.272409 0.916978 129 114 137 
0.219174 -0.195672 0.912675 118 90 105 
0.161359 -0.19378 0.904743 125 100 121 
-0.050173 0.0833951 0.60823 154 119 143 
-0.131729 -0.467455 0.858411 125 105 130 
0.190881 0.0952557 0.804274 129 78 93 
0.3541 -0.0937971 0.9353 128 103 122 
0.239394 -0.0702092 0.912991 112 87 108 
-0.212076 0.0843222 0.735223 70 51 55 
-0.443168 0.0380492 0.768623 117 107 132 
-0.0277345 -0.109513 0.80773 45 21 21 
0.421956 -0.27007 0.955408 103 85 111 
0.302693 0.0163605 0.922337 120 89 97 
0.378031 -0.12681 0.941279 129 107 120 
0.177657 0.0979291 0.77856 72 36 40 
-0.213435 -0.48696 0.839375 98 79 98 
-0.538325 -0.0716265 0.742643 39 50 70 
-0.209048 -0.247441 0.830785 146 119 136 
-0.153073 -0.0840607 0.800193 113 66 74 
-0.331018 -0.15111 0.797148 120 96 120 
-0.168407 -0.0507659 0.790256 112 61 68 
0.306445 0.0808639 0.933212 132 108 122 
-0.297548 -0.208048 0.811336 111 79 90 
-0.345562 -0.135373 0.798329 120 97 117 
-0.0406244 -0.0361037 0.805368 93 61 76 
0.354743 0.121535 0.927525 129 114 135 
-0.545051 -0.0160626 0.730835 150 167 213 
0.181336 0.084909 0.664627 116 65 82 
0.268019 -0.195225 0.922596 137 112 133 
0.105701 -0.387081 0.898763 124 106 132 
0.142536 -0.169888 0.844666 118 72 83 
0.00681937 0.0191189 0.80811 93 54 59 
0.0165183 -0.377396 0.880258 108 79 97 
0.39243 0.166647 0.928075 118 118 142 
-0.139797 0.0767165 0.752839 143 98 118 
0.0286009 0.105527 0.601437 116 72 89 
0.252022 -0.366311 0.927525 122 108 134 
-0.532886 -0.178614 0.748481 46 58 80 
-0.397575 0.0693085 0.779785 125 108 127 
-0.532974 -0.591596 0.765293 49 64 93 
-0.402684 -0.406045 0.797647 100 79 98 
-0.536188 -0.145127 0.745695 48 56 75 
-0.419259 -0.0492102 0.779252 123 104 126 
-0.416876 -0.405949 0.796216 102 85 103 
0.0823132 0.155483 0.595923 149 101 123 
0.181778 -0.273114 0.912053 135 108 123 
0.38117 -0.283721 0.947672 127 103 119 
0.174327 0.188148 0.649037 100 69 84 
-0.30616 -0.399171 0.817679 123 95 110 
0.40754 -0.086206 0.945131 123 100 120 
0.292809 -0.19602 0.926614 113 88 109 
0.132098 -0.142688 0.892004 119 67 79 
0.0924034 -0.325761 0.885237 138 111 128 
0.161163 -0.183187 0.900545 122 94 108 
-0.424129 -0.487832 0.796698 104 87 106 
0.184548 0.190695 0.758225 117 86 102 
-0.637363 -0.459578 0.590446 135 127 151 
-0.343069 -0.201483 0.799967 120 106 129 
0.0899222 -0.108726 0.831553 48 20 19 
0.42412 -0.157179 0.950931 115 84 102 
0.257712 -0.124916 0.917457 135 110 131 
0.104134 -0.401224 0.899512 119 87 111 
-0.0513454 -0.253568 0.792314 105 60 67 
0.191088 0.0925189 0.727974 128 72 83 
0.240111 -0.0725697 0.876557 147 91 102 
0.229246 -0.12483 0.914001 116 93 111 
-0.0721053 -0.477543 0.868776 126 100 125 
-0.0416501 0.10993 0.585521 87 53 67 
-0.119601 -0.487251 0.85891 126 94 109 
-0.38509 -0.0126357 0.784577 121 112 133 
-0.118716 -0.149216 0.80501 114 63 72 
-0.301392 -0.467386 0.822168 120 101 121 
0.164532 -0.273877 0.90931 134 103 118 
-0.644042 -0.441404 0.64473 97 111 150 
0.109185 -0.302489 0.894715 116 90 117 
0.191926 0.160286 0.687228 174 126 152 
0.010909 -0.205808 0.822145 52 29 37 
0.224157 -0.156691 0.912483 112 81 99 
-0.333039 -0.212788 0.802759 119 98 117 
-0.288808 -0.526353 0.827832 108 77 93 
0.101182 -0.175643 0.855587 65 32 39 
0.44211 0.165589 1.11134 153 174 219 
-0.0831454 -0.459111 0.866281 105 81 103 
0.16468 0.182686 0.635558 107 75 90 
0.220588 0.131464 0.817812 113 60 70 
-0.269769 -0.53226 0.830028 109 81 104 
0.0644469 -0.43037 0.892901 89 70 90 
-0.466751 -0.13165 0.774767 117 104 124 
0.234135 0.031831 0.855481 157 110 126 
0.181988 0.174555 0.770336 121 88 99 
0.0820691 0.020917 0.83972 110 59 66 
0.186269 0.151105 0.702975 122 89 118 
0.249177 0.0738622 0.841383 124 79 86 
0.252897 0.174263 0.866522 116 68 80 
-0.0700746 0.0453229 0.779805 134 76 91 
-0.0604959 -0.455676 0.871009 128 108 133 
-0.430435 -0.0436383 0.776409 119 104 125 
0.234596 -0.0648737 0.896887 109 57 69 
0.0717147 0.140933 0.603826 101 75 102 
-0.399371 -0.422198 0.797745 127 103 116 
0.124396 0.000330314 0.847766 89 53 65 
-0.0583932 -0.430267 0.869495 136 115 134 
-0.0547726 -0.075538 0.804274 111 65 76 
-0.359082 -0.230011 0.800729 84 57 74 
0.17349 0.114675 0.807306 85 49 53 
0.190708 -0.362751 0.915018 126 104 127 
0.349304 -0.182065 0.938561 135 110 129 
-0.453767 -0.611735 0.800592 145 117 139 
0.0760696 -0.386928 0.892662 112 93 121 
0.312004 -0.298957 0.935031 115 87 109 
0.0569036 0.0380794 0.802568 137 80 97 
-0.700184 -0.491472 0.640344 126 153 208 
0.323799 -0.344228 0.939707 101 76 95 
0.038587 -0.414334 0.886113 128 102 129 
0.152104 -0.368171 0.909463 127 105 126 
0.192119 0.19002 0.716811 101 74 83 
-0.412319 -0.34486 0.792236 135 118 137 
0.249309 -0.0742504 0.914128 134 110 126 
-0.120923 -0.209564 0.790396 118 65 75 
-0.658927 -0.614208 0.603935 131 161 213 
-0.165872 -0.081344 0.786412 86 53 70 
0.277176 -0.191305 0.925927 132 110 131 
-0.542946 -0.128205 0.727201 157 173 222 
0.417487 -0.185224 0.951337 128 107 126 
0.443515 -0.087345 1.03375 64 78 117 
0.183684 0.128931 0.681058 118 90 113 
-0.0232372 -0.277428 0.778548 68 36 41 
0.0487266 0.0910088 0.595638 75 36 39 
-0.359018 -0.257759 0.801557 126 99 114 
0.198287 -0.317099 0.913735 129 101 123 
-0.245102 -0.547506 0.836153 130 102 124 
0.128425 -0.269645 0.897712 125 102 122 
0.120047 -0.242012 0.895606 108 74 88 
-0.355337 -0.239639 0.798904 115 93 106 
0.0731202 -0.250305 0.818354 111 63 75 
0.170177 -0.328844 0.908122 147 124 142 
0.259905 -0.159918 0.919564 128 111 129 
0.056546 0.185706 0.591838 72 58 71 
0.443583 -0.327348 1.25452 147 164 207 
0.342412 0.118661 0.925875 100 82 106 
0.0742438 -0.43287 0.896922 99 80 99 
-0.314322 -0.421091 0.816918 100 79 96 
-0.0255718 0.0516067 0.775378 129 86 106 
0.331767 -0.14028 0.933924 122 95 110 
-0.461001 0.0743203 0.773262 121 103 125 
-0.522362 -0.54422 0.771758 157 173 224 
0.456319 0.21166 1.18832 111 108 125 
0.261391 0.0962006 0.816703 121 68 78 
-0.161319 -0.0715423 0.790802 110 60 71 
0.160173 -0.214077 0.892341 154 107 127 
0.399936 -0.281746 0.95172 128 103 125 
0.180421 0.0659607 0.814592 140 91 110 
-0.326876 -0.241341 0.808272 118 91 106 
-0.341609 -0.495644 0.814147 128 101 120 
0.228374 0.0318774 0.876252 147 103 120 
0.0615676 -0.440302 0.893298 109 79 103 
-0.224745 0.0917083 0.987318 132 85 101 
0.198827 -0.120542 0.912231 136 106 118 
-0.683646 -0.603778 0.639611 116 137 194 
-0.464437 -0.483983 0.785688 176 192 241 
0.226371 -0.0339618 0.869278 101 58 65 
-0.537631 0.0893972 0.731552 30 50 83 
0.356869 -0.325609 0.944394 122 107 130 
-0.272207 -0.493844 0.833074 105 89 100 
-0.355997 -0.514645 0.811483 100 79 96 
-0.196754 0.0280556 0.794095 125 74 91 
0.0809649 -0.3604 0.892248 119 90 108 
0.378456 0.171629 0.927998 115 107 131 
0.362742 0.171561 0.918079 127 122 145 
-0.361143 -0.0339307 0.790618 124 101 117 
-0.63456 -0.442731 0.686615 134 117 133 
-0.617942 0.171324 0.636467 129 118 135 
0.228754 -0.0392843 0.910589 90 79 95 
-0.294837 -0.318689 0.815812 122 94 108 
-0.513094 -0.59327 0.773811 167 183 235 
-0.338457 -0.464057 0.814781 124 106 122 
-0.39152 -0.585991 0.80786 109 80 98 
-0.527352 -0.579471 0.772136 141 148 200 
-0.0165294 -0.208188 0.816304 51 28 34 
0.199206 0.100706 0.80906 53 27 28 
0.265074 -0.253709 0.925027 122 104 126 
-0.0704545 0.0899708 0.752653 98 60 75 
-0.468648 -0.0650173 0.768405 155 173 213 
0.162585 0.0849186 0.636074 117 67 78 
-0.535221 -0.488413 0.746056 162 178 229 
0.219248 0.0260409 0.891367 120 70 81 
0.159812 0.0799157 0.808641 141 88 104 
0.332819 -0.18859 0.920908 131 109 122 
0.0596412 -0.365606 0.889062 142 118 142 
-0.411452 -0.232351 0.786692 99 80 99 
0.0676584 0.087626 0.779685 133 99 116 
-0.187427 -0.378024 0.841293 118 101 120 
0.293511 -0.128409 0.924106 123 95 117 
0.182168 0.141169 0.810318 109 68 82 
0.268533 0.0578701 0.912478 111 84 91 
-0.441277 -0.369321 0.783682 128 110 134 
0.179687 0.151592 0.732908 135 100 120 
0.426644 -0.167969 0.954221 111 82 100 
-0.54599 -0.49184 0.748935 161 177 229 
-0.448112 0.0650397 0.768405 88 80 104 
0.278437 0.18305 0.876687 111 92 112 
-0.483762 -0.52232 0.790545 166 181 236 
0.176691 -0.00463894 0.869196 120 68 80 
-0.260288 -0.534009 0.833697 130 103 118 
0.206553 0.0915999 0.808025 118 64 77 
-0.667654 -0.612579 0.628432 139 164 221 
0.433637 0.0853168 0.95297 116 88 110 
0.206275 0.0769353 0.819367 139 95 110 
-0.346607 -0.22504 0.805743 121 98 108 
0.0548812 0.0203162 0.822421 140 84 97 
-0.39658 -0.119999 0.78687 128 109 129 
-0.36156 -0.523207 0.811056 102 83 105 
0.20202 -0.379196 0.917107 109 83 110 
0.0977248 -0.303692 0.893504 129 110 138 
0.0250816 -0.249327 0.811644 112 65 75 
0.427167 0.1651 0.992176 59 47 51 
0.26862 -0.0192604 0.922139 129 105 119 
-0.640588 -0.471558 0.724819 168 185 237 
-0.0713135 -0.445895 0.865038 124 102 125 
0.0776727 0.0111683 0.827831 105 73 96 
0.108585 0.148865 0.613508 112 77 97 
-0.396707 -0.0793001 0.784188 116 94 115 
-0.375981 -0.044538 0.790904 109 97 119 
-0.104383 -0.488981 0.86346 121 96 117 
0.117757 -0.326895 0.897822 131 112 134 
-0.660198 -0.531416 0.601292 130 157 212 
0.141624 -0.361252 0.904837 119 90 110 
-0.400405 -0.188142 0.787564 130 108 129 
-0.400824 -0.571788 0.808115 115 84 102 
0.382345 -0.0527547 0.938973 102 85 104 
0.290755 -0.291125 0.930408 106 77 95 
0.455689 -0.288333 1.281 49 63 90 
-0.00933363 0.0776306 0.779651 140 92 106 
0.145624 -0.167676 0.896797 115 86 104 
0.0043348 -0.0817837 0.811003 127 108 91 
-0.650231 -0.464741 0.620169 137 141 178 
0.441878 0.167592 1.04982 157 172 215 
0.41241 -0.263243 0.952748 113 87 112 
0.394377 -0.196723 0.946726 101 81 106 
-0.399287 -0.597602 0.808337 113 84 106 
