ply                 
format ascii 1.0    
element vertex 1200
property float x    
property float y    
property float z    
property uchar red  
property uchar green
property uchar blue 
end_header          
0.445736 -0.220048 1.03869 153 177 221 
-0.337356 -0.400841 0.811552 120 101 120 
0.147962 -0.247226 0.900871 138 114 128 
-0.533464 -0.0319368 0.746169 41 46 76 
0.154625 0.14087 0.640959 145 103 123 
0.237477 -0.273595 0.920256 123 110 130 
0.177366 0.12093 0.673334 152 110 130 
0.0571405 -0.0783217 0.827068 71 34 42 
0.371719 -0.249526 0.945656 98 76 97 
0.200667 -0.355743 0.915616 123 111 133 
-0.25288 -0.341755 0.82591 76 60 73 
0.0509884 -0.394996 0.88913 96 77 96 
-0.391033 -0.0463806 0.784726 73 60 80 
-0.640155 -0.455815 0.699943 143 131 155 
-0.124134 -0.397622 0.853885 77 63 78 
-0.131103 0.0810274 0.757232 134 87 107 
-0.181003 -0.453803 0.845406 94 69 90 
0.189788 0.149735 0.812081 65 44 51 
0.305953 -0.0737941 0.926068 129 108 125 
-0.207993 -0.522686 0.841989 128 108 133 
0.448095 -0.235053 1.27706 76 82 116 
0.395642 -0.27236 0.95141 135 115 143 
0.159513 0.186045 0.627111 134 100 117 
0.165629 -0.317133 0.910074 116 80 94 
0.0825601 -0.378046 0.893944 133 111 134 
0.0798934 -0.0919303 0.834464 118 65 73 
-0.344047 -0.534216 0.816457 122 105 124 
0.422997 -0.239081 1.0025 104 76 91 
0.200895 0.175445 0.803419 96 74 77 
0.178083 0.19167 0.786397 109 86 102 
0.117116 -0.276644 0.823645 38 28 27 
0.177393 0.167386 0.804011 86 59 68 
-0.21821 -0.411175 0.834625 100 78 99 
0.425015 -0.0976884 0.948794 134 107 124 
-0.392529 -0.404605 0.799603 87 63 79 
0.173958 0.162119 0.660726 130 87 107 
0.273296 0.17731 0.895055 76 67 88 
-0.425405 -0.28767 0.776094 114 103 135 
-0.139001 -0.397337 0.850635 86 74 96 
0.214434 0.176242 0.806806 106 70 74 
-0.0163022 0.0552655 0.777785 94 66 81 
0.198111 0.17167 0.687238 136 98 111 
-0.562316 0.183378 0.664478 23 48 29 
-0.420378 -0.41864 0.793953 89 67 80 
0.263284 0.165095 0.907138 56 57 78 
-0.335548 -0.226973 0.803792 123 103 115 
0.0999862 0.0472571 0.82038 124 61 70 
0.195179 0.086191 0.68779 114 62 74 
0.243786 -0.260922 0.922033 104 86 108 
0.112715 -0.227078 0.839063 65 32 41 
0.0871826 -0.341985 0.897047 101 77 93 
0.175731 0.153154 0.755416 95 70 92 
0.366963 -0.312134 0.946699 128 108 133 
-0.467598 -0.093868 0.767321 162 176 223 
0.384484 -0.201682 0.946807 88 72 98 
-0.0321541 0.0790013 0.773401 98 57 73 
0.130093 -0.372215 0.90255 134 113 132 
-0.370669 -0.547087 0.810732 95 81 106 
0.182942 -0.323365 0.911047 154 129 148 
0.29639 0.0712556 0.917471 142 136 164 
-0.362681 -0.0712453 0.79294 76 62 79 
0.299403 -0.35226 0.935332 142 123 143 
-0.466841 0.0947853 0.763802 99 105 139 
-0.190368 0.0276783 0.766003 121 76 97 
0.0732911 0.109447 0.60731 76 48 63 
0.241352 0.0471919 0.831973 124 69 75 
0.13213 -0.0804817 0.862164 66 29 37 
-0.389559 -0.362619 0.799758 106 87 107 
-0.319913 -0.15215 0.803473 85 61 83 
0.130119 -0.393413 0.903058 134 111 127 
0.450574 -0.050176 1.0521 142 154 196 
-0.124319 -0.150081 0.797086 79 48 64 
-0.016282 -0.179311 0.814032 120 74 85 
0.408081 -0.301018 0.953053 129 104 126 
-0.466545 -0.615015 0.79238 178 191 243 
0.197889 0.188776 0.802152 73 54 56 
0.433305 -0.0276727 0.954199 96 72 88 
0.174242 0.168091 0.650616 101 59 71 
-0.557377 0.176905 0.656068 21 58 25 
0.44081 0.165751 0.992568 19 17 28 
0.166168 0.102066 0.652834 83 41 45 
-0.216858 -0.513352 0.841024 91 74 93 
0.179359 0.173292 0.78088 79 50 55 
0.457544 0.199463 1.18605 99 93 121 
-0.0223601 -0.117363 0.803091 54 26 25 
-0.00599816 -0.0601659 0.801388 118 95 77 
0.335697 0.0224068 0.926264 98 70 84 
0.0174762 0.0908601 0.769167 60 47 57 
0.0850924 -0.125664 0.853398 111 60 69 
0.126363 -0.278187 0.898783 124 114 139 
0.492537 0.213675 1.00696 90 106 129 
-0.327304 -0.442454 0.814613 100 73 88 
0.348354 -0.262551 0.941184 101 77 99 
0.0385921 0.015636 0.814149 63 30 37 
0.0358364 -0.133069 0.823593 90 54 56 
0.440786 -0.261956 1.03622 70 73 104 
-0.154582 -0.417789 0.848564 110 86 108 
0.185083 0.162344 0.676691 126 88 109 
0.164652 0.167873 0.63606 112 62 74 
-0.347974 -0.254441 0.80308 99 71 86 
-0.626304 0.169595 0.584284 130 122 137 
0.213935 -0.322633 0.917193 120 86 103 
0.177787 -0.306438 0.909175 132 118 143 
-0.644273 -0.54594 0.709533 108 119 164 
0.253615 0.0403271 0.910454 142 118 131 
0.431315 -0.218418 0.961463 128 109 129 
0.245301 0.1035 0.906123 113 87 100 
0.0917011 0.120334 0.610915 126 83 102 
0.420944 -0.175788 0.951881 134 119 142 
0.309857 -0.311141 0.937406 96 76 101 
0.0761067 -0.0986038 0.82464 109 60 64 
-0.467647 -0.116744 0.770426 157 178 221 
0.400449 -0.0771736 0.943996 128 109 129 
-0.0861122 -0.486155 0.864449 125 103 126 
-0.285483 -0.206833 0.814136 84 58 71 
-0.41795 0.0138118 0.77522 115 105 130 
-0.463499 -0.581482 0.793455 117 121 158 
0.334078 -0.308436 0.943094 119 110 137 
-0.34416 -0.519503 0.813255 122 105 123 
-0.12471 -0.411449 0.85353 134 116 138 
0.127048 -0.26678 0.853952 48 24 24 
0.320134 -0.285524 0.936476 113 84 106 
0.0430025 0.14875 0.601871 89 64 85 
0.458846 -0.311803 1.28099 51 68 98 
-0.344815 -0.424526 0.81034 88 67 84 
-0.165978 -0.432781 0.848691 88 60 83 
-0.284034 -0.461453 0.826121 131 114 133 
0.182239 0.0897806 0.758425 116 62 75 
-0.341824 0.0015394 0.797108 119 95 109 
0.407177 0.131692 0.93683 95 67 79 
-0.202222 -0.483676 0.843257 131 114 132 
0.249839 0.0839324 0.907959 127 109 125 
0.184299 0.120697 0.712795 134 87 107 
0.00757167 0.109403 0.593687 105 63 75 
0.133946 -0.344447 0.902367 137 109 131 
-0.158925 -0.0531035 0.79893 113 60 70 
0.296998 -0.105876 0.925148 131 116 135 
-0.141986 -0.514566 0.857057 91 78 98 
-0.344765 -0.333929 0.805858 103 78 97 
0.372507 0.0475422 0.932908 113 87 100 
0.441521 -0.147746 1.03464 75 86 114 
-0.172315 -0.510121 0.848465 124 106 130 
-0.403776 -0.14132 0.784267 110 93 111 
-0.317626 -0.130444 0.802976 128 106 129 
-0.381852 -0.254639 0.795121 128 111 130 
-0.370395 -0.377652 0.801839 127 104 120 
-0.0201529 -0.0864784 0.812125 95 56 57 
0.269913 0.11452 0.916439 92 68 82 
0.066411 -0.324615 0.888654 144 117 132 
-0.170934 -0.402233 0.844459 121 97 119 
0.156577 0.129903 0.639863 156 111 132 
-0.401978 -0.217261 0.789117 100 75 96 
0.456192 0.214348 1.16564 104 100 115 
-0.214138 -0.454707 0.838811 131 106 125 
0.453404 0.180162 0.952343 105 96 117 
0.18547 0.189374 0.666372 119 90 110 
-0.42887 -0.32844 0.790936 140 121 140 
-0.404551 -0.467126 0.801602 102 79 95 
-0.466851 -0.21159 0.77391 168 186 234 
0.2422 0.1163 0.905693 65 45 56 
0.22838 0.0352977 0.886895 115 61 75 
-0.165414 -0.0601409 0.790937 105 55 66 
0.1914 0.171172 0.72072 103 66 84 
0.430962 -0.0116341 0.948413 91 73 99 
-0.376758 0.183722 0.629946 43 66 50 
0.24384 0.167685 0.818281 127 79 101 
-0.387641 -0.535392 0.805959 132 113 133 
0.430376 -0.0377921 0.955556 123 101 124 
0.162006 -0.188418 0.862114 98 55 62 
0.262453 -0.0553528 0.915539 104 77 92 
-0.387286 -0.597371 0.809925 111 78 99 
0.414397 -0.227924 0.951807 136 117 137 
0.178408 -0.223595 0.906295 130 103 120 
-0.550904 0.170772 0.589456 60 76 66 
0.18063 0.170887 0.65957 152 108 123 
0.139663 -0.313341 0.902884 110 77 94 
-0.290525 -0.540396 0.825604 129 104 123 
0.375547 0.0570065 0.93444 144 120 136 
0.2182 -0.288089 0.91761 118 86 110 
-0.374159 -0.0546258 0.789774 71 59 79 
-0.15711 -0.114495 0.790277 52 27 33 
0.1767 0.0875626 0.813322 117 74 81 
-0.17145 -0.482161 0.850554 127 108 128 
0.378408 -0.187424 0.943995 122 95 110 
-0.62238 -0.450625 0.630397 124 111 128 
-0.0560732 -0.408242 0.866802 98 83 106 
-0.531749 0.0394981 0.745172 102 111 152 
-0.285685 -0.43522 0.824083 113 86 101 
0.00645948 0.121708 0.594408 76 43 62 
-0.314763 -0.437285 0.816863 127 101 114 
-0.100176 -0.406198 0.860123 119 106 126 
-0.310346 -0.119201 0.805058 127 103 117 
-0.300875 -0.368223 0.818339 133 110 128 
0.154424 0.179871 0.620078 129 84 105 
0.257689 -0.195359 0.92018 135 111 133 
-0.128482 -0.0660621 0.808455 121 67 80 
-0.314896 -0.229102 0.808801 122 100 121 
0.116521 -0.375374 0.900945 136 118 140 
0.373426 -0.299871 0.946096 109 86 104 
0.359559 -0.286384 0.943801 141 122 141 
-0.232659 -0.543518 0.839213 91 64 83 
0.451217 -0.051422 1.26828 37 52 75 
0.128054 -0.408533 0.905107 134 116 140 
-0.638036 -0.482334 0.704982 112 119 161 
-0.360223 -0.214426 0.797356 119 101 113 
0.212514 0.143088 0.815916 94 46 60 
-0.0481158 -0.240835 0.794403 116 72 85 
0.352083 -0.135683 0.937837 126 99 118 
-0.125319 -0.162399 0.797935 76 44 57 
0.0811222 -0.220509 0.83191 60 25 31 
-0.372634 -0.347976 0.799819 118 105 123 
-0.0425893 0.16718 0.573282 87 55 66 
0.166549 0.108975 0.796516 63 34 38 
0.121355 -0.269046 0.880406 48 24 24 
-0.346941 -0.484558 0.812238 128 104 120 
-0.295246 -0.280829 0.815392 125 95 105 
0.0940759 -0.403167 0.899525 124 101 127 
-0.155978 -0.0155735 0.803028 113 71 85 
0.212403 -0.31248 0.917825 105 77 91 
0.157528 0.160863 0.633367 119 84 108 
-0.385064 0.033609 0.781346 123 110 136 
0.141386 0.153807 0.618805 140 89 106 
-0.139763 -0.492213 0.853469 102 74 96 
0.368071 -0.191239 0.942622 117 88 116 
0.398888 -0.0489454 0.942496 132 111 128 
-0.185451 -0.397071 0.842582 88 65 81 
0.432038 -0.25492 0.9639 126 102 124 
0.109634 -0.236878 0.842071 64 32 37 
-0.525577 -0.399933 0.771161 162 174 224 
0.103635 -0.131223 0.856222 69 33 45 
-0.164231 -0.0989334 0.788129 77 47 59 
0.424784 -0.0605042 1.01209 58 44 57 
0.356542 -0.159212 0.938801 120 95 117 
0.0159696 0.015679 0.810985 65 32 43 
0.219122 0.0198205 0.90131 131 103 125 
-0.369634 -0.418784 0.805832 118 106 130 
0.45485 0.187371 1.03906 67 81 92 
0.403999 0.107251 0.937217 125 94 110 
0.265762 -0.219113 0.924056 119 91 106 
-0.0161393 -0.300502 0.792005 75 39 43 
0.324692 -0.311973 0.940049 90 69 86 
-0.267668 -0.351966 0.824079 96 78 94 
-0.249532 -0.538763 0.836201 126 109 125 
0.17966 -0.102441 0.901857 145 117 139 
-0.410741 -0.242794 0.789694 114 86 98 
-0.428544 -0.251515 0.788891 131 100 116 
-0.077655 0.0305171 0.789098 142 88 101 
-0.347231 -0.185264 0.799026 81 71 96 
-0.36309 -0.345082 0.803496 101 89 101 
-0.222556 0.0848226 0.728568 105 82 98 
-0.245657 -0.180067 0.818729 114 90 104 
-0.154761 -0.106573 0.798533 62 23 28 
0.237828 -0.219473 0.917448 118 84 100 
-0.0391994 -0.39668 0.870334 124 96 118 
-0.363064 -0.167434 0.791261 106 93 121 
0.110606 -0.251064 0.841712 109 59 70 
-0.46243 -0.031627 0.768183 112 95 113 
0.223989 0.164492 0.808916 159 114 135 
-0.402673 -0.0519311 0.783874 128 109 129 
-0.199667 -0.373539 0.839056 105 73 84 
-0.375528 -0.128037 0.791686 134 114 142 
-0.149889 -0.470291 0.850808 101 74 89 
-0.381216 -0.394834 0.806178 129 110 129 
0.429087 0.0010896 0.945911 134 113 128 
0.00579204 0.158815 0.588575 104 72 93 
-0.385706 -0.512222 0.808364 124 106 128 
0.393682 0.0241347 0.938269 100 76 90 
0.0378329 -0.372085 0.885941 133 110 130 
-0.144977 -0.457034 0.853018 103 72 90 
0.180597 0.137183 0.729605 87 48 66 
-0.547737 0.177881 0.685056 23 58 26 
-0.408318 -0.354047 0.793293 128 109 131 
0.432445 -0.127037 0.958889 103 75 97 
0.251175 -0.268982 0.924058 106 82 96 
-0.0973472 0.0698086 0.759505 135 88 104 
0.434154 0.149915 0.944894 108 88 100 
-0.409662 -0.310096 0.792809 130 107 127 
0.207147 -0.366417 0.918509 135 116 136 
-0.339328 -0.139703 0.797983 132 107 129 
-0.279332 -0.133263 0.812246 100 72 87 
-0.164011 0.0631543 0.747086 100 64 78 
-0.462558 -0.549499 0.787536 176 192 243 
0.359983 -0.23287 0.941435 108 89 109 
-0.155994 -0.452355 0.852208 124 102 123 
0.19241 -0.113259 0.905012 109 78 96 
0.384475 -0.259699 0.948347 96 84 108 
-0.293093 -0.260736 0.814292 84 62 75 
0.126636 -0.107404 0.861102 72 29 36 
-0.462861 -0.539369 0.787406 176 193 239 
-0.261275 -0.169789 0.816213 123 106 125 
0.120028 -0.314317 0.898763 135 116 138 
-0.0403025 -0.100746 0.804142 50 24 25 
0.0240991 -0.2656 0.797704 72 40 45 
0.0853603 0.0618728 0.798125 109 76 93 
-0.202224 -0.413063 0.839863 128 110 132 
0.149813 0.0768761 0.809009 129 87 109 
-0.658444 -0.462201 0.63672 132 118 135 
-0.282364 -0.485383 0.830183 126 102 116 
0.164377 -0.208629 0.864024 156 104 117 
-0.0949205 -0.475386 0.863531 121 102 124 
-0.124556 -0.182272 0.793784 110 67 76 
0.242156 -0.242364 0.920447 143 121 133 
-0.629907 0.172221 0.617891 130 119 136 
0.312089 -0.237176 0.932065 110 97 117 
0.256123 0.110164 0.908367 132 104 119 
0.0219876 -0.388764 0.881232 130 102 117 
-0.193373 0.00642753 0.774298 149 98 117 
0.181211 0.0895067 0.774894 132 78 94 
-0.119952 0.0710545 0.755427 143 96 116 
-0.45107 0.011673 0.772181 106 97 124 
-0.263234 -0.50147 0.829663 98 77 96 
-0.468003 -0.455446 0.784798 173 191 241 
0.128748 -0.26805 0.844321 61 39 41 
-0.596884 0.171173 0.672352 39 83 50 
0.29314 -0.258389 0.930625 132 114 138 
0.172542 0.16435 0.774945 153 111 133 
0.433762 0.136223 0.946113 133 116 135 
0.424531 0.0844541 0.94102 106 79 96 
0.451615 0.183187 1.09907 159 160 188 
0.277237 -0.21976 0.925987 126 107 127 
-0.424334 0.0276131 0.774132 121 112 131 
0.36752 0.179237 0.912261 125 111 126 
0.101581 0.166396 0.602271 80 44 56 
0.234853 -0.0542417 0.899258 86 46 54 
-0.177403 -0.0411217 0.787843 109 60 66 
-0.276722 -0.203797 0.815777 133 112 131 
0.155133 0.0841693 0.624919 115 65 76 
0.478259 0.212644 1.00681 31 33 45 
0.273923 -0.320031 0.929637 119 94 116 
0.235892 -0.0237304 0.910138 123 95 109 
-0.18148 -0.515719 0.848454 104 76 98 
0.421711 -0.0417092 0.946563 91 68 86 
-0.108655 -0.0280153 0.806417 77 32 39 
0.396717 -0.21873 0.948025 107 83 107 
-0.538576 -0.464539 0.755242 37 57 94 
0.145678 0.0898842 0.612534 103 54 58 
0.172946 0.150282 0.765109 141 101 125 
-0.236481 -0.249388 0.825152 135 105 113 
0.33464 -0.19021 0.935997 109 81 95 
0.226866 0.0275893 0.86717 116 65 74 
0.331147 0.0556062 0.924656 123 92 107 
0.229916 0.189276 0.808879 64 47 57 
0.291195 -0.306797 0.933126 114 99 128 
0.206709 0.0297572 0.853647 124 75 96 
-0.195954 -0.401026 0.839407 116 94 115 
0.13281 -0.333957 0.902645 98 79 99 
-0.443912 -0.471981 0.791898 104 85 105 
0.243648 -0.329227 0.92254 140 119 138 
0.363292 -0.265024 0.943613 124 102 125 
0.125433 -0.302512 0.900971 139 109 133 
-0.32009 -0.473894 0.81732 122 101 118 
-0.312155 -0.167943 0.808052 106 92 115 
-0.467625 -0.178159 0.772388 163 180 224 
0.214371 -0.380663 0.919097 106 81 103 
-0.388229 -0.343377 0.798934 119 104 125 
-0.159984 -0.46744 0.849537 101 73 88 
-0.644402 -0.442705 0.608099 94 109 150 
-0.0434323 0.0458794 0.77997 123 65 77 
-0.669911 -0.454247 0.682485 136 115 134 
-0.374609 -0.140683 0.791277 116 96 121 
0.248283 -0.0589314 0.913326 131 106 128 
0.0417432 -0.390018 0.887787 120 103 122 
0.310688 -0.129725 0.934865 130 99 115 
-0.4648 -0.224847 0.77801 121 107 132 
-0.386469 -0.280875 0.794895 90 71 90 
-0.439545 -0.351064 0.786064 124 104 131 
0.178558 0.0953131 0.664844 78 42 46 
-0.628204 0.170838 0.607433 127 123 138 
0.446017 -0.0248613 1.26372 138 147 188 
0.186281 0.168628 0.643857 122 78 95 
0.238648 -0.302558 0.921005 138 123 146 
0.160982 -0.196723 0.883689 90 44 54 
-0.467792 0.0176685 0.765231 154 173 215 
-0.386502 -0.240931 0.796125 79 56 72 
0.328087 -0.29242 0.938944 115 84 100 
0.224493 0.00578537 0.909427 95 71 85 
0.254683 0.0937545 0.909376 67 48 67 
-0.262935 -0.309914 0.823509 119 100 120 
0.1729 0.118418 0.762863 80 49 67 
0.00430784 -0.308502 0.796536 75 36 41 
-0.462537 0.0846076 0.764923 108 99 120 
-0.233894 -0.346865 0.830072 97 73 87 
0.224586 -0.272492 0.917081 129 115 140 
0.219213 -0.19571 0.912725 118 90 105 
0.161364 -0.193827 0.904799 125 100 121 
-0.049928 0.0834004 0.607993 154 119 143 
-0.13181 -0.467643 0.858427 125 105 130 
0.19088 0.0953066 0.804264 129 78 93 
0.354167 -0.0937955 0.935358 128 103 122 
0.239439 -0.070199 0.913021 112 87 108 
-0.212139 0.084311 0.735089 65 49 50 
-0.443049 0.038107 0.768329 117 107 132 
-0.0270597 -0.109457 0.807095 40 20 19 
0.422045 -0.270119 0.955492 103 85 111 
0.302762 0.0164027 0.922351 120 89 97 
0.378106 -0.126818 0.941342 129 107 120 
0.177724 0.0979738 0.778481 72 36 40 
-0.213546 -0.487164 0.839367 98 79 98 
-0.538194 -0.0715906 0.742327 39 50 70 
-0.209273 -0.247417 0.830778 146 119 136 
-0.153 -0.0840468 0.800041 113 66 74 
-0.33098 -0.151113 0.79696 120 96 120 
-0.168444 -0.0507554 0.790146 112 61 68 
0.306543 0.0809257 0.933189 132 108 122 
-0.29753 -0.208109 0.811164 111 79 90 
-0.34569 -0.13541 0.798191 120 97 117 
-0.0406424 -0.0360904 0.805298 93 61 76 
0.354819 0.121607 0.92753 129 114 135 
-0.544871 -0.0160111 0.730492 150 167 213 
0.181479 0.0849142 0.664489 116 65 82 
0.268103 -0.195278 0.922598 140 118 139 
0.105709 -0.387207 0.898823 124 106 132 
0.142592 -0.169917 0.844647 118 72 83 
0.00692139 0.0191575 0.807978 93 54 59 
0.0165047 -0.377522 0.880288 108 79 97 
0.392511 0.166729 0.928075 118 118 142 
-0.139698 0.0767661 0.752643 143 98 118 
0.0295946 0.105382 0.600574 123 76 92 
0.252074 -0.366413 0.927609 122 108 134 
-0.532829 -0.178619 0.748208 46 58 80 
-0.397344 0.0693562 0.779419 127 108 127 
-0.533207 -0.591877 0.765182 49 64 93 
-0.402791 -0.406189 0.797529 100 79 98 
-0.53613 -0.145125 0.745414 48 56 75 
-0.419076 -0.0492362 0.778946 123 104 126 
-0.416985 -0.406092 0.796093 102 85 103 
0.0825415 0.155477 0.595714 149 101 123 
0.181801 -0.273187 0.912115 135 108 123 
0.381257 -0.283776 0.94775 127 103 119 
0.174352 0.188181 0.648944 100 69 84 
-0.306251 -0.399313 0.817599 123 95 110 
0.407623 -0.0861992 0.945185 123 100 120 
0.292885 -0.196048 0.926657 113 88 109 
0.132156 -0.142699 0.891991 119 67 79 
0.0924205 -0.325856 0.885269 138 111 128 
0.161192 -0.18322 0.900575 122 94 108 
-0.424287 -0.488034 0.796603 104 87 106 
0.184626 0.190755 0.75812 117 86 102 
-0.63734 -0.45971 0.590156 135 127 151 
-0.342915 -0.201454 0.799728 120 106 129 
0.0899284 -0.108741 0.831537 48 20 19 
0.424218 -0.157189 0.950984 115 84 102 
0.257695 -0.124912 0.917573 136 112 128 
0.104139 -0.401358 0.899576 119 87 111 
-0.0513948 -0.253645 0.792291 105 60 67 
0.191157 0.0925503 0.727886 128 72 83 
0.24019 -0.0725616 0.876544 147 91 102 
0.229319 -0.124833 0.914011 116 93 111 
-0.0721707 -0.477735 0.868814 126 100 125 
-0.0413799 0.109929 0.585276 87 53 67 
-0.119685 -0.487453 0.858936 126 94 109 
-0.385632 -0.0126983 0.784665 125 117 140 
-0.118746 -0.149243 0.804934 114 63 72 
-0.301528 -0.467581 0.822123 120 101 121 
0.164574 -0.273943 0.909349 134 103 118 
-0.64407 -0.441538 0.644457 97 111 150 
0.109186 -0.302581 0.894765 116 90 117 
0.192012 0.160319 0.687112 174 126 152 
0.0109462 -0.20585 0.822093 52 29 37 
0.224151 -0.156724 0.912596 118 86 107 
-0.333819 -0.213076 0.803048 113 94 113 
-0.288956 -0.526586 0.827809 108 77 93 
0.101232 -0.175672 0.855563 65 32 39 
0.442244 0.165701 1.11135 153 174 219 
-0.0832092 -0.459292 0.86631 105 81 103 
0.164661 0.182725 0.635491 107 75 90 
0.220548 0.131552 0.817861 115 59 70 
-0.269914 -0.532498 0.830015 109 81 104 
0.0644349 -0.430524 0.892963 89 70 90 
-0.466691 -0.131639 0.774513 117 104 124 
0.234227 0.0318672 0.85543 157 110 126 
0.182115 0.174604 0.770204 121 88 99 
0.0821611 0.0209575 0.839624 110 59 66 
0.186351 0.151141 0.702863 122 89 118 
0.249238 0.0739099 0.841351 124 79 86 
0.253003 0.174335 0.866443 116 68 80 
-0.0699497 0.0453676 0.779628 134 76 91 
-0.0605516 -0.455853 0.871044 128 108 133 
-0.428674 -0.0434187 0.775367 114 99 120 
0.234676 -0.064859 0.896876 109 57 69 
0.0719385 0.14093 0.603618 101 75 102 
-0.39942 -0.422315 0.797607 127 103 116 
0.124483 0.000363369 0.847692 89 53 65 
-0.0584608 -0.430437 0.869532 136 115 134 
-0.0546959 -0.0755264 0.804152 111 65 76 
-0.359116 -0.230058 0.800572 84 57 74 
0.173514 0.114731 0.807265 85 49 53 
0.190741 -0.362854 0.915093 126 104 127 
0.348983 -0.182289 0.939279 132 109 127 
-0.454007 -0.61204 0.800537 145 117 139 
0.0760697 -0.387056 0.892713 112 93 121 
0.312119 -0.298972 0.935031 119 92 109 
0.0570092 0.0381184 0.802444 137 80 97 
-0.700249 -0.491635 0.640065 126 153 208 
0.323871 -0.344312 0.939795 101 76 95 
0.0385705 -0.41448 0.886163 128 102 129 
0.152124 -0.368282 0.909531 127 105 126 
0.192202 0.190066 0.716697 101 74 83 
-0.412369 -0.344948 0.79208 135 118 137 
0.249391 -0.0742364 0.914127 134 110 126 
-0.120891 -0.209605 0.790292 118 65 75 
-0.659055 -0.614457 0.603693 131 161 213 
-0.165836 -0.0813351 0.786268 86 53 70 
0.27725 -0.191332 0.925967 132 110 131 
-0.542834 -0.128191 0.726895 157 173 222 
0.417459 -0.185294 0.951673 136 117 137 
0.443622 -0.0873212 1.03381 64 78 117 
0.183768 0.128958 0.680945 118 90 113 
-0.0232138 -0.277505 0.778491 68 36 41 
0.0489486 0.0910042 0.595433 75 36 39 
-0.35904 -0.257813 0.801401 126 99 114 
0.198339 -0.317177 0.913772 129 101 123 
-0.245248 -0.547756 0.836156 130 102 124 
0.12849 -0.269727 0.897688 125 102 122 
0.120131 -0.242034 0.895559 108 74 88 
-0.355662 -0.239747 0.798918 113 87 100 
0.0731215 -0.250375 0.818352 111 63 75 
0.170217 -0.328923 0.908163 147 124 142 
0.259954 -0.15994 0.919614 128 111 129 
0.0567975 0.185699 0.59161 72 58 71 
0.443764 -0.327336 1.25461 147 164 207 
0.342466 0.118736 0.925905 100 82 106 
0.0742338 -0.433024 0.89699 99 80 99 
-0.31444 -0.421253 0.81685 100 79 96 
-0.0254465 0.0516488 0.775212 129 86 106 
0.331853 -0.140288 0.93396 122 95 110 
-0.460823 0.0743982 0.772937 121 103 125 
-0.522565 -0.544462 0.771638 157 173 224 
0.456471 0.211799 1.18833 111 108 125 
0.261492 0.0962418 0.816631 121 68 78 
-0.161354 -0.0715399 0.790697 110 60 71 
0.160224 -0.214118 0.892356 154 107 127 
0.400016 -0.281776 0.951821 131 106 128 
0.180465 0.066023 0.814535 146 99 117 
-0.326935 -0.241396 0.808143 118 91 106 
-0.341756 -0.495854 0.81409 128 101 120 
0.228466 0.0319186 0.876206 147 103 120 
0.0615528 -0.440462 0.893363 109 79 103 
-0.224705 0.0918304 0.987184 132 85 101 
0.198896 -0.120543 0.912233 136 106 118 
-0.683807 -0.60403 0.639376 116 137 194 
-0.464596 -0.48418 0.785572 176 192 241 
0.226422 -0.0339421 0.869274 101 58 65 
-0.537426 0.0894617 0.731187 30 50 83 
0.356949 -0.325682 0.944481 122 107 130 
-0.272337 -0.494054 0.833048 105 89 100 
-0.356155 -0.51487 0.811427 100 79 96 
-0.196636 0.028108 0.793888 125 74 91 
0.0809717 -0.360514 0.892292 119 90 108 
0.382147 0.171094 0.922491 114 114 138 
0.362877 0.171623 0.917965 126 120 146 
-0.361044 -0.033887 0.790374 124 101 117 
-0.634637 -0.442875 0.686368 134 117 133 
-0.617478 0.171378 0.635998 129 118 135 
0.22878 -0.039266 0.910631 90 79 95 
-0.294887 -0.31878 0.815706 122 94 108 
-0.513328 -0.593554 0.773713 167 183 235 
-0.338597 -0.464248 0.814718 124 106 122 
-0.391726 -0.586273 0.807819 109 80 98 
-0.527579 -0.579742 0.772027 141 148 200 
-0.016494 -0.208231 0.816242 51 28 34 
0.199313 0.100751 0.808966 53 27 28 
0.265077 -0.253811 0.925148 122 104 126 
-0.0704695 0.0900203 0.752537 98 60 75 
-0.468649 -0.0650051 0.76816 155 173 213 
0.162744 0.0849174 0.635922 117 67 78 
-0.535369 -0.488605 0.745894 162 178 229 
0.219338 0.0260843 0.891325 120 70 81 
0.159833 0.0799618 0.808604 141 88 104 
0.332881 -0.188622 0.920975 131 109 122 
0.0596372 -0.365719 0.889103 142 118 142 
-0.411457 -0.23239 0.786501 99 80 99 
0.0677296 0.0876742 0.779571 133 99 116 
-0.18751 -0.378162 0.841264 118 101 120 
0.293511 -0.128435 0.924245 120 95 116 
0.182282 0.141224 0.810208 109 68 82 
0.268785 0.0579157 0.912252 117 87 97 
-0.441361 -0.369438 0.78353 128 110 134 
0.179821 0.151626 0.73277 135 100 120 
0.426729 -0.167986 0.954297 111 82 100 
-0.546147 -0.492036 0.748773 161 177 229 
-0.447935 0.0651132 0.768085 88 80 104 
0.278542 0.183126 0.876616 111 92 112 
-0.483954 -0.522548 0.790441 166 181 236 
0.176777 -0.00460659 0.869145 120 68 80 
-0.26043 -0.534248 0.833688 130 103 118 
0.206674 0.0916411 0.807882 119 66 76 
-0.667813 -0.612837 0.628201 139 164 221 
0.433741 0.085373 0.952972 116 88 110 
0.206335 0.0769818 0.819315 139 95 110 
-0.346641 -0.225085 0.805592 121 98 108 
0.0548774 0.0203249 0.822384 139 83 92 
-0.396555 -0.119994 0.786655 128 109 129 
-0.361725 -0.523438 0.811001 102 83 105 
0.202056 -0.379309 0.917186 109 83 110 
0.0977471 -0.303775 0.893534 129 110 138 
0.0251116 -0.24939 0.811605 112 65 75 
0.427277 0.165186 0.992168 59 47 51 
0.268682 -0.0192286 0.922155 129 105 119 
-0.640729 -0.471731 0.724603 168 185 237 
-0.0713696 -0.446066 0.865064 124 102 125 
0.0777649 0.0112037 0.827732 105 73 96 
0.108483 0.148935 0.613469 113 75 96 
-0.396741 -0.0792944 0.78399 116 94 115 
-0.376051 -0.0445156 0.790728 109 97 119 
-0.104463 -0.489183 0.863492 121 96 117 
0.117741 -0.327007 0.897897 131 112 134 
-0.660252 -0.5316 0.601022 130 157 212 
0.141647 -0.361362 0.904897 119 90 110 
-0.400385 -0.188159 0.787361 130 108 129 
-0.401026 -0.572058 0.808066 115 84 102 
0.382306 -0.0527939 0.939243 100 83 101 
0.290805 -0.2912 0.930496 106 77 95 
0.455879 -0.288302 1.28107 49 63 90 
-0.00920459 0.0776786 0.779485 140 92 106 
0.145624 -0.167713 0.896846 115 86 104 
0.00429669 -0.0817923 0.810975 127 108 91 
-0.650249 -0.464883 0.61989 137 141 178 
0.442 0.16769 1.04982 157 172 215 
0.41251 -0.263261 0.952805 113 87 112 
0.39446 -0.196755 0.946798 101 81 106 
-0.399502 -0.597893 0.808297 113 84 106 
-0.186683 -0.413879 0.841188 104 75 93 
0.276603 0.196442 0.895471 122 98 112 
0.290418 -0.0878236 0.925597 104 79 100 
-0.16579 -0.0407577 0.800559 86 56 66 
0.0798738 -0.0996094 0.853228 56 25 30 
0.0911193 0.0481037 0.813018 151 89 104 
0.449321 -0.138404 1.27536 42 46 73 
0.187709 0.0982006 0.68001 126 78 90 
0.454837 0.20671 0.935714 71 75 87 
0.257547 0.176816 0.845142 128 85 102 
-0.336478 -0.199252 0.804052 114 99 122 
-0.253863 -0.37554 0.826013 116 93 111 
0.253569 -0.00727478 0.924013 120 93 108 
0.407179 0.117294 0.937105 107 77 87 
0.128649 -0.280939 0.869611 119 85 101 
0.257218 0.0970022 0.841705 120 66 80 
-0.573798 0.171443 0.668877 45 89 56 
0.258732 0.194449 0.832413 68 58 69 
-0.120411 -0.135366 0.802639 135 77 92 
0.157389 -0.164802 0.898735 126 95 113 
-0.442556 -0.520078 0.79494 134 111 127 
-4.26285 0.114544 4.12245 145 91 105 
0.41031 0.176945 0.92079 119 114 134 
0.159936 0.111389 0.64966 94 59 79 
0.220051 0.108353 0.817493 58 28 30 
0.186883 0.188571 0.746435 85 62 68 
0.353443 -0.125061 0.936831 136 108 122 
0.0118565 -0.395334 0.878976 58 39 45 
-0.642881 -0.587152 0.709899 113 120 162 
0.188169 0.100631 0.719782 116 69 77 
0.0975423 -0.343674 0.895174 142 110 123 
-0.296676 -0.44584 0.821594 105 80 102 
0.446443 0.173371 1.12622 150 146 169 
0.405222 -0.308304 0.955699 98 73 94 
-0.269838 -0.546127 0.83097 128 97 115 
-0.183566 0.0156748 0.796765 94 50 63 
0.452679 0.184903 1.08894 152 147 170 
-0.047225 -0.12386 0.791247 109 58 67 
-0.364279 0.00184108 0.784842 101 82 102 
-0.626236 0.173769 0.642236 126 113 131 
-0.0936981 0.0860498 0.757167 139 92 112 
-0.531721 0.0612677 0.732981 39 46 64 
0.0740122 -0.0758431 0.829399 125 72 82 
0.45505 0.191678 1.13397 121 118 137 
0.186519 0.171352 0.746673 108 66 78 
0.431525 -0.179371 0.960551 110 85 104 
-0.344036 -0.0853871 0.794342 106 92 109 
-0.361012 -0.290142 0.802294 116 93 111 
-0.421668 -0.539669 0.797509 132 109 129 
0.17105 0.123472 0.781665 123 79 96 
0.152672 0.103784 0.686586 71 30 36 
-0.258038 -0.192608 0.817846 126 102 115 
0.0245224 -0.0206349 0.810718 134 117 97 
0.444362 0.174597 1.16504 134 138 173 
0.44481 -0.354231 1.28343 87 96 139 
0.0987586 0.187584 0.599262 96 95 109 
0.439884 -0.177646 1.03403 72 76 103 
-0.103915 -0.466159 0.860955 101 76 97 
0.0987077 0.129164 0.616136 131 84 104 
0.425028 -0.114031 0.995586 52 37 44 
0.169953 -0.111864 0.85096 88 51 58 
0.452157 0.196832 0.925761 115 107 118 
0.0169051 -0.157071 0.821563 106 60 70 
-0.38 0.181922 0.578822 50 72 51 
-0.330329 -0.57167 0.823388 103 78 99 
-0.355716 -0.00704722 0.790747 112 94 110 
-0.00842444 0.100991 0.592178 71 40 46 
0.095212 0.078766 0.79654 150 99 116 
-0.197724 -0.00685665 0.789982 105 57 69 
-0.0326719 -0.143888 0.803949 114 62 74 
0.162299 0.161378 0.643046 138 99 117 
0.342915 -0.321974 0.941474 128 114 140 
0.0174714 0.0851467 0.60961 100 54 64 
0.269592 0.132961 0.925291 87 67 94 
0.332142 -0.155712 0.933115 114 82 103 
0.209432 0.103671 0.812931 97 56 62 
0.448614 -0.211797 1.27519 65 69 104 
0.401917 -0.140441 0.947787 123 98 119 
0.206012 -0.195298 0.910898 123 93 117 
-0.154333 -0.0653869 0.802829 93 59 73 
-0.0608472 -0.267985 0.784548 35 19 20 
0.242953 0.074626 0.866237 130 89 105 
0.124273 0.160429 0.611882 105 80 101 
0.181182 -0.354378 0.913227 129 107 128 
-0.17952 0.0749151 0.742867 89 63 72 
-0.370837 -0.515683 0.81016 96 81 100 
0.395779 -0.000528838 0.939737 114 89 108 
0.454296 0.201415 1.07838 123 126 143 
-0.530641 0.076213 0.749477 113 122 165 
0.181804 0.154778 0.721563 148 108 132 
-0.632745 -0.445485 0.659509 117 89 104 
0.374282 -0.093161 0.939787 123 100 120 
0.195719 0.122555 0.813882 99 70 90 
-0.167428 0.0822832 0.746392 131 80 95 
-0.176819 -0.383387 0.841205 121 103 127 
0.21765 0.0771041 0.822459 120 86 111 
-0.539324 -0.113254 0.746021 44 55 73 
-0.417892 -0.51739 0.799509 103 93 117 
0.449021 -0.187007 1.27522 54 59 89 
-0.0251108 0.164214 0.576278 84 46 59 
0.455326 0.185788 1.11914 149 141 165 
-0.115347 -0.0247614 0.799845 109 56 62 
0.0492221 -0.351461 0.885518 137 108 130 
0.19528 0.190808 0.706404 112 88 104 
0.166084 -0.394912 0.91201 118 86 107 
0.13679 -0.00532722 0.860415 137 83 96 
-0.641488 -0.445992 0.661542 136 115 132 
-0.923942 0.388987 1.12533 112 74 89 
-0.0240801 0.0640929 0.774952 145 97 113 
-0.404656 -0.487797 0.804036 123 104 124 
0.0382465 -0.343977 0.827239 138 85 103 
-0.467048 -0.253136 0.780262 120 105 134 
-0.0459512 -0.471599 0.872987 125 100 119 
0.087694 -0.150607 0.855829 88 44 57 
0.0164058 0.0360931 0.850545 150 96 110 
-0.335781 -0.438177 0.820072 112 90 103 
-0.255183 -0.418947 0.828101 117 92 114 
0.426669 0.122884 0.964778 101 91 116 
0.316358 -0.0636954 0.926784 125 101 117 
-0.640206 -0.455264 0.683373 132 117 138 
0.450082 -0.264804 1.27845 42 49 75 
0.180317 0.119407 0.725772 103 79 101 
0.0480897 0.0355344 0.833417 148 94 107 
-0.325787 0.0892409 0.95962 125 77 93 
0.0921875 -0.0279743 0.848122 123 65 77 
0.43289 -0.0537877 0.957514 99 71 93 
0.444856 0.0303987 1.26384 125 140 181 
-0.0384971 0.142631 0.586417 82 55 74 
0.189653 -0.147607 0.905706 120 88 101 
-0.642084 -0.6344 0.713709 114 124 175 
-0.291337 0.18379 0.573485 61 73 73 
-0.0289712 -0.223404 0.797438 78 41 49 
-0.354768 0.184671 0.634049 67 91 75 
0.244349 0.0612659 0.864551 117 72 79 
0.0818543 -0.229894 0.826973 98 55 64 
-0.493285 -0.118377 0.751831 157 174 220 
-0.638614 -0.448587 0.575229 129 106 122 
0.260646 0.194913 0.765327 60 70 71 
0.188261 0.100634 0.839838 120 64 73 
-0.011152 0.0948358 0.703849 143 122 153 
0.384988 0.174687 0.918633 122 117 137 
0.113083 0.0884227 0.607968 123 67 80 
-0.197449 -0.0377542 0.774299 79 48 54 
0.42736 0.142138 0.93899 100 78 91 
0.0424072 -0.358939 0.884073 129 101 124 
0.185862 0.156974 0.711036 135 87 109 
0.124123 0.0910085 0.680444 123 69 82 
0.127149 0.096417 0.614046 104 64 73 
-0.164524 -0.488866 0.853243 122 98 114 
0.237299 -0.34955 0.922453 130 102 124 
0.424632 -0.307238 0.99885 95 78 97 
-0.63047 -0.43044 0.658841 162 178 229 
0.353892 -0.0685008 0.933949 117 89 104 
-0.0158764 -0.155352 0.863487 52 22 22 
0.108102 0.0818142 0.878879 78 45 62 
0.0183847 0.00143738 0.790327 59 36 44 
0.134692 0.0562509 0.741287 85 43 57 
-0.229993 -0.223843 0.824581 141 118 138 
0.209924 0.0562418 0.753826 69 37 52 
-0.326147 -0.0861787 0.799731 113 91 103 
0.126148 -0.0268715 0.84475 95 44 61 
0.0728979 0.0900583 0.969575 92 58 72 
0.227484 0.0739924 0.824351 106 73 90 
0.136266 0.0765305 0.805625 100 67 84 
0.287696 0.0587312 0.917455 131 107 123 
-0.238297 -0.145565 0.820396 92 60 73 
-0.136006 -0.116237 0.806323 61 26 30 
0.170947 0.0740418 0.745423 75 49 62 
0.163444 0.0651595 0.892285 148 101 119 
-0.208324 0.0529913 0.73638 47 30 40 
0.187785 0.0603721 0.7677 115 77 98 
-0.100191 0.0776364 0.835615 149 102 118 
-0.25686 -0.235501 0.820381 131 105 118 
-0.290305 -0.0402824 0.806193 104 90 115 
-0.219133 -0.227794 0.828517 78 61 71 
-0.0138001 0.0895344 0.673587 93 124 179 
0.225468 0.0616128 0.823208 103 76 93 
0.315344 -0.170345 0.932431 75 57 79 
0.136754 0.0739241 0.886231 138 89 108 
-0.00670752 0.16534 0.581074 79 43 53 
0.0384933 0.167817 0.625883 116 77 95 
-0.2206 -0.240857 0.829489 81 59 71 
-0.424449 -0.113724 0.780934 76 63 80 
-0.253047 -0.280325 0.823724 102 78 94 
-0.193838 -0.176748 0.831508 95 67 79 
0.0466184 0.0898359 0.775639 63 52 60 
-0.0679319 0.119927 0.796798 113 57 68 
-0.0385002 0.0464473 0.745393 150 105 125 
-0.0086415 0.094657 0.763689 92 62 70 
0.0576388 0.166481 0.593633 79 47 58 
-0.107563 0.108137 1.05291 113 75 98 
0.174946 0.0283736 0.702907 110 58 70 
0.0352544 0.0872258 0.770422 138 104 121 
0.113061 0.0478186 0.593929 130 92 117 
0.122897 0.0546795 0.894568 158 122 148 
0.240327 0.179158 0.836709 105 60 67 
-0.18634 0.11171 1.19671 154 105 124 
-0.304779 -0.0267153 0.800596 109 90 110 
0.172652 0.0500846 0.848961 106 69 87 
0.0364694 0.0657634 0.720306 141 93 109 
0.085248 0.168239 0.598647 126 85 99 
-0.187194 -0.282104 0.8371 137 105 120 
0.138963 0.18363 0.608755 94 63 78 
0.0719156 0.0524721 0.673418 116 84 108 
-0.0271091 0.0994883 0.726991 173 133 157 
0.0456854 0.18412 0.589788 131 88 108 
-0.0501768 0.095479 0.755701 98 65 76 
-0.0402894 0.180643 0.572798 93 63 73 
0.146525 -0.135875 0.845701 151 100 117 
0.0367125 0.094842 0.681785 114 64 76 
-0.361337 -0.177758 0.795712 104 84 109 
0.260084 -0.316651 0.926022 119 91 113 
-0.175678 0.0406494 0.780931 139 82 97 
0.307379 -0.160587 0.929149 135 119 146 
0.243697 0.0902844 0.824874 168 120 136 
-0.217249 -0.152174 0.824795 126 102 118 
-0.207415 0.0382947 0.757882 163 106 125 
0.349169 -0.149159 0.936562 138 115 135 
0.220249 0.0522163 0.822784 137 89 111 
0.215114 0.0897942 0.818894 177 129 151 
-0.238959 -0.209776 0.821461 115 83 96 
0.146762 0.0726986 0.742275 154 101 119 
-0.19875 -0.282105 0.834276 124 92 105 
0.109579 0.160568 0.610624 128 89 110 
0.227654 0.0407612 0.832303 174 119 138 
0.283887 -0.033264 0.919202 121 96 115 
-0.00519954 0.100354 0.714654 115 64 73 
-0.0150602 0.154725 0.701235 137 92 112 
0.273141 -0.289249 0.927229 144 125 147 
-0.17691 -0.275615 0.838142 136 112 128 
0.351926 -0.0284753 0.931412 96 73 93 
-0.0224471 0.175787 0.578013 122 71 86 
0.150122 0.0315942 0.851598 166 113 133 
0.0301425 0.1026 0.689556 124 71 81 
0.169999 0.0795128 0.813131 130 91 110 
-0.363869 0.0477114 0.78466 156 173 242 
-0.44208 0.039721 0.825366 25 32 61 
-0.0269822 -0.407809 0.860755 41 22 41 
-0.45825 0.186249 0.726621 159 181 220 
0.000936548 -0.0999258 0.811855 70 34 36 
-0.0102439 -0.395208 0.864525 29 20 25 
0.0963978 -0.21096 0.839027 27 15 17 
-0.0465616 -0.34315 0.798284 53 30 36 
-0.373379 0.05411 0.783485 14 20 34 
-0.541472 0.15586 0.740458 18 30 46 
0.0106449 -0.296274 0.796715 144 100 117 
0.0885473 -0.311299 0.833126 74 25 28 
-0.643933 -0.465853 0.671508 176 195 237 
0.452761 0.143026 1.01971 152 176 214 
-0.130907 -0.204275 0.778558 58 24 25 
0.0187646 -0.115604 0.818812 35 16 18 
0.0133602 -0.104229 0.822636 46 20 21 
-0.363769 -0.0826045 0.791684 45 33 47 
0.0856005 -0.204442 0.813986 124 70 93 
-0.46556 0.184885 0.709203 120 132 144 
0.135897 -0.26676 0.823029 53 28 34 
-0.541189 0.144038 0.734211 24 32 51 
0.0272357 -0.344994 0.819538 71 24 30 
-0.539884 0.156548 0.727316 21 37 60 
-0.270473 0.118458 1.24699 66 36 46 
0.00801186 -0.00766232 0.784109 97 79 59 
-0.51983 0.177481 0.73669 117 103 128 
-0.531772 0.152279 0.740464 71 78 107 
0.00477441 -0.180773 0.817655 66 31 29 
-0.159995 -0.0017066 0.799794 60 21 24 
-0.102073 -0.235844 0.797214 63 30 37 
0.0503981 -0.320436 0.82654 79 33 44 
0.078664 -0.300482 0.829394 148 91 110 
0.098925 0.0471148 0.831678 73 53 62 
0.0515477 0.00139034 0.82207 69 34 41 
-0.5373 -0.0601579 0.745012 39 47 66 
0.442026 -0.30503 1.04336 56 60 97 
0.0907345 -0.0180815 0.852001 57 24 31 
0.156037 0.0137981 0.863518 68 38 48 
-0.113217 -0.0607853 0.812716 63 40 50 
-0.538677 0.128551 0.730242 37 49 71 
0.126717 0.0605757 0.805032 66 53 60 
-0.183692 -0.0104853 0.796663 57 30 37 
0.137955 -0.132561 0.849757 57 25 26 
-0.110026 -0.0189218 0.8111 43 22 27 
0.185836 -0.00847926 0.871183 59 28 34 
0.036518 -0.291943 0.806059 59 33 42 
-0.045216 -0.195104 0.791285 81 39 43 
0.0370988 -0.113708 0.812609 98 62 72 
0.0162305 -0.385506 0.868183 41 30 38 
-0.000481143 -0.0692173 0.802038 192 181 161 
-0.221639 0.056464 0.734708 38 27 35 
0.463411 0.199325 0.962414 62 53 56 
-0.337108 0.0385784 0.793265 117 104 124 
-0.377855 0.0674223 0.78209 130 116 141 
-0.136443 -0.219453 0.789863 83 32 41 
-0.0297312 -0.113855 0.792262 105 67 80 
0.462946 -0.138116 1.04969 161 178 221 
-0.507818 0.181926 0.709087 81 84 99 
-0.214622 -0.342949 0.834284 79 62 72 
-0.244115 -0.369769 0.828227 73 51 63 
-0.472533 -0.0976046 0.789783 103 82 115 
0.0343892 -0.267431 0.794266 44 24 25 
0.137741 -0.152167 0.853137 132 78 91 
0.429782 -0.173784 1.02407 103 113 149 
-0.0104389 -0.0924462 0.815757 113 92 71 
0.209078 -0.277309 0.915602 75 56 76 
0.0105714 -0.268885 0.791898 46 21 24 
0.240314 0.132035 0.820936 69 43 56 
-0.21419 -0.16767 0.827029 144 120 136 
-0.172511 0.0442353 0.769223 64 41 47 
-0.305109 -0.277274 0.814465 93 75 87 
0.0767849 -0.244701 0.812917 114 68 79 
0.0638751 -0.00108277 0.825198 97 44 50 
-0.413664 -0.368144 0.792617 60 46 61 
-0.131433 -0.132177 0.796519 57 25 26 
0.117562 -0.0762892 0.858592 63 31 42 
-0.146996 -0.0194763 0.805105 53 23 31 
-0.166429 0.0124041 0.800059 68 36 47 
0.0385582 -0.241965 0.810248 129 76 96 
-0.54886 0.172926 0.714585 115 106 125 
0.0603346 0.0953609 0.777317 56 43 52 
-0.0547803 -0.00510608 0.801633 150 94 107 
-0.0649477 -0.231502 0.787511 114 66 80 
-0.324051 -0.313783 0.809985 79 58 67 
-0.117214 -0.417838 0.856812 73 61 83 
-0.335685 -0.0705834 0.796971 76 57 63 
-0.467403 -0.0195881 0.770718 106 89 108 
0.130168 -0.322185 0.900793 92 63 83 
0.176681 0.128036 0.750743 105 54 73 
0.209524 0.0660289 0.821503 68 52 62 
-0.618161 0.178439 0.656027 35 65 39 
-0.203697 -0.0648504 0.757707 62 23 28 
0.436535 -0.297511 1.03493 83 89 121 
0.179439 0.1312 0.808148 54 39 42 
-0.164787 -0.372681 0.845399 91 64 81 
0.313843 0.038054 0.922825 54 39 58 
-0.361221 -0.31618 0.803288 92 66 75 
-0.0127595 -0.270939 0.783542 49 24 28 
-0.000705572 -0.0261096 0.790451 90 49 55 
-0.0163376 -0.287821 0.791462 128 73 92 
-0.444485 -0.263184 0.779849 97 72 93 
0.233425 -0.0621232 0.852964 135 85 97 
0.160687 -0.206253 0.843424 152 99 119 
-0.266605 -0.413605 0.825369 85 64 79 
0.0119818 -0.170005 0.820654 72 32 40 
0.179548 -0.258997 0.910236 137 114 132 
-0.0438308 -0.0524636 0.803291 111 66 73 
0.0800084 -0.108986 0.82589 45 19 20 
0.0535427 -0.128142 0.82685 119 63 74 
0.331456 0.0516266 0.63229 128 80 92 
-0.347874 -0.161809 0.801878 118 99 119 
0.177572 0.114665 0.741913 84 53 69 
-0.183149 -0.241359 0.836027 81 59 72 
-0.370282 0.0765101 0.784974 130 120 145 
-0.397035 -0.378877 0.799225 86 64 85 
0.0362762 -0.302231 0.801938 54 25 30 
-0.0228296 -0.397418 0.869151 64 45 64 
0.023139 -0.179559 0.821914 60 28 39 
0.435153 0.151997 1.02055 66 77 105 
-0.583644 0.177262 0.649022 26 52 27 
-0.531309 0.122767 0.740684 99 112 154 
0.0782157 -0.212252 0.813463 74 34 42 
0.0810857 -0.127215 0.828983 128 71 80 
-0.351437 -0.08596 0.804154 58 45 63 
-0.345072 -0.348492 0.809848 76 69 87 
-0.555255 0.174871 0.666111 41 83 47 
-0.355997 0.0402379 0.796815 107 90 106 
-0.541074 -0.00508167 0.734655 129 151 192 
0.44317 0.0221681 1.02926 60 62 100 
-0.241112 -0.112575 0.816912 127 114 140 
-0.659211 -0.461915 0.685801 135 120 139 
0.450197 0.128706 1.01894 111 134 168 
-0.334465 -0.0475838 0.79593 70 54 65 
-0.00190663 -0.297168 0.795205 59 30 35 
-0.332036 -0.14315 0.804133 128 109 129 
-0.21874 0.084112 0.738019 72 53 57 
0.271054 0.150649 0.909205 53 40 47 
-0.536816 0.117379 0.733897 45 51 73 
0.0010031 -0.389858 0.877409 33 20 30 
0.218302 -0.0500231 0.846532 109 62 70 
-0.289937 0.18684 0.645225 43 65 53 
-0.424822 -0.0220124 0.777138 84 74 98 
-0.18527 0.0331083 0.764001 152 98 112 
0.462648 0.025334 1.0499 132 142 191 
-0.195039 -0.256009 0.833137 106 83 103 
-0.741336 0.0779847 1.07036 51 34 40 
0.448548 0.0151247 1.04001 161 179 225 
-0.318166 0.0271318 0.796742 43 29 44 
0.237243 0.146086 0.820836 124 78 89 
-0.122905 -0.0884223 0.813914 45 21 21 
-0.532655 -0.510591 0.775902 162 176 225 
0.4383 0.136401 1.02493 90 101 133 
-0.315159 0.0146352 0.79901 101 88 108 
-0.457126 -0.332553 0.779184 123 105 129 
-0.468712 -0.298876 0.794866 118 103 134 
0.127476 0.0898001 0.792127 91 57 71 
-0.539445 0.172873 0.661171 44 86 50 
-0.307649 -0.238996 0.810055 112 98 113 
-0.0227614 -0.169672 0.813493 121 73 85 
0.197023 0.181185 0.712097 142 100 120 
-0.114244 -0.0798193 0.812752 113 63 72 
0.108094 -0.0681795 0.856141 128 75 91 
-0.357181 0.0737013 0.787107 112 100 124 
-0.397602 -0.310376 0.796739 133 109 123 
-0.544855 0.181478 0.659056 21 50 30 
-0.505076 0.0892998 1.15773 95 67 82 
-0.0352408 0.0587498 0.770075 86 59 74 
0.341412 -0.023032 0.930799 84 63 82 
0.457686 0.00764455 1.03151 160 174 219 
-0.183328 0.0877235 0.727245 78 46 61 
-0.630308 0.165112 0.722569 112 96 122 
-0.257255 -0.224215 0.819537 132 111 130 
-0.525817 0.179424 0.728482 43 40 47 
-0.370218 -0.312881 0.803565 124 115 136 
-0.114278 -0.101813 0.807623 108 64 77 
-0.311309 -0.250086 0.811441 80 62 78 
-0.204652 0.0752163 0.736868 128 87 101 
0.230382 0.126494 0.820395 122 74 88 
-0.113897 -0.155236 0.81273 72 29 36 
-0.348449 -0.31473 0.805525 87 65 78 
-0.434996 -0.263386 0.783349 143 115 130 
-2.87654 0.298671 3.04358 144 101 121 
-0.178828 -0.367905 0.841054 132 107 129 
-0.0231988 -0.157439 0.812296 133 80 98 
-0.282012 -0.376895 0.819863 99 71 86 
-0.416243 -0.207009 0.786791 92 70 83 
0.443774 0.0607263 1.02673 64 77 111 
0.148377 0.0873732 0.775168 101 58 75 
-0.590162 0.172104 0.65646 35 75 41 
-0.101767 0.0511691 0.758495 135 90 110 
0.253369 0.163105 0.905737 55 51 66 
0.267037 -0.0307932 0.91677 94 76 90 
-0.511089 -0.425873 0.767474 161 177 229 
-0.145435 -0.36928 0.848546 129 111 133 
-0.473914 -0.0945826 0.769963 163 175 223 
-0.387682 -0.216542 0.791039 104 87 103 
-0.378804 0.0181461 0.809997 89 82 100 
-0.469865 -0.358439 0.778228 165 181 233 
-0.310319 -0.382866 0.81443 134 106 121 
0.108074 -0.242161 0.893425 90 59 67 
-0.349845 -0.00176273 0.804611 122 98 112 
-0.392744 -0.389465 0.800501 130 113 131 
-0.529611 0.134597 0.739551 86 92 128 
0.346426 0.192426 0.908679 123 109 124 
-0.458055 0.0648218 0.767155 102 90 112 
0.439016 0.125005 1.02661 93 108 141 
0.334894 0.0114274 0.927952 82 63 85 
-0.254554 -0.199208 0.812294 128 103 124 
0.0969934 -0.37255 0.899042 98 75 95 
-0.530001 0.158419 0.747961 111 122 154 
-0.192966 -0.0188116 0.793123 66 37 42 
-0.212138 -0.0354603 0.772631 57 31 42 
0.161724 -0.0568575 0.863357 117 69 81 
0.186201 0.168361 0.831044 140 95 116 
-0.509834 -0.0844454 0.756123 154 171 217 
0.130254 -0.266517 0.896886 127 99 121 
-0.265579 -0.242886 0.818106 88 70 84 
-0.120954 0.0957828 0.726362 87 58 76 
-0.298409 -0.160058 0.808978 102 74 96 
-0.352138 -0.166178 0.797994 121 97 119 
-0.229358 -0.338817 0.831656 124 99 121 
-0.31372 -0.196467 0.804981 89 66 82 
0.215609 0.0482644 0.616621 138 90 112 
0.161192 0.0526185 0.811129 144 95 114 
-0.0361504 -0.291867 0.78604 82 39 46 
-0.0960354 -0.396178 0.86043 92 73 95 
-0.257818 -0.116494 0.81431 88 61 76 
-0.435288 0.182282 0.640488 34 57 41 
-0.415869 0.0311547 0.783825 127 109 133 
-0.311111 -0.0498885 0.801194 115 101 118 
0.0626392 -0.0940782 0.822066 91 62 80 
-0.059913 -0.267693 0.773127 80 49 54 
-0.0678773 -0.394858 0.865174 71 52 72 
0.191617 0.173779 0.820267 153 108 131 
0.235667 0.0708083 0.905576 123 107 136 
-0.46594 -0.281997 0.777036 166 182 233 
-0.427295 -0.0851029 0.779609 88 70 96 
-0.666821 -0.508104 0.680061 184 192 241 
-0.374079 -0.245236 0.797437 125 95 105 
-0.192354 -0.395793 0.852818 124 108 134 
-0.207893 -0.334162 0.833696 138 114 130 
-0.551979 0.0060502 0.725123 154 171 215 
0.178038 -0.0310487 0.866534 101 55 58 
0.0470397 0.185648 0.566903 91 106 171 
-0.670997 -0.474732 0.671226 114 117 172 
-0.379063 0.0835883 0.783445 93 88 111 
0.26263 0.116006 0.927186 89 67 80 
0.242477 0.185134 0.812755 129 82 102 
-0.322262 -0.113423 0.802973 124 107 126 
-0.243043 -0.314064 0.82756 77 64 81 
-0.0499506 -0.0157106 0.803936 68 29 34 
-0.43513 0.0351125 0.77331 95 82 108 
-0.38624 0.0939587 0.779332 118 107 137 
-0.472222 0.185453 0.741504 72 66 78 
0.214273 0.00122239 0.860836 101 55 66 
-0.221162 -0.290291 0.829173 112 83 101 
-0.457514 0.00376423 0.774331 112 102 129 
-0.468897 -0.262138 0.774145 166 183 235 
-0.249568 -0.130827 0.817795 128 101 116 
-0.286474 -0.228801 0.813888 72 49 55 
0.439853 0.0699071 1.02462 108 121 156 
-0.325002 -0.230879 0.806389 78 55 63 
-0.399971 -0.323162 0.793139 97 72 91 
-0.426621 -0.366036 0.786634 129 105 131 
-0.363234 -0.0972592 0.792698 93 74 93 
-0.447318 -0.049207 0.772463 106 87 107 
-0.113308 -0.133534 0.811142 108 67 83 
0.16454 -0.19172 0.911869 134 110 124 
-0.0178426 -0.262498 0.795354 80 45 49 
0.221576 -0.0293823 0.90737 58 42 53 
0.353509 -0.105183 0.935485 127 112 133 
-0.432529 -0.217243 0.782692 77 64 84 
0.193915 -0.3308 0.913602 123 99 115 
-0.278714 -0.335808 0.819953 126 97 115 
0.0874363 -0.336197 0.893346 131 107 133 
-0.529788 0.161548 0.742339 48 49 77 
0.263882 0.19767 0.893083 82 70 82 
-0.361267 -0.139658 0.793165 120 94 123 
-0.351992 -0.0405021 0.79364 119 98 115 
-0.0474309 -0.211226 0.787515 123 76 92 
0.17643 0.0902489 0.794147 122 66 79 
0.187 -0.137636 0.904368 162 137 158 
0.431355 -0.207634 0.955822 122 103 123 
-0.3874 -0.129988 0.787815 102 75 90 
0.0803612 -0.182159 0.810043 152 98 114 
-0.530741 0.0143888 0.725692 144 161 204 
-0.234165 -0.321577 0.828275 125 98 117 
-0.530481 0.167016 0.727662 35 54 84 
-0.614113 0.171832 0.647726 126 115 132 
-0.666026 -0.46393 0.671149 134 122 136 
0.459882 0.211599 0.94752 40 44 56 
0.339753 0.194766 0.720666 95 102 121 
0.0612979 -0.113095 0.81126 114 76 91 
-0.0358284 -0.261633 0.792138 80 45 49 
0.384167 -0.248691 0.947406 94 82 106 
0.00385625 -0.199107 0.819863 79 39 47 
-0.256486 -0.10446 0.813855 96 69 76 
-2.8164 0.345946 3.62102 132 89 108 
-0.0790253 -0.193328 0.794788 73 34 37 
0.389247 0.205053 0.910581 89 92 99 
-0.528598 -0.275936 0.763313 149 161 211 
0.0301564 0.0864631 0.784236 97 70 77 
-0.304982 0.00244885 0.797516 100 81 100 
-0.22308 -0.19057 0.82469 117 89 101 
0.424614 -0.256102 0.955278 98 72 99 
-0.333089 0.187236 0.67855 46 69 51 
-0.36071 -0.0489604 0.792267 118 95 115 
0.186671 -0.301473 0.910526 130 108 129 
0.142558 -0.328093 0.901209 120 97 123 
0.204151 -0.154459 0.908815 131 114 132 
0.108072 -0.16828 0.857057 72 41 47 
-0.0455677 0.0312956 0.788291 128 70 84 
-0.368768 -0.277804 0.801974 120 112 135 
-0.0124515 -0.237693 0.798847 75 45 55 
-0.0183772 0.0861772 0.776868 121 79 93 
-0.370311 -0.107692 0.790446 111 96 119 
-0.0349157 -0.084024 0.805654 117 66 75 
0.17852 -0.0519655 0.855977 84 39 42 
-0.37784 0.0115277 0.786776 102 83 102 
-0.424038 0.0934806 0.771584 118 108 133 
0.277267 0.0646893 0.913282 104 79 100 
-0.120417 -0.0548994 0.809875 112 65 73 
0.283995 -0.198428 0.955681 132 108 124 
-0.120221 -0.00397112 0.807713 105 57 69 
0.131347 0.0185079 0.859374 110 59 74 
0.443652 0.0981248 1.0251 66 76 111 
-0.413608 0.0433951 0.775943 127 117 141 
0.00957757 -0.291412 0.815948 71 41 51 
-0.192504 0.0809989 0.739696 129 81 93 
-0.0447455 -0.0238894 0.804694 127 74 84 
-0.437054 0.0180026 0.773432 91 79 101 
-0.422895 -0.0336599 0.777023 96 87 108 
-0.244382 -0.398441 0.830303 95 77 93 
0.0452884 -0.2521 0.813221 76 40 50 
-0.200076 -0.355264 0.83588 127 105 126 
-0.298935 -0.181766 0.809433 106 75 90 
0.146669 0.135746 0.625489 146 98 120 
0.0754653 0.178242 0.592257 120 77 96 
-0.39354 -0.146678 0.788425 118 96 117 
-0.435572 -0.0149948 0.773757 102 89 107 
-0.0446502 0.020129 0.80248 124 71 81 
-0.0663993 0.026472 0.797706 135 81 95 
