ply                 
format ascii 1.0    
element vertex 1199
property float x    
property float y    
property float z    
property uchar red  
property uchar green
property uchar blue 
end_header          
-0.217243 -0.513817 0.841146 91 74 93 
0.179464 0.173386 0.780775 79 50 55 
0.457888 0.199575 1.18604 99 93 121 
-0.0224054 -0.117397 0.803066 54 26 25 
-0.00605144 -0.0601648 0.80137 118 95 77 
0.335942 0.0225112 0.926083 98 70 84 
0.0175196 0.0909464 0.76908 60 47 57 
0.0851091 -0.125707 0.853395 111 60 69 
0.126388 -0.27834 0.898822 124 114 139 
0.492766 0.213755 1.00688 90 106 129 
-0.327785 -0.442849 0.814712 100 73 88 
0.348502 -0.262669 0.94118 101 77 99 
0.0385764 0.0156835 0.814128 63 30 37 
0.0358205 -0.133115 0.823578 90 54 56 
0.441005 -0.262073 1.03623 70 73 104 
-0.154803 -0.4181 0.848635 110 86 108 
0.185165 0.162408 0.676552 126 88 109 
0.164736 0.16793 0.635898 112 62 74 
-0.348343 -0.254605 0.803119 99 71 86 
-0.62637 0.169781 0.58405 130 122 137 
0.214081 -0.322717 0.91713 124 95 115 
0.177833 -0.306612 0.909223 132 118 143 
-0.645198 -0.546508 0.709556 108 119 164 
0.253743 0.0403727 0.91043 142 118 131 
0.431513 -0.218495 0.961406 128 109 129 
0.245412 0.103577 0.906112 113 87 100 
0.0918154 0.120389 0.610739 126 83 102 
0.421112 -0.175854 0.951857 134 119 142 
0.309974 -0.311327 0.937436 95 81 106 
0.0761281 -0.0986213 0.824605 109 60 64 
-0.468087 -0.116777 0.770424 157 178 221 
0.400496 -0.0772108 0.944247 137 113 135 
-0.0863382 -0.486554 0.864559 125 103 126 
-0.285789 -0.206952 0.814178 84 58 71 
-0.418238 0.0139031 0.775189 115 105 130 
-0.464242 -0.582099 0.793579 117 121 158 
0.33422 -0.308584 0.9431 119 110 137 
-0.344702 -0.520003 0.813371 122 105 123 
-0.124934 -0.411763 0.853619 134 116 138 
0.127063 -0.266921 0.853959 48 24 24 
0.320257 -0.285657 0.93651 120 88 111 
0.0431314 0.148815 0.601686 89 64 85 
0.459279 -0.311915 1.28099 51 68 98 
-0.345221 -0.424866 0.810399 88 67 84 
-0.166214 -0.43311 0.848766 88 60 83 
-0.284473 -0.461865 0.826229 131 114 133 
0.182329 0.0898399 0.758318 116 62 75 
-0.342067 0.00161442 0.797096 119 95 109 
0.407291 0.131743 0.936917 105 81 95 
-0.202577 -0.484101 0.843373 131 114 132 
0.249952 0.0839968 0.907948 127 109 125 
0.184395 0.120758 0.712661 134 87 107 
0.00769047 0.109465 0.593502 105 63 75 
0.133962 -0.344654 0.90242 137 109 131 
-0.159041 -0.0530854 0.798909 113 60 70 
0.29714 -0.105955 0.925105 134 116 138 
-0.142284 -0.515014 0.85718 91 78 98 
-0.345206 -0.334189 0.805931 103 78 97 
0.372636 0.0475888 0.932945 118 94 107 
0.441769 -0.147791 1.0346 75 86 114 
-0.172646 -0.51057 0.848585 124 106 130 
-0.404131 -0.141372 0.78426 110 93 111 
-0.317653 -0.130459 0.802793 132 113 135 
-0.382302 -0.254816 0.795176 128 111 130 
-0.370888 -0.37797 0.801915 127 104 120 
-0.02021 -0.0864926 0.81212 95 56 57 
0.270036 0.114597 0.916428 92 68 82 
0.0663752 -0.324819 0.888715 144 117 132 
-0.171205 -0.402546 0.84455 121 97 119 
0.156661 0.129959 0.6397 156 111 132 
-0.402388 -0.217388 0.789142 100 75 96 
0.456521 0.214464 1.16562 104 100 115 
-0.214494 -0.455098 0.838919 131 106 125 
0.453617 0.18023 0.952234 105 96 117 
0.185583 0.18944 0.666213 119 90 110 
-0.429346 -0.328682 0.790973 140 121 140 
-0.40514 -0.467566 0.801702 102 79 95 
-0.467323 -0.211712 0.773921 168 186 234 
0.24231 0.116383 0.905683 65 45 56 
0.228497 0.0353417 0.886858 115 61 75 
-0.165534 -0.0601275 0.790911 105 55 66 
0.191441 0.17126 0.720622 103 66 84 
0.431154 -0.0116264 0.948342 91 73 99 
-0.376743 0.183883 0.629753 43 66 50 
0.243938 0.167771 0.818206 127 79 101 
-0.388254 -0.535926 0.806078 132 113 133 
0.430572 -0.037794 0.955489 123 101 124 
0.162049 -0.188503 0.862111 98 55 62 
0.262565 -0.0553605 0.915539 104 77 92 
-0.387933 -0.597995 0.810061 111 78 99 
0.414567 -0.228018 0.951787 136 117 137 
0.178462 -0.223706 0.906327 130 103 120 
-0.55093 0.170946 0.589231 60 76 66 
0.180713 0.170947 0.659416 152 108 123 
0.1397 -0.313517 0.902918 110 77 94 
-0.291014 -0.540914 0.82573 129 104 123 
0.375669 0.0570441 0.934501 140 116 132 
0.218273 -0.288247 0.917652 118 86 110 
-0.374494 -0.0546086 0.78978 71 59 79 
-0.157246 -0.114525 0.790259 52 27 33 
0.176776 0.0876283 0.813258 117 74 81 
-0.171769 -0.482577 0.85067 127 108 128 
0.378568 -0.187498 0.943977 122 95 110 
-0.623096 -0.451001 0.630304 124 111 128 
-0.0562046 -0.40853 0.866871 98 83 106 
-0.532204 0.039619 0.745142 102 111 152 
-0.286036 -0.435566 0.824152 113 86 101 
0.00658199 0.121772 0.594222 76 43 62 
-0.315226 -0.437671 0.816961 127 101 114 
-0.100389 -0.406511 0.860218 119 106 126 
-0.310829 -0.11919 0.805221 135 111 127 
-0.301279 -0.368518 0.818423 133 110 128 
0.154507 0.179928 0.619913 129 84 105 
0.257814 -0.195385 0.920165 135 113 134 
-0.128621 -0.0660595 0.808459 121 67 80 
-0.315363 -0.22922 0.8089 116 99 117 
0.116521 -0.37561 0.901005 136 118 140 
0.373582 -0.300008 0.946089 109 86 104 
0.35971 -0.286516 0.943797 141 122 141 
-0.233077 -0.544026 0.839344 91 64 83 
0.451626 -0.0514144 1.2683 37 52 75 
0.128054 -0.408798 0.905173 134 116 140 
-0.638706 -0.48273 0.704939 112 119 161 
-0.360653 -0.214545 0.797446 118 100 112 
0.212625 0.143172 0.81583 94 46 60 
-0.048222 -0.240965 0.794397 116 72 85 
0.352234 -0.135732 0.937822 126 99 118 
-0.12547 -0.162471 0.797936 76 44 57 
0.0811113 -0.220618 0.831906 60 25 31 
-0.373111 -0.348257 0.799887 118 105 123 
-0.0424342 0.167254 0.57308 87 55 66 
0.166599 0.109055 0.796457 63 34 38 
0.121369 -0.269194 0.880435 48 24 24 
-0.347468 -0.485011 0.812346 128 104 120 
-0.295543 -0.281005 0.815418 125 95 105 
0.0940478 -0.403436 0.899598 124 101 127 
-0.156076 -0.0155278 0.803003 113 71 85 
0.212488 -0.312648 0.917848 105 77 91 
0.157643 0.160918 0.633198 119 84 108 
-0.3854 0.0337118 0.781346 123 110 136 
0.141473 0.153862 0.618636 140 89 106 
-0.14005 -0.492633 0.853583 102 74 96 
0.368222 -0.191322 0.94262 117 88 116 
0.399009 -0.0488457 0.942695 139 118 137 
-0.185737 -0.397382 0.842673 88 65 81 
0.432237 -0.255012 0.963845 126 102 124 
0.109639 -0.236998 0.842072 64 32 37 
-0.526269 -0.400295 0.771223 162 174 224 
0.103665 -0.131265 0.856212 69 33 45 
-0.164369 -0.09895 0.788105 77 47 59 
0.425014 -0.0605127 1.01205 58 44 57 
0.35668 -0.159293 0.938816 121 95 120 
0.0159438 0.0157254 0.810971 65 32 43 
0.219239 0.0198588 0.901287 131 103 125 
-0.37014 -0.419148 0.805922 118 106 130 
0.455098 0.187457 1.039 67 81 92 
0.404163 0.107309 0.937178 125 94 110 
0.265871 -0.219215 0.924069 119 91 106 
-0.0162413 -0.300678 0.792003 75 39 43 
0.324787 -0.312147 0.940119 90 69 86 
-0.267983 -0.352224 0.824138 96 78 94 
-0.249968 -0.539269 0.836329 126 109 125 
0.17973 -0.102473 0.901872 145 117 139 
-0.411166 -0.242947 0.789722 114 86 98 
-0.428997 -0.251678 0.78892 131 100 116 
-0.0777176 0.0305815 0.78906 142 88 101 
-0.347583 -0.185361 0.799055 81 71 96 
-0.363503 -0.345336 0.803544 101 89 101 
-0.222613 0.0849344 0.728466 105 82 98 
-0.245887 -0.180154 0.818746 114 90 104 
-0.154925 -0.106601 0.798535 62 23 28 
0.237833 -0.219647 0.917602 121 89 102 
-0.0393482 -0.396971 0.870421 124 96 118 
-0.364518 -0.167625 0.7921 110 97 127 
0.110608 -0.251194 0.841714 109 59 70 
-0.462847 -0.0315754 0.768178 112 95 113 
0.224068 0.164588 0.808848 159 114 135 
-0.403045 -0.0519019 0.783883 128 109 129 
-0.199961 -0.373826 0.839143 105 73 84 
-0.375926 -0.128034 0.791716 132 112 139 
-0.150178 -0.470686 0.850917 101 74 89 
-0.381734 -0.395176 0.806265 129 110 129 
0.429261 0.00110146 0.945867 134 113 128 
0.00593293 0.158884 0.588382 104 72 93 
-0.386301 -0.512722 0.80848 124 106 128 
0.393849 0.0241645 0.938225 110 85 104 
0.0377622 -0.372338 0.886016 133 110 130 
-0.145256 -0.457413 0.853126 103 72 90 
0.180695 0.137254 0.729478 87 48 66 
-0.547918 0.178092 0.684908 23 58 26 
-0.408837 -0.354338 0.793359 128 109 131 
0.432642 -0.127074 0.958827 103 75 97 
0.251281 -0.269114 0.924072 106 82 96 
-0.0973585 0.069899 0.759423 135 88 104 
0.434345 0.149979 0.944815 108 88 100 
-0.410156 -0.310334 0.792865 130 107 127 
0.20721 -0.366627 0.918552 135 116 136 
-0.339863 -0.139857 0.798175 132 107 129 
-0.279595 -0.13331 0.81227 100 72 87 
-0.164056 0.0632482 0.747 100 64 78 
-0.463275 -0.550066 0.787645 176 192 243 
0.36012 -0.232998 0.941456 114 97 116 
-0.156223 -0.452702 0.852286 124 102 123 
0.192483 -0.113298 0.90503 109 78 96 
0.384651 -0.259803 0.948312 96 84 108 
-0.29345 -0.260914 0.814355 84 62 75 
0.126681 -0.107436 0.861092 72 29 36 
-0.463573 -0.539922 0.787513 176 193 239 
-0.261526 -0.169866 0.816235 123 106 125 
0.120051 -0.314494 0.8988 135 116 138 
-0.0403544 -0.100768 0.804118 50 24 25 
0.0240366 -0.265743 0.797694 72 40 45 
0.0853992 0.0619367 0.798063 109 76 93 
-0.20249 -0.413376 0.839934 128 110 132 
0.150001 0.0769199 0.808757 126 86 112 
-0.659222 -0.462602 0.636635 132 118 135 
-0.282815 -0.485827 0.830301 126 102 116 
0.164421 -0.208727 0.864023 156 104 117 
-0.0951501 -0.475774 0.86364 121 102 124 
-0.124398 -0.182288 0.793494 118 71 81 
0.242297 -0.242454 0.920379 145 124 139 
-0.630041 0.172421 0.617683 130 119 136 
0.31223 -0.237279 0.932055 110 97 117 
0.256242 0.110239 0.90835 132 104 119 
0.0219083 -0.389029 0.881306 130 102 117 
-0.193494 0.0064834 0.774248 149 98 117 
0.181258 0.0895722 0.774824 132 78 94 
-0.120017 0.0711442 0.75536 143 96 116 
-0.451471 0.0117628 0.772177 106 97 124 
-0.263669 -0.501929 0.82978 98 77 96 
-0.468662 -0.455877 0.784883 173 191 241 
0.12876 -0.26819 0.844321 61 39 41 
-0.597092 0.171385 0.672193 39 83 50 
0.293263 -0.258511 0.930634 132 114 138 
0.172645 0.164441 0.774839 153 111 133 
0.433953 0.136283 0.946034 133 116 135 
0.424697 0.0844989 0.940984 106 79 96 
0.451901 0.183281 1.09903 159 160 188 
0.277365 -0.219859 0.925983 126 107 127 
-0.424706 0.0277143 0.774127 121 112 131 
0.367673 0.17932 0.912209 125 111 126 
0.101713 0.166453 0.602088 80 44 56 
0.234966 -0.0542442 0.899238 86 46 54 
-0.177528 -0.0410973 0.787808 109 60 66 
-0.275885 -0.20383 0.814996 136 116 141 
0.155231 0.08421 0.624754 115 65 76 
0.478488 0.212728 1.00673 31 33 45 
0.274037 -0.320195 0.929653 119 94 116 
0.235993 -0.0237183 0.91014 123 95 109 
-0.181823 -0.516178 0.848577 104 76 98 
0.421888 -0.0417158 0.946519 91 68 86 
-0.108728 -0.027982 0.806392 77 32 39 
0.396881 -0.218821 0.948009 107 83 107 
-0.539322 -0.464986 0.7553 37 57 94 
0.145781 0.0899251 0.612364 103 54 58 
0.172993 0.150375 0.765033 141 101 125 
-0.23672 -0.249534 0.825179 135 105 113 
0.334796 -0.190285 0.935974 109 81 95 
0.226976 0.0276281 0.867123 116 65 74 
0.331306 0.0556563 0.924595 125 94 110 
0.230011 0.189369 0.808799 64 47 57 
0.291316 -0.306951 0.933141 114 99 128 
0.206795 0.0297975 0.853607 124 75 96 
-0.196251 -0.401341 0.839498 116 94 115 
0.132825 -0.334158 0.902697 98 79 99 
-0.444553 -0.472433 0.791992 104 85 105 
0.243743 -0.329402 0.922563 140 119 138 
0.363439 -0.26515 0.943618 124 102 125 
0.125459 -0.302686 0.90101 139 109 133 
-0.320579 -0.474328 0.817427 122 101 118 
-0.312468 -0.168023 0.808084 106 92 115 
-0.468086 -0.178249 0.772395 163 180 224 
0.21444 -0.380882 0.919136 106 81 103 
-0.38872 -0.343654 0.799001 119 104 125 
-0.160283 -0.467835 0.849646 101 73 88 
-0.645106 -0.443061 0.60798 94 109 150 
-0.0434951 0.0459522 0.779935 123 65 77 
-0.670756 -0.454666 0.682454 136 115 134 
-0.374958 -0.140735 0.791291 116 96 121 
0.248391 -0.0589398 0.913327 131 106 128 
0.0416806 -0.390281 0.88786 120 103 122 
0.310838 -0.129769 0.934847 130 99 115 
-0.465295 -0.224987 0.778036 121 107 132 
-0.38688 -0.281065 0.79493 90 71 90 
-0.440039 -0.351329 0.786101 124 104 131 
0.178626 0.0953637 0.6647 78 42 46 
-0.628318 0.171033 0.607217 127 123 138 
0.44642 -0.0248413 1.26375 138 147 188 
0.186393 0.168682 0.643691 122 78 95 
0.238731 -0.302723 0.921043 138 123 146 
0.161034 -0.196814 0.883699 90 44 54 
-0.468203 0.0177648 0.76522 154 173 215 
-0.386926 -0.241088 0.796167 79 56 72 
0.32824 -0.292554 0.938929 115 84 100 
0.224612 0.00581634 0.90941 95 71 85 
0.254822 0.0938253 0.90934 67 48 67 
-0.263238 -0.310126 0.823561 119 100 120 
0.172994 0.11849 0.762755 80 49 67 
0.00425885 -0.308653 0.796509 75 36 41 
-0.462812 0.0847598 0.76487 108 99 120 
-0.234178 -0.34711 0.83013 97 73 87 
0.224673 -0.272629 0.917102 129 115 140 
0.219296 -0.1958 0.912745 118 90 105 
0.161417 -0.193918 0.904827 125 100 121 
-0.0498351 0.0834667 0.607814 154 119 143 
-0.132079 -0.468033 0.858539 125 105 130 
0.19096 0.0953728 0.804189 129 78 93 
0.354318 -0.0938236 0.93534 128 103 122 
0.23954 -0.0702129 0.913026 112 87 108 
-0.212209 0.0843833 0.734974 67 52 55 
-0.443433 0.038219 0.768319 117 107 132 
-0.0270952 -0.109478 0.807061 40 20 19 
0.422225 -0.270229 0.95546 103 85 111 
0.302913 0.0164318 0.922316 120 89 97 
0.378266 -0.126862 0.94132 129 107 120 
0.177772 0.0980442 0.778412 72 36 40 
-0.213915 -0.487595 0.839482 98 79 98 
-0.538627 -0.0715664 0.742284 39 50 70 
-0.209176 -0.247285 0.830557 146 119 136 
-0.153125 -0.0840527 0.800026 113 66 74 
-0.331294 -0.151175 0.796977 120 96 120 
-0.168595 -0.0507395 0.790131 112 61 68 
0.306705 0.0809853 0.933152 132 108 122 
-0.297769 -0.208216 0.811149 111 79 90 
-0.345999 -0.135412 0.79819 118 95 115 
-0.0406986 -0.0360701 0.805277 93 61 76 
0.354971 0.121677 0.927499 129 114 135 
-0.545258 -0.0159354 0.730425 150 167 213 
0.181571 0.0849577 0.664339 116 65 82 
0.268209 -0.195386 0.92261 142 118 140 
0.105694 -0.387459 0.898888 124 106 132 
0.142629 -0.169987 0.844632 118 72 83 
0.0069336 0.0192111 0.807931 93 54 59 
0.0164131 -0.377784 0.880365 108 79 97 
0.392698 0.166805 0.927992 118 118 142 
-0.139815 0.076868 0.752595 143 98 118 
0.0301752 0.105259 0.599861 125 78 98 
0.252172 -0.366612 0.927635 122 108 134 
-0.53334 -0.178704 0.748193 46 58 80 
-0.397366 0.0694051 0.77921 128 109 131 
-0.534045 -0.592517 0.765279 49 64 93 
-0.403339 -0.406547 0.797611 100 79 98 
-0.536631 -0.145175 0.745394 48 56 75 
-0.419417 -0.0492119 0.778926 123 104 126 
-0.417552 -0.406452 0.796175 102 85 103 
0.0826738 0.155535 0.595529 149 101 123 
0.181869 -0.273333 0.912142 135 108 123 
0.381431 -0.283892 0.947719 127 103 119 
0.17443 0.188245 0.648791 100 69 84 
-0.306684 -0.39965 0.817689 123 95 110 
0.407792 -0.0862237 0.945152 123 100 120 
0.293019 -0.19613 0.926647 113 88 109 
0.132204 -0.142755 0.892007 119 67 79 
0.092404 -0.326056 0.885319 138 111 128 
0.161251 -0.183305 0.900594 122 94 108 
-0.424914 -0.488506 0.796705 104 87 106 
0.184678 0.19086 0.758037 117 86 102 
-0.638028 -0.460076 0.590022 135 127 151 
-0.343739 -0.201678 0.800081 119 106 126 
0.0899388 -0.108771 0.831521 48 20 19 
0.424409 -0.15724 0.950924 115 84 102 
0.257803 -0.124958 0.917579 136 112 128 
0.10412 -0.401623 0.899645 119 87 111 
-0.0514737 -0.253763 0.792266 105 60 67 
0.191193 0.0926092 0.727795 128 72 83 
0.240295 -0.0725744 0.876511 147 91 102 
0.229427 -0.124876 0.914009 116 93 111 
-0.072377 -0.47812 0.868923 126 100 125 
-0.0412595 0.109996 0.585085 87 53 67 
-0.119948 -0.487862 0.85905 126 94 109 
-0.386128 -0.0125819 0.784802 125 113 137 
-0.118886 -0.149303 0.804938 114 63 72 
-0.301903 -0.467963 0.822194 120 101 121 
0.164624 -0.274092 0.909386 134 103 118 
-0.644821 -0.441913 0.644378 97 111 150 
0.1092 -0.302756 0.894806 116 90 117 
0.192043 0.160396 0.687003 174 126 152 
0.0108928 -0.205952 0.822094 52 29 37 
0.224241 -0.156789 0.912609 118 86 107 
-0.33395 -0.213298 0.802913 120 101 121 
-0.289434 -0.527085 0.827933 108 77 93 
0.101247 -0.175749 0.855566 65 32 39 
0.442537 0.165793 1.11132 153 174 219 
-0.083422 -0.45966 0.866416 105 81 103 
0.164746 0.182782 0.635329 107 75 90 
0.220639 0.131629 0.81779 115 59 70 
-0.270373 -0.533 0.83014 109 81 104 
0.0643749 -0.430825 0.893045 89 70 90 
-0.467122 -0.131679 0.774515 117 104 124 
0.234337 0.0319063 0.855375 157 110 126 
0.182221 0.174695 0.770093 121 88 99 
0.0822085 0.0210066 0.83959 110 59 66 
0.186385 0.151219 0.70276 122 89 118 
0.249332 0.0739658 0.841297 124 79 86 
0.253136 0.174434 0.866375 116 68 80 
-0.0699637 0.045443 0.779564 134 76 91 
-0.0607391 -0.456212 0.871147 128 108 133 
-0.429026 -0.043389 0.775347 114 99 120 
0.234788 -0.0648673 0.896855 109 57 69 
0.0720638 0.140989 0.603436 101 75 102 
-0.399963 -0.422686 0.797693 127 103 116 
0.124546 0.000397091 0.847658 89 53 65 
-0.0585968 -0.430747 0.869605 136 115 134 
-0.0547486 -0.0755297 0.804126 111 65 76 
-0.35949 -0.230198 0.800606 84 57 74 
0.173583 0.114811 0.8072 85 49 53 
0.190794 -0.363065 0.915139 126 104 127 
0.349129 -0.182363 0.939272 132 109 127 
-0.454759 -0.612705 0.800675 145 117 139 
0.0760287 -0.387314 0.892784 112 93 121 
0.31225 -0.299117 0.935039 119 92 109 
0.0570498 0.0381767 0.802384 137 80 97 
-0.701116 -0.492088 0.639989 126 153 208 
0.324014 -0.344477 0.939793 101 76 95 
0.0384899 -0.414773 0.886245 128 102 129 
0.152152 -0.368506 0.909585 127 105 126 
0.192244 0.190161 0.716597 101 74 83 
-0.412894 -0.345228 0.792149 135 118 137 
0.249513 -0.0742502 0.914113 134 110 126 
-0.12104 -0.209713 0.790288 118 65 75 
-0.659939 -0.615059 0.603597 131 161 213 
-0.166003 -0.0813422 0.786259 86 53 70 
0.277377 -0.191413 0.925963 132 110 131 
-0.543297 -0.12822 0.726846 157 173 222 
0.417626 -0.185369 0.951653 136 117 137 
0.443881 -0.08734 1.03375 64 78 117 
0.183794 0.129024 0.680835 118 90 113 
-0.0233121 -0.27766 0.778475 68 36 41 
0.0490605 0.0910561 0.595253 75 36 39 
-0.359447 -0.257988 0.801449 126 99 114 
0.198402 -0.317354 0.913811 128 100 122 
-0.245683 -0.548273 0.836286 130 102 124 
0.128522 -0.26987 0.897719 125 102 122 
0.120159 -0.242159 0.895589 108 74 88 
-0.356 -0.239885 0.798929 113 87 100 
0.0730957 -0.250505 0.818346 111 63 75 
0.170257 -0.329114 0.908213 147 124 142 
0.260062 -0.160006 0.919623 128 111 129 
0.0569443 0.185763 0.591419 72 58 71 
0.444172 -0.327461 1.25462 147 164 207 
0.34262 0.118805 0.925872 100 82 106 
0.0741822 -0.433326 0.897072 99 80 99 
-0.314816 -0.421586 0.816913 100 79 96 
-0.0254342 0.0517217 0.775139 129 86 106 
0.332009 -0.140336 0.933933 122 95 110 
-0.461112 0.0745436 0.772894 121 103 125 
-0.523358 -0.54503 0.771732 157 173 224 
0.456816 0.211916 1.18832 111 108 125 
0.261605 0.0962998 0.816543 121 68 78 
-0.161505 -0.0715395 0.790684 110 60 71 
0.160276 -0.214222 0.892373 154 107 127 
0.400182 -0.281901 0.951808 131 106 128 
0.180532 0.0660895 0.814479 146 99 115 
-0.327321 -0.241557 0.808201 118 91 106 
-0.342285 -0.496323 0.814203 128 101 120 
0.228579 0.0319601 0.876164 147 103 120 
0.0614883 -0.440774 0.893447 109 79 103 
-0.22489 0.0919877 0.987352 132 85 101 
0.198989 -0.120584 0.91224 136 106 118 
-0.684761 -0.604649 0.63932 116 137 194 
-0.465271 -0.484652 0.785664 176 192 241 
0.226513 -0.0339357 0.869246 101 58 65 
-0.537862 0.0896251 0.731139 30 50 83 
0.35711 -0.325827 0.944463 122 107 130 
-0.272779 -0.494507 0.833169 105 89 100 
-0.356712 -0.515366 0.811542 100 79 96 
-0.196743 0.0281883 0.793853 125 74 91 
0.0809403 -0.360747 0.892357 119 90 108 
0.3823 0.171178 0.922455 114 114 138 
0.363023 0.171709 0.917933 126 120 146 
-0.361317 -0.0338404 0.790363 124 101 117 
-0.635429 -0.443274 0.686339 134 117 133 
-0.617637 0.171581 0.635806 129 118 135 
0.228879 -0.0392631 0.910634 90 79 95 
-0.295263 -0.31902 0.815775 122 94 108 
-0.514143 -0.594196 0.77382 167 183 235 
-0.339008 -0.46463 0.814785 124 106 122 
-0.392372 -0.586882 0.807951 109 80 98 
-0.528404 -0.580365 0.77213 141 148 200 
-0.0165664 -0.208335 0.816244 51 28 34 
0.199413 0.10082 0.808883 53 27 28 
0.265177 -0.253941 0.925178 122 104 126 
-0.0704995 0.0901137 0.752461 98 60 75 
-0.469071 -0.0649924 0.768151 155 173 213 
0.16284 0.084959 0.635761 117 67 78 
-0.536115 -0.489079 0.745943 162 178 229 
0.219453 0.0261252 0.891295 120 70 81 
0.159895 0.0800282 0.808543 141 88 104 
0.33303 -0.188697 0.920944 131 109 122 
0.0595924 -0.365958 0.889171 142 118 142 
-0.4119 -0.232537 0.786533 99 80 99 
0.0677317 0.0877566 0.77952 133 99 116 
-0.187755 -0.378438 0.84133 118 101 120 
0.293635 -0.128483 0.924246 120 95 116 
0.182384 0.141312 0.810124 109 68 82 
0.2689 0.0579676 0.912247 117 87 97 
-0.441927 -0.36975 0.783592 128 110 134 
0.179922 0.151701 0.732643 135 100 120 
0.426926 -0.168042 0.954231 111 82 100 
-0.546917 -0.49252 0.748828 161 177 229 
-0.448212 0.0652488 0.768038 88 80 104 
0.278683 0.183224 0.876548 111 92 112 
-0.484687 -0.523082 0.790551 166 181 236 
0.176864 -0.00457915 0.869115 120 68 80 
-0.260875 -0.53475 0.833815 130 103 118 
0.20676 0.0917044 0.807806 119 66 76 
-0.668743 -0.61346 0.628134 139 164 221 
0.433936 0.0854159 0.952898 116 88 110 
0.206406 0.0770431 0.819261 139 95 110 
-0.347004 -0.22522 0.80563 121 98 108 
0.0549334 0.0203719 0.822302 147 91 104 
-0.396937 -0.120027 0.78667 128 109 129 
-0.362294 -0.523949 0.811119 102 83 105 
0.202118 -0.379531 0.917228 109 83 110 
0.0977408 -0.303957 0.893585 129 110 138 
0.0250554 -0.249524 0.811602 112 65 75 
0.427494 0.165264 0.992109 59 47 51 
0.268817 -0.0192147 0.922137 129 105 119 
-0.6416 -0.472195 0.72463 168 185 237 
-0.0715663 -0.446416 0.865164 124 102 125 
0.0778072 0.0112468 0.827691 105 73 96 
0.108572 0.148997 0.613306 113 75 96 
-0.397102 -0.0792968 0.783994 116 94 115 
-0.376409 -0.0444883 0.790745 109 97 119 
-0.104709 -0.489591 0.863607 121 96 117 
0.11776 -0.327197 0.897939 131 112 134 
-0.661054 -0.532076 0.600909 130 157 212 
0.141665 -0.361584 0.904951 119 90 110 
-0.400788 -0.188259 0.787383 130 108 129 
-0.401678 -0.572649 0.808196 115 84 102 
0.382463 -0.0528041 0.939222 100 83 101 
0.290937 -0.29134 0.930493 106 77 95 
0.456309 -0.288405 1.28108 49 63 90 
-0.00917812 0.0777638 0.77941 140 92 106 
0.145669 -0.167787 0.89687 115 86 104 
0.00427382 -0.0818004 0.810946 127 108 91 
-0.650998 -0.465277 0.619787 137 141 178 
0.442253 0.167774 1.04978 157 172 215 
0.412676 -0.26338 0.952795 113 87 112 
0.394624 -0.19683 0.946775 101 81 106 
-0.400167 -0.598522 0.808433 113 84 106 
-0.186974 -0.414207 0.841279 104 75 93 
0.276722 0.196549 0.895446 122 98 112 
0.290545 -0.0878486 0.925594 104 79 100 
-0.165908 -0.0407299 0.800539 86 56 66 
0.0798774 -0.0996381 0.853232 56 25 30 
0.0912089 0.0481742 0.812899 153 90 107 
0.449739 -0.138438 1.27538 42 46 73 
0.187786 0.0982545 0.679873 126 78 90 
0.455022 0.206785 0.935624 71 75 87 
0.257676 0.17691 0.845062 128 85 102 
-0.33679 -0.199356 0.804064 114 99 122 
-0.254225 -0.375842 0.826098 116 93 111 
0.253703 -0.00725245 0.923996 120 93 108 
0.407346 0.117353 0.937061 107 77 87 
0.128661 -0.281094 0.869633 119 85 101 
0.257337 0.0970648 0.841631 120 66 80 
-0.57398 0.17165 0.668714 45 89 56 
0.258859 0.194546 0.832325 68 58 69 
-0.120368 -0.135412 0.802467 136 84 96 
0.157444 -0.164873 0.898755 126 95 113 
-0.443231 -0.520601 0.79505 134 111 127 
-4.29277 0.115958 4.14674 145 91 105 
0.410466 0.177024 0.920744 119 114 134 
0.160015 0.111443 0.649503 94 59 79 
0.220141 0.108422 0.817421 58 28 30 
0.18699 0.188659 0.746311 85 62 68 
0.353594 -0.125104 0.936814 136 108 122 
0.0117666 -0.395607 0.879051 58 39 45 
-0.643838 -0.587784 0.709931 113 120 162 
0.188261 0.100687 0.719653 116 69 77 
0.0975311 -0.343888 0.895233 142 110 123 
-0.297103 -0.446224 0.821692 105 80 102 
0.446746 0.173466 1.1262 150 146 169 
0.405408 -0.308428 0.955659 98 73 94 
-0.270304 -0.546648 0.8311 128 97 115 
-0.18367 0.0157452 0.796732 94 50 63 
0.452958 0.184996 1.0889 152 147 170 
-0.0472886 -0.123898 0.791218 109 58 67 
-0.364532 0.00191787 0.784818 101 82 102 
-0.626411 0.173978 0.642048 126 113 131 
-0.0937851 0.0861519 0.757118 139 92 112 
-0.53204 0.0614065 0.732901 39 46 64 
0.0740092 -0.0758557 0.829387 125 72 82 
0.455359 0.191779 1.13394 121 118 137 
0.186624 0.171435 0.74655 108 66 78 
0.431723 -0.17943 0.960491 110 85 104 
-0.344326 -0.0853871 0.794344 106 92 109 
-0.361441 -0.290354 0.80235 116 93 111 
-0.422325 -0.540214 0.797622 132 109 129 
0.171145 0.123549 0.781567 123 79 96 
0.152764 0.103841 0.686444 71 30 36 
-0.258311 -0.192712 0.817885 126 102 115 
0.0245319 -0.0206066 0.810677 134 117 97 
0.44469 0.174699 1.16503 134 138 173 
0.44524 -0.354369 1.28346 87 96 139 
0.0988984 0.187644 0.599076 96 95 109 
0.440132 -0.177704 1.03399 72 76 103 
-0.104153 -0.466539 0.861063 101 76 97 
0.0987947 0.129224 0.615963 131 84 104 
0.425247 -0.114063 0.995538 52 37 44 
0.170017 -0.111897 0.850933 88 51 58 
0.452336 0.196903 0.925669 115 107 118 
0.0168711 -0.157135 0.821554 106 60 70 
-0.379913 0.182064 0.578599 50 72 51 
-0.330885 -0.572243 0.823525 103 78 99 
-0.356021 -0.0069942 0.79075 112 94 110 
-0.00830881 0.101053 0.591992 71 40 46 
0.0951342 0.0788326 0.79664 148 99 118 
-0.197889 -0.00680782 0.789967 105 57 69 
-0.0327333 -0.143941 0.803932 114 62 74 
0.162382 0.161436 0.642886 138 99 117 
0.343058 -0.322127 0.941475 128 114 140 
0.0175726 0.0852043 0.609434 100 54 64 
0.26974 0.133051 0.92526 87 67 94 
0.332279 -0.155772 0.93311 114 82 103 
0.209536 0.10374 0.812848 97 56 62 
0.449034 -0.211865 1.27521 65 69 104 
0.402043 -0.140558 0.947793 126 101 122 
0.206081 -0.195393 0.910933 123 93 117 
-0.154482 -0.0653832 0.802827 93 59 73 
-0.0609704 -0.268138 0.78454 35 19 20 
0.243073 0.0746845 0.866181 130 89 105 
0.124397 0.160484 0.611704 105 80 101 
0.181232 -0.354586 0.913271 129 107 128 
-0.179554 0.0749736 0.742741 95 72 82 
-0.371412 -0.516185 0.810276 96 81 100 
0.39594 -0.000516241 0.939712 114 89 108 
0.454568 0.201512 1.07834 123 126 143 
-0.531082 0.0763535 0.749447 113 122 165 
0.181842 0.154862 0.721468 148 108 132 
-0.633338 -0.445812 0.659412 117 89 104 
0.374436 -0.0931871 0.939767 123 100 120 
0.195802 0.122632 0.813812 99 70 90 
-0.167561 0.0823917 0.746341 131 80 95 
-0.1771 -0.383686 0.841292 121 103 127 
0.217805 0.0771605 0.822276 123 84 111 
-0.539822 -0.113274 0.746 44 55 73 
-0.418529 -0.517902 0.799619 103 93 117 
0.44944 -0.187063 1.27524 54 59 89 
-0.0249591 0.164285 0.576079 84 46 59 
0.455626 0.185886 1.11911 149 141 165 
-0.115451 -0.0247298 0.79983 109 56 62 
0.0491661 -0.351692 0.885585 137 108 130 
0.19539 0.190884 0.706261 112 88 104 
0.166116 -0.395155 0.912065 118 86 107 
0.136825 -0.00532554 0.860422 139 87 100 
-0.642262 -0.446383 0.661484 136 115 132 
-0.925147 0.389695 1.12587 112 74 89 
-0.0240838 0.0641671 0.774881 145 97 113 
-0.405259 -0.488267 0.804144 123 104 124 
0.0381746 -0.34419 0.827261 138 85 103 
-0.467564 -0.253309 0.780296 120 105 134 
-0.0461299 -0.471972 0.873092 125 100 119 
0.0877078 -0.150668 0.855831 88 44 57 
0.0164226 0.0361594 0.850528 150 96 110 
-0.336273 -0.438571 0.820178 112 90 103 
-0.255552 -0.419293 0.828194 117 92 114 
0.42687 0.122943 0.96471 101 91 116 
0.316488 -0.0637104 0.926784 125 101 117 
-0.641012 -0.45568 0.683342 132 117 138 
0.450507 -0.264898 1.27847 42 49 75 
0.180412 0.119471 0.725645 103 79 101 
0.0481246 0.0355951 0.833381 148 94 107 
-0.326073 0.0894076 0.959782 125 77 93 
0.0922295 -0.0279545 0.848098 123 65 77 
0.433087 -0.0537957 0.957447 99 71 93 
0.445257 0.0304449 1.26387 125 140 181 
-0.0385121 0.14272 0.586268 82 55 74 
0.189735 -0.147665 0.905715 120 88 101 
-0.643086 -0.635113 0.713755 114 124 175 
-0.291211 0.183913 0.573264 61 73 73 
-0.0290565 -0.223519 0.797428 78 41 49 
-0.354746 0.184829 0.63386 67 91 75 
0.244467 0.061318 0.864496 117 72 79 
0.0818412 -0.230009 0.826968 98 55 64 
-0.493714 -0.1184 0.751806 157 174 220 
-0.63927 -0.448928 0.575077 129 106 122 
0.26076 0.194993 0.765206 60 70 71 
0.188363 0.100709 0.839774 120 64 73 
-0.0110977 0.0949173 0.70372 143 122 153 
0.385161 0.174766 0.918559 122 117 137 
0.113313 0.0883987 0.607648 127 74 90 
-0.197576 -0.0377219 0.774257 79 48 54 
0.427546 0.1422 0.938911 100 78 91 
0.0423431 -0.359178 0.884142 129 101 124 
0.185965 0.157044 0.710898 135 87 109 
0.12421 0.0910647 0.680301 123 69 82 
0.127255 0.0964621 0.613875 104 64 73 
-0.164837 -0.489288 0.853361 122 98 114 
0.237397 -0.349738 0.922472 130 102 124 
0.424851 -0.307358 0.998812 95 78 97 
-0.631211 -0.430806 0.658776 162 178 229 
0.354059 -0.0685137 0.933907 117 89 104 
-0.0159682 -0.155429 0.86355 52 22 22 
0.108111 0.0819033 0.878922 78 45 62 
0.0183343 0.00147042 0.790308 59 36 44 
0.134704 0.0562986 0.741211 85 43 57 
-0.230378 -0.224045 0.824792 141 116 138 
0.209968 0.0562834 0.753742 69 37 52 
-0.32646 -0.0861405 0.799765 115 93 105 
0.126179 -0.0268566 0.844752 95 44 61 
0.0728876 0.0901636 0.969736 92 58 72 
0.22756 0.0740133 0.824314 106 69 87 
0.136315 0.0766202 0.805568 100 63 81 
0.287817 0.0587812 0.917461 131 107 123 
-0.238552 -0.145606 0.820452 90 62 76 
-0.136162 -0.116274 0.806341 61 26 30 
0.170976 0.0740946 0.745342 75 49 62 
0.163489 0.0652327 0.892325 148 101 119 
-0.208629 0.053084 0.736522 44 28 31 
0.187824 0.0604202 0.76763 115 77 98 
-0.100326 0.0777376 0.835655 149 102 118 
-0.257119 -0.235628 0.820413 131 105 118 
-0.290515 -0.0402387 0.806184 104 90 115 
-0.219368 -0.227915 0.828558 78 61 71 
-0.0138468 0.0896002 0.673484 93 124 179 
0.225545 0.0616657 0.823158 103 76 93 
0.315472 -0.170424 0.932458 75 57 79 
0.136782 0.0740054 0.886273 138 89 108 
-0.00659431 0.165326 0.580725 83 43 51 
0.0384757 0.167895 0.625755 116 77 95 
-0.220995 -0.241052 0.829701 83 62 69 
-0.424793 -0.113747 0.780904 76 63 80 
-0.253303 -0.28049 0.823755 102 78 94 
-0.193939 -0.176585 0.831381 99 69 79 
0.0468007 0.0898813 0.775326 63 51 61 
-0.0680306 0.120046 0.796794 113 57 68 
-0.0428984 0.0467886 0.750755 159 112 132 
-0.00869852 0.0947449 0.763649 92 62 70 
0.0576704 0.166548 0.593494 79 47 58 
-0.107768 0.108314 1.05326 113 75 98 
0.174966 0.0284002 0.702804 110 58 70 
0.0352466 0.087306 0.770379 138 104 121 
0.113053 0.0478431 0.593791 130 92 117 
0.122916 0.0547504 0.894624 158 122 148 
0.24041 0.179274 0.836664 105 60 67 
-0.186699 0.111935 1.19737 154 105 124 
-0.305316 -0.0266761 0.80087 112 90 111 
0.172662 0.0501637 0.849084 109 72 90 
0.0364383 0.0658222 0.720229 141 93 109 
0.0853482 0.168257 0.598439 125 87 102 
-0.187409 -0.282272 0.837141 137 105 120 
0.139059 0.183674 0.608543 96 68 83 
0.0718995 0.0525138 0.673311 116 84 108 
-0.0271701 0.0995725 0.726924 173 133 157 
0.0456992 0.184172 0.589668 129 87 107 
-0.0502241 0.0955886 0.755636 101 67 83 
-0.0402138 0.18068 0.572611 95 65 75 
0.146545 -0.135934 0.845724 150 101 122 
0.0366859 0.0949068 0.681685 114 64 76 
-0.361075 -0.177543 0.795269 102 79 105 
0.260204 -0.316777 0.925977 121 93 115 
-0.175828 0.0407213 0.780926 139 82 97 
0.307502 -0.160658 0.929168 135 119 146 
0.243773 0.0903503 0.824826 168 120 136 
-0.217396 -0.15225 0.82473 129 100 118 
-0.207779 0.0383391 0.758355 163 106 121 
0.349378 -0.149192 0.936366 137 111 136 
0.220307 0.0522691 0.822778 137 89 111 
0.215188 0.0898605 0.818844 177 129 151 
-0.239196 -0.209885 0.821485 115 83 96 
0.146781 0.0727531 0.742197 154 101 119 
-0.198968 -0.282273 0.83432 124 92 105 
0.10958 0.160629 0.61049 128 89 110 
0.227721 0.0408038 0.832268 174 119 138 
0.284001 -0.0332614 0.919216 121 96 115 
-0.00524759 0.100434 0.714577 115 64 73 
-0.0151075 0.154829 0.701149 137 92 112 
0.273243 -0.289407 0.927275 144 125 147 
-0.177121 -0.275775 0.838194 136 112 128 
0.35207 -0.0284735 0.931413 96 73 93 
-0.0220551 0.175538 0.577429 120 73 83 
0.148932 0.0317787 0.854794 169 116 136 
0.0301132 0.102671 0.689461 124 71 81 
0.170053 0.0795792 0.813087 130 91 110 
-0.364288 0.0478237 0.784717 156 173 242 
-0.442595 0.0398374 0.82547 25 32 61 
-0.0270559 -0.408069 0.860782 41 22 41 
-0.458791 0.1865 0.726655 159 181 220 
-0.00276928 -0.098501 0.815037 71 40 45 
-0.0103539 -0.39548 0.864593 29 20 25 
0.0963929 -0.211063 0.839029 27 15 17 
-0.0466768 -0.343349 0.798285 53 30 36 
-0.373364 0.0541015 0.783236 15 19 30 
-0.542104 0.156098 0.740503 18 30 46 
0.0106096 -0.296407 0.796675 144 100 117 
0.0885335 -0.311462 0.833126 74 25 28 
-0.644354 -0.466131 0.671353 176 195 237 
0.453035 0.143084 1.01957 152 176 214 
-0.131073 -0.204378 0.778551 58 24 25 
0.0187012 -0.115645 0.818824 35 16 18 
0.0140787 -0.10437 0.821734 53 25 24 
-0.36443 -0.0826011 0.791929 45 35 44 
0.0855802 -0.204538 0.813978 124 70 93 
-0.465829 0.185076 0.70911 120 132 144 
0.135908 -0.266892 0.823013 53 28 34 
-0.541812 0.144262 0.734246 24 32 51 
0.027187 -0.34519 0.819532 71 24 30 
-0.540282 0.156741 0.727258 21 37 60 
-0.270715 0.118678 1.2475 66 36 46 
0.00801192 -0.00762663 0.784045 97 79 59 
-0.52021 0.177688 0.736639 117 103 128 
-0.532185 0.152471 0.740423 71 78 107 
0.00472217 -0.18085 0.817649 66 31 29 
-0.160209 -0.00165568 0.799833 60 21 24 
-0.102214 -0.23597 0.797215 63 30 37 
0.0503572 -0.32061 0.826544 79 33 44 
0.0786468 -0.300643 0.82939 148 91 110 
0.0989134 0.0471776 0.831691 73 53 62 
0.0515017 0.00142747 0.822087 69 34 41 
-0.537833 -0.0601408 0.745008 39 47 66 
0.44229 -0.305151 1.0433 56 60 97 
0.0907515 -0.0180579 0.851999 57 24 31 
0.156077 0.0138364 0.863526 68 38 48 
-0.113384 -0.0607833 0.812751 63 40 50 
-0.539289 0.128757 0.73027 37 49 71 
0.12711 0.0606295 0.804521 78 61 69 
-0.183834 -0.0104433 0.796643 57 30 37 
0.137977 -0.132612 0.84976 57 25 26 
-0.110118 -0.0188891 0.811084 43 22 27 
0.185897 -0.00845623 0.871184 59 28 34 
0.0365113 -0.292064 0.806009 59 33 42 
-0.0453226 -0.195198 0.791281 81 39 43 
0.0370455 -0.113747 0.812614 98 62 72 
0.0161871 -0.385744 0.86821 41 30 38 
-0.00049936 -0.0692153 0.801995 192 181 161 
-0.221764 0.0565516 0.734631 38 27 35 
0.463646 0.199387 0.962255 62 53 56 
-0.337498 0.0386801 0.793325 117 104 124 
-0.378139 0.0675258 0.782066 131 118 144 
-0.136611 -0.219568 0.789864 83 32 41 
-0.0298341 -0.113893 0.792266 105 67 80 
0.463227 -0.138153 1.0496 161 178 221 
-0.508404 0.182177 0.709104 81 84 99 
-0.21488 -0.343185 0.834336 79 62 72 
-0.244467 -0.370061 0.828319 73 51 63 
-0.473029 -0.0976203 0.789825 103 82 115 
0.0343361 -0.267569 0.794249 44 24 25 
0.137764 -0.15223 0.85314 132 78 91 
0.430035 -0.173841 1.024 103 113 149 
-0.0105243 -0.0924704 0.815774 113 92 71 
0.20917 -0.277449 0.915612 75 56 76 
0.0105043 -0.269025 0.791882 46 21 24 
0.240411 0.132109 0.820862 69 43 56 
-0.214408 -0.167747 0.827061 144 120 136 
-0.172659 0.0443212 0.769193 64 41 47 
-0.305411 -0.277448 0.814492 93 75 87 
0.0767603 -0.244823 0.812907 114 68 79 
0.0638846 -0.00104722 0.825173 97 44 50 
-0.414125 -0.368419 0.792652 60 46 61 
-0.131607 -0.132228 0.796535 57 25 26 
0.117598 -0.0762635 0.858586 66 34 49 
-0.147114 -0.0194421 0.805089 53 23 31 
-0.166651 0.012467 0.800102 68 36 47 
0.0385109 -0.242089 0.810241 129 76 96 
-0.54949 0.173177 0.714606 115 106 125 
0.0602734 0.0954546 0.777317 56 43 52 
-0.0548183 -0.0050662 0.801589 150 94 107 
-0.0650514 -0.231612 0.787493 114 66 80 
-0.324407 -0.313998 0.810024 79 58 67 
-0.117438 -0.41816 0.856909 73 61 83 
-0.336145 -0.0708138 0.797105 92 69 77 
-0.467861 -0.0195384 0.770733 106 89 108 
0.130199 -0.322364 0.900825 92 63 83 
0.176671 0.128126 0.750714 105 54 73 
0.20957 0.0660877 0.821482 68 52 62 
-0.618828 0.178692 0.655991 35 65 39 
-0.203938 -0.064847 0.75771 62 23 28 
0.436791 -0.297629 1.03488 83 89 121 
0.179463 0.131297 0.808133 54 39 42 
-0.165051 -0.372965 0.845492 91 64 81 
0.313979 0.0380102 0.922818 60 42 64 
-0.361615 -0.3164 0.803325 92 66 75 
-0.0128026 -0.271052 0.783492 49 24 28 
-0.00079628 -0.0260885 0.790459 90 49 55 
-0.0164198 -0.287976 0.791446 128 73 92 
-0.444902 -0.263345 0.779849 97 72 93 
0.233498 -0.0621332 0.852943 135 85 97 
0.160719 -0.206349 0.843415 152 99 119 
-0.266997 -0.413949 0.82547 85 64 79 
0.0119173 -0.170083 0.820664 72 32 40 
0.179736 -0.259123 0.90998 141 116 135 
-0.0439467 -0.0524584 0.80331 111 66 73 
0.0799861 -0.109022 0.825895 45 19 20 
0.0535054 -0.128191 0.826859 119 63 74 
0.331428 0.0516486 0.632216 128 80 92 
-0.348233 -0.161885 0.801914 118 99 119 
0.177559 0.114746 0.74188 84 53 69 
-0.183352 -0.241502 0.836067 81 59 72 
-0.370585 0.0766221 0.784975 130 120 145 
-0.397396 -0.379139 0.799227 86 64 85 
0.0362557 -0.302365 0.801898 54 25 30 
-0.0228989 -0.397672 0.869184 64 45 64 
0.0230826 -0.179643 0.821922 60 28 39 
0.435426 0.152063 1.02042 66 77 105 
-0.584268 0.177507 0.648979 26 52 27 
-0.531738 0.122937 0.740648 99 112 154 
0.0781913 -0.212354 0.813455 74 34 42 
0.0810661 -0.127263 0.828988 128 71 80 
-0.351816 -0.0859698 0.804205 58 45 63 
-0.345397 -0.348727 0.809863 76 69 87 
-0.555861 0.175112 0.666085 41 83 47 
-0.356408 0.0403434 0.796881 107 90 106 
-0.541547 -0.00500976 0.734618 129 151 192 
0.443383 0.0221913 1.0293 60 62 100 
-0.241375 -0.112657 0.816957 128 114 139 
-0.659664 -0.462201 0.685659 135 120 139 
0.450469 0.128762 1.01881 111 134 168 
-0.334796 -0.0475643 0.795958 70 54 65 
-0.00197595 -0.29732 0.795188 59 30 35 
-0.332384 -0.14321 0.804173 128 109 129 
-0.219021 0.0842333 0.738031 72 53 57 
0.271175 0.15074 0.909195 53 40 47 
-0.537239 0.117545 0.733852 45 51 73 
0.000952156 -0.390104 0.877445 33 20 30 
0.218365 -0.0500261 0.846514 109 62 70 
-0.290291 0.18704 0.645191 43 65 53 
-0.425283 -0.0219598 0.777179 84 74 98 
-0.185381 0.0331782 0.763943 152 98 112 
0.462939 0.0253586 1.04977 132 142 191 
-0.195252 -0.256163 0.833174 106 83 103 
-0.742404 0.0782069 1.07086 51 34 40 
0.448828 0.0151468 1.0399 161 179 225 
-0.318429 0.0272071 0.796743 43 29 44 
0.237304 0.14618 0.820805 124 78 89 
-0.123076 -0.0884412 0.813948 45 21 21 
-0.533098 -0.510966 0.775861 162 176 225 
0.438575 0.136462 1.0248 90 101 133 
-0.315438 0.0146384 0.799001 96 84 108 
-0.457539 -0.332773 0.779172 123 105 129 
-0.469155 -0.299074 0.794878 118 103 134 
0.127463 0.0898815 0.792119 91 57 71 
-0.540031 0.173109 0.661141 44 86 50 
-0.307958 -0.239138 0.810084 112 98 113 
-0.0228317 -0.169742 0.813489 121 73 85 
0.197002 0.181292 0.712057 142 100 120 
-0.114349 -0.0798263 0.812741 113 63 72 
0.108131 -0.0681848 0.856126 128 75 91 
-0.357466 0.0738134 0.7871 112 100 124 
-0.398118 -0.310622 0.796821 133 109 123 
-0.545448 0.181722 0.659026 21 50 30 
-0.505729 0.0895133 1.15827 95 67 82 
-0.035263 0.0588233 0.770011 86 59 74 
0.341588 -0.0230289 0.930703 87 65 88 
0.457961 0.00766279 1.03139 160 174 219 
-0.183579 0.0878416 0.727247 78 46 61 
-0.631039 0.165371 0.722599 112 96 122 
-0.257573 -0.224358 0.819603 132 111 130 
-0.526189 0.17963 0.728421 43 40 47 
-0.370632 -0.313104 0.803611 124 115 136 
-0.114408 -0.101837 0.807626 108 64 77 
-0.31162 -0.250238 0.81147 80 62 78 
-0.204919 0.0753285 0.736877 128 87 101 
0.230476 0.126567 0.820323 122 74 88 
-0.113998 -0.15529 0.812709 72 29 36 
-0.34879 -0.314933 0.805535 87 65 78 
-0.435407 -0.263548 0.783353 143 115 130 
-2.88865 0.300357 3.05373 144 101 121 
-0.179105 -0.368184 0.841144 132 107 129 
-0.0232648 -0.157498 0.812295 133 80 98 
-0.282282 -0.377151 0.819881 99 71 86 
-0.416589 -0.207103 0.786761 92 70 83 
0.444046 0.0607634 1.02661 64 77 111 
0.148367 0.0874485 0.77515 101 58 75 
-0.590796 0.172346 0.656423 35 75 41 
-0.101946 0.0512523 0.758506 135 90 110 
0.253487 0.163205 0.90572 55 51 66 
0.267145 -0.0307867 0.916782 94 76 90 
-0.511522 -0.42617 0.767435 161 177 229 
-0.145678 -0.369557 0.848637 129 111 133 
-0.474401 -0.0945941 0.769984 163 175 223 
-0.388062 -0.216664 0.791057 104 87 103 
-0.379237 0.0182339 0.810075 89 82 100 
-0.470372 -0.358703 0.778254 165 181 233 
-0.310753 -0.383182 0.814524 134 106 121 
0.108098 -0.242289 0.893454 90 59 67 
-0.350241 -0.00169629 0.804677 122 98 112 
-0.3931 -0.389736 0.800503 130 113 131 
-0.530219 0.13481 0.739589 86 92 128 
0.346595 0.19252 0.908604 123 109 124 
-0.458428 0.0649354 0.767137 102 90 112 
0.439292 0.125062 1.02648 93 108 141 
0.33506 0.011452 0.927904 82 63 85 
-0.254854 -0.199324 0.812346 128 103 124 
0.0969759 -0.37279 0.899111 98 75 95 
-0.530423 0.158618 0.74793 111 122 154 
-0.193207 -0.0187722 0.793159 66 37 42 
-0.211368 -0.035521 0.772035 51 28 36 
0.161767 -0.0568623 0.863362 117 69 81 
0.186243 0.168479 0.831032 140 95 116 
-0.510357 -0.084453 0.756134 154 171 217 
0.130286 -0.266663 0.896919 127 99 121 
-0.265912 -0.243047 0.818174 88 70 84 
-0.121157 0.0958982 0.726361 87 58 76 
-0.298723 -0.160134 0.809017 102 74 96 
-0.352458 -0.166253 0.798 121 97 119 
-0.229682 -0.339074 0.831744 124 99 121 
-0.314041 -0.196573 0.805012 89 66 82 
0.215551 0.0482975 0.616551 138 90 112 
0.161262 0.0526716 0.811061 144 95 114 
-0.0362135 -0.291999 0.785998 82 39 46 
-0.0962327 -0.396474 0.860522 92 73 95 
-0.258103 -0.116533 0.814357 88 61 76 
-0.435765 0.182503 0.640446 34 57 41 
-0.416256 0.0312449 0.783842 127 109 133 
-0.311421 -0.0498719 0.801225 115 101 118 
0.0626357 -0.0940965 0.822046 91 62 80 
-0.0600254 -0.267835 0.773104 80 49 54 
-0.0680457 -0.395147 0.865263 71 52 72 
0.191656 0.173898 0.820251 153 108 131 
0.235777 0.0708724 0.905567 123 107 136 
-0.466524 -0.282214 0.7771 166 182 233 
-0.42764 -0.0851055 0.779581 88 70 96 
-0.667259 -0.50842 0.679906 184 192 241 
-0.374534 -0.245407 0.797503 125 95 105 
-0.192554 -0.396066 0.852859 124 108 134 
-0.208142 -0.334388 0.833745 138 114 130 
-0.552554 0.00613759 0.72512 154 171 215 
0.178109 -0.0310366 0.866515 101 55 58 
0.0468933 0.185766 0.566838 91 106 171 
-0.671434 -0.475017 0.671066 114 117 172 
-0.379371 0.0837075 0.783443 93 88 111 
0.262771 0.116091 0.927167 89 67 80 
0.242574 0.185224 0.812676 129 82 102 
-0.322607 -0.113458 0.803016 124 107 126 
-0.243376 -0.314297 0.827644 77 64 81 
-0.0500736 -0.0156785 0.803961 68 29 34 
-0.435466 0.0351997 0.773282 95 82 108 
-0.386692 0.0941168 0.779394 118 107 137 
-0.47255 0.185658 0.741453 72 66 78 
0.214342 0.00124832 0.860824 101 55 66 
-0.221392 -0.290474 0.829206 112 83 101 
-0.458016 0.00384355 0.774375 112 102 129 
-0.469379 -0.262307 0.774156 166 183 235 
-0.248837 -0.1307 0.817129 134 107 122 
-0.286773 -0.228935 0.81392 72 49 55 
0.440123 0.0699476 1.0245 108 121 156 
-0.325409 -0.231022 0.806499 80 57 65 
-0.400371 -0.323379 0.793153 97 72 91 
-0.427195 -0.366347 0.786718 129 105 131 
-0.363615 -0.0972829 0.792735 93 74 93 
-0.447792 -0.0491782 0.772495 106 87 107 
-0.113467 -0.133587 0.811167 108 67 83 
0.164605 -0.191811 0.911895 134 110 124 
-0.0178765 -0.262603 0.795301 80 45 49 
0.221676 -0.029372 0.90737 58 42 53 
0.353656 -0.105219 0.935482 127 112 133 
-0.432964 -0.217369 0.782706 77 64 84 
0.193984 -0.330981 0.913628 123 99 115 
-0.279029 -0.336041 0.819997 126 97 115 
0.0874158 -0.336407 0.893409 131 107 133 
-0.530198 0.161747 0.7423 48 49 77 
0.263999 0.19778 0.89306 82 70 82 
-0.361646 -0.139718 0.793197 120 94 123 
-0.351956 -0.0405894 0.793376 124 103 122 
-0.047476 -0.2113 0.787458 123 76 92 
0.176444 0.0903232 0.794128 122 66 79 
0.18706 -0.137696 0.904407 162 137 158 
0.431557 -0.207706 0.955748 122 103 123 
-0.387729 -0.130029 0.787802 102 75 90 
0.0803358 -0.182241 0.810035 152 98 114 
-0.531296 0.0144822 0.725691 144 161 204 
-0.234489 -0.321816 0.828358 125 98 117 
-0.530863 0.167214 0.727601 35 54 84 
-0.614763 0.172076 0.647679 126 115 132 
-0.666462 -0.464207 0.670991 134 122 136 
0.460107 0.211663 0.947363 40 44 56 
0.339785 0.194842 0.720594 95 102 121 
0.0612889 -0.113087 0.811277 125 88 106 
-0.0359242 -0.261772 0.792127 80 45 49 
0.38435 -0.24879 0.947358 94 82 106 
0.00378752 -0.199206 0.819871 79 39 47 
-0.256728 -0.104488 0.813874 96 69 76 
-2.82863 0.347943 3.63421 132 89 108 
-0.0791552 -0.193423 0.794791 73 34 37 
0.38943 0.205136 0.910478 89 92 99 
-0.52908 -0.276107 0.763294 149 161 211 
0.0303545 0.0865184 0.783928 102 76 87 
-0.305332 0.00251509 0.797571 100 81 100 
-0.223612 -0.190785 0.825005 117 81 93 
0.424811 -0.256198 0.955213 98 72 99 
-0.333488 0.187453 0.67854 46 69 51 
-0.360382 -0.0488693 0.791805 118 99 118 
0.186725 -0.301641 0.91057 130 108 129 
0.142605 -0.328276 0.901231 120 97 123 
0.204231 -0.154523 0.908832 131 114 132 
0.108081 -0.168355 0.857069 72 41 47 
-0.0456951 0.0313605 0.788311 128 70 84 
-0.369162 -0.277988 0.802008 120 112 135 
-0.0125329 -0.237815 0.79884 75 45 55 
-0.0183748 0.0862628 0.776795 121 79 93 
-0.370703 -0.107725 0.790483 111 96 119 
-0.035022 -0.0840416 0.80567 117 66 75 
0.178568 -0.051968 0.855974 84 39 42 
-0.378138 0.0116093 0.786759 108 89 109 
-0.424349 0.0936084 0.771552 118 108 133 
0.277402 0.0647448 0.913257 104 79 100 
-0.120541 -0.0548903 0.809876 112 65 73 
0.284149 -0.198514 0.955677 132 108 124 
-0.1204 -0.00392483 0.807753 105 57 69 
0.131389 0.0185498 0.859369 110 59 74 
0.443925 0.0981733 1.02498 66 76 111 
-0.413937 0.0434852 0.775927 127 117 141 
0.00951585 -0.291572 0.815946 71 41 51 
-0.192593 0.0810939 0.739612 129 81 93 
-0.0447802 -0.0238605 0.804652 127 74 84 
-0.437458 0.0180831 0.77344 91 79 101 
-0.423264 -0.0336254 0.777017 96 87 108 
-0.244744 -0.398765 0.830403 95 77 93 
0.0452461 -0.25223 0.813215 76 40 50 
-0.200282 -0.355499 0.83591 127 105 126 
-0.29909 -0.181793 0.809327 104 74 86 
0.146746 0.135801 0.625326 146 98 120 
0.0753383 0.178355 0.592198 120 77 96 
-0.39394 -0.14674 0.788452 118 96 117 
-0.436045 -0.0149349 0.773796 102 89 107 
-0.0447726 0.0201867 0.802507 124 71 81 
-0.066442 0.0265309 0.797664 135 81 95 
-0.0766982 -0.409366 0.863464 99 78 97 
-0.468628 -0.0769216 0.767537 156 173 216 
0.132655 -0.11816 0.860255 62 27 31 
0.189652 0.167475 0.807271 108 71 89 
0.282707 -0.182719 0.925239 119 90 108 
0.0821628 -0.261405 0.815597 76 43 50 
0.113476 -0.256541 0.895472 103 80 96 
0.349695 -0.288027 0.940757 144 121 139 
0.174508 0.138444 0.753992 125 75 100 
0.164479 0.0689325 0.518362 104 56 70 
-0.585453 0.169937 0.679645 115 107 120 
0.143937 -0.0152197 0.861995 144 90 106 
-0.440009 -0.0938598 0.777457 78 65 91 
-0.150073 -0.431281 0.850015 108 75 102 
-0.0890169 0.0640445 0.761163 162 113 134 
0.0948162 0.0517607 0.795962 133 84 105 
-0.281292 -0.194812 0.812597 108 79 97 
-0.323089 -0.021021 0.796983 120 93 108 
-0.302493 -0.143553 0.806707 125 100 121 
-0.173757 -0.015112 0.798855 127 70 79 
0.306284 -0.0026096 0.922588 137 113 127 
0.0388117 -0.0947854 0.825791 65 31 30 
-0.426016 -0.060866 0.777693 124 107 126 
-0.336373 -0.0182145 0.797682 92 80 102 
0.446527 -0.138473 1.034 141 163 204 
-0.249981 -0.247644 0.823499 126 101 122 
-0.2564 -0.450623 0.825559 138 111 130 
-0.533049 -0.401118 0.754986 52 66 95 
0.47464 0.211673 0.945592 37 53 50 
0.193689 0.175692 0.679389 108 72 86 
-0.318343 -0.449352 0.818626 127 100 115 
-0.369335 -0.156137 0.793151 96 76 101 
0.0463735 -0.0364596 0.822312 135 79 90 
0.396569 0.192709 0.910833 116 100 113 
-0.228419 -0.247698 0.825435 120 96 109 
-0.371579 -0.0635652 0.798543 111 101 126 
-0.40474 -0.247873 0.791195 153 125 140 
-0.196994 -0.0598903 0.764374 78 39 44 
-0.384216 -0.150616 0.791137 89 75 98 
0.293676 0.0111095 0.925663 118 108 133 
0.112396 -0.260747 0.837138 77 45 48 
-0.341611 -0.0338503 0.794512 124 103 118 
-0.449187 -0.325641 0.785808 115 91 113 
-0.298463 -0.300288 0.814224 125 98 113 
0.259983 -0.332093 0.927012 145 129 155 
-0.231608 -0.432718 0.836926 124 109 128 
-0.25185 -0.310409 0.821871 101 70 85 
-0.397817 -0.235682 0.791124 103 84 104 
0.0686352 -0.362863 0.894004 131 101 125 
0.221821 0.100414 0.813103 63 29 28 
-0.24284 -0.202044 0.824235 115 96 116 
-0.148598 0.0813911 0.748674 137 87 99 
-0.535662 0.140764 0.749567 122 131 172 
-0.241222 -0.122437 0.815477 135 105 117 
0.0492205 -0.239178 0.816343 82 46 56 
-0.53388 -0.0480921 0.726538 152 169 215 
-0.655289 -0.450524 0.666345 137 114 132 
0.20404 -0.031979 0.86225 52 22 20 
0.415538 0.188402 0.939427 19 19 43 
-0.148757 -0.11738 0.798039 98 53 60 
-0.438803 -0.19481 0.782387 122 102 114 
-0.322444 -0.337944 0.812525 108 85 105 
-0.379796 -0.161583 0.789066 95 77 101 
0.154856 -0.343158 0.907333 115 86 106 
-0.181318 0.034004 0.788511 136 83 99 
0.256818 -0.148322 0.921187 125 98 115 
0.174293 -0.128896 0.900109 126 92 106 
-0.433654 -0.205165 0.784219 131 116 135 
-0.270951 -0.427292 0.830075 122 97 118 
-0.0481308 0.0606789 0.771404 107 75 98 
0.455027 -0.0194997 1.04195 158 175 221 
0.459628 -0.00403574 1.04443 162 181 223 
-0.410587 0.0175148 0.779581 128 111 130 
0.159393 0.0424155 0.848562 164 105 123 
0.225335 -0.23651 0.913104 118 99 119 
0.166016 -0.197306 0.857952 104 61 71 
-0.389011 0.0558262 0.780283 113 104 131 
-0.524373 0.139696 0.745282 127 139 181 
-0.00362031 0.0150211 0.805575 54 27 34 
-0.397549 -0.0118248 0.782241 125 115 139 
