ply                 
format ascii 1.0    
element vertex 1200
property float x    
property float y    
property float z    
property uchar red  
property uchar green
property uchar blue 
end_header          
-0.46029 -0.529518 0.790596 128 111 130 
-0.372281 -0.564833 0.813396 124 108 134 
0.0981838 -0.242332 0.83858 111 63 77 
0.241902 0.0418986 0.84521 171 117 131 
0.445915 -0.220113 1.03867 153 177 221 
-0.337655 -0.401074 0.811584 120 101 120 
0.147979 -0.247328 0.900902 138 114 128 
-0.533787 -0.0318971 0.746126 41 46 76 
0.154747 0.140911 0.640822 145 103 123 
0.237556 -0.273699 0.920258 123 110 130 
0.177427 0.120975 0.673217 152 110 130 
0.0574147 -0.0783066 0.826715 90 50 61 
0.371844 -0.249604 0.945634 98 76 97 
0.200715 -0.355899 0.915639 123 111 133 
-0.253233 -0.341979 0.826 76 60 73 
0.0509062 -0.395215 0.889203 96 77 96 
-0.391362 -0.046352 0.784748 73 60 80 
-0.641046 -0.456213 0.699987 143 131 155 
-0.124377 -0.397878 0.85398 77 63 78 
-0.131135 0.0811095 0.757176 134 87 107 
-0.181327 -0.454126 0.845517 94 69 90 
0.189822 0.149812 0.812054 65 44 51 
0.306069 -0.0738363 0.926022 131 110 127 
-0.208378 -0.52309 0.842116 128 108 133 
0.448376 -0.23514 1.27714 76 82 116 
0.395761 -0.27246 0.951411 135 115 143 
0.159579 0.18609 0.626982 134 100 117 
0.165659 -0.317273 0.910104 116 80 94 
0.0825402 -0.378232 0.893984 133 111 134 
0.0799119 -0.0919427 0.834437 118 65 73 
-0.344608 -0.53467 0.816593 122 105 124 
0.423156 -0.239154 1.00248 104 76 91 
0.200956 0.175518 0.803364 96 74 77 
0.178107 0.191764 0.786364 109 86 102 
0.117103 -0.276756 0.823641 38 28 27 
0.177449 0.16746 0.803958 86 59 68 
-0.218556 -0.411462 0.834728 100 78 99 
0.425145 -0.097711 0.948764 134 107 124 
-0.39308 -0.404917 0.799708 87 63 79 
0.174014 0.162167 0.660612 130 87 107 
0.273389 0.177387 0.895037 76 67 88 
-0.425915 -0.287855 0.776159 114 103 135 
-0.139259 -0.397596 0.850731 86 74 96 
0.214543 0.176309 0.806723 106 70 74 
-0.015895 0.0555307 0.777213 98 71 90 
0.198111 0.17174 0.687175 136 98 111 
-0.562553 0.183559 0.664376 23 48 29 
-0.420755 -0.418899 0.793978 89 67 80 
0.263404 0.165167 0.9071 56 57 78 
-0.335818 -0.227076 0.803811 123 103 115 
0.100039 0.0473041 0.820335 124 61 70 
0.195279 0.0862271 0.68767 114 62 74 
0.243897 -0.260976 0.921985 104 86 112 
0.112711 -0.227163 0.839063 65 32 41 
0.0871404 -0.342159 0.897107 101 77 93 
0.175834 0.153214 0.755317 95 70 92 
0.367083 -0.312245 0.946688 128 108 133 
-0.467895 -0.093874 0.767295 162 176 223 
0.384611 -0.201745 0.946785 88 72 98 
-0.0322319 0.0790759 0.773389 98 57 73 
0.130101 -0.37239 0.902585 134 113 132 
-0.371274 -0.547565 0.810871 95 81 106 
0.182992 -0.323499 0.91106 154 129 148 
0.296485 0.0712964 0.917467 142 136 164 
-0.36291 -0.0712411 0.792929 76 62 79 
0.299492 -0.352398 0.93534 142 123 143 
-0.467093 0.0948913 0.763764 99 105 139 
-0.190466 0.0277415 0.765968 121 76 97 
0.0734098 0.109492 0.607168 76 48 63 
0.241448 0.0472249 0.83191 124 69 75 
0.132149 -0.0804961 0.862168 66 29 37 
-0.390081 -0.362884 0.799854 106 87 107 
-0.320236 -0.152207 0.80352 85 61 83 
0.130098 -0.393613 0.903113 134 111 127 
0.45076 -0.0501841 1.05208 142 154 196 
-0.124394 -0.150118 0.797055 79 48 64 
-0.0163518 -0.179375 0.814035 120 74 85 
0.408218 -0.301115 0.953022 129 104 126 
-0.467329 -0.61561 0.792532 178 191 243 
0.197924 0.188864 0.802121 73 54 56 
0.433453 -0.0276735 0.954147 96 72 88 
0.174227 0.168158 0.650546 101 59 71 
-0.557602 0.177079 0.655961 21 58 25 
0.440997 0.165803 0.992491 19 17 28 
0.166187 0.102116 0.652748 83 41 45 
-0.21725 -0.513748 0.84115 91 74 93 
0.179464 0.17336 0.78079 79 50 55 
0.457778 0.199549 1.1861 99 93 121 
-0.0224112 -0.117388 0.803078 54 26 25 
-0.00606271 -0.0601658 0.801386 118 95 77 
0.335908 0.0225031 0.926088 98 70 84 
0.0175174 0.0909284 0.769099 60 47 57 
0.0850968 -0.125696 0.853399 111 60 69 
0.126385 -0.278303 0.898803 124 114 139 
0.492705 0.213733 1.00691 90 106 129 
-0.327795 -0.442796 0.814727 100 73 88 
0.348468 -0.262642 0.941174 101 77 99 
0.0385555 0.0156735 0.814148 63 30 37 
0.0358128 -0.133103 0.823585 90 54 56 
0.44096 -0.262042 1.03621 70 73 104 
-0.154748 -0.41802 0.848606 110 86 108 
0.18514 0.162397 0.676591 126 88 109 
0.16471 0.167919 0.635938 112 62 74 
-0.348274 -0.254565 0.803108 99 71 86 
-0.6265 0.169761 0.584129 130 122 137 
0.214066 -0.322673 0.917112 124 95 115 
0.177824 -0.30657 0.909204 132 118 143 
-0.645254 -0.546466 0.709605 108 119 164 
0.253707 0.0403616 0.910443 142 118 131 
0.431461 -0.218479 0.961422 128 109 129 
0.245373 0.103561 0.90613 113 87 100 
0.0918232 0.120378 0.610773 126 83 102 
0.421074 -0.175839 0.951856 134 119 142 
0.309944 -0.311288 0.937427 95 81 106 
0.0761247 -0.0986176 0.824607 109 60 64 
-0.467953 -0.116765 0.770404 157 178 221 
0.400382 -0.0772173 0.944449 131 112 132 
-0.0863479 -0.486487 0.864557 125 103 126 
-0.285801 -0.206935 0.814197 84 58 71 
-0.418266 0.0138861 0.775226 115 105 130 
-0.464257 -0.582031 0.793601 117 121 158 
0.334188 -0.308549 0.94309 119 110 137 
-0.344711 -0.519938 0.813385 122 105 123 
-0.124868 -0.41168 0.85358 134 116 138 
0.127057 -0.266887 0.853953 48 24 24 
0.320225 -0.285624 0.936503 120 88 111 
0.043134 0.148802 0.601724 89 64 85 
0.459135 -0.31192 1.28106 51 68 98 
-0.34512 -0.424777 0.810371 88 67 84 
-0.166153 -0.433025 0.848735 88 60 83 
-0.284481 -0.461808 0.82624 131 114 133 
0.182331 0.0898262 0.758333 116 62 75 
-0.342085 0.00159977 0.797125 119 95 109 
0.40725 0.131726 0.936934 105 81 95 
-0.202584 -0.484037 0.843377 131 114 132 
0.249922 0.083981 0.907954 127 109 125 
0.184403 0.120743 0.712681 134 87 107 
0.00768808 0.109455 0.593541 105 63 75 
0.133957 -0.344605 0.9024 137 109 131 
-0.15905 -0.0530885 0.798928 113 60 70 
0.297114 -0.106002 0.925084 131 113 137 
-0.142292 -0.514943 0.857179 91 78 98 
-0.345064 -0.334113 0.805885 103 78 97 
0.372598 0.0475788 0.932956 118 94 107 
0.441698 -0.147786 1.03462 75 86 114 
-0.172653 -0.5105 0.848586 124 106 130 
-0.404043 -0.14136 0.784256 110 93 111 
-0.317754 -0.130397 0.80295 134 115 135 
-0.382158 -0.254763 0.795136 128 111 130 
-0.370903 -0.37793 0.801936 127 104 120 
-0.0201857 -0.0864888 0.812105 95 56 57 
0.270004 0.114579 0.916436 92 68 82 
0.0663573 -0.324778 0.888711 144 117 132 
-0.171124 -0.402461 0.844508 121 97 119 
0.156641 0.129946 0.639735 156 111 132 
-0.402317 -0.217358 0.789137 100 75 96 
0.456417 0.214437 1.16568 104 100 115 
-0.214501 -0.455039 0.838925 131 106 125 
0.453572 0.180211 0.952257 105 96 117 
0.185597 0.18942 0.666238 119 90 110 
-0.429207 -0.328616 0.790944 140 121 140 
-0.405155 -0.467513 0.801723 102 79 95 
-0.467182 -0.211677 0.773898 168 186 234 
0.242271 0.116366 0.9057 65 45 56 
0.228475 0.0353308 0.886863 115 61 75 
-0.165543 -0.0601296 0.790931 105 55 66 
0.191407 0.171248 0.720666 103 66 84 
0.431108 -0.0116303 0.948359 91 73 99 
-0.376798 0.18386 0.629812 43 66 50 
0.243914 0.167751 0.818225 127 79 101 
-0.388265 -0.535861 0.806095 132 113 133 
0.430524 -0.0377956 0.955507 123 101 124 
0.162034 -0.188484 0.862112 98 55 62 
0.262539 -0.05536 0.915536 104 77 92 
-0.387943 -0.597918 0.810076 111 78 99 
0.414528 -0.227997 0.951785 136 117 137 
0.178443 -0.223682 0.90632 130 103 120 
-0.551038 0.170927 0.589304 60 76 66 
0.180687 0.170936 0.659456 152 108 123 
0.139692 -0.313475 0.902901 110 77 94 
-0.291021 -0.540843 0.825739 129 104 123 
0.37561 0.057023 0.934582 137 117 129 
0.218319 -0.288166 0.917514 120 88 111 
-0.374391 -0.054611 0.789761 71 59 79 
-0.157255 -0.114519 0.790278 52 27 33 
0.176755 0.087613 0.813276 117 74 81 
-0.171776 -0.482512 0.850672 127 108 128 
0.37853 -0.187483 0.943977 122 95 110 
-0.623183 -0.450983 0.630365 124 111 128 
-0.0561704 -0.408456 0.866843 98 83 106 
-0.532177 0.0395975 0.745169 102 111 152 
-0.285947 -0.435476 0.824121 113 86 101 
0.0065795 0.121761 0.594262 76 43 62 
-0.315236 -0.437619 0.816976 127 101 114 
-0.100398 -0.406458 0.860218 119 106 126 
-0.31085 -0.119106 0.805298 136 112 128 
-0.301151 -0.368434 0.818376 133 110 128 
0.154438 0.17993 0.619981 129 84 105 
0.257789 -0.195365 0.920158 135 113 134 
-0.128618 -0.0660603 0.80847 121 67 80 
-0.315571 -0.229295 0.809227 117 99 121 
0.116521 -0.375553 0.900982 136 118 140 
0.373547 -0.299976 0.946082 109 86 104 
0.359676 -0.286485 0.94379 141 122 141 
-0.233083 -0.543952 0.839348 91 64 83 
0.45149 -0.0514301 1.26837 37 52 75 
0.128029 -0.408745 0.905167 134 116 140 
-0.638525 -0.48262 0.704928 112 119 161 
-0.360566 -0.21453 0.797423 110 96 109 
0.212618 0.14315 0.815842 94 46 60 
-0.0482081 -0.240935 0.794399 116 72 85 
0.352197 -0.135723 0.937825 126 99 118 
-0.125456 -0.162456 0.797942 76 44 57 
0.0811017 -0.220593 0.831911 60 25 31 
-0.373126 -0.348222 0.799909 118 105 123 
-0.0424452 0.16724 0.573125 87 55 66 
0.166568 0.10904 0.796487 63 34 38 
0.12135 -0.269162 0.880433 48 24 24 
-0.347478 -0.484952 0.812361 128 104 120 
-0.295465 -0.280961 0.8154 125 95 105 
0.0940263 -0.403384 0.899592 124 101 127 
-0.156085 -0.0155362 0.803022 113 71 85 
0.21247 -0.312606 0.917834 105 77 91 
0.157656 0.160903 0.633227 119 84 108 
-0.385384 0.033693 0.781367 123 110 136 
0.141452 0.15385 0.618672 140 89 106 
-0.140057 -0.492565 0.853583 102 74 96 
0.368184 -0.191305 0.942623 117 88 116 
0.398969 -0.0488452 0.942705 139 118 137 
-0.185651 -0.397297 0.842631 88 65 81 
0.432184 -0.254993 0.963861 126 102 124 
0.109627 -0.23697 0.842074 64 32 37 
-0.5263 -0.40026 0.771258 162 174 224 
0.103659 -0.131256 0.856207 69 33 45 
-0.164326 -0.0989443 0.788098 77 47 59 
0.424951 -0.0605148 1.01207 58 44 57 
0.356641 -0.159304 0.938818 115 91 115 
0.0162224 0.0156785 0.81059 61 31 39 
0.219214 0.0198493 0.90129 131 103 125 
-0.36997 -0.419039 0.805866 118 106 130 
0.45503 0.187434 1.03904 67 81 92 
0.404123 0.107294 0.937194 125 94 110 
0.265842 -0.219194 0.924065 119 91 106 
-0.0162462 -0.300642 0.792012 75 39 43 
0.324963 -0.312007 0.939696 95 78 96 
-0.267913 -0.352159 0.824116 96 78 94 
-0.249974 -0.539196 0.836335 126 109 125 
0.179713 -0.102467 0.901864 145 117 139 
-0.411088 -0.24291 0.789714 114 86 98 
-0.428863 -0.251632 0.788893 131 100 116 
-0.0777267 0.0305673 0.78908 142 88 101 
-0.3476 -0.185349 0.79908 81 71 96 
-0.363382 -0.345267 0.803512 101 89 101 
-0.222629 0.0849148 0.728501 105 82 98 
-0.245827 -0.180133 0.818733 114 90 104 
-0.154916 -0.106595 0.798544 62 23 28 
0.237812 -0.219622 0.91759 121 89 102 
-0.0393598 -0.396919 0.870419 124 96 118 
-0.364237 -0.167511 0.792012 110 97 127 
0.110604 -0.251164 0.841711 109 59 70 
-0.462809 -0.0315847 0.768194 112 95 113 
0.224035 0.16457 0.808881 159 114 135 
-0.403009 -0.051907 0.783895 128 109 129 
-0.199873 -0.373748 0.839102 105 73 84 
-0.375626 -0.127954 0.791484 123 104 132 
-0.150185 -0.470623 0.850918 101 74 89 
-0.381748 -0.395134 0.806286 129 110 129 
0.429219 0.00109681 0.94588 134 113 128 
0.00593026 0.158871 0.588423 104 72 93 
-0.386312 -0.51266 0.808497 124 106 128 
0.393811 0.0241576 0.938233 110 85 104 
0.0377457 -0.372289 0.886012 133 110 130 
-0.145264 -0.457352 0.853127 103 72 90 
0.180701 0.137235 0.729496 87 48 66 
-0.547988 0.178062 0.68497 23 58 26 
-0.408855 -0.354303 0.793384 128 109 131 
0.432592 -0.127067 0.958843 103 75 97 
0.251247 -0.269085 0.924071 106 82 96 
-0.0973646 0.0698819 0.759447 135 88 104 
0.434302 0.14996 0.944835 108 88 100 
-0.410175 -0.310306 0.792891 130 107 127 
0.207194 -0.366578 0.918535 135 116 136 
-0.339811 -0.139853 0.798185 132 107 129 
-0.279608 -0.133304 0.81229 100 72 87 
-0.164066 0.0632313 0.747029 100 64 78 
-0.463293 -0.550003 0.787669 176 192 243 
0.360084 -0.232974 0.941454 114 97 116 
-0.156162 -0.452612 0.852253 124 102 123 
0.192457 -0.113291 0.905031 109 78 96 
0.384604 -0.25978 0.948321 96 84 108 
-0.293343 -0.260864 0.814319 84 62 75 
0.126666 -0.107427 0.861095 72 29 36 
-0.463591 -0.539861 0.787538 176 193 239 
-0.261459 -0.169848 0.816219 123 106 125 
0.120049 -0.314451 0.89878 135 116 138 
-0.0403605 -0.100762 0.804131 50 24 25 
0.0240313 -0.265712 0.797702 72 40 45 
0.0853882 0.0619215 0.798076 109 76 93 
-0.202424 -0.413296 0.839904 128 110 132 
0.149987 0.0769031 0.808771 126 86 112 
-0.659313 -0.462584 0.636698 132 118 135 
-0.282823 -0.485765 0.83031 126 102 116 
0.164407 -0.208705 0.864022 156 104 117 
-0.0951593 -0.475709 0.863638 121 102 124 
-0.124348 -0.182295 0.793458 109 67 77 
0.242319 -0.24241 0.920254 137 116 133 
-0.630156 0.172398 0.617759 130 119 136 
0.312191 -0.237256 0.932058 110 97 117 
0.256216 0.110218 0.908356 132 104 119 
0.0219297 -0.388963 0.881277 130 102 117 
-0.193461 0.00646988 0.774253 149 98 117 
0.181229 0.0895598 0.774857 132 78 94 
-0.120029 0.0711254 0.755387 143 96 116 
-0.451443 0.0117464 0.772196 106 97 124 
-0.263676 -0.501864 0.829788 98 77 96 
-0.468683 -0.45583 0.784911 173 191 241 
0.128754 -0.268157 0.844317 61 39 41 
-0.597176 0.171356 0.67226 39 83 50 
0.293235 -0.258483 0.930625 132 114 138 
0.172645 0.164417 0.774854 153 111 133 
0.43391 0.136264 0.946055 133 116 135 
0.424659 0.0844872 0.940994 106 79 96 
0.451816 0.183257 1.09907 159 160 188 
0.277336 -0.219835 0.925978 126 107 127 
-0.424684 0.0276959 0.774148 121 112 131 
0.367637 0.179297 0.912228 125 111 126 
0.101722 0.166439 0.602123 80 44 56 
0.234941 -0.0542434 0.899241 86 46 54 
-0.177495 -0.0411032 0.787808 109 60 66 
-0.275741 -0.203876 0.814878 127 109 133 
0.155244 0.0842033 0.624782 115 65 76 
0.478427 0.212704 1.00677 31 33 45 
0.274013 -0.320154 0.929639 119 94 116 
0.23596 -0.0237225 0.910149 123 95 109 
-0.18183 -0.516107 0.848578 104 76 98 
0.421846 -0.0417167 0.94653 91 68 86 
-0.108735 -0.0279879 0.806409 77 32 39 
0.396843 -0.218801 0.948006 107 83 107 
-0.539355 -0.464944 0.755336 37 57 94 
0.145793 0.0899184 0.612394 103 54 58 
0.17296 0.150359 0.76507 141 101 125 
-0.236657 -0.249498 0.825162 135 105 113 
0.334755 -0.190268 0.93598 109 81 95 
0.226958 0.027619 0.867129 116 65 74 
0.331271 0.0556444 0.924603 125 94 110 
0.229987 0.189348 0.808819 64 47 57 
0.291287 -0.306916 0.933131 114 99 128 
0.206771 0.0297874 0.853618 124 75 96 
-0.196161 -0.401255 0.839455 116 94 115 
0.132802 -0.334116 0.902692 98 79 99 
-0.444571 -0.472382 0.792017 104 85 105 
0.243709 -0.329364 0.922561 140 119 138 
0.363402 -0.265123 0.943618 124 102 125 
0.125453 -0.302643 0.900994 139 109 133 
-0.320588 -0.47427 0.81744 122 101 118 
-0.312482 -0.168013 0.808106 106 92 115 
-0.467948 -0.178222 0.772373 163 180 224 
0.214408 -0.380836 0.919132 106 81 103 
-0.388737 -0.343621 0.799025 119 104 125 
-0.16029 -0.467772 0.849648 101 73 88 
-0.645207 -0.443048 0.608045 94 109 150 
-0.0435162 0.0459383 0.779962 123 65 77 
-0.670832 -0.454642 0.682511 136 115 134 
-0.374978 -0.140731 0.79132 116 96 121 
0.248364 -0.0589393 0.913326 131 106 128 
0.0416977 -0.390216 0.887832 120 103 122 
0.3108 -0.129759 0.934851 130 99 115 
-0.465323 -0.224975 0.77807 121 107 132 
-0.386799 -0.281019 0.794918 90 71 90 
-0.439894 -0.351256 0.786071 124 104 131 
0.17857 0.095358 0.664761 78 42 46 
-0.628437 0.171011 0.607294 127 123 138 
0.446286 -0.0248581 1.26381 138 147 188 
0.186408 0.168666 0.643718 122 78 95 
0.238711 -0.302684 0.921029 138 123 146 
0.161014 -0.196793 0.883699 90 44 54 
-0.468175 0.0177474 0.765241 154 173 215 
-0.386945 -0.24107 0.796193 79 56 72 
0.328207 -0.29252 0.938922 115 84 100 
0.224586 0.00580847 0.909413 95 71 85 
0.254795 0.0938064 0.909346 67 48 67 
-0.263148 -0.310069 0.82353 119 100 120 
0.172996 0.118472 0.762771 80 49 67 
0.00427681 -0.308614 0.796503 75 36 41 
-0.462846 0.0847338 0.764913 108 99 120 
-0.234094 -0.347044 0.830097 97 73 87 
0.224655 -0.272597 0.917089 129 115 140 
0.219271 -0.195782 0.912741 118 90 105 
0.161406 -0.193896 0.904814 125 100 121 
-0.0498437 0.0834575 0.607855 154 119 143 
-0.132087 -0.46797 0.858539 125 105 130 
0.190937 0.0953576 0.80421 129 78 93 
0.354282 -0.0938189 0.935344 128 103 122 
0.239508 -0.0702118 0.913032 112 87 108 
-0.212161 0.08435 0.734968 62 47 50 
-0.443413 0.0381988 0.768342 117 107 132 
-0.027084 -0.109473 0.807061 40 20 19 
0.422186 -0.270203 0.955457 103 85 111 
0.302875 0.0164239 0.922328 120 89 97 
0.378228 -0.126854 0.941323 129 107 120 
0.177742 0.098031 0.778445 72 36 40 
-0.213922 -0.48753 0.839487 98 79 98 
-0.538675 -0.0715753 0.742332 39 50 70 
-0.208947 -0.24711 0.83035 135 111 127 
-0.153133 -0.0840513 0.800044 113 66 74 
-0.331311 -0.151168 0.797002 120 96 120 
-0.168571 -0.0507433 0.790136 112 61 68 
0.30667 0.0809687 0.933159 132 108 122 
-0.297696 -0.208191 0.811135 111 79 90 
-0.345794 -0.135358 0.798058 113 88 110 
-0.0407053 -0.0360757 0.805291 93 61 76 
0.35493 0.121662 0.927517 129 114 135 
-0.545311 -0.0159503 0.730478 150 167 213 
0.181583 0.0849494 0.664363 116 65 82 
0.268183 -0.195366 0.922603 142 118 140 
0.105672 -0.387409 0.898883 124 106 132 
0.142616 -0.169969 0.844636 118 72 83 
0.00692795 0.0192009 0.807944 93 54 59 
0.0163982 -0.377735 0.880362 108 79 97 
0.392656 0.166785 0.928014 118 118 142 
-0.139838 0.0768501 0.752628 143 98 118 
0.0301664 0.105243 0.599895 125 78 98 
0.252136 -0.36657 0.927633 122 108 134 
-0.533383 -0.178701 0.748238 46 58 80 
-0.397316 0.0693763 0.779229 128 109 131 
-0.534071 -0.592454 0.76531 49 64 93 
-0.403355 -0.406504 0.797634 100 79 98 
-0.536558 -0.145163 0.745404 48 56 75 
-0.41934 -0.049219 0.77893 123 104 126 
-0.417569 -0.40641 0.796199 102 85 103 
0.0826807 0.155522 0.595565 149 101 123 
0.181853 -0.273297 0.91213 135 108 123 
0.381384 -0.283866 0.947727 127 103 119 
0.174367 0.188245 0.648857 100 69 84 
-0.306694 -0.399604 0.817703 123 95 110 
0.407752 -0.0862201 0.94516 123 100 120 
0.292983 -0.196111 0.92665 113 88 109 
0.132183 -0.142742 0.892007 119 67 79 
0.0923855 -0.326015 0.885316 138 111 128 
0.161233 -0.183285 0.900589 122 94 108 
-0.42493 -0.488451 0.796727 104 87 106 
0.184643 0.190844 0.758077 117 86 102 
-0.638136 -0.460064 0.590088 135 127 151 
-0.343684 -0.201663 0.80009 119 106 126 
0.0899199 -0.108767 0.831534 48 20 19 
0.424361 -0.157229 0.950939 115 84 102 
0.257778 -0.124948 0.917572 136 112 128 
0.104098 -0.401571 0.899639 119 87 111 
-0.0514472 -0.253732 0.792259 105 60 67 
0.191164 0.092599 0.727833 128 72 83 
0.240274 -0.0725701 0.876515 147 91 102 
0.229398 -0.124866 0.91401 116 93 111 
-0.0723873 -0.478054 0.868919 126 100 125 
-0.0412694 0.109986 0.585128 87 53 67 
-0.119956 -0.487795 0.859048 126 94 109 
-0.386259 -0.0125954 0.785003 114 104 129 
-0.118861 -0.14929 0.804935 114 63 72 
-0.301804 -0.467862 0.82216 120 101 121 
0.164598 -0.27406 0.909383 134 103 118 
-0.644908 -0.441895 0.644439 97 111 150 
0.109196 -0.302713 0.89479 116 90 117 
0.19201 0.160386 0.68705 174 126 152 
0.0108852 -0.205929 0.822101 52 29 37 
0.224221 -0.156775 0.912599 118 86 107 
-0.333874 -0.213274 0.802903 120 101 121 
-0.289441 -0.527016 0.827942 108 77 93 
0.101233 -0.175731 0.855569 65 32 39 
0.442449 0.165769 1.11136 153 174 219 
-0.083432 -0.459597 0.866413 105 81 103 
0.16472 0.182772 0.63537 107 75 90 
0.220617 0.131611 0.817807 115 59 70 
-0.270379 -0.53293 0.830147 109 81 104 
0.0643559 -0.430768 0.893039 89 70 90 
-0.467152 -0.131679 0.774553 117 104 124 
0.234322 0.0318973 0.855382 157 110 126 
0.182222 0.17467 0.770109 121 88 99 
0.0821989 0.0209964 0.839598 110 59 66 
0.186352 0.151208 0.702805 122 89 118 
0.249301 0.0739535 0.841321 124 79 86 
0.253119 0.174406 0.866384 116 68 80 
-0.0699692 0.0454288 0.779584 134 76 91 
-0.0607501 -0.45615 0.871144 128 108 133 
-0.428938 -0.0433961 0.775345 114 99 120 
0.234763 -0.0648649 0.896858 109 57 69 
0.0720697 0.140977 0.603472 101 75 102 
-0.399778 -0.422573 0.797636 127 103 116 
0.124535 0.000390416 0.847664 89 53 65 
-0.0585598 -0.430667 0.869575 136 115 134 
-0.0547549 -0.0755275 0.80414 111 65 76 
-0.359424 -0.230164 0.800599 84 57 74 
0.173541 0.114797 0.807238 85 49 53 
0.190779 -0.363016 0.915121 126 104 127 
0.349095 -0.182346 0.939267 132 109 127 
-0.454772 -0.61263 0.800695 145 117 139 
0.0760093 -0.387264 0.892779 112 93 121 
0.31222 -0.299083 0.935028 119 92 109 
0.0570449 0.0381651 0.802397 137 80 97 
-0.701213 -0.492068 0.640053 126 153 208 
0.323971 -0.344441 0.939796 101 76 95 
0.0384732 -0.414717 0.88624 128 102 129 
0.152145 -0.368452 0.909564 127 105 126 
0.192209 0.190148 0.716642 101 74 83 
-0.412717 -0.345142 0.792099 135 118 137 
0.249483 -0.0742471 0.914116 134 110 126 
-0.121047 -0.209693 0.790303 118 65 75 
-0.660036 -0.615031 0.603659 131 161 213 
-0.165997 -0.081341 0.786272 86 53 70 
0.277342 -0.191395 0.925965 132 110 131 
-0.543348 -0.128223 0.726897 157 173 222 
0.417583 -0.185353 0.951661 136 117 137 
0.443824 -0.0873367 1.03375 64 78 117 
0.183761 0.129015 0.680881 118 90 113 
-0.0233161 -0.277627 0.778487 68 36 41 
0.0490631 0.0910486 0.59529 75 36 39 
-0.359463 -0.257966 0.801472 126 99 114 
0.198386 -0.317312 0.913797 128 100 122 
-0.245689 -0.548199 0.836291 130 102 124 
0.128517 -0.269836 0.897702 125 102 122 
0.120155 -0.242129 0.895573 108 74 88 
-0.355913 -0.239851 0.798916 113 87 100 
0.073096 -0.250476 0.818346 111 63 75 
0.170249 -0.329068 0.908193 147 124 142 
0.260032 -0.159993 0.919623 128 111 129 
0.0569485 0.185748 0.591457 72 58 71 
0.444036 -0.327462 1.25468 147 164 207 
0.342583 0.118787 0.925884 100 82 106 
0.074162 -0.433268 0.897065 99 80 99 
-0.314722 -0.421499 0.816885 100 79 96 
-0.0254381 0.0517078 0.775158 129 86 106 
0.33197 -0.140325 0.933939 122 95 110 
-0.461145 0.0745183 0.772936 121 103 125 
-0.523383 -0.544973 0.771763 157 173 224 
0.456705 0.21189 1.18838 111 108 125 
0.261597 0.0962846 0.816554 121 68 78 
-0.16148 -0.0715398 0.790688 110 60 71 
0.160254 -0.214199 0.892372 154 107 127 
0.400145 -0.281872 0.951802 131 106 128 
0.180504 0.0660724 0.814516 139 96 115 
-0.327203 -0.24151 0.808165 118 91 106 
-0.342295 -0.496262 0.814217 128 101 120 
0.22856 0.0319501 0.876169 147 103 120 
0.0614694 -0.440714 0.893441 109 79 103 
-0.224905 0.0919533 0.987345 132 85 101 
0.198962 -0.120575 0.91224 136 106 118 
-0.684848 -0.604617 0.63938 116 137 194 
-0.465291 -0.4846 0.78569 176 192 241 
0.226484 -0.0339383 0.869259 101 58 65 
-0.537851 0.0895974 0.731174 30 50 83 
0.357064 -0.325795 0.944469 122 107 130 
-0.272786 -0.494443 0.833177 105 89 100 
-0.356722 -0.515303 0.811557 100 79 96 
-0.196754 0.0281732 0.793876 125 74 91 
0.0809209 -0.360701 0.892352 119 90 108 
0.382266 0.171156 0.922466 114 114 138 
0.362989 0.171689 0.917943 126 120 146 
-0.361338 -0.0338505 0.790394 124 101 117 
-0.635497 -0.443249 0.686394 134 117 133 
-0.617741 0.171556 0.635879 129 118 135 
0.228854 -0.0392651 0.910633 90 79 95 
-0.295274 -0.318987 0.815791 122 94 108 
-0.514166 -0.594131 0.773848 167 183 235 
-0.3389 -0.464529 0.814752 124 106 122 
-0.392383 -0.586807 0.807966 109 80 98 
-0.528428 -0.580303 0.77216 141 148 200 
-0.0165733 -0.208313 0.816252 51 28 34 
0.199407 0.100803 0.808894 53 27 28 
0.265152 -0.253911 0.925167 122 104 126 
-0.0705241 0.0900952 0.752494 98 60 75 
-0.468941 -0.064993 0.768134 155 173 213 
0.162853 0.0849517 0.635788 117 67 78 
-0.53615 -0.489034 0.74598 162 178 229 
0.21943 0.0261152 0.891299 120 70 81 
0.159855 0.0800156 0.808578 141 88 104 
0.332997 -0.188679 0.920946 131 109 122 
0.0596036 -0.3659 0.889146 142 118 142 
-0.411922 -0.232521 0.786563 99 80 99 
0.0677024 0.0877415 0.779551 133 99 116 
-0.187698 -0.378368 0.841305 118 101 120 
0.293606 -0.128473 0.924241 120 95 116 
0.182379 0.141289 0.810136 109 68 82 
0.268875 0.0579546 0.912247 117 87 97 
-0.441949 -0.369716 0.78362 128 110 134 
0.179927 0.151681 0.732661 135 100 120 
0.426883 -0.168029 0.954237 111 82 100 
-0.546952 -0.492475 0.748865 161 177 229 
-0.448244 0.0652251 0.768079 88 80 104 
0.278663 0.183196 0.876557 111 92 112 
-0.484706 -0.523025 0.790576 166 181 236 
0.176848 -0.00458493 0.869119 120 68 80 
-0.260882 -0.534679 0.833821 130 103 118 
0.206739 0.0916892 0.807823 119 66 76 
-0.668832 -0.613428 0.628194 139 164 221 
0.43389 0.0854024 0.952918 116 88 110 
0.206376 0.0770304 0.819287 139 95 110 
-0.34694 -0.225188 0.805622 121 98 108 
0.0549275 0.0203749 0.822307 139 87 99 
-0.396888 -0.120019 0.786675 128 109 129 
-0.362304 -0.523884 0.811134 102 83 105 
0.202087 -0.379484 0.917223 109 83 110 
0.0977208 -0.30392 0.893582 129 110 138 
0.0250489 -0.249494 0.811609 112 65 75 
0.427439 0.165242 0.992132 59 47 51 
0.268782 -0.0192191 0.922144 129 105 119 
-0.641655 -0.472161 0.724678 168 185 237 
-0.0715765 -0.446356 0.865162 124 102 125 
0.0777992 0.0112384 0.8277 105 73 96 
0.108551 0.148984 0.613344 113 75 96 
-0.396992 -0.0792937 0.783974 116 94 115 
-0.376306 -0.0444924 0.790726 109 97 119 
-0.104718 -0.489523 0.863605 121 96 117 
0.117761 -0.327148 0.897916 131 112 134 
-0.661157 -0.532058 0.600974 130 157 212 
0.14164 -0.361538 0.904946 119 90 110 
-0.40081 -0.188249 0.787413 130 108 129 
-0.401688 -0.572578 0.808213 115 84 102 
0.382427 -0.0528034 0.939225 100 83 101 
0.290908 -0.291305 0.930484 106 77 95 
0.456166 -0.288411 1.28115 49 63 90 
-0.00918175 0.0777465 0.779428 140 92 106 
0.14566 -0.16777 0.896858 115 86 104 
0.0042824 -0.0817982 0.810945 127 108 91 
-0.651095 -0.46526 0.619851 137 141 178 
0.442182 0.167751 1.04981 157 172 215 
0.412634 -0.263355 0.952801 113 87 112 
0.394585 -0.196813 0.946776 101 81 106 
-0.400177 -0.598446 0.808449 113 84 106 
-0.186885 -0.414117 0.841236 104 75 93 
0.276693 0.196524 0.895454 122 98 112 
0.290514 -0.0878444 0.925593 104 79 100 
-0.165917 -0.0407349 0.800558 86 56 66 
0.0798634 -0.0996326 0.853238 56 25 30 
0.0912244 0.0481669 0.812869 148 87 105 
0.449599 -0.13845 1.27545 42 46 73 
0.187731 0.0982494 0.679932 126 78 90 
0.454982 0.206762 0.935648 71 75 87 
0.257663 0.176883 0.845072 128 85 102 
-0.336713 -0.19933 0.804052 114 99 122 
-0.254233 -0.375798 0.82611 116 93 111 
0.253672 -0.00725861 0.924 120 93 108 
0.407305 0.117339 0.937078 107 77 87 
0.128644 -0.28106 0.869633 119 85 101 
0.257324 0.0970483 0.84164 120 66 80 
-0.57406 0.171622 0.668781 45 89 56 
0.258848 0.194518 0.832336 68 58 69 
-0.120347 -0.135406 0.802471 136 84 96 
0.157436 -0.164854 0.898742 126 95 113 
-0.443247 -0.520541 0.795072 134 111 127 
-4.291 0.115666 4.14482 145 91 105 
0.41043 0.177005 0.920759 119 114 134 
0.159991 0.111432 0.649541 94 59 79 
0.220119 0.108406 0.817438 58 28 30 
0.186995 0.188634 0.746329 85 62 68 
0.353557 -0.125097 0.936818 136 108 122 
0.0117911 -0.395539 0.879022 58 39 45 
-0.643892 -0.587737 0.709978 113 120 162 
0.188268 0.100674 0.719672 116 69 77 
0.0975327 -0.343837 0.895211 142 110 123 
-0.296964 -0.446113 0.821638 105 80 102 
0.446653 0.173442 1.12624 150 146 169 
0.405358 -0.308401 0.95567 98 73 94 
-0.27031 -0.546575 0.831107 128 97 115 
-0.183679 0.0157319 0.796754 94 50 63 
0.452876 0.184972 1.08894 152 147 170 
-0.0472942 -0.123888 0.791233 109 58 67 
-0.364553 0.00190313 0.784851 101 82 102 
-0.626514 0.173952 0.642121 126 113 131 
-0.093811 0.086134 0.757152 139 92 112 
-0.532091 0.0613837 0.732954 39 46 64 
0.0739941 -0.0758539 0.829399 125 72 82 
0.455263 0.191755 1.13399 121 118 137 
0.186628 0.171412 0.746568 108 66 78 
0.431672 -0.179418 0.960507 110 85 104 
-0.344344 -0.0853898 0.794372 106 92 109 
-0.361456 -0.290327 0.802373 116 93 111 
-0.422339 -0.54015 0.797643 132 109 129 
0.171144 0.12353 0.781581 123 79 96 
0.152773 0.103828 0.686467 71 30 36 
-0.25827 -0.192688 0.817879 126 102 115 
0.0245259 -0.020611 0.810689 134 117 97 
0.444586 0.174674 1.16508 134 138 173 
0.445095 -0.354371 1.28352 87 96 139 
0.0989076 0.187628 0.599111 96 95 109 
0.440061 -0.177697 1.03401 72 76 103 
-0.104162 -0.466476 0.861062 101 76 97 
0.098767 0.129211 0.616002 131 84 104 
0.425187 -0.114059 0.995556 52 37 44 
0.170003 -0.111887 0.850937 88 51 58 
0.452298 0.196881 0.925692 115 107 118 
0.0168637 -0.15712 0.821562 106 60 70 
-0.379985 0.182047 0.578663 50 72 51 
-0.330893 -0.572168 0.823535 103 78 99 
-0.35593 -0.0070073 0.790736 112 94 110 
-0.00831339 0.101044 0.592033 71 40 46 
0.0950189 0.0788149 0.796838 147 99 121 
-0.197862 -0.00681877 0.789972 105 57 69 
-0.0327394 -0.143929 0.803944 114 62 74 
0.162357 0.161425 0.642925 138 99 117 
0.343025 -0.322091 0.941465 128 114 140 
0.0175723 0.0851959 0.609471 100 54 64 
0.269699 0.133031 0.925276 87 67 94 
0.332247 -0.155759 0.933106 114 82 103 
0.209529 0.103722 0.812859 97 56 62 
0.448894 -0.211874 1.27528 65 69 104 
0.402003 -0.140547 0.947798 126 101 122 
0.206066 -0.195371 0.910919 123 93 117 
-0.154457 -0.0653842 0.802828 93 59 73 
-0.0609754 -0.268107 0.784553 35 19 20 
0.243056 0.0746696 0.866188 130 89 105 
0.124409 0.16047 0.611736 105 80 101 
0.181203 -0.354542 0.913267 129 107 128 
-0.179514 0.074953 0.742735 88 67 76 
-0.371423 -0.516122 0.810292 96 81 100 
0.395903 -0.000520814 0.939717 114 89 108 
0.454489 0.201487 1.07838 123 126 143 
-0.530937 0.0763195 0.749432 113 122 165 
0.181809 0.15485 0.721511 148 108 132 
-0.633184 -0.445722 0.659417 117 89 104 
0.374398 -0.0931827 0.939773 123 100 120 
0.195778 0.122615 0.813832 99 70 90 
-0.167583 0.0823729 0.746376 131 80 95 
-0.177108 -0.383638 0.841298 121 103 127 
0.217822 0.0771661 0.822206 122 84 109 
-0.539757 -0.113268 0.746014 44 55 73 
-0.418543 -0.517841 0.799639 103 93 117 
0.4493 -0.187073 1.27531 54 59 89 
-0.0249672 0.164272 0.576123 84 46 59 
0.455535 0.185861 1.11915 149 141 165 
-0.115441 -0.0247373 0.799839 109 56 62 
0.0491493 -0.351647 0.885581 137 108 130 
0.195399 0.190861 0.706282 112 88 104 
0.166089 -0.395105 0.91206 118 86 107 
0.136813 -0.00533352 0.860424 139 87 100 
-0.64234 -0.446361 0.661542 136 115 132 
-0.925139 0.38958 1.12587 112 74 89 
-0.0240815 0.0641492 0.774893 145 97 113 
-0.405273 -0.488211 0.804164 123 104 124 
0.0381661 -0.344146 0.827264 138 85 103 
-0.467591 -0.253292 0.78033 120 105 134 
-0.0461416 -0.471907 0.873088 125 100 119 
0.087695 -0.150653 0.855834 88 44 57 
0.0164127 0.0361452 0.850536 150 96 110 
-0.336283 -0.438519 0.820193 112 90 103 
-0.255435 -0.419195 0.828145 117 92 114 
0.426822 0.122925 0.96473 101 91 116 
0.316456 -0.0637086 0.926784 125 101 117 
-0.641082 -0.455653 0.683398 132 117 138 
0.450365 -0.264904 1.27853 42 49 75 
0.180418 0.119455 0.725664 103 79 101 
0.0481164 0.0355824 0.83339 148 94 107 
-0.326085 0.0893727 0.959782 125 77 93 
0.0922184 -0.0279578 0.848104 123 65 77 
0.433038 -0.0537959 0.957464 99 71 93 
0.445123 0.0304253 1.26393 125 140 181 
-0.0385738 0.142713 0.586326 82 55 74 
0.18971 -0.147652 0.905715 120 88 101 
-0.643137 -0.635058 0.713801 114 124 175 
-0.291266 0.183897 0.573324 61 73 73 
-0.029062 -0.223494 0.797439 78 41 49 
-0.354797 0.184806 0.633918 67 91 75 
0.24445 0.0613049 0.864503 117 72 79 
0.0818322 -0.229982 0.826972 98 55 64 
-0.493753 -0.118403 0.751849 157 174 220 
-0.639385 -0.44892 0.575146 129 106 122 
0.260762 0.194968 0.765221 60 70 71 
0.188353 0.100691 0.839783 120 64 73 
-0.0110987 0.0949019 0.703748 143 122 153 
0.385127 0.174742 0.918574 122 117 137 
0.113408 0.0883549 0.607502 121 73 89 
-0.197587 -0.0377274 0.774281 79 48 54 
0.427505 0.142181 0.938931 100 78 91 
0.0423267 -0.359132 0.884139 129 101 124 
0.185974 0.157025 0.710919 135 87 109 
0.124218 0.0910536 0.680325 123 69 82 
0.127266 0.0964543 0.613906 104 64 73 
-0.164844 -0.489222 0.853362 122 98 114 
0.237377 -0.34969 0.922456 130 102 124 
0.424788 -0.307336 0.998829 95 78 97 
-0.63129 -0.430786 0.658835 162 178 229 
0.35402 -0.0685115 0.933916 117 89 104 
-0.0159349 -0.155409 0.863514 52 22 22 
0.108118 0.0818805 0.878891 78 45 62 
0.0183671 0.00146038 0.790281 59 36 44 
0.134722 0.0562807 0.741195 85 43 57 
-0.230562 -0.22416 0.825146 132 113 133 
0.209972 0.0562667 0.753734 69 37 52 
-0.3264 -0.0861542 0.799763 102 79 95 
0.126179 -0.0268614 0.844728 95 44 61 
0.0728922 0.0901374 0.969689 92 58 72 
0.2275 0.0739641 0.824437 100 70 82 
0.136286 0.0766426 0.805608 94 57 75 
0.287788 0.0587679 0.917458 131 107 123 
-0.238487 -0.145578 0.820426 80 54 65 
-0.136105 -0.116264 0.806311 61 26 30 
0.170988 0.0740747 0.74533 75 49 62 
0.163484 0.0652138 0.8923 148 101 119 
-0.208729 0.0530898 0.736728 38 28 36 
0.18783 0.0604025 0.767619 115 77 98 
-0.100276 0.0777132 0.835617 149 102 118 
-0.257046 -0.235597 0.820385 131 105 118 
-0.290096 -0.0400544 0.805732 101 85 111 
-0.219301 -0.227887 0.82853 78 61 71 
-0.0137991 0.0895763 0.673466 93 124 179 
0.225532 0.0616496 0.823152 103 76 93 
0.315441 -0.170408 0.932455 75 57 79 
0.136782 0.0739846 0.886245 138 89 108 
-0.00660367 0.165306 0.580756 83 43 51 
0.0385202 0.167862 0.62574 116 77 95 
-0.220933 -0.240999 0.829681 73 56 66 
-0.424716 -0.113745 0.780909 76 63 80 
-0.253232 -0.28045 0.823729 102 78 94 
-0.193855 -0.176632 0.831342 85 62 72 
0.0467961 0.0898607 0.775341 63 51 61 
-0.0679845 0.120014 0.796761 113 57 68 
-0.0428927 0.0467702 0.750784 159 112 132 
-0.00865939 0.094719 0.763622 92 62 70 
0.0576915 0.166517 0.593481 79 47 58 
-0.107731 0.10828 1.05318 113 75 98 
0.174983 0.0283867 0.702795 110 58 70 
0.0352641 0.0872818 0.770352 138 104 121 
0.113092 0.0478262 0.593781 130 92 117 
0.122917 0.0547326 0.894593 158 122 148 
0.240398 0.179241 0.836656 105 60 67 
-0.18665 0.111898 1.19724 154 105 124 
-0.305272 -0.0266894 0.800883 112 90 111 
0.172645 0.050149 0.849087 109 72 90 
0.0364744 0.0658018 0.720209 141 93 109 
0.0853371 0.168238 0.598464 125 87 102 
-0.187346 -0.282232 0.837117 137 105 120 
0.139046 0.183655 0.608567 96 68 83 
0.0719353 0.0524958 0.673297 116 84 108 
-0.027125 0.0995462 0.726901 173 133 157 
0.0456892 0.18415 0.589693 129 87 107 
-0.0502203 0.0955638 0.75565 101 67 83 
-0.0402235 0.180659 0.572644 95 65 75 
0.146535 -0.135925 0.845726 150 101 122 
0.0367256 0.0948823 0.681667 114 64 76 
-0.361027 -0.177538 0.795297 102 79 105 
0.260181 -0.316738 0.925967 121 93 115 
-0.175774 0.0407018 0.780901 139 82 97 
0.307472 -0.160643 0.929164 135 119 146 
0.243762 0.0903297 0.824819 168 120 136 
-0.217359 -0.152243 0.824741 129 100 118 
-0.207598 0.038289 0.758104 154 101 119 
0.349341 -0.149179 0.936368 137 111 136 
0.220286 0.052256 0.822793 137 89 111 
0.215175 0.0898428 0.818844 177 129 151 
-0.239129 -0.209859 0.821464 115 83 96 
0.146797 0.0727329 0.742183 154 101 119 
-0.198907 -0.282233 0.834295 124 92 105 
0.109617 0.160598 0.610477 128 89 110 
0.227713 0.0407898 0.832259 174 119 138 
0.283973 -0.0332633 0.919211 121 96 115 
-0.00520475 0.100408 0.714555 115 64 73 
-0.0150624 0.154795 0.701128 137 92 112 
0.273218 -0.289372 0.927266 144 125 147 
-0.177059 -0.275737 0.838164 136 112 128 
0.352034 -0.0284756 0.931417 96 73 93 
-0.0220646 0.175518 0.577461 120 73 83 
0.148918 0.0317656 0.854795 169 116 136 
0.0301531 0.102645 0.689442 124 71 81 
0.170048 0.0795596 0.813075 130 91 110 
-0.36424 0.0478026 0.784718 156 173 242 
-0.442495 0.0398149 0.825442 25 32 61 
-0.0269872 -0.407977 0.860721 41 22 41 
-0.458788 0.186463 0.726688 159 181 220 
-0.00276239 -0.0984986 0.815043 71 40 45 
-0.010315 -0.395407 0.864554 29 20 25 
0.0963917 -0.211039 0.839024 27 15 17 
-0.0466453 -0.343299 0.798271 53 30 36 
-0.373436 0.0540009 0.783392 11 15 24 
-0.542044 0.156057 0.740515 18 30 46 
0.0106288 -0.29637 0.796665 144 100 117 
0.0885296 -0.311428 0.833124 74 25 28 
-0.643906 -0.465938 0.671255 176 195 237 
0.452985 0.143063 1.01957 152 176 214 
-0.131026 -0.204349 0.778537 58 24 25 
0.0186945 -0.115638 0.818833 35 16 18 
0.0145734 -0.104406 0.820945 49 25 23 
-0.364377 -0.0826067 0.791942 45 35 44 
0.0855787 -0.204517 0.813979 124 70 93 
-0.465702 0.18502 0.709094 120 132 144 
0.135908 -0.26686 0.823008 53 28 34 
-0.541746 0.144222 0.734257 24 32 51 
0.0272255 -0.345128 0.819501 71 24 30 
-0.540082 0.156682 0.727216 21 37 60 
-0.270601 0.118622 1.2473 66 36 46 
0.00802569 -0.00763461 0.784044 97 79 59 
-0.520027 0.177625 0.7366 117 103 128 
-0.531985 0.152413 0.740377 71 78 107 
0.00472331 -0.180835 0.817652 66 31 29 
-0.160207 -0.00166625 0.799846 60 21 24 
-0.102165 -0.235934 0.797194 63 30 37 
0.0503621 -0.320572 0.826538 79 33 44 
0.0786637 -0.300598 0.829371 148 91 110 
0.0988698 0.0471658 0.83173 73 53 62 
0.0514679 0.00141861 0.822118 69 34 41 
-0.537571 -0.0601364 0.744937 39 47 66 
0.442246 -0.305101 1.04325 56 60 97 
0.0907254 -0.018065 0.852017 57 24 31 
0.156037 0.0138274 0.863555 68 38 48 
-0.113375 -0.0607846 0.812755 63 40 50 
-0.53922 0.128721 0.73028 37 49 71 
0.12702 0.0605858 0.804656 68 50 62 
-0.183778 -0.0104535 0.796623 57 30 37 
0.137959 -0.132603 0.849768 57 25 26 
-0.11008 -0.018897 0.811067 43 22 27 
0.185859 -0.0084629 0.871209 59 28 34 
0.036518 -0.292034 0.806007 59 33 42 
-0.0453001 -0.195176 0.791276 81 39 43 
0.0370354 -0.113741 0.812626 98 62 72 
0.0162357 -0.385664 0.868158 41 30 38 
-0.000486097 -0.0692153 0.801989 192 181 161 
-0.22174 0.0565308 0.734644 38 27 35 
0.463602 0.199365 0.962273 62 53 56 
-0.337454 0.0386608 0.793325 117 104 124 
-0.377917 0.067457 0.781893 117 105 129 
-0.136556 -0.219534 0.789844 83 32 41 
-0.0298353 -0.113887 0.792277 105 67 80 
0.463178 -0.138137 1.04956 161 178 221 
-0.508387 0.18214 0.709135 81 84 99 
-0.214793 -0.343118 0.834295 79 62 72 
-0.244328 -0.369967 0.828248 73 51 63 
-0.472864 -0.0976074 0.789777 103 82 115 
0.0343546 -0.267534 0.79424 44 24 25 
0.137748 -0.152218 0.853145 132 78 91 
0.429991 -0.173819 1.02397 103 113 149 
-0.0105301 -0.0924674 0.815784 113 92 71 
0.209161 -0.277409 0.915586 75 56 76 
0.0105289 -0.268988 0.79187 46 21 24 
0.240384 0.132092 0.820884 69 43 56 
-0.214345 -0.167729 0.827037 144 120 136 
-0.172672 0.0443053 0.76922 64 41 47 
-0.305259 -0.277381 0.814426 93 75 87 
0.0767675 -0.244794 0.812901 114 68 79 
0.0638605 -0.00105597 0.825193 97 44 50 
-0.413976 -0.368339 0.792611 60 46 61 
-0.131577 -0.132216 0.79653 57 25 26 
0.117597 -0.0762602 0.858573 66 34 49 
-0.147067 -0.0194503 0.805069 53 23 31 
-0.166652 0.0124544 0.800117 68 36 47 
0.0385255 -0.242058 0.810232 129 76 96 
-0.549446 0.173136 0.714628 115 106 125 
0.0602165 0.0954423 0.777373 56 43 52 
-0.0548041 -0.00507651 0.801588 150 94 107 
-0.0650302 -0.231587 0.78749 114 66 80 
-0.324289 -0.313935 0.809983 79 58 67 
-0.117353 -0.418065 0.856849 73 61 83 
-0.336241 -0.070916 0.797283 82 59 69 
-0.467656 -0.0195474 0.770671 106 89 108 
0.130196 -0.32232 0.900804 92 63 83 
0.176607 0.12812 0.750785 105 54 73 
0.209521 0.0660776 0.821532 68 52 62 
-0.618786 0.178652 0.656022 35 65 39 
-0.203915 -0.0648482 0.757719 62 23 28 
0.436749 -0.297582 1.03483 83 89 121 
0.179405 0.131286 0.808192 54 39 42 
-0.164951 -0.372879 0.84543 91 64 81 
0.313955 0.0379776 0.922791 50 35 56 
-0.361484 -0.316335 0.803284 92 66 75 
-0.0127805 -0.27102 0.783484 49 24 28 
-0.000822888 -0.0260951 0.790489 90 49 55 
-0.0163833 -0.287932 0.791428 128 73 92 
-0.444682 -0.263273 0.779775 97 72 93 
0.233463 -0.0621344 0.852968 135 85 97 
0.160709 -0.206328 0.843415 152 99 119 
-0.266838 -0.413836 0.825391 85 64 79 
0.0119235 -0.170066 0.820662 72 32 40 
0.179696 -0.259119 0.91004 134 115 135 
-0.043958 -0.0524616 0.803327 111 66 73 
0.0799691 -0.109017 0.825909 45 19 20 
0.053497 -0.128183 0.826866 119 63 74 
0.331382 0.0516477 0.632294 128 80 92 
-0.348106 -0.161857 0.801869 118 99 119 
0.177494 0.11474 0.741952 84 53 69 
-0.183266 -0.241455 0.83602 81 59 72 
-0.370332 0.0766015 0.784641 121 108 134 
-0.397157 -0.379018 0.799131 86 64 85 
0.0362702 -0.302328 0.801888 54 25 30 
-0.0228337 -0.397582 0.869123 64 45 64 
0.0230885 -0.179624 0.821919 60 28 39 
0.435375 0.15204 1.02042 66 77 105 
-0.584246 0.17747 0.649016 26 52 27 
-0.53153 0.122886 0.740599 99 112 154 
0.0781927 -0.212331 0.813454 74 34 42 
0.0810533 -0.127255 0.828997 128 71 80 
-0.351716 -0.0859627 0.804175 58 45 63 
-0.345199 -0.348626 0.809779 76 69 87 
-0.555841 0.175076 0.66612 41 83 47 
-0.356356 0.0403234 0.796877 107 90 106 
-0.541383 -0.00502442 0.734601 129 151 192 
0.44334 0.0221849 1.02927 60 62 100 
-0.241316 -0.112649 0.816942 128 114 139 
-0.659196 -0.462003 0.685551 135 120 139 
0.45042 0.128741 1.0188 111 134 168 
-0.33467 -0.0475658 0.795913 70 54 65 
-0.00196527 -0.297287 0.795188 59 30 35 
-0.332272 -0.143188 0.804133 128 109 129 
-0.219049 0.0842146 0.738071 72 53 57 
0.271143 0.150719 0.909203 53 40 47 
-0.537029 0.117496 0.733804 45 51 73 
0.00100875 -0.390019 0.877385 33 20 30 
0.218329 -0.0500287 0.846542 109 62 70 
-0.290377 0.187025 0.645261 43 65 53 
-0.425181 -0.0219682 0.777159 84 74 98 
-0.185331 0.0331602 0.763933 152 98 112 
0.462887 0.0253499 1.04975 132 142 191 
-0.195157 -0.256111 0.833124 106 83 103 
-0.742026 0.0781554 1.07065 51 34 40 
0.448777 0.0151393 1.03988 161 179 225 
-0.318331 0.0271876 0.796712 43 29 44 
0.237248 0.146169 0.820864 124 78 89 
-0.123058 -0.0884373 0.813946 45 21 21 
-0.532709 -0.510752 0.775727 162 176 225 
0.438525 0.136441 1.02479 90 101 133 
-0.315367 0.0145896 0.798982 90 78 102 
-0.457282 -0.332669 0.779083 123 105 129 
-0.468904 -0.298984 0.794789 118 103 134 
0.127407 0.0898703 0.792175 91 57 71 
-0.54002 0.173075 0.661179 44 86 50 
-0.307821 -0.239085 0.810027 112 98 113 
-0.0228249 -0.169728 0.813489 121 73 85 
0.196929 0.181293 0.712141 142 100 120 
-0.114307 -0.0798231 0.812721 113 63 72 
0.108125 -0.0681843 0.85612 128 75 91 
-0.357359 0.073783 0.78707 112 100 124 
-0.397894 -0.310531 0.796734 133 109 123 
-0.545441 0.181688 0.659066 21 50 30 
-0.505498 0.0894627 1.15807 95 67 82 
-0.0352907 0.0588079 0.770045 86 59 74 
0.341553 -0.0230319 0.930706 87 65 88 
0.457911 0.00765659 1.03138 160 174 219 
-0.183619 0.0878244 0.727294 78 46 61 
-0.630946 0.165324 0.722606 112 96 122 
-0.257453 -0.224312 0.819548 132 111 130 
-0.526006 0.179567 0.728384 43 40 47 
-0.37051 -0.313043 0.80358 124 115 136 
-0.11438 -0.101832 0.807619 108 64 77 
-0.311478 -0.250181 0.81141 80 62 78 
-0.204947 0.0753108 0.736917 128 87 101 
0.230454 0.12655 0.820337 122 74 88 
-0.113967 -0.155277 0.812701 72 29 36 
-0.348698 -0.314882 0.805518 87 65 78 
-0.435193 -0.263477 0.78328 143 115 130 
-2.88293 0.299749 3.04901 144 101 121 
-0.179 -0.368099 0.841082 132 107 129 
-0.0232366 -0.157482 0.812274 133 80 98 
-0.282109 -0.377045 0.819798 99 71 86 
-0.41651 -0.207085 0.786765 92 70 83 
0.443996 0.0607504 1.0266 64 77 111 
0.14831 0.0874389 0.77521 101 58 75 
-0.590764 0.172309 0.656456 35 75 41 
-0.101981 0.0512381 0.758546 135 90 110 
0.253455 0.163182 0.90573 55 51 66 
0.267109 -0.0307902 0.916793 94 76 90 
-0.511191 -0.426013 0.767326 161 177 229 
-0.145588 -0.369475 0.848579 129 111 133 
-0.474244 -0.0945829 0.769945 163 175 223 
-0.387894 -0.216615 0.790998 104 87 103 
-0.379162 0.0182173 0.810058 89 82 100 
-0.470215 -0.358626 0.778214 165 181 233 
-0.310573 -0.383074 0.814443 134 106 121 
0.108102 -0.242254 0.893429 90 59 67 
-0.350173 -0.0017086 0.804663 122 98 112 
-0.392859 -0.389611 0.800406 130 113 131 
-0.530152 0.134772 0.739598 86 92 128 
0.346546 0.192502 0.908643 123 109 124 
-0.458288 0.0649046 0.767106 102 90 112 
0.439242 0.125042 1.02648 93 108 141 
0.335018 0.0114449 0.927922 82 63 85 
-0.254743 -0.199287 0.812297 128 103 124 
0.0969856 -0.37273 0.899078 98 75 95 
-0.530221 0.158558 0.747881 111 122 154 
-0.193193 -0.0187805 0.793168 66 37 42 
-0.211196 -0.035594 0.771886 45 24 31 
0.161736 -0.0568639 0.86338 117 69 81 
0.186184 0.168466 0.83109 140 95 116 
-0.510109 -0.0844405 0.756062 154 171 217 
0.130277 -0.266628 0.896906 127 99 121 
-0.265784 -0.242995 0.818116 88 70 84 
-0.121211 0.0958831 0.726415 87 58 76 
-0.298618 -0.160107 0.808978 102 74 96 
-0.352376 -0.166234 0.797989 121 97 119 
-0.229556 -0.338993 0.831678 124 99 121 
-0.313916 -0.196534 0.804964 89 66 82 
0.215484 0.0482948 0.616631 138 90 112 
0.161247 0.0526581 0.811071 144 95 114 
-0.036185 -0.291961 0.785987 82 39 46 
-0.0961597 -0.396389 0.860467 92 73 95 
-0.25803 -0.11652 0.81433 88 61 76 
-0.435813 0.182479 0.640502 34 57 41 
-0.416096 0.0312223 0.783792 127 109 133 
-0.311307 -0.049873 0.801183 115 101 118 
0.0626154 -0.0940963 0.822064 91 62 80 
-0.0599833 -0.267794 0.773089 80 49 54 
-0.067984 -0.395065 0.865212 71 52 72 
0.191595 0.173886 0.820313 153 108 131 
0.235731 0.0708592 0.905595 123 107 136 
-0.466257 -0.282128 0.777009 166 182 233 
-0.427563 -0.0851077 0.779586 88 70 96 
-0.666758 -0.50819 0.679791 184 192 241 
-0.374341 -0.245344 0.797428 125 95 105 
-0.192418 -0.395959 0.852776 124 108 134 
-0.208058 -0.334324 0.833705 138 114 130 
-0.552418 0.00612214 0.725105 154 171 215 
0.178092 -0.0310405 0.866514 101 55 58 
0.0467639 0.185782 0.566935 91 106 171 
-0.670949 -0.47481 0.67096 114 117 172 
-0.379298 0.0836805 0.783436 93 88 111 
0.262723 0.116074 0.927194 89 67 80 
0.24255 0.185204 0.812697 129 82 102 
-0.32251 -0.113444 0.802984 124 107 126 
-0.243247 -0.314223 0.82758 77 64 81 
-0.0500915 -0.0156865 0.803983 68 29 34 
-0.435378 0.0351776 0.773277 95 82 108 
-0.386656 0.0940886 0.779403 118 107 137 
-0.472404 0.185599 0.741423 72 66 78 
0.214302 0.00124115 0.860855 101 55 66 
-0.221276 -0.290407 0.829146 112 83 101 
-0.45791 0.00382924 0.774357 112 102 129 
-0.469219 -0.262255 0.77412 166 183 235 
-0.248766 -0.130688 0.817106 134 107 122 
-0.28667 -0.228895 0.813882 72 49 55 
0.440073 0.0699336 1.02449 108 121 156 
-0.325356 -0.231004 0.80651 80 57 65 
-0.400268 -0.323325 0.793138 97 72 91 
-0.426939 -0.36623 0.786623 129 105 131 
-0.363461 -0.0972701 0.79268 93 74 93 
-0.447668 -0.0491799 0.772468 106 87 107 
-0.11344 -0.133574 0.811159 108 67 83 
0.164586 -0.19179 0.911887 134 110 124 
-0.0178626 -0.262577 0.7953 80 45 49 
0.22164 -0.0293761 0.907384 58 42 53 
0.353622 -0.105212 0.935478 127 112 133 
-0.432817 -0.21733 0.782669 77 64 84 
0.19397 -0.330938 0.913611 123 99 115 
-0.278924 -0.335974 0.819956 126 97 115 
0.0874239 -0.336355 0.89338 131 107 133 
-0.530001 0.161687 0.742254 48 49 77 
0.263967 0.197755 0.893072 82 70 82 
-0.361533 -0.139698 0.793171 120 94 123 
-0.35178 -0.0408084 0.793235 113 96 115 
-0.0474591 -0.211281 0.787458 123 76 92 
0.176389 0.0903133 0.794186 122 66 79 
0.187047 -0.137682 0.904389 162 137 158 
0.431521 -0.207683 0.955735 122 103 123 
-0.387644 -0.130019 0.787793 102 75 90 
0.0803312 -0.182224 0.81004 152 98 114 
-0.531174 0.0144652 0.72568 144 161 204 
-0.234364 -0.32174 0.828295 125 98 117 
-0.530674 0.167154 0.727563 35 54 84 
-0.614722 0.172038 0.647711 126 115 132 
-0.66599 -0.464009 0.670889 134 122 136 
0.460064 0.211642 0.947386 40 44 56 
0.339734 0.194847 0.720675 95 102 121 
0.0612879 -0.113083 0.811283 125 88 106 
-0.0358891 -0.261733 0.792112 80 45 49 
0.384318 -0.248759 0.947341 94 82 106 
0.00380075 -0.199182 0.819864 79 39 47 
-0.256641 -0.104478 0.813841 96 69 76 
-2.82267 0.347196 3.62804 132 89 108 
-0.0791252 -0.193399 0.794781 73 34 37 
0.389384 0.205119 0.910516 89 92 99 
-0.528801 -0.276023 0.76321 149 161 211 
0.0303518 0.0864976 0.78394 102 76 87 
-0.305286 0.00250244 0.797568 100 81 100 
-0.223572 -0.19077 0.825007 117 81 93 
0.424777 -0.256166 0.955195 98 72 99 
-0.33355 0.187431 0.678599 46 69 51 
-0.360377 -0.0488873 0.791873 114 95 115 
0.186711 -0.301603 0.910552 130 108 129 
0.142614 -0.32822 0.901194 120 97 123 
0.204214 -0.154509 0.908819 131 114 132 
0.108072 -0.168339 0.857067 72 41 47 
-0.0457275 0.0313481 0.788346 128 70 84 
-0.369031 -0.277933 0.801968 120 112 135 
-0.0125086 -0.237784 0.798829 75 45 55 
-0.0183752 0.0862432 0.776807 121 79 93 
-0.370543 -0.107709 0.790426 111 96 119 
-0.0350275 -0.0840401 0.805682 117 66 75 
0.178535 -0.0519704 0.855997 84 39 42 
-0.377633 0.0116026 0.786317 98 81 100 
-0.424267 0.0935762 0.771549 118 108 133 
0.277358 0.0647326 0.913283 104 79 100 
-0.120517 -0.054893 0.809872 112 65 73 
0.284123 -0.19849 0.955656 132 108 124 
-0.120406 -0.00393476 0.807768 105 57 69 
0.131356 0.0185399 0.859392 110 59 74 
0.443875 0.098156 1.02497 66 76 111 
-0.413863 0.0434639 0.775928 127 117 141 
0.0095471 -0.291526 0.815924 71 41 51 
-0.192077 0.0810442 0.73922 133 85 99 
-0.0447668 -0.0238681 0.80465 127 74 84 
-0.437285 0.0180636 0.773388 91 79 101 
-0.423131 -0.0336325 0.776985 96 87 108 
-0.244599 -0.398661 0.830328 95 77 93 
0.0452608 -0.252197 0.813204 76 40 50 
-0.200156 -0.355409 0.835839 127 105 126 
-0.298999 -0.181736 0.80929 94 68 79 
0.14668 0.135798 0.625392 146 98 120 
0.0752224 0.178367 0.592294 120 77 96 
