ply                 
format ascii 1.0    
element vertex 994
property float x    
property float y    
property float z    
property uchar red  
property uchar green
property uchar blue 
end_header          
0.447642 -2.05251 4.94316 54 59 78 
1.49385 -6.40857 11.4767 218 226 228 
1.76845 -11.364 18.5388 78 77 75 
2.5523 -19.8898 32.0593 222 226 237 
0.733603 -2.3848 5.44886 217 227 237 
0.0576172 -1.08462 3.68262 212 220 223 
0.712582 -2.37163 5.45591 220 231 237 
0.41315 -1.35213 3.68261 227 237 249 
0.588299 -0.647243 3.82148 213 205 194 
0.256089 -1.35413 3.64685 213 221 232 
0.250537 -1.35834 3.64555 214 222 235 
1.14502 -6.7077 11.5716 68 68 78 
2.87122 -12.7679 21.8875 208 212 213 
1.47344 -8.8452 15.2612 213 213 215 
0.994334 -8.98489 15.5311 81 86 82 
0.47857 -1.94365 4.51093 52 61 70 
0.290422 -1.92978 4.49183 211 217 231 
0.765224 -5.21609 9.32482 216 219 228 
1.46601 -11.5281 18.6416 213 215 227 
0.520056 -5.23191 9.38796 220 222 235 
1.15787 -6.44556 11.5315 74 74 84 
0.476427 -5.23322 9.41881 213 215 227 
0.974536 -5.10233 9.30507 71 78 86 
0.652194 -4.19899 7.82356 217 217 229 
1.1713 -6.19305 11.4981 82 87 93 
1.03055 -6.18875 11.5134 61 66 70 
2.60582 -20.3135 31.8958 234 235 237 
0.433673 -1.54541 3.90524 228 237 254 
3.01675 -20.0527 31.3493 65 65 73 
0.386415 -1.86586 4.52694 48 55 71 
0.676721 -2.06778 4.97209 216 224 235 
0.613793 -2.06287 4.9577 60 68 81 
0.359468 -1.17578 3.73242 218 228 238 
1.63704 -20.08 32.4628 98 98 106 
0.470462 -1.71877 4.18566 192 201 216 
1.42771 -11.5589 18.7635 207 207 219 
0.437597 -1.30233 3.71175 59 67 86 
0.332433 -1.21008 3.46465 225 234 243 
0.396932 -1.31745 3.695 213 221 232 
0.452939 -2.351 5.14099 231 233 245 
0.390396 -1.41139 3.94369 71 84 100 
2.01225 -8.48465 15.0431 197 207 217 
-0.424734 -1.25215 3.52662 195 190 187 
0.438325 -1.7 4.19 195 205 217 
0.53122 -4.27163 8.5314 209 208 222 
1.16654 -21.9984 34.2804 182 181 189 
0.404371 -1.35654 3.6756 234 243 255 
0.34878 -3.18793 6.37639 198 197 211 
3.78144 -18.4593 29.7056 64 68 79 
-0.691942 -1.22718 3.47743 178 169 172 
0.653363 -3.19281 6.36227 72 82 91 
1.20998 -8.91617 15.4111 136 134 137 
0.960359 -11.7445 19.1403 69 70 65 
0.479642 -2.30975 5.42431 211 218 228 
2.41838 -20.7434 32.377 204 206 218 
0.236731 -1.39404 3.9161 195 199 211 
0.650048 -2.08002 4.95539 210 222 234 
0.311103 -1.17643 3.47041 77 86 103 
0.930271 -6.48096 11.5751 46 50 59 
0.949653 -4.92767 9.30715 215 218 227 
0.502418 -1.80528 4.55831 206 215 230 
0.488352 -1.54059 3.91757 199 207 220 
0.62769 -4.97947 9.35384 82 84 83 
0.706172 -4.99214 9.3473 80 79 85 
0.471176 -1.53761 3.91362 198 208 220 
0.394069 -1.92289 4.5019 214 218 229 
9.42644 -52.1822 84.4298 188 189 194 
0.77556 -5.01584 9.34376 202 207 211 
0.30712 -1.78388 4.53012 200 207 223 
1.08339 -4.99539 9.2749 198 207 214 
1.49436 -6.20122 11.4107 200 203 218 
0.360273 -1.2933 3.69153 69 79 88 
0.384682 -1.78382 4.54372 62 72 81 
0.934943 -5.0987 9.31013 71 75 76 
0.585863 -2.64125 5.70075 75 82 98 
1.20188 -8.46067 15.2824 182 185 194 
11.2251 -57.2954 88.7141 70 73 90 
0.748572 -6.45608 11.6374 207 205 206 
1.23482 -8.5188 15.2748 192 193 197 
1.96319 -8.33755 14.8837 193 201 203 
0.746435 -6.53687 11.6961 192 196 208 
0.905154 -5.10211 9.28841 207 212 218 
10.8197 -55.1276 88.192 183 187 198 
10.8617 -53.0711 85.1868 195 202 212 
0.375109 -1.50358 3.90593 56 66 76 
1.32912 -6.43023 11.4617 212 216 225 
3.43154 -18.7255 30.2013 198 200 213 
1.57614 -8.54309 15.1405 195 201 213 
2.48259 -19.6377 31.7256 202 202 212 
0.284409 -1.19162 3.70538 223 233 243 
0.34984 -1.26548 3.70037 61 73 87 
0.391317 -1.39851 3.66193 204 213 228 
0.588723 -2.72708 5.67194 81 91 100 
1.8031 -11.3901 18.5395 74 75 79 
0.928971 -11.6781 19.0229 217 217 215 
0.893587 -6.66524 11.6495 184 191 201 
0.328635 -1.11136 3.27814 215 227 243 
0.351521 -1.19737 3.72166 210 216 232 
0.554292 -6.73536 11.712 196 197 192 
0.433376 -1.26281 3.85958 225 235 247 
0.370361 -1.26172 3.70643 71 80 95 
0.975781 -8.97701 15.5272 199 198 196 
0.432804 -1.30971 3.70259 214 223 240 
0.377801 -1.18324 3.48875 216 224 237 
3.0897 -19.0041 30.7024 232 232 240 
0.33922 -1.25476 3.70056 85 93 106 
0.418366 -1.37315 3.67236 200 208 227 
1.57084 -8.51653 15.1392 198 207 212 
0.344253 -1.20891 3.71673 224 236 252 
0.32458 -1.2512 3.69743 78 85 93 
0.949062 -6.50101 11.6171 208 212 221 
0.302166 -1.46107 3.90816 59 68 85 
1.74812 -8.88936 15.21 186 195 204 
0.247736 -1.57016 4.1953 192 196 208 
0.361321 -1.57711 4.21528 77 87 97 
0.3561 -1.34756 3.67142 65 75 84 
0.343958 -1.3598 3.66046 192 202 214 
0.420748 -1.23898 3.7264 210 220 232 
1.51827 -13.6084 23.2752 183 185 197 
-0.720773 -1.21509 3.47278 68 56 56 
1.24847 -5.02064 9.31342 218 224 236 
0.448458 -2.36432 5.11554 221 222 240 
0.861892 -6.44308 11.6201 84 89 83 
8.68091 -52.3749 86.2888 199 199 201 
0.415454 -1.35614 3.68062 47 56 71 
0.401257 -1.35534 3.68183 64 72 85 
0.447859 -0.410504 3.68876 122 121 117 
0.380497 -1.45057 3.92921 209 219 229 
0.389142 -3.18141 6.36349 212 216 225 
0.556698 -3.07936 6.38238 227 230 247 
-0.713257 -1.20878 3.4705 49 49 37 
0.516923 -2.05624 4.94713 209 217 230 
0.235113 -1.18433 3.69486 219 231 247 
0.479669 -1.20331 3.50897 203 214 232 
0.308035 -1.12564 3.60889 222 230 241 
0.691951 -2.153 4.95417 184 194 206 
0.969299 -0.837206 3.96416 167 166 162 
0.468024 -1.53679 3.91468 183 192 207 
-0.679371 -1.22103 3.48225 67 57 47 
1.31265 -6.13026 11.4245 170 172 184 
-0.66146 -1.21098 3.48811 193 186 180 
0.538243 -2.13977 4.93368 208 221 230 
0.0721111 -1.09174 3.6862 141 140 146 
0.344019 -1.16367 3.48446 221 229 240 
0.626475 -3.66948 7.28616 225 227 242 
0.492027 -1.33414 3.70966 205 214 229 
1.93754 -8.83782 15.0863 63 65 80 
0.394607 -1.26104 3.71098 203 213 225 
0.45317 -1.25718 3.86123 206 218 230 
-0.687155 -1.20598 3.48385 185 181 170 
0.226876 -1.24403 3.67839 181 189 202 
0.439938 -2.34327 5.12837 219 219 229 
0.436796 -1.2225 3.73414 194 208 217 
0.434547 -1.39902 3.96164 202 211 226 
0.433597 -1.20091 3.74529 205 211 233 
0.386614 -1.39152 3.65945 197 207 217 
0.570089 -1.82367 4.56942 204 210 232 
0.225894 -1.64951 4.16936 177 181 193 
0.553422 -2.90849 6.38464 217 216 232 
0.346837 -1.18159 3.72461 203 214 234 
0.650865 -4.30873 8.52987 206 209 224 
2.98222 -18.7624 30.7909 216 221 227 
0.364551 -4.194 7.85114 132 135 140 
0.424464 -1.90693 4.51215 69 76 84 
0.498628 -1.43413 3.96525 84 93 108 
0.339377 -1.21029 3.4651 72 82 91 
0.384552 -1.77287 4.54236 85 93 104 
0.423131 -1.27965 3.71222 208 220 234 
0.420148 -1.25144 3.85954 81 93 107 
0.505714 -1.33676 3.71329 178 186 205 
0.597449 -2.95575 6.38993 100 102 115 
0.381836 -1.58838 4.21578 164 172 185 
4.01212 -18.3606 29.6105 203 212 221 
2.90003 -18.6008 30.4767 190 190 198 
0.465211 -1.31185 3.7112 88 94 106 
0.297637 -1.12389 3.26688 68 81 90 
0.301166 -1.24864 3.69398 93 105 119 
0.419728 -1.91039 4.50663 199 205 219 
2.09877 -11.2151 18.2145 92 92 102 
0.403529 -1.63113 4.20911 210 219 234 
1.55944 -8.88866 15.246 235 242 250 
0.269968 -1.29783 3.67256 217 226 235 
0.315236 -1.19043 3.7157 215 223 236 
0.431719 -1.26915 3.85625 208 215 233 
0.379654 -5.31446 9.44504 162 161 166 
0.276077 -2.0323 4.92802 159 162 177 
1.10361 -11.6545 18.9827 234 235 240 
0.776546 -4.29247 8.50827 90 94 105 
-0.65306 -1.23046 3.48331 56 43 34 
0.324856 -1.0908 3.28548 74 82 95 
0.534596 -5.20738 9.37589 213 212 218 
0.826171 -8.66644 15.4913 220 218 223 
0.950127 -6.5074 11.6256 208 212 221 
1.32153 -8.58851 15.283 220 223 232 
-0.721129 -1.21383 3.47056 58 40 40 
1.28567 -8.32496 15.0798 229 232 241 
0.421768 -1.53471 3.90703 42 52 62 
0.86987 -6.17884 11.5873 217 218 222 
0.664153 -4.15537 7.82359 209 214 210 
0.507909 -6.50498 11.7434 217 212 216 
0.899928 -8.61673 15.4698 217 215 216 
0.534276 -5.21268 9.40574 53 51 52 
0.379705 -1.23702 3.4656 64 73 88 
1.66817 -13.3967 23.1196 242 242 244 
1.14337 -6.69853 11.5707 62 63 68 
0.650091 -6.77875 11.7119 219 222 231 
0.867381 -9.05247 15.6098 40 40 42 
0.333416 -1.17554 3.48159 236 243 253 
1.26993 -13.7669 23.5084 200 199 213 
0.328738 -1.36772 3.65669 210 220 232 
0.46091 -4.18272 7.85235 208 211 220 
1.70568 -21.3389 33.4405 53 52 57 
3.02004 -20.0751 31.4178 75 74 79 
0.640552 -6.2411 11.6343 229 230 235 
0.0453673 -1.09166 3.66876 46 55 64 
0.0568322 -1.0929 3.68179 204 212 225 
2.94832 -18.3733 30.3665 186 190 193 
3.19615 -18.4693 30.2352 204 206 219 
3.32003 -18.3067 29.7305 225 226 230 
10.1775 -48.5441 78.4037 215 223 226 
1.00758 -11.6892 19.0123 222 222 232 
2.9977 -18.9518 30.6734 80 83 92 
1.13659 -11.6821 18.9747 219 222 237 
1.46436 -11.5383 18.728 220 220 230 
0.474085 -1.52132 3.91856 232 241 255 
0.365316 -1.71393 4.16977 210 218 231 
0.356345 -2.10956 4.91672 63 72 81 
0.297149 -1.774 4.53071 188 198 208 
1.54502 -21.3897 33.5211 105 105 103 
1.94059 -21.3688 33.3553 203 205 217 
0.777863 -4.16877 7.83555 73 72 70 
0.455573 -1.36096 3.69999 178 185 195 
0.404269 -1.3732 3.66968 197 206 221 
0.417469 -1.36215 3.68128 180 188 209 
0.867857 -6.69154 11.61 78 77 75 
0.380797 -5.31288 9.44249 202 201 206 
0.933195 -5.25176 9.2978 224 228 229 
0.313787 -1.2311 3.45431 207 213 227 
0.343263 -1.23247 3.45763 210 223 239 
-0.658758 -1.23567 3.48521 161 143 143 
0.990794 -6.06568 11.4543 233 232 246 
1.79013 -8.50646 15.0906 213 219 231 
2.22255 -13.2188 22.7139 50 50 52 
0.644433 -8.78105 15.6389 209 207 218 
0.294761 -1.21265 3.4515 224 230 246 
0.437376 -1.30741 3.70674 68 77 94 
0.419188 -1.8033 4.54429 215 224 239 
1.53271 -8.80116 15.1645 178 179 181 
1.24507 -13.6799 23.493 54 54 52 
2.29124 -20.5213 32.2227 75 73 74 
1.11485 -8.60069 15.3283 216 216 226 
1.15787 -6.44779 11.5352 97 95 108 
0.440958 -1.51829 3.91507 227 239 253 
0.47515 -5.23474 9.41823 180 182 194 
0.333306 -1.29217 3.68609 198 206 225 
0.436181 -1.30132 3.70974 58 66 85 
-0.718491 -1.20531 3.47981 70 59 55 
0.907062 -5.16459 9.31716 229 231 230 
0.30846 -1.34809 3.65384 191 198 214 
1.20527 -13.5596 23.2718 192 193 188 
0.982234 -5.14439 9.27391 210 213 218 
0.933552 -5.09791 9.3053 73 77 80 
0.343483 -1.36244 3.66481 220 230 240 
0.373864 -1.26326 3.70458 215 227 243 
0.318807 -1.36462 3.65242 57 63 79 
0.356711 -1.36722 3.66221 87 99 113 
0.458661 -1.65347 4.21229 170 179 194 
2.02421 -8.70481 14.9644 214 218 221 
1.21336 -13.7387 23.5268 233 232 246 
0.578285 -2.32263 5.44202 212 221 230 
0.416649 -1.37896 3.67322 62 71 86 
1.20884 -6.22502 11.4964 210 216 230 
3.41943 -18.6397 30.0672 198 200 213 
1.08283 -4.99276 9.27003 198 207 214 
0.965229 -6.25995 11.588 51 54 63 
1.58579 -11.4097 18.5447 208 208 218 
1.01535 -13.958 23.8347 168 167 181 
0.52244 -4.20335 7.87209 62 68 80 
10.7843 -52.5101 84.0081 194 198 209 
1.74038 -8.83721 15.1289 190 199 208 
1.02852 -6.1882 11.5164 69 74 77 
0.74587 -4.99397 9.34433 102 103 105 
0.627615 -4.97883 9.35277 82 84 83 
0.414415 -1.25657 3.85764 102 114 126 
0.424399 -1.72276 4.17833 223 231 242 
0.349681 -1.20289 3.7216 83 91 104 
1.16869 -6.1244 11.5358 219 220 225 
0.382612 -1.49279 3.9169 209 219 231 
0.675292 -2.96524 6.40087 74 82 95 
0.402523 -1.7161 4.17452 212 222 234 
0.275275 -1.70742 4.16322 213 223 235 
0.365702 -2.03497 4.93254 189 201 215 
0.60515 -2.35544 5.44753 186 195 212 
0.36435 -1.17803 3.73335 76 86 98 
0.424862 -1.50738 3.92228 64 72 83 
0.288881 -1.16476 3.71595 224 234 246 
0.469522 -1.52173 3.92708 49 59 71 
3.04222 -19.0182 30.6774 32 36 48 
0.34237 -1.69578 4.17345 218 227 236 
0.489178 -1.5264 3.92324 211 218 234 
0.353979 -1.77779 4.53504 77 85 96 
0.395005 -1.83702 4.5314 193 199 213 
0.342533 -1.52187 3.89527 62 70 83 
0.556342 -3.07471 6.3754 234 240 254 
0.880667 -4.29268 8.50302 69 75 87 
0.376217 -1.52636 3.89844 57 67 79 
0.633158 -1.82725 4.56942 218 227 242 
0.379997 -1.46519 3.92439 196 208 222 
1.79077 -11.3274 18.4836 237 238 233 
0.608346 -3.64664 7.28649 229 229 237 
0.973679 -5.09873 9.29972 71 78 86 
0.245977 -1.35776 3.64669 52 59 75 
0.493535 -3.65911 7.30045 84 82 96 
0.0358407 -1.08085 3.67982 224 228 239 
0.325663 -1.10865 3.27829 63 72 89 
0.969351 -0.837717 3.9653 167 166 162 
0.407081 -1.79585 4.54357 171 178 194 
0.247322 -1.17015 3.4599 195 202 221 
0.564811 -2.3161 5.42222 205 214 223 
1.03333 -13.5273 23.5808 212 211 217 
10.7891 -54.8332 87.7209 200 204 213 
0.318546 -1.16452 3.72812 222 230 241 
0.245579 -1.15777 3.70822 208 217 232 
1.52297 -13.6987 23.4233 183 185 197 
0.489139 -2.61092 5.69199 222 221 229 
0.414757 -1.25221 3.72158 221 234 242 
0.233505 -1.15771 3.70838 58 63 82 
0.38799 -3.17473 6.35368 211 215 224 
1.13152 -6.21188 11.5072 187 194 204 
0.385224 -1.16926 3.49349 209 220 226 
0.30546 -1.401 3.92511 140 148 169 
1.20562 -5.02445 9.29226 56 62 74 
0.259221 -1.84038 4.51569 180 183 192 
0.262055 -2.02602 4.92191 210 212 225 
0.710924 -5.17112 9.34391 71 72 74 
0.325272 -1.09222 3.28899 74 82 95 
0.365261 -1.72887 4.15925 201 207 219 
0.205815 -1.2136 3.43368 209 213 225 
11.7837 -56.6422 88.2084 219 223 226 
0.475442 -1.86662 4.53733 215 222 230 
-0.727173 -1.20182 3.4704 88 42 45 
1.14036 -6.67572 11.5643 219 217 220 
-0.661154 -1.21032 3.48557 193 186 180 
0.26769 -1.23595 3.68951 200 208 219 
1.13716 -6.16319 11.4953 218 218 216 
0.345114 -1.48321 3.90862 161 167 181 
0.465331 -1.35635 3.68789 176 187 205 
1.87579 -28.3893 47.9476 161 160 165 
2.38795 -19.642 31.853 99 97 110 
0.54114 -3.06272 6.38754 244 244 255 
0.440242 -1.25529 3.72583 207 216 231 
0.35603 -1.34679 3.67188 55 65 74 
0.361992 -1.49126 3.9134 216 223 239 
1.78787 -13.4604 23.0814 78 76 87 
2.0378 -8.38977 14.9373 232 236 239 
0.245412 -1.69482 4.15307 230 233 248 
3.12672 -19.559 31.0109 90 92 104 
0.650588 -2.0826 4.9584 168 177 192 
1.53606 -6.19768 11.4435 178 184 196 
1.05337 -13.8514 23.8196 172 170 175 
-0.679211 -1.22134 3.48283 67 57 47 
0.33998 -1.23036 3.45905 71 84 100 
-0.652382 -1.21009 3.48517 154 147 141 
0.277615 -1.18834 3.70498 121 129 140 
0.465297 -1.58693 4.22733 150 157 173 
0.339254 -1.21061 3.4671 69 79 88 
0.369595 -3.18343 6.35613 58 60 75 
0.462369 -2.75265 5.66815 227 226 240 
0.681807 -3.53172 7.29573 215 218 233 
0.546629 -2.95777 6.38113 222 222 232 
0.229919 -1.1838 3.69628 51 56 75 
0.366875 -1.20519 3.71962 186 195 212 
0.310288 -1.40101 3.92503 59 67 86 
0.439868 -1.59697 4.22348 177 185 198 
1.44207 -6.22626 11.4624 201 207 219 
0.735273 -8.97631 15.5456 205 206 201 
-0.652425 -1.23121 3.48366 56 43 34 
1.11439 -6.4512 11.5203 239 243 254 
0.403766 -1.37412 3.67059 206 216 228 
0.00527022 -1.06068 3.67663 8 18 20 
0.464176 -1.59851 4.22219 218 230 244 
2.42196 -19.3833 30.9867 183 184 179 
3.02324 -18.9225 30.7567 201 200 195 
0.324106 -1.09168 3.28741 73 81 94 
0.347487 -1.34675 3.67112 218 228 237 
1.18434 -6.50343 11.5814 41 50 59 
0.366238 -1.50686 3.91185 232 242 252 
0.252583 -1.16181 3.46189 56 65 72 
1.20464 -13.7318 23.5251 229 229 239 
0.450103 -4.21437 7.8814 214 216 228 
0.229973 -1.18443 3.69732 51 56 75 
0.994642 -5.00525 9.32927 77 80 85 
0.909348 -4.99682 9.29832 225 232 242 
0.51545 -4.19789 7.86481 207 211 222 
0.793192 -4.18251 7.83376 71 74 79 
0.975114 -5.00645 9.29068 224 230 242 
1.31586 -6.14743 11.4459 222 225 234 
0.587563 -6.23069 11.6265 245 245 255 
0.865995 -6.17785 11.5785 227 228 230 
1.17401 -6.08743 11.4601 238 241 248 
0.910443 -6.39847 11.6086 198 201 210 
0.537101 -5.17805 9.37518 214 214 216 
0.968504 -6.45081 11.6009 235 235 237 
0.826845 -5.20039 9.33979 205 208 215 
1.11747 -8.61296 15.3477 216 216 226 
1.6046 -8.50778 15.1314 213 218 224 
1.07286 -5.17951 9.26872 212 216 225 
0.956109 -6.52318 11.6183 217 220 229 
0.898243 -5.26403 9.33946 227 231 232 
-0.722861 -1.21377 3.471 47 27 26 
1.28768 -21.9965 34.2873 214 212 226 
1.66237 -21.5666 33.617 231 230 244 
0.83358 -6.70524 11.6595 244 244 246 
0.65302 -6.72707 11.689 218 216 217 
0.950085 -6.67254 11.5735 207 206 204 
1.94242 -21.3715 33.3635 203 205 217 
0.591967 -6.7524 11.7035 59 59 57 
2.67689 -20.3795 31.8417 217 216 224 
-0.683646 -1.22982 3.48333 214 206 203 
0.547467 -6.76978 11.714 239 238 246 
1.97487 -13.2501 22.718 78 79 83 
1.54772 -21.3863 33.5201 57 58 53 
-0.426971 -1.25673 3.53486 226 227 222 
1.27249 -13.7539 23.5029 230 229 243 
0.477469 -1.93968 4.50633 44 53 60 
0.477641 -1.93857 4.51796 209 218 225 
1.22883 -21.6326 34.3044 195 193 206 
0.246016 -1.87966 4.48806 210 216 230 
0.355389 -1.34647 3.67039 55 65 74 
0.358248 -1.34678 3.66225 227 236 251 
3.00461 -19.5936 31.2657 230 231 235 
3.13681 -19.5553 31.2036 240 238 243 
0.417015 -1.35968 3.67712 224 232 251 
1.41404 -11.6459 18.7234 217 217 215 
0.446777 -1.80007 4.55438 218 230 246 
0.48643 -1.52613 3.92187 228 237 252 
0.374722 -1.50652 3.91104 91 101 113 
0.760007 -11.887 19.2793 199 198 212 
0.0345126 -1.09025 3.67796 215 224 233 
1.49334 -11.4517 18.692 242 244 241 
0.0442429 -1.09183 3.67761 219 228 237 
0.912557 -11.6649 19.0272 77 76 74 
0.0224362 -1.09233 3.66838 209 218 227 
1.09496 -11.6614 18.9748 248 248 255 
0.0446169 -1.09504 3.67132 30 35 41 
0.419247 -1.59575 4.23089 218 227 242 
0.442552 -1.38022 3.68133 229 237 250 
1.17318 -8.6203 15.3463 44 46 59 
1.1823 -11.6758 18.9664 194 196 211 
-0.66231 -1.2123 3.48812 199 192 184 
0.934598 -5.18833 9.32535 74 73 81 
-0.728008 -1.20427 3.47549 88 42 45 
1.46324 -8.48798 15.1506 46 45 53 
4.05129 -18.1425 29.3217 48 53 57 
0.33892 -1.20964 3.46467 72 82 91 
0.666232 -3.13459 6.37577 78 82 93 
0.516909 -1.50501 3.94203 201 209 228 
0.450212 -0.348545 3.66977 4 4 0 
0.709437 -5.17322 9.34917 92 93 95 
0.311827 -1.2094 3.45984 208 216 235 
0.369451 -1.17795 3.7277 225 233 252 
0.245333 -1.18012 3.69969 64 74 86 
0.321008 -1.62957 4.18811 80 88 99 
0.393112 -1.39169 3.946 202 211 228 
0.47662 -6.71013 11.7795 186 185 193 
-0.728953 -1.21284 3.47258 93 49 48 
0.468315 -1.53808 3.91564 222 232 244 
0.408053 -1.30621 3.70378 211 220 237 
0.500243 -6.44193 11.7412 182 181 189 
0.515878 -1.5482 3.92626 224 234 243 
0.960835 -5.07986 9.30142 70 73 78 
1.50341 -8.93623 15.4078 63 61 64 
0.505546 -6.38132 11.6635 52 51 59 
1.46302 -8.72168 15.1815 219 218 232 
0.620097 -4.16667 7.84825 234 235 237 
0.415429 -1.35535 3.67924 47 56 71 
0.931576 -6.32877 11.5951 51 57 57 
0.562713 -1.70941 4.19777 68 80 94 
0.763019 -4.24613 7.84661 225 235 237 
0.401116 -1.35394 3.68032 59 67 80 
3.15088 -19.593 31.1899 73 74 78 
0.413821 -2.0341 4.93734 70 79 88 
2.97233 -20.3595 31.7336 58 60 75 
1.24114 -4.98929 9.25666 218 224 236 
1.12104 -6.17092 11.4804 52 56 57 
0.926588 -5.02355 9.33872 55 61 73 
0.532218 -4.19829 7.86513 192 199 209 
1.55314 -6.11167 11.3474 221 222 226 
0.584119 -1.73847 4.20078 220 229 238 
0.903002 -6.24545 11.5877 51 53 66 
0.362122 -4.21173 7.88458 194 195 200 
0.479932 -2.35887 5.12754 226 228 243 
0.484316 -4.1843 7.84014 207 211 223 
1.39282 -21.8925 34.1789 147 145 159 
0.232072 -1.41769 3.89999 207 214 230 
0.388179 -1.43118 3.93362 209 218 233 
1.52832 -8.85497 15.2818 206 204 207 
0.983041 -6.67518 11.5681 241 243 240 
-0.650943 -1.22958 3.48208 32 23 14 
0.365681 -1.18093 3.72632 218 226 245 
0.318429 -1.15888 3.48018 218 225 241 
1.73371 -8.70735 15.0029 213 217 216 
0.662911 -2.36455 5.44787 228 238 247 
0.232068 -1.1557 3.70398 77 82 101 
0.349793 -1.40913 3.93404 53 60 78 
0.684533 -3.18553 6.34995 67 78 82 
0.300344 -1.11029 3.27614 179 191 205 
0.473039 -1.28701 3.72611 204 212 231 
0.414157 -1.25199 3.72115 221 234 242 
0.506882 -1.36871 3.69948 201 210 225 
-0.679319 -1.22128 3.48627 74 64 54 
0.384235 -4.20161 7.87984 174 176 188 
0.674711 -2.96127 6.39054 106 112 126 
0.9393 -4.95981 9.28813 227 227 227 
0.625845 -2.33397 5.44365 196 205 222 
0.323694 -1.17453 3.72328 191 196 216 
0.93598 -5.11177 9.32779 73 77 80 
-0.235134 -1.25493 3.58295 220 221 226 
0.905728 -5.19196 9.34486 231 232 237 
2.9309 -19.1244 31.0287 197 195 196 
0.0496437 -1.08195 3.67773 219 220 225 
0.0258825 -1.08023 3.67884 225 234 243 
0.464498 -1.90442 4.51607 89 99 108 
0.404629 -1.32163 3.68981 64 73 88 
3.41558 -18.2702 29.5898 78 81 86 
0.77194 -5.0835 9.34672 229 229 231 
3.12095 -18.7043 30.292 52 55 62 
0.525627 -4.30284 8.56029 110 113 120 
1.78689 -19.8174 32.1886 242 243 245 
0.313577 -2.02448 4.9257 218 228 238 
0.379711 -1.4465 3.93531 64 74 83 
2.303 -20.8193 32.4929 65 67 82 
2.00717 -21.3318 33.322 206 205 219 
2.88983 -20.1699 31.5666 77 77 79 
0.417241 -5.05699 9.43132 41 42 46 
0.948235 -11.8103 19.1514 36 34 47 
0.421829 -1.53969 3.91461 53 63 73 
3.10014 -19.5273 30.8783 201 209 222 
0.432825 -2.03919 4.94565 87 97 107 
2.51495 -14.5075 22.9885 215 218 227 
0.626403 -4.19109 7.8624 90 94 97 
0.85536 -9.01424 15.5127 226 229 238 
0.695019 -4.18801 7.85589 115 120 123 
1.21681 -21.233 33.768 34 32 45 
0.939554 -6.17355 11.5304 241 243 242 
1.19346 -20.6939 33.1019 209 207 212 
0.507813 -5.01923 9.41171 64 65 70 
0.628882 -6.81696 11.743 230 229 243 
2.61607 -19.4167 31.0874 216 220 223 
1.31582 -6.16536 11.4745 232 235 244 
0.241268 -1.60202 4.18887 212 222 232 
2.57766 -12.8757 22.0423 65 74 73 
0.944364 -4.99196 9.30737 68 73 77 
1.70766 -8.81452 15.1802 241 243 240 
0.974775 -11.792 19.1225 232 230 243 
2.84212 -19.2333 31.0565 198 198 210 
0.892054 -5.008 9.31729 200 204 215 
0.97117 -4.98602 9.25682 228 237 246 
1.20955 -8.9376 15.4257 245 242 249 
0.440323 -1.59418 4.22662 224 233 242 
0.398734 -1.37684 3.67313 71 80 95 
0.399724 -5.09106 9.39365 186 185 191 
0.772665 -9.06222 15.6736 242 242 242 
1.79011 -11.3576 18.4694 104 104 114 
3.11332 -19.0143 30.2977 225 224 230 
1.16141 -6.29596 11.5175 213 214 219 
1.71637 -11.3593 18.4904 69 69 71 
3.51238 -18.5835 30.1224 234 238 239 
1.10335 -8.92277 15.4479 244 244 246 
3.36002 -18.6077 30.1919 232 233 237 
9.52062 -51.5455 83.2927 159 163 164 
0.919381 -11.7316 19.1351 59 58 56 
1.04112 -5.09281 9.264 217 220 227 
1.53807 -20.2619 32.9724 246 242 243 
1.48855 -6.30438 11.3972 217 223 235 
1.57665 -8.7658 15.3295 48 52 64 
0.84389 -6.41798 11.5817 224 226 223 
0.648992 -2.36706 5.45611 229 238 243 
1.27394 -8.503 15.2343 234 234 236 
1.2217 -8.50931 15.2459 231 230 235 
0.612783 -6.50397 11.7005 51 49 54 
0.407704 -1.30238 3.69901 224 233 248 
1.053 -5.17954 9.32174 246 247 252 
0.895284 -5.19884 9.34746 58 57 65 
1.09196 -6.47097 11.5531 219 217 230 
-0.651542 -1.22999 3.48323 50 40 31 
0.5184 -5.23812 9.40116 220 222 235 
0.710357 -6.53602 11.6952 190 192 205 
1.36016 -11.508 18.805 80 76 75 
0.552423 -6.48761 11.7084 219 219 221 
0.396296 -1.29568 3.7033 60 69 84 
0.49302 -2.29591 5.43732 213 215 230 
-0.426789 -1.25492 3.53172 226 227 222 
0.73364 -5.20408 9.368 78 77 83 
0.270744 -1.29723 3.67019 232 241 250 
0.0707327 -1.08642 3.67842 227 228 232 
-0.726549 -1.20256 3.47277 52 13 14 
-0.720561 -1.20262 3.47274 57 39 37 
0.436086 -1.86346 4.51622 216 226 238 
1.07271 -6.00688 10.7267 197 205 218 
0.711455 -4.29248 8.53826 248 248 250 
0.414646 -1.41881 3.94918 200 208 221 
0.38515 -1.18967 3.48781 89 97 110 
1.11394 -6.61754 11.6428 69 71 83 
0.430834 -1.71698 4.17999 60 69 78 
0.0582385 -1.08201 3.67767 202 207 211 
0.343447 -1.22488 3.72058 234 242 253 
1.95434 -8.5015 14.8383 58 60 73 
0.415429 -1.36091 3.67954 214 222 241 
1.32825 -11.5939 18.8182 215 218 233 
0.248292 -1.18285 3.70748 57 67 79 
0.7002 -8.47871 15.4868 60 59 67 
0.585125 -0.647506 3.81394 194 186 173 
0.826812 -9.0745 15.6626 50 50 48 
0.385371 -1.47366 3.92002 219 231 243 
0.354015 -1.45955 3.91812 209 216 232 
0.692404 -6.75474 11.7297 245 241 240 
1.81572 -21.4113 33.4164 187 189 201 
3.10655 -19.329 30.8556 226 224 227 
0.433296 -5.05566 9.42876 204 205 210 
1.14364 -8.56651 15.2684 227 227 237 
0.247826 -1.62394 4.17888 222 229 235 
0.489017 -4.17573 7.87707 227 225 228 
1.65183 -20.2656 32.914 62 63 58 
0.414518 -1.25121 3.72369 225 238 246 
0.925998 -9.10997 15.6437 197 196 210 
2.87983 -19.3594 30.9644 237 238 240 
0.917802 -4.97619 9.30851 235 235 233 
0.407822 -1.3212 3.69966 176 186 198 
0.437649 -2.34836 5.13583 242 242 250 
0.402467 -1.62279 4.20953 64 72 85 
1.16668 -6.21521 11.5055 178 182 194 
0.395562 -1.44938 3.78276 53 65 81 
-0.649318 -1.21735 3.48616 24 15 16 
0.67076 -8.62242 15.6469 173 172 180 
0.966862 -0.835874 3.96137 180 176 173 
-0.702981 -1.2063 3.47761 48 45 36 
0.552837 -6.54001 11.7162 188 188 200 
0.486902 -4.3 8.56473 93 92 97 
0.586844 -2.72766 5.67467 94 104 113 
0.47677 -2.71337 5.67984 238 238 248 
-0.686982 -1.20646 3.47752 198 191 181 
0.599251 -2.09528 4.93081 63 73 85 
0.440606 -1.4889 3.93032 210 219 236 
-0.661299 -1.21024 3.48238 199 192 184 
0.348123 -1.22452 3.71931 207 217 226 
0.667463 -3.04326 6.39745 232 241 250 
0.649704 -3.14278 6.36776 73 78 97 
0.480412 -5.03574 9.39997 44 46 59 
0.543528 -1.52857 3.93565 76 88 104 
3.01044 -18.9162 30.4932 43 47 59 
0.429201 -1.69414 4.19163 171 179 192 
3.38635 -19.7599 30.9581 239 240 244 
0.898267 -5.21692 9.37919 58 57 65 
0.435452 -4.20879 7.87626 42 44 56 
3.01103 -19.7126 31.1648 212 216 228 
3.13747 -19.6753 31.105 205 215 227 
0.924789 -6.30116 11.4908 66 66 78 
3.14471 -19.4761 31.0715 222 222 224 
2.89184 -19.5073 31.1939 248 252 251 
0.5846 -0.646066 3.81054 194 186 173 
-0.702836 -1.20782 3.47862 49 49 41 
0.33625 -1.20818 3.46717 70 80 90 
0.966394 -0.835033 3.95954 180 176 173 
0.342834 -1.15759 3.48774 83 91 104 
0.342645 -2.31993 5.41473 53 60 70 
0.970899 -11.7363 19.0436 235 235 245 
1.18072 -11.6845 18.9802 194 196 211 
2.23159 -19.987 32.3653 237 237 249 
9.60491 -50.718 81.8954 231 235 238 
3.05922 -19.2352 31.2184 184 183 181 
3.12006 -18.7322 30.4068 217 218 220 
3.29356 -18.2583 29.6399 244 245 250 
0.264644 -1.84585 4.51029 209 212 227 
0.250594 -1.15348 3.71274 67 76 91 
0.996842 -11.6477 19.0311 241 242 244 
0.502714 -2.088 4.94222 200 208 219 
0.891457 -11.6525 19.0616 223 219 220 
0.035663 -1.07903 3.66694 224 231 241 
1.48549 -11.3069 18.6248 228 228 238 
0.952459 -4.99946 9.28132 36 43 53 
0.404047 -1.50233 3.91808 173 185 197 
1.11701 -6.27893 11.4631 54 56 68 
0.905094 -5.08385 9.3525 244 252 254 
1.11728 -6.29636 11.4655 54 54 62 
0.373068 -2.77399 6.41042 222 226 238 
0.0190521 -1.06858 3.67289 227 231 242 
0.368612 -2.10018 4.91049 216 225 230 
0.583658 -2.33097 5.45387 212 221 230 
0.973381 -5.11176 9.29629 206 216 225 
0.387571 -1.90885 4.51291 220 223 240 
1.11887 -6.3843 11.5649 144 147 162 
0.371276 -1.5005 3.90736 59 67 80 
0.0418616 -1.09975 3.67876 25 26 31 
0.551368 -2.09378 4.95486 232 241 248 
0.465081 -2.07381 4.9411 156 165 172 
0.435672 -5.0467 9.40833 180 181 186 
0.845982 -6.44138 11.6114 226 228 225 
0.440724 -1.59535 4.22843 224 233 242 
0.403571 -5.0421 9.41219 196 195 200 
0.359583 -1.58187 4.20947 184 191 207 
0.530938 -4.19566 7.86157 192 199 209 
1.04984 -5.16241 9.29329 246 247 252 
1.44635 -8.52621 15.2293 238 237 243 
0.506421 -2.04999 4.94784 230 240 249 
0.772077 -6.22664 11.5922 233 237 246 
0.694355 -5.01448 9.37087 221 222 227 
1.44271 -6.3824 11.4293 243 246 251 
1.01693 -8.5902 15.327 210 217 227 
1.30932 -6.13092 11.4115 244 247 255 
0.951391 -4.98994 9.33531 217 217 217 
0.757682 -4.99501 9.35867 238 239 241 
0.385977 -5.26247 9.45277 205 203 214 
0.422431 -4.99694 9.40156 229 227 230 
0.349961 -2.02904 4.92424 205 213 224 
0.384276 -4.16747 7.87159 221 219 220 
0.344704 -1.84827 4.52232 236 250 253 
0.327474 -1.34382 3.66395 229 235 251 
0.383152 -1.34622 3.68243 190 199 214 
0.995256 -6.59094 11.6143 44 47 52 
0.10428 -1.31913 3.63391 234 238 250 
0.472988 -1.70504 4.20352 239 248 255 
0.214267 -1.32778 3.65543 203 209 225 
0.36315 -1.68431 4.17563 192 198 212 
0.327992 -1.32923 3.67078 200 208 221 
1.37291 -13.5009 23.1163 223 223 235 
0.998698 -9.04022 15.54 190 192 204 
1.50053 -8.71273 15.2352 57 57 67 
2.51174 -12.9597 22.2397 226 228 227 
-0.428146 -1.25736 3.53317 239 240 235 
0.470166 -1.79947 4.55143 225 234 241 
0.914012 -6.7693 11.7244 242 239 246 
-0.726501 -1.20132 3.47349 47 6 10 
-0.721539 -1.20343 3.47277 53 29 29 
0.381359 -1.21895 3.47057 227 236 251 
1.16768 -13.6926 23.5863 239 239 239 
0.64155 -6.7302 11.6883 251 249 250 
1.10491 -8.96767 15.5089 217 217 219 
0.344864 -1.48362 3.90485 216 222 234 
0.836822 -3.15942 6.35533 208 221 229 
0.3979 -5.13725 9.42955 34 32 43 
0.0545373 -1.0989 3.67711 40 43 48 
0.377736 -1.16279 3.49256 62 69 88 
0.627673 -2.11221 4.93925 180 188 199 
0.407253 -1.89666 4.51281 175 177 190 
0.471364 -2.07624 4.94182 140 149 156 
0.669021 -3.0431 6.40647 231 235 246 
0.646884 -3.02024 6.38127 80 90 102 
0.255323 -1.29645 3.65871 225 233 246 
0.477207 -1.77148 4.55693 194 203 218 
2.84455 -19.7108 31.4031 100 101 106 
1.37475 -21.6388 34.0112 221 215 215 
1.66457 -20.9094 32.8681 235 234 239 
1.16976 -6.09305 11.4794 234 237 244 
0.96819 -4.98167 9.31788 75 76 78 
0.461253 -5.0183 9.3897 179 179 191 
2.79697 -18.8597 30.5935 207 206 211 
3.36668 -18.7052 30.339 243 244 248 
0.766804 -5.06078 9.29299 236 235 240 
0.797288 -5.0754 9.29102 43 45 57 
0.749918 -5.11985 9.37123 47 50 59 
0.999977 -11.7217 19.146 248 249 251 
0.967211 -6.42781 11.5599 235 235 237 
0.557986 -6.54935 11.7442 221 221 233 
0.395567 -1.89666 4.51307 60 64 75 
0.0405244 -1.09929 3.6783 24 23 28 
1.46307 -8.64698 15.1439 57 59 72 
1.37983 -13.6615 23.3772 212 211 225 
0.0346464 -1.08335 3.67446 195 205 214 
0.512911 -0.354875 3.69316 169 165 153 
0.832912 -8.62242 15.47 62 61 69 
0.8951 -5.14226 9.35395 142 145 160 
1.22436 -13.6104 23.4274 61 60 66 
0.590977 -2.66702 5.67524 218 228 237 
1.06345 -4.98619 9.31053 240 243 252 
0.400473 -5.10185 9.41306 186 185 191 
1.01361 -6.35983 11.5425 220 224 233 
0.909604 -6.36994 11.5614 210 214 223 
0.971234 -5.09528 9.26947 234 244 253 
1.4048 -6.3486 11.4839 219 221 234 
0.532188 -5.20391 9.41102 236 236 236 
0.499719 -6.52284 11.7503 219 214 220 
-0.000646792 -1.0619 3.67221 200 208 210 
0.859005 -8.6891 15.4718 173 175 188 
1.19438 -6.45812 11.5256 228 235 241 
1.26349 -13.7039 23.4163 222 221 235 
1.51257 -8.62721 15.1314 196 201 204 
0.0669148 -1.09182 3.68245 212 214 226 
0.408665 -1.30869 3.71394 223 232 247 
1.9056 -8.43139 15.0313 228 233 239 
1.96691 -8.42416 15.018 235 243 245 
0.23966 -1.59909 4.18284 212 222 232 
0.462653 -1.87317 4.5261 195 203 216 
0.388267 -1.88844 4.5197 214 218 230 
0.935551 -8.66544 15.4525 184 186 199 
1.79499 -8.44448 15.0554 221 226 229 
0.712529 -3.57811 7.25458 225 231 245 
0.291411 -1.29774 3.6697 229 241 253 
0.23162 -1.66445 4.16089 218 220 233 
0.371145 -1.84971 4.52384 177 184 194 
0.532224 -2.08955 4.94758 228 237 244 
3.33409 -19.1069 30.4341 171 174 181 
8.66782 -52.8758 84.9976 243 246 255 
2.44982 -20.4709 32.549 52 51 59 
0.400259 -1.6168 4.20469 57 65 78 
0.101652 -1.3171 3.63452 231 235 244 
1.21225 -8.34186 15.2395 236 240 241 
0.851006 -8.61743 15.3459 173 175 188 
0.406221 -5.11763 9.44159 206 205 211 
0.971404 -4.98624 9.26621 229 238 245 
0.664184 -6.26624 11.6238 173 175 187 
0.405634 -5.04417 9.4289 150 148 151 
0.39629 -1.83284 4.52382 206 210 222 
1.93269 -8.49267 14.877 224 225 227 
1.3219 -8.75613 15.2581 224 227 232 
1.18623 -8.77362 15.2895 214 219 225 
0.315355 -2.09848 4.88269 170 180 189 
0.498775 -6.56771 11.8261 145 140 146 
0.674542 -3.03639 6.42496 216 225 240 
3.07725 -18.5416 30.0789 175 176 180 
-0.251427 -1.25392 3.58049 160 141 143 
1.54006 -6.29148 11.3675 218 224 236 
0.94511 -5.1087 9.36932 163 166 171 
-0.278925 -1.24603 3.5691 191 162 164 
1.04109 -5.02901 9.22501 217 218 220 
1.65164 -8.7304 15.1843 242 247 250 
0.871783 -3.09995 6.38409 219 229 239 
0.712464 -6.50543 11.6512 222 221 235 
0.342334 -1.84557 4.51285 242 253 255 
0.26898 -1.76994 4.53367 213 220 228 
0.52489 -6.08666 11.6187 197 194 201 
0.382863 -1.65674 4.20273 149 159 171 
0.907601 -0.84485 3.96893 20 19 15 
3.19559 -19.5545 31.5232 239 243 255 
-0.028072 -1.08841 3.66788 28 26 37 
1.52644 -6.31675 11.2987 213 214 218 
1.25889 -8.60217 15.2606 187 189 201 
0.0535339 -1.08252 3.6747 95 103 106 
0.90384 -0.854634 3.9716 36 31 28 
10.4359 -48.3965 78.0222 155 155 163 
0.371781 -2.02675 4.93181 218 231 239 
0.407323 -5.04193 9.4251 220 220 222 
1.34991 -6.09636 11.2984 122 130 133 
1.20726 -6.21277 11.4867 154 160 172 
0.505044 -6.31641 11.6054 196 195 200 
1.96167 -8.71165 15.1224 218 222 233 
1.27475 -8.38311 15.2349 229 228 233 
1.26005 -8.72054 15.2721 239 238 244 
1.92289 -8.47195 14.8358 213 214 218 
1.33192 -8.67194 15.2518 215 219 222 
0.892942 -8.71794 15.6342 202 202 202 
-0.449659 -1.60547 3.57146 250 253 255 
-0.537728 -1.56991 3.53957 122 122 120 
-0.504664 -1.60472 3.55274 251 251 255 
-0.579638 -1.5572 3.52257 127 124 131 
-0.497596 -1.57665 3.55251 254 248 252 
-0.0240918 -1.06377 3.65562 255 246 247 
-0.507896 -1.57745 3.54839 132 138 136 
-0.421854 -1.60609 3.58023 145 144 152 
-0.664136 -1.56489 3.49121 244 247 252 
-0.645041 -1.55277 3.49925 141 145 144 
-0.46757 -1.58668 3.56702 252 253 255 
0.0167732 -1.05906 3.66203 133 129 128 
0.0110881 -1.07813 3.66259 122 126 129 
-0.431159 -1.60234 3.5772 125 124 129 
-0.656835 -1.5169 3.49414 220 219 217 
-0.476735 -1.58308 3.56142 255 253 255 
-0.489764 -1.60813 3.55923 134 134 144 
-0.516544 -1.56991 3.54305 251 255 255 
-0.502744 -1.59453 3.55456 102 106 109 
-0.211637 -1.10304 3.61659 239 243 255 
-0.53233 -1.57923 3.54312 111 115 116 
-0.513569 -1.60687 3.54769 225 233 244 
-0.432541 -1.58779 3.57584 249 250 252 
-0.488875 -1.5956 3.55458 119 125 125 
-0.742245 -1.56294 3.45744 255 248 249 
-0.512408 -1.59649 3.5505 253 255 254 
-0.432722 -1.27248 3.56608 248 255 255 
0.045565 -1.11349 3.67233 212 205 195 
0.0049295 -1.05419 3.65684 102 103 95 
-0.665167 -1.49182 3.49243 252 251 247 
-0.120104 -1.05664 3.63781 236 240 243 
-0.273334 -1.40775 3.61829 255 238 232 
-0.651894 -1.2337 3.49071 161 139 126 
-0.528521 -1.59674 3.54528 108 108 116 
0.0293223 -1.07023 3.66786 108 95 104 
-0.210186 -1.09124 3.61312 239 233 237 
-0.476777 -0.912687 3.53953 252 251 255 
-0.529849 -0.996396 3.51395 247 255 254 
-0.0618787 -1.06319 3.65006 255 253 248 
-0.482075 -1.60129 3.57133 106 116 117 
-0.655062 -1.511 3.48278 255 251 245 
-0.409657 -1.31932 3.57731 255 245 216 
-0.820484 -1.47577 3.42741 233 228 222 
-0.282089 -1.26368 3.60953 251 225 208 
-0.130637 -1.0687 3.63699 115 110 114 
-0.453074 -0.938132 3.55481 113 118 140 
-0.505299 -1.56785 3.55512 94 101 127 
-0.508602 -1.55358 3.5505 243 211 224 
-0.397187 -1.33214 3.58206 255 252 216 
-0.870214 -1.50743 3.39834 234 222 222 
-0.412888 -1.33377 3.57592 160 133 112 
-0.229557 -1.04403 3.60772 250 255 251 
-0.374433 -0.956562 3.57345 233 215 227 
-0.646499 -1.49011 3.48776 254 252 253 
-0.535303 -1.5483 3.53927 255 248 239 
0.0356786 -1.08775 3.67229 244 253 248 
0.0031772 -1.07845 3.66511 251 252 255 
-0.0967138 -1.08323 3.64886 255 253 255 
-0.0749042 -1.06273 3.65227 251 253 252 
0.0186008 -1.05909 3.66687 133 129 128 
-0.307567 -0.955671 3.60152 244 253 255 
-0.208827 -1.10502 3.62288 247 251 255 
-0.0231415 -1.06365 3.65796 255 246 247 
0.0474851 -1.11297 3.67176 247 243 232 
-0.722799 -1.21374 3.46559 122 101 84 
-0.644751 -1.2391 3.49411 110 93 83 
-0.249843 -0.956893 3.61742 245 242 237 
0.0564863 -1.09758 3.67666 127 126 122 
-0.200713 -1.10153 3.63142 254 248 250 
-0.0326005 -1.06649 3.65794 158 148 147 
-0.528155 -0.887411 3.55467 255 231 216 
-0.207431 -1.09429 3.62143 239 233 237 
-0.229451 -1.13684 3.61918 238 240 253 
-0.339318 -0.938502 3.59629 205 208 213 
-0.318452 -0.957902 3.60696 148 152 164 
-0.415471 -0.923354 3.58436 255 247 241 
-0.361595 -0.960108 3.59513 240 222 234 
0.034546 -1.09897 3.67652 90 91 93 
-0.470475 -1.61348 3.57531 245 248 255 
-0.0128393 -1.06892 3.6545 255 252 251 
-0.119827 -1.07247 3.6343 248 252 253 
-0.0585478 -1.05003 3.64349 248 238 237 
-0.567574 -1.5613 3.5315 137 134 151 
-0.539216 -0.878667 3.55697 255 231 220 
-0.700256 -0.938586 3.51525 249 253 203 
-0.528836 -1.67374 3.563 154 154 146 
-0.427893 -1.59974 3.58731 120 119 127 
-0.427587 -1.26408 3.55735 255 255 255 
-0.0787144 -1.05703 3.63899 255 254 255 
-0.485562 -1.5938 3.56545 130 130 130 
-0.450124 -1.60703 3.58162 110 111 115 
0.00531315 -1.06955 3.65611 93 97 98 
-0.429781 -1.58696 3.58819 250 252 251 
-0.84098 -1.6069 3.43079 104 99 106 
-0.501475 -1.60488 3.56427 250 251 255 
-0.93849 -0.937879 3.44706 251 255 255 
-0.743278 -0.925259 3.50782 255 255 236 
-0.0322655 -1.06623 3.64677 255 251 248 
-0.79542 -1.64032 3.45086 219 216 225 
-0.315117 -0.948779 3.58852 234 241 255 
-0.00302411 -1.05083 3.65144 241 242 237 
-0.502871 -1.67026 3.57156 140 129 143 
-0.820071 -0.906123 3.48449 228 222 226 
-0.55819 -1.56515 3.53565 88 85 94 
-0.564054 -1.71345 3.55838 142 142 134 
-0.736927 -1.56252 3.46951 255 252 253 
-0.863195 -1.51032 3.41974 239 229 227 
-0.232838 -1.12684 3.60274 249 253 255 
-0.405125 -1.31113 3.56245 255 252 222 
-0.4393 -1.61421 3.58723 115 120 126 
-0.447438 -1.58629 3.57795 254 255 255 
-0.77779 -1.63464 3.45871 104 95 114 
-0.532591 -0.988423 3.53603 127 136 135 
-0.49761 -1.5899 3.56346 104 109 113 
-0.475305 -0.910992 3.57004 251 255 251 
-0.811052 -1.63469 3.44491 255 240 243 
-0.566668 -1.04451 3.5364 230 237 243 
-0.513664 -1.60411 3.55793 190 196 220 
-0.705653 -1.21734 3.48099 243 252 233 
-0.630833 -1.53776 3.51033 252 252 252 
-0.801859 -1.62923 3.45261 113 103 102 
-0.819641 -1.62039 3.44298 110 85 89 
-0.842738 -1.55832 3.43299 251 220 215 
-0.999703 -1.23304 3.38585 251 242 233 
-0.281781 -1.43644 3.61854 255 255 230 
-0.814675 -1.4746 3.4398 255 255 246 
-0.280049 -1.25667 3.59859 247 214 195 
-0.646527 -1.51499 3.50011 254 252 240 
-0.704226 -1.20795 3.49113 231 223 202 
-0.408741 -1.32515 3.56321 152 130 107 
-0.701714 -1.6711 3.49776 221 203 225 
-0.0474513 -1.05876 3.63963 250 242 240 
-0.528688 -0.886757 3.58482 237 224 205 
-0.303133 -0.955316 3.61592 234 241 255 
0.0225199 -1.05899 3.67726 126 122 123 
-0.467232 -0.916011 3.59328 247 255 255 
0.0310416 -1.07316 3.6936 253 252 255 
0.00520743 -1.07807 3.67651 211 207 206 
-0.0194847 -1.06518 3.66969 238 233 230 
-0.244767 -0.957561 3.63061 255 255 255 
0.0451442 -1.08331 3.69188 252 253 248 
-0.412403 -0.922418 3.60318 255 245 237 
-0.335167 -0.93834 3.61233 228 233 236 
