ply                 
format ascii 1.0    
element vertex 998
property float x    
property float y    
property float z    
property uchar red  
property uchar green
property uchar blue 
end_header          
-1.40913 0.975513 4.22283 30 35 38 
-1.96056 -2.80959 5.80108 54 68 71 
-1.53395 0.641874 4.83356 85 93 96 
-1.53395 0.641874 4.83356 85 93 96 
-1.54756 -0.64038 5.09691 66 77 79 
-1.52957 -0.437992 5.05188 27 36 35 
-1.44205 0.277458 4.87141 89 101 101 
-1.48985 -0.405466 5.03659 75 83 85 
-1.48985 -0.405466 5.03659 75 83 85 
-1.48527 -0.397896 5.03155 26 36 37 
-1.46811 -0.22546 4.98675 49 59 61 
-1.46811 -0.22546 4.98675 49 59 61 
-1.47892 -0.526901 5.05452 49 56 62 
-1.43054 0.0185535 4.92638 31 36 30 
-1.36463 0.936533 4.7212 25 34 33 
-1.57606 -1.99038 5.38793 63 68 71 
-1.42497 -0.109352 4.95712 40 49 44 
-1.42095 -0.104058 4.95656 106 110 109 
-1.47606 -0.883461 5.13524 102 113 115 
-1.43967 -0.393356 5.02494 81 92 98 
-1.43967 -0.393356 5.02494 81 92 98 
-1.56664 -1.98497 5.38649 116 124 126 
-1.49172 -1.13689 5.18862 22 27 23 
-1.47279 -0.926581 5.14576 101 109 111 
-1.3917 0.0172771 4.916 46 49 42 
-1.42983 -0.526939 5.04629 41 46 49 
-1.45862 -0.883258 5.13532 104 114 115 
-1.43743 -0.738849 5.09514 96 107 113 
-1.45254 -0.915079 5.14259 100 111 117 
-1.45483 -0.963655 5.14977 106 116 126 
-1.48164 -1.30044 5.22834 115 122 138 
-1.45681 -0.986813 5.15722 97 108 110 
-1.39245 -0.0819017 4.96421 97 103 103 
-1.38516 -0.0815564 4.9494 89 95 93 
-1.37731 -0.00911794 4.93784 72 73 75 
-1.3782 -0.0365091 4.94484 94 95 99 
-1.40414 -0.523088 5.0401 112 119 125 
-1.43973 -0.982653 5.15115 109 119 121 
-1.4295 -0.947952 5.14996 111 119 121 
-1.4295 -0.947952 5.14996 111 119 121 
-1.44459 -1.17142 5.19825 45 54 61 
-1.42215 -0.893785 5.13496 95 99 98 
-1.42764 -0.998709 5.15646 113 118 121 
-1.37448 -0.291921 4.99901 95 106 110 
-1.52957 -2.3614 5.45285 109 114 108 
-1.4155 -0.889954 5.1334 55 59 58 
-1.30458 0.763096 4.76653 44 55 59 
-1.33155 0.238286 4.87336 114 118 119 
-1.33308 0.198221 4.8831 116 120 119 
-1.38501 -0.611245 5.06408 114 123 122 
-1.53438 -2.63877 5.49445 42 52 44 
-1.41172 -1.01004 5.15922 111 120 119 
-1.39447 -0.802844 5.11502 100 109 114 
-1.32143 0.242826 4.87388 95 100 103 
-1.29366 0.750294 4.76672 93 109 132 
-1.30979 0.412174 4.8324 100 113 129 
-1.29143 0.765409 4.76125 98 124 137 
-1.34096 -0.0907928 4.94926 15 19 18 
-1.29764 0.645802 4.79054 100 117 135 
-1.36705 -0.511957 5.04688 47 56 55 
-1.33888 -0.140909 4.96374 110 114 115 
-1.38913 -0.883762 5.13279 108 112 111 
-1.34322 -0.229891 4.9844 90 99 98 
-1.36118 -0.517336 5.04429 120 125 128 
-1.36118 -0.517336 5.04429 120 125 128 
-1.33822 -0.214802 4.98001 95 108 117 
-1.35909 -0.529586 5.05216 114 122 124 
-1.32891 -0.0831706 4.95108 81 87 85 
-1.49349 -2.33753 5.45148 101 108 101 
-1.39011 -0.986015 5.15679 52 62 61 
-1.32684 -0.148519 4.95839 101 105 108 
-1.49857 -2.59568 5.48321 37 42 35 
-1.48505 -2.39046 5.45639 110 116 112 
-1.26866 0.764262 4.76619 34 39 42 
-1.39892 -1.24314 5.22034 113 123 122 
-1.32889 -0.285021 4.9944 96 109 115 
-1.33978 -0.405095 5.03416 87 101 101 
-1.36789 -0.877704 5.12794 99 113 113 
-1.37089 -0.906932 5.13854 56 66 76 
-1.28839 0.325989 4.861 105 111 111 
-1.27414 0.55677 4.80787 55 63 65 
-1.32144 -0.223107 4.98797 63 71 74 
-1.35483 -0.739584 5.10228 113 115 114 
-1.39003 -1.2357 5.21605 51 61 60 
-1.28406 0.332938 4.86268 55 63 66 
-1.32608 -0.361562 5.01656 48 59 61 
-1.46931 -2.4181 5.46045 116 126 117 
-1.31464 -0.267826 5.00018 101 111 121 
-1.35873 -0.918897 5.14881 114 123 130 
-1.35764 -0.954768 5.15209 64 73 78 
-1.32597 -0.487791 5.04944 63 71 73 
-1.32332 -0.506644 5.04944 66 71 64 
-1.30512 -0.266626 4.99756 99 109 118 
-1.24255 0.825464 4.76052 43 54 58 
-1.34876 -0.99407 5.16452 61 68 76 
-1.2607 0.329407 4.87108 104 113 120 
-1.32034 -0.633359 5.0872 50 55 48 
-1.34315 -0.964564 5.17413 65 71 69 
-1.29202 -0.299316 5.01209 118 126 128 
-1.30725 -0.513045 5.06699 114 120 118 
-1.30725 -0.513045 5.06699 114 120 118 
-1.23922 0.586179 4.81767 54 60 60 
-1.3155 -0.690852 5.10137 55 61 59 
-1.32873 -0.91118 5.15142 68 77 76 
-1.30196 -0.507072 5.06195 54 60 58 
-1.31386 -0.699625 5.10465 116 124 126 
-1.30076 -0.527208 5.06543 111 120 119 
-1.31283 -0.691068 5.10804 52 58 56 
-1.34551 -1.21372 5.21958 120 128 130 
-1.34551 -1.21372 5.21958 120 128 130 
-1.43067 -2.48099 5.48116 104 110 108 
-1.28011 -0.33913 5.01696 57 65 67 
-1.4657 -2.73578 5.60878 184 215 235 
-1.27501 -0.152045 5.00062 89 99 100 
-1.29389 -0.562593 5.07906 59 71 69 
-1.28517 -0.462307 5.05864 103 112 109 
-1.28271 -0.454768 5.05986 59 65 63 
-1.28271 -0.454768 5.05986 59 65 63 
-1.41866 -2.48134 5.48565 115 127 123 
-1.28161 -0.505611 5.06824 111 120 125 
-1.2307 0.325225 4.88083 95 108 116 
-1.25686 -0.203624 5.00168 59 67 70 
-1.25887 -0.311938 5.02629 101 112 116 
-1.25184 -0.207206 5.00106 115 125 126 
-1.27627 -0.616682 5.09306 49 61 59 
-1.27083 -0.499061 5.07601 112 123 127 
-1.29433 -0.931644 5.17781 56 65 64 
-1.21332 0.331027 4.88654 103 108 111 
-1.30038 -1.13617 5.22578 17 22 16 
-1.30038 -1.13617 5.22578 17 22 16 
-1.36771 -2.21777 5.45441 61 70 65 
-1.36771 -2.21777 5.45441 61 70 65 
-1.37832 -2.4236 5.49496 116 127 121 
-1.22365 -0.0949461 4.98764 41 50 47 
-1.198 0.346349 4.89491 115 129 140 
-1.23491 -0.34549 5.04906 100 114 117 
-1.23476 -0.364886 5.05291 34 40 36 
-1.18832 0.475316 4.87049 52 63 65 
-1.23162 -0.340512 5.05029 51 65 66 
-1.23131 -0.357929 5.05111 82 90 92 
-1.37182 -2.48685 5.51293 52 59 51 
-1.34964 -2.14481 5.44819 124 133 132 
-1.20906 -0.094815 4.99423 33 42 39 
-1.16277 0.75812 4.81279 37 51 54 
-1.27873 -1.24283 5.25703 117 122 126 
-1.23118 -0.497331 5.09968 78 84 80 
-1.26562 -1.11779 5.24963 26 28 23 
-1.15534 0.767214 4.82143 34 48 51 
-1.27007 -1.23979 5.26948 64 68 67 
-1.2625 -1.23004 5.26826 117 126 123 
-1.25673 -1.13994 5.25441 26 29 22 
-1.34646 -2.60525 5.5369 81 86 79 
-1.25358 -1.15262 5.26386 84 86 81 
-1.25169 -1.28615 5.27998 101 109 112 
-1.31264 -2.14583 5.48263 53 60 66 
-1.2368 -1.13378 5.26991 27 30 23 
-1.32584 -2.60505 5.56325 39 44 37 
-1.31934 -2.53721 5.5595 58 68 60 
-1.29232 -2.14753 5.4933 59 63 64 
-1.14514 0.184637 4.97715 80 90 81 
-1.13981 0.190787 4.98313 27 37 26 
-1.28032 -2.14837 5.50443 37 42 46 
-1.12817 0.181554 5.00878 28 35 28 
-1.26314 -2.15367 5.51048 117 127 126 
-1.15117 -0.372602 5.12735 18 24 10 
-1.11268 0.349898 4.97602 31 37 35 
-1.11936 0.0952013 5.02732 76 85 80 
-1.12557 -0.0132098 5.05661 67 76 73 
-1.27689 -2.61399 5.60259 56 61 57 
-1.15264 -0.615099 5.20422 106 112 108 
-1.08517 0.158298 5.06568 48 56 43 
-1.07253 0.314773 5.04172 49 56 48 
-1.08425 0.0260374 5.10489 10 18 5 
-1.20411 -2.1805 5.60335 35 37 32 
-1.07656 0.0260693 5.11219 31 38 31 
-1.1127 -0.710444 5.29082 32 41 36 
-1.09948 -0.474719 5.23657 79 88 71 
-1.07354 -0.0108515 5.12913 24 31 24 
-1.06457 0.162026 5.09728 78 87 82 
-1.20902 -2.26689 5.69232 116 127 131 
-1.13156 -1.15057 5.40228 95 101 99 
-1.17826 -2.19232 5.59579 111 121 120 
-1.08132 -0.367861 5.23374 15 25 14 
-1.09077 -0.572299 5.28607 83 89 87 
-1.04539 0.328104 5.0819 91 99 101 
-1.17505 -2.18488 5.60966 45 48 41 
-1.0624 -0.0714645 5.17105 98 108 110 
-1.04884 0.226721 5.10721 130 145 150 
-1.0446 0.291618 5.09698 55 69 70 
-1.04067 0.377457 5.08133 117 126 133 
-1.16901 -2.19034 5.61293 128 134 132 
-1.05095 0.0689613 5.14805 52 59 65 
-1.05095 0.0689613 5.14805 52 59 65 
-1.04209 0.250514 5.11037 51 64 72 
-1.04027 0.272653 5.10374 56 70 73 
-1.03544 0.366757 5.09632 55 64 71 
-1.0112 0.800417 5.01378 34 44 53 
-1.02874 0.36714 5.10731 120 130 139 
-1.08323 -0.755929 5.37406 80 86 84 
-1.08218 -0.772833 5.37747 84 90 86 
-1.05194 -0.194397 5.24288 15 26 20 
-1.07484 -0.616491 5.34998 23 28 21 
-1.08217 -0.816221 5.39561 79 88 85 
-1.11434 -1.37819 5.53536 93 97 100 
-1.03895 -0.032289 5.20631 50 54 53 
-1.02006 0.373077 5.12691 125 135 144 
-1.03313 0.0843039 5.19746 110 115 118 
-1.03222 0.0841744 5.1952 110 115 118 
-1.1016 -1.2621 5.50783 90 94 95 
-1.08336 -0.952719 5.43938 76 83 76 
-1.09878 -1.2742 5.52552 21 25 26 
-1.09893 -1.29086 5.52593 38 42 45 
-1.0838 -1.05429 5.47242 22 26 25 
-1.0838 -1.05429 5.47242 22 26 25 
-1.03288 -0.0923832 5.24538 45 52 44 
-1.08874 -1.1557 5.4985 23 27 28 
-1.09014 -1.18654 5.50509 30 44 45 
-1.07161 -0.899607 5.43037 17 26 23 
-1.07893 -1.02889 5.4655 26 31 27 
-1.13757 -2.2019 5.70539 47 48 40 
-1.08486 -1.19168 5.5083 95 105 107 
-1.13776 -2.18191 5.7269 94 101 109 
-1.08008 -1.15561 5.50662 31 35 38 
-0.989171 0.714405 5.09336 52 56 67 
-0.989171 0.714405 5.09336 52 56 67 
-1.05662 -0.805199 5.44048 86 91 87 
-1.05675 -0.777922 5.44311 82 88 84 
-0.980619 0.812123 5.07418 46 55 62 
-1.05257 -0.784072 5.44061 30 36 32 
-1.06116 -1.02594 5.48171 95 101 97 
-1.13125 -2.25159 5.81506 110 115 119 
-1.04166 -0.615814 5.44067 37 41 40 
-0.975815 0.803046 5.1254 99 109 121 
-0.963167 0.962846 5.09221 87 96 101 
-1.02105 -0.347965 5.40466 107 112 116 
-1.14049 -2.69552 5.97087 92 101 96 
-1.02355 -0.83257 5.47593 36 41 37 
-1.03061 -1.14804 5.51562 82 88 84 
-1.13469 -2.70783 5.97514 86 91 85 
-1.13523 -2.71022 5.99671 40 45 38 
-0.968613 0.506453 5.2542 97 107 108 
-0.95729 0.830428 5.19953 45 53 56 
-1.00025 -0.485503 5.57228 39 43 42 
-0.995507 -1.5159 5.61431 103 112 119 
-0.978647 -1.27145 5.55394 30 35 31 
-0.964241 -0.939463 5.49344 103 117 118 
-0.964241 -0.939463 5.49344 103 117 118 
-0.953062 -1.02196 5.50862 105 116 120 
-0.947947 -0.976615 5.49896 94 104 105 
-0.954478 -1.14798 5.53734 93 102 107 
-0.948781 -1.03925 5.51236 113 120 128 
-0.94777 0.423993 5.54309 85 90 94 
-0.96721 -0.0575261 5.68078 53 62 67 
-0.951023 0.325899 5.59012 36 49 58 
-0.950325 0.337991 5.58892 35 48 57 
-0.945571 0.40665 5.56679 47 52 55 
-0.945571 0.40665 5.56679 47 52 55 
-0.937989 0.583916 5.52574 46 57 59 
-0.931625 0.724603 5.4895 36 40 49 
-0.936827 0.570104 5.52254 43 54 56 
-0.935022 -0.944201 5.49988 27 36 31 
-0.914078 1.1057 5.4046 75 85 86 
-0.939331 -1.18517 5.55019 10 12 9 
-0.934417 -1.20882 5.55042 108 117 124 
-0.914285 -0.942332 5.49677 42 53 49 
-0.91152 0.635212 5.52354 54 65 69 
-0.914929 -1.02044 5.51993 97 103 101 
-0.917691 -1.16353 5.54689 108 118 120 
-0.913002 -1.05086 5.52645 76 85 84 
-0.929293 0.0341288 5.66593 26 38 36 
-0.912736 -1.16956 5.55384 36 44 47 
-0.925013 0.0295998 5.67459 87 101 102 
-0.905666 -1.04169 5.53136 28 34 32 
-0.89822 0.727796 5.51932 42 51 56 
-0.89403 -0.921022 5.4924 41 50 49 
-0.891052 -0.929649 5.50649 80 88 90 
-0.890466 -0.910325 5.50343 44 50 48 
-0.889281 0.721411 5.51733 95 106 112 
-0.879469 0.726917 5.50557 48 58 60 
-0.901191 0.0983441 5.66189 40 47 40 
-0.917523 -0.346359 5.76964 50 60 52 
-0.917523 -0.346359 5.76964 50 60 52 
-0.894854 0.218387 5.63555 28 39 33 
-0.912057 -0.348429 5.77818 29 36 28 
-0.891511 0.136655 5.65691 31 41 32 
-0.90837 -0.4833 5.78354 10 15 9 
-0.880455 0.245193 5.6316 83 98 95 
-0.891123 -0.0867684 5.71274 88 103 100 
-0.904934 -0.466607 5.80185 77 83 81 
-0.904934 -0.466607 5.80185 77 83 81 
-0.884449 -0.0669027 5.71687 33 45 45 
-0.883524 -0.081672 5.7165 34 48 48 
-0.880674 -0.0598874 5.71545 77 89 89 
-0.882285 -0.328663 5.77963 27 36 33 
-0.877737 -0.358767 5.78239 16 22 18 
-0.837102 -0.819973 5.50654 114 124 126 
-0.852585 0.276947 5.63216 42 54 50 
-0.876395 -0.348802 5.7978 23 29 25 
-0.838815 0.577099 5.55853 112 125 141 
-0.850046 0.215618 5.64612 39 48 43 
-0.844901 0.261282 5.63552 15 30 27 
-0.836744 0.29941 5.62941 82 94 92 
-0.823859 -0.928634 5.52714 94 99 102 
-0.823099 0.599145 5.56238 51 66 71 
-0.824223 0.256239 5.64863 28 39 41 
-0.803965 -0.827134 5.4999 16 21 25 
-0.816314 0.421331 5.60714 34 45 41 
-0.816936 0.302278 5.63342 31 45 45 
-0.806421 0.601835 5.56709 46 60 73 
-0.814049 0.29612 5.6358 104 117 126 
-0.810741 0.373438 5.61847 38 47 46 
-0.796848 -0.826295 5.50703 19 24 27 
-0.792764 0.567649 5.57984 67 81 94 
-0.802027 0.287745 5.65159 81 96 93 
-0.79961 0.307992 5.63913 108 123 130 
-0.78435 -0.826102 5.5139 11 15 14 
-0.79362 -0.0696322 5.74183 85 100 107 
-0.79362 -0.0696322 5.74183 85 100 107 
-0.787131 -0.0558784 5.7323 34 44 43 
-0.77735 -0.056235 5.74658 35 41 41 
-0.772194 0.0652794 5.7167 38 44 42 
-0.763745 0.273566 5.66255 40 50 49 
-0.76276 0.262138 5.66242 84 96 94 
-0.763393 0.0705534 5.71479 36 45 42 
-0.739222 -1.1146 5.55985 61 71 62 
-0.748407 0.235976 5.67726 85 103 105 
-0.748738 -0.138076 5.76688 27 36 33 
-0.668489 0.271038 5.68711 57 62 55 
-0.641106 0.193959 5.72372 46 65 63 
-0.64103 -0.521752 5.83136 75 85 87 
-0.627198 -0.594075 5.76113 61 66 69 
-0.477208 -0.644754 4.45232 72 79 85 
-0.601759 0.226673 5.72269 62 68 68 
-0.573538 -0.828623 5.57393 12 16 15 
-0.550219 -0.481046 5.91249 8 14 12 
-0.550219 -0.481046 5.91249 8 14 12 
-0.524587 -0.804349 5.62904 10 12 7 
-0.525538 0.23396 5.75322 15 17 14 
-0.50841 0.21508 5.74934 36 51 48 
-0.505137 -0.0510341 5.82284 17 23 21 
-0.486187 -0.0458929 5.80839 17 23 23 
-0.494459 -0.455925 5.91523 120 128 131 
-0.47036 -0.777929 5.69531 12 17 11 
-0.489129 -0.465862 5.93458 103 110 116 
-0.477671 -0.45301 5.92838 40 50 51 
-0.447119 -0.0121434 5.83687 13 18 21 
-0.44421 -0.47198 5.94173 100 104 103 
-0.44421 -0.47198 5.94173 100 104 103 
-0.42038 -0.0505547 5.85929 15 21 19 
-0.419036 -0.0769615 5.85563 63 73 74 
-0.396695 -0.974338 5.65328 66 71 67 
-0.361566 -0.733827 5.73198 60 66 66 
-0.366742 -0.415458 5.95301 13 18 12 
-0.366742 -0.415458 5.95301 13 18 12 
-0.361653 -0.400212 5.95172 74 79 73 
-0.336612 -0.830796 5.65634 15 17 16 
-0.322414 -0.0071437 5.8396 69 70 74 
-0.324325 -0.0480132 5.87733 21 32 34 
-0.316076 -0.236116 5.9276 17 30 13 
-0.314315 -0.322364 5.94379 20 33 15 
-0.30211 -1.20258 5.80705 82 90 93 
-0.285425 -0.804173 5.69543 10 12 9 
-0.28592 0.0825248 5.85887 79 85 83 
-0.246184 -1.29322 5.88903 216 225 242 
-0.246184 -1.29322 5.88903 216 225 242 
-0.241269 -0.189106 5.94032 50 59 56 
-0.238069 -0.296994 5.96587 18 24 22 
-0.228606 -0.332929 5.97531 45 51 47 
-0.214856 -0.412252 6.00176 40 49 46 
-0.211625 -0.174747 5.9474 56 60 59 
-0.207014 -0.178727 5.94552 3 9 7 
-0.20322 -0.330034 5.98299 16 22 20 
-0.178211 -0.344571 5.99204 8 12 11 
-0.1718 -0.351298 5.99892 71 77 75 
-0.150223 -1.08981 5.74862 73 78 74 
-0.150263 -0.18906 5.96261 74 84 85 
-0.140645 -0.0782542 5.94159 16 20 23 
-0.141351 -0.195214 5.9718 18 27 26 
-0.141351 -0.195214 5.9718 18 27 26 
-0.137397 -0.128525 5.95368 38 42 41 
-0.135566 -0.0416972 5.93326 18 22 23 
-0.129608 -0.470231 6.04122 24 29 25 
-0.11688 -0.828691 5.70341 9 13 12 
-0.122396 -0.472333 6.04237 95 101 97 
-0.114506 -0.73355 5.78354 80 87 95 
-0.117207 -0.0603121 5.94345 75 81 93 
-0.10198 -0.829763 5.70426 14 18 17 
-0.101226 -0.798817 5.71562 79 88 97 
-0.0653009 -0.0227873 5.95473 63 73 85 
-0.0601751 -0.482306 6.06422 59 69 71 
-0.0470182 -0.197286 5.99776 44 53 62 
-0.0470182 -0.197286 5.99776 44 53 62 
-0.0315867 -0.288584 6.02731 102 113 117 
-0.0259195 -0.477686 6.07638 120 129 138 
-0.0259195 -0.477686 6.07638 120 129 138 
-0.0202734 0.226205 5.90056 27 41 44 
0.0020485 0.0970262 5.93145 52 62 71 
0.0139227 -0.776906 5.76952 26 28 23 
0.014563 0.14461 5.94031 87 100 106 
0.0149472 -0.219882 6.02138 30 42 32 
0.0376033 -0.256556 6.03778 26 35 30 
0.0418526 0.0163108 5.97235 95 108 124 
0.0579453 -0.479887 6.09392 9 15 11 
0.0811253 -0.458979 6.10371 71 77 75 
0.0938542 0.26539 5.92255 46 55 54 
0.102219 0.211099 5.93705 47 56 53 
0.113021 -0.470488 6.11571 19 24 27 
0.186467 -0.481906 6.12979 25 37 33 
0.204767 -0.392753 6.10766 79 88 95 
0.241755 -0.481799 6.15929 28 35 28 
0.245037 -0.35437 6.13039 83 97 97 
0.24354 -0.0501158 6.05056 59 67 80 
0.251674 -0.47959 6.15855 23 28 22 
0.258591 -0.0700849 6.05699 92 106 117 
0.268822 -0.0462059 6.05369 40 49 48 
0.270985 0.100959 6.01403 56 65 74 
0.291126 -0.244886 6.11465 31 41 43 
0.303946 -0.0442678 6.0597 37 52 59 
0.303355 0.229593 5.99613 47 61 62 
0.313 -0.465999 6.174 74 83 80 
0.321326 -0.851364 5.85671 70 78 91 
0.339898 0.267723 5.99005 103 119 134 
0.354347 -0.463775 6.18872 76 85 92 
0.354459 -0.463134 6.18743 76 85 92 
0.354459 -0.463134 6.18743 76 85 92 
0.354702 0.623204 5.91193 33 44 48 
0.37244 -0.578024 6.05214 97 104 112 
0.37226 -0.741273 5.95628 102 107 113 
0.371522 -0.772624 5.92688 62 62 62 
0.390472 -0.425122 6.19415 31 40 37 
0.383014 -1.17326 5.93123 48 57 56 
0.380896 -0.808411 5.87754 94 103 108 
0.380896 -0.808411 5.87754 94 103 108 
0.382409 -0.838588 5.83866 108 113 116 
0.382409 -0.838588 5.83866 108 113 116 
0.419648 -0.0620761 6.1094 72 81 76 
0.421128 -0.0722774 6.10965 77 88 82 
0.422927 0.100925 6.06095 30 39 36 
0.410629 -0.840751 5.85832 95 102 110 
0.44063 -0.31564 6.17868 83 94 96 
0.420866 -0.844233 5.87433 102 116 125 
0.440319 -0.191702 6.14501 83 93 95 
0.44045 -0.0463138 6.1084 21 31 30 
0.433896 -1.05711 5.91253 52 60 63 
0.447468 -0.0564454 6.10897 10 20 21 
0.463684 -1.29524 5.97214 33 39 35 
0.494972 -1.18297 5.96258 128 133 136 
0.496043 -1.20649 5.97076 132 142 143 
0.491593 -0.94087 5.8977 106 123 130 
0.496219 -1.06463 5.93612 103 108 111 
0.5023 -1.21207 5.97606 2 7 10 
0.504541 -1.28871 5.98673 56 67 69 
0.506278 -1.23611 5.98731 109 115 129 
0.501522 -1.05697 5.93598 13 21 23 
0.517338 -1.3067 5.99828 108 122 125 
0.51211 -0.943078 5.90844 120 135 140 
0.526689 0.0959015 5.90013 33 43 52 
0.529973 -0.89956 5.90284 49 62 70 
0.531783 -0.936266 5.90887 54 65 67 
0.53412 -0.972006 5.92043 128 135 145 
0.533645 -0.883154 5.90297 61 75 84 
0.542355 -1.15034 5.96896 61 69 72 
0.558491 -0.812565 6.05442 72 78 78 
0.554286 -1.09642 5.95797 58 72 75 
0.565645 -1.33937 6.0255 64 73 82 
0.557255 -0.930567 5.91367 106 117 137 
0.568529 -1.107 5.96712 127 137 139 
0.571165 -1.08278 5.95871 125 134 139 
0.571976 -1.11349 5.96316 67 71 72 
0.577846 -1.16707 5.98031 57 65 67 
0.586072 -1.2997 6.03217 106 116 128 
0.583229 -1.13425 5.97651 125 134 141 
0.58206 -1.06581 5.96045 131 139 150 
0.582637 -1.07621 5.9608 60 71 65 
0.585105 -1.16951 5.97925 128 139 141 
0.577654 -0.864055 5.90637 42 59 67 
0.589269 -1.1418 5.97814 111 121 123 
0.587137 -1.05815 5.95329 62 72 84 
0.587137 -1.05815 5.95329 62 72 84 
0.591835 -1.08013 5.96404 117 132 135 
0.598284 -1.18335 5.98878 113 121 123 
0.59786 -1.12777 5.98323 122 131 138 
0.59786 -1.12777 5.98323 122 131 138 
0.599068 -1.11852 5.97304 41 53 53 
0.593668 -0.89891 5.9144 46 60 69 
0.606954 -1.25872 6.01568 102 112 113 
0.595629 -0.875305 5.91339 69 86 94 
0.610779 -1.30391 6.02989 48 58 57 
0.610779 -1.30391 6.02989 48 58 57 
0.599261 -0.893489 5.92336 106 121 128 
0.604714 -1.08727 5.96497 57 71 80 
0.570794 0.758334 5.65445 85 93 104 
0.608033 -1.0825 5.96578 112 126 135 
0.608033 -1.0825 5.96578 112 126 135 
0.615694 -1.29575 6.02335 111 120 117 
0.605391 -0.962358 5.93264 58 69 71 
0.619725 -1.14537 5.99412 68 78 88 
0.630168 -1.30401 6.03342 54 63 62 
0.627273 -1.14871 5.98838 114 125 131 
0.620858 -0.811363 5.91964 108 119 137 
0.630525 -1.16732 5.98845 109 123 126 
0.637691 -1.11803 5.98674 100 111 117 
0.641523 -1.17191 6.0011 120 134 135 
0.642354 -1.09015 5.9914 66 75 82 
0.636738 -0.872999 5.92616 101 114 122 
0.644139 -1.10183 5.98252 109 118 123 
0.617686 0.133528 5.76016 23 34 38 
0.642619 -0.895534 5.9346 43 61 63 
0.65542 -1.05607 5.97923 120 128 141 
0.653599 -0.705911 5.91949 101 119 119 
0.659269 -0.974749 5.95517 54 68 68 
0.672385 -1.31027 6.04342 108 120 120 
0.634478 0.145512 5.7385 53 66 72 
0.655213 -0.601538 5.90081 63 70 76 
0.680769 -1.39508 6.07116 32 36 39 
0.670425 -1.09098 5.9926 113 122 131 
0.665802 -0.839427 5.9374 31 41 50 
0.680191 -1.26626 6.03327 36 48 48 
0.680211 -1.2499 6.0281 48 59 61 
0.668205 -0.781487 5.92481 38 52 61 
0.67142 -0.775213 5.93156 90 103 112 
0.670301 -0.759817 5.91593 101 114 122 
0.670301 -0.759817 5.91593 101 114 122 
0.681747 -1.08002 5.98777 45 56 58 
0.675837 -0.839397 5.93406 42 54 66 
0.675837 -0.839397 5.93406 42 54 66 
0.667118 -0.0625961 5.73878 42 52 64 
0.667118 -0.0625961 5.73878 42 52 64 
0.663327 0.180743 5.69307 38 49 53 
0.693756 -0.747379 5.90514 53 64 68 
0.677412 -0.233633 5.77885 56 68 66 
0.719892 -1.31094 6.01336 95 101 97 
0.708766 -0.757782 5.87919 52 63 69 
0.678792 0.308531 5.64518 59 68 77 
0.690354 -0.0642231 5.71197 49 62 71 
0.682468 0.71495 5.54289 18 23 27 
0.694204 0.256727 5.63944 46 55 60 
0.719638 -0.560968 5.82014 56 63 69 
0.724349 -0.36622 5.77413 58 67 72 
0.756257 -1.07222 5.93795 32 39 31 
0.757487 -1.12833 5.94011 30 38 27 
0.7641 -1.21516 5.95429 79 89 81 
0.705567 0.715821 5.51031 67 79 77 
0.705876 0.740812 5.50517 80 99 103 
0.715836 0.719735 5.51384 12 21 20 
0.719725 0.708183 5.51291 14 26 24 
0.730215 0.344974 5.59169 50 64 64 
0.730215 0.344974 5.59169 50 64 64 
0.719862 0.738253 5.49555 79 93 93 
0.73286 0.332455 5.58775 44 58 58 
0.738602 0.186687 5.6247 25 36 40 
0.722987 0.724356 5.50175 71 82 78 
0.725558 0.704401 5.51547 82 97 100 
0.757511 -0.384148 5.75208 52 63 65 
0.740825 0.203681 5.61981 11 21 22 
0.763307 -0.288998 5.72682 52 62 63 
0.796486 -1.05119 5.90446 53 60 52 
0.760936 0.110254 5.63359 44 53 52 
0.760936 0.110254 5.63359 44 53 52 
0.749357 0.704747 5.50316 67 75 77 
0.766768 0.111633 5.62717 90 99 96 
0.771406 0.574135 5.51452 52 62 63 
0.81466 -0.610702 5.78383 61 67 57 
0.911583 -2.69766 6.25951 173 158 137 
0.878725 -1.94998 6.08682 116 116 114 
0.919604 -2.61207 6.23109 114 100 87 
0.928481 -2.72022 6.25471 91 95 72 
0.930773 -2.71734 6.26398 189 184 146 
0.848364 -0.798953 5.8148 53 62 61 
0.932666 -2.69703 6.2496 211 198 182 
0.931325 -2.7378 6.22332 98 89 72 
0.931216 -2.63219 6.23193 179 166 149 
0.799856 0.69875 5.46953 66 72 72 
0.944175 -2.7149 6.25562 188 188 152 
0.9491 -2.74951 6.23513 195 192 159 
0.951537 -2.68071 6.24922 157 145 129 
0.954669 -2.71236 6.25168 192 185 156 
0.875434 -0.921303 5.84116 113 123 124 
0.953078 -2.61688 6.23097 126 110 97 
0.963506 -2.72508 6.2658 98 99 81 
0.961324 -2.61715 6.23436 198 186 174 
0.961324 -2.61715 6.23436 198 186 174 
0.895249 -1.10145 5.89163 116 123 131 
0.969865 -2.57476 6.21802 126 119 91 
0.890243 -0.791791 5.80576 64 75 77 
0.906895 -1.13515 5.88837 113 121 124 
0.97869 -2.55879 6.219 107 105 90 
0.980325 -2.55062 6.22138 169 170 162 
0.890846 -0.624522 5.76372 49 58 55 
0.903196 -0.909433 5.83086 59 63 72 
0.990323 -2.62141 6.23607 121 118 77 
0.910446 -0.91954 5.83292 117 125 138 
0.921994 -1.15093 5.88589 119 129 138 
0.883548 -0.139252 5.64304 59 68 67 
0.921966 -1.02891 5.85935 65 75 84 
1.00228 -2.65978 6.24291 131 124 78 
0.876805 0.0718561 5.5934 76 86 95 
1.0089 -2.71127 6.25105 93 94 78 
1.00883 -2.61658 6.23735 158 158 120 
1.01584 -2.72557 6.25615 117 118 110 
0.911027 -0.477855 5.73002 114 123 138 
0.938756 -1.09136 5.87827 70 79 86 
0.895865 -0.0832699 5.6293 68 74 72 
1.02137 -2.71263 6.25429 91 93 82 
1.02033 -2.74193 6.23279 99 88 68 
0.93992 -1.04786 5.86287 55 67 65 
0.93992 -1.04786 5.86287 55 67 65 
0.944238 -1.05611 5.8665 114 124 125 
0.934697 -0.836419 5.8124 126 133 149 
0.934697 -0.836419 5.8124 126 133 149 
0.924774 -0.612707 5.75592 116 124 135 
0.924774 -0.612707 5.75592 116 124 135 
1.01072 -2.34952 6.17328 99 104 100 
0.938436 -0.900797 5.82427 118 128 130 
0.95754 -1.28211 5.91694 120 124 127 
0.949646 -1.0883 5.87545 62 73 75 
1.0308 -2.69639 6.25229 164 158 124 
0.927437 -0.625415 5.75548 125 131 131 
0.935212 -0.780342 5.79774 115 134 141 
0.935212 -0.780342 5.79774 115 134 141 
0.950285 -1.04653 5.86451 117 128 130 
0.964083 -1.29346 5.93448 54 58 61 
0.945045 -0.905993 5.82578 71 81 83 
1.03199 -2.57868 6.23496 217 211 195 
1.03382 -2.56665 6.23049 153 145 134 
0.955098 -1.00228 5.85978 107 117 119 
0.95883 -1.08713 5.87222 127 138 144 
0.958811 -1.01724 5.85666 101 110 115 
0.958811 -1.01724 5.85666 101 110 115 
0.944581 -0.716586 5.78181 116 129 137 
1.04605 -2.69279 6.2526 122 116 92 
0.948651 -0.765934 5.7915 124 138 141 
1.0497 -2.67891 6.25257 123 116 98 
1.04556 -2.58988 6.23556 134 127 117 
0.949597 -0.756205 5.78057 60 70 71 
0.945209 -0.616326 5.75132 121 136 139 
1.04727 -2.61282 6.23313 170 170 160 
1.0539 -2.69699 6.25894 193 192 172 
0.973511 -1.13113 5.88887 117 124 132 
1.05546 -2.68268 6.25371 189 184 165 
0.972543 -1.04241 5.86356 47 53 53 
0.955088 -0.672745 5.76776 56 68 66 
0.974235 -1.04788 5.86311 105 114 121 
0.970943 -0.954833 5.84492 58 70 70 
0.953958 -0.480531 5.71991 114 125 131 
0.975756 -0.899067 5.82735 117 126 133 
1.07118 -2.68968 6.25968 119 119 95 
0.990984 -1.17072 5.89691 53 59 57 
0.965352 -0.598527 5.75713 64 70 70 
0.965352 -0.598527 5.75713 64 70 70 
0.986272 -0.990754 5.85401 51 62 66 
0.986272 -0.990754 5.85401 51 62 66 
0.986272 -0.990754 5.85401 51 62 66 
0.995091 -1.11003 5.88707 136 140 149 
0.970484 -0.622765 5.75962 72 80 83 
1.07486 -2.59875 6.24191 178 174 165 
0.993975 -1.04666 5.86927 69 78 77 
0.923 0.701744 5.46141 17 30 36 
0.93716 0.252604 5.54851 114 123 128 
0.996355 -0.985562 5.85827 108 119 123 
0.995113 -0.887478 5.8357 59 70 72 
1.00703 -1.12245 5.89289 111 119 130 
1.00371 -1.06098 5.87536 58 68 69 
1.0928 -2.67459 6.26442 169 162 152 
1.09479 -2.65999 6.26554 182 176 160 
1.09299 -2.64651 6.25232 120 117 100 
1.00807 -1.03492 5.85916 111 125 138 
1.01423 -1.10751 5.88944 118 127 134 
0.994672 -0.69928 5.78638 73 78 81 
0.994672 -0.69928 5.78638 73 78 81 
0.976018 -0.278723 5.68182 68 85 95 
1.02137 -1.17466 5.90712 35 44 41 
0.99642 -0.672945 5.78036 75 85 87 
1.02772 -1.16573 5.90681 109 118 115 
1.00473 -0.732818 5.78944 66 75 72 
1.00971 -0.784403 5.80848 58 62 63 
1.03142 -1.17494 5.90796 41 47 45 
1.11788 -2.67876 6.27346 134 135 127 
0.997951 -0.480061 5.73163 70 77 85 
0.997951 -0.480061 5.73163 70 77 85 
1.03585 -1.1897 5.9152 101 111 110 
0.9988 -0.471323 5.73109 129 136 146 
0.963376 0.320122 5.53402 77 85 88 
1.00785 -0.647118 5.77257 62 71 70 
0.9947 -0.353575 5.7048 63 69 67 
1.03198 -1.08987 5.88165 63 72 69 
1.0446 -1.23267 5.92351 30 36 34 
1.02144 -0.75407 5.80443 128 134 130 
1.04548 -1.19419 5.91787 33 38 34 
1.02447 -0.768064 5.80938 121 125 124 
1.02193 -0.693292 5.78944 86 94 97 
1.00759 -0.46173 5.71481 65 71 85 
1.01865 -0.588701 5.76407 86 95 100 
1.01846 -0.57581 5.76161 63 71 73 
0.980073 0.273626 5.54151 66 75 80 
1.03198 -0.754904 5.80888 125 134 133 
1.02783 -0.662179 5.7866 80 91 87 
1.02817 -0.646408 5.78586 110 121 125 
1.06103 -1.29175 5.93845 30 34 33 
1.02478 -0.591736 5.76555 121 131 133 
1.03731 -0.841565 5.82614 69 76 82 
1.03731 -0.841565 5.82614 69 76 82 
1.01223 -0.296599 5.69182 70 78 80 
1.03717 -0.781756 5.8125 115 127 139 
1.02976 -0.598219 5.76927 58 68 69 
1.02035 -0.348173 5.70724 118 128 130 
1.02746 -0.487878 5.74262 86 92 90 
1.07025 -1.28499 5.94714 103 109 105 
1.04321 -0.757081 5.81348 134 143 142 
1.04321 -0.757081 5.81348 134 143 142 
1.02248 -0.364093 5.70863 56 67 69 
1.03882 -0.669735 5.78757 68 74 72 
1.03586 -0.587846 5.77074 138 148 150 
1.0478 -0.763669 5.81566 82 88 86 
1.03429 -0.493448 5.74473 130 139 138 
1.05015 -0.774937 5.81999 64 70 68 
1.04483 -0.641274 5.78363 63 68 64 
1.03105 -0.347176 5.71065 114 124 126 
1.04904 -0.689208 5.79843 75 81 79 
0.997747 0.418767 5.52201 71 82 86 
1.05355 -0.736032 5.81018 136 142 138 
1.07287 -1.10372 5.89789 56 59 48 
1.06031 -0.781994 5.82897 114 125 129 
1.06031 -0.781994 5.82897 114 125 129 
1.03889 -0.365093 5.722 118 123 119 
0.997908 0.497318 5.50182 62 71 80 
0.989258 0.711695 5.44737 48 58 59 
1.04603 -0.458434 5.74712 116 126 138 
1.03525 -0.258329 5.69122 72 82 83 
1.08504 -1.17297 5.92548 94 100 90 
1.04989 -0.490402 5.75958 124 135 141 
1.04979 -0.514583 5.7575 52 58 58 
1.04979 -0.514583 5.7575 52 58 58 
1.12279 -1.77073 6.08404 80 84 83 
1.05694 -0.633185 5.78427 66 68 65 
1.06789 -0.831063 5.8363 65 75 76 
1.06602 -0.777415 5.82436 73 78 81 
1.06602 -0.777415 5.82436 73 78 81 
1.05749 -0.625859 5.78062 71 75 78 
1.04915 -0.431849 5.74062 119 132 138 
1.05911 -0.618471 5.78533 132 140 142 
1.07499 -0.909221 5.85834 66 71 67 
1.06781 -0.763303 5.82086 82 88 86 
1.09807 -1.30052 5.9587 96 101 97 
1.06999 -0.775983 5.82868 73 79 79 
1.04409 -0.286594 5.70049 133 144 150 
1.03316 -0.0722667 5.64294 58 64 64 
1.08943 -1.11676 5.91377 114 116 113 
1.06325 -0.612068 5.78234 58 64 64 
1.16909 -2.4066 6.24034 86 88 85 
1.0661 -0.645303 5.79233 117 126 123 
1.0661 -0.645303 5.79233 117 126 123 
1.06963 -0.678842 5.80324 64 70 68 
1.06963 -0.678842 5.80324 64 70 68 
1.07333 -0.768087 5.81881 132 138 136 
1.06168 -0.491885 5.76418 129 140 146 
1.04945 -0.280476 5.70196 76 87 93 
1.07381 -0.715422 5.81577 56 65 62 
1.07746 -0.790074 5.8325 66 71 74 
1.08053 -0.823984 5.84187 134 142 144 
1.07555 -0.673243 5.80264 133 139 137 
1.09989 -1.08532 5.91345 113 118 111 
1.08911 -0.852929 5.85311 74 79 75 
1.07773 -0.641011 5.79705 60 69 68 
1.05915 -0.262026 5.70281 68 79 81 
1.02211 0.554504 5.50052 58 68 67 
1.09216 -0.876076 5.85081 128 137 134 
1.10577 -1.08154 5.90887 57 62 56 
1.09093 -0.805031 5.83725 85 94 93 
1.12097 -1.29054 5.97391 41 48 32 
1.03086 0.415667 5.53469 105 115 127 
1.07897 -0.553985 5.77601 66 76 77 
1.06603 -0.265245 5.70372 66 78 76 
1.07185 -0.331014 5.7227 62 68 66 
1.04276 0.30102 5.5599 64 74 75 
1.0755 -0.338271 5.724 138 147 146 
1.02019 0.809931 5.43022 65 71 83 
1.09028 -0.617862 5.79403 134 139 145 
1.09028 -0.617862 5.79403 134 139 145 
1.09622 -0.692866 5.82262 81 86 89 
1.0902 -0.617633 5.78828 128 133 139 
1.04962 0.261151 5.57219 119 130 136 
1.10273 -0.735342 5.83299 71 81 82 
1.10617 -0.789288 5.84801 70 80 79 
1.13706 -1.30218 5.98085 110 116 114 
1.08693 -0.367786 5.73699 63 69 67 
1.10296 -0.626408 5.81014 78 83 87 
1.10296 -0.626408 5.81014 78 83 87 
1.10376 -0.612879 5.80582 126 135 142 
1.04389 0.604819 5.49202 71 82 88 
1.09569 -0.366799 5.74565 123 129 129 
1.09542 -0.357756 5.74018 56 65 62 
1.10689 -0.4853 5.77538 62 72 74 
1.10577 -0.364732 5.74699 120 128 130 
1.05436 0.685518 5.47694 76 87 89 
1.11394 -0.461127 5.77546 68 75 83 
1.1376 -0.82582 5.87995 75 81 79 
1.06979 0.403017 5.54922 61 71 80 
1.09354 -0.0541397 5.66873 70 81 85 
1.13568 -0.791135 5.86565 82 88 84 
1.13568 -0.791135 5.86565 82 88 84 
1.0922 -0.0200365 5.65895 73 81 83 
1.11785 -0.484569 5.7791 84 98 98 
1.14141 -0.855963 5.88144 129 134 130 
1.14093 -0.845626 5.87564 72 74 69 
1.14093 -0.845626 5.87564 72 74 69 
1.14093 -0.845626 5.87564 72 74 69 
1.15542 -1.03101 5.92828 37 43 33 
1.1436 -0.794421 5.86787 75 81 77 
1.1436 -0.794421 5.86787 75 81 77 
1.1357 -0.632439 5.8285 64 73 78 
1.12657 -0.461019 5.77921 128 138 148 
1.13246 -0.544862 5.80628 86 97 99 
1.13246 -0.544862 5.80628 86 97 99 
1.14951 -0.823596 5.88155 69 76 69 
1.14844 -0.805561 5.87413 72 78 74 
1.1374 -0.614169 5.82306 78 89 91 
1.1374 -0.614169 5.82306 78 89 91 
1.15467 -0.882981 5.89905 79 85 71 
1.12113 -0.305019 5.74485 69 82 90 
1.16631 -1.04952 5.94014 122 128 116 
1.16631 -1.04952 5.94014 122 128 116 
1.16635 -1.02791 5.9365 91 101 92 
1.14515 -0.671101 5.84134 74 80 78 
1.14515 -0.671101 5.84134 74 80 78 
1.08886 0.359613 5.56896 54 65 67 
1.14283 -0.595012 5.8251 127 138 140 
1.15724 -0.80775 5.88256 67 76 71 
1.14483 -0.575026 5.82269 140 150 149 
1.15439 -0.725411 5.86317 64 73 72 
1.15439 -0.725411 5.86317 64 73 72 
1.17636 -1.05944 5.95028 45 51 39 
1.26496 -2.36786 6.30548 157 162 155 
1.26583 -2.3836 6.30737 150 155 148 
1.09621 0.359734 5.57119 124 134 136 
1.27076 -2.37575 6.30951 100 103 96 
1.17195 -0.872869 5.89813 61 67 55 
1.17136 -0.816011 5.8936 74 83 80 
1.09342 0.632938 5.51101 74 81 87 
1.18259 -0.918523 5.92628 62 67 60 
1.16536 -0.640184 5.84724 107 117 118 
1.11162 0.401638 5.57467 111 120 127 
1.17484 -0.71088 5.87215 77 81 92 
1.19916 -1.04091 5.96614 122 130 117 
1.16134 -0.452014 5.79807 134 145 165 
1.17349 -0.642516 5.85186 65 75 74 
1.20095 -1.04732 5.96508 115 121 107 
1.20165 -1.02557 5.96868 46 52 42 
1.15021 -0.207869 5.73769 149 161 175 
1.11791 0.40684 5.57936 55 66 68 
1.15453 -0.214231 5.74177 80 86 102 
1.22684 -1.32075 6.05822 60 65 59 
1.19962 -0.931752 5.9419 108 113 109 
1.16642 -0.392575 5.79444 138 154 167 
1.19727 -0.876592 5.92561 119 125 111 
1.20097 -0.918883 5.93325 48 53 46 
1.16806 -0.361579 5.78813 132 144 166 
1.16401 -0.302116 5.76553 83 90 109 
1.12516 0.46366 5.57373 65 77 89 
1.17056 -0.223357 5.75717 142 151 168 
1.17044 -0.199504 5.75395 120 140 164 
1.17886 -0.348871 5.79049 140 153 169 
1.20752 -0.796504 5.91579 129 140 142 
1.17832 -0.293559 5.77907 99 110 128 
1.21023 -0.743133 5.90869 82 92 93 
1.14807 0.294582 5.62008 75 82 90 
1.23163 -1.01942 5.98953 117 123 113 
1.22188 -0.851238 5.94381 126 131 127 
1.16094 0.23734 5.645 108 117 124 
1.16094 0.23734 5.645 108 117 124 
1.22364 -0.787336 5.92893 124 134 135 
1.2109 -0.485669 5.84581 67 78 82 
1.14692 0.707527 5.52781 66 76 88 
1.23769 -0.771314 5.93822 85 90 93 
1.21865 -0.409038 5.84117 61 67 67 
1.17923 0.320332 5.64989 53 61 63 
1.17923 0.320332 5.64989 53 61 63 
1.197 0.316849 5.65778 111 120 119 
1.18826 0.551155 5.60181 43 53 55 
1.5216 -2.96174 6.9679 199 182 136 
1.5216 -2.96174 6.9679 199 182 136 
1.2814 -0.66197 5.96277 107 112 105 
1.31115 -0.661859 5.99795 106 111 105 
1.31803 -0.721293 6.02316 117 122 128 
1.32426 -0.68944 6.01857 123 125 124 
1.33198 -0.740296 6.04341 124 130 130 
1.33959 -0.565437 6.00883 126 135 130 
1.34393 -0.513976 6.00866 69 79 80 
1.38657 -0.961481 6.16684 110 117 110 
1.36042 -0.620042 6.04596 118 130 130 
1.3475 -0.0797034 5.91942 67 71 70 
1.39093 -0.523301 6.08064 125 134 129 
1.39542 -0.476861 6.08227 70 76 66 
1.34901 0.119329 5.88001 102 114 112 
1.36754 0.000653087 5.9358 103 110 116 
1.33646 0.503298 5.78247 60 65 68 
1.33646 0.503298 5.78247 60 65 68 
1.36938 0.114199 5.90811 55 64 61 
1.40152 -0.269437 6.04016 63 69 55 
1.39155 -0.130453 5.99952 119 130 126 
1.39155 -0.130453 5.99952 119 130 126 
1.39143 -0.116299 5.99607 66 77 73 
1.42658 -0.505076 6.13491 76 79 70 
1.38632 -0.010497 5.96958 55 66 62 
1.41499 -0.366647 6.08461 72 78 64 
1.4028 0.0415179 5.98074 51 61 53 
1.50301 -0.312283 6.2478 72 78 74 
1.49826 -0.13934 6.20505 77 81 80 
0.973878 0.891944 2.60714 35 35 27 
0.973878 0.891944 2.60714 35 35 27 
0.982312 0.889272 2.60183 37 37 29 
0.9884 0.887747 2.59773 36 36 28 
0.9884 0.887747 2.59773 36 36 28 
1.00634 0.889334 2.59285 29 29 17 
1.00605 0.913189 2.58957 33 33 25 
1.01736 0.753815 2.6126 94 90 81 
1.01835 0.751221 2.61506 32 28 19 
1.03838 0.704272 2.61555 115 117 114 
1.12876 0.694846 2.31257 254 254 252 
1.24461 0.647189 2.34704 152 138 138 
1.24461 0.647189 2.34704 152 138 138 
1.17222 0.575395 2.07621 255 253 251 
1.21976 0.578342 1.86091 189 167 144 
1.22414 0.479408 1.85507 164 145 130 
1.22571 0.607999 1.8592 154 145 130 
1.22914 0.479036 1.85408 152 129 113 
1.22903 0.478717 1.85323 148 126 112 
1.23021 0.474785 1.8517 245 228 210 
1.23077 0.499976 1.8519 243 222 201 
1.2294 0.552447 1.85351 151 124 105 
1.23351 0.5236 1.8516 221 199 175 
1.23614 0.524131 1.85146 215 193 170 
1.23916 0.408431 1.84832 166 154 140 
1.24163 0.423466 1.84966 160 139 120 
1.23936 0.49468 1.85072 147 120 91 
1.23649 0.581124 1.85339 127 106 87 
1.245 0.412522 1.8507 218 206 180 
1.2434 0.447864 1.84952 134 113 96 
1.24495 0.451105 1.84973 222 205 187 
1.24705 0.426986 1.85045 228 213 194 
1.24705 0.426986 1.85045 228 213 194 
1.2463 0.452784 1.84886 120 105 82 
1.24629 0.473647 1.84979 217 198 181 
1.24663 0.398962 1.84489 81 68 52 
1.24866 0.422877 1.84911 147 124 108 
1.24329 0.606007 1.85488 128 120 109 
1.24839 0.497714 1.8505 200 176 148 
1.25014 0.49164 1.85083 160 134 109 
1.2503 0.495807 1.85049 135 115 82 
1.24755 0.607023 1.85553 133 127 115 
1.24735 0.602402 1.85429 143 130 121 
1.24893 0.551571 1.85158 195 169 144 
1.25632 0.42566 1.85035 151 134 116 
1.25529 0.453356 1.84931 107 88 71 
1.2543 0.499523 1.85073 120 95 75 
1.25631 0.40215 1.84684 156 153 146 
1.25116 0.601501 1.85454 75 62 46 
1.25228 0.603728 1.85526 135 123 107 
1.25779 0.47773 1.85149 101 79 65 
1.25414 0.581527 1.85464 86 72 59 
1.26154 0.437698 1.85128 141 128 112 
1.26083 0.40261 1.84794 156 155 134 
1.25951 0.497979 1.85174 167 147 123 
1.26462 0.410787 1.85154 130 120 110 
1.26509 0.453131 1.8524 150 134 118 
1.26311 0.497481 1.85273 170 150 125 
1.26023 0.574316 1.85498 140 124 109 
1.26448 0.471428 1.85233 119 98 81 
1.26856 0.424117 1.85419 115 99 84 
1.26412 0.495403 1.85252 109 88 61 
1.26473 0.498715 1.85302 89 65 39 
1.26122 0.576132 1.85466 90 78 66 
1.26942 0.426824 1.85334 120 104 89 
1.26329 0.574186 1.85562 136 122 111 
1.26498 0.52312 1.85307 210 189 168 
1.26656 0.500128 1.85335 151 126 96 
1.27101 0.414707 1.85345 107 85 72 
1.27111 0.409831 1.85297 62 55 45 
1.26523 0.545163 1.85445 168 144 120 
1.26698 0.494322 1.85259 181 157 123 
1.26656 0.52644 1.85428 186 161 139 
1.26698 0.511499 1.85364 176 153 135 
1.26837 0.475945 1.85286 139 117 94 
1.26563 0.551647 1.85516 103 81 58 
1.27148 0.434733 1.85422 58 48 36 
1.26796 0.505984 1.85423 95 75 51 
1.26404 0.581724 1.85541 81 71 59 
1.26901 0.499913 1.85391 142 116 83 
1.26956 0.495799 1.85299 135 110 70 
1.27096 0.530274 1.85548 228 209 179 
1.27167 0.495849 1.85245 217 194 153 
1.2772 0.427077 1.85539 77 70 60 
1.27038 0.58031 1.85792 94 80 67 
1.2704 0.574191 1.8572 119 104 75 
1.27835 0.419279 1.85563 72 61 55 
1.27169 0.546518 1.85563 214 191 159 
1.2796 0.448562 1.8564 109 107 95 
1.28015 0.465299 1.85706 106 90 77 
