ply
format ascii 1.0
comment PCL generated
element vertex 1127
property float x
property float y
property float z
property uchar red
property uchar green
property uchar blue
element face 0
element camera 0
property float view_px
property float view_py
property float view_pz
property float x_axisx
property float x_axisy
property float x_axisz
property float y_axisx
property float y_axisy
property float y_axisz
property float z_axisx
property float z_axisy
property float z_axisz
property float focal
property float scalex
property float scaley
property float centerx
property float centery
property int viewportx
property int viewporty
property float k1
property float k2
end_header
0.091325298 -1.13236 6.2948899 113 45 55
0.0311327 -1.13591 6.3541899 116 43 55
0.039650999 -1.13636 6.3575301 111 42 52
0.0490168 -1.13625 6.3568702 104 39 48
0.058573201 -1.13552 6.3542199 97 38 45
0.0883312 -1.12301 6.30339 89 38 44
0.0038458901 -1.13052 6.3899002 141 93 91
0.037271999 -1.12547 6.3541799 90 37 42
0.078514002 -1.11545 6.30515 88 39 44
0.0695296 -1.12096 6.3341298 88 38 43
0.085300699 -1.11471 6.30724 87 40 45
0.0120377 -1.12473 6.3833699 116 68 67
0.020128099 -1.11861 6.3766198 91 46 47
0.028029701 -1.11918 6.37464 83 35 39
0.094632402 -1.10585 6.3042798 86 41 45
0.0044704098 -1.11831 6.3891001 170 133 124
0.042810898 -1.10594 6.3326101 82 36 38
0.083508298 -1.1000201 6.3218002 87 39 41
0.00613948 -1.10633 6.3889699 181 147 135
0.047611602 -1.09121 6.3056698 162 112 112
0.036840402 -1.09872 6.3378701 150 102 103
0.025153199 -1.1008 6.35601 167 123 120
0.078865498 -1.09454 6.33606 167 112 113
0.088376701 -1.09059 6.3141999 171 115 116
0.096920103 -1.09372 6.3053002 128 77 80
0.0039153402 -1.0972199 6.3818402 183 150 136
0.0168129 -1.09154 6.3605299 183 148 135
0.036802001 -1.08645 6.3253002 173 124 119
0.0284552 -1.09198 6.35641 180 135 129
0.0594396 -1.08321 6.30372 176 120 117
0.067653596 -1.0885299 6.3259001 177 120 119
0.078955501 -1.0850101 6.3349299 180 121 118
0.0884194 -1.0829099 6.3240099 181 122 118
0.097460501 -1.08121 6.3144898 182 123 121
-0.67609698 -0.92369998 6.8513098 142 52 37
-0.64710099 -0.91776001 6.80441 144 52 36
-0.66710502 -0.90889603 6.8358302 152 89 78
-0.64115101 -0.90952498 6.8070798 141 62 48
-0.61137903 -0.90442699 6.7999501 144 71 57
-0.59864098 -0.908081 6.8034801 143 60 45
-0.54754502 -0.90757602 6.7962298 141 54 37
-0.54754198 -0.90757501 6.7962298 141 54 37
-0.50311601 -0.90343398 6.7602801 147 54 36
-0.47073799 -0.90368098 6.7717199 150 55 37
-0.67804199 -0.900693 6.8466401 187 156 150
-0.658095 -0.90386701 6.8315401 165 117 108
-0.63740498 -0.90110201 6.8090901 160 107 97
-0.62310201 -0.90003997 6.8011599 157 102 91
-0.61136001 -0.894467 6.7938099 173 132 121
-0.59489298 -0.89333302 6.7853198 168 125 115
-0.58598 -0.89739102 6.7860999 150 92 80
-0.57014197 -0.89575499 6.7725701 149 87 74
-0.51924801 -0.89260298 6.7433 142 67 53
-0.50629801 -0.89171702 6.73559 141 63 48
-0.49632999 -0.89166999 6.7342801 142 63 46
-0.487216 -0.89798498 6.75495 146 56 38
-0.467305 -0.88991302 6.73312 143 62 45
-0.46070299 -0.89091301 6.7361102 144 59 42
-0.46340299 -0.89165598 6.7437201 144 60 43
-0.44649899 -0.88758999 6.7182398 145 60 44
-0.40273201 -0.88820899 6.6958499 146 53 35
-0.67829299 -0.89089698 6.8353801 190 170 163
-0.66760701 -0.89681602 6.84027 191 165 158
-0.64998001 -0.88947898 6.8164902 190 169 162
-0.64264399 -0.892286 6.8071599 188 162 154
-0.63232797 -0.89231902 6.8080802 189 160 152
-0.61571902 -0.89065599 6.7954602 186 157 147
-0.59460098 -0.88152498 6.7705402 191 168 161
-0.57188302 -0.88453901 6.7625198 186 152 145
-0.558608 -0.88361901 6.7532201 184 147 140
-0.54203701 -0.88647503 6.7659302 174 133 124
-0.50058502 -0.87875402 6.7172198 173 127 118
-0.48140901 -0.87971002 6.72962 168 121 110
-0.46625799 -0.87850702 6.7237802 169 121 110
-0.45636401 -0.87855202 6.7186999 164 112 101
-0.430094 -0.87577897 6.6901698 155 95 82
-0.40336901 -0.87524098 6.6714101 146 75 61
-0.397551 -0.87639999 6.68466 145 75 60
-0.39489001 -0.87867099 6.6919699 141 68 52
-0.39489001 -0.87867099 6.6919699 141 68 52
-0.39489001 -0.87867099 6.6919699 141 68 52
-0.59476298 -0.874201 6.7403698 190 170 163
-0.59667403 -0.87471199 6.74473 190 170 163
-0.55257702 -0.86924702 6.7073002 191 170 163
-0.54248202 -0.86919498 6.7054 192 169 162
-0.53128701 -0.86883903 6.70084 191 169 160
-0.52130902 -0.86883998 6.7021499 192 168 159
-0.50499898 -0.86708403 6.6883402 192 167 158
-0.496488 -0.86746103 6.6928201 192 166 157
-0.49231201 -0.86919498 6.7094402 193 166 158
-0.47555599 -0.87080002 6.7305899 194 167 159
-0.45469099 -0.86798298 6.7098899 194 166 157
-0.43690899 -0.86607701 6.6975098 192 164 155
-0.424853 -0.86717701 6.68891 186 152 143
-0.41187701 -0.86797202 6.6832299 180 139 128
-0.401467 -0.86777198 6.6823101 178 135 125
-0.389018 -0.86693698 6.6771498 177 132 122
-0.51103401 -0.85721099 6.6772499 190 173 162
-0.48561499 -0.86006701 6.7073002 190 173 163
-0.47918999 -0.86134702 6.7228999 190 173 163
-0.469055 -0.86167502 6.7288399 191 173 163
-0.45789799 -0.85851699 6.70193 192 174 164
-0.44784299 -0.85877001 6.7080998 192 174 164
-0.41975299 -0.85862499 6.6881199 195 175 165
-0.397104 -0.85704201 6.6614599 195 171 161
-0.38737401 -0.853733 6.6553402 196 175 164
-0.377563 -0.85374999 6.6501002 197 174 162
-0.39735001 -0.846838 6.6538701 193 176 164
0.58175802 0.0818213 6.1890802 214 196 182
0.57652599 0.092367701 6.1826 215 197 183
0.55859601 0.096057802 6.1854701 219 198 182
0.56585097 0.101451 6.1786299 217 198 183
0.57450801 0.098659001 6.17416 216 197 183
0.56997699 0.10649 6.1779599 216 198 183
0.53355598 0.116487 6.24826 223 200 183
0.56636697 0.112746 6.1738801 216 198 183
0.56672502 0.112629 6.17835 216 198 183
0.57205999 0.116872 6.1819901 215 197 183
0.53656602 0.127534 6.2301798 222 200 183
0.52949798 0.12175 6.23701 223 201 183
0.55607402 0.12586699 6.1841698 219 199 183
0.56913 0.123739 6.1733699 216 198 183
0.53052098 0.13300499 6.2304101 223 200 183
0.54642802 0.133027 6.2112298 220 199 182
0.56329602 0.130193 6.1795602 217 198 183
0.56801599 0.135346 6.1903701 216 197 183
0.53998899 0.138634 6.2176099 222 200 183
0.54699498 0.143932 6.2133398 220 199 183
0.55717498 0.13741601 6.1868401 218 198 183
0.56470001 0.14147399 6.1797299 216 198 182
0.56135201 0.147516 6.1690602 217 197 181
0.57529199 0.14543501 6.15591 214 197 182
0.56303602 0.158788 6.1697202 216 197 182
0.55217397 0.154725 6.19385 218 198 182
0.57551199 0.156905 6.1570201 213 197 181
0.53991002 0.168341 6.2143602 221 199 183
0.55392802 0.16600201 6.1940398 217 198 181
0.54673803 0.162301 6.20755 219 199 182
0.56788701 0.16377901 6.1805801 215 197 181
0.55273598 0.17779399 6.2114601 216 198 181
0.57145798 0.174702 6.1695499 214 197 181
0.57846898 0.167888 6.1575098 212 196 181
0.54036802 0.17977899 6.21453 220 199 183
0.54958397 0.18398701 6.2007098 217 197 182
0.55868202 0.182559 6.20678 215 197 182
0.58154398 0.17885201 6.1573 211 196 181
0.58057702 0.184626 6.1834302 211 195 181
0.54576498 0.19043601 6.1947198 218 198 183
0.57013899 0.18646801 6.1868901 212 196 181
0.48173499 0.210356 6.3155398 229 204 183
0.54840499 0.20154899 6.1945 217 198 182
0.571531 0.197777 6.1876998 212 196 181
0.46624801 0.222009 6.3941202 231 205 183
0.45824599 0.220039 6.4002299 232 205 182
0.539873 0.203826 6.17658 219 199 182
0.45267299 0.227862 6.4073901 232 205 182
0.52423197 0.217675 6.2083101 221 200 184
0.48957801 0.22005799 6.3267202 227 203 183
0.54104298 0.214283 6.1809301 218 199 183
0.492708 0.230563 6.3038902 225 202 183
0.455964 0.239384 6.4073901 231 204 182
0.52677202 0.22886799 6.2080002 220 199 183
0.54221302 0.22564401 6.1869202 217 197 182
0.53472501 0.221325 6.1900201 219 198 182
0.44285199 0.247936 6.4260502 233 205 182
0.449312 0.24733 6.4120998 232 205 182
0.48728701 0.237169 6.2884202 226 202 183
0.49706599 0.241451 6.2862301 224 201 182
0.51795697 0.236633 6.23206 222 199 183
0.50065899 0.23558199 6.29636 223 200 181
0.533916 0.233172 6.2074499 218 198 182
0.547131 0.23098101 6.1967802 215 196 182
0.551319 0.236348 6.20332 214 195 182
0.196897 0.236757 5.99859 43 38 33
0.19627 0.231465 5.9976702 43 37 33
0.20607699 0.230058 5.9909101 126 111 94
0.21457399 0.23470899 5.9826999 222 196 172
0.44490799 0.25481099 6.3963699 232 205 183
0.481208 0.24447399 6.2963901 226 202 181
0.512079 0.24378499 6.2389998 222 200 182
0.52034199 0.247916 6.2322302 220 198 182
0.52616 0.24077301 6.2255201 220 198 183
0.552598 0.246659 6.2222099 213 194 181
0.55575198 0.241355 6.2098298 213 195 181
0.193137 0.243901 6.00038 40 37 34
0.19182201 0.237689 5.9986901 40 36 35
0.207583 0.240854 5.9909401 140 124 107
0.199071 0.24202099 5.9948101 46 40 34
0.22230101 0.23913901 5.9770298 240 210 180
0.439998 0.263163 6.4039602 232 205 183
0.50146002 0.25225699 6.26828 222 200 182
0.50098801 0.25738099 6.2571802 222 200 183
0.51447397 0.25508401 6.2391801 220 198 181
0.52550697 0.25277901 6.2430201 218 197 182
0.53236097 0.25688899 6.2425098 215 196 182
0.53122503 0.25751799 6.2508798 216 196 182
0.53860801 0.24998 6.2358599 215 195 181
0.55572498 0.25321001 6.2274199 212 194 180
0.20922101 0.25149801 5.9890199 153 134 116
0.205633 0.24648499 5.9928699 110 96 82
0.200478 0.24696299 5.9980998 53 45 38
0.21234 0.25127801 5.9898901 198 174 151
0.215939 0.245465 5.9829402 226 197 171
0.22358499 0.24991199 5.97751 239 207 177
0.440956 0.27522701 6.4226599 230 204 183
0.431113 0.27315801 6.43152 232 205 183
0.494782 0.26424801 6.2639699 222 200 183
0.50520402 0.26282901 6.2638998 221 199 182
0.51930499 0.26003501 6.2498999 218 197 182
0.519611 0.25997499 6.2501702 218 197 182
0.52711499 0.26405299 6.2466102 216 196 181
0.52738702 0.26413801 6.2466002 216 196 181
0.192369 0.25724 5.9994702 40 36 36
0.205835 0.25743401 5.9956598 111 96 83
0.198678 0.25324699 5.9974599 44 37 33
0.21995699 0.25610399 5.9837899 236 205 177
0.494643 0.27575901 6.2698798 221 199 183
0.45026699 0.27809301 6.4152498 228 203 183
0.451965 0.285781 6.4138999 226 202 182
0.49898601 0.26971099 6.2707 222 199 183
0.51332599 0.267243 6.25734 219 197 181
0.19385301 0.26723599 6.0004201 39 36 35
0.202227 0.26730701 5.9991202 57 48 41
0.19955701 0.264211 6.0016799 46 39 35
0.207077 0.26833001 5.9974399 125 108 94
0.21325099 0.26170999 5.9913802 202 176 153
0.210017 0.26245201 5.9920101 164 143 125
0.220925 0.26693499 5.9837899 235 203 175
0.432899 0.29285899 6.4433999 229 203 182
0.487441 0.284266 6.2800202 222 199 182
0.450822 0.29296601 6.4070601 226 201 181
0.51577502 0.278534 6.2573299 217 196 181
0.52972603 0.274784 6.2482901 215 195 181
0.187989 0.273433 6.0041499 35 34 34
0.201169 0.27494001 6.0027399 49 42 35
0.19803999 0.275011 6.0022998 41 35 31
0.210777 0.27342001 5.9943099 171 148 129
0.21837001 0.27361199 5.9920301 231 198 173
0.38650101 0.30588901 6.44029 234 204 181
0.492237 0.28913099 6.2859502 220 198 182
0.204391 0.28537399 5.9999599 75 63 54
0.199986 0.28580201 6.00492 43 37 31
0.21337099 0.28232199 5.99929 197 170 149
0.221118 0.28252801 5.9983101 234 200 175
0.48018199 0.301622 6.3041701 221 199 181
0.490439 0.29637501 6.2820001 220 198 182
0.53278601 0.29994899 6.2762599 213 194 181
0.194957 0.29309499 6.0099802 36 33 32
0.21109501 0.29003301 5.9972901 163 140 124
0.217518 0.290535 6.0015602 225 193 170
0.378699 0.320923 6.4147601 234 203 180
0.382036 0.31559899 6.4278898 234 204 180
0.392584 0.31569701 6.4177399 232 203 181
0.401912 0.317756 6.4114799 231 202 180
0.46787301 0.311277 6.3217602 222 198 181
0.48944399 0.30347699 6.2755799 220 197 181
0.49456501 0.307403 6.2820201 218 196 181
0.49967 0.311324 6.28864 216 195 180
0.53342801 0.307183 6.2727199 212 193 181
0.54220802 0.30206299 6.2683802 210 193 180
0.19658899 0.29962501 5.99722 36 33 32
0.205928 0.29796299 6.0033102 91 78 66
0.21336401 0.29824999 6.0047002 191 164 146
0.38275999 0.329566 6.4120202 231 203 179
0.40221199 0.325508 6.4037299 229 201 179
0.46359301 0.319911 6.3294601 221 198 180
0.48958701 0.31489599 6.29037 218 196 180
0.48458499 0.31158799 6.2825899 219 197 181
0.49499601 0.31810501 6.2968102 216 195 180
0.504816 0.31527299 6.2951398 215 194 180
0.54720098 0.31279299 6.2688198 208 192 179
0.541861 0.309567 6.2620702 210 192 179
0.55268198 0.31597999 6.2751398 207 191 178
0.186451 0.30587301 5.99405 30 28 29
0.20817301 0.309113 6.0064301 121 104 90
0.21797501 0.308431 5.9990501 216 185 164
0.221567 0.30185801 5.9990902 230 196 172
0.37892199 0.33870301 6.4194498 231 203 179
0.39801899 0.334427 6.41115 228 201 178
0.40761 0.33642399 6.4039998 227 199 178
0.44925201 0.331395 6.39148 221 197 178
0.48553699 0.323439 6.2970099 217 195 180
0.490973 0.32666999 6.30339 215 194 180
0.50413698 0.32775199 6.2827401 213 193 179
0.53043097 0.327609 6.2947402 209 192 178
0.54322398 0.32129401 6.2754898 208 191 178
0.54872298 0.324514 6.2817798 207 191 178
0.55421799 0.32774699 6.2881498 206 190 177
0.195786 0.31450701 6.0026999 36 32 30
0.188934 0.31413099 6.0020499 32 30 30
0.19957601 0.319134 6.0096002 38 32 27
0.20532399 0.31208199 6.0036201 77 64 54
0.22094201 0.31700799 6.0060101 224 192 168
0.21273901 0.316852 6.00775 174 150 131
0.35215399 0.344219 6.43749 233 204 178
0.37571099 0.34656999 6.40414 231 201 178
0.40363401 0.34528601 6.4106898 226 198 177
0.41711 0.33826199 6.3972702 224 199 177
0.42332399 0.34101301 6.4077001 223 198 177
0.42334101 0.34100899 6.4078102 223 198 177
0.47801399 0.333002 6.32235 217 194 179
0.48674601 0.335278 6.3106298 215 193 179
0.51025897 0.330874 6.2934399 212 193 178
0.53531098 0.33092999 6.2962499 208 191 178
0.54458803 0.333076 6.28901 206 190 177
0.55010003 0.33632299 6.2953801 205 189 176
0.18558601 0.321895 5.9962702 28 27 27
0.206255 0.323753 6.0072899 86 71 61
0.211862 0.32424 6.0037899 154 132 115
0.21752401 0.32499301 6.0092702 210 181 159
0.35203201 0.35236901 6.4261198 232 203 177
0.36552399 0.35286501 6.4000401 231 201 177
0.375438 0.35462201 6.3930202 229 200 176
0.42285499 0.34902501 6.3972802 222 197 176
0.43252 0.35074699 6.3892298 220 195 176
0.43251601 0.35075501 6.38943 220 195 176
0.462661 0.35237101 6.3737001 215 192 176
0.470557 0.342585 6.3470602 216 193 177
0.48324001 0.343799 6.3215399 214 191 177
0.48875299 0.34694901 6.3346 212 190 177
0.50605202 0.33945999 6.3007498 211 192 177
0.51217598 0.34263 6.3115401 209 190 176
0.51219302 0.342601 6.3116498 209 190 176
0.534953 0.33843401 6.2899098 206 190 177
0.53553301 0.33837101 6.2947798 206 190 177
0.540452 0.34169301 6.2962999 206 189 176
0.54597801 0.34494001 6.3027 205 189 175
0.56114602 0.341535 6.2864599 204 189 176
0.561131 0.34154001 6.28651 204 189 176
0.20168 0.33178499 6.0125699 44 36 31
0.21196701 0.331431 6.0053401 152 130 114
0.21467701 0.330309 6.0046401 179 154 135
0.34289199 0.360596 6.4244499 232 203 178
0.361671 0.36202201 6.4073701 229 200 175
0.371427 0.36372599 6.4008899 228 199 175
0.41122499 0.35727099 6.4165702 223 196 175
0.42860499 0.35979101 6.3972702 219 194 175
0.43830201 0.36147499 6.38902 217 193 175
0.47196999 0.35470101 6.3671498 213 190 175
0.48473099 0.355703 6.34162 211 189 175
0.50801301 0.35123801 6.3189502 208 189 175
0.527435 0.355084 6.3092799 205 188 174
0.530846 0.34699401 6.2968798 205 189 175
0.53149498 0.34691301 6.3014898 205 189 175
0.53634399 0.35029799 6.3032899 204 188 175
0.55152398 0.34817499 6.3091202 204 188 175
0.56082702 0.34904099 6.28017 202 188 175
0.56640899 0.35224399 6.2864199 201 187 175
0.602943 0.34534001 6.2353802 202 188 177
0.61831403 0.34419399 6.24581 202 188 178
0.63568503 0.34027001 6.1973 201 188 178
0.626939 0.34193999 6.23246 202 188 178
0.62686402 0.342612 6.2360201 201 188 178
0.64474702 0.34016001 6.1900201 200 188 178
0.65382701 0.33932501 6.1813102 201 189 178
0.66335499 0.34005001 6.1977901 201 189 179
0.67244297 0.33926001 6.1897898 202 189 180
0.68492103 0.33747399 6.1686001 202 189 180
0.71947902 0.334333 6.1505699 204 192 182
0.72880501 0.33601201 6.1560798 205 193 183
0.201395 0.34309301 6.0177698 43 35 33
0.21612801 0.34116101 6.0046101 185 159 139
0.330024 0.36954001 6.4389 232 202 177
0.34369799 0.36911201 6.41326 230 201 175
0.350081 0.37079701 6.4241099 229 200 175
0.36766499 0.372774 6.4074602 227 198 175
0.40674999 0.37087899 6.3965302 221 195 174
0.411814 0.36536199 6.4099202 222 195 174
0.46766499 0.36335999 6.3741102 212 189 174
0.50035298 0.360769 6.3457298 208 188 174
0.52357 0.363857 6.31639 204 187 173
0.52313298 0.36412999 6.31599 204 187 173
0.52733099 0.35550201 6.3085999 205 188 174
0.52728999 0.355519 6.3088999 205 188 174
0.52660602 0.35560501 6.3041401 205 188 174
0.53680497 0.35694799 6.3022099 203 187 174
0.56596798 0.359759 6.28054 200 186 174
0.58654702 0.35098901 6.2393198 201 186 176
0.59921002 0.353719 6.2451701 199 186 176
0.61192399 0.35448101 6.2459402 200 186 176
0.62098801 0.352997 6.23803 200 186 176
0.62878901 0.351271 6.2255902 200 187 176
0.646833 0.350265 6.2020702 200 188 177
0.67753297 0.34711599 6.16851 201 188 179
0.686391 0.34647101 6.16116 202 189 179
0.71979702 0.34346801 6.1452198 204 191 181
0.72914201 0.34519801 6.1512699 205 192 182
0.20963 0.34752399 6.0107398 119 102 89
0.221108 0.34929901 6.00419 209 179 157
0.33703101 0.37983301 6.4393702 229 200 174
0.36737901 0.38072899 6.3961 225 197 174
0.412388 0.37341699 6.4032602 220 193 174
0.42641401 0.37355301 6.3814902 217 192 173
0.43204799 0.37624499 6.3881698 216 191 173
0.43769699 0.378934 6.3948898 215 190 173
0.468454 0.37127399 6.3666201 209 188 172
0.499614 0.368458 6.3343301 207 187 173
0.50649399 0.371171 6.3456502 205 186 172
0.53625602 0.365134 6.2948999 201 186 173
0.54178798 0.36847699 6.30125 201 185 172
0.57890701 0.360699 6.2599201 200 185 175
0.59177399 0.36160699 6.2393999 198 185 174
0.60100102 0.363621 6.2323499 199 185 174
0.61422902 0.36359 6.2392902 199 185 174
0.62301898 0.36123899 6.2315602 199 186 175
0.67521203 0.35507801 6.1491199 200 187 177
0.68414497 0.353771 6.14112 200 188 178
0.68914098 0.35374701 6.1482401 201 189 179
0.702591 0.353733 6.1540399 202 190 179
0.71105999 0.351585 6.1272802 203 190 180
0.72013599 0.351509 6.1196198 204 191 181
0.20290799 0.35394701 6.0174699 44 36 33
0.215881 0.35598901 6.00808 176 150 133
0.36709499 0.388632 6.3846698 223 195 174
0.41875899 0.38396001 6.40275 217 191 173
0.42858499 0.38531899 6.3952999 215 190 172
0.43430299 0.38793501 6.4018898 213 189 172
0.46498701 0.380483 6.3745098 209 188 173
0.54124302 0.37594101 6.2953801 199 184 171
0.53295302 0.37332901 6.30268 201 185 171
0.53211498 0.37374699 6.3022799 201 185 171
0.546817 0.37928399 6.30165 199 183 171
0.67754197 0.363765 6.1412501 199 186 176
0.68438202 0.363139 6.1412702 199 186 177
0.68436402 0.36323699 6.1413202 199 186 177
0.68990201 0.362995 6.1463599 200 187 178
0.70282501 0.36078501 6.1282701 200 188 179
0.71185899 0.36060899 6.1189399 201 189 180
0.72034699 0.35927001 6.0900998 203 191 182
0.73323399 0.35812101 6.0704298 204 192 183
0.739645 0.35827699 6.0791602 204 192 183
0.74568498 0.35859701 6.0906901 205 193 184
0.20430499 0.364815 6.0173602 51 42 37
0.33819199 0.399553 6.4423299 224 196 174
0.36733699 0.39644101 6.3780198 221 194 173
0.41533899 0.39315301 6.4095702 215 190 172
0.43486199 0.39587 6.3949499 212 187 171
0.46184099 0.388273 6.3594198 208 187 172
0.67641002 0.37360799 6.1461902 198 185 175
0.68328798 0.372969 6.1463399 198 185 176
0.69424802 0.36974201 6.1282601 200 187 177
0.70335102 0.369903 6.1205902 199 187 178
0.71262801 0.36962199 6.1106501 201 188 179
0.72684503 0.35797399 6.0617499 203 191 182
0.205552 0.37569699 6.01791 62 51 46
0.211146 0.373227 6.0141401 127 107 96
0.33597201 0.407702 6.4267802 222 193 172
0.344127 0.408609 6.42063 221 193 171
0.350876 0.409114 6.4265099 220 192 171
0.37283701 0.39938399 6.3847699 220 192 171
0.42157599 0.40379199 6.4095602 211 187 171
0.44510901 0.405184 6.3809099 209 186 171
0.458693 0.396005 6.3442998 208 186 171
0.685673 0.37869799 6.1282601 197 185 175
0.72121501 0.36819899 6.08178 202 190 180
0.197787 0.38288799 6.0285001 35 33 32
0.21185 0.384314 6.0173602 132 111 101
0.33213001 0.418827 6.45718 220 191 171
0.35104299 0.41689599 6.4197102 217 190 169
0.36886501 0.40844399 6.3920298 218 190 170
0.374394 0.411421 6.3987999 216 188 169
0.379933 0.41440701 6.4056101 214 188 168
0.43187699 0.41313401 6.3954501 209 186 171
0.44569799 0.41326499 6.3742199 207 185 171
0.45481199 0.40657699 6.3737602 207 185 171
0.46454 0.407938 6.36623 205 184 171
0.47032699 0.410375 6.3727899 203 183 170
0.704503 0.378791 6.1106501 199 187 178
0.71289903 0.37829101 6.09726 199 188 178
0.71943998 0.37616101 6.0710402 200 189 179
0.19744501 0.388482 6.0188098 35 34 33
0.20038199 0.39335001 6.0286899 36 33 32
0.21940701 0.38863701 6.0128598 183 155 139
0.36504099 0.41741201 6.39853 215 188 168
0.37054899 0.42048499 6.4053502 213 187 167
0.210155 0.39590499 6.0240798 111 95 86
0.21007299 0.39806399 6.0244002 109 93 85
0.21879099 0.40092701 6.0188899 176 150 134
0.22713099 0.393509 6.0065098 197 167 149
0.36646 0.42960399 6.4126 211 186 166
0.453491 0.427634 6.3948898 203 182 169
0.46289501 0.430601 6.4110298 202 182 169
0.47270399 0.431943 6.40346 201 182 170
0.48741999 0.42522901 6.4082298 200 182 170
0.20265999 0.403815 6.0292401 39 34 33
0.197575 0.41084099 6.0332499 35 34 33
0.210495 0.40698701 6.02596 112 96 86
0.213153 0.4077 6.02319 133 113 102
0.22164699 0.405992 6.0292001 189 162 143
0.309037 0.408436 6.0766802 209 181 161
0.327566 0.413856 6.0859199 208 181 162
0.34860301 0.404461 6.06146 210 183 164
0.46888199 0.44274899 6.4326701 200 181 169
0.482434 0.43323299 6.39534 199 181 169
0.49385899 0.43579799 6.40836 198 181 169
0.205204 0.41407099 6.03055 52 45 40
0.22042599 0.412038 6.0197401 178 153 136
0.304719 0.415869 6.0641398 204 176 157
0.34023499 0.41311899 6.0612998 207 180 161
0.34933999 0.413562 6.0534201 206 180 161
0.34934601 0.41354299 6.05339 206 180 161
0.46529299 0.452227 6.4425602 199 180 168
0.48059899 0.44388399 6.42419 198 181 168
0.49061301 0.445072 6.4162202 197 181 168
0.49630201 0.44774899 6.4224701 196 180 168
0.19724301 0.42325401 6.0328798 34 34 34
0.207542 0.42485601 6.0299401 70 61 55
0.21447 0.41854 6.0247102 137 117 105
0.221242 0.42370799 6.0211601 175 151 135
0.22430199 0.418652 6.02566 186 160 142
0.30041501 0.42325699 6.0516701 198 171 153
0.340942 0.42221799 6.0534301 203 177 159
0.350036 0.42263901 6.0455198 202 177 159
0.364712 0.424604 6.0459599 204 179 162
0.47498399 0.45411301 6.43646 197 180 167
0.47518799 0.45342299 6.4326701 197 180 167
0.202399 0.43076101 6.03193 37 34 33
0.214635 0.42968899 6.02668 133 115 104
0.22772001 0.42862001 6.0184498 182 156 139
0.29115599 0.42884099 6.0350199 193 165 147
0.29612699 0.43060899 6.0392599 193 166 148
0.30121499 0.43212101 6.0478401 194 167 150
0.32341301 0.430471 6.06143 199 173 156
0.34163001 0.431297 6.0455599 199 173 156
0.35424799 0.43047401 6.0209098 198 173 156
0.35981801 0.432053 6.0295701 199 174 157
0.36534101 0.433671 6.0385699 200 175 159
0.202677 0.44203201 6.0348701 37 33 35
0.207844 0.43608201 6.0327702 71 61 57
0.215763 0.44063899 6.0267 136 117 107
0.222076 0.43452099 6.0215902 173 149 134
0.227773 0.439275 6.0209899 178 152 136
0.282729 0.43739799 6.0350099 187 160 144
0.29185 0.43790799 6.0268898 187 161 144
0.29711199 0.43954 6.0354199 188 162 144
0.31413099 0.436167 6.0443902 196 170 153
0.319125 0.437866 6.0489702 196 171 154
0.32974899 0.441156 6.0620298 196 171 155
0.342316 0.44035399 6.0376601 195 171 154
0.342493 0.440317 6.0373902 195 171 154
0.35156801 0.44068199 6.0293899 195 171 155
0.371057 0.435092 6.0468001 202 178 163
0.37652999 0.43732101 6.0560999 203 179 164
0.20927 0.446978 6.0325799 83 72 68
0.22185799 0.44568399 6.0257702 167 144 131
0.226009 0.45118201 6.03089 173 148 134
0.270603 0.44720599 6.0515499 183 156 140
0.28344801 0.446457 6.0268898 182 156 141
0.28892601 0.448192 6.0352998 183 157 141
0.30989599 0.44354099 6.0320702 190 164 149
0.322983 0.44272101 6.0120902 192 167 151
0.32147801 0.44226101 6.0127401 192 167 151
0.314872 0.44522601 6.0365801 191 166 151
0.203071 0.45324799 6.0376601 40 35 37
0.21066201 0.457892 6.0325599 92 79 74
0.217186 0.451525 6.0265598 142 122 112
0.223496 0.45919499 6.0266099 166 143 130
0.22154 0.45712599 6.0307598 163 141 128
0.26637301 0.45445499 6.0390701 178 152 138
0.27123901 0.45631 6.0437002 178 152 138
0.28404599 0.45558801 6.0191202 178 152 139
0.29308599 0.45594001 6.0113802 178 153 139
0.305682 0.45087901 6.0198102 184 158 144
0.31879899 0.44999999 5.9997301 187 162 148
0.317781 0.44983399 6.0004401 186 162 147
0.34651101 0.448131 6.0132198 191 168 152
0.34671599 0.44809899 6.0131102 191 168 152
0.20145699 0.46042401 6.0285001 35 32 33
0.26210299 0.46167499 6.0267801 175 149 135
0.26698801 0.463539 6.03126 175 149 135
0.280698 0.466084 6.0302901 174 150 136
0.30132601 0.457968 6.00736 179 154 139
0.30594099 0.45998999 6.01267 179 155 140
0.31504101 0.46000001 6.0047402 181 158 142
0.31994 0.46135399 6.0094199 183 160 145
0.343988 0.45834699 6.0216298 187 164 150
0.35212499 0.45802301 6.0126801 187 164 150
0.37547201 0.45789301 6.0060701 189 168 155
0.201774 0.47323099 6.0341401 33 30 33
0.203391 0.468833 6.0376801 36 33 34
0.212355 0.46882099 6.03267 103 89 83
0.226761 0.46966299 6.0257802 165 141 127
0.227181 0.47181499 6.0261202 164 141 127
0.235542 0.472877 6.0192099 165 141 127
0.240803 0.46833399 6.0320401 169 144 130
0.26171401 0.47087601 6.0193601 170 145 131
0.26712301 0.47325799 6.0274501 170 146 131
0.275289 0.47398901 6.02074 170 147 132
0.29690301 0.465004 5.9950399 175 150 136
0.30025801 0.46622699 6.0109501 176 151 137
0.305114 0.46689001 6.01583 176 153 138
0.312163 0.47022799 6.0094399 176 154 139
0.34844899 0.465956 5.9964499 183 161 148
0.37169299 0.46585101 5.99016 184 163 151
0.20211899 0.47949699 6.02391 35 33 33
0.200819 0.484539 6.0480299 35 32 33
0.22047199 0.47791001 6.0357199 150 130 118
0.228112 0.482952 6.02946 160 138 124
0.235889 0.475045 6.0197501 164 140 126
0.26530299 0.478652 5.9948101 166 142 129
0.28462899 0.474648 6.0114899 170 147 132
0.298278 0.47626701 6.0158501 171 148 134
0.35369101 0.47337601 5.9727802 180 159 146
0.36257699 0.47291201 5.96521 181 160 147
0.19841599 0.49140599 6.0459599 33 31 32
0.20846 0.48899901 6.0432901 61 52 50
0.22125299 0.488897 6.03547 148 128 116
0.23886099 0.48711199 6.01437 160 138 124
0.23848701 0.486258 6.0172601 161 138 125
0.27056 0.48083901 6.0029802 166 143 130
0.28768599 0.482155 5.9884801 167 144 130
0.29303399 0.48342901 5.99721 167 145 131
0.29839101 0.48469999 6.0060201 168 146 132
0.35215199 0.483349 5.9809799 176 157 144
0.34435901 0.49084601 6.0890498 179 159 146
0.208497 0.500323 6.0443301 59 52 49
0.221898 0.49991399 6.03547 146 127 115
0.215193 0.49453801 6.0390601 114 99 90
0.22885901 0.493974 6.0292401 156 136 121
0.23851299 0.49654701 6.02039 157 136 122
0.26545 0.487688 5.9867301 162 139 127
0.274295 0.48857501 5.9794102 163 140 129
0.28343201 0.48920101 5.9707999 163 141 129
0.364301 0.49847299 6.0655799 179 161 148
0.20527001 0.50562602 6.0450401 39 34 33
0.215037 0.50575298 6.0412102 110 95 87
0.229452 0.50593901 6.0290399 153 134 120
0.26043701 0.49447301 5.9702601 158 136 123
0.241447 0.50503898 6.01333 155 134 121
0.273794 0.49366799 5.9429498 158 138 125
0.351717 0.50704098 6.0564198 172 154 142
0.35720101 0.50786197 6.0655899 173 156 143
0.36618301 0.50727499 6.0579801 176 159 146
0.20294 0.514539 6.03543 32 30 29
0.214454 0.51696199 6.0425701 101 88 81
0.221775 0.51150602 6.0363302 141 124 112
0.28117999 0.50308299 5.9436698 156 136 124
0.31433499 0.51967901 6.1006298 167 149 138
0.31925899 0.52053499 6.10569 168 150 138
0.350155 0.51726502 6.0654998 170 153 141
0.368029 0.51606899 6.0503898 173 157 145
0.40871799 0.50022298 5.92905 176 161 149
0.41740799 0.499313 5.9217601 180 164 152
0.42230299 0.49984699 5.9263501 181 166 154
0.202749 0.52394199 6.0504599 32 30 30
0.22166499 0.52256 6.0363402 136 119 109
0.228883 0.51712102 6.0303702 149 131 119
0.29869199 0.532987 6.1264901 162 144 132
0.312161 0.53000897 6.10569 164 147 134
0.330037 0.52748501 6.0886102 166 150 137
0.33474499 0.52694601 6.09409 167 150 138
0.33963701 0.52636498 6.0990601 167 151 139
0.35233501 0.52357101 6.07376 169 152 142
0.365026 0.521034 6.0462098 170 153 142
0.398996 0.51096398 5.9450002 171 156 145
0.40769801 0.51005602 5.9377398 174 160 148
0.41958699 0.50774199 5.91436 178 163 152
0.42459401 0.50830299 5.91854 180 165 154
0.43316701 0.50826401 5.9114599 180 166 154
0.43775201 0.50867701 5.9169798 180 166 154
0.20228 0.53489202 6.0507798 31 29 30
0.21046001 0.52907598 6.053 72 63 60
0.227541 0.52894998 6.0375299 146 128 116
0.29658401 0.541646 6.1143198 157 140 129
0.30168101 0.54160702 6.11935 159 142 131
0.31510499 0.53858602 6.0984602 162 145 134
0.32898 0.53624803 6.0760798 163 147 135
0.34841701 0.53020197 6.0345101 165 149 138
0.33954901 0.530931 6.04178 164 147 136
0.348616 0.53027999 6.0355802 165 149 138
0.357474 0.52915001 6.0282502 166 150 139
0.38918999 0.52178001 5.9611602 168 153 141
0.42022201 0.51364303 5.89189 172 158 147
0.205589 0.543127 6.0551 36 31 33
0.29174301 0.54142398 6.1080198 154 137 126
0.357391 0.53840703 6.02321 163 148 137
0.42530799 0.51482803 5.8956099 176 161 151
0.43026799 0.51607198 5.8997998 177 163 153
0.434778 0.51752198 5.9054298 178 164 153
0.44308501 0.51559597 5.89887 178 165 153
0.203741 0.54909998 6.0609598 33 30 31
0.20830099 0.55399299 6.0725999 59 51 49
0.21988501 0.553406 6.0713902 129 114 104
0.27694499 0.54940999 6.0766602 147 131 120
0.294817 0.550008 6.1012001 152 135 125
0.29960901 0.55020899 6.1065502 154 138 128
0.31274101 0.54734701 6.0865698 158 142 132
0.32572901 0.54454398 6.0668898 161 145 134
0.32580701 0.54453498 6.0665698 161 145 134
0.345155 0.53813201 6.0177698 162 146 135
0.35467201 0.53732401 6.0117202 162 147 136
0.37482101 0.53180897 5.9640398 164 149 138
0.38271299 0.53118598 5.9611702 165 150 138
0.383477 0.53144598 5.9547601 164 150 138
0.38866299 0.533207 5.9646301 165 151 139
0.42164999 0.52215302 5.88378 169 156 144
0.43162701 0.52481103 5.8917799 175 162 151
0.43730301 0.525796 5.8936801 176 162 152
0.20457999 0.56050599 6.0696902 39 34 34
0.28895301 0.556319 6.0606799 146 130 120
0.29381099 0.55720901 6.0655999 146 131 121
0.302742 0.556463 6.0583 148 133 123
0.30758101 0.556943 6.0633402 151 136 126
0.3197 0.55437797 6.0667701 157 142 131
0.324471 0.55461597 6.0717201 158 143 132
0.35250601 0.54547799 5.9994202 160 146 134
0.365284 0.54280901 5.9798899 162 147 135
0.37653199 0.54058999 5.96067 163 148 137
0.37550899 0.54007101 5.9547701 162 148 137
0.377395 0.54023302 5.9565201 163 148 137
0.38424999 0.54026902 5.9474301 163 148 137
0.38975999 0.54176998 5.9556799 163 149 137
0.423004 0.53068697 5.8758702 167 154 143
0.42789501 0.532116 5.8800902 170 157 147
0.43255201 0.53350699 5.8850999 173 160 150
0.211853 0.56293201 6.0651598 78 69 65
0.268731 0.56388497 6.05932 143 126 115
0.35507399 0.55395597 5.9923 158 144 133
0.371245 0.54971802 5.9562602 159 145 134
0.36758 0.55110902 5.9672499 159 145 134
0.38155901 0.55069101 5.9577899 160 146 136
0.415353 0.539307 5.8759799 164 150 140
0.202756 0.57115901 6.06564 32 30 32
0.203546 0.570714 6.0565901 31 29 31
0.21884701 0.57439703 6.06882 119 105 97
0.246025 0.57088399 6.0512099 138 121 110
0.262954 0.57006902 6.0444198 140 124 113
0.28220499 0.56405997 5.9913201 142 126 115
0.34891799 0.56357402 5.9923 155 141 132
0.35768199 0.562401 5.9850602 156 143 132
0.36189499 0.562904 5.98598 157 143 133
0.37063399 0.56169498 5.9787402 158 144 134
0.41813201 0.54966098 5.8885899 163 150 140
0.429676 0.55186403 5.92553 171 159 149
0.204757 0.57977998 6.0720701 37 33 34
0.21323 0.58162802 6.0732799 83 74 69
0.222701 0.58477098 6.0636802 129 114 106
0.25255799 0.577622 6.0425 137 121 111
0.27471 0.57290202 5.9909101 139 123 113
0.27949199 0.57534897 5.99542 139 124 114
0.354983 0.570436 5.96876 154 140 131
0.359743 0.57091302 5.97368 155 141 131
0.41186199 0.561014 5.9079099 161 148 138
0.47392899 0.55575001 5.87398 174 162 152
0.208176 0.5887 6.0764499 52 46 44
0.217034 0.592098 6.06949 105 93 86
0.24625801 0.58340901 6.0226498 134 120 109
0.25342599 0.58298701 6.01894 134 120 110
0.26713699 0.58180499 5.9910698 135 121 111
0.27603599 0.58172297 5.9835901 136 122 113
0.28127599 0.58329099 5.9923701 136 122 113
0.29012701 0.583215 5.9849701 138 124 114
0.350936 0.58144099 5.98139 152 139 129
0.409408 0.57051599 5.9154201 159 146 136
0.414067 0.57117301 5.9205499 162 149 139
0.457609 0.56258303 5.8653302 172 159 150
0.46689799 0.56261897 5.8545198 172 160 151
0.205377 0.59656399 6.0743599 36 32 32
0.214395 0.60440803 6.0810499 85 74 70
0.22293501 0.59827101 6.0694699 125 112 103
0.349684 0.59319699 6.0063 151 138 129
0.40725899 0.58064699 5.9219599 157 144 136
0.39842001 0.585145 5.9486899 156 143 134
0.41253701 0.58107901 5.92521 160 147 138
0.429515 0.57751203 5.9114199 167 155 146
0.43793499 0.57572901 5.9051499 169 157 148
0.455304 0.57271999 5.8782902 170 158 150
0.46699801 0.57155102 5.8553901 171 158 150
0.194662 0.60712302 6.05232 27 28 28
0.220718 0.610425 6.0792599 118 105 98
0.229607 0.61051202 6.0773902 129 115 105
0.23859499 0.61049098 6.0762601 130 116 107
0.28778899 0.59352201 5.99016 136 122 113
0.34560701 0.59303898 5.99929 150 137 129
0.389974 0.58725399 5.9553599 155 142 133
0.41087601 0.59021997 5.93434 159 146 138
0.41536799 0.59104198 5.9375401 162 150 141
0.42396 0.58929598 5.9306898 166 153 145
0.44015601 0.58588803 5.9172602 169 156 148
0.475631 0.57192701 5.8474102 172 159 151
0.483971 0.57391202 5.8582802 172 160 152
0.203282 0.61456603 6.0697298 31 30 32
0.214431 0.615574 6.0810599 84 74 70
0.226749 0.61799502 6.07551 126 112 104
0.27065501 0.61442202 6.0704398 132 119 109
0.27595901 0.61600399 6.0795598 133 119 109
0.28558201 0.61461902 6.0590601 133 120 110
0.34014601 0.60294902 5.99929 148 134 126
0.34465799 0.60295099 6.00493 148 136 127
0.354348 0.601731 6.0020599 150 137 128
0.39365399 0.59513903 5.9482899 154 141 132
0.38518199 0.59728599 5.9552102 152 140 131
0.402518 0.59284699 5.9422498 156 143 134
0.42340499 0.59893 5.9353399 165 153 144
0.48140401 0.57673502 5.7917299 171 158 150
0.476318 0.58047199 5.8396802 171 158 150
0.199553 0.62444597 6.06148 29 29 29
0.206669 0.62010998 6.0667701 36 33 35
0.228479 0.627177 6.0699401 126 112 103
0.27166301 0.623519 6.0644302 131 117 108
0.28110299 0.623236 6.0552001 132 119 109
0.29012901 0.62316 6.0468998 133 119 110
0.33928001 0.612845 6.0043101 145 133 125
0.35197899 0.60958898 5.9846501 148 135 127
0.35763901 0.60984802 5.9936199 149 136 127
0.39186001 0.60369402 5.9323802 152 140 131
0.397632 0.60277301 5.9422498 154 141 132
0.41865301 0.59908599 5.9305902 162 150 141
0.47445199 0.58349597 5.75772 166 153 145
0.48288199 0.58471602 5.7831502 171 158 150
0.482943 0.58606601 5.7946501 170 157 150
0.20444 0.630961 6.0665498 30 28 30
0.220744 0.63275301 6.07759 113 102 95
0.229754 0.63357103 6.06147 124 112 103
0.25842401 0.63069201 6.0546398 127 115 106
0.268116 0.63065499 6.0461402 128 116 107
0.27700701 0.63049603 6.0388799 129 117 108
0.28229901 0.632173 6.04778 130 118 109
0.346421 0.61946201 5.9850001 145 133 125
0.355057 0.61782902 5.9774699 146 134 125
0.47022501 0.58941698 5.7532601 162 150 141
0.20358101 0.64158398 6.06849 30 28 30
0.46546701 0.54075903 5.34197 146 135 129
0.25542301 0.63827097 6.0374899 125 113 104
0.26432899 0.637609 6.0302 126 114 105
0.26918599 0.63905603 6.0409002 127 114 106
0.35058501 0.62950498 5.9955502 144 133 124
0.383751 0.62123901 5.92665 149 137 128
0.38367301 0.62128901 5.9275398 149 137 128
0.47318199 0.59653598 5.74965 162 150 142
0.20082401 0.65126002 6.0676699 28 28 29
0.19756199 0.645715 6.0728002 28 28 29
0.46304101 0.54984403 5.3411798 141 130 126
0.467383 0.54823798 5.3484201 150 138 132
0.23054101 0.64435601 6.0630202 123 111 103
0.248643 0.64773297 6.0376201 123 111 103
0.25347701 0.64894903 6.0483298 124 111 103
0.42632201 0.625723 5.9478402 161 151 143
0.46762699 0.55601901 5.3354998 143 133 127
0.26251799 0.64813298 6.0389099 124 112 104
0.53254801 0.54723501 5.2743402 159 149 140
0.42849299 0.63605702 5.9528399 161 150 144
0.441021 0.63422 5.92838 162 152 144
0.46338901 0.55776799 5.3281598 136 127 121
0.472368 0.56215298 5.3299999 146 136 130
0.240161 0.65955001 6.0525899 121 109 101
0.25047299 0.65861899 6.0464201 122 110 102
0.53284502 0.55547303 5.2792802 159 148 140
0.53769702 0.55558002 5.28582 160 149 141
0.42095801 0.64760798 5.9471202 157 148 140
0.428826 0.64477599 5.9407301 159 150 143
0.4366 0.64433599 5.92839 160 151 144
0.441156 0.64363301 5.9334698 161 152 144
0.46535501 0.56519502 5.3353601 138 129 123
0.46724001 0.57270402 5.34273 142 133 127
0.47413799 0.56972098 5.3379798 150 139 132
0.488774 0.56350398 5.3069301 155 144 135
0.247723 0.66584599 6.0286498 121 109 101
0.494205 0.56334698 5.3109498 155 144 135
0.252047 0.66755402 6.0415702 121 109 102
0.52800298 0.555309 5.2727599 158 148 140
0.52826899 0.55523598 5.2715502 158 148 140
0.52829701 0.55522102 5.27142 158 148 140
0.42907301 0.653431 5.92869 157 149 141
0.43521401 0.652197 5.91535 159 150 142
0.47953299 0.57516497 5.3317699 152 141 134
0.49774301 0.570072 5.3037 155 144 135
0.51294398 0.566365 5.2901001 156 146 137
0.52278799 0.56340301 5.2723498 156 146 138
0.53024799 0.56247902 5.2662601 157 147 139
0.53773999 0.56135798 5.2609901 158 148 140
0.383587 0.66413802 5.9720201 144 134 126
0.39221001 0.664092 5.9668698 146 135 127
0.407985 0.65946698 5.95612 150 140 133
0.420964 0.65622097 5.9351201 154 146 138
0.46529001 0.581963 5.3425999 139 129 124
0.47746101 0.584405 5.3317699 150 139 132
0.48622099 0.580172 5.31779 153 142 134
0.522425 0.571953 5.2783699 156 145 137
0.53358102 0.57038701 5.2681699 157 147 139
0.36489201 0.67589402 5.9960999 141 131 123
0.377336 0.67210001 5.9706802 143 132 124
0.38535401 0.67245603 5.9681702 144 133 126
0.39028299 0.67402899 5.97437 145 134 127
0.40603501 0.66984397 5.9630098 149 139 132
0.42970699 0.66171801 5.9147201 155 147 139
0.43539199 0.66154802 5.9164701 158 149 141
0.47025001 0.58786398 5.33711 142 132 127
0.49149799 0.58589101 5.31001 153 143 134
0.363242 0.68369502 5.9780202 139 129 122
0.36333901 0.684183 5.97751 139 129 122
0.371984 0.68311101 5.9707398 141 130 123
0.38714799 0.68095499 5.96766 144 133 126
0.41999999 0.67317498 5.9272799 150 141 135
0.432484 0.66987503 5.90762 155 146 140
0.43680599 0.67018598 5.91361 157 149 141
0.468465 0.597206 5.33742 138 128 124
0.47533301 0.59365702 5.3319101 146 135 129
0.48613599 0.59650999 5.3236198 151 141 133
0.49349299 0.59337503 5.3166499 152 142 134
0.36565599 0.68997002 5.95083 138 128 120
0.41883099 0.68130201 5.9152398 147 137 131
0.40631601 0.68799102 5.9658799 147 137 130
0.429346 0.67845601 5.90025 150 141 135
0.43524301 0.67804402 5.9011998 154 146 139
0.440254 0.67769998 5.90487 156 149 141
0.44444701 0.67599499 5.9101501 158 150 143
0.46700299 0.60643601 5.3366299 135 126 121
0.48090199 0.59924197 5.3231001 148 138 131
0.49530599 0.60081601 5.3122201 152 141 134
0.42754501 0.68633598 5.8885298 147 138 131
0.40395999 0.695696 5.9537301 144 134 127
0.436326 0.684614 5.8803701 150 142 135
0.440855 0.68413597 5.8853102 155 146 139
0.472491 0.61189502 5.33108 139 129 125
0.47645399 0.609505 5.3384099 147 137 131
0.43176201 0.69457901 5.8804202 148 138 131
0.43650001 0.69401699 5.8846598 150 142 135
0.46781799 0.62263101 5.3435302 136 126 122
0.43746299 0.70301902 5.8898802 151 143 136
0.463622 0.62458098 5.3364701 132 123 119
0.43325299 0.70448899 5.8846798 147 138 132
0.46586901 0.63197201 5.3439002 133 123 119
0.46441099 0.63787103 5.3350301 130 121 116
0.46660399 0.64079797 5.35531 135 126 121
0.473984 0.640818 5.3516798 143 133 127
0.41366699 0.74138999 5.99191 149 141 136
0.458516 0.65153497 5.3519602 128 120 117
0.46590799 0.64860398 5.34583 132 122 119
0.48535699 0.64595401 5.3474302 148 139 132
0.413524 0.75037998 5.9819298 147 139 134
0.41737899 0.74929202 5.9888101 150 142 137
0.467675 0.65640497 5.3528299 135 126 121
0.48762199 0.65350699 5.3496499 148 139 132
0.40537301 0.75363302 5.9886799 142 134 129
0.422802 0.75535899 5.9626698 149 141 138
0.456747 0.659971 5.3491302 127 119 115
0.47161701 0.66301203 5.3470502 136 128 123
0.483493 0.66218001 5.3495998 146 137 131
0.22491001 0.79127598 6.1177201 103 95 89
0.232823 0.79207999 6.1267099 108 99 93
0.43245301 0.75745499 5.9405098 151 143 137
0.42424801 0.76430202 5.9681301 150 141 138
0.207964 0.79609799 6.0970302 27 24 27
0.47563601 0.66956103 5.34128 137 129 125
0.22861999 0.79982197 6.1244001 106 97 91
0.41209599 0.76867902 5.9686799 142 132 128
0.42037499 0.76578599 5.96172 146 137 133
0.43789399 0.76593399 5.9482498 153 145 138
0.472213 0.67851901 5.34128 132 124 120
0.20828301 0.80579001 6.1108398 27 24 26
0.47678599 0.67781299 5.3482499 139 131 126
0.216658 0.80650097 6.1175098 65 60 58
0.216407 0.80657202 6.11728 64 59 57
0.231241 0.80530202 6.1339698 106 97 91
0.42541301 0.77288002 5.95579 148 140 136
0.433285 0.77896798 5.9639301 152 143 139
0.47577399 0.68533498 5.33776 134 126 122
0.47563601 0.68532598 5.3383398 134 126 122
0.20453399 0.81308401 6.1065102 23 20 23
0.220911 0.81460202 6.1197801 86 81 75
0.230114 0.81448001 6.12356 104 96 89
0.22849 0.81586099 6.1315098 103 96 88
0.42041999 0.78629398 5.9690099 146 138 133
0.428092 0.78185201 5.96241 150 142 138
0.43538201 0.78752297 5.9694901 152 144 139
0.46626401 0.68919599 5.35392 128 120 116
0.205589 0.81994402 6.1108499 24 22 24
0.477146 0.69344199 5.3453102 137 129 124
0.47722 0.69333303 5.34512 137 129 124
0.48464301 0.69314498 5.3411298 142 134 128
0.225036 0.82282299 6.1237898 99 92 85
0.40880901 0.792548 5.9876499 141 133 127
0.426341 0.792826 5.9623699 148 140 136
0.465583 0.69678402 5.34267 127 119 115
0.47014299 0.69564098 5.3494201 130 122 118
0.47007301 0.69584501 5.3502598 130 122 118
0.480955 0.70005703 5.3430901 139 131 126
0.222866 0.82794601 6.1269302 92 86 79
0.41074401 0.80135202 5.9756999 140 132 127
0.41861901 0.79706198 5.9688301 144 136 132
0.467924 0.70414501 5.35218 129 120 116
0.216461 0.83344698 6.1194701 59 54 52
0.225688 0.84015602 6.1384802 99 92 86
0.41275501 0.81003797 5.9812398 141 133 129
0.42402801 0.804317 5.96524 146 139 135
0.433851 0.806934 5.9465098 149 141 137
0.47244301 0.71035498 5.3477101 131 122 118
0.205134 0.84262598 6.11724 23 21 23
0.204023 0.84144902 6.10745 23 21 22
0.42152199 0.81508601 5.9654899 143 136 132
0.42560199 0.81330699 5.9709902 147 140 136
0.204556 0.85331798 6.1139498 22 19 22
0.20422 0.85313898 6.1116199 22 19 22
0.46854201 0.72005898 5.3521199 128 119 115
0.47652799 0.71687102 5.3428102 131 123 118
0.22608601 0.84976101 6.1201401 98 91 85
0.233408 0.856637 6.14044 104 96 90
0.42698699 0.82196403 5.95889 145 139 134
0.20423 0.86388302 6.1101699 20 19 21
0.47848499 0.724751 5.3500099 133 125 120
0.43247899 0.82880801 5.95228 147 141 136
0.472031 0.73607099 5.3505702 128 121 116
0.476504 0.73405498 5.3500099 133 126 120
0.48074999 0.73244298 5.3572102 140 132 126
0.22121499 0.86843097 6.13134 84 79 75
0.42635801 0.84164798 5.9643302 144 138 134
0.206407 0.87992603 6.1156998 19 18 20
0.46822199 0.745323 5.3524199 125 119 113
0.204577 0.87491101 6.1096702 19 18 20
0.473398 0.74434501 5.3565202 131 125 119
0.48169699 0.739824 5.3443599 138 132 125
0.21557 0.87813097 6.1234002 52 49 47
0.428105 0.85061699 5.9697499 146 139 135
0.46916199 0.75389802 5.3603201 126 119 114
0.202076 0.89154702 6.1210899 17 17 19
0.42988399 0.859595 5.9751701 146 140 136
0.20637301 0.89929903 6.1211801 17 16 18
0.47275001 0.76121402 5.3592601 127 121 116
0.48035699 0.75340199 5.3466702 132 126 120
0.489268 0.75581801 5.3330002 136 130 124
0.421837 0.86364698 5.9823399 143 137 133
0.42544499 0.86829901 5.9745402 143 138 133
0.44368801 0.858271 5.9499502 148 142 138
0.48331001 0.76193798 5.3404698 132 126 120
0.22102199 0.90953702 6.1466599 69 65 63
0.223019 0.91211599 6.1545 77 72 70
0.40976399 0.87905198 6.0002899 137 130 126
0.41717201 0.87644202 6.0061598 143 137 132
0.43030801 0.87539297 5.9678302 144 139 133
0.43801099 0.87121701 5.9619999 147 142 137
0.47542399 0.77057302 5.3600998 129 123 118
0.489472 0.76621699 5.3397102 136 130 125
0.218886 0.91723299 6.1403399 61 57 56
0.222543 0.92060298 6.1466699 79 74 72
0.41587901 0.88543302 5.9932399 139 133 129
0.40647 0.88826102 6.00666 134 129 124
0.202831 0.92452502 6.1351199 17 15 17
0.48159301 0.77545202 5.3550301 133 127 122
0.411688 0.89704299 6.0095901 138 132 128
0.403523 0.90045702 6.0166998 133 128 124
0.43201199 0.89167202 5.9776602 145 140 136
0.436921 0.88812703 5.96913 146 141 138
0.463943 0.79265797 5.3976102 125 118 115
0.212154 0.927324 6.12922 28 26 28
0.206181 0.92897302 6.1277299 17 16 18
0.48123401 0.78497201 5.3551102 131 126 121
0.219109 0.92835999 6.14188 62 58 58
0.220569 0.92898703 6.1358199 73 69 67
0.22215401 0.93483901 6.1441898 79 75 73
0.40855899 0.90774697 6.01057 136 129 126
0.41694599 0.90289402 5.99404 139 133 129
0.43823901 0.89512998 5.9499798 145 139 136
0.434176 0.89887601 5.96945 145 140 136
0.45942599 0.80409998 5.4075298 123 116 112
0.48667201 0.79056102 5.3495302 135 129 125
0.46605799 0.800506 5.40271 128 121 117
0.39017299 0.91188997 6.0153699 130 124 119
0.400437 0.91128999 6.0068202 132 126 121
0.394113 0.91467702 6.0262899 131 125 120
0.41390699 0.91471303 6.0030398 137 131 127
0.43007901 0.90216798 5.9753098 144 139 134
0.43743199 0.90680897 5.9742298 146 141 137
0.45469901 0.80702698 5.4070101 120 113 110
0.48502901 0.79997301 5.3496399 132 126 122
0.465186 0.81008202 5.4025402 126 120 116
0.48917899 0.79825002 5.3568902 137 131 125
0.39387199 0.92121601 6.0180001 131 124 120
0.394252 0.920555 6.01613 131 124 120
0.42586499 0.91062403 5.9730401 141 135 131
0.43417999 0.90953797 5.9677601 145 139 135
0.452162 0.81675798 5.41113 119 112 109
0.458242 0.81369901 5.4077802 122 115 112
0.48119599 0.81099898 5.3601899 131 125 121
0.46025699 0.82128102 5.4123302 123 116 114
0.46883401 0.81668502 5.4032402 129 123 119
0.41101399 0.92217702 5.98313 133 127 123
0.398004 0.93335599 6.02177 131 125 121
0.419126 0.91936898 5.9788599 137 131 127
0.429616 0.92438197 5.9758902 143 137 134
0.43712801 0.91767699 5.9735098 146 140 136
0.45400599 0.824525 5.4155102 120 113 111
0.48397201 0.818569 5.3643799 134 128 124
0.42504501 0.93223202 5.97545 139 134 130
0.432365 0.93308502 5.9822698 144 138 135
0.45530701 0.83253801 5.4222398 121 114 113
0.45269901 0.83325499 5.4135599 119 112 110
0.45166999 0.834306 5.41781 119 112 110
0.476423 0.82061398 5.3702798 128 122 118
0.484126 0.827259 5.3694401 134 128 123
0.43189099 0.938012 5.9690299 143 137 133
0.435408 0.93521398 5.97473 145 139 135
0.451745 0.84163398 5.4117298 118 111 108
0.47640201 0.82819802 5.3605399 125 119 115
0.47429699 0.82908303 5.3615398 124 117 113
0.454254 0.84099299 5.42068 119 112 110
0.48004001 0.82732999 5.3652101 130 124 120
0.40536699 0.95926303 6.0318599 134 128 124
0.43142301 0.948937 5.96876 141 135 131
0.41089299 0.95699 6.0331202 138 132 128
0.46742299 0.84202302 5.3842201 121 115 111
0.46745399 0.84198803 5.3842001 121 115 111
0.45393199 0.850622 5.42033 118 111 109
0.47720701 0.83657598 5.3656702 127 120 116
0.480883 0.83570802 5.3702798 131 125 121
0.48518401 0.83553702 5.3735099 135 128 123
0.39061099 0.968032 6.0479898 130 124 120
0.37293801 0.97376198 6.0847301 126 121 116
0.427652 0.951132 5.96311 137 132 128
0.401638 0.96061498 6.0248699 131 125 122
0.44110101 0.95309401 5.9512 144 139 135
0.46259001 0.85348701 5.3972998 119 113 110
0.47243401 0.84799802 5.3785701 124 118 114
0.482714 0.84345102 5.3750401 134 127 122
0.482714 0.84345102 5.3750401 134 127 122
0.37241799 0.98105299 6.0479398 125 119 115
0.42496499 0.96188498 5.9638801 135 129 126
0.40752199 0.96729499 6.0180998 133 127 123
0.454748 0.85959101 5.4166799 118 111 108
0.474563 0.85676402 5.3870201 127 121 117
0.48510799 0.85141802 5.3822398 135 129 125
0.36354101 0.982732 6.0185399 121 116 111
0.36928701 0.98736203 6.0387802 123 117 113
0.407377 0.97702903 6.0151701 132 126 122
0.42760301 0.97102797 5.9703302 136 131 127
0.437803 0.96339101 5.9510798 141 136 131
0.44566199 0.96046698 5.9453502 144 139 135
