ply                 
format ascii 1.0    
element vertex 336
property float x    
property float y    
property float z    
property uchar red  
property uchar green
property uchar blue 
end_header          
0.222309 -0.836862 3.96578 214 195 162 
0.61054 -0.774222 4.15677 245 233 221 
-0.584518 -0.737446 4.13405 37 18 1 
0.661266 -0.692632 4.10414 171 194 90 
0.194318 -0.532024 4.54093 105 96 79 
-0.104065 -0.451446 3.9547 115 101 88 
-0.362225 -0.415679 4.01147 0 11 0 
0.669307 -0.403839 4.11375 1 3 0 
-0.329773 -0.252805 3.69637 41 20 0 
-0.33639 -0.248491 3.69414 195 173 136 
-1.05381 -0.115419 4.52151 183 175 162 
-1.18917 0.170209 4.16169 98 38 2 
0.601016 -0.941926 4.2574 230 216 190 
-0.677879 -0.861741 4.12882 111 87 61 
0.822497 -0.840571 4.07338 131 99 14 
-0.683713 -0.844093 4.13477 126 105 74 
0.717104 -0.562434 4.16983 120 70 1 
-0.328799 -0.505459 3.91565 142 38 45 
0.634412 -0.465443 4.13302 68 24 0 
-0.0953881 -0.427722 3.97529 53 14 9 
0.649045 -0.445924 4.12173 173 143 21 
-0.159504 -0.422537 3.991 62 75 58 
0.0328654 -0.412754 3.99794 30 17 0 
-0.126897 -0.407796 3.97628 0 13 0 
0.471847 -0.414338 4.19999 78 77 73 
0.664209 -0.394163 4.11561 114 114 112 
0.684417 -0.364329 4.10832 134 133 129 
-0.18388 -0.280083 3.69069 216 192 132 
-0.218624 -0.267878 3.68494 32 14 0 
-0.0290442 -0.280733 3.84609 196 180 120 
-0.972299 -0.0173818 4.39566 222 185 16 
0.400224 -0.0109731 4.51491 108 88 15 
-0.797918 0.0351365 4.61967 183 149 13 
-0.819082 0.053339 4.57733 21 7 0 
-1.15727 0.678229 5.83192 155 144 138 
-0.135356 0.899925 5.18189 127 109 95 
-0.282931 0.909169 5.15746 104 87 67 
0.482619 0.911838 4.93017 47 36 18 
-0.266942 1.11493 4.68305 148 138 129 
-4.55981 1.88443 7.40896 57 47 45 
-4.5512 2.0828 7.49389 53 46 38 
-4.61593 2.26911 7.10877 41 36 33 
-4.6085 2.30252 7.19964 32 28 19 
-4.60296 2.27496 7.0539 37 32 29 
-4.61523 2.33049 7.1348 65 58 50 
-4.59911 2.43226 7.34168 37 32 29 
-0.216281 -1.03317 4.00593 189 35 47 
0.641237 -0.960677 4.25626 229 219 194 
0.602777 -0.944529 4.26329 225 213 189 
0.811578 -0.831701 4.10411 225 189 15 
-0.561977 -0.771517 4.19147 124 99 69 
-0.57657 -0.747895 4.13943 38 20 8 
0.596679 -0.748799 4.14797 80 48 37 
0.788251 -0.659435 4.01916 84 91 57 
-0.312266 -0.524688 3.92769 2 23 6 
0.723876 -0.549438 4.15823 228 184 33 
-0.0817776 -0.474244 3.96947 121 120 100 
0.723752 -0.494966 4.13231 217 172 8 
-0.0682668 -0.448218 3.98892 114 125 108 
0.619789 -0.457776 4.1345 170 141 5 
0.643464 -0.451537 4.13542 179 139 7 
-0.094199 -0.429666 3.96725 69 19 20 
-0.0786712 -0.427349 3.9856 126 124 111 
0.627444 -0.444388 4.13883 25 22 7 
-0.116456 -0.41817 3.97303 100 107 91 
-0.0704286 -0.411764 3.96883 19 33 18 
0.00649106 -0.39783 3.98792 112 98 63 
0.696074 -0.414021 4.12117 126 126 118 
0.467009 -0.418723 4.22506 80 79 75 
0.664 -0.392743 4.11497 115 115 113 
0.476664 -0.365773 4.21781 196 161 9 
-0.144488 -0.32841 3.82563 205 180 123 
0.651662 -0.350725 4.12677 84 84 82 
-0.0927185 -0.312604 3.82818 176 162 115 
-0.0792202 -0.307024 3.83023 24 67 22 
0.654442 -0.322071 4.14425 8 10 7 
-0.218445 -0.267354 3.68855 46 29 11 
-0.0449118 -0.247959 3.81584 60 39 8 
0.319269 -0.232256 4.49624 163 135 28 
0.47368 -0.197627 4.28733 191 154 13 
0.273287 -0.162546 4.47697 76 72 63 
0.433074 -0.111477 4.35268 196 155 5 
-0.867745 -0.0963027 4.54482 69 62 43 
0.416387 -0.0714301 4.35834 192 160 39 
-0.894901 -0.0527293 4.46908 7 6 2 
-0.843743 -0.0454705 4.57059 12 0 0 
0.4941 0.0285253 4.56726 17 17 5 
0.467537 0.0324394 4.56202 17 14 7 
0.419466 0.0334542 4.52781 78 69 60 
-0.877901 0.158403 4.50565 2 3 0 
-0.870458 0.162275 4.51792 12 7 4 
-1.15567 0.678686 5.82441 157 146 140 
1.21458 0.68641 5.5508 202 197 194 
1.16702 0.722576 5.46449 114 104 95 
-0.421441 0.786312 5.14466 220 176 25 
0.283017 0.827627 4.96067 105 61 0 
-0.157784 0.877387 5.24046 98 82 59 
0.336022 0.866994 4.94639 208 183 152 
0.579414 0.89793 4.95084 200 184 161 
-0.300194 0.933062 5.11185 208 192 179 
-0.0713907 0.932897 5.08561 201 187 176 
-0.90768 0.953128 5.14464 133 123 113 
-0.311156 0.95707 5.03815 127 111 88 
-0.0406932 0.973397 4.994 207 193 184 
-0.478681 1.00849 4.94683 104 91 57 
-0.526078 1.04268 4.88513 190 178 164 
-0.542326 1.05321 4.85461 217 205 193 
-0.266798 1.11511 4.67845 150 140 131 
0.718338 1.10096 4.61178 214 203 197 
-0.881946 1.16838 4.64511 144 135 130 
-4.56118 2.06903 7.56274 52 51 46 
-4.54871 2.08074 7.49024 51 44 36 
-4.60458 2.2706 7.1979 121 111 102 
-4.61799 2.26851 7.11405 49 43 43 
0.642026 -0.938591 4.25568 159 116 22 
0.61109 -0.928276 4.26856 121 88 17 
-0.180439 -0.59973 3.92138 5 5 3 
0.784809 -0.598814 3.99896 28 26 11 
-0.0770505 -0.475386 3.97714 118 117 96 
-0.15606 -0.460222 3.97793 76 89 69 
-0.104059 -0.436138 3.97102 30 0 2 
0.479095 -0.455904 4.18968 103 99 96 
-0.0969205 -0.311199 3.8243 184 167 115 
-0.198536 -0.267304 3.69999 46 34 12 
-0.218179 -0.250464 3.68436 218 196 146 
0.312859 -0.135522 4.48927 96 76 3 
-0.891954 -0.119814 4.54024 92 85 75 
0.435695 -0.112553 4.33156 202 158 9 
-1.00564 -0.0796284 4.49633 21 10 4 
-0.877331 -0.0603819 4.49441 102 99 90 
-0.856588 -0.0537265 4.5581 10 5 2 
-0.997658 -0.0147339 4.3864 235 197 12 
0.294868 -0.0175948 4.57509 15 8 0 
-0.79311 0.0345543 4.62408 188 150 7 
0.154701 0.0447061 4.70029 58 29 0 
-1.06584 0.053607 4.27774 188 132 0 
-0.822282 0.0540303 4.57107 23 14 5 
-0.871187 0.155092 4.50674 6 7 2 
1.15945 0.578817 5.84035 211 200 194 
-0.434258 0.511446 5.05326 24 4 5 
-0.43481 0.561235 5.08503 63 28 0 
0.281997 0.826894 4.9629 105 61 0 
0.475396 0.849143 4.97543 130 92 7 
-0.315501 0.891731 5.18104 189 173 160 
0.357838 0.863667 4.95878 125 89 3 
-0.292115 0.911301 5.15485 106 90 64 
0.336241 0.925582 4.92027 200 188 164 
-0.891654 1.01287 5.0033 146 133 124 
-0.479012 1.00853 4.95166 103 91 53 
-0.912208 1.0232 4.97364 218 209 204 
-0.503089 1.02854 4.91859 214 200 187 
-0.540886 1.05554 4.85002 221 209 197 
-1.01892 1.09178 4.84558 136 125 119 
-0.987147 1.12836 4.74482 228 218 216 
-0.268385 1.11583 4.67253 157 147 138 
-4.54735 2.05237 7.55113 55 50 44 
-0.559581 -0.76342 4.18227 120 93 64 
-0.235111 -0.276139 3.68781 203 173 123 
-0.674553 -0.84729 4.13197 132 108 72 
0.891397 -0.62292 4.02148 24 25 20 
0.665144 -0.509338 4.15163 245 203 57 
0.57208 -0.44645 4.15219 5 6 8 
-0.175592 -0.337379 3.80275 202 173 117 
-1.02463 -0.0711106 4.43682 230 194 10 
0.328313 -0.0401178 4.47405 3 3 1 
0.062942 -0.036381 4.33976 81 77 68 
-1.02407 -0.0194555 4.39464 231 194 15 
-0.830551 -0.00464274 4.57439 6 6 4 
-0.94316 -0.00294901 4.43296 211 172 7 
-0.870484 0.155315 4.51225 6 7 2 
-4.4965 0.647752 7.39952 140 130 121 
1.22193 0.677649 5.54462 207 198 191 
0.515721 0.708904 5.04091 139 92 4 
1.13759 0.757121 5.3639 192 185 177 
0.240275 0.777205 5.00653 178 135 4 
0.283303 0.824068 4.95937 99 57 0 
-0.30872 0.893347 5.22857 189 172 162 
0.360453 0.85993 4.96319 119 81 0 
0.56609 0.899508 4.94828 192 181 153 
0.451997 0.909524 4.92193 199 184 161 
0.330621 0.922689 4.90208 201 187 160 
-0.316169 0.952201 5.04692 127 111 85 
-0.0678898 0.958966 5.05265 126 114 98 
-0.381834 0.994194 4.93092 131 115 89 
-0.915899 1.02268 4.97236 223 214 209 
0.81884 1.00999 4.8223 215 204 200 
-1.01631 1.09229 4.8517 136 126 116 
-0.990465 1.13156 4.75345 228 218 216 
-0.949336 1.13672 4.68928 149 138 132 
-0.153623 1.1809 4.50989 150 139 133 
0.443255 1.17932 4.43246 147 137 128 
-4.53975 2.04164 7.54151 65 62 57 
-0.316784 0.914894 5.13815 111 90 59 
0.711269 -0.935181 4.19249 236 226 201 
0.558231 -0.889285 4.29408 172 164 151 
0.645904 -0.861687 4.2403 92 42 7 
0.665552 -0.37677 4.14336 102 101 97 
1.23781 0.784948 5.31808 129 120 111 
-0.442589 0.771362 4.95883 123 82 3 
0.319915 0.781482 4.98015 183 141 5 
0.361043 0.848144 4.9591 137 99 0 
0.314099 0.873652 4.95341 191 177 140 
-0.92099 1.01943 4.95291 221 211 209 
0.269345 1.17629 4.49483 149 136 127 
0.759011 -0.776206 4.25088 162 108 10 
-0.435015 -0.340872 4.0256 201 176 120 
-0.939352 0.016083 4.42682 206 171 7 
0.396402 0.0268637 4.54522 13 13 11 
-1.01476 0.084291 4.30702 241 203 8 
1.24974 0.657662 5.58749 210 201 194 
0.334097 0.78784 4.98272 185 143 7 
-0.262335 0.894571 5.16528 186 170 155 
-0.872897 0.166888 4.54123 7 0 0 
-0.234626 -0.511691 3.9142 31 129 68 
0.553389 -0.766521 4.11805 84 74 65 
0.574202 -0.737056 4.10129 185 89 90 
0.653303 -0.692683 4.04097 181 206 105 
0.608355 -0.69857 4.07313 39 47 0 
0.619531 -0.681173 4.067 149 157 100 
0.631249 -0.678161 4.05896 192 179 160 
0.671397 -0.660337 4.02459 152 156 95 
0.62215 -0.667427 4.07516 41 42 0 
0.68106 -0.64578 4.01857 26 18 0 
0.689137 -0.637309 4.01484 145 135 108 
0.705755 -0.628904 3.99899 130 148 66 
0.735778 -0.6166 3.97477 31 41 0 
0.758034 -0.610621 3.9557 27 27 0 
0.737747 -0.60581 3.97928 169 162 146 
0.772671 -0.59251 3.94905 12 9 4 
-1.07948 0.22004 4.04465 95 40 0 
-0.616759 0.597111 4.79317 201 221 212 
0.814156 -0.832211 4.03248 139 104 10 
0.641379 -0.859822 4.22044 85 28 0 
0.581673 -0.723372 4.09248 43 0 0 
0.621803 -0.713585 4.06132 28 40 0 
0.677824 -0.634758 4.02716 169 136 121 
0.446155 -0.432726 4.1319 48 47 43 
0.482787 -0.245164 4.12449 197 160 17 
0.516472 -0.237385 4.13016 203 162 12 
0.437083 -0.227154 4.28385 45 13 0 
0.274463 -0.204871 4.42256 96 96 84 
0.304695 -0.126815 4.41644 102 86 35 
0.32881 -0.0626513 4.41923 114 94 21 
0.34511 -0.0465249 4.42149 114 90 30 
0.380866 -0.0132654 4.45069 18 4 0 
0.183678 0.429381 4.87977 83 46 0 
0.183018 0.453429 4.87571 70 31 2 
-0.603532 0.599794 4.80587 226 252 243 
-1.1555 0.677681 5.82256 151 140 138 
-0.149485 0.885303 5.15318 195 178 170 
0.480095 -0.872329 4.23874 36 35 33 
0.722283 -0.821299 4.14187 92 33 3 
0.529772 -0.806469 4.15494 38 37 33 
0.604104 -0.727452 4.07884 50 30 6 
0.658919 -0.656164 4.02937 63 15 3 
0.783543 -0.613265 3.93462 35 32 25 
0.626769 -0.560747 4.17769 251 211 97 
0.575186 -0.461952 4.087 185 152 13 
-0.0877814 -0.437364 3.89072 19 3 3 
0.544146 -0.33475 4.10782 201 160 10 
0.303718 -0.111577 4.41575 12 4 1 
0.628064 -0.0664166 4.41916 104 52 2 
0.46047 -0.0663602 4.29482 148 113 13 
-1.27185 0.18588 4.11416 245 233 217 
1.45856 0.736359 5.44068 200 193 185 
-0.582262 0.498342 4.70756 136 115 6 
-0.603284 0.504345 4.72653 219 205 72 
-0.172755 0.861688 5.22467 171 157 146 
0.460871 0.903985 4.89221 185 174 154 
-0.323689 0.890408 5.16322 182 165 149 
0.635415 -0.929081 4.21302 141 105 17 
0.777601 -0.869565 4.04302 221 206 185 
0.712971 -0.887936 4.12977 143 106 26 
0.813517 -0.856164 4.02118 217 202 179 
0.682839 -0.880631 4.14221 131 94 13 
0.479869 0.0467401 4.51833 150 140 130 
-0.998036 -0.0407974 4.34307 137 89 13 
0.366977 0.35463 4.9074 107 67 0 
1.43453 0.731184 5.41103 197 192 186 
1.3031 0.76158 5.33778 193 184 179 
1.22476 0.779333 5.33834 124 115 110 
-0.897334 0.941609 5.07906 129 116 107 
-0.309322 1.08872 4.65741 141 130 124 
0.790976 -0.56358 3.9614 155 146 137 
0.413428 -0.639647 4.80534 165 155 143 
-0.152793 0.86835 5.19917 101 83 61 
-0.882518 1.0021 4.94558 139 127 115 
0.707883 -0.917822 4.12969 221 208 189 
0.530704 -0.818473 4.16294 29 30 25 
0.575458 -0.676679 4.11242 87 24 0 
0.687308 -0.516192 4.10575 106 52 5 
0.564762 -0.451566 4.08489 5 1 0 
-0.692967 -0.603144 4.84665 226 217 202 
0.529529 -0.350618 4.09659 6 7 2 
0.504702 -0.337875 4.1114 203 162 10 
0.549506 -0.322617 4.09922 201 160 10 
0.490614 -0.223374 4.142 112 79 2 
0.472451 -0.186009 4.23021 184 145 8 
0.361772 -0.0416253 4.42348 126 97 3 
1.31348 0.768033 5.38046 191 182 175 
0.558931 0.888428 4.88809 185 170 149 
0.245514 0.94469 4.92398 70 46 20 
0.739598 1.0705 4.61515 208 199 194 
-0.380318 0.988254 4.90677 126 109 89 
-0.888635 0.963946 5.03205 124 112 100 
0.640722 1.1103 4.50963 147 137 128 
-2.06982 0.961254 5.25203 227 215 215 
-1.00073 1.07552 4.76999 128 117 111 
0.588199 -0.472578 4.06841 189 147 9 
0.549427 -0.314433 4.09194 199 157 9 
1.43332 0.737587 5.48012 204 194 192 
1.48039 0.933975 4.91083 121 112 105 
0.239341 0.945524 4.90028 70 52 32 
0.85135 1.0296 4.72487 146 135 131 
-2.10361 1.03828 5.06327 228 217 221 
0.64112 -0.568039 4.17686 244 210 86 
0.264357 1.15973 4.42232 136 126 117 
0.731722 -0.574253 4.1038 56 13 0 
0.63548 -0.404128 4.06398 14 15 17 
0.33001 0.779044 4.92748 177 138 37 
-0.289427 1.09925 4.62212 152 141 139 
0.836319 -0.775386 4.08872 105 55 6 
-0.263116 -0.353657 3.92724 215 189 132 
0.492005 -0.301356 4.1424 201 160 10 
0.676547 -0.699568 4.0668 184 210 101 
0.704144 -0.691675 4.04478 205 217 145 
0.688728 -0.682407 4.05019 50 49 3 
0.724281 -0.664045 4.02171 43 66 0 
0.745742 -0.649398 4.0044 32 59 0 
0.701431 -0.67071 4.03701 37 28 0 
-0.0981209 -0.425742 3.92153 51 6 9 
1.30851 0.761478 5.34938 193 184 179 
-0.999071 1.13085 4.77498 145 134 128 
0.331241 0.871183 4.93174 176 160 134 
0.863636 1.01695 4.69567 153 145 134 
1.25085 0.660831 5.62167 201 192 185 
