ply                 
format ascii 1.0    
element vertex 1262
property float x    
property float y    
property float z    
property uchar red  
property uchar green
property uchar blue 
end_header          
0.689388 -0.465843 4.08976 173 143 21 
-0.16129 -0.442084 3.96606 62 75 58 
0.0402817 -0.43136 3.97025 30 17 0 
-0.127323 -0.426346 3.94989 0 13 0 
0.505638 -0.434292 4.17733 78 77 73 
0.704967 -0.411338 4.08295 114 114 112 
0.725835 -0.379851 4.07476 134 133 129 
-0.189676 -0.290019 3.64906 216 192 132 
-0.2258 -0.277375 3.64345 32 14 0 
-0.0268969 -0.291743 3.81037 196 180 120 
-1.02075 -0.0200909 4.41641 222 185 16 
0.437842 -0.00996732 4.52016 108 88 15 
-0.838547 0.0361769 4.66139 183 149 13 
-0.860674 0.0555385 4.61475 21 7 0 
-1.2551 0.750291 6.07141 155 144 138 
-0.126725 0.977048 5.28095 127 109 95 
-0.287251 0.986418 5.25714 104 87 67 
0.535638 0.982471 4.97841 47 36 18 
-0.273255 1.19297 4.72242 148 138 129 
-5.33481 2.21302 8.19508 57 47 45 
-5.34113 2.45532 8.31271 53 46 38 
-5.34583 2.63786 7.7868 41 36 33 
-5.35454 2.68618 7.91031 32 28 19 
-5.32048 2.63933 7.71265 37 32 29 
-5.3502 2.71232 7.82228 65 58 50 
-5.37029 2.85335 8.10399 37 32 29 
-0.219344 -1.08287 3.98297 189 35 47 
0.686876 -1.01051 4.23309 229 219 194 
0.646581 -0.99388 4.24158 225 213 189 
0.85995 -0.86991 4.06686 225 189 15 
-0.58295 -0.814158 4.18766 124 99 69 
-0.598168 -0.788004 4.13167 38 20 8 
0.635982 -0.784842 4.11859 80 48 37 
0.831949 -0.687535 3.97764 84 91 57 
-0.321389 -0.548518 3.90104 2 23 6 
0.7694 -0.574917 4.12684 228 184 33 
-0.080016 -0.49572 3.94189 121 120 100 
0.768215 -0.517249 4.09926 217 172 8 
-0.065697 -0.468708 3.96241 114 125 108 
0.65915 -0.478581 4.10401 170 141 5 
0.684006 -0.471951 4.10445 179 139 7 
-0.0931441 -0.449037 3.93977 69 19 20 
-0.0766779 -0.44682 3.95904 126 124 111 
0.667295 -0.464543 4.10846 25 22 7 
-0.116402 -0.437139 3.94625 100 107 91 
-0.0682787 -0.430237 3.94102 19 33 18 
0.0124756 -0.415667 3.96005 112 98 63 
0.738617 -0.432158 4.08814 126 126 118 
0.501276 -0.439257 4.20428 80 79 75 
0.704722 -0.409839 4.08228 115 115 113 
0.511111 -0.383329 4.19634 196 161 9 
-0.147386 -0.341589 3.79049 205 180 123 
0.692091 -0.365879 4.09516 84 84 82 
-0.0934352 -0.324991 3.79243 176 162 115 
-0.0793508 -0.319154 3.79437 24 67 22 
0.695537 -0.335942 4.11374 8 10 7 
-0.225588 -0.276863 3.64722 46 29 11 
-0.0439018 -0.257332 3.77867 60 39 8 
0.351907 -0.245292 4.50147 163 135 28 
0.509606 -0.206612 4.27135 191 154 13 
0.302476 -0.171235 4.48162 76 72 63 
0.468405 -0.116029 4.34291 196 155 5 
-0.911814 -0.104186 4.57944 69 62 43 
0.450834 -0.0737195 4.34947 192 160 39 
-0.939692 -0.0575978 4.49613 7 6 2 
-0.886681 -0.049978 4.60761 12 0 0 
0.538977 0.0322418 4.57508 17 17 5 
0.51058 0.0363454 4.57002 17 14 7 
0.458529 0.0373077 4.53383 78 69 60 
-0.922628 0.16722 4.53636 2 3 0 
-0.914892 0.17142 4.54983 12 7 4 
-1.25312 0.750626 6.06235 157 146 140 
1.35301 0.752167 5.65636 202 197 194 
1.29675 0.789854 5.55925 114 104 95 
-0.437465 0.852676 5.24604 220 176 25 
0.322018 0.892726 5.0183 105 61 0 
-0.150454 0.954212 5.34858 98 82 59 
0.378611 0.934742 5.00082 208 183 152 
0.640295 0.967986 4.99864 200 184 161 
-0.306298 1.01101 5.20564 208 192 179 
-0.0585538 1.00997 5.16948 201 187 176 
-0.966603 1.03366 5.25824 133 123 113 
-0.318596 1.03479 5.12216 127 111 88 
-0.0266736 1.05102 5.06505 207 193 184 
-0.499987 1.08744 5.02281 104 91 57 
-0.551094 1.12227 4.95432 190 178 164 
-0.568529 1.13256 4.92031 217 205 193 
-0.273126 1.193 4.71728 150 140 131 
0.77641 1.17513 4.61951 214 203 197 
-0.931405 1.24825 4.69217 144 135 130 
-5.3657 2.44519 8.40834 52 51 46 
-5.33747 2.45254 8.30759 51 44 36 
-5.34917 2.64841 7.90735 121 111 102 
-5.34921 2.63767 7.79396 49 43 43 
0.687638 -0.987203 4.23249 159 116 22 
0.655472 -0.976844 4.24705 121 88 17 
-0.183456 -0.626545 3.89246 5 5 3 
0.827459 -0.623697 3.95641 28 26 11 
-0.0749743 -0.497021 3.94998 118 117 96 
-0.157731 -0.481381 3.95214 76 89 69 
-0.103407 -0.455897 3.94393 30 0 2 
0.513056 -0.477897 4.16607 103 99 96 
-0.0978613 -0.323497 3.7884 184 167 115 
-0.204841 -0.276864 3.659 46 34 12 
-0.225379 -0.259281 3.64282 218 196 146 
0.344711 -0.142482 4.49413 96 76 3 
-0.937504 -0.1293 4.57473 92 85 75 
0.470586 -0.11707 4.32001 202 158 9 
-1.05797 -0.0865986 4.52797 21 10 4 
-0.921365 -0.0657645 4.52382 102 99 90 
-0.900205 -0.0587893 4.59402 10 5 2 
-1.04748 -0.0173334 4.4066 235 197 12 
0.327396 -0.0173521 4.58862 15 8 0 
-0.833455 0.0355678 4.6662 188 150 7 
0.180495 0.0487505 4.73017 58 29 0 
-1.11755 0.0549023 4.28835 188 132 0 
-0.864016 0.0562632 4.60788 23 14 5 
-0.915487 0.163715 4.53747 6 7 2 
1.30859 0.639765 5.99456 211 200 194 
-0.450759 0.552798 5.1417 24 4 5 
-0.451464 0.60726 5.17797 63 28 0 
0.320975 0.891992 5.02082 105 61 0 
0.529381 0.916189 5.02926 130 92 7 
-0.322489 0.968173 5.28502 189 173 160 
0.402411 0.931471 5.01406 125 89 3 
-0.297248 0.988659 5.25442 106 90 64 
0.378041 0.997089 4.97158 200 188 164 
-0.947089 1.09384 5.09621 146 133 124 
-0.500355 1.08765 5.02831 103 91 53 
-0.968864 1.10398 5.0628 218 209 204 
-0.526352 1.10816 4.99156 214 200 187 
-0.566974 1.13493 4.91513 221 209 197 
-1.08188 1.17337 4.91975 136 125 119 
-1.04579 1.20901 4.8056 228 218 216 
-0.274859 1.19355 4.71073 157 147 138 
-5.34695 2.42433 8.3918 55 50 44 
-0.580417 -0.805386 4.17771 120 93 64 
-0.242878 -0.286025 3.6467 203 173 123 
-0.70107 -0.892792 4.12518 132 108 72 
0.939727 -0.648916 3.97775 24 25 20 
0.707437 -0.53287 4.12117 245 203 57 
0.609612 -0.467088 4.12392 5 6 8 
-0.179986 -0.350772 3.76681 202 173 117 
-1.077 -0.0773884 4.46252 230 194 10 
0.360519 -0.0410473 4.47728 3 3 1 
0.076556 -0.0374901 4.33715 81 77 68 
-1.07564 -0.0224241 4.41603 231 194 15 
-0.872745 -0.00637696 4.61164 6 6 4 
-0.990516 -0.00472908 4.45708 211 172 7 
-0.914819 0.163979 4.54354 6 7 2 
-5.25301 0.751043 8.177 140 130 121 
1.36068 0.742471 5.64897 207 198 191 
0.57512 0.766478 5.10128 139 92 4 
1.25963 0.825266 5.44559 192 185 177 
0.27716 0.839487 5.07099 178 135 4 
0.322303 0.888855 5.0168 99 57 0 
-0.314883 0.971278 5.33925 189 172 162 
0.405349 0.927554 5.0189 119 81 0 
0.625897 0.96963 4.99618 192 181 153 
0.502506 0.979785 4.97012 199 184 161 
0.371543 0.993481 4.95144 201 187 160 
-0.323961 1.02978 5.13217 127 111 85 
-0.0552514 1.03721 5.13209 126 114 98 
-0.395429 1.07154 5.00257 131 115 89 
-0.972831 1.10337 5.06141 223 214 209 
0.891798 1.08436 4.84842 215 204 200 
-1.07918 1.17413 4.92659 136 126 116 
-1.04951 1.21274 4.81531 228 218 216 
-1.00422 1.21594 4.74265 149 138 132 
-0.153809 1.25716 4.52864 150 139 133 
0.4785 1.25261 4.43076 147 137 128 
-5.33607 2.41071 8.37825 65 62 57 
-0.324123 0.992065 5.23597 111 90 59 
0.758242 -0.98148 4.16321 236 226 201 
0.60051 -0.936664 4.27579 172 164 151 
0.691032 -0.905712 4.21606 92 42 7 
0.70729 -0.393395 4.11251 102 101 97 
1.36541 0.854266 5.38969 129 120 111 
-0.460445 0.831858 5.03524 123 82 3 
0.362332 0.843453 5.03901 183 141 5 
0.405904 0.914747 5.01425 137 99 0 
0.355187 0.942118 5.00936 191 177 140 
-0.978019 1.09921 5.03945 221 211 209 
0.295644 1.25171 4.50289 149 136 127 
0.810199 -0.815336 4.2247 162 108 10 
-0.450066 -0.357644 4.00717 201 176 120 
-0.986402 0.015507 4.45025 206 171 7 
0.434517 0.0302446 4.55344 13 13 11 
-1.06424 0.0875419 4.31974 241 203 8 
1.39325 0.721453 5.6971 210 201 194 
0.377655 0.850366 5.04151 185 143 7 
-0.264794 0.970789 5.26549 186 170 155 
-0.917852 0.17644 4.5757 7 0 0 
-0.240328 -0.534475 3.88556 31 129 68 
0.593429 -0.807339 4.11038 84 74 65 
0.614809 -0.77584 4.09215 185 89 90 
0.696229 -0.727746 4.02697 181 206 105 
0.64986 -0.734612 4.06162 39 47 0 
0.661401 -0.71613 4.05489 149 157 100 
0.673498 -0.712791 4.04621 192 179 160 
0.714643 -0.693312 4.00919 152 156 95 
0.664387 -0.701792 4.0635 41 42 0 
0.724573 -0.677854 4.00262 26 18 0 
0.732931 -0.668857 3.99854 145 135 108 
0.749863 -0.659701 3.98151 130 148 66 
0.780585 -0.646293 3.95545 31 41 0 
0.803301 -0.639647 3.93498 27 27 0 
0.782783 -0.63502 3.96017 169 162 146 
0.818389 -0.620472 3.92769 12 9 4 
-1.12084 0.22799 4.01089 95 40 0 
-0.644775 0.637454 4.83034 201 221 212 
0.866214 -0.874822 4.01745 139 104 10 
0.690322 -0.908799 4.2205 85 28 0 
0.622377 -0.761197 4.0826 43 0 0 
0.663728 -0.75021 4.04901 28 40 0 
0.721416 -0.666404 4.01172 169 136 121 
0.479304 -0.454928 4.12359 48 47 43 
0.517199 -0.256895 4.11437 197 160 17 
0.552947 -0.248706 4.12025 203 162 12 
0.473251 -0.239046 4.28579 45 13 0 
0.303777 -0.216428 4.43629 96 96 84 
0.335598 -0.133393 4.42911 102 86 35 
0.361153 -0.065173 4.43172 114 94 21 
0.378514 -0.0480133 4.43403 114 90 30 
0.417273 -0.0126199 4.46562 18 4 0 
0.214654 0.463187 4.93616 83 46 0 
0.213809 0.48899 4.93155 70 31 2 
-0.630741 0.640652 4.84467 226 252 243 
-1.24046 0.742921 5.9943 151 140 138 
-0.142263 0.958846 5.23868 195 178 170 
0.519764 -0.922322 4.24111 36 35 33 
0.773169 -0.866016 4.13519 92 33 3 
0.569706 -0.850445 4.15029 38 37 33 
0.645655 -0.765218 4.0679 50 30 6 
0.701623 -0.689001 4.01433 63 15 3 
0.829374 -0.642038 3.91243 35 32 25 
0.672304 -0.59099 4.17268 251 211 97 
0.614431 -0.485166 4.07516 185 152 13 
-0.0872395 -0.45617 3.86669 19 3 3 
0.581848 -0.35123 4.09681 201 160 10 
0.334495 -0.117195 4.42826 12 4 1 
0.680043 -0.0687845 4.43074 104 52 2 
0.497857 -0.068689 4.29651 148 113 13 
-1.32074 0.192195 4.07961 245 233 217 
1.62394 0.810993 5.56282 200 193 185 
-0.607525 0.530884 4.73676 136 115 6 
-0.629975 0.537473 4.7574 219 205 72 
-0.166747 0.935195 5.3199 171 157 146 
0.512393 0.974941 4.94659 185 174 154 
-0.330732 0.96341 5.24813 182 165 149 
0.683995 -0.982049 4.21299 141 105 17 
0.828176 -0.914502 4.02925 221 206 185 
0.763125 -0.936209 4.12269 143 106 26 
0.865196 -0.899805 4.00556 217 202 179 
0.731641 -0.928787 4.13622 131 94 13 
0.524633 0.0514893 4.53892 150 140 130 
-1.04147 -0.0434391 4.33354 137 89 13 
0.413309 0.383707 4.96802 107 67 0 
1.59572 0.804536 5.52884 197 192 186 
1.44742 0.835698 5.4463 193 184 179 
1.36175 0.854932 5.448 124 115 110 
-0.947518 1.01086 5.14179 129 116 107 
-0.318004 1.1597 4.68161 141 130 124 
0.83801 -0.590254 3.94045 155 146 137 
0.463887 -0.687028 4.86138 165 155 143 
-0.145341 0.941835 5.29113 101 83 61 
-0.929866 1.07144 4.99185 139 127 115 
0.757849 -0.967829 4.12284 221 208 189 
0.570981 -0.863354 4.15896 29 30 25 
0.616277 -0.7123 4.10368 87 24 0 
0.73374 -0.542699 4.09485 106 52 5 
0.60332 -0.474181 4.07291 5 1 0 
-0.724746 -0.645936 4.89691 226 217 202 
0.566114 -0.367855 4.08496 6 7 2 
0.540288 -0.354578 4.10085 203 162 10 
0.587205 -0.338342 4.08751 201 160 10 
0.525915 -0.234023 4.13297 112 79 2 
0.50911 -0.195107 4.22753 184 145 8 
0.396295 -0.0427845 4.43614 126 97 3 
1.46121 0.843855 5.49526 191 182 175 
0.618147 0.958592 4.94199 185 170 149 
0.280831 1.01854 4.9821 70 46 20 
0.801976 1.14582 4.63675 208 199 194 
-0.392776 1.06027 4.95794 126 109 89 
-0.937574 1.03342 5.08904 124 112 100 
0.692432 1.18413 4.52153 147 137 128 
-2.19402 1.02256 5.29363 227 215 215 
-1.0526 1.14224 4.79342 128 117 111 
0.627619 -0.496107 4.0553 189 147 9 
0.586865 -0.329639 4.07967 199 157 9 
1.59881 0.813284 5.60908 204 194 192 
1.61283 1.01102 4.95622 121 112 105 
0.273648 1.01868 4.9556 70 52 32 
0.926214 1.10621 4.75713 146 135 131 
-2.21846 1.09712 5.07859 228 217 221 
0.687504 -0.598695 4.17174 244 210 86 
0.289064 1.23125 4.42719 136 126 117 
0.780839 -0.603991 4.09279 56 13 0 
0.677142 -0.423869 4.04986 14 15 17 
0.372588 0.8409 4.98733 177 138 37 
-0.297023 1.16984 4.64299 152 141 139 
0.891602 -0.816201 4.07695 105 55 6 
-0.270497 -0.368883 3.90347 215 189 132 
0.527657 -0.316347 4.13387 201 160 10 
0.716229 -0.733088 4.04327 184 210 101 
0.744399 -0.724298 4.01941 205 217 145 
0.728398 -0.714686 4.02536 50 49 3 
0.764635 -0.694774 3.99451 43 66 0 
0.78647 -0.679026 3.97577 32 59 0 
0.741234 -0.702111 4.01113 37 28 0 
-0.0988185 -0.444037 3.89558 51 6 9 
1.44522 0.833029 5.4421 193 184 179 
-1.05047 1.20604 4.81795 145 134 128 
0.372699 0.939562 4.98818 176 160 134 
0.934377 1.08978 4.71642 153 145 134 
1.39807 0.729351 5.75866 201 192 185 
0.703275 -0.974305 4.21776 255 241 92 
-0.675623 -0.892747 3.98052 227 211 177 
-0.686013 -0.89501 4.01228 83 65 29 
-0.701371 -0.885667 3.99646 204 196 160 
0.567247 -0.812655 4.11086 244 236 225 
0.630676 -0.797704 4.07791 86 23 16 
0.627877 -0.779566 4.06434 73 20 12 
0.671408 -0.772133 4.05209 217 231 156 
0.659664 -0.766568 4.04736 57 73 0 
0.668852 -0.761203 4.0405 43 61 0 
0.632715 -0.766301 4.05986 192 114 102 
0.762011 -0.728216 3.98459 112 130 18 
0.689879 -0.738597 4.01542 208 223 140 
0.715402 -0.732678 4.00828 59 84 0 
0.623309 -0.746972 4.06535 151 88 73 
0.738081 -0.721093 3.98431 77 98 0 
0.770955 -0.717115 3.97614 191 216 122 
0.500147 -0.729953 3.95986 158 142 91 
0.727017 -0.718273 3.98495 183 198 115 
0.656757 -0.735164 4.04245 70 89 0 
0.752245 -0.7134 3.97884 68 91 0 
0.801782 -0.710693 3.97392 96 125 6 
0.739715 -0.713005 3.97642 195 210 109 
0.64586 -0.733517 4.05311 51 60 5 
0.13978 -0.734216 3.90769 23 6 0 
0.659174 -0.72673 4.03581 155 169 84 
0.716253 -0.710599 4.00098 61 68 14 
0.146055 -0.72318 3.89108 23 11 0 
0.680832 -0.715444 4.02361 72 78 40 
0.781007 -0.69094 3.95843 50 80 0 
0.657346 -0.715048 4.04634 141 152 83 
0.827783 -0.677309 3.9298 231 231 207 
0.718655 -0.695231 3.99525 30 33 0 
0.807358 -0.674616 3.93815 231 235 208 
0.840833 -0.67098 3.93524 232 229 210 
0.768898 -0.680569 3.96154 54 83 0 
0.712108 -0.683548 3.99867 53 34 1 
0.790215 -0.664266 3.9416 161 172 132 
0.664277 -0.695042 4.04803 143 137 121 
0.720848 -0.676866 3.99515 34 23 1 
0.750839 -0.665451 3.972 47 67 0 
0.79063 -0.645328 3.93925 140 144 119 
0.778451 -0.646549 3.95129 45 55 5 
0.806467 -0.641176 3.94091 17 25 2 
0.68349 -0.670971 4.05863 135 109 76 
0.676684 -0.673058 4.07185 42 22 0 
0.774344 -0.623531 3.9583 151 143 122 
0.498288 -0.508934 4.11402 152 146 134 
-0.0884256 -0.472551 3.84334 49 26 20 
0.716303 -0.42518 4.04191 26 25 21 
-0.110233 -0.459227 3.82498 126 109 102 
-0.136544 -0.428213 3.83795 27 35 24 
-0.543509 -0.442838 3.96325 40 25 2 
-0.524063 -0.369938 3.91516 62 38 0 
-0.242206 -0.25248 3.54205 217 197 146 
-0.283673 -0.25335 3.5357 43 21 0 
-0.341858 -0.254027 3.54591 39 20 3 
-0.393402 -0.258744 3.57647 190 168 127 
0.579261 0.013302 4.5559 50 37 18 
-0.487982 0.0202702 4.73614 199 160 57 
-0.567868 0.634361 4.71558 162 179 163 
0.671609 -0.993501 4.17016 230 218 192 
0.629078 -0.976196 4.18117 227 212 193 
0.640272 -0.962006 4.19781 132 94 9 
0.818329 -0.885131 4.00783 223 206 180 
0.867735 -0.87542 4.02028 135 103 28 
0.826505 -0.867409 4.01658 140 100 5 
0.670476 -0.902287 4.21096 86 37 0 
0.775525 -0.866528 4.13443 101 43 3 
0.88507 -0.813109 4.04149 110 63 7 
0.470255 -0.87712 4.20172 24 24 16 
-0.687355 -0.890662 3.98597 79 61 25 
-0.662138 -0.885887 3.98724 212 195 143 
-0.672305 -0.885578 3.99476 137 114 72 
-0.695627 -0.877159 3.99986 111 92 60 
-0.704256 -0.872379 4.00599 203 188 155 
0.659935 -0.788506 4.0611 242 232 222 
0.596064 -0.794196 4.07332 237 227 217 
0.619341 -0.790386 4.07479 212 115 108 
0.650458 -0.779046 4.05943 76 49 28 
0.607994 -0.784074 4.07835 82 42 32 
0.684491 -0.767287 4.04379 102 105 62 
0.660974 -0.749401 4.0432 31 42 0 
0.672002 -0.742133 4.03165 51 64 10 
0.676759 -0.733936 4.0251 217 225 186 
0.722198 -0.724118 3.99595 68 79 11 
0.810397 -0.697306 3.95145 243 236 218 
0.749651 -0.702967 3.97315 187 207 110 
0.72344 -0.707516 3.99349 155 153 115 
0.823829 -0.683166 3.94187 78 79 47 
0.729543 -0.698525 3.98802 29 25 0 
0.741309 -0.690972 3.98157 159 187 66 
0.784468 -0.679077 3.95107 179 211 88 
0.685363 -0.700716 4.02119 193 179 166 
0.82599 -0.664335 3.92907 87 87 61 
0.635499 -0.708859 4.08501 113 113 27 
0.680749 -0.692018 4.02836 54 26 14 
0.8158 -0.656821 3.92198 35 36 18 
0.779905 -0.663964 3.94604 152 174 89 
0.735823 -0.666708 3.979 60 63 20 
0.834682 -0.645542 3.91807 40 38 26 
0.645185 -0.695673 4.09032 42 36 2 
0.67919 -0.681917 4.04988 33 18 11 
0.716611 -0.665408 4.00199 171 133 124 
0.739344 -0.65688 3.98386 136 137 80 
0.78841 -0.635095 3.94322 56 27 19 
0.823098 -0.613898 3.9232 26 16 14 
0.682799 -0.675768 4.18401 48 13 7 
0.768608 -0.620271 3.97159 78 36 20 
0.797737 -0.604191 3.93732 48 18 18 
0.801645 -0.598491 3.95814 122 93 89 
0.800241 -0.613855 4.11122 114 73 9 
0.553881 -0.659583 4.27626 253 229 165 
0.807567 -0.60827 4.14126 44 3 0 
0.614058 -0.611566 4.25924 30 19 1 
0.628274 -0.606047 4.23283 35 15 4 
-0.203881 -0.586802 3.78042 40 120 69 
0.534771 -0.613483 4.24266 90 52 3 
0.702339 -0.529174 4.08368 253 214 95 
0.733628 -0.521122 4.08042 255 228 95 
0.483234 -0.539992 4.20429 14 15 1 
0.507655 -0.507539 4.1076 25 22 13 
0.525722 -0.501324 4.09196 9 9 0 
-0.316044 -0.521177 3.79139 31 126 70 
0.50118 -0.486737 4.08862 6 8 5 
-0.123536 -0.454246 3.82105 42 17 12 
-0.00151506 -0.449138 3.86779 113 109 71 
0.471069 -0.457634 4.3567 18 19 14 
-0.0827469 -0.432747 3.86615 120 113 107 
0.710522 -0.375971 4.01396 135 136 131 
-0.0750805 -0.425671 3.86156 0 13 4 
0.452312 -0.439685 4.32375 165 152 133 
0.478346 -0.404142 4.13222 12 11 7 
-0.158394 -0.420303 3.85521 0 6 3 
-0.504904 -0.469795 3.97452 193 173 122 
0.678752 -0.360519 4.04378 84 83 79 
-0.500907 -0.459518 3.96131 51 42 9 
-0.519227 -0.461708 3.96729 80 64 28 
-0.40511 -0.439775 3.89455 96 96 86 
-0.364281 -0.432941 3.87389 82 88 74 
-0.374745 -0.42269 3.87911 0 10 0 
0.545788 -0.361276 4.08362 195 164 22 
-0.503658 -0.440444 3.94353 17 14 0 
0.577114 -0.353013 4.08852 193 157 19 
0.586638 -0.340934 4.04163 213 178 36 
-0.511485 -0.433065 3.94981 186 169 126 
-0.536627 -0.43318 3.95049 192 170 123 
-0.497048 -0.369872 3.90516 20 32 8 
-0.462566 -0.330917 3.74904 169 158 113 
-0.475398 -0.325486 3.74285 19 53 16 
-0.395196 -0.288026 3.58697 228 208 158 
-0.410811 -0.2823 3.57694 40 24 0 
-0.373039 -0.258589 3.55898 57 40 14 
0.471744 -0.239141 4.28208 44 15 0 
-0.394288 -0.253824 3.56628 194 170 122 
-0.574291 -0.322728 4.60559 105 68 13 
-0.909472 -0.369978 4.7695 134 133 131 
-0.56559 -0.298963 4.59619 209 173 25 
-0.793281 -0.319131 4.5715 207 177 53 
-0.80446 -0.310802 4.56591 15 15 15 
-0.790784 -0.302623 4.55016 37 32 13 
-0.941674 -0.33313 4.77969 110 107 102 
-0.711675 -0.234879 4.54496 8 5 0 
0.416838 -0.0796456 4.27725 175 141 17 
0.440074 -0.0737988 4.28674 185 153 54 
0.357454 -0.0653874 4.42148 121 97 35 
-0.755955 -0.197073 4.50852 116 114 115 
0.363786 -0.0523422 4.43405 11 0 0 
0.378291 -0.0476506 4.43346 112 91 28 
-0.82648 -0.188513 4.55234 116 115 111 
-0.364425 -0.0800364 3.83121 151 130 113 
0.314956 -0.0134597 4.54495 13 9 0 
0.530976 0.032547 4.52971 33 28 22 
0.365318 0.0267068 4.56633 22 15 5 
0.395933 0.0477519 4.57033 54 45 36 
-0.946301 -0.0976283 4.35857 65 61 62 
0.418214 0.0733538 4.57029 62 52 40 
-0.1538 0.0400884 3.86573 36 19 0 
-1.03953 -0.082448 4.36228 9 1 0 
-0.854505 -0.00138661 4.43965 20 10 8 
-0.463631 0.0741981 4.72169 46 12 0 
-1.08734 0.0847645 4.14001 53 14 9 
-1.36943 0.0476861 4.03997 134 74 11 
-1.30363 0.0949998 4.02741 99 34 4 
-0.899638 0.168138 4.39576 13 10 3 
0.612552 0.424618 5.01839 108 71 0 
0.614731 0.451565 5.0249 99 56 1 
-1.30916 0.135601 4.03231 115 57 0 
-1.35385 0.144296 4.04253 127 90 22 
-1.19462 0.199351 4.00539 243 200 8 
-1.31977 0.187887 4.02499 247 236 214 
-1.28895 0.195023 3.97005 253 238 217 
0.211089 0.487597 4.92218 78 45 2 
-1.12362 0.228523 3.95381 85 28 1 
-0.790925 0.39492 5.20655 55 11 0 
0.217917 0.575186 4.95046 22 4 0 
-1.16898 0.290766 3.96656 229 213 200 
0.228846 0.644457 5.02239 61 28 0 
-0.635369 0.634999 4.80467 235 255 244 
-1.23468 0.709956 5.98747 165 154 148 
0.523815 0.909727 5.00705 112 82 12 
-1.2395 0.734819 5.92408 156 145 143 
0.394852 0.924905 4.97935 93 61 0 
-1.17113 0.770227 5.79126 162 151 145 
-0.149754 0.954033 5.20785 201 184 174 
-0.758318 0.920006 5.11322 140 127 110 
-0.321812 1.02134 5.02792 112 98 85 
0.638068 -0.803207 4.07213 251 239 225 
-0.607628 0.108654 5.29017 234 200 92 
0.357446 0.992542 4.87369 176 164 150 
-0.184504 -0.993354 3.8089 138 10 25 
0.758028 -0.954559 4.10249 225 213 191 
0.828954 -0.919522 4.04373 224 210 184 
0.710396 -0.938953 4.10505 228 210 186 
0.762817 -0.934793 4.11624 144 107 18 
0.65824 -0.955726 4.19954 228 186 22 
0.726055 -0.925354 4.12911 137 93 22 
0.642455 -0.942684 4.29145 108 86 28 
0.757638 -0.861113 4.12797 88 33 0 
-0.700708 -0.859159 4.00687 123 106 78 
0.457826 -0.743325 4.04735 219 185 34 
0.510245 -0.72655 4.00383 135 105 35 
0.672366 -0.71211 4.03372 201 189 173 
0.754076 -0.690285 3.96933 56 79 1 
0.697702 -0.692421 4.0149 94 46 32 
0.900111 -0.655943 3.91088 233 234 220 
0.732622 -0.685033 3.99731 142 161 53 
0.833943 -0.658846 3.91896 83 80 63 
0.759771 -0.657769 3.97207 94 108 29 
-0.595546 -0.76065 4.00599 37 15 2 
0.786739 -0.609253 3.96228 77 48 44 
0.673831 -0.61245 4.16803 236 196 75 
0.785862 -0.575682 4.06586 108 63 0 
0.64995 -0.610545 4.19591 54 33 4 
-0.310887 -0.594592 3.79714 32 127 69 
0.655139 -0.561213 4.14477 139 93 0 
0.71809 -0.528093 4.07882 97 51 1 
0.489034 -0.554125 4.26896 26 20 4 
-0.202501 -0.525084 3.77366 16 16 6 
0.489814 -0.541792 4.22024 12 15 6 
-0.331649 -0.527709 3.78665 5 9 0 
0.660768 -0.480792 4.04802 99 61 0 
0.665729 -0.464554 4.03988 172 142 10 
-0.517838 -0.663761 4.6748 3 25 12 
0.500723 -0.473572 4.09651 95 96 91 
-0.16078 -0.476121 3.7818 62 13 9 
0.473824 -0.452788 4.11412 54 53 49 
-0.361013 -0.470395 3.84696 78 83 63 
0.484711 -0.429698 4.10711 78 77 75 
-0.37801 -0.469721 3.85903 54 18 18 
-0.118446 -0.434291 3.81992 60 16 17 
-0.404101 -0.46663 3.87003 49 20 16 
0.439302 -0.430802 4.2062 17 14 7 
-0.123187 -0.425196 3.83809 109 111 97 
0.709419 -0.366043 4.03412 49 48 44 
-0.38333 -0.440406 3.8591 51 13 10 
0.449327 -0.413956 4.22985 170 145 18 
0.500597 -0.379321 4.13484 179 150 10 
0.567051 -0.366264 4.08812 4 2 3 
-0.42417 -0.433654 3.90121 15 26 18 
0.677657 -0.344088 4.04415 8 6 7 
0.690446 -0.333299 4.07448 12 11 9 
-0.502381 -0.425672 3.93139 171 157 122 
-0.0909881 -0.310889 3.67621 39 80 40 
-0.415221 -0.340193 3.70754 183 160 110 
0.424413 -0.299899 4.32835 211 173 12 
-0.243948 -0.274508 3.52493 239 221 173 
0.513233 -0.258846 4.10359 205 164 12 
0.549485 -0.25032 4.10902 214 169 8 
0.533444 -0.245135 4.11522 94 49 0 
-0.229899 -0.252721 3.53147 205 184 139 
0.499712 -0.203595 4.21765 185 148 18 
-0.584209 -0.334139 4.6049 207 172 10 
-0.804787 -0.291488 4.53705 129 129 129 
0.43404 -0.128732 4.27023 173 138 12 
-0.775371 -0.254087 4.50381 81 80 75 
0.334146 -0.117368 4.42726 15 8 2 
-0.809629 -0.246732 4.46982 135 136 130 
0.43297 -0.0906949 4.2798 60 36 2 
0.495004 -0.0683386 4.28957 144 110 12 
-0.773256 -0.205123 4.50714 47 46 41 
-0.825279 -0.190975 4.56734 114 114 112 
0.559615 0.0172515 4.5515 44 40 31 
0.326723 0.0122096 4.55704 143 132 114 
-0.913241 -0.128962 4.37883 97 84 68 
0.423036 0.0326685 4.48463 15 14 12 
0.519219 0.0464668 4.53209 151 144 128 
0.389225 0.0296625 4.55509 18 9 0 
0.378146 0.0417 4.57139 156 146 134 
-0.94611 -0.11593 4.36892 142 138 135 
0.467125 0.0649002 4.51074 75 70 67 
-0.993612 -0.108287 4.36969 19 15 12 
-0.454566 -0.0134257 4.31 14 13 11 
-0.931676 -0.0599507 4.34628 17 16 14 
-1.04125 -0.0431238 4.28976 130 86 0 
-0.489877 0.030763 4.73612 212 174 11 
-0.997356 -0.0258244 4.2938 215 175 15 
-0.476947 0.0383856 4.72419 222 184 23 
-0.787615 0.000855581 4.61295 198 164 28 
-0.853408 -0.00161375 4.45437 19 11 8 
-0.465747 0.0722329 4.70874 48 14 2 
-0.820095 0.0321493 4.54391 171 137 11 
-1.02433 0.00779273 4.20147 132 86 8 
-1.36143 0.0334305 4.07612 246 210 52 
0.544858 0.373541 5.00844 109 71 0 
0.509593 0.393756 5.03619 105 67 0 
-1.26954 0.105935 4.04711 249 209 15 
0.409285 0.381572 4.96627 111 70 4 
-1.29045 0.128946 4.02916 246 206 10 
-1.3798 0.124627 3.99966 248 235 216 
-1.17448 0.178695 4.0138 247 203 10 
0.219448 0.560303 4.94666 24 2 0 
-1.16638 0.280722 3.97649 134 101 22 
-1.20522 0.276671 3.95696 161 143 129 
-1.18056 0.298953 3.9696 162 148 135 
0.226149 0.622324 4.98085 39 11 0 
0.224634 0.642519 5.0079 63 30 0 
-0.634695 0.532815 4.71756 213 200 72 
0.492491 0.906571 4.97998 192 172 139 
0.316586 0.885172 4.97565 95 57 0 
0.371656 0.922272 4.97086 187 163 127 
-0.830822 0.76304 5.34143 231 185 11 
-0.847768 0.780484 5.31191 155 112 10 
0.530702 0.986244 4.94318 61 52 45 
-0.172852 0.931154 5.28901 163 149 136 
0.377611 0.986225 4.90999 181 168 152 
0.400133 0.995889 4.91673 53 44 39 
-0.128012 0.963457 5.21123 112 94 82 
-0.310285 0.948004 5.26344 175 159 144 
-0.0669167 0.995361 5.07854 188 174 165 
-0.293559 0.972191 5.16166 96 78 54 
-0.309398 0.990508 5.1101 198 180 168 
-0.00967146 1.03295 4.99035 116 102 91 
-0.772666 0.924369 5.1373 45 32 15 
-0.0273675 1.03912 5.00177 192 178 169 
-0.00658925 1.04076 4.94938 192 179 171 
-0.319677 1.00547 5.06543 113 96 78 
-0.746418 0.93155 5.08756 140 125 106 
0.754813 1.16999 4.59709 137 126 122 
-0.531271 1.07567 4.85602 201 187 176 
-0.554495 1.07802 4.8446 104 92 78 
-0.273109 1.16808 4.61805 146 137 132 
-0.93381 1.18212 4.54383 218 207 203 
-0.915578 1.19183 4.54655 132 121 119 
-0.868714 1.19839 4.47923 139 128 122 
-0.848562 1.2059 4.48657 217 208 203 
0.653923 -1.01785 4.19521 224 209 188 
0.667687 -0.998965 4.18265 223 208 185 
0.680794 -0.979475 4.20614 151 115 18 
0.863421 -0.8984 4.00236 211 195 179 
0.867332 -0.80724 4.0224 103 56 0 
0.659597 -0.785812 4.04507 240 233 225 
0.69715 -0.76423 4.02465 239 236 217 
0.820192 -0.701573 3.95424 242 235 217 
0.792951 -0.655084 3.93077 29 32 21 
0.693064 -0.674074 4.03963 135 55 44 
0.734651 -0.664933 3.99765 60 44 31 
0.808956 -0.636869 3.92508 143 148 116 
0.824436 -0.580573 3.95862 16 16 8 
0.786684 -0.602245 4.116 47 9 0 
0.670689 -0.615754 4.23125 51 30 3 
0.633348 -0.58097 4.18197 37 12 0 
0.695928 -0.554704 4.10969 220 168 7 
0.674104 -0.553788 4.1312 246 207 80 
0.666931 -0.503694 4.04383 123 78 0 
-0.558014 -0.786848 5.17658 160 157 142 
-0.218601 -0.510415 3.76589 28 117 63 
0.64066 -0.476776 4.05005 235 201 91 
0.578323 -0.462587 4.03082 6 6 4 
-0.511961 -0.671301 4.80979 244 238 224 
0.689724 -0.400016 4.02558 119 118 116 
-0.140436 -0.444809 3.83204 93 105 83 
-0.107667 -0.444289 3.84126 40 6 7 
-0.418636 -0.464661 3.88746 99 102 85 
-0.350046 -0.452561 3.85767 77 82 62 
-0.389695 -0.452941 3.8835 20 1 5 
-0.627241 -0.65161 5.1486 204 193 171 
-0.316256 -0.432633 3.89144 2 6 5 
0.810089 -0.320854 4.19995 72 58 21 
-0.378937 -0.282618 3.5503 239 214 173 
-0.83221 -0.340553 4.61733 32 33 28 
-0.809964 -0.308318 4.55364 11 11 11 
0.454767 -0.116295 4.25123 189 148 8 
-0.578217 -0.252876 4.62168 8 7 3 
0.410367 -0.0849093 4.28467 159 127 8 
-0.871969 -0.22815 4.57058 23 22 17 
-0.770606 -0.0646408 4.58578 193 151 7 
0.442746 0.0941771 4.5405 83 76 68 
-0.931657 -0.0563701 4.35975 17 15 16 
-1.38378 0.0621501 4.06389 244 211 34 
0.417116 0.383967 4.97928 114 73 7 
0.130323 0.592555 6.23782 60 35 13 
-1.26719 0.230788 4.01046 185 161 133 
1.52527 0.860317 5.60181 200 191 184 
0.632222 0.91438 5.01639 187 172 149 
0.497612 0.912773 5.00346 182 161 132 
-1.23641 0.734278 5.90134 150 139 137 
0.624155 0.959845 4.94858 183 170 151 
0.529201 0.986991 4.93099 68 59 52 
0.398473 0.99583 4.90351 57 47 45 
-0.853725 0.911189 5.19073 158 144 131 
-0.749879 0.922452 5.10507 140 125 106 
-0.502603 1.05505 4.87427 100 83 53 
-0.9454 1.02149 5.01463 129 116 107 
-0.564607 1.10489 4.79152 206 196 187 
-0.277508 1.16672 4.60513 146 137 132 
-1.05499 1.12505 4.74012 127 117 108 
0.602726 -0.804228 4.09175 240 232 219 
-0.161632 -0.343908 3.66282 28 129 61 
-0.387429 -0.351095 3.86573 202 178 130 
-0.48797 -0.289129 3.67706 63 38 8 
-1.02718 -0.142266 4.49764 50 48 35 
-1.20141 0.284961 3.97676 163 147 134 
0.724064 -0.957598 4.12808 222 206 181 
0.831109 -0.907486 4.02745 224 210 184 
0.623733 -0.967491 4.22577 226 183 29 
0.790754 -0.929238 4.11776 229 194 38 
0.605157 -0.815332 4.08168 243 233 223 
0.565817 -0.796089 4.09188 101 91 79 
0.626635 -0.784872 4.08616 82 33 29 
0.70577 -0.762585 4.03334 239 237 212 
0.739636 -0.730909 3.98942 189 230 76 
0.859518 -0.6582 3.90971 238 234 222 
0.734079 -0.644422 4.00597 72 36 20 
0.839899 -0.613543 3.89531 211 207 195 
0.870396 -0.590489 3.90257 20 20 18 
0.823934 -0.583089 4.06005 162 133 67 
0.719539 -0.572203 4.09672 243 204 77 
-0.215479 -0.585378 3.78068 24 124 62 
-0.300333 -0.592831 3.8048 24 129 63 
0.733707 -0.543402 4.09474 95 51 6 
0.613123 -0.495572 4.06995 197 155 7 
0.51518 -0.493453 4.09587 16 18 17 
0.70142 -0.430461 4.04246 16 16 18 
-0.659316 -0.637289 4.71 239 230 215 
-0.10404 -0.451178 3.85108 17 0 0 
-0.384965 -0.45342 3.85808 6 11 5 
-0.108494 -0.424281 3.84431 112 114 100 
0.678186 -0.372131 4.03456 99 98 93 
-0.328017 -0.427307 3.85736 1 5 4 
0.584888 -0.370466 4.06186 5 7 4 
-0.188854 -0.404167 3.79789 21 59 36 
0.500584 -0.370179 4.12863 199 159 10 
0.626836 -0.342835 4.05753 21 16 10 
0.537333 -0.354614 4.09406 203 162 10 
0.581009 -0.337384 4.07383 208 165 11 
-0.387806 -0.348048 3.70001 201 176 119 
0.472721 -0.290829 4.15791 201 162 5 
0.517251 -0.271221 4.12184 206 163 7 
0.447797 -0.2948 4.30677 90 44 8 
-0.368097 -0.286476 3.5684 240 221 179 
-0.268455 -0.255191 3.53185 108 84 56 
0.534593 -0.23574 4.15301 120 85 1 
-0.945881 -0.311195 4.79394 28 28 26 
-0.825997 -0.272457 4.53262 115 115 115 
0.514761 -0.0920586 4.27443 63 20 0 
-0.875526 -0.23072 4.554 27 27 25 
0.356502 -0.0422725 4.44079 6 4 5 
-0.79401 -0.178208 4.51261 114 113 111 
0.437287 -0.0227353 4.45924 128 92 4 
-0.829913 -0.132779 4.67224 201 157 6 
-0.972365 -0.0953682 4.36193 112 108 97 
-1.03299 -0.0930861 4.36575 9 8 3 
-0.953562 -0.0728016 4.35629 90 78 64 
-1.35557 0.125854 4.01411 161 123 16 
-1.16689 0.211871 3.98282 242 234 125 
-1.19506 0.212703 3.99437 246 202 7 
-1.14557 0.231963 3.95333 225 185 12 
1.30301 0.838888 5.57898 188 179 172 
-0.62302 0.500833 4.69692 45 78 23 
-0.563156 0.518028 4.68776 172 154 10 
1.68257 1.02567 5.06064 122 113 106 
-0.597371 0.62764 4.70962 67 92 73 
0.274504 0.824648 4.98665 163 120 8 
0.618843 0.908804 4.99985 183 168 145 
0.396816 0.91863 4.96872 120 83 5 
0.928073 1.03221 4.98682 208 198 196 
-1.14272 0.804215 5.74084 142 129 123 
-1.06688 0.811341 5.68321 208 195 187 
-0.184262 0.93501 5.29539 166 152 141 
-0.842267 0.826242 5.2643 153 115 16 
0.397068 0.995246 4.89084 59 50 45 
0.28128 1.01722 4.98315 65 48 22 
-0.0771367 0.999806 5.08496 192 177 172 
-0.0566226 1.02025 5.05175 118 102 87 
-0.912727 0.947419 5.24708 210 197 189 
0.754276 1.17193 4.60835 140 129 123 
0.70641 1.19142 4.55358 143 134 125 
-0.946584 1.0017 5.09922 124 114 102 
-0.619692 1.04242 4.92901 70 51 19 
-0.9404 1.01978 5.0278 124 111 102 
0.629415 1.2255 4.46584 139 130 121 
0.509394 1.24304 4.37762 209 197 199 
-0.32621 1.1443 4.62156 141 130 128 
0.273956 1.22891 4.40568 137 127 118 
0.240129 1.22909 4.42827 210 202 199 
-0.627779 1.14241 4.70821 214 204 195 
-0.991989 1.17764 4.59767 137 127 118 
-0.941547 1.18714 4.53889 220 209 207 
0.844773 -0.914119 4.0276 222 210 186 
0.809905 -0.873084 4.05808 225 183 9 
0.628686 -0.775079 4.08068 57 6 2 
-0.191599 -0.608803 3.77619 7 7 5 
0.689817 -0.599904 4.17666 239 196 65 
0.636012 -0.595631 4.17586 44 23 2 
-0.226543 -0.578778 3.77963 24 122 61 
-0.292031 -0.584232 3.80616 24 126 63 
0.531863 -0.483737 4.1054 16 16 18 
0.590368 -0.450037 4.04313 5 5 7 
0.488083 -0.458156 4.10044 100 101 96 
0.573388 -0.380657 4.06557 4 6 5 
-0.200387 -0.408947 3.77271 0 16 3 
0.520638 -0.352815 4.09658 200 163 12 
-0.316101 -0.347503 3.6246 214 189 132 
0.502758 -0.283198 4.11432 204 164 7 
-0.357907 -0.293045 3.58905 226 205 162 
-0.39481 -0.298997 3.838 213 193 142 
-0.820545 -0.384319 4.71381 233 195 24 
-0.932095 -0.389488 4.78657 162 156 142 
-0.599675 -0.338594 4.59966 211 173 4 
0.481821 -0.12724 4.24924 187 145 7 
-0.881171 -0.243479 4.58068 27 27 25 
0.431139 -0.0316961 4.4531 133 105 5 
-0.764738 -0.151545 4.52717 9 11 10 
-0.919105 -0.108275 4.37929 88 85 80 
-0.965715 -0.0942853 4.37717 112 108 99 
-0.78416 -0.0576995 4.61958 190 144 9 
-1.2784 0.148427 4.05632 247 208 19 
-0.612996 0.498445 4.71328 32 83 50 
-0.65112 0.53415 4.72922 211 199 65 
-0.592035 0.637614 4.77598 71 93 81 
0.360779 0.839969 4.99501 255 255 203 
0.402697 0.907337 4.97248 130 95 5 
0.474124 0.916271 4.97112 169 154 123 
-0.703887 0.691987 4.75739 39 67 71 
0.350411 0.926879 4.96549 193 173 146 
0.538816 0.994721 4.92958 78 67 63 
-1.03235 0.844481 5.61846 144 131 125 
-0.332254 0.980195 5.13409 100 83 53 
-0.620247 1.03662 4.9075 72 53 20 
-0.480358 1.08332 4.81996 208 194 185 
-0.812745 1.18941 4.51605 131 121 112 
0.816588 -0.588892 3.95597 19 18 13 
0.704709 -0.568979 4.09603 236 196 72 
0.493415 -0.231033 4.11057 121 86 2 
-1.18937 0.221047 4.00281 240 199 11 
-0.0943784 0.999996 5.07602 195 180 173 
-0.0408232 1.01536 5.05639 118 102 87 
-0.510006 1.0814 4.85978 201 186 179 
-1.03365 1.16883 4.60283 221 211 210 
0.148193 -0.769953 3.8714 182 153 113 
0.68997 -0.747767 4.02173 220 231 163 
0.461181 -0.733017 4.17625 173 163 151 
0.811104 -0.646395 3.92006 92 93 77 
0.797614 -0.610622 4.12599 42 8 0 
0.616737 -0.591027 4.15134 66 38 1 
0.66635 -0.563001 4.07465 236 197 60 
0.506458 -0.543031 4.15948 197 157 7 
0.665003 -0.504583 4.0815 196 156 24 
0.614102 -0.462721 4.05275 11 9 10 
0.535945 -0.468725 4.09004 19 19 19 
0.596988 -0.445842 4.06814 5 5 7 
0.507105 -0.41269 4.09145 20 20 20 
0.642927 -0.366354 4.05072 17 17 19 
0.511785 -0.34969 4.12037 204 163 9 
-0.207402 -0.351335 3.66843 196 173 121 
-0.734354 -0.452688 4.70616 235 196 5 
-0.284747 -0.258177 3.54575 111 90 63 
0.491191 -0.2408 4.28025 108 81 4 
-0.600072 -0.29893 4.5753 212 173 8 
-0.656459 -0.241781 4.55185 215 176 10 
-0.839496 -0.248896 4.46146 105 105 103 
-1.13824 -0.113911 4.42156 239 208 29 
-0.971492 -0.0293193 4.27476 20 16 15 
-0.432749 0.117788 4.59464 185 154 108 
1.3578 0.803719 5.78253 119 111 100 
0.360877 0.958845 4.90573 166 151 130 
-1.1455 0.805609 5.67312 159 146 138 
0.607589 1.21802 4.46759 141 131 122 
0.109325 1.19908 4.51422 130 117 111 
-0.308154 1.15454 4.58643 144 132 132 
0.224053 1.23286 4.42509 212 202 203 
0.743604 -0.95938 4.12423 217 203 177 
0.51685 -0.536552 4.16884 192 155 5 
-0.781669 -0.406398 4.70461 237 199 12 
-0.747127 -0.302799 4.52561 221 180 12 
-0.954073 -0.210238 4.65031 245 207 36 
-1.15741 -0.087906 4.42767 238 207 21 
-1.32687 0.127994 4.0352 174 130 7 
-0.551922 0.568131 4.72025 184 166 8 
-0.70985 0.662262 4.62409 43 68 73 
-0.867601 0.876485 5.34423 216 199 183 
-0.554275 0.866655 4.80508 160 140 19 
-0.795383 0.935349 5.05838 67 54 45 
-0.377651 0.734257 6.00392 188 175 17 
0.939433 1.05418 4.90575 208 199 192 
0.0704606 1.13815 4.71394 124 112 100 
0.488887 -0.82871 4.14983 15 13 14 
-0.0847853 -0.757686 3.85688 119 0 19 
0.6322 -0.700225 4.07924 82 80 19 
-0.50696 -0.738652 3.9058 196 173 123 
0.915895 -0.508102 4.10901 168 159 144 
-0.250876 -0.526704 3.82878 23 132 67 
0.508109 -0.313148 4.08877 203 162 8 
-0.502085 -0.247988 3.72767 182 158 112 
-0.856936 -0.145802 4.49201 191 153 16 
0.454631 0.0268044 4.5685 9 7 8 
1.41114 0.781548 5.58806 198 189 182 
-0.334871 -0.254811 3.56378 39 20 3 
0.633954 -0.752353 4.06843 51 22 8 
2.62265 -2.59507 14.1344 193 173 123 
0.760182 -0.569615 4.08804 231 186 71 
0.566987 -0.366174 4.08801 4 2 3 
0.686683 -0.332421 4.06848 12 11 9 
-0.938738 -0.098388 4.39431 74 70 71 
-0.605482 0.981849 4.98491 74 58 22 
-0.743247 -0.212997 4.54582 117 116 114 
-1.38167 0.0621403 4.10145 244 211 34 
1.46093 0.842178 5.49386 200 191 184 
-1.2326 0.741425 5.9611 150 139 137 
0.503091 0.973012 4.93114 184 171 152 
0.668354 1.20548 4.4823 210 200 199 
0.658817 -1.01052 4.20861 225 210 187 
-0.805899 1.19965 4.55218 131 121 112 
0.755544 -0.708598 4.00007 96 85 23 
0.748153 -0.512344 4.09946 149 112 6 
0.488036 -0.455605 4.13994 54 53 49 
0.516514 -0.474645 4.13053 105 106 101 
-0.884047 1.21863 4.60257 130 121 112 
0.690907 -0.732674 4.00379 68 90 15 
0.634728 -0.739727 4.0355 41 52 0 
0.732819 -0.719818 3.9761 71 96 0 
0.622139 -0.741653 4.04656 40 23 0 
0.67854 -0.730259 4.00844 74 83 36 
0.723675 -0.717328 3.97973 181 193 117 
0.758288 -0.709287 3.96614 110 131 64 
0.652167 -0.725062 4.02434 157 167 94 
0.737893 -0.70307 3.97276 113 102 38 
0.679059 -0.705951 4.0025 51 62 2 
0.788558 -0.684651 3.93849 73 90 20 
0.801117 -0.673286 3.92881 232 238 200 
0.701981 -0.69028 3.98738 145 147 84 
0.768019 -0.673935 3.9437 62 89 0 
0.660675 -0.68895 4.02606 30 20 11 
0.740925 -0.657858 3.96663 139 157 71 
0.771445 -0.623098 3.95389 155 142 126 
0.816897 -0.608228 3.91163 14 10 1 
0.692698 -0.420648 4.00448 20 18 19 
-0.497985 0.0232212 4.65963 79 46 0 
-0.581964 0.623921 4.65501 149 176 161 
-0.231167 -1.05021 3.85933 171 41 51 
0.627564 -1.00609 4.21259 210 197 178 
0.619037 -0.98613 4.20573 126 102 40 
0.843889 -0.867745 3.98487 140 108 21 
0.822541 -0.866383 4.01053 136 102 5 
0.59051 -0.85492 4.12756 253 239 230 
-0.696625 -0.881751 3.94892 78 60 24 
-0.687932 -0.88876 3.98457 85 66 33 
-0.682134 -0.874668 3.95681 135 111 67 
-0.704035 -0.868712 3.96601 115 91 55 
-0.711578 -0.865685 3.97577 205 181 153 
0.642347 -0.764656 4.03748 187 196 117 
0.630343 -0.758656 4.03979 45 30 9 
0.544103 -0.748275 4.01949 205 188 162 
0.671141 -0.732097 4.01614 222 223 189 
0.71677 -0.722773 3.9874 72 82 21 
0.444151 -0.741013 4.00073 120 97 43 
0.76207 -0.700535 3.96106 228 243 186 
0.653172 -0.702471 4.02991 55 55 21 
0.638558 -0.70421 4.04876 27 31 0 
0.710854 -0.681242 3.96883 144 172 62 
0.673232 -0.690271 4.01619 44 22 11 
0.816846 -0.657193 3.92353 34 34 24 
0.643787 -0.692399 4.04794 108 109 41 
0.82951 -0.643576 3.91067 32 30 18 
0.734118 -0.655834 3.9757 128 139 71 
0.782629 -0.633835 3.93451 56 25 23 
0.664991 -0.668365 4.06942 130 105 48 
0.773036 -0.629109 3.94232 178 162 149 
0.797938 -0.604093 3.93763 39 5 4 
0.792489 -0.596654 3.94435 129 99 91 
0.869025 -0.547595 3.93532 40 35 29 
-0.54184 -0.814319 4.95607 119 104 75 
0.654538 -0.560017 4.13935 142 91 0 
0.698666 -0.529168 4.07761 225 182 44 
0.71471 -0.526455 4.07454 83 41 3 
0.448452 -0.503943 4.10928 124 123 118 
0.666249 -0.459255 4.02313 169 144 17 
0.494423 -0.473129 4.08254 102 102 100 
-0.509894 -0.630481 4.53497 235 227 214 
-0.399065 -0.46528 3.84341 102 87 80 
0.418477 -0.426094 4.16666 11 10 5 
-0.514326 -0.465544 3.94339 189 172 120 
0.578577 -0.339798 4.02807 196 171 29 
-0.53011 -0.440012 3.93524 48 32 0 
-0.520678 -0.429611 3.91938 181 157 113 
-0.545117 -0.430017 3.9217 184 160 114 
-0.240876 -0.346411 3.61591 123 96 43 
-0.395315 -0.352119 3.7058 197 177 124 
-0.408274 -0.351891 3.70798 35 119 57 
0.448583 -0.283144 4.13909 199 167 24 
-0.227921 -0.269061 3.53373 99 77 40 
-0.531085 -0.282329 3.734 208 185 133 
-0.521912 -0.260442 3.73508 54 30 0 
-0.922588 -0.364399 4.68359 125 124 119 
-0.582847 -0.295319 4.52448 191 160 20 
-0.95818 -0.353223 4.69972 80 79 77 
-0.955922 -0.327117 4.68207 104 103 101 
0.420382 -0.1055 4.2406 53 19 0 
0.409666 -0.0885755 4.24037 58 21 2 
0.492787 0.0443128 4.47969 162 156 144 
0.396319 0.0711047 4.5243 64 56 45 
-0.954083 -0.0972394 4.30987 58 57 53 
-0.992395 -0.0966123 4.31053 105 102 93 
-0.943949 -0.0624046 4.28846 11 6 0 
-0.451294 0.0331546 3.99288 30 20 11 
-0.49376 0.0344222 4.65175 246 216 130 
-0.484696 0.0709798 4.63949 113 73 12 
-0.429896 0.12131 4.49501 175 153 104 
-1.10786 0.0857285 4.0979 225 177 33 
0.454292 0.3824 4.90524 124 80 9 
-1.2231 0.154421 3.96169 101 37 9 
0.187785 0.564942 4.87428 20 1 0 
-0.666034 0.612739 4.66161 213 243 231 
-1.25052 0.70851 5.74448 146 139 131 
-1.18277 0.746461 5.63734 149 138 132 
0.817162 -0.577123 3.96498 30 29 25 
-0.804688 -0.31548 4.51082 195 160 34 
-0.974171 -0.300961 4.72131 95 87 76 
0.617558 -1.00194 4.19523 213 201 179 
0.704653 -0.935727 4.09591 227 211 186 
0.762412 -0.933298 4.11586 130 101 21 
0.671035 -0.874949 4.12794 115 64 0 
0.557037 -0.82833 4.09701 240 231 224 
0.620613 -0.800705 4.07419 144 83 78 
0.810122 -0.698851 3.94503 237 236 218 
0.684535 -0.718504 4.0022 173 204 77 
0.748484 -0.689194 3.96067 61 83 10 
0.733452 -0.687138 3.9706 188 216 105 
0.794702 -0.65625 3.92827 31 30 28 
0.688142 -0.657793 4.04431 42 24 2 
0.872405 -0.613842 3.90374 226 226 214 
0.824578 -0.582376 3.92505 137 131 119 
0.819459 -0.573608 3.94592 28 24 21 
0.738501 -0.581805 4.07275 52 22 0 
0.726069 -0.575241 4.08331 226 184 48 
0.541072 -0.617926 4.25083 85 47 2 
0.747081 -0.566011 4.06733 227 188 35 
0.570017 -0.614552 4.25935 49 32 4 
-0.526338 -0.822421 4.95923 42 26 11 
0.585519 -0.550108 4.08713 212 173 20 
-0.514181 -0.644964 4.55958 0 1 0 
0.684215 -0.403897 4.0152 117 118 112 
-0.437479 -0.492087 3.90671 3 57 23 
0.429848 -0.410346 4.19307 164 134 10 
0.670208 -0.360866 4.02674 92 89 82 
0.670524 -0.342835 4.03271 16 14 15 
-0.434222 -0.429568 3.87106 9 15 15 
-0.352532 -0.359478 3.6286 204 183 126 
-0.470571 -0.328907 3.72502 186 168 118 
-0.402193 -0.251876 3.5454 197 174 120 
-0.602669 -0.329365 4.52663 195 159 13 
-0.792249 -0.301048 4.5316 26 22 11 
0.444569 -0.113833 4.24605 199 158 18 
-0.977845 -0.315057 4.72665 163 156 146 
0.41784 -0.0803171 4.27894 176 141 11 
-0.669874 -0.207938 4.48133 188 161 28 
-0.766906 -0.197795 4.44689 100 99 97 
-0.871022 -0.20664 4.43093 116 113 106 
-0.807432 -0.174642 4.45679 108 107 102 
0.393648 0.0324734 4.42745 20 19 17 
0.487806 0.0447295 4.47014 150 142 129 
-0.752074 -0.098106 4.50808 102 80 4 
-0.469468 -0.0291896 4.27666 86 85 81 
-0.46918 -0.0142583 4.25926 13 13 11 
-1.12105 0.104468 4.05891 91 33 0 
0.297391 0.405313 4.86746 171 135 39 
-1.3115 0.0860137 3.98574 100 33 6 
1.23311 0.619262 5.9224 204 198 184 
0.250913 0.412828 4.86 165 130 30 
1.30148 0.781067 5.55957 193 184 177 
0.188719 0.550107 4.86893 19 3 0 
1.22651 0.820762 5.46671 191 181 172 
0.198321 0.612609 4.9104 39 11 0 
-0.677256 0.524518 4.67106 212 200 62 
0.286192 0.87011 4.90222 103 60 5 
-0.828865 0.7328 5.28589 236 191 10 
0.491929 0.969223 4.86028 82 76 64 
-0.8451 0.748347 5.24804 232 184 12 
-0.859867 0.765692 5.23006 144 105 4 
-0.158047 0.942213 5.11149 110 97 81 
-0.314419 0.956013 5.08456 97 84 52 
-0.0978682 1.00189 4.95894 109 97 85 
-0.789323 0.902496 5.03791 39 27 3 
-0.961216 1.00096 4.93488 118 106 94 
-0.946923 1.0241 4.90219 204 191 183 
-0.581252 1.08734 4.73193 213 201 189 
-0.957483 1.05507 4.82415 214 201 192 
-1.08971 1.1217 4.65049 205 194 188 
-1.08877 1.13345 4.63234 132 121 115 
-1.01832 1.14283 4.59162 131 120 114 
-1.02232 1.14953 4.56369 216 206 197 
-0.955316 1.17047 4.52154 219 208 204 
-0.938163 1.17306 4.51505 215 204 202 
-0.925056 1.17459 4.4953 136 125 119 
-0.852976 1.19854 4.4623 218 208 207 
0.622966 -0.978047 4.16476 223 211 189 
0.86463 -0.925164 4.02742 223 211 187 
0.810608 -0.886302 3.99067 221 206 185 
0.613293 -0.818792 4.08803 242 232 220 
0.861969 -0.614656 3.89872 231 229 216 
-0.333521 -0.609066 3.79462 11 2 3 
0.509455 -0.621276 4.24371 225 176 13 
0.516957 -0.613704 4.19701 49 24 0 
0.646215 -0.563295 4.13401 141 92 0 
0.59752 -0.549853 4.10413 200 158 12 
0.674324 -0.483852 4.1053 243 216 135 
-0.164978 -0.410468 3.71185 12 20 9 
0.475257 -0.402896 4.1035 8 7 3 
-0.382289 -0.448195 3.8602 14 2 2 
0.534399 -0.356954 4.07554 200 158 10 
-0.513563 -0.419043 3.90653 168 145 103 
-0.362882 -0.36536 3.66957 204 183 120 
0.450297 -0.238683 4.24534 49 13 0 
-0.819236 -0.248759 4.4196 129 128 126 
-0.731325 -0.227044 4.45929 14 14 4 
-1.0343 -0.140443 4.44602 35 36 22 
-0.785141 -0.0649872 4.51033 180 137 7 
-0.405705 0.123343 4.49975 83 66 38 
-1.09411 0.0840079 4.10259 71 25 10 
0.38045 0.375006 4.89479 112 72 3 
0.320902 0.383709 4.88439 113 73 1 
-1.35668 0.0641812 4.01899 255 255 143 
1.42984 0.831997 5.44169 201 192 185 
-1.22264 0.248782 3.9791 97 52 0 
-0.690001 0.611678 4.66449 64 85 68 
0.363838 0.903799 4.89369 123 86 5 
0.32773 0.904997 4.88241 181 162 132 
-0.757148 0.669802 4.81203 100 60 0 
0.340852 0.968378 4.83271 183 169 156 
0.3637 0.979557 4.82507 72 62 52 
-0.177582 0.918802 5.17413 92 76 53 
-0.176962 0.937606 5.12821 188 172 159 
-0.942001 1.04123 4.86395 120 108 96 
-1.05927 1.14236 4.59599 136 126 117 
0.710723 -0.963116 4.11762 219 205 178 
0.633438 -0.808575 4.05001 248 233 210 
0.823374 -0.701983 3.95911 237 235 220 
-0.980381 1.16494 4.52429 134 124 115 
0.7535 -0.96278 4.11147 212 200 174 
0.810568 -0.901025 3.99634 224 207 191 
0.642431 -0.939645 4.15108 220 174 16 
0.881282 -0.811868 4.04154 105 66 0 
0.57745 -0.837609 4.10553 242 233 224 
0.60253 -0.814192 4.07729 241 233 220 
0.655271 -0.781134 4.03242 250 243 233 
0.587772 -0.730479 4.01821 26 8 4 
0.880142 -0.649126 3.90221 236 234 221 
0.910635 -0.593363 3.94128 22 18 15 
0.798973 -0.583592 4.02512 167 157 145 
0.78612 -0.581813 4.06006 108 55 5 
0.848463 -0.547561 3.95317 169 160 151 
0.714747 -0.57118 4.08899 229 186 45 
0.750123 -0.556017 4.06007 225 182 17 
-0.190579 -0.513951 3.74323 170 35 50 
0.656983 -0.477126 4.12717 8 6 7 
0.639544 -0.464509 4.10892 7 5 8 
0.466595 -0.437845 4.06724 101 102 97 
-0.445045 -0.480886 3.80055 98 100 78 
0.574835 -0.336559 4.06332 206 161 8 
0.573337 -0.331074 4.03412 206 166 9 
-0.425368 -0.341133 3.72145 195 168 115 
-0.681483 -0.446645 4.61392 95 67 27 
-0.502574 -0.288215 3.72944 194 168 117 
-0.596458 -0.292943 4.52137 194 158 8 
0.455018 -0.120766 4.23313 196 154 8 
-0.827415 -0.303488 4.47055 7 8 10 
-0.732659 -0.222428 4.4447 13 12 8 
-0.762705 -0.209939 4.4465 101 100 96 
-0.802987 -0.176224 4.46613 102 101 96 
-0.938422 -0.0986096 4.29889 73 73 65 
-0.454912 0.0954441 4.74437 211 178 39 
-0.481844 0.121354 4.65595 73 39 0 
1.23706 0.641044 5.87089 205 196 187 
1.53917 0.799197 5.48906 210 201 192 
1.27906 0.765652 5.58759 138 129 122 
1.24887 0.795367 5.53645 127 119 108 
1.24467 0.82046 5.47403 194 185 176 
1.3178 0.840193 5.36342 129 120 113 
1.29903 0.843965 5.42321 189 180 171 
0.497175 0.887267 4.93797 133 96 7 
-0.611908 0.615605 4.64447 63 87 74 
0.902601 1.01971 4.93969 211 202 195 
-0.84912 0.776715 5.248 146 107 6 
0.251462 0.998554 4.90907 57 42 13 
-0.102587 0.982785 5.00599 193 180 172 
-0.0848101 0.999874 4.96531 119 103 87 
-0.768285 0.900355 5.00046 140 125 102 
0.656869 1.19756 4.46146 214 204 202 
-0.416861 1.03889 4.86341 120 103 85 
-0.324168 1.14623 4.62845 147 136 132 
-0.640658 1.12651 4.64997 216 205 199 
-0.129091 1.2834 4.23743 155 143 143 
-1.05629 1.14914 4.6199 135 125 116 
-0.879966 1.1892 4.45818 134 123 117 
0.822945 -0.905358 3.99506 222 207 188 
0.603664 -0.645124 4.13563 146 108 7 
0.627612 -0.593469 4.16163 33 20 4 
0.646108 -0.339233 4.0296 12 12 12 
0.6322 -0.369433 4.29321 204 163 11 
-0.187067 -0.370698 3.76223 194 166 116 
-0.375407 -0.356058 3.66847 210 184 125 
0.500567 -0.283501 4.11021 203 162 8 
-0.373544 -0.290702 3.54796 222 198 138 
-0.837344 -0.377312 4.61815 233 199 6 
-0.835843 -0.257692 4.44615 134 133 128 
1.619 1.01566 4.98191 124 117 107 
-0.617328 0.619132 4.66334 61 93 82 
0.370898 0.890463 4.89846 135 98 7 
0.906862 1.0221 4.92123 213 204 197 
0.24686 1.00111 4.89909 64 51 32 
-0.633283 1.0219 4.84676 73 55 17 
-0.97632 1.05697 4.80827 215 204 200 
0.547873 -0.51826 4.04782 194 154 5 
0.520606 -0.35301 4.09661 202 161 9 
0.49749 -0.232638 4.11751 123 86 8 
-0.946496 -0.380478 4.69098 147 143 132 
-0.725677 -0.211859 4.45694 14 13 11 
-0.119006 0.983183 4.99868 192 179 171 
-0.524384 1.06642 4.80016 203 189 176 
-0.963846 1.02898 4.8967 207 196 190 
0.788254 -0.874489 4.03108 227 184 7 
0.688451 -0.746532 4.01944 223 231 172 
0.694983 -0.685145 3.99263 68 21 11 
0.73673 -0.638054 3.99918 79 36 20 
0.596054 -0.591279 4.17997 54 29 7 
0.680532 -0.581429 4.14106 233 189 28 
0.511799 -0.463361 4.04802 15 13 16 
0.566495 -0.387442 4.0472 5 6 10 
0.639022 -0.365476 4.04428 20 20 22 
0.505287 -0.349176 4.1087 203 160 6 
0.548198 -0.276737 4.08452 211 168 4 
0.502189 -0.174737 4.18361 197 155 7 
0.474916 -0.137775 4.19741 194 152 8 
-0.759589 -0.292712 4.47603 207 169 8 
0.622807 -0.0736553 4.39546 81 33 0 
