ply                 
format ascii 1.0    
element vertex 1261
property float x    
property float y    
property float z    
property uchar red  
property uchar green
property uchar blue 
end_header          
-4.9693 2.46092 7.37616 37 32 29 
-4.99037 2.52494 7.47116 65 58 50 
-4.99239 2.64554 7.71474 37 32 29 
-0.206852 -1.05776 4.00425 189 35 47 
0.675153 -0.986475 4.26087 229 219 194 
0.635676 -0.970029 4.26843 225 213 189 
0.84801 -0.851381 4.10231 225 189 15 
-0.56275 -0.792175 4.19799 124 99 69 
-0.577356 -0.767168 4.14373 38 20 8 
0.628013 -0.767117 4.14898 80 48 37 
0.822811 -0.673611 4.01492 84 91 57 
-0.305196 -0.535472 3.92379 2 23 6 
0.758655 -0.562244 4.15923 228 184 33 
-0.0691871 -0.484027 3.96677 121 120 100 
0.758161 -0.506044 4.13244 217 172 8 
-0.0553389 -0.457506 3.98692 114 125 108 
0.651465 -0.467969 4.13531 170 141 5 
0.675776 -0.461544 4.13615 179 139 7 
-0.0819346 -0.438322 3.96456 69 19 20 
-0.0660133 -0.436087 3.98353 126 124 111 
0.659369 -0.454244 4.13978 25 22 7 
-0.104743 -0.426599 3.97059 100 107 91 
-0.0575833 -0.419968 3.96616 19 33 18 
0.0212648 -0.405779 3.98578 112 98 63 
0.72958 -0.422847 4.12117 126 126 118 
0.495442 -0.428703 4.23015 80 79 75 
0.69658 -0.40098 4.11494 115 115 113 
0.505279 -0.37417 4.22263 196 161 9 
-0.13344 -0.333627 3.81845 205 180 123 
0.684045 -0.357922 4.12729 84 84 82 
-0.0805243 -0.317447 3.82105 176 162 115 
-0.066725 -0.311744 3.82314 24 67 22 
0.687102 -0.3286 4.14543 8 10 7 
-0.208826 -0.270451 3.67747 46 29 11 
-0.031691 -0.251234 3.80834 60 39 8 
0.345364 -0.238341 4.51458 163 135 28 
0.502804 -0.201515 4.29529 191 154 13 
0.29772 -0.166274 4.49475 76 72 63 
0.461557 -0.113031 4.36382 196 155 5 
-0.882073 -0.0987657 4.57068 69 62 43 
0.444396 -0.0717741 4.36989 192 160 39 
-0.909148 -0.0535284 4.49077 7 6 2 
-0.857601 -0.0462059 4.59797 12 0 0 
0.526488 0.0311228 4.58854 17 17 5 
0.498982 0.0351621 4.58322 17 14 7 
0.448999 0.0362163 4.54759 78 69 60 
-0.892192 0.164735 4.52971 2 3 0 
-0.884664 0.168762 4.54268 12 7 4 
-1.20426 0.716595 5.95565 157 146 140 
1.29086 0.720233 5.63017 202 197 194 
1.23931 0.757348 5.53782 114 104 95 
-0.423986 0.821858 5.21025 220 176 25 
0.310507 0.862398 5.00809 105 61 0 
-0.14861 0.918153 5.31158 98 82 59 
0.36553 0.903159 4.99252 208 183 152 
0.618629 0.935193 4.99517 200 184 161 
-0.297259 0.974675 5.17451 208 192 179 
-0.0583645 0.973975 5.1446 201 187 176 
-0.93246 0.996351 5.21356 133 123 113 
-0.308476 0.998678 5.09561 127 111 88 
-0.0264727 1.01488 5.04648 207 193 184 
-0.482697 1.05095 4.99894 104 91 57 
-0.531665 1.0856 4.93339 190 178 164 
-0.548354 1.09605 4.90093 217 205 193 
-0.261344 1.15731 4.71241 150 140 131 
0.758369 1.14085 4.63577 214 203 197 
-0.898891 1.21197 4.67941 144 135 130 
-4.9708 2.25857 7.97512 52 51 46 
-4.95055 2.26843 7.88918 51 44 36 
-4.98446 2.46268 7.54476 121 111 102 
-4.99117 2.45662 7.44647 49 43 43 
0.675948 -0.963737 4.2603 159 116 22 
0.64428 -0.953371 4.27389 121 88 17 
-0.170187 -0.612204 3.91709 5 5 3 
0.818974 -0.611247 3.99417 28 26 11 
-0.0643379 -0.485264 3.97471 118 117 96 
-0.145313 -0.469777 3.97569 76 89 69 
-0.092033 -0.444994 3.96847 30 0 2 
0.507546 -0.466644 4.19326 103 99 96 
-0.0848218 -0.315988 3.81705 184 167 115 
-0.188539 -0.270453 3.68923 46 34 12 
-0.208554 -0.253191 3.67318 218 196 146 
0.338654 -0.138376 4.50748 96 76 3 
-0.907041 -0.123094 4.56584 92 85 75 
0.464068 -0.114073 4.34176 202 158 9 
-1.02396 -0.081467 4.51965 21 10 4 
-0.891334 -0.0614852 4.51747 102 99 90 
-0.870728 -0.0547321 4.58478 10 5 2 
-1.01402 -0.0141968 4.40375 235 197 12 
0.320602 -0.0166959 4.59799 15 8 0 
-0.805874 0.0366273 4.65465 188 150 7 
0.17617 0.0476057 4.73104 58 29 0 
-1.08251 0.056328 4.28956 188 132 0 
-0.835449 0.0568105 4.59861 23 14 5 
-0.885264 0.161316 4.53085 6 7 2 
1.23921 0.609728 5.94482 211 200 194 
-0.436717 0.533997 5.11156 24 4 5 
-0.437498 0.586199 5.14578 63 28 0 
0.309461 0.861662 5.01047 105 61 0 
0.510752 0.884828 5.0222 130 92 7 
-0.313462 0.932461 5.2489 189 173 160 
0.388319 0.899833 5.00551 125 89 3 
-0.288936 0.952536 5.22057 106 90 64 
0.365539 0.963769 4.9648 200 188 164 
-0.913798 1.05652 5.06156 146 133 124 
-0.483077 1.05108 5.00413 103 91 53 
-0.934811 1.0668 5.02978 218 209 204 
-0.507959 1.07142 4.969 214 200 187 
-0.546827 1.09841 4.89604 221 209 197 
-1.04406 1.13605 4.89322 136 125 119 
-1.00946 1.17227 4.78564 228 218 216 
-0.262973 1.15794 4.70614 157 147 138 
-4.95452 2.23985 7.96118 55 50 44 
-0.560224 -0.783718 4.1884 120 93 64 
-0.22582 -0.27942 3.67671 203 173 123 
-0.677918 -0.869284 4.13598 132 108 72 
0.928488 -0.636073 4.01682 24 25 20 
0.698254 -0.521044 4.15275 245 203 57 
0.602677 -0.456525 4.15389 5 6 8 
-0.16521 -0.342663 3.79489 202 173 117 
-1.04263 -0.0725222 4.45684 230 194 10 
0.354462 -0.0397749 4.49159 3 3 1 
0.0800197 -0.035812 4.35223 81 77 68 
-1.04138 -0.0190992 4.41244 231 194 15 
-0.844017 -0.00393839 4.60204 6 6 4 
-0.958498 -0.00206281 4.4528 211 172 7 
-0.884611 0.161556 4.53667 6 7 2 
-4.88152 0.701121 7.77525 140 130 121 
1.29843 0.710986 5.62341 207 198 191 
0.553424 0.73947 5.09127 139 92 4 
1.20653 0.792513 5.43014 192 185 177 
0.266326 0.810447 5.05722 178 135 4 
0.310797 0.858675 5.00667 99 57 0 
-0.306523 0.934782 5.29999 189 172 162 
0.391074 0.895992 5.01015 119 81 0 
0.604751 0.936816 4.99258 192 181 153 
0.485891 0.946997 4.96559 199 184 161 
0.359562 0.960529 4.94554 201 187 160 
-0.313725 0.993717 5.10497 127 111 85 
-0.0547542 1.00071 5.10936 126 114 98 
-0.381733 1.03579 4.9814 131 115 89 
-0.938638 1.06624 5.02841 223 214 209 
0.865419 1.04962 4.85681 215 204 200 
-1.04143 1.13668 4.89973 136 126 116 
-1.01303 1.17573 4.79481 228 218 216 
-0.969375 1.17993 4.72643 149 138 132 
-0.143914 1.22243 4.53393 150 139 133 
0.47224 1.21911 4.44951 147 137 128 
-4.9453 2.22771 7.9497 65 62 57 
-0.314658 0.956064 5.20276 111 90 59 
0.746315 -0.959134 4.19428 236 226 201 
0.590168 -0.913701 4.30081 172 164 151 
0.679719 -0.884377 4.24442 92 42 7 
0.698518 -0.384778 4.14437 102 101 97 
1.31008 0.82098 5.3797 129 120 111 
-0.445034 0.804087 5.01109 123 82 3 
0.349057 0.814555 5.02842 183 141 5 
0.391662 0.883671 5.00575 137 99 0 
0.342774 0.910199 5.00021 191 177 140 
-0.943677 1.06254 5.00761 221 211 209 
0.293182 1.21721 4.51598 149 136 127 
0.796094 -0.796411 4.25486 162 108 10 
-0.431463 -0.347913 4.02556 201 176 120 
-0.954486 0.0176028 4.44635 206 171 7 
0.42532 0.0293763 4.56602 13 13 11 
-1.03043 0.0879756 4.32038 241 203 8 
1.32845 0.690379 5.66923 210 201 194 
0.363832 0.821195 5.03106 185 143 7 
-0.25783 0.935177 5.23151 186 170 155 
-0.887498 0.173569 4.56733 7 0 0 
-0.225679 -0.521982 3.90978 31 129 68 
0.587483 -0.790011 4.14655 84 74 65 
0.608812 -0.759407 4.12917 185 89 90 
0.689912 -0.713065 4.06691 181 206 105 
0.643799 -0.7194 4.10003 39 47 0 
0.655261 -0.701377 4.09363 149 157 100 
0.667284 -0.698202 4.08534 192 179 160 
0.708382 -0.679523 4.04991 152 156 95 
0.658018 -0.687243 4.10192 41 42 0 
0.718273 -0.664444 4.04363 26 18 0 
0.726558 -0.65567 4.03975 145 135 108 
0.743532 -0.646871 4.02342 130 148 66 
0.77423 -0.63399 3.99844 31 41 0 
0.796963 -0.627676 3.97878 27 27 0 
0.77629 -0.622889 4.00299 169 162 146 
0.811944 -0.608938 3.97181 12 9 4 
-1.09322 0.227175 4.04832 95 40 0 
-0.624138 0.620041 4.82762 201 221 212 
0.856068 -0.857209 4.0581 139 104 10 
0.679526 -0.887693 4.25201 85 28 0 
0.616437 -0.745187 4.12006 43 0 0 
0.657603 -0.734819 4.08795 28 40 0 
0.714999 -0.65313 4.05239 169 136 121 
0.476311 -0.445003 4.1593 48 47 43 
0.51388 -0.251254 4.15081 197 160 17 
0.548717 -0.243252 4.15655 203 162 12 
0.467732 -0.233142 4.3145 45 13 0 
0.300054 -0.210415 4.45713 96 96 84 
0.331289 -0.129576 4.45052 102 86 35 
0.356237 -0.0631451 4.45314 114 94 21 
0.373125 -0.0464516 4.45541 114 90 30 
0.410338 -0.012035 4.48547 18 4 0 
0.207187 0.448122 4.92794 83 46 0 
0.206478 0.473104 4.92365 70 31 2 
-0.61052 0.622951 4.84106 226 252 243 
-1.19294 0.70975 5.8955 151 140 138 
-0.139728 0.923844 5.20883 195 178 170 
0.512737 -0.900665 4.27117 36 35 33 
0.762365 -0.847038 4.17075 92 33 3 
0.563412 -0.831666 4.18463 38 37 33 
0.639497 -0.749294 4.10602 50 30 6 
0.695538 -0.675243 4.05481 63 15 3 
0.823031 -0.630246 3.95712 35 32 25 
0.663571 -0.577763 4.20665 251 211 97 
0.609319 -0.475017 4.11321 185 152 13 
-0.0755808 -0.447747 3.91062 19 3 3 
0.577257 -0.343732 4.13404 201 160 10 
0.330257 -0.113795 4.44973 12 4 1 
0.666407 -0.0670974 4.45299 104 52 2 
0.491819 -0.0668584 4.32499 148 113 13 
-1.28987 0.192072 4.11389 245 233 217 
1.54351 0.77225 5.5095 200 193 185 
-0.58799 0.517395 4.73978 136 115 6 
-0.609835 0.523664 4.75911 219 205 72 
-0.16402 0.899923 5.28366 171 157 146 
0.495374 0.941779 4.93905 185 174 154 
-0.3213 0.928692 5.2172 182 165 149 
0.673389 -0.959336 4.24474 141 105 17 
0.818527 -0.89592 4.06928 221 206 185 
0.752725 -0.915848 4.15868 143 106 26 
0.855324 -0.881843 4.04664 217 202 179 
0.721691 -0.908409 4.17155 131 94 13 
0.513415 0.0501242 4.55515 150 140 130 
-1.01342 -0.0400382 4.35668 137 89 13 
0.398333 0.370646 4.9579 107 67 0 
1.51782 0.766591 5.47842 197 192 186 
1.37928 0.797852 5.40259 193 184 179 
1.29752 0.816481 5.404 124 115 110 
-0.916531 0.97821 5.11789 129 116 107 
-0.305286 1.12843 4.68957 141 130 124 
0.830895 -0.579184 3.98421 155 146 137 
0.447194 -0.66433 4.85693 165 155 143 
-0.143178 0.906673 5.25716 101 83 61 
-0.899939 1.03933 4.97878 139 127 115 
0.747514 -0.946769 4.15877 221 208 189 
0.56446 -0.844173 4.19293 29 30 25 
0.610118 -0.697089 4.1403 87 24 0 
0.725379 -0.531228 4.13236 106 52 5 
0.598522 -0.464273 4.11104 5 1 0 
-0.703642 -0.623874 4.88716 226 217 202 
0.562087 -0.360061 4.12262 6 7 2 
0.536543 -0.346957 4.13779 203 162 10 
0.582707 -0.331167 4.12515 201 160 10 
0.522075 -0.228812 4.16867 112 79 2 
0.503895 -0.19045 4.25909 184 145 8 
0.3904 -0.0413825 4.45745 126 97 3 
1.39086 0.804977 5.44748 191 182 175 
0.597451 0.925694 4.9349 185 170 149 
0.271353 0.98411 4.97173 70 46 20 
0.782206 1.11147 4.64943 208 199 194 
-0.379515 1.02721 4.94805 126 109 89 
-0.907085 1.00086 5.06901 124 112 100 
0.678675 1.15126 4.54049 147 137 128 
-2.12145 0.991097 5.2562 227 215 215 
-1.02005 1.11213 4.79329 128 117 111 
0.622613 -0.485886 4.09418 189 147 9 
0.582552 -0.322684 4.11764 199 157 9 
1.51798 0.773925 5.55166 204 194 192 
1.55467 0.972758 4.95024 121 112 105 
0.264824 0.984705 4.94701 70 52 32 
0.899382 1.07046 4.76282 146 135 131 
-2.15056 1.06724 5.05743 228 217 221 
0.678411 -0.585306 4.20578 244 210 86 
0.288369 1.20062 4.45042 136 126 117 
0.771321 -0.591235 4.13045 56 13 0 
0.671285 -0.415198 4.08917 14 15 17 
0.35951 0.812133 4.9765 177 138 37 
-0.284619 1.13894 4.65326 152 141 139 
0.879487 -0.799043 4.11535 105 55 6 
-0.256105 -0.361519 3.94579 215 189 132 
0.523614 -0.309363 4.16945 201 160 10 
0.707842 -0.717708 4.08002 184 210 101 
0.735933 -0.709367 4.05722 205 217 145 
0.720147 -0.699878 4.06283 50 49 3 
0.756318 -0.680709 4.03333 43 66 0 
0.778136 -0.665477 4.0154 32 59 0 
0.733032 -0.687713 4.0492 37 28 0 
-0.089466 -0.434448 3.93062 51 6 9 
1.38455 0.79745 5.41369 193 184 179 
-1.018 1.1715 4.80737 145 134 128 
0.360221 0.907702 4.97886 176 160 134 
0.909738 1.05604 4.72786 153 145 134 
1.33033 0.694701 5.70569 201 192 185 
0.731352 -0.971355 4.33593 255 241 92 
-0.644037 -0.896377 4.10957 227 211 177 
-0.654495 -0.898224 4.14102 83 65 29 
-0.669952 -0.889075 4.12544 204 196 160 
0.598659 -0.811717 4.23198 244 236 225 
0.662338 -0.797023 4.19912 86 23 16 
0.659845 -0.77905 4.18578 73 20 12 
0.703355 -0.771665 4.17341 217 231 156 
0.691785 -0.766177 4.16883 57 73 0 
0.70106 -0.760869 4.162 43 61 0 
0.664755 -0.765824 4.18133 192 114 102 
0.794824 -0.728289 4.10621 112 130 18 
0.722494 -0.738488 4.13714 208 223 140 
0.748009 -0.732592 4.12991 59 84 0 
0.655327 -0.74645 4.1868 151 88 73 
0.771061 -0.721211 4.1061 77 98 0 
0.803907 -0.717251 4.0978 191 216 122 
0.53472 -0.730811 4.08356 158 142 91 
0.760053 -0.718403 4.10681 183 198 115 
0.689035 -0.734824 4.16402 70 89 0 
0.785262 -0.71354 4.1006 68 91 0 
0.834576 -0.710784 4.09537 96 125 6 
0.772858 -0.713194 4.0983 195 210 109 
0.677996 -0.733082 4.17459 51 60 5 
0.175527 -0.736329 4.03405 23 6 0 
0.691582 -0.726455 4.15746 155 169 84 
0.749036 -0.710575 4.12271 61 68 14 
0.182028 -0.725411 4.01754 23 11 0 
0.713363 -0.715251 4.14527 72 78 40 
0.814309 -0.691216 4.08024 50 80 0 
0.689569 -0.714659 4.16784 141 152 83 
0.86143 -0.677769 4.05161 231 231 207 
0.751563 -0.69525 4.11704 30 33 0 
0.840955 -0.675028 4.06001 231 235 208 
0.874288 -0.671357 4.0569 232 229 210 
0.802221 -0.680824 4.0834 54 83 0 
0.744999 -0.683535 4.12045 53 34 1 
0.823857 -0.664661 4.06354 161 172 132 
0.696451 -0.694618 4.16946 143 137 121 
0.753766 -0.676867 4.11692 34 23 1 
0.784072 -0.665619 4.09385 47 67 0 
0.824345 -0.64572 4.06122 140 144 119 
0.811982 -0.64685 4.0732 45 55 5 
0.840053 -0.641522 4.06275 17 25 2 
0.715358 -0.670404 4.17977 135 109 76 
0.708327 -0.672371 4.19283 42 22 0 
0.80778 -0.623747 4.08017 151 143 122 
0.530444 -0.508125 4.23557 152 146 134 
-0.0522472 -0.474014 3.97138 49 26 20 
0.748608 -0.424701 4.16306 26 25 21 
-0.0739747 -0.460737 3.95324 126 109 102 
-0.100478 -0.429429 3.96625 27 35 24 
-0.510397 -0.443475 4.09217 40 25 2 
-0.490622 -0.370354 4.04446 62 38 0 
-0.20452 -0.253475 3.67119 217 197 146 
-0.246384 -0.254366 3.66497 43 21 0 
-0.305265 -0.254996 3.67542 39 20 3 
-0.357532 -0.259644 3.70625 190 168 127 
0.603343 0.0136842 4.66649 50 37 18 
-0.456057 0.022011 4.84779 199 160 57 
-0.534608 0.632997 4.8286 162 179 163 
0.700894 -0.991303 4.28948 230 218 192 
0.658505 -0.973993 4.30059 227 212 193 
0.669302 -0.959555 4.31682 132 94 9 
0.850044 -0.88486 4.12872 223 206 180 
0.89881 -0.874855 4.14065 135 103 28 
0.857991 -0.867003 4.1373 140 100 5 
0.699075 -0.899699 4.32951 86 37 0 
0.804852 -0.864743 4.25364 101 43 3 
0.915594 -0.812265 4.1614 110 63 7 
0.500562 -0.875204 4.32185 24 24 16 
-0.655848 -0.894224 4.11501 79 61 25 
-0.630447 -0.88935 4.11617 212 195 143 
-0.640685 -0.88895 4.12364 137 114 72 
-0.664155 -0.880451 4.12877 111 92 60 
-0.672835 -0.875572 4.13487 203 188 155 
0.691752 -0.787959 4.18236 242 232 222 
0.628021 -0.793643 4.19482 237 227 217 
0.651143 -0.789768 4.19612 212 115 108 
0.682379 -0.778538 4.18078 76 49 28 
0.639808 -0.783439 4.19971 82 42 32 
0.716527 -0.766885 4.16514 102 105 62 
0.693194 -0.74905 4.16473 31 42 0 
0.704394 -0.741885 4.15327 51 64 10 
0.709265 -0.733746 4.14678 217 225 186 
0.755029 -0.724145 4.1177 68 79 11 
0.843656 -0.697604 4.07314 243 236 218 
0.782819 -0.703163 4.095 187 207 110 
0.756333 -0.707552 4.11526 155 153 115 
0.857228 -0.683521 4.06357 78 79 47 
0.762526 -0.6986 4.10981 29 25 0 
0.774365 -0.691085 4.10337 159 187 66 
0.81792 -0.679407 4.07294 179 211 88 
0.717937 -0.700532 4.14286 193 179 166 
0.859678 -0.664788 4.05089 87 87 61 
0.667109 -0.708103 4.20608 113 113 27 
0.713218 -0.691764 4.14996 54 26 14 
0.849724 -0.657352 4.04396 35 36 18 
0.81351 -0.664332 4.068 152 174 89 
0.768999 -0.666834 4.10087 60 63 20 
0.868586 -0.646061 4.03995 40 38 26 
0.676646 -0.694849 4.21124 42 36 2 
0.71125 -0.681446 4.17118 33 18 11 
0.749434 -0.665342 4.12371 171 133 124 
0.772411 -0.656945 4.10565 136 137 80 
0.822066 -0.635441 4.06516 56 27 19 
0.857009 -0.614345 4.04512 26 16 14 
0.71213 -0.673953 4.303 48 13 7 
0.801799 -0.620371 4.09333 78 36 20 
0.831501 -0.604536 4.05926 48 18 18 
0.83494 -0.598641 4.0798 122 93 89 
0.830192 -0.612652 4.23067 114 73 9 
0.582528 -0.657097 4.39429 253 229 165 
0.836808 -0.606798 4.26013 44 3 0 
0.64258 -0.609293 4.37722 30 19 1 
0.657191 -0.604006 4.35126 35 15 4 
-0.167956 -0.589724 3.9093 40 120 69 
0.564256 -0.611457 4.36156 90 52 3 
0.733758 -0.5284 4.20431 253 214 95 
0.764898 -0.520345 4.20088 255 228 95 
0.513861 -0.53848 4.32432 14 15 1 
0.539874 -0.506769 4.22918 25 22 13 
0.55813 -0.500655 4.21369 9 9 0 
-0.280853 -0.523555 3.92069 31 126 70 
0.533793 -0.486106 4.21055 6 8 5 
-0.087304 -0.455754 3.94939 42 17 12 
0.0347735 -0.450234 3.99524 113 109 71 
0.499261 -0.45523 4.4735 18 19 14 
-0.0467023 -0.43379 3.99399 120 113 107 
0.743512 -0.375639 4.13556 135 136 131 
-0.038952 -0.426695 3.98941 0 13 4 
0.481247 -0.437565 4.44146 165 152 133 
0.510435 -0.40324 4.25361 12 11 7 
-0.122559 -0.421364 3.9835 0 6 3 
-0.471615 -0.470516 4.10318 193 173 122 
0.711357 -0.360035 4.16518 84 83 79 
-0.467544 -0.460265 4.0901 51 42 9 
-0.485995 -0.462434 4.09608 80 64 28 
-0.370903 -0.440806 4.02356 96 96 86 
-0.329715 -0.434043 4.00291 82 88 74 
-0.340256 -0.423686 4.00813 0 10 0 
0.578424 -0.36062 4.20535 195 164 22 
-0.470242 -0.441186 4.07249 17 14 0 
0.609487 -0.352324 4.20995 193 157 19 
0.619852 -0.34047 4.16371 213 178 36 
-0.478124 -0.433717 4.07875 186 169 126 
-0.503431 -0.433835 4.07951 192 170 123 
-0.463394 -0.370343 4.03445 20 32 8 
-0.42813 -0.331863 3.87905 169 158 113 
-0.441056 -0.326408 3.87291 19 53 16 
-0.359428 -0.289244 3.71678 228 208 158 
-0.375171 -0.283485 3.70678 40 24 0 
-0.336865 -0.259558 3.68864 57 40 14 
0.501509 -0.237786 4.40061 44 15 0 
-0.358379 -0.254699 3.69604 194 170 122 
-0.542142 -0.319527 4.72174 105 68 13 
-0.876007 -0.365658 4.88155 134 133 131 
-0.533423 -0.295891 4.7126 209 173 25 
-0.760619 -0.316035 4.68953 207 177 53 
-0.771784 -0.307747 4.68414 15 15 15 
-0.758145 -0.299661 4.66879 37 32 13 
-0.908 -0.32894 4.89151 110 107 102 
-0.679049 -0.232115 4.66349 8 5 0 
0.447304 -0.0786386 4.3963 175 141 17 
0.470219 -0.0728232 4.40542 185 153 54 
0.386095 -0.0642654 4.53751 121 97 35 
-0.723273 -0.194456 4.62823 116 114 115 
0.392193 -0.051278 4.54972 11 0 0 
0.406584 -0.0466245 4.54904 112 91 28 
-0.793651 -0.185745 4.6711 116 115 111 
-0.329183 -0.0785483 3.96056 151 130 113 
0.342176 -0.0125303 4.65785 13 9 0 
0.556157 0.0328892 4.64147 33 28 22 
0.391743 0.0273036 4.67823 22 15 5 
0.421987 0.0481593 4.68188 54 45 36 
-0.914181 -0.0951142 4.4826 65 61 62 
0.444054 0.0735533 4.68169 62 52 40 
-0.117408 0.0421855 3.99399 36 19 0 
-1.0077 -0.0798029 4.48648 9 1 0 
-0.821745 0.00112433 4.56156 20 10 8 
-0.431738 0.075604 4.83373 46 12 0 
-1.05698 0.0882375 4.26844 53 14 9 
-1.34273 0.0515063 4.17001 134 74 11 
-1.27628 0.0991306 4.15756 99 34 4 
-0.866879 0.170893 4.51894 13 10 3 
0.627868 0.418717 5.11127 108 71 0 
0.629917 0.445222 5.11747 99 56 1 
-1.28176 0.140066 4.16243 115 57 0 
-1.32682 0.148883 4.17258 127 90 22 
-1.16616 0.204218 4.1357 243 200 8 
-1.2925 0.192832 4.15523 247 236 214 
-1.26189 0.200176 4.10079 253 238 217 
0.234924 0.482871 5.02253 78 45 2 
-1.09476 0.233708 4.0845 85 28 1 
-0.756067 0.392055 5.30023 55 11 0 
0.241391 0.569178 5.04961 22 4 0 
-1.14044 0.296549 4.09723 229 213 200 
0.251271 0.636841 5.11837 61 28 0 
-0.601819 0.63292 4.9149 235 255 244 
-1.18808 0.695531 6.0362 165 154 148 
0.541702 0.89746 5.10133 112 82 12 
-1.19333 0.720591 5.97735 156 145 143 
0.415535 0.913482 5.07596 93 61 0 
-1.12732 0.75666 5.85334 162 151 145 
-0.122824 0.941415 5.29805 201 184 174 
-0.72325 0.911968 5.21152 140 127 110 
-0.291194 1.01156 5.1277 112 98 85 
0.669788 -0.802578 4.19338 251 239 225 
-0.57543 0.108846 5.37855 234 200 92 
0.3805 0.982113 4.97503 176 164 150 
-0.149218 -0.999132 3.93751 138 10 25 
0.788072 -0.953139 4.22239 225 213 191 
0.859752 -0.918737 4.16403 224 210 184 
0.740763 -0.937646 4.22522 228 210 186 
0.792543 -0.933183 4.23585 144 107 18 
0.68709 -0.953208 4.31838 228 186 22 
0.755827 -0.923685 4.24877 137 93 22 
0.669637 -0.938938 4.40845 108 86 28 
0.787266 -0.859466 4.24744 88 33 0 
-0.669244 -0.862248 4.13573 123 106 78 
0.491025 -0.743324 4.17019 219 185 34 
0.543999 -0.726901 4.12691 135 105 35 
0.704753 -0.711825 4.1553 201 189 173 
0.787315 -0.690499 4.0912 56 79 1 
0.730336 -0.692274 4.13656 94 46 32 
0.933727 -0.656431 4.03236 233 234 220 
0.765411 -0.684998 4.11897 142 161 53 
0.867818 -0.659378 4.04085 83 80 63 
0.792958 -0.657914 4.09387 94 108 29 
-0.563255 -0.762964 4.13456 37 15 2 
0.820029 -0.609399 4.08401 77 48 44 
0.703644 -0.610915 4.2874 236 196 75 
0.816966 -0.574928 4.18616 108 63 0 
0.679397 -0.608793 4.3149 54 33 4 
-0.275792 -0.597538 3.92637 32 127 69 
0.685635 -0.559976 4.26471 139 93 0 
0.749495 -0.52734 4.19941 97 51 1 
0.518475 -0.552062 4.38763 26 20 4 
-0.166439 -0.527548 3.90256 16 16 6 
0.520114 -0.540144 4.33991 12 15 6 
-0.29656 -0.53019 3.91601 5 9 0 
0.693243 -0.480321 4.16948 99 61 0 
0.698362 -0.464131 4.16143 172 142 10 
-0.486517 -0.658566 4.78839 3 25 12 
0.53322 -0.472883 4.21832 95 96 91 
-0.124456 -0.478092 3.9105 62 13 9 
0.506185 -0.451995 4.23584 54 53 49 
-0.32635 -0.471965 3.97614 78 83 63 
0.517167 -0.428943 4.22887 78 77 75 
-0.343513 -0.47121 3.9882 54 18 18 
-0.0821524 -0.435658 3.94824 60 16 17 
-0.369824 -0.468027 3.99921 49 20 16 
0.47033 -0.429451 4.32651 17 14 7 
-0.0870543 -0.426385 3.96633 109 111 97 
0.742016 -0.365602 4.15545 49 48 44 
-0.348831 -0.441669 3.98828 51 13 10 
0.479911 -0.412479 4.34962 170 145 18 
0.532547 -0.378404 4.25603 179 150 10 
0.599475 -0.36558 4.20963 4 2 3 
-0.390102 -0.434602 4.03024 15 26 18 
0.710281 -0.343599 4.16556 8 6 7 
0.722382 -0.332662 4.19533 12 11 9 
-0.468906 -0.42639 4.06046 171 157 122 
-0.053122 -0.312006 3.80492 39 80 40 
-0.380214 -0.341442 3.83748 183 160 110 
0.453684 -0.298191 4.44617 211 173 12 
-0.206196 -0.275842 3.65401 239 221 173 
0.545825 -0.258088 4.22523 205 164 12 
0.581782 -0.249552 4.23033 214 169 8 
0.56573 -0.244343 4.23653 94 49 0 
-0.192016 -0.253762 3.66052 205 184 139 
0.530441 -0.202518 4.33734 185 148 18 
-0.552041 -0.330898 4.72111 207 172 10 
-0.772149 -0.288597 4.65611 129 129 129 
0.464432 -0.127642 4.3893 173 138 12 
-0.742763 -0.251397 4.6237 81 80 75 
0.362826 -0.115999 4.5433 15 8 2 
-0.777081 -0.244151 4.59072 135 136 130 
0.46326 -0.0896773 4.39867 60 36 2 
0.524685 -0.0674353 4.4078 144 110 12 
-0.740577 -0.202488 4.62695 47 46 41 
-0.792416 -0.188164 4.68566 114 114 112 
0.584029 0.0176371 4.66237 44 40 31 
0.353677 0.0129618 4.66949 143 132 114 
-0.880979 -0.1265 4.50231 97 84 68 
0.450182 0.0332181 4.5985 15 14 12 
0.544516 0.0467331 4.64387 151 144 128 
0.415572 0.0302145 4.66716 18 9 0 
0.404371 0.0421742 4.68304 156 146 134 
-0.913967 -0.113433 4.49271 142 138 135 
0.49341 0.0651629 4.62355 75 70 67 
-0.961606 -0.105729 4.4936 19 15 12 
-0.421479 -0.0114089 4.43335 14 13 11 
-0.899512 -0.0573964 4.47055 17 16 14 
-1.00981 -0.0404145 4.41548 130 86 0 
-0.457928 0.0324445 4.84778 212 174 11 
-0.965658 -0.0231181 4.41934 215 175 15 
-0.445031 0.0400158 4.8362 222 184 23 
-0.754449 0.00318432 4.72988 198 164 28 
-0.820603 0.000888483 4.57592 19 11 8 
-0.433804 0.0736749 4.82123 48 14 2 
-0.786996 0.0345043 4.66298 171 137 11 
-0.993255 0.0106948 4.32877 132 86 8 
-1.33425 0.037081 4.20574 246 210 52 
0.561589 0.36863 5.10234 109 71 0 
0.526519 0.388486 5.12915 105 67 0 
-1.2416 0.110053 4.17702 249 209 15 
0.429185 0.377205 5.06316 111 70 4 
-1.26289 0.133331 4.1593 246 206 10 
-1.3536 0.129211 4.13016 248 235 216 
-1.14575 0.183321 4.14399 247 203 10 
0.242931 0.554501 5.04596 24 2 0 
-1.13775 0.286357 4.10707 134 101 22 
-1.17719 0.28246 4.08775 161 143 129 
-1.15211 0.304819 4.10027 162 148 135 
0.249152 0.615423 5.07866 39 11 0 
0.247322 0.635094 5.10455 63 30 0 
-0.601245 0.532175 4.83078 213 200 72 
0.511433 0.894895 5.07575 192 172 139 
0.338582 0.87469 5.07305 95 57 0 
0.392864 0.911124 5.06803 187 163 127 
-0.794676 0.754094 5.42873 231 185 11 
-0.811462 0.771727 5.40083 155 112 10 
0.549727 0.973883 5.04022 61 52 45 
-0.146206 0.917754 5.37524 163 149 136 
0.399772 0.97519 5.0097 181 168 152 
0.421845 0.984519 5.01599 53 44 39 
-0.101445 0.950549 5.30111 112 94 82 
-0.281211 0.935363 5.35195 175 159 144 
-0.0400776 0.983819 5.17435 188 174 165 
-0.264123 0.960716 5.2551 96 78 54 
-0.27943 0.979692 5.20607 198 180 168 
0.0172547 1.0221 5.08967 116 102 91 
-0.73741 0.915977 5.23457 45 32 15 
-0.000301262 1.02811 5.10073 192 178 169 
0.0207203 1.03049 5.05041 192 179 171 
-0.28931 0.995246 5.16352 113 96 78 
-0.711485 0.923728 5.18698 140 125 106 
0.77719 1.1602 4.70507 137 126 122 
-0.497894 1.06937 4.96406 201 187 176 
-0.520918 1.07203 4.9532 104 92 78 
-0.240374 1.1642 4.73289 146 137 132 
-0.899131 1.18325 4.66394 218 207 203 
-0.880873 1.1928 4.66651 132 121 119 
-0.834222 1.20045 4.60083 139 128 122 
-0.814023 1.2077 4.60791 217 208 203 
0.682815 -1.01528 4.31417 224 209 188 
0.696742 -0.996582 4.30176 223 208 185 
0.709294 -0.976745 4.3247 151 115 18 
0.894892 -0.898073 4.12298 211 195 179 
0.898452 -0.806671 4.14274 103 56 0 
0.691731 -0.78545 4.16656 240 233 225 
0.729488 -0.764013 4.14616 239 236 217 
0.853322 -0.701829 4.07582 242 235 217 
0.826819 -0.655565 4.05281 29 32 21 
0.725248 -0.673679 4.16098 135 55 44 
0.767446 -0.664877 4.11929 60 44 31 
0.842878 -0.637353 4.04708 143 148 116 
0.857589 -0.58067 4.08011 16 16 8 
0.816656 -0.601033 4.23546 47 9 0 
0.699246 -0.613644 4.34938 51 30 3 
0.663254 -0.579419 4.30138 37 12 0 
0.726826 -0.553713 4.22993 220 168 7 
0.704736 -0.552649 4.25124 246 207 80 
0.699419 -0.503254 4.16531 123 78 0 
-0.527531 -0.775048 5.26992 160 157 142 
-0.18257 -0.512827 3.8949 28 117 63 
0.673224 -0.476306 4.17163 235 201 91 
0.611619 -0.462284 4.15309 6 6 4 
-0.481015 -0.664677 4.91861 244 238 224 
0.722575 -0.39964 4.14717 119 118 116 
-0.104362 -0.446183 3.96039 93 105 83 
-0.0715157 -0.445584 3.9694 40 6 7 
-0.384521 -0.465928 4.01657 99 102 85 
-0.315339 -0.453913 3.98673 77 82 62 
-0.35536 -0.454136 4.01254 20 1 5 
-0.595712 -0.641868 5.24368 204 193 171 
-0.281492 -0.433603 4.02014 2 6 5 
0.838381 -0.319652 4.31768 72 58 21 
-0.342819 -0.283924 3.67996 239 214 173 
-0.799409 -0.337168 4.73412 32 33 28 
-0.777308 -0.305321 4.67224 11 11 11 
0.485351 -0.115276 4.37056 189 148 8 
-0.545984 -0.249867 4.73737 8 7 3 
0.44075 -0.0838776 4.4036 159 127 8 
-0.839107 -0.22522 4.68894 23 22 17 
-0.737608 -0.062152 4.70343 193 151 7 
0.468834 0.0942496 4.65261 83 76 68 
-0.89943 -0.0538038 4.48373 17 15 16 
-1.35695 0.0660747 4.19367 244 211 34 
0.436672 0.379464 5.07555 114 73 7 
0.139521 0.574356 6.25813 60 35 13 
-1.23942 0.236049 4.14082 185 161 133 
1.50083 0.83594 5.65323 200 191 184 
0.647865 0.901371 5.10931 187 172 149 
0.516053 0.900647 5.09813 182 161 132 
-1.1905 0.720326 5.95618 150 139 137 
0.641327 0.947246 5.04454 183 170 151 
0.548474 0.974819 5.02857 68 59 52 
0.420423 0.984678 5.00332 57 47 45 
-0.817516 0.902479 5.28584 158 144 131 
-0.714902 0.914475 5.2037 140 125 106 
-0.469522 1.04845 4.98145 100 83 53 
-0.908867 1.01485 5.11815 129 116 107 
-0.530836 1.09972 4.90214 206 196 187 
-0.24467 1.16311 4.72039 146 137 132 
-1.01925 1.12315 4.85459 127 117 108 
0.634289 -0.803444 4.21294 240 232 219 
-0.124212 -0.34541 3.79183 28 129 61 
-0.352864 -0.351633 3.99491 202 178 130 
-0.453514 -0.289961 3.80728 63 38 8 
-0.994594 -0.139501 4.61851 50 48 35 
-1.17316 0.290713 4.10738 163 147 134 
0.753837 -0.95591 4.24778 222 206 181 
0.862274 -0.906922 4.14798 224 210 184 
0.652345 -0.964671 4.34434 226 183 29 
0.82022 -0.927535 4.23713 229 194 38 
0.636878 -0.814661 4.203 243 233 223 
0.597614 -0.795386 4.21332 101 91 79 
0.658173 -0.784103 4.20726 82 33 29 
0.737881 -0.762253 4.15468 239 237 212 
0.772485 -0.730977 4.11113 189 230 76 
0.893424 -0.658772 4.0315 238 234 222 
0.766735 -0.644275 4.12751 72 36 20 
0.874324 -0.614213 4.01741 211 207 195 
0.904488 -0.591011 4.02437 20 20 18 
0.854858 -0.582332 4.18016 162 133 67 
0.750502 -0.571276 4.217 243 204 77 
-0.179628 -0.588298 3.9096 24 124 62 
-0.265203 -0.595684 3.93396 24 129 63 
0.764641 -0.542497 4.21496 95 51 6 
0.645446 -0.494988 4.19142 197 155 7 
0.547585 -0.492762 4.2176 16 18 17 
0.733815 -0.429989 4.16372 16 16 18 
-0.627337 -0.63199 4.82304 239 230 215 
-0.0679696 -0.452451 3.97914 17 0 0 
-0.350491 -0.454791 3.98728 6 11 5 
-0.072345 -0.425419 3.97245 112 114 100 
0.710958 -0.371698 4.15609 99 98 93 
-0.293134 -0.428462 3.98635 1 5 4 
0.617693 -0.369917 4.18365 5 7 4 
-0.152719 -0.405469 3.92666 21 59 36 
0.532656 -0.369298 4.24993 199 159 10 
0.659514 -0.342289 4.1791 21 16 10 
0.569834 -0.353905 4.21568 203 162 10 
0.613656 -0.336765 4.19547 208 165 11 
-0.352524 -0.349416 3.82986 201 176 119 
0.504551 -0.289848 4.2789 201 162 5 
0.549478 -0.270396 4.24315 206 163 7 
0.477253 -0.2932 4.42493 90 44 8 
-0.331947 -0.287758 3.69807 240 221 179 
-0.230982 -0.256249 3.66105 108 84 56 
0.566198 -0.234829 4.27366 120 85 1 
-0.912099 -0.307054 4.90528 28 28 26 
-0.793332 -0.269607 4.65188 115 115 115 
0.544519 -0.0911248 4.39285 63 20 0 
-0.842719 -0.227836 4.67285 27 27 25 
0.384882 -0.0412426 4.55634 6 4 5 
-0.761276 -0.175579 4.63236 114 113 111 
0.464639 -0.0218996 4.57371 128 92 4 
-0.796695 -0.129916 4.7874 201 157 6 
-0.94031 -0.0928193 4.48596 112 108 97 
-1.00112 -0.0904648 4.48985 9 8 3 
-0.921442 -0.0702393 4.4804 90 78 64 
-1.32891 0.130368 4.14446 161 123 16 
-1.1383 0.216878 4.11332 242 234 125 
-1.16668 0.217728 4.12479 246 202 7 
-1.11695 0.237227 4.08406 225 185 12 
1.287 0.816441 5.6345 188 179 172 
-0.589655 0.500494 4.81076 45 78 23 
-0.530034 0.5175 4.80162 172 154 10 
1.67082 1.00431 5.1406 122 113 106 
-0.563965 0.626476 4.82297 67 92 73 
0.296935 0.814969 5.08388 163 120 8 
0.63506 0.896179 5.09362 183 168 145 
0.417627 0.907433 5.06576 120 83 5 
0.938317 1.01632 5.07829 208 198 196 
-1.09976 0.79052 5.80612 142 129 123 
-1.02562 0.798007 5.75184 208 195 187 
-0.157465 0.921507 5.38137 166 152 141 
-0.806095 0.817486 5.35568 153 115 16 
0.419243 0.984308 4.99119 59 50 45 
0.303917 1.00515 5.08054 65 48 22 
-0.0502033 0.988153 5.18054 192 177 172 
-0.0296535 1.00878 5.14869 118 102 87 
-0.875637 0.937654 5.33973 210 197 189 
0.776424 1.16192 4.71598 140 129 123 
0.73042 1.18258 4.66335 143 134 125 
-0.909693 0.993835 5.19907 124 114 102 
-0.585772 1.03555 5.03464 70 51 19 
-0.903844 1.01292 5.13078 124 111 102 
0.656227 1.2186 4.57882 139 130 121 
0.539143 1.23858 4.49382 209 197 199 
-0.293218 1.14076 4.7366 141 130 128 
0.305261 1.22552 4.52293 137 127 118 
0.271377 1.22549 4.54519 210 202 199 
-0.593518 1.13889 4.82205 214 204 195 
-0.957062 1.17802 4.71644 137 127 118 
-0.906887 1.18841 4.65915 220 209 207 
0.875807 -0.913507 4.14801 222 210 186 
0.840609 -0.87219 4.17833 225 183 9 
0.660333 -0.774372 4.20185 57 6 2 
-0.155602 -0.611929 3.90502 7 7 5 
0.719339 -0.598293 4.29574 239 196 65 
0.665995 -0.594105 4.29536 44 23 2 
-0.190751 -0.581662 3.90859 24 122 61 
-0.256843 -0.586992 3.93527 24 126 63 
0.564021 -0.482965 4.22687 16 16 18 
0.623393 -0.449637 4.16516 5 5 7 
0.520602 -0.457447 4.22229 100 101 96 
0.606174 -0.380094 4.18738 4 6 5 
-0.164147 -0.410444 3.90162 0 16 3 
0.553193 -0.352097 4.21829 200 163 12 
-0.279776 -0.349249 3.75419 214 189 132 
0.535184 -0.282397 4.23586 204 164 7 
-0.32175 -0.294322 3.71875 226 205 162 
-0.360109 -0.299255 3.96739 213 193 142 
-0.78759 -0.380255 4.82746 233 195 24 
-0.898504 -0.384963 4.89808 162 156 142 
-0.567458 -0.335359 4.71608 211 173 4 
0.512228 -0.126225 4.36841 187 145 7 
-0.848288 -0.240477 4.69877 27 27 25 
0.458641 -0.0308071 4.56778 133 105 5 
-0.731959 -0.148949 4.64642 9 11 10 
-0.886829 -0.10578 4.50278 88 85 80 
-0.933563 -0.0917261 4.50084 112 108 99 
-0.751068 -0.0551983 4.73626 190 144 9 
-1.25041 0.15287 4.18615 247 208 19 
-0.579692 0.497948 4.82653 32 83 50 
-0.617595 0.533449 4.84212 211 199 65 
-0.558719 0.635673 4.88703 71 93 81 
0.381678 0.829588 5.09119 255 255 203 
0.423332 0.896199 5.06931 130 95 5 
0.493557 0.904686 5.06742 169 154 123 
-0.669888 0.690342 4.86965 39 67 71 
0.37206 0.915856 5.06306 193 173 146 
0.557953 0.982419 5.02713 78 67 63 
-0.992 0.83129 5.69099 144 131 125 
-0.302126 0.969231 5.22908 100 83 53 
-0.586316 1.03017 5.01397 72 53 20 
-0.447265 1.07735 4.92908 208 194 185 
-0.778148 1.19044 4.63645 131 121 112 
0.849838 -0.589029 4.07755 19 18 13 
0.735806 -0.568079 4.21644 236 196 72 
0.526029 -0.230244 4.23224 121 86 2 
-1.16084 0.226096 4.13314 240 199 11 
-0.0671137 0.98857 5.17213 195 180 173 
-0.0141308 1.0038 5.15301 118 102 87 
-0.476796 1.07489 4.96756 201 186 179 
-0.998703 1.16934 4.72158 221 211 210 
0.184352 -0.772644 3.99802 182 153 113 
0.722435 -0.747591 4.14334 220 231 163 
0.49218 -0.731586 4.29695 173 163 151 
0.845103 -0.646934 4.04208 92 93 77 
0.827273 -0.609296 4.24521 42 8 0 
0.647348 -0.589745 4.27143 66 38 1 
0.698142 -0.562323 4.19565 236 197 60 
0.537723 -0.541851 4.2802 197 157 7 
0.696758 -0.50387 4.20243 196 156 24 
0.646792 -0.462247 4.17447 11 9 10 
0.568374 -0.468055 4.21172 19 19 19 
0.629507 -0.445273 4.18976 5 5 7 
0.53974 -0.412015 4.21331 20 20 20 
0.675605 -0.365845 4.17226 17 17 19 
0.543966 -0.348854 4.24174 204 163 9 
-0.170388 -0.352888 3.79763 196 173 121 
-0.701816 -0.448357 4.81971 235 196 5 
-0.247534 -0.259217 3.67507 111 90 63 
0.520836 -0.239453 4.3987 108 81 4 
-0.567774 -0.295936 4.69247 212 173 8 
-0.623936 -0.239009 4.66996 215 176 10 
-0.80699 -0.246327 4.58267 105 105 103 
-1.1064 -0.111146 4.5446 239 208 29 
-0.939776 -0.0266553 4.4006 20 16 15 
-0.400522 0.119189 4.71063 185 154 108 
1.33389 0.77942 5.82393 119 111 100 
0.383331 0.948282 5.00574 166 151 130 
-1.10299 0.792793 5.74272 159 146 138 
0.634616 1.21128 4.58069 141 131 122 
0.14043 1.19476 4.62971 130 117 111 
-0.275052 1.15151 4.70244 144 132 132 
0.255463 1.2294 4.54218 212 202 203 
0.773295 -0.957686 4.24386 217 203 177 
0.547893 -0.535293 4.28931 192 155 5 
-0.748897 -0.402292 4.81841 237 199 12 
-0.71457 -0.299959 4.64477 221 180 12 
-0.920782 -0.207057 4.76656 245 207 36 
-1.12555 -0.0850826 4.55062 238 207 21 
-1.29964 0.13242 4.1653 174 130 7 
-0.518843 0.567015 4.83301 184 166 8 
-0.675954 0.662283 4.74071 43 68 73 
-0.830815 0.866023 5.43162 216 199 183 
-0.520928 0.862743 4.915 160 140 19 
-0.760036 0.928146 5.15933 67 54 45 
-0.351173 0.716203 6.04659 188 175 17 
0.951387 1.03921 5.00063 208 199 192 
0.0995189 1.13068 4.82342 124 112 100 
0.520039 -0.827459 4.2708 15 13 14 
-0.0490975 -0.760913 3.98477 119 0 19 
0.663946 -0.699534 4.20041 82 80 19 
-0.473872 -0.741865 4.03504 196 173 123 
0.94497 -0.506948 4.22761 168 159 144 
-0.215489 -0.528779 3.95761 23 132 67 
0.540915 -0.312458 4.21067 203 162 8 
-0.46785 -0.248177 3.85788 182 158 112 
-0.824214 -0.143199 4.61253 191 153 16 
0.480021 0.0272652 4.67967 9 7 8 
1.39108 0.759971 5.64174 198 189 182 
-0.319019 -0.252461 3.64034 39 20 3 
0.632285 -0.741531 4.13289 51 22 8 
2.11771 -2.1916 12.4439 193 173 123 
0.756234 -0.561309 4.15201 231 186 71 
0.566701 -0.360893 4.15213 4 2 3 
0.684865 -0.327803 4.13329 12 11 9 
-0.918572 -0.0948747 4.44598 74 70 71 
-0.589421 0.957592 5.00788 74 58 22 
-0.725953 -0.207361 4.59073 117 116 114 
-1.3589 0.0642026 4.1637 244 211 34 
1.39928 0.807949 5.47957 200 191 184 
-1.19403 0.713206 5.90922 150 139 137 
0.490135 0.945867 4.95708 184 171 152 
0.660574 1.17984 4.53206 210 200 199 
0.653252 -0.993645 4.26788 225 210 187 
-0.785357 1.17919 4.59882 131 121 112 
0.74617 -0.696774 4.05524 96 85 23 
0.737251 -0.503154 4.15165 149 112 6 
0.480922 -0.446908 4.18928 54 53 49 
0.509039 -0.465686 4.18033 105 106 101 
-0.865424 1.19201 4.62695 130 121 112 
0.682421 -0.720699 4.05847 68 90 15 
0.626908 -0.72738 4.08954 41 52 0 
0.723975 -0.708299 4.03141 71 96 0 
0.614384 -0.729168 4.10031 40 23 0 
0.670251 -0.718297 4.06306 74 83 36 
0.714966 -0.705826 4.03498 181 193 117 
0.749047 -0.697998 4.02155 110 131 64 
0.644159 -0.713055 4.07859 157 167 94 
0.728994 -0.691851 4.02809 113 102 38 
0.670904 -0.694466 4.05729 51 62 2 
0.779273 -0.674022 3.99459 73 90 20 
0.791772 -0.662924 3.98512 232 238 200 
0.693616 -0.679179 4.04248 145 147 84 
0.759103 -0.663462 3.99976 62 89 0 
0.652425 -0.677514 4.0801 30 20 11 
0.732105 -0.647444 4.02207 139 157 71 
0.762168 -0.613328 4.00942 155 142 126 
0.807601 -0.599058 3.96826 14 10 1 
0.684125 -0.413916 4.05842 20 18 19 
-0.486139 0.023666 4.69526 79 46 0 
-0.567691 0.610973 4.69034 149 176 161 
-0.219294 -1.03982 3.92913 171 41 51 
0.615807 -0.986275 4.25993 210 197 178 
0.607678 -0.966854 4.25342 126 102 40 
0.832009 -0.853337 4.03918 140 108 21 
0.810555 -0.851691 4.06407 136 102 5 
0.581652 -0.839416 4.17853 253 239 230 
-0.679621 -0.873266 4.02137 78 60 24 
-0.671099 -0.8796 4.05573 85 66 33 
-0.66531 -0.866035 4.02874 135 111 67 
-0.686971 -0.860083 4.03799 115 91 55 
-0.694426 -0.85697 4.04759 205 181 153 
0.63429 -0.751842 4.09142 187 196 117 
0.622534 -0.745946 4.09375 45 30 9 
0.538817 -0.736209 4.07497 205 188 162 
0.662822 -0.72002 4.0705 222 223 189 
0.708048 -0.711105 4.04244 72 82 21 
0.44164 -0.729571 4.05793 120 97 43 
0.752878 -0.689445 4.01662 228 243 186 
0.645008 -0.690775 4.08389 55 55 21 
0.630324 -0.692294 4.10216 27 31 0 
0.702722 -0.670485 4.02451 144 172 62 
0.664894 -0.678898 4.07048 44 22 11 
0.807222 -0.647111 3.97982 34 34 24 
0.635437 -0.680683 4.10129 108 109 41 
0.819889 -0.633823 3.96725 32 30 18 
0.725239 -0.645366 4.03087 128 139 71 
0.773584 -0.624078 3.99069 56 25 23 
0.655581 -0.656772 4.12165 130 105 48 
0.764046 -0.619366 3.99832 178 162 149 
0.788428 -0.594755 3.99349 39 5 4 
0.78295 -0.58738 4.00002 129 99 91 
0.857772 -0.539092 3.99052 40 35 29 
-0.530522 -0.791328 4.97663 119 104 75 
0.643775 -0.549712 4.18862 142 91 0 
0.688168 -0.519933 4.12887 225 182 44 
0.70388 -0.517278 4.12579 83 41 3 
0.443624 -0.495213 4.16166 124 123 118 
0.65789 -0.451748 4.07668 169 144 17 
0.489027 -0.465101 4.13548 102 102 100 
-0.49748 -0.616924 4.5797 235 227 214 
-0.38477 -0.46038 3.914 102 87 80 
0.413214 -0.418336 4.21672 11 10 5 
-0.499155 -0.459993 4.01243 189 172 120 
0.572283 -0.334359 4.08199 196 171 29 
-0.514712 -0.434771 4.00463 48 32 0 
-0.50532 -0.42457 3.98912 181 157 113 
-0.529482 -0.424984 3.99167 184 160 114 
-0.226586 -0.343713 3.68986 123 96 43 
-0.380179 -0.348957 3.7795 197 177 124 
-0.393029 -0.348726 3.78178 35 119 57 
0.44315 -0.278158 4.18971 199 167 24 
-0.213025 -0.267129 3.60887 99 77 40 
-0.514831 -0.279464 3.80838 208 185 133 
-0.50574 -0.257689 3.80925 54 30 0 
-0.901303 -0.355408 4.72569 125 124 119 
-0.56863 -0.288422 4.56976 191 160 20 
-0.936115 -0.344379 4.74142 80 79 77 
-0.933942 -0.318897 4.72464 104 103 101 
0.413623 -0.103588 4.28662 53 19 0 
0.403217 -0.0869943 4.28651 58 21 2 
0.479032 0.0428511 4.51265 162 156 144 
0.384657 0.0690792 4.55583 64 56 45 
-0.933147 -0.09417 4.37023 58 57 53 
-0.970928 -0.0935152 4.37147 105 102 93 
-0.923188 -0.0598342 4.3495 11 6 0 
-0.436986 0.0338769 4.05815 30 20 11 
-0.481974 0.0346134 4.68774 246 216 130 
-0.473048 0.0703486 4.67597 113 73 12 
-0.418746 0.119784 4.5384 175 153 104 
-1.08605 0.087032 4.16828 225 177 33 
0.432957 0.369712 4.91144 124 80 9 
-1.20146 0.155847 4.03792 101 37 9 
0.176855 0.547746 4.88557 20 1 0 
-0.649775 0.600381 4.69781 213 243 231 
-1.21339 0.683041 5.7086 146 139 131 
-1.14883 0.720614 5.60987 149 138 132 
0.806414 -0.567919 4.01958 30 29 25 
-0.785966 -0.308354 4.56019 195 160 34 
-0.951679 -0.293063 4.76179 95 87 76 
0.606489 -0.982547 4.24345 213 201 179 
0.693579 -0.918881 4.14729 227 211 186 
0.749251 -0.915969 4.16581 130 101 21 
0.660077 -0.858831 4.17818 115 64 0 
0.549778 -0.813855 4.14959 240 231 224 
0.61224 -0.786839 4.12697 144 83 78 
0.800106 -0.687862 4.0007 237 236 218 
0.676256 -0.706803 4.05698 173 204 77 
0.739635 -0.678323 4.01634 61 83 10 
0.724756 -0.676224 4.02608 188 216 105 
0.785552 -0.646185 3.98465 31 30 28 
0.678747 -0.646622 4.0973 42 24 2 
0.861927 -0.604561 3.96016 226 226 214 
0.814719 -0.573468 3.98107 137 131 119 
0.809173 -0.564647 4.00121 28 24 21 
0.727078 -0.571597 4.12396 52 22 0 
0.714701 -0.565069 4.13418 226 184 48 
0.530858 -0.605561 4.29644 85 47 2 
0.735571 -0.556131 4.11865 227 188 35 
0.558807 -0.602115 4.30426 49 32 4 
-0.515487 -0.799124 4.97936 42 26 11 
0.577726 -0.540571 4.13915 212 173 20 
-0.501791 -0.630858 4.60311 0 1 0 
0.675587 -0.397384 4.06876 117 118 112 
-0.423099 -0.486492 3.97598 3 57 23 
0.423785 -0.402688 4.24187 164 134 10 
0.661658 -0.355031 4.07989 92 89 82 
0.661813 -0.337278 4.08557 16 14 15 
-0.419663 -0.424786 3.94116 9 15 15 
-0.337289 -0.356722 3.70352 204 183 126 
-0.454826 -0.32581 3.79906 186 168 118 
-0.386028 -0.249973 3.62204 197 174 120 
-0.588048 -0.321809 4.57221 195 159 13 
-0.773749 -0.294068 4.57967 26 22 11 
0.437051 -0.111763 4.29159 199 158 18 
-0.955274 -0.306842 4.76691 163 156 146 
0.410421 -0.0788637 4.32322 176 141 11 
-0.6537 -0.202859 4.5298 188 161 28 
-0.748823 -0.192984 4.49852 100 99 97 
-0.851156 -0.201706 4.48481 116 113 106 
-0.78861 -0.170177 4.50841 108 107 102 
0.38399 0.0314983 4.46437 20 19 17 
0.474389 0.0432738 4.50364 150 142 129 
-0.734236 -0.0949162 4.55607 102 80 4 
-0.456358 -0.0276855 4.33145 86 85 81 
-0.455993 -0.0129931 4.31471 13 13 11 
-1.09937 0.105722 4.13074 91 33 0 
0.282628 0.392682 4.87821 171 135 39 
-1.28936 0.087975 4.06281 100 33 6 
1.1456 0.584804 5.82779 204 198 184 
0.23795 0.400178 4.87183 165 130 30 
1.22234 0.742511 5.50022 193 184 177 
0.177846 0.533417 4.88062 19 3 0 
1.15462 0.781976 5.41689 191 181 172 
0.186442 0.593512 4.91898 39 11 0 
-0.660808 0.514104 4.70715 212 200 62 
0.271365 0.842537 4.90964 103 60 5 
-0.808287 0.71027 5.28179 236 191 10 
0.470296 0.937958 4.86778 82 76 64 
-0.824021 0.725907 5.24713 232 184 12 
-0.838325 0.743027 5.23073 144 105 4 
-0.159621 0.911528 5.10972 110 97 81 
-0.310216 0.926292 5.08703 97 84 52 
-0.0998405 0.971524 4.9672 109 97 85 
-0.769938 0.878176 5.05117 39 27 3 
-0.937261 0.976847 4.9576 118 106 94 
-0.923406 0.999891 4.92677 204 191 183 
-0.566938 1.06214 4.76148 213 201 189 
-0.933923 1.03164 4.85376 214 201 192 
-1.06404 1.10126 4.69219 205 194 188 
-1.0632 1.11313 4.67499 132 121 115 
-0.994271 1.12261 4.63538 131 120 114 
-0.998313 1.12979 4.60897 216 206 197 
-0.932677 1.15068 4.56796 219 208 204 
-0.915856 1.15321 4.56155 215 204 202 
-0.903042 1.15503 4.54261 136 125 119 
-0.832328 1.17864 4.51017 218 208 207 
0.612455 -0.959599 4.21419 223 211 189 
0.851007 -0.909029 4.07996 223 211 187 
0.799409 -0.871591 4.04506 221 206 185 
0.604738 -0.804426 4.1403 242 232 220 
0.851891 -0.605435 3.95542 231 229 216 
-0.319705 -0.60342 3.86617 11 2 3 
0.500262 -0.608976 4.28998 225 176 13 
0.508487 -0.602013 4.24516 49 24 0 
0.635739 -0.55298 4.1835 141 92 0 
0.589059 -0.540149 4.15536 200 158 12 
0.663827 -0.475249 4.1556 243 216 135 
-0.152433 -0.406695 3.78308 12 20 9 
0.469866 -0.395953 4.15557 8 7 3 
-0.368309 -0.443276 3.93004 14 2 2 
0.528165 -0.350964 4.1281 200 158 10 
-0.498227 -0.414179 3.97654 168 145 103 
-0.34781 -0.362329 3.74379 204 183 120 
0.442635 -0.234091 4.29116 49 13 0 
-0.800269 -0.243201 4.47348 129 128 126 
-0.713933 -0.221694 4.50985 14 14 4 
-1.0117 -0.136436 4.50152 35 36 22 
-0.766641 -0.0623667 4.55859 180 137 7 
-0.395142 0.121712 4.54255 83 66 38 
-1.07239 0.0852877 4.17259 71 25 10 
0.362111 0.362861 4.90268 112 72 3 
0.304966 0.371552 4.89374 113 73 1 
-1.33405 0.0663015 4.0958 255 255 143 
1.34781 0.79207 5.39154 201 192 185 
-1.20079 0.249569 4.05447 97 52 0 
-0.673182 0.599432 4.7009 64 85 68 
0.346324 0.874846 4.90065 123 86 5 
0.311745 0.876383 4.89056 181 162 132 
-0.738798 0.654779 4.84043 100 60 0 
0.325359 0.938517 4.84394 183 169 156 
0.347524 0.949337 4.83648 72 62 52 
-0.17911 0.887995 5.16795 92 76 53 
-0.178026 0.906912 5.12548 188 172 159 
-0.918703 1.01727 4.89086 120 108 96 
-1.03444 1.12238 4.64014 136 126 117 
0.699002 -0.945412 4.16818 219 205 178 
0.625285 -0.794865 4.10361 248 233 210 
0.812624 -0.69074 4.01412 237 235 220 
-0.957282 1.1454 4.57095 134 124 115 
0.740696 -0.945003 4.16176 212 200 174 
0.799263 -0.885991 4.0506 224 207 191 
0.631717 -0.922069 4.20082 220 174 16 
0.866843 -0.797518 4.09317 105 66 0 
0.569431 -0.822775 4.1575 242 233 224 
0.594548 -0.800102 4.13015 241 233 220 
0.646986 -0.768068 4.08644 250 243 233 
0.581468 -0.718609 4.07328 26 8 4 
0.869484 -0.639277 3.95866 236 234 221 
0.898186 -0.583977 3.99605 22 18 15 
0.787118 -0.573714 4.07759 167 157 145 
0.773737 -0.571651 4.11131 108 55 5 
0.837239 -0.538921 4.00788 169 160 151 
0.70354 -0.561045 4.13972 229 186 45 
0.738718 -0.546384 4.11163 225 182 17 
-0.178058 -0.509212 3.81421 170 35 50 
0.646449 -0.468494 4.17675 8 6 7 
0.629893 -0.456276 4.15939 7 5 8 
0.462214 -0.430569 4.12101 101 102 97 
-0.430015 -0.476286 3.87281 98 100 78 
0.567842 -0.330978 4.1159 206 161 8 
0.567031 -0.325751 4.08783 206 166 9 
-0.410029 -0.337961 3.7951 195 168 115 
-0.665412 -0.436269 4.6564 95 67 27 
-0.486565 -0.285331 3.80359 194 168 117 
-0.581949 -0.286108 4.56697 194 158 8 
0.447478 -0.118588 4.27916 196 154 8 
-0.808311 -0.296789 4.52219 7 8 10 
-0.715245 -0.217211 4.49593 13 12 8 
-0.744729 -0.204923 4.49804 101 100 96 
-0.784245 -0.171707 4.51722 102 101 96 
-0.917741 -0.0955522 4.35949 73 73 65 
-0.444582 0.0939957 4.77416 211 178 39 
-0.470335 0.119542 4.69126 73 39 0 
1.15102 0.605972 5.78159 205 196 187 
1.44927 0.759627 5.43321 210 201 192 
1.20019 0.727559 5.52587 138 129 122 
1.1734 0.75668 5.47988 127 119 108 
1.17154 0.781494 5.42328 194 185 176 
1.24458 0.801556 5.32167 129 120 113 
1.22477 0.804399 5.37642 189 180 171 
0.473671 0.857416 4.94022 133 96 7 
-0.596882 0.603115 4.68088 63 87 74 
0.862544 0.982925 4.93667 211 202 195 
-0.827884 0.753388 5.24709 146 107 6 
0.23785 0.966977 4.91618 57 42 13 
-0.104951 0.952229 5.01104 193 180 172 
-0.087302 0.969381 4.97296 119 103 87 
-0.749508 0.876572 5.01599 140 125 102 
0.638567 1.16607 4.49124 214 204 202 
-0.407768 1.01129 4.88248 120 103 85 
-0.315982 1.11975 4.66041 147 136 132 
-0.624614 1.10245 4.68505 216 205 199 
-0.121949 1.2609 4.28651 155 143 143 
-1.03139 1.1285 4.66269 135 125 116 
-0.858843 1.16979 4.50665 134 123 117 
0.811299 -0.890213 4.0492 222 207 188 
0.594296 -0.633338 4.18568 146 108 7 
0.61697 -0.582336 4.21016 33 20 4 
0.638087 -0.333767 4.0828 12 12 12 
0.618369 -0.361822 4.3352 204 163 11 
-0.174733 -0.366905 3.83234 194 166 116 
-0.360218 -0.35309 3.74281 210 184 125 
0.494446 -0.278641 4.16154 203 162 8 
-0.357595 -0.288666 3.62438 222 198 138 
-0.817933 -0.368423 4.66258 233 199 6 
-0.816569 -0.251876 4.49903 134 133 128 
1.54478 0.974135 4.96779 124 117 107 
-0.602226 0.606373 4.69873 61 93 82 
0.353023 0.861825 4.90503 135 98 7 
0.867147 0.985532 4.91949 213 204 197 
0.233586 0.969658 4.90693 64 51 32 
-0.617971 0.996562 4.8701 73 55 17 
-0.952374 1.03394 4.83916 215 204 200 
0.541869 -0.509679 4.10164 194 154 5 
0.514217 -0.346966 4.14838 202 161 9 
0.491303 -0.228667 4.16846 123 86 8 
-0.924733 -0.371129 4.73301 147 143 132 
-0.708394 -0.206782 4.50744 14 13 11 
-0.120711 0.952846 5.00448 192 179 171 
-0.511863 1.04002 4.82476 203 189 176 
-0.939922 1.00487 4.92189 207 196 190 
0.776601 -0.859451 4.08413 227 184 7 
0.679638 -0.734132 4.07357 223 231 172 
0.686677 -0.674086 4.0476 68 21 11 
0.727248 -0.62763 4.05347 79 36 20 
0.585884 -0.580065 4.22808 54 29 7 
0.668953 -0.570645 4.18994 233 189 28 
0.506676 -0.455748 4.10207 15 13 16 
0.560073 -0.38108 4.10061 5 6 10 
0.630867 -0.359472 4.09708 20 20 22 
0.499059 -0.34314 4.16017 203 160 6 
0.541401 -0.272112 4.13636 211 168 4 
0.494441 -0.171636 4.23151 197 155 7 
0.467632 -0.135346 4.24495 194 152 8 
-0.741723 -0.286149 4.52635 207 169 8 
0.606855 -0.0724195 4.43172 81 33 0 
-0.654577 -0.2329 4.53598 199 163 7 
-0.823786 -0.242899 4.49384 97 96 92 
-1.16632 0.0131547 4.20132 34 8 0 
1.27177 0.708168 5.55356 210 201 194 
1.38883 0.758022 5.41732 208 199 192 
1.53987 0.970367 4.97599 125 118 108 
1.12595 0.993046 4.90677 149 141 130 
-0.747568 0.692293 5.28135 109 68 2 
0.228199 0.966169 4.89371 63 50 31 
0.78058 1.10254 4.63295 213 205 203 
-0.0505688 1.00442 4.88841 198 185 179 
-0.916933 0.963564 5.03469 116 104 92 
-0.569902 1.02605 4.84286 87 73 47 
0.216246 1.20052 4.45302 219 207 207 
0.760755 -0.610668 4.13526 44 11 0 
-0.743782 -0.290364 4.50604 208 170 9 
-0.678112 0.660057 4.73017 39 67 71 
-0.607504 0.992122 4.86367 83 62 15 
0.745078 -0.67102 4.00888 70 92 10 
-0.781355 -0.389324 4.65021 235 194 14 
0.853334 0.998108 4.82224 213 203 201 
-0.154515 0.951338 5.00724 195 182 174 
