ply                 
format ascii 1.0    
element vertex 325
property float x    
property float y    
property float z    
property uchar red  
property uchar green
property uchar blue 
end_header          
-3.13724 -1.00422 4.30253 207 188 174 
-0.547305 -0.293479 3.06399 99 76 60 
-3.00133 -1.0517 4.44784 223 202 183 
-1.69695 -0.570242 3.68654 232 200 179 
-2.76853 -1.50103 4.91208 213 228 187 
-1.65726 -0.0787147 3.70701 251 237 211 
-2.84933 -1.05288 4.62158 249 230 213 
-2.91806 -1.019 4.5435 216 198 162 
-1.68357 -0.596978 3.70048 226 189 170 
-0.412158 -0.289295 2.9704 75 44 24 
-2.84722 -1.06345 4.62873 229 208 191 
-0.431414 -1.31925 3.17638 195 190 161 
-0.651274 -0.372073 2.95936 77 59 49 
-0.454765 -0.150073 2.98593 91 59 38 
-2.98526 -0.968618 4.46668 229 207 186 
-3.00685 -0.988652 4.43965 205 196 197 
-0.565977 -0.66952 3.08258 105 76 58 
-1.64504 -0.099054 3.72135 245 213 190 
-0.78699 -0.746263 2.83025 210 189 168 
-5.58595 -4.21073 9.7741 207 201 203 
-0.747832 -0.736186 2.87068 222 219 210 
-0.576963 -0.331345 3.04762 113 85 64 
-5.37867 -4.04292 10.0197 212 209 204 
-0.517029 -0.351828 3.03975 93 61 36 
0.827613 -1.45509 4.72691 63 50 41 
-0.597364 -0.0417634 3.01298 77 54 38 
-0.189655 -1.28884 3.46897 247 247 237 
-1.69173 -0.238603 3.6724 72 41 21 
-0.503856 -0.330481 3.03212 88 61 40 
-1.72989 -0.69271 3.65568 100 72 48 
-2.84328 -0.879133 4.62261 210 200 198 
-0.546517 -0.26831 3.0597 92 65 46 
-3.01227 -1.08785 4.44529 238 217 200 
-0.409983 -0.296418 2.9698 72 40 15 
-3.00823 -1.08338 4.43929 212 189 171 
-1.6169 -0.57462 3.78618 238 208 174 
-0.595006 -1.35842 3.05054 199 181 171 
-2.83129 -0.903876 4.64082 218 191 172 
-2.98958 -1.01023 4.46605 229 207 194 
-1.73367 -0.613454 3.64989 104 73 55 
-0.581447 -0.869668 3.08633 165 149 126 
-0.210812 -0.868951 3.40662 237 221 206 
-1.64773 -1.04592 3.77646 214 199 166 
-0.699322 -0.0376524 2.87897 70 44 31 
-0.0953971 -1.51201 3.60458 53 31 17 
-0.457231 -0.887577 3.11256 225 206 192 
-1.43946 0.000364662 3.65259 73 53 42 
-0.410175 -0.928037 3.17081 228 214 201 
-1.58574 -0.851405 3.83813 248 227 198 
-1.70165 -0.15998 3.65595 192 170 149 
0.829552 -1.45646 4.73226 65 52 43 
-1.59491 -0.169119 3.78615 91 63 41 
-2.91959 -1.01993 4.54647 216 198 162 
-1.64593 -0.166069 3.72515 246 231 202 
0.192324 -0.461468 3.94857 212 195 179 
0.103433 -0.537498 3.82387 249 235 209 
-1.65746 -0.0784532 3.70813 251 237 211 
0.764412 -1.2721 4.65268 227 220 202 
-0.322936 -1.16242 3.3047 218 205 189 
-0.480733 -0.843692 3.07577 251 228 196 
-1.4368 -0.421418 3.68163 202 180 166 
-2.85004 -1.05293 4.62334 249 230 213 
-0.711843 -0.386819 2.8947 222 192 166 
-1.69691 -0.570362 3.68643 232 200 179 
-0.2729 -0.0756918 2.85231 198 193 164 
-2.87212 -1.05033 4.58576 231 212 198 
-0.597361 -0.0418786 3.01292 77 54 38 
-0.682002 -0.262758 2.91606 220 195 175 
0.474392 -1.53517 4.32125 69 51 37 
-2.84733 -1.06391 4.62859 229 208 191 
-0.454429 -0.150256 2.98786 121 95 72 
-1.64547 -0.0992316 3.72415 249 217 192 
-0.546161 -0.268032 3.05904 92 65 46 
-3.13742 -1.00377 4.30458 217 198 184 
-1.65403 -0.104865 3.71848 252 228 204 
-0.787043 -0.746038 2.82976 210 189 168 
-0.742768 -0.227257 2.84183 235 225 198 
-1.33091 -0.591484 3.5981 116 82 55 
-0.457078 -1.2426 3.13075 214 202 176 
-0.566088 -0.668991 3.08227 115 88 69 
-2.99999 -1.05114 4.44591 223 202 183 
-1.65476 -0.514014 3.74518 235 236 218 
-0.18946 -1.28914 3.46985 247 247 237 
-2.84326 -0.878087 4.62222 216 203 195 
-1.76604 -0.106479 3.5797 210 212 198 
-1.67074 -0.557544 3.71279 208 185 154 
-0.336258 -1.06041 3.27027 225 206 191 
-0.250171 -0.856985 3.35084 50 29 12 
-3.04075 -0.883043 4.39188 233 220 201 
-0.74572 -0.713764 2.86722 201 190 158 
0.0468031 -1.87759 3.8172 64 46 36 
-0.623221 -0.445892 3.00068 250 222 198 
-1.67405 -0.0563506 3.68866 224 204 177 
-0.576864 -0.331735 3.04808 103 77 54 
-0.687317 -0.372976 2.91752 88 69 54 
-0.302095 -1.11688 3.32422 83 64 50 
-0.11133 -0.757147 3.47449 67 40 21 
-1.72018 -0.799895 3.67176 195 169 146 
-1.6714 -0.0498592 3.69681 197 178 161 
-2.98804 -1.0093 4.46232 196 173 159 
-1.7318 -0.693882 3.66127 100 72 48 
-1.4293 -0.850022 3.71478 255 244 230 
-0.334788 -0.823446 3.23828 229 213 198 
-0.786138 -0.748236 2.82584 73 52 31 
-0.164253 -0.850887 3.4541 64 50 41 
-0.673629 0.338704 2.8929 249 241 218 
-2.99894 -1.06645 4.45521 193 175 155 
-0.392909 -0.868295 3.18537 215 201 190 
-0.6831 0.292901 2.8826 254 242 220 
-2.99826 -1.05142 4.44375 207 184 166 
-3.13582 -1.00357 4.30279 217 198 184 
-5.54452 -4.23437 9.89635 251 252 247 
-2.84845 -1.0646 4.62376 238 217 198 
-0.633343 -1.25377 3.05119 217 207 205 
-0.623951 -1.24728 3.05888 200 185 166 
-0.407532 -0.917617 3.17133 220 207 198 
-0.12447 -0.73618 3.47871 62 35 18 
0.226559 -1.57299 4.00571 70 53 43 
-0.408486 -0.922329 3.16583 129 111 101 
-0.0453718 -1.7745 3.70297 100 74 61 
-1.65277 -0.104671 3.71265 245 221 197 
-0.300845 -0.979111 3.30408 224 214 202 
-0.146765 -0.7022 3.45935 199 181 171 
-3.04023 -0.882934 4.39224 233 220 201 
-0.774054 -0.847422 2.83992 223 225 185 
-0.751922 -0.865593 2.87287 242 230 214 
0.908906 -0.92976 4.82191 65 54 48 
-2.90345 -0.865106 4.56474 89 60 44 
-0.618886 -1.11858 3.05757 218 220 206 
-0.636107 -0.183657 2.96805 255 247 236 
-0.570111 -1.10263 3.11727 245 223 212 
-0.492161 -1.08166 3.0894 246 227 210 
-0.410664 -0.297665 2.96828 79 47 22 
-0.568987 -0.331181 3.05044 84 50 23 
-0.693012 -0.321315 2.91193 202 185 167 
-1.63807 -0.412484 3.75318 226 199 178 
0.192785 -0.460757 3.9448 212 195 179 
0.0545889 -1.87224 3.8194 83 74 57 
0.0468341 -1.87754 3.81748 64 46 36 
-0.658035 -0.465499 2.95685 244 231 214 
-1.67092 -0.558574 3.71441 202 179 148 
-2.92198 -1.02308 4.54964 203 186 142 
-0.45771 -0.888408 3.11373 237 218 203 
-1.69074 -0.238821 3.67457 55 24 6 
-0.303963 -1.13603 3.3191 82 63 48 
-2.80005 -0.917584 4.67824 206 179 160 
-0.56 -0.145738 3.05303 230 218 180 
-1.64712 -0.167531 3.72571 233 216 190 
-1.57987 -1.1541 3.85603 101 74 53 
-2.34819 -1.02918 4.52535 67 32 12 
-0.273916 -0.0752088 2.84763 202 197 168 
-0.690761 -0.800628 2.94189 248 223 201 
-2.8487 -0.73058 4.61773 92 55 39 
-0.392529 -0.869886 3.18733 231 215 202 
-0.597527 0.259701 2.99386 244 230 203 
-2.86107 -0.744109 4.61473 96 71 66 
-5.54324 -4.23313 9.89 248 247 243 
-0.490454 -1.16947 3.09949 253 232 215 
0.522503 -0.630922 4.26816 236 223 207 
-1.61884 -1.18624 3.84136 244 229 206 
0.195065 -1.84858 4.00875 62 45 35 
-3.0006 -1.05309 4.4493 218 198 174 
-1.43536 -0.427724 3.68428 68 46 32 
-0.633383 -1.25347 3.05173 211 201 192 
-0.632855 -0.326642 2.98597 71 45 28 
-2.79373 -0.975519 4.69745 224 198 175 
-2.84852 -1.05206 4.61688 235 218 200 
-1.4293 -0.850782 3.7156 255 244 230 
-1.10165 0.333638 2.96486 201 182 139 
-0.631706 -1.24029 3.05248 76 47 43 
-2.90575 -0.864228 4.56389 81 53 39 
-0.576072 -1.09159 3.1078 233 204 186 
-0.660549 -0.750017 2.9781 227 215 193 
-0.62038 -1.22661 3.06145 229 216 199 
0.974219 -0.905306 4.89513 238 225 208 
0.477872 -1.4809 4.31029 218 205 173 
-0.302958 -0.557644 2.96144 254 254 216 
-0.573225 -1.28313 3.05156 81 67 58 
-2.82545 -0.908884 4.64955 207 186 167 
-1.76654 -0.105688 3.58264 214 211 204 
-2.88882 -0.851257 4.56826 102 61 43 
-0.154911 -1.54399 3.53745 187 164 150 
-0.701816 -0.343398 2.90486 230 204 179 
-1.68792 0.229854 3.64754 216 194 173 
-1.4659 -0.843355 3.71006 198 192 180 
-1.58323 -0.859634 3.83549 102 70 49 
-2.961 -1.1249 4.49764 211 194 174 
-2.77853 -1.49068 4.90663 209 212 181 
-1.69758 0.263353 3.63924 235 216 176 
-0.683212 -0.572106 2.93274 200 178 157 
-0.126697 -1.12528 3.52959 58 36 25 
-2.76985 -1.50081 4.90747 219 228 183 
-0.622531 -0.446297 2.99848 245 217 195 
-0.0417073 -1.62494 3.68462 215 199 174 
-0.208317 -1.13099 3.43332 57 39 29 
0.855106 -0.750715 4.7397 202 183 168 
-0.558015 -0.575622 3.08157 255 247 228 
-1.09703 0.343165 2.96724 77 56 39 
-1.78379 -1.33883 4.05559 192 171 144 
-5.54285 -4.23476 9.88695 240 239 237 
0.895743 -0.811721 4.79031 92 61 41 
-0.582547 -1.29283 3.04271 111 91 82 
0.320735 -1.77638 4.13942 58 42 29 
-1.10424 0.333849 2.97478 176 157 125 
-1.73512 -0.910301 3.68127 249 240 233 
-0.535021 -1.30312 3.05484 199 192 176 
-0.61558 -0.660294 3.01723 210 186 162 
0.254655 -0.845855 4.01148 113 91 77 
-2.88945 -0.851005 4.57006 102 61 43 
-0.305429 -0.556107 2.94984 246 240 204 
0.338737 -1.82501 4.17563 102 85 77 
-0.526798 -1.27554 3.07217 214 195 180 
-1.61825 -1.18541 3.83761 234 217 197 
-1.08295 0.366642 2.96478 73 50 34 
-0.350832 -1.11029 3.25129 63 46 36 
0.745821 -0.914047 4.59784 66 50 37 
-2.79455 -0.575574 4.62586 164 150 137 
-1.42884 -0.850934 3.71185 254 247 231 
-0.491815 -1.25206 3.11003 251 239 217 
-2.78161 -0.583778 4.62723 182 161 144 
-2.85378 -1.05655 4.62755 235 218 200 
-2.98731 -1.01362 4.46815 201 182 167 
0.732912 -0.984942 4.5792 71 56 49 
-1.46434 -0.842059 3.70484 198 192 180 
-0.110869 -0.756781 3.46958 67 40 21 
-2.88102 -1.03774 4.58902 218 197 180 
-0.495651 -1.08229 3.09073 254 231 213 
-2.89874 -1.05321 4.56867 239 217 193 
-3.03371 -0.88215 4.38204 226 213 194 
-1.72326 -0.796512 3.67318 211 191 164 
-0.0888052 -1.41163 3.61099 214 191 175 
-1.62086 -1.07666 3.81043 211 210 153 
-1.78808 -0.161301 3.56372 245 228 210 
-2.99253 -1.04894 4.43638 227 209 185 
-1.44652 -0.0136556 3.65963 233 217 202 
-2.84877 -1.06504 4.62471 249 230 213 
-0.091131 -1.38405 3.60037 230 205 185 
-1.68705 0.229274 3.64266 210 188 167 
-0.658005 0.339701 2.91363 66 50 37 
-0.205405 -0.982864 3.42667 226 210 195 
0.259338 -0.846865 4.02915 36 16 5 
-0.68999 -0.801941 2.93961 242 215 196 
-0.576995 -1.31243 3.04755 74 38 22 
-2.85231 -1.0551 4.6239 235 218 200 
-0.62278 -1.21489 3.04668 184 171 165 
-1.65726 -0.103887 3.72001 230 204 179 
-0.287579 -0.0903165 2.85412 221 215 181 
-0.492032 -1.25167 3.1083 251 239 217 
0.204126 -0.181759 3.92371 225 204 175 
-0.125346 -0.735568 3.47472 110 80 69 
-2.90295 -0.863284 4.55528 76 50 37 
-0.527263 -1.27632 3.07277 214 195 180 
0.0375615 -1.85941 3.80489 212 200 186 
0.90466 -0.81719 4.81327 109 80 64 
-2.86673 -0.749436 4.62124 80 58 60 
-2.79108 -0.5809 4.6178 234 222 196 
-1.72048 -1.33863 3.99964 190 173 155 
-1.42878 -0.852659 3.7161 255 239 224 
-0.776353 -0.463701 2.8156 251 214 196 
-1.72216 -0.754867 3.66749 210 183 162 
-0.569147 -0.566066 3.07811 85 57 35 
-2.84874 -1.06754 4.62474 237 216 197 
-0.494025 -1.10063 3.0861 241 219 195 
-3.01801 -1.12587 4.415 247 225 204 
-0.777457 -0.449488 2.81974 120 79 57 
-1.64687 -0.459656 3.74895 74 42 17 
-0.578026 -1.30977 3.03794 95 60 41 
-0.718684 -0.128933 2.87405 202 196 184 
-0.614768 -0.0871834 2.98085 167 138 120 
-0.525959 -1.27899 3.07413 211 192 177 
-2.86755 -0.749596 4.6197 77 57 56 
-0.136545 -1.70302 3.58148 57 40 32 
-0.15527 -1.69666 3.57034 64 37 26 
-0.500949 -1.25134 3.10238 251 240 222 
-1.44416 -0.0020457 3.6586 75 53 39 
-0.565465 -1.36114 3.02249 254 237 221 
-0.581076 -1.36538 3.03765 250 237 221 
-0.58093 -1.28921 3.03592 88 70 60 
-2.8073 -0.610389 4.63402 247 224 208 
-1.72242 -1.34178 4.01093 248 242 210 
-1.61571 -1.15976 3.84594 254 249 230 
-3.01689 -1.12484 4.41227 249 227 204 
0.727886 -1.51296 4.63415 74 60 47 
-2.86497 -0.748782 4.60771 60 45 42 
-2.79661 -0.586599 4.63083 227 214 180 
-2.86428 -0.723622 4.6354 74 45 29 
-2.87581 -0.720942 4.57799 64 30 18 
-1.10555 0.323922 2.9737 37 19 5 
-2.9067 -0.862099 4.55292 61 43 29 
-0.287826 -0.0863317 2.85111 193 183 173 
-0.586696 -1.30438 3.04294 254 244 232 
-0.568646 -1.27938 3.04991 182 169 150 
-0.570225 -0.478944 3.05898 116 82 55 
-5.57076 -4.21524 9.76714 239 238 236 
-0.52598 -1.28184 3.07438 183 162 145 
-5.53135 -4.2311 9.82971 235 233 234 
-1.44249 -0.00293696 3.65202 88 69 54 
-0.146103 -0.690467 3.46052 246 224 211 
0.773174 -0.938359 4.63768 214 192 178 
-2.80243 -0.60933 4.62092 248 225 207 
-0.614042 -0.0833758 2.98658 229 202 181 
-0.535304 -1.3039 3.06052 222 213 196 
-0.59424 -0.291708 3.02165 252 236 213 
0.0999762 -0.292284 3.80065 253 235 211 
-0.344354 -0.971843 3.25022 254 238 225 
-0.76271 -0.692379 2.85495 211 184 165 
-0.30017 -0.0388138 2.83 201 181 148 
-1.42966 -0.421562 3.6429 79 61 47 
-1.71326 0.23475 3.59265 231 205 172 
-1.76322 -0.162114 3.53277 200 183 163 
-1.66863 -0.0567024 3.65695 245 223 202 
-1.7582 -0.106202 3.54032 241 232 199 
-0.412441 -0.296342 2.96877 75 44 24 
-1.65339 -0.0789154 3.67863 239 229 202 
-1.6304 -0.408249 3.7048 253 237 212 
-1.59215 -0.168595 3.76738 140 120 96 
-1.71415 -0.350801 3.5989 240 197 165 
-1.69732 -0.159589 3.61806 220 204 168 
-0.508979 -0.148713 3.0261 82 50 25 
-1.59194 -0.169286 3.75498 122 96 73 
-3.29804 0.215773 3.91396 86 67 50 
-1.64992 -0.102863 3.68387 233 213 186 
-3.05459 0.240041 3.93292 214 206 159 
-3.06767 -0.100407 3.95357 206 193 185 
-1.44793 0.329603 3.61483 41 23 9 
