ply                 
format ascii 1.0    
element vertex 412
property float x    
property float y    
property float z    
property uchar red  
property uchar green
property uchar blue 
end_header          
-3.09068 -0.995015 4.32054 207 188 174 
-0.554861 -0.299061 3.08812 99 76 60 
-2.95431 -1.04047 4.46322 223 202 183 
-1.68468 -0.570869 3.70973 232 200 179 
-2.7167 -1.47603 4.917 213 228 187 
-1.6457 -0.0864495 3.73 251 237 211 
-2.80184 -1.04024 4.63337 249 230 213 
-2.87078 -1.00767 4.55698 216 198 162 
-1.67129 -0.597137 3.7235 226 189 170 
-0.4215 -0.295087 2.99437 75 44 24 
-2.79963 -1.05053 4.64035 229 208 191 
-0.439087 -1.31256 3.19977 195 190 161 
-0.658331 -0.377254 2.98392 77 59 49 
-0.463708 -0.15724 3.00999 91 59 38 
-2.93826 -0.958873 4.48173 229 207 186 
-2.95995 -0.978713 4.45521 205 196 197 
-0.573016 -0.671025 3.1067 105 76 58 
-1.63346 -0.106463 3.74417 245 213 190 
-0.793395 -0.748616 2.85505 210 189 168 
-5.29847 -3.99914 9.52561 207 201 203 
-0.754319 -0.738366 2.89545 222 219 210 
-0.58428 -0.3366 3.07187 113 85 64 
-5.09318 -3.83328 9.74863 212 209 204 
-0.524981 -0.356851 3.06386 93 61 36 
0.796614 -1.42702 4.71706 63 50 41 
-0.604841 -0.0500699 3.03735 77 54 38 
-0.199376 -1.2793 3.48953 247 247 237 
-1.67999 -0.2441 3.69576 72 41 21 
-0.511991 -0.335739 3.05621 88 61 40 
-1.71744 -0.691725 3.6792 100 72 48 
-2.79608 -0.870072 4.63442 210 200 198 
-0.554119 -0.274168 3.08384 92 65 46 
-2.96504 -1.07594 4.46073 238 217 200 
-0.419344 -0.302139 2.99376 72 40 15 
-2.96121 -1.0716 4.45483 212 189 171 
-1.60455 -0.574671 3.80818 238 208 174 
-0.601494 -1.35274 3.07479 199 181 171 
-2.78395 -0.894177 4.65222 218 191 172 
-2.94246 -0.999673 4.48111 229 207 194 
-1.72131 -0.613648 3.67347 104 73 55 
-0.588182 -0.86899 3.11047 165 149 126 
-0.220638 -0.865685 3.42778 237 221 206 
-1.63467 -1.0388 3.79856 214 199 166 
-0.706635 -0.0461995 2.90366 70 44 31 
-0.106053 -1.49764 3.6234 53 31 17 
-0.465149 -0.886406 3.13628 225 206 192 
-1.43166 -0.00842679 3.67559 73 53 42 
-0.418337 -0.925942 3.19416 228 214 201 
-1.57301 -0.846839 3.85942 248 227 198 
-1.69004 -0.166648 3.67949 192 170 149 
0.798477 -1.42829 4.72225 65 52 43 
-1.58322 -0.175342 3.80817 91 63 41 
-2.87222 -1.00856 4.5599 216 198 162 
-1.63424 -0.172485 3.74792 246 231 202 
0.176664 -0.461017 3.96094 212 195 179 
0.0893528 -0.536391 3.83871 249 235 209 
-1.64589 -0.0861906 3.73111 251 237 211 
0.735254 -1.24928 4.64539 227 220 202 
-0.331484 -1.15629 3.32704 218 205 189 
-0.488595 -0.84328 3.09968 251 228 196 
-1.42839 -0.424055 3.70427 202 180 166 
-2.80251 -1.04027 4.6351 249 230 213 
-0.718723 -0.392121 2.91942 222 192 166 
-1.68464 -0.570987 3.70962 232 200 179 
-0.284088 -0.0836491 2.876 198 193 164 
-2.82489 -1.03803 4.59831 231 212 198 
-0.604839 -0.0501839 3.03729 77 54 38 
-0.689101 -0.269141 2.94072 220 195 175 
0.45322 -1.51085 4.32468 69 51 37 
-2.79974 -1.05099 4.64023 229 208 191 
-0.463366 -0.157417 3.01191 121 95 72 
-1.63386 -0.106635 3.74694 249 217 192 
-0.55377 -0.273894 3.08319 92 65 46 
-3.09081 -0.994555 4.32256 217 198 184 
-1.64236 -0.112199 3.74136 252 228 204 
-0.793451 -0.748396 2.85456 210 189 168 
-0.749817 -0.234189 2.86659 235 225 198 
-1.32473 -0.591943 3.62122 116 82 55 
-0.464708 -1.23728 3.1544 214 202 176 
-0.573127 -0.670504 3.10639 115 88 69 
-2.95303 -1.03993 4.46134 223 202 183 
-1.64241 -0.515191 3.76772 235 236 218 
-0.199182 -1.27959 3.49041 247 247 237 
-2.79607 -0.869051 4.63405 216 203 195 
-1.75457 -0.114064 3.604 210 212 198 
-1.65853 -0.558222 3.73568 208 185 154 
-0.344822 -1.05587 3.29287 225 206 191 
-0.259651 -0.854307 3.37259 50 29 12 
-2.9943 -0.875486 4.40836 233 220 201 
-0.752262 -0.716171 2.89198 201 190 158 
0.0343721 -1.85444 3.8327 64 46 36 
-0.630265 -0.450167 3.02513 250 222 198 
-1.6625 -0.0644436 3.71187 224 204 177 
-0.584179 -0.336984 3.07232 103 77 54 
-0.694288 -0.378314 2.94219 88 69 54 
-0.31086 -1.11114 3.34635 83 64 50 
-0.122403 -0.754839 3.49464 67 40 21 
-1.70757 -0.797249 3.6951 195 169 146 
-1.6598 -0.0580357 3.71993 197 178 161 
-2.94103 -0.998782 4.47745 196 173 159 
-1.71925 -0.692852 3.68475 100 72 48 
-1.42031 -0.846141 3.73701 255 244 230 
-0.343617 -0.822037 3.26105 229 213 198 
-0.792579 -0.750597 2.85063 73 52 31 
-0.174594 -0.847482 3.47466 64 50 41 
-0.681322 0.326754 2.91754 249 241 218 
-2.9518 -1.05487 4.47046 193 175 155 
-0.401241 -0.866773 3.2086 215 201 190 
-0.690743 0.281375 2.90726 254 242 220 
-2.95137 -1.04022 4.45921 207 184 166 
-3.08928 -0.994374 4.32079 217 198 184 
-5.25477 -4.01819 9.63718 251 252 247 
-2.80093 -1.0517 4.63549 238 217 198 
-0.639494 -1.24925 3.07553 217 207 205 
-0.63016 -1.24275 3.08318 200 185 166 
-0.415727 -0.915636 3.19467 220 207 198 
-0.135196 -0.734762 3.49942 59 30 12 
0.210822 -1.55226 4.01711 70 53 43 
-0.416691 -0.920334 3.18919 129 111 101 
-0.0564905 -1.75478 3.72044 100 74 61 
-1.64119 -0.112016 3.73558 245 221 197 
-0.30977 -0.975276 3.32634 224 214 202 
-0.157412 -0.700779 3.47979 199 181 171 
-2.99378 -0.875377 4.40871 233 220 201 
-0.78044 -0.848784 2.8647 223 225 185 
-0.758273 -0.86655 2.89764 242 230 214 
0.875012 -0.913396 4.80829 65 54 48 
-2.8562 -0.856736 4.57784 89 60 44 
-0.625235 -1.11546 3.08187 218 220 206 
-0.643375 -0.190649 2.99258 255 247 236 
-0.57666 -1.09913 3.14128 245 223 212 
-0.499697 -1.07855 3.11329 246 227 210 
-0.420025 -0.303378 2.99224 79 47 22 
-0.57637 -0.336422 3.07466 84 50 23 
-0.699998 -0.327164 2.93661 202 185 167 
-1.62594 -0.415146 3.77561 226 199 178 
0.177117 -0.460333 3.95723 212 195 179 
0.0420268 -1.84914 3.83483 83 74 57 
0.0344026 -1.8544 3.83297 64 46 36 
-0.664984 -0.469777 2.98143 244 231 214 
-1.65868 -0.559229 3.73727 202 179 148 
-2.87449 -1.01163 4.56301 203 186 142 
-0.465617 -0.88722 3.13745 237 218 203 
-1.67898 -0.244309 3.69791 55 24 6 
-0.312711 -1.13009 3.34128 82 63 48 
-2.75261 -0.907332 4.68878 206 179 160 
-0.567573 -0.152901 3.07722 230 218 180 
-1.6354 -0.173925 3.74848 233 216 190 
-1.56678 -1.14459 3.87705 101 74 53 
-2.31234 -1.01732 4.53781 67 32 12 
-0.285111 -0.083177 2.87132 202 197 168 
-0.697278 -0.801712 2.96654 248 223 201 
-2.80164 -0.724612 4.6297 92 55 39 
-0.400856 -0.868331 3.21055 231 215 202 
-0.605293 0.2484 3.01827 244 230 203 
-2.81381 -0.737888 4.62678 96 71 66 
-5.25379 -4.01718 9.63137 248 247 243 
-0.497909 -1.1653 3.12334 253 232 215 
0.499983 -0.625397 4.27217 236 223 207 
-1.60531 -1.17637 3.86265 244 229 206 
0.180054 -1.82291 4.02036 62 45 35 
-2.95356 -1.04182 4.46466 218 198 174 
-1.42694 -0.430258 3.7069 68 46 32 
-0.639531 -1.24896 3.07607 211 201 192 
-0.639962 -0.332173 3.01047 71 45 28 
-2.74599 -0.963909 4.70754 224 198 175 
-2.80114 -1.03946 4.62876 235 218 200 
-1.4203 -0.846883 3.73782 255 244 230 
-1.10489 0.321355 2.99033 201 182 139 
-0.637876 -1.23591 3.07681 76 47 43 
-2.85847 -0.855883 4.57701 81 53 39 
-0.582613 -1.0883 3.13186 233 204 186 
-0.66717 -0.751359 3.00266 227 215 193 
-0.626625 -1.22229 3.08574 229 216 199 
0.938132 -0.888896 4.87861 238 225 208 
0.456624 -1.45781 4.31392 218 205 173 
-0.313242 -0.560717 2.98512 254 254 216 
-0.579979 -1.27824 3.07575 81 67 58 
-2.77805 -0.89902 4.66075 207 186 167 
-1.75502 -0.113281 3.60693 214 211 204 
-2.8418 -0.843136 4.58126 102 61 43 
-0.164817 -1.53003 3.55724 187 164 150 
-0.708752 -0.349067 2.92956 230 204 179 
-1.67694 0.217658 3.67121 216 194 173 
-1.45644 -0.839634 3.73243 198 192 180 
-1.57057 -0.854954 3.85681 102 70 49 
-2.91367 -1.11181 4.51203 211 194 174 
-2.7266 -1.46598 4.91171 209 212 181 
-1.68659 0.250687 3.663 235 216 176 
-0.690002 -0.575469 2.95739 200 178 157 
-0.137249 -1.11739 3.5493 58 36 25 
-2.71809 -1.47586 4.91251 219 228 183 
-0.629594 -0.450575 3.02293 245 217 195 
-0.0529904 -1.6078 3.70227 215 199 174 
-0.217963 -1.12398 3.45426 57 39 29 
0.82297 -0.739365 4.72896 202 183 168 
-0.5652 -0.578138 3.10567 255 247 228 
-1.1003 0.330791 2.99269 77 56 39 
-1.7648 -1.32463 4.07449 192 171 144 
-5.25353 -4.01881 9.62858 240 239 237 
0.862312 -0.798503 4.77772 92 61 41 
-0.589246 -1.28793 3.06695 111 91 82 
0.303186 -1.74995 4.14782 58 42 29 
-1.10736 0.321547 3.00024 176 157 125 
-1.72209 -0.905982 3.70453 249 240 233 
-0.542143 -1.29794 3.07893 199 192 176 
-0.622472 -0.662292 3.04163 210 186 162 
0.238014 -0.838155 4.02241 113 91 77 
-2.84238 -0.842878 4.58302 102 61 43 
-0.315729 -0.559253 2.97355 246 240 204 
0.32081 -1.7971 4.18322 102 85 77 
-0.533936 -1.27048 3.0962 214 195 180 
-1.60477 -1.17558 3.85893 234 217 197 
-1.08639 0.354059 2.99022 73 50 34 
-0.359262 -1.10531 3.27405 63 46 36 
0.717178 -0.900005 4.59208 66 50 37 
-2.74858 -0.572713 4.63759 164 150 137 
-1.41988 -0.847057 3.73411 254 247 231 
-0.499156 -1.24687 3.13385 251 239 217 
-2.73586 -0.580734 4.63891 182 161 144 
-2.80609 -1.04379 4.63922 235 218 200 
-2.94019 -1.00298 4.48316 201 182 167 
0.7047 -0.969447 4.57407 71 56 49 
-1.45496 -0.83839 3.72727 198 192 180 
-0.121958 -0.754508 3.48977 67 40 21 
-2.83356 -1.02567 4.60153 218 197 180 
-0.503143 -1.07917 3.11462 254 231 213 
-2.8513 -1.04099 4.58162 239 217 193 
-2.98759 -0.874667 4.39867 226 213 194 
-1.7106 -0.793909 3.6965 211 191 164 
-0.0996013 -1.39868 3.6297 214 191 175 
-1.60776 -1.06878 3.83209 211 210 153 
-1.77647 -0.168174 3.58818 245 228 210 
-2.94591 -1.03784 4.45195 227 209 185 
-1.43853 -0.0222458 3.68256 233 217 202 
-2.80123 -1.05212 4.63642 249 230 213 
-0.101926 -1.37163 3.61919 230 205 185 
-1.67614 0.21709 3.66637 210 188 167 
-0.665714 0.327717 2.93823 66 50 37 
-0.215188 -0.977914 3.44765 226 210 195 
0.242595 -0.839018 4.03974 36 16 5 
-0.696528 -0.803026 2.96426 242 215 196 
-0.583713 -1.30727 3.07175 74 38 22 
-2.80472 -1.0424 4.63564 235 218 200 
-0.62909 -1.21083 3.07101 184 171 165 
-1.64552 -0.111235 3.74287 230 204 179 
-0.298623 -0.0981492 2.87785 221 215 181 
-0.49938 -1.24649 3.13213 251 239 217 
0.188128 -0.186224 3.93642 225 204 175 
-0.136237 -0.733573 3.49492 110 80 69 
-2.8559 -0.85501 4.56856 76 50 37 
-0.534392 -1.27125 3.09679 214 195 180 
0.0252641 -1.83676 3.8206 212 200 186 
0.870868 -0.803671 4.7999 109 80 64 
-2.81923 -0.743075 4.63318 80 58 60 
-2.74532 -0.577963 4.62969 234 222 196 
-1.70326 -1.3249 4.01916 190 173 155 
-1.41978 -0.848728 3.73832 255 239 224 
-0.783134 -0.468643 2.84038 251 214 196 
-1.70961 -0.752907 3.69088 210 183 162 
-0.576239 -0.568712 3.10225 85 57 35 
-2.80119 -1.05457 4.63646 237 216 197 
-0.501546 -1.09734 3.11 241 219 195 
-2.97125 -1.11344 4.43096 247 225 204 
-0.784211 -0.45454 2.84452 120 79 57 
-1.63463 -0.46163 3.77143 74 42 17 
-0.584786 -1.30473 3.06218 95 60 41 
-0.725798 -0.13667 2.89877 202 196 184 
-0.622228 -0.0950872 3.00532 167 138 120 
-0.533094 -1.27388 3.09814 211 192 177 
-2.82006 -0.743239 4.63166 77 57 56 
-0.146535 -1.68616 3.60076 57 40 32 
-0.165014 -1.68008 3.58982 64 37 26 
-0.508229 -1.24624 3.12625 251 240 222 
-1.43623 -0.010801 3.68156 75 53 39 
-0.572405 -1.3557 3.04672 254 237 221 
-0.587773 -1.35974 3.06189 250 237 221 
-0.587684 -1.28442 3.06017 88 70 60 
-2.76088 -0.606784 4.6456 247 224 208 
-1.70502 -1.3279 4.0303 248 242 210 
-1.60219 -1.15027 3.86717 254 249 230 
-2.97021 -1.11245 4.42828 249 227 204 
0.69984 -1.48485 4.6278 74 60 47 
-2.81776 -0.742507 4.61992 60 45 42 
-2.75049 -0.583491 4.64245 227 214 180 
-2.81657 -0.717715 4.64705 74 45 29 
-2.829 -0.715402 4.59082 64 30 18 
-1.10866 0.311716 2.99917 37 19 5 
-2.85963 -0.853867 4.56626 61 43 29 
-0.29888 -0.0942045 2.87484 193 183 173 
-0.593344 -1.29935 3.06718 254 244 232 
-0.575458 -1.27455 3.0741 182 169 150 
-0.57746 -0.482603 3.08318 116 82 55 
-5.28427 -4.00356 9.51914 239 238 236 
-0.533112 -1.27669 3.09839 183 162 145 
-5.24459 -4.01682 9.57613 235 233 234 
-1.43465 -0.0116838 3.67502 88 69 54 
-0.156763 -0.689199 3.48094 246 224 211 
0.743694 -0.923412 4.6306 214 192 178 
-2.75636 -0.605804 4.63276 248 225 207 
-0.621479 -0.091309 3.01104 229 202 181 
-0.542394 -1.29866 3.0846 222 213 196 
-0.601548 -0.29746 3.04599 252 236 213 
0.0858217 -0.295282 3.81585 253 235 211 
-0.352944 -0.968561 3.27296 254 238 225 
-0.769196 -0.695065 2.87974 211 184 165 
-0.311212 -0.0471429 2.85375 201 181 148 
-1.42059 -0.423321 3.65385 79 61 47 
-1.70084 0.221654 3.60642 231 205 172 
-1.75068 -0.168903 3.5485 200 183 163 
-1.65578 -0.0649262 3.66922 245 223 202 
-1.74565 -0.113852 3.55582 241 232 199 
-0.423873 -0.301395 2.98135 75 44 24 
-1.64047 -0.0867182 3.6903 239 229 202 
-1.61727 -0.410212 3.71599 253 237 212 
-1.57898 -0.174592 3.7766 140 120 96 
-1.70124 -0.354297 3.61303 240 197 165 
-1.68451 -0.16617 3.63148 220 204 168 
-0.518946 -0.155666 3.03871 82 50 25 
-1.57894 -0.175299 3.76449 122 96 73 
-3.25705 0.202218 3.93504 86 67 50 
-1.63696 -0.11024 3.69542 233 213 186 
-3.01605 0.226067 3.95086 214 206 159 
-3.02798 -0.108498 3.97092 206 193 185 
-1.4394 0.314918 3.62579 41 23 9 
0.0883157 -0.536942 3.82633 228 211 195 
0.600314 -0.56628 4.37217 210 196 170 
-0.268351 -0.799091 3.36563 38 29 20 
-1.66965 -0.565508 3.67539 222 194 173 
-0.815501 -0.475965 2.88462 90 49 31 
-0.446141 -0.84637 3.17432 237 233 221 
-1.64523 -0.55618 3.711 210 183 156 
-0.653524 -0.532288 3.04818 223 213 188 
0.598592 -0.191416 4.37431 78 55 41 
0.628994 -0.462096 4.41621 101 77 65 
-0.69001 -0.389064 3.00963 246 225 206 
-0.31967 -0.515967 2.9709 48 29 12 
-0.773999 -0.485167 2.9167 220 192 170 
-0.341881 -0.764552 3.28716 225 201 191 
-0.127647 -0.645368 3.50992 226 208 184 
0.58394 -0.198005 4.35543 231 226 223 
-0.577074 -0.664509 3.13628 93 60 43 
-0.674727 -0.47634 3.02752 192 174 154 
-0.707385 -0.520069 2.98921 208 182 169 
-0.177875 -0.628364 3.46009 218 196 182 
-0.763324 -0.747344 2.93193 213 203 191 
-0.491012 -0.85107 3.12617 221 208 191 
-0.146338 -0.661994 3.49014 50 40 31 
-0.62416 -0.658239 3.08471 215 201 190 
-0.341192 -0.808732 3.28183 182 176 162 
-0.202952 -0.650411 3.4342 229 208 191 
-0.332248 -0.73727 3.29416 214 196 184 
0.590141 -0.189558 4.36784 77 56 39 
-0.260256 -0.777822 3.37933 210 201 192 
-0.650952 -0.559631 3.05145 219 197 184 
-0.640346 -0.709268 3.06286 197 179 159 
0.644533 -0.397467 4.42892 195 180 157 
-0.194985 -0.657063 3.44053 99 77 66 
-0.0918448 -0.75614 3.50014 172 151 130 
-0.119331 -0.602542 3.52448 49 33 20 
-0.205179 -0.668345 3.43341 238 220 210 
-0.199112 -0.789247 3.4287 208 192 169 
-0.637747 -0.456375 3.06358 230 216 207 
-0.25838 -0.731407 3.37286 230 216 215 
-1.62541 -0.509297 3.7272 251 251 215 
-0.666669 -0.588738 3.02981 189 168 147 
-0.321561 -0.756518 3.30702 42 32 23 
0.706524 -0.43796 4.50371 111 82 66 
0.686575 -0.426162 4.4706 100 72 51 
-0.246823 -0.736791 3.37983 87 63 51 
-0.640817 -0.471788 3.06454 244 213 192 
0.600423 -0.0268037 4.37283 228 226 213 
-0.320482 -0.565381 3.01322 172 167 148 
-0.147747 -0.559325 3.49545 46 36 26 
-0.315246 -0.741468 3.31101 52 34 24 
0.795648 -0.563192 4.44459 65 40 10 
-0.697828 -0.455546 3.00044 243 216 197 
-0.207436 -0.593267 3.43423 217 190 179 
-0.245303 -0.761386 3.3831 217 201 186 
-0.233833 -0.826802 3.38838 39 32 24 
0.664433 -0.553545 4.44082 214 190 166 
-0.58794 -0.495189 3.11825 215 183 158 
-0.58069 -0.67568 3.13039 78 50 28 
-0.673351 -0.758373 3.03201 213 195 181 
-0.361097 -0.836883 3.25649 86 68 54 
0.550281 -0.223826 4.30798 164 158 136 
0.620738 0.0937541 4.37125 58 45 11 
-0.656002 -0.34859 3.04441 214 185 167 
0.698182 -0.134073 4.49018 82 45 19 
0.71018 -0.120651 4.50632 137 95 71 
1.06375 0.282387 4.52647 83 55 43 
-0.152134 -0.651953 3.48641 71 64 58 
-0.382124 -0.824344 3.24493 238 224 215 
-0.228408 -0.709301 3.41561 239 223 210 
0.702502 -0.282349 4.50137 109 72 53 
0.703146 -0.424474 4.50486 106 69 50 
0.59824 -0.122664 4.37671 239 221 201 
0.660292 -0.184148 4.45929 230 213 203 
0.706672 -0.251591 4.52826 151 114 96 
0.904718 0.0199646 4.34767 86 62 38 
0.50579 0.133046 4.24074 208 189 159 
0.970243 -0.0211525 4.44279 246 247 233 
0.936361 0.0939852 4.4039 78 59 44 
0.705147 -0.250556 4.50544 106 64 42 
0.912235 0.021795 4.3846 59 44 25 
-0.127713 -0.612943 3.51293 52 43 36 
-0.12626 -0.50969 3.51725 239 221 201 
-0.157613 -0.573006 3.47902 170 142 128 
-6.13489 -4.36275 9.40487 95 87 85 
-0.341077 -0.824344 3.27461 223 204 190 
-1.7043 -0.773221 3.67228 213 189 163 
0.706719 0.0920682 4.51773 102 71 40 
