ply                 
format ascii 1.0    
element vertex 307
property float x    
property float y    
property float z    
property uchar red  
property uchar green
property uchar blue 
end_header          
-3.13837 -1.00404 4.29902 207 188 174 
-0.54694 -0.29309 3.06168 99 76 60 
-3.00256 -1.0516 4.44441 223 202 183 
-1.69716 -0.569921 3.68365 232 200 179 
-2.77015 -1.50132 4.90884 213 228 187 
-1.65741 -0.0783035 3.70421 251 237 211 
-2.85067 -1.05286 4.61827 249 230 213 
-2.91935 -1.01894 4.54014 216 198 162 
-1.68379 -0.596668 3.69758 226 189 170 
-0.411736 -0.288899 2.96817 75 44 24 
-2.84856 -1.06344 4.62542 229 208 191 
-0.431213 -1.31902 3.17393 195 190 161 
-0.650871 -0.371652 2.95701 77 59 49 
-0.454338 -0.149665 2.9837 91 59 38 
-2.98649 -0.9685 4.46328 229 207 186 
-3.00806 -0.988528 4.43623 205 196 197 
-0.565667 -0.669168 3.0802 105 76 58 
-1.6452 -0.0986512 3.71856 245 213 190 
-0.786568 -0.74581 2.82781 210 189 168 
-5.59575 -4.21625 9.77534 207 201 203 
-0.74743 -0.735751 2.86825 222 219 210 
-0.576597 -0.330952 3.0453 113 85 64 
-5.38855 -4.0485 10.0216 212 209 204 
-0.516656 -0.351442 3.03745 93 61 36 
0.827614 -1.4558 4.72546 63 50 41 
-0.596947 -0.041336 3.0107 77 54 38 
-0.189552 -1.28877 3.46663 247 247 237 
-1.69189 -0.238212 3.66956 72 41 21 
-0.503476 -0.330092 3.02983 88 61 40 
-1.73009 -0.6924 3.65275 100 72 48 
-2.8446 -0.879055 4.61933 210 200 198 
-0.546147 -0.267917 3.0574 92 65 46 
-3.0135 -1.08777 4.44185 238 217 200 
-0.409561 -0.296022 2.96757 72 40 15 
-3.00946 -1.08329 4.43586 212 189 171 
-1.61716 -0.574338 3.78332 238 208 174 
-0.594762 -1.35812 3.04804 199 181 171 
-2.83262 -0.903814 4.63755 218 191 172 
-2.99082 -1.01013 4.46264 229 207 194 
-1.73387 -0.613126 3.64697 104 73 55 
-0.581164 -0.869336 3.08391 165 149 126 
-0.210636 -0.868779 3.40434 237 221 206 
-1.64805 -1.04574 3.77351 214 199 166 
-0.69884 -0.0371871 2.87667 70 44 31 
-0.0953597 -1.51206 3.60226 53 31 17 
-0.456952 -0.887271 3.11019 225 206 192 
-1.43952 0.000776305 3.6499 73 53 42 
-0.409923 -0.927763 3.16844 228 214 201 
-1.58606 -0.851206 3.83525 248 227 198 
-1.70179 -0.159569 3.65312 192 170 149 
0.829552 -1.45718 4.73082 65 52 43 
-1.59512 -0.168751 3.78337 91 63 41 
-2.92088 -1.01987 4.54311 216 198 162 
-1.64611 -0.165681 3.72235 246 231 202 
0.192419 -0.461429 3.94663 212 195 179 
0.103541 -0.537433 3.82184 249 235 209 
-1.65762 -0.0780422 3.70533 251 237 211 
0.76442 -1.27268 4.65119 227 220 202 
-0.322765 -1.16224 3.30232 218 205 189 
-0.480432 -0.843365 3.0734 251 228 196 
-1.43694 -0.421096 3.67887 202 180 166 
-2.85138 -1.05291 4.62003 249 230 213 
-0.711411 -0.386374 2.89234 222 192 166 
-1.69712 -0.57004 3.68354 232 200 179 
-0.27239 -0.0752732 2.8502 198 193 164 
-2.87344 -1.0503 4.58243 231 212 198 
-0.596944 -0.0414511 3.01064 77 54 38 
-0.681565 -0.262315 2.91373 220 195 175 
0.474335 -1.53566 4.31939 69 51 37 
-2.84867 -1.0639 4.62529 229 208 191 
-0.454002 -0.149848 2.98563 121 95 72 
-1.64564 -0.0988294 3.72135 249 217 192 
-0.54579 -0.267639 3.05674 92 65 46 
-3.13855 -1.00359 4.30107 217 198 184 
-1.6542 -0.104462 3.71568 252 228 204 
-0.78662 -0.745585 2.82732 210 189 168 
-0.74229 -0.226788 2.8395 235 225 198 
-1.33099 -0.591185 3.59536 116 82 55 
-0.456849 -1.24234 3.12832 214 202 176 
-0.565777 -0.668639 3.07989 115 88 69 
-3.00122 -1.05104 4.44249 223 202 183 
-1.655 -0.513702 3.74232 235 236 218 
-0.189357 -1.28907 3.46752 247 247 237 
-2.84458 -0.878008 4.61894 216 203 195 
-1.76613 -0.106034 3.57685 210 212 198 
-1.67096 -0.55723 3.70991 208 185 154 
-0.336061 -1.06019 3.26791 225 206 191 
-0.249975 -0.856786 3.34855 50 29 12 
-3.04192 -0.882864 4.38845 233 220 201 
-0.745312 -0.713327 2.86479 201 190 158 
0.0467452 -1.87785 3.81491 64 46 36 
-0.622847 -0.445491 2.99832 250 222 198 
-1.67419 -0.0559293 3.68586 224 204 177 
-0.576498 -0.331342 3.04575 103 77 54 
-0.686894 -0.37254 2.91516 88 69 54 
-0.301925 -1.11671 3.32186 83 64 50 
-0.111154 -0.756992 3.47228 67 40 21 
-1.72041 -0.799613 3.66882 195 169 146 
-1.67155 -0.0494386 3.69401 197 178 161 
-2.98928 -1.00919 4.45891 196 173 159 
-1.73201 -0.693573 3.65834 100 72 48 
-1.42951 -0.8498 3.71196 255 244 230 
-0.334548 -0.823192 3.23596 229 213 198 
-0.785714 -0.747782 2.8234 73 52 31 
-0.164089 -0.850735 3.45185 64 50 41 
-0.673109 0.339183 2.89068 249 241 218 
-3.00018 -1.06636 4.45178 193 175 155 
-0.392656 -0.868021 3.18302 215 201 190 
-0.68258 0.293381 2.88037 254 242 220 
-2.99948 -1.05132 4.44033 207 184 166 
-3.13695 -1.00339 4.29928 217 198 184 
-5.55445 -4.24005 9.89788 251 252 247 
-2.84979 -1.06459 4.62045 238 217 198 
-0.63309 -1.25345 3.04869 217 207 205 
-0.623701 -1.24696 3.05638 200 185 166 
-0.407279 -0.917342 3.16896 220 207 198 
-0.124296 -0.73602 3.47649 62 35 18 
0.226516 -1.57329 4.00361 70 53 43 
-0.408231 -0.922052 3.16346 129 111 101 
-0.0453944 -1.77466 3.70063 100 74 61 
-1.65293 -0.104267 3.70985 245 221 197 
-0.300649 -0.978907 3.30175 224 214 202 
-0.146583 -0.702026 3.45713 199 181 171 
-3.0414 -0.882755 4.38881 233 220 201 
-0.773649 -0.846979 2.83747 223 225 185 
-0.751536 -0.865165 2.87042 242 230 214 
0.908988 -0.930282 4.82067 65 54 48 
-2.90474 -0.864995 4.56142 89 60 44 
-0.61862 -1.11826 3.0551 218 220 206 
-0.635686 -0.183226 2.96574 255 247 236 
-0.569869 -1.10233 3.11481 245 223 212 
-0.491895 -1.08136 3.08698 246 227 210 
-0.410242 -0.297269 2.96605 79 47 22 
-0.568622 -0.330789 3.04812 84 50 23 
-0.69258 -0.320873 2.90958 202 185 167 
-1.63829 -0.412155 3.75034 226 199 178 
0.192881 -0.460717 3.94285 212 195 179 
0.0545328 -1.87251 3.81711 83 74 57 
0.0467762 -1.87781 3.81519 64 46 36 
-0.657643 -0.465083 2.95449 244 231 214 
-1.67114 -0.558261 3.71153 202 179 148 
-2.92327 -1.02302 4.54628 203 186 142 
-0.457431 -0.888102 3.11136 237 218 203 
-1.6909 -0.23843 3.67173 55 24 6 
-0.303793 -1.13586 3.31674 82 63 48 
-2.8014 -0.917544 4.67499 206 179 160 
-0.559614 -0.145332 3.05074 230 218 180 
-1.6473 -0.167143 3.72291 233 216 190 
-1.58024 -1.15398 3.8531 101 74 53 
-2.34928 -1.02918 4.52223 67 32 12 
-0.273404 -0.0747892 2.84552 202 197 168 
-0.690401 -0.800227 2.93946 248 223 201 
-2.84999 -0.730445 4.61447 92 55 39 
-0.392276 -0.869613 3.18498 231 215 202 
-0.597065 0.260154 2.99164 244 230 203 
-2.86237 -0.743976 4.61146 96 71 66 
-5.55316 -4.2388 9.89152 248 247 243 
-0.490204 -1.16919 3.09706 253 232 215 
0.522584 -0.631074 4.26646 236 223 207 
-1.61922 -1.18611 3.83841 244 229 206 
0.19498 -1.84897 4.00658 62 45 35 
-3.00183 -1.05299 4.44588 218 198 174 
-1.4355 -0.427404 3.68153 68 46 32 
-0.63313 -1.25316 3.04923 211 201 192 
-0.63246 -0.326226 2.98364 71 45 28 
-2.7951 -0.975508 4.69421 224 198 175 
-2.84985 -1.05204 4.61357 235 218 200 
-1.42951 -0.85056 3.71277 255 244 230 
-1.1012 0.334158 2.96244 201 182 139 
-0.631452 -1.23998 3.04998 76 47 43 
-2.90703 -0.864116 4.56057 81 53 39 
-0.575825 -1.09129 3.10534 233 204 186 
-0.660201 -0.749628 2.97569 227 215 193 
-0.620129 -1.2263 3.05896 229 216 199 
0.974324 -0.905853 4.89397 238 225 208 
0.477827 -1.48136 4.30843 218 205 173 
-0.302555 -0.557278 2.95922 254 254 216 
-0.572971 -1.28283 3.04908 81 67 58 
-2.82679 -0.908827 4.64628 207 186 167 
-1.76663 -0.105245 3.57979 214 211 204 
-2.89009 -0.851144 4.56495 102 61 43 
-0.15486 -1.544 3.53509 187 164 150 
-0.701384 -0.342955 2.90251 230 204 179 
-1.688 0.230339 3.64478 216 194 173 
-1.46612 -0.843125 3.70722 198 192 180 
-1.58356 -0.859436 3.83261 102 70 49 
-2.96227 -1.12485 4.49423 211 194 174 
-2.78016 -1.49096 4.90339 209 212 181 
-1.69766 0.263847 3.63648 235 216 176 
-0.68282 -0.571688 2.93035 200 178 157 
-0.12659 -1.12521 3.52732 58 36 25 
-2.77148 -1.50109 4.90423 219 228 183 
-0.622156 -0.445894 2.99613 245 217 195 
-0.0417044 -1.62506 3.68231 215 199 174 
-0.208183 -1.13087 3.431 57 39 29 
0.855199 -0.751116 4.7384 202 183 168 
-0.557693 -0.575262 3.07921 255 247 228 
-1.09658 0.343685 2.96482 77 56 39 
-1.78438 -1.33881 4.05256 192 171 144 
-5.55277 -4.24043 9.88846 240 239 237 
0.895838 -0.812173 4.78906 92 61 41 
-0.58229 -1.29252 3.04023 111 91 82 
0.320653 -1.77683 4.13736 58 42 29 
-1.10379 0.334369 2.97236 176 157 125 
-1.73538 -0.910043 3.6783 249 240 233 
-0.534768 -1.30282 3.05237 199 192 176 
-0.615238 -0.659915 3.01484 210 186 162 
0.254702 -0.845955 4.00952 113 91 77 
-2.89073 -0.850893 4.56675 102 61 43 
-0.305021 -0.555737 2.94762 246 240 204 
0.338644 -1.8255 4.17359 102 85 77 
-0.52655 -1.27525 3.06971 214 195 180 
-1.61862 -1.18528 3.83465 234 217 197 
-1.08249 0.367162 2.96238 73 50 34 
-0.350633 -1.11007 3.24891 63 46 36 
0.745875 -0.914455 4.59637 66 50 37 
-2.79582 -0.575391 4.62266 164 150 137 
-1.42905 -0.850711 3.70903 254 247 231 
-0.491579 -1.25179 3.10758 251 239 217 
-2.78287 -0.5836 4.62403 182 161 144 
-2.85512 -1.05654 4.62424 235 218 200 
-2.98855 -1.01352 4.46474 201 182 167 
0.732957 -0.98537 4.5777 71 56 49 
-1.46455 -0.841828 3.70201 198 192 180 
-0.110691 -0.756624 3.46737 67 40 21 
-2.88234 -1.0377 4.58569 218 197 180 
-0.495387 -1.082 3.08831 254 231 213 
-2.90004 -1.05317 4.56532 239 217 193 
-3.03487 -0.881968 4.37862 226 213 194 
-1.72349 -0.796229 3.67023 211 191 164 
-0.0887576 -1.41166 3.60869 214 191 175 
-1.62121 -1.0765 3.80749 211 210 153 
-1.78816 -0.160861 3.56086 245 228 210 
-2.99375 -1.04884 4.43295 227 209 185 
-1.44659 -0.0132471 3.65693 233 217 202 
-2.85012 -1.06503 4.6214 249 230 213 
-0.0910762 -1.38407 3.59807 230 205 185 
-1.68713 0.22976 3.6399 210 188 167 
-0.657495 0.340176 2.91141 66 50 37 
-0.20525 -0.982719 3.42438 226 210 195 
0.25938 -0.846972 4.0272 36 16 5 
-0.689629 -0.801539 2.93718 242 215 196 
-0.576743 -1.31213 3.04506 74 38 22 
-2.85365 -1.05509 4.62058 235 218 200 
-0.62252 -1.21458 3.04419 184 171 165 
-1.65743 -0.103484 3.71721 230 204 179 
-0.287072 -0.0898973 2.852 221 215 181 
-0.491796 -1.25139 3.10585 251 239 217 
0.204264 -0.181639 3.92181 225 204 175 
-0.12517 -0.735408 3.47251 110 80 69 
-2.90422 -0.86317 4.55196 76 50 37 
-0.527014 -1.27603 3.07031 214 195 180 
0.0375082 -1.85966 3.8026 212 200 186 
0.904755 -0.817654 4.81204 109 80 64 
-2.86804 -0.749307 4.61797 80 58 60 
-2.79234 -0.580717 4.61459 234 222 196 
-1.72101 -1.33859 3.99663 190 173 155 
-1.42899 -0.852437 3.71328 255 239 224 
-0.775889 -0.463232 2.81322 251 214 196 
-1.72238 -0.754574 3.66456 210 183 162 
-0.568822 -0.565703 3.07575 85 57 35 
-2.85008 -1.06753 4.62143 237 216 197 
-0.493761 -1.10033 3.08368 241 219 195 
-3.01922 -1.12578 4.41154 247 225 204 
-0.776994 -0.449019 2.81736 120 79 57 
-1.6471 -0.459335 3.74609 74 42 17 
-0.577768 -1.30946 3.03546 95 60 41 
-0.71821 -0.128469 2.87173 202 196 184 
-0.614341 -0.086751 2.97856 167 138 120 
-0.525712 -1.2787 3.07166 211 192 177 
-2.86886 -0.749466 4.61643 77 57 56 
-0.136528 -1.70309 3.5791 57 40 32 
-0.155251 -1.69672 3.56795 64 37 26 
-0.500711 -1.25106 3.09993 251 240 222 
-1.44423 -0.00163509 3.65591 75 53 39 
-0.565205 -1.36083 3.02 254 237 221 
-0.580825 -1.36507 3.03516 250 237 221 
-0.580669 -1.2889 3.03344 88 70 60 
-2.80858 -0.61022 4.6308 247 224 208 
-1.72296 -1.34175 4.00792 248 242 210 
-1.61609 -1.15963 3.84299 254 249 230 
-3.0181 -1.12475 4.40882 249 227 204 
0.727854 -1.51364 4.63258 74 60 47 
-2.86626 -0.748648 4.60444 60 45 42 
-2.79788 -0.586422 4.62762 227 214 180 
-2.86559 -0.723488 4.63214 74 45 29 
-2.87708 -0.720787 4.57471 64 30 18 
-1.1051 0.324441 2.97128 37 19 5 
-2.90797 -0.861983 4.54959 61 43 29 
-0.287318 -0.0859117 2.84899 193 183 173 
-0.586441 -1.30407 3.04045 254 244 232 
-0.56839 -1.27908 3.04743 182 169 150 
-0.569881 -0.478567 3.05663 116 82 55 
-5.58053 -4.22077 9.76838 239 238 236 
-0.525734 -1.28155 3.07191 183 162 145 
-5.54117 -4.23671 9.8311 235 233 234 
-1.44256 -0.00252549 3.64933 88 69 54 
-0.145919 -0.690291 3.4583 246 224 211 
0.773228 -0.938795 4.63624 214 192 178 
-2.8037 -0.609157 4.6177 248 225 207 
-0.613618 -0.0829443 2.98429 229 202 181 
-0.535054 -1.30361 3.05805 222 213 196 
-0.593857 -0.291303 3.01933 252 236 213 
0.10012 -0.292151 3.79866 253 235 211 
-0.344138 -0.971612 3.24787 254 238 225 
-0.762294 -0.691934 2.85253 211 184 165 
-0.299646 -0.038386 2.82788 201 181 148 
