ply                 
format ascii 1.0    
element vertex 179
property float x    
property float y    
property float z    
property uchar red  
property uchar green
property uchar blue 
end_header          
-1.96916 -0.760611 3.49513 72 105 62 
-1.88901 -0.654517 3.44215 169 133 107 
-1.93732 -0.65608 3.46175 249 206 153 
-1.64038 -0.677991 3.75224 107 87 76 
0.757925 -0.690125 3.90891 24 17 0 
0.703789 -0.678213 3.91207 76 70 56 
0.756114 -0.675534 3.91003 37 26 8 
0.856121 -0.667102 3.90799 109 99 87 
0.681449 -0.660474 3.91013 35 28 12 
-1.59934 -0.616849 3.76463 118 101 94 
-1.65079 -0.611973 3.75631 113 100 84 
-1.64902 -0.604907 3.75013 14 0 0 
0.750731 -0.635952 3.91424 97 84 76 
0.85103 -0.629209 3.90384 38 23 0 
0.856761 -0.614202 3.91591 113 104 87 
-1.58538 -0.581201 3.75198 15 1 0 
0.737505 -0.613765 3.9139 116 102 93 
-1.65389 -0.575985 3.74533 87 71 58 
-1.64362 -0.575782 3.74099 10 0 0 
0.828468 -0.607848 3.91071 73 56 28 
0.902866 -0.606481 3.91161 70 63 53 
0.73963 -0.601177 3.91687 35 19 3 
0.773678 -0.599026 3.91265 64 47 17 
-1.81878 -0.541434 3.62024 146 130 117 
-1.81211 -0.542569 3.62572 136 124 108 
0.847894 -0.595124 3.9129 117 105 81 
0.860983 -0.592921 3.92095 33 20 4 
0.721687 -0.591481 3.91599 133 120 103 
0.87566 -0.582632 3.91283 24 7 0 
0.797657 -0.580284 3.91451 66 52 25 
0.797444 -0.574715 3.91552 68 53 30 
0.872051 -0.572404 3.90981 51 35 20 
0.876248 -0.571615 3.9156 27 11 0 
0.833304 -0.570745 3.91652 26 10 0 
0.838704 -0.569443 3.91442 113 97 82 
0.844984 -0.569732 3.91421 27 14 0 
0.761514 -0.567983 3.91508 69 58 28 
0.86186 -0.567651 3.91196 27 11 0 
0.805707 -0.566149 3.91491 24 8 0 
0.783423 -0.564034 3.91324 27 11 0 
0.794188 -0.564554 3.91673 22 6 0 
0.770687 -0.561197 3.91361 32 19 0 
0.809716 -0.561308 3.91257 124 107 99 
0.822634 -0.559833 3.91203 127 111 98 
0.776502 -0.556326 3.91047 117 100 90 
0.851299 -0.556354 3.91487 45 31 20 
0.727806 -0.556136 3.91365 94 79 56 
0.733602 -0.555481 3.91291 22 9 0 
0.740471 -0.556746 3.91392 121 110 92 
0.862957 -0.554719 3.91254 45 27 13 
0.854055 -0.54906 3.91533 126 107 100 
0.821338 -0.54855 3.91458 118 99 92 
0.807637 -0.544388 3.91392 118 100 90 
0.82419 -0.542497 3.91591 28 10 0 
0.85078 -0.541823 3.913 18 0 0 
0.796665 -0.540916 3.915 94 75 71 
0.803004 -0.538855 3.91546 22 4 0 
0.824105 -0.541475 3.91699 24 5 0 
0.715974 -0.538007 3.91769 25 9 0 
0.779819 -0.53805 3.91588 27 8 2 
0.791124 -0.537347 3.91521 39 19 8 
0.733651 -0.537262 3.91556 36 19 3 
-1.75926 -0.444959 3.60463 205 155 96 
0.595364 -0.377435 3.66041 72 35 0 
0.665017 -0.372368 3.62849 130 86 0 
-1.58396 -0.390981 3.76755 102 74 73 
0.917158 -0.403667 3.91953 94 81 73 
0.759833 -0.35711 3.62348 180 142 45 
0.752281 -0.353369 3.61729 54 10 0 
0.761054 -0.337015 3.61767 32 0 0 
-1.93679 -0.306827 3.68506 67 15 0 
0.632025 -0.289984 3.62692 131 92 0 
0.996483 -0.269567 3.53592 145 138 132 
0.665783 -0.266361 3.61705 121 79 0 
0.951862 -0.238539 3.5456 141 136 132 
1.02946 -0.231386 3.52897 144 139 135 
0.951292 -0.231308 3.54601 103 99 90 
-1.55637 -0.220792 3.70841 133 120 111 
0.558448 -0.212436 3.6529 40 3 0 
0.71969 -0.171555 3.62478 233 186 68 
0.985982 -0.0908903 3.55555 111 105 93 
0.992656 -0.0908461 3.55378 117 108 99 
-1.59617 -0.090383 3.66978 14 0 0 
0.688425 -0.0600417 3.641 103 74 34 
0.289187 -0.0555912 3.52805 42 13 0 
-1.91155 -0.0492324 3.59814 137 115 104 
0.251615 -0.0439366 3.50394 92 62 52 
0.251982 -0.0351011 3.50632 55 25 15 
-2.09688 -0.0375312 3.57762 44 26 16 
-2.0965 -0.0333896 3.57776 184 162 151 
-2.082 -0.0311558 3.57298 51 29 18 
0.287475 -0.0275751 3.55253 207 179 168 
1.01416 0.0335214 3.43046 255 198 148 
0.384125 0.125592 3.35783 190 160 134 
1.80412 0.718227 4.08263 101 82 75 
1.62103 0.937515 3.73295 25 31 5 
1.61295 0.940406 3.72756 76 84 60 
1.67937 0.977193 3.73295 82 85 58 
1.62536 0.977758 3.73139 85 84 56 
1.57649 0.978738 3.73346 20 15 0 
1.57651 0.995051 3.73426 29 18 0 
1.56844 1.0014 3.73598 89 82 63 
1.61303 1.00178 3.73711 94 89 67 
1.62813 1.00197 3.73415 100 95 73 
1.83237 1.31434 3.78893 178 147 126 
0.65746 -0.768316 3.90035 39 26 17 
1.16862 -0.664702 3.70941 135 122 114 
1.10694 -0.642264 3.71162 80 80 82 
0.70342 -0.678632 3.91477 75 69 55 
0.751937 -0.675422 3.90108 36 24 8 
0.85951 -0.6458 3.90713 81 72 57 
0.731214 -0.628977 3.92413 113 104 95 
0.860879 -0.631659 3.91755 94 82 66 
0.731653 -0.627655 3.9208 113 104 95 
0.793997 -0.58761 3.91021 116 101 70 
0.825066 -0.581924 3.91327 68 55 23 
0.872935 -0.579042 3.91161 38 22 7 
0.860484 -0.568215 3.91607 23 7 0 
0.806469 -0.550713 3.9138 124 107 99 
0.822294 -0.541133 3.91493 24 5 0 
0.748866 -0.537052 3.91067 24 11 0 
0.758878 -0.537694 3.91679 114 101 82 
0.752391 -0.353375 3.61645 46 5 0 
-2.01992 -0.0613823 3.57812 156 142 133 
-1.91995 -0.0436408 3.5811 21 2 0 
0.251711 -0.0354533 3.50713 55 25 15 
-1.97754 -0.0374796 3.57088 13 0 0 
-1.73154 0.131697 3.34832 88 70 60 
1.62106 0.937638 3.73312 25 31 5 
1.62567 0.97898 3.73306 94 93 65 
-1.6419 -0.71405 3.74537 110 5 1 
-1.61229 -0.708661 3.75081 111 0 0 
-1.64034 -0.6853 3.75264 159 131 107 
1.16555 -0.655178 3.70043 77 69 67 
1.11181 -0.640065 3.70815 84 82 85 
0.674016 -0.64347 3.91045 36 29 13 
0.755416 -0.639584 3.91344 41 22 7 
0.727197 -0.628515 3.91476 118 109 100 
1.24429 -0.575552 3.69924 85 61 49 
-1.58421 -0.576549 3.75011 19 12 6 
-1.95171 -0.505824 3.49889 98 71 52 
-1.79752 -0.523424 3.63035 20 1 0 
-1.6224 -0.53421 3.73488 87 41 15 
0.81926 -0.540784 3.9134 27 8 0 
0.645396 -0.262043 3.61233 255 228 111 
0.606181 -0.254189 3.63003 228 189 94 
0.616929 -0.249292 3.62124 228 190 89 
0.631914 -0.232922 3.61087 219 185 78 
-1.61505 -0.224251 3.7777 123 110 101 
-1.54676 -0.183145 3.84034 186 163 149 
-1.92744 -0.0671511 3.59315 111 98 92 
-1.91835 -0.0434007 3.5796 29 10 3 
0.227103 -0.00495268 3.51476 56 30 13 
-1.73373 0.130838 3.35031 76 57 50 
1.62557 0.957897 3.72969 79 77 54 
1.58323 0.974559 3.73364 83 80 61 
1.60591 0.982209 3.7344 87 85 60 
1.60671 1.00224 3.73655 82 81 60 
-1.72719 1.15557 3.49846 111 92 85 
1.83054 1.31174 3.78028 182 151 130 
1.07702 -0.918313 3.89702 23 6 0 
-1.97522 -0.708869 3.49237 85 77 66 
-1.63792 -0.683638 3.75 164 138 115 
0.589682 -0.218592 3.63765 18 0 0 
-1.55905 -0.204617 3.8375 191 170 151 
-1.79653 -0.188597 3.72087 143 116 87 
-1.86726 -0.106232 3.87137 90 77 68 
-1.71708 -0.0989932 3.62344 48 34 23 
-1.55894 -0.0909836 3.68827 135 110 90 
-0.0603454 -0.0653473 3.63119 157 130 111 
-1.73449 1.16177 3.49581 29 10 3 
1.83098 1.31255 3.78228 184 153 132 
0.71779 -0.697773 3.90935 30 23 7 
-1.65052 -0.63947 3.74919 23 4 0 
0.746063 -0.636195 3.91645 54 43 39 
-1.59987 -0.128083 3.75072 180 158 144 
0.745584 -0.661697 3.88522 95 83 57 
0.74146 -0.632495 3.92831 30 20 11 
0.651769 -0.302672 3.64748 241 205 46 
