ply                 
format ascii 1.0    
element vertex 779
property float x    
property float y    
property float z    
property uchar red  
property uchar green
property uchar blue 
end_header          
-0.108367 -0.675366 2.84012 0 0 0 
-0.197202 -0.66179 2.86278 254 56 55 
-0.0715507 -0.588241 2.81125 0 0 0 
0.000394926 -0.573039 2.82291 86 85 81 
-0.0227927 -0.534205 2.80666 36 34 35 
-0.0114228 -0.478397 2.79413 35 33 34 
-0.318384 -0.392471 2.87577 43 252 103 
0.0225948 -0.342555 2.75593 74 72 73 
-0.189371 -0.276811 2.72899 254 107 102 
0.0299371 -0.156689 2.70367 0 0 0 
-0.0321315 -0.0925849 2.69378 254 83 82 
0.0175887 -0.079732 2.69953 57 254 58 
-0.182386 -0.0677659 2.71404 254 29 27 
-0.182955 -0.0581184 2.7121 18 16 17 
-0.275801 0.226574 2.7396 22 25 254 
-0.214425 0.2341 2.71192 149 86 89 
0.0387079 0.51046 2.73141 83 79 78 
-0.270194 0.643163 2.71815 41 39 40 
0.167258 0.695161 2.77846 254 44 43 
0.133878 0.694447 2.75617 0 0 0 
-0.356724 0.764497 2.76852 254 28 27 
0.173617 0.864637 2.76967 0 0 0 
0.111489 1.00749 2.72084 58 57 55 
-0.0378919 -1.48871 3.10642 0 0 0 
-0.0472183 -1.48901 3.1146 0 0 0 
-0.123608 -1.10117 3.02101 0 0 0 
-0.237317 -0.658924 2.88727 72 250 60 
-0.127671 -0.613303 2.82702 0 0 0 
-0.0716302 -0.5877 2.81186 0 0 0 
0.000493701 -0.572415 2.82325 0 0 0 
-0.0719474 -0.534347 2.79423 104 98 70 
-0.274673 -0.397613 2.85497 0 0 0 
-0.285473 -0.293206 2.79715 31 28 254 
-0.189859 -0.277517 2.72584 40 24 25 
-0.0396906 -0.159591 2.69648 34 33 31 
0.0299364 -0.156174 2.7006 31 31 33 
-0.0165971 -0.139406 2.69299 3 1 2 
-0.0313872 -0.0925751 2.69848 255 26 24 
-0.400137 -0.0952517 2.87119 0 0 0 
0.159061 -0.0869472 2.74916 255 53 52 
0.0248953 -0.0800621 2.69804 55 254 54 
0.0157542 -0.0792608 2.70066 57 53 54 
0.0040858 -0.0755615 2.69761 40 41 254 
-0.215053 -0.0646148 2.72286 37 37 254 
-0.182959 -0.0579106 2.71244 18 16 17 
-0.0833084 -0.0451351 2.70304 83 82 80 
-0.31568 0.0235477 2.77697 20 20 254 
-0.151946 0.0277971 2.72041 254 125 125 
-0.345132 0.294218 2.78613 0 0 0 
-0.140178 0.358745 2.70785 59 61 242 
-0.224317 0.361395 2.71011 23 25 27 
-0.264997 0.426181 2.72351 0 0 0 
-0.391312 0.502512 2.81279 35 33 34 
-0.251239 0.518794 2.71649 23 24 254 
0.0277277 0.563335 2.71168 0 0 0 
-0.327637 0.576004 2.75208 45 46 254 
0.133537 0.694827 2.75578 0 0 0 
-0.356627 0.764603 2.76936 0 0 0 
-0.357156 0.772983 2.77057 0 0 0 
0.174232 0.864512 2.77085 86 254 68 
0.174239 0.884227 2.76718 4 1 1 
-0.143655 0.878923 2.67047 254 49 48 
0.0318994 0.904746 2.67851 69 67 254 
0.171693 0.95365 2.76189 15 45 14 
0.172897 0.964766 2.76055 24 66 21 
0.112099 1.00792 2.72355 0 0 0 
0.159216 -0.0863463 2.74943 11 10 8 
-0.147359 -0.0562057 2.72314 99 97 98 
-0.159044 0.0748321 2.72003 254 51 51 
-0.366996 0.0927311 2.81499 32 254 56 
-0.164656 0.358653 2.71229 65 63 64 
0.173726 0.884371 2.76847 62 254 65 
-0.0423176 -1.49095 3.10771 0 0 0 
-0.013899 -0.777062 2.88153 0 0 0 
-0.136797 -0.658319 2.82507 36 254 35 
0.0189331 -0.183788 2.69888 0 0 0 
-0.272378 -0.132227 2.75734 0 0 0 
-0.151406 -0.0826191 2.71431 19 19 254 
0.027849 -0.0776053 2.69743 85 86 254 
0.0795908 -0.0725017 2.71747 1 1 1 
-0.15086 0.0268147 2.72074 0 0 0 
-0.152877 0.0995763 2.7176 17 18 254 
-0.195629 0.111134 2.70958 255 36 35 
-0.158366 0.73186 2.70177 42 37 255 
-0.130123 0.791588 2.69558 254 37 36 
0.0158656 -0.621385 2.84064 0 0 0 
-0.0809568 -0.0310212 2.71312 73 254 63 
0.0899099 -0.0240879 2.73925 59 62 255 
0.0325812 -0.195411 2.69797 0 0 0 
-0.0958147 -0.0806105 2.69772 254 77 72 
0.0106068 -0.069001 2.69747 40 38 39 
-0.108252 -0.675083 2.84591 0 0 0 
-0.103003 -0.660958 2.82867 0 0 0 
0.149349 -0.658945 2.89263 254 85 81 
-0.111255 -0.617734 2.82005 0 0 0 
-0.128571 -0.613016 2.83175 0 0 0 
0.00619375 0.588419 2.70628 254 39 38 
0.228092 0.658437 2.83903 254 86 82 
0.203411 0.668663 2.81388 254 55 54 
0.233927 0.67604 2.84533 254 92 88 
0.245413 0.68718 2.86114 70 69 254 
0.186251 0.67651 2.79507 41 39 33 
0.20808 0.681325 2.81842 60 59 55 
0.199939 0.686425 2.8075 28 27 23 
0.233494 0.699462 2.8487 94 91 254 
0.185155 0.696304 2.79382 71 254 80 
0.138747 0.697388 2.75815 71 254 71 
0.180406 0.711722 2.78923 7 3 68 
0.16032 0.712415 2.77468 0 0 0 
0.214322 0.727707 2.82409 89 85 254 
0.191235 0.726915 2.79976 48 249 48 
0.182047 0.727087 2.79189 140 47 47 
0.152257 0.725306 2.76808 0 0 0 
0.272964 0.84738 2.89447 69 66 59 
0.275193 0.858451 2.89679 99 254 72 
0.250039 0.86952 2.85617 255 68 67 
0.215361 0.86836 2.80841 90 86 87 
0.244721 0.882556 2.83613 86 83 254 
0.229103 0.879724 2.81852 254 69 68 
0.246682 0.893167 2.83422 88 84 81 
0.163939 0.874263 2.75923 0 0 0 
0.181075 0.878527 2.77153 4 12 4 
0.137722 0.874188 2.74183 72 70 254 
0.223004 0.891063 2.80692 85 254 84 
0.210624 0.892992 2.79439 59 253 65 
0.182234 0.889115 2.76964 6 5 13 
0.158851 0.886047 2.753 0 0 0 
0.148835 0.886491 2.74439 0 0 0 
0.248521 0.938076 2.83328 87 86 82 
0.216359 0.929876 2.79903 98 96 254 
0.217954 0.940256 2.80045 73 72 68 
0.25071 0.954138 2.83789 255 68 69 
0.255243 0.960254 2.84542 68 67 62 
0.206742 0.956103 2.79003 76 74 255 
0.184075 0.952583 2.77011 135 39 37 
0.245846 0.974949 2.83701 73 255 68 
0.172127 0.953599 2.7616 52 17 17 
0.268948 0.986445 2.86639 64 255 65 
0.222812 0.971936 2.80769 66 64 255 
0.20503 0.967161 2.7884 254 89 88 
0.172682 0.965366 2.76088 21 68 19 
0.195105 0.972993 2.78169 56 57 249 
0.150247 0.977934 2.74609 80 254 88 
0.177825 1.22936 2.67651 80 20 18 
-0.0220275 -1.77166 3.16265 0 0 0 
-0.0297853 -1.7587 3.15699 0 0 0 
-0.0298049 -1.54656 3.08808 0 0 0 
0.0537652 -1.09803 2.99821 0 0 0 
0.256375 -0.724591 3.00353 64 63 61 
0.330165 -0.660484 3.13736 47 43 42 
0.334034 -0.627421 3.15489 36 36 36 
-0.275721 -0.397289 2.86245 0 0 0 
-0.306714 -0.33062 2.84262 0 0 0 
0.217401 -0.291983 2.80828 255 59 60 
0.264545 -0.268084 2.86726 64 62 255 
-0.283254 -0.24768 2.77716 0 0 0 
-0.290187 -0.242918 2.77361 0 0 0 
0.26085 -0.23797 2.83115 255 73 72 
0.362832 -0.0232058 3.09707 51 50 48 
0.350164 -0.00300972 3.09724 69 67 255 
-0.308849 0.0165271 2.77111 40 42 254 
-0.157352 0.0899478 2.71353 1 1 0 
-0.0843941 0.236583 2.71115 77 78 254 
-0.137808 0.367309 2.71657 57 57 255 
-0.019338 0.418183 2.72047 0 0 0 
0.125481 0.439011 2.75403 46 43 254 
0.178038 0.626437 2.79031 66 65 61 
0.19566 0.651152 2.80429 68 65 60 
0.17359 0.705296 2.78538 0 0 0 
0.187978 0.868576 2.78146 29 89 28 
0.210668 0.873656 2.80191 81 77 74 
0.189897 0.877456 2.77897 30 27 23 
0.146343 0.874735 2.74807 0 0 0 
0.227409 0.900209 2.8131 94 89 254 
0.204301 0.8982 2.78982 87 83 80 
0.18732 0.925713 2.77107 35 34 77 
0.223631 0.955509 2.80919 78 255 80 
0.223998 0.982838 2.80819 254 41 40 
0.149939 0.967079 2.74492 10 3 3 
0.111764 1.00841 2.7215 254 76 76 
0.139263 1.21374 2.64385 254 40 39 
0.149871 -0.18005 2.74605 0 0 0 
0.165224 -0.0345867 2.76386 255 39 38 
-0.337245 0.0739149 2.7984 0 0 0 
0.179871 0.960395 2.76525 58 60 55 
0.18864 1.22955 2.67189 25 21 18 
0.13737 1.22356 2.6444 28 26 254 
-0.00951166 -1.66624 3.13282 0 0 0 
-0.033504 -1.58137 3.08921 0 0 0 
0.0347312 -1.56462 3.1131 0 0 0 
-0.0626625 -1.48741 3.13672 0 0 0 
-0.09282 -0.660194 2.83123 0 0 0 
-0.13615 -0.657711 2.82451 36 254 35 
-0.236877 -0.111328 2.73372 44 43 39 
-0.0589348 -0.0765581 2.70285 64 254 68 
0.111396 -0.0722612 2.72268 87 88 255 
0.157792 -0.06853 2.74808 33 255 43 
0.172161 -0.0630916 2.75217 48 46 255 
0.257057 0.853255 2.8749 254 87 84 
0.170402 0.908148 2.7543 59 54 254 
-0.338769 1.20187 2.71736 0 0 0 
0.00718713 -1.73393 3.16798 0 0 0 
-0.165097 0.114141 2.71526 1 0 0 
-0.0209441 -1.686 3.15856 0 0 0 
-0.00184675 -1.56379 3.10088 0 0 0 
-0.0599543 -1.4698 3.09615 0 0 0 
0.0398377 -1.46779 3.12853 0 0 0 
0.176967 -0.788385 2.96819 254 58 57 
-0.0946951 -0.080379 2.68653 254 77 72 
-0.076312 -0.0711335 2.69919 67 66 64 
-0.0369655 -1.69835 3.09614 0 0 0 
-0.0259482 -1.57045 3.08034 0 0 0 
-0.0696549 -1.59171 3.13398 0 0 0 
-0.147523 1.13695 2.64203 254 64 63 
-0.24656 -0.0788933 2.73993 255 20 20 
0.00974564 -1.71983 3.14516 0 0 0 
-0.00869489 -1.70987 3.16259 0 0 0 
-0.0591644 -1.49001 3.14055 0 0 0 
-0.00789202 -1.65459 3.15689 0 0 0 
0.190856 0.714403 2.80046 33 247 35 
0.171716 0.877337 2.76437 1 1 1 
0.249788 0.909966 2.83634 254 89 85 
0.160518 0.912498 2.75077 0 0 0 
0.190109 0.938435 2.77458 39 173 42 
0.117431 1.00605 2.72733 48 51 254 
0.13832 1.21762 2.65477 76 18 19 
0.197162 1.22465 2.68863 35 36 32 
-0.00983851 -1.68497 3.15341 0 0 0 
0.360912 -0.0230088 3.21082 53 50 255 
0.153183 0.880843 2.75082 0 0 0 
0.2159 0.887166 2.80384 81 82 77 
0.195663 0.904568 2.77887 51 137 54 
0.240694 0.950589 2.82574 73 254 83 
0.199738 0.961756 2.78776 73 254 66 
0.198526 0.720151 2.80581 254 66 65 
0.198346 0.726474 2.83183 67 60 254 
0.263505 0.870261 2.86531 53 254 45 
0.222682 0.873762 2.81153 254 99 98 
0.256647 0.915213 2.84226 71 66 254 
0.238595 0.86861 2.83483 54 42 254 
0.17056 0.977961 2.76135 28 26 87 
0.136977 1.22726 2.65534 5 4 19 
-0.0284255 -1.73031 3.15036 0 0 0 
-0.0185353 -1.70205 3.15116 0 0 0 
-0.0628138 -1.47981 3.11671 0 0 0 
-0.022056 -1.65373 3.14746 0 0 0 
0.00244108 -1.5078 3.15107 0 0 0 
0.180234 0.992389 2.7688 66 61 59 
0.150167 0.899093 2.74555 0 0 0 
-0.0211611 -1.70507 3.15634 0 0 0 
0.379125 -0.208542 3.17204 47 47 255 
0.144601 -0.42966 2.81387 68 75 111 
0.022972 -0.1573 2.71177 0 0 0 
-0.0225425 0.362351 2.72927 0 0 0 
0.320355 0.38302 2.99499 36 254 63 
-0.023513 0.404177 2.7283 0 0 0 
-0.0247164 0.41949 2.72845 0 0 0 
0.230533 0.673068 2.84125 82 254 94 
0.279051 0.681594 2.91191 63 60 55 
0.284009 0.683379 2.92269 66 63 58 
0.270398 0.680193 2.89577 82 254 85 
0.253069 0.67915 2.87001 64 63 59 
0.265783 0.690014 2.88961 254 76 73 
0.28744 0.697505 2.92686 71 67 254 
0.185805 0.683838 2.79417 76 70 72 
0.229533 0.694156 2.841 78 75 254 
0.165909 0.696306 2.78009 254 44 43 
0.211624 0.723823 2.81996 60 59 55 
0.299713 0.855467 2.95419 37 34 29 
0.267435 0.846203 2.88956 74 254 76 
0.283276 0.852949 2.91158 254 65 62 
0.279318 0.854978 2.90191 44 40 254 
0.263625 0.852379 2.8768 72 71 66 
0.298939 0.864244 2.94007 254 49 45 
0.295543 0.867834 2.91832 72 254 81 
0.301561 0.874398 2.941 63 254 63 
0.273342 0.871168 2.88258 70 254 73 
0.31316 0.885563 2.95384 42 254 55 
0.17259 0.864916 2.76905 254 65 64 
0.285298 0.880998 2.89723 59 54 48 
0.296695 0.883441 2.91289 50 254 53 
0.237292 0.876439 2.82827 254 55 54 
0.265097 0.881021 2.86243 254 72 68 
0.307667 0.895318 2.94149 36 30 30 
0.227529 0.880942 2.82106 70 69 67 
0.218487 0.87884 2.80513 254 85 85 
0.158533 0.876946 2.75548 0 0 0 
0.299637 0.89735 2.91539 28 254 49 
0.287141 0.897129 2.89162 47 43 34 
0.316025 0.909585 2.94711 40 31 254 
0.264399 0.895729 2.85686 254 80 77 
0.146434 0.887537 2.74658 68 66 67 
0.23282 0.89495 2.81815 75 74 70 
0.308667 0.911553 2.9289 30 254 42 
0.294574 0.910303 2.90163 59 55 46 
0.278512 0.909621 2.87573 54 254 61 
0.295113 0.921404 2.89981 254 57 53 
0.322962 0.935737 2.96728 43 254 73 
0.280098 0.920609 2.87555 254 71 67 
0.31183 0.933538 2.93686 47 254 51 
0.284058 0.926918 2.8836 47 44 35 
0.301343 0.932231 2.91092 254 42 37 
0.219509 0.916298 2.79979 254 68 67 
0.318452 0.945469 2.9537 48 43 39 
0.298928 0.943919 2.90758 254 52 47 
0.303829 0.946445 2.9199 52 47 43 
0.283827 0.941698 2.88255 254 58 55 
0.259844 0.938216 2.8482 80 254 86 
0.246004 0.944002 2.83102 85 84 254 
0.303321 0.960921 2.91971 40 35 29 
0.295785 0.96264 2.90465 254 53 48 
0.288153 0.960143 2.88795 69 64 254 
0.221789 0.950125 2.80327 254 80 79 
0.165464 0.951723 2.75564 23 7 7 
0.246521 0.957753 2.8311 75 254 84 
0.25603 0.959841 2.84549 80 254 89 
0.234008 0.958297 2.81839 82 79 254 
0.320105 0.988143 2.9699 50 39 254 
0.295587 0.97471 2.90459 254 81 78 
0.283924 0.97368 2.88338 47 44 39 
0.289012 0.977164 2.89472 44 41 36 
0.260375 0.972651 2.84926 77 74 69 
0.269991 0.975631 2.86465 41 36 254 
0.233182 0.970042 2.81768 79 78 254 
0.280458 0.989146 2.88298 41 254 52 
0.245012 0.983556 2.83115 85 82 254 
0.262541 0.986539 2.85422 70 67 254 
0.280291 0.999408 2.88192 68 65 254 
0.262241 0.99759 2.85461 48 41 254 
0.17864 0.993125 2.77095 41 254 51 
0.221734 0.994898 2.80513 254 67 66 
0.207719 1.04644 2.786 54 52 254 
0.161348 -0.46678 2.82617 40 198 40 
-0.0064192 -0.0813264 2.7071 0 0 0 
-0.162413 0.0275729 2.73442 0 0 0 
0.281602 0.672613 2.91855 254 93 90 
0.26628 0.669739 2.89074 74 73 68 
0.182859 0.706523 2.79488 41 149 41 
0.169402 0.712348 2.78257 254 58 54 
0.217435 0.721972 2.8293 254 57 53 
0.185664 0.720572 2.79611 72 71 68 
0.286076 0.869136 2.91362 254 84 83 
0.276662 0.868185 2.89121 69 68 64 
0.321164 0.888072 2.98687 50 254 54 
0.29722 0.880201 2.92914 91 92 87 
0.250037 0.868533 2.85178 80 77 70 
0.223939 0.868935 2.81795 46 42 41 
0.182917 0.872942 2.77677 23 8 8 
0.2918 0.89043 2.90809 66 254 73 
0.296134 0.904056 2.9097 254 60 56 
0.16784 0.887886 2.75957 74 254 65 
0.304848 0.917827 2.92256 254 47 43 
0.177967 0.899426 2.76479 59 254 65 
0.158956 0.901984 2.75243 0 0 0 
0.246976 0.912848 2.82997 79 78 74 
0.301487 0.953003 2.91201 77 72 254 
0.17807 0.947689 2.76748 61 60 58 
0.228267 0.951544 2.81295 74 254 78 
0.318086 0.975989 2.95484 53 49 254 
0.166583 0.960128 2.7585 70 65 254 
0.288271 0.986426 2.89286 27 254 38 
0.300362 0.999946 2.91852 49 254 55 
0.195876 -0.329814 2.80584 67 254 65 
0.275905 0.699419 2.90465 62 57 254 
0.154234 0.717835 2.76909 0 0 0 
0.240225 0.888182 2.83005 45 44 40 
0.280729 0.902668 2.88711 73 68 254 
0.32829 0.963353 2.99162 43 254 48 
0.189524 0.945894 2.77436 64 254 59 
0.289955 0.994809 2.886 71 254 76 
0.012486 -0.18425 2.70615 0 0 0 
0.00257014 -0.0740973 2.70919 0 0 0 
-0.00532962 -0.028755 2.73105 0 0 0 
-0.175838 0.114845 2.72555 0 0 0 
0.237427 0.869242 2.83636 69 65 254 
0.142916 0.874039 2.74544 0 0 0 
0.302412 0.895593 2.93228 37 29 254 
0.295191 0.855933 2.94417 51 48 254 
0.203428 0.941515 2.79253 83 82 78 
0.360113 -0.0241346 3.25709 12 8 5 
0.160446 0.966982 2.75312 45 44 42 
0.288218 0.917103 2.89658 254 42 37 
0.38019 -0.0257116 3.22935 12 8 5 
-0.159818 0.636416 2.71008 0 0 0 
-0.0420101 -1.51144 3.13055 0 0 0 
0.00705296 -1.67415 3.15678 0 0 0 
0.213967 0.71581 2.82473 78 75 254 
0.282142 0.872626 2.89832 254 77 74 
0.311527 0.874297 2.95808 72 68 65 
0.309461 0.887197 2.94446 54 47 39 
0.317449 0.905321 2.95192 25 254 42 
0.250515 0.93499 2.83725 88 84 254 
0.323 0.945097 2.96695 41 254 52 
0.280726 0.961269 2.87989 254 54 51 
0.267249 0.980224 2.85962 60 57 52 
0.286088 0.981085 2.89012 254 50 47 
0.203578 1.24452 2.6909 22 19 132 
0.259922 0.680856 2.90145 254 83 80 
0.313469 0.885464 2.95474 254 51 46 
0.318315 0.899948 2.96761 44 35 28 
0.237776 0.900441 2.82283 79 254 91 
0.303733 0.902644 2.92037 43 39 30 
0.291799 0.9031 2.89648 37 254 53 
0.285048 0.939319 2.88395 48 45 254 
0.311655 0.945036 2.93713 254 35 30 
0.299339 0.954744 2.91609 254 58 53 
0.325962 0.965887 2.99938 254 45 40 
0.183864 0.978998 2.77332 54 217 95 
0.290759 0.969308 2.89988 45 41 254 
0.226192 0.977907 2.81267 79 77 254 
0.196055 0.721357 2.80718 254 66 65 
0.256401 0.851436 2.86408 66 254 56 
0.217112 0.898314 2.79764 91 87 84 
0.284505 0.915361 2.8827 254 62 55 
0.305508 0.942499 2.92969 40 254 49 
0.294427 0.933677 2.90051 254 58 53 
0.314466 0.93747 2.95759 40 254 51 
0.230967 0.947885 2.81607 75 254 81 
0.252695 0.94933 2.83938 75 71 68 
0.286939 0.99702 2.89048 57 53 50 
-0.0049194 -1.67777 3.14508 0 0 0 
0.151507 0.69426 2.76793 0 0 0 
0.308529 0.693365 2.98202 69 254 83 
0.179872 0.85718 2.7796 8 6 16 
0.289395 0.864372 2.91852 58 58 50 
0.29701 0.883387 2.91836 254 37 32 
0.296347 0.91886 2.90555 47 42 36 
0.186246 0.940061 2.77715 39 173 42 
0.303784 0.931828 2.91778 43 254 52 
0.289265 0.932502 2.89069 49 44 38 
0.331573 0.946547 3.00179 86 76 74 
0.299231 0.994704 2.91397 56 51 254 
0.259429 -0.227533 2.83059 253 50 50 
0.274644 -0.224705 2.85113 74 72 73 
0.253305 0.691539 2.87405 71 72 67 
0.271544 0.692207 2.89916 68 254 89 
0.286642 0.878337 2.90429 64 254 59 
0.323769 0.911357 2.9688 48 44 35 
0.311648 0.9175 2.93397 55 51 42 
0.330523 0.956309 2.99574 56 254 70 
0.318522 0.964498 2.95578 36 254 47 
0.272034 0.981612 2.86968 254 52 49 
0.22386 0.991233 2.8123 76 72 71 
0.321304 1.01066 2.9682 254 47 44 
0.328671 1.09586 3.24761 23 18 254 
0.259681 -0.324666 2.91494 72 69 254 
0.273859 0.699855 2.90598 62 57 254 
0.314052 0.9697 2.94824 25 254 36 
0.237523 0.980815 2.82649 85 254 106 
0.265004 0.994916 2.86278 51 254 66 
0.000476851 -1.66875 3.15699 0 0 0 
0.27462 0.843399 2.89957 49 42 254 
0.307374 0.893446 2.92903 37 29 254 
0.150517 0.965115 2.783 34 123 38 
0.00710925 -1.75692 3.15074 0 0 0 
0.0121831 -1.71797 3.13893 0 0 0 
0.138596 1.21204 2.66691 32 9 9 
-0.00848814 -1.7725 3.15602 0 0 0 
0.00448616 -1.76778 3.15906 0 0 0 
0.468315 -0.0113458 3.25644 31 27 24 
-0.00319681 -1.70922 3.15456 0 0 0 
0.0138114 -1.72406 3.15844 0 0 0 
-0.0112773 -1.77607 3.15925 0 0 0 
-0.0168957 -1.765 3.16258 0 0 0 
-0.0237282 -1.75733 3.16318 0 0 0 
-0.0244092 -1.73161 3.16161 0 0 0 
-0.0330039 -1.73612 3.16258 0 0 0 
-0.0144741 -1.80082 3.15887 0 0 0 
-0.0260073 -1.69271 3.15416 0 0 0 
-0.0134955 -1.69327 3.15376 0 0 0 
-0.0265559 -1.78543 3.15881 0 0 0 
-0.00161766 -1.76295 3.15542 0 0 0 
-0.0131747 -1.75239 3.15768 0 0 0 
-0.0232932 -1.65822 3.15869 0 0 0 
-0.0702908 -1.49899 3.16681 0 0 0 
-0.161752 0.889819 2.67589 23 254 30 
-0.0326705 -1.66948 3.16325 0 0 0 
-0.0618154 -1.65009 3.17456 0 0 0 
-0.0535299 -1.5837 3.15723 0 0 0 
-0.223334 -0.666945 2.88082 65 64 60 
-0.0466231 -1.51056 3.16843 0 0 0 
-0.289406 -0.0931326 2.76193 254 22 21 
-0.320581 0.0107376 2.77862 254 44 44 
-0.0400541 -1.59868 3.16927 0 0 0 
-0.0382515 -1.676 3.17091 0 0 0 
-0.0358288 -1.73945 3.18071 0 0 0 
-0.127433 -1.05706 3.00399 0 0 0 
-0.171119 -1.00653 3.02238 0 0 0 
-0.160609 -0.983633 3.00364 0 0 0 
-0.119569 -0.970917 2.97087 0 0 0 
-0.124984 -0.895804 2.94134 0 0 0 
-0.14654 -0.874241 2.94648 0 0 0 
-0.114274 -0.607045 2.81926 44 42 254 
-0.255613 -0.441222 2.85228 48 46 254 
-0.303109 -0.319297 2.82178 79 75 72 
-0.141915 -1.06011 3.02536 0 0 0 
-0.160439 -1.04996 3.0347 0 0 0 
-0.0873648 -1.0238 2.96724 0 0 0 
-0.161557 -1.00136 3.01196 0 0 0 
-0.19135 -0.926169 2.99934 0 0 0 
-0.181632 -0.889052 2.97895 0 0 0 
-0.116433 -0.891864 2.93125 0 0 0 
-0.225155 -0.868002 2.99897 0 0 0 
-0.207435 -0.869519 2.98617 0 0 0 
-0.222652 -0.84616 2.98661 0 0 0 
-0.446218 -0.0454125 3.30036 0 0 0 
-0.386641 0.000970451 2.83901 34 34 34 
-0.39939 0.257307 2.83422 254 33 31 
-0.218091 -0.891291 3.0043 0 0 0 
-0.140315 -0.656909 2.82007 254 55 51 
-0.134445 -0.880111 2.93738 0 0 0 
-0.387855 0.113537 2.84786 52 53 254 
-0.01812 -1.79967 3.16325 0 0 0 
-0.0132176 -1.74494 3.15686 0 0 0 
-0.0280588 -1.65681 3.15191 0 0 0 
-0.225142 -0.909896 3.00812 0 0 0 
-0.151829 -0.885345 2.95399 0 0 0 
-0.216248 -0.878196 2.9939 0 0 0 
-0.238707 -0.829014 2.98391 0 0 0 
-0.268709 -0.818041 3.0595 0 0 0 
-0.298108 -0.794036 3.14254 0 0 0 
0.194825 -0.732278 2.92516 254 46 42 
0.184432 -0.693027 2.90898 32 255 35 
-0.311656 -0.639387 2.97922 0 0 0 
-0.339606 -0.610245 3.05328 0 0 0 
-0.336691 -0.56085 2.97963 0 0 0 
-0.378603 -0.53451 3.11304 0 0 0 
-0.384818 -0.439219 3.02332 0 0 0 
-0.434124 -0.357916 3.11597 0 0 0 
-0.35727 -0.325699 2.86278 41 39 42 
-0.473157 -0.242719 3.0406 0 0 0 
0.0230334 -0.077383 2.71063 57 53 54 
-0.463883 0.520345 3.02313 0 0 0 
-0.502132 1.14747 2.89766 4 22 4 
0.0638924 -1.14545 3.01631 0 0 0 
-0.248562 -0.805395 2.98047 0 0 0 
-0.292574 -0.797154 3.13371 0 0 0 
-0.305599 -0.775047 3.31676 0 0 0 
-0.311287 -0.752597 3.19507 0 0 0 
0.210381 -0.775509 2.94928 84 81 254 
-0.281148 -0.703248 2.92512 0 0 0 
-0.355124 -0.641033 3.16984 0 0 0 
-0.139317 -0.604217 2.82639 254 37 36 
-0.230535 -0.588226 2.88527 254 51 50 
-0.352317 -0.578842 3.07044 0 0 0 
-0.388183 -0.531158 3.14461 0 0 0 
-0.386677 -0.523386 3.13842 0 0 0 
-0.369707 -0.446037 2.96318 0 0 0 
-0.396485 -0.43548 3.07366 0 0 0 
0.164133 -0.457155 2.83748 52 255 57 
-0.353226 -0.335361 2.86626 76 79 254 
-0.434584 -0.311149 3.00953 0 0 0 
-0.466294 -0.268908 3.05062 0 0 0 
-0.462648 -0.263477 3.03454 0 0 0 
-0.465145 -0.239746 3.00609 0 0 0 
-0.156354 -0.0828443 2.70961 19 19 254 
-0.46593 -0.0485115 3.15735 0 0 0 
-0.390698 -0.0252469 3.36089 0 0 0 
0.235881 -0.031749 2.86745 255 66 62 
-0.389314 -0.020858 2.84416 254 54 52 
-0.386114 -0.0050273 2.86261 50 50 254 
-0.384698 0.00113336 2.87141 20 20 254 
-0.388432 0.0568356 2.86045 46 44 45 
-0.392204 0.107575 2.85736 62 254 59 
0.0287676 0.197535 2.72979 254 54 50 
-0.397949 0.253539 2.85032 53 51 52 
-0.53593 1.17833 2.95783 0 0 0 
-0.0289753 -1.7816 3.1584 0 0 0 
-0.217572 -0.905513 3.00029 0 0 0 
-0.278354 -0.660978 2.92686 0 0 0 
-0.33246 -0.531479 2.94418 0 0 0 
-0.013761 -0.18457 2.7003 57 56 54 
-0.485802 -0.149247 3.0867 0 0 0 
-0.388343 0.00956765 2.85993 41 47 254 
-0.00459118 -1.74874 3.14717 0 0 0 
0.00965258 -1.62084 3.08181 0 0 0 
-0.0516304 -1.57383 3.10053 0 0 0 
-0.0205929 -1.59031 3.12756 0 0 0 
-0.299625 -0.667662 2.96594 0 0 0 
-0.106352 -0.662695 2.84821 37 33 32 
-0.133799 -0.633744 2.82733 254 42 40 
-0.368155 -0.608884 3.16564 0 0 0 
-0.483883 -0.127985 3.08091 0 0 0 
-0.396635 -0.0831725 2.86224 51 254 58 
-0.44146 -0.0770939 2.93461 0 0 0 
-0.156365 -0.0778897 2.72428 254 13 13 
-0.432567 -0.0481269 2.93677 0 0 0 
-0.00867707 -1.7958 3.14366 0 0 0 
-0.25532 -0.801006 3.00046 0 0 0 
-0.145165 -0.0788182 2.71357 25 254 30 
-0.38106 0.114398 2.85475 52 53 254 
-0.00810903 -1.77716 3.14406 0 0 0 
-0.263497 -0.721942 2.94958 0 0 0 
0.269204 -0.0655526 2.9146 53 52 50 
-0.409018 -0.216813 3.36338 0 0 0 
0.657656 -0.0610033 3.13681 73 255 81 
-0.0235056 -1.73071 3.16139 0 0 0 
-0.0236944 -1.75701 3.16338 0 0 0 
0.00459967 -1.53611 3.1479 0 0 0 
-0.0349508 -1.78799 3.15911 0 0 0 
0.353712 -0.0604127 2.92565 76 255 62 
-0.083798 -1.6264 3.18686 0 0 0 
-0.00570378 -1.51589 3.15102 0 0 0 
-0.0400413 -1.59488 3.16055 0 0 0 
-0.00965929 -1.76587 3.16791 0 0 0 
-0.44105 -0.0702768 2.93473 0 0 0 
-0.33767 1.18601 2.67673 67 252 70 
-0.17915 -1.09361 3.06288 0 0 0 
-0.423125 -0.387424 3.1259 0 0 0 
-0.0234322 -1.75611 3.16068 0 0 0 
-0.305835 -0.686643 3.01958 0 0 0 
-0.316044 -0.612629 2.96243 0 0 0 
-0.390337 -0.516665 3.14455 0 0 0 
-0.365924 -0.509436 3.0307 0 0 0 
-0.485142 -0.137843 3.09088 0 0 0 
-0.0342626 -1.74008 3.16671 0 0 0 
-0.0169254 -1.77129 3.13511 0 0 0 
-0.159588 -0.893296 2.95849 0 0 0 
-0.279741 -0.808885 3.09511 0 0 0 
-0.377725 -0.366445 2.90752 68 254 69 
-0.50861 1.13938 2.90442 61 252 69 
-0.0717128 -1.62193 3.20322 0 0 0 
-0.182289 -1.10522 3.08444 0 0 0 
-0.433362 -0.311289 3.01248 0 0 0 
-0.283729 -0.251157 2.76282 70 254 84 
-0.334335 -0.620305 3.07136 0 0 0 
-0.00201008 -1.74525 3.13865 0 0 0 
-0.0229683 -1.55528 3.14471 0 0 0 
-0.0325572 -1.76296 3.16467 0 0 0 
-0.0244935 -1.65706 3.15584 0 0 0 
-0.0192844 -1.77949 3.15953 0 0 0 
-0.0469889 -1.75741 3.16662 0 0 0 
-0.0366865 -1.66769 3.16045 0 0 0 
-0.0221367 -1.6889 3.15738 0 0 0 
-0.0162878 -1.77864 3.148 0 0 0 
-0.0222584 -1.72982 3.16021 0 0 0 
-0.0811546 -1.58041 3.18899 0 0 0 
-0.0298904 -1.76338 3.16634 0 0 0 
-0.0535484 -1.4992 3.17574 0 0 0 
-0.0645794 -1.59453 3.18975 0 0 0 
-0.286279 -0.842575 3.30619 0 0 0 
-0.284778 -0.849365 3.31285 0 0 0 
-0.0254593 -1.65321 3.13994 0 0 0 
-0.367876 -0.572702 3.11735 0 0 0 
-0.366621 -0.337859 2.8753 65 71 192 
-0.352432 0.109969 2.79885 60 58 59 
-0.0176167 -1.68929 3.14647 0 0 0 
-0.350804 -0.0719219 3.39934 0 0 0 
-0.0329465 -1.7545 3.15368 0 0 0 
-0.0723792 -1.52785 3.1241 0 0 0 
-0.0726288 -1.49183 3.12279 0 0 0 
-0.133 -1.05645 3.00053 0 0 0 
-0.230657 -0.904156 3.0108 0 0 0 
-0.507731 1.13967 2.90558 61 252 69 
-0.432057 -0.361839 3.12947 0 0 0 
-0.468401 -0.268383 3.0497 0 0 0 
-0.0198546 -1.78912 3.13606 0 0 0 
-0.0322209 -1.63092 3.08317 0 0 0 
-0.0639996 -1.57916 3.14036 0 0 0 
-0.0752675 -1.5403 3.12554 0 0 0 
-0.0769198 -1.4962 3.13548 0 0 0 
-0.0597359 -1.72089 3.15263 0 0 0 
0.000552092 -1.59155 3.08992 0 0 0 
-0.0815877 -1.55472 3.13238 0 0 0 
0.030811 -1.60722 3.09223 0 0 0 
-0.052663 -1.50079 3.14027 0 0 0 
-0.0727173 -1.49265 3.16122 0 0 0 
-0.079034 -1.48652 3.16637 0 0 0 
-0.119045 -1.10424 3.02046 0 0 0 
-0.260274 -0.897509 3.1632 0 0 0 
-0.144771 -0.896663 2.96352 64 46 47 
-0.244284 -0.807209 2.9827 53 203 51 
-0.218948 -0.667287 2.87989 39 254 38 
-0.409095 -0.346183 3.00787 30 254 47 
-0.234839 -0.184638 3.51243 0 0 0 
-0.465325 0.0127628 3.13098 0 0 0 
-0.393374 0.869201 3.37337 0 0 0 
-0.413944 0.873469 3.34245 0 0 0 
-0.400447 0.883749 3.36805 0 0 0 
-0.411722 0.884262 3.34962 0 0 0 
-0.442798 0.880031 3.31355 0 0 0 
-0.399335 0.898933 3.36918 0 0 0 
-0.423595 0.890116 3.33598 0 0 0 
-0.432049 0.891671 3.32245 0 0 0 
-0.417724 0.902182 3.34037 0 0 0 
-0.402418 0.911689 3.36091 0 0 0 
-0.41247 0.911119 3.34937 0 0 0 
-0.47359 0.9016 3.2793 0 0 0 
-0.445397 0.915293 3.30181 0 0 0 
-0.398113 0.959914 3.36497 0 0 0 
-0.401219 0.98723 3.38948 0 0 0 
-0.388531 1.09044 3.36866 0 0 0 
0.00176007 -1.76848 3.15605 0 0 0 
-0.0560131 -1.49772 3.17843 0 0 0 
-0.0326634 -1.48367 3.20969 0 0 0 
-0.142 -1.24036 3.15345 0 0 0 
-0.184547 -1.08518 3.07335 0 0 0 
-0.122899 -1.05901 3.00458 0 0 0 
-0.175132 -0.994539 3.01679 0 0 0 
-0.19069 -0.820492 2.95682 61 57 254 
-0.264285 -0.743101 3.35786 0 0 0 
-0.247988 -0.700658 3.38065 0 0 0 
-0.278531 -0.638654 2.9399 1 0 254 
-0.34684 -0.627188 3.13867 0 0 0 
-0.329234 -0.557429 2.96876 64 254 63 
-0.378825 -0.550163 3.19523 0 0 0 
-0.361199 -0.545968 3.07648 0 0 0 
-0.347293 -0.529458 2.9376 67 254 64 
-0.389609 -0.517063 3.14486 0 0 0 
-0.391589 -0.339358 2.9087 33 34 254 
-0.486334 -0.137648 3.09037 112 34 34 
-0.152367 -0.0815251 2.7105 255 17 16 
-0.156015 -0.0802641 2.71961 255 15 14 
-0.275784 0.00885921 3.4553 0 0 0 
-0.255678 0.0106283 2.74981 255 47 47 
-0.406238 0.0323522 2.85659 49 255 46 
-0.227971 0.0905886 2.73294 28 255 29 
-0.500248 0.832621 3.28207 0 0 0 
-0.450237 0.878671 3.29954 0 0 0 
-0.440638 0.900991 3.30929 0 0 0 
-0.478139 0.887723 3.27577 0 0 0 
-0.429007 0.911197 3.32533 0 0 0 
-0.403071 0.980154 3.37662 0 0 0 
-0.0049251 1.19397 2.66283 254 42 40 
-0.0333773 1.19453 2.65252 39 40 254 
-0.0541228 1.19187 2.65664 35 33 34 
-0.559097 1.11634 3.13156 4 4 4 
-0.324002 1.18252 2.68157 39 37 254 
-0.552199 1.17147 2.95229 12 10 87 
-0.0701397 -1.49267 3.17348 0 0 0 
-0.356881 -0.579095 3.21944 0 0 0 
-0.316763 -0.0712444 3.44829 0 0 0 
-0.387402 0.0333339 2.86207 255 49 49 
-0.371857 0.476824 3.3741 0 0 0 
-0.398864 0.501768 2.81028 42 41 39 
-0.413198 0.849522 3.38151 0 0 0 
-0.463243 0.833831 3.30288 0 0 0 
-0.0679322 -1.63283 3.18485 0 0 0 
-0.071401 -1.62175 3.20146 0 0 0 
-0.242974 -0.906661 3.19395 0 0 0 
-0.270683 -0.798417 2.9876 30 37 114 
-0.311742 -0.655939 2.91137 61 254 58 
-0.352904 -0.655834 3.21927 0 0 0 
-0.249852 -0.646652 3.37343 0 0 0 
-0.279074 -0.251094 2.76397 255 64 57 
-0.232981 -0.209233 3.51671 0 0 0 
-0.221597 -0.109704 2.73654 4 255 14 
-0.229 -0.0782386 2.74101 10 9 7 
-0.0094507 -0.0234488 2.72763 28 255 38 
-0.335349 0.0739274 2.79057 255 38 37 
-0.347541 0.112341 2.79395 44 42 45 
-0.392796 0.113687 2.83135 3 1 2 
-0.259991 0.230193 2.73988 25 25 255 
-0.360569 0.494752 3.36754 0 0 0 
-0.415763 0.83734 3.36363 0 0 0 
-0.403634 0.965836 3.35831 0 0 0 
-0.380361 1.00293 3.38788 0 0 0 
0.081677 -1.78902 3.21452 0 0 0 
-0.0345321 -1.59635 3.08917 0 0 0 
-0.0383245 -1.59926 3.20362 0 0 0 
-0.0547259 -1.4932 3.16066 0 0 0 
0.0364081 -0.221792 2.71607 38 36 255 
-0.405388 0.919716 3.34707 0 0 0 
-0.357537 1.17258 2.67811 31 254 36 
0.0333062 -1.51474 3.11838 0 0 0 
-0.0142646 -1.77822 3.15009 0 0 0 
0.000481986 -1.60457 3.09378 0 0 0 
-0.283961 -0.784667 3.31511 0 0 0 
-0.215385 -0.577854 3.39108 0 0 0 
-0.415568 0.849426 3.35713 0 0 0 
-0.300448 1.02014 3.45435 0 0 0 
-0.0198187 -1.6238 3.19943 0 0 0 
-0.0198819 -1.72418 3.15689 0 0 0 
-0.0495817 -1.75632 3.16894 0 0 0 
-0.0355693 -1.74276 3.1641 0 0 0 
-0.0732213 -1.59691 3.17821 0 0 0 
-0.0698043 -1.58631 3.18985 0 0 0 
-0.0241586 -1.518 3.15881 0 0 0 
-0.410539 -0.0183808 3.382 0 0 0 
