ply                 
format ascii 1.0    
element vertex 888
property float x    
property float y    
property float z    
property uchar red  
property uchar green
property uchar blue 
end_header          
-0.110954 -0.679307 2.83557 0 0 0 
-0.19998 -0.665784 2.85942 254 56 55 
-0.0737056 -0.592127 2.80706 0 0 0 
-0.00146364 -0.576963 2.81845 86 85 81 
-0.0246352 -0.537993 2.80243 36 34 35 
-0.0130551 -0.482052 2.79006 35 33 34 
-0.32122 -0.394991 2.87263 43 252 103 
0.0215072 -0.345867 2.75224 74 72 73 
-0.191112 -0.279118 2.72685 254 107 102 
0.0293983 -0.159274 2.70042 0 0 0 
-0.0327295 -0.094848 2.6911 254 83 82 
0.0172533 -0.0820243 2.69665 57 254 58 
-0.183576 -0.0696132 2.71232 254 29 27 
-0.184242 -0.0598507 2.7102 18 16 17 
-0.27665 0.226484 2.73915 22 25 254 
-0.215009 0.233894 2.71057 149 86 89 
0.0403155 0.511455 2.72993 83 79 78 
-0.270128 0.645764 2.71808 41 39 40 
0.170058 0.696915 2.77651 254 44 43 
0.136443 0.6963 2.75433 0 0 0 
-0.356341 0.769642 2.77348 254 28 27 
0.176935 0.867405 2.76787 0 0 0 
0.115032 1.01187 2.72022 58 57 55 
-0.0424509 -1.49328 3.09812 0 0 0 
-0.0517988 -1.49353 3.10627 0 0 0 
-0.127026 -1.10586 3.01581 0 0 0 
-0.240228 -0.662812 2.88412 72 250 60 
-0.130107 -0.617128 2.82294 0 0 0 
-0.0737507 -0.591688 2.80814 0 0 0 
-0.00122205 -0.576572 2.81962 0 0 0 
-0.0739975 -0.538057 2.79017 104 98 70 
-0.277178 -0.400267 2.85143 0 0 0 
-0.287707 -0.295904 2.79537 31 28 254 
-0.19173 -0.280197 2.72295 40 24 25 
-0.0405963 -0.162077 2.69319 34 33 31 
0.0294376 -0.158845 2.69753 31 31 33 
-0.0172625 -0.141914 2.69014 3 1 2 
-0.0320786 -0.0947546 2.69519 255 26 24 
-0.402454 -0.0964942 2.86849 0 0 0 
0.159419 -0.0895365 2.74574 255 53 52 
0.024594 -0.0823758 2.69515 55 254 54 
0.0154428 -0.0814033 2.69727 57 53 54 
0.00369457 -0.0778049 2.69478 40 41 254 
-0.216376 -0.0663929 2.72142 37 37 254 
-0.184475 -0.0595313 2.70979 18 16 17 
-0.084013 -0.0470593 2.7006 83 82 80 
-0.317263 0.0228316 2.7763 20 20 254 
-0.152777 0.0263898 2.71831 254 125 125 
-0.346236 0.294687 2.78496 0 0 0 
-0.140103 0.359171 2.70631 59 61 242 
-0.224606 0.361952 2.70914 23 25 27 
-0.265335 0.427227 2.72279 0 0 0 
-0.391298 0.505359 2.81634 35 33 34 
-0.251395 0.520484 2.71574 23 24 254 
0.0292473 0.564594 2.70955 0 0 0 
-0.327869 0.578196 2.75262 45 46 254 
0.136101 0.696682 2.75394 0 0 0 
-0.356603 0.768164 2.76974 0 0 0 
-0.357114 0.776607 2.77096 0 0 0 
0.177678 0.867664 2.76949 86 254 68 
0.177617 0.887107 2.76537 4 1 1 
-0.142031 0.882887 2.67077 254 49 48 
0.0345222 0.90833 2.67771 69 67 254 
0.175254 0.95696 2.76005 15 45 14 
0.176495 0.968138 2.75871 24 66 21 
0.115419 1.01172 2.72158 0 0 0 
0.159518 -0.0888663 2.74585 11 10 8 
-0.148404 -0.0580232 2.7208 99 97 98 
-0.159778 0.0736754 2.71808 254 51 51 
-0.36794 0.0927452 2.81579 32 254 56 
-0.164617 0.359087 2.71118 65 63 64 
0.177234 0.887671 2.76717 62 254 65 
-0.0468939 -1.4955 3.0994 0 0 0 
-0.0162354 -0.781662 2.87698 0 0 0 
-0.139398 -0.662358 2.82101 36 254 35 
0.018254 -0.186468 2.69558 0 0 0 
-0.274236 -0.134081 2.75488 0 0 0 
-0.152597 -0.0845497 2.71179 19 19 254 
0.027569 -0.0799155 2.69453 85 86 254 
0.0796029 -0.0748369 2.71445 1 1 1 
-0.151839 0.025608 2.7176 0 0 0 
-0.15351 0.0985317 2.71571 17 18 254 
-0.196454 0.11022 2.70785 255 36 35 
-0.157382 0.734737 2.70114 42 37 255 
-0.128939 0.794881 2.6938 254 37 36 
0.0140582 -0.625624 2.83642 0 0 0 
-0.0816425 -0.0328244 2.71056 73 254 63 
0.090124 -0.0262291 2.73623 59 62 255 
0.0319268 -0.198221 2.69453 0 0 0 
-0.0967246 -0.0826383 2.69511 254 77 72 
0.0102664 -0.0712292 2.69464 40 38 39 
-0.11086 -0.679393 2.84251 0 0 0 
-0.105553 -0.665242 2.82526 0 0 0 
0.14795 -0.663973 2.88933 254 85 81 
-0.113718 -0.621828 2.81668 0 0 0 
-0.131092 -0.617025 2.82838 0 0 0 
0.0078255 0.589655 2.70385 254 39 38 
0.231101 0.659769 2.83766 254 86 82 
0.206314 0.670105 2.81237 254 55 54 
0.237032 0.677459 2.84398 254 92 88 
0.248628 0.688645 2.85986 70 69 254 
0.189083 0.67803 2.79345 41 39 33 
0.211137 0.682702 2.81634 60 59 55 
0.202884 0.687969 2.80594 28 27 23 
0.236683 0.701022 2.84735 94 91 254 
0.188127 0.697863 2.79187 71 254 80 
0.141443 0.698959 2.75596 71 254 71 
0.18333 0.713453 2.78755 7 3 68 
0.163135 0.714202 2.77291 0 0 0 
0.217499 0.729458 2.82259 89 85 254 
0.194275 0.728708 2.79813 48 249 48 
0.18506 0.728904 2.79024 140 47 47 
0.155072 0.727185 2.76627 0 0 0 
0.276919 0.849704 2.89321 69 66 59 
0.279202 0.860831 2.89554 99 254 72 
0.25395 0.872001 2.85435 255 68 67 
0.219041 0.870866 2.80671 90 86 87 
0.248624 0.885075 2.83457 86 83 254 
0.232905 0.882265 2.81687 254 69 68 
0.250632 0.895734 2.83264 88 84 81 
0.167347 0.876914 2.75727 0 0 0 
0.184593 0.881157 2.76963 4 12 4 
0.140981 0.87694 2.73979 72 70 254 
0.226807 0.893662 2.8052 85 254 84 
0.214363 0.895627 2.7926 59 253 65 
0.185797 0.891796 2.76773 6 5 13 
0.162271 0.888772 2.751 0 0 0 
0.152202 0.889242 2.74233 0 0 0 
0.252641 0.940886 2.83166 87 86 82 
0.220262 0.932705 2.79724 98 96 254 
0.221875 0.943167 2.79857 73 72 68 
0.254883 0.957115 2.8361 255 68 69 
0.259466 0.963274 2.84365 68 67 62 
0.210682 0.959102 2.78817 76 74 255 
0.187874 0.955615 2.76814 135 39 37 
0.250058 0.978076 2.83524 73 255 68 
0.175863 0.956668 2.75959 52 17 17 
0.273348 0.989638 2.8647 64 255 65 
0.226865 0.975051 2.80586 66 64 255 
0.209001 0.970226 2.78652 254 89 88 
0.176462 0.968498 2.75885 21 68 19 
0.199041 0.976118 2.77977 56 57 249 
0.153889 0.981259 2.74414 80 254 88 
0.182406 1.2341 2.67458 80 20 18 
-0.0276824 -1.77777 3.15311 0 0 0 
-0.0350869 -1.76598 3.15137 0 0 0 
-0.0345671 -1.55396 3.08401 0 0 0 
0.0506538 -1.10433 2.99459 0 0 0 
0.255315 -0.730119 3.00022 64 63 61 
0.329739 -0.665876 3.13426 47 43 42 
0.333745 -0.632671 3.15184 36 36 36 
-0.278259 -0.399889 2.85913 0 0 0 
-0.309201 -0.332847 2.83926 0 0 0 
0.217416 -0.295747 2.80522 255 59 60 
0.264896 -0.271822 2.86427 64 62 255 
-0.285415 -0.24969 2.7738 0 0 0 
-0.292364 -0.244887 2.77024 0 0 0 
0.261256 -0.241599 2.82813 255 73 72 
0.36462 -0.0257874 3.09468 51 50 48 
0.351954 -0.00544743 3.09489 69 67 255 
-0.310577 0.0156557 2.77004 40 42 254 
-0.157998 0.0890346 2.71053 1 1 0 
-0.0842651 0.236183 2.70836 77 78 254 
-0.137557 0.367765 2.71383 57 57 255 
-0.0183073 0.41867 2.71752 0 0 0 
0.127301 0.439125 2.75159 46 43 254 
0.180742 0.627527 2.78812 66 65 61 
0.198454 0.652508 2.80275 68 65 60 
0.176454 0.70701 2.78368 0 0 0 
0.191495 0.871135 2.77961 29 89 28 
0.214341 0.876218 2.80015 81 77 74 
0.193462 0.880059 2.77711 30 27 23 
0.149641 0.877411 2.74602 0 0 0 
0.231264 0.902895 2.81142 94 89 254 
0.208009 0.90088 2.78799 87 83 80 
0.191041 0.928581 2.76913 35 34 77 
0.227637 0.958519 2.80735 78 255 80 
0.228098 0.986089 2.80666 254 41 40 
0.153599 0.970282 2.7428 10 3 3 
0.115256 1.01191 2.71952 254 76 76 
0.143506 1.21831 2.64185 254 40 39 
0.14944 -0.183214 2.74483 0 0 0 
0.165775 -0.0370443 2.76101 255 39 38 
-0.337959 0.073922 2.79118 22 255 33 
0.18362 0.963478 2.76332 58 60 55 
0.19323 1.23414 2.66996 25 21 18 
0.141633 1.2282 2.64242 28 26 254 
-0.0145324 -1.67403 3.12863 0 0 0 
-0.0383832 -1.58885 3.08509 0 0 0 
0.0301824 -1.57226 3.10899 0 0 0 
-0.0673639 -1.49455 3.13278 0 0 0 
-0.0953231 -0.664508 2.82784 0 0 0 
-0.138778 -0.661827 2.82045 36 254 35 
-0.238562 -0.113177 2.73149 44 43 39 
-0.0596102 -0.0785917 2.69981 64 254 68 
0.111549 -0.0747838 2.71973 87 88 255 
0.158193 -0.0711476 2.74515 33 255 43 
0.17265 -0.0657231 2.74926 48 46 255 
0.260968 0.855652 2.8731 254 87 84 
0.173949 0.911 2.75237 59 54 254 
-0.337188 1.20783 2.71506 0 0 0 
0.00208943 -1.74128 3.16244 0 0 0 
-0.16571 0.113373 2.71228 1 0 0 
-0.0267301 -1.69377 3.14992 0 0 0 
-0.00654422 -1.57132 3.09679 0 0 0 
-0.064608 -1.4769 3.0922 0 0 0 
0.0356087 -1.47517 3.12455 0 0 0 
0.17533 -0.79395 2.96482 254 58 57 
-0.0955528 -0.0823386 2.68343 254 77 72 
-0.0770543 -0.0730917 2.69614 67 66 64 
-0.0422025 -1.70613 3.09189 0 0 0 
-0.0307683 -1.57792 3.07622 0 0 0 
-0.0746932 -1.59913 3.12993 0 0 0 
-0.145548 1.14275 2.64212 254 64 63 
-0.248243 -0.0806472 2.73836 255 20 20 
0.0052806 -1.72525 3.1376 0 0 0 
-0.0131702 -1.7152 3.155 0 0 0 
-0.0632499 -1.4951 3.13359 0 0 0 
-0.0126403 -1.66155 3.15113 0 0 0 
0.19375 0.716166 2.79894 33 247 35 
0.175185 0.879993 2.76242 1 1 1 
0.25381 0.912589 2.83477 254 89 85 
0.164074 0.915364 2.7487 0 0 0 
0.193926 0.941356 2.77261 39 173 42 
0.121014 1.00976 2.7253 48 51 254 
0.142696 1.22244 2.65262 76 18 19 
0.201976 1.22895 2.6861 35 36 32 
-0.0140808 -1.69115 3.1463 0 0 0 
0.362765 -0.0256775 3.20841 53 50 255 
0.156554 0.883557 2.7488 0 0 0 
0.219648 0.889767 2.80211 81 82 77 
0.199372 0.90729 2.77698 51 137 54 
0.244836 0.953448 2.82405 73 254 83 
0.203623 0.9649 2.78605 73 254 66 
0.201502 0.721925 2.8044 254 66 65 
0.201463 0.728236 2.83011 67 60 254 
0.267439 0.87267 2.86394 53 254 45 
0.22641 0.876278 2.80987 254 99 98 
0.260696 0.917929 2.84084 71 66 254 
0.242385 0.871061 2.8333 54 42 254 
0.17444 0.981154 2.75925 28 26 87 
0.141474 1.23175 2.65261 5 4 19 
-0.0334609 -1.73734 3.14443 0 0 0 
-0.0234574 -1.70906 3.1453 0 0 0 
-0.0672522 -1.48623 3.11115 0 0 0 
-0.0271128 -1.66089 3.14209 0 0 0 
-0.00208799 -1.51472 3.14597 0 0 0 
0.184186 0.99565 2.76677 66 61 59 
0.153603 0.901923 2.74347 0 0 0 
-0.0262746 -1.71227 3.15081 0 0 0 
0.380405 -0.212201 3.16929 47 47 255 
0.144057 -0.433552 2.80997 68 75 111 
0.0216703 -0.159745 2.70931 0 0 0 
-0.0222582 0.363084 2.72705 0 0 0 
0.322292 0.382537 2.99474 36 254 63 
-0.0230718 0.40516 2.72608 0 0 0 
-0.0242283 0.420572 2.72624 0 0 0 
0.233022 0.674653 2.8404 82 254 94 
0.281804 0.683135 2.9115 63 60 55 
0.286792 0.684928 2.92234 66 63 58 
0.273106 0.681735 2.89526 82 254 85 
0.255695 0.680717 2.86933 64 63 59 
0.268533 0.691613 2.88902 254 76 73 
0.290329 0.699114 2.92649 71 67 254 
0.188719 0.685325 2.79222 76 70 72 
0.232147 0.695849 2.84008 78 75 254 
0.16871 0.697992 2.77812 254 44 43 
0.214347 0.725698 2.8188 60 59 55 
0.303795 0.857818 2.9533 37 34 29 
0.271228 0.848456 2.88839 74 254 76 
0.287135 0.855259 2.91059 254 65 62 
0.283178 0.857294 2.90085 44 40 254 
0.2674 0.854706 2.8756 72 71 66 
0.302937 0.866589 2.93922 254 49 45 
0.299539 0.870126 2.91735 72 254 81 
0.305563 0.876768 2.94023 63 254 63 
0.277284 0.87354 2.88135 70 254 73 
0.317359 0.887959 2.95299 42 254 55 
0.176142 0.867501 2.76699 254 65 64 
0.289358 0.883383 2.89606 59 54 48 
0.30082 0.885815 2.91181 50 254 53 
0.241121 0.878888 2.82668 254 55 54 
0.269096 0.883397 2.86102 254 72 68 
0.311792 0.897776 2.94072 36 30 30 
0.231382 0.883428 2.81936 70 69 67 
0.222231 0.881373 2.80341 254 85 85 
0.16192 0.879627 2.75349 0 0 0 
0.303865 0.899773 2.91428 28 254 49 
0.291317 0.89956 2.89036 47 43 34 
0.3204 0.91205 2.94615 40 31 254 
0.26847 0.898189 2.8554 254 80 77 
0.149951 0.890357 2.74437 68 66 67 
0.236747 0.897479 2.81645 75 74 70 
0.313025 0.914022 2.92782 30 254 42 
0.298867 0.912774 2.9004 59 55 46 
0.282733 0.912111 2.87434 54 254 61 
0.299482 0.923914 2.89852 254 57 53 
0.327526 0.938325 2.96634 43 254 73 
0.284399 0.923135 2.87412 254 71 67 
0.316159 0.936175 2.93603 47 254 51 
0.288413 0.929471 2.8822 47 44 35 
0.305804 0.934781 2.90966 254 42 37 
0.223519 0.918941 2.7979 254 68 67 
0.323061 0.948088 2.95264 48 43 39 
0.303454 0.946521 2.90626 254 52 47 
0.30839 0.949061 2.91864 52 47 43 
0.288274 0.944311 2.88109 254 58 55 
0.264169 0.940856 2.84654 80 254 86 
0.250131 0.946852 2.82937 85 84 254 
0.307972 0.963599 2.9184 40 35 29 
0.300413 0.965329 2.90325 254 53 48 
0.292558 0.96292 2.88672 69 64 254 
0.226023 0.952906 2.80129 254 80 79 
0.169155 0.954798 2.7536 23 7 7 
0.25091 0.960503 2.82928 75 254 84 
0.260475 0.962583 2.84374 80 254 89 
0.238343 0.961086 2.81648 82 79 254 
0.324629 0.991172 2.96934 50 39 254 
0.300291 0.97745 2.90315 254 81 78 
0.288574 0.976425 2.88182 47 44 39 
0.293702 0.979925 2.89321 44 41 36 
0.264919 0.975433 2.84749 77 74 69 
0.274591 0.978413 2.86297 41 36 254 
0.237589 0.972881 2.81574 79 78 254 
0.285187 0.991972 2.88136 41 254 52 
0.249557 0.986419 2.82924 85 82 254 
0.26697 0.989523 2.85274 70 67 254 
0.285085 1.00227 2.88026 68 65 254 
0.266947 1.00048 2.85279 48 41 254 
0.182734 0.99643 2.76891 41 254 51 
0.225849 0.998181 2.80354 254 67 66 
0.212189 1.04991 2.78404 54 52 254 
0.159332 -0.471419 2.82459 40 198 40 
-0.00762204 -0.0832298 2.70464 0 0 0 
-0.164469 0.0270526 2.73228 0 0 0 
0.284816 0.673977 2.91775 254 93 90 
0.268902 0.671241 2.89024 74 73 68 
0.185332 0.708405 2.7936 41 149 41 
0.172285 0.714112 2.78062 254 58 54 
0.220168 0.723832 2.82821 254 57 53 
0.18865 0.722344 2.79446 72 71 68 
0.290026 0.871482 2.91262 254 84 83 
0.280606 0.87051 2.89003 69 68 64 
0.325406 0.890514 2.98621 50 254 54 
0.30125 0.882592 2.92827 91 92 87 
0.253925 0.870984 2.8503 80 77 70 
0.227652 0.871399 2.81633 46 42 41 
0.186428 0.875544 2.7749 23 8 8 
0.295889 0.892845 2.90704 66 254 73 
0.300394 0.90651 2.90853 254 60 56 
0.171314 0.890655 2.75763 74 254 65 
0.309234 0.920325 2.92141 254 47 43 
0.181707 0.902161 2.76269 59 254 65 
0.162589 0.904772 2.75027 0 0 0 
0.251088 0.915405 2.82828 79 78 74 
0.305892 0.955734 2.91098 77 72 254 
0.181989 0.950719 2.76541 61 60 58 
0.232533 0.954322 2.81103 74 254 78 
0.322885 0.978739 2.95369 53 49 254 
0.170494 0.963279 2.75637 70 65 254 
0.293019 0.989223 2.89131 27 254 38 
0.305244 1.0028 2.91707 49 254 55 
0.194683 -0.333872 2.80408 67 254 65 
0.278755 0.701047 2.90413 62 57 254 
0.156647 0.719856 2.7676 0 0 0 
0.244172 0.890654 2.8284 45 44 40 
0.284854 0.905153 2.88589 73 68 254 
0.333044 0.966087 2.99072 43 254 48 
0.193502 0.948855 2.77232 64 254 59 
0.294527 0.997766 2.88475 71 254 76 
0.0110331 -0.186796 2.70364 0 0 0 
0.00145694 -0.0760008 2.70673 0 0 0 
-0.00640524 -0.0303509 2.72877 0 0 0 
-0.177656 0.114904 2.72337 0 0 0 
0.241258 0.871646 2.83477 69 65 254 
0.146207 0.876746 2.74338 0 0 0 
0.306641 0.898031 2.93126 37 29 254 
0.299113 0.85827 2.94336 51 48 254 
0.207426 0.944425 2.79063 83 82 78 
0.361967 -0.0268295 3.25669 12 8 5 
0.164114 0.97025 2.75119 45 44 42 
0.29247 0.919783 2.89537 254 42 37 
0.382316 -0.0285327 3.22854 12 8 5 
-0.158824 0.638793 2.70733 0 0 0 
-0.0466477 -1.51965 3.12779 0 0 0 
0.00443752 -1.68356 3.15686 0 0 0 
0.216708 0.717624 2.82366 78 75 254 
0.286133 0.874993 2.89718 254 77 74 
0.315644 0.876662 2.95729 72 68 65 
0.313659 0.889596 2.94355 54 47 39 
0.321797 0.907775 2.951 25 254 42 
0.254765 0.93764 2.83553 88 84 254 
0.327624 0.947723 2.96598 41 254 52 
0.285256 0.963991 2.87833 254 54 51 
0.271869 0.983026 2.85789 60 57 52 
0.290791 0.983865 2.88857 254 50 47 
0.209699 1.24817 2.68739 22 19 132 
0.262638 0.682473 2.90098 254 83 80 
0.317668 0.88786 2.9539 254 51 46 
0.32263 0.902409 2.96679 44 35 28 
0.241762 0.90297 2.82114 79 254 91 
0.308012 0.905081 2.91928 43 39 30 
0.296033 0.905545 2.89524 37 254 53 
0.289485 0.94192 2.88251 48 45 254 
0.316208 0.947686 2.93597 254 35 30 
0.303898 0.957441 2.91477 254 58 53 
0.330719 0.96866 2.99851 254 45 40 
0.188101 0.982028 2.77106 54 217 95 
0.295373 0.972066 2.89842 45 41 254 
0.230586 0.980798 2.81066 79 77 254 
0.198684 0.723271 2.80594 254 66 65 
0.260141 0.853766 2.8628 66 254 56 
0.220909 0.900943 2.79587 91 87 84 
0.288782 0.917876 2.88132 254 62 55 
0.310016 0.945151 2.92849 40 254 49 
0.298852 0.936267 2.89917 254 58 53 
0.318998 0.940089 2.95659 40 254 51 
0.235207 0.950634 2.81418 75 254 81 
0.257053 0.952035 2.83763 75 71 68 
0.291743 0.999863 2.88888 57 53 50 
-0.0243215 -1.69718 3.15761 0 0 0 
0.153373 0.6963 2.76672 0 0 0 
0.311274 0.695082 2.98214 69 254 83 
0.183289 0.859715 2.77776 8 6 16 
0.293368 0.866731 2.91753 58 58 50 
0.301173 0.885777 2.91728 254 37 32 
0.300787 0.921347 2.90425 47 42 36 
0.190313 0.942876 2.775 39 173 42 
0.308366 0.934346 2.91648 43 254 52 
0.29377 0.935039 2.88926 49 44 38 
0.336466 0.949135 3.00084 86 76 74 
0.304294 0.997431 2.91237 56 51 254 
0.254402 -0.231428 2.83383 253 50 50 
0.269757 -0.228609 2.85452 74 72 73 
0.255681 0.693313 2.87356 71 72 67 
0.274031 0.693946 2.89882 68 254 89 
0.290707 0.880732 2.90316 64 254 59 
0.328318 0.913808 2.96786 48 44 35 
0.316164 0.919964 2.93282 55 51 42 
0.335483 0.958922 2.99472 56 254 70 
0.323459 0.967121 2.95453 36 254 47 
0.276846 0.984343 2.8679 254 52 49 
0.228521 0.994102 2.81015 76 72 71 
0.326632 1.01343 2.96679 254 47 44 
0.33501 1.09933 3.247 23 18 254 
0.253922 -0.329281 2.91921 72 69 254 
0.276423 0.701628 2.90564 62 57 254 
0.319007 0.972345 2.94693 25 254 36 
0.242166 0.983617 2.82446 85 254 106 
0.269887 0.997708 2.8609 51 254 66 
-0.0187739 -1.68803 3.1696 0 0 0 
0.27835 0.845715 2.89855 49 42 254 
0.311671 0.895842 2.92797 37 29 254 
0.154638 0.968185 2.78071 34 123 38 
-0.0128252 -1.77749 3.16373 0 0 0 
-0.0073735 -1.73797 3.1516 0 0 0 
0.142954 1.21615 2.66375 32 9 9 
-0.00934453 -1.78318 3.15904 0 0 0 
0.00369286 -1.77845 3.16206 0 0 0 
0.473747 -0.013188 3.25716 31 27 24 
-0.00394271 -1.7196 3.1575 0 0 0 
0.0131376 -1.73452 3.16139 0 0 0 
-0.0153052 -1.78217 3.1515 0 0 0 
-0.0208355 -1.77104 3.15464 0 0 0 
-0.0277454 -1.76338 3.15552 0 0 0 
-0.0283647 -1.73764 3.15401 0 0 0 
-0.0372797 -1.74208 3.15467 0 0 0 
-0.0168377 -1.80817 3.15266 0 0 0 
-0.0281875 -1.69985 3.14818 0 0 0 
-0.0156313 -1.7004 3.1478 0 0 0 
-0.0289327 -1.79273 3.15267 0 0 0 
-0.00385833 -1.77023 3.14928 0 0 0 
-0.0154267 -1.75961 3.15162 0 0 0 
-0.0276158 -1.66455 3.14944 0 0 0 
-0.0744265 -1.50425 3.15887 0 0 0 
-0.160493 0.894087 2.6753 23 254 30 
-0.0371595 -1.67496 3.15471 0 0 0 
-0.066324 -1.65547 3.1662 0 0 0 
-0.0578582 -1.58911 3.14907 0 0 0 
-0.226421 -0.670983 2.87758 65 64 60 
-0.0513502 -1.51549 3.15951 0 0 0 
-0.291331 -0.0948286 2.76102 254 22 21 
-0.322397 0.00964747 2.77807 254 44 44 
-0.0450233 -1.60367 3.16009 0 0 0 
-0.0434435 -1.68103 3.16154 0 0 0 
-0.0430858 -1.74358 3.16597 0 0 0 
-0.130335 -1.06166 2.9993 0 0 0 
-0.174176 -1.01112 3.01785 0 0 0 
-0.16358 -0.988364 2.99919 0 0 0 
-0.122522 -0.97568 2.96607 0 0 0 
-0.127798 -0.900453 2.93682 0 0 0 
-0.149313 -0.87883 2.94223 0 0 0 
-0.116351 -0.611109 2.81585 44 42 254 
-0.258119 -0.444074 2.84946 48 46 254 
-0.304727 -0.322236 2.82133 79 75 72 
-0.145092 -1.06478 3.02035 0 0 0 
-0.163601 -1.05459 3.02987 0 0 0 
-0.0904348 -1.02856 2.962 0 0 0 
-0.164595 -1.00598 3.00739 0 0 0 
-0.194221 -0.930676 2.99537 0 0 0 
-0.184406 -0.893532 2.97506 0 0 0 
-0.119177 -0.896469 2.92684 0 0 0 
-0.22792 -0.87238 2.99551 0 0 0 
-0.210213 -0.87402 2.9825 0 0 0 
-0.225393 -0.850601 2.98315 0 0 0 
-0.448091 -0.0462208 3.29719 0 0 0 
-0.387851 -0.000310289 2.83981 34 34 34 
-0.398391 0.25837 2.8374 254 33 31 
-0.220904 -0.895708 3.00068 0 0 0 
-0.142471 -0.661183 2.81704 254 55 51 
-0.137165 -0.884681 2.93319 0 0 0 
-0.389123 0.112784 2.84797 52 53 254 
-0.0198195 -1.80731 3.15786 0 0 0 
-0.0147935 -1.7525 3.15153 0 0 0 
-0.0295117 -1.66417 3.14684 0 0 0 
-0.229324 -0.913896 3.00289 0 0 0 
-0.154924 -0.89007 2.94941 0 0 0 
-0.219211 -0.882838 2.99006 0 0 0 
-0.243651 -0.832646 2.97832 0 0 0 
-0.273191 -0.822303 3.05436 0 0 0 
-0.303849 -0.799115 3.13674 0 0 0 
0.195087 -0.73706 2.91879 254 46 42 
0.18446 -0.697619 2.90259 32 255 35 
-0.317306 -0.642583 2.97365 0 0 0 
-0.344003 -0.613796 3.04885 0 0 0 
-0.34099 -0.563835 2.9753 0 0 0 
-0.379976 -0.537971 3.11204 0 0 0 
-0.390085 -0.442232 3.01866 0 0 0 
-0.435347 -0.360685 3.11574 0 0 0 
-0.361629 -0.328496 2.85969 41 39 42 
-0.478486 -0.24546 3.03652 0 0 0 
0.020176 -0.0792697 2.70431 57 53 54 
-0.459307 0.523763 3.02996 0 0 0 
-0.502661 1.1525 2.89917 4 22 4 
0.0628724 -1.15156 3.01066 0 0 0 
-0.253715 -0.808931 2.97479 0 0 0 
-0.295433 -0.801698 3.13 0 0 0 
-0.304089 -0.77962 3.31701 0 0 0 
-0.31156 -0.756954 3.19406 0 0 0 
0.211057 -0.780521 2.94299 84 81 254 
-0.285122 -0.707237 2.92138 0 0 0 
-0.360607 -0.646334 3.16477 0 0 0 
-0.143421 -0.608028 2.82115 254 37 36 
-0.2344 -0.59192 2.88111 254 51 50 
-0.357841 -0.582658 3.06528 0 0 0 
-0.389151 -0.534606 3.144 0 0 0 
-0.387704 -0.526805 3.13776 0 0 0 
-0.375629 -0.448806 2.95797 0 0 0 
-0.402435 -0.439 3.06837 0 0 0 
0.163548 -0.46067 2.8309 52 255 57 
-0.357526 -0.338188 2.86316 76 79 254 
-0.440155 -0.313892 3.00501 0 0 0 
-0.471698 -0.271515 3.04641 0 0 0 
-0.467887 -0.266084 3.03049 0 0 0 
-0.470266 -0.242347 3.00211 0 0 0 
-0.160841 -0.0848689 2.70438 19 19 254 
-0.465081 -0.0505454 3.15964 0 0 0 
-0.386935 -0.0260596 3.36432 0 0 0 
0.238166 -0.0329748 2.86163 255 66 62 
-0.393316 -0.0219724 2.84166 254 54 52 
-0.38974 -0.0066412 2.86036 50 50 254 
-0.38816 -0.00043672 2.86926 20 20 254 
-0.391015 0.0559166 2.85926 46 44 45 
-0.39563 0.106428 2.85533 62 254 59 
0.0272064 0.197086 2.72409 254 54 50 
-0.398623 0.253968 2.85115 53 51 52 
-0.528608 1.18944 2.96866 0 0 0 
-0.0307697 -1.78915 3.15308 0 0 0 
-0.222208 -0.90942 2.99472 0 0 0 
-0.282153 -0.664856 2.92321 0 0 0 
-0.336017 -0.534928 2.94126 0 0 0 
-0.0174721 -0.186958 2.69393 57 56 54 
-0.487221 -0.151183 3.08698 0 0 0 
-0.391985 0.00800735 2.8577 41 47 254 
-0.0202396 -1.74915 3.1283 0 0 0 
0.00746264 -1.62797 3.0759 0 0 0 
-0.0538446 -1.58072 3.09525 0 0 0 
-0.0225037 -1.60005 3.1182 0 0 0 
-0.303963 -0.670562 2.96119 0 0 0 
-0.110047 -0.66673 2.84284 37 33 32 
-0.137938 -0.637649 2.82201 254 42 40 
-0.368896 -0.612639 3.16495 0 0 0 
-0.488781 -0.130682 3.07769 0 0 0 
-0.400574 -0.0851094 2.85988 51 254 58 
-0.445149 -0.0785631 2.93226 0 0 0 
-0.160582 -0.0798705 2.7192 254 13 13 
-0.436312 -0.0495821 2.93452 0 0 0 
-0.0106282 -1.80336 3.13802 0 0 0 
-0.258261 -0.805376 2.99705 0 0 0 
-0.149472 -0.0808129 2.70832 25 254 30 
-0.384423 0.113289 2.85264 52 53 254 
-0.00995885 -1.78472 3.13849 0 0 0 
-0.26705 -0.726022 2.9459 0 0 0 
0.272579 -0.0668834 2.90907 53 52 50 
-0.405996 -0.218735 3.3663 0 0 0 
0.670767 -0.0632584 3.13254 73 255 81 
-0.0275584 -1.73679 3.15394 0 0 0 
-0.0278133 -1.76312 3.15587 0 0 0 
0.00121926 -1.54204 3.14073 0 0 0 
-0.0373977 -1.79526 3.15308 0 0 0 
0.355292 -0.0625682 2.91768 76 255 62 
-0.0889304 -1.63168 3.17882 0 0 0 
-0.0103265 -1.52126 3.14285 0 0 0 
-0.0449804 -1.60026 3.15241 0 0 0 
-0.015023 -1.77134 3.15911 0 0 0 
-0.443488 -0.0718587 2.93336 0 0 0 
-0.336881 1.19234 2.67732 67 252 70 
-0.182882 -1.09838 3.05732 0 0 0 
-0.427693 -0.391416 3.12205 0 0 0 
-0.0273709 -1.76222 3.15297 0 0 0 
-0.310483 -0.690304 3.01451 0 0 0 
-0.321585 -0.615637 2.95682 0 0 0 
-0.396799 -0.521118 3.13902 0 0 0 
-0.370395 -0.51287 3.02632 0 0 0 
-0.489682 -0.140773 3.08792 0 0 0 
-0.0388307 -1.74597 3.15888 0 0 0 
-0.021346 -1.77707 3.12713 0 0 0 
-0.162211 -0.897126 2.95434 0 0 0 
-0.285405 -0.813532 3.08966 0 0 0 
-0.385205 -0.368641 2.90163 68 254 69 
-0.498487 1.15144 2.91588 61 252 69 
-0.0798284 -1.62749 3.19352 0 0 0 
-0.186449 -1.11012 3.07887 0 0 0 
-0.43836 -0.313887 3.00857 0 0 0 
-0.287305 -0.252609 2.75976 70 254 84 
-0.338871 -0.624287 3.06705 0 0 0 
-0.00578858 -1.75127 3.13136 0 0 0 
-0.0183502 -1.56335 3.1434 0 0 0 
-0.037025 -1.76905 3.15685 0 0 0 
-0.028555 -1.66323 3.14893 0 0 0 
-0.0233105 -1.7856 3.15171 0 0 0 
-0.0512349 -1.7636 3.15876 0 0 0 
-0.040841 -1.67389 3.15338 0 0 0 
-0.0261519 -1.69505 3.15023 0 0 0 
-0.0180512 -1.78561 3.14107 0 0 0 
-0.026932 -1.73578 3.15246 0 0 0 
-0.0859616 -1.58668 3.18216 0 0 0 
-0.0352813 -1.76914 3.158 0 0 0 
-0.0570595 -1.50527 3.17054 0 0 0 
-0.0686689 -1.60025 3.18351 0 0 0 
-0.288163 -0.848596 3.30533 0 0 0 
-0.28659 -0.855455 3.31204 0 0 0 
-0.0279353 -1.6625 3.13451 0 0 0 
-0.374294 -0.576658 3.11112 0 0 0 
-0.373234 -0.339995 2.86957 65 71 192 
-0.354428 0.10978 2.79828 60 58 59 
-0.0199167 -1.69609 3.14034 0 0 0 
-0.336845 -0.0739111 3.41649 0 0 0 
-0.0380269 -1.75997 3.14556 0 0 0 
-0.0763904 -1.5335 3.1174 0 0 0 
-0.0758621 -1.49777 3.11673 0 0 0 
-0.135817 -1.0611 2.99586 0 0 0 
-0.236271 -0.907855 3.0047 0 0 0 
-0.499125 1.15135 2.91644 61 252 69 
-0.434878 -0.365414 3.12757 0 0 0 
-0.474707 -0.271412 3.0451 0 0 0 
-0.0296023 -1.79262 3.12496 0 0 0 
-0.0374549 -1.63578 3.07519 0 0 0 
-0.0678656 -1.58503 3.13363 0 0 0 
-0.0796911 -1.54578 3.1185 0 0 0 
-0.0800052 -1.50229 3.12955 0 0 0 
-0.0659467 -1.72576 3.14379 0 0 0 
-0.00106711 -1.59809 3.08454 0 0 0 
-0.0864732 -1.56006 3.12497 0 0 0 
0.0253131 -1.61121 3.08574 0 0 0 
-0.0590798 -1.50555 3.13329 0 0 0 
-0.0795776 -1.49766 3.15398 0 0 0 
-0.0860099 -1.49159 3.15908 0 0 0 
-0.123153 -1.10806 3.01536 0 0 0 
-0.277426 -0.900653 3.15332 0 0 0 
-0.147859 -0.899774 2.95952 64 46 47 
-0.247726 -0.810827 2.97772 53 203 51 
-0.222177 -0.668743 2.87551 39 254 38 
-0.416097 -0.348953 3.00282 30 254 47 
-0.251438 -0.189168 3.51457 0 0 0 
-0.476732 0.00984593 3.12776 0 0 0 
-0.408494 0.871212 3.38155 0 0 0 
-0.428385 0.875591 3.35014 0 0 0 
-0.423086 0.883759 3.3721 0 0 0 
-0.432285 0.884841 3.35431 0 0 0 
-0.456608 0.882219 3.32064 0 0 0 
-0.421865 0.898626 3.37344 0 0 0 
-0.437902 0.892361 3.34362 0 0 0 
-0.446077 0.893959 3.32988 0 0 0 
-0.432161 0.904525 3.34824 0 0 0 
-0.417325 0.914067 3.36925 0 0 0 
-0.435665 0.910899 3.35299 0 0 0 
-0.486654 0.904008 3.28586 0 0 0 
-0.459008 0.917825 3.3091 0 0 0 
-0.422915 0.959277 3.36863 0 0 0 
-0.424658 0.988113 3.39454 0 0 0 
-0.403871 1.09435 3.37889 0 0 0 
-0.00487763 -1.77312 3.14779 0 0 0 
-0.0633492 -1.50271 3.17146 0 0 0 
-0.0407335 -1.48871 3.20334 0 0 0 
-0.162957 -1.24099 3.1414 0 0 0 
-0.189694 -1.08972 3.06738 0 0 0 
-0.126705 -1.06265 2.99975 0 0 0 
-0.179186 -0.998445 3.01159 0 0 0 
-0.193644 -0.823638 2.95261 61 57 254 
-0.276373 -0.749011 3.35407 0 0 0 
-0.260698 -0.706473 3.37758 0 0 0 
-0.281246 -0.641663 2.93556 1 0 254 
-0.361624 -0.630994 3.1305 0 0 0 
-0.332647 -0.560652 2.96427 64 254 63 
-0.387309 -0.555123 3.19064 0 0 0 
-0.371534 -0.549447 3.06991 0 0 0 
-0.350002 -0.532495 2.93294 67 254 64 
-0.396986 -0.521645 3.1402 0 0 0 
-0.391513 -0.341149 2.90562 33 34 254 
-0.493128 -0.140818 3.08699 112 34 34 
-0.151221 -0.0798338 2.71196 255 17 16 
-0.155071 -0.0786485 2.72105 255 15 14 
-0.291353 0.00540431 3.45825 0 0 0 
-0.255429 0.0118938 2.75032 255 47 47 
-0.408212 0.0320943 2.85508 49 255 46 
-0.227521 0.0925763 2.73449 28 255 29 
-0.513276 0.834293 3.28757 0 0 0 
-0.46376 0.880887 3.3064 0 0 0 
-0.454391 0.903388 3.31657 0 0 0 
-0.491169 0.889992 3.28208 0 0 0 
-0.443134 0.913641 3.33299 0 0 0 
-0.423677 0.982122 3.3829 0 0 0 
-0.00492671 1.20557 2.67652 254 42 40 
-0.0332061 1.20602 2.66564 39 40 254 
-0.0540337 1.20319 2.6694 35 33 34 
-0.569364 1.12098 3.13763 4 4 4 
-0.324525 1.19199 2.68963 39 37 254 
-0.558638 1.17778 2.95788 12 10 87 
-0.0772828 -1.49774 3.16631 0 0 0 
-0.371036 -0.58388 3.21263 0 0 0 
-0.332019 -0.075327 3.44977 0 0 0 
-0.386539 0.0333718 2.86201 255 49 49 
-0.386349 0.476092 3.37916 0 0 0 
-0.400772 0.504733 2.81241 42 41 39 
-0.428448 0.851209 3.38921 0 0 0 
-0.476745 0.835597 3.30914 0 0 0 
-0.0751602 -1.63805 3.17655 0 0 0 
-0.0790416 -1.62708 3.1932 0 0 0 
-0.251024 -0.911896 3.18874 0 0 0 
-0.274194 -0.802211 2.98224 30 37 114 
-0.313739 -0.659038 2.90621 61 254 58 
-0.368982 -0.660345 3.21101 0 0 0 
-0.262496 -0.652253 3.37078 0 0 0 
-0.278628 -0.251379 2.76208 255 64 57 
-0.249666 -0.213892 3.51866 0 0 0 
-0.220901 -0.108762 2.73665 4 255 14 
-0.228433 -0.0772134 2.74126 10 9 7 
-0.00897227 -0.0206657 2.73213 28 255 38 
-0.336022 0.0747734 2.79035 255 38 37 
-0.338247 0.113671 2.79728 44 42 45 
-0.394386 0.114132 2.83061 3 1 2 
-0.259923 0.232742 2.74199 25 25 255 
-0.374937 0.494257 3.37294 0 0 0 
-0.430652 0.839015 3.37105 0 0 0 
-0.41856 0.96867 3.36709 0 0 0 
-0.395978 1.00603 3.39758 0 0 0 
0.0734604 -1.79349 3.20756 0 0 0 
-0.0397355 -1.60075 3.08162 0 0 0 
-0.0460943 -1.6044 3.19616 0 0 0 
-0.0616475 -1.49808 3.15373 0 0 0 
0.037331 -0.21962 2.71978 38 36 255 
-0.419989 0.922236 3.35535 0 0 0 
-0.357989 1.18178 2.68547 31 254 36 
0.0270883 -1.5188 3.11275 0 0 0 
-0.0207068 -1.78292 3.14145 0 0 0 
-0.00498684 -1.60875 3.08676 0 0 0 
-0.294927 -0.79057 3.31052 0 0 0 
-0.228557 -0.583113 3.38972 0 0 0 
-0.430266 0.851262 3.36467 0 0 0 
-0.31757 1.02342 3.46596 0 0 0 
-0.0275475 -1.6288 3.19207 0 0 0 
-0.0238758 -1.7303 3.14959 0 0 0 
-0.0538724 -1.76253 3.16124 0 0 0 
-0.0397513 -1.74894 3.1566 0 0 0 
-0.0779886 -1.6031 3.1714 0 0 0 
-0.0737323 -1.59214 3.18396 0 0 0 
-0.0273577 -1.52394 3.154 0 0 0 
-0.409494 -0.0201367 3.3909 0 0 0 
-0.0610337 -1.5987 3.20447 0 0 0 
0.112636 -0.184454 2.70417 51 49 50 
-0.302162 1.20195 2.69604 189 67 67 
-0.0177786 -1.7506 3.12832 0 0 0 
-0.0182871 -1.60517 3.13538 0 0 0 
-0.0375245 -1.60053 3.16878 0 0 0 
-0.0372574 -1.52039 3.16894 0 0 0 
-0.0496535 -1.50012 3.18805 0 0 0 
-0.292323 -0.231964 3.48987 0 0 0 
-0.27353 -0.180901 3.52057 0 0 0 
0.0876462 -0.185076 2.70417 255 63 62 
-0.0416158 -1.78736 3.16075 0 0 0 
-0.0254583 -1.77142 3.13018 0 0 0 
-0.429049 0.902349 3.36053 0 0 0 
-0.55174 1.12865 3.14667 4 4 4 
-0.287482 -0.82456 3.10936 0 0 0 
-0.374509 -0.615274 3.16758 0 0 0 
-0.0380405 -1.74642 3.15923 0 0 0 
-0.379412 0.115296 2.83598 3 1 2 
-0.294395 -0.745752 3.34463 0 0 0 
-0.421345 0.867251 3.37529 0 0 0 
-0.465568 0.869724 3.3037 0 0 0 
-0.467277 0.896179 3.30067 0 0 0 
-0.446705 0.954386 3.33122 0 0 0 
-0.414393 1.09114 3.37386 0 0 0 
-0.0254854 -1.73979 3.13809 0 0 0 
-0.187311 -0.876334 2.96485 0 0 0 
-0.143802 -0.707707 2.83088 51 254 60 
-0.284633 -0.664327 2.91417 65 61 60 
-0.438276 -0.0465865 3.32964 0 0 0 
-0.443528 0.181183 3.31367 0 0 0 
-0.480927 0.82767 3.31637 0 0 0 
-0.423861 0.95913 3.36853 0 0 0 
-0.469093 -0.250109 3.01003 89 86 254 
-0.0353522 -1.78875 3.12514 0 0 0 
-0.445621 -0.0714132 2.93206 254 43 42 
-0.0623655 -1.77981 3.15285 0 0 0 
-0.374992 -0.655934 3.20231 0 0 0 
-0.490824 -0.0748236 3.09392 0 0 0 
-0.489414 0.877659 3.2867 0 0 0 
-0.082501 -1.57297 3.1234 0 0 0 
-0.0391001 -1.74625 3.15882 0 0 0 
-0.0277689 -1.73447 3.15172 0 0 0 
-0.0376005 -1.75472 3.13999 0 0 0 
-0.0312135 -1.68849 3.14568 0 0 0 
-0.0173805 -1.69146 3.14138 0 0 0 
-0.0333666 -1.59839 3.11961 0 0 0 
-0.0238838 -1.74775 3.12228 0 0 0 
-0.0347381 -1.74024 3.15788 0 0 0 
-0.0267504 -1.73136 3.11814 0 0 0 
-0.0502517 -1.60009 3.20362 0 0 0 
-0.0306673 -1.518 3.15554 0 0 0 
-0.0539013 -1.62769 3.21279 0 0 0 
-0.0341875 -1.52525 3.14254 0 0 0 
-0.021437 -1.51749 3.10803 0 0 0 
-0.037735 -1.56531 3.15442 0 0 0 
-0.0289347 -1.56486 3.11763 0 0 0 
-0.0225818 -1.53528 3.12064 0 0 0 
0.00300462 -1.5308 3.15212 0 0 0 
-0.0293631 -1.72305 3.13689 0 0 0 
-0.0551864 -1.62592 3.06725 0 0 0 
-0.166598 -0.0747412 3.54725 0 0 0 
-0.0158162 -1.59049 3.15696 0 0 0 
-0.00467938 -1.56465 3.15367 0 0 0 
-0.278647 -0.810438 3.03755 1 1 2 
-0.195033 -0.792032 2.86381 254 36 34 
-0.437898 -0.349489 3.07693 64 62 254 
-0.445443 0.871855 3.33888 0 0 0 
-0.454777 0.871324 3.32391 0 0 0 
-0.444397 0.882535 3.34362 0 0 0 
-0.462546 0.893947 3.31036 0 0 0 
-0.443101 0.917056 3.34558 0 0 0 
-0.464003 0.908942 3.30458 0 0 0 
-0.443094 0.950207 3.33846 0 0 0 
-0.433577 0.966359 3.35176 0 0 0 
-0.452272 1.04003 3.31793 8 6 37 
-0.169023 -1.23928 3.14155 0 0 0 
-0.45776 -0.311541 3.01061 54 50 47 
-0.371729 0.0583657 3.40914 0 0 0 
-0.440793 0.830529 3.3708 0 0 0 
-0.440514 0.836183 3.37907 0 0 0 
-0.47367 0.867898 3.29347 0 0 0 
-0.451582 0.920555 3.32388 0 0 0 
-0.473503 0.938129 3.29143 0 0 0 
-0.454622 1.0677 3.31847 42 40 34 
-0.448182 1.09692 3.32178 46 222 64 
-0.542739 1.19825 2.9531 60 53 254 
-0.42201 -0.149768 3.36717 0 0 0 
-0.502521 1.22999 3.48079 0 0 0 
-0.587426 1.22546 3.00136 250 25 25 
-0.049588 -1.73906 3.1244 0 0 0 
-0.0420684 -1.6239 3.21195 0 0 0 
-0.27496 -0.799541 2.99326 253 62 58 
-0.380476 0.0929551 2.83797 255 40 39 
-0.421869 0.854588 3.391 0 0 0 
-0.446178 0.93755 3.32668 0 0 0 
-0.412987 0.972164 3.38579 0 0 0 
-0.456232 1.05927 3.30957 37 36 31 
-0.476537 0.919544 3.28961 0 0 0 
-0.417293 1.00406 3.3894 0 0 0 
-0.61375 1.22408 3.29501 68 63 255 
-0.507273 0.863071 3.30664 0 0 0 
-0.0371552 -1.79772 3.15498 0 0 0 
-0.024878 -1.7288 3.14816 0 0 0 
-0.0260951 -1.70004 3.14511 0 0 0 
-0.0317234 -1.67284 3.15409 0 0 0 
-0.0408743 -1.74594 3.17 0 0 0 
-0.0386446 -1.7719 3.17142 0 0 0 
-0.0532675 -1.7245 3.17988 0 0 0 
