ply                 
format ascii 1.0    
element vertex 931
property float x    
property float y    
property float z    
property uchar red  
property uchar green
property uchar blue 
end_header          
-0.124347 -0.679384 2.8331 0 0 0 
-0.212899 -0.664318 2.8566 254 56 55 
-0.0854539 -0.592925 2.80504 0 0 0 
-0.0131403 -0.579388 2.81706 86 85 81 
-0.0354688 -0.539889 2.80098 36 34 35 
-0.0228152 -0.484227 2.7889 35 33 34 
-0.328613 -0.391735 2.87 43 252 103 
0.0143383 -0.34882 2.75175 74 72 73 
-0.196003 -0.277886 2.72633 254 107 102 
0.0257956 -0.162488 2.69998 0 0 0 
-0.0347456 -0.0971244 2.69128 254 83 82 
0.0152542 -0.0853554 2.6971 57 254 58 
-0.184455 -0.0691879 2.71264 254 29 27 
-0.184949 -0.0594278 2.71052 18 16 17 
-0.271432 0.227483 2.74066 22 25 254 
-0.20987 0.233762 2.71184 149 86 89 
0.0498623 0.505239 2.73431 83 79 78 
-0.256594 0.644973 2.722 41 39 40 
0.18259 0.687281 2.78213 254 44 43 
0.149137 0.68745 2.76004 0 0 0 
-0.340168 0.770071 2.77856 254 28 27 
0.192807 0.857069 2.77468 0 0 0 
0.134093 1.00231 2.72782 58 57 55 
-0.0723058 -1.49711 3.09433 0 0 0 
-0.0816628 -1.4973 3.10252 0 0 0 
-0.149222 -1.10644 3.01101 0 0 0 
-0.253039 -0.660738 2.88115 72 250 60 
-0.142164 -0.616893 2.82075 0 0 0 
-0.0855808 -0.592066 2.80474 0 0 0 
-0.0130946 -0.578523 2.81635 0 0 0 
-0.0846675 -0.538821 2.78832 104 98 70 
-0.284506 -0.397996 2.85028 0 0 0 
-0.292879 -0.293174 2.794 31 28 254 
-0.196803 -0.278847 2.72141 40 24 25 
-0.0437841 -0.164064 2.69365 34 33 31 
0.0258839 -0.162133 2.69759 31 31 33 
-0.0202568 -0.144309 2.69013 3 1 2 
-0.0339877 -0.0971625 2.69606 255 26 24 
-0.403511 -0.0927183 2.86833 0 0 0 
0.156735 -0.0959905 2.74721 255 53 52 
0.0225583 -0.0858389 2.69561 55 254 54 
0.0133367 -0.084686 2.69768 57 53 54 
0.00183571 -0.0808723 2.69518 40 41 254 
-0.217088 -0.0653818 2.72161 37 37 254 
-0.185038 -0.0591093 2.71043 18 16 17 
-0.0849073 -0.0485739 2.70083 83 82 80 
-0.315999 0.0252437 2.77653 20 20 254 
-0.151985 0.0258266 2.71873 254 125 125 
-0.339543 0.296523 2.7866 0 0 0 
-0.132775 0.357098 2.70881 59 61 242 
-0.21691 0.361485 2.71111 23 25 27 
-0.256211 0.427225 2.72506 0 0 0 
-0.380327 0.507162 2.81905 35 33 34 
-0.240407 0.519928 2.71911 23 24 254 
0.0399234 0.558509 2.71431 0 0 0 
-0.315586 0.578699 2.75578 45 46 254 
0.148805 0.68784 2.75965 0 0 0 
-0.340521 0.768421 2.77399 0 0 0 
-0.340868 0.776837 2.77527 0 0 0 
0.193742 0.857489 2.77703 86 254 68 
0.193873 0.876699 2.77232 4 1 1 
-0.124422 0.878663 2.6759 254 49 48 
0.0518364 0.900653 2.68387 69 67 254 
0.192907 0.946389 2.76751 15 45 14 
0.194365 0.957507 2.76624 24 66 21 
0.134474 1.00236 2.7296 0 0 0 
0.156967 -0.0953643 2.74765 11 10 8 
-0.14929 -0.058363 2.72077 99 97 98 
-0.158029 0.0730663 2.71874 254 51 51 
-0.365057 0.0957066 2.81629 32 254 56 
-0.157239 0.357465 2.71344 65 63 64 
0.193689 0.877435 2.7748 62 254 65 
-0.0767908 -1.49926 3.09558 0 0 0 
-0.0320396 -0.783784 2.87422 0 0 0 
-0.152315 -0.661793 2.81821 36 254 35 
0.0141769 -0.189319 2.69495 0 0 0 
-0.276179 -0.131889 2.75404 0 0 0 
-0.153892 -0.0846993 2.71217 19 19 254 
0.0255693 -0.0834419 2.69502 85 86 254 
0.0773272 -0.0794862 2.7144 1 1 1 
-0.150922 0.0250435 2.71897 0 0 0 
-0.151296 0.0977164 2.71653 17 18 254 
-0.193815 0.110243 2.70847 255 36 35 
-0.142601 0.731427 2.70577 42 37 255 
-0.112905 0.790993 2.6996 254 37 36 
0.00125815 -0.62831 2.83438 0 0 0 
-0.0822701 -0.0345007 2.711 73 254 63 
0.0889226 -0.0314698 2.73765 59 62 255 
0.0276074 -0.201371 2.69442 0 0 0 
-0.0982453 -0.0837176 2.69506 254 77 72 
0.00850868 -0.0744498 2.6951 40 38 39 
-0.124279 -0.679699 2.84065 0 0 0 
-0.11868 -0.665483 2.82327 0 0 0 
0.134141 -0.669894 2.88807 254 85 81 
-0.125957 -0.621928 2.81486 0 0 0 
-0.143209 -0.616936 2.82675 0 0 0 
0.0190252 0.583786 2.70806 254 39 38 
0.24287 0.648595 2.84244 254 86 82 
0.218346 0.659554 2.81739 254 55 54 
0.249131 0.666069 2.84886 254 92 88 
0.260919 0.676895 2.86475 70 69 254 
0.201313 0.667914 2.79864 41 39 33 
0.223406 0.672215 2.82215 60 59 55 
0.215271 0.677461 2.81112 28 27 23 
0.249244 0.68955 2.8524 94 91 254 
0.20074 0.687696 2.79709 71 254 80 
0.154243 0.689892 2.76124 71 254 71 
0.196266 0.703371 2.79304 7 3 68 
0.176141 0.704626 2.77853 0 0 0 
0.230658 0.718422 2.82799 89 85 254 
0.207478 0.71829 2.80367 48 249 48 
0.198276 0.718715 2.79582 140 47 47 
0.168354 0.717772 2.77204 0 0 0 
0.292286 0.836689 2.89915 69 66 59 
0.294779 0.847725 2.90155 99 254 72 
0.269808 0.859966 2.86172 255 68 67 
0.23494 0.859407 2.81319 90 86 87 
0.264723 0.872805 2.84097 86 83 254 
0.248984 0.870422 2.82332 254 69 68 
0.266931 0.883392 2.83911 88 84 81 
0.183502 0.866776 2.76411 0 0 0 
0.200781 0.870574 2.7764 4 12 4 
0.15726 0.867391 2.74658 72 70 254 
0.243122 0.881962 2.81181 85 254 84 
0.23075 0.884245 2.79931 59 253 65 
0.202186 0.881158 2.77458 6 5 13 
0.178669 0.878733 2.75796 0 0 0 
0.168641 0.879456 2.74936 0 0 0 
0.269814 0.928363 2.83847 87 86 82 
0.237355 0.921058 2.80419 98 96 254 
0.239169 0.931521 2.80573 73 72 68 
0.272375 0.944769 2.84376 255 68 69 
0.277073 0.950815 2.85144 68 67 62 
0.228315 0.947621 2.79538 76 74 255 
0.205502 0.944727 2.77547 135 39 37 
0.267974 0.965747 2.84302 73 255 68 
0.193546 0.946077 2.76699 52 17 17 
0.291451 0.976817 2.87288 64 255 65 
0.24477 0.963185 2.81329 66 64 255 
0.226855 0.958754 2.79382 254 89 88 
0.194373 0.957859 2.76634 21 68 19 
0.217037 0.964877 2.78718 56 57 249 
0.172173 0.971133 2.75174 80 254 88 
0.205434 1.22271 2.68413 80 20 18 
-0.0629008 -1.78199 3.14645 0 0 0 
-0.0701562 -1.76944 3.1433 0 0 0 
-0.0656416 -1.55828 3.08041 0 0 0 
0.0283954 -1.10907 2.99222 0 0 0 
0.240069 -0.73936 3.00015 64 63 61 
0.315839 -0.678229 3.13664 47 43 42 
0.320518 -0.645311 3.15469 36 36 36 
-0.285828 -0.397845 2.85954 0 0 0 
-0.315326 -0.330186 2.83993 0 0 0 
0.210563 -0.30309 2.8051 255 59 60 
0.258427 -0.280686 2.86502 64 62 255 
-0.289768 -0.247132 2.77412 0 0 0 
-0.296594 -0.24218 2.77057 0 0 0 
0.255346 -0.250158 2.82862 255 73 72 
0.363106 -0.0388858 3.10007 51 50 48 
0.350852 -0.0183218 3.1004 69 67 255 
-0.309391 0.0179795 2.77031 40 42 254 
-0.155967 0.0884149 2.71198 1 1 0 
-0.0796225 0.233559 2.71057 77 78 254 
-0.130146 0.365649 2.71703 57 57 255 
-0.010396 0.414124 2.72174 0 0 0 
0.135081 0.431365 2.75526 46 43 254 
0.192019 0.617897 2.7933 66 65 61 
0.210164 0.64223 2.80768 68 65 60 
0.189279 0.69712 2.78917 0 0 0 
0.207477 0.860402 2.78627 29 89 28 
0.230349 0.864906 2.80674 81 77 74 
0.209603 0.869252 2.78383 30 27 23 
0.165878 0.86773 2.75299 0 0 0 
0.247737 0.891097 2.81818 94 89 254 
0.224522 0.88965 2.79478 87 83 80 
0.208133 0.917703 2.77623 35 34 77 
0.245219 0.946701 2.8147 78 255 80 
0.246199 0.974046 2.81394 254 41 40 
0.171612 0.960206 2.75044 10 3 3 
0.134259 1.00207 2.72633 254 76 76 
0.16638 1.20681 2.64916 254 40 39 
0.145011 -0.188984 2.74384 0 0 0 
0.164118 -0.0438583 2.76191 255 39 38 
-0.335514 0.0764497 2.79192 22 255 33 
0.201423 0.952503 2.77025 58 60 55 
0.216196 1.22164 2.67759 25 21 18 
0.16471 1.21669 2.64978 28 26 254 
-0.0480305 -1.67961 3.1251 0 0 0 
-0.0701421 -1.59312 3.08131 0 0 0 
-0.00131298 -1.57831 3.1057 0 0 0 
-0.0973174 -1.49909 3.1303 0 0 0 
-0.108468 -0.664979 2.82588 0 0 0 
-0.151657 -0.661301 2.81762 36 254 35 
-0.240118 -0.111623 2.73133 44 43 39 
-0.0612142 -0.0804159 2.69995 64 254 68 
0.109345 -0.080104 2.71997 87 88 255 
0.15589 -0.0775782 2.74568 33 255 43 
0.170402 -0.0724852 2.74986 48 46 255 
0.276509 0.843521 2.88059 254 87 84 
0.19076 0.900602 2.75936 59 54 254 
-0.312614 1.20641 2.72413 0 0 0 
-0.0325477 -1.74557 3.15446 0 0 0 
-0.163177 0.112802 2.71392 1 0 0 
-0.0600737 -1.6989 3.1439 0 0 0 
-0.0379921 -1.57643 3.09331 0 0 0 
-0.0941587 -1.48079 3.08917 0 0 0 
0.00600776 -1.48157 3.12206 0 0 0 
0.158946 -0.801097 2.96384 254 58 57 
-0.0970681 -0.083327 2.68342 254 77 72 
-0.0784785 -0.0745705 2.69629 67 66 64 
-0.0762767 -1.71047 3.08757 0 0 0 
-0.0623061 -1.58217 3.07235 0 0 0 
-0.106701 -1.60352 3.12683 0 0 0 
-0.122718 1.13735 2.64879 254 64 63 
-0.249074 -0.0790763 2.73845 255 20 20 
-0.0291173 -1.73095 3.13356 0 0 0 
-0.047371 -1.72082 3.15118 0 0 0 
-0.0930704 -1.49926 3.13046 0 0 0 
-0.0451948 -1.66507 3.14256 0 0 0 
0.20674 0.705779 2.80436 33 247 35 
0.191329 0.869673 2.76929 1 1 1 
0.27051 0.900065 2.84127 254 89 85 
0.180907 0.905247 2.75594 0 0 0 
0.211234 0.930373 2.77982 39 173 42 
0.139864 1.00031 2.73325 48 51 254 
0.165413 1.21219 2.66248 76 18 19 
0.224844 1.21712 2.6955 35 36 32 
-0.0477946 -1.69535 3.13923 0 0 0 
0.36157 -0.0394509 3.20894 53 50 255 
0.172867 0.873671 2.75576 0 0 0 
0.23591 0.87825 2.80873 81 82 77 
0.216008 0.896271 2.78389 51 137 54 
0.262323 0.941056 2.83095 73 254 83 
0.221371 0.953582 2.79337 73 254 66 
0.214608 0.711339 2.80985 254 66 65 
0.214781 0.717473 2.83537 67 60 254 
0.283384 0.859834 2.87 53 254 45 
0.242407 0.864639 2.81638 254 99 98 
0.277439 0.905312 2.84748 71 66 254 
0.258307 0.858933 2.83956 54 42 254 
0.192533 0.970563 2.76692 28 26 87 
0.164599 1.22138 2.66236 5 4 19 
-0.0674732 -1.74033 3.13543 0 0 0 
-0.0569295 -1.71226 3.13644 0 0 0 
-0.0963306 -1.48853 3.10383 0 0 0 
-0.0603573 -1.66455 3.13483 0 0 0 
-0.0325067 -1.51901 3.13958 0 0 0 
0.202617 0.984727 2.77441 66 61 59 
0.170302 0.892061 2.75058 0 0 0 
-0.0602987 -1.71592 3.14303 0 0 0 
0.374738 -0.225618 3.16997 47 47 255 
0.134253 -0.438997 2.809 68 75 111 
0.0203754 -0.162759 2.70628 0 0 0 
-0.0135864 0.358407 2.72834 0 0 0 
0.330507 0.368893 2.99401 36 254 63 
-0.0136536 0.40034 2.72776 0 0 0 
-0.0145155 0.415711 2.72805 0 0 0 
0.245309 0.663238 2.84507 82 254 94 
0.294373 0.670205 2.91569 63 60 55 
0.299408 0.671827 2.92648 66 63 58 
0.285628 0.669087 2.89953 82 254 85 
0.268155 0.668605 2.87379 64 63 59 
0.281229 0.679074 2.89343 254 76 73 
0.30322 0.685867 2.93072 71 67 254 
0.201162 0.67518 2.79734 76 70 72 
0.244849 0.684386 2.84492 78 75 254 
0.18182 0.688117 2.78296 254 44 43 
0.227568 0.714672 2.82408 60 59 55 
0.319521 0.843829 2.95889 37 34 29 
0.287006 0.835333 2.8939 74 254 76 
0.302974 0.841701 2.91614 254 65 62 
0.299038 0.843866 2.90647 44 40 254 
0.283182 0.841767 2.88135 72 71 66 
0.319019 0.852509 2.9447 254 49 45 
0.3157 0.856168 2.92286 72 254 81 
0.32199 0.86248 2.94554 63 254 63 
0.293439 0.860278 2.88716 70 254 73 
0.333878 0.873407 2.9585 42 254 55 
0.192087 0.857162 2.77365 254 65 64 
0.305717 0.869741 2.90183 59 54 48 
0.317252 0.871822 2.91748 50 254 53 
0.257284 0.86672 2.83294 254 55 54 
0.285254 0.870489 2.86723 254 72 68 
0.328548 0.883314 2.94626 36 30 30 
0.247531 0.871584 2.82587 70 69 67 
0.238313 0.869812 2.80996 254 85 85 
0.178144 0.869615 2.76039 0 0 0 
0.320563 0.885658 2.92003 28 254 49 
0.30798 0.885842 2.89625 47 43 34 
0.337362 0.897383 2.95184 40 31 254 
0.285058 0.885171 2.86152 254 80 77 
0.166381 0.880633 2.75134 68 66 67 
0.253262 0.885399 2.8229 75 74 70 
0.330009 0.899593 2.9336 30 254 42 
0.315794 0.898797 2.90631 59 55 46 
0.299611 0.898631 2.88043 54 254 61 
0.316618 0.909896 2.90453 254 57 53 
0.345008 0.923347 2.97218 43 254 73 
0.301487 0.909583 2.88028 254 71 67 
0.333492 0.92161 2.94208 47 254 51 
0.305631 0.915774 2.88837 47 44 35 
0.323164 0.920537 2.91569 254 42 37 
0.240405 0.907204 2.80467 254 68 67 
0.340716 0.933239 2.95861 48 43 39 
0.321028 0.932318 2.91242 254 52 47 
0.326017 0.934692 2.92477 52 47 43 
0.305779 0.930578 2.88737 254 58 55 
0.281551 0.927862 2.85306 80 254 86 
0.267425 0.934376 2.83625 85 84 254 
0.325873 0.949205 2.92466 40 35 29 
0.318337 0.951166 2.90959 254 53 48 
0.310144 0.949187 2.89354 69 64 254 
0.243559 0.941 2.80831 254 80 79 
0.186822 0.944383 2.76102 23 7 7 
0.268641 0.947849 2.83609 75 254 84 
0.278256 0.949639 2.85048 80 254 89 
0.256068 0.94879 2.82343 82 79 254 
0.343136 0.976059 2.97561 50 39 254 
0.318446 0.963258 2.90959 254 81 78 
0.306682 0.962601 2.88838 47 44 39 
0.311893 0.965924 2.89974 44 41 36 
0.282961 0.962323 2.85428 77 74 69 
0.292717 0.964996 2.86968 41 36 254 
0.255533 0.960578 2.82279 79 78 254 
0.30359 0.978195 2.88807 41 254 52 
0.267779 0.973732 2.83628 85 82 254 
0.284954 0.976527 2.86011 70 67 254 
0.303683 0.988475 2.88705 68 65 254 
0.285473 0.987232 2.85976 48 41 254 
0.200938 0.985682 2.77681 41 254 51 
0.244179 0.986214 2.81105 254 67 66 
0.231192 1.0384 2.79246 54 52 254 
0.152408 -0.476171 2.81726 40 198 40 
-0.00728954 -0.0860122 2.70224 0 0 0 
-0.160246 0.0266752 2.7298 0 0 0 
0.296977 0.661117 2.92205 254 93 90 
0.281221 0.658747 2.89446 74 73 68 
0.198176 0.698245 2.79904 41 149 41 
0.185663 0.704107 2.78562 254 58 54 
0.23338 0.712626 2.8334 254 57 53 
0.201745 0.712087 2.79998 72 71 68 
0.306247 0.857747 2.91817 254 84 83 
0.296696 0.857153 2.8958 69 68 64 
0.341989 0.875654 2.99168 50 254 54 
0.317707 0.868482 2.93378 91 92 87 
0.269743 0.858582 2.85655 80 77 70 
0.243664 0.859623 2.82265 46 42 41 
0.202501 0.864919 2.78162 23 8 8 
0.312396 0.878997 2.91289 66 254 73 
0.3172 0.89249 2.91439 254 60 56 
0.187707 0.880384 2.76451 74 254 65 
0.326318 0.906002 2.9273 254 47 43 
0.198178 0.89168 2.76977 59 254 65 
0.179088 0.894789 2.75753 0 0 0 
0.267951 0.902878 2.83474 79 78 74 
0.323437 0.941554 2.9175 77 72 254 
0.199363 0.940099 2.7729 61 60 58 
0.250125 0.942209 2.81798 74 254 78 
0.341121 0.963815 2.95991 53 49 254 
0.18813 0.952919 2.76402 70 65 254 
0.31138 0.975224 2.89793 27 254 38 
0.323885 0.988376 2.92368 49 254 55 
0.189673 -0.340055 2.79848 67 254 65 
0.291665 0.688162 2.90849 62 57 254 
0.16963 0.710482 2.77343 0 0 0 
0.2604 0.878483 2.83495 45 44 40 
0.301474 0.891686 2.89209 73 68 254 
0.351067 0.950831 2.99675 43 254 48 
0.210772 0.93798 2.7798 64 254 59 
0.312667 0.983974 2.892 71 254 76 
0.00929738 -0.189416 2.70042 0 0 0 
0.00182533 -0.0790162 2.70443 0 0 0 
-0.00493413 -0.033587 2.72656 0 0 0 
-0.171752 0.114412 2.72168 0 0 0 
0.25724 0.859509 2.84104 69 65 254 
0.16242 0.867133 2.75035 0 0 0 
0.323285 0.883815 2.93701 37 29 254 
0.315036 0.844297 2.94882 51 48 254 
0.224669 0.933127 2.7979 83 82 78 
0.360892 -0.0409571 3.25302 12 8 5 
0.182087 0.959977 2.75875 45 44 42 
0.309222 0.906177 2.9018 254 42 37 
0.379735 -0.0427938 3.22677 12 8 5 
-0.145938 0.636536 2.7123 0 0 0 
-0.0772336 -1.51848 3.11486 0 0 0 
-0.0321198 -1.68421 3.14635 0 0 0 
0.229842 0.706553 2.82886 78 75 254 
0.302324 0.861457 2.90292 254 77 74 
0.331948 0.862171 2.96273 72 68 65 
0.330191 0.875168 2.94912 54 47 39 
0.338699 0.893061 2.95662 25 254 42 
0.272026 0.924947 2.8421 88 84 254 
0.345282 0.93272 2.9719 41 254 52 
0.303087 0.950333 2.88479 254 54 51 
0.290073 0.969685 2.86467 60 57 52 
0.309045 0.969946 2.89517 254 50 47 
0.232749 1.23624 2.69704 22 19 132 
0.275273 0.670093 2.90537 254 83 80 
0.334191 0.873295 2.9594 254 51 46 
0.339418 0.887651 2.97239 44 35 28 
0.258352 0.890744 2.82757 79 254 91 
0.324821 0.890828 2.92503 43 39 30 
0.312827 0.89167 2.90112 37 254 53 
0.306951 0.928155 2.88876 48 45 254 
0.333839 0.933125 2.94197 254 35 30 
0.321675 0.943224 2.92098 254 58 53 
0.348772 0.953449 3.00461 254 45 40 
0.206129 0.971114 2.77868 54 217 95 
0.313393 0.958072 2.90483 45 41 254 
0.248613 0.968659 2.81783 79 77 254 
0.211841 0.712687 2.81135 254 66 65 
0.275885 0.841059 2.86863 66 254 56 
0.237402 0.889369 2.80255 91 87 84 
0.305753 0.90425 2.88737 254 62 55 
0.327591 0.930772 2.93453 40 254 49 
0.316198 0.922285 2.90526 254 58 53 
0.33651 0.925348 2.96252 40 254 51 
0.252673 0.938456 2.82106 75 254 81 
0.274656 0.93921 2.8443 75 71 68 
0.310318 0.985869 2.89558 57 53 50 
-0.0650272 -1.69902 3.15041 0 0 0 
0.165395 0.687242 2.7727 0 0 0 
0.323537 0.681241 2.98653 69 254 83 
0.199047 0.849223 2.7844 8 6 16 
0.309333 0.852958 2.92318 58 58 50 
0.317588 0.871719 2.92296 254 37 32 
0.317994 0.907196 2.91015 47 42 36 
0.207676 0.932008 2.78223 39 173 42 
0.325824 0.919935 2.92242 43 254 52 
0.31128 0.921058 2.8953 49 44 38 
0.353949 0.933878 3.00686 86 76 74 
0.32302 0.982965 2.91881 56 51 254 
0.248245 -0.239793 2.8318 253 50 50 
0.263671 -0.23745 2.85233 74 72 73 
0.268063 0.681179 2.87833 71 72 67 
0.286444 0.681257 2.90341 68 254 89 
0.307015 0.866999 2.9089 64 254 59 
0.345219 0.898873 2.97357 48 44 35 
0.3333 0.905365 2.9386 55 51 42 
0.353193 0.943667 3.0008 56 254 70 
0.341477 0.952182 2.96065 36 254 47 
0.295335 0.970725 2.87448 254 52 49 
0.247103 0.981917 2.8173 76 72 71 
0.34554 0.998288 2.97327 254 47 44 
0.35399 1.08416 3.2559 23 18 254 
0.245301 -0.337779 2.91668 72 69 254 
0.288973 0.688839 2.91028 62 57 254 
0.337144 0.957521 2.95312 25 254 36 
0.260584 0.971045 2.83139 85 254 106 
0.288625 0.984262 2.86765 51 254 66 
-0.0593195 -1.69014 3.16246 0 0 0 
0.293877 0.832448 2.90419 49 42 254 
0.32831 0.881445 2.93362 37 29 254 
0.172117 0.958344 2.78865 34 123 38 
-0.0550538 -1.77931 3.15579 0 0 0 
-0.0486372 -1.73978 3.14378 0 0 0 
0.165639 1.20584 2.67356 32 9 9 
-0.0475489 -1.78366 3.14829 0 0 0 
-0.0344622 -1.77921 3.15129 0 0 0 
0.468038 -0.0295524 3.25741 31 27 24 
-0.0408393 -1.72039 3.1472 0 0 0 
-0.0241633 -1.73561 3.15089 0 0 0 
-0.0511932 -1.78647 3.14361 0 0 0 
-0.0566311 -1.7754 3.14725 0 0 0 
-0.0631954 -1.76748 3.14774 0 0 0 
-0.0632953 -1.7417 3.14636 0 0 0 
-0.072114 -1.7461 3.14753 0 0 0 
-0.0572903 -1.80875 3.14139 0 0 0 
-0.0657116 -1.70226 3.13966 0 0 0 
-0.0537614 -1.70151 3.13695 0 0 0 
-0.0689866 -1.7931 3.14147 0 0 0 
-0.0435682 -1.77139 3.13799 0 0 0 
-0.0550587 -1.7597 3.13932 0 0 0 
-0.0603982 -1.66973 3.14474 0 0 0 
-0.104136 -1.50781 3.15355 0 0 0 
-0.14255 0.890091 2.68106 23 254 30 
-0.0703155 -1.67931 3.14864 0 0 0 
-0.099042 -1.65932 3.16016 0 0 0 
-0.0892805 -1.59292 3.14333 0 0 0 
-0.239375 -0.669121 2.87462 65 64 60 
-0.0817481 -1.51925 3.15378 0 0 0 
-0.292479 -0.0924437 2.76075 254 22 21 
-0.3214 0.0121668 2.77821 254 44 44 
-0.0771639 -1.60757 3.15394 0 0 0 
-0.0771096 -1.68498 3.15502 0 0 0 
-0.0780554 -1.74761 3.15983 0 0 0 
-0.151823 -1.06198 2.99456 0 0 0 
-0.194937 -1.01064 3.01283 0 0 0 
-0.184006 -0.987916 2.99389 0 0 0 
-0.142617 -0.975884 2.96112 0 0 0 
-0.146225 -0.900481 2.93235 0 0 0 
-0.167281 -0.878489 2.93777 0 0 0 
-0.128275 -0.611182 2.81376 44 42 254 
-0.266671 -0.441799 2.84713 48 46 254 
-0.310452 -0.31927 2.81976 79 75 72 
-0.166978 -1.06486 3.01523 0 0 0 
-0.185306 -1.05436 3.02466 0 0 0 
-0.111394 -1.0294 2.95751 0 0 0 
-0.185214 -1.00563 3.00248 0 0 0 
-0.213229 -0.929751 2.99071 0 0 0 
-0.202591 -0.892731 2.97069 0 0 0 
-0.137291 -0.896668 2.92295 0 0 0 
-0.245711 -0.870857 2.99094 0 0 0 
-0.228153 -0.872692 2.97765 0 0 0 
-0.242832 -0.849007 2.97836 0 0 0 
-0.451395 -0.0442007 3.29385 0 0 0 
-0.387155 0.00317688 2.83932 34 34 34 
-0.392267 0.261221 2.83852 254 33 31 
-0.239198 -0.894325 2.99602 0 0 0 
-0.155278 -0.6606 2.81458 254 55 51 
-0.155041 -0.884573 2.92925 0 0 0 
-0.386248 0.115888 2.8481 52 53 254 
-0.0607719 -1.80837 3.14523 0 0 0 
-0.0546262 -1.75373 3.13924 0 0 0 
-0.0674186 -1.66527 3.13509 0 0 0 
-0.247414 -0.91238 2.99828 0 0 0 
-0.174673 -0.889232 2.94335 0 0 0 
-0.238664 -0.880959 2.98377 0 0 0 
-0.260902 -0.830549 2.97334 0 0 0 
-0.290092 -0.82037 3.04951 0 0 0 
-0.321131 -0.797244 3.13133 0 0 0 
0.175591 -0.743595 2.91359 254 46 42 
0.16596 -0.703952 2.89771 32 255 35 
-0.331174 -0.639201 2.96869 0 0 0 
-0.357538 -0.610535 3.04375 0 0 0 
-0.352569 -0.560283 2.9711 0 0 0 
-0.392426 -0.534507 3.10676 0 0 0 
-0.399987 -0.438268 3.01417 0 0 0 
-0.443873 -0.356642 3.11138 0 0 0 
-0.367703 -0.324474 2.85745 41 39 42 
-0.485056 -0.240374 3.03168 0 0 0 
0.0169208 -0.0830406 2.70427 57 53 54 
-0.448413 0.525954 3.032 0 0 0 
-0.477958 1.15367 2.90531 4 22 4 
0.0356374 -1.15486 3.00268 0 0 0 
-0.270565 -0.80661 2.96978 0 0 0 
-0.312706 -0.79983 3.12458 0 0 0 
-0.323894 -0.778265 3.30881 0 0 0 
-0.329669 -0.754772 3.18697 0 0 0 
0.190382 -0.787409 2.93739 84 81 254 
-0.299956 -0.704051 2.91654 0 0 0 
-0.375536 -0.643675 3.15915 0 0 0 
-0.156581 -0.607402 2.81749 254 37 36 
-0.246959 -0.589861 2.87721 254 51 50 
-0.370691 -0.579392 3.06036 0 0 0 
-0.401776 -0.531158 3.13847 0 0 0 
-0.40012 -0.523373 3.13233 0 0 0 
-0.385798 -0.444595 2.95334 0 0 0 
-0.412754 -0.435141 3.06348 0 0 0 
0.150433 -0.466873 2.82779 52 255 57 
-0.363856 -0.334243 2.86084 76 79 254 
-0.447936 -0.30913 3.00029 0 0 0 
-0.479128 -0.266541 3.04122 0 0 0 
-0.474839 -0.26107 3.02567 0 0 0 
-0.476669 -0.237193 2.99736 0 0 0 
-0.162463 -0.0848402 2.70448 19 19 254 
-0.467029 -0.0472813 3.15733 0 0 0 
-0.391421 -0.0257563 3.35986 0 0 0 
0.232658 -0.0424805 2.86079 255 66 62 
-0.394069 -0.0181819 2.83997 254 54 52 
-0.389084 -0.00309778 2.86001 50 50 254 
-0.387466 0.00299536 2.86888 20 20 254 
-0.39013 0.0592256 2.85816 46 44 45 
-0.392594 0.109735 2.85568 62 254 59 
0.0293175 0.191988 2.7256 254 54 50 
-0.393141 0.256761 2.85176 53 51 52 
-0.50477 1.18999 2.97336 0 0 0 
-0.0712363 -1.78999 3.14057 0 0 0 
-0.240901 -0.90783 2.98962 0 0 0 
-0.296167 -0.661867 2.9186 0 0 0 
-0.347162 -0.53132 2.93727 0 0 0 
-0.0224482 -0.189484 2.69335 57 56 54 
-0.490879 -0.146567 3.08398 0 0 0 
-0.390993 0.0115646 2.85745 41 47 254 
-0.053072 -1.75444 3.12284 0 0 0 
-0.0184798 -1.64419 3.07519 0 0 0 
-0.0894641 -1.58117 3.0843 0 0 0 
-0.0527187 -1.60513 3.11321 0 0 0 
-0.317242 -0.667476 2.95706 0 0 0 
-0.124838 -0.666754 2.8387 37 33 32 
-0.151748 -0.637051 2.81817 254 42 40 
-0.383435 -0.609505 3.15883 0 0 0 
-0.493548 -0.126115 3.07313 0 0 0 
-0.401425 -0.0810706 2.85905 51 254 58 
-0.44726 -0.0740973 2.92953 0 0 0 
-0.162207 -0.0799596 2.71925 254 13 13 
-0.438113 -0.0454316 2.93192 0 0 0 
-0.0625197 -1.79659 3.11444 0 0 0 
-0.275926 -0.802948 2.99114 0 0 0 
-0.151143 -0.0810611 2.70842 25 254 30 
-0.38131 0.116355 2.85305 52 53 254 
-0.050363 -1.78591 3.1261 0 0 0 
-0.28261 -0.723312 2.94079 0 0 0 
0.265751 -0.0772812 2.90774 53 52 50 
-0.414298 -0.217356 3.36067 0 0 0 
0.661309 -0.0833829 3.13146 73 255 81 
-0.0622658 -1.74078 3.14598 0 0 0 
-0.0630475 -1.76712 3.14777 0 0 0 
-0.0297135 -1.54651 3.13388 0 0 0 
-0.0774559 -1.79543 3.14175 0 0 0 
0.352764 -0.0743743 2.91975 76 255 62 
-0.12159 -1.63433 3.17114 0 0 0 
-0.040902 -1.5253 3.13606 0 0 0 
-0.0770636 -1.60361 3.14507 0 0 0 
-0.0505313 -1.77537 3.15103 0 0 0 
-0.44497 -0.0675118 2.93108 0 0 0 
-0.311977 1.19092 2.68442 67 252 70 
-0.205773 -1.09785 3.05142 0 0 0 
-0.437477 -0.387646 3.11701 0 0 0 
-0.0628602 -1.76624 3.14543 0 0 0 
-0.325373 -0.687323 3.00942 0 0 0 
-0.334863 -0.61208 2.95195 0 0 0 
-0.409416 -0.517763 3.13352 0 0 0 
-0.381874 -0.509183 3.0215 0 0 0 
-0.494712 -0.136249 3.08324 0 0 0 
-0.0700153 -1.7528 3.15457 0 0 0 
-0.0571601 -1.7808 3.11915 0 0 0 
-0.179049 -0.896917 2.95081 0 0 0 
-0.302233 -0.811733 3.08467 0 0 0 
-0.394164 -0.363994 2.89712 68 254 69 
-0.475047 1.15196 2.92112 61 252 69 
-0.110143 -1.63207 3.18773 0 0 0 
-0.208359 -1.11017 3.0736 0 0 0 
-0.446117 -0.30919 3.00399 0 0 0 
-0.292006 -0.249562 2.75829 70 254 84 
-0.352397 -0.62138 3.06219 0 0 0 
-0.039089 -1.75647 3.12473 0 0 0 
-0.05458 -1.56487 3.13588 0 0 0 
-0.0722854 -1.77294 3.14945 0 0 0 
-0.0619829 -1.66717 3.14193 0 0 0 
-0.0591276 -1.78961 3.1439 0 0 0 
-0.0864644 -1.76711 3.15087 0 0 0 
-0.0743958 -1.67761 3.1462 0 0 0 
-0.060196 -1.69904 3.14302 0 0 0 
-0.0592154 -1.78643 3.13158 0 0 0 
-0.06118 -1.73987 3.14529 0 0 0 
-0.117189 -1.5899 3.17542 0 0 0 
-0.0706975 -1.77277 3.15033 0 0 0 
-0.0883318 -1.50837 3.16442 0 0 0 
-0.102029 -1.60285 3.17622 0 0 0 
-0.30726 -0.848588 3.30028 0 0 0 
-0.305855 -0.855534 3.30699 0 0 0 
-0.0601693 -1.6672 3.12905 0 0 0 
-0.387608 -0.573405 3.10577 0 0 0 
-0.3809 -0.335537 2.86556 65 71 192 
-0.351854 0.112545 2.79825 60 58 59 
-0.0532317 -1.70071 3.13441 0 0 0 
-0.337433 -0.0749526 3.41969 0 0 0 
-0.0699791 -1.76558 3.14016 0 0 0 
-0.104221 -1.5375 3.11263 0 0 0 
-0.102798 -1.50186 3.11233 0 0 0 
-0.154896 -1.06214 2.99247 0 0 0 
-0.254751 -0.906083 2.99952 0 0 0 
-0.475764 1.15194 2.92169 61 252 69 
-0.443433 -0.361597 3.12328 0 0 0 
-0.482304 -0.266361 3.03992 0 0 0 
-0.0653249 -1.79625 3.11824 0 0 0 
-0.0669963 -1.64034 3.07014 0 0 0 
-0.0965486 -1.58956 3.12884 0 0 0 
-0.1079 -1.54966 3.11353 0 0 0 
-0.107054 -1.50645 3.12513 0 0 0 
-0.0978889 -1.73028 3.13786 0 0 0 
-0.0284951 -1.60433 3.08104 0 0 0 
-0.115161 -1.56377 3.11975 0 0 0 
-0.0151481 -1.61162 3.07688 0 0 0 
-0.0972957 -1.50506 3.12395 0 0 0 
-0.117782 -1.49694 3.14435 0 0 0 
-0.124109 -1.49081 3.14939 0 0 0 
-0.150227 -1.10698 3.00882 0 0 0 
-0.296525 -0.899508 3.14793 0 0 0 
-0.169324 -0.898572 2.95451 64 46 47 
-0.26654 -0.808117 2.97207 53 203 51 
-0.231379 -0.667236 2.8736 39 254 38 
-0.423722 -0.344674 2.9986 30 254 47 
-0.268179 -0.192258 3.51077 0 0 0 
-0.480184 0.0132572 3.1242 0 0 0 
-0.398803 0.86857 3.38478 0 0 0 
-0.417751 0.87358 3.35332 0 0 0 
-0.41192 0.881814 3.37579 0 0 0 
-0.421936 0.882844 3.35733 0 0 0 
-0.444933 0.880988 3.32367 0 0 0 
-0.410393 0.896617 3.37727 0 0 0 
-0.426688 0.890539 3.34684 0 0 0 
-0.434461 0.892404 3.33309 0 0 0 
-0.420849 0.902512 3.3516 0 0 0 
-0.406402 0.91156 3.37276 0 0 0 
-0.424819 0.908858 3.35612 0 0 0 
-0.47351 0.903583 3.28887 0 0 0 
-0.446341 0.916616 3.31244 0 0 0 
-0.411247 0.956803 3.37237 0 0 0 
-0.412878 0.985416 3.39837 0 0 0 
-0.38956 1.09091 3.38391 0 0 0 
-0.0494629 -1.77278 3.13702 0 0 0 
-0.102169 -1.5024 3.16191 0 0 0 
-0.080181 -1.48909 3.194 0 0 0 
-0.187627 -1.24226 3.13601 0 0 0 
-0.216609 -1.08777 3.05991 0 0 0 
-0.152514 -1.06156 2.99357 0 0 0 
-0.203286 -0.996643 3.00521 0 0 0 
-0.21288 -0.821765 2.94764 61 57 254 
-0.301003 -0.748485 3.34663 0 0 0 
-0.285115 -0.706564 3.37052 0 0 0 
-0.295408 -0.63859 2.93096 1 0 254 
-0.376589 -0.628057 3.12494 0 0 0 
-0.345096 -0.557044 2.95953 64 254 63 
-0.403428 -0.552005 3.18417 0 0 0 
-0.384072 -0.546025 3.06485 0 0 0 
-0.361092 -0.528421 2.92833 67 254 64 
-0.41131 -0.518109 3.13413 0 0 0 
-0.39699 -0.336734 2.9023 33 34 254 
-0.497507 -0.136284 3.08288 112 34 34 
-0.151356 -0.0796961 2.7142 255 17 16 
-0.155293 -0.078502 2.72322 255 15 14 
-0.302454 0.00279693 3.4558 0 0 0 
-0.253115 0.0135324 2.75181 255 47 47 
-0.405596 0.0359935 2.85438 49 255 46 
-0.223615 0.0934915 2.737 28 255 29 
-0.50131 0.834621 3.28971 0 0 0 
-0.451745 0.879915 3.30941 0 0 0 
-0.442222 0.902074 3.31982 0 0 0 
-0.478177 0.889736 3.28495 0 0 0 
-0.431205 0.911939 3.33637 0 0 0 
-0.411809 0.979497 3.38675 0 0 0 
0.0197515 1.19837 2.69037 254 42 40 
-0.00797602 1.19947 2.67918 39 40 254 
-0.0286619 1.19707 2.68265 35 33 34 
-0.547929 1.12269 3.142 4 4 4 
-0.296387 1.19145 2.69937 39 37 254 
-0.532789 1.18039 2.96358 12 10 87 
-0.115756 -1.49714 3.15665 0 0 0 
-0.386287 -0.581516 3.20707 0 0 0 
-0.344162 -0.0767721 3.44623 0 0 0 
-0.384438 0.0367395 2.8615 255 49 49 
-0.385031 0.474331 3.37962 0 0 0 
-0.387809 0.507241 2.81556 42 41 39 
-0.419111 0.848981 3.39199 0 0 0 
-0.465582 0.835014 3.31162 0 0 0 
-0.116714 -1.63706 3.1658 0 0 0 
-0.120636 -1.62616 3.18241 0 0 0 
-0.275956 -0.910194 3.18126 0 0 0 
-0.292611 -0.799045 2.97631 30 37 114 
-0.327326 -0.655065 2.90122 61 254 58 
-0.386007 -0.657766 3.20482 0 0 0 
-0.285636 -0.652461 3.36415 0 0 0 
-0.281627 -0.24847 2.76124 255 64 57 
-0.267016 -0.216955 3.51467 0 0 0 
-0.221215 -0.107308 2.73771 4 255 14 
-0.228098 -0.0757486 2.74245 10 9 7 
-0.00999444 -0.0237224 2.7365 28 255 38 
-0.33219 0.0775377 2.79115 255 38 37 
-0.332659 0.116298 2.79869 44 42 45 
-0.389803 0.117657 2.83081 3 1 2 
-0.252904 0.233782 2.74512 25 25 255 
-0.373244 0.492249 3.37371 0 0 0 
-0.421165 0.837012 3.37381 0 0 0 
-0.406451 0.966027 3.37102 0 0 0 
-0.383962 1.00257 3.40191 0 0 0 
0.0263718 -1.79495 3.19731 0 0 0 
-0.0791356 -1.59994 3.07205 0 0 0 
-0.0876954 -1.6042 3.18592 0 0 0 
-0.100059 -1.49771 3.14432 0 0 0 
0.0318981 -0.222797 2.72327 38 36 255 
-0.40859 0.919862 3.35897 0 0 0 
-0.329581 1.18202 2.69474 31 254 36 
-0.0120136 -1.51977 3.10447 0 0 0 
-0.0651784 -1.7822 3.13045 0 0 0 
-0.0450395 -1.60861 3.07755 0 0 0 
-0.319322 -0.789242 3.30277 0 0 0 
-0.251061 -0.584366 3.38392 0 0 0 
-0.420413 0.849256 3.36756 0 0 0 
-0.307444 1.01777 3.47103 0 0 0 
-0.0697749 -1.62885 3.1819 0 0 0 
-0.0588783 -1.73447 3.14275 0 0 0 
-0.0893419 -1.76619 3.15395 0 0 0 
-0.0750408 -1.75286 3.14952 0 0 0 
-0.109635 -1.60658 3.16539 0 0 0 
-0.106649 -1.59501 3.1775 0 0 0 
-0.0586412 -1.52774 3.1487 0 0 0 
-0.412379 -0.0196818 3.39091 0 0 0 
-0.0922836 -1.60336 3.19943 0 0 0 
0.117969 -0.189908 2.71369 51 49 50 
-0.273948 1.20077 2.7064 189 67 67 
-0.0512506 -1.75557 3.12297 0 0 0 
-0.0486419 -1.61035 3.13116 0 0 0 
-0.0682617 -1.6055 3.16421 0 0 0 
-0.0662483 -1.52543 3.16499 0 0 0 
-0.0784978 -1.50502 3.184 0 0 0 
-0.298029 -0.234395 3.49036 0 0 0 
-0.275731 -0.184017 3.52272 0 0 0 
0.096034 -0.190152 2.71317 255 63 62 
-0.0744475 -1.79285 3.15491 0 0 0 
-0.0629175 -1.77376 3.12253 0 0 0 
-0.418532 0.900225 3.36373 0 0 0 
-0.533731 1.12843 3.14937 4 4 4 
-0.304995 -0.822823 3.10432 0 0 0 
-0.389954 -0.612351 3.16172 0 0 0 
-0.0692172 -1.75219 3.15376 0 0 0 
-0.375147 0.118416 2.83633 3 1 2 
-0.311927 -0.746403 3.34022 0 0 0 
-0.410278 0.865424 3.37896 0 0 0 
-0.45471 0.868594 3.30613 0 0 0 
-0.456369 0.894862 3.30307 0 0 0 
-0.434045 0.952673 3.3348 0 0 0 
-0.400345 1.08801 3.37873 0 0 0 
-0.0525642 -1.74742 3.13356 0 0 0 
-0.199698 -0.8765 2.96231 0 0 0 
-0.14949 -0.708154 2.83075 51 254 60 
-0.29467 -0.66167 2.91084 65 61 60 
-0.44601 -0.0451165 3.32586 0 0 0 
-0.445913 0.182095 3.31171 0 0 0 
-0.471784 0.826731 3.31788 0 0 0 
-0.410968 0.957069 3.3728 0 0 0 
-0.476766 -0.244994 3.00486 89 86 254 
-0.0635464 -1.79593 3.11996 0 0 0 
-0.446716 -0.0669746 2.92943 254 43 42 
-0.0915759 -1.78623 3.14707 0 0 0 
-0.391122 -0.653283 3.19624 0 0 0 
-0.496672 -0.0705985 3.08919 0 0 0 
-0.478735 0.876796 3.28852 0 0 0 
-0.10786 -1.57807 3.11853 0 0 0 
-0.0735981 -1.75053 3.1529 0 0 0 
-0.0623374 -1.73879 3.14604 0 0 0 
-0.073053 -1.75816 3.13394 0 0 0 
-0.0642009 -1.69333 3.14 0 0 0 
-0.0554505 -1.69359 3.13381 0 0 0 
-0.0642649 -1.60293 3.11455 0 0 0 
-0.0578454 -1.75254 3.11636 0 0 0 
-0.0691827 -1.7449 3.15175 0 0 0 
-0.0603747 -1.73601 3.11228 0 0 0 
-0.0800878 -1.60249 3.19754 0 0 0 
-0.0573074 -1.5243 3.15103 0 0 0 
-0.085009 -1.63315 3.20691 0 0 0 
-0.0622016 -1.53065 3.13784 0 0 0 
-0.0487757 -1.52295 3.10368 0 0 0 
-0.0667718 -1.5707 3.14936 0 0 0 
-0.0575234 -1.57016 3.11277 0 0 0 
-0.0504196 -1.54084 3.11614 0 0 0 
-0.02618 -1.53666 3.14835 0 0 0 
-0.062542 -1.72781 3.131 0 0 0 
-0.0854391 -1.62918 3.06173 0 0 0 
-0.175758 -0.0802267 3.54945 0 0 0 
-0.0465293 -1.59583 3.15232 0 0 0 
-0.0325827 -1.57116 3.14929 0 0 0 
-0.295078 -0.808261 3.0329 1 1 2 
-0.206991 -0.790618 2.86165 254 36 34 
-0.446399 -0.345295 3.07182 64 62 254 
-0.436371 0.869919 3.34147 0 0 0 
-0.445348 0.869655 3.32632 0 0 0 
-0.435237 0.880503 3.34629 0 0 0 
-0.452359 0.892406 3.3128 0 0 0 
-0.433307 0.914846 3.34852 0 0 0 
-0.453383 0.907402 3.30712 0 0 0 
-0.432492 0.947905 3.34167 0 0 0 
-0.422986 0.963736 3.35526 0 0 0 
-0.439429 1.03764 3.32164 8 6 37 
-0.195938 -1.23964 3.13609 0 0 0 
-0.464009 -0.306593 3.00554 54 50 47 
-0.380027 0.057631 3.40744 0 0 0 
-0.433299 0.828461 3.37308 0 0 0 
-0.433105 0.83403 3.38136 0 0 0 
-0.463585 0.866772 3.29553 0 0 0 
-0.441202 0.918623 3.32673 0 0 0 
-0.461998 0.936715 3.29401 0 0 0 
-0.441251 1.06522 3.32233 42 40 34 
-0.434326 1.09419 3.32599 46 222 64 
-0.517965 1.19919 2.95735 60 53 254 
-0.433377 -0.148519 3.36289 0 0 0 
-0.489991 1.22633 3.48392 0 0 0 
-0.563237 1.22662 3.00458 250 25 25 
-0.0855058 -1.74178 3.11817 0 0 0 
-0.077622 -1.62757 3.20661 0 0 0 
-0.290165 -0.797167 2.9889 253 62 58 
-0.374738 0.0961618 2.83823 255 40 39 
-0.414383 0.85196 3.39384 0 0 0 
-0.435541 0.935435 3.32977 0 0 0 
-0.403095 0.968938 3.3897 0 0 0 
-0.442813 1.05692 3.31336 37 36 31 
-0.465343 0.918275 3.29198 0 0 0 
-0.406879 1.00074 3.39342 0 0 0 
-0.596676 1.22354 3.29623 68 63 255 
-0.497588 0.862441 3.3078 0 0 0 
-0.0806343 -1.79886 3.14839 0 0 0 
-0.0666677 -1.73033 3.14209 0 0 0 
-0.0672069 -1.70188 3.13934 0 0 0 
-0.0648808 -1.67799 3.1489 0 0 0 
-0.0762489 -1.74978 3.16349 0 0 0 
-0.0748125 -1.77595 3.16519 0 0 0 
-0.0886239 -1.72828 3.17365 0 0 0 
-0.0625757 -1.79675 3.11376 0 0 0 
-0.0481486 -1.74115 3.12459 0 0 0 
-0.0731828 -1.74772 3.16659 0 0 0 
-0.0626735 -1.56135 3.14927 0 0 0 
-0.0380135 -1.52525 3.12318 0 0 0 
-0.0630875 -1.52365 3.15809 0 0 0 
-0.0279524 -1.52663 3.11924 0 0 0 
-0.0413035 -1.56044 3.12263 0 0 0 
-0.0533512 -1.53618 3.14426 0 0 0 
-0.0663055 -1.79743 3.11228 0 0 0 
-0.0549318 -1.70146 3.13455 0 0 0 
-0.0583136 -1.75966 3.1361 0 0 0 
-0.0490324 -1.54182 3.13711 0 0 0 
-0.0197734 -1.61736 3.09512 0 0 0 
-0.0912399 -1.62636 3.18014 0 0 0 
-0.0644211 -1.75598 3.15705 0 0 0 
-0.0661591 -1.79297 3.14379 0 0 0 
-0.023197 -1.6192 3.08952 0 0 0 
-0.0780967 -1.79334 3.15074 0 0 0 
-0.0673597 -1.77019 3.16387 0 0 0 
-0.0348393 -1.65181 3.07232 0 0 0 
-0.0594034 -1.7502 3.11575 0 0 0 
-0.0707975 -1.78116 3.15975 0 0 0 
-0.0316625 -1.65205 3.06697 0 0 0 
-0.0714354 -1.59847 3.19525 0 0 0 
-0.0628453 -1.7139 3.12793 0 0 0 
-0.0609052 -1.69611 3.12951 0 0 0 
-0.0686728 -1.77463 3.13592 0 0 0 
-0.0396266 -1.65289 3.05844 0 0 0 
-0.0476099 -1.52987 3.11505 0 0 0 
-0.0570244 -1.77562 3.11033 0 0 0 
-0.0646206 -1.68333 3.15948 0 0 0 
-0.0572786 -1.68989 3.1102 0 0 0 
-0.0669798 -1.75837 3.14106 0 0 0 
-0.0449306 -1.62508 3.07629 0 0 0 
-0.087147 -1.79917 3.14203 0 0 0 
-0.0854135 -1.69088 3.13733 0 0 0 
-0.0657083 -1.54565 3.1271 0 0 0 
-0.0282247 -1.53766 3.12899 0 0 0 
-0.0844133 -1.52975 3.14598 0 0 0 
-0.0253979 -1.53361 3.12358 0 0 0 
-0.0479521 -1.77536 3.13227 0 0 0 
-0.0837122 -1.61277 3.17901 0 0 0 
