ply                 
format ascii 1.0    
element vertex 972
property float x    
property float y    
property float z    
property uchar red  
property uchar green
property uchar blue 
end_header          
-0.130663 -0.675543 2.82525 0 0 0 
-0.217972 -0.65967 2.84947 254 56 55 
-0.0905817 -0.590663 2.79913 0 0 0 
-0.0190242 -0.57834 2.81035 86 85 81 
-0.040408 -0.538825 2.79488 36 34 35 
-0.0269531 -0.483906 2.78346 35 33 34 
-0.328098 -0.388228 2.86432 43 252 103 
0.0121079 -0.350344 2.74807 74 72 73 
-0.194662 -0.276642 2.72359 254 107 102 
0.0266173 -0.165878 2.69857 0 0 0 
-0.0321518 -0.100194 2.69067 254 83 82 
0.0174603 -0.0894015 2.69646 57 254 58 
-0.179903 -0.0702924 2.71147 254 29 27 
-0.180225 -0.0606178 2.70946 18 16 17 
-0.261257 0.224314 2.74104 22 25 254 
-0.20012 0.229785 2.71335 149 86 89 
0.0611385 0.493949 2.73782 83 79 78 
-0.23978 0.637141 2.7259 41 39 40 
0.195235 0.671459 2.78652 254 44 43 
0.162187 0.672335 2.76468 0 0 0 
-0.32062 0.761737 2.78248 254 28 27 
0.208087 0.839286 2.78049 0 0 0 
0.152526 0.984373 2.73545 58 57 55 
-0.0933053 -1.48609 3.07508 0 0 0 
-0.102582 -1.48616 3.08311 0 0 0 
-0.162299 -1.09986 3.00023 0 0 0 
-0.257695 -0.655665 2.87364 72 250 60 
-0.147176 -0.613453 2.81384 0 0 0 
-0.0906947 -0.589796 2.79881 0 0 0 
-0.0187917 -0.57765 2.81047 0 0 0 
-0.0890014 -0.5369 2.78243 104 98 70 
-0.284537 -0.39488 2.84434 0 0 0 
-0.290991 -0.290694 2.78981 31 28 254 
-0.1955 -0.277539 2.71869 40 24 25 
-0.0421545 -0.166287 2.69269 34 33 31 
0.0267347 -0.165516 2.69634 31 31 33 
-0.0185807 -0.14709 2.68916 3 1 2 
-0.0313815 -0.100286 2.69565 255 26 24 
-0.397419 -0.0911615 2.86398 0 0 0 
0.157083 -0.102569 2.74577 255 53 52 
0.0246818 -0.0899864 2.69499 55 254 54 
0.0154636 -0.0887098 2.69712 57 53 54 
0.0042635 -0.0847365 2.69459 40 41 254 
-0.212156 -0.066066 2.72021 37 37 254 
-0.18028 -0.0603035 2.70944 18 16 17 
-0.081017 -0.0514321 2.70043 83 82 80 
-0.30867 0.0247481 2.77492 20 20 254 
-0.146231 0.0231118 2.71854 254 125 125 
-0.327631 0.293359 2.787 0 0 0 
-0.121888 0.350562 2.71129 59 61 242 
-0.20502 0.356251 2.71364 23 25 27 
-0.242889 0.421803 2.72778 0 0 0 
-0.36469 0.502111 2.82026 35 33 34 
-0.225776 0.513217 2.7221 23 24 254 
0.0521769 0.546915 2.71835 0 0 0 
-0.299318 0.572254 2.7585 45 46 254 
0.161865 0.672729 2.76431 0 0 0 
-0.320943 0.760244 2.77837 0 0 0 
-0.321154 0.768564 2.77969 0 0 0 
0.208974 0.839666 2.78261 86 254 68 
0.209461 0.858701 2.77831 4 1 1 
-0.10503 0.866737 2.68332 254 49 48 
0.0696 0.885467 2.69122 69 67 254 
0.209638 0.927679 2.77408 15 45 14 
0.211261 0.93866 2.7729 24 66 21 
0.152814 0.984265 2.73694 0 0 0 
0.157255 -0.101945 2.74603 11 10 8 
-0.144932 -0.060222 2.71988 99 97 98 
-0.151448 0.0699369 2.71892 254 51 51 
-0.356122 0.0949238 2.81462 32 254 56 
-0.146053 0.351295 2.71598 65 63 64 
0.209253 0.859417 2.78058 62 254 65 
-0.0977762 -1.48814 3.07629 0 0 0 
-0.040959 -0.780858 2.86615 0 0 0 
-0.157926 -0.657869 2.81181 36 254 35 
0.0147024 -0.192188 2.69337 0 0 0 
-0.271756 -0.131136 2.75178 0 0 0 
-0.149883 -0.0861289 2.71114 19 19 254 
0.0277008 -0.0876598 2.69443 85 86 254 
0.0788926 -0.084728 2.7135 1 1 1 
-0.145217 0.0223178 2.71871 0 0 0 
-0.144381 0.0942279 2.71695 17 18 254 
-0.18622 0.107367 2.70908 255 36 35 
-0.125566 0.721048 2.71121 42 37 255 
-0.0952474 0.779488 2.70557 254 37 36 
-0.00543082 -0.627278 2.82795 0 0 0 
-0.0782383 -0.0376286 2.71045 73 254 63 
0.0910835 -0.0375936 2.73685 59 62 255 
0.0278009 -0.204323 2.69283 0 0 0 
-0.0947921 -0.0859348 2.69436 254 77 72 
0.0109686 -0.078491 2.69457 40 38 39 
-0.130658 -0.676207 2.83391 0 0 0 
-0.124829 -0.662088 2.8168 0 0 0 
0.12501 -0.671085 2.8818 254 85 81 
-0.131293 -0.618811 2.80875 0 0 0 
-0.14832 -0.613692 2.82053 0 0 0 
0.0319847 0.572231 2.71204 254 39 38 
0.254033 0.631802 2.84613 254 86 82 
0.23002 0.64321 2.82137 254 55 54 
0.260493 0.648941 2.85263 254 92 88 
0.272287 0.659352 2.86846 70 69 254 
0.213357 0.651882 2.80285 41 39 33 
0.235215 0.655648 2.82635 60 59 55 
0.227285 0.661014 2.8153 28 27 23 
0.260975 0.672143 2.85632 94 91 254 
0.213117 0.67146 2.80142 71 254 80 
0.167271 0.674638 2.76591 71 254 71 
0.208954 0.687073 2.79756 7 3 68 
0.189108 0.688741 2.78318 0 0 0 
0.243122 0.701166 2.83233 89 85 254 
0.220258 0.701576 2.80821 48 249 48 
0.211181 0.702197 2.80043 140 47 47 
0.181636 0.701915 2.77684 0 0 0 
0.305814 0.816679 2.90377 69 66 59 
0.308452 0.827539 2.90624 99 254 72 
0.284036 0.840361 2.86705 255 68 67 
0.249679 0.840637 2.81872 90 86 87 
0.279283 0.85322 2.84637 86 83 254 
0.263721 0.851232 2.82885 254 69 68 
0.281643 0.863666 2.84461 88 84 81 
0.199053 0.849088 2.77011 0 0 0 
0.216171 0.852479 2.78233 4 12 4 
0.173166 0.850231 2.75268 72 70 254 
0.258141 0.862817 2.81753 85 254 84 
0.245974 0.865359 2.80515 59 253 65 
0.217737 0.862936 2.7806 6 5 13 
0.194482 0.861032 2.76411 0 0 0 
0.184598 0.861969 2.75558 0 0 0 
0.285224 0.908103 2.84431 87 86 82 
0.253089 0.90163 2.81027 98 96 254 
0.255045 0.911967 2.81199 73 72 68 
0.287997 0.924305 2.84987 255 68 69 
0.292719 0.930164 2.85754 68 67 62 
0.244602 0.928108 2.80174 76 74 255 
0.222044 0.925749 2.78197 135 39 37 
0.283984 0.945131 2.84927 73 255 68 
0.210262 0.927337 2.77357 52 17 17 
0.307302 0.955524 2.87902 64 255 65 
0.261076 0.943149 2.81972 66 64 255 
0.243342 0.939153 2.80027 254 89 88 
0.211273 0.93898 2.77302 21 68 19 
0.233747 0.945415 2.79373 56 57 249 
0.189582 0.952573 2.75862 80 254 88 
0.226726 1.20118 2.69353 80 20 18 
-0.0888875 -1.77116 3.12985 0 0 0 
-0.0958327 -1.75869 3.127 0 0 0 
-0.0876949 -1.5488 3.06563 0 0 0 
0.0129399 -1.10486 2.98163 0 0 0 
0.22836 -0.742478 2.99276 64 63 61 
0.303942 -0.68435 3.12883 47 43 42 
0.309055 -0.651994 3.14698 36 36 36 
-0.285986 -0.394901 2.85419 0 0 0 
-0.313999 -0.327333 2.83515 0 0 0 
0.206794 -0.308763 2.8024 255 59 60 
0.254331 -0.28784 2.8621 64 62 255 
-0.287122 -0.245075 2.77057 0 0 0 
-0.29378 -0.240038 2.76706 0 0 0 
0.251882 -0.257308 2.82623 255 73 72 
0.361157 -0.0520609 3.09725 51 50 48 
0.349362 -0.0315141 3.09768 69 67 255 
-0.302234 0.0175095 2.76867 40 42 254 
-0.149117 0.0851146 2.71182 1 1 0 
-0.0712552 0.22744 2.7117 77 78 254 
-0.119111 0.358855 2.71891 57 57 255 
8.84195e-05 0.404848 2.72447 0 0 0 
0.144156 0.419293 2.75806 46 43 254 
0.203376 0.602615 2.79727 66 65 61 
0.221672 0.626272 2.81162 68 65 60 
0.201953 0.68103 2.79367 0 0 0 
0.222604 0.842247 2.79204 29 89 28 
0.245241 0.846195 2.81238 81 77 74 
0.224856 0.850979 2.78969 30 27 23 
0.181675 0.850399 2.7591 0 0 0 
0.262828 0.871743 2.82394 94 89 254 
0.239913 0.870838 2.8007 87 83 80 
0.224206 0.898971 2.78253 35 34 77 
0.261249 0.926829 2.821 78 255 80 
0.26266 0.953843 2.82038 254 41 40 
0.188842 0.94178 2.75726 10 3 3 
0.152659 0.983909 2.7335 254 76 76 
0.187967 1.18628 2.6586 254 40 39 
0.143948 -0.194369 2.74209 0 0 0 
0.165173 -0.0512593 2.76131 255 39 38 
-0.327208 0.0755993 2.7905 22 255 33 
0.218154 0.933541 2.77686 58 60 55 
0.237384 1.19997 2.68702 25 21 18 
0.186473 1.19607 2.65929 28 26 254 
-0.0723818 -1.66963 3.10918 0 0 0 
-0.0927167 -1.58321 3.06626 0 0 0 
-0.0244336 -1.56991 3.09079 0 0 0 
-0.11826 -1.49017 3.11546 0 0 0 
-0.114727 -0.661777 2.81942 0 0 0 
-0.157389 -0.65741 2.81136 36 254 35 
-0.235701 -0.111502 2.72942 44 43 39 
-0.0580925 -0.083311 2.69895 64 254 68 
0.11054 -0.085912 2.71932 87 88 255 
0.156538 -0.0843584 2.74496 33 255 43 
0.170962 -0.0795868 2.74918 48 46 255 
0.290346 0.823872 2.88566 254 87 84 
0.206798 0.882442 2.76564 59 54 254 
-0.286007 1.1933 2.73155 0 0 0 
-0.0582474 -1.73575 3.13831 0 0 0 
-0.155861 0.109337 2.71389 1 0 0 
-0.0845829 -1.68901 3.12814 0 0 0 
-0.0606663 -1.56733 3.0784 0 0 0 
-0.114694 -1.4717 3.07479 0 0 0 
-0.0156747 -1.47442 3.10772 0 0 0 
0.147198 -0.801951 2.95607 254 58 57 
-0.0935439 -0.0854868 2.68244 254 77 72 
-0.0750606 -0.0772231 2.69532 67 66 64 
-0.100712 -1.69935 3.07164 0 0 0 
-0.0847528 -1.57242 3.05748 0 0 0 
-0.129229 -1.59337 3.11126 0 0 0 
-0.0992667 1.12271 2.65822 254 64 63 
-0.244073 -0.0792161 2.73662 255 20 20 
-0.0540011 -1.71898 3.11324 0 0 0 
-0.0719281 -1.70879 3.13066 0 0 0 
-0.113499 -1.48889 3.11197 0 0 0 
-0.0694825 -1.65581 3.12715 0 0 0 
0.21933 0.689208 2.80879 33 247 35 
0.20682 0.851795 2.77528 1 1 1 
0.285475 0.880073 2.84685 254 89 85 
0.197119 0.887238 2.76231 0 0 0 
0.227469 0.911431 2.78617 39 173 42 
0.158133 0.982076 2.74048 48 51 254 
0.187013 1.19159 2.67199 76 18 19 
0.245791 1.19527 2.7048 35 36 32 
-0.0725177 -1.6857 3.12359 0 0 0 
0.359331 -0.0533749 3.20551 53 50 255 
0.188668 0.856137 2.76189 0 0 0 
0.250956 0.859286 2.81444 81 82 77 
0.23163 0.877594 2.78995 51 137 54 
0.278064 0.920819 2.83693 73 254 83 
0.237836 0.934136 2.79979 73 254 66 
0.227192 0.694542 2.8143 254 66 65 
0.227404 0.700444 2.8396 67 60 254 
0.297495 0.839885 2.87501 53 254 45 
0.257149 0.84567 2.82193 254 99 98 
0.292364 0.885148 2.85317 71 66 254 
0.27274 0.839606 2.84484 54 42 254 
0.20965 0.951576 2.77369 28 26 87 
0.18637 1.2007 2.67196 5 4 19 
-0.0927367 -1.72991 3.11948 0 0 0 
-0.0818439 -1.70229 3.12071 0 0 0 
-0.117132 -1.47983 3.08993 0 0 0 
-0.0843695 -1.6549 3.11932 0 0 0 
-0.0544577 -1.51128 3.12515 0 0 0 
0.219838 0.96537 2.78122 66 61 59 
0.186437 0.874403 2.75689 0 0 0 
-0.0852056 -1.70585 3.12714 0 0 0 
0.369467 -0.237582 3.16534 47 47 255 
0.129379 -0.441976 2.80436 68 75 111 
0.0214317 -0.166114 2.70457 0 0 0 
-0.00385474 0.349718 2.73041 0 0 0 
0.336357 0.352503 2.99362 36 254 63 
-0.00325411 0.391201 2.73017 0 0 0 
-0.00386105 0.406417 2.73058 0 0 0 
0.256748 0.646205 2.84879 82 254 94 
0.305337 0.651783 2.91873 63 60 55 
0.310336 0.653227 2.92942 66 63 58 
0.296682 0.650935 2.90273 82 254 85 
0.279411 0.650931 2.87725 64 63 59 
0.292498 0.660929 2.89676 254 76 73 
0.314332 0.66702 2.93372 71 67 254 
0.21335 0.659072 2.80157 76 70 72 
0.25664 0.66713 2.84879 78 75 254 
0.1945 0.672265 2.78736 254 44 43 
0.240056 0.697521 2.82839 60 59 55 
0.332791 0.822889 2.96298 37 34 29 
0.300779 0.815368 2.89836 74 254 76 
0.316639 0.821258 2.92045 254 65 62 
0.312788 0.823533 2.9109 44 40 254 
0.297091 0.821897 2.88602 72 71 66 
0.332663 0.831482 2.9488 254 49 45 
0.329468 0.835297 2.92719 72 254 81 
0.33578 0.841274 2.94967 63 254 63 
0.307534 0.839992 2.89191 70 254 73 
0.347692 0.851805 2.96261 42 254 55 
0.207341 0.83939 2.77951 254 65 64 
0.319822 0.849044 2.9065 59 54 48 
0.331253 0.850799 2.922 50 254 53 
0.271921 0.847344 2.83829 254 55 54 
0.299611 0.85037 2.87228 254 72 68 
0.342595 0.861773 2.95056 36 30 30 
0.262354 0.852371 2.83134 70 69 67 
0.253189 0.850894 2.81561 254 85 85 
0.193809 0.852009 2.76645 0 0 0 
0.334751 0.864411 2.92463 28 254 49 
0.322327 0.864968 2.9011 47 43 34 
0.351535 0.875506 2.95619 40 31 254 
0.299671 0.864929 2.86672 254 80 77 
0.182316 0.863189 2.7576 68 66 67 
0.268256 0.865955 2.82849 75 74 70 
0.344312 0.87794 2.93816 30 254 42 
0.33026 0.87758 2.91115 59 55 46 
0.31427 0.877867 2.88553 54 254 61 
0.331257 0.888556 2.90947 254 57 53 
0.359504 0.900918 2.97652 43 254 73 
0.316304 0.888667 2.88547 254 71 67 
0.34809 0.89961 2.94675 47 254 51 
0.320498 0.894665 2.89352 47 44 35 
0.337897 0.898893 2.92059 254 42 37 
0.25591 0.887862 2.81062 254 68 67 
0.355431 0.910867 2.96316 48 43 39 
0.335979 0.910604 2.91744 254 52 47 
0.340941 0.912783 2.92969 52 47 43 
0.320887 0.90931 2.89265 254 58 55 
0.296904 0.907269 2.85867 80 254 86 
0.282964 0.914104 2.84215 85 84 254 
0.341035 0.92714 2.92968 40 35 29 
0.333625 0.92931 2.91478 254 53 48 
0.325461 0.927627 2.89895 69 64 254 
0.259577 0.92121 2.81447 254 80 79 
0.2036 0.92581 2.76764 23 7 7 
0.284475 0.92737 2.84202 75 254 84 
0.294001 0.92888 2.85627 80 254 89 
0.272064 0.9286 2.82949 82 79 254 
0.358482 0.953079 2.98034 50 39 254 
0.33393 0.941267 2.91488 254 81 78 
0.3223 0.940961 2.89388 47 44 39 
0.3275 0.944082 2.90514 44 41 36 
0.298859 0.94132 2.86013 77 74 69 
0.308541 0.943694 2.87539 41 36 254 
0.271727 0.940272 2.82894 79 78 254 
0.319496 0.956438 2.89369 41 254 52 
0.284044 0.952982 2.84239 85 82 254 
0.301004 0.955331 2.86609 70 67 254 
0.319756 0.966611 2.89276 68 65 254 
0.301745 0.965876 2.86574 48 41 254 
0.218135 0.966364 2.78367 41 254 51 
0.260875 0.96593 2.81759 254 67 66 
0.248872 1.01791 2.79961 54 52 254 
0.146931 -0.479015 2.81194 40 198 40 
-0.00468879 -0.0897358 2.70113 0 0 0 
-0.154086 0.0239858 2.72899 0 0 0 
0.30761 0.642761 2.9251 254 93 90 
0.292159 0.640817 2.89764 74 73 68 
0.210736 0.681939 2.80347 41 149 41 
0.198552 0.688 2.79011 254 58 54 
0.245764 0.695335 2.8376 254 57 53 
0.214497 0.695559 2.80451 72 71 68 
0.320149 0.83705 2.92256 254 84 83 
0.310703 0.836781 2.90043 69 68 64 
0.355724 0.853665 2.99545 50 254 54 
0.331644 0.847369 2.93809 91 92 87 
0.283978 0.838973 2.86171 80 77 70 
0.258341 0.840625 2.82805 46 42 41 
0.217767 0.846825 2.78746 23 8 8 
0.326567 0.858009 2.91752 66 254 73 
0.331541 0.871264 2.9191 254 60 56 
0.203436 0.862468 2.77059 74 254 65 
0.340769 0.884385 2.93197 254 47 43 
0.213912 0.873465 2.77596 59 254 65 
0.195093 0.876941 2.76386 0 0 0 
0.28306 0.882913 2.84035 79 78 74 
0.338473 0.919684 2.9226 77 72 254 
0.215854 0.921322 2.77944 61 60 58 
0.266084 0.922228 2.82405 74 254 78 
0.356328 0.941093 2.96467 53 49 254 
0.20496 0.934253 2.77074 70 65 254 
0.327145 0.953301 2.90342 27 254 38 
0.339707 0.965923 2.929 49 254 55 
0.18593 -0.344877 2.79453 67 254 65 
0.302958 0.669638 2.91174 62 57 254 
0.182717 0.694699 2.77822 0 0 0 
0.275181 0.85892 2.84039 45 44 40 
0.315976 0.870893 2.89705 73 68 254 
0.365925 0.927832 3.00103 43 254 48 
0.227094 0.91899 2.78627 64 254 59 
0.328506 0.962014 2.89771 71 254 76 
0.0100603 -0.192251 2.69854 0 0 0 
0.00442854 -0.0829813 2.70336 0 0 0 
-0.00153855 -0.03811 2.72558 0 0 0 
-0.164055 0.111009 2.72163 0 0 0 
0.271755 0.840156 2.84625 69 65 254 
0.178243 0.849879 2.75647 0 0 0 
0.337397 0.862427 2.94142 37 29 254 
0.328585 0.823398 2.95281 51 48 254 
0.240749 0.91383 2.80414 83 82 78 
0.35853 -0.0552106 3.2481 12 8 5 
0.199185 0.941334 2.76549 45 44 42 
0.323669 0.885128 2.90699 254 42 37 
0.377104 -0.057138 3.22221 12 8 5 
-0.130337 0.62717 2.71659 0 0 0 
-0.0986256 -1.50923 3.09937 0 0 0 
-0.05564 -1.67409 3.12876 0 0 0 
0.24218 0.689419 2.83306 78 75 254 
0.316328 0.8409 2.90751 254 77 74 
0.345596 0.840696 2.96671 72 68 65 
0.34408 0.853674 2.95334 54 47 39 
0.352783 0.871175 2.9609 25 254 42 
0.287439 0.904623 2.84779 88 84 254 
0.359928 0.910186 2.97631 41 254 52 
0.318541 0.928918 2.89023 254 54 51 
0.306006 0.948409 2.87047 60 57 52 
0.324751 0.94814 2.90065 254 50 47 
0.2538 1.21411 2.70658 22 19 132 
0.286469 0.652067 2.90852 254 83 80 
0.348 0.851683 2.9635 254 51 46 
0.353392 0.865706 2.97646 44 35 28 
0.27337 0.871125 2.83316 79 254 91 
0.339044 0.869418 2.92961 43 39 30 
0.327213 0.870616 2.90596 37 254 53 
0.322006 0.906885 2.894 48 45 254 
0.348639 0.910993 2.94669 254 35 30 
0.336786 0.921328 2.92599 254 58 53 
0.363689 0.930409 3.00883 254 45 40 
0.223067 0.951828 2.78536 54 217 95 
0.328846 0.936263 2.91012 45 41 254 
0.265009 0.948413 2.8241 79 77 254 
0.224478 0.695909 2.81577 254 66 65 
0.289871 0.821406 2.87343 66 254 56 
0.252639 0.870291 2.8084 91 87 84 
0.32043 0.883279 2.89244 254 62 55 
0.342425 0.908821 2.93931 40 254 49 
0.33104 0.900818 2.91028 254 58 53 
0.351139 0.903107 2.96697 40 254 51 
0.268532 0.918452 2.82707 75 254 81 
0.290279 0.918667 2.85007 75 71 68 
0.32627 0.963863 2.90118 57 53 50 
-0.0908212 -1.68944 3.13452 0 0 0 
0.17806 0.671819 2.77737 0 0 0 
0.334206 0.661741 2.98899 69 254 83 
0.214092 0.831344 2.7901 8 6 16 
0.323089 0.832239 2.92751 58 58 50 
0.331574 0.850651 2.92743 254 37 32 
0.332585 0.885812 2.915 47 42 36 
0.223978 0.913098 2.78857 39 173 42 
0.340529 0.898195 2.92724 43 254 52 
0.326189 0.899734 2.90041 49 44 38 
0.368485 0.910944 3.01092 86 76 74 
0.338805 0.960597 2.92412 56 51 254 
0.244583 -0.246999 2.8292 253 50 50 
0.259863 -0.245085 2.84954 74 72 73 
0.279444 0.663358 2.88189 71 72 67 
0.297605 0.662952 2.90671 68 254 89 
0.32105 0.846259 2.91348 64 254 59 
0.359306 0.876694 2.97772 48 44 35 
0.347664 0.88355 2.94315 55 51 42 
0.367906 0.920677 3.00499 56 254 70 
0.356505 0.929564 2.96531 36 254 47 
0.311261 0.949263 2.88015 254 52 49 
0.263787 0.96154 2.82364 76 72 71 
0.361276 0.975005 2.97813 254 47 44 
0.370702 1.05795 3.25855 23 18 254 
0.239897 -0.344547 2.91254 72 69 254 
0.300224 0.670361 2.91357 62 57 254 
0.352317 0.934967 2.95789 25 254 36 
0.276932 0.950461 2.83751 85 254 106 
0.304852 0.962811 2.8735 51 254 66 
-0.0850354 -1.68084 3.14652 0 0 0 
0.307479 0.812345 2.90857 49 42 254 
0.342333 0.860014 2.93805 37 29 254 
0.189201 0.939718 2.79512 34 123 38 
-0.0822958 -1.76918 3.13927 0 0 0 
-0.0733592 -1.72831 3.12597 0 0 0 
0.187125 1.18527 2.68299 32 9 9 
-0.0722183 -1.77262 3.13023 0 0 0 
-0.0592095 -1.76844 3.13323 0 0 0 
0.466053 -0.0458107 3.25147 31 27 24 
-0.0645611 -1.7101 3.12963 0 0 0 
-0.0483157 -1.72545 3.13317 0 0 0 
-0.0772268 -1.77589 3.12702 0 0 0 
-0.0823787 -1.76481 3.13056 0 0 0 
-0.0888009 -1.75693 3.13121 0 0 0 
-0.0884799 -1.7314 3.13004 0 0 0 
-0.097295 -1.73549 3.13101 0 0 0 
-0.0840652 -1.79736 3.12386 0 0 0 
-0.0903567 -1.69265 3.12411 0 0 0 
-0.080637 -1.69197 3.11847 0 0 0 
-0.0953751 -1.78169 3.12403 0 0 0 
-0.0699834 -1.76064 3.12099 0 0 0 
-0.0811013 -1.74913 3.1226 0 0 0 
-0.0844311 -1.66006 3.12911 0 0 0 
-0.125251 -1.49901 3.13844 0 0 0 
-0.122879 0.878068 2.6877 23 254 30 
-0.0945358 -1.6693 3.13243 0 0 0 
-0.122683 -1.64914 3.14387 0 0 0 
-0.111888 -1.5834 3.12771 0 0 0 
-0.244469 -0.66416 2.86719 65 64 60 
-0.103263 -1.51071 3.13873 0 0 0 
-0.287243 -0.0919209 2.75837 254 22 21 
-0.314222 0.0118897 2.77633 254 44 44 
-0.100158 -1.5982 3.13824 0 0 0 
-0.101363 -1.67484 3.13871 0 0 0 
-0.103898 -1.73448 3.13944 0 0 0 
-0.163426 -1.05595 2.98472 0 0 0 
-0.204843 -1.0049 3.004 0 0 0 
-0.193772 -0.982271 2.98505 0 0 0 
-0.15255 -0.970735 2.95279 0 0 0 
-0.154979 -0.895671 2.92459 0 0 0 
-0.17552 -0.873573 2.92997 0 0 0 
-0.132756 -0.608359 2.80858 44 42 254 
-0.267296 -0.438655 2.84191 48 46 254 
-0.308729 -0.316436 2.81526 79 75 72 
-0.177953 -1.05915 3.00622 0 0 0 
-0.195956 -1.04853 3.01559 0 0 0 
-0.122343 -1.02435 2.94921 0 0 0 
-0.195134 -0.999996 2.99377 0 0 0 
-0.221751 -0.92418 2.98232 0 0 0 
-0.210648 -0.887475 2.96266 0 0 0 
-0.146015 -0.892011 2.91544 0 0 0 
-0.253035 -0.865268 2.98274 0 0 0 
-0.235769 -0.867178 2.96931 0 0 0 
-0.249955 -0.843469 2.97006 0 0 0 
-0.443357 -0.0457949 3.29068 0 0 0 
-0.379538 0.00359563 2.83661 34 34 34 
-0.38044 0.258891 2.83769 254 33 31 
-0.246941 -0.888686 2.98769 0 0 0 
-0.16034 -0.65679 2.80879 254 55 51 
-0.163422 -0.879783 2.92168 0 0 0 
-0.376875 0.114997 2.84608 52 53 254 
-0.0856348 -1.79851 3.12986 0 0 0 
-0.0786265 -1.74443 3.12439 0 0 0 
-0.0899232 -1.65648 3.12079 0 0 0 
-0.256815 -0.905876 2.98808 0 0 0 
-0.183605 -0.883913 2.93483 0 0 0 
-0.247188 -0.874944 2.97438 0 0 0 
-0.268605 -0.824494 2.96399 0 0 0 
-0.297977 -0.814496 3.03914 0 0 0 
-0.328856 -0.791745 3.12011 0 0 0 
0.167398 -0.745764 2.91023 254 46 42 
0.158479 -0.706175 2.89464 32 255 35 
-0.335207 -0.633878 2.96018 0 0 0 
-0.361316 -0.605674 3.03454 0 0 0 
-0.3551 -0.555457 2.96302 0 0 0 
-0.394716 -0.530434 3.09762 0 0 0 
-0.400492 -0.434262 3.00612 0 0 0 
-0.442948 -0.353572 3.10302 0 0 0 
-0.366032 -0.32094 2.85175 41 39 42 
-0.481737 -0.23719 3.0242 0 0 0 
0.0205936 -0.0872045 2.70559 57 53 54 
-0.433119 0.52031 3.03064 0 0 0 
-0.451837 1.14226 2.90938 4 22 4 
0.0211773 -1.15144 2.9941 0 0 0 
-0.277786 -0.800603 2.96055 0 0 0 
-0.320349 -0.794454 3.11362 0 0 0 
-0.331137 -0.774797 3.29758 0 0 0 
-0.336159 -0.750295 3.17642 0 0 0 
0.181373 -0.789657 2.93373 84 81 254 
-0.305042 -0.698142 2.90826 0 0 0 
-0.380574 -0.639049 3.14828 0 0 0 
-0.160729 -0.604148 2.81214 254 37 36 
-0.25044 -0.585732 2.87063 254 51 50 
-0.374025 -0.57475 3.05103 0 0 0 
-0.404041 -0.527234 3.12909 0 0 0 
-0.402253 -0.519504 3.12306 0 0 0 
-0.386159 -0.440272 2.94596 0 0 0 
-0.413456 -0.431335 3.05481 0 0 0 
0.147007 -0.47046 2.82679 52 255 57 
-0.362381 -0.330696 2.85508 76 79 254 
-0.445861 -0.305581 2.99293 0 0 0 
-0.476357 -0.263254 3.03349 0 0 0 
-0.471912 -0.257788 3.01818 0 0 0 
-0.473192 -0.233935 2.99029 0 0 0 
-0.157835 -0.0860777 2.70388 19 19 254 
-0.461503 -0.0474036 3.15031 0 0 0 
-0.386273 -0.0288293 3.35336 0 0 0 
0.235666 -0.0517133 2.86374 255 66 62 
-0.386858 -0.017418 2.83683 254 54 52 
-0.382098 -0.00273576 2.85651 50 50 254 
-0.380423 0.0031995 2.86538 20 20 254 
-0.381849 0.0589548 2.85544 46 44 45 
-0.383754 0.108948 2.85303 62 254 59 
0.0372856 0.184663 2.729 254 54 50 
-0.381597 0.254437 2.8506 53 51 52 
-0.478054 1.17823 2.977 0 0 0 
-0.09574 -1.78004 3.12525 0 0 0 
-0.250096 -0.901468 2.97971 0 0 0 
-0.300606 -0.656486 2.91067 0 0 0 
-0.349208 -0.52659 2.92967 0 0 0 
-0.0202591 -0.191824 2.69352 57 56 54 
-0.48614 -0.144706 3.07687 0 0 0 
-0.383749 0.0118155 2.85406 41 47 254 
-0.078469 -1.74389 3.10661 0 0 0 
-0.0417916 -1.63516 3.06085 0 0 0 
-0.110375 -1.57216 3.07065 0 0 0 
-0.0750218 -1.59633 3.09883 0 0 0 
-0.321669 -0.66202 2.94864 0 0 0 
-0.130184 -0.663636 2.8331 37 33 32 
-0.156403 -0.633581 2.81264 254 42 40 
-0.387146 -0.605282 3.14895 0 0 0 
-0.488703 -0.12435 3.06593 0 0 0 
-0.395597 -0.079649 2.85484 51 254 58 
-0.440933 -0.0725665 2.92468 0 0 0 
-0.157551 -0.0813652 2.71858 254 13 13 
-0.43147 -0.0443585 2.92731 0 0 0 
-0.0879556 -1.78579 3.09834 0 0 0 
-0.282978 -0.797127 2.9819 0 0 0 
-0.146537 -0.0825522 2.70793 25 254 30 
-0.372439 0.115336 2.85059 52 53 254 
-0.0748697 -1.77624 3.11112 0 0 0 
-0.28819 -0.71773 2.93239 0 0 0 
0.26798 -0.0870829 2.91052 53 52 50 
-0.412076 -0.218201 3.35247 0 0 0 
0.651098 -0.100951 3.12993 73 255 81 
-0.0875164 -1.73052 3.12978 0 0 0 
-0.0887192 -1.75661 3.13135 0 0 0 
-0.0521897 -1.53859 3.11939 0 0 0 
-0.103998 -1.78397 3.12451 0 0 0 
0.350791 -0.0856808 2.92071 76 255 62 
-0.144649 -1.62426 3.15519 0 0 0 
-0.0628623 -1.51739 3.12173 0 0 0 
-0.0999702 -1.59436 3.12983 0 0 0 
-0.076506 -1.76493 3.13462 0 0 0 
-0.438075 -0.0660837 2.92667 0 0 0 
-0.286261 1.17754 2.69181 67 252 70 
-0.218565 -1.09073 3.03987 0 0 0 
-0.437504 -0.384347 3.10798 0 0 0 
-0.0884252 -1.75572 3.12899 0 0 0 
-0.330435 -0.681938 3.00023 0 0 0 
-0.338332 -0.606843 2.94377 0 0 0 
-0.411955 -0.513685 3.12354 0 0 0 
-0.383682 -0.504792 3.01303 0 0 0 
-0.490095 -0.134435 3.07584 0 0 0 
-0.0952759 -1.74234 3.13821 0 0 0 
-0.0824226 -1.77031 3.10325 0 0 0 
-0.18841 -0.891401 2.94187 0 0 0 
-0.310058 -0.80603 3.07397 0 0 0 
-0.392745 -0.359953 2.89085 68 254 69 
-0.448742 1.14063 2.92535 61 252 69 
-0.133829 -1.62214 3.17133 0 0 0 
-0.221713 -1.10299 3.06162 0 0 0 
-0.444107 -0.30572 2.99658 0 0 0 
-0.288706 -0.247367 2.7552 70 254 84 
-0.356605 -0.616627 3.05271 0 0 0 
-0.0644587 -1.74643 3.10897 0 0 0 
-0.0775239 -1.55634 3.12086 0 0 0 
-0.0980146 -1.76221 3.13296 0 0 0 
-0.0860801 -1.65763 3.12639 0 0 0 
-0.0852335 -1.77893 3.12742 0 0 0 
-0.111907 -1.75626 3.13435 0 0 0 
-0.0988812 -1.66921 3.13224 0 0 0 
-0.0848245 -1.68922 3.12723 0 0 0 
-0.0859812 -1.77536 3.11484 0 0 0 
-0.0865294 -1.72957 3.12917 0 0 0 
-0.139644 -1.5804 3.15977 0 0 0 
-0.0964373 -1.76202 3.1339 0 0 0 
-0.107321 -1.50122 3.15073 0 0 0 
-0.122458 -1.59466 3.16155 0 0 0 
-0.314043 -0.844859 3.28876 0 0 0 
-0.312749 -0.851834 3.2954 0 0 0 
-0.0834323 -1.65782 3.11395 0 0 0 
-0.390987 -0.568902 3.09587 0 0 0 
-0.379121 -0.331757 2.85983 65 71 192 
-0.34275 0.111527 2.79685 60 58 59 
-0.0772423 -1.69123 3.11899 0 0 0 
-0.334656 -0.0788745 3.41161 0 0 0 
-0.0955088 -1.75492 3.12377 0 0 0 
-0.125631 -1.52822 3.09792 0 0 0 
-0.123643 -1.49295 3.0979 0 0 0 
-0.167464 -1.05568 2.98204 0 0 0 
-0.263945 -0.899557 2.98937 0 0 0 
-0.449467 1.14061 2.92592 61 252 69 
-0.443084 -0.358519 3.11435 0 0 0 
-0.479492 -0.263005 3.03218 0 0 0 
-0.0906581 -1.78536 3.10206 0 0 0 
-0.0900842 -1.63034 3.05536 0 0 0 
-0.118962 -1.58004 3.11365 0 0 0 
-0.129482 -1.5402 3.09868 0 0 0 
-0.128021 -1.49753 3.11051 0 0 0 
-0.122614 -1.71943 3.1215 0 0 0 
-0.0513767 -1.59549 3.06679 0 0 0 
-0.136951 -1.55408 3.10467 0 0 0 
-0.0374107 -1.60333 3.0631 0 0 0 
-0.117611 -1.49666 3.10978 0 0 0 
-0.13796 -1.48842 3.12986 0 0 0 
-0.14418 -1.48227 3.13485 0 0 0 
-0.163085 -1.1005 2.99819 0 0 0 
-0.306784 -0.893357 3.13578 0 0 0 
-0.178381 -0.893367 2.94577 64 46 47 
-0.273495 -0.802276 2.96298 53 203 51 
-0.236364 -0.662506 2.86658 39 254 38 
-0.422392 -0.341153 2.99121 30 254 47 
-0.269643 -0.196776 3.50093 0 0 0 
-0.473869 0.0129175 3.11758 0 0 0 
-0.381784 0.855821 3.38253 0 0 0 
-0.400236 0.861282 3.35126 0 0 0 
-0.394481 0.869179 3.37362 0 0 0 
-0.404237 0.870486 3.35527 0 0 0 
-0.426821 0.869223 3.32171 0 0 0 
-0.392743 0.883787 3.37521 0 0 0 
-0.408784 0.87823 3.34488 0 0 0 
-0.416343 0.88029 3.33121 0 0 0 
-0.402847 0.889952 3.34974 0 0 0 
-0.388558 0.898535 3.37087 0 0 0 
-0.406671 0.896269 3.35425 0 0 0 
-0.454517 0.892236 3.28717 0 0 0 
-0.427576 0.904555 3.31085 0 0 0 
-0.392573 0.943386 3.37082 0 0 0 
-0.393961 0.971525 3.39673 0 0 0 
-0.369196 1.07556 3.38335 0 0 0 
-0.0743917 -1.76289 3.1212 0 0 0 
-0.122695 -1.49426 3.14736 0 0 0 
-0.100915 -1.48173 3.17945 0 0 0 
-0.203444 -1.23466 3.12266 0 0 0 
-0.229 -1.08072 3.04834 0 0 0 
-0.164533 -1.05536 2.98341 0 0 0 
-0.213961 -0.990283 2.99495 0 0 0 
-0.220324 -0.816518 2.93916 61 57 254 
-0.309571 -0.745609 3.33401 0 0 0 
-0.293348 -0.704563 3.35813 0 0 0 
-0.299162 -0.633653 2.92328 1 0 254 
-0.381257 -0.623284 3.1145 0 0 0 
-0.347368 -0.552324 2.95172 64 254 63 
-0.40683 -0.548095 3.17362 0 0 0 
-0.387048 -0.541498 3.05552 0 0 0 
-0.362532 -0.523486 2.92091 67 254 64 
-0.413733 -0.514026 3.12425 0 0 0 
-0.394879 -0.333029 2.89625 33 34 254 
-0.492808 -0.134392 3.07554 112 34 34 
-0.145997 -0.0812777 2.71412 255 17 16 
-0.149953 -0.0800995 2.72301 255 15 14 
-0.300208 -0.0027399 3.44754 0 0 0 
-0.245709 0.0123381 2.75116 255 47 47 
-0.397273 0.0362551 2.85151 49 255 46 
-0.215117 0.0910833 2.73735 28 255 29 
-0.483123 0.82446 3.28724 0 0 0 
-0.433465 0.868368 3.30754 0 0 0 
-0.423778 0.890062 3.31808 0 0 0 
-0.4593 0.878649 3.28316 0 0 0 
-0.41284 0.899537 3.33464 0 0 0 
-0.392896 0.965738 3.38521 0 0 0 
0.0436392 1.18066 2.7015 254 42 40 
0.0162778 1.18225 2.69021 39 40 254 
-0.00429407 1.18015 2.69345 35 33 34 
-0.523634 1.11101 3.14277 4 4 4 
-0.269796 1.17841 2.70769 39 37 254 
-0.506288 1.16907 2.96686 12 10 87 
-0.136046 -1.48876 3.14207 0 0 0 
-0.391024 -0.577646 3.19595 0 0 0 
-0.3427 -0.08074 3.43711 0 0 0 
-0.376456 0.0365859 2.8587 255 49 49 
-0.374187 0.465698 3.37472 0 0 0 
-0.372008 0.502369 2.81674 42 41 39 
-0.402272 0.836701 3.38934 0 0 0 
-0.447892 0.824156 3.30927 0 0 0 
-0.139225 -1.62743 3.1501 0 0 0 
-0.143076 -1.6167 3.1666 0 0 0 
-0.286014 -0.904828 3.16928 0 0 0 
-0.29923 -0.792881 2.96701 30 37 114 
-0.330814 -0.649186 2.89344 61 254 58 
-0.391791 -0.653117 3.19322 0 0 0 
-0.292981 -0.650939 3.35221 0 0 0 
-0.278102 -0.246505 2.7583 255 64 57 
-0.268894 -0.221273 3.50462 0 0 0 
-0.215851 -0.107639 2.73659 4 255 14 
-0.222226 -0.0763346 2.74145 10 9 7 
-0.00516652 -0.028347 2.73779 28 255 38 
-0.323391 0.0766414 2.78988 255 38 37 
-0.323488 0.114924 2.79756 44 42 45 
-0.380168 0.116959 2.82893 3 1 2 
-0.242029 0.230283 2.74618 25 25 255 
-0.362187 0.483282 3.36911 0 0 0 
-0.40433 0.825029 3.37125 0 0 0 
-0.387756 0.952411 3.36955 0 0 0 
-0.365157 0.987994 3.40059 0 0 0 
5.51013e-05 -1.78676 3.18146 0 0 0 
-0.100667 -1.59055 3.05784 0 0 0 
-0.110084 -1.59557 3.17053 0 0 0 
-0.120395 -1.4895 3.12999 0 0 0 
0.0334115 -0.225974 2.72358 38 36 255 
-0.390494 0.906873 3.35726 0 0 0 
-0.302781 1.1696 2.70277 31 254 36 
-0.0600405 -1.49951 3.0789 0 0 0 
-0.0900786 -1.77188 3.11448 0 0 0 
-0.0670257 -1.59981 3.06352 0 0 0 
-0.328038 -0.785298 3.29011 0 0 0 
-0.257803 -0.584261 3.3726 0 0 0 
-0.403371 0.837164 3.36514 0 0 0 
-0.28962 1.00142 3.46985 0 0 0 
-0.0926599 -1.62028 3.16653 0 0 0 
-0.0840619 -1.72432 3.12664 0 0 0 
-0.114718 -1.75533 3.13735 0 0 0 
-0.100357 -1.74232 3.13314 0 0 0 
-0.132395 -1.59694 3.1497 0 0 0 
-0.126854 -1.58689 3.16304 0 0 0 
-0.0780818 -1.52087 3.13532 0 0 0 
-0.404902 -0.0228899 3.38468 0 0 0 
-0.115255 -1.59427 3.18327 0 0 0 
0.118819 -0.194682 2.71467 51 49 50 
-0.247502 1.18735 2.71489 189 67 67 
-0.0765186 -1.74508 3.10674 0 0 0 
-0.0716572 -1.60141 3.11597 0 0 0 
-0.0912449 -1.59653 3.14858 0 0 0 
-0.087971 -1.5173 3.14997 0 0 0 
-0.0999118 -1.49703 3.16885 0 0 0 
-0.299124 -0.237827 3.47995 0 0 0 
-0.27724 -0.188533 3.51236 0 0 0 
0.0968831 -0.194551 2.71398 255 63 62 
-0.100789 -1.78163 3.13783 0 0 0 
-0.0881253 -1.76315 3.10635 0 0 0 
-0.400632 0.887582 3.36178 0 0 0 
-0.509509 1.11641 3.15032 4 4 4 
-0.313504 -0.817008 3.09313 0 0 0 
-0.394603 -0.607787 3.15087 0 0 0 
-0.0954526 -1.74126 3.137 0 0 0 
-0.365767 0.117421 2.83448 3 1 2 
-0.321495 -0.742954 3.327 0 0 0 
-0.39315 0.85292 3.37665 0 0 0 
-0.436367 0.857286 3.30427 0 0 0 
-0.437777 0.883248 3.30135 0 0 0 
-0.414839 0.939922 3.33343 0 0 0 
-0.379698 1.07299 3.3782 0 0 0 
-0.0791354 -1.73642 3.11711 0 0 0 
-0.20929 -0.870729 2.95302 0 0 0 
-0.155901 -0.703974 2.8245 51 254 60 
-0.299322 -0.656208 2.90296 65 61 60 
-0.442718 -0.0468723 3.31696 0 0 0 
-0.43878 0.178023 3.30469 0 0 0 
-0.454308 0.81597 3.31533 0 0 0 
-0.392297 0.943633 3.37124 0 0 0 
-0.473437 -0.241708 2.99768 89 86 254 
-0.0906474 -1.78415 3.10319 0 0 0 
-0.440186 -0.0655551 2.92465 254 43 42 
-0.118458 -1.77426 3.12987 0 0 0 
-0.397001 -0.648454 3.18463 0 0 0 
-0.491036 -0.0694919 3.08226 0 0 0 
-0.459829 0.865902 3.28672 0 0 0 
-0.130995 -1.56775 3.10306 0 0 0 
-0.0989588 -1.73977 3.13623 0 0 0 
-0.0875757 -1.72827 3.12962 0 0 0 
-0.096468 -1.74811 3.11771 0 0 0 
-0.0879283 -1.68366 3.12456 0 0 0 
-0.0805955 -1.68391 3.11857 0 0 0 
-0.0863764 -1.59392 3.10005 0 0 0 
-0.0823951 -1.74221 3.10078 0 0 0 
-0.0943183 -1.73446 3.13558 0 0 0 
-0.0815656 -1.7281 3.09807 0 0 0 
-0.103548 -1.59334 3.18165 0 0 0 
-0.0791783 -1.51601 3.13657 0 0 0 
-0.108388 -1.62414 3.19106 0 0 0 
-0.0835466 -1.5225 3.1237 0 0 0 
-0.069811 -1.51486 3.09007 0 0 0 
-0.0888167 -1.56216 3.13475 0 0 0 
-0.0793267 -1.56151 3.09863 0 0 0 
-0.0718293 -1.53264 3.10225 0 0 0 
-0.0475837 -1.52937 3.13441 0 0 0 
-0.0866046 -1.71785 3.11542 0 0 0 
-0.107222 -1.61916 3.04718 0 0 0 
-0.176646 -0.0876621 3.54086 0 0 0 
-0.06879 -1.58761 3.13768 0 0 0 
-0.0544809 -1.56343 3.13501 0 0 0 
-0.301428 -0.802561 3.02281 1 1 2 
-0.211328 -0.785549 2.85419 254 36 34 
-0.445616 -0.34195 3.0634 64 62 254 
-0.418778 0.857977 3.33933 0 0 0 
-0.427618 0.857934 3.32426 0 0 0 
-0.417517 0.868397 3.3442 0 0 0 
-0.434137 0.88062 3.31098 0 0 0 
-0.41507 0.902325 3.34667 0 0 0 
-0.434873 0.895504 3.30546 0 0 0 
-0.413671 0.935063 3.34016 0 0 0 
-0.404042 0.950511 3.35382 0 0 0 
-0.419004 1.02404 3.32094 8 6 37 
-0.210137 -1.23242 3.12267 0 0 0 
-0.461925 -0.302879 2.99798 54 50 47 
-0.375946 0.0531182 3.39913 0 0 0 
-0.416631 0.816708 3.37032 0 0 0 
-0.41642 0.822155 3.37856 0 0 0 
-0.445598 0.855532 3.29359 0 0 0 
-0.422705 0.906313 3.32507 0 0 0 
-0.442894 0.924694 3.29262 0 0 0 
-0.420394 1.05134 3.32181 42 40 34 
-0.413051 1.07988 3.32572 46 222 64 
-0.491382 1.18739 2.96114 60 53 254 
-0.432126 -0.149657 3.35294 0 0 0 
-0.467804 1.21011 3.48234 0 0 0 
-0.53658 1.21465 3.00763 250 25 25 
-0.107409 -1.73214 3.10219 0 0 0 
-0.0985422 -1.6198 3.19075 0 0 0 
-0.295903 -0.791355 2.97939 253 62 58 
-0.364686 0.0953524 2.83626 255 40 39 
-0.397548 0.839567 3.39124 0 0 0 
-0.41681 0.922851 3.32826 0 0 0 
-0.384389 0.955173 3.38814 0 0 0 
-0.422005 1.04321 3.31286 37 36 31 
-0.44651 0.906512 3.29045 0 0 0 
-0.387691 0.986653 3.39202 0 0 0 
-0.572718 1.20982 3.29559 68 63 255 
-0.479709 0.851584 3.30534 0 0 0 
-0.106796 -1.78758 3.13163 0 0 0 
-0.0918113 -1.71991 3.12597 0 0 0 
-0.0924901 -1.69154 3.12355 0 0 0 
-0.0889565 -1.66818 3.13333 0 0 0 
-0.101636 -1.73657 3.14353 0 0 0 
-0.0984688 -1.76608 3.14872 0 0 0 
-0.111452 -1.71865 3.15734 0 0 0 
-0.0879768 -1.78595 3.0976 0 0 0 
-0.073157 -1.73101 3.10875 0 0 0 
-0.0984423 -1.73728 3.14991 0 0 0 
-0.0854157 -1.55266 3.13404 0 0 0 
-0.0602259 -1.51709 3.10876 0 0 0 
-0.0855329 -1.51527 3.14288 0 0 0 
-0.0503244 -1.51856 3.10495 0 0 0 
-0.0639289 -1.55196 3.10801 0 0 0 
-0.0758194 -1.52779 3.12933 0 0 0 
-0.0916234 -1.78661 3.0962 0 0 0 
-0.0795337 -1.69162 3.11878 0 0 0 
-0.0837946 -1.74924 3.11987 0 0 0 
-0.0715486 -1.53342 3.12228 0 0 0 
-0.044499 -1.60823 3.08038 0 0 0 
-0.114931 -1.61684 3.1638 0 0 0 
-0.0901977 -1.74554 3.14045 0 0 0 
-0.0944021 -1.78364 3.12623 0 0 0 
-0.0465512 -1.61039 3.07513 0 0 0 
-0.103747 -1.78246 3.13402 0 0 0 
-0.0934044 -1.75958 3.14711 0 0 0 
-0.0575145 -1.64265 3.05813 0 0 0 
-0.0840602 -1.7399 3.10001 0 0 0 
-0.096562 -1.77035 3.1429 0 0 0 
-0.0545131 -1.64283 3.05254 0 0 0 
-0.095373 -1.58928 3.17917 0 0 0 
-0.0867429 -1.70378 3.11246 0 0 0 
-0.0846202 -1.68617 3.11416 0 0 0 
-0.091931 -1.76425 3.11967 0 0 0 
-0.0617176 -1.64354 3.04443 0 0 0 
-0.068935 -1.52148 3.10116 0 0 0 
-0.0816857 -1.76497 3.09468 0 0 0 
-0.0887035 -1.67345 3.14385 0 0 0 
-0.0805742 -1.68004 3.09516 0 0 0 
-0.0919107 -1.74847 3.12493 0 0 0 
-0.0668399 -1.61592 3.06222 0 0 0 
-0.113306 -1.78818 3.12475 0 0 0 
-0.110026 -1.68076 3.12092 0 0 0 
-0.0878586 -1.53714 3.11204 0 0 0 
-0.0513481 -1.52978 3.1143 0 0 0 
-0.105705 -1.52103 3.13092 0 0 0 
-0.0488574 -1.52574 3.10881 0 0 0 
-0.0739678 -1.76483 3.11606 0 0 0 
-0.106905 -1.60335 3.16294 0 0 0 
-0.0868301 -1.69227 3.12779 0 0 0 
-0.079957 -1.69229 3.1192 0 0 0 
-0.0911426 -1.71135 3.12222 0 0 0 
-0.0402443 -1.60349 3.08903 0 0 0 
-0.125761 -1.62499 3.18025 0 0 0 
-0.0887488 -1.80026 3.11938 0 0 0 
-0.0904824 -1.78198 3.12899 0 0 0 
-0.0946876 -1.77071 3.14533 0 0 0 
-0.102769 -1.73178 3.13828 0 0 0 
-0.0398741 -1.60437 3.08679 0 0 0 
-0.0445411 -1.60839 3.06033 0 0 0 
-0.0731067 -1.67445 3.1081 0 0 0 
-0.129232 -1.62643 3.17645 0 0 0 
-0.0768442 -1.68803 3.08997 0 0 0 
-0.0638752 -1.61743 3.06175 0 0 0 
-0.0878258 -1.76277 3.14021 0 0 0 
-0.084616 -1.76109 3.12495 0 0 0 
-0.0924191 -1.78265 3.1268 0 0 0 
-0.0821031 -1.77718 3.12171 0 0 0 
-0.169888 -1.65042 3.13888 0 0 0 
-0.126714 -1.66451 3.13347 0 0 0 
-0.108308 -1.67927 3.13025 0 0 0 
-0.0915308 -1.71295 3.12279 0 0 0 
-0.116712 -1.68589 3.12112 0 0 0 
-0.0532107 -1.74381 3.1218 0 0 0 
-0.0713531 -1.65834 3.12713 0 0 0 
-0.114071 -1.6586 3.1443 0 0 0 
-0.0725174 -1.77051 3.12955 0 0 0 
-0.0943823 -1.77136 3.14104 0 0 0 
-0.0796038 -1.70029 3.13511 0 0 0 
-0.0692812 -1.68549 3.13121 0 0 0 
-0.0717917 -1.7484 3.13036 0 0 0 
-0.0819449 -1.74431 3.13878 0 0 0 
-0.0695257 -1.72447 3.13139 0 0 0 
-0.0706048 -1.71079 3.13225 0 0 0 
-0.0777842 -1.75721 3.13341 0 0 0 
-0.0921482 -1.75479 3.14346 0 0 0 
-0.0607787 -1.74665 3.11543 0 0 0 
-0.0607048 -1.75355 3.12559 0 0 0 
-0.0749131 -1.70155 3.12287 0 0 0 
-0.0577371 -1.70968 3.11006 0 0 0 
