ply                 
format ascii 1.0    
element vertex 1007
property float x    
property float y    
property float z    
property uchar red  
property uchar green
property uchar blue 
end_header          
-0.130121 -0.670417 2.83125 0 0 0 
-0.21715 -0.654593 2.85562 254 56 55 
-0.0902508 -0.585718 2.8052 0 0 0 
-0.0188326 -0.573385 2.816 86 85 81 
-0.0402502 -0.533944 2.80065 36 34 35 
-0.0268951 -0.479132 2.78923 35 33 34 
-0.327067 -0.383812 2.871 43 252 103 
0.0118737 -0.345823 2.75381 74 72 73 
-0.194535 -0.272314 2.73021 254 107 102 
0.0260721 -0.161728 2.7045 0 0 0 
-0.0326239 -0.096217 2.69681 254 83 82 
0.0168872 -0.0854335 2.7024 57 254 58 
-0.17994 -0.0664471 2.7182 254 29 27 
-0.180271 -0.0567943 2.71621 18 16 17 
-0.261076 0.227412 2.74828 22 25 254 
-0.200208 0.232902 2.72034 149 86 89 
0.0604482 0.496549 2.74395 83 79 78 
-0.239855 0.639292 2.73343 41 39 40 
0.194363 0.673684 2.79205 254 44 43 
0.161298 0.674557 2.77043 0 0 0 
-0.320305 0.763558 2.79033 254 28 27 
0.207094 0.841121 2.78607 0 0 0 
0.151442 0.985885 2.74155 58 57 55 
-0.0914823 -1.47971 3.08024 0 0 0 
-0.100706 -1.47981 3.08831 0 0 0 
-0.160843 -1.09398 3.00558 0 0 0 
-0.256683 -0.650635 2.87991 72 250 60 
-0.146657 -0.608466 2.81999 0 0 0 
-0.0903632 -0.584842 2.80492 0 0 0 
-0.0185847 -0.572702 2.81622 0 0 0 
-0.0887878 -0.53202 2.78841 104 98 70 
-0.283646 -0.390459 2.85117 0 0 0 
-0.290372 -0.286429 2.79659 31 28 254 
-0.195399 -0.27322 2.72532 40 24 25 
-0.0425621 -0.16215 2.69889 34 33 31 
0.0261658 -0.161365 2.70219 31 31 33 
-0.0190751 -0.142996 2.69522 3 1 2 
-0.0318218 -0.0963037 2.70186 255 26 24 
-0.396306 -0.087467 2.87137 0 0 0 
0.156411 -0.0985615 2.75109 255 53 52 
0.0240849 -0.0860133 2.7009 55 254 54 
0.0149083 -0.0847366 2.70317 57 53 54 
0.00371221 -0.0807827 2.70059 40 41 254 
-0.212081 -0.0622494 2.72705 37 37 254 
-0.180289 -0.0564831 2.71627 18 16 17 
-0.0813476 -0.0475948 2.70678 83 82 80 
-0.308174 0.0282761 2.78208 20 20 254 
-0.146354 0.0267367 2.72518 254 125 125 
-0.327128 0.296243 2.79445 0 0 0 
-0.122212 0.353427 2.71807 59 61 242 
-0.205139 0.359065 2.72073 23 25 27 
-0.242879 0.42444 2.73505 0 0 0 
-0.36405 0.504473 2.82792 35 33 34 
-0.225858 0.515662 2.72948 23 24 254 
0.0513992 0.549397 2.72457 0 0 0 
-0.299091 0.574519 2.76615 45 46 254 
0.160975 0.674949 2.77005 0 0 0 
-0.320654 0.762044 2.78612 0 0 0 
-0.320862 0.770344 2.78745 0 0 0 
0.208032 0.841549 2.78835 86 254 68 
0.208447 0.86049 2.7839 4 1 1 
-0.105699 0.868376 2.6904 254 49 48 
0.0685301 0.887142 2.69759 69 67 254 
0.208579 0.929307 2.77971 15 45 14 
0.210189 0.940262 2.77854 24 66 21 
0.15171 0.985753 2.74297 0 0 0 
0.156595 -0.0979436 2.75139 11 10 8 
-0.145023 -0.0564007 2.72645 99 97 98 
-0.151573 0.073449 2.72561 254 51 51 
-0.355362 0.0982468 2.82194 32 254 56 
-0.146303 0.354144 2.72284 65 63 64 
0.208295 0.861256 2.78633 62 254 65 
-0.0959384 -1.48177 3.08147 0 0 0 
-0.0403826 -0.775579 2.8718 0 0 0 
-0.157376 -0.652754 2.81787 36 254 35 
0.0141733 -0.187978 2.69936 0 0 0 
-0.271385 -0.127216 2.75876 0 0 0 
-0.149985 -0.0822312 2.71777 19 19 254 
0.0270933 -0.0836906 2.70033 85 86 254 
0.0782569 -0.0807601 2.71922 1 1 1 
-0.145318 0.0259463 2.7255 0 0 0 
-0.14454 0.0976864 2.72363 17 18 254 
-0.186316 0.110783 2.71593 255 36 35 
-0.126012 0.723028 2.71825 42 37 255 
-0.0958079 0.781395 2.71274 254 37 36 
-0.00516114 -0.622255 2.83357 0 0 0 
-0.0785363 -0.0338278 2.71679 73 254 63 
0.0905004 -0.0337512 2.74249 59 62 255 
0.0272359 -0.20008 2.6987 0 0 0 
-0.0951034 -0.0820133 2.70076 254 77 72 
0.0103988 -0.0745495 2.70054 40 38 39 
-0.130084 -0.671137 2.84008 0 0 0 
-0.124345 -0.657018 2.82295 0 0 0 
0.125243 -0.666005 2.88682 254 85 81 
-0.130844 -0.613825 2.81496 0 0 0 
-0.147786 -0.608742 2.82682 0 0 0 
0.0312159 0.574623 2.71827 254 39 38 
0.253343 0.634105 2.85118 254 86 82 
0.229261 0.64549 2.82661 254 55 54 
0.259813 0.651202 2.85764 254 92 88 
0.271653 0.661587 2.87339 70 69 254 
0.212546 0.654144 2.80821 41 39 33 
0.234466 0.657916 2.83164 60 59 55 
0.226498 0.663253 2.82057 28 27 23 
0.260304 0.67435 2.86133 94 91 254 
0.212294 0.67367 2.80679 71 254 80 
0.16639 0.676832 2.77154 71 254 71 
0.208115 0.689253 2.80298 7 3 68 
0.188245 0.69092 2.78874 0 0 0 
0.242366 0.703309 2.8375 89 85 254 
0.219438 0.703721 2.81356 48 249 48 
0.210345 0.704339 2.80585 140 47 47 
0.180756 0.704063 2.78246 0 0 0 
0.305217 0.818546 2.90854 69 66 59 
0.307858 0.82938 2.91099 99 254 72 
0.283303 0.842232 2.87223 255 68 67 
0.248793 0.842454 2.82397 90 86 87 
0.278457 0.855005 2.85141 86 83 254 
0.262846 0.853022 2.834 254 69 68 
0.280799 0.865426 2.84964 88 84 81 
0.198049 0.850889 2.77574 0 0 0 
0.215184 0.854271 2.78784 4 12 4 
0.172146 0.852021 2.75845 72 70 254 
0.257221 0.864581 2.82275 85 254 84 
0.245022 0.867118 2.81046 59 253 65 
0.216735 0.864702 2.78611 6 5 13 
0.193456 0.862806 2.76978 0 0 0 
0.183554 0.863741 2.76132 0 0 0 
0.284355 0.909758 2.84935 87 86 82 
0.252133 0.903302 2.81555 98 96 254 
0.254089 0.913644 2.81735 73 72 68 
0.287141 0.92598 2.85508 255 68 69 
0.291888 0.93183 2.86272 68 67 62 
0.243615 0.929719 2.8071 76 74 255 
0.221016 0.927367 2.78749 135 39 37 
0.283128 0.946756 2.85451 73 255 68 
0.209221 0.928952 2.77917 52 17 17 
0.306531 0.957146 2.88415 64 255 65 
0.260131 0.944758 2.82507 66 64 255 
0.242347 0.940738 2.80565 254 89 88 
0.210223 0.940567 2.77862 21 68 19 
0.232741 0.946986 2.79917 56 57 249 
0.188514 0.954123 2.76436 80 254 88 
0.22517 1.20212 2.69934 80 20 18 
-0.0866606 -1.76412 3.13424 0 0 0 
-0.0936781 -1.75215 3.13228 0 0 0 
-0.0859106 -1.54254 3.07121 0 0 0 
0.0140093 -1.09916 2.98694 0 0 0 
0.228924 -0.737398 2.99731 64 63 61 
0.30499 -0.679568 3.13313 47 43 42 
0.310169 -0.647293 3.15129 36 36 36 
-0.28509 -0.39052 2.86127 0 0 0 
-0.313144 -0.323085 2.8424 0 0 0 
0.206348 -0.30432 2.80726 255 59 60 
0.254054 -0.283491 2.86675 64 62 255 
-0.286615 -0.240927 2.77776 0 0 0 
-0.293274 -0.2359 2.77428 0 0 0 
0.251429 -0.252987 2.83091 255 73 72 
0.361709 -0.0483658 3.10161 51 50 48 
0.349931 -0.0278623 3.1021 69 67 255 
-0.301758 0.0210621 2.77581 40 42 254 
-0.149285 0.0886037 2.71858 1 1 0 
-0.0716574 0.23062 2.71818 77 78 254 
-0.119416 0.361706 2.72571 57 57 255 
-0.000495273 0.407652 2.73088 0 0 0 
0.143385 0.422082 2.76365 46 43 254 
0.202582 0.604993 2.80269 66 65 61 
0.220892 0.628593 2.81691 68 65 60 
0.201113 0.683225 2.79914 0 0 0 
0.221653 0.844061 2.79749 29 89 28 
0.24433 0.848001 2.81767 81 77 74 
0.223885 0.852774 2.79513 30 27 23 
0.180661 0.852198 2.76485 0 0 0 
0.261921 0.873491 2.82913 94 89 254 
0.238951 0.872583 2.80605 87 83 80 
0.223185 0.900652 2.78802 35 34 77 
0.260316 0.928477 2.82634 78 255 80 
0.261708 0.955404 2.82566 254 41 40 
0.187768 0.943362 2.76302 10 3 3 
0.15155 0.985347 2.73941 254 76 76 
0.18635 1.18718 2.6645 254 40 39 
0.143302 -0.190118 2.74745 0 0 0 
0.164537 -0.0473727 2.76651 255 39 38 
-0.326586 0.0789957 2.79774 22 255 33 
0.21711 0.93514 2.78241 58 60 55 
0.235772 1.20087 2.69268 25 21 18 
0.184859 1.19694 2.6652 28 26 254 
-0.0703949 -1.66329 3.11467 0 0 0 
-0.0909086 -1.5769 3.07184 0 0 0 
-0.0226471 -1.56366 3.09609 0 0 0 
-0.116225 -1.48415 3.12123 0 0 0 
-0.114255 -0.656708 2.82553 0 0 0 
-0.15683 -0.652292 2.81741 36 254 35 
-0.235507 -0.107594 2.73628 44 43 39 
-0.0584723 -0.0793818 2.70518 64 254 68 
0.109851 -0.0819312 2.72477 87 88 255 
0.155859 -0.0803857 2.75019 33 255 43 
0.170266 -0.0756233 2.75435 48 46 255 
0.289694 0.825788 2.8908 254 87 84 
0.205746 0.884159 2.77124 59 54 254 
-0.286165 1.19414 2.73974 0 0 0 
-0.0561178 -1.72924 3.1434 0 0 0 
-0.156013 0.112765 2.7207 1 0 0 
-0.0820636 -1.68137 3.13226 0 0 0 
-0.0588697 -1.56107 3.08385 0 0 0 
-0.112847 -1.46561 3.08053 0 0 0 
-0.0138622 -1.46836 3.11304 0 0 0 
0.147775 -0.796724 2.96094 254 58 57 
-0.0939098 -0.0815518 2.68884 254 77 72 
-0.0754179 -0.0733116 2.70163 67 66 64 
-0.098827 -1.69287 3.07721 0 0 0 
-0.0830011 -1.56609 3.06302 0 0 0 
-0.127158 -1.58718 3.11703 0 0 0 
-0.100153 1.12371 2.66547 254 64 63 
-0.243834 -0.0753947 2.74356 255 20 20 
-0.0519579 -1.71236 3.11823 0 0 0 
-0.0704315 -1.70242 3.13371 0 0 0 
-0.111429 -1.48269 3.11734 0 0 0 
-0.0673856 -1.64941 3.13228 0 0 0 
0.218521 0.691383 2.81414 33 247 35 
0.205817 0.853591 2.78085 1 1 1 
0.284646 0.881784 2.85185 254 89 85 
0.196061 0.888952 2.76799 0 0 0 
0.226454 0.913081 2.79164 39 173 42 
0.157036 0.983555 2.74645 48 51 254 
0.185441 1.19255 2.67806 76 18 19 
0.244243 1.19623 2.71049 35 36 32 
-0.070171 -1.67891 3.12807 0 0 0 
0.360427 -0.0497338 3.20921 53 50 255 
0.187646 0.857922 2.76759 0 0 0 
0.25004 0.861058 2.8197 81 82 77 
0.230636 0.879324 2.79537 51 137 54 
0.277187 0.922437 2.84202 73 254 83 
0.236858 0.935731 2.80519 73 254 66 
0.226393 0.696705 2.8196 254 66 65 
0.226731 0.702583 2.84483 67 60 254 
0.296795 0.841687 2.87986 53 254 45 
0.256267 0.847474 2.82713 254 99 98 
0.291534 0.886869 2.85818 71 66 254 
0.271943 0.841416 2.84989 54 42 254 
0.208599 0.953135 2.77931 28 26 87 
0.184808 1.20165 2.67805 5 4 19 
-0.0906084 -1.72339 3.1247 0 0 0 
-0.0797385 -1.69581 3.12588 0 0 0 
-0.115183 -1.4737 3.09546 0 0 0 
-0.0823143 -1.6485 3.12462 0 0 0 
-0.0524831 -1.50511 3.13037 0 0 0 
0.218796 0.966895 2.78678 66 61 59 
0.18539 0.876145 2.76263 0 0 0 
-0.0830876 -1.69938 3.13239 0 0 0 
0.370336 -0.233539 3.16906 47 47 255 
0.129143 -0.437263 2.80949 68 75 111 
0.0208088 -0.161958 2.71067 0 0 0 
-0.00443345 0.352672 2.73688 0 0 0 
0.336439 0.355378 2.99761 36 254 63 
-0.00384842 0.39406 2.73667 0 0 0 
-0.00445577 0.40924 2.73708 0 0 0 
0.256083 0.648466 2.8538 82 254 94 
0.304952 0.654 2.92329 63 60 55 
0.309998 0.655437 2.93394 66 63 58 
0.296229 0.653161 2.90738 82 254 85 
0.278854 0.653167 2.88206 64 63 59 
0.292017 0.663134 2.90146 254 76 73 
0.314006 0.669195 2.93821 71 67 254 
0.212538 0.661313 2.80692 76 70 72 
0.255968 0.669342 2.85381 78 75 254 
0.193659 0.674476 2.79284 254 44 43 
0.239297 0.69967 2.83358 60 59 55 
0.332463 0.824719 2.96744 37 34 29 
0.30024 0.817207 2.90309 74 254 76 
0.316189 0.823071 2.92504 254 65 62 
0.312293 0.825343 2.91553 44 40 254 
0.296494 0.823721 2.8908 72 71 66 
0.332329 0.83326 2.95323 254 49 45 
0.32901 0.837081 2.93172 72 254 81 
0.335429 0.843036 2.95412 63 254 63 
0.306944 0.841768 2.89663 70 254 73 
0.347397 0.853528 2.96693 42 254 55 
0.206368 0.84121 2.78506 254 65 64 
0.319282 0.850792 2.91112 59 54 48 
0.330774 0.852536 2.92651 50 254 53 
0.271111 0.849125 2.84335 254 55 54 
0.298917 0.852137 2.87711 254 72 68 
0.342226 0.863485 2.95498 36 30 30 
0.261526 0.854146 2.83647 70 69 67 
0.252274 0.852688 2.82085 254 85 85 
0.192798 0.853804 2.77211 0 0 0 
0.334275 0.866114 2.92912 28 254 49 
0.32175 0.866678 2.90572 47 43 34 
0.35119 0.877173 2.96052 40 31 254 
0.298955 0.866652 2.87155 254 80 77 
0.181278 0.864958 2.76334 68 66 67 
0.267397 0.867693 2.8336 75 74 70 
0.343884 0.879606 2.94257 30 254 42 
0.329716 0.879255 2.91571 59 55 46 
0.313621 0.879551 2.89025 54 254 61 
0.330699 0.890205 2.91403 254 57 53 
0.359244 0.902519 2.98077 43 254 73 
0.315648 0.890325 2.89017 254 71 67 
0.34767 0.901237 2.95117 47 254 51 
0.319874 0.896306 2.89818 47 44 35 
0.337382 0.900513 2.92509 254 42 37 
0.254972 0.889556 2.81585 254 68 67 
0.355104 0.912448 2.96747 48 43 39 
0.335447 0.912198 2.92197 254 52 47 
0.340464 0.914369 2.93416 52 47 43 
0.320253 0.910917 2.89732 254 58 55 
0.296137 0.908894 2.86356 80 254 86 
0.282087 0.915746 2.84721 85 84 254 
0.340552 0.928692 2.93416 40 35 29 
0.333077 0.930861 2.91934 254 53 48 
0.324823 0.929203 2.90363 69 64 254 
0.258643 0.922822 2.81969 254 80 79 
0.202547 0.927429 2.77329 23 7 7 
0.283637 0.928954 2.84704 75 254 84 
0.293219 0.930455 2.8612 80 254 89 
0.271184 0.930187 2.83461 82 79 254 
0.358201 0.95457 2.98466 50 39 254 
0.333378 0.94279 2.91944 254 81 78 
0.32166 0.942491 2.89856 47 44 39 
0.326908 0.945601 2.90977 44 41 36 
0.298085 0.942862 2.86503 77 74 69 
0.307829 0.945225 2.88019 41 36 254 
0.270841 0.941832 2.83407 79 78 254 
0.318855 0.957933 2.8984 41 254 52 
0.283201 0.954505 2.84743 85 82 254 
0.300235 0.956852 2.87099 70 67 254 
0.319106 0.968081 2.89747 68 65 254 
0.300988 0.967358 2.87062 48 41 254 
0.217117 0.96788 2.78922 41 254 51 
0.259918 0.967451 2.82286 254 67 66 
0.247847 1.0193 2.80499 54 52 254 
0.14674 -0.474175 2.81688 40 198 40 
-0.00529564 -0.0857609 2.70742 0 0 0 
-0.154251 0.0276329 2.73607 0 0 0 
0.307209 0.645015 2.92967 254 93 90 
0.29169 0.643069 2.90232 74 73 68 
0.209904 0.68414 2.80889 41 149 41 
0.19771 0.690174 2.79558 254 58 54 
0.245045 0.697485 2.84273 254 57 53 
0.213676 0.697718 2.80989 72 71 68 
0.319687 0.838831 2.92714 254 84 83 
0.310143 0.83857 2.90512 69 68 64 
0.355587 0.855377 2.99966 50 254 54 
0.331236 0.84912 2.94259 91 92 87 
0.28322 0.84079 2.86669 80 77 70 
0.257506 0.842428 2.83321 46 42 41 
0.216803 0.84863 2.79295 23 8 8 
0.326055 0.859743 2.9221 66 254 73 
0.331037 0.872953 2.92363 254 60 56 
0.202422 0.864233 2.77618 74 254 65 
0.340313 0.886038 2.93643 254 47 43 
0.212892 0.875206 2.78149 59 254 65 
0.194027 0.878691 2.76956 0 0 0 
0.282229 0.884604 2.84535 79 78 74 
0.337935 0.921272 2.92714 77 72 254 
0.214834 0.922946 2.78499 61 60 58 
0.265188 0.923833 2.82921 74 254 78 
0.355997 0.942601 2.96899 53 49 254 
0.203914 0.935848 2.77637 70 65 254 
0.326542 0.954799 2.90806 27 254 38 
0.339211 0.967384 2.93352 49 254 55 
0.185511 -0.340308 2.79938 67 254 65 
0.302536 0.671816 2.91634 62 57 254 
0.181799 0.696883 2.78387 0 0 0 
0.274367 0.860678 2.84544 45 44 40 
0.31537 0.872604 2.90174 73 68 254 
0.365774 0.929365 3.00521 43 254 48 
0.226082 0.92062 2.79174 64 254 59 
0.327838 0.963511 2.9024 71 254 76 
0.00943598 -0.188037 2.7047 0 0 0 
0.00381004 -0.0790197 2.70961 0 0 0 
-0.00203507 -0.0342678 2.73182 0 0 0 
-0.164259 0.114464 2.72882 0 0 0 
0.27099 0.841955 2.85129 69 65 254 
0.177222 0.85168 2.76224 0 0 0 
0.337003 0.864133 2.94586 37 29 254 
0.328283 0.825198 2.95726 51 48 254 
0.239806 0.915464 2.80949 83 82 78 
0.359842 -0.0515561 3.25147 12 8 5 
0.198128 0.942912 2.77117 45 44 42 
0.323031 0.886839 2.91171 254 42 37 
0.378124 -0.0534459 3.22568 12 8 5 
-0.130722 0.629448 2.72387 0 0 0 
-0.0966963 -1.50277 3.1046 0 0 0 
-0.0536943 -1.66708 3.13369 0 0 0 
0.24145 0.691587 2.83823 78 75 254 
0.315803 0.842668 2.91214 254 77 74 
0.345331 0.842446 2.97103 72 68 65 
0.343742 0.855395 2.95771 54 47 39 
0.352463 0.87285 2.9652 25 254 42 
0.286631 0.90626 2.85276 88 84 254 
0.359663 0.911765 2.98056 41 254 52 
0.317889 0.930479 2.89493 254 54 51 
0.305271 0.949931 2.8753 60 57 52 
0.32414 0.949651 2.9053 254 50 47 
0.252225 1.21502 2.71224 22 19 132 
0.286068 0.654292 2.91323 254 83 80 
0.347709 0.853406 2.96782 254 51 46 
0.353154 0.867393 2.98073 44 35 28 
0.272523 0.872848 2.83823 79 254 91 
0.338584 0.871107 2.93407 43 39 30 
0.326651 0.872309 2.91054 37 254 53 
0.321378 0.908496 2.89866 48 45 254 
0.348233 0.912578 2.95108 254 35 30 
0.33629 0.922896 2.9305 254 58 53 
0.363581 0.931936 3.01301 254 45 40 
0.222041 0.953386 2.79088 54 217 95 
0.328276 0.937799 2.91472 45 41 254 
0.264106 0.949957 2.82928 79 77 254 
0.223682 0.698069 2.82108 254 66 65 
0.289222 0.823236 2.87828 66 254 56 
0.251693 0.872033 2.81366 91 87 84 
0.3198 0.884948 2.8971 254 62 55 
0.341994 0.910414 2.94375 40 254 49 
0.330478 0.902439 2.91485 254 58 53 
0.350843 0.904707 2.97129 40 254 51 
0.267646 0.920066 2.83221 75 254 81 
0.289476 0.920268 2.85503 75 71 68 
0.325655 0.965335 2.90583 57 53 50 
-0.0888259 -1.68228 3.13979 0 0 0 
0.177105 0.674071 2.78307 0 0 0 
0.334134 0.663915 2.99324 69 254 83 
0.213154 0.833185 2.79559 8 6 16 
0.32267 0.83402 2.93205 58 58 50 
0.331137 0.852382 2.93192 254 37 32 
0.332072 0.887459 2.91953 47 42 36 
0.222968 0.914751 2.79407 39 173 42 
0.340065 0.899807 2.93169 43 254 52 
0.325608 0.901351 2.90501 49 44 38 
0.368404 0.912513 3.01503 86 76 74 
0.338311 0.962063 2.92863 56 51 254 
0.244031 -0.242605 2.83388 253 50 50 
0.2594 -0.240703 2.85408 74 72 73 
0.278896 0.665565 2.88671 71 72 67 
0.29716 0.665148 2.91136 68 254 89 
0.320558 0.848007 2.91806 64 254 59 
0.359079 0.878348 2.98194 48 44 35 
0.347274 0.885193 2.94752 55 51 42 
0.367794 0.922224 3.00912 56 254 70 
0.356204 0.931094 2.96961 36 254 47 
0.310585 0.950772 2.88492 254 52 49 
0.262888 0.963051 2.82884 76 72 71 
0.36102 0.976427 2.98239 254 47 44 
0.371843 1.05923 3.2623 23 18 254 
0.239826 -0.33997 2.91701 72 69 254 
0.299809 0.672538 2.91819 62 57 254 
0.351981 0.936487 2.96223 25 254 36 
0.276087 0.95199 2.84259 85 254 106 
0.30415 0.964292 2.87833 51 254 66 
-0.0829834 -1.6737 3.15174 0 0 0 
0.306988 0.814184 2.91323 49 42 254 
0.341932 0.861716 2.94245 37 29 254 
0.188262 0.941338 2.80084 34 123 38 
-0.0802348 -1.76182 3.14441 0 0 0 
-0.0714783 -1.72118 3.13119 0 0 0 
0.185612 1.18627 2.68906 32 9 9 
-0.0702804 -1.76531 3.13513 0 0 0 
-0.0563647 -1.75796 3.13412 0 0 0 
0.466644 -0.0420575 3.25438 31 27 24 
-0.06265 -1.70292 3.13454 0 0 0 
-0.0464286 -1.71822 3.13797 0 0 0 
-0.0748439 -1.76909 3.13174 0 0 0 
-0.0799637 -1.75804 3.13528 0 0 0 
-0.086378 -1.75018 3.136 0 0 0 
-0.0860742 -1.72469 3.13484 0 0 0 
-0.0949285 -1.72876 3.1358 0 0 0 
-0.0815794 -1.79025 3.1284 0 0 0 
-0.0877209 -1.68647 3.12848 0 0 0 
-0.0783079 -1.68525 3.12317 0 0 0 
-0.093079 -1.77462 3.12879 0 0 0 
-0.0677971 -1.75364 3.12565 0 0 0 
-0.0788848 -1.74213 3.12729 0 0 0 
-0.0823015 -1.65334 3.13373 0 0 0 
-0.122969 -1.49266 3.14336 0 0 0 
-0.123531 0.879731 2.6951 23 254 30 
-0.0922805 -1.6626 3.1371 0 0 0 
-0.120325 -1.64251 3.14865 0 0 0 
-0.10965 -1.57687 3.13252 0 0 0 
-0.243484 -0.659101 2.87341 65 64 60 
-0.101136 -1.50424 3.14343 0 0 0 
-0.286817 -0.0880962 2.76538 254 22 21 
-0.313693 0.0154454 2.7835 254 44 44 
-0.0980091 -1.59155 3.14286 0 0 0 
-0.0991828 -1.66803 3.14327 0 0 0 
-0.101738 -1.72726 3.14351 0 0 0 
-0.162119 -1.05011 2.99008 0 0 0 
-0.20342 -0.999187 3.00943 0 0 0 
-0.192418 -0.976613 2.99058 0 0 0 
-0.15141 -0.965056 2.95826 0 0 0 
-0.153971 -0.890122 2.93017 0 0 0 
-0.174456 -0.868082 2.93562 0 0 0 
-0.132372 -0.603312 2.81446 44 42 254 
-0.266515 -0.434076 2.84837 48 46 254 
-0.308003 -0.312135 2.822 79 75 72 
-0.176563 -1.05331 3.01151 0 0 0 
-0.194493 -1.04273 3.02093 0 0 0 
-0.12131 -1.01851 2.95443 0 0 0 
-0.193774 -0.994276 2.99918 0 0 0 
-0.220399 -0.918621 2.98791 0 0 0 
-0.209408 -0.881974 2.96828 0 0 0 
-0.145102 -0.886428 2.92091 0 0 0 
-0.251631 -0.859849 2.98849 0 0 0 
-0.234429 -0.861758 2.97509 0 0 0 
-0.248591 -0.838104 2.9759 0 0 0 
-0.440595 -0.0425304 3.29746 0 0 0 
-0.378652 0.00709706 2.84386 34 34 34 
-0.379603 0.261799 2.84518 254 33 31 
-0.245524 -0.883218 2.99339 0 0 0 
-0.159886 -0.651631 2.81471 254 55 51 
-0.16245 -0.874239 2.92721 0 0 0 
-0.376012 0.118228 2.85335 52 53 254 
-0.0829097 -1.7919 3.13491 0 0 0 
-0.0759538 -1.73791 3.12947 0 0 0 
-0.0873088 -1.65008 3.12595 0 0 0 
-0.255346 -0.900388 2.99384 0 0 0 
-0.182216 -0.878516 2.94076 0 0 0 
-0.24559 -0.869603 2.98038 0 0 0 
-0.267264 -0.819153 2.96986 0 0 0 
-0.296321 -0.809272 3.04497 0 0 0 
-0.326878 -0.786686 3.12587 0 0 0 
0.168606 -0.740719 2.91579 254 46 42 
0.159587 -0.701173 2.90025 32 255 35 
-0.333833 -0.628979 2.96639 0 0 0 
-0.359669 -0.600921 3.04068 0 0 0 
-0.353638 -0.550761 2.9694 0 0 0 
-0.392618 -0.525973 3.10404 0 0 0 
-0.398908 -0.429892 3.01258 0 0 0 
-0.440864 -0.349507 3.10963 0 0 0 
-0.365162 -0.316671 2.85844 41 39 42 
-0.480023 -0.233329 3.03099 0 0 0 
0.020456 -0.0832084 2.712 57 53 54 
-0.431691 0.522441 3.03804 0 0 0 
-0.451299 1.14279 2.91728 4 22 4 
0.0229486 -1.14575 2.99952 0 0 0 
-0.27645 -0.795313 2.96647 0 0 0 
-0.318452 -0.789346 3.11933 0 0 0 
-0.328061 -0.770136 3.3037 0 0 0 
-0.333643 -0.745495 3.18256 0 0 0 
0.182725 -0.784577 2.93923 84 81 254 
-0.303791 -0.693066 2.91452 0 0 0 
-0.378528 -0.634354 3.1542 0 0 0 
-0.160055 -0.599172 2.81834 254 37 36 
-0.249454 -0.580864 2.87693 254 51 50 
-0.372287 -0.5701 3.05722 0 0 0 
-0.401794 -0.52282 3.13551 0 0 0 
-0.400039 -0.515099 3.12948 0 0 0 
-0.384807 -0.435824 2.95249 0 0 0 
-0.411721 -0.427021 3.06119 0 0 0 
0.14766 -0.46579 2.83263 52 255 57 
-0.361495 -0.326406 2.86176 76 79 254 
-0.444292 -0.301515 2.99963 0 0 0 
-0.474642 -0.259337 3.0402 0 0 0 
-0.470238 -0.253861 3.02493 0 0 0 
-0.471651 -0.23004 2.9971 0 0 0 
-0.157918 -0.0821637 2.71058 19 19 254 
-0.459463 -0.044081 3.15699 0 0 0 
-0.383262 -0.0256408 3.3601 0 0 0 
0.236321 -0.047806 2.86975 255 66 62 
-0.385999 -0.0138772 2.844 254 54 52 
-0.381343 0.000752332 2.86347 50 50 254 
-0.379632 0.00666785 2.87233 20 20 254 
-0.380983 0.0623052 2.8626 46 44 45 
-0.383065 0.112163 2.86008 62 254 59 
0.0371171 0.188072 2.73556 254 54 50 
-0.380777 0.257325 2.85799 53 51 52 
-0.477008 1.17877 2.98514 0 0 0 
-0.093045 -1.77343 3.13033 0 0 0 
-0.248706 -0.895969 2.98544 0 0 0 
-0.299368 -0.651507 2.91696 0 0 0 
-0.347906 -0.521926 2.93612 0 0 0 
-0.0203931 -0.187607 2.69993 57 56 54 
-0.484223 -0.1411 3.08372 0 0 0 
-0.383009 0.0152687 2.86103 41 47 254 
-0.0765082 -1.73685 3.11104 0 0 0 
-0.0393509 -1.6288 3.06586 0 0 0 
-0.108038 -1.56577 3.0759 0 0 0 
-0.0728923 -1.58983 3.10369 0 0 0 
-0.320239 -0.657066 2.95489 0 0 0 
-0.129397 -0.658564 2.83919 37 33 32 
-0.155714 -0.628542 2.81881 254 42 40 
-0.384788 -0.60073 3.15527 0 0 0 
-0.486969 -0.120789 3.07268 0 0 0 
-0.394797 -0.075978 2.86176 51 254 58 
-0.439662 -0.0689863 2.93174 0 0 0 
-0.157569 -0.0774737 2.72526 254 13 13 
-0.430229 -0.040849 2.93435 0 0 0 
-0.0858756 -1.77871 3.10266 0 0 0 
-0.281361 -0.791949 2.98801 0 0 0 
-0.14661 -0.0786445 2.71461 25 254 30 
-0.371776 0.118545 2.85763 52 53 254 
-0.0722446 -1.76964 3.11617 0 0 0 
-0.286833 -0.712649 2.9386 0 0 0 
0.268905 -0.0831363 2.91645 53 52 50 
-0.408963 -0.21466 3.3591 0 0 0 
0.649563 -0.0968971 3.13261 73 255 81 
-0.0851259 -1.72382 3.1346 0 0 0 
-0.086307 -1.74987 3.13615 0 0 0 
-0.0500295 -1.53221 3.12424 0 0 0 
-0.101716 -1.7769 3.12935 0 0 0 
0.350507 -0.0817416 2.92561 76 255 62 
-0.142331 -1.61762 3.16004 0 0 0 
-0.0608841 -1.51092 3.12645 0 0 0 
-0.0978587 -1.58774 3.13459 0 0 0 
-0.0743605 -1.75798 3.13916 0 0 0 
-0.436741 -0.0625126 2.93377 0 0 0 
-0.286483 1.17841 2.70003 67 252 70 
-0.216937 -1.08487 3.04521 0 0 0 
-0.435559 -0.380205 3.11434 0 0 0 
-0.0859558 -1.74887 3.13356 0 0 0 
-0.328897 -0.676974 3.00631 0 0 0 
-0.337006 -0.60199 2.95005 0 0 0 
-0.409981 -0.509254 3.12968 0 0 0 
-0.382076 -0.500261 3.01938 0 0 0 
-0.488334 -0.130861 3.08256 0 0 0 
-0.0930989 -1.73539 3.14269 0 0 0 
-0.0806362 -1.76305 3.10749 0 0 0 
-0.18734 -0.885847 2.9475 0 0 0 
-0.308232 -0.800891 3.0798 0 0 0 
-0.391565 -0.355647 2.8976 68 254 69 
-0.447827 1.14137 2.93355 61 252 69 
-0.131788 -1.61528 3.17577 0 0 0 
-0.220183 -1.09708 3.06686 0 0 0 
-0.442564 -0.301651 3.00326 0 0 0 
-0.288157 -0.243171 2.76211 70 254 84 
-0.354966 -0.611857 3.05877 0 0 0 
-0.0629703 -1.73905 3.11305 0 0 0 
-0.0754659 -1.54926 3.12576 0 0 0 
-0.0955511 -1.75532 3.1375 0 0 0 
-0.0835598 -1.65091 3.13095 0 0 0 
-0.0826502 -1.77198 3.13188 0 0 0 
-0.109229 -1.74937 3.13891 0 0 0 
-0.0961541 -1.66216 3.13636 0 0 0 
-0.0822864 -1.68244 3.13176 0 0 0 
-0.0836182 -1.76813 3.1194 0 0 0 
-0.0842373 -1.7226 3.13354 0 0 0 
-0.137161 -1.5738 3.1644 0 0 0 
-0.0942494 -1.75489 3.13821 0 0 0 
-0.10536 -1.49463 3.15526 0 0 0 
-0.120423 -1.58781 3.16594 0 0 0 
-0.311368 -0.839852 3.29416 0 0 0 
-0.310046 -0.846821 3.30079 0 0 0 
-0.081187 -1.65124 3.11868 0 0 0 
-0.38909 -0.564318 3.10199 0 0 0 
-0.378131 -0.327474 2.86661 65 71 192 
-0.342185 0.114822 2.80409 60 58 59 
-0.0751422 -1.68441 3.12351 0 0 0 
-0.331758 -0.0756292 3.41774 0 0 0 
-0.0937001 -1.74776 3.12809 0 0 0 
-0.12392 -1.5215 3.10256 0 0 0 
-0.121942 -1.48631 3.10257 0 0 0 
-0.166182 -1.04985 2.98744 0 0 0 
-0.262598 -0.89404 2.99507 0 0 0 
-0.448554 1.14134 2.93412 61 252 69 
-0.441144 -0.354436 3.12075 0 0 0 
-0.477753 -0.259093 3.03892 0 0 0 
-0.0884614 -1.77837 3.10653 0 0 0 
-0.0885349 -1.62335 3.05991 0 0 0 
-0.117197 -1.57323 3.1182 0 0 0 
-0.127762 -1.53345 3.10332 0 0 0 
-0.126273 -1.49089 3.11517 0 0 0 
-0.120788 -1.71232 3.12591 0 0 0 
-0.0498402 -1.58862 3.07127 0 0 0 
-0.135199 -1.5473 3.1093 0 0 0 
-0.0369736 -1.59584 3.06706 0 0 0 
-0.116844 -1.48951 3.11395 0 0 0 
-0.137078 -1.48132 3.13405 0 0 0 
-0.143264 -1.47519 3.13905 0 0 0 
-0.1624 -1.09431 3.00321 0 0 0 
-0.304799 -0.888059 3.14134 0 0 0 
-0.177772 -0.887669 2.95119 64 46 47 
-0.272486 -0.796887 2.96875 53 203 51 
-0.235248 -0.657453 2.8728 39 254 38 
-0.420856 -0.33699 2.99783 30 254 47 
-0.268172 -0.193254 3.50564 0 0 0 
-0.472195 0.0161105 3.12429 0 0 0 
-0.380006 0.856918 3.38919 0 0 0 
-0.398423 0.862389 3.35807 0 0 0 
-0.392513 0.870291 3.38045 0 0 0 
-0.402342 0.871587 3.36213 0 0 0 
-0.424943 0.870329 3.3287 0 0 0 
-0.390779 0.884869 3.38204 0 0 0 
-0.406958 0.8793 3.35175 0 0 0 
-0.414494 0.881368 3.33816 0 0 0 
-0.401033 0.890996 3.35659 0 0 0 
-0.386776 0.899545 3.37763 0 0 0 
-0.404789 0.897308 3.36114 0 0 0 
-0.452591 0.893309 3.29437 0 0 0 
-0.425713 0.905595 3.31791 0 0 0 
-0.390667 0.944333 3.3777 0 0 0 
-0.392005 0.972391 3.40359 0 0 0 
-0.367515 1.07618 3.39019 0 0 0 
-0.0736561 -1.75506 3.12497 0 0 0 
-0.121834 -1.48715 3.15145 0 0 0 
-0.100159 -1.47463 3.18335 0 0 0 
-0.201178 -1.22878 3.12786 0 0 0 
-0.227989 -1.07466 3.05344 0 0 0 
-0.16388 -1.04928 2.98852 0 0 0 
-0.213102 -0.984408 3.00026 0 0 0 
-0.219571 -0.811036 2.94481 61 57 254 
-0.308 -0.740615 3.33883 0 0 0 
-0.291833 -0.699676 3.36285 0 0 0 
-0.298147 -0.628663 2.92941 1 0 254 
-0.379332 -0.618593 3.12051 0 0 0 
-0.346132 -0.547586 2.95801 64 254 63 
-0.405064 -0.543563 3.17946 0 0 0 
-0.385334 -0.536922 3.06173 0 0 0 
-0.361301 -0.518802 2.92735 67 254 64 
-0.412002 -0.509549 3.13029 0 0 0 
-0.39355 -0.328795 2.90306 33 34 254 
-0.490868 -0.13084 3.08238 112 34 34 
-0.146182 -0.0773301 2.72082 255 17 16 
-0.150099 -0.0761647 2.72971 255 15 14 
-0.298656 0.000323252 3.45276 0 0 0 
-0.245401 0.0159712 2.75819 255 47 47 
-0.396125 0.0396554 2.85881 49 255 46 
-0.215005 0.0945627 2.74438 28 255 29 
-0.481059 0.825668 3.29447 0 0 0 
-0.431566 0.86949 3.3146 0 0 0 
-0.421918 0.891128 3.3251 0 0 0 
-0.457323 0.879764 3.29039 0 0 0 
-0.411003 0.900571 3.34158 0 0 0 
-0.390966 0.966626 3.39208 0 0 0 
0.0419516 1.18168 2.70872 254 42 40 
0.0147088 1.18327 2.69756 39 40 254 
-0.00575623 1.18117 2.70086 35 33 34 
-0.52168 1.11172 3.15082 4 4 4 
-0.269958 1.17936 2.71597 39 37 254 
-0.504772 1.16981 2.97534 12 10 87 
-0.135162 -1.48166 3.14621 0 0 0 
-0.388927 -0.573122 3.20182 0 0 0 
-0.340976 -0.0775049 3.44241 0 0 0 
-0.375506 0.039995 2.86587 255 49 49 
-0.372407 0.46768 3.38095 0 0 0 
-0.371173 0.504752 2.82449 42 41 39 
-0.400412 0.837819 3.39601 0 0 0 
-0.445934 0.825364 3.31632 0 0 0 
-0.138252 -1.61999 3.1541 0 0 0 
-0.142057 -1.60931 3.17058 0 0 0 
-0.284679 -0.89932 3.17437 0 0 0 
-0.298109 -0.787536 2.97286 30 37 114 
-0.329697 -0.644163 2.89974 61 254 58 
-0.389671 -0.648435 3.19903 0 0 0 
-0.291472 -0.646186 3.35701 0 0 0 
-0.277551 -0.242293 2.76518 255 64 57 
-0.26741 -0.217692 3.5093 0 0 0 
-0.215655 -0.103694 2.74345 4 255 14 
-0.22201 -0.072471 2.74834 10 9 7 
-0.00595659 -0.024454 2.74402 28 255 38 
-0.322687 0.0800452 2.79713 255 38 37 
-0.322794 0.118238 2.80483 44 42 45 
-0.379158 0.120203 2.83631 3 1 2 
-0.241824 0.233416 2.75341 25 25 255 
-0.360469 0.485235 3.37533 0 0 0 
-0.402452 0.826198 3.37799 0 0 0 
-0.385993 0.953303 3.37636 0 0 0 
-0.36346 0.988785 3.40727 0 0 0 
0.000539008 -1.77882 3.18476 0 0 0 
-0.099982 -1.58314 3.06203 0 0 0 
-0.109244 -1.58819 3.1744 0 0 0 
-0.119576 -1.48238 3.13412 0 0 0 
0.0325021 -0.221569 2.72953 38 36 255 
-0.388729 0.907877 3.36407 0 0 0 
-0.302794 1.17057 2.71116 31 254 36 
-0.0551557 -1.49402 3.08438 0 0 0 
-0.0892733 -1.76404 3.11831 0 0 0 
-0.066442 -1.59236 3.06758 0 0 0 
-0.326438 -0.780188 3.29507 0 0 0 
-0.256456 -0.579661 3.37728 0 0 0 
-0.401541 0.838304 3.37189 0 0 0 
-0.288135 1.00215 3.47609 0 0 0 
-0.0918713 -1.61283 3.17034 0 0 0 
-0.0816091 -1.71756 3.13128 0 0 0 
-0.112118 -1.74854 3.14206 0 0 0 
-0.0978231 -1.73555 3.13781 0 0 0 
-0.1279 -1.59328 3.15725 0 0 0 
-0.124758 -1.58019 3.16761 0 0 0 
-0.0761879 -1.51429 3.13987 0 0 0 
-0.401902 -0.0197451 3.39109 0 0 0 
-0.112987 -1.58765 3.18777 0 0 0 
0.118828 -0.190392 2.72087 51 49 50 
-0.247668 1.18832 2.72313 189 67 67 
-0.0744862 -1.73806 3.11117 0 0 0 
-0.0696477 -1.59471 3.1205 0 0 0 
-0.0891121 -1.58987 3.15309 0 0 0 
-0.0858636 -1.51081 3.15455 0 0 0 
-0.0977387 -1.4906 3.17343 0 0 0 
-0.296156 -0.234309 3.4855 0 0 0 
-0.274482 -0.18512 3.51779 0 0 0 
0.0969208 -0.190269 2.72023 255 63 62 
-0.0988313 -1.77445 3.14218 0 0 0 
-0.0857875 -1.75615 3.1108 0 0 0 
-0.398736 0.888645 3.36864 0 0 0 
-0.508152 1.11688 3.15801 4 4 4 
-0.311701 -0.811833 3.09887 0 0 0 
-0.392602 -0.603164 3.15683 0 0 0 
-0.0932723 -1.73425 3.1414 0 0 0 
-0.36493 0.120668 2.84175 3 1 2 
-0.318856 -0.738229 3.33238 0 0 0 
-0.391125 0.854078 3.38347 0 0 0 
-0.434542 0.858402 3.31129 0 0 0 
-0.436046 0.884288 3.30837 0 0 0 
-0.412977 0.940871 3.34044 0 0 0 
-0.377809 1.07367 3.38517 0 0 0 
-0.0766548 -1.72957 3.12159 0 0 0 
-0.20771 -0.865341 2.95883 0 0 0 
-0.154768 -0.698816 2.83062 51 254 60 
-0.297976 -0.651221 2.90924 65 61 60 
-0.440548 -0.0436995 3.3231 0 0 0 
-0.436621 0.180689 3.31111 0 0 0 
-0.45253 0.817126 3.32228 0 0 0 
-0.390333 0.944593 3.37814 0 0 0 
-0.471945 -0.237812 3.00446 89 86 254 
-0.0881937 -1.77717 3.10767 0 0 0 
-0.438914 -0.0619898 2.93172 254 43 42 
-0.115931 -1.7673 3.13436 0 0 0 
-0.394811 -0.643775 3.19049 0 0 0 
-0.489376 -0.0660976 3.08903 0 0 0 
-0.45805 0.866969 3.29382 0 0 0 
-0.128647 -1.56115 3.10781 0 0 0 
-0.0978131 -1.73129 3.1397 0 0 0 
-0.0854414 -1.72128 3.13405 0 0 0 
-0.0945491 -1.74096 3.12213 0 0 0 
-0.0881567 -1.67629 3.12753 0 0 0 
-0.0780181 -1.67748 3.12338 0 0 0 
-0.0842245 -1.58746 3.1049 0 0 0 
-0.0801929 -1.73548 3.10549 0 0 0 
-0.0920441 -1.72774 3.14026 0 0 0 
-0.0779193 -1.72215 3.10299 0 0 0 
-0.101814 -1.58655 3.18618 0 0 0 
-0.0770509 -1.5097 3.14142 0 0 0 
-0.106064 -1.61768 3.19574 0 0 0 
-0.0814366 -1.51617 3.12857 0 0 0 
-0.0677961 -1.50851 3.095 0 0 0 
-0.0866652 -1.55577 3.13957 0 0 0 
-0.0772752 -1.55507 3.10351 0 0 0 
-0.0697755 -1.52627 3.10714 0 0 0 
-0.0451586 -1.5232 3.13919 0 0 0 
-0.084197 -1.71125 3.12011 0 0 0 
-0.105013 -1.61257 3.05205 0 0 0 
-0.173846 -0.0844969 3.54632 0 0 0 
-0.0663574 -1.58131 3.14242 0 0 0 
-0.0516638 -1.5573 3.13974 0 0 0 
-0.299384 -0.797484 3.02875 1 1 2 
-0.209295 -0.780449 2.86033 254 36 34 
-0.443973 -0.337846 3.06988 64 62 254 
-0.417004 0.859068 3.34623 0 0 0 
-0.425889 0.859018 3.33119 0 0 0 
-0.415737 0.869463 3.35109 0 0 0 
-0.432458 0.881645 3.31798 0 0 0 
-0.413289 0.903318 3.35359 0 0 0 
-0.433211 0.896498 3.31248 0 0 0 
-0.411913 0.935988 3.34712 0 0 0 
-0.402245 0.951413 3.36075 0 0 0 
-0.417326 1.02476 3.32803 8 6 37 
-0.207529 -1.22673 3.12788 0 0 0 
-0.460433 -0.298806 3.00467 54 50 47 
-0.373628 0.0560287 3.40512 0 0 0 
-0.41478 0.817875 3.37711 0 0 0 
-0.414552 0.823304 3.38533 0 0 0 
-0.443966 0.856603 3.30061 0 0 0 
-0.420984 0.907294 3.33204 0 0 0 
-0.441281 0.92561 3.29971 0 0 0 
-0.418726 1.05199 3.32892 42 40 34 
-0.411372 1.08049 3.33284 46 222 64 
-0.490373 1.18787 2.96934 60 53 254 
-0.429959 -0.146275 3.35889 0 0 0 
-0.466007 1.21013 3.48926 0 0 0 
-0.535615 1.21488 3.01581 250 25 25 
-0.104384 -1.72577 3.10685 0 0 0 
-0.0953073 -1.61377 3.19534 0 0 0 
-0.293919 -0.786266 2.98542 253 62 58 
-0.363286 0.0986843 2.84354 255 40 39 
-0.395617 0.840709 3.39798 0 0 0 
-0.415078 0.923805 3.33524 0 0 0 
-0.382479 0.956088 3.39498 0 0 0 
-0.420355 1.04389 3.31999 37 36 31 
-0.4449 0.907465 3.29753 0 0 0 
-0.385796 0.987486 3.39888 0 0 0 
-0.571444 1.20967 3.30306 68 63 255 
-0.478123 0.852579 3.31237 0 0 0 
-0.105484 -1.78015 3.13683 0 0 0 
-0.0905235 -1.71263 3.13118 0 0 0 
-0.0904867 -1.68473 3.12848 0 0 0 
-0.0868779 -1.66144 3.13798 0 0 0 
-0.0995548 -1.72938 3.14771 0 0 0 
-0.0963598 -1.75923 3.15339 0 0 0 
-0.109312 -1.7119 3.16204 0 0 0 
-0.0859069 -1.77888 3.10177 0 0 0 
-0.0709953 -1.72417 3.11339 0 0 0 
-0.0964324 -1.73017 3.15428 0 0 0 
-0.0832572 -1.54617 3.13876 0 0 0 
-0.0576175 -1.51093 3.11409 0 0 0 
-0.0834226 -1.50884 3.14765 0 0 0 
-0.0476231 -1.51246 3.11049 0 0 0 
-0.0614351 -1.54569 3.11316 0 0 0 
-0.0734766 -1.52144 3.13434 0 0 0 
-0.089437 -1.77954 3.10054 0 0 0 
-0.0774031 -1.68481 3.12342 0 0 0 
-0.0817934 -1.74224 3.12433 0 0 0 
-0.0691802 -1.5271 3.12733 0 0 0 
-0.0409147 -1.60239 3.08635 0 0 0 
-0.113268 -1.60989 3.16784 0 0 0 
-0.0884267 -1.73845 3.14479 0 0 0 
-0.091841 -1.77671 3.13072 0 0 0 
-0.0440063 -1.60413 3.08018 0 0 0 
-0.101478 -1.77519 3.1383 0 0 0 
-0.0916019 -1.75236 3.15142 0 0 0 
-0.053796 -1.63632 3.06335 0 0 0 
-0.0813305 -1.73298 3.10459 0 0 0 
-0.0946079 -1.76313 3.14728 0 0 0 
-0.0514427 -1.63655 3.05734 0 0 0 
-0.0940496 -1.5824 3.18363 0 0 0 
-0.0845662 -1.69705 3.11698 0 0 0 
-0.0824668 -1.67949 3.11872 0 0 0 
-0.0890266 -1.75746 3.1242 0 0 0 
-0.0588468 -1.63738 3.04902 0 0 0 
-0.0665203 -1.51539 3.10598 0 0 0 
-0.0794559 -1.75815 3.09913 0 0 0 
-0.0869509 -1.66665 3.14847 0 0 0 
-0.078182 -1.67349 3.0997 0 0 0 
-0.0893071 -1.74129 3.12969 0 0 0 
-0.064095 -1.60975 3.06684 0 0 0 
-0.108101 -1.77866 3.12877 0 0 0 
-0.106949 -1.67321 3.12548 0 0 0 
-0.084794 -1.53001 3.11705 0 0 0 
-0.0495674 -1.52316 3.11969 0 0 0 
-0.102915 -1.51442 3.1353 0 0 0 
-0.0471403 -1.51949 3.11393 0 0 0 
-0.0718862 -1.7579 3.12071 0 0 0 
-0.104757 -1.59648 3.16727 0 0 0 
-0.0847239 -1.68537 3.13195 0 0 0 
-0.0775777 -1.68566 3.1237 0 0 0 
-0.0886108 -1.70462 3.12641 0 0 0 
-0.0365962 -1.59776 3.09569 0 0 0 
-0.126386 -1.61642 3.18162 0 0 0 
-0.0858297 -1.79358 3.12422 0 0 0 
-0.0918767 -1.77393 3.13363 0 0 0 
-0.0936286 -1.76325 3.14899 0 0 0 
-0.100574 -1.72453 3.14224 0 0 0 
-0.0363513 -1.59872 3.09313 0 0 0 
-0.0386855 -1.60356 3.06681 0 0 0 
-0.0700043 -1.66818 3.11299 0 0 0 
-0.129082 -1.61789 3.17882 0 0 0 
-0.0725547 -1.68261 3.09443 0 0 0 
-0.0581423 -1.61296 3.06629 0 0 0 
-0.0870678 -1.75588 3.14396 0 0 0 
-0.0814916 -1.75377 3.13029 0 0 0 
-0.0886151 -1.77501 3.13238 0 0 0 
-0.0787475 -1.76982 3.12732 0 0 0 
-0.16397 -1.64207 3.13956 0 0 0 
-0.122517 -1.65687 3.13604 0 0 0 
-0.104836 -1.67195 3.13364 0 0 0 
-0.0885317 -1.70578 3.12713 0 0 0 
-0.112283 -1.6783 3.12431 0 0 0 
-0.0518332 -1.73734 3.12761 0 0 0 
-0.0694743 -1.6515 3.13191 0 0 0 
-0.11175 -1.65093 3.14689 0 0 0 
-0.0706611 -1.76361 3.13474 0 0 0 
-0.0925539 -1.76399 3.14518 0 0 0 
-0.0778851 -1.69318 3.13962 0 0 0 
-0.0685968 -1.68018 3.13367 0 0 0 
-0.069944 -1.74149 3.13555 0 0 0 
-0.080239 -1.7371 3.14341 0 0 0 
-0.0677994 -1.71755 3.13652 0 0 0 
-0.0688981 -1.70383 3.13727 0 0 0 
-0.0759732 -1.75017 3.1383 0 0 0 
-0.0904795 -1.74737 3.14757 0 0 0 
-0.058787 -1.74022 3.12094 0 0 0 
-0.0589047 -1.74685 3.13128 0 0 0 
-0.0747067 -1.69268 3.12508 0 0 0 
-0.0555789 -1.70341 3.11567 0 0 0 
-0.0835662 -1.68454 3.13378 0 0 0 
-0.0848218 -1.79394 3.12604 0 0 0 
-0.0989457 -1.73082 3.13774 0 0 0 
-0.0818971 -1.65374 3.13133 0 0 0 
-0.0949486 -1.67101 3.15631 0 0 0 
-0.527907 -1.98256 2.62064 0 0 0 
-0.0197517 -1.6395 3.1889 0 0 0 
-0.471991 -1.91588 2.69355 0 0 0 
-0.456134 -1.96805 2.71032 0 0 0 
-0.326366 -1.84426 2.86074 0 0 0 
-1.01726 -2.28491 2.09328 0 0 0 
-0.386197 -1.84089 2.83014 0 0 0 
-0.694405 -2.10115 2.44555 0 0 0 
-0.163003 -1.76035 3.03124 0 0 0 
-0.826981 -2.23639 2.29015 0 0 0 
-1.23595 -2.45329 1.84845 0 0 0 
-1.31038 -2.48568 1.76718 0 0 0 
0.875352 -1.07295 4.13116 0 0 0 
-0.0783542 -1.67038 3.12929 0 0 0 
-0.0735871 -1.5437 3.12382 0 0 0 
-0.180531 -1.61228 3.10588 0 0 0 
-0.0425928 -1.71235 3.1386 0 0 0 
-0.0457676 -1.68786 3.13574 0 0 0 
-0.12969 -1.69327 3.12094 0 0 0 
-0.0724885 -1.73483 3.13399 0 0 0 
-0.169409 -1.60443 3.12188 0 0 0 
-0.0917169 -1.79514 3.12762 0 0 0 
-0.109001 -1.76257 3.12615 0 0 0 
-0.119924 -1.73307 3.12627 0 0 0 
-0.15831 -1.60757 3.11837 0 0 0 
-0.0699278 -1.765 3.13694 0 0 0 
-0.0642927 -1.68912 3.13631 0 0 0 
-0.0765582 -1.67159 3.13967 0 0 0 
-0.068127 -1.70195 3.13812 0 0 0 
-0.0308503 -1.4755 3.0906 0 0 0 
