ply                 
format ascii 1.0    
element vertex 1042
property float x    
property float y    
property float z    
property uchar red  
property uchar green
property uchar blue 
end_header          
-0.18272 -0.696218 2.81788 0 0 0 
-0.271243 -0.679327 2.84357 254 56 55 
-0.141336 -0.609895 2.79183 0 0 0 
-0.068165 -0.598091 2.80218 86 85 81 
-0.0897826 -0.557448 2.78718 36 34 35 
-0.0756767 -0.501488 2.77598 35 33 34 
-0.380531 -0.401889 2.86348 43 252 103 
-0.0350162 -0.365365 2.74088 74 72 73 
-0.245433 -0.287856 2.71949 254 107 102 
-0.0190198 -0.176982 2.6928 0 0 0 
-0.0784257 -0.109321 2.6859 254 83 82 
-0.0276541 -0.0988683 2.69121 57 254 58 
-0.22848 -0.077575 2.70939 254 29 27 
-0.228704 -0.0676917 2.70752 18 16 17 
-0.308009 0.223216 2.74421 22 25 254 
-0.246017 0.228505 2.71522 149 86 89 
0.0233672 0.495003 2.73933 83 79 78 
-0.282177 0.644178 2.73344 41 39 40 
0.162564 0.674123 2.789 254 44 43 
0.128562 0.675586 2.76724 0 0 0 
-0.362552 0.771359 2.7933 254 28 27 
0.177263 0.845177 2.78446 0 0 0 
0.121488 0.994254 2.74118 58 57 55 
-0.149238 -1.52485 3.06241 0 0 0 
-0.158575 -1.52492 3.07072 0 0 0 
-0.216718 -1.12994 2.99151 0 0 0 
-0.311334 -0.675132 2.86881 72 250 60 
-0.199039 -0.632707 2.80738 0 0 0 
-0.141397 -0.609109 2.79227 0 0 0 
-0.067804 -0.597561 2.80319 0 0 0 
-0.139472 -0.554882 2.77524 104 98 70 
-0.336415 -0.408902 2.84297 0 0 0 
-0.342821 -0.302015 2.78807 31 28 254 
-0.246336 -0.288808 2.71483 40 24 25 
-0.0892745 -0.176543 2.68731 34 33 31 
-0.0189684 -0.176553 2.69009 31 31 33 
-0.065086 -0.157246 2.68364 3 1 2 
-0.0775695 -0.109406 2.691 255 26 24 
-0.448195 -0.0984056 2.86791 0 0 0 
0.115265 -0.114208 2.7393 255 53 52 
-0.0203197 -0.0995197 2.6896 55 254 54 
-0.0296168 -0.0981318 2.69226 57 53 54 
-0.0410877 -0.0939619 2.68955 40 41 254 
-0.261193 -0.0730536 2.71878 37 37 254 
-0.228731 -0.0673678 2.70755 18 16 17 
-0.12761 -0.0592364 2.69711 83 82 80 
-0.357894 0.0198391 2.77689 20 20 254 
-0.193083 0.0172036 2.71737 254 125 125 
-0.374314 0.293763 2.79284 0 0 0 
-0.16507 0.350907 2.71334 59 61 242 
-0.249736 0.3575 2.71702 23 25 27 
-0.287482 0.424556 2.73273 0 0 0 
-0.409624 0.506526 2.82939 35 33 34 
-0.269198 0.517675 2.72786 23 24 254 
0.0144616 0.549308 2.72013 0 0 0 
-0.343042 0.578211 2.76678 45 46 254 
0.128233 0.675994 2.76686 0 0 0 
-0.362932 0.769876 2.78926 0 0 0 
-0.363045 0.778348 2.79071 0 0 0 
0.178238 0.845566 2.78675 86 254 68 
0.178827 0.864983 2.78242 4 1 1 
-0.143072 0.877441 2.69047 254 49 48 
0.0352586 0.894687 2.69608 69 67 254 
0.179639 0.935359 2.77884 15 45 14 
0.181387 0.946551 2.77774 24 66 21 
0.121731 0.994031 2.74245 0 0 0 
0.115429 -0.113566 2.73951 11 10 8 
-0.192579 -0.0677807 2.71776 99 97 98 
-0.197924 0.0649894 2.71837 254 51 51 
-0.404974 0.0913542 2.81887 32 254 56 
-0.189631 0.351837 2.71849 65 63 64 
0.178696 0.865729 2.7849 62 254 65 
-0.153797 -1.52691 3.06369 0 0 0 
-0.091687 -0.80497 2.8573 0 0 0 
-0.210475 -0.67773 2.80467 36 254 35 
-0.0315064 -0.203633 2.6874 0 0 0 
-0.322124 -0.139174 2.75132 0 0 0 
-0.198028 -0.0939897 2.70852 19 19 254 
-0.0172267 -0.0971714 2.68901 85 86 254 
0.0353702 -0.0949324 2.7083 1 1 1 
-0.192046 0.0163909 2.71754 0 0 0 
-0.190503 0.0897068 2.71653 17 18 254 
-0.233139 0.103601 2.70927 255 36 35 
-0.165095 0.728725 2.71749 42 37 255 
-0.133728 0.788154 2.71228 254 37 36 
-0.0544903 -0.648372 2.81955 0 0 0 
-0.124488 -0.0452964 2.70745 73 254 63 
0.0485098 -0.0472197 2.7319 59 62 255 
-0.0183376 -0.216088 2.686 0 0 0 
-0.142084 -0.0942047 2.69076 254 77 72 
-0.0341898 -0.0876607 2.6895 40 38 39 
-0.182609 -0.697203 2.8276 0 0 0 
-0.176768 -0.682671 2.81017 0 0 0 
0.0787899 -0.695078 2.87294 254 85 81 
-0.183037 -0.638394 2.8025 0 0 0 
-0.200177 -0.63314 2.81485 0 0 0 
-0.00594234 0.575367 2.71415 254 39 38 
0.222982 0.632453 2.84846 254 86 82 
0.198253 0.644594 2.8237 254 55 54 
0.229837 0.649792 2.85517 254 92 88 
0.242198 0.660116 2.87125 70 69 254 
0.181082 0.653803 2.80515 41 39 33 
0.203751 0.657184 2.82895 60 59 55 
0.195557 0.662839 2.81773 28 27 23 
0.230618 0.673402 2.85917 94 91 254 
0.181017 0.67378 2.80397 71 254 80 
0.133795 0.677859 2.76833 71 254 71 
0.176872 0.689785 2.80021 7 3 68 
0.156443 0.691841 2.78587 0 0 0 
0.212359 0.703433 2.83529 89 85 254 
0.188699 0.704341 2.81105 48 249 48 
0.179345 0.705144 2.80327 140 47 47 
0.148866 0.705416 2.77966 0 0 0 
0.278491 0.819801 2.90843 69 66 59 
0.281327 0.83082 2.91102 99 254 72 
0.255987 0.844612 2.87187 255 68 67 
0.22026 0.845715 2.8228 90 86 87 
0.250974 0.857947 2.85068 86 83 254 
0.234831 0.856265 2.83302 254 69 68 
0.253461 0.868593 2.84895 88 84 81 
0.168017 0.855367 2.77409 0 0 0 
0.185684 0.85852 2.78632 4 12 4 
0.141385 0.856979 2.7567 72 70 254 
0.229095 0.868257 2.82169 85 254 84 
0.216534 0.871105 2.80927 59 253 65 
0.187361 0.869184 2.78465 6 5 13 
0.16339 0.867657 2.76817 0 0 0 
0.153197 0.868804 2.75963 0 0 0 
0.257558 0.913866 2.84907 87 86 82 
0.224232 0.907958 2.81477 98 96 254 
0.226351 0.918487 2.81675 73 72 68 
0.260624 0.930348 2.85515 255 68 69 
0.265609 0.936194 2.86298 68 67 62 
0.215722 0.935132 2.80648 76 74 255 
0.192409 0.933169 2.78664 135 39 37 
0.256734 0.951628 2.85482 73 255 68 
0.18029 0.934997 2.77827 52 17 17 
0.281047 0.961684 2.88502 64 255 65 
0.232927 0.950141 2.82491 66 64 255 
0.214528 0.946422 2.80513 254 89 88 
0.18143 0.946863 2.77782 21 68 19 
0.204713 0.952973 2.79867 56 57 249 
0.159239 0.961075 2.76357 80 254 88 
0.1987 1.2149 2.69921 80 20 18 
-0.146491 -1.81599 3.11537 0 0 0 
-0.153727 -1.80391 3.1135 0 0 0 
-0.1443 -1.59005 3.05464 0 0 0 
-0.0384137 -1.1374 2.972 0 0 0 
0.185056 -0.770183 2.98424 64 63 61 
0.264697 -0.713218 3.12302 47 43 42 
0.270502 -0.680478 3.14186 36 36 36 
-0.337852 -0.409092 2.85376 0 0 0 
-0.366007 -0.339713 2.83547 0 0 0 
0.164682 -0.325581 2.79446 255 59 60 
0.214228 -0.305388 2.85507 64 62 255 
-0.338692 -0.255392 2.76992 0 0 0 
-0.34548 -0.250152 2.76649 0 0 0 
0.211517 -0.273834 2.81874 255 73 72 
0.328967 -0.0686292 3.09665 51 50 48 
0.317152 -0.0475633 3.09748 69 67 255 
-0.351432 0.0124585 2.7704 40 42 254 
-0.195497 0.0805324 2.71134 1 1 0 
-0.114681 0.224866 2.71158 77 78 254 
-0.162043 0.359253 2.72113 57 57 255 
-0.0399717 0.404894 2.72551 0 0 0 
0.107536 0.417828 2.75788 46 43 254 
0.170332 0.603735 2.7991 66 65 61 
0.189428 0.627515 2.8137 68 65 60 
0.169616 0.683736 2.79629 0 0 0 
0.192277 0.847908 2.79602 29 89 28 
0.21569 0.851487 2.81647 81 77 74 
0.194631 0.856824 2.79367 30 27 23 
0.150149 0.856987 2.76315 0 0 0 
0.234046 0.877233 2.82825 94 89 254 
0.210338 0.876792 2.80488 87 83 80 
0.19435 0.905839 2.78689 35 34 77 
0.232957 0.933486 2.82604 78 255 80 
0.234661 0.961025 2.82563 254 41 40 
0.158357 0.950115 2.76213 10 3 3 
0.121553 0.993675 2.73877 254 76 76 
0.158508 1.20043 2.66385 254 40 39 
0.100856 -0.207639 2.73522 0 0 0 
0.124254 -0.062171 2.75579 255 39 38 
-0.375933 0.0716887 2.79366 22 255 33 
0.188446 0.941217 2.78159 58 60 55 
0.209438 1.21361 2.69233 25 21 18 
0.157093 1.21042 2.66468 28 26 254 
-0.129284 -1.71396 3.0977 0 0 0 
-0.14976 -1.62511 3.05499 0 0 0 
-0.0796499 -1.61253 3.07927 0 0 0 
-0.174158 -1.53054 3.10667 0 0 0 
-0.166429 -0.682484 2.8127 0 0 0 
-0.209893 -0.677236 2.80418 36 254 35 
-0.285476 -0.119249 2.728 44 43 39 
-0.104581 -0.0919449 2.69495 64 254 68 
0.067599 -0.0964958 2.71327 87 88 255 
0.11488 -0.0956516 2.73884 33 255 43 
0.129694 -0.0909766 2.74301 48 46 255 
0.262525 0.827542 2.89064 254 87 84 
0.17619 0.889345 2.76975 59 54 254 
-0.323636 1.21171 2.74587 0 0 0 
-0.115028 -1.78105 3.12475 0 0 0 
-0.202098 0.105273 2.71382 1 0 0 
-0.142042 -1.73205 3.11318 0 0 0 
-0.116746 -1.60939 3.06712 0 0 0 
-0.170918 -1.51127 3.06521 0 0 0 
-0.0695097 -1.51544 3.09748 0 0 0 
0.101166 -0.829587 2.94721 254 58 57 
-0.140981 -0.0936298 2.67858 254 77 72 
-0.121869 -0.0855299 2.69156 67 66 64 
-0.159009 -1.74353 3.05937 0 0 0 
-0.141657 -1.61408 3.04601 0 0 0 
-0.186446 -1.63563 3.10142 0 0 0 
-0.135043 1.13866 2.66755 254 64 63 
-0.29357 -0.0863339 2.73588 255 20 20 
-0.110699 -1.7634 3.09884 0 0 0 
-0.129238 -1.75366 3.11585 0 0 0 
-0.169046 -1.52837 3.10101 0 0 0 
-0.125665 -1.70129 3.11635 0 0 0 
0.187639 0.691737 2.81152 33 247 35 
0.176037 0.857993 2.77927 1 1 1 
0.257596 0.885252 2.85132 254 89 85 
0.166312 0.894369 2.76658 0 0 0 
0.197862 0.918468 2.79069 39 173 42 
0.127218 0.991678 2.74589 48 51 254 
0.157807 1.20574 2.67773 76 18 19 
0.218228 1.20858 2.71042 35 36 32 
-0.128734 -1.7291 3.10924 0 0 0 
0.328664 -0.0712183 3.20576 53 50 255 
0.15738 0.862748 2.76594 0 0 0 
0.221689 0.864761 2.81861 81 82 77 
0.201818 0.883888 2.79412 51 137 54 
0.250306 0.926977 2.84176 73 254 83 
0.208874 0.941362 2.80464 73 254 66 
0.195789 0.697043 2.81705 254 66 65 
0.196426 0.70278 2.84298 67 60 254 
0.269862 0.84385 2.87943 53 254 45 
0.227985 0.850739 2.82601 254 99 98 
0.264738 0.890318 2.85785 71 66 254 
0.244169 0.844144 2.84904 54 42 254 
0.179915 0.959713 2.77866 28 26 87 
0.157214 1.21507 2.67791 5 4 19 
-0.150197 -1.77441 3.10562 0 0 0 
-0.138802 -1.74639 3.10703 0 0 0 
-0.172988 -1.51901 3.07869 0 0 0 
-0.141195 -1.69823 3.10674 0 0 0 
-0.10918 -1.55223 3.11385 0 0 0 
0.190551 0.973593 2.78633 66 61 59 
0.155218 0.881443 2.76107 0 0 0 
-0.142362 -1.75017 3.11407 0 0 0 
0.336371 -0.258652 3.16297 47 47 255 
0.0844392 -0.460587 2.79556 68 75 111 
-0.0260108 -0.177227 2.70108 0 0 0 
-0.0454494 0.348907 2.7325 0 0 0 
0.305819 0.345425 2.99541 36 254 63 
-0.0443587 0.391199 2.73262 0 0 0 
-0.0447946 0.406714 2.73318 0 0 0 
0.225964 0.647082 2.85125 82 254 94 
0.276646 0.651509 2.92184 63 60 55 
0.281922 0.652814 2.93268 66 63 58 
0.267567 0.650909 2.90565 82 254 85 
0.249563 0.651358 2.87996 64 63 59 
0.263311 0.661205 2.89975 254 76 73 
0.286206 0.666789 2.93714 71 67 254 
0.181112 0.661156 2.80396 76 70 72 
0.226069 0.668416 2.85147 78 75 254 
0.161614 0.675043 2.79016 254 44 43 
0.209154 0.699791 2.83126 60 59 55 
0.306984 0.825206 2.96841 37 34 29 
0.273341 0.818565 2.90291 74 254 76 
0.289943 0.824152 2.9252 254 65 62 
0.285894 0.826615 2.91554 44 40 254 
0.269488 0.825379 2.89042 72 71 66 
0.30682 0.834101 2.95395 254 49 45 
0.303262 0.838265 2.93203 72 254 81 
0.3101 0.844047 2.95492 63 254 63 
0.280416 0.843656 2.89644 70 254 73 
0.322567 0.854518 2.96801 42 254 55 
0.176508 0.845291 2.78344 254 65 64 
0.293264 0.8526 2.91122 59 54 48 
0.305177 0.854104 2.92685 50 254 53 
0.243353 0.852102 2.84243 254 55 54 
0.272159 0.854522 2.87664 254 72 68 
0.3173 0.864849 2.95589 36 30 30 
0.233562 0.857387 2.83551 70 69 67 
0.223895 0.856174 2.81967 254 85 85 
0.162646 0.858438 2.77047 0 0 0 
0.308924 0.867916 2.92962 28 254 49 
0.295902 0.868869 2.90583 47 43 34 
0.326633 0.878712 2.96165 40 31 254 
0.272272 0.869436 2.87115 254 80 77 
0.150919 0.870034 2.76172 68 66 67 
0.239657 0.87122 2.83269 75 74 70 
0.319019 0.881464 2.94341 30 254 42 
0.304274 0.881536 2.91609 59 55 46 
0.28758 0.882271 2.89023 54 254 61 
0.30538 0.892734 2.91448 254 57 53 
0.335329 0.904314 2.98252 43 254 73 
0.289766 0.893263 2.89025 254 71 67 
0.323275 0.903383 2.95225 47 254 51 
0.294227 0.899245 2.89845 47 44 35 
0.312426 0.903083 2.92582 254 42 37 
0.227017 0.893876 2.81489 254 68 67 
0.331075 0.914645 2.96906 48 43 39 
0.310543 0.915075 2.92276 254 52 47 
0.315811 0.917113 2.93519 52 47 43 
0.294761 0.914182 2.89771 254 58 55 
0.269763 0.912717 2.86343 80 254 86 
0.255283 0.920031 2.84696 85 84 254 
0.316054 0.931748 2.93533 40 35 29 
0.308294 0.934198 2.92029 254 53 48 
0.299803 0.932672 2.90411 69 64 254 
0.231161 0.927793 2.81911 254 80 79 
0.173395 0.933572 2.77232 23 7 7 
0.257039 0.933518 2.84687 75 254 84 
0.266987 0.934805 2.86126 80 254 89 
0.244202 0.935035 2.8343 82 79 254 
0.33497 0.957383 2.98682 50 39 254 
0.308729 0.946384 2.9205 254 81 78 
0.296546 0.94642 2.89927 47 44 39 
0.302053 0.949426 2.91071 44 41 36 
0.27213 0.947394 2.86525 77 74 69 
0.282261 0.949549 2.88067 41 36 254 
0.24397 0.946944 2.83388 79 78 254 
0.293843 0.962229 2.89929 41 254 52 
0.256869 0.959629 2.84752 85 82 254 
0.274678 0.9615 2.87124 70 67 254 
0.294198 0.972607 2.89844 68 65 254 
0.275411 0.972337 2.87118 48 41 254 
0.189034 0.974486 2.78863 41 254 51 
0.232953 0.973353 2.82277 254 67 66 
0.22122 1.0265 2.80484 54 52 254 
0.100217 -0.498991 2.80574 40 198 40 
-0.0518582 -0.0989931 2.6987 0 0 0 
-0.20274 0.0182401 2.7307 0 0 0 
0.278914 0.642227 2.92825 254 93 90 
0.262772 0.640695 2.90043 74 73 68 
0.178704 0.684476 2.80617 41 149 41 
0.165969 0.691007 2.79305 254 58 54 
0.215094 0.697403 2.84054 254 57 53 
0.182711 0.698305 2.8073 72 71 68 
0.293705 0.840196 2.92747 254 84 83 
0.283739 0.840258 2.90506 69 68 64 
0.331273 0.855971 3.00139 50 254 54 
0.305778 0.850423 2.94323 91 92 87 
0.25584 0.843206 2.8661 80 77 70 
0.229275 0.845502 2.83213 46 42 41 
0.187329 0.852684 2.79148 23 8 8 
0.300418 0.861537 2.92241 66 254 73 
0.305636 0.874996 2.92411 254 60 56 
0.172632 0.868959 2.77464 74 254 65 
0.315379 0.888138 2.93723 254 47 43 
0.18355 0.879978 2.78001 59 254 65 
0.164154 0.883873 2.76809 0 0 0 
0.255113 0.888229 2.84472 79 78 74 
0.313335 0.924192 2.92795 77 72 254 
0.186132 0.928672 2.78396 61 60 58 
0.237954 0.928659 2.82878 74 254 78 
0.332324 0.945432 2.97091 53 49 254 
0.175033 0.942052 2.77537 70 65 254 
0.301759 0.958847 2.90906 27 254 38 
0.315088 0.971306 2.93507 49 254 55 
0.141345 -0.362275 2.7885 67 254 65 
0.274297 0.669814 2.91494 62 57 254 
0.149867 0.698047 2.78101 0 0 0 
0.246857 0.86383 2.8446 45 44 40 
0.289454 0.874995 2.90182 73 68 254 
0.342524 0.931418 3.00769 43 254 48 
0.197673 0.926109 2.79071 64 254 59 
0.303275 0.967686 2.9031 71 254 76 
-0.038026 -0.20372 2.69489 0 0 0 
-0.0424348 -0.0922175 2.70089 0 0 0 
-0.0476731 -0.0466173 2.72407 0 0 0 
-0.212004 0.107194 2.72413 0 0 0 
0.243236 0.844684 2.85046 69 65 254 
0.146608 0.856532 2.76051 0 0 0 
0.311856 0.865683 2.94668 37 29 254 
0.302638 0.825857 2.95802 51 48 254 
0.211818 0.920512 2.80867 83 82 78 
0.328471 -0.073327 3.24998 12 8 5 
0.169015 0.949439 2.77031 45 44 42 
0.297453 0.889384 2.91216 254 42 37 
0.346901 -0.0751727 3.22341 12 8 5 
-0.170843 0.632968 2.72239 0 0 0 
-0.154602 -1.5498 3.0903 0 0 0 
-0.111297 -1.71782 3.11651 0 0 0 
0.211286 0.691473 2.8359 78 75 254 
0.289632 0.844321 2.91222 254 77 74 
0.320377 0.843168 2.9721 72 68 65 
0.318762 0.856561 2.95863 54 47 39 
0.327934 0.874231 2.96638 25 254 42 
0.259929 0.91023 2.85247 88 84 254 
0.335854 0.91376 2.98239 41 254 52 
0.292546 0.934205 2.8955 254 54 51 
0.279649 0.954435 2.87574 60 57 52 
0.299223 0.95364 2.90622 254 50 47 
0.226653 1.22765 2.71227 22 19 132 
0.257209 0.652103 2.91173 254 83 80 
0.322893 0.85438 2.96891 254 51 46 
0.328732 0.868479 2.98218 44 35 28 
0.245007 0.876389 2.83742 79 254 91 
0.313429 0.872923 2.93469 43 39 30 
0.301017 0.874524 2.91077 37 254 53 
0.295898 0.911683 2.89904 48 45 254 
0.323904 0.914996 2.9524 254 35 30 
0.311612 0.925884 2.93159 254 58 53 
0.340387 0.933981 3.01571 254 45 40 
0.19379 0.959698 2.79034 54 217 95 
0.303432 0.941365 2.9157 45 41 254 
0.23715 0.955362 2.82914 79 77 254 
0.193053 0.698444 2.81863 254 66 65 
0.261929 0.82509 2.87769 66 254 56 
0.223441 0.876029 2.81252 91 87 84 
0.294029 0.887638 2.89724 254 62 55 
0.317434 0.912927 2.94495 40 254 49 
0.305302 0.90521 2.91544 254 58 53 
0.326675 0.906735 2.97294 40 254 51 
0.240475 0.924751 2.83179 75 254 81 
0.262992 0.924498 2.85489 75 71 68 
0.300942 0.969647 2.90689 57 53 50 
-0.145318 -1.73177 3.12158 0 0 0 
0.145019 0.674702 2.77989 0 0 0 
0.307444 0.660571 2.99298 69 254 83 
0.183462 0.836896 2.79405 8 6 16 
0.296764 0.835216 2.93239 58 58 50 
0.30559 0.85391 2.93238 254 37 32 
0.30676 0.889895 2.92009 47 42 36 
0.194282 0.920189 2.79325 39 173 42 
0.315169 0.902311 2.93257 43 254 52 
0.300142 0.904318 2.90547 49 44 38 
0.345093 0.914121 3.01757 86 76 74 
0.313952 0.966007 2.93011 56 51 254 
0.205074 -0.263149 2.82141 253 50 50 
0.220982 -0.261568 2.84192 74 72 73 
0.249957 0.663927 2.8847 71 72 67 
0.268859 0.663063 2.90971 68 254 89 
0.294599 0.849688 2.91827 64 254 59 
0.334896 0.879646 2.98349 48 44 35 
0.322553 0.887131 2.94851 55 51 42 
0.344504 0.924118 3.01164 56 254 70 
0.332348 0.933729 2.97148 36 254 47 
0.28507 0.955202 2.88561 254 52 49 
0.235887 0.968815 2.8289 76 72 71 
0.337842 0.979886 2.98497 254 47 44 
0.352556 1.06132 3.2716 23 18 254 
0.200676 -0.363378 2.90532 72 69 254 
0.271706 0.670517 2.91674 62 57 254 
0.328012 0.939362 2.96404 25 254 36 
0.249407 0.957233 2.8427 85 254 106 
0.278559 0.969157 2.87908 51 254 66 
-0.139164 -1.7232 3.13381 0 0 0 
0.280364 0.815289 2.91311 49 42 254 
0.316815 0.863237 2.94314 37 29 254 
0.159166 0.947611 2.80077 34 123 38 
-0.137301 -1.81306 3.12539 0 0 0 
-0.130082 -1.7727 3.11373 0 0 0 
0.157958 1.19921 2.68906 32 9 9 
-0.129402 -1.81811 3.11677 0 0 0 
-0.115297 -1.81072 3.11586 0 0 0 
0.43824 -0.0648378 3.25112 31 27 24 
-0.120967 -1.75447 3.11674 0 0 0 
-0.101306 -1.77265 3.11633 0 0 0 
-0.134317 -1.82103 3.11219 0 0 0 
-0.139402 -1.80981 3.11579 0 0 0 
-0.145882 -1.80166 3.11685 0 0 0 
-0.145329 -1.77564 3.11595 0 0 0 
-0.154453 -1.77976 3.11677 0 0 0 
-0.140067 -1.84285 3.10979 0 0 0 
-0.1458 -1.73661 3.11074 0 0 0 
-0.136058 -1.7357 3.10552 0 0 0 
-0.15207 -1.82675 3.11066 0 0 0 
-0.126026 -1.8056 3.10735 0 0 0 
-0.13919 -1.79311 3.10612 0 0 0 
-0.14079 -1.7031 3.11632 0 0 0 
-0.180642 -1.53854 3.12741 0 0 0 
-0.161242 0.889262 2.69584 23 254 30 
-0.151108 -1.71215 3.11879 0 0 0 
-0.17943 -1.69149 3.13109 0 0 0 
-0.16801 -1.62447 3.11525 0 0 0 
-0.297968 -0.683841 2.86194 65 64 60 
-0.158714 -1.55033 3.12687 0 0 0 
-0.337398 -0.0991074 2.75837 254 22 21 
-0.363602 0.00676618 2.77833 254 44 44 
-0.15644 -1.63941 3.12525 0 0 0 
-0.158432 -1.71741 3.12479 0 0 0 
-0.16124 -1.77833 3.12542 0 0 0 
-0.217671 -1.08502 2.97622 0 0 0 
-0.259216 -1.03278 2.99672 0 0 0 
-0.247867 -1.0097 2.9778 0 0 0 
-0.206211 -0.997957 2.94449 0 0 0 
-0.208357 -0.921151 2.91663 0 0 0 
-0.228996 -0.898513 2.92264 0 0 0 
-0.184644 -0.627334 2.8011 44 42 254 
-0.319454 -0.4536 2.83915 48 46 254 
-0.360954 -0.328335 2.81375 79 75 72 
-0.232333 -1.0883 2.99796 0 0 0 
-0.250426 -1.07743 3.0079 0 0 0 
-0.176181 -1.05271 2.93943 0 0 0 
-0.249428 -1.02775 2.98619 0 0 0 
-0.275955 -0.950161 2.97578 0 0 0 
-0.264564 -0.912656 2.95601 0 0 0 
-0.199463 -0.917333 2.90688 0 0 0 
-0.307228 -0.889876 2.97735 0 0 0 
-0.289761 -0.891899 2.96362 0 0 0 
-0.303974 -0.867626 2.96485 0 0 0 
-0.487879 -0.0566501 3.30559 0 0 0 
-0.429501 -0.0017684 2.84052 34 34 34 
-0.427905 0.258458 2.84455 254 33 31 
-0.30118 -0.913841 2.98204 0 0 0 
-0.213293 -0.676388 2.80102 254 55 51 
-0.216984 -0.904787 2.91363 0 0 0 
-0.425529 0.111625 2.85146 52 53 254 
-0.1415 -1.84503 3.11662 0 0 0 
-0.133912 -1.78993 3.11159 0 0 0 
-0.144701 -1.70012 3.10903 0 0 0 
-0.310679 -0.931605 2.98311 0 0 0 
-0.236207 -0.909405 2.92858 0 0 0 
-0.30056 -0.900113 2.96967 0 0 0 
-0.322675 -0.848163 2.95928 0 0 0 
-0.351208 -0.838684 3.03667 0 0 0 
-0.381459 -0.816151 3.11984 0 0 0 
0.124022 -0.771765 2.90202 254 46 42 
0.115025 -0.731123 2.88661 32 255 35 
-0.388749 -0.653342 2.9585 0 0 0 
-0.414195 -0.625196 3.03491 0 0 0 
-0.408044 -0.573312 2.96272 0 0 0 
-0.446329 -0.549051 3.10098 0 0 0 
-0.452765 -0.449866 3.00852 0 0 0 
-0.493904 -0.368397 3.10898 0 0 0 
-0.418836 -0.332911 2.85171 41 39 42 
-0.533497 -0.248517 3.03028 0 0 0 
-0.0233021 -0.0964983 2.70162 57 53 54 
-0.477006 0.523199 3.04477 0 0 0 
-0.492187 1.1587 2.92815 4 22 4 
-0.0282236 -1.18491 2.98435 0 0 0 
-0.331839 -0.823709 2.95618 0 0 0 
-0.3733 -0.818751 3.11272 0 0 0 
-0.380502 -0.801165 3.30216 0 0 0 
-0.387286 -0.77466 3.17851 0 0 0 
0.138276 -0.816941 2.92542 84 81 254 
-0.359089 -0.718564 2.90462 0 0 0 
-0.43253 -0.660377 3.15085 0 0 0 
-0.212058 -0.623018 2.8062 254 37 36 
-0.30279 -0.604076 2.86695 254 51 50 
-0.426465 -0.5938 3.0524 0 0 0 
-0.455343 -0.546079 3.13329 0 0 0 
-0.453539 -0.538143 3.12719 0 0 0 
-0.439001 -0.455451 2.94692 0 0 0 
-0.46538 -0.447318 3.05832 0 0 0 
0.10444 -0.48985 2.82005 52 255 57 
-0.415141 -0.342925 2.85497 76 79 254 
-0.497973 -0.318185 2.99714 0 0 0 
-0.528283 -0.27521 3.03924 0 0 0 
-0.523788 -0.269524 3.02373 0 0 0 
-0.525377 -0.244854 2.99547 0 0 0 
-0.205963 -0.0937316 2.70142 19 19 254 
-0.509661 -0.0566518 3.16062 0 0 0 
-0.429057 -0.0407049 3.36843 0 0 0 
0.199655 -0.0640217 2.8618 255 66 62 
-0.437162 -0.0231988 2.84053 254 54 52 
-0.432269 -0.00852118 2.86034 50 50 254 
-0.430367 -0.00258682 2.86946 20 20 254 
-0.431175 0.0543923 2.86025 46 44 45 
-0.432993 0.105362 2.85807 62 254 59 
-0.00339802 0.180293 2.72844 254 54 50 
-0.429149 0.253729 2.85758 53 51 52 
-0.517665 1.19487 2.99794 0 0 0 
-0.151733 -1.82604 3.11221 0 0 0 
-0.304363 -0.926912 2.97416 0 0 0 
-0.354134 -0.676182 2.90752 0 0 0 
-0.402347 -0.543564 2.92886 0 0 0 
-0.0662543 -0.202654 2.68846 57 56 54 
-0.536512 -0.154805 3.08504 0 0 0 
-0.433861 0.00635156 2.85802 41 47 254 
-0.134534 -1.78879 3.0929 0 0 0 
-0.0941385 -1.67959 3.04865 0 0 0 
-0.165608 -1.61331 3.0589 0 0 0 
-0.129976 -1.63819 3.08639 0 0 0 
-0.375049 -0.682063 2.94648 0 0 0 
-0.181048 -0.684193 2.82666 37 33 32 
-0.207895 -0.653066 2.80634 254 42 40 
-0.438491 -0.626029 3.15254 0 0 0 
-0.539289 -0.133876 3.07397 0 0 0 
-0.446799 -0.0867706 2.85789 51 254 58 
-0.491764 -0.0799187 2.93008 0 0 0 
-0.205406 -0.0890978 2.71649 254 13 13 
-0.481821 -0.0512849 2.93296 0 0 0 
-0.144499 -1.83118 3.08347 0 0 0 
-0.336331 -0.820543 2.97857 0 0 0 
-0.194307 -0.0902853 2.70551 25 254 30 
-0.421404 0.111802 2.85555 52 53 254 
-0.130565 -1.82222 3.09762 0 0 0 
-0.341683 -0.738976 2.92891 0 0 0 
0.233129 -0.10092 2.90894 53 52 50 
-0.457209 -0.233576 3.36556 0 0 0 
0.622178 -0.121179 3.12532 73 255 81 
-0.144398 -1.77482 3.11573 0 0 0 
-0.14585 -1.80139 3.11704 0 0 0 
-0.106734 -1.57957 3.10695 0 0 0 
-0.160903 -1.82891 3.11132 0 0 0 
0.315481 -0.10061 2.91684 76 255 62 
-0.201795 -1.66584 3.1433 0 0 0 
-0.117828 -1.55745 3.10944 0 0 0 
-0.156313 -1.63554 3.11722 0 0 0 
-0.134042 -1.80944 3.11974 0 0 0 
-0.488581 -0.0733141 2.93228 0 0 0 
-0.324517 1.19625 2.70565 67 252 70 
-0.273228 -1.12065 3.0328 0 0 0 
-0.48876 -0.399816 3.11335 0 0 0 
-0.145437 -1.80034 3.11429 0 0 0 
-0.383808 -0.702805 2.9987 0 0 0 
-0.391861 -0.625586 2.94213 0 0 0 
-0.463699 -0.532047 3.12741 0 0 0 
-0.436247 -0.521967 3.01449 0 0 0 
-0.540697 -0.144246 3.08397 0 0 0 
-0.152463 -1.78664 3.12455 0 0 0 
-0.140402 -1.81443 3.08764 0 0 0 
-0.242294 -0.916616 2.93473 0 0 0 
-0.362915 -0.83037 3.07246 0 0 0 
-0.44553 -0.372936 2.89181 68 254 69 
-0.488813 1.1569 2.9445 61 252 69 
-0.189335 -1.66469 3.16044 0 0 0 
-0.276761 -1.13317 3.05471 0 0 0 
-0.496261 -0.31835 3.00074 0 0 0 
-0.340311 -0.257536 2.75338 70 254 84 
-0.409416 -0.636568 3.05318 0 0 0 
-0.12263 -1.78978 3.09314 0 0 0 
-0.131688 -1.59701 3.10894 0 0 0 
-0.155364 -1.80688 3.11839 0 0 0 
-0.142043 -1.70045 3.11263 0 0 0 
-0.142326 -1.82401 3.11225 0 0 0 
-0.169223 -1.80075 3.11998 0 0 0 
-0.154964 -1.71326 3.11956 0 0 0 
-0.141046 -1.73265 3.11311 0 0 0 
-0.142202 -1.81993 3.1006 0 0 0 
-0.143543 -1.77347 3.11454 0 0 0 
-0.195781 -1.62142 3.14826 0 0 0 
-0.154333 -1.80618 3.11899 0 0 0 
-0.162582 -1.54084 3.13946 0 0 0 
-0.178835 -1.63588 3.14947 0 0 0 
-0.364553 -0.872016 3.29071 0 0 0 
-0.363197 -0.879209 3.29739 0 0 0 
-0.138777 -1.70104 3.10102 0 0 0 
-0.44317 -0.58819 3.09833 0 0 0 
-0.431928 -0.343931 2.86028 65 71 192 
-0.391627 0.108325 2.80061 60 58 59 
-0.133606 -1.7346 3.10495 0 0 0 
-0.377378 -0.0927856 3.42482 0 0 0 
-0.153639 -1.79876 3.10893 0 0 0 
-0.182458 -1.56742 3.08561 0 0 0 
-0.180125 -1.53152 3.08595 0 0 0 
-0.221916 -1.08462 2.97359 0 0 0 
-0.318556 -0.92488 2.98411 0 0 0 
-0.489542 1.15691 2.9451 61 252 69 
-0.494289 -0.37351 3.12013 0 0 0 
-0.531288 -0.274953 3.03811 0 0 0 
-0.147015 -1.83087 3.08748 0 0 0 
-0.147739 -1.67124 3.04064 0 0 0 
-0.175987 -1.62041 3.10093 0 0 0 
-0.186469 -1.57961 3.08631 0 0 0 
-0.184478 -1.53627 3.0988 0 0 0 
-0.180867 -1.76242 3.10741 0 0 0 
-0.108005 -1.6361 3.05209 0 0 0 
-0.194116 -1.59376 3.09236 0 0 0 
-0.0958773 -1.64317 3.04717 0 0 0 
-0.175572 -1.53465 3.09712 0 0 0 
-0.195871 -1.52635 3.11797 0 0 0 
-0.202051 -1.52011 3.12321 0 0 0 
-0.218943 -1.13003 2.98891 0 0 0 
-0.358615 -0.920394 3.13469 0 0 0 
-0.232997 -0.918476 2.9382 64 46 47 
-0.328256 -0.825253 2.95825 53 203 51 
-0.287918 -0.682636 2.86203 39 254 38 
-0.4745 -0.354587 2.99462 30 254 47 
-0.313355 -0.214303 3.51219 0 0 0 
-0.522439 0.00533277 3.12796 0 0 0 
-0.417545 0.860649 3.40625 0 0 0 
-0.4365 0.866803 3.37481 0 0 0 
-0.429575 0.874785 3.39801 0 0 0 
-0.440125 0.876331 3.37927 0 0 0 
-0.463665 0.875553 3.34529 0 0 0 
-0.42764 0.88965 3.39978 0 0 0 
-0.445063 0.884256 3.36867 0 0 0 
-0.452839 0.886608 3.35491 0 0 0 
-0.43888 0.896084 3.37365 0 0 0 
-0.424104 0.904419 3.39501 0 0 0 
-0.442402 0.902649 3.37854 0 0 0 
-0.491869 0.899749 3.31087 0 0 0 
-0.464193 0.911728 3.33466 0 0 0 
-0.427296 0.950402 3.39583 0 0 0 
-0.428105 0.978826 3.42259 0 0 0 
-0.402615 1.08456 3.40947 0 0 0 
-0.13421 -1.8059 3.10501 0 0 0 
-0.180271 -1.53255 3.13546 0 0 0 
-0.157867 -1.52018 3.16784 0 0 0 
-0.256528 -1.26907 3.11613 0 0 0 
-0.284984 -1.10999 3.04119 0 0 0 
-0.220135 -1.0839 2.97441 0 0 0 
-0.26943 -1.01745 2.98769 0 0 0 
-0.274799 -0.839864 2.93301 61 57 254 
-0.360618 -0.771095 3.33685 0 0 0 
-0.343575 -0.729657 3.36156 0 0 0 
-0.353058 -0.652874 2.92019 1 0 254 
-0.433348 -0.643957 3.11663 0 0 0 
-0.400812 -0.569964 2.95084 64 254 63 
-0.45876 -0.567576 3.17766 0 0 0 
-0.439088 -0.559903 3.05759 0 0 0 
-0.416251 -0.540132 2.92003 67 254 64 
-0.465912 -0.532292 3.12794 0 0 0 
-0.447382 -0.345481 2.89765 33 34 254 
-0.542883 -0.14422 3.08406 112 34 34 
-0.195061 -0.0889217 2.71114 255 17 16 
-0.198944 -0.0877884 2.72027 255 15 14 
-0.342835 -0.0158501 3.46078 0 0 0 
-0.294684 0.00691438 2.75147 255 47 47 
-0.446839 0.0314714 2.85634 49 255 46 
-0.263126 0.0870648 2.73783 28 255 29 
-0.521531 0.830929 3.31062 0 0 0 
-0.470549 0.874929 3.33097 0 0 0 
-0.460412 0.896816 3.34179 0 0 0 
-0.496885 0.885995 3.30671 0 0 0 
-0.449065 0.906155 3.35857 0 0 0 
-0.427226 0.973041 3.41076 0 0 0 
0.00836773 1.19523 2.70968 254 42 40 
-0.0194363 1.1973 2.69862 39 40 254 
-0.040221 1.19536 2.70221 35 33 34 
-0.561381 1.12548 3.16753 4 4 4 
-0.308789 1.19652 2.72078 39 37 254 
-0.545287 1.18668 2.98863 12 10 87 
-0.193823 -1.52682 3.13034 0 0 0 
-0.441457 -0.598354 3.20045 0 0 0 
-0.386749 -0.0948221 3.44997 0 0 0 
-0.425749 0.0315389 2.86331 255 49 49 
-0.413783 0.462969 3.39357 0 0 0 
-0.417215 0.506931 2.82586 42 41 39 
-0.438434 0.841286 3.4133 0 0 0 
-0.485591 0.829974 3.33245 0 0 0 
-0.198258 -1.66801 3.13697 0 0 0 
-0.201865 -1.65724 3.15394 0 0 0 
-0.33984 -0.931729 3.16715 0 0 0 
-0.35419 -0.815552 2.96287 30 37 114 
-0.385591 -0.668161 2.89012 61 254 58 
-0.443387 -0.675175 3.19665 0 0 0 
-0.342724 -0.675002 3.35617 0 0 0 
-0.329867 -0.256717 2.75629 255 64 57 
-0.312798 -0.239294 3.51564 0 0 0 
-0.265752 -0.115454 2.7348 4 255 14 
-0.271858 -0.0835521 2.74021 10 9 7 
-0.0517628 -0.0364542 2.7337 28 255 38 
-0.372302 0.0727004 2.79286 255 38 37 
-0.371425 0.111632 2.80131 44 42 45 
-0.428995 0.113863 2.83399 3 1 2 
-0.288954 0.229093 2.74883 25 25 255 
-0.401505 0.480842 3.38787 0 0 0 
-0.440805 0.829634 3.3948 0 0 0 
-0.422774 0.959361 3.39429 0 0 0 
-0.399214 0.995006 3.4259 0 0 0 
-0.0585576 -1.83106 3.16477 0 0 0 
-0.159824 -1.62981 3.04296 0 0 0 
-0.168298 -1.63591 3.15762 0 0 0 
-0.178087 -1.52754 3.11781 0 0 0 
-0.0147794 -0.237906 2.71639 38 36 255 
-0.426121 0.913111 3.3813 0 0 0 
-0.342344 1.18798 2.71617 31 254 36 
-0.107782 -1.54148 3.06782 0 0 0 
-0.150222 -1.81493 3.09832 0 0 0 
-0.125765 -1.63947 3.04812 0 0 0 
-0.380125 -0.810937 3.29206 0 0 0 
-0.306291 -0.607567 3.37708 0 0 0 
-0.439781 0.842071 3.38871 0 0 0 
-0.32188 1.00698 3.49521 0 0 0 
-0.150914 -1.66111 3.15301 0 0 0 
-0.140759 -1.76853 3.1123 0 0 0 
-0.172187 -1.79994 3.12331 0 0 0 
-0.157472 -1.78678 3.11895 0 0 0 
-0.187076 -1.64069 3.14018 0 0 0 
-0.183131 -1.62815 3.15141 0 0 0 
-0.133146 -1.56107 3.12327 0 0 0 
-0.447329 -0.034663 3.39985 0 0 0 
-0.16971 -1.63694 3.17314 0 0 0 
0.0762712 -0.207066 2.70868 51 49 50 
-0.285547 1.20521 2.72816 189 67 67 
-0.132499 -1.79013 3.09298 0 0 0 
-0.126114 -1.64384 3.10396 0 0 0 
-0.145657 -1.63906 3.13748 0 0 0 
-0.141577 -1.55835 3.13975 0 0 0 
-0.153345 -1.5378 3.15936 0 0 0 
-0.341238 -0.255987 3.49294 0 0 0 
-0.318566 -0.206255 3.52618 0 0 0 
0.0537982 -0.206701 2.7082 255 63 62 
-0.157409 -1.8273 3.12452 0 0 0 
-0.143938 -1.80833 3.09199 0 0 0 
-0.436256 0.893672 3.38605 0 0 0 
-0.548355 1.13014 3.1742 4 4 4 
-0.365654 -0.841946 3.09212 0 0 0 
-0.446413 -0.628452 3.15402 0 0 0 
-0.148959 -1.78753 3.12432 0 0 0 
-0.414373 0.114124 2.83942 3 1 2 
-0.368711 -0.769404 3.33185 0 0 0 
-0.428076 0.858235 3.40097 0 0 0 
-0.473783 0.863694 3.32749 0 0 0 
-0.47517 0.890182 3.32477 0 0 0 
-0.450422 0.947508 3.35799 0 0 0 
-0.412815 1.0824 3.40469 0 0 0 
-0.130752 -1.78345 3.10419 0 0 0 
-0.25995 -0.896459 2.94767 0 0 0 
-0.205127 -0.725486 2.8179 51 254 60 
-0.351651 -0.676059 2.8999 65 61 60 
-0.488421 -0.0581728 3.33019 0 0 0 
-0.482033 0.17122 3.32037 0 0 0 
-0.492541 0.821566 3.33843 0 0 0 
-0.426526 0.950776 3.39644 0 0 0 
-0.526165 -0.252799 3.00282 89 86 254 
-0.143276 -1.8318 3.08956 0 0 0 
-0.491059 -0.072757 2.93012 254 43 42 
-0.171474 -1.82166 3.11717 0 0 0 
-0.448061 -0.67043 3.18823 0 0 0 
-0.541552 -0.0780967 3.09114 0 0 0 
-0.498163 0.872804 3.30987 0 0 0 
-0.183029 -1.6104 3.09223 0 0 0 
-0.157118 -1.78258 3.12148 0 0 0 
-0.144959 -1.77252 3.1163 0 0 0 
-0.153998 -1.79274 3.10408 0 0 0 
-0.145488 -1.72726 3.11065 0 0 0 
-0.135738 -1.72767 3.10578 0 0 0 
-0.141465 -1.63574 3.08775 0 0 0 
-0.138749 -1.78691 3.08677 0 0 0 
-0.151234 -1.77897 3.12217 0 0 0 
-0.13519 -1.77392 3.08458 0 0 0 
-0.16093 -1.63416 3.17062 0 0 0 
-0.133103 -1.5566 3.12582 0 0 0 
-0.163334 -1.6672 3.18045 0 0 0 
-0.137838 -1.56307 3.11267 0 0 0 
-0.124142 -1.55502 3.07834 0 0 0 
-0.143451 -1.60357 3.12354 0 0 0 
-0.134182 -1.60257 3.08663 0 0 0 
-0.126223 -1.57326 3.09057 0 0 0 
-0.0997844 -1.57113 3.123 0 0 0 
-0.141735 -1.76261 3.10193 0 0 0 
-0.162764 -1.66105 3.03385 0 0 0 
-0.213303 -0.104728 3.55522 0 0 0 
-0.122007 -1.63032 3.12591 0 0 0 
-0.106157 -1.60618 3.12321 0 0 0 
-0.355061 -0.826227 3.02035 1 1 2 
-0.264574 -0.807815 2.84773 254 36 34 
-0.497474 -0.355987 3.06843 64 62 254 
-0.455676 0.863824 3.363 0 0 0 
-0.464869 0.864029 3.34772 0 0 0 
-0.454234 0.874383 3.36807 0 0 0 
-0.471453 0.887369 3.33452 0 0 0 
-0.451385 0.908929 3.37095 0 0 0 
-0.472122 0.902615 3.32907 0 0 0 
-0.449712 0.942372 3.36467 0 0 0 
-0.439581 0.957884 3.37867 0 0 0 
-0.454516 1.03337 3.34615 8 6 37 
-0.264948 -1.26617 3.11629 0 0 0 
-0.514419 -0.315277 3.00237 54 50 47 
-0.418986 0.0422164 3.41436 0 0 0 
-0.453539 0.821377 3.39411 0 0 0 
-0.453182 0.826836 3.40256 0 0 0 
-0.483586 0.862087 3.31662 0 0 0 
-0.459378 0.913306 3.34905 0 0 0 
-0.480174 0.932595 3.3164 0 0 0 
-0.455665 1.06121 3.34735 42 40 34 
-0.44785 1.0902 3.35158 46 222 64 
-0.530627 1.20469 2.98194 60 53 254 
-0.478806 -0.163433 3.36556 0 0 0 
-0.50081 1.22174 3.51333 0 0 0 
-0.576066 1.23235 3.03012 250 25 25 
-0.165072 -1.77596 3.08869 0 0 0 
-0.154028 -1.66261 3.1801 0 0 0 
-0.349749 -0.814368 2.97616 253 62 58 
-0.412918 0.0915813 2.841 255 40 39 
-0.433601 0.844279 3.41549 0 0 0 
-0.453164 0.930081 3.35243 0 0 0 
-0.419087 0.962078 3.4135 0 0 0 
-0.457485 1.05303 3.33815 37 36 31 
-0.484065 0.914112 3.31401 0 0 0 
-0.422117 0.994164 3.41785 0 0 0 
-0.610024 1.22447 3.32402 68 63 255 
-0.518339 0.858233 3.32891 0 0 0 
-0.164818 -1.83253 3.11848 0 0 0 
-0.148861 -1.76369 3.11324 0 0 0 
-0.148601 -1.73486 3.11121 0 0 0 
-0.145557 -1.71122 3.12058 0 0 0 
-0.159218 -1.78032 3.12957 0 0 0 
-0.155758 -1.81136 3.13552 0 0 0 
-0.168424 -1.76301 3.145 0 0 0 
-0.144727 -1.83136 3.08209 0 0 0 
-0.129022 -1.77587 3.09548 0 0 0 
-0.156064 -1.78098 3.13641 0 0 0 
-0.139939 -1.59364 3.12237 0 0 0 
-0.111726 -1.55866 3.09921 0 0 0 
-0.140111 -1.55545 3.13163 0 0 0 
-0.101292 -1.56051 3.09614 0 0 0 
-0.116275 -1.59401 3.0976 0 0 0 
-0.129124 -1.56873 3.11882 0 0 0 
-0.147748 -1.83203 3.08121 0 0 0 
-0.138626 -1.73623 3.10321 0 0 0 
-0.140612 -1.79382 3.10607 0 0 0 
-0.124623 -1.57468 3.11175 0 0 0 
-0.0949849 -1.65243 3.07045 0 0 0 
-0.173101 -1.65752 3.14962 0 0 0 
-0.148856 -1.78957 3.12625 0 0 0 
-0.151462 -1.82888 3.11094 0 0 0 
-0.098923 -1.65443 3.06285 0 0 0 
-0.161204 -1.82692 3.11933 0 0 0 
-0.152739 -1.80356 3.13271 0 0 0 
-0.105552 -1.68747 3.04631 0 0 0 
-0.138301 -1.78477 3.08598 0 0 0 
-0.154894 -1.81467 3.12947 0 0 0 
-0.104705 -1.68779 3.03921 0 0 0 
-0.154626 -1.62976 3.16791 0 0 0 
-0.142163 -1.74782 3.09875 0 0 0 
-0.13992 -1.72992 3.10076 0 0 0 
-0.147611 -1.80933 3.1058 0 0 0 
-0.112416 -1.68852 3.02926 0 0 0 
-0.120832 -1.56314 3.08923 0 0 0 
-0.137327 -1.81043 3.07985 0 0 0 
-0.145924 -1.71624 3.13159 0 0 0 
-0.134532 -1.72419 3.08116 0 0 0 
-0.148015 -1.79279 3.11147 0 0 0 
-0.118007 -1.66 3.04785 0 0 0 
-0.167774 -1.82991 3.11012 0 0 0 
-0.163343 -1.72207 3.10676 0 0 0 
-0.139411 -1.5769 3.09978 0 0 0 
-0.106685 -1.5716 3.1039 0 0 0 
-0.159049 -1.5606 3.11684 0 0 0 
-0.103384 -1.56739 3.09814 0 0 0 
-0.131821 -1.81035 3.10234 0 0 0 
-0.163554 -1.64418 3.14959 0 0 0 
-0.14306 -1.73579 3.11389 0 0 0 
-0.135478 -1.73636 3.10573 0 0 0 
-0.146944 -1.75547 3.10809 0 0 0 
-0.0911654 -1.6477 3.07975 0 0 0 
-0.187221 -1.66353 3.16305 0 0 0 
-0.144743 -1.8465 3.10588 0 0 0 
-0.148001 -1.82576 3.11644 0 0 0 
-0.153928 -1.81495 3.13043 0 0 0 
-0.159713 -1.77526 3.1241 0 0 0 
-0.0908472 -1.64862 3.07694 0 0 0 
-0.0915873 -1.65407 3.04955 0 0 0 
-0.126961 -1.71882 3.095 0 0 0 
-0.189626 -1.66504 3.16083 0 0 0 
-0.128631 -1.73385 3.07569 0 0 0 
-0.111659 -1.66347 3.04734 0 0 0 
-0.145936 -1.80694 3.12758 0 0 0 
-0.139345 -1.80503 3.11387 0 0 0 
-0.152389 -1.82885 3.10916 0 0 0 
-0.136135 -1.82129 3.11148 0 0 0 
-0.221463 -1.689 3.11851 0 0 0 
-0.180623 -1.70554 3.11631 0 0 0 
-0.16331 -1.72158 3.1144 0 0 0 
-0.146257 -1.75612 3.10951 0 0 0 
-0.169008 -1.72711 3.1059 0 0 0 
-0.111222 -1.79011 3.11015 0 0 0 
-0.127868 -1.70159 3.11434 0 0 0 
-0.170808 -1.69962 3.12784 0 0 0 
-0.130087 -1.81639 3.1169 0 0 0 
-0.152579 -1.81605 3.12672 0 0 0 
-0.136782 -1.74401 3.1218 0 0 0 
-0.127202 -1.73096 3.11613 0 0 0 
-0.129101 -1.79375 3.1179 0 0 0 
-0.139726 -1.78888 3.12551 0 0 0 
-0.126715 -1.76928 3.119 0 0 0 
-0.127696 -1.75519 3.11976 0 0 0 
-0.135417 -1.80244 3.12039 0 0 0 
-0.150382 -1.79906 3.12925 0 0 0 
-0.117519 -1.7929 3.10315 0 0 0 
-0.117873 -1.79959 3.11391 0 0 0 
-0.133327 -1.74366 3.10678 0 0 0 
-0.113666 -1.75537 3.09809 0 0 0 
-0.144251 -1.73439 3.11336 0 0 0 
-0.143386 -1.84694 3.10685 0 0 0 
-0.157919 -1.78195 3.11929 0 0 0 
-0.140393 -1.70332 3.1135 0 0 0 
-0.154666 -1.7204 3.13949 0 0 0 
-0.884048 -2.27639 2.13582 0 0 0 
0.170177 -1.50645 3.50269 0 0 0 
-0.951527 -2.30268 2.05661 0 0 0 
-0.68469 -2.16157 2.40354 0 0 0 
-0.650935 -2.10278 2.45178 0 0 0 
-1.49945 -2.70835 1.35007 0 0 0 
-1.12131 -2.41684 1.8613 0 0 0 
-1.11553 -2.44934 1.84444 0 0 0 
-0.0134644 -1.66893 3.26774 0 0 0 
-1.12427 -2.49429 1.82779 0 0 0 
-1.6314 -2.81714 1.17833 0 0 0 
-1.69399 -2.8537 1.09754 0 0 0 
51.4026 35.0915 68.703 0 0 0 
-0.136669 -1.7206 3.11167 0 0 0 
-0.131612 -1.59121 3.10748 0 0 0 
-0.235113 -1.65801 3.08683 0 0 0 
-0.102323 -1.7646 3.12126 0 0 0 
-0.105249 -1.73946 3.11856 0 0 0 
-0.186329 -1.74243 3.10219 0 0 0 
-0.134961 -1.79007 3.11166 0 0 0 
-0.225366 -1.65018 3.10349 0 0 0 
-0.14974 -1.84733 3.10876 0 0 0 
-0.16778 -1.81328 3.10775 0 0 0 
-0.177237 -1.78312 3.10755 0 0 0 
-0.21435 -1.6537 3.09988 0 0 0 
-0.129117 -1.81761 3.11842 0 0 0 
-0.12296 -1.74002 3.11882 0 0 0 
-0.13543 -1.72182 3.12199 0 0 0 
-0.12699 -1.75308 3.12037 0 0 0 
-0.0872254 -1.52205 3.07462 0 0 0 
-0.150699 -1.83768 3.10694 0 0 0 
-0.19291 -1.63429 3.15613 0 0 0 
-0.189335 -1.5132 3.13946 0 0 0 
-0.175028 -1.53061 3.13497 0 0 0 
-0.120994 -1.59117 3.0991 0 0 0 
-0.179955 -1.63042 3.15442 0 0 0 
-0.177895 -1.62261 3.17886 0 0 0 
-0.170514 -1.62251 3.16609 0 0 0 
-0.130245 -1.59277 3.09194 0 0 0 
-0.12581 -1.73161 3.08256 0 0 0 
-0.147101 -1.61677 3.1279 0 0 0 
-0.207927 -1.64892 3.1285 0 0 0 
-0.0980115 -1.64743 3.05486 0 0 0 
-0.139501 -1.73721 3.10274 0 0 0 
-0.381998 -1.91283 2.78624 0 0 0 
-1.30398 -1.2638 1.99452 0 0 0 
-0.678766 -2.1343 2.41471 0 0 0 
-0.455379 -1.9517 2.66506 0 0 0 
0.519225 0.516443 2.52786 10 255 13 
-1.01271 -2.36322 1.95481 0 0 0 
0.892275 -1.02666 4.44233 0 0 0 
0.953756 -1.07419 4.56875 0 0 0 
-0.274023 -1.88565 2.93039 0 0 0 
-1388.75 -1043.03 -1732 0 0 0 
-1.23924 -2.5351 1.65595 0 0 0 
-0.920248 -2.3098 2.11902 0 0 0 
-0.0413694 -1.6071 3.12695 0 0 0 
-0.225667 -1.68249 3.09749 0 0 0 
-0.0430191 -1.64946 3.10817 0 0 0 
-0.0515697 -1.6228 3.10933 0 0 0 
-0.222739 -1.68455 3.11771 0 0 0 
-0.163381 -1.79048 3.10916 0 0 0 
-0.116443 -1.71113 3.11293 0 0 0 
-0.0694229 -1.62702 3.09203 0 0 0 
-0.125028 -1.75349 3.11901 0 0 0 
