ply                 
format ascii 1.0    
element vertex 1101
property float x    
property float y    
property float z    
property uchar red  
property uchar green
property uchar blue 
end_header          
-0.177145 -0.696775 2.8186 0 0 0 
-0.265401 -0.679825 2.84395 254 56 55 
-0.135631 -0.61089 2.79332 0 0 0 
-0.0628083 -0.599149 2.8034 86 85 81 
-0.0842555 -0.558686 2.78843 36 34 35 
-0.0700871 -0.502971 2.77738 35 33 34 
-0.374025 -0.403395 2.86374 43 252 103 
-0.0292614 -0.367432 2.74268 74 72 73 
-0.238873 -0.289876 2.72082 254 107 102 
-0.0128732 -0.179758 2.69515 0 0 0 
-0.0720306 -0.112203 2.68798 254 83 82 
-0.021396 -0.101856 2.69346 57 254 58 
-0.221713 -0.0803465 2.71093 254 29 27 
-0.221892 -0.0704975 2.70912 18 16 17 
-0.300717 0.219705 2.74578 22 25 254 
-0.238803 0.224932 2.71714 149 86 89 
0.0301814 0.490342 2.7422 83 79 78 
-0.274378 0.639695 2.73573 41 39 40 
0.169048 0.668648 2.79228 254 44 43 
0.135218 0.670183 2.77044 0 0 0 
-0.354522 0.766691 2.79542 254 28 27 
0.183977 0.839291 2.7879 0 0 0 
0.12879 0.988311 2.74492 58 57 55 
-0.145504 -1.52008 3.06096 0 0 0 
-0.154816 -1.52009 3.06919 0 0 0 
-0.211893 -1.12793 2.99133 0 0 0 
-0.305395 -0.675594 2.86901 72 250 60 
-0.193259 -0.633553 2.80832 0 0 0 
-0.135687 -0.610024 2.79384 0 0 0 
-0.0623646 -0.598623 2.80484 0 0 0 
-0.133747 -0.556125 2.77639 104 98 70 
-0.329962 -0.410391 2.84378 0 0 0 
-0.336189 -0.30396 2.78869 31 28 254 
-0.239796 -0.29098 2.71619 40 24 25 
-0.0829144 -0.179158 2.68951 34 33 31 
-0.0128379 -0.179328 2.6923 31 31 33 
-0.0587861 -0.160006 2.68572 3 1 2 
-0.0711466 -0.112233 2.69336 255 26 24 
-0.441092 -0.100858 2.86875 0 0 0 
0.120944 -0.117304 2.74194 255 53 52 
-0.0140781 -0.102515 2.69187 55 254 54 
-0.02337 -0.101091 2.69478 57 53 54 
-0.0347811 -0.0969474 2.69176 40 41 254 
-0.254359 -0.0758072 2.72016 37 37 254 
-0.221807 -0.0701531 2.70939 18 16 17 
-0.121046 -0.0621999 2.69906 83 82 80 
-0.35078 0.0169331 2.778 20 20 254 
-0.18629 0.014106 2.71917 254 125 125 
-0.366831 0.290136 2.79445 0 0 0 
-0.157895 0.346905 2.71557 59 61 242 
-0.242348 0.353627 2.71907 23 25 27 
-0.279947 0.420569 2.73475 0 0 0 
-0.401893 0.502424 2.83083 35 33 34 
-0.261577 0.513437 2.73003 23 24 254 
0.0214118 0.544489 2.72304 0 0 0 
-0.335249 0.573928 2.76871 45 46 254 
0.134891 0.670592 2.77007 0 0 0 
-0.354884 0.765178 2.79144 0 0 0 
-0.354988 0.773629 2.79289 0 0 0 
0.184999 0.839679 2.79043 86 254 68 
0.185575 0.859056 2.78588 4 1 1 
-0.135178 0.872408 2.69335 254 49 48 
0.0427279 0.889238 2.6994 69 67 254 
0.186502 0.929281 2.78236 15 45 14 
0.188266 0.940452 2.78128 24 66 21 
0.128944 0.987964 2.74589 0 0 0 
0.121108 -0.116619 2.74215 11 10 8 
-0.185901 -0.0706429 2.71947 99 97 98 
-0.191057 0.0617684 2.7202 254 51 51 
-0.397689 0.0882669 2.81983 32 254 56 
-0.182404 0.347883 2.72065 65 63 64 
0.185493 0.8598 2.78861 62 254 65 
-0.150046 -1.52212 3.06222 0 0 0 
-0.0865818 -0.805067 2.8585 0 0 0 
-0.204706 -0.67833 2.80552 36 254 35 
-0.025342 -0.206311 2.68972 0 0 0 
-0.315254 -0.141686 2.75261 0 0 0 
-0.191339 -0.0967133 2.71026 19 19 254 
-0.0109887 -0.100177 2.6913 85 86 254 
0.0414164 -0.0980252 2.71079 1 1 1 
-0.185195 0.0132826 2.71976 0 0 0 
-0.183618 0.0864116 2.71842 17 18 254 
-0.226109 0.100325 2.7111 255 36 35 
-0.157435 0.723871 2.72007 42 37 255 
-0.126079 0.783075 2.7154 254 37 36 
-0.0492151 -0.649265 2.82108 0 0 0 
-0.117932 -0.0483113 2.70942 73 254 63 
0.0545005 -0.0504375 2.73435 59 62 255 
-0.0122333 -0.218758 2.68828 0 0 0 
-0.135504 -0.0970674 2.69268 254 77 72 
-0.0278935 -0.0906725 2.69174 40 38 39 
-0.177066 -0.697861 2.82895 0 0 0 
-0.171183 -0.683436 2.81157 0 0 0 
0.083284 -0.696027 2.87501 254 85 81 
-0.177353 -0.639329 2.80393 0 0 0 
-0.194459 -0.634043 2.81624 0 0 0 
0.00113001 0.570572 2.71684 254 39 38 
0.229033 0.626944 2.85176 254 86 82 
0.204485 0.639113 2.82697 254 55 54 
0.235871 0.64422 2.85849 254 92 88 
0.248154 0.654481 2.87459 70 69 254 
0.187442 0.648347 2.80841 41 39 33 
0.209973 0.651672 2.83231 60 59 55 
0.201845 0.657327 2.82102 28 27 23 
0.236674 0.667761 2.8625 94 91 254 
0.187415 0.668276 2.80724 71 254 80 
0.140465 0.672513 2.77148 71 254 71 
0.183315 0.684251 2.80349 7 3 68 
0.162997 0.686342 2.78911 0 0 0 
0.218601 0.697774 2.83862 89 85 254 
0.195095 0.698743 2.81435 48 249 48 
0.185797 0.699569 2.80656 140 47 47 
0.155482 0.699902 2.7829 0 0 0 
0.284458 0.813667 2.91194 69 66 59 
0.287295 0.824651 2.91453 99 254 72 
0.262172 0.838439 2.87553 255 68 67 
0.226746 0.839741 2.82627 90 86 87 
0.257294 0.851871 2.85422 86 83 254 
0.241255 0.850229 2.83655 254 69 68 
0.259797 0.862498 2.85252 88 84 81 
0.174827 0.849509 2.77749 0 0 0 
0.19241 0.852619 2.78976 4 12 4 
0.148321 0.851186 2.76008 72 70 254 
0.235596 0.862235 2.82521 85 254 84 
0.223117 0.865111 2.81278 59 253 65 
0.194105 0.863263 2.7881 6 5 13 
0.170251 0.861788 2.77157 0 0 0 
0.160112 0.862959 2.76302 0 0 0 
0.263956 0.907666 2.85267 87 86 82 
0.230834 0.901865 2.81832 98 96 254 
0.232946 0.91232 2.82037 73 72 68 
0.266991 0.923999 2.8589 255 68 69 
0.27194 0.929802 2.86675 68 67 62 
0.222418 0.929001 2.81003 76 74 255 
0.199231 0.927099 2.79014 135 39 37 
0.263146 0.94523 2.85856 73 255 68 
0.187175 0.928947 2.78175 52 17 17 
0.287284 0.955142 2.88885 64 255 65 
0.239519 0.943865 2.82857 66 64 255 
0.22125 0.94027 2.80868 254 89 88 
0.188333 0.940789 2.78131 21 68 19 
0.211495 0.946823 2.8022 56 57 249 
0.166269 0.95505 2.76707 80 254 88 
0.206254 1.2086 2.703 80 20 18 
-0.143121 -1.80928 3.11391 0 0 0 
-0.151673 -1.80033 3.11741 0 0 0 
-0.140672 -1.5858 3.05477 0 0 0 
-0.0344052 -1.13596 2.97312 0 0 0 
0.188651 -0.770736 2.98652 64 63 61 
0.267519 -0.713808 3.12534 47 43 42 
0.273273 -0.681183 3.14418 36 36 36 
-0.331488 -0.410556 2.85509 0 0 0 
-0.359441 -0.341412 2.83688 0 0 0 
0.169702 -0.32812 2.79718 255 59 60 
0.218893 -0.308001 2.85795 64 62 255 
-0.331982 -0.257476 2.77153 0 0 0 
-0.33874 -0.252248 2.76811 0 0 0 
0.216378 -0.276587 2.82167 255 73 72 
0.332607 -0.0721197 3.09971 51 50 48 
0.320866 -0.0511204 3.10048 69 67 255 
-0.344284 0.00956271 2.77153 40 42 254 
-0.188605 0.0772667 2.71339 1 1 0 
-0.107804 0.221102 2.71385 77 78 254 
-0.154887 0.355211 2.7234 57 57 255 
-0.033107 0.400492 2.7283 0 0 0 
0.113936 0.413196 2.7608 46 43 254 
0.17668 0.598466 2.80232 66 65 61 
0.195692 0.622104 2.81696 68 65 60 
0.176086 0.678228 2.79954 0 0 0 
0.198938 0.842004 2.79945 29 89 28 
0.222218 0.845503 2.81995 81 77 74 
0.201305 0.850905 2.79713 30 27 23 
0.15705 0.85117 2.76651 0 0 0 
0.24052 0.871146 2.83179 94 89 254 
0.216964 0.870792 2.80838 87 83 80 
0.201124 0.899831 2.79039 35 34 77 
0.23952 0.927247 2.82969 78 255 80 
0.241269 0.95475 2.82924 254 41 40 
0.165375 0.944081 2.76557 10 3 3 
0.128819 0.987701 2.74206 254 76 76 
0.166261 1.19431 2.6674 254 40 39 
0.106405 -0.210519 2.73787 0 0 0 
0.129919 -0.0654899 2.75852 255 39 38 
-0.368646 0.068702 2.79479 22 255 33 
0.195309 0.935144 2.78509 58 60 55 
0.216996 1.2073 2.6961 25 21 18 
0.164861 1.20428 2.66823 28 26 254 
-0.126006 -1.70881 3.09763 0 0 0 
-0.146153 -1.62066 3.05508 0 0 0 
-0.0764236 -1.60816 3.07957 0 0 0 
-0.170439 -1.52627 3.10657 0 0 0 
-0.160884 -0.683256 2.81412 0 0 0 
-0.204119 -0.677795 2.80504 36 254 35 
-0.278611 -0.121829 2.7293 44 43 39 
-0.0981187 -0.0948735 2.69705 64 254 68 
0.0735225 -0.0996492 2.71581 87 88 255 
0.120583 -0.0988654 2.74153 33 255 43 
0.135347 -0.0942239 2.74575 48 46 255 
0.26859 0.821354 2.89429 254 87 84 
0.183046 0.883427 2.77321 59 54 254 
-0.31504 1.20602 2.74847 0 0 0 
-0.111978 -1.77508 3.1244 0 0 0 
-0.195162 0.10195 2.71589 1 0 0 
-0.13859 -1.72575 3.1121 0 0 0 
-0.113306 -1.60502 3.0673 0 0 0 
-0.167086 -1.50732 3.06527 0 0 0 
-0.0662498 -1.51151 3.09784 0 0 0 
0.105131 -0.829837 2.94915 254 58 57 
-0.134382 -0.0965101 2.68062 254 77 72 
-0.115343 -0.0884534 2.69363 67 66 64 
-0.155528 -1.73839 3.05929 0 0 0 
-0.138051 -1.60976 3.04617 0 0 0 
-0.182793 -1.63077 3.10118 0 0 0 
-0.126817 1.1332 2.67063 254 64 63 
-0.286644 -0.0890264 2.73718 255 20 20 
-0.107375 -1.75723 3.09753 0 0 0 
-0.125851 -1.74733 3.1145 0 0 0 
-0.165143 -1.52357 3.09975 0 0 0 
-0.122034 -1.69517 3.11504 0 0 0 
0.194018 0.686165 2.81481 33 247 35 
0.182808 0.852111 2.78269 1 1 1 
0.263951 0.879142 2.85489 254 89 85 
0.173205 0.888438 2.77002 0 0 0 
0.20463 0.912429 2.7942 39 173 42 
0.134394 0.985631 2.74939 48 51 254 
0.165462 1.19954 2.68149 76 18 19 
0.22568 1.20225 2.7143 35 36 32 
-0.125194 -1.723 3.10841 0 0 0 
0.33182 -0.0748028 3.20858 53 50 255 
0.164257 0.856896 2.76932 0 0 0 
0.228216 0.858755 2.82211 81 82 77 
0.208512 0.877916 2.79761 51 137 54 
0.256784 0.920795 2.84534 73 254 83 
0.215602 0.935241 2.80818 73 254 66 
0.202135 0.691455 2.82036 254 66 65 
0.202688 0.697106 2.84625 67 60 254 
0.276019 0.837763 2.88295 53 254 45 
0.234453 0.844755 2.8295 254 99 98 
0.271046 0.884152 2.86147 71 66 254 
0.250503 0.838127 2.85254 54 42 254 
0.186839 0.953607 2.78215 28 26 87 
0.164905 1.20883 2.68165 5 4 19 
-0.14692 -1.76838 3.10538 0 0 0 
-0.135543 -1.74056 3.10683 0 0 0 
-0.169196 -1.51453 3.07879 0 0 0 
-0.137864 -1.69268 3.10652 0 0 0 
-0.105819 -1.54759 3.11384 0 0 0 
0.197445 0.96743 2.78985 66 61 59 
0.162144 0.875549 2.76447 0 0 0 
-0.139106 -1.74436 3.11373 0 0 0 
0.339404 -0.261475 3.16576 47 47 255 
0.0895766 -0.462388 2.79768 68 75 111 
-0.0199607 -0.17997 2.70355 0 0 0 
-0.0387278 0.344509 2.73533 0 0 0 
0.310884 0.340347 2.9981 36 254 63 
-0.0375876 0.386675 2.73549 0 0 0 
-0.0380035 0.402144 2.73606 0 0 0 
0.232022 0.641543 2.85456 82 254 94 
0.282364 0.645812 2.92513 63 60 55 
0.287599 0.647089 2.93595 66 63 58 
0.273353 0.645249 2.90896 82 254 85 
0.255474 0.645751 2.88328 64 63 59 
0.269145 0.655531 2.90306 254 76 73 
0.291882 0.661018 2.94042 71 67 254 
0.18749 0.655666 2.80722 76 70 72 
0.232162 0.662823 2.8548 78 75 254 
0.16808 0.669544 2.79344 254 44 43 
0.215414 0.694159 2.83459 60 59 55 
0.312692 0.818944 2.97183 37 34 29 
0.279438 0.812481 2.90629 74 254 76 
0.295916 0.818022 2.92861 254 65 62 
0.291908 0.820504 2.91897 44 40 254 
0.275615 0.81933 2.89386 72 71 66 
0.312686 0.827876 2.95733 254 49 45 
0.309232 0.832072 2.93543 72 254 81 
0.315992 0.837783 2.95828 63 254 63 
0.286519 0.837561 2.89993 70 254 73 
0.328374 0.848222 2.97143 42 254 55 
0.183192 0.839444 2.78693 254 65 64 
0.299302 0.846454 2.91472 59 54 48 
0.311138 0.84792 2.93035 50 254 53 
0.249723 0.846112 2.84594 254 55 54 
0.278389 0.848433 2.88012 254 72 68 
0.323203 0.858542 2.95929 36 30 30 
0.239998 0.851389 2.839 70 69 67 
0.230398 0.850194 2.82318 254 85 85 
0.169486 0.852584 2.77386 0 0 0 
0.314891 0.861696 2.93314 28 254 49 
0.301971 0.862707 2.90938 47 43 34 
0.332483 0.872385 2.96514 40 31 254 
0.278503 0.863354 2.87471 254 80 77 
0.157748 0.864191 2.76522 68 66 67 
0.246093 0.865214 2.83623 75 74 70 
0.324942 0.875181 2.94692 30 254 42 
0.310312 0.875323 2.91965 59 55 46 
0.293737 0.876118 2.8938 54 254 61 
0.311437 0.886502 2.91805 254 57 53 
0.341148 0.897866 2.98596 43 254 73 
0.295934 0.887088 2.89383 254 71 67 
0.329232 0.897008 2.95572 47 254 51 
0.300374 0.893035 2.90203 47 44 35 
0.318452 0.896799 2.92938 254 42 37 
0.233576 0.88786 2.81845 254 68 67 
0.336958 0.908213 2.97255 48 43 39 
0.316605 0.908771 2.92633 254 52 47 
0.321833 0.910768 2.93874 52 47 43 
0.300933 0.907942 2.9013 254 58 55 
0.276099 0.906558 2.86702 80 254 86 
0.261706 0.913822 2.85057 85 84 254 
0.322102 0.925368 2.93889 40 35 29 
0.314406 0.927854 2.92386 254 53 48 
0.306004 0.926362 2.90766 69 64 254 
0.237759 0.921691 2.82268 254 80 79 
0.180316 0.927543 2.77578 23 7 7 
0.263494 0.92735 2.85046 75 254 84 
0.273381 0.928597 2.86485 80 254 89 
0.250733 0.928886 2.83788 82 79 254 
0.34087 0.950801 2.99029 50 39 254 
0.314862 0.940011 2.92408 254 81 78 
0.302769 0.940103 2.90287 47 44 39 
0.308237 0.94307 2.9143 44 41 36 
0.278517 0.941154 2.86886 77 74 69 
0.288581 0.943266 2.88428 41 36 254 
0.250525 0.940768 2.83746 79 78 254 
0.300106 0.95587 2.90288 41 254 52 
0.263371 0.953398 2.85113 85 82 254 
0.281073 0.955216 2.87483 70 67 254 
0.300481 0.966228 2.90205 68 65 254 
0.28182 0.966025 2.87479 48 41 254 
0.195858 0.968377 2.79225 41 254 51 
0.23961 0.967118 2.82638 254 67 66 
0.228008 1.02027 2.80853 54 52 254 
0.105252 -0.500834 2.80773 40 198 40 
-0.045624 -0.101941 2.70122 0 0 0 
-0.195885 0.0152002 2.73308 0 0 0 
0.284545 0.636527 2.93157 254 93 90 
0.268569 0.635071 2.90373 74 73 68 
0.185107 0.678928 2.80945 41 149 41 
0.172439 0.685465 2.79634 254 58 54 
0.221306 0.691758 2.84386 254 57 53 
0.189128 0.692731 2.81058 72 71 68 
0.299713 0.834007 2.93086 254 84 83 
0.289838 0.834126 2.90847 69 68 64 
0.33698 0.849571 3.0047 50 254 54 
0.311725 0.844176 2.94661 91 92 87 
0.262068 0.837123 2.86962 80 77 70 
0.235708 0.839541 2.83562 46 42 41 
0.194026 0.84678 2.7949 23 8 8 
0.306458 0.85532 2.92585 66 254 73 
0.311642 0.868772 2.92763 254 60 56 
0.179439 0.863072 2.77808 74 254 65 
0.321344 0.881854 2.94075 254 47 43 
0.190276 0.874074 2.78354 59 254 65 
0.171035 0.877939 2.77151 0 0 0 
0.261498 0.882166 2.8483 79 78 74 
0.31942 0.917838 2.93147 77 72 254 
0.19291 0.922662 2.78753 61 60 58 
0.244507 0.922534 2.83235 74 254 78 
0.338256 0.938921 2.97441 53 49 254 
0.181876 0.936037 2.77896 70 65 254 
0.307966 0.952474 2.91265 27 254 38 
0.321214 0.964832 2.93864 49 254 55 
0.146475 -0.364765 2.79074 67 254 65 
0.280069 0.664087 2.91825 62 57 254 
0.156465 0.692507 2.78425 0 0 0 
0.253248 0.8578 2.8481 45 44 40 
0.2956 0.868802 2.9053 73 68 254 
0.348311 0.924825 3.01108 43 254 48 
0.204405 0.92009 2.79429 64 254 59 
0.309523 0.961314 2.9067 71 254 76 
-0.0319622 -0.206346 2.69734 0 0 0 
-0.0362262 -0.0952092 2.70342 0 0 0 
-0.0414281 -0.0497481 2.72656 0 0 0 
-0.205002 0.103848 2.7266 0 0 0 
0.249591 0.838675 2.85392 69 65 254 
0.15352 0.850712 2.76387 0 0 0 
0.317779 0.85941 2.95013 37 29 254 
0.308499 0.819633 2.96136 51 48 254 
0.218464 0.914458 2.81223 83 82 78 
0.331429 -0.076994 3.25211 12 8 5 
0.175971 0.943412 2.77383 45 44 42 
0.303464 0.88307 2.91577 254 42 37 
0.349847 -0.0788142 3.22578 12 8 5 
-0.163358 0.628175 2.72538 0 0 0 
-0.151036 -1.54488 3.08993 0 0 0 
-0.107853 -1.71161 3.11554 0 0 0 
0.217521 0.685862 2.83922 78 75 254 
0.295671 0.838184 2.91569 254 77 74 
0.326165 0.836883 2.97549 72 68 65 
0.32461 0.850284 2.96207 54 47 39 
0.333759 0.867902 2.96985 25 254 42 
0.266321 0.904095 2.85605 88 84 254 
0.341689 0.907291 2.98585 41 254 52 
0.298772 0.927917 2.89909 254 54 51 
0.286 0.948155 2.87935 60 57 52 
0.305437 0.947284 2.9098 254 50 47 
0.233978 1.22141 2.7163 22 19 132 
0.263047 0.646427 2.91495 254 83 80 
0.328696 0.848082 2.97233 254 51 46 
0.334513 0.862109 2.98558 44 35 28 
0.251425 0.870361 2.84098 79 254 91 
0.319376 0.866682 2.93821 43 39 30 
0.307064 0.868342 2.91433 37 254 53 
0.302057 0.905446 2.90263 48 45 254 
0.329856 0.908608 2.95592 254 35 30 
0.317676 0.91952 2.93513 254 58 53 
0.346175 0.927344 3.01904 254 45 40 
0.200647 0.953561 2.79385 54 217 95 
0.309587 0.935007 2.91927 45 41 254 
0.243751 0.949167 2.83271 79 77 254 
0.199399 0.692838 2.82193 254 66 65 
0.26811 0.819073 2.88115 66 254 56 
0.230004 0.870033 2.81605 91 87 84 
0.300164 0.881456 2.90082 254 62 55 
0.323423 0.906558 2.94846 40 254 49 
0.311387 0.898943 2.91902 254 58 53 
0.332551 0.9003 2.97638 40 254 51 
0.247004 0.918623 2.83536 75 254 81 
0.269389 0.918334 2.85849 75 71 68 
0.307173 0.963259 2.9105 57 53 50 
-0.141224 -1.7248 3.12014 0 0 0 
0.151642 0.669212 2.78307 0 0 0 
0.312854 0.654693 2.99616 69 254 83 
0.19014 0.831025 2.79745 8 6 16 
0.302692 0.829052 2.93583 58 58 50 
0.311507 0.847719 2.93588 254 37 32 
0.312762 0.883665 2.92366 47 42 36 
0.201111 0.91411 2.79671 39 173 42 
0.321139 0.896021 2.93614 43 254 52 
0.30623 0.898094 2.90907 49 44 38 
0.350818 0.907535 3.02091 86 76 74 
0.320075 0.959564 2.93369 56 51 254 
0.209263 -0.266098 2.82464 253 50 50 
0.225058 -0.264558 2.84515 74 72 73 
0.255829 0.658291 2.88805 71 72 67 
0.274592 0.657379 2.91306 68 254 89 
0.300585 0.843536 2.92177 64 254 59 
0.340645 0.87326 2.98694 48 44 35 
0.32843 0.880834 2.95206 55 51 42 
0.350263 0.917528 3.01501 56 254 70 
0.338248 0.927245 2.97498 36 254 47 
0.291376 0.948895 2.88921 254 52 49 
0.242551 0.96258 2.83245 76 72 71 
0.343799 0.973242 2.98844 254 47 44 
0.358177 1.05323 3.27347 23 18 254 
0.20463 -0.365941 2.90807 72 69 254 
0.277433 0.664796 2.92007 62 57 254 
0.333957 0.932883 2.96754 25 254 36 
0.255954 0.951006 2.84628 85 254 106 
0.28494 0.962824 2.88267 51 254 66 
-0.135123 -1.71627 3.13232 0 0 0 
0.286359 0.809214 2.91654 49 42 254 
0.322678 0.857007 2.94666 37 29 254 
0.166283 0.941329 2.80397 34 123 38 
-0.133482 -1.80565 3.12398 0 0 0 
-0.126415 -1.76581 3.11263 0 0 0 
0.165574 1.19296 2.69279 32 9 9 
-0.126068 -1.81136 3.11551 0 0 0 
-0.111888 -1.80381 3.11439 0 0 0 
0.44108 -0.0685881 3.25356 31 27 24 
-0.117561 -1.74815 3.11558 0 0 0 
-0.0976766 -1.76586 3.11484 0 0 0 
-0.130831 -1.81435 3.11132 0 0 0 
-0.135888 -1.80309 3.11492 0 0 0 
-0.142385 -1.79509 3.11592 0 0 0 
-0.141802 -1.76925 3.11506 0 0 0 
-0.150956 -1.77336 3.11581 0 0 0 
-0.136722 -1.83552 3.10855 0 0 0 
-0.142408 -1.73014 3.10974 0 0 0 
-0.13267 -1.72925 3.10449 0 0 0 
-0.148738 -1.81972 3.10966 0 0 0 
-0.12268 -1.79886 3.10644 0 0 0 
-0.135832 -1.78619 3.10486 0 0 0 
-0.137267 -1.69722 3.11424 0 0 0 
-0.176853 -1.53378 3.12643 0 0 0 
-0.153411 0.884179 2.69899 23 254 30 
-0.14783 -1.70632 3.11678 0 0 0 
-0.175838 -1.68575 3.12986 0 0 0 
-0.164336 -1.61921 3.11421 0 0 0 
-0.29206 -0.684254 2.86219 65 64 60 
-0.155147 -1.54543 3.12581 0 0 0 
-0.33042 -0.101694 2.75934 254 22 21 
-0.356451 0.00388757 2.77934 254 44 44 
-0.152997 -1.63394 3.12405 0 0 0 
-0.155079 -1.71142 3.12345 0 0 0 
-0.15805 -1.77215 3.12321 0 0 0 
-0.212642 -1.0833 2.97623 0 0 0 
-0.253968 -1.03148 2.99666 0 0 0 
-0.242628 -1.00853 2.97781 0 0 0 
-0.201059 -0.996851 2.94477 0 0 0 
-0.203069 -0.920458 2.91703 0 0 0 
-0.223625 -0.897936 2.92295 0 0 0 
-0.17891 -0.628131 2.80205 44 42 254 
-0.313127 -0.454979 2.83972 48 46 254 
-0.354462 -0.330203 2.81408 79 75 72 
-0.227255 -1.08669 2.99794 0 0 0 
-0.245272 -1.07588 3.00782 0 0 0 
-0.171209 -1.05135 2.93976 0 0 0 
-0.244205 -1.02649 2.98619 0 0 0 
-0.270535 -0.949311 2.97577 0 0 0 
-0.259123 -0.912007 2.95611 0 0 0 
-0.194202 -0.916701 2.9073 0 0 0 
-0.301628 -0.889332 2.97729 0 0 0 
-0.284231 -0.89136 2.9636 0 0 0 
-0.29837 -0.867212 2.96479 0 0 0 
-0.480413 -0.0595073 3.30714 0 0 0 
-0.422437 -0.0046419 2.84108 34 34 34 
-0.420487 0.254895 2.84552 254 33 31 
-0.295631 -0.913174 2.98197 0 0 0 
-0.207588 -0.676965 2.80168 254 55 51 
-0.21166 -0.90421 2.91397 0 0 0 
-0.418348 0.108419 2.85217 52 53 254 
-0.137925 -1.83845 3.1157 0 0 0 
-0.130296 -1.7837 3.11081 0 0 0 
-0.140947 -1.69451 3.1083 0 0 0 
-0.305333 -0.930778 2.98268 0 0 0 
-0.230782 -0.908772 2.92889 0 0 0 
-0.295097 -0.899569 2.96947 0 0 0 
-0.317119 -0.847809 2.95898 0 0 0 
-0.34586 -0.838391 3.03595 0 0 0 
-0.376289 -0.816052 3.11871 0 0 0 
0.128924 -0.771513 2.90522 254 46 42 
0.120085 -0.731102 2.88987 32 255 35 
-0.38288 -0.653956 2.95803 0 0 0 
-0.408461 -0.625962 3.03416 0 0 0 
-0.401899 -0.574278 2.96236 0 0 0 
-0.440452 -0.550163 3.10021 0 0 0 
-0.446607 -0.451399 3.00793 0 0 0 
-0.487763 -0.370242 3.10822 0 0 0 
-0.412317 -0.334804 2.85166 41 39 42 
-0.527247 -0.250796 3.02932 0 0 0 
-0.016222 -0.0992109 2.70518 57 53 54 
-0.469973 0.518842 3.04546 0 0 0 
-0.484537 1.15341 2.92941 4 22 4 
-0.0238662 -1.18244 2.98553 0 0 0 
-0.32623 -0.823485 2.95586 0 0 0 
-0.368036 -0.818591 3.11177 0 0 0 
-0.375338 -0.801039 3.30106 0 0 0 
-0.381905 -0.774704 3.1776 0 0 0 
0.142953 -0.816412 2.92857 84 81 254 
-0.353148 -0.718949 2.90441 0 0 0 
-0.427171 -0.661111 3.1496 0 0 0 
-0.205935 -0.623751 2.80735 254 37 36 
-0.296733 -0.604906 2.86733 254 51 50 
-0.420683 -0.594751 3.05161 0 0 0 
-0.449485 -0.547211 3.13245 0 0 0 
-0.447671 -0.539307 3.12637 0 0 0 
-0.432829 -0.456904 2.94642 0 0 0 
-0.459397 -0.448901 3.05752 0 0 0 
0.110232 -0.491038 2.8238 52 255 57 
-0.408645 -0.344784 2.85493 76 79 254 
-0.491745 -0.320194 2.99636 0 0 0 
-0.52195 -0.277436 3.03839 0 0 0 
-0.517488 -0.271718 3.02289 0 0 0 
-0.518841 -0.247156 2.99481 0 0 0 
-0.198846 -0.0963819 2.70347 19 19 254 
-0.503476 -0.0596428 3.15998 0 0 0 
-0.423125 -0.043892 3.36825 0 0 0 
0.205596 -0.0670361 2.86665 255 66 62 
-0.430174 -0.0260121 2.8409 254 54 52 
-0.425485 -0.0114345 2.86058 50 50 254 
-0.423603 -0.00552543 2.86971 20 20 254 
-0.424136 0.0513259 2.86078 46 44 45 
-0.426106 0.102131 2.85844 62 254 59 
0.00382425 0.176659 2.73237 254 54 50 
-0.421943 0.250159 2.85835 53 51 52 
-0.510029 1.18968 2.99927 0 0 0 
-0.148085 -1.81963 3.11127 0 0 0 
-0.298982 -0.92614 2.97383 0 0 0 
-0.348174 -0.676737 2.90739 0 0 0 
-0.39623 -0.544682 2.92855 0 0 0 
-0.0592106 -0.20499 2.69158 57 56 54 
-0.530071 -0.157383 3.08439 0 0 0 
-0.427056 0.003398 2.85826 41 47 254 
-0.131482 -1.78202 3.09152 0 0 0 
-0.0920681 -1.67284 3.04737 0 0 0 
-0.161522 -1.60845 3.05835 0 0 0 
-0.126525 -1.63249 3.08546 0 0 0 
-0.369012 -0.682511 2.94622 0 0 0 
-0.175112 -0.684634 2.82792 37 33 32 
-0.201808 -0.653671 2.80748 254 42 40 
-0.432776 -0.62681 3.15165 0 0 0 
-0.532943 -0.136598 3.07317 0 0 0 
-0.440056 -0.0894464 2.85794 51 254 58 
-0.484883 -0.0826459 2.93 0 0 0 
-0.198359 -0.0917707 2.71851 254 13 13 
-0.475004 -0.0540896 2.93293 0 0 0 
-0.142389 -1.8237 3.0814 0 0 0 
-0.330727 -0.820408 2.97823 0 0 0 
-0.18721 -0.0929528 2.70764 25 254 30 
-0.414518 0.108547 2.856 52 53 254 
-0.126952 -1.8158 3.09687 0 0 0 
-0.335858 -0.739242 2.92874 0 0 0 
0.23866 -0.103819 2.91381 53 52 50 
-0.451326 -0.236027 3.365 0 0 0 
0.623149 -0.124966 3.13072 73 255 81 
-0.140876 -1.76837 3.11492 0 0 0 
-0.142358 -1.79476 3.11618 0 0 0 
-0.10312 -1.57445 3.10657 0 0 0 
-0.157661 -1.82188 3.11034 0 0 0 
0.319863 -0.103852 2.92167 76 255 62 
-0.198253 -1.66027 3.14198 0 0 0 
-0.114401 -1.5526 3.10866 0 0 0 
-0.152848 -1.6302 3.11616 0 0 0 
-0.130905 -1.80293 3.11845 0 0 0 
-0.481591 -0.0760061 2.93233 0 0 0 
-0.315923 1.19119 2.70835 67 252 70 
-0.26824 -1.11881 3.03229 0 0 0 
-0.482834 -0.40165 3.11234 0 0 0 
-0.141895 -1.79368 3.11337 0 0 0 
-0.378107 -0.703195 2.99809 0 0 0 
-0.385894 -0.626308 2.94173 0 0 0 
-0.458035 -0.533381 3.12627 0 0 0 
-0.430324 -0.523187 3.01377 0 0 0 
-0.534377 -0.146966 3.08312 0 0 0 
-0.148873 -1.77986 3.12312 0 0 0 
-0.136805 -1.80792 3.08677 0 0 0 
-0.236805 -0.915759 2.93501 0 0 0 
-0.357628 -0.830161 3.07158 0 0 0 
-0.439091 -0.374661 2.89151 68 254 69 
-0.480877 1.15193 2.94609 61 252 69 
-0.18623 -1.6589 3.15875 0 0 0 
-0.271974 -1.13122 3.05397 0 0 0 
-0.489831 -0.320404 3.00013 0 0 0 
-0.333117 -0.259547 2.75441 70 254 84 
-0.403817 -0.637306 3.05235 0 0 0 
-0.12278 -1.77983 3.09062 0 0 0 
-0.128336 -1.59155 3.10819 0 0 0 
-0.151849 -1.8002 3.11722 0 0 0 
-0.138414 -1.69434 3.11194 0 0 0 
-0.138772 -1.81707 3.11136 0 0 0 
-0.165723 -1.79393 3.11904 0 0 0 
-0.151289 -1.70706 3.11874 0 0 0 
-0.137415 -1.72632 3.11235 0 0 0 
-0.138864 -1.81285 3.09975 0 0 0 
-0.14008 -1.76719 3.11345 0 0 0 
-0.19216 -1.61609 3.14713 0 0 0 
-0.151044 -1.79963 3.11771 0 0 0 
-0.158589 -1.53611 3.13863 0 0 0 
-0.174904 -1.63059 3.14851 0 0 0 
-0.358947 -0.871337 3.28977 0 0 0 
-0.357596 -0.878487 3.29642 0 0 0 
-0.135329 -1.69489 3.09988 0 0 0 
-0.4375 -0.589209 3.0973 0 0 0 
-0.425372 -0.345766 2.86019 65 71 192 
-0.384357 0.105163 2.80161 60 58 59 
-0.130451 -1.72823 3.10364 0 0 0 
-0.371847 -0.095866 3.42452 0 0 0 
-0.150889 -1.79183 3.10718 0 0 0 
-0.179119 -1.56229 3.08424 0 0 0 
-0.176733 -1.52663 3.08467 0 0 0 
-0.217226 -1.08274 2.97332 0 0 0 
-0.313187 -0.92412 2.98364 0 0 0 
-0.481644 1.15196 2.94672 61 252 69 
-0.488444 -0.3754 3.11907 0 0 0 
-0.525171 -0.277167 3.03707 0 0 0 
-0.144321 -1.82343 3.08602 0 0 0 
-0.144537 -1.66531 3.03949 0 0 0 
-0.172815 -1.61487 3.09944 0 0 0 
-0.183137 -1.57441 3.08489 0 0 0 
-0.181123 -1.53135 3.09743 0 0 0 
-0.177935 -1.75588 3.10559 0 0 0 
-0.104942 -1.63025 3.05121 0 0 0 
-0.190799 -1.58849 3.09084 0 0 0 
-0.0883848 -1.63925 3.04839 0 0 0 
-0.168574 -1.53137 3.09755 0 0 0 
-0.189032 -1.52314 3.11815 0 0 0 
-0.195256 -1.51694 3.12332 0 0 0 
-0.211732 -1.12869 2.98972 0 0 0 
-0.353795 -0.919765 3.13343 0 0 0 
-0.225659 -0.91804 2.93924 64 46 47 
-0.321448 -0.825273 2.95843 53 203 51 
-0.281708 -0.682823 2.86257 39 254 38 
-0.467984 -0.356518 2.99409 30 254 47 
-0.30758 -0.217168 3.5122 0 0 0 
-0.516357 0.00211748 3.1273 0 0 0 
-0.412017 0.85496 3.40702 0 0 0 
-0.43103 0.861152 3.37544 0 0 0 
-0.424877 0.868901 3.39826 0 0 0 
-0.435123 0.870586 3.37961 0 0 0 
-0.458296 0.869941 3.34571 0 0 0 
-0.42296 0.883722 3.40005 0 0 0 
-0.439622 0.878585 3.36925 0 0 0 
-0.447427 0.880953 3.35544 0 0 0 
-0.433418 0.890377 3.3743 0 0 0 
-0.418592 0.898657 3.39579 0 0 0 
-0.437375 0.896864 3.37892 0 0 0 
-0.486592 0.894155 3.3111 0 0 0 
-0.458813 0.906056 3.33513 0 0 0 
-0.422374 0.944446 3.3963 0 0 0 
-0.423268 0.972784 3.42305 0 0 0 
-0.397002 1.07842 3.41068 0 0 0 
-0.127107 -1.80117 3.10548 0 0 0 
-0.173431 -1.5293 3.13572 0 0 0 
-0.151019 -1.51698 3.16823 0 0 0 
-0.252268 -1.26617 3.11498 0 0 0 
-0.278248 -1.10882 3.04125 0 0 0 
-0.212875 -1.08277 2.9753 0 0 0 
-0.262445 -1.01665 2.98814 0 0 0 
-0.267642 -0.839777 2.93375 61 57 254 
-0.354909 -0.771671 3.33592 0 0 0 
-0.337828 -0.730417 3.3608 0 0 0 
-0.346246 -0.653556 2.92041 1 0 254 
-0.427826 -0.644823 3.11551 0 0 0 
-0.394337 -0.571003 2.95062 64 254 63 
-0.453153 -0.568855 3.17644 0 0 0 
-0.433126 -0.561083 3.05678 0 0 0 
-0.409754 -0.541263 2.91977 67 254 64 
-0.46023 -0.533657 3.12679 0 0 0 
-0.440318 -0.347318 2.89761 33 34 254 
-0.537487 -0.146881 3.08274 112 34 34 
-0.186553 -0.0913359 2.71394 255 17 16 
-0.190499 -0.0902156 2.72302 255 15 14 
-0.337091 -0.0193218 3.4609 0 0 0 
-0.286902 0.00416444 2.75331 255 47 47 
-0.4403 0.0285342 2.85652 49 255 46 
-0.25509 0.084096 2.74009 28 255 29 
-0.516419 0.825496 3.31049 0 0 0 
-0.465205 0.869337 3.33133 0 0 0 
-0.455022 0.891162 3.34227 0 0 0 
-0.491653 0.880431 3.30687 0 0 0 
-0.443638 0.900452 3.35915 0 0 0 
-0.42235 0.967022 3.41124 0 0 0 
0.0186156 1.18973 2.71582 254 42 40 
-0.00932884 1.19184 2.70449 39 40 254 
-0.0302661 1.18991 2.70787 35 33 34 
-0.55628 1.11972 3.16751 4 4 4 
-0.300708 1.19122 2.72376 39 37 254 
-0.539673 1.18107 2.989 12 10 87 
-0.187013 -1.52361 3.1305 0 0 0 
-0.436298 -0.599459 3.19906 0 0 0 
-0.381204 -0.0980299 3.4496 0 0 0 
-0.418403 0.0285992 2.86396 255 49 49 
-0.408242 0.458212 3.39382 0 0 0 
-0.410358 0.502789 2.82689 42 41 39 
-0.433013 0.83565 3.41385 0 0 0 
-0.480322 0.824487 3.33262 0 0 0 
-0.19151 -1.66409 3.1369 0 0 0 
-0.195192 -1.65338 3.15379 0 0 0 
-0.333689 -0.931463 3.16658 0 0 0 
-0.347526 -0.81563 2.9628 30 37 114 
-0.378855 -0.66878 2.89008 61 254 58 
-0.438261 -0.676008 3.19514 0 0 0 
-0.336957 -0.675976 3.3555 0 0 0 
-0.322339 -0.258656 2.75751 255 64 57 
-0.307037 -0.242074 3.51561 0 0 0 
-0.257761 -0.117814 2.73683 4 255 14 
-0.263915 -0.0860168 2.7422 10 9 7 
-0.0425228 -0.0390505 2.73792 28 255 38 
-0.365117 0.0697144 2.79393 255 38 37 
-0.363898 0.108538 2.80255 44 42 45 
-0.422275 0.110716 2.83448 3 1 2 
-0.28109 0.225719 2.75095 25 25 255 
-0.395891 0.47604 3.38826 0 0 0 
-0.435395 0.824038 3.39532 0 0 0 
-0.41725 0.953491 3.39515 0 0 0 
-0.393602 0.98901 3.42701 0 0 0 
-0.0513634 -1.82609 3.16572 0 0 0 
-0.152584 -1.62603 3.04361 0 0 0 
-0.161482 -1.63212 3.15781 0 0 0 
-0.171176 -1.52431 3.11815 0 0 0 
-0.00531961 -0.239824 2.72082 38 36 255 
-0.420598 0.907351 3.38208 0 0 0 
-0.334478 1.18272 2.71881 31 254 36 
-0.105137 -1.53603 3.06727 0 0 0 
-0.143164 -1.81017 3.09866 0 0 0 
-0.079997 -1.65496 3.0634 0 0 0 
-0.374416 -0.81132 3.291 0 0 0 
-0.300378 -0.608814 3.3768 0 0 0 
-0.434335 0.836461 3.38927 0 0 0 
-0.315967 1.00081 3.49696 0 0 0 
-0.144022 -1.65717 3.15334 0 0 0 
-0.137024 -1.76193 3.11125 0 0 0 
-0.168583 -1.79309 3.12214 0 0 0 
-0.153542 -1.77929 3.11842 0 0 0 
-0.183252 -1.63571 3.13943 0 0 0 
-0.179267 -1.62279 3.15015 0 0 0 
-0.12934 -1.55611 3.12241 0 0 0 
-0.440241 -0.0376953 3.40019 0 0 0 
-0.166585 -1.63123 3.17146 0 0 0 
0.082657 -0.209112 2.7125 51 49 50 
-0.27685 1.19999 2.73139 189 67 67 
-0.129359 -1.7833 3.09162 0 0 0 
-0.122898 -1.63798 3.10278 0 0 0 
-0.142496 -1.63327 3.13606 0 0 0 
-0.138357 -1.55309 3.13846 0 0 0 
-0.150131 -1.5327 3.15795 0 0 0 
-0.336678 -0.258513 3.49155 0 0 0 
-0.314411 -0.209034 3.52476 0 0 0 
0.060129 -0.208675 2.71189 255 63 62 
-0.154523 -1.82023 3.1228 0 0 0 
-0.141401 -1.80101 3.09053 0 0 0 
-0.43123 0.887904 3.38643 0 0 0 
-0.54211 1.12476 3.17493 4 4 4 
-0.360397 -0.841738 3.09111 0 0 0 
-0.441031 -0.629447 3.15273 0 0 0 
-0.146264 -1.78051 3.12275 0 0 0 
-0.40688 0.110991 2.8403 3 1 2 
-0.365281 -0.769506 3.3298 0 0 0 
-0.423606 0.852334 3.40113 0 0 0 
-0.468511 0.858156 3.32778 0 0 0 
-0.469803 0.884633 3.32513 0 0 0 
-0.445481 0.941629 3.35838 0 0 0 
-0.40795 1.07615 3.40542 0 0 0 
-0.129243 -1.7757 3.10262 0 0 0 
-0.255131 -0.895374 2.94764 0 0 0 
-0.19974 -0.725038 2.81897 51 254 60 
-0.345417 -0.676419 2.89993 65 61 60 
-0.483469 -0.061476 3.32899 0 0 0 
-0.47696 0.167319 3.31959 0 0 0 
-0.4872 0.816177 3.33858 0 0 0 
-0.422005 0.94468 3.39677 0 0 0 
-0.518981 -0.255167 3.00225 89 86 254 
-0.141521 -1.82385 3.08797 0 0 0 
-0.483854 -0.0755084 2.93008 254 43 42 
-0.158296 -1.81949 3.11791 0 0 0 
-0.442923 -0.671257 3.18674 0 0 0 
-0.53475 -0.081034 3.09051 0 0 0 
-0.492588 0.867408 3.31018 0 0 0 
-0.180645 -1.6044 3.09078 0 0 0 
-0.153729 -1.77609 3.12002 0 0 0 
-0.141634 -1.76603 3.1147 0 0 0 
-0.150467 -1.78617 3.10254 0 0 0 
-0.142004 -1.72081 3.10959 0 0 0 
-0.13233 -1.72122 3.10484 0 0 0 
-0.137867 -1.63003 3.08676 0 0 0 
-0.135313 -1.78014 3.08557 0 0 0 
-0.147806 -1.77245 3.12077 0 0 0 
-0.133496 -1.7684 3.08362 0 0 0 
-0.156562 -1.62931 3.16949 0 0 0 
-0.129452 -1.55179 3.12524 0 0 0 
-0.160254 -1.66132 3.17889 0 0 0 
-0.134417 -1.5578 3.11171 0 0 0 
-0.120586 -1.54976 3.07761 0 0 0 
-0.140104 -1.59805 3.12245 0 0 0 
-0.130672 -1.59703 3.08576 0 0 0 
-0.122746 -1.56788 3.08976 0 0 0 
-0.0964548 -1.56557 3.12217 0 0 0 
-0.138122 -1.75603 3.10074 0 0 0 
-0.158545 -1.65529 3.03301 0 0 0 
-0.210311 -0.108037 3.55423 0 0 0 
-0.118588 -1.6245 3.12487 0 0 0 
-0.103569 -1.60006 3.12237 0 0 0 
-0.349216 -0.826007 3.01973 1 1 2 
-0.257689 -0.807287 2.84832 254 36 34 
-0.491553 -0.358002 3.06757 64 62 254 
-0.450369 0.858272 3.36332 0 0 0 
-0.459522 0.858513 3.34804 0 0 0 
-0.448935 0.868806 3.3684 0 0 0 
-0.466054 0.881845 3.33487 0 0 0 
-0.446078 0.903285 3.37134 0 0 0 
-0.466698 0.897074 3.32945 0 0 0 
-0.444367 0.936676 3.36513 0 0 0 
-0.434263 0.952125 3.37916 0 0 0 
-0.449071 1.02757 3.34677 8 6 37 
-0.26008 -1.26352 3.11508 0 0 0 
-0.508088 -0.317365 3.00169 54 50 47 
-0.414257 0.0384635 3.41335 0 0 0 
-0.44834 0.815866 3.39429 0 0 0 
-0.448004 0.821308 3.40274 0 0 0 
-0.478147 0.856651 3.31693 0 0 0 
-0.454005 0.907696 3.34946 0 0 0 
-0.474698 0.927041 3.31682 0 0 0 
-0.450212 1.05537 3.34802 42 40 34 
-0.442389 1.0843 3.35232 46 222 64 
-0.523385 1.19943 2.98324 60 53 254 
-0.474047 -0.166501 3.36413 0 0 0 
-0.495729 1.21582 3.5138 0 0 0 
-0.569183 1.22715 3.03113 250 25 25 
-0.16067 -1.76968 3.08738 0 0 0 
-0.150069 -1.65713 3.17852 0 0 0 
-0.343629 -0.814143 2.97576 253 62 58 
-0.405268 0.0884741 2.84187 255 40 39 
-0.42844 0.838662 3.41574 0 0 0 
-0.447788 0.924424 3.35289 0 0 0 
-0.413855 0.956227 3.41401 0 0 0 
-0.452006 1.04722 3.33882 37 36 31 
-0.478595 0.908599 3.3144 0 0 0 
-0.416879 0.98827 3.41839 0 0 0 
-0.604617 1.21903 3.32436 68 63 255 
-0.512974 0.852883 3.32904 0 0 0 
-0.161508 -1.82531 3.11712 0 0 0 
-0.145299 -1.75697 3.112 0 0 0 
-0.145064 -1.72815 3.1102 0 0 0 
-0.142222 -1.70516 3.11938 0 0 0 
-0.155749 -1.77387 3.12815 0 0 0 
-0.152262 -1.80457 3.13395 0 0 0 
-0.164854 -1.75658 3.14346 0 0 0 
-0.142546 -1.82386 3.08016 0 0 0 
-0.126343 -1.76898 3.0938 0 0 0 
-0.152589 -1.77463 3.1349 0 0 0 
-0.136281 -1.58874 3.12206 0 0 0 
-0.108603 -1.55369 3.09879 0 0 0 
-0.135942 -1.55104 3.13174 0 0 0 
-0.0982036 -1.55546 3.09562 0 0 0 
-0.113304 -1.5887 3.09697 0 0 0 
-0.125496 -1.56398 3.11856 0 0 0 
-0.14586 -1.82443 3.07921 0 0 0 
-0.135486 -1.72969 3.10199 0 0 0 
-0.137848 -1.78697 3.1044 0 0 0 
-0.121162 -1.56977 3.11141 0 0 0 
-0.0927472 -1.64622 3.0692 0 0 0 
-0.168917 -1.65251 3.14927 0 0 0 
-0.14515 -1.78302 3.12488 0 0 0 
-0.148012 -1.82164 3.10968 0 0 0 
-0.0965966 -1.64793 3.06203 0 0 0 
-0.158098 -1.81992 3.11786 0 0 0 
-0.148687 -1.797 3.13153 0 0 0 
-0.10471 -1.6803 3.04512 0 0 0 
-0.136098 -1.77753 3.08462 0 0 0 
-0.15129 -1.80794 3.12782 0 0 0 
-0.103451 -1.68046 3.03843 0 0 0 
-0.14968 -1.62519 3.16692 0 0 0 
-0.13915 -1.74096 3.09778 0 0 0 
-0.136848 -1.72323 3.09983 0 0 0 
-0.144322 -1.80217 3.10459 0 0 0 
-0.110939 -1.68086 3.02923 0 0 0 
-0.118078 -1.5576 3.08902 0 0 0 
-0.134511 -1.80278 3.07885 0 0 0 
-0.14206 -1.71024 3.1304 0 0 0 
-0.131947 -1.71719 3.08046 0 0 0 
-0.144577 -1.78587 3.11028 0 0 0 
-0.116206 -1.6529 3.04773 0 0 0 
-0.164342 -1.82259 3.1092 0 0 0 
-0.160357 -1.71573 3.10638 0 0 0 
-0.137319 -1.57205 3.09956 0 0 0 
-0.103687 -1.56666 3.1033 0 0 0 
-0.155912 -1.55583 3.11756 0 0 0 
-0.100045 -1.56225 3.09832 0 0 0 
-0.128534 -1.80345 3.10054 0 0 0 
-0.159864 -1.63922 3.1493 0 0 0 
-0.139823 -1.72954 3.11257 0 0 0 
-0.1324 -1.73 3.10437 0 0 0 
-0.143881 -1.74903 3.10666 0 0 0 
-0.0886238 -1.64165 3.07831 0 0 0 
-0.182778 -1.65857 3.16238 0 0 0 
-0.141913 -1.83935 3.10413 0 0 0 
-0.144402 -1.81865 3.11425 0 0 0 
-0.1504 -1.80832 3.12903 0 0 0 
-0.156485 -1.76891 3.12261 0 0 0 
-0.0883155 -1.64252 3.07568 0 0 0 
-0.0895869 -1.64746 3.04849 0 0 0 
-0.123984 -1.71235 3.0938 0 0 0 
-0.1852 -1.66002 3.15998 0 0 0 
-0.12582 -1.72676 3.07495 0 0 0 
-0.109331 -1.65646 3.04704 0 0 0 
-0.142598 -1.8004 3.12558 0 0 0 
-0.136197 -1.79824 3.11206 0 0 0 
-0.149376 -1.8218 3.10747 0 0 0 
-0.133197 -1.81442 3.10938 0 0 0 
-0.217983 -1.683 3.11881 0 0 0 
-0.177032 -1.69933 3.11607 0 0 0 
-0.15968 -1.7152 3.11391 0 0 0 
-0.14272 -1.7493 3.10875 0 0 0 
-0.16567 -1.72056 3.10553 0 0 0 
-0.107939 -1.78343 3.10824 0 0 0 
-0.124639 -1.69568 3.11284 0 0 0 
-0.167363 -1.69395 3.12684 0 0 0 
-0.126804 -1.80952 3.11509 0 0 0 
-0.149113 -1.80934 3.12512 0 0 0 
-0.133307 -1.73776 3.12035 0 0 0 
-0.123738 -1.72471 3.11488 0 0 0 
-0.125788 -1.78705 3.11614 0 0 0 
-0.136262 -1.78231 3.1239 0 0 0 
-0.123341 -1.76277 3.11735 0 0 0 
-0.124289 -1.7488 3.11818 0 0 0 
-0.132057 -1.79571 3.11868 0 0 0 
-0.146844 -1.79249 3.12773 0 0 0 
-0.114408 -1.78607 3.10134 0 0 0 
-0.114634 -1.79278 3.11205 0 0 0 
-0.130136 -1.7373 3.1054 0 0 0 
-0.110608 -1.74878 3.09635 0 0 0 
-0.140857 -1.72805 3.11217 0 0 0 
-0.140562 -1.83969 3.10504 0 0 0 
-0.154698 -1.77549 3.11789 0 0 0 
-0.137033 -1.69742 3.11252 0 0 0 
-0.150616 -1.71457 3.13824 0 0 0 
-1.00794 -2.3211 2.02718 0 0 0 
-0.0402992 -1.6593 3.21858 0 0 0 
-1.09171 -2.35776 1.93134 0 0 0 
-0.818372 -2.21982 2.26865 0 0 0 
-0.769999 -2.15581 2.33243 0 0 0 
-1.58536 -2.70013 1.32731 0 0 0 
-1.17967 -2.40836 1.84691 0 0 0 
-1.18611 -2.4474 1.81591 0 0 0 
-0.173698 -1.7767 3.05702 0 0 0 
-1.13047 -2.4496 1.87951 0 0 0 
-1.67988 -2.77686 1.2111 0 0 0 
-1.76433 -2.82547 1.10702 0 0 0 
54.3532 34.7411 68.9911 0 0 0 
-0.133361 -1.71439 3.11071 0 0 0 
-0.128574 -1.58625 3.10708 0 0 0 
-0.23328 -1.65275 3.08675 0 0 0 
-0.0984138 -1.75787 3.11993 0 0 0 
-0.101468 -1.73297 3.11735 0 0 0 
-0.183638 -1.73619 3.10142 0 0 0 
-0.131444 -1.78319 3.11046 0 0 0 
-0.222424 -1.64461 3.10413 0 0 0 
-0.146233 -1.83973 3.10776 0 0 0 
-0.164295 -1.80598 3.10705 0 0 0 
-0.173933 -1.77617 3.10709 0 0 0 
-0.211423 -1.64805 3.10051 0 0 0 
-0.125894 -1.81069 3.11656 0 0 0 
-0.119589 -1.73377 3.11734 0 0 0 
-0.131893 -1.71583 3.12081 0 0 0 
-0.123596 -1.74674 3.11888 0 0 0 
-0.0839175 -1.51748 3.07452 0 0 0 
-0.14786 -1.83058 3.10505 0 0 0 
-0.188456 -1.62952 3.15552 0 0 0 
-0.18479 -1.50933 3.13957 0 0 0 
-0.1707 -1.52648 3.13486 0 0 0 
-0.117736 -1.58573 3.09846 0 0 0 
-0.175408 -1.62556 3.15371 0 0 0 
-0.172882 -1.61814 3.17742 0 0 0 
-0.165728 -1.61791 3.16489 0 0 0 
-0.127016 -1.58712 3.09138 0 0 0 
-0.122747 -1.72461 3.08171 0 0 0 
-0.143153 -1.61152 3.12692 0 0 0 
-0.20217 -1.64229 3.13122 0 0 0 
-0.0951913 -1.64047 3.05491 0 0 0 
-0.135875 -1.73038 3.10214 0 0 0 
-0.347157 -1.8736 2.8401 0 0 0 
-1.30825 -1.21247 2.05545 0 0 0 
-0.657163 -2.09085 2.47147 0 0 0 
-0.367297 -1.87157 2.78922 0 0 0 
0.45251 0.417427 2.50432 10 255 13 
-0.963341 -2.28423 2.0677 0 0 0 
1.0108 -0.99045 4.51602 0 0 0 
1.06186 -1.0501 4.62415 0 0 0 
-0.218559 -1.83876 3.0025 0 0 0 
-1498.69 -1056.27 -1777.16 0 0 0 
-1.19675 -2.45077 1.77463 0 0 0 
-0.903309 -2.259 2.18601 0 0 0 
-0.0367009 -1.60143 3.12557 0 0 0 
-0.223307 -1.67675 3.09693 0 0 0 
-0.039033 -1.6434 3.10634 0 0 0 
-0.0476044 -1.617 3.10775 0 0 0 
-0.219131 -1.67854 3.11802 0 0 0 
-0.159805 -1.78334 3.10835 0 0 0 
-0.113201 -1.70504 3.11116 0 0 0 
-0.0664065 -1.62138 3.09025 0 0 0 
-0.121685 -1.74704 3.11713 0 0 0 
-0.0905874 -1.6989 3.07768 0 0 0 
-0.145308 -1.63037 3.13733 0 0 0 
-0.191789 -1.64775 3.15372 0 0 0 
-0.134567 -1.76957 3.08856 0 0 0 
-0.164301 -1.76715 3.1254 0 0 0 
-0.138609 -1.78587 3.12603 0 0 0 
-0.11149 -1.72017 3.13578 0 0 0 
-0.12428 -1.78683 3.09305 0 0 0 
-0.170475 -1.80652 3.0991 0 0 0 
0.050852 -1.64019 3.19167 0 0 0 
-0.0682636 -1.66289 3.07018 0 0 0 
0.0694063 -1.70954 3.12538 0 0 0 
-0.0317737 -1.68967 3.09458 0 0 0 
-0.149206 -1.8089 3.10784 0 0 0 
-0.0948841 -1.60838 3.11957 0 0 0 
-0.0909586 -1.60542 3.12654 0 0 0 
-0.147081 -1.81054 3.12842 0 0 0 
-0.145359 -1.80366 3.12023 0 0 0 
-0.0859937 -1.65319 3.06066 0 0 0 
-0.131763 -1.63317 3.17454 0 0 0 
-0.16761 -1.81521 3.11542 0 0 0 
-0.134888 -1.8043 3.13614 0 0 0 
-0.12767 -1.79002 3.13018 0 0 0 
-0.0946746 -1.68037 3.20227 0 0 0 
-0.118117 -1.78944 3.14066 0 0 0 
-0.139834 -1.77116 3.08414 0 0 0 
-0.040783 -1.79766 3.15278 0 0 0 
-0.0756162 -1.65691 3.0639 0 0 0 
-0.0601147 -1.67925 3.08115 0 0 0 
-0.129686 -1.69737 3.09817 0 0 0 
-0.128922 -1.63056 3.17371 0 0 0 
0.163911 -0.967571 2.89565 84 80 254 
-0.147225 -1.80915 3.13161 0 0 0 
-0.141434 -1.78392 3.12375 0 0 0 
-0.125058 -1.71507 3.12779 0 0 0 
0.157909 -0.979918 2.88836 36 254 46 
-0.126553 -1.71621 3.09419 0 0 0 
-0.130076 -1.73115 3.10339 0 0 0 
0.168271 -0.912772 2.87579 254 19 17 
-0.130535 -1.72218 3.15005 0 0 0 
0.230789 -0.837908 2.83879 57 54 49 
-0.150885 -1.82447 3.12383 0 0 0 
-0.132848 -1.71047 3.12338 0 0 0 
-0.129935 -1.8059 3.08339 0 0 0 
-0.123564 -1.67275 3.04045 0 0 0 
-0.109537 -1.5581 3.06954 0 0 0 
-0.13838 -1.7816 3.08838 0 0 0 
-0.145721 -1.78914 3.09971 0 0 0 
-0.137571 -1.77194 3.08504 0 0 0 
-0.184541 -1.61159 3.14672 0 0 0 
-0.144413 -1.55409 3.09848 0 0 0 
-0.099883 -1.63242 3.04429 0 0 0 
-0.1444 -1.81815 3.1115 0 0 0 
-0.165255 -1.71394 3.1184 0 0 0 
-0.154968 -1.70895 3.10859 0 0 0 
0.678692 -0.242414 2.76731 255 40 40 
-0.129231 -1.58444 3.1117 0 0 0 
-0.127541 -1.55388 3.11059 0 0 0 
-0.166147 -1.62443 3.12654 0 0 0 
