ply                 
format ascii 1.0    
element vertex 512
property float x    
property float y    
property float z    
property uchar red  
property uchar green
property uchar blue 
end_header          
-0.107879 -0.68257 2.83126 0 0 0 
-0.197796 -0.668678 2.8543 254 56 55 
-0.0709908 -0.594013 2.79962 0 0 0 
0.00206726 -0.578938 2.81316 86 85 81 
-0.0213724 -0.539528 2.79672 36 34 35 
-0.0099027 -0.48299 2.78381 35 33 34 
-0.320184 -0.395682 2.86742 43 252 103 
0.0244169 -0.345445 2.74466 74 72 73 
-0.18994 -0.279373 2.7168 254 107 102 
0.0314938 -0.157385 2.68948 0 0 0 
-0.0309364 -0.0926721 2.68128 254 83 82 
0.019238 -0.0796867 2.68685 57 254 58 
-0.182673 -0.0677356 2.70155 254 29 27 
-0.183351 -0.0580292 2.69938 18 16 17 
-0.277169 0.229258 2.72547 22 25 254 
-0.215182 0.237004 2.69774 149 86 89 
0.0398504 0.515538 2.7154 83 79 78 
-0.27163 0.648386 2.70056 41 39 40 
0.169401 0.701891 2.76194 254 44 43 
0.135731 0.701092 2.73953 0 0 0 
-0.359001 0.771245 2.7514 0 0 0 
0.175648 0.872525 2.75268 0 0 0 
0.112599 1.01556 2.70179 58 57 55 
-0.0365363 -1.51103 3.10385 0 0 0 
-0.046019 -1.5114 3.11212 0 0 0 
-0.122716 -1.11407 3.01696 0 0 0 
-0.238471 -0.665676 2.87897 72 250 60 
-0.127537 -0.619622 2.81734 0 0 0 
-0.0711223 -0.593495 2.79923 0 0 0 
0.00179914 -0.577948 2.811 0 0 0 
-0.0710331 -0.539578 2.78438 104 98 70 
-0.276432 -0.401281 2.84369 0 0 0 
-0.286871 -0.295336 2.78742 31 28 254 
-0.190157 -0.279439 2.71455 40 24 25 
-0.0387108 -0.160717 2.68282 34 33 31 
0.0317767 -0.156886 2.6883 31 31 33 
-0.0152136 -0.139964 2.6807 3 1 2 
-0.0304505 -0.0930688 2.68409 255 26 24 
-0.403187 -0.0953172 2.85815 0 0 0 
0.161989 -0.0869936 2.73603 255 53 52 
0.02662 -0.0800168 2.68535 55 254 54 
0.0172828 -0.0794946 2.6857 57 53 54 
0.00560249 -0.075476 2.68493 40 41 254 
-0.215658 -0.0644892 2.71068 37 37 254 
-0.183713 -0.0580167 2.69787 18 16 17 
-0.0826538 -0.0447455 2.6904 83 82 80 
-0.317624 0.0245362 2.76395 20 20 254 
-0.152041 0.0288954 2.70742 254 125 125 
-0.347356 0.297629 2.7711 0 0 0 
-0.140394 0.362602 2.69286 59 61 242 
-0.225217 0.365289 2.69521 23 25 27 
-0.266319 0.430547 2.70813 0 0 0 
-0.393706 0.507317 2.80188 0 0 0 
-0.252456 0.522851 2.69931 23 24 254 
0.0287749 0.568806 2.69524 0 0 0 
-0.329597 0.580878 2.73527 45 46 254 
0.135388 0.701472 2.73914 0 0 0 
-0.35895 0.771107 2.75161 0 0 0 
-0.359489 0.779536 2.75276 0 0 0 
0.175887 0.872011 2.75219 86 254 68 
0.176255 0.892236 2.75014 4 1 1 
-0.144072 0.886013 2.6529 254 49 48 
0.0327803 0.912195 2.66076 69 67 254 
0.173618 0.962096 2.74462 15 45 14 
0.174822 0.973274 2.74325 24 66 21 
0.113514 1.01656 2.70586 0 0 0 
0.162042 -0.086522 2.73606 11 10 8 
-0.147365 -0.0559077 2.71062 99 97 98 
-0.159234 0.0763637 2.70678 254 51 51 
-0.36925 0.0944275 2.80296 32 254 56 
-0.165047 0.362548 2.69747 65 63 64 
0.175353 0.891976 2.7497 62 254 65 
-0.0410276 -1.51331 3.10517 0 0 0 
-0.0126874 -0.785491 2.87124 0 0 0 
-0.136674 -0.666849 2.82013 0 0 0 
0.0204007 -0.184758 2.68472 0 0 0 
-0.273682 -0.132628 2.74509 0 0 0 
-0.151216 -0.082831 2.70272 19 19 254 
0.0296021 -0.0775348 2.68472 85 86 254 
0.0815462 -0.0723458 2.70312 1 1 1 
-0.151255 0.0277305 2.70566 0 0 0 
-0.153018 0.101328 2.70421 17 18 254 
-0.196145 0.113001 2.69611 255 36 35 
-0.158932 0.738274 2.68478 42 37 255 
-0.130084 0.79772 2.67424 0 0 0 
0.0174157 -0.627608 2.82956 0 0 0 
-0.0803622 -0.0305344 2.70026 73 254 63 
0.0921196 -0.0235243 2.72607 59 62 255 
0.0342793 -0.196468 2.68472 0 0 0 
-0.095287 -0.0805888 2.68513 254 77 72 
0.0121828 -0.0688504 2.68475 40 38 39 
-0.107774 -0.682086 2.83527 0 0 0 
-0.10243 -0.667712 2.81802 0 0 0 
0.152655 -0.665519 2.88239 254 85 81 
-0.110779 -0.623928 2.80916 0 0 0 
-0.12832 -0.619209 2.8207 0 0 0 
0.00707083 0.594101 2.69062 254 39 38 
0.230578 0.66515 2.82331 254 86 82 
0.205704 0.67536 2.79795 254 55 54 
0.236424 0.682912 2.82964 254 92 88 
0.24797 0.694202 2.84554 70 69 254 
0.188418 0.68319 2.77896 41 39 33 
0.210356 0.688095 2.80223 60 59 55 
0.202187 0.693228 2.79148 28 27 23 
0.235942 0.706533 2.83298 94 91 254 
0.187257 0.703156 2.77772 71 254 80 
0.140508 0.704097 2.74215 71 254 71 
0.182481 0.718642 2.77299 7 3 68 
0.162249 0.719286 2.7583 0 0 0 
0.2166 0.73489 2.80812 89 85 254 
0.193358 0.733993 2.78359 48 249 48 
0.18409 0.734131 2.77564 140 47 47 
0.154112 0.732245 2.75162 0 0 0 
0.275447 0.855749 2.87875 69 66 59 
0.277671 0.866913 2.88107 99 254 72 
0.252356 0.877684 2.83885 255 68 67 
0.217456 0.876479 2.79202 90 86 87 
0.246994 0.890887 2.81993 86 83 254 
0.231281 0.887979 2.80217 254 69 68 
0.248958 0.901557 2.81798 88 84 81 
0.165698 0.882208 2.74242 0 0 0 
0.18294 0.886551 2.75483 4 12 4 
0.139317 0.882027 2.72479 72 70 254 
0.225131 0.899317 2.79048 85 254 84 
0.21267 0.901205 2.77785 59 253 65 
0.184098 0.897199 2.75291 6 5 13 
0.160563 0.894043 2.73612 0 0 0 
0.150491 0.894448 2.72742 0 0 0 
0.250739 0.94677 2.81694 87 86 82 
0.218383 0.938364 2.78246 98 96 254 
0.219984 0.948693 2.78312 73 72 68 
0.252933 0.96278 2.82026 255 68 69 
0.257484 0.968958 2.82771 68 67 62 
0.208661 0.964733 2.77333 76 74 255 
0.185857 0.961102 2.75325 135 39 37 
0.248002 0.983716 2.81928 73 255 68 
0.173828 0.962091 2.74466 52 17 17 
0.271237 0.995375 2.84841 64 255 65 
0.224827 0.980588 2.79017 66 64 255 
0.206922 0.975859 2.77166 254 89 88 
0.174372 0.973932 2.74391 21 68 19 
0.196917 0.981709 2.76488 56 57 249 
0.151788 0.986431 2.72882 80 254 88 
0.179354 1.23882 2.65856 80 20 18 
-0.0187829 -1.79245 3.15802 0 0 0 
-0.0281434 -1.78364 3.1513 0 0 0 
-0.0282433 -1.56784 3.08223 0 0 0 
0.0562245 -1.11132 2.98997 0 0 0 
0.26085 -0.73216 2.99315 64 63 61 
0.335273 -0.667521 3.12621 47 43 42 
0.339121 -0.634076 3.14355 36 36 36 
-0.277201 -0.401106 2.84896 0 0 0 
-0.308432 -0.333654 2.82847 0 0 0 
0.221088 -0.293922 2.79662 255 59 60 
0.268609 -0.269807 2.85519 64 62 255 
-0.284538 -0.249671 2.76297 0 0 0 
-0.29152 -0.244857 2.75933 0 0 0 
0.264873 -0.239308 2.81909 255 73 72 
0.367328 -0.0224869 3.08285 51 50 48 
0.354498 -0.00209068 3.08297 69 67 255 
-0.31083 0.0174946 2.75961 40 42 254 
-0.157482 0.0914036 2.69904 1 1 0 
-0.0839893 0.23941 2.69654 77 78 254 
-0.137961 0.371105 2.70089 57 57 255 
-0.0184602 0.422466 2.70388 0 0 0 
0.127444 0.443792 2.73922 46 43 254 
0.180169 0.632738 2.77452 66 65 61 
0.197932 0.657673 2.78832 68 65 60 
0.175617 0.712159 2.76913 0 0 0 
0.189892 0.876582 2.76485 29 89 28 
0.212732 0.881809 2.78545 81 77 74 
0.191823 0.885503 2.76234 30 27 23 
0.147973 0.882622 2.73114 0 0 0 
0.229559 0.908602 2.79668 94 89 254 
0.206292 0.906444 2.77323 87 83 80 
0.18917 0.934046 2.75428 35 34 77 
0.225673 0.964067 2.79174 78 255 80 
0.226017 0.991732 2.79138 254 41 40 
0.151481 0.975591 2.7278 10 3 3 
0.113004 1.01693 2.70422 254 76 76 
0.140589 1.22298 2.62629 254 40 39 
0.153067 -0.180709 2.73137 0 0 0 
0.168118 -0.0339121 2.75124 255 39 38 
-0.339134 0.0749238 2.78174 0 0 0 
0.181623 0.968829 2.74804 58 60 55 
0.190241 1.239 2.6541 25 21 18 
0.138671 1.23284 2.62678 28 26 254 
-0.00764931 -1.68989 3.12768 0 0 0 
-0.0319676 -1.60327 3.08355 0 0 0 
0.0371814 -1.58616 3.10729 0 0 0 
-0.0617432 -1.50814 3.13058 0 0 0 
-0.0921404 -0.666939 2.82063 0 0 0 
-0.136599 -0.666493 2.81974 0 0 0 
-0.237914 -0.111869 2.72403 0 0 0 
-0.0580301 -0.0765009 2.68995 64 254 68 
0.113883 -0.0719745 2.71035 87 88 255 
0.160681 -0.0681766 2.73567 33 255 43 
0.175176 -0.0626715 2.73973 48 46 255 
0.259434 0.861366 2.85754 254 87 84 
0.172175 0.916271 2.7374 59 54 254 
-0.340661 1.21004 2.6957 0 0 0 
0.00930542 -1.75834 3.16234 0 0 0 
-0.165312 0.115797 2.70058 1 0 0 
-0.0181601 -1.70707 3.15069 0 0 0 
0.000103071 -1.58537 3.09512 0 0 0 
-0.0589091 -1.48993 3.08988 0 0 0 
0.0422293 -1.48778 3.12221 0 0 0 
0.180643 -0.796861 2.95836 254 58 57 
-0.0940757 -0.0803812 2.67349 254 77 72 
-0.075564 -0.071041 2.68617 67 66 64 
-0.0353937 -1.72237 3.09116 0 0 0 
-0.0242918 -1.59206 3.07461 0 0 0 
-0.0687468 -1.61427 3.12847 0 0 0 
-0.148011 1.14521 2.62322 254 64 63 
-0.247791 -0.0788924 2.72763 255 20 20 
0.0114672 -1.74632 3.14298 0 0 0 
-0.00730103 -1.73636 3.16054 0 0 0 
-0.0586197 -1.5121 3.13711 0 0 0 
-0.00594761 -1.6775 3.15065 0 0 0 
0.193005 0.721388 2.78431 33 247 35 
0.173524 0.88533 2.7476 1 1 1 
0.251969 0.91846 2.82018 254 89 85 
0.162214 0.920674 2.73382 0 0 0 
0.19193 0.946873 2.75781 39 173 42 
0.118794 1.01468 2.70966 48 51 254 
0.139741 1.22688 2.63645 76 18 19 
0.198815 1.23417 2.67079 35 36 32 
-0.00819532 -1.7071 3.15408 0 0 0 
0.365306 -0.0217172 3.19934 53 50 255 
0.154859 0.8888 2.73393 0 0 0 
0.217977 0.89539 2.78739 81 82 77 
0.197576 0.912787 2.76221 51 137 54 
0.242741 0.959328 2.80943 73 254 83 
0.201561 0.970403 2.77102 73 254 66 
0.200719 0.727174 2.78968 254 66 65 
0.200422 0.733742 2.81594 67 60 254 
0.265796 0.878627 2.84946 53 254 45 
0.22476 0.881935 2.79526 254 99 98 
0.258874 0.923818 2.82609 71 66 254 
0.240762 0.876833 2.81873 54 42 254 
0.172175 0.986644 2.74439 28 26 87 
0.138301 1.23667 2.63715 5 4 19 
-0.0266575 -1.75457 3.14425 0 0 0 
-0.0166645 -1.72576 3.14499 0 0 0 
-0.061665 -1.49985 3.10911 0 0 0 
-0.0204395 -1.67671 3.14129 0 0 0 
0.00425523 -1.52826 3.14439 0 0 0 
0.181933 1.00118 2.75183 66 61 59 
0.151806 0.90717 2.72857 0 0 0 
-0.0208386 -1.73049 3.15164 0 0 0 
0.384311 -0.209423 3.16027 47 47 255 
0.147372 -0.433536 2.80203 68 75 111 
0.0262653 -0.1581 2.69528 0 0 0 
-0.0208412 0.366161 2.71164 0 0 0 
0.323471 0.388236 2.98183 36 254 63 
-0.0218985 0.408346 2.71057 0 0 0 
-0.0231452 0.423792 2.71069 0 0 0 
0.233143 0.679816 2.82542 82 254 94 
0.281762 0.688711 2.89679 63 60 55 
0.286703 0.690566 2.90768 66 63 58 
0.273116 0.68722 2.88047 82 254 85 
0.255748 0.686057 2.85445 64 63 59 
0.268454 0.697095 2.87424 254 76 73 
0.290106 0.704821 2.91189 71 67 254 
0.187943 0.690617 2.77814 76 70 72 
0.232076 0.701069 2.82514 78 75 254 
0.168133 0.703049 2.76356 254 44 43 
0.213997 0.730892 2.80387 60 59 55 
0.302105 0.864201 2.93914 37 34 29 
0.269572 0.854562 2.87417 74 254 76 
0.285532 0.861395 2.89627 254 65 62 
0.281582 0.863383 2.8865 44 40 254 
0.265877 0.860638 2.86113 72 71 66 
0.301161 0.872932 2.92506 254 49 45 
0.29772 0.876478 2.90325 72 254 81 
0.303678 0.883232 2.92613 63 254 63 
0.275621 0.879565 2.86693 70 254 73 
0.315412 0.894451 2.93892 42 254 55 
0.174558 0.872786 2.75216 254 65 64 
0.287596 0.889527 2.88171 59 54 48 
0.299021 0.892057 2.89752 50 254 53 
0.239486 0.884616 2.81207 254 55 54 
0.267257 0.889444 2.84674 254 72 68 
0.309781 0.904291 2.92661 36 30 30 
0.229604 0.889165 2.80485 70 69 67 
0.220627 0.88698 2.78869 254 85 85 
0.160251 0.884895 2.73863 0 0 0 
0.30194 0.906077 2.90003 28 254 49 
0.289451 0.905722 2.87601 47 43 34 
0.318283 0.918586 2.93208 40 31 254 
0.266672 0.904142 2.84091 254 80 77 
0.148281 0.895462 2.72931 68 66 67 
0.23498 0.903202 2.80183 75 74 70 
0.310949 0.920453 2.91366 30 254 42 
0.296869 0.919038 2.88611 59 55 46 
0.280787 0.91822 2.85995 54 254 61 
0.297395 0.930203 2.88425 254 57 53 
0.325095 0.945077 2.95245 43 254 73 
0.282362 0.929278 2.85975 254 71 67 
0.313908 0.942738 2.92188 47 254 51 
0.286294 0.935684 2.86788 47 44 35 
0.303594 0.941172 2.89546 254 42 37 
0.221574 0.924625 2.78327 254 68 67 
0.320589 0.95479 2.9387 48 43 39 
0.301135 0.952934 2.89208 254 52 47 
0.306001 0.955561 2.90454 52 47 43 
0.286028 0.950563 2.8668 254 58 55 
0.261994 0.946896 2.83212 80 254 86 
0.248193 0.95273 2.81465 85 84 254 
0.305445 0.970149 2.90433 40 35 29 
0.297913 0.97179 2.88911 254 53 48 
0.290195 0.969236 2.8724 69 64 254 
0.223751 0.958721 2.78676 254 80 79 
0.167129 0.960175 2.73865 23 7 7 
0.248569 0.966504 2.81484 75 254 84 
0.258082 0.968682 2.82937 80 254 89 
0.235991 0.967014 2.80201 82 79 254 
0.321998 0.997954 2.9551 50 39 254 
0.297678 0.983952 2.88904 254 81 78 
0.28602 0.982792 2.86762 47 44 39 
0.291083 0.986374 2.87907 44 41 36 
0.262421 0.981591 2.83316 77 74 69 
0.272041 0.984673 2.8487 41 36 254 
0.235124 0.978845 2.80129 79 78 254 
0.282467 0.998393 2.8672 41 254 52 
0.246963 0.992507 2.81487 85 82 254 
0.264485 0.995634 2.83823 70 67 254 
0.282275 1.00872 2.86612 68 65 254 
0.264196 1.00675 2.83854 48 41 254 
0.180363 1.00187 2.75386 41 254 51 
0.223621 1.00383 2.7885 254 67 66 
0.209455 1.05557 2.76909 54 52 254 
0.165761 -0.470059 2.81235 40 198 40 
-0.0035055 -0.0815279 2.6902 0 0 0 
-0.16138 0.027952 2.71632 0 0 0 
0.28431 0.679752 2.90353 254 93 90 
0.269012 0.676664 2.87541 74 73 68 
0.1851 0.713389 2.77857 41 149 41 
0.171606 0.71922 2.76606 254 58 54 
0.219828 0.729068 2.81331 254 57 53 
0.187754 0.72759 2.77992 72 71 68 
0.2882 0.877781 2.89846 254 84 83 
0.278812 0.876691 2.87583 69 68 64 
0.323286 0.897221 2.97235 50 254 54 
0.299339 0.889005 2.91414 91 92 87 
0.25235 0.876851 2.83571 80 77 70 
0.226065 0.87704 2.80167 46 42 41 
0.184792 0.880959 2.76013 23 8 8 
0.293941 0.899173 2.89287 66 254 73 
0.298409 0.912807 2.89428 254 60 56 
0.169623 0.895912 2.74271 74 254 65 
0.307101 0.926745 2.90725 254 47 43 
0.179921 0.907491 2.74784 59 254 65 
0.160635 0.910142 2.73551 0 0 0 
0.249168 0.921257 2.81374 79 78 74 
0.303544 0.962187 2.89674 77 72 254 
0.179905 0.956102 2.75046 61 60 58 
0.230244 0.960195 2.79653 74 254 78 
0.320117 0.985559 2.93983 53 49 254 
0.168356 0.968588 2.74131 70 65 254 
0.290316 0.995694 2.87718 27 254 38 
0.302339 1.00948 2.9031 49 254 55 
0.200383 -0.331547 2.79179 67 254 65 
0.278579 0.706636 2.88942 62 57 254 
0.156251 0.724724 2.75253 0 0 0 
0.242334 0.896488 2.81396 45 44 40 
0.282849 0.911378 2.87164 73 68 254 
0.330244 0.973099 2.97706 43 254 48 
0.19141 0.954316 2.75745 64 254 59 
0.291942 1.00412 2.87038 71 254 76 
0.0157874 -0.185341 2.68957 0 0 0 
0.00553392 -0.0741999 2.69236 0 0 0 
-0.00267983 -0.028449 2.71428 0 0 0 
-0.175044 0.116053 2.7071 0 0 0 
0.239529 0.877467 2.82035 69 65 254 
0.144536 0.881926 2.72848 0 0 0 
0.304623 0.904446 2.91714 37 29 254 
0.297362 0.864611 2.92923 51 48 254 
0.205333 0.950007 2.77585 83 82 78 
0.364446 -0.0226903 3.24683 12 8 5 
0.162065 0.975469 2.73596 45 44 42 
0.290592 0.926019 2.88088 254 42 37 
0.385263 -0.0244514 3.21815 12 8 5 
-0.160162 0.642086 2.69105 0 0 0 
-0.0406108 -1.53223 3.12308 0 0 0 
0.00760496 -1.69859 3.15125 0 0 0 
0.216343 0.722819 2.8087 78 75 254 
0.284411 0.881121 2.88283 254 77 74 
0.313762 0.883143 2.94323 72 68 65 
0.311721 0.896041 2.92943 54 47 39 
0.319709 0.914321 2.93694 25 254 42 
0.252628 0.943615 2.82106 88 84 254 
0.325105 0.954508 2.95211 41 254 52 
0.28283 0.970293 2.86409 254 54 51 
0.269284 0.989273 2.84361 60 57 52 
0.288138 0.990303 2.87442 254 50 47 
0.205315 1.25408 2.673 22 19 132 
0.262427 0.687941 2.88626 254 83 80 
0.315722 0.894356 2.93983 254 51 46 
0.32049 0.909041 2.95284 44 35 28 
0.239935 0.908753 2.80655 79 254 91 
0.306039 0.91143 2.90505 43 39 30 
0.294121 0.91175 2.88091 37 254 53 
0.287263 0.94817 2.86821 48 45 254 
0.3138 0.954258 2.92195 254 35 30 
0.301444 0.963929 2.90068 254 58 53 
0.327816 0.975747 2.98494 254 45 40 
0.185483 0.98777 2.75652 54 217 95 
0.292827 0.978511 2.88429 45 41 254 
0.228066 0.98678 2.79623 79 77 254 
0.198335 0.728375 2.79097 254 66 65 
0.258652 0.859622 2.84828 66 254 56 
0.219159 0.906556 2.78116 91 87 84 
0.286765 0.924038 2.86697 254 62 55 
0.307634 0.951673 2.91444 40 254 49 
0.296635 0.942592 2.88494 254 58 53 
0.316556 0.946787 2.94266 40 254 51 
0.23296 0.956534 2.79968 75 254 81 
0.254795 0.958051 2.82319 75 71 68 
0.288959 1.00635 2.87476 57 53 50 
-0.00244526 -1.70116 3.13783 0 0 0 
0.153466 0.700992 2.75145 0 0 0 
0.311258 0.700899 2.96758 69 254 83 
0.181714 0.865115 2.76301 8 6 16 
0.291734 0.872894 2.90321 58 58 50 
0.299413 0.892002 2.90299 254 37 32 
0.298728 0.927633 2.88999 47 42 36 
0.187868 0.948613 2.76049 39 173 42 
0.306126 0.940765 2.90233 43 254 52 
0.291609 0.941293 2.87497 49 44 38 
0.333584 0.956207 2.98734 86 76 74 
0.301295 1.00413 2.89846 56 51 254 
0.266031 -0.228132 2.81492 253 50 50 
0.281303 -0.225217 2.83565 74 72 73 
0.25607 0.698525 2.85844 71 72 67 
0.27439 0.699294 2.88378 68 254 89 
0.289016 0.886858 2.88879 64 254 59 
0.326067 0.920471 2.95395 48 44 35 
0.31403 0.92642 2.9187 55 51 42 
0.332531 0.965998 2.98121 56 254 70 
0.320646 0.973952 2.94075 36 254 47 
0.274098 0.990712 2.85375 254 52 49 
0.225615 1.00022 2.79587 76 72 71 
0.323192 1.02059 2.9533 254 47 44 
0.328059 1.10948 3.23714 23 18 254 
0.265809 -0.3262 2.90051 72 69 254 
0.276652 0.707044 2.89068 62 57 254 
0.316153 0.979155 2.93313 25 254 36 
0.239422 0.989753 2.81017 85 254 106 
0.26696 1.00411 2.84679 51 254 66 
0.00293673 -1.69205 3.14993 0 0 0 
0.276967 0.851683 2.88409 49 42 254 
0.309815 0.902164 2.91374 37 29 254 
0.151307 0.974231 2.76657 34 123 38 
0.0101205 -1.7813 3.14356 0 0 0 
0.0153376 -1.74148 3.13141 0 0 0 
0.139974 1.2215 2.64888 32 9 9 
-0.00820716 -1.79854 3.15056 0 0 0 
0.00479631 -1.7937 3.15351 0 0 0 
0.475182 -0.0104772 3.24487 31 27 24 
-0.00291 -1.73412 3.14883 0 0 0 
0.0142197 -1.74918 3.1527 0 0 0 
-0.0107258 -1.80096 3.15755 0 0 0 
-0.0165251 -1.79113 3.15924 0 0 0 
-0.0233005 -1.78278 3.16032 0 0 0 
-0.0240897 -1.75696 3.15838 0 0 0 
-0.0322782 -1.76184 3.15921 0 0 0 
-0.0143748 -1.82796 3.15497 0 0 0 
-0.0257941 -1.71767 3.14952 0 0 0 
-0.013171 -1.71771 3.14951 0 0 0 
-0.0264279 -1.81223 3.15481 0 0 0 
-0.00127235 -1.7876 3.1527 0 0 0 
-0.0131252 -1.77831 3.15407 0 0 0 
-0.0219836 -1.68284 3.15549 0 0 0 
-0.0696228 -1.52027 3.16244 0 0 0 
-0.161656 0.895425 2.65551 23 254 30 
-0.0314603 -1.69429 3.16023 0 0 0 
-0.0609662 -1.67441 3.17155 0 0 0 
-0.0526258 -1.6067 3.15359 0 0 0 
-0.224381 -0.673864 2.87253 65 64 60 
-0.045449 -1.53225 3.16417 0 0 0 
-0.291018 -0.0932777 2.75049 254 22 21 
-0.322598 0.0116072 2.7664 254 44 44 
-0.0387 -1.62218 3.16585 0 0 0 
-0.0368083 -1.70113 3.16828 0 0 0 
-0.0343033 -1.76594 3.17866 0 0 0 
-0.124847 -1.0707 3.00216 0 0 0 
-0.172333 -1.01811 3.01478 0 0 0 
-0.160997 -0.994955 2.99745 0 0 0 
-0.119713 -0.982245 2.96336 0 0 0 
-0.12521 -0.906019 2.93313 0 0 0 
-0.147078 -0.883981 2.93819 0 0 0 
-0.113953 -0.613357 2.80951 44 42 254 
-0.25734 -0.444866 2.8418 48 46 254 
-0.304321 -0.321354 2.81264 79 75 72 
-0.142812 -1.07271 3.01783 0 0 0 
-0.161614 -1.06227 3.02719 0 0 0 
-0.0873023 -1.03623 2.95932 0 0 0 
-0.162594 -1.01295 3.00432 0 0 0 
-0.192634 -0.936458 2.99158 0 0 0 
-0.182692 -0.898874 2.97098 0 0 0 
-0.11652 -0.902141 2.92296 0 0 0 
-0.22681 -0.877232 2.99111 0 0 0 
-0.208659 -0.878584 2.97874 0 0 0 
-0.223884 -0.854915 2.97957 0 0 0 
-0.453679 -0.0440579 3.27866 0 0 0 
-0.388882 0.00237478 2.82759 34 34 34 
-0.40353 0.259746 2.81658 254 33 31 
-0.219704 -0.900893 2.99649 0 0 0 
-0.139985 -0.663845 2.81142 254 55 51 
-0.134747 -0.890118 2.92919 0 0 0 
-0.391061 0.115675 2.83293 52 53 254 
