ply                 
format ascii 1.0    
element vertex 607
property float x    
property float y    
property float z    
property uchar red  
property uchar green
property uchar blue 
end_header          
-0.108195 -0.68086 2.83625 0 0 0 
-0.197705 -0.667321 2.85965 254 56 55 
-0.0713995 -0.592708 2.80545 0 0 0 
0.00136633 -0.577613 2.81844 86 85 81 
-0.0220323 -0.53838 2.8021 36 34 35 
-0.0106149 -0.482061 2.78935 35 33 34 
-0.319651 -0.39553 2.87357 43 252 103 
0.0235458 -0.345012 2.75057 74 72 73 
-0.190172 -0.279116 2.72335 254 107 102 
0.0307028 -0.157564 2.69693 0 0 0 
-0.0317542 -0.0930394 2.68783 254 83 82 
0.0183603 -0.0801055 2.6936 57 254 58 
-0.183063 -0.0681279 2.70821 254 29 27 
-0.183662 -0.0584314 2.7062 18 16 17 
-0.277257 0.228253 2.73323 22 25 254 
-0.215441 0.235849 2.70567 149 86 89 
0.0392312 0.514059 2.72432 83 79 78 
-0.271762 0.647283 2.71041 41 39 40 
0.168691 0.700174 2.77133 254 44 43 
0.135055 0.699435 2.74895 0 0 0 
-0.358829 0.769567 2.76185 0 0 0 
0.174992 0.870712 2.76243 0 0 0 
0.112131 1.01397 2.71258 58 57 55 
-0.0366197 -1.50438 3.10617 0 0 0 
-0.0460343 -1.50475 3.11447 0 0 0 
-0.122304 -1.11181 3.02267 0 0 0 
-0.238165 -0.664436 2.88437 72 250 60 
-0.127797 -0.618165 2.82258 0 0 0 
-0.0714998 -0.592164 2.80569 0 0 0 
0.00121112 -0.576729 2.81729 0 0 0 
-0.071572 -0.538459 2.78972 104 98 70 
-0.276101 -0.40068 2.8501 0 0 0 
-0.286788 -0.295306 2.7928 31 28 254 
-0.190485 -0.279333 2.72068 40 24 25 
-0.039382 -0.160688 2.69022 34 33 31 
0.0308418 -0.157102 2.69479 31 31 33 
-0.0160886 -0.140197 2.68707 3 1 2 
-0.0310795 -0.0931801 2.69196 255 26 24 
-0.402466 -0.0958414 2.86623 0 0 0 
0.160874 -0.0873892 2.74297 255 53 52 
0.0257203 -0.0804354 2.6921 55 254 54 
0.0163951 -0.079679 2.69377 57 53 54 
0.00475673 -0.0759056 2.6917 40 41 254 
-0.215951 -0.0649411 2.71718 37 37 254 
-0.183954 -0.0582548 2.70597 18 16 17 
-0.0833005 -0.0452564 2.69716 83 82 80 
-0.317484 0.0237472 2.77087 20 20 254 
-0.152446 0.0281798 2.71457 254 125 125 
-0.347091 0.29635 2.77996 0 0 0 
-0.140762 0.361311 2.70127 59 61 242 
-0.225451 0.363933 2.70359 23 25 27 
-0.266427 0.429103 2.71689 0 0 0 
-0.393277 0.505789 2.81181 0 0 0 
-0.252649 0.522291 2.70912 23 24 254 
0.028176 0.567337 2.70443 0 0 0 
-0.329574 0.579759 2.74474 45 46 254 
0.134712 0.699816 2.74856 0 0 0 
-0.358776 0.76943 2.76206 0 0 0 
-0.359311 0.777858 2.76326 0 0 0 
0.175436 0.870413 2.76284 86 254 68 
0.175603 0.890418 2.75993 4 1 1 
-0.144507 0.884307 2.66278 254 49 48 
0.0321996 0.910582 2.67085 69 67 254 
0.172995 0.960262 2.75459 15 45 14 
0.1742 0.97144 2.75324 24 66 21 
0.112942 1.01481 2.71609 0 0 0 
0.160953 -0.0868358 2.74305 11 10 8 
-0.147787 -0.0564146 2.71748 99 97 98 
-0.159615 0.0755384 2.7141 254 51 51 
-0.36885 0.0934627 2.81051 32 254 56 
-0.165398 0.361204 2.70577 65 63 64 
0.174908 0.890379 2.76042 62 254 65 
-0.0410873 -1.50665 3.1075 0 0 0 
-0.0132001 -0.783338 2.87631 0 0 0 
-0.136967 -0.663771 2.82127 36 254 35 
0.0196245 -0.184861 2.69213 0 0 0 
-0.273666 -0.132991 2.75206 0 0 0 
-0.151873 -0.0831577 2.70838 19 19 254 
0.0286944 -0.0779599 2.69148 85 86 254 
0.0806929 -0.0727772 2.71075 1 1 1 
-0.15153 0.0271541 2.71362 0 0 0 
-0.153417 0.100451 2.71161 17 18 254 
-0.196466 0.112086 2.70356 255 36 35 
-0.159228 0.736652 2.6945 42 37 255 
-0.130832 0.796843 2.68725 254 37 36 
0.0167569 -0.626184 2.83512 0 0 0 
-0.0809347 -0.0310723 2.70727 73 254 63 
0.0911779 -0.0240759 2.73314 59 62 255 
0.0334182 -0.196575 2.69162 0 0 0 
-0.0958708 -0.0810055 2.69193 254 77 72 
0.0113222 -0.0692969 2.69154 40 38 39 
-0.10807 -0.680268 2.8404 0 0 0 
-0.102794 -0.666003 2.82324 0 0 0 
0.151567 -0.663898 2.88706 254 85 81 
-0.111131 -0.622413 2.81455 0 0 0 
-0.128573 -0.617672 2.8261 0 0 0 
0.00646659 0.592581 2.69984 254 39 38 
0.229966 0.663294 2.83223 254 86 82 
0.205086 0.673558 2.80698 254 55 54 
0.235827 0.681023 2.83857 254 92 88 
0.247394 0.692263 2.85445 70 69 254 
0.187792 0.681428 2.78808 41 39 33 
0.209753 0.686237 2.8111 60 59 55 
0.201572 0.691424 2.80057 28 27 23 
0.23537 0.704613 2.84196 94 91 254 
0.186647 0.701355 2.78688 71 254 80 
0.13989 0.702361 2.7513 71 254 71 
0.181873 0.716864 2.78221 7 3 68 
0.161639 0.717549 2.76759 0 0 0 
0.216027 0.733006 2.81724 89 85 254 
0.192767 0.732173 2.7928 48 249 48 
0.183501 0.732332 2.78488 140 47 47 
0.153507 0.730516 2.76097 0 0 0 
0.275009 0.853585 2.88791 69 66 59 
0.277242 0.864735 2.89025 99 254 72 
0.251887 0.875618 2.84817 255 68 67 
0.216943 0.874528 2.80147 90 86 87 
0.246508 0.888851 2.82931 86 83 254 
0.23078 0.885997 2.8116 254 69 68 
0.248472 0.89952 2.82738 88 84 81 
0.165147 0.880394 2.75207 0 0 0 
0.182399 0.884698 2.76442 4 12 4 
0.138758 0.880257 2.73453 72 70 254 
0.22462 0.897356 2.79996 85 254 84 
0.21215 0.899277 2.78738 59 253 65 
0.183558 0.895345 2.76253 6 5 13 
0.160012 0.892241 2.74582 0 0 0 
0.149931 0.892672 2.73715 0 0 0 
0.250282 0.944711 2.82644 87 86 82 
0.21789 0.936405 2.79205 98 96 254 
0.219494 0.946754 2.79281 73 72 68 
0.252485 0.960734 2.82988 255 68 69 
0.257049 0.966889 2.83733 68 67 62 
0.208179 0.962788 2.78301 76 74 255 
0.185356 0.959217 2.763 135 39 37 
0.247573 0.981669 2.82898 73 255 68 
0.173323 0.960232 2.75445 52 17 17 
0.270841 0.993241 2.85805 64 255 65 
0.224366 0.978626 2.79994 66 64 255 
0.206445 0.973914 2.78137 254 89 88 
0.173871 0.97207 2.75373 21 68 19 
0.196442 0.979782 2.77463 56 57 249 
0.15128 0.984613 2.73873 80 254 88 
0.178827 1.23725 2.66897 80 20 18 
-0.0189048 -1.78286 3.15816 0 0 0 
-0.0282638 -1.77497 3.15266 0 0 0 
-0.0284421 -1.56024 3.08347 0 0 0 
0.0555525 -1.10707 2.99297 0 0 0 
0.259567 -0.730086 2.99716 64 63 61 
0.333995 -0.665489 3.12979 47 43 42 
0.337884 -0.632169 3.14716 36 36 36 
-0.276825 -0.400265 2.85533 0 0 0 
-0.308033 -0.333072 2.83523 0 0 0 
0.219825 -0.293869 2.80255 255 59 60 
0.267348 -0.269789 2.86099 64 62 255 
-0.284458 -0.249468 2.77017 0 0 0 
-0.291435 -0.24467 2.76658 0 0 0 
0.263575 -0.239425 2.82508 255 73 72 
0.366363 -0.0231296 3.08857 51 50 48 
0.353588 -0.00279194 3.08875 69 67 255 
-0.310605 0.016741 2.76538 40 42 254 
-0.157906 0.0906342 2.70714 1 1 0 
-0.0845376 0.238336 2.70489 77 78 254 
-0.138366 0.36987 2.70982 57 57 255 
-0.0190622 0.421196 2.71296 0 0 0 
0.126699 0.442299 2.74761 46 43 254 
0.179522 0.630984 2.78333 66 65 61 
0.197295 0.655912 2.79734 68 65 60 
0.175007 0.710397 2.77835 0 0 0 
0.189354 0.874706 2.77439 29 89 28 
0.212211 0.879864 2.79492 81 77 74 
0.191286 0.883628 2.7719 30 27 23 
0.147417 0.880843 2.74085 0 0 0 
0.229056 0.906613 2.80615 94 89 254 
0.205769 0.904526 2.78278 87 83 80 
0.18865 0.93217 2.76396 35 34 77 
0.225204 0.962102 2.80146 78 255 80 
0.225563 0.98975 2.80114 254 41 40 
0.150971 0.973779 2.7377 10 3 3 
0.112497 1.01524 2.71445 254 76 76 
0.139989 1.22168 2.6371 254 40 39 
0.151859 -0.18095 2.7388 0 0 0 
0.16705 -0.0345712 2.7581 255 39 38 
-0.338858 0.0743028 2.79019 0 0 0 
0.181117 0.966993 2.75791 58 60 55 
0.189688 1.2376 2.66484 25 21 18 
0.138078 1.23155 2.63763 28 26 254 
-0.00787913 -1.68124 3.1283 0 0 0 
-0.0321562 -1.59542 3.0847 0 0 0 
0.036695 -1.57845 3.10836 0 0 0 
-0.0615997 -1.50062 3.13171 0 0 0 
-0.0925328 -0.665234 2.82582 0 0 0 
-0.136377 -0.663218 2.82076 36 254 35 
-0.237984 -0.112034 2.72822 44 43 39 
-0.0587446 -0.076965 2.69726 64 254 68 
0.112825 -0.0725358 2.71726 87 88 255 
0.159576 -0.0687588 2.74249 33 255 43 
0.174049 -0.0632729 2.74653 48 46 255 
0.258979 0.859262 2.86677 254 87 84 
0.171628 0.914445 2.7471 59 54 254 
-0.340824 1.20887 2.70823 0 0 0 
0.00902728 -1.74992 3.1637 0 0 0 
-0.16571 0.114985 2.70876 1 0 0 
-0.0183073 -1.69895 3.15226 0 0 0 
-0.00021763 -1.57763 3.09623 0 0 0 
-0.0588939 -1.48275 3.09129 0 0 0 
0.041799 -1.48066 3.12346 0 0 0 
0.179547 -0.794488 2.96235 254 58 57 
-0.0947582 -0.0808266 2.68091 254 77 72 
-0.0762471 -0.0715102 2.69354 67 66 64 
-0.0355852 -1.71364 3.09192 0 0 0 
-0.0245432 -1.58436 3.07585 0 0 0 
-0.0686046 -1.606 3.12927 0 0 0 
-0.148378 1.14375 2.6341 254 64 63 
-0.247812 -0.0793295 2.73425 255 20 20 
0.0109804 -1.73787 3.14384 0 0 0 
-0.00765773 -1.72794 3.16142 0 0 0 
-0.058699 -1.50534 3.13894 0 0 0 
-0.00634855 -1.67001 3.15257 0 0 0 
0.192393 0.71958 2.79351 33 247 35 
0.172978 0.883498 2.75723 1 1 1 
0.251508 0.916398 2.8296 254 89 85 
0.161676 0.918862 2.74357 0 0 0 
0.191431 0.944976 2.7675 39 173 42 
0.118309 1.01291 2.71975 48 51 254 
0.139225 1.22534 2.64691 76 18 19 
0.198295 1.23254 2.68114 35 36 32 
-0.0085879 -1.69941 3.15589 0 0 0 
0.364486 -0.0227626 3.20547 53 50 255 
0.154306 0.887007 2.74363 0 0 0 
0.217466 0.893439 2.79688 81 82 77 
0.197055 0.910894 2.77182 51 137 54 
0.242304 0.957273 2.81896 73 254 83 
0.2011 0.968455 2.78072 73 254 66 
0.200114 0.725363 2.79885 254 66 65 
0.19987 0.731835 2.82511 67 60 254 
0.265342 0.876511 2.85873 53 254 45 
0.224253 0.87996 2.80469 254 99 98 
0.258405 0.921756 2.83556 71 66 254 
0.240279 0.874802 2.82809 54 42 254 
0.1717 0.984768 2.75423 28 26 87 
0.137737 1.23515 2.6477 5 4 19 
-0.0270039 -1.74654 3.14601 0 0 0 
-0.0170485 -1.71795 3.14682 0 0 0 
-0.0618336 -1.49343 3.11182 0 0 0 
-0.0204664 -1.66877 3.1429 0 0 0 
0.00415809 -1.52135 3.14639 0 0 0 
0.181457 0.999287 2.76168 66 61 59 
0.151255 0.905383 2.73832 0 0 0 
-0.0208491 -1.72214 3.15304 0 0 0 
0.383353 -0.209752 3.16583 47 47 255 
0.146369 -0.432845 2.80811 68 75 111 
0.0243769 -0.158158 2.70413 0 0 0 
-0.0220163 0.365223 2.7214 0 0 0 
0.322534 0.386408 2.99003 36 254 63 
-0.0230236 0.407345 2.7204 0 0 0 
-0.0242493 0.422769 2.72055 0 0 0 
0.232509 0.677941 2.83439 82 254 94 
0.281224 0.686632 2.90555 63 60 55 
0.286184 0.688457 2.91641 66 63 58 
0.272554 0.685186 2.88927 82 254 85 
0.255153 0.684095 2.86333 64 63 59 
0.267896 0.695067 2.88308 254 76 73 
0.289606 0.702685 2.92063 71 67 254 
0.187304 0.68883 2.78728 76 70 72 
0.231464 0.699174 2.83416 78 75 254 
0.167429 0.701319 2.77289 254 44 43 
0.213391 0.729026 2.81302 60 59 55 
0.301755 0.861861 2.94817 37 34 29 
0.269144 0.852399 2.88336 74 254 76 
0.285165 0.85915 2.90536 254 65 62 
0.281202 0.861163 2.89561 44 40 254 
0.265458 0.858493 2.87031 72 71 66 
0.300847 0.870597 2.93409 254 49 45 
0.297333 0.874226 2.91238 72 254 81 
0.303312 0.880929 2.93527 63 254 63 
0.27522 0.877389 2.87612 70 254 73 
0.315126 0.892062 2.94794 42 254 55 
0.174052 0.870912 2.7617 254 65 64 
0.287221 0.887302 2.89088 59 54 48 
0.298668 0.889786 2.90664 50 254 53 
0.239013 0.882593 2.82144 254 55 54 
0.266849 0.887307 2.85597 254 72 68 
0.309441 0.901965 2.93576 36 30 30 
0.229168 0.887133 2.81421 70 69 67 
0.22011 0.885033 2.79815 254 85 85 
0.159701 0.883091 2.74831 0 0 0 
0.301603 0.903788 2.90917 28 254 49 
0.289078 0.903501 2.88521 47 43 34 
0.318004 0.916197 2.94116 40 31 254 
0.266249 0.902022 2.85021 254 80 77 
0.14778 0.893635 2.73899 68 66 67 
0.234506 0.901196 2.81126 75 74 70 
0.310643 0.918115 2.92278 30 254 42 
0.296522 0.91678 2.89531 59 55 46 
0.280403 0.916037 2.86922 54 254 61 
0.297054 0.927942 2.89347 254 57 53 
0.324877 0.942611 2.96153 43 254 73 
0.281987 0.927087 2.86904 254 71 67 
0.31361 0.940392 2.93107 47 254 51 
0.285939 0.933465 2.87716 47 44 35 
0.303281 0.938872 2.90467 254 42 37 
0.221093 0.922659 2.7928 254 68 67 
0.320359 0.952356 2.94783 48 43 39 
0.300832 0.950635 2.90133 254 52 47 
0.305722 0.953224 2.91376 52 47 43 
0.285686 0.948339 2.87611 254 58 55 
0.261602 0.944773 2.84153 80 254 86 
0.247739 0.950674 2.82416 85 84 254 
0.305182 0.967803 2.91358 40 35 29 
0.297628 0.969487 2.8984 254 53 48 
0.289906 0.966976 2.88169 69 64 254 
0.223313 0.956723 2.79634 254 80 79 
0.166616 0.958335 2.74846 23 7 7 
0.248173 0.96442 2.82434 75 254 84 
0.257712 0.966553 2.83883 80 254 89 
0.235581 0.964967 2.81156 82 79 254 
0.321782 0.995502 2.96439 50 39 254 
0.297406 0.981641 2.89836 254 81 78 
0.285714 0.980545 2.87699 47 44 39 
0.2908 0.984091 2.88842 44 41 36 
0.262066 0.979445 2.84263 77 74 69 
0.271712 0.982479 2.85813 41 36 254 
0.234726 0.976792 2.81086 79 78 254 
0.282182 0.996136 2.87661 41 254 52 
0.246597 0.990407 2.82442 85 82 254 
0.264207 0.993437 2.84764 70 67 254 
0.281999 1.00646 2.87554 68 65 254 
0.263878 1.00458 2.84805 48 41 254 
0.180025 0.999888 2.76357 41 254 51 
0.223198 1.00182 2.79819 254 67 66 
0.209202 1.0535 2.77876 54 52 254 
0.163666 -0.469742 2.81993 40 198 40 
-0.00530117 -0.0816734 2.69932 0 0 0 
-0.162962 0.0279069 2.72643 0 0 0 
0.283763 0.677679 2.91225 254 93 90 
0.268435 0.674655 2.88421 74 73 68 
0.184456 0.711618 2.7878 41 149 41 
0.170923 0.717466 2.7754 254 58 54 
0.219232 0.727179 2.82242 254 57 53 
0.187159 0.725787 2.78913 72 71 68 
0.287812 0.875543 2.90763 254 84 83 
0.27841 0.874501 2.88502 69 68 64 
0.323062 0.894734 2.9813 50 254 54 
0.298973 0.886723 2.9233 91 92 87 
0.251878 0.874782 2.84503 80 77 70 
0.225577 0.875053 2.81108 46 42 41 
0.184257 0.879094 2.7697 23 8 8 
0.293577 0.896924 2.90205 66 254 73 
0.298073 0.910528 2.90345 254 60 56 
0.169082 0.894076 2.75237 74 254 65 
0.306796 0.92442 2.91641 254 47 43 
0.179454 0.905593 2.75741 59 254 65 
0.160101 0.908327 2.74523 0 0 0 
0.248724 0.919204 2.82315 79 78 74 
0.303257 0.95988 2.90599 77 72 254 
0.179507 0.95416 2.76009 61 60 58 
0.22982 0.958168 2.80608 74 254 78 
0.319924 0.983099 2.94902 53 49 254 
0.167963 0.966664 2.75101 70 65 254 
0.29004 0.99341 2.88656 27 254 38 
0.302119 1.00711 2.91244 49 254 55 
0.198429 -0.33165 2.79941 67 254 65 
0.278046 0.704559 2.89823 62 57 254 
0.155596 0.723019 2.7619 0 0 0 
0.241912 0.894425 2.82329 45 44 40 
0.282485 0.909167 2.88087 73 68 254 
0.3301 0.970539 2.98614 43 254 48 
0.191013 0.952356 2.76704 64 254 59 
0.29169 1.00184 2.87973 71 254 76 
0.0138492 -0.185318 2.69845 0 0 0 
0.00374739 -0.0743805 2.70144 0 0 0 
-0.00436189 -0.0287128 2.72344 0 0 0 
-0.176525 0.115861 2.71739 0 0 0 
0.239091 0.875408 2.82966 69 65 254 
0.143979 0.880155 2.73821 0 0 0 
0.304323 0.902107 2.92623 37 29 254 
0.297054 0.862271 2.93824 51 48 254 
0.204955 0.947998 2.78537 83 82 78 
0.363698 -0.0237699 3.25322 12 8 5 
0.161566 0.973622 2.74579 45 44 42 
0.290185 0.923804 2.89019 254 42 37 
0.384589 -0.0254163 3.22436 12 8 5 
-0.160528 0.640768 2.70152 0 0 0 
-0.0406258 -1.52521 3.12651 0 0 0 
0.00754922 -1.6908 3.15375 0 0 0 
0.215737 0.720974 2.81781 78 75 254 
0.284038 0.878898 2.89198 254 77 74 
0.313477 0.88075 2.95223 72 68 65 
0.311422 0.893676 2.93848 54 47 39 
0.319434 0.911922 2.946 25 254 42 
0.252226 0.941521 2.8305 88 84 254 
0.324897 0.952035 2.96121 41 254 52 
0.282509 0.96805 2.87345 254 54 51 
0.268954 0.98709 2.85307 60 57 52 
0.287854 0.98803 2.88379 254 50 47 
0.204897 1.25239 2.6833 22 19 132 
0.261886 0.685918 2.89506 254 83 80 
0.315436 0.891964 2.94885 254 51 46 
0.320243 0.9066 2.96186 44 35 28 
0.239482 0.906731 2.81597 79 254 91 
0.305712 0.909123 2.91419 43 39 30 
0.293757 0.909512 2.89011 37 254 53 
0.28692 0.945943 2.87751 48 45 254 
0.313534 0.951857 2.93113 254 35 30 
0.301165 0.961581 2.90993 254 58 53 
0.327698 0.973159 2.99402 254 45 40 
0.185046 0.985843 2.76629 54 217 95 
0.292542 0.976201 2.89362 45 41 254 
0.227683 0.984729 2.80585 79 77 254 
0.197716 0.726552 2.80017 254 66 65 
0.258213 0.857514 2.8575 66 254 56 
0.218648 0.904611 2.79068 91 87 84 
0.286396 0.921824 2.87623 254 62 55 
0.30736 0.949295 2.92363 40 254 49 
0.296309 0.940309 2.89419 254 58 53 
0.316331 0.944346 2.95178 40 254 51 
0.232548 0.954495 2.80922 75 254 81 
0.254401 0.955948 2.83265 75 71 68 
0.288687 1.00407 2.88416 57 53 50 
-0.00243039 -1.69301 3.14051 0 0 0 
0.152819 0.699308 2.76076 0 0 0 
0.310947 0.698584 2.97609 69 254 83 
0.181176 0.863251 2.77255 8 6 16 
0.29142 0.870608 2.91228 58 58 50 
0.299096 0.889706 2.91208 254 37 32 
0.298402 0.925357 2.89919 47 42 36 
0.187344 0.94672 2.77021 39 173 42 
0.305837 0.938443 2.91152 43 254 52 
0.291259 0.939057 2.88424 49 44 38 
0.333526 0.953603 2.9963 86 76 74 
0.301065 1.00178 2.90779 56 51 254 
0.264586 -0.228488 2.82197 253 50 50 
0.279873 -0.225633 2.84263 74 72 73 
0.255538 0.696522 2.86731 71 72 67 
0.273897 0.697217 2.89257 68 254 89 
0.288671 0.884608 2.89792 64 254 59 
0.325884 0.918 2.96294 48 44 35 
0.313764 0.924056 2.9278 55 51 42 
0.332466 0.963408 2.99021 56 254 70 
0.320485 0.971487 2.94989 36 254 47 
0.27376 0.988514 2.86319 254 52 49 
0.225182 0.9982 2.80555 76 72 71 
0.323114 1.01806 2.9625 254 47 44 
0.328927 1.10586 3.24567 23 18 254 
0.264571 -0.326312 2.90708 72 69 254 
0.276185 0.704939 2.89945 62 57 254 
0.315982 0.97671 2.9423 25 254 36 
0.239002 0.98769 2.81977 85 254 106 
0.266626 1.00193 2.85629 51 254 66 
0.00295048 -1.68396 3.15257 0 0 0 
0.276605 0.849469 2.89318 49 42 254 
0.309519 0.899831 2.92281 37 29 254 
0.150931 0.972279 2.77639 34 123 38 
0.00998522 -1.77272 3.14605 0 0 0 
0.0151544 -1.73323 3.13406 0 0 0 
0.139435 1.21991 2.65938 32 9 9 
-0.00823065 -1.79038 3.15265 0 0 0 
0.00478576 -1.7856 3.15563 0 0 0 
0.473278 -0.0115427 3.25159 31 27 24 
-0.00292046 -1.72639 3.15113 0 0 0 
0.014183 -1.74137 3.15496 0 0 0 
-0.0119113 -1.79453 3.15911 0 0 0 
-0.01753 -1.78348 3.16216 0 0 0 
-0.0244163 -1.77557 3.16304 0 0 0 
-0.025102 -1.74952 3.16139 0 0 0 
-0.0330976 -1.75435 3.16227 0 0 0 
-0.0153023 -1.81948 3.15822 0 0 0 
-0.0268367 -1.71005 3.15322 0 0 0 
-0.0143499 -1.71052 3.15308 0 0 0 
-0.0274048 -1.8039 3.1581 0 0 0 
-0.0024688 -1.78105 3.15489 0 0 0 
-0.014029 -1.77035 3.15717 0 0 0 
-0.0225785 -1.67607 3.15968 0 0 0 
-0.0700896 -1.51476 3.1673 0 0 0 
-0.162423 0.895383 2.66695 23 254 30 
-0.0320388 -1.68746 3.16431 0 0 0 
-0.0614722 -1.6678 3.17563 0 0 0 
-0.0531345 -1.60052 3.15796 0 0 0 
-0.224129 -0.672552 2.87789 65 64 60 
-0.0452769 -1.52689 3.17009 0 0 0 
-0.290849 -0.0937556 2.75673 254 22 21 
-0.322295 0.0108946 2.77322 254 44 44 
-0.0385863 -1.61617 3.17126 0 0 0 
-0.03672 -1.69453 3.17322 0 0 0 
-0.0342259 -1.75888 3.18334 0 0 0 
-0.124229 -1.06857 3.00763 0 0 0 
-0.171097 -1.01627 3.02155 0 0 0 
-0.16048 -0.992995 3.00262 0 0 0 
-0.119044 -0.980209 2.96947 0 0 0 
-0.124558 -0.904185 2.9395 0 0 0 
-0.146327 -0.88233 2.94466 0 0 0 
-0.113971 -0.612195 2.81566 44 42 254 
-0.257096 -0.444596 2.84782 48 46 254 
-0.304391 -0.321526 2.81791 79 75 72 
-0.141569 -1.07058 3.02469 0 0 0 
-0.160295 -1.06028 3.03408 0 0 0 
-0.0864653 -1.03385 2.96597 0 0 0 
-0.161428 -1.01105 3.01104 0 0 0 
-0.191549 -0.934877 2.99814 0 0 0 
-0.181746 -0.897328 2.97748 0 0 0 
-0.115907 -0.900232 2.92935 0 0 0 
-0.225706 -0.875968 2.99762 0 0 0 
-0.207799 -0.877435 2.98476 0 0 0 
-0.223168 -0.853779 2.98516 0 0 0 
-0.449887 -0.0452895 3.29696 0 0 0 
-0.388719 0.00132879 2.83422 34 34 34 
-0.403344 0.258527 2.82454 254 33 31 
-0.218571 -0.899543 3.00304 0 0 0 
-0.140137 -0.662499 2.81681 254 55 51 
-0.134092 -0.888319 2.93554 0 0 0 
-0.389959 0.114723 2.84287 52 53 254 
-0.0166927 -1.81952 3.16547 0 0 0 
-0.0116813 -1.76414 3.15891 0 0 0 
-0.0266089 -1.67483 3.15376 0 0 0 
-0.220736 -0.919745 3.01305 0 0 0 
-0.151826 -0.893403 2.95215 0 0 0 
-0.216767 -0.885952 2.99258 0 0 0 
-0.239319 -0.836004 2.98254 0 0 0 
-0.268515 -0.82489 3.05989 0 0 0 
-0.299103 -0.800054 3.14254 0 0 0 
0.198835 -0.740145 2.92194 254 46 42 
0.188234 -0.700397 2.9055 32 255 35 
-0.312757 -0.644327 2.97758 0 0 0 
-0.33883 -0.615639 3.05542 0 0 0 
-0.336365 -0.565426 2.97961 0 0 0 
-0.380058 -0.538418 3.11243 0 0 0 
-0.387125 -0.442206 3.02087 0 0 0 
-0.435893 -0.360047 3.11506 0 0 0 
-0.358914 -0.327893 2.85936 41 39 42 
-0.474223 -0.243937 3.04004 0 0 0 
0.0241422 -0.0782998 2.70404 57 53 54 
-0.465908 0.52499 3.01862 0 0 0 
-0.502642 1.15643 2.89254 4 22 4 
0.0664926 -1.1576 3.0154 0 0 0 
-0.253324 -0.811135 2.97578 0 0 0 
-0.295395 -0.802856 3.13149 0 0 0 
-0.306164 -0.781757 3.31885 0 0 0 
-0.312117 -0.758936 3.19576 0 0 0 
0.21473 -0.783967 2.94643 84 81 254 
-0.282366 -0.708961 2.92283 0 0 0 
-0.356527 -0.645168 3.16979 0 0 0 
-0.13948 -0.609453 2.8226 254 37 36 
-0.231275 -0.593049 2.88229 254 51 50 
-0.353131 -0.583119 3.07009 0 0 0 
-0.389675 -0.535005 3.14431 0 0 0 
-0.388154 -0.527165 3.13804 0 0 0 
-0.375324 -0.448671 2.95659 0 0 0 
-0.398544 -0.438209 3.07192 0 0 0 
0.167313 -0.461877 2.83262 52 255 57 
-0.35483 -0.337642 2.86289 76 79 254 
-0.441751 -0.312413 3.00145 0 0 0 
-0.461346 -0.271137 3.05738 0 0 0 
-0.46541 -0.264809 3.03186 0 0 0 
-0.467709 -0.240988 3.0034 0 0 0 
-0.156758 -0.0835832 2.70372 19 19 254 
-0.470083 -0.047789 3.15309 0 0 0 
-0.391095 -0.0239998 3.36211 0 0 0 
0.240557 -0.0321656 2.86201 255 66 62 
-0.389732 -0.0209003 2.84135 254 54 52 
-0.387557 -0.0045968 2.85873 50 50 254 
-0.38609 0.00163022 2.8676 20 20 254 
-0.389946 0.0576361 2.85631 46 44 45 
-0.393563 0.108878 2.85325 62 254 59 
0.0303779 0.199067 2.72292 254 54 50 
-0.39796 0.255914 2.84755 53 51 52 
-0.536139 1.18791 2.95363 0 0 0 
-0.0276856 -1.80111 3.16054 0 0 0 
-0.21555 -0.914963 3.00183 0 0 0 
-0.279481 -0.666321 2.92452 0 0 0 
-0.333888 -0.53548 2.94185 0 0 0 
-0.0131512 -0.186383 2.69393 57 56 54 
-0.48781 -0.149489 3.08516 0 0 0 
-0.389795 0.0101089 2.856 41 47 254 
-0.00296212 -1.76802 3.14912 0 0 0 
0.0112675 -1.63834 3.08259 0 0 0 
-0.0506414 -1.5904 3.10155 0 0 0 
-0.0190672 -1.60748 3.12898 0 0 0 
-0.299824 -0.673269 2.96515 0 0 0 
-0.106161 -0.668609 2.84466 37 33 32 
-0.13394 -0.63927 2.82359 254 42 40 
-0.369506 -0.613546 3.16569 0 0 0 
-0.488781 -0.128118 3.07571 0 0 0 
-0.39828 -0.0833481 2.85848 51 254 58 
-0.44307 -0.0774575 2.93183 0 0 0 
-0.156655 -0.078561 2.71855 254 13 13 
-0.436782 -0.0482984 2.93088 0 0 0 
-0.00723002 -1.81555 3.14558 0 0 0 
-0.256147 -0.807838 2.9991 0 0 0 
-0.14544 -0.0795308 2.70768 25 254 30 
-0.382326 0.115743 2.85059 52 53 254 
-0.0066045 -1.79672 3.14598 0 0 0 
-0.264497 -0.727921 2.94754 0 0 0 
0.274664 -0.0662727 2.90978 53 52 50 
-0.409961 -0.217443 3.36482 0 0 0 
0.663774 -0.061159 3.12966 73 255 81 
-0.0242694 -1.74873 3.16122 0 0 0 
-0.0244554 -1.77537 3.16328 0 0 0 
0.00409121 -1.55176 3.14716 0 0 0 
-0.0359279 -1.80646 3.15869 0 0 0 
0.35706 -0.0607457 2.91849 76 255 62 
-0.0827206 -1.64399 3.189 0 0 0 
-0.00394285 -1.5322 3.15254 0 0 0 
-0.0385673 -1.61211 3.1624 0 0 0 
-0.00776521 -1.78545 3.1704 0 0 0 
-0.442628 -0.0697309 2.93271 254 42 42 
-0.340016 1.19246 2.6676 67 252 70 
