ply                 
format ascii 1.0    
element vertex 642
property float x    
property float y    
property float z    
property uchar red  
property uchar green
property uchar blue 
end_header          
-0.108461 -0.679533 2.83797 0 0 0 
-0.197868 -0.665989 2.86099 254 56 55 
-0.0714608 -0.591807 2.80864 0 0 0 
0.000935529 -0.576485 2.82058 86 85 81 
-0.0224007 -0.537363 2.80424 36 34 35 
-0.010984 -0.481167 2.7916 35 33 34 
-0.319979 -0.394794 2.87377 43 252 103 
0.0231855 -0.344399 2.7531 74 72 73 
-0.190179 -0.278657 2.72562 254 107 102 
0.030459 -0.157336 2.70018 0 0 0 
-0.0319495 -0.0928968 2.69052 254 83 82 
0.0180481 -0.0799518 2.6963 57 254 58 
-0.183078 -0.0680341 2.71083 254 29 27 
-0.183684 -0.0583414 2.70882 18 16 17 
-0.277239 0.227937 2.73612 22 25 254 
-0.215488 0.235512 2.70828 149 86 89 
0.0388397 0.51355 2.72774 83 79 78 
-0.27183 0.646651 2.71389 41 39 40 
0.167983 0.699461 2.77488 254 44 43 
0.134419 0.698701 2.75251 0 0 0 
-0.358938 0.768552 2.76439 254 28 27 
0.174256 0.869827 2.76596 0 0 0 
0.111673 1.0132 2.71665 58 57 55 
-0.0373653 -1.50015 3.10661 0 0 0 
-0.0467717 -1.5005 3.11485 0 0 0 
-0.123535 -1.10893 3.02124 0 0 0 
-0.23829 -0.663124 2.8856 72 250 60 
-0.1279 -0.617079 2.82477 0 0 0 
-0.0715405 -0.591303 2.80922 0 0 0 
0.00102029 -0.575866 2.82074 0 0 0 
-0.0718398 -0.53748 2.79175 104 98 70 
-0.276014 -0.400049 2.85235 0 0 0 
-0.286758 -0.294879 2.79476 31 28 254 
-0.190501 -0.278958 2.72278 40 24 25 
-0.0395496 -0.160367 2.69297 34 33 31 
0.0305184 -0.156831 2.69745 31 31 33 
-0.0162974 -0.13998 2.68976 3 1 2 
-0.0312619 -0.0929547 2.69483 255 26 24 
-0.402421 -0.095771 2.86798 0 0 0 
0.16031 -0.0871627 2.74607 255 53 52 
0.0253981 -0.0802794 2.69481 55 254 54 
0.0161914 -0.0795076 2.69699 57 53 54 
0.00446613 -0.075763 2.69437 40 41 254 
-0.21594 -0.0648717 2.71974 37 37 254 
-0.183794 -0.058152 2.70896 18 16 17 
-0.0834541 -0.0451985 2.69976 83 82 80 
-0.317304 0.0237926 2.77392 20 20 254 
-0.152551 0.0281157 2.71707 254 125 125 
-0.347106 0.295907 2.78236 0 0 0 
-0.140916 0.360872 2.70412 59 61 242 
-0.225507 0.363467 2.70632 23 25 27 
-0.266471 0.428567 2.71961 0 0 0 
-0.393783 0.504907 2.8095 254 42 40 
-0.252702 0.5217 2.71243 23 24 254 
0.0277784 0.566716 2.70781 0 0 0 
-0.329584 0.579149 2.74808 45 46 254 
0.134077 0.699082 2.75212 0 0 0 
-0.358871 0.768643 2.76501 0 0 0 
-0.359409 0.777067 2.76622 0 0 0 
0.174823 0.869679 2.7669 86 254 68 
0.174866 0.889512 2.76346 4 1 1 
-0.144657 0.883568 2.6662 254 49 48 
0.0317767 0.909737 2.67432 69 67 254 
0.172257 0.959287 2.75811 15 45 14 
0.173459 0.970454 2.75675 24 66 21 
0.112316 1.01375 2.7196 0 0 0 
0.160413 -0.0865877 2.74621 11 10 8 
-0.14789 -0.0563606 2.71991 99 97 98 
-0.159717 0.0754103 2.71664 254 51 51 
-0.369018 0.0933774 2.81202 32 254 56 
-0.165522 0.360761 2.7086 65 63 64 
0.174302 0.889636 2.7645 62 254 65 
-0.0418242 -1.50241 3.10791 0 0 0 
-0.0133824 -0.782074 2.87956 0 0 0 
-0.13705 -0.662479 2.82305 36 254 35 
0.019411 -0.184599 2.69538 0 0 0 
-0.27364 -0.132866 2.75411 0 0 0 
-0.151929 -0.0829939 2.71103 19 19 254 
0.0283679 -0.0778067 2.6942 85 86 254 
0.0803451 -0.072639 2.71405 1 1 1 
-0.151516 0.027114 2.71701 0 0 0 
-0.153527 0.100294 2.71419 17 18 254 
-0.196511 0.111894 2.70608 255 36 35 
-0.159423 0.735886 2.69764 42 37 255 
-0.131029 0.796024 2.69103 254 37 36 
0.0165104 -0.625184 2.83831 0 0 0 
-0.0811155 -0.0310151 2.70986 73 254 63 
0.0907164 -0.0239637 2.73611 59 62 255 
0.0331529 -0.196274 2.69455 0 0 0 
-0.0960066 -0.0808887 2.69443 254 77 72 
0.0110206 -0.0691615 2.69423 40 38 39 
-0.108367 -0.679387 2.84406 0 0 0 
-0.103068 -0.665114 2.82671 0 0 0 
0.15089 -0.663072 2.8914 254 85 81 
-0.111385 -0.621578 2.81796 0 0 0 
-0.128831 -0.616867 2.82967 0 0 0 
0.00612466 0.591851 2.70247 254 39 38 
0.22917 0.662645 2.83578 254 86 82 
0.204339 0.67288 2.81052 254 55 54 
0.235023 0.680358 2.84211 254 92 88 
0.246566 0.691595 2.858 70 69 254 
0.187078 0.680732 2.79161 41 39 33 
0.209014 0.685643 2.81514 60 59 55 
0.200834 0.690725 2.8041 28 27 23 
0.234567 0.703922 2.8455 94 91 254 
0.185954 0.700627 2.79036 71 254 80 
0.139296 0.701606 2.75457 71 254 71 
0.181173 0.716126 2.78573 7 3 68 
0.160975 0.716798 2.77112 0 0 0 
0.215264 0.732271 2.82076 89 85 254 
0.192049 0.731424 2.79631 48 249 48 
0.182806 0.731577 2.7884 140 47 47 
0.152858 0.729746 2.76449 0 0 0 
0.274144 0.852765 2.89143 69 66 59 
0.276375 0.863903 2.89377 99 254 72 
0.251065 0.874987 2.8528 255 68 67 
0.216198 0.873638 2.80492 90 86 87 
0.245711 0.887968 2.83276 86 83 254 
0.230009 0.885091 2.81505 254 69 68 
0.247675 0.898627 2.83082 88 84 81 
0.164496 0.879464 2.75552 0 0 0 
0.181719 0.883773 2.76786 4 12 4 
0.138156 0.87932 2.73796 72 70 254 
0.223867 0.896446 2.80339 85 254 84 
0.211419 0.898357 2.79081 59 253 65 
0.182878 0.894409 2.76596 6 5 13 
0.159371 0.891294 2.74925 0 0 0 
0.149305 0.89172 2.74059 0 0 0 
0.249486 0.943771 2.82986 87 86 82 
0.217154 0.935447 2.79546 98 96 254 
0.218751 0.945902 2.79676 73 72 68 
0.251674 0.959995 2.83433 255 68 69 
0.256228 0.96617 2.84188 68 67 62 
0.207462 0.961795 2.78642 76 74 255 
0.184678 0.958212 2.76641 135 39 37 
0.246767 0.980911 2.83342 73 255 68 
0.172665 0.959218 2.75786 52 17 17 
0.26999 0.992576 2.86289 64 255 65 
0.223609 0.977773 2.80399 66 64 255 
0.205733 0.972907 2.78477 254 89 88 
0.173214 0.971043 2.75713 21 68 19 
0.195748 0.97876 2.77803 56 57 249 
0.150664 0.983595 2.74218 80 254 88 
0.178228 1.23592 2.67212 80 20 18 
-0.0197016 -1.78152 3.16499 0 0 0 
-0.0289856 -1.77285 3.15802 0 0 0 
-0.0291333 -1.55884 3.08947 0 0 0 
0.0548762 -1.10594 2.99824 0 0 0 
0.258681 -0.729393 3.00306 64 63 61 
0.332971 -0.665073 3.13764 47 43 42 
0.336846 -0.63179 3.15525 36 36 36 
-0.277073 -0.399834 2.85975 0 0 0 
-0.308239 -0.332712 2.83959 0 0 0 
0.219133 -0.293423 2.80615 255 59 60 
0.266548 -0.269399 2.86539 64 62 255 
-0.284537 -0.249157 2.77375 0 0 0 
-0.291504 -0.244365 2.77015 0 0 0 
0.262807 -0.239056 2.82906 255 73 72 
0.365333 -0.0229238 3.09615 51 50 48 
0.352561 -0.00259337 3.0963 69 67 255 
-0.310501 0.0166668 2.7679 40 42 254 
-0.158007 0.0905548 2.70987 1 1 0 
-0.0847352 0.238062 2.70753 77 78 254 
-0.13853 0.369459 2.71269 57 57 255 
-0.0194256 0.420758 2.71656 0 0 0 
0.126144 0.441819 2.75072 46 43 254 
0.178849 0.630375 2.78698 66 65 61 
0.19656 0.655251 2.80089 68 65 60 
0.174321 0.709661 2.78187 0 0 0 
0.188664 0.873795 2.77784 29 89 28 
0.211471 0.878957 2.79838 81 77 74 
0.19059 0.882711 2.77534 30 27 23 
0.146806 0.87991 2.74431 0 0 0 
0.228282 0.905683 2.80962 94 89 254 
0.205051 0.903589 2.78621 87 83 80 
0.187964 0.931198 2.76737 35 34 77 
0.224445 0.961266 2.80552 78 255 80 
0.224793 0.988754 2.80467 254 41 40 
0.15035 0.972736 2.74111 10 3 3 
0.111961 1.01407 2.7174 254 76 76 
0.139495 1.22003 2.63929 254 40 39 
0.151174 -0.180732 2.7426 0 0 0 
0.166459 -0.0344541 2.76119 255 39 38 
-0.339043 0.0743013 2.79448 0 0 0 
0.18045 0.966009 2.7614 58 60 55 
0.189093 1.23605 2.6674 25 21 18 
0.137585 1.22989 2.63983 28 26 254 
-0.00864738 -1.67989 3.13483 0 0 0 
-0.0328418 -1.59398 3.09068 0 0 0 
0.0359123 -1.57715 3.11477 0 0 0 
-0.0623526 -1.49948 3.13834 0 0 0 
-0.0928232 -0.664347 2.82931 0 0 0 
-0.13643 -0.661915 2.82251 36 254 35 
-0.237927 -0.111889 2.73065 44 43 39 
-0.0589244 -0.0768183 2.69962 64 254 68 
0.112363 -0.072378 2.71983 87 88 255 
0.159015 -0.0685996 2.74538 33 255 43 
0.173462 -0.0631196 2.74949 48 46 255 
0.258136 0.858694 2.87163 254 87 84 
0.170978 0.913481 2.75049 59 54 254 
-0.341007 1.20798 2.71206 0 0 0 
0.00825385 -1.74783 3.16907 0 0 0 
-0.16581 0.114877 2.71155 1 0 0 
-0.0202821 -1.69982 3.15997 0 0 0 
-0.0009521 -1.57628 3.10243 0 0 0 
-0.0595821 -1.48147 3.09742 0 0 0 
0.0409819 -1.47952 3.13013 0 0 0 
0.178766 -0.793647 2.9676 254 58 57 
-0.0948596 -0.0806801 2.68314 254 77 72 
-0.0763975 -0.0713737 2.69589 67 66 64 
-0.036267 -1.71208 3.09791 0 0 0 
-0.0252219 -1.5829 3.08173 0 0 0 
-0.0693364 -1.60473 3.13579 0 0 0 
-0.148681 1.14269 2.63737 254 64 63 
-0.247711 -0.0792485 2.73682 255 20 20 
0.0108405 -1.73383 3.14612 0 0 0 
-0.00776826 -1.72391 3.16369 0 0 0 
-0.0587522 -1.50194 3.14124 0 0 0 
-0.00689845 -1.66779 3.15754 0 0 0 
0.191685 0.718845 2.79701 33 247 35 
0.172303 0.882571 2.76068 1 1 1 
0.25079 0.915485 2.83295 254 89 85 
0.161015 0.917889 2.74701 0 0 0 
0.19075 0.943994 2.7709 39 173 42 
0.117674 1.01184 2.72329 48 51 254 
0.138564 1.22407 2.65025 76 18 19 
0.197654 1.23125 2.68433 35 36 32 
-0.00919007 -1.6989 3.15477 0 0 0 
0.363456 -0.0226068 3.21042 53 50 255 
0.153675 0.886062 2.74707 0 0 0 
0.216725 0.892528 2.80032 81 82 77 
0.196364 0.909954 2.77522 51 137 54 
0.241603 0.956306 2.82229 73 254 83 
0.200413 0.967462 2.78413 73 254 66 
0.199398 0.724629 2.80237 254 66 65 
0.199188 0.731077 2.82859 67 60 254 
0.264619 0.875645 2.86208 53 254 45 
0.223547 0.879066 2.80808 254 99 98 
0.257652 0.920844 2.83901 71 66 254 
0.239565 0.873925 2.83147 54 42 254 
0.17105 0.983721 2.75763 28 26 87 
0.137179 1.23382 2.65093 5 4 19 
-0.0275302 -1.74419 3.15099 0 0 0 
-0.0175834 -1.71565 3.15178 0 0 0 
-0.0623358 -1.49145 3.11686 0 0 0 
-0.0212896 -1.66685 3.14833 0 0 0 
0.00329227 -1.51963 3.15184 0 0 0 
0.180784 0.998233 2.76508 66 61 59 
0.150632 0.904404 2.74176 0 0 0 
-0.0216857 -1.72016 3.15851 0 0 0 
0.38188 -0.209444 3.17148 47 47 255 
0.14592 -0.432081 2.81124 68 75 111 
0.0234292 -0.157964 2.70828 0 0 0 
-0.0227375 0.364811 2.72558 0 0 0 
0.322166 0.385959 2.99295 36 254 63 
-0.0237388 0.406884 2.72458 0 0 0 
-0.0249594 0.422288 2.72473 0 0 0 
0.231712 0.677307 2.83793 82 254 94 
0.280546 0.685985 2.90892 63 60 55 
0.285531 0.687803 2.91976 66 63 58 
0.27184 0.684546 2.89269 82 254 85 
0.254396 0.683458 2.8668 64 63 59 
0.267181 0.694414 2.8865 254 76 73 
0.28897 0.702013 2.92395 71 67 254 
0.186628 0.688106 2.79071 76 70 72 
0.230684 0.698513 2.83767 78 75 254 
0.166658 0.700613 2.77648 254 44 43 
0.212616 0.72832 2.81654 60 59 55 
0.301052 0.861014 2.9515 37 34 29 
0.268614 0.8515 2.88652 74 254 76 
0.284611 0.85828 2.90856 254 65 62 
0.280627 0.860297 2.89883 44 40 254 
0.264835 0.857637 2.87359 72 71 66 
0.300361 0.869699 2.9372 254 49 45 
0.29686 0.873295 2.91543 72 254 81 
0.302902 0.879967 2.93826 63 254 63 
0.274604 0.876519 2.87937 70 254 73 
0.314663 0.891142 2.95101 42 254 55 
0.173269 0.870054 2.76528 254 65 64 
0.286631 0.886421 2.89409 59 54 48 
0.298102 0.888901 2.90981 50 254 53 
0.238314 0.881724 2.82481 254 55 54 
0.266246 0.886406 2.85918 254 72 68 
0.309029 0.900986 2.93874 36 30 30 
0.228483 0.886248 2.81758 70 69 67 
0.21934 0.884149 2.80161 254 85 85 
0.159058 0.882155 2.75175 0 0 0 
0.301049 0.902886 2.91232 28 254 49 
0.288474 0.902611 2.88842 47 43 34 
0.317528 0.91526 2.94422 40 31 254 
0.265586 0.901141 2.8535 254 80 77 
0.146963 0.892758 2.74266 68 66 67 
0.233797 0.900309 2.81463 75 74 70 
0.310123 0.91719 2.92589 30 254 42 
0.295943 0.915871 2.89848 59 55 46 
0.279777 0.915136 2.87245 54 254 61 
0.296476 0.927022 2.89664 254 57 53 
0.324475 0.941616 2.96451 43 254 73 
0.281364 0.926176 2.87226 254 71 67 
0.313186 0.939383 2.93405 47 254 51 
0.28534 0.93254 2.88036 47 44 35 
0.302734 0.937933 2.9078 254 42 37 
0.220376 0.921742 2.79619 254 68 67 
0.319928 0.95136 2.95084 48 43 39 
0.300289 0.949678 2.90445 254 52 47 
0.305213 0.952253 2.91684 52 47 43 
0.285094 0.947395 2.87929 254 58 55 
0.260955 0.943837 2.84479 80 254 86 
0.246949 0.949725 2.82758 85 84 254 
0.304685 0.96681 2.91665 40 35 29 
0.2971 0.968501 2.90151 254 53 48 
0.289368 0.965983 2.8848 69 64 254 
0.222631 0.955757 2.79968 254 80 79 
0.165969 0.957319 2.75188 23 7 7 
0.247522 0.963454 2.82762 75 254 84 
0.257087 0.965581 2.84207 80 254 89 
0.234923 0.963993 2.81486 82 79 254 
0.32146 0.994393 2.96727 50 39 254 
0.296888 0.980637 2.90146 254 81 78 
0.285152 0.979553 2.88013 47 44 39 
0.290267 0.983086 2.89153 44 41 36 
0.26145 0.978459 2.84585 77 74 69 
0.271125 0.981485 2.86132 41 36 254 
0.234077 0.975801 2.81416 79 78 254 
0.281642 0.995114 2.87974 41 254 52 
0.245972 0.989401 2.82767 85 82 254 
0.263602 0.992438 2.85086 70 67 254 
0.281463 1.00543 2.87867 68 65 254 
0.263297 1.00355 2.85123 48 41 254 
0.179265 0.998908 2.76711 41 254 51 
0.222494 1.00081 2.80158 254 67 66 
0.208463 1.05248 2.7822 54 52 254 
0.162829 -0.469214 2.82361 40 198 40 
-0.00620424 -0.081561 2.70354 0 0 0 
-0.163465 0.0278918 2.73099 0 0 0 
0.283007 0.677037 2.9157 254 93 90 
0.267706 0.674028 2.88764 74 73 68 
0.183665 0.710914 2.79139 41 149 41 
0.170158 0.716743 2.77898 254 58 54 
0.21847 0.726475 2.82593 254 57 53 
0.186451 0.72504 2.79264 72 71 68 
0.287337 0.874607 2.91071 254 84 83 
0.277878 0.873586 2.88816 69 68 64 
0.322701 0.893771 2.98427 50 254 54 
0.298534 0.885765 2.92632 91 92 87 
0.251066 0.873918 2.8485 80 77 70 
0.224874 0.874182 2.81447 46 42 41 
0.183573 0.878176 2.77314 23 8 8 
0.293082 0.895979 2.90512 66 254 73 
0.297515 0.909618 2.9066 254 60 56 
0.168419 0.893138 2.7558 74 254 65 
0.306271 0.923487 2.91952 254 47 43 
0.178657 0.904713 2.76097 59 254 65 
0.159399 0.907367 2.74872 0 0 0 
0.248031 0.918304 2.82648 79 78 74 
0.302775 0.958874 2.90902 77 72 254 
0.178727 0.95323 2.76365 61 60 58 
0.229152 0.9572 2.80941 74 254 78 
0.319523 0.982055 2.95199 53 49 254 
0.167172 0.96572 2.7546 70 65 254 
0.289511 0.992393 2.88967 27 254 38 
0.301659 1.00605 2.91547 49 254 55 
0.197505 -0.331299 2.80303 67 254 65 
0.277362 0.703893 2.90161 62 57 254 
0.154817 0.722279 2.76553 0 0 0 
0.24124 0.893533 2.82661 45 44 40 
0.281943 0.908226 2.884 73 68 254 
0.329795 0.96947 2.98902 43 254 48 
0.190241 0.951429 2.77056 64 254 59 
0.291151 1.00082 2.88283 71 254 76 
0.0128945 -0.185093 2.70264 0 0 0 
0.00283857 -0.0742774 2.70564 0 0 0 
-0.00517477 -0.028661 2.72762 0 0 0 
-0.17702 0.115727 2.72199 0 0 0 
0.238438 0.874524 2.83298 69 65 254 
0.143361 0.879214 2.74166 0 0 0 
0.303827 0.901182 2.92933 37 29 254 
0.296588 0.861369 2.94135 51 48 254 
0.204221 0.947067 2.78883 83 82 78 
0.362666 -0.0236443 3.25726 12 8 5 
0.160919 0.972615 2.74926 45 44 42 
0.289396 0.92289 2.89359 254 42 37 
0.382865 -0.0252424 3.22923 12 8 5 
-0.160775 0.640167 2.70583 0 0 0 
-0.0414387 -1.52326 3.13128 0 0 0 
0.00796964 -1.68771 3.15775 0 0 0 
0.214978 0.720273 2.82134 78 75 254 
0.283456 0.878019 2.89519 254 77 74 
0.313026 0.879835 2.95529 72 68 65 
0.310939 0.892761 2.94157 54 47 39 
0.318966 0.910986 2.94905 25 254 42 
0.251566 0.940585 2.83379 88 84 254 
0.324502 0.951026 2.96418 41 254 52 
0.281938 0.967074 2.87662 254 54 51 
0.268361 0.986092 2.85626 60 57 52 
0.287317 0.98702 2.88691 254 50 47 
0.204095 1.25118 2.6866 22 19 132 
0.261252 0.685251 2.89845 254 83 80 
0.314975 0.891044 2.95191 254 51 46 
0.319829 0.905646 2.96487 44 35 28 
0.238781 0.905836 2.81932 79 254 91 
0.305168 0.908215 2.91732 43 39 30 
0.293161 0.908617 2.8933 37 254 53 
0.286326 0.945004 2.8807 48 45 254 
0.313073 0.950877 2.93417 254 35 30 
0.300668 0.960595 2.91302 254 58 53 
0.327435 0.972063 2.99686 254 45 40 
0.184401 0.984797 2.76966 54 217 95 
0.292021 0.975203 2.89673 45 41 254 
0.227036 0.983717 2.80914 79 77 254 
0.19694 0.725837 2.80373 254 66 65 
0.257566 0.856664 2.86081 66 254 56 
0.217941 0.903693 2.79407 91 87 84 
0.285792 0.920916 2.87944 254 62 55 
0.306887 0.948318 2.9267 40 254 49 
0.295755 0.939369 2.89734 254 58 53 
0.315918 0.943347 2.95478 40 254 51 
0.231877 0.953531 2.81254 75 254 81 
0.253751 0.954997 2.83593 75 71 68 
0.28816 1.00304 2.88726 57 53 50 
-0.00391616 -1.69115 3.14592 0 0 0 
0.152023 0.698591 2.76441 0 0 0 
0.310315 0.697935 2.97937 69 254 83 
0.180511 0.862345 2.776 8 6 16 
0.290825 0.86975 2.91548 58 58 50 
0.29849 0.88884 2.91528 254 37 32 
0.297789 0.924457 2.90237 47 42 36 
0.186751 0.945694 2.77357 39 173 42 
0.30526 0.93752 2.91466 43 254 52 
0.290635 0.938142 2.88744 49 44 38 
0.333199 0.952571 2.9992 86 76 74 
0.300575 1.00075 2.91085 56 51 254 
0.26229 -0.228316 2.82685 253 50 50 
0.277613 -0.225454 2.84748 74 72 73 
0.254692 0.695903 2.87083 71 72 67 
0.273075 0.696603 2.89604 68 254 89 
0.288046 0.883746 2.90115 64 254 59 
0.325407 0.91707 2.96598 48 44 35 
0.313202 0.923149 2.93093 55 51 42 
0.332131 0.962367 2.99311 56 254 70 
0.320045 0.970478 2.95289 36 254 47 
0.273192 0.987508 2.86636 254 52 49 
0.224615 0.99714 2.80879 76 72 71 
0.322774 1.01695 2.9654 254 47 44 
0.329846 1.10396 3.24734 23 18 254 
0.262529 -0.32605 2.91188 72 69 254 
0.275391 0.704311 2.9029 62 57 254 
0.315536 0.975694 2.94531 25 254 36 
0.238412 0.986664 2.82302 85 254 106 
0.266081 1.00089 2.85945 51 254 66 
0.00151309 -1.68209 3.15793 0 0 0 
0.275967 0.848638 2.89645 49 42 254 
0.308924 0.898958 2.92598 37 29 254 
0.150589 0.971083 2.77964 34 123 38 
0.0083682 -1.77088 3.15157 0 0 0 
0.0134969 -1.73147 3.13958 0 0 0 
0.138814 1.21863 2.66267 32 9 9 
-0.00757447 -1.78708 3.15701 0 0 0 
0.00543863 -1.7823 3.16001 0 0 0 
0.471545 -0.0109935 3.25569 31 27 24 
-0.00229608 -1.72322 3.15548 0 0 0 
0.0147978 -1.73816 3.15933 0 0 0 
-0.0104282 -1.79037 3.16047 0 0 0 
-0.0160509 -1.77928 3.16366 0 0 0 
-0.0229272 -1.77147 3.16442 0 0 0 
-0.0236232 -1.74551 3.1628 0 0 0 
-0.0322246 -1.75016 3.16363 0 0 0 
-0.0135666 -1.81533 3.16006 0 0 0 
-0.0251585 -1.70622 3.15517 0 0 0 
-0.0126428 -1.70674 3.15487 0 0 0 
-0.0256775 -1.7998 3.15997 0 0 0 
-0.000726027 -1.77706 3.15661 0 0 0 
-0.0122947 -1.76641 3.1589 0 0 0 
-0.0224627 -1.67148 3.15971 0 0 0 
-0.0699051 -1.51077 3.16756 0 0 0 
-0.162806 0.894593 2.67094 23 254 30 
-0.0319006 -1.68284 3.16431 0 0 0 
-0.0612735 -1.66328 3.17564 0 0 0 
-0.0529662 -1.59624 3.1581 0 0 0 
-0.224256 -0.671221 2.87914 65 64 60 
-0.046176 -1.52225 3.16912 0 0 0 
-0.290835 -0.0936281 2.75908 254 22 21 
-0.32229 0.0108531 2.77566 254 44 44 
-0.0394985 -1.61117 3.17014 0 0 0 
-0.0376339 -1.6892 3.17195 0 0 0 
-0.0351602 -1.75327 3.18191 0 0 0 
-0.124842 -1.06576 3.00796 0 0 0 
-0.171677 -1.01358 3.0217 0 0 0 
-0.160981 -0.990503 3.00307 0 0 0 
-0.119609 -0.977716 2.97008 0 0 0 
-0.125055 -0.901967 2.94031 0 0 0 
-0.146774 -0.88021 2.94547 0 0 0 
-0.1143 -0.610882 2.81722 44 42 254 
-0.256717 -0.443861 2.85022 48 46 254 
-0.304314 -0.321108 2.81983 79 75 72 
-0.142249 -1.06765 3.02474 0 0 0 
-0.160932 -1.0574 3.03411 0 0 0 
-0.0872138 -1.03103 2.9663 0 0 0 
-0.162023 -1.00838 3.01124 0 0 0 
-0.192027 -0.932538 2.99851 0 0 0 
-0.182217 -0.895118 2.97799 0 0 0 
-0.116483 -0.897961 2.93004 0 0 0 
-0.226087 -0.873877 2.99808 0 0 0 
-0.20815 -0.875399 2.98541 0 0 0 
-0.223481 -0.851839 2.98584 0 0 0 
-0.450275 -0.0454532 3.29787 0 0 0 
-0.388561 0.00113988 2.83661 34 34 34 
-0.401678 0.258826 2.83094 254 33 31 
-0.218979 -0.89736 3.00345 0 0 0 
-0.140409 -0.661097 2.81826 254 55 51 
-0.134627 -0.886109 2.93622 0 0 0 
-0.38988 0.114364 2.84528 52 53 254 
-0.0160649 -1.81486 3.16583 0 0 0 
-0.0111161 -1.75963 3.15933 0 0 0 
-0.0261108 -1.67059 3.15423 0 0 0 
-0.22048 -0.917881 3.01413 0 0 0 
-0.151658 -0.891492 2.95349 0 0 0 
-0.216537 -0.88416 2.99374 0 0 0 
-0.239578 -0.834468 2.98324 0 0 0 
-0.269561 -0.823222 3.05953 0 0 0 
-0.29914 -0.798929 3.14311 0 0 0 
0.19832 -0.73807 2.92409 254 46 42 
0.18773 -0.698437 2.90771 32 255 35 
-0.313002 -0.643238 2.97839 0 0 0 
-0.341185 -0.613851 3.05278 0 0 0 
-0.338092 -0.564153 2.97886 0 0 0 
-0.37998 -0.537679 3.11338 0 0 0 
-0.386506 -0.441625 3.02271 0 0 0 
-0.435917 -0.35977 3.11606 0 0 0 
-0.358929 -0.327477 2.86097 41 39 42 
-0.475464 -0.243704 3.0398 0 0 0 
0.0237536 -0.0778534 2.70696 57 53 54 
-0.466737 0.523535 3.02042 0 0 0 
-0.504233 1.15396 2.89469 4 22 4 
0.0664222 -1.15463 3.01671 0 0 0 
-0.251013 -0.810271 2.97916 0 0 0 
-0.293787 -0.802259 3.13396 0 0 0 
-0.306029 -0.78038 3.31929 0 0 0 
-0.311965 -0.757605 3.19646 0 0 0 
0.214179 -0.781755 2.94852 84 81 254 
-0.28215 -0.707672 2.92417 0 0 0 
-0.356496 -0.644628 3.1705 0 0 0 
-0.139449 -0.608162 2.82447 254 37 36 
-0.231208 -0.591929 2.88388 254 51 50 
-0.353777 -0.582187 3.07028 0 0 0 
-0.389594 -0.534297 3.14519 0 0 0 
-0.388082 -0.52647 3.13894 0 0 0 
-0.371144 -0.448545 2.96243 0 0 0 
-0.398427 -0.437772 3.07311 0 0 0 
0.16681 -0.460512 2.83521 52 255 57 
-0.354847 -0.337202 2.86449 76 79 254 
-0.441777 -0.312191 3.00267 0 0 0 
-0.461411 -0.27105 3.05851 0 0 0 
-0.465462 -0.264727 3.03304 0 0 0 
-0.46751 -0.240789 3.00494 0 0 0 
-0.157008 -0.0833187 2.70623 19 19 254 
-0.468395 -0.0482723 3.1567 0 0 0 
-0.391674 -0.0245645 3.36283 0 0 0 
0.239506 -0.0317071 2.86499 255 66 62 
-0.391263 -0.0208409 2.84184 254 54 52 
-0.387886 -0.0048312 2.8605 50 50 254 
-0.386437 0.00137854 2.86936 20 20 254 
-0.390334 0.0572847 2.85813 46 44 45 
-0.393999 0.10843 2.85511 62 254 59 
0.0296871 0.198971 2.72602 254 54 50 
-0.400099 0.255183 2.84751 53 51 52 
-0.538931 1.1843 2.95425 0 0 0 
-0.0270521 -1.79653 3.1609 0 0 0 
-0.215297 -0.913103 3.00295 0 0 0 
-0.279316 -0.665118 2.92588 0 0 0 
-0.333787 -0.534637 2.9432 0 0 0 
-0.0134015 -0.185762 2.69671 57 56 54 
-0.487982 -0.149696 3.08628 0 0 0 
-0.390134 0.00984692 2.85779 41 47 254 
-0.00241756 -1.76348 3.14956 0 0 0 
0.0117451 -1.63419 3.08335 0 0 0 
-0.0501135 -1.58649 3.10219 0 0 0 
-0.0186322 -1.60342 3.12956 0 0 0 
-0.300753 -0.671815 2.96522 0 0 0 
-0.106135 -0.667147 2.84651 37 33 32 
-0.133887 -0.637908 2.82545 254 42 40 
-0.36938 -0.612638 3.1665 0 0 0 
-0.486367 -0.128246 3.08003 0 0 0 
-0.398508 -0.0834446 2.86019 51 254 58 
-0.443528 -0.0773945 2.93308 0 0 0 
-0.156948 -0.0783167 2.72102 254 13 13 
-0.434752 -0.0481155 2.93498 0 0 0 
-0.00659512 -1.81091 3.14602 0 0 0 
-0.255927 -0.806292 3.00025 0 0 0 
-0.145716 -0.0792649 2.7102 25 254 30 
-0.382781 0.115295 2.85247 52 53 254 
-0.00600445 -1.79211 3.14642 0 0 0 
-0.264297 -0.726567 2.94885 0 0 0 
0.273479 -0.0657357 2.91266 53 52 50 
-0.41025 -0.217577 3.36545 0 0 0 
0.662671 -0.0606635 3.13353 73 255 81 
-0.02276 -1.74466 3.16261 0 0 0 
-0.0229353 -1.77121 3.16465 0 0 0 
0.00544254 -1.54824 3.14875 0 0 0 
-0.034137 -1.80235 3.16042 0 0 0 
0.356169 -0.0604185 2.92182 76 255 62 
-0.0835411 -1.63915 3.18815 0 0 0 
-0.00492273 -1.5277 3.15199 0 0 0 
-0.0394636 -1.60735 3.16169 0 0 0 
-0.00874953 -1.77997 3.16941 0 0 0 
-0.442573 -0.0698593 2.93451 254 42 42 
-0.339843 1.19168 2.67181 67 252 70 
-0.179512 -1.10142 3.06292 0 0 0 
-0.425052 -0.389241 3.12583 0 0 0 
-0.0227431 -1.77058 3.162 0 0 0 
-0.30693 -0.690906 3.0193 0 0 0 
-0.317357 -0.616295 2.96155 0 0 0 
-0.392136 -0.519393 3.1446 0 0 0 
-0.36747 -0.512189 3.03022 0 0 0 
-0.487648 -0.138248 3.08999 0 0 0 
-0.0337087 -1.75383 3.16891 0 0 0 
-0.0157467 -1.7859 3.13661 0 0 0 
-0.15959 -0.899665 2.95812 0 0 0 
-0.280848 -0.813919 3.09529 0 0 0 
-0.379607 -0.368399 2.90596 68 254 69 
-0.511661 1.14492 2.90061 61 252 69 
-0.0712646 -1.6349 3.20496 0 0 0 
-0.182692 -1.11296 3.08485 0 0 0 
-0.435601 -0.312687 3.01143 0 0 0 
-0.285475 -0.252578 2.75988 70 254 84 
-0.335975 -0.623762 3.07097 0 0 0 
-0.00108054 -1.75964 3.13993 0 0 0 
-0.0225205 -1.56805 3.14568 0 0 0 
-0.0318373 -1.7775 3.1658 0 0 0 
-0.0240223 -1.6708 3.15705 0 0 0 
-0.0188175 -1.79443 3.16099 0 0 0 
-0.0465242 -1.77213 3.16803 0 0 0 
-0.0362264 -1.68153 3.1617 0 0 0 
-0.021689 -1.70295 3.15867 0 0 0 
-0.0158817 -1.79342 3.1494 0 0 0 
-0.0215415 -1.74426 3.16175 0 0 0 
-0.0808099 -1.59338 3.19038 0 0 0 
-0.0292417 -1.77792 3.16803 0 0 0 
-0.0534828 -1.51204 3.17554 0 0 0 
-0.064072 -1.60778 3.19121 0 0 0 
-0.288294 -0.848575 3.30711 0 0 0 
-0.286807 -0.855434 3.31382 0 0 0 
