ply                 
format ascii 1.0    
element vertex 1322
property float x    
property float y    
property float z    
property uchar red  
property uchar green
property uchar blue 
end_header          
-0.391039 -0.279905 3.96889 9 9 7 
-0.636579 -0.259734 3.90536 4 5 7 
-0.269935 -0.265866 4.02106 100 101 103 
-0.2434 -0.265349 4.03354 105 106 108 
1.1738 -0.368358 5.71625 30 35 41 
0.260709 -0.303805 5.18833 56 64 67 
5.48328 -0.415975 7.39997 73 82 91 
0.0508725 -0.248988 4.9108 155 154 152 
0.633209 -0.216424 5.24078 46 46 46 
0.663159 -0.206689 5.22113 82 82 82 
0.645465 -0.201482 5.23133 23 23 23 
0.979188 -0.213127 5.54036 70 78 81 
3.52386 -0.240622 6.92939 46 53 61 
0.534002 -0.169607 5.15063 56 56 54 
3.52873 -0.230365 6.91445 48 52 61 
0.71634 -0.153262 5.25721 49 49 47 
0.629131 -0.152048 5.21425 147 147 147 
0.697555 -0.147123 5.24454 43 43 41 
1.24227 -0.15217 5.53953 88 89 93 
0.641103 -0.138014 5.19601 79 79 79 
0.828017 -0.123645 5.29402 30 29 27 
1.26266 -0.124332 5.53118 103 103 105 
1.43668 -0.120047 5.63173 69 72 65 
1.43825 -0.117981 5.62845 62 65 58 
1.41742 -0.106477 5.61644 74 76 73 
1.4347 -0.107779 5.61348 139 142 135 
1.28952 -0.097913 5.52593 170 171 173 
1.50186 -0.0905165 5.60718 147 148 152 
1.48791 -0.0503261 5.64056 98 100 99 
5.36903 -0.0482474 7.19285 56 65 72 
2.22197 -0.0111538 6.0105 85 87 86 
2.20305 0.00332141 6.00052 74 76 75 
8.5022 0.079964 9.66765 118 135 142 
2.20467 0.0519197 5.99017 119 120 122 
3.06235 0.110254 6.36422 17 18 20 
0.441297 0.115543 5.0564 117 117 117 
4.869 0.171401 6.66271 122 127 130 
0.908126 0.140293 5.23446 9 11 10 
0.910227 0.177684 5.22523 12 14 13 
1.25109 0.188349 5.42404 11 13 12 
5.82942 0.263316 7.03879 58 58 60 
3.80171 0.270566 6.80341 69 73 72 
3.85692 0.272301 6.78917 134 137 142 
5.82263 0.282655 7.00868 85 86 88 
1.21361 0.220112 5.44794 22 24 23 
8.93872 0.442269 9.4194 125 138 146 
-1.5794 0.158074 3.23636 28 34 34 
1.16004 0.302324 5.75307 46 50 51 
2.73932 0.444027 6.21068 94 96 95 
-1.62198 0.227671 3.04719 5 4 9 
-1.54042 0.239239 3.08715 9 10 12 
-1.60759 0.24028 3.04554 0 0 2 
3.60691 0.513753 6.57725 27 28 32 
-1.59811 0.241782 3.04936 5 5 7 
-1.55962 0.247082 3.07222 3 4 6 
-1.55032 0.248574 3.07723 0 0 2 
-1.54008 0.250079 3.08122 0 0 2 
3.43574 0.527058 6.54146 38 39 41 
-1.61568 0.249206 3.03492 3 3 5 
-1.54973 0.258804 3.07309 0 1 2 
-1.53494 0.26026 3.07301 17 18 20 
-1.6079 0.261349 3.03841 7 7 5 
-1.56598 0.266864 3.05524 15 16 18 
-1.5579 0.267924 3.06143 3 4 6 
-1.54687 0.26939 3.06658 7 8 10 
-1.61991 0.270654 3.03084 6 7 9 
0.922389 0.453465 5.12041 205 212 218 
-1.60968 0.271359 3.03554 3 3 3 
-1.55883 0.278822 3.06051 3 4 6 
-1.53882 0.281192 3.07026 9 10 12 
-1.60761 0.282508 3.03085 9 9 11 
0.925081 0.478329 5.11087 95 101 101 
-1.56822 0.287912 3.05064 14 15 17 
-1.54765 0.291354 3.0592 2 2 4 
1.22933 0.526053 5.34472 147 156 161 
0.926072 0.506132 5.09903 55 59 60 
-0.256152 0.374826 3.73107 90 90 90 
-0.318073 0.376154 3.70142 35 35 37 
-0.323804 0.380035 3.69753 129 129 129 
-0.503405 0.385219 3.59637 23 23 25 
-0.48369 0.387405 3.60479 1 0 2 
-0.473525 0.389376 3.60967 3 1 4 
-0.46464 0.390691 3.61684 1 0 2 
-0.455055 0.392175 3.62412 27 25 26 
0.461254 0.5297 4.90142 114 123 130 
-0.444408 0.393607 3.62722 3 1 4 
-0.524242 0.392846 3.58179 2 2 4 
-0.483812 0.398822 3.60332 3 0 2 
-0.524473 0.403152 3.58079 3 4 6 
-0.483883 0.408592 3.59987 0 0 4 
-0.46214 0.400493 3.52054 0 0 4 
-0.463682 0.411306 3.6082 7 6 11 
-0.453963 0.413204 3.61409 2 2 4 
-0.512003 0.415635 3.57842 17 18 20 
2.80375 0.712557 6.12036 56 65 72 
1.08521 0.614132 5.24368 58 69 75 
-0.512491 0.425571 3.57541 0 1 2 
0.120263 0.509313 4.25505 170 170 170 
-0.461706 0.431988 3.59802 0 1 3 
-0.442127 0.435359 3.60847 0 1 2 
0.135327 0.509461 4.25247 219 225 225 
1.2613 0.632735 5.26001 98 109 115 
2.80673 0.735701 6.10647 87 96 105 
4.94228 0.793156 6.56253 12 17 21 
-0.521473 0.434364 3.56367 1 2 4 
-0.512241 0.436063 3.57293 0 0 2 
-0.502034 0.437371 3.57636 13 14 16 
-0.451744 0.44418 3.59951 28 24 25 
8.03325 0.990886 8.05791 36 40 49 
-0.441822 0.446538 3.60686 2 0 3 
-0.247836 0.458365 3.70754 113 114 118 
8.04422 0.992932 8.07026 36 40 49 
8.04431 1.00317 8.09028 130 134 143 
3.53758 0.811719 6.46404 80 91 93 
2.00366 0.727285 5.71556 77 88 90 
7.91713 1.03026 8.03608 82 86 95 
0.758936 0.597762 4.56867 162 166 167 
0.773798 0.598219 4.56417 241 245 246 
0.034783 0.550045 4.17866 39 40 35 
0.131747 0.578334 4.2269 17 17 15 
0.527842 0.622969 4.41776 110 110 108 
1.41655 0.688693 4.88302 218 224 222 
3.53261 0.905677 6.43974 35 46 50 
1.88347 0.79784 5.59877 112 128 128 
0.757648 0.650357 4.54061 155 154 152 
0.511015 0.636898 4.41767 133 133 133 
3.58058 0.933363 6.47176 38 51 60 
0.543776 0.645907 4.42937 61 60 58 
0.523453 0.649607 4.41479 132 134 129 
3.40245 0.933707 6.36519 48 58 60 
0.838035 0.676909 4.57351 38 36 37 
-0.286259 0.541507 3.62446 61 61 61 
4.43341 0.91843 6.0998 63 67 76 
0.830734 0.690026 4.56319 124 125 127 
1.29885 0.733081 4.79857 138 136 137 
1.10103 0.722045 4.69639 65 65 65 
1.58266 0.759425 4.93427 128 130 127 
-1.52399 0.465993 2.97351 126 127 129 
0.100686 0.653768 4.18111 59 60 62 
1.46767 0.763172 4.88217 54 54 54 
0.514562 0.691837 4.37316 64 65 60 
0.492288 0.694242 4.37271 133 133 133 
1.4905 0.774765 4.88481 145 145 145 
0.053986 0.662377 4.14915 155 154 159 
1.70065 0.79777 5.00629 64 66 65 
0.149034 0.673752 4.19523 82 84 83 
1.70001 0.804763 5.00054 91 91 93 
4.53558 0.980448 6.09137 16 19 24 
1.47112 0.792919 4.8838 79 80 82 
4.42666 0.98385 6.06267 88 91 96 
0.455071 0.714106 4.33736 149 149 149 
0.47965 0.722571 4.36294 153 153 153 
0.883934 0.754923 4.55048 143 144 148 
0.879714 0.758488 4.53721 54 55 57 
2.40925 0.895384 5.35474 48 44 45 
2.13139 0.872136 5.20639 97 97 97 
0.322583 0.715984 4.25498 132 130 131 
1.03843 0.783993 4.63272 78 78 80 
2.39756 0.907549 5.33868 114 112 113 
2.41367 0.911158 5.353 51 49 50 
0.0830046 0.698555 4.08313 218 218 218 
0.143003 0.706774 4.1136 222 224 223 
0.562017 0.74269 4.32561 48 53 49 
2.71325 0.942109 5.49721 108 109 111 
0.23788 0.720025 4.15933 226 226 226 
-0.107428 0.644019 3.68459 36 37 41 
2.69064 0.955622 5.4748 85 85 87 
-0.287111 0.629887 3.58121 162 166 169 
0.334454 0.732404 4.17374 60 72 70 
4.72415 1.08172 6.17612 131 132 134 
4.7004 1.08429 6.18543 140 141 145 
-0.294425 0.635252 3.58203 33 34 38 
0.546489 0.761431 4.30147 211 225 226 
0.594306 0.766982 4.32778 125 133 135 
3.7412 1.0591 5.99292 120 118 119 
-0.500465 0.620668 3.47729 53 54 56 
0.524972 0.763905 4.29364 135 149 150 
0.609856 0.771923 4.33892 212 220 223 
-0.301811 0.640478 3.58036 136 138 137 
0.362149 0.751673 4.21494 157 165 167 
0.472917 0.758738 4.25087 96 110 111 
0.658592 0.778597 4.36519 208 219 221 
4.02235 1.10229 6.15275 97 97 99 
0.232203 0.746161 4.1487 18 23 26 
0.507117 0.771303 4.28281 26 37 39 
0.568221 0.775385 4.3172 168 182 182 
0.586608 0.774393 4.31062 107 119 119 
0.629997 0.779228 4.33095 108 119 123 
0.664483 0.783388 4.35797 19 30 32 
0.691565 0.786161 4.37394 12 20 22 
2.03728 0.921221 5.13866 48 48 50 
2.07835 0.924985 5.15493 21 21 23 
0.284573 0.751847 4.16875 46 58 56 
0.534407 0.776051 4.30082 157 167 169 
0.848502 0.804478 4.46005 217 218 220 
0.507014 0.775145 4.28155 16 26 28 
0.753486 0.796332 4.40457 2 6 7 
0.890521 0.811798 4.47929 235 237 236 
2.04641 0.928327 5.14109 106 106 108 
0.280195 0.755408 4.15165 170 184 184 
0.370977 0.765477 4.2182 32 39 45 
0.601877 0.78871 4.33534 31 45 48 
0.953269 0.817659 4.50998 144 146 145 
2.02463 0.929707 5.11626 139 139 141 
2.07036 0.932158 5.14036 136 136 138 
3.9686 1.10938 6.10242 59 58 63 
0.948126 0.821741 4.49435 3 5 4 
2.45294 0.970019 5.32671 140 141 143 
5.72149 1.20411 6.60935 33 31 36 
0.602418 0.796487 4.33297 3 10 18 
2.06959 0.946442 5.15455 62 60 61 
3.95686 1.12124 6.09943 104 108 111 
3.91291 1.12083 6.07177 134 135 137 
0.143232 0.758465 4.09057 183 187 188 
0.698452 0.810755 4.36222 19 34 31 
0.740165 0.815501 4.39754 12 18 18 
2.60001 0.999552 5.40427 81 82 84 
0.378659 0.78477 4.20959 215 223 226 
0.935929 0.839492 4.49993 69 73 74 
6.0812 1.26908 6.83298 147 147 147 
-1.7979 0.52934 2.82012 57 58 60 
0.272024 0.774789 4.15769 179 189 190 
0.829275 0.827801 4.43927 21 35 35 
0.0779901 0.759429 4.05346 198 208 209 
0.422125 0.790971 4.22977 2 11 10 
0.883806 0.835011 4.46429 20 25 29 
0.817632 0.831145 4.4159 209 220 222 
0.561608 0.810118 4.30228 0 8 9 
0.645437 0.819936 4.34979 79 84 88 
0.851483 0.839451 4.43773 139 150 152 
0.53494 0.811758 4.28329 160 170 171 
0.589504 0.813716 4.29943 0 4 8 
0.652846 0.823706 4.34592 0 3 7 
0.798953 0.837763 4.41635 163 168 171 
6.10453 1.28712 6.8159 86 86 88 
0.526923 0.813373 4.27918 0 5 7 
0.741632 0.836725 4.39662 10 14 15 
0.223619 0.786729 4.11741 4 12 14 
0.245041 0.791942 4.13927 25 35 36 
0.363495 0.799526 4.19718 211 220 219 
0.0853464 0.776366 4.05706 150 154 153 
0.503948 0.817039 4.26604 230 233 240 
0.526262 0.818545 4.2712 6 16 15 
0.822607 0.846549 4.42569 8 20 20 
3.08958 1.07837 5.63962 145 144 149 
0.158827 0.785535 4.0859 147 152 155 
0.217307 0.790773 4.12057 135 140 143 
0.86358 0.854596 4.44523 144 154 153 
0.885623 0.856284 4.46092 7 15 17 
4.40263 1.14037 5.9592 145 149 152 
0.248393 0.799268 4.14208 163 171 173 
0.385197 0.809714 4.20297 21 30 29 
0.530088 0.826007 4.27871 189 198 197 
0.435266 0.817847 4.22962 16 20 23 
0.509745 0.825135 4.26093 21 24 29 
3.64177 1.13939 5.91662 15 15 17 
0.297759 0.806342 4.16245 164 165 160 
3.59291 1.13248 5.87102 62 62 64 
0.390238 0.817248 4.20551 143 149 145 
0.427657 0.821894 4.22527 158 159 161 
0.576715 0.835381 4.29475 0 1 2 
0.646711 0.842613 4.33715 157 165 167 
0.439597 0.823953 4.22838 145 146 148 
0.933432 0.87566 4.48168 3 13 15 
0.491945 0.832347 4.25963 128 129 134 
0.568956 0.840696 4.29448 160 164 165 
0.695117 0.853489 4.35973 166 170 171 
0.703162 0.853048 4.35505 5 9 10 
0.672159 0.857999 4.35114 148 149 151 
0.805577 0.867145 4.40358 12 21 18 
0.815524 0.87051 4.41984 34 45 41 
0.871773 0.880103 4.43745 146 148 147 
0.899697 0.879664 4.44864 16 17 19 
0.122293 0.811199 4.09332 24 24 22 
0.798158 0.873177 4.4059 159 163 162 
0.935213 0.886604 4.47667 28 32 35 
0.828852 0.879328 4.42556 130 141 137 
0.98174 0.891999 4.48426 46 46 46 
0.891078 0.886767 4.45212 130 131 135 
0.941131 0.89545 4.48955 134 135 137 
0.890993 0.921212 4.4793 14 14 12 
0.901345 0.926011 4.47393 103 103 103 
3.63966 1.22086 5.84359 88 86 87 
-1.4201 0.631324 3.00294 135 135 137 
1.51892 1.00676 4.78634 6 6 8 
6.42079 1.45225 6.90788 24 24 24 
-2.18045 0.586065 2.7524 108 103 99 
1.69221 1.02961 4.86235 32 31 29 
1.52874 1.0127 4.78207 128 126 127 
-1.17897 0.664564 3.11328 138 138 140 
1.03872 0.970603 4.55794 25 25 27 
1.68462 1.03908 4.87733 123 123 121 
1.68259 1.03654 4.86358 122 122 120 
-0.853803 0.711431 3.27557 139 139 139 
3.78706 1.27949 5.89803 94 94 96 
2.62544 1.15654 5.3139 14 14 14 
2.46978 1.14693 5.25896 91 91 93 
-0.612627 0.745293 3.39186 133 137 138 
-0.606779 0.747594 3.39907 34 36 35 
-0.596184 0.746588 3.39931 124 126 123 
-0.543595 0.754335 3.42407 134 134 136 
-0.486836 0.757437 3.44668 155 159 162 
3.08359 1.22164 5.54531 35 30 34 
-0.321201 0.786493 3.54383 149 150 155 
3.10102 1.23178 5.55978 107 102 106 
2.47656 1.17424 5.25476 141 141 143 
-0.325318 0.798671 3.54671 127 128 132 
-0.321157 0.796262 3.53589 151 152 156 
4.02889 1.35485 6.01975 9 9 11 
5.35848 1.44002 6.35818 64 63 68 
4.1911 1.38819 6.10569 85 84 89 
6.33832 1.56709 6.84873 90 91 93 
0.906249 1.04365 4.45967 38 39 43 
0.913222 1.04916 4.45475 160 161 165 
0.908712 1.05883 4.45973 37 38 42 
1.54481 1.13751 4.77309 161 165 168 
-2.19385 0.64889 2.69819 40 53 62 
1.02545 1.08071 4.51402 163 167 168 
1.66403 1.1547 4.83162 161 161 161 
1.5458 1.15139 4.7663 156 160 163 
2.48093 1.26541 5.2245 143 146 151 
0.915372 1.08301 4.4459 148 152 155 
3.10759 1.3512 5.52908 142 143 148 
2.48173 1.2806 5.21932 159 162 167 
3.23219 1.37161 5.60042 140 140 142 
1.54428 1.16869 4.75603 168 172 175 
1.65682 1.18648 4.82212 166 165 170 
2.59395 1.30045 5.29309 160 161 163 
5.259 1.55838 6.28959 155 155 157 
-1.5239 0.745388 2.98513 76 81 84 
2.48709 1.30027 5.22826 163 162 168 
2.58984 1.31471 5.27748 155 155 157 
4.04465 1.4918 5.99678 59 60 64 
4.4161 1.45219 5.83815 125 128 135 
1.65347 1.19978 4.81129 162 160 161 
5.80604 1.62743 6.5387 157 158 162 
5.24915 1.56222 6.25867 40 35 39 
5.91604 1.6426 6.58937 147 146 151 
1.02032 1.13079 4.49837 36 36 34 
0.931987 1.12628 4.45936 24 24 26 
0.99936 1.13523 4.49536 39 40 44 
-1.52761 0.754347 2.96548 63 68 71 
1.65244 1.22046 4.81551 12 10 11 
4.15031 1.52683 6.03091 139 140 144 
0.952147 0.738522 2.89377 46 47 52 
1.62663 1.22307 4.81106 60 60 62 
3.22518 1.41993 5.5911 132 130 131 
-1.14988 0.807471 3.15473 80 79 77 
-0.491752 0.891263 3.48652 79 85 85 
1.61845 1.22564 4.79134 135 136 140 
4.15903 1.54685 6.04169 108 107 112 
-0.556482 0.891545 3.4455 74 75 77 
-0.369388 0.921288 3.54089 48 53 57 
1.51121 1.26801 4.81137 39 40 44 
4.43071 1.54315 5.81808 150 151 156 
5.54452 1.54345 5.78306 58 67 84 
0.911603 1.20368 4.45892 20 20 20 
0.918593 1.19776 4.44766 123 123 123 
25.7802 8.72863 32.4265 32 31 36 
4.05506 1.63537 5.98244 126 127 132 
4.12647 1.65039 6.02108 123 124 126 
3.16156 1.55485 5.61174 4 4 6 
-0.997907 0.892895 3.19135 204 202 203 
-0.937249 0.907671 3.2214 64 68 69 
-1.52533 0.841219 2.93338 87 96 101 
-0.45119 0.918182 3.19792 82 91 100 
-1.52503 0.851718 2.92964 41 48 54 
-0.450421 0.925985 3.18968 55 64 71 
-1.08655 0.911012 3.1317 200 191 184 
-0.973617 0.929841 3.19519 171 173 172 
-1.17924 0.90872 3.08231 29 29 31 
-0.385954 0.897602 2.98544 51 58 64 
2.63759 1.67414 5.59501 38 38 40 
4.04099 1.33502 4.4222 43 47 56 
-1.18527 0.934053 3.07398 42 43 45 
0.184444 1.26787 4.16326 93 80 89 
-0.525169 1.05954 3.45918 55 68 74 
0.17739 1.27479 4.15669 34 11 21 
-1.04352 0.970931 3.13403 68 72 73 
-0.930827 0.990681 3.19946 70 74 75 
-0.917269 0.99143 3.20039 45 51 51 
-1.19597 1.05416 3.38217 197 201 202 
-1.07821 0.9733 3.11673 188 193 196 
-0.925609 0.99515 3.19457 180 184 185 
-0.907662 0.995883 3.19802 176 187 183 
-0.899854 0.997779 3.20293 183 189 189 
-1.17025 0.960404 3.06903 183 187 186 
-1.13755 0.96792 3.09311 178 178 180 
-1.10597 0.968673 3.10006 199 200 204 
-1.05828 0.976894 3.12482 192 198 198 
-1.03875 0.977931 3.12981 183 188 191 
-0.549369 1.05749 3.38252 69 82 90 
-0.923308 1.00198 3.19648 53 58 61 
-1.00469 0.988999 3.1475 55 60 63 
2.78898 1.7797 5.65364 25 26 28 
-1.14032 0.983711 3.09365 137 141 144 
0.725214 1.4358 4.53972 38 33 30 
-0.877683 1.03008 3.22027 65 72 78 
-1.00876 1.01157 3.15066 93 102 109 
-1.13491 0.994223 3.09375 97 108 110 
1.0432 1.51628 4.73488 25 25 23 
1.21829 1.57496 4.89223 139 141 140 
-0.534333 1.19929 3.69659 107 104 111 
-1.45626 0.958367 2.92201 1 6 10 
3.87265 1.98216 6.08924 17 21 24 
-0.720175 1.05598 3.21053 81 80 85 
0.651079 1.46963 4.48576 20 0 0 
3.88246 1.98843 6.07041 130 129 143 
0.65665 1.47505 4.47998 108 86 88 
3.10864 1.88976 5.71398 158 157 171 
3.86754 2.02046 6.0805 113 112 118 
2.78487 1.87849 5.6319 31 39 42 
3.90699 2.05152 6.06795 87 93 105 
2.52416 1.84126 5.42582 135 136 140 
1.0963 1.64259 4.79158 0 2 2 
1.21755 1.68144 4.86767 70 79 84 
-0.400326 1.1213 3.16359 35 45 46 
0.715683 1.59217 4.52019 79 81 80 
-0.552375 1.18862 3.34692 53 57 58 
1.42581 1.6865 4.74452 10 10 8 
-0.0876167 1.23308 3.45558 122 117 121 
-0.142368 1.22877 3.42865 124 125 119 
0.766376 1.62662 4.54007 85 85 85 
3.93381 2.11785 5.91429 107 107 115 
5.56362 2.22973 6.23831 78 86 97 
-0.202974 1.23248 3.41887 131 129 132 
-1.98676 1.23406 3.36866 65 68 73 
-0.70201 1.16997 3.15896 62 63 67 
2.44999 1.9624 5.31978 138 139 143 
2.45586 2.03041 5.30092 84 88 91 
0.732425 1.72205 4.47176 115 116 118 
-0.328347 1.33825 3.31986 144 140 102 
3.30082 1.99336 4.96171 150 158 160 
-0.295671 1.35304 3.31107 153 155 152 
-0.287605 1.35789 3.31255 114 117 100 
0.11179 1.45202 3.53904 85 97 73 
0.131318 1.45482 3.54687 89 101 77 
-0.292856 1.35977 3.30934 4 2 0 
-0.268769 1.36916 3.32379 109 102 60 
-0.291223 1.36795 3.30693 100 94 78 
-0.0905902 1.4002 3.38456 17 22 41 
-0.635101 1.30886 3.14528 29 30 25 
-0.648741 1.31448 3.14086 119 104 65 
-0.666068 1.31158 3.12849 17 7 0 
3.4283 2.09687 5.00588 136 146 147 
0.0376448 1.44912 3.43737 6 11 5 
-0.256679 1.4003 3.31317 105 103 82 
3.29964 2.07295 4.92649 111 121 122 
-0.660547 1.32269 3.12483 98 84 55 
-0.646613 1.3254 3.13325 103 88 47 
-0.284644 1.39926 3.29656 48 42 6 
-0.255877 1.40937 3.31463 28 25 16 
0.0047252 1.45605 3.42304 44 44 44 
-0.6602 1.33355 3.1206 106 97 66 
1.05175 1.66797 3.90248 159 164 170 
-0.299965 1.41191 3.29045 13 15 12 
1.00136 1.65348 3.86107 235 239 240 
-0.669081 1.33982 3.11275 100 92 69 
-0.634782 1.34378 3.12677 105 96 79 
-0.653651 1.34245 3.12018 51 34 0 
-0.641661 1.34915 3.12641 42 28 0 
1.05045 1.67044 3.87753 25 31 43 
-0.670903 1.34526 3.10994 10 1 0 
-0.663361 1.34543 3.11352 59 42 12 
-0.634402 1.35143 3.12919 14 7 0 
-0.585849 1.36675 3.1518 118 118 126 
0.34234 1.56573 3.53796 177 182 186 
-0.253293 1.48816 3.25136 23 24 28 
-0.377118 1.48752 3.18482 17 18 22 
-0.418729 1.48116 3.16613 12 14 13 
-0.408061 1.48255 3.16988 0 1 0 
-0.38766 1.4861 3.18093 12 16 17 
-0.428401 1.4804 3.1609 0 1 0 
-0.448282 1.47696 3.15069 0 0 2 
-0.438844 1.47909 3.15708 6 6 6 
-0.458285 1.47539 3.14509 0 0 5 
-0.387906 1.49753 3.17739 0 3 2 
-0.376503 1.49823 3.18078 5 9 10 
-0.417935 1.49323 3.16192 4 6 5 
1.42544 1.85545 3.93969 65 65 73 
-0.447652 1.48798 3.14582 0 1 3 
-0.376013 1.50874 3.17552 4 5 7 
-0.416909 1.50255 3.15742 1 1 3 
-0.38632 1.50616 3.17009 7 8 10 
-0.45785 1.49724 3.13915 1 5 8 
-0.949557 1.40441 2.89959 0 0 0 
-0.940881 1.40818 2.90885 2 2 2 
-0.385611 1.52895 3.16338 10 14 15 
-0.446049 1.52017 3.13573 21 21 23 
-0.374293 1.53932 3.1612 0 3 4 
-0.395201 1.53734 3.15375 0 3 4 
-0.443928 1.52885 3.12684 7 7 7 
-0.43446 1.53134 3.13232 1 0 2 
-0.414754 1.53517 3.14298 4 4 6 
-0.930145 1.43029 2.90429 0 0 2 
-0.928104 1.42884 2.90134 0 0 2 
-0.939559 1.42877 2.89892 0 0 2 
-0.461001 1.53343 3.10799 120 121 123 
-0.938843 1.44896 2.89109 5 6 8 
-0.926953 1.46067 2.89198 16 16 18 
-1.5466 1.31798 2.60251 0 0 2 
-0.938618 1.45904 2.88607 0 0 2 
-1.55225 1.32146 2.60799 7 7 9 
-0.937991 1.45976 2.88514 8 9 11 
-0.999457 1.45221 2.85965 0 0 2 
-1.56085 1.32995 2.59943 4 4 6 
-1.54071 1.33232 2.60682 0 0 2 
-1.5592 1.33971 2.59309 2 2 4 
-1.5524 1.34243 2.60003 4 5 7 
2.32176 1.63676 3.15556 18 21 26 
-1.55817 1.34871 2.58864 6 6 8 
-1.54883 1.36299 2.59226 0 1 2 
-1.55884 1.37192 2.58313 11 9 12 
-1.07156 -2.35708 4.46055 63 64 66 
-0.104226 -2.76186 5.84649 95 94 92 
0.112023 -2.7618 5.94819 73 68 72 
0.1774 -2.75807 5.99671 99 99 99 
8.273 -5.42526 11.841 36 48 62 
0.217361 -2.7391 5.98683 90 90 90 
8.12526 -5.28034 12.1059 145 161 174 
8.47576 -4.76064 11.3763 105 117 139 
8.49499 -4.63684 11.2144 150 165 172 
-1.31874 -1.71319 4.16083 53 52 50 
-1.19844 -1.7338 4.22818 64 64 62 
1.10508 -2.62967 6.44042 82 82 80 
8.35512 -4.658 11.5935 108 120 136 
-1.04002 -1.67065 4.29079 53 57 56 
8.17239 -4.53428 11.7839 100 112 128 
7.67267 -5.01111 13.0795 14 26 42 
-1.06906 -1.64112 4.27331 36 36 36 
1.71971 -2.53351 6.72295 97 97 95 
0.16915 -2.15635 5.79855 19 20 22 
7.47983 -4.83788 13.3262 145 159 172 
7.99016 -4.41222 12.1448 109 121 137 
-0.645089 -1.55508 4.3566 132 130 131 
3.23536 -2.7155 7.72811 176 187 191 
3.26335 -2.71704 7.74576 18 29 35 
7.21212 -4.69152 13.5069 54 66 82 
7.36724 -4.75791 13.7217 160 173 189 
-1.00962 -1.46444 4.27155 15 20 23 
8.35707 -3.80182 11.2117 105 122 140 
8.02798 -3.97925 12.0396 103 119 134 
8.28995 -3.66036 11.1101 105 121 137 
8.04915 -3.54686 11.8322 123 141 163 
8.21028 -3.49362 11.6674 237 253 253 
7.32209 -3.95026 13.2355 116 134 148 
7.31484 -3.95187 13.3321 127 145 159 
-2.07314 -0.986656 3.3204 56 60 61 
8.02867 -3.46889 11.8125 111 127 150 
7.28012 -3.84596 13.2742 123 148 168 
8.08609 -3.39024 12.1469 231 249 249 
8.61096 -2.93625 10.5851 147 157 169 
8.43355 -2.93068 10.8305 103 120 138 
-0.0177583 -1.3848 5.29148 70 72 69 
8.19013 -2.71456 11.0337 100 115 136 
8.19733 -2.70805 11.1152 94 116 137 
8.44041 -2.49308 10.6817 130 152 173 
0.532137 -1.29229 5.58374 29 29 27 
3.99608 -1.74694 7.66503 99 100 102 
0.519072 -1.27524 5.61872 17 16 14 
0.724531 -1.29882 5.72101 119 121 120 
0.0545081 -1.18783 5.30849 107 107 107 
8.62816 -2.14612 10.3813 118 131 150 
0.731823 -1.14119 5.67127 96 98 97 
1.32436 -1.18101 5.94425 28 28 28 
8.4295 -1.97922 10.5088 115 133 157 
0.858474 -1.04963 5.6999 29 30 32 
1.55637 -1.10497 6.06001 111 110 108 
-0.844634 -0.67871 3.74263 65 67 66 
1.34485 -1.06497 6.00435 63 63 63 
-0.789454 -0.660829 3.75736 142 142 140 
-0.648233 -0.599241 3.78394 27 28 30 
1.56008 -0.947954 6.04534 81 79 82 
8.43671 -1.6068 10.3416 152 181 195 
2.32296 -1.00424 6.46493 54 55 50 
8.65829 -1.33081 9.98172 116 124 137 
8.8172 -1.30553 10.0619 127 138 142 
2.84046 -0.85739 6.70789 110 111 113 
8.53404 -1.20844 10.1737 122 139 157 
-0.731064 -0.433514 3.69614 122 122 122 
2.71376 -0.68136 6.65092 56 60 61 
3.38808 -0.645907 7.00091 37 39 38 
8.7648 -0.863065 10.038 148 174 197 
3.42682 -0.576245 7.00027 27 31 32 
8.50006 -0.748413 10.0049 48 60 74 
8.70502 -0.517438 9.68076 37 51 62 
0.0526191 -0.246881 4.90138 162 161 159 
8.68171 -0.473587 9.6238 131 145 154 
0.0421077 -0.231835 4.90209 48 47 45 
8.79628 -0.434821 9.65352 145 153 164 
3.49732 -0.0350015 6.86302 25 37 37 
1.61535 -0.0138467 5.65884 51 52 54 
2.23236 -0.0138567 6.02418 92 94 93 
5.02085 0.0253783 6.77028 128 133 136 
3.46387 0.132147 6.76712 24 33 32 
3.0161 0.128644 6.41381 21 22 24 
3.25051 0.148801 6.5068 124 125 127 
3.0687 0.161056 6.38401 143 144 146 
3.85926 0.271753 6.79451 132 137 143 
4.98759 0.298467 6.64797 45 49 50 
2.03499 0.296679 5.80102 27 27 27 
9.29198 0.490758 9.61807 113 122 131 
2.48205 0.35733 6.01826 37 37 37 
-1.25672 0.206827 3.40477 26 27 29 
4.67824 0.425484 6.43658 45 45 45 
5.76031 0.489825 6.8974 41 41 43 
3.60087 0.514486 6.57263 31 32 36 
-0.604011 0.295058 3.72205 36 41 44 
-1.60824 0.24955 3.03995 3 3 5 
3.65 0.5627 6.89455 40 41 43 
1.22751 0.494323 5.38606 32 43 47 
2.00638 0.621177 6.0605 56 67 69 
5.86053 0.736976 7.01114 49 50 55 
0.479499 0.525854 4.88383 91 99 102 
2.49988 0.70961 5.87229 179 180 184 
2.80321 0.734339 6.10938 64 73 82 
0.0348544 0.549113 4.1809 39 40 35 
-0.0262978 0.509911 3.82527 158 159 164 
0.757955 0.649569 4.53381 149 148 146 
3.54196 0.936371 6.44199 47 51 60 
-0.227306 0.539147 3.65431 102 102 104 
0.885671 0.686423 4.58248 148 148 148 
1.114 0.726208 4.71044 117 117 115 
1.59003 0.763834 4.95161 134 136 133 
0.509263 0.681835 4.38823 150 152 149 
1.46741 0.762576 4.87946 54 54 54 
0.0539503 0.6619 4.14941 155 154 159 
1.49047 0.774136 4.88433 145 145 145 
1.45307 0.782631 4.87232 153 153 155 
4.41118 0.967461 6.07046 91 95 98 
1.95412 0.829155 5.11216 42 42 44 
2.07993 0.837358 5.17236 135 135 135 
4.42526 0.980994 6.05224 108 111 118 
4.56171 0.997533 6.13196 97 100 105 
-1.59438 0.48322 2.93354 11 11 13 
0.506525 0.722563 4.3692 149 149 151 
2.41351 0.911795 5.35251 51 49 50 
5.50928 1.14224 6.72136 34 38 47 
-0.937685 0.560475 3.25648 77 75 78 
6.00987 1.1992 6.96467 43 46 55 
0.323869 0.733874 4.18991 225 235 234 
2.03412 0.900727 5.14158 129 129 131 
4.8877 1.09272 6.25346 37 37 37 
0.42588 0.746568 4.25178 203 208 211 
0.461142 0.758723 4.26801 19 29 31 
3.0391 1.00402 5.65368 54 54 56 
4.30232 1.12047 6.22493 87 90 95 
0.428164 0.771376 4.24133 184 200 200 
-0.427054 0.648074 3.51217 34 35 37 
0.44661 0.782446 4.2355 181 193 191 
0.23119 0.765671 4.13166 6 20 23 
0.739783 0.817231 4.40373 43 51 53 
3.9166 1.12276 6.07929 134 135 137 
6.13176 1.26618 6.86937 35 35 35 
0.33105 0.774913 4.16401 7 19 19 
0.589304 0.800247 4.30216 200 209 216 
0.819377 0.834799 4.42267 203 214 216 
0.152306 0.777983 4.09391 13 17 18 
0.60101 0.817545 4.32316 0 1 5 
0.223567 0.78651 4.11774 4 12 14 
0.463332 0.817179 4.24206 12 17 20 
0.643744 0.855582 4.34437 117 121 124 
5.01716 1.25658 6.26077 66 67 71 
-1.6372 0.599282 2.88352 140 140 142 
-1.179 0.664536 3.11334 138 138 140 
-0.854101 0.711666 3.27607 139 139 139 
2.45487 1.13624 5.24548 15 15 17 
-0.59612 0.746894 3.39915 124 126 123 
4.41469 1.2967 5.89121 90 94 97 
-0.609831 0.759874 3.37861 156 160 163 
6.33238 1.56482 6.84127 82 84 83 
6.31145 1.60001 6.81369 114 113 118 
-0.255983 0.371808 1.54706 135 139 138 
1.66238 1.15113 4.83124 171 171 171 
1.02452 1.08518 4.51426 169 173 174 
0.358302 1.06453 4.39005 24 5 11 
1.54577 1.15136 4.76603 156 160 163 
-1.53443 0.734133 2.97878 47 51 54 
1.65543 1.18426 4.8124 160 158 163 
4.71055 1.47547 6.00102 133 134 138 
4.83574 1.49347 6.07156 135 134 139 
3.2354 1.38696 5.6135 82 82 84 
-4.61145 2.38117 9.57927 65 68 77 
3.11832 1.37691 5.53899 159 163 166 
5.91111 1.64113 6.58292 147 146 151 
5.83775 1.64409 6.54936 46 47 49 
-1.41098 0.695784 2.73355 63 68 71 
1.66006 1.22335 4.81576 22 20 21 
0.955606 1.13605 4.46653 84 84 86 
6.13824 1.70351 6.69636 140 140 142 
1.61727 1.22685 4.79127 130 131 135 
2.55639 1.36434 5.26835 141 142 144 
3.72953 1.6007 6.16345 25 19 19 
0.919797 1.15935 4.4236 117 121 122 
3.86476 1.17133 4.39047 147 150 157 
0.918531 1.19873 4.4517 123 123 123 
0.907051 1.21819 4.46275 82 84 83 
3.10833 1.52501 5.54171 85 85 85 
4.04979 1.65014 6.00951 88 89 93 
4.117 1.6501 6.01141 117 118 120 
5.55821 1.81926 6.42127 59 59 71 
-0.3663 1.00589 3.51288 53 62 69 
-1.07017 0.906219 3.15045 60 55 52 
-1.08414 0.906669 3.13093 181 176 172 
5.40783 1.8286 6.33506 38 41 46 
3.12665 1.70573 5.78941 97 97 97 
3.90909 1.82531 6.15976 35 33 36 
-1.524 0.8829 2.91248 47 52 56 
-0.884865 0.977036 3.22174 48 49 53 
5.57097 1.9408 6.3656 55 62 70 
4.98422 1.86236 6.08008 41 50 59 
-1.52576 0.902331 2.90939 55 59 68 
8.07679 3.06884 9.98674 104 107 116 
-1.12004 0.967909 3.09225 181 185 188 
-0.948358 0.990537 3.17819 195 200 206 
-1.1361 0.974342 3.09306 70 71 73 
2.79067 1.77871 5.66177 35 35 37 
-1.063 1.00331 3.12297 108 113 117 
1.22022 1.56689 4.89766 25 29 30 
-0.358341 1.11709 3.46883 9 18 25 
1.21851 1.57612 4.89655 143 145 144 
2.79851 1.82535 5.67123 97 98 100 
-1.71332 0.912336 2.80568 86 90 93 
0.651063 1.46969 4.48596 20 0 0 
3.121 1.8817 5.72936 19 18 24 
0.68846 1.50014 4.48583 28 28 26 
-0.204156 1.20835 3.41069 124 122 125 
-0.137608 1.22938 3.43252 153 155 150 
0.766551 1.62621 4.53624 84 86 85 
-0.201126 1.23167 3.41369 115 113 116 
0.759161 1.64948 4.54693 185 191 189 
6.18844 2.33529 6.41624 45 46 50 
4.7473 2.11077 5.74662 35 30 36 
4.75487 2.11954 5.72267 106 105 110 
2.43768 2.03075 5.28437 33 37 40 
-0.570607 1.30671 3.19713 108 91 71 
-0.290987 1.35818 3.30469 27 24 9 
-0.634336 1.30848 3.1401 29 30 25 
-0.641996 1.31561 3.14018 21 9 0 
-0.268383 1.39209 3.31155 119 105 79 
3.41726 2.09086 4.99373 142 154 154 
-0.658348 1.33179 3.11718 118 110 74 
0.00714515 1.46729 3.4271 116 116 116 
1.70181 1.78905 4.18495 110 118 129 
2.73048 1.99638 4.67028 136 144 155 
-0.640029 1.34861 3.12755 27 14 0 
-0.634338 1.35165 3.12906 14 7 0 
-0.671359 1.34548 3.11076 10 1 0 
-0.578823 1.37067 3.15187 5 5 13 
1.06573 1.69551 3.85394 200 201 196 
1.72285 1.81975 4.12162 71 84 93 
0.00278214 1.51678 3.39103 105 109 108 
-1.01148 1.39784 2.87555 7 6 11 
-0.465397 1.53799 3.11701 120 121 123 
1.40744 1.95099 3.93505 2 0 5 
-1.00798 1.44989 2.85113 7 7 9 
-1.54891 1.35168 2.5954 11 12 14 
0.157041 1.76689 3.35508 17 17 17 
2.3243 1.65471 3.13272 30 28 39 
-0.425508 -2.51919 4.90372 46 44 45 
-0.0560066 -2.86788 5.9036 79 79 77 
0.074796 -2.8159 5.97068 90 90 90 
-0.0509135 -2.75158 5.87907 110 106 105 
8.95214 -5.33026 11.8206 83 89 89 
8.3263 -5.03208 11.7523 86 108 129 
0.862921 -2.69824 6.34003 88 89 84 
-1.13128 -1.77881 4.26677 45 44 42 
-1.11533 -1.76438 4.23553 56 52 51 
1.08588 -2.67334 6.46635 80 82 79 
1.12432 -2.67024 6.46294 35 35 33 
-1.27214 -1.71047 4.1916 55 51 52 
8.3345 -4.64659 11.4808 107 120 136 
1.04611 -2.5951 6.40402 113 114 109 
-1.30727 -1.65941 4.14696 41 39 40 
8.06599 -4.89257 12.4855 84 110 133 
7.94121 -4.80594 12.2677 87 112 134 
-1.04396 -1.67077 4.29456 64 70 68 
1.578 -2.59122 6.66936 78 82 81 
8.19206 -4.54869 11.8079 103 115 131 
7.63817 -4.97595 12.9781 40 52 68 
-1.06587 -1.63799 4.26678 41 41 41 
7.47189 -4.84436 13.3962 42 50 69 
-0.642743 -1.55269 4.35052 133 131 132 
8.52899 -3.88068 10.9816 159 169 181 
7.30858 -4.74542 13.5427 51 64 81 
8.39029 -3.79769 11.166 96 115 132 
0.95324 -2.07334 6.18804 99 100 102 
0.99967 -2.08953 6.20768 88 92 95 
8.03983 -3.99736 11.9624 98 117 134 
8.70482 -3.78708 11.4041 168 188 195 
8.60237 -3.73196 11.4333 220 239 246 
13.1996 -4.4931 13.8536 67 76 83 
8.18696 -3.5686 11.5042 99 119 130 
8.0904 -3.63752 11.8142 7 19 43 
3.29162 -2.29475 7.52078 130 126 125 
3.31831 -2.2766 7.54127 25 24 22 
-2.07489 -0.998947 3.32509 191 201 203 
8.34533 -3.54658 11.9968 215 234 248 
4.03862 -2.24799 7.90487 74 76 75 
4.03779 -2.2483 7.90257 81 83 82 
8.56476 -2.91694 10.5219 153 163 173 
2.57346 -1.87738 6.99459 102 103 105 
-0.034252 -1.41648 5.31614 0 2 1 
8.37553 -2.84157 10.7573 91 109 133 
-0.0161794 -1.38547 5.30251 70 72 69 
-1.24472 -1.02492 3.95631 7 11 14 
4.00181 -1.7836 7.65248 93 94 96 
0.532809 -1.28921 5.57481 13 13 11 
4.21796 -1.66621 7.20087 40 45 48 
0.147428 -1.20535 5.36628 84 84 82 
3.99427 -1.71546 7.67988 32 33 35 
-1.68149 -0.756781 3.45483 14 17 22 
-1.04569 -0.795457 3.67893 117 116 112 
-1.23483 -0.749001 3.5598 70 69 67 
-1.59847 -0.714749 3.47997 0 1 0 
8.56996 -2.07827 10.2272 104 121 139 
1.31956 -1.16619 5.98119 122 122 122 
8.43703 -2.04784 10.5206 135 156 177 
1.56506 -1.11013 6.09012 115 114 112 
1.25165 -1.07518 5.94393 96 96 96 
1.44507 -1.03595 5.99009 60 61 63 
8.61874 -1.71583 10.0447 123 139 152 
1.30586 -0.979031 5.91109 125 125 125 
1.59921 -1.00286 6.06814 74 74 76 
8.56371 -1.61417 10.0175 112 115 122 
-0.582662 -0.623028 3.99845 18 19 21 
-0.566362 -0.624498 3.98838 140 141 143 
8.44753 -1.61269 10.3747 151 183 204 
-0.581754 -0.616688 3.99689 69 70 72 
-1.34692 -0.513133 3.40022 119 121 120 
-1.77625 -0.48945 3.29271 85 86 88 
-0.583897 -0.592385 3.99657 24 25 29 
-1.28768 -0.50434 3.4318 108 107 103 
5.02489 -1.07525 7.28234 60 61 63 
5.18214 -1.04594 7.33454 59 60 62 
2.86335 -0.942678 6.75287 47 46 44 
2.37916 -0.893718 6.43749 75 75 77 
-0.785514 -0.48311 3.68207 140 144 147 
3.06143 -0.896185 6.78168 51 51 49 
4.30804 -0.887996 6.79089 46 51 55 
8.90341 -1.32405 10.1771 135 146 150 
4.3427 -0.856337 6.80203 136 139 144 
3.00811 -0.861808 6.93173 68 69 71 
4.03569 -0.922233 7.39944 83 87 90 
9.06155 -1.26016 10.1567 118 128 137 
3.05228 -0.821552 6.79751 71 75 76 
8.50787 -1.23808 10.2342 110 132 153 
3.65612 -0.839675 7.10351 118 119 121 
3.62271 -0.741427 7.13479 86 87 91 
-1.74406 -0.338125 3.31472 127 131 132 
4.07094 -0.681393 7.26198 24 25 29 
8.62603 -0.852692 9.88277 148 174 197 
5.52469 -0.605942 7.48451 48 49 53 
5.49196 -0.601428 7.43145 42 46 49 
-0.568064 -0.188632 3.92496 69 70 75 
0.681319 -0.225287 5.26573 49 51 50 
0.652687 -0.216046 5.2322 169 169 169 
3.49031 -0.262053 6.95946 170 180 181 
0.84051 -0.146939 5.29933 168 166 167 
0.656451 -0.139928 5.19801 121 121 121 
1.44077 -0.0893666 5.63211 30 32 27 
1.95266 -0.0831361 6.01014 53 58 61 
1.42113 -0.0603965 5.55607 60 62 61 
1.61772 -0.0446884 5.65071 168 169 171 
2.20155 0.00388013 5.99237 87 89 88 
8.57147 0.0631072 9.68193 110 128 130 
3.05368 0.0941777 6.4129 150 151 153 
3.53589 0.13306 6.81895 42 52 62 
3.56904 0.15671 6.77284 165 172 180 
2.87719 0.157286 6.30358 59 60 62 
3.8184 0.201862 6.76643 125 129 132 
3.18478 0.202318 6.4566 50 51 53 
1.24507 0.189153 5.40462 11 13 12 
5.02802 0.236444 6.75524 33 37 36 
5.92932 0.269408 7.1419 28 29 31 
8.65308 0.343999 9.24187 9 20 24 
3.67312 0.26578 6.72055 48 49 51 
5.85524 0.267665 7.03691 13 14 16 
-1.64646 0.147667 3.20184 36 42 42 
8.89145 0.437316 9.37412 125 138 146 
-1.56392 0.158038 3.24585 37 41 44 
8.93701 0.439326 9.44181 97 110 118 
1.73122 0.309922 5.66372 170 174 173 
1.80332 0.318483 5.69901 128 130 129 
5.08227 0.379973 6.53822 130 131 133 
5.07316 0.401228 6.58033 40 41 43 
-1.74075 0.193622 2.99038 64 65 60 
1.7446 0.377724 5.65637 193 198 201 
4.94798 0.461531 6.58986 31 32 34 
2.80524 0.451455 6.21828 134 138 139 
-1.5372 0.23998 3.08331 24 25 27 
-0.646186 0.280134 3.63311 65 69 72 
5.51629 0.541465 6.85293 28 28 28 
3.52272 0.540596 6.53662 31 32 34 
3.58369 0.562256 6.58958 143 147 150 
5.43449 0.616363 6.87174 113 114 119 
0.186706 0.43767 4.81432 103 117 118 
-0.303872 0.380966 3.70248 139 139 139 
-0.248339 0.382051 3.72778 38 36 37 
-0.472144 0.387981 3.60141 3 1 4 
0.490072 0.522574 4.86099 67 71 74 
-0.443652 0.401028 3.61655 6 6 8 
-0.441381 0.413585 3.61215 21 22 26 
-1.67539 0.341994 2.94604 90 90 92 
-0.525735 0.412873 3.58013 23 22 27 
2.79225 0.698296 6.10115 59 70 76 
-0.468622 0.429883 3.58131 10 11 13 
-0.464075 0.432859 3.60181 3 4 6 
-1.58817 0.36553 2.977 102 98 99 
3.42512 0.808354 6.42746 188 199 201 
8.06414 1.01361 8.08061 36 40 49 
0.266287 0.615654 4.29961 132 130 131 
0.53598 0.62875 4.42046 67 68 62 
0.512465 0.63951 4.42732 110 110 110 
-0.279054 0.540313 3.62548 113 113 115 
-0.226834 0.540129 3.65277 104 104 106 
-0.251209 0.546172 3.64514 113 113 115 
1.32885 0.727993 4.81545 137 135 136 
-0.263583 0.552901 3.63494 56 56 58 
1.26777 0.727211 4.80368 134 132 133 
-0.175421 0.563004 3.68106 64 65 67 
1.21014 0.721874 4.73385 74 73 71 
0.506609 0.677375 4.39598 144 146 145 
0.462511 0.67645 4.37715 133 133 135 
1.48971 0.778862 4.89165 145 145 145 
-1.52449 0.483629 2.97852 49 48 46 
0.504808 0.704625 4.36635 10 8 11 
-1.7407 0.480866 2.87976 127 127 129 
0.475296 0.718635 4.37039 145 145 145 
3.95572 1.05403 6.24292 52 52 54 
4.97176 1.06273 6.31128 137 142 146 
2.4074 0.9018 5.34502 50 46 47 
-0.940994 0.561472 3.26183 68 66 69 
1.89817 0.868363 5.08501 83 85 84 
4.65669 1.05696 6.13566 92 92 94 
-1.09364 0.555791 3.20556 54 50 51 
0.0533955 0.707501 4.09839 115 115 113 
0.427246 0.748997 4.27117 181 185 188 
0.508224 0.759768 4.29014 185 196 200 
4.3485 1.07259 6.09648 97 101 104 
4.87204 1.09798 6.23081 79 79 79 
4.36003 1.07553 6.07926 42 46 47 
-0.424029 0.633511 3.50238 55 50 54 
0.427897 0.76404 4.24439 161 173 173 
0.746621 0.790874 4.3997 192 193 195 
3.85622 1.08375 6.05512 108 106 107 
4.72543 1.1029 6.17971 67 68 70 
2.02052 0.930383 5.12134 130 130 130 
4.05272 1.10376 6.1162 110 111 113 
3.97219 1.11531 6.1118 58 61 66 
0.404706 0.778674 4.20343 110 115 118 
0.544845 0.79461 4.27671 201 211 213 
-0.520458 0.649756 3.47763 128 129 131 
0.634334 0.814486 4.33352 130 141 143 
0.145991 0.772589 4.07774 161 163 162 
0.557343 0.815286 4.30631 9 19 20 
-0.274876 0.685697 3.60662 162 162 162 
0.91567 0.84598 4.45878 197 205 207 
0.377914 0.805743 4.21049 209 219 220 
0.239768 0.796095 4.13547 147 153 153 
4.43641 1.15006 5.99711 140 145 149 
0.579031 0.849388 4.32737 101 105 106 
0.581143 0.845622 4.30555 152 156 157 
0.662139 0.852975 4.33901 144 145 147 
0.801014 0.874801 4.42664 170 176 174 
0.870349 0.874933 4.44565 165 174 171 
0.824415 0.879347 4.43169 154 165 161 
3.63318 1.17545 5.90657 87 87 89 
0.10984 0.819998 4.08574 96 96 94 
4.7174 1.23709 6.07211 108 109 111 
-1.68588 0.590276 2.85458 128 128 130 
-1.65027 0.599666 2.88461 43 43 45 
-1.54602 0.608099 2.9345 129 129 129 
0.908901 0.931625 4.49469 91 91 91 
1.06724 0.949115 4.57763 30 30 30 
-1.519 0.61394 2.9363 140 140 142 
-1.47835 0.621143 2.96302 30 30 32 
-1.41543 0.629636 2.9974 138 138 140 
-1.42551 0.632762 2.99167 22 23 27 
1.04705 0.952841 4.55529 119 119 119 
1.51565 1.0075 4.78439 6 6 8 
1.53112 1.01015 4.76155 128 126 127 
-1.07883 0.675148 3.1586 140 138 139 
-0.858534 0.710905 3.27865 166 166 168 
-0.571769 0.746796 3.41914 152 153 155 
3.70062 1.27529 5.85788 29 29 31 
-0.594752 0.746145 3.39634 124 126 123 
-0.483644 0.7564 3.44473 154 158 161 
3.0834 1.22497 5.56259 14 9 13 
-0.372339 0.780125 3.51866 154 155 160 
3.12532 1.27596 5.58896 132 132 134 
5.91207 1.51967 6.61531 64 66 65 
6.00245 1.53101 6.64028 60 51 56 
1.67217 1.12637 4.83382 6 6 6 
-0.816162 0.772059 3.26951 87 91 92 
-2.20564 0.646344 2.70699 137 150 166 
-0.81672 0.776895 3.26629 105 109 110 
2.28628 1.29082 5.41685 51 49 50 
2.38413 2.79738 11.63 170 174 177 
1.02246 1.08855 4.50059 164 168 169 
1.55081 1.16336 4.76993 170 174 177 
1.64972 1.17339 4.80713 157 157 157 
-1.61399 0.729528 2.95543 25 26 28 
-4.59288 1.91217 7.77771 61 65 68 
2.37623 2.84289 11.5682 181 185 188 
2.4892 1.29339 5.22918 149 150 155 
4.38278 1.43897 5.81623 50 55 61 
1.65155 1.19767 4.81328 161 161 163 
3.11923 1.37857 5.54136 159 163 166 
3.22603 1.40717 5.60224 174 174 176 
0.917825 1.1245 4.44278 149 149 151 
2.20169 1.36384 5.34959 33 31 32 
-0.51651 0.492655 1.88772 81 85 86 
3.80893 1.13679 4.41046 100 101 105 
3.12291 1.4435 5.53321 142 150 153 
3.7376 1.60545 6.18121 27 18 19 
2.55344 1.37872 5.24912 142 143 145 
4.91102 1.64168 6.12555 154 153 158 
2.12593 1.4359 5.3292 88 89 93 
3.11542 1.52691 5.5513 81 81 81 
4.12582 1.65528 6.02799 120 121 125 
3.11079 1.52309 5.53947 77 77 77 
-1.13744 0.900232 3.11235 185 176 171 
-0.364248 1.0177 3.50382 48 59 65 
5.02392 1.75004 6.03971 149 149 157 
-1.66067 0.859329 2.89497 13 27 28 
2.34518 1.60694 5.37071 30 24 24 
0.183515 1.27202 4.16469 101 85 95 
-0.969667 0.986017 3.16236 189 194 200 
-0.941328 1.003 3.18994 45 50 53 
-1.59635 0.929263 2.92194 66 77 83 
1.21304 1.55613 4.8839 35 39 40 
2.32572 1.69027 5.27869 83 83 85 
-0.330931 1.11558 3.44879 41 51 60 
3.87907 1.98684 6.09541 2 6 9 
-0.197518 1.2002 3.42437 64 60 59 
-0.202747 1.20723 3.4068 124 122 125 
4.15839 2.15594 6.11219 93 94 98 
1.44366 1.70253 4.7726 40 40 38 
-0.0846423 1.24016 3.45233 148 146 151 
-1.13298 1.10536 3.06209 45 45 47 
0.167972 1.49805 4.17053 63 65 60 
-1.51164 1.054 2.87301 7 4 11 
-1.53056 1.05507 2.86842 21 16 20 
4.76398 2.1025 5.75931 144 143 149 
-0.793736 1.17225 3.11529 103 107 110 
0.76415 1.68479 4.50003 66 71 67 
4.75983 2.18844 5.72509 58 59 63 
2.42459 2.0291 5.28855 123 127 130 
2.43685 2.02791 5.27599 33 37 38 
2.37547 2.01859 5.20585 64 65 69 
0.648329 1.73747 4.42971 110 116 114 
0.0664033 1.42831 3.54907 76 89 72 
2.53068 2.00276 5.00387 69 68 74 
-1.4491 1.15319 2.84554 10 10 18 
-0.320444 1.34688 3.32866 25 30 23 
3.29264 1.99016 4.94296 160 170 171 
2.8084 1.9507 4.73729 122 131 140 
1.69109 1.78397 4.19151 7 6 20 
1.70155 1.78857 4.18343 110 118 129 
2.81147 2.01009 4.71537 134 145 151 
0.00731296 1.47043 3.42023 127 127 127 
-0.637948 1.34725 3.12371 43 32 4 
0.982709 1.6719 3.86454 90 90 92 
-0.438446 1.39802 3.18456 131 131 133 
0.3884 1.58252 3.53861 96 106 118 
-1.16147 1.28694 2.86387 24 29 32 
0.365184 1.57999 3.52434 148 155 163 
-0.24814 1.46642 3.25539 45 47 46 
-0.251866 1.48755 3.2508 27 26 32 
1.43062 1.84621 3.92082 54 58 59 
-0.928856 1.40845 2.91076 11 11 13 
-1.01017 1.39734 2.87325 1 0 5 
-0.374691 1.54112 3.16491 0 1 2 
-0.455255 1.52796 3.12253 3 5 2 
1.4184 1.91556 3.9274 7 7 7 
-0.925755 1.46024 2.88891 16 16 18 
-1.00637 1.4485 2.84894 7 7 9 
1.514 1.72126 3.25448 11 14 19 
-1.55855 1.37146 2.58057 10 10 10 
-1.43229 -1.95133 4.09045 40 40 40 
0.181325 -2.77064 5.98122 106 106 106 
8.28488 -5.4262 11.8719 59 67 80 
8.04735 -5.255 12.0857 49 64 71 
8.38983 -4.74559 11.2174 5 18 27 
7.97172 -5.20501 12.3502 40 56 69 
0.998908 -2.66014 6.38211 124 124 122 
1.1249 -2.67867 6.47529 35 35 33 
8.31123 -4.69482 11.3125 8 24 40 
7.84248 -5.1184 12.6947 42 54 68 
8.27052 -4.64937 11.7474 0 15 29 
7.98274 -4.78391 12.174 90 113 129 
1.57933 -2.59779 6.6829 79 83 82 
1.78802 -2.56173 6.80751 110 110 108 
8.12853 -4.45734 12.1564 27 40 59 
7.29976 -4.73817 13.5241 51 64 81 
8.47331 -3.89329 11.2977 14 31 51 
2.52678 -2.44141 7.11851 108 108 106 
12.8768 -4.63141 13.5851 53 55 67 
8.44119 -3.86433 11.4374 18 33 52 
13.4068 -4.47539 13.9521 53 62 71 
13.5156 -4.38528 13.9302 60 70 79 
8.17198 -3.68098 11.8886 21 36 59 
7.47205 -4.00808 13.0418 15 32 52 
7.33463 -3.92372 13.1134 17 38 57 
1.78489 -1.93528 6.60646 70 71 73 
8.1168 -3.40293 12.1673 230 248 252 
8.51856 -2.92231 10.5663 96 118 142 
8.50094 -2.96662 11.0253 101 117 140 
4.61348 -1.91046 7.34065 125 152 173 
8.24751 -2.88482 10.9993 34 49 70 
8.27554 -2.88999 11.1036 13 28 47 
-1.24824 -1.02696 3.96238 1 5 8 
8.27605 -2.83851 11.1238 98 116 138 
-0.991855 -0.997008 4.08872 38 44 44 
3.30846 -1.76814 7.35548 92 93 95 
0.720712 -1.2872 5.71741 48 50 49 
4.27102 -1.55858 7.02003 136 137 141 
-1.04579 -0.796462 3.67925 117 116 112 
-1.20045 -0.7385 3.58237 78 78 78 
-1.63593 -0.723229 3.48132 25 26 30 
-1.20791 -0.737794 3.60274 69 71 70 
4.03947 -1.53784 7.55871 70 71 73 
8.45877 -2.12109 10.5231 52 67 88 
-0.848279 -0.68039 3.7444 73 73 73 
2.10167 -1.10636 6.33404 37 37 37 
8.56546 -1.7071 9.97522 147 166 181 
-1.34723 -0.51366 3.40071 119 121 120 
5.16946 -1.04245 7.3128 57 58 60 
-0.532501 -0.566029 4.0141 39 41 40 
3.06731 -0.90037 6.80021 48 47 45 
8.62856 -1.31154 9.91484 149 159 171 
2.9779 -0.847348 6.83026 60 61 63 
-1.57192 -0.394324 3.44911 4 3 8 
3.205 -0.702945 6.80294 70 71 73 
4.03784 -0.684585 7.28252 51 52 56 
-1.09692 -0.326004 3.69801 19 15 16 
3.53016 -0.608809 7.0953 148 150 149 
5.03069 -0.619949 7.05954 66 67 69 
3.25905 -0.527492 6.85247 41 42 44 
10.8499 -0.584937 10.8899 150 167 177 
1.95375 -0.083428 6.01674 53 58 61 
-1.63067 -0.0325713 3.31787 167 172 176 
5.01357 0.0489793 6.7991 33 37 38 
3.84161 0.218644 6.75584 18 21 30 
3.66075 0.265386 6.70454 54 56 55 
2.02489 0.298679 5.78915 44 46 45 
5.754 0.352187 6.90321 60 61 63 
2.81218 0.4611 6.22431 141 145 146 
5.31085 0.56547 6.80741 24 26 23 
0.447184 0.436455 4.9411 148 159 161 
3.52774 0.589962 6.58187 103 115 113 
-1.59502 0.284405 3.03268 12 12 14 
-0.338611 0.380293 3.69871 145 145 145 
-1.79634 0.329833 2.8957 91 95 96 
-1.61935 0.362134 2.96069 94 94 94 
-1.53097 0.3644 3.00996 104 104 106 
-1.58997 0.367825 2.97896 108 104 105 
-1.57397 0.367454 2.98265 56 56 58 
-1.49338 0.376848 3.03024 105 105 105 
-0.01163 0.484247 3.82742 46 47 42 
7.87497 1.03825 8.11624 23 30 36 
-0.290027 0.457463 3.50087 77 78 83 
2.76864 0.833137 6.1 25 39 40 
1.29788 0.722084 5.22415 155 159 160 
2.01501 0.782608 5.68198 82 92 101 
-0.0197666 0.546609 3.79397 60 60 62 
5.47041 0.989305 6.74814 45 49 60 
-0.279447 0.541972 3.62636 119 119 121 
0.539433 0.660806 4.39784 147 147 149 
4.41823 0.898034 6.09201 134 139 143 
4.43822 0.918038 6.07016 30 35 41 
4.48972 0.953187 6.07691 48 52 53 
-1.76745 0.473167 2.8724 119 120 122 
-1.73808 0.480447 2.87713 127 127 129 
-1.51403 0.508834 2.98092 128 126 127 
-1.08736 0.552837 3.19189 61 57 58 
0.32639 0.754112 4.30583 206 216 217 
0.452532 0.75507 4.26883 191 201 203 
2.02613 0.934942 5.14838 135 135 135 
0.337178 0.765758 4.17403 201 211 213 
0.215286 0.78134 4.11274 198 208 209 
0.23954 0.783195 4.13248 156 168 168 
0.380277 0.801332 4.19511 179 189 188 
0.328096 0.811127 4.19216 136 145 144 
0.331495 0.806932 4.17132 175 184 183 
-1.54088 0.606628 2.92885 130 130 130 
4.88813 1.26038 6.14881 123 124 128 
-1.43833 0.625963 2.98961 131 135 138 
1.04683 0.948608 4.53742 120 120 120 
1.50587 1.01551 4.81091 31 31 29 
1.7056 1.03688 4.89477 32 31 29 
-0.627401 0.735298 3.39805 144 149 155 
0.913255 0.962757 4.46174 128 132 133 
-1.40795 0.628425 2.76079 105 106 108 
-0.614371 0.767177 3.38579 150 154 157 
5.33621 1.43774 6.33728 67 66 71 
5.99463 1.52488 6.6287 59 50 55 
-2.01465 0.656218 2.65957 31 32 36 
11.3524 8.63663 34.9679 114 115 119 
-0.370824 0.896514 3.5431 49 54 57 
-1.15536 0.820673 3.15122 76 76 74 
-0.367938 0.930797 3.52495 78 87 94 
5.26175 1.64304 6.25892 153 154 159 
3.11621 1.45246 5.4994 133 134 138 
3.21327 1.47275 5.56086 117 115 116 
3.1204 1.51446 5.52536 129 129 131 
2.47089 1.61674 5.46592 88 84 85 
-1.1888 0.930548 3.09226 160 165 168 
-1.19809 0.938466 3.06548 71 72 74 
-0.986972 0.999138 3.20132 184 191 197 
-0.42109 1.00571 3.21944 74 87 93 
0.255988 1.32688 4.17171 72 57 62 
-1.70971 0.90595 2.8041 86 91 94 
-0.411575 1.11802 3.44861 9 13 12 
-0.322242 1.10916 3.43218 42 51 58 
0.683072 1.45446 4.48781 39 25 25 
0.955374 1.52766 4.68901 33 32 30 
1.18219 1.64428 4.80871 6 11 15 
-0.199271 1.21829 3.41758 32 28 29 
-1.41614 0.957213 2.65342 7 1 13 
2.44885 2.03786 5.30296 35 39 42 
4.73531 2.17851 5.69915 58 59 63 
2.37579 2.01984 5.20705 64 65 69 
3.38613 2.07167 4.96173 144 162 162 
-0.100805 1.42634 3.38952 182 191 208 
1.69068 1.78346 4.18918 3 5 18 
-0.668349 1.3442 3.11752 46 29 9 
1.06193 1.69376 3.85303 196 198 195 
-0.246924 1.48167 3.23838 42 38 53 
-0.454573 1.48054 3.13169 44 48 51 
-0.455445 1.4973 3.13811 19 23 26 
-0.374063 1.51813 3.16759 0 0 2 
-0.994702 1.40306 2.89056 4 3 8 
-0.930852 1.41553 2.90924 59 59 61 
-1.00739 1.40407 2.86243 2 2 4 
-0.929293 1.43002 2.9031 10 10 12 
-0.957133 1.45539 2.87266 3 4 6 
-0.94886 1.45936 2.88259 0 0 2 
-0.973814 1.45211 2.86099 12 11 16 
0.103751 1.72055 3.3515 101 102 96 
2.32366 1.63144 3.16701 13 15 27 
2.32569 1.65703 3.138 30 28 39 
-0.858344 1.59968 2.86956 89 89 87 
-1.55178 -2.40339 4.21441 71 73 72 
-0.301099 -2.47038 4.88839 57 55 56 
0.0744765 -2.81369 5.94353 80 80 80 
8.30385 -5.02547 11.7449 89 114 136 
8.43522 -4.76472 11.4378 0 6 23 
-1.29476 -1.66759 4.15077 95 89 91 
7.84731 -5.12988 12.9709 50 66 81 
8.39567 -4.62914 11.9502 31 48 66 
0.165575 -2.18745 5.79197 40 41 45 
7.56672 -4.84036 12.892 148 165 185 
7.47912 -4.86277 13.2072 41 58 76 
-0.742193 -1.59561 4.36237 61 62 64 
-0.361435 -1.51189 4.44673 37 39 38 
8.23385 -3.66916 11.0316 11 22 40 
8.29904 -2.90291 11.0768 52 69 89 
4.60358 -1.90524 7.32096 118 145 166 
4.29993 -1.62318 7.1471 67 72 75 
3.98727 -1.71409 7.65121 67 68 70 
0.735084 -1.23666 5.69907 27 29 26 
0.737 -1.22366 5.65279 44 46 41 
2.06467 -1.05238 6.3105 24 23 21 
4.96044 -1.08509 6.97221 55 56 60 
1.66249 -0.923158 6.0939 64 64 64 
5.00669 -1.08673 7.22669 63 64 66 
1.96586 -0.886748 6.25668 62 62 62 
1.9215 -0.822959 6.30341 40 40 38 
1.92296 -0.727308 6.25156 46 56 55 
4.6801 -0.76954 6.76557 40 41 45 
2.71673 -0.73646 6.72723 35 36 31 
3.53276 -0.669704 7.03009 51 51 53 
-0.906139 -0.345063 3.70131 44 43 41 
8.63934 -0.863774 9.91584 139 169 195 
-0.981699 -0.311486 3.72625 15 15 13 
8.51772 -0.790749 9.95995 157 183 206 
-0.529287 -0.249816 3.93679 9 10 12 
8.49749 -0.481567 9.43918 43 57 66 
0.90514 -0.200865 5.24616 92 97 101 
0.644193 -0.150534 5.18549 84 84 84 
1.48482 -0.0980457 5.60979 9 10 14 
1.62974 -0.0140561 5.70344 51 52 54 
4.99547 0.050462 6.76923 44 45 47 
2.43637 0.097574 6.1016 64 64 64 
5.67583 0.117502 6.92194 33 34 36 
3.06602 0.125707 6.40528 32 33 35 
4.84584 0.129778 6.6426 16 23 29 
3.8515 0.230708 6.79251 9 11 23 
5.01059 0.233527 6.69621 33 37 36 
-1.75612 0.120642 3.14354 59 58 54 
8.81777 0.383269 9.26843 22 25 34 
-1.50586 0.154551 3.25344 34 36 35 
9.5685 0.517259 9.78635 127 135 146 
2.81259 0.408181 6.18345 48 48 48 
4.95529 0.469344 6.62883 53 49 50 
3.27903 0.475055 6.39975 61 62 64 
5.57699 0.537051 6.82284 44 44 46 
3.56865 0.675789 6.56435 69 78 83 
-1.79298 0.330255 2.89232 92 96 97 
-1.7663 0.351919 2.88419 58 60 59 
-1.60319 0.372676 2.9647 57 55 58 
8.09383 1.09595 8.16871 139 142 147 
0.656912 0.654175 4.5019 26 24 25 
4.41978 0.898817 6.09471 134 139 143 
3.61665 1.03938 6.44607 130 144 153 
-1.761 0.475074 2.86401 136 137 139 
-1.71699 0.477974 2.85585 120 120 122 
5.46587 1.12523 6.67779 45 52 62 
4.95473 1.07709 6.24542 52 56 59 
5.84989 1.21703 6.74593 30 31 35 
0.452548 0.783225 4.23992 158 170 170 
2.0805 0.93584 5.11159 133 131 132 
0.654467 0.811227 4.34625 161 172 174 
0.828322 0.837511 4.42598 183 197 198 
4.78484 1.26221 6.07415 63 64 66 
-0.849578 0.722973 3.27996 38 38 40 
-0.408489 0.76424 3.48624 138 142 145 
2.61219 2.53878 11.6354 151 152 154 
-1.19594 0.6876 3.09607 139 140 144 
-0.337801 0.797419 3.52509 36 37 39 
