ply                 
format ascii 1.0    
element vertex 87
property float x    
property float y    
property float z    
property uchar red  
property uchar green
property uchar blue 
end_header          
1.14047 -0.865392 1.93621 161 147 138 
1.07554 -0.870435 1.98861 201 194 165 
1.10494 -0.859432 1.96666 198 191 173 
1.11506 -0.855736 1.95757 112 101 81 
1.07922 -0.864937 1.98617 85 77 64 
1.13731 -0.830972 1.94936 156 150 150 
1.1082 -0.837791 1.96868 101 106 83 
1.10836 -0.834902 1.97011 129 129 121 
1.11547 -0.828166 1.96578 158 160 146 
1.121 -0.824128 1.96012 82 86 59 
1.11883 -0.824161 1.96419 136 140 115 
1.11981 -0.812356 1.96354 182 180 168 
1.09449 -0.818873 1.98304 187 187 175 
1.09877 -0.817299 1.98235 63 55 53 
1.08432 -0.819797 1.99136 60 49 43 
1.11444 -0.808496 1.96915 179 173 161 
1.07576 -0.815282 1.99974 87 77 68 
1.1001 -0.80043 1.98346 168 155 147 
1.1461 -0.786274 1.94912 188 175 167 
1.09283 -0.793771 1.98995 156 143 134 
1.1107 -0.784724 1.97751 106 94 82 
1.10605 -0.784928 1.98313 70 63 53 
1.12785 -0.778647 1.96518 97 88 79 
1.07524 -0.790301 2.00468 112 100 86 
1.09316 -0.785284 1.9904 141 131 121 
1.10763 -0.775511 1.98272 60 49 45 
1.10733 -0.7713 1.98167 104 96 85 
-0.238644 -0.156874 0.814682 134 125 118 
-0.180709 -0.103352 0.764134 163 150 142 
-0.189482 -0.0930767 0.771938 77 77 77 
-0.186379 -0.0812957 0.768786 98 94 93 
-0.0355239 -0.0626362 0.647233 78 60 50 
-0.18404 -0.0699844 0.766437 36 36 34 
-0.00950829 -0.0533507 0.575627 124 123 119 
-0.266114 -0.0618772 0.783307 39 30 25 
-0.264948 -0.0601763 0.782392 98 86 74 
-0.0105235 -0.034775 0.576061 57 41 26 
-0.263019 -0.0449436 0.780016 38 34 25 
-0.179397 -0.0373848 0.760836 31 31 29 
-0.178497 -0.0308154 0.759681 29 29 27 
-0.0477509 -0.0243775 0.65549 161 151 142 
-0.0466593 -0.0193938 0.653969 51 41 32 
-0.267268 -0.0199012 0.775986 73 74 66 
-0.263314 -0.0176281 0.772817 93 92 88 
-0.0562667 -0.0102352 0.661175 164 151 142 
-0.0589998 -0.00643493 0.663289 138 128 118 
-0.0590701 -0.00505946 0.662996 99 96 79 
-0.0478832 -0.00405204 0.654653 61 52 47 
-0.043187 -0.00405022 0.650216 189 167 153 
-0.0575651 0.0105804 0.661075 34 35 29 
-0.0592946 0.0179676 0.662109 37 38 32 
-0.100997 0.0204884 0.694267 31 32 26 
-0.133432 0.0230433 0.720278 29 32 25 
-0.0968132 0.0227761 0.690658 40 41 36 
-0.0740085 0.022264 0.673425 25 26 21 
-0.132639 0.0280895 0.719658 26 27 21 
-0.0887369 0.0283546 0.684239 80 81 76 
-0.159548 0.0308471 0.742659 20 21 16 
-0.099832 0.02943 0.692835 29 30 25 
-0.0764961 0.0286217 0.674738 35 34 29 
-0.0446965 0.0316062 0.650158 100 96 87 
-0.0818846 0.0410562 0.67865 68 69 64 
-0.0934629 0.0425453 0.687598 26 29 22 
1.10938 -0.859441 1.96505 176 169 151 
1.11417 -0.808536 1.96893 168 165 148 
1.12064 -0.783772 1.96801 199 190 183 
1.10722 -0.784884 1.98153 68 65 58 
-0.186615 -0.0825103 0.768946 32 30 31 
-0.186414 -0.0813379 0.768778 96 92 91 
-0.187416 -0.0766141 0.769459 26 26 24 
-0.0355912 -0.0626617 0.647238 78 59 45 
-0.0455059 -0.00815752 0.652557 177 164 155 
-0.108038 0.0132855 0.699576 26 27 22 
-0.112745 0.0245119 0.703067 24 25 20 
-0.129646 0.0359251 0.716922 24 26 21 
-0.0950908 0.0481246 0.688571 21 20 15 
1.12 -0.899692 1.94376 182 174 163 
1.11021 -0.859676 1.96564 164 157 139 
-0.00875592 -0.036191 0.574571 135 122 114 
-0.0983616 0.0146246 0.691757 81 80 75 
-0.0977942 0.0228907 0.691327 37 38 33 
-0.0917531 0.0283508 0.686522 79 80 75 
-0.109173 0.0312347 0.700429 24 26 21 
-0.0759683 0.0311988 0.674145 32 31 26 
-0.0980057 0.0394531 0.691314 63 62 58 
-0.182702 -0.110405 0.766037 214 200 187 
-0.0546377 -0.000522208 0.659186 66 59 53 
