ply                 
format ascii 1.0    
element vertex 1318
property float x    
property float y    
property float z    
property uchar red  
property uchar green
property uchar blue 
end_header          
0.884197 -1.51812 9.03833 177 170 154 
0.628436 -1.4105 8.5435 18 31 39 
1.31693 -1.50481 9.09513 80 71 54 
0.905834 -1.47969 9.0114 200 187 170 
1.2194 -1.47351 9.08237 98 83 52 
0.998302 -1.44978 9.05286 190 186 175 
1.77783 -1.54106 9.63853 15 14 20 
0.608776 -1.32492 8.3717 16 22 20 
0.974568 -1.36633 9.06655 157 151 137 
1.00466 -1.35094 9.07607 34 38 41 
0.670203 -1.22036 8.38874 182 173 166 
-2.32394 -1.15242 9.53895 72 71 69 
-1.14478 -0.923492 7.93945 158 151 143 
-1.13513 -0.842082 7.96695 164 161 146 
2.47616 -1.26796 13.5969 15 6 23 
3.58527 -0.970281 12.7708 31 30 35 
1.43651 0.0316827 8.73404 250 234 208 
1.33818 0.08759 8.83876 228 203 173 
1.393 0.110291 8.85051 86 63 49 
2.10796 0.123491 9.36292 71 63 60 
1.58946 0.239166 9.08782 40 0 1 
1.57634 0.232509 8.90074 42 3 4 
1.51308 0.260664 8.93246 205 175 173 
1.2172 0.569664 9.04253 60 34 43 
1.12948 0.870061 8.81489 145 65 76 
-1.95175 1.01833 9.66549 39 37 40 
1.22587 1.15897 8.86477 185 100 119 
1.06537 1.1858 8.87642 120 51 69 
1.14997 1.20913 8.8834 181 105 117 
-0.258927 1.16542 8.45932 127 39 61 
1.1801 1.23829 8.91465 163 87 97 
-0.215155 1.18101 8.45403 218 181 175 
-0.277701 1.18578 8.43822 214 160 150 
-0.321073 1.20824 8.40371 85 8 24 
1.10029 1.28682 8.92512 125 62 73 
1.1567 1.28703 8.93191 169 85 101 
-0.281057 1.22721 8.40488 224 197 178 
-0.250131 1.22993 8.41223 51 41 39 
-0.358059 1.23193 8.37438 198 158 148 
1.18224 1.30976 8.92178 165 92 103 
-0.392301 1.25467 8.38376 93 21 41 
-0.30176 1.25398 8.37686 200 179 162 
-0.191581 1.26611 8.41727 87 72 77 
-0.158458 1.27799 8.42369 230 193 174 
-0.32234 1.27783 8.37563 32 16 26 
-0.406412 1.28464 8.37821 172 133 128 
-0.208208 1.28679 8.39789 217 194 178 
-0.150978 1.29942 8.42178 235 192 175 
-0.424919 1.30736 8.39037 160 135 131 
-0.375517 1.30505 8.37945 184 167 159 
-0.230408 1.30679 8.38379 231 207 195 
-0.165318 1.31588 8.38307 232 185 169 
-0.25873 1.31651 8.37562 40 36 37 
-0.189941 1.34069 8.38106 129 32 51 
3.04611 1.77611 10.9113 167 69 82 
-0.322538 1.36385 8.36587 59 48 56 
-0.294251 1.3684 8.3749 204 180 170 
-0.241675 1.37095 8.37319 238 189 174 
-0.432455 1.3646 8.29284 7 9 21 
-2.31508 1.56731 9.45379 99 90 91 
-0.259806 1.3949 8.36328 115 38 46 
-0.364032 1.40027 8.38269 193 174 168 
-0.305573 1.41397 8.36196 214 169 163 
0.00845897 1.42916 8.43905 142 34 66 
-0.324197 1.43828 8.35877 112 44 57 
-0.387766 1.48644 8.39018 70 1 22 
-0.427355 1.51066 8.38357 160 132 129 
-2.23457 1.93374 9.60377 10 10 22 
0.62438 1.96811 9.61536 42 11 17 
0.649402 1.99648 9.59721 166 127 128 
1.11699 1.94295 9.19472 197 137 136 
1.14359 1.97761 9.19599 191 131 131 
0.371111 2.10039 9.33419 134 62 66 
1.17502 2.08871 9.25931 198 128 136 
0.261169 2.09234 9.18908 201 163 150 
0.34893 2.19424 9.31191 197 145 149 
0.299805 2.19822 9.27176 212 157 160 
0.54838 2.32641 9.54468 102 26 36 
0.30491 2.26963 9.28926 219 163 162 
0.552402 2.3683 9.53896 118 43 50 
0.417987 2.33882 9.39696 188 153 151 
-0.0955706 2.22728 8.91002 223 179 168 
-0.132341 2.23373 8.89883 106 18 30 
-0.305549 2.24292 8.86475 126 73 89 
0.17552 2.37761 9.14869 208 152 155 
3.73449 3.01259 11.2835 17 13 14 
-0.357349 2.31699 8.67254 236 162 163 
-0.241459 2.3978 8.78195 229 199 191 
-0.288974 2.41001 8.72241 225 200 195 
-0.257014 2.47178 8.80716 192 111 117 
3.43267 3.17742 11.1441 10 15 18 
0.690377 3.05962 9.90816 169 134 128 
0.640735 3.05232 9.80487 168 133 131 
-0.08885 2.82071 9.03019 206 177 179 
0.609037 3.07356 9.7981 20 9 15 
-0.117433 2.97118 9.05502 64 23 39 
-0.140095 2.9844 9.0164 202 188 188 
0.0449632 3.17902 9.25596 199 142 149 
-2.09291 4.34321 11.7105 129 118 100 
-0.940935 3.35146 9.01167 121 122 124 
-2.38553 4.22931 10.7284 159 146 129 
-2.55629 4.45609 11.2789 21 17 32 
-2.54286 4.50364 11.3033 20 16 31 
-3.4537 4.74521 10.3282 131 121 111 
2.48032 4.89385 10.521 130 108 84 
-1.7235 4.8366 10.2079 12 11 16 
0.191981 5.03777 9.6604 168 154 141 
1.89565 5.0961 9.6965 152 130 106 
0.910861 5.09096 9.62698 114 100 87 
0.948568 5.09502 9.62109 210 194 169 
2.18822 5.18508 9.50848 147 129 107 
-0.67888 5.19067 9.25034 153 144 129 
-0.276927 5.23087 9.15778 77 73 72 
0.926918 5.23945 9.13952 161 139 116 
2.65662 5.27042 9.16092 175 153 130 
0.683167 5.23941 9.07719 152 130 107 
-0.476575 5.23871 9.06527 63 58 55 
1.17196 5.26146 9.09782 145 123 100 
1.65975 5.28621 9.09652 152 130 109 
1.24891 5.27794 9.03422 152 130 109 
3.03093 5.34153 9.05676 155 137 115 
2.04172 5.33403 9.02251 141 121 97 
1.07039 5.29942 8.92783 147 129 105 
2.54145 5.37042 8.93527 173 151 130 
1.87581 5.33075 8.85259 155 134 113 
1.96577 5.34977 8.8483 162 144 122 
2.27856 5.39032 8.70996 137 116 95 
1.94435 5.40718 8.60994 160 142 120 
1.55267 5.41724 8.52925 170 152 132 
0.587205 5.39571 8.48712 165 147 123 
-0.00523502 5.41353 8.35415 139 117 94 
3.46098 -6.71534 11.6579 29 32 49 
1.37382 -4.99279 11.9623 73 63 54 
2.27539 -5.49294 13.2226 187 175 163 
1.88264 -3.54816 9.4894 57 53 44 
1.9988 -3.54775 9.47231 67 57 47 
3.00477 -3.3039 8.99554 110 82 60 
1.99667 -3.35489 9.16294 66 62 53 
1.87487 -3.34881 9.16119 54 63 60 
1.52428 -3.32459 9.1666 39 39 39 
-0.3951 -3.21284 9.00425 46 40 42 
2.17942 -2.83506 8.34821 92 64 40 
2.21604 -2.79983 8.28205 245 226 212 
-0.557649 -2.98259 8.85985 42 43 47 
-0.552002 -2.7876 8.54692 40 46 44 
-2.18762 -2.86542 8.90377 66 47 40 
-0.482574 -2.68071 8.37343 218 208 196 
1.82896 -2.59329 8.14431 39 33 33 
1.93711 -2.62508 8.33459 182 169 163 
3.49019 -3.74959 12.2785 18 15 22 
1.20398 -2.24979 7.46598 203 160 118 
3.76498 -3.6347 12.6985 27 30 39 
3.39679 -3.57001 12.4894 212 197 168 
3.72005 -3.41052 12.1702 128 56 68 
1.09213 -2.10473 7.64164 34 20 20 
-0.462005 -2.00685 7.33213 26 21 25 
3.67962 -3.23625 11.906 107 120 76 
-0.596559 -1.99148 7.4026 177 132 90 
-0.599983 -1.93786 7.37507 37 17 29 
-0.489592 -1.91753 7.28635 187 148 115 
3.58383 -3.03528 11.883 55 76 45 
3.25353 -2.92701 11.5014 64 83 53 
0.342194 -1.70672 6.78034 4 2 16 
0.166129 -1.69034 6.81154 205 184 179 
0.0828251 -1.64961 6.72701 226 209 201 
3.7369 -2.78314 12.016 109 134 77 
3.51698 -2.71274 11.8422 112 137 80 
3.73445 -2.69797 11.7943 19 21 33 
1.71074 -2.03898 9.44289 180 175 156 
3.22115 -2.2938 11.0129 113 126 134 
0.337038 -1.62039 8.38554 2 1 17 
0.61986 -1.60061 8.29286 136 126 101 
-2.1374 -1.83428 9.65775 156 142 116 
0.626045 -1.51049 8.30657 138 122 88 
1.26316 -1.58461 9.14577 56 58 34 
1.30499 -1.50575 9.11037 86 70 47 
1.2255 -1.47833 9.07581 99 84 51 
1.69091 -1.57024 9.63384 1 7 23 
0.990826 -1.44341 9.05805 196 188 175 
0.660442 -1.3368 8.44371 205 190 185 
0.879337 -1.27643 8.7157 25 21 18 
0.985815 -1.30016 9.06916 104 105 97 
-2.33401 -1.16534 9.57836 71 70 68 
-1.16175 -0.944707 7.91823 23 23 25 
2.11487 0.00240439 9.43353 208 181 172 
1.44156 0.0296007 8.74533 242 226 200 
1.33859 0.0808513 8.84157 228 203 172 
2.13963 0.107683 9.43019 73 63 62 
1.39239 0.104028 8.81679 118 95 87 
1.28334 0.194445 8.98833 187 163 139 
1.57166 0.223591 8.83873 148 102 105 
1.45308 0.233142 8.82513 211 179 166 
1.50994 0.258589 8.93915 207 177 175 
1.48616 0.297177 8.95131 45 25 27 
1.68415 0.414683 9.00746 31 0 4 
1.18514 0.534977 8.98494 61 34 41 
1.28882 0.703883 8.95567 159 85 98 
0.892928 1.05696 9.22956 125 75 84 
-0.324707 1.20045 8.40409 102 17 40 
1.42744 1.33716 9.15201 167 97 105 
-0.24739 1.23641 8.41414 42 30 32 
-0.39852 1.24748 8.38117 96 18 42 
-0.197995 1.25506 8.41987 47 35 49 
-0.410835 1.29207 8.38184 166 131 127 
-0.321009 1.28656 8.37467 25 19 31 
-0.375144 1.29932 8.37087 192 174 164 
-0.164428 1.30362 8.40242 226 188 169 
-0.330933 1.35675 8.3743 32 27 34 
-0.242077 1.3624 8.36563 229 186 170 
-0.306534 1.40691 8.35321 222 179 170 
-0.323699 1.44836 8.35572 102 17 40 
-0.382474 1.48996 8.39025 67 0 17 
0.617555 1.96339 9.62573 41 12 17 
0.64129 2.00602 9.59914 159 119 119 
0.261224 2.09895 9.23064 191 158 141 
0.455055 2.17754 9.46764 70 23 29 
0.549797 2.36132 9.55953 123 43 54 
0.457354 2.33728 9.43426 46 17 19 
-0.0922644 2.22012 8.91115 201 167 155 
0.412041 2.35231 9.40383 202 164 163 
-0.145662 2.22917 8.88359 112 15 35 
0.394749 2.42955 9.39909 205 156 152 
0.182112 2.38655 9.15515 204 154 157 
-0.34914 2.31715 8.66845 207 111 113 
0.560213 2.57607 9.55465 191 133 132 
-0.375338 2.35244 8.64265 60 8 30 
0.417491 2.58337 9.46286 193 112 118 
-0.28784 2.41335 8.72515 221 201 194 
0.74066 3.01518 9.92474 155 120 114 
-0.0778763 2.82196 9.03621 208 176 181 
0.60611 3.0752 9.78246 20 18 21 
-0.100071 2.99385 9.04101 60 16 31 
-0.147081 2.99251 9.02078 205 196 191 
0.0482103 3.18283 9.25019 196 136 146 
2.44925 4.26878 11.8409 42 28 43 
2.30533 4.23019 11.6597 69 48 63 
2.4742 4.35284 11.8776 49 36 53 
1.85102 4.29381 11.1167 45 31 48 
-1.8653 4.47178 11.5252 106 94 82 
-2.58161 4.61632 10.0888 123 113 101 
-3.43696 4.72307 10.2951 137 125 113 
-2.2597 4.76311 10.3061 149 133 118 
2.49021 4.90606 10.5564 133 111 87 
-1.72938 4.83212 10.2169 14 14 24 
0.904698 5.09559 9.65167 122 112 102 
0.955406 5.09866 9.61841 209 191 167 
1.55823 5.15727 9.56412 169 151 127 
-0.816196 5.14391 9.34705 170 154 131 
-0.469496 5.22662 9.04983 60 56 57 
-0.263858 1.15858 8.45995 129 33 61 
-0.280838 1.19329 8.43414 201 158 139 
-0.297624 1.24753 8.37977 199 172 153 
-0.264617 1.30959 8.37742 48 46 49 
-0.276836 1.35249 8.37221 208 182 169 
-0.25881 1.40571 8.35355 111 19 40 
3.4561 -6.79764 11.9052 224 207 187 
1.37109 -4.98254 11.9547 73 60 54 
2.76815 -3.60754 9.50793 245 223 200 
1.98977 -3.54991 9.47682 63 53 43 
1.80818 -3.55132 9.50136 221 203 181 
1.89242 -3.54809 9.48347 56 53 44 
1.98466 -3.34841 9.15205 63 63 51 
-0.394735 -3.22285 9.03011 34 28 30 
1.62849 -3.12459 8.83197 62 57 51 
2.12578 -2.72433 8.32107 40 34 38 
3.63843 -3.93739 12.6098 213 197 172 
1.10415 -2.1866 7.36121 210 169 123 
3.52945 -3.70544 12.4869 8 17 32 
3.40504 -3.59665 12.4926 212 197 168 
1.00627 -2.11922 7.40611 37 25 29 
-0.280049 -1.95339 7.19629 31 19 5 
-0.58999 -2.00814 7.43928 174 126 88 
-0.297326 -1.93467 7.23351 18 1 9 
-0.0248656 -1.8407 6.93013 194 163 132 
-0.496983 -1.93854 7.31297 191 145 109 
0.0124246 -1.80897 6.90421 49 32 25 
-0.426668 -1.89449 7.27593 174 139 111 
-0.294991 -1.82573 7.11045 189 153 129 
0.0466475 -1.77648 6.91688 24 13 11 
0.289652 -1.7032 6.69655 223 199 175 
-0.0336745 -1.72801 6.85815 209 178 160 
0.129274 -1.70033 6.82753 214 191 177 
0.0817598 -1.64998 6.73114 226 209 201 
0.033618 -1.64222 6.71932 22 16 16 
3.03999 -2.76975 11.3686 99 98 94 
3.28359 -2.83032 11.6017 46 67 36 
0.161211 -1.63694 6.76474 13 7 19 
1.3266 -1.93018 9.39941 117 105 107 
0.570317 -1.62801 8.31201 3 1 14 
2.0374 -1.83481 9.41374 0 2 15 
0.675691 -1.59105 8.31784 3 9 25 
-2.14983 -1.84915 9.67494 156 144 118 
-2.36359 -1.70006 9.48 77 77 75 
-0.0107607 -1.21351 6.99588 110 114 126 
0.758435 -1.49532 8.61837 0 0 21 
0.873679 -1.50019 9.01363 188 176 160 
0.950954 -1.49655 9.0336 6 8 20 
1.29284 -1.50244 9.12002 86 70 44 
1.23801 -1.47409 9.07228 92 77 44 
0.662814 -1.32686 8.37221 199 187 171 
0.981892 -1.43786 9.06182 197 187 175 
0.632899 -1.27349 8.37556 1 5 16 
0.172103 -1.05954 7.05676 123 128 132 
0.68878 -1.24175 8.38502 192 180 166 
0.748927 -1.22179 8.47789 21 19 24 
0.609312 -1.20399 8.39601 4 12 25 
1.55868 -0.334634 8.89336 233 218 187 
1.46488 -0.0720815 8.77336 236 220 187 
2.10727 0.00569412 9.43736 208 181 170 
1.41906 0.0882732 9.01599 122 102 91 
2.15153 0.121475 9.45597 73 55 53 
1.28182 0.202015 8.99234 194 168 145 
1.44701 0.226809 8.81561 213 180 163 
1.40433 0.25687 8.89473 50 33 39 
1.48023 0.296984 8.94221 41 21 23 
0.829679 0.369407 8.6669 229 82 92 
0.733527 0.610514 9.32897 104 73 78 
-0.228117 1.18693 8.45853 226 193 176 
-0.210826 1.29692 8.39635 212 186 169 
-0.166881 1.29928 8.41582 227 189 170 
-2.30798 1.49155 9.48411 15 14 28 
-0.18259 1.3562 8.37242 123 6 35 
-0.246281 1.36098 8.36472 230 192 173 
-0.41344 1.38916 8.33263 8 12 23 
-0.345803 1.41264 8.41553 151 124 115 
-0.417004 1.55277 8.33496 72 6 33 
0.632529 2.02005 9.61262 159 119 120 
1.84157 2.07705 9.85504 197 127 135 
1.08861 2.00831 9.23161 31 0 5 
1.87977 2.12827 9.79341 57 3 17 
1.11293 2.05409 9.27102 28 2 3 
1.12401 2.09192 9.28091 41 0 2 
0.260584 2.10288 9.251 191 158 141 
0.545479 2.34832 9.54653 123 41 53 
-0.0888129 2.22203 8.92401 207 171 159 
-0.157811 2.23066 8.89006 110 10 36 
0.533498 2.43341 9.533 179 124 119 
-0.259971 2.26303 8.85567 100 7 34 
0.606486 2.46083 9.55692 103 57 59 
0.185598 2.39894 9.16343 202 153 156 
0.598732 2.51703 9.57136 100 55 60 
0.565333 2.58826 9.55967 190 135 132 
-0.36802 2.35779 8.6275 81 28 46 
0.69788 2.68058 9.80505 172 127 122 
3.46287 3.09254 10.9953 11 15 24 
0.275847 2.65127 9.32645 208 174 173 
-2.42309 3.47374 11.5244 67 64 55 
0.0202456 2.81024 9.09453 197 89 105 
-0.0666803 2.81724 9.02931 208 177 182 
-0.101923 3.00532 9.04636 68 25 42 
2.65514 4.34077 12.0391 103 92 86 
2.35041 4.40924 11.701 157 144 128 
1.84202 4.30076 11.1257 48 34 51 
1.93843 4.49432 11.1122 175 160 141 
-1.7401 4.83466 10.2498 12 16 27 
-2.2176 4.99664 9.39977 88 76 62 
-0.625522 5.22031 9.26653 51 49 52 
-0.258617 5.23555 9.10005 175 159 143 
-0.470631 5.22299 9.05248 61 56 60 
-2.16482 -2.85386 8.9216 66 47 41 
-0.604889 -2.24831 7.61717 115 93 72 
-0.103147 -1.86148 6.99903 52 32 23 
-0.282015 -1.80475 7.01472 204 168 144 
0.0213144 -1.77144 6.88682 35 21 21 
0.290149 -1.71805 6.71839 220 193 166 
3.17645 -2.66058 11.4513 115 141 76 
2.30651 -2.03188 9.80359 149 134 127 
0.857862 -1.49671 9.03462 185 173 159 
1.26644 -1.50128 9.11743 89 69 42 
0.966034 -1.42171 9.06316 194 184 172 
0.701424 -1.26363 8.37909 204 192 176 
0.794461 -1.26679 8.80147 31 30 35 
1.55791 -0.317857 8.9047 236 216 181 
2.08545 0.0101678 9.42117 203 181 170 
1.47111 0.0421133 8.75026 239 224 195 
1.53749 0.21653 8.80788 151 102 105 
1.1629 0.317328 8.90254 211 186 155 
0.836214 0.383087 8.61728 203 67 79 
1.07667 0.579626 9.02243 118 74 73 
-0.424872 1.21498 8.3398 83 7 35 
-0.172943 1.29747 8.40886 224 189 170 
1.81957 2.11686 9.94112 182 109 118 
1.11187 2.06901 9.3204 22 0 0 
0.429365 2.15684 9.37043 159 77 83 
0.635904 2.37042 9.61028 150 101 97 
-0.0832102 2.21254 8.92177 203 171 158 
-0.178499 2.23638 8.90025 106 7 35 
0.615962 2.51053 9.60928 94 55 58 
0.196679 2.4193 9.16333 201 152 155 
0.284425 2.68698 9.36121 205 174 172 
-0.0555346 2.81802 9.05741 206 177 181 
-0.352001 2.81619 8.72524 59 12 32 
-0.0943721 3.01273 9.04346 116 57 75 
-2.15257 4.33679 11.7476 135 120 101 
-1.9963 4.31423 11.6206 21 22 27 
3.26332 4.58886 11.53 37 35 38 
-2.55182 4.63022 10.1124 120 108 92 
-0.469891 5.23539 9.09444 63 60 67 
3.42364 -3.59438 12.4971 212 197 168 
-0.236812 1.18614 8.44658 185 143 131 
-0.365521 5.24413 9.09731 85 82 89 
1.5945 -3.69625 9.75079 35 36 38 
2.04617 -3.5241 9.34406 226 210 185 
1.93431 -3.36009 9.17459 57 66 61 
1.22992 -2.91386 8.53294 55 54 50 
-0.327038 -3.02041 8.92401 215 201 188 
-0.384334 -2.0723 7.31872 193 148 107 
-0.497749 -1.959 7.28458 177 131 95 
-2.13742 -2.44513 9.42466 77 75 80 
-0.117235 -1.74913 6.94309 212 188 176 
0.463958 -1.60407 8.3244 72 56 41 
-2.33712 -1.67214 9.51622 78 78 80 
0.848453 -1.48543 9.03377 192 179 163 
0.939943 -1.42191 9.08 197 185 169 
0.703224 -1.28895 8.35196 202 190 174 
0.785661 -1.2228 8.48522 36 35 40 
-2.33428 -1.2076 9.5831 74 74 76 
1.3197 -0.575031 9.3652 111 98 89 
1.5921 -0.603267 9.90785 50 49 54 
1.5572 -0.30196 8.89464 234 211 177 
2.06154 0.0122241 9.41126 203 183 174 
1.50396 0.0536155 8.71556 240 224 198 
1.24734 0.0932647 8.8819 99 81 77 
1.52145 0.213467 8.7906 141 97 98 
1.26519 0.236657 8.96154 201 177 151 
1.07239 0.598579 9.01879 161 120 114 
-1.98997 1.05348 9.67966 31 35 38 
-0.138411 1.20254 8.45911 113 12 44 
-0.29552 1.38948 8.38272 204 168 156 
0.484456 2.08455 9.42874 161 106 103 
1.11195 2.06009 9.30193 30 4 7 
0.633858 2.34976 9.59806 147 98 94 
-0.0906431 2.20892 8.93832 195 165 154 
0.727483 2.55353 9.7975 64 34 44 
0.678722 2.99464 9.90594 187 140 134 
-0.239068 2.8835 8.8302 198 112 115 
-2.01665 4.39762 11.8545 21 22 27 
1.97887 4.43046 11.142 174 158 135 
-2.57387 4.48768 11.2182 11 16 22 
-2.51607 4.60585 10.0559 116 104 92 
-1.78243 4.80234 10.2299 8 16 27 
-0.263272 5.20502 9.23848 81 85 88 
-0.32047 -2.93849 8.81739 220 204 191 
-0.140701 -2.63583 8.28429 49 51 48 
-2.11664 -2.81992 8.91304 136 113 99 
1.12662 -1.37014 9.06435 10 12 24 
0.548444 -1.19465 8.35562 2 5 20 
2.32558 -1.27017 10.5705 190 172 148 
1.35651 -0.527921 9.54578 121 107 98 
1.55794 -0.273649 8.89382 233 210 179 
1.19647 0.0495903 8.92741 86 75 73 
1.22354 0.59315 9.00515 85 47 58 
1.73838 1.5973 9.79049 127 60 77 
0.559619 2.06251 9.5532 167 121 121 
0.72131 2.50289 9.68291 37 7 17 
-0.254873 2.38871 8.72562 208 171 163 
0.644709 2.95776 9.88803 183 134 129 
-1.49612 3.70385 10.5754 109 97 37 
0.330188 3.10263 8.00408 143 141 144 
1.77502 4.46713 11.0846 46 32 49 
1.14774 -1.37646 9.00776 0 1 14 
1.56986 -0.225618 8.95064 226 203 171 
1.58611 0.0461331 8.72571 235 220 199 
1.22852 0.305679 8.90672 211 186 155 
1.91003 0.466361 9.23943 151 95 104 
-0.328866 0.987464 8.16833 116 8 42 
-0.221337 1.29783 8.38889 185 157 143 
-1.32628 1.7679 9.02575 4 14 24 
0.513245 2.07934 9.60479 169 124 118 
-0.300016 2.11202 8.64717 14 12 25 
0.615372 2.8387 9.75839 185 136 131 
0.941485 -2.69448 8.16288 57 49 38 
1.84128 -2.60821 7.96571 72 41 20 
0.938147 -2.67544 8.18587 54 52 40 
1.63709 -2.47671 7.76867 43 17 2 
1.61054 -2.46748 7.75569 75 44 13 
1.6043 -2.44622 7.73161 166 149 131 
1.52169 -2.41305 7.68744 45 23 0 
-0.226736 -2.49949 8.03932 57 39 37 
1.43407 -2.34989 7.6087 158 138 129 
1.37987 -2.33082 7.57395 43 11 0 
1.40225 -2.33103 7.5884 159 140 126 
1.15234 -2.19561 7.37473 79 52 23 
1.18297 -2.16766 7.67382 27 11 12 
0.746949 -1.94785 7.01117 36 13 0 
0.646609 -1.87575 6.92128 137 117 108 
1.15927 -2.03769 7.5861 118 108 96 
3.92007 -3.03919 12.2325 163 143 142 
0.880112 -2.03032 8.32631 0 18 27 
0.913384 -2.04027 8.43599 205 225 236 
1.68606 -2.0377 9.40015 165 170 150 
1.81362 -2.00334 9.43632 27 28 20 
2.96154 -2.21477 10.7681 120 137 145 
0.740517 -1.42511 8.6302 99 89 77 
1.20463 0.951459 8.69118 161 83 105 
1.05364 0.960914 8.69258 131 68 79 
1.17832 0.959964 8.70001 50 6 21 
1.12796 0.964639 8.68985 63 12 29 
1.19634 1.09494 9.21957 63 16 36 
1.83753 1.11992 9.31821 183 123 135 
1.0527 1.0598 8.74502 39 3 15 
1.08453 1.0661 8.72429 142 73 91 
1.14622 1.09402 8.74141 74 22 35 
1.28602 1.09948 8.78867 208 120 134 
1.13019 1.12092 8.78965 165 101 118 
1.067 1.14107 8.78575 52 15 23 
1.08925 1.13658 8.75177 141 72 90 
1.11636 1.14139 8.77518 57 4 14 
1.09913 1.16694 8.77542 45 0 11 
1.11726 1.16944 8.77409 131 60 74 
1.5149 1.20984 9.04954 185 111 124 
1.11724 1.19121 8.78238 59 0 18 
1.02456 1.19917 8.79954 30 1 5 
1.51879 1.24351 9.07125 82 14 27 
1.10138 1.20669 8.78137 166 94 106 
1.71034 1.28881 9.28307 174 106 117 
-0.251858 1.16741 8.32389 234 176 172 
1.10258 1.2329 8.78761 57 10 26 
1.65531 1.31024 9.24501 75 4 18 
1.49698 1.28804 9.07088 62 0 7 
1.63125 1.31214 9.20936 173 102 116 
1.20048 1.25845 8.82199 189 106 116 
1.53404 1.30648 9.11064 175 101 116 
1.06302 1.26903 8.8274 60 2 16 
-0.325341 1.19766 8.30893 101 27 40 
1.07497 1.28188 8.84001 56 0 14 
1.01123 1.3012 8.85292 48 6 16 
-0.145889 1.23329 8.33888 184 125 131 
1.05668 1.30109 8.81094 51 10 26 
1.07672 1.31039 8.83504 144 78 90 
1.63465 1.5139 10.0867 177 104 123 
1.22454 1.33861 8.87134 62 5 12 
1.03747 1.3398 8.86364 39 1 12 
1.08252 1.3373 8.82726 50 7 24 
0.974898 1.36399 8.90262 39 6 15 
0.712353 1.43964 9.18848 42 1 15 
-0.181273 1.31173 8.29479 115 52 61 
0.99804 1.40201 8.9029 42 0 12 
1.28835 1.4765 9.35369 62 2 12 
0.756824 1.46167 9.15113 35 3 14 
0.875782 1.4445 9.03566 38 0 9 
0.996802 1.42562 8.92522 109 59 71 
1.0881 1.4212 8.91172 51 9 23 
0.920205 1.45411 9.01172 54 4 16 
1.02354 1.44581 8.92984 53 6 12 
1.20686 1.44693 8.91187 60 7 23 
0.957285 1.46082 8.97776 54 2 15 
1.00904 1.54992 8.97729 28 0 8 
1.57372 1.65785 9.5768 81 11 22 
1.00767 1.57068 8.98388 126 84 98 
1.25522 1.66174 9.4344 173 92 111 
1.09681 1.59576 8.94975 147 78 96 
1.23046 1.68301 9.45219 63 13 25 
1.30938 1.66018 9.05425 195 117 131 
0.956795 1.66802 9.06592 106 68 79 
1.27076 1.6748 9.0392 199 127 139 
1.52661 1.79212 9.3256 150 84 94 
0.929793 1.84951 9.18579 26 0 6 
0.685379 2.0335 9.51158 43 0 1 
1.21935 1.95258 9.11651 147 75 87 
1.05914 1.97345 9.13483 125 74 83 
1.87105 2.11046 9.72607 57 3 17 
1.10981 2.05362 9.15658 138 81 96 
1.9325 2.21249 9.8427 47 0 9 
1.10982 2.06885 9.15833 119 71 83 
1.11516 2.12438 9.17766 155 98 105 
1.32254 2.13839 9.23331 189 115 130 
1.09727 2.16175 9.20892 140 78 89 
1.26226 2.19274 9.228 187 119 134 
1.19099 2.21177 9.20313 67 25 29 
1.14831 2.237 9.22801 150 89 107 
1.3058 2.35998 9.71391 147 85 100 
1.15488 2.32547 9.26609 133 68 88 
0.943651 2.69493 10.6851 28 0 6 
1.3685 2.46864 9.38592 180 109 127 
1.16704 2.47249 9.32652 123 67 80 
-0.245244 2.37128 8.63263 163 124 119 
1.11125 2.87527 10.1257 127 76 93 
1.42442 2.76255 9.53745 176 95 112 
1.19099 2.75959 9.45508 158 87 105 
1.14138 2.99849 10.1585 119 66 82 
1.37121 3.13612 10.4841 169 85 101 
-0.032631 3.11435 9.01484 99 72 79 
2.60895 5.13533 9.22366 120 98 77 
2.9378 5.13789 9.21609 152 134 112 
1.63983 5.28314 8.47532 154 137 111 
2.21962 5.29983 8.49177 220 203 177 
3.50823 -6.90028 12.0345 228 210 198 
2.92806 -7.0615 12.4339 56 45 41 
1.87233 -4.59686 11.2999 156 141 136 
0.435584 -3.93084 10.2616 45 33 33 
1.51745 -3.72008 9.81278 36 37 39 
2.01348 -3.5427 9.4535 73 61 49 
0.111351 -3.5942 9.74496 40 36 37 
1.50698 -3.32378 9.16448 31 32 27 
1.65752 -3.12971 8.82822 65 55 45 
1.57206 -3.04393 8.62965 58 51 41 
1.31026 -3.106 8.8308 46 38 36 
2.47016 -2.97856 8.50522 144 116 92 
2.27762 -2.86652 8.37984 110 89 62 
0.910249 -2.92987 8.60705 42 43 45 
-0.560721 -2.77444 8.50869 28 32 31 
2.104 -2.70491 8.3315 147 141 145 
-2.20331 -2.8722 8.91678 46 27 12 
-2.19325 -2.82074 8.83024 189 172 152 
-0.49899 -2.6821 8.4097 217 209 198 
1.71484 -2.52504 7.95339 29 13 23 
-2.17817 -2.79506 8.86606 33 17 17 
-0.341766 -2.56395 8.14004 222 210 194 
-0.319294 -2.54368 8.12724 67 50 42 
-0.391298 -2.53006 8.11426 217 205 189 
1.46584 -2.37794 7.6438 37 13 1 
1.82257 -2.54399 8.21413 39 28 34 
1.62669 -2.44845 8.07227 40 26 26 
2.91623 -3.61241 11.9617 157 147 146 
2.98655 -3.63692 12.0515 62 53 56 
-0.548419 -2.36452 7.87901 223 204 189 
2.94106 -3.58704 12.0032 84 75 76 
2.9859 -3.56944 12.0373 67 58 61 
3.04164 -3.55623 12.0991 153 144 145 
3.36796 -3.64875 12.6198 54 24 26 
3.7527 -3.43353 12.2587 133 81 94 
-0.465908 -2.0031 7.34263 7 0 5 
-0.597964 -1.93456 7.31649 21 6 11 
3.90539 -3.18719 12.207 152 151 149 
0.244253 -1.69293 6.66552 48 33 26 
3.08412 -2.897 11.3999 58 60 46 
3.86393 -3.09177 12.1789 45 35 43 
3.91757 -3.08092 12.2431 144 129 124 
3.12975 -2.8658 11.4948 66 67 53 
-0.0100654 -1.66009 6.73541 34 25 26 
0.19835 -1.64694 6.68603 38 29 32 
3.12053 -2.81104 11.482 152 149 144 
2.85357 -2.72931 11.2307 37 53 40 
3.85689 -2.94146 12.1066 165 123 107 
3.91488 -2.97199 12.2243 165 123 109 
3.2812 -2.81058 11.6221 54 75 36 
3.35249 -2.35757 11.1188 105 122 132 
2.32456 -2.10664 10.0022 154 143 149 
0.628362 -1.70996 8.19648 159 156 163 
2.95456 -2.25055 10.7722 123 140 148 
1.93112 -1.94754 9.44565 133 122 102 
1.31295 -1.91677 9.32674 130 121 122 
1.27153 -1.89391 9.31573 18 13 17 
0.524684 -1.59288 7.89142 81 76 83 
0.745895 -1.69426 8.55137 111 104 98 
0.693929 -1.65014 8.38842 113 102 96 
0.622263 -1.60281 8.22496 130 122 101 
1.35505 -1.73173 9.23879 82 82 92 
0.852045 -1.64116 8.78246 76 74 75 
1.31859 -1.49666 9.03052 82 70 54 
0.940944 -1.48941 9.00475 5 9 12 
0.912626 -1.47319 8.97729 199 187 173 
0.610441 -1.34783 8.32932 151 150 146 
1.21561 -1.46482 9.04436 96 82 55 
1.00073 -1.44542 9.00076 201 197 186 
0.643375 -1.31869 8.31254 201 191 182 
1.00216 -1.34593 9.02997 36 37 41 
0.668819 -1.20981 8.31893 179 172 164 
3.69606 -0.999063 13.0068 201 185 169 
3.61857 -0.984836 12.8907 30 28 33 
1.48542 0.299395 8.8485 49 19 19 
1.43366 0.45425 8.69516 114 48 58 
1.26 0.510485 8.94839 122 51 65 
1.19286 0.606242 9.00731 75 43 54 
1.19499 0.639405 9.02277 140 88 101 
1.04754 0.850474 8.65278 28 0 12 
1.09943 0.919382 8.65804 46 14 27 
1.12785 0.954929 8.67413 61 20 36 
1.25302 0.971013 8.7173 69 10 30 
1.18151 0.980497 8.69837 175 90 111 
1.19489 1.04297 9.19929 173 89 112 
1.15512 0.987112 8.69154 50 13 30 
1.10444 0.990404 8.69258 47 11 25 
1.22343 1.07652 9.20916 179 94 113 
1.10713 1.01998 8.70319 172 98 111 
1.08128 1.02455 8.71073 47 12 19 
1.13262 1.0239 8.70636 53 10 29 
1.25866 1.04184 8.75205 67 13 29 
1.23543 1.04363 8.74453 189 98 116 
1.13506 1.05258 8.71725 178 97 112 
1.08422 1.05435 8.72236 157 90 107 
1.6011 1.18049 9.13886 183 113 121 
1.11276 1.13398 8.76313 56 6 17 
1.16878 1.14807 8.77276 164 89 109 
1.06311 1.17375 8.77408 123 56 73 
1.17311 1.18966 8.77738 63 19 32 
1.06538 1.20236 8.79486 56 11 31 
1.12282 1.20094 8.79568 60 12 26 
1.17814 1.22109 8.80521 164 92 106 
1.09611 1.23486 8.80192 57 19 30 
-0.177017 1.18697 8.34452 35 17 29 
-0.276608 1.1888 8.29757 228 185 168 
1.22277 1.25712 8.80877 67 10 29 
1.09962 1.26523 8.8153 155 83 94 
0.963162 1.29005 8.88367 24 1 7 
1.00743 1.29853 8.86945 40 2 13 
1.17783 1.28792 8.79411 169 95 108 
0.987206 1.32694 8.87883 42 9 18 
-0.372147 1.23943 8.27465 88 17 35 
-0.250173 1.24907 8.27734 37 27 36 
1.1777 1.33344 8.8427 61 10 25 
1.0789 1.33876 8.85251 48 12 26 
-0.193534 1.26948 8.29501 218 192 177 
1.08097 1.36575 8.85686 155 86 105 
1.13023 1.36829 8.85765 178 101 121 
-0.216199 1.28957 8.28092 224 200 190 
-0.359427 1.28984 8.27538 177 162 155 
1.27589 1.39006 8.91429 65 7 19 
-0.379613 1.30919 8.27683 23 17 19 
-0.254329 1.32235 8.25159 215 195 184 
1.01799 1.43974 8.92192 56 13 20 
1.22361 1.52622 9.39734 49 8 22 
-0.279337 1.35 8.26302 214 187 180 
-0.319879 1.37029 8.26606 188 168 159 
0.886916 1.5214 9.05421 38 2 14 
0.0205425 1.4051 8.32466 138 34 67 
1.02432 1.51242 8.9492 38 1 9 
1.25192 1.58415 9.38111 175 94 111 
-0.389285 1.4177 8.27505 149 134 129 
-0.308809 1.41564 8.25796 108 51 60 
1.82085 1.63575 9.52517 200 149 154 
1.86126 1.71904 9.96227 199 138 146 
1.20317 1.63881 9.41781 55 20 27 
0.987711 1.57731 9.00323 25 4 11 
-0.398355 1.45517 8.28164 180 152 141 
-0.372357 1.46661 8.28724 75 6 27 
1.14514 1.58479 8.94844 168 91 107 
-0.407973 1.49276 8.27827 158 132 131 
1.09864 1.62521 8.96248 53 15 30 
1.20966 1.71785 9.46548 57 17 26 
0.993045 1.64967 9.03579 41 11 19 
1.28297 1.73334 9.45044 75 20 26 
1.03382 1.65564 9.0005 50 4 15 
0.976853 1.68304 9.06108 34 4 12 
1.05921 1.69835 9.02671 38 7 13 
1.12867 1.69009 8.98248 160 94 104 
1.10379 1.69615 8.99483 81 46 52 
1.03861 1.72732 9.03013 83 36 42 
0.981799 1.75413 9.08888 36 5 10 
1.11231 1.84201 9.03181 213 165 163 
1.14082 1.88106 9.08046 221 172 167 
1.18974 1.87941 9.08293 241 191 192 
0.655662 1.9699 9.48778 162 122 122 
1.09022 1.88628 9.09988 202 144 140 
1.11583 1.88488 9.08087 129 63 64 
1.03379 1.90772 9.11534 56 15 23 
1.16865 1.91865 9.11232 251 212 205 
1.1159 1.91884 9.08907 194 136 135 
1.01553 1.93882 9.14377 26 0 6 
1.26428 1.94512 9.13346 149 71 84 
1.05691 1.94477 9.11852 37 1 3 
1.19468 1.94874 9.10449 229 170 174 
1.20157 2.0065 9.35173 142 65 71 
1.03794 1.97768 9.1425 28 0 4 
1.19965 2.02304 9.14289 201 135 139 
1.22533 2.05735 9.16125 223 156 163 
1.1321 2.05957 9.14704 65 20 25 
1.20061 2.06284 9.15267 144 62 74 
1.1367 2.0909 9.15882 149 96 106 
1.16075 2.09589 9.15924 82 26 27 
1.07532 2.16582 9.2148 53 12 16 
0.356219 2.16594 9.20628 199 144 149 
0.309425 2.16804 9.15818 201 152 155 
1.28422 2.19478 9.23829 67 15 28 
1.23933 2.20314 9.22685 62 40 43 
1.12226 2.20328 9.21655 134 76 88 
1.30946 2.22823 9.26466 65 13 25 
1.08203 2.24161 9.25578 26 5 12 
1.265 2.23584 9.24264 50 10 18 
0.361528 2.23652 9.22485 207 156 153 
1.17138 2.24335 9.22886 52 12 21 
1.28188 2.36172 9.72446 41 9 22 
0.553197 2.29848 9.43542 101 29 40 
1.1486 2.24925 9.23343 131 72 90 
0.452063 2.29719 9.34972 58 14 27 
1.10594 2.28091 9.26265 31 0 9 
1.17473 2.274 9.23983 149 85 101 
1.19934 2.28082 9.24542 27 1 10 
1.08716 2.31327 9.27845 32 0 10 
1.15378 2.31118 9.2575 137 83 97 
-0.0811056 2.19591 8.77395 236 188 176 
1.13132 2.31784 9.26733 28 5 11 
1.17725 2.31619 9.25345 46 23 33 
1.22547 2.31703 9.26679 37 5 18 
-0.193292 2.19704 8.76854 132 59 79 
1.22782 2.34632 9.27208 166 97 116 
1.25073 2.34676 9.27483 46 13 22 
1.27676 2.38019 9.29615 67 35 40 
0.400156 2.40818 9.29781 206 155 152 
1.23307 2.42141 9.30591 165 102 119 
1.28289 2.45914 9.33878 64 21 31 
1.16563 2.45826 9.31709 142 84 98 
1.18956 2.46692 9.32393 35 5 13 
0.722389 2.63011 9.70222 165 124 130 
0.0978581 2.47549 8.95834 217 164 170 
1.24775 2.61344 9.38609 29 6 12 
3.68603 3.25526 11.551 31 31 29 
0.698814 3.0094 9.7514 165 137 136 
-0.0776383 2.77686 8.89082 210 180 180 
0.614796 3.03552 9.6872 23 10 17 
-0.102497 2.92425 8.91537 57 20 37 
-0.121532 2.93537 8.88256 201 187 187 
0.118471 3.06322 9.18057 206 133 144 
3.09595 3.6683 10.9461 235 215 188 
-0.0388513 3.03878 9.00673 125 74 79 
-0.0157636 3.05163 9.0256 186 160 159 
-0.332436 2.91748 8.51639 41 39 42 
0.0582103 3.13444 9.12784 199 139 149 
2.1648 4.26683 11.4059 97 80 70 
1.91834 4.51287 11.0558 175 159 143 
2.45844 4.8198 10.3682 129 107 83 
1.97966 4.88189 10.0716 157 135 111 
1.70627 4.91871 10.0487 220 199 172 
2.64634 4.9625 9.91651 155 133 109 
1.87756 5.00406 9.53206 145 123 99 
2.50947 5.10029 9.39774 150 134 111 
3.32792 5.14362 9.32117 158 136 113 
2.40201 5.1268 9.26286 142 122 98 
3.04814 5.12012 9.25643 156 138 114 
2.81922 5.1274 9.20082 151 133 111 
1.04215 5.11495 9.02905 151 133 109 
1.80726 5.13133 9.06138 155 133 109 
-0.22265 5.13048 8.98269 157 147 137 
-0.254535 5.13662 8.98867 79 74 70 
2.59774 5.17609 9.07408 155 133 110 
2.39633 5.1784 9.04046 154 132 111 
2.62782 5.18359 9.01712 165 143 120 
0.687391 5.13771 8.90395 153 131 108 
2.92956 5.21328 8.99354 151 130 111 
1.2435 5.1674 8.84818 153 128 106 
0.466854 5.14999 8.78638 123 103 92 
3.06153 5.22534 8.90727 146 128 106 
0.0785515 5.13991 8.73606 126 110 94 
2.5798 5.21378 8.84835 228 210 186 
2.0284 5.25196 8.88788 147 127 103 
1.06722 5.18568 8.74458 145 127 103 
3.07405 5.23991 8.82586 155 137 115 
2.94916 5.25634 8.76769 223 202 183 
2.51655 5.27582 8.78595 168 146 125 
1.96195 5.24055 8.71465 221 203 181 
3.11742 5.26898 8.754 162 144 124 
0.889854 5.21276 8.6375 136 118 94 
2.94244 5.27983 8.7652 139 121 99 
1.945 5.24033 8.67294 163 145 123 
2.36742 5.27201 8.6777 143 124 107 
1.30927 5.24885 8.56472 151 133 109 
2.67081 5.28747 8.6237 145 129 106 
2.4106 5.27386 8.5833 154 132 111 
2.57703 5.28696 8.59483 163 145 123 
1.4622 5.25931 8.51343 147 127 102 
2.25408 5.28483 8.54395 137 116 95 
2.44479 5.29713 8.54545 144 126 102 
1.73962 5.27639 8.46658 143 125 103 
1.99695 5.29309 8.46276 163 145 121 
1.70486 5.291 8.43056 146 128 106 
1.59465 5.29501 8.40596 158 141 115 
0.797292 5.26976 8.34202 153 131 108 
2.06405 5.30819 8.40701 154 136 114 
2.48523 5.32689 8.419 139 120 103 
1.54341 5.3303 8.3951 168 149 132 
1.73466 5.32285 8.35682 138 120 98 
1.27799 5.30683 8.27585 157 139 117 
-0.154882 5.28191 8.17699 153 135 111 
0.43451 5.29299 8.18139 141 119 98 
0.0163659 5.29692 8.17435 137 115 92 
1.62343 -3.17337 8.92455 62 55 45 
1.18502 -2.90101 8.54608 51 48 41 
0.580073 -1.94207 7.99104 164 180 193 
-0.213282 1.15023 8.36435 213 160 152 
-0.350785 1.2222 8.28905 226 181 175 
2.82651 -3.57715 9.4024 251 226 196 
0.42025 -3.84373 10.1203 156 146 144 
0.465669 -3.82482 10.0911 40 36 37 
1.86908 -3.54737 9.486 59 48 42 
1.83446 -3.41464 9.12472 54 55 47 
1.51327 -3.51354 9.46478 39 39 39 
0.0725841 -3.60447 9.75085 156 146 145 
-0.270282 -3.38781 9.45132 162 157 154 
2.35149 -2.91971 8.43644 80 52 28 
-0.565706 -3.15571 9.12805 35 33 36 
2.15747 -2.82145 8.43288 210 192 188 
-0.451778 -2.89072 8.69545 209 195 192 
-0.527985 -2.84503 8.66097 39 41 38 
-2.19507 -2.8649 8.89358 56 37 22 
-0.58589 -2.69153 8.42015 39 34 38 
1.80364 -2.55955 8.00947 56 48 46 
-0.179209 -2.65645 8.3137 43 42 37 
-2.20573 -2.83122 8.86551 190 174 151 
-0.535389 -2.63063 8.296 37 35 36 
-0.459993 -2.59362 8.23869 50 42 40 
-0.319056 -2.54017 8.11743 67 50 42 
-1.78981 -2.65676 8.4965 22 1 0 
-0.365289 -2.53671 8.11327 60 47 41 
-0.218748 -2.48409 8.01342 67 49 49 
3.27824 -3.82061 12.3222 215 201 175 
3.08511 -3.70538 12.0697 25 24 32 
3.04179 -3.68848 12.0968 147 135 139 
1.2039 -2.22887 7.39795 206 162 127 
3.56683 -3.71108 12.5725 7 14 22 
3.04856 -3.5708 12.1418 147 137 138 
2.91639 -3.5156 11.9658 153 141 143 
2.87145 -3.4984 11.9953 21 21 29 
3.39811 -3.65921 12.5945 207 189 169 
0.757183 -1.96426 7.01371 204 168 134 
-0.591818 -1.96602 7.34601 175 139 103 
-0.596211 -1.93413 7.32928 18 3 10 
-0.481839 -1.9093 7.26494 188 153 121 
-0.418652 -1.86407 7.15534 170 138 113 
3.09404 -2.91205 11.4546 63 63 51 
3.25365 -2.93175 11.5426 66 85 55 
0.182863 -1.6781 6.73987 194 177 170 
3.13659 -2.87258 11.5292 64 62 50 
0.507651 -2.00021 8.10495 121 117 116 
0.0267796 -1.6568 6.76385 29 23 23 
3.26867 -2.85506 11.5914 61 83 45 
2.84641 -2.72816 11.2066 36 52 41 
3.48478 -2.87203 11.8074 39 57 31 
3.95297 -3.01125 12.3829 167 124 107 
3.27929 -2.81259 11.6109 54 74 39 
3.76149 -2.78717 12.0818 108 127 81 
3.52851 -2.71519 11.8909 110 133 89 
2.28224 -2.10728 10.0177 5 9 18 
3.21956 -2.31142 11.0193 115 128 136 
2.42987 -2.05222 9.9548 141 136 133 
3.15436 -2.2526 10.9552 84 98 107 
1.2652 -1.85881 9.27977 99 87 89 
0.536257 -1.60389 8.27334 83 69 56 
-1.88452 -1.78235 9.35541 86 84 85 
0.534621 -1.53566 8.30148 78 59 45 
0.629758 -1.49226 8.24449 142 128 99 
1.27731 -1.57693 9.13424 63 65 44 
1.30307 -1.54263 9.04926 7 5 10 
0.885174 -1.50229 8.94892 183 177 161 
0.631468 -1.39833 8.46113 21 31 43 
0.90595 -1.47325 8.96485 197 184 168 
1.77458 -1.53668 9.60264 13 12 18 
0.611695 -1.31431 8.30211 15 20 26 
0.974464 -1.36038 9.0242 153 147 135 
1.00416 -1.34296 9.01253 37 41 44 
0.646196 -1.2294 8.31084 16 20 23 
-0.867696 -0.852805 7.58291 27 26 22 
2.63965 -1.42118 13.9067 12 6 18 
1.43209 0.0282358 8.66051 242 226 200 
1.49982 0.215719 8.7547 66 28 27 
1.57222 0.229448 8.84396 39 0 1 
1.50055 0.254665 8.7291 208 179 175 
1.14104 1.12634 8.7548 177 96 113 
1.1478 1.19492 8.78707 178 101 117 
1.09509 1.19875 8.79105 166 86 97 
-0.243389 1.14959 8.35094 128 38 63 
1.17757 1.2236 8.81721 161 87 100 
-0.305068 1.19274 8.2986 88 11 27 
1.15432 1.27095 8.83284 164 82 96 
-0.234722 1.21333 8.3046 49 37 37 
-0.342345 1.21768 8.27496 198 158 150 
1.17964 1.29386 8.82413 169 91 104 
-0.176668 1.24946 8.30824 88 71 81 
-0.306347 1.26178 8.27124 33 20 27 
-0.391691 1.27059 8.28793 174 133 131 
-0.15082 1.29861 8.27497 236 182 170 
-0.244057 1.37664 8.25525 117 38 44 
-0.409452 1.38171 8.17364 4 6 19 
1.1413 1.95323 9.09025 197 136 133 
1.17234 2.06273 9.15231 196 129 136 
0.272205 2.0574 9.04191 200 162 149 
0.467462 2.14181 9.3045 64 22 26 
0.312898 2.23991 9.17374 215 166 162 
0.556952 2.33915 9.42826 116 43 52 
0.423802 2.31266 9.2947 196 161 159 
0.184135 2.351 9.04765 205 153 155 
-0.338319 2.28325 8.54703 228 155 149 
-0.361774 2.32626 8.58676 58 11 31 
0.433071 2.55147 9.36261 197 115 121 
-0.224752 2.36375 8.65931 227 197 189 
0.0992907 2.4804 8.98364 221 170 175 
-0.271936 2.37724 8.60336 225 202 196 
0.694786 3.00294 9.73461 167 132 128 
0.733021 2.99557 9.70926 35 22 29 
3.14166 3.67214 11.0534 129 113 100 
3.09295 3.66469 10.926 237 215 191 
-0.329939 2.91419 8.50097 42 40 43 
3.42179 3.89268 10.8366 24 23 28 
2.30162 4.28244 11.6407 48 25 45 
2.2191 4.26639 11.4731 162 146 130 
3.25609 4.49319 11.257 57 48 49 
-1.71185 4.74247 10.1881 23 19 20 
2.03482 4.84921 10.2346 158 138 114 
1.70536 4.91341 10.036 219 198 171 
1.97816 4.99549 9.5936 164 142 121 
3.01592 5.0513 9.59702 171 149 126 
2.11777 5.03247 9.52572 145 128 102 
0.948528 5.00567 9.45622 211 193 169 
-0.253292 5.1296 8.98135 76 72 69 
0.92729 5.13159 8.95612 159 139 114 
2.99814 5.1878 9.05418 167 149 125 
2.62735 5.17667 9.00447 173 151 128 
2.02509 5.15695 8.93835 170 148 127 
1.16763 5.15815 8.92416 148 126 103 
1.64622 5.18297 8.92452 153 131 110 
2.02075 5.22939 8.85008 145 125 101 
2.58824 5.22135 8.8167 172 147 125 
2.5127 5.26961 8.77465 168 146 125 
1.8575 5.2229 8.67842 159 139 115 
2.63369 5.27386 8.64988 215 197 177 
2.52701 5.28236 8.49923 175 157 135 
2.81576 5.33277 8.56149 164 146 124 
1.92422 5.29538 8.43656 159 141 119 
1.54015 5.30326 8.3533 166 147 130 
1.37725 -5.0373 12.0679 73 63 54 
1.88222 -3.54834 9.4872 62 57 54 
1.99811 -3.54712 9.46786 67 58 49 
1.84272 -3.4185 9.26384 226 210 187 
1.87342 -3.34545 9.1489 51 58 51 
1.52339 -3.32167 9.15556 37 39 36 
-0.3833 -3.18566 8.92513 56 47 50 
2.16921 -2.8139 8.28029 89 60 28 
-0.55007 -2.96821 8.81521 43 44 46 
-0.577838 -2.90427 8.74496 181 177 178 
-0.544054 -2.7734 8.50179 39 45 45 
-2.18222 -2.85971 8.88919 63 46 36 
-0.47389 -2.66499 8.32297 218 208 196 
1.60213 -2.47369 7.75386 201 162 121 
1.92744 -2.60189 8.25459 184 171 163 
3.29031 -3.83414 12.3345 218 200 176 
2.91813 -3.62332 11.9229 156 140 140 
3.03624 -3.683 12.1067 146 134 136 
3.56124 -3.72618 12.5902 12 14 27 
2.92882 -3.52989 11.9837 155 140 143 
3.04468 -3.58071 12.1498 150 138 140 
2.86353 -3.51262 12.016 19 21 33 
3.11429 -3.55535 12.152 13 12 26 
-0.580108 -2.14896 7.56323 151 111 85 
1.09063 -2.08601 7.56771 30 15 12 
3.7011 -3.26418 12.0018 106 119 76 
-0.584183 -1.97634 7.3435 174 131 89 
-0.58608 -1.92141 7.30905 35 18 28 
-0.478597 -1.90373 7.23077 189 150 117 
3.60066 -3.05737 11.9612 56 74 50 
3.26359 -2.94187 11.5535 68 87 55 
0.350369 -1.68532 6.68891 6 3 14 
0.0926609 -1.63215 6.65081 229 212 204 
3.49016 -2.89154 11.8329 41 57 31 
3.75612 -2.8043 12.1006 107 135 76 
3.51886 -2.71748 11.8528 109 134 77 
1.70808 -2.03356 9.41191 165 167 146 
1.82899 -1.9599 9.37384 151 141 129 
3.22839 -2.30383 11.0502 114 127 135 
2.42188 -2.05981 9.98445 150 139 135 
2.01482 -1.90511 9.46305 117 112 92 
2.03229 -1.84065 9.41905 0 2 15 
0.342161 -1.60789 8.31475 2 0 16 
1.26078 -1.57501 9.08068 56 58 34 
1.30227 -1.49679 9.04526 86 72 45 
1.22459 -1.47526 9.05038 102 83 53 
1.68831 -1.56637 9.60212 3 6 21 
0.990521 -1.43621 9.00639 196 188 177 
0.662809 -1.32667 8.37589 202 190 176 
0.97044 -1.37151 9.02036 168 160 147 
0.880247 -1.26013 8.58908 29 25 24 
3.9305 -1.07655 13.6984 203 179 155 
1.31493 -0.623671 9.30414 102 93 84 
2.10582 0.000194348 9.36182 207 180 173 
1.2806 0.190817 8.91945 185 161 135 
1.50821 0.214399 8.80754 83 43 43 
1.48061 0.292368 8.8602 42 22 24 
1.39629 0.31052 8.85146 193 162 141 
2.59345 1.09069 10.8572 140 75 81 
0.893435 1.04581 9.14271 122 71 78 
1.80956 1.25907 9.32502 36 0 1 
-0.381427 1.23176 8.27586 102 22 49 
-0.182784 1.23837 8.30929 49 35 50 
-0.394035 1.27599 8.2791 167 134 127 
-0.149756 1.28619 8.29262 227 190 171 
-0.172923 1.33113 8.26923 124 10 36 
-0.314582 1.33921 8.26811 38 35 42 
-0.226938 1.34503 8.26025 227 190 172 
-0.290754 1.38897 8.24898 216 175 169 
0.621246 1.94195 9.52148 42 11 17 
0.644699 1.98377 9.49492 158 119 120 
0.271685 2.0655 9.09028 193 157 143 
0.461616 2.14864 9.34361 73 26 32 
-0.178974 2.15589 8.88586 116 100 101 
0.418346 2.32355 9.29345 206 165 163 
0.193511 2.30304 9.0437 177 80 89 
0.19164 2.35589 9.04161 205 155 158 
0.594386 2.49771 9.47636 104 57 63 
0.564793 2.54452 9.44198 191 136 133 
-0.357546 2.32041 8.52703 64 11 31 
0.424119 2.55053 9.34554 199 114 119 
0.109076 2.48287 9.01368 208 157 164 
0.743179 2.97745 9.80446 156 121 117 
-0.0626711 2.77954 8.90292 207 176 181 
0.610116 3.03888 9.66905 20 19 24 
-0.328629 2.83631 8.71575 51 15 27 
-0.131092 2.94892 8.88999 207 196 192 
3.14793 3.67792 11.1019 134 122 110 
3.11399 3.69549 10.9917 236 215 188 
2.43328 4.21994 11.7166 41 29 43 
3.44743 3.90628 10.8776 40 39 45 
2.29108 4.18359 11.5382 69 48 65 
3.4172 3.97052 10.8653 201 184 164 
2.31174 4.18882 11.3479 48 31 49 
2.33609 4.38435 11.5442 161 141 130 
1.84106 4.24469 10.9949 48 30 52 
1.83726 4.45542 10.9377 34 21 38 
0.381609 3.50552 7.91695 119 117 118 
2.46631 4.82614 10.3939 134 112 88 
-3.38507 4.56248 9.71245 26 28 41 
1.8788 5.0185 9.54312 153 131 107 
0.905442 5.00526 9.48369 121 111 102 
1.97384 0.407083 9.91242 72 29 38 
-0.282625 1.23281 8.28008 200 173 152 
-0.243493 1.38787 8.24856 113 20 39 
-0.306118 1.42849 8.24137 108 20 45 
3.54372 -6.94213 11.9948 33 35 48 
3.49484 -6.90275 12.0904 225 207 185 
2.46846 -7.26259 12.8957 66 70 79 
1.37432 -5.02449 12.0544 77 64 58 
2.76593 -3.60462 9.49736 244 224 199 
2.80097 -3.56719 9.41791 248 222 195 
1.89203 -3.54802 9.48111 59 56 49 
1.80696 -3.54975 9.49203 221 203 179 
1.98208 -3.34216 9.13127 61 61 51 
-0.383978 -3.19799 8.95779 37 28 29 
1.62666 -3.11829 8.81066 55 55 43 
3.3005 -3.84893 12.3431 217 197 173 
3.55642 -3.84096 12.596 9 18 25 
1.10346 -2.17639 7.32597 205 167 122 
3.55576 -3.74519 12.6164 8 15 31 
2.85215 -3.52203 12.018 17 23 37 
3.12722 -3.56438 12.1646 15 14 28 
3.428 -3.63194 12.6114 213 198 169 
1.00553 -2.09717 7.32281 40 25 30 
-0.564713 -2.13023 7.48471 154 113 83 
3.19056 -3.56222 12.4939 98 61 42 
-0.482714 -2.05118 7.33663 180 138 100 
0.845289 -1.99996 7.17296 48 38 47 
-0.271734 -1.94097 7.14763 32 20 8 
-0.576891 -1.99201 7.37606 171 125 89 
-0.0184116 -1.82944 6.88392 196 163 130 
-0.4895 -1.92918 7.27506 189 143 107 
0.0201447 -1.79508 6.84726 46 29 21 
-0.411163 -1.87404 7.19452 178 143 113 
0.0981585 -1.75534 6.76613 41 23 11 
-0.288916 -1.81751 7.07553 185 149 125 
0.177855 -1.71756 6.695 44 25 18 
3.05494 -2.89009 11.4102 87 88 82 
0.138418 -1.6825 6.75188 218 190 176 
2.84151 -2.76189 11.2136 28 43 38 
0.0395634 -1.63266 6.67505 21 17 16 
3.48754 -2.8988 11.8252 39 54 31 
3.04757 -2.78221 11.4121 97 94 87 
3.29256 -2.84358 11.6484 46 62 33 
0.868663 -1.97283 8.15903 203 226 240 
3.16502 -2.63419 11.47 116 142 77 
1.82394 -2.0079 9.34655 2 13 19 
1.74245 -1.95738 9.42165 20 17 28 
1.32409 -1.91986 9.34103 113 104 105 
2.4402 -1.96902 9.81973 7 10 27 
0.572923 -1.61775 8.25316 3 0 13 
0.677517 -1.58122 8.26097 5 8 25 
0.759609 -1.48671 8.5635 0 0 15 
0.643888 -1.43652 8.52024 19 34 57 
0.87399 -1.49327 8.96497 187 179 160 
0.950947 -1.48824 8.97942 4 6 18 
1.29013 -1.49311 9.0525 86 71 42 
1.23706 -1.47071 9.0458 94 77 47 
1.68179 -1.56742 9.62626 1 7 23 
0.665185 -1.31682 8.30223 200 188 174 
0.981661 -1.43071 9.01102 197 188 173 
0.635316 -1.26481 8.30925 0 3 14 
0.690809 -1.23298 8.31883 194 182 168 
0.225317 -1.00667 6.97879 5 8 25 
0.612195 -1.19492 8.32313 5 13 24 
2.61243 -1.39724 13.8756 19 7 31 
2.77805 -1.34917 13.9051 181 163 141 
1.55338 -0.333963 8.81864 233 216 186 
1.46053 -0.0728888 8.70078 236 220 187 
1.33455 -0.0268972 8.77694 217 194 162 
1.46976 0.0673611 8.67173 242 226 200 
2.14488 0.0911104 9.35927 72 60 60 
2.1396 0.117128 9.36444 74 54 55 
1.27917 0.198285 8.92601 193 167 142 
1.4001 0.253779 8.81116 55 38 46 
1.38266 0.306978 8.84109 195 169 146 
1.86045 0.569281 9.37812 154 89 97 
0.73553 0.603832 9.24228 115 83 88 
2.57601 1.10027 10.7605 152 87 95 
-0.214089 1.17237 8.35841 230 197 178 
-0.333081 1.22582 8.28781 213 182 161 
-0.152324 1.28224 8.30706 224 189 167 
-0.327008 1.39206 8.29435 171 141 130 
0.617765 1.95784 9.61183 40 9 15 
0.635908 1.99855 9.51216 158 120 119 
1.83349 2.05701 9.76641 200 127 134 
1.08683 1.98155 9.11575 30 0 4 
1.87129 2.10804 9.70414 60 6 20 
1.11106 2.0296 9.16697 29 4 7 
1.12179 2.0641 9.16112 44 5 10 
0.550121 2.31949 9.43576 125 44 53 
-0.0733739 2.18832 8.79188 208 171 155 
-0.36105 2.10092 8.37679 9 8 22 
0.538134 2.40481 9.42611 178 126 115 
-0.242301 2.23012 8.72726 103 7 35 
0.610557 2.42893 9.44097 107 58 61 
0.196107 2.36455 9.0373 202 152 153 
0.602679 2.48739 9.4632 99 54 59 
-0.348711 2.3231 8.50175 81 27 43 
0.700843 2.64803 9.68966 171 126 123 
0.284828 2.61425 9.20168 206 175 173 
0.304147 2.74384 9.27454 204 175 171 
0.0317264 2.77553 8.98293 193 89 100 
0.658022 2.99924 9.70247 178 129 124 
0.127346 2.8618 9.15527 201 100 116 
-0.327363 2.79765 8.62175 54 10 27 
3.13929 3.65867 11.0752 152 140 128 
-0.0863995 2.96073 8.91344 66 25 41 
-0.321383 2.93533 8.49577 48 47 52 
2.63978 4.29896 11.9319 104 95 88 
2.44368 4.24673 11.7214 51 38 55 
2.28628 4.20578 11.4808 58 36 57 
3.42283 3.98381 10.8742 190 175 156 
2.33438 4.35658 11.5682 161 143 129 
1.83265 4.25406 11.0098 47 32 51 
3.31974 4.6225 11.5663 74 69 66 
1.92831 4.44656 10.9996 175 158 142 
-0.234904 5.13219 8.92144 173 157 141 
-2.15878 -2.84757 8.90504 66 51 44 
-0.552246 -2.19868 7.68944 152 113 80 
-0.0977086 -1.85286 6.96213 53 33 24 
-0.484677 -1.9132 7.24625 190 147 113 
3.08256 -2.86222 11.501 74 72 73 
2.82244 -2.77143 11.2532 61 78 62 
3.18253 -2.66954 11.4841 114 143 79 
1.26419 -1.49323 9.05776 89 67 43 
1.65814 -1.56898 9.62916 0 7 23 
0.149663 -1.10397 6.95492 133 137 138 
0.965894 -1.41443 9.0111 197 185 173 
1.07144 -1.38927 9.03464 0 2 16 
0.703391 -1.25448 8.31275 201 189 173 
1.55274 -0.317444 8.83184 236 216 181 
2.0765 0.00814401 9.34826 205 180 173 
2.15767 0.0737552 9.32461 75 64 62 
1.47405 0.16202 8.64903 129 89 89 
1.16096 0.31219 8.83158 211 186 155 
1.83591 0.581131 9.36683 170 105 111 
1.07554 0.573525 8.943 119 73 73 
-0.406601 1.19833 8.22953 83 9 36 
-0.397412 1.35346 8.19349 8 12 24 
1.81028 2.09197 9.83699 188 117 125 
-0.0674116 2.17789 8.7858 209 173 157 
0.418647 2.36856 9.28019 189 138 137 
-0.272701 2.38029 8.58262 223 198 193 
0.292285 2.65312 9.24959 205 174 172 
-0.334058 2.77832 8.606 55 10 30 
-0.308308 2.96377 8.50203 50 49 54 
2.29853 4.35042 11.5236 164 145 128 
1.82815 4.28081 11.045 43 29 44 
3.08138 4.44102 11.4619 34 31 38 
3.24184 4.54232 11.4242 36 34 35 
2.98731 -3.60326 12.0668 149 143 145 
3.44779 -3.63023 12.6204 213 196 166 
-0.848637 -0.784481 7.61234 109 108 106 
-0.22337 1.17256 8.35168 191 147 134 
2.44149 -7.32213 12.9462 63 65 77 
2.60473 -7.16035 12.9359 202 186 173 
1.59432 -3.69706 9.75072 37 37 37 
1.93244 -3.35556 9.15901 58 64 60 
-1.42801 -2.62727 7.56067 181 165 149 
1.22874 -2.90273 8.49843 52 53 47 
-0.321221 -3.00715 8.88333 216 202 189 
3.16276 -3.61584 12.063 30 27 44 
-0.376947 -2.06155 7.2781 194 149 110 
-2.13464 -2.44235 9.41665 78 76 81 
-0.107239 -1.73366 6.87833 209 185 173 
2.20953 -2.15334 9.95999 0 7 18 
0.848976 -1.478 8.98294 192 179 163 
0.939994 -1.41452 9.02869 195 183 169 
0.70517 -1.27959 8.28753 200 191 174 
0.787228 -1.21207 8.40051 32 33 35 
2.62227 -1.33419 13.9262 5 1 28 
1.55297 -0.301783 8.83523 234 212 175 
2.05225 0.0101596 9.33398 201 181 174 
1.49922 0.0504391 8.64516 240 225 196 
1.2444 0.0904507 8.79801 97 82 75 
1.51609 0.209955 8.70932 143 101 102 
1.26249 0.232631 8.88987 202 178 152 
1.07121 0.591724 8.93724 164 121 114 
-1.9195 0.982016 9.97137 151 134 118 
-0.332705 1.21924 8.25408 212 176 160 
-0.278131 1.36827 8.26544 203 171 156 
0.489809 2.05875 9.31925 163 105 103 
1.1099 2.03361 9.19749 24 0 2 
-0.329797 2.04487 8.33315 0 10 22 
0.637199 2.32271 9.49452 147 98 94 
-0.0756026 2.17657 8.80976 193 167 152 
0.729616 2.52775 9.70256 62 30 41 
-0.263208 2.34463 8.55247 236 190 190 
-0.338186 2.48388 8.5748 93 32 50 
0.682184 2.95452 9.77817 188 140 136 
0.844525 2.97202 9.80021 21 10 16 
0.101856 2.98109 9.18367 199 134 142 
-2.1224 4.124 11.6496 127 112 93 
2.29367 4.40977 11.6353 164 147 127 
3.06742 4.44329 11.4911 35 34 40 
1.80532 4.49286 11.0672 48 35 52 
-2.74127 4.28081 10.1225 20 22 34 
-2.74946 4.61002 10.4345 97 87 77 
-0.314297 -2.92473 8.77461 221 203 191 
-2.10891 -2.81216 8.89131 132 108 96 
-0.136544 -2.62614 8.25293 49 49 47 
1.1252 -1.36198 8.99936 10 13 22 
0.551324 -1.18717 8.29374 1 4 19 
1.3537 -0.525266 9.48065 122 110 98 
1.55363 -0.273412 8.83262 232 209 178 
1.2424 0.286273 8.83857 211 186 156 
1.22115 0.586825 8.92812 119 77 87 
