ply                 
format ascii 1.0    
element vertex 1327
property float x    
property float y    
property float z    
property uchar red  
property uchar green
property uchar blue 
end_header          
1.92786 -2.68431 8.15713 25 14 18 
1.63964 -2.50544 7.76916 40 13 2 
1.60749 -2.47775 7.74279 160 146 120 
1.52388 -2.44339 7.69631 44 18 0 
1.4345 -2.37612 7.60569 159 141 131 
1.38008 -2.35779 7.57454 40 11 0 
1.1824 -2.19414 7.67761 21 6 9 
0.772767 -1.99115 7.05203 43 14 0 
0.740706 -1.97511 7.02751 37 16 0 
0.302661 -1.70295 6.63196 139 117 93 
3.92887 -3.05227 12.1295 161 140 135 
0.140727 -1.65588 6.67727 35 21 12 
0.13403 -1.64352 6.67668 111 101 99 
0.913068 -2.03188 8.27394 207 230 238 
0.113404 -1.62811 6.65622 113 102 108 
1.8204 -2.02289 9.40262 34 34 22 
0.642179 -1.37579 8.4175 76 65 59 
2.62707 -1.45308 13.855 20 4 7 
1.55599 0.217872 8.81191 35 0 0 
2.20102 0.677801 9.58586 178 104 119 
1.40143 0.714952 9.04809 64 6 18 
1.90497 0.861762 9.30687 142 81 88 
2.67836 1.06355 11.1754 200 136 136 
2.59554 1.05051 10.8125 65 0 1 
1.21131 0.938768 8.72585 187 103 119 
1.21102 0.948579 8.72014 161 84 104 
1.18446 0.95716 8.72696 63 10 28 
1.08548 0.993612 8.73101 133 64 83 
1.08873 1.03322 8.75471 47 7 16 
1.13851 1.0323 8.74864 64 17 33 
1.85288 1.11845 9.35307 174 113 128 
1.19329 1.0572 8.75663 160 80 105 
1.09007 1.06481 8.76146 140 73 91 
1.16621 1.06562 8.76816 52 8 23 
1.78453 1.13306 9.32238 56 3 9 
1.15239 1.09269 8.77279 79 24 43 
1.0449 1.11967 8.79257 147 89 104 
2.00201 1.24861 9.78847 87 22 26 
1.07251 1.13957 8.81377 51 10 24 
1.12246 1.1408 8.81148 54 4 15 
1.10508 1.16674 8.80786 42 0 11 
1.86154 1.35922 10.2043 191 119 133 
1.6458 1.24194 9.2181 191 120 138 
1.02978 1.19835 8.8291 24 2 5 
1.10732 1.20626 8.81115 170 102 115 
1.6692 1.3831 10.0335 182 111 125 
1.16206 1.23393 8.84982 64 14 26 
-0.260985 1.16781 8.35745 229 171 169 
-0.209194 1.18108 8.3944 215 197 183 
1.66765 1.30824 9.26819 77 6 20 
1.5076 1.28689 9.09859 68 0 13 
1.64372 1.31148 9.23764 175 104 118 
1.20754 1.25799 8.85337 198 116 128 
1.28026 1.27997 8.8919 198 121 139 
1.08095 1.28235 8.8731 53 0 13 
1.08239 1.29748 8.86888 157 86 100 
-0.154692 1.23491 8.3785 180 120 128 
1.08267 1.31059 8.86714 142 79 90 
1.25742 1.32075 8.89324 186 110 123 
1.64931 1.51096 10.1038 180 105 125 
1.21026 1.32815 8.88042 192 111 130 
-0.161903 1.25654 8.33739 219 191 170 
0.980156 1.36552 8.94026 40 2 13 
1.2094 1.37653 8.90915 59 2 17 
0.716087 1.44123 9.22344 44 3 17 
1.02217 1.39666 8.93909 130 78 91 
0.880567 1.44652 9.07235 41 1 10 
1.00246 1.42787 8.96065 118 68 80 
0.925395 1.4567 9.04957 53 2 17 
1.02966 1.45028 8.97544 51 5 15 
1.73276 1.54846 9.43006 68 1 18 
1.881 1.64606 9.78911 145 86 92 
0.99059 1.5341 9.0193 101 59 73 
-0.386872 1.42059 8.28187 167 138 143 
1.07765 1.54925 8.98511 150 83 100 
1.26545 1.66545 9.47038 174 91 107 
1.38973 1.6218 9.15908 81 9 21 
1.31874 1.66371 9.08819 196 120 133 
1.04364 1.68843 9.05328 130 84 95 
0.936079 1.85805 9.23324 27 0 9 
1.00295 1.93353 9.19903 107 63 76 
0.690153 2.04318 9.56137 43 0 1 
1.22867 1.96191 9.16051 145 69 82 
1.91094 2.11136 9.76648 172 113 131 
1.06682 1.98357 9.18194 134 83 92 
1.09258 2.00069 9.18413 27 0 2 
1.05646 2.0684 9.23516 27 0 0 
1.11808 2.0633 9.20199 136 84 96 
1.11815 2.07909 9.20531 123 71 83 
1.09925 2.10008 9.22806 134 83 90 
1.35847 2.18622 9.32264 195 114 133 
1.10575 2.17336 9.25585 143 83 93 
0.330384 2.1734 9.24112 123 50 59 
1.27273 2.20503 9.27478 185 121 135 
1.15755 2.24997 9.2768 144 87 104 
0.313024 2.25791 9.21365 225 161 161 
-0.328393 2.28707 8.63712 250 133 149 
1.2097 2.58721 9.42199 159 98 114 
-0.255125 2.38836 8.68974 168 129 122 
1.32773 2.61703 9.45906 179 106 126 
1.14155 2.83582 10.1548 40 4 16 
1.3968 2.71923 9.53997 190 102 127 
1.31431 2.73488 9.49897 177 102 122 
1.32116 2.81716 9.54802 176 102 119 
2.64335 5.20013 9.3054 118 96 75 
1.6592 5.36629 8.5764 148 131 105 
3.51526 -6.86592 11.8046 27 29 44 
3.49563 -6.86208 11.8472 225 207 195 
3.01338 -7.10376 12.3806 40 32 30 
1.8768 -4.59449 11.1767 157 143 140 
0.390686 -3.94484 10.207 55 44 42 
1.52165 -3.73758 9.75372 41 40 38 
1.86686 -3.56292 9.42562 64 51 43 
3.17181 -3.42046 9.09721 96 75 58 
2.98899 -3.30088 8.8861 110 82 60 
1.63939 -3.25504 9.0555 65 52 43 
2.5946 -3.07449 8.58352 133 109 85 
1.50813 -3.1501 8.81146 57 50 42 
1.31239 -3.13096 8.80372 49 40 35 
2.47945 -3.0098 8.49712 141 115 92 
2.164 -2.83351 8.26568 115 90 70 
-0.567624 -2.79872 8.49414 27 31 30 
-2.20926 -2.89025 8.88478 44 24 13 
-2.21084 -2.85328 8.83892 188 170 150 
-0.504361 -2.70345 8.38565 216 207 198 
1.71913 -2.55624 7.95981 25 16 21 
-2.18087 -2.81022 8.82473 32 17 10 
-0.348525 -2.58656 8.1238 222 209 193 
-0.519903 -2.61829 8.23867 207 201 187 
-0.397196 -2.55022 8.0915 215 206 189 
1.46718 -2.40674 7.64886 34 10 0 
1.82896 -2.5765 8.22371 35 24 30 
1.34536 -2.32578 7.51612 36 10 0 
1.70951 -2.51962 8.13379 27 15 15 
1.6297 -2.47543 8.06664 41 27 27 
-0.557474 -2.38662 7.86763 224 205 190 
1.05343 -2.1496 7.26306 46 19 2 
3.79393 -3.68263 12.7513 38 22 32 
3.75095 -3.67986 12.7558 215 192 176 
-0.47298 -2.01826 7.31588 8 0 7 
-0.608291 -1.99149 7.36436 176 142 107 
-0.61 -1.95517 7.31181 17 5 7 
3.90913 -3.19362 12.0871 154 150 149 
3.92186 -3.16317 12.1208 139 133 133 
3.60922 -3.05974 11.8184 52 72 44 
0.286009 -1.70571 6.62784 222 200 179 
0.235601 -1.71007 6.65161 50 33 25 
3.92569 -3.0934 12.1372 144 131 125 
0.182703 -1.69359 6.71753 182 166 167 
-0.0198535 -1.67748 6.72427 31 26 23 
0.185288 -1.67313 6.71128 23 14 17 
0.120884 -1.6573 6.65591 218 198 187 
0.0866436 -1.6478 6.64868 227 213 204 
0.55586 -1.97224 7.97028 29 27 32 
3.13176 -2.82879 11.4066 151 151 143 
1.31917 -1.94223 9.32692 135 123 125 
3.32211 -2.30478 11.043 95 110 117 
1.27716 -1.91789 9.30884 37 32 38 
3.04014 -2.22244 10.7816 117 136 143 
0.520549 -1.61519 7.89888 81 76 82 
0.745812 -1.71665 8.54975 109 102 96 
0.693438 -1.6688 8.3672 112 103 94 
0.620591 -1.62283 8.21576 133 122 102 
-1.87824 -1.79361 9.30764 80 80 80 
1.3614 -1.75611 9.23969 76 75 89 
0.853651 -1.66087 8.76722 76 74 75 
0.71086 -1.49508 8.51675 106 90 90 
1.3078 -1.56409 9.03618 6 6 8 
0.888092 -1.53432 8.98032 176 170 156 
1.32428 -1.51978 9.03493 79 69 57 
0.915267 -1.4933 8.965 204 191 175 
0.609236 -1.36681 8.32149 152 151 147 
1.21955 -1.48261 9.01572 98 84 58 
1.00395 -1.46577 8.99058 197 193 182 
0.642001 -1.33901 8.31141 206 193 185 
0.979591 -1.37659 9.01673 148 144 132 
1.00575 -1.36799 9.0365 32 36 37 
-1.14442 -0.935134 7.8886 158 155 148 
2.57746 -1.42112 13.6942 13 0 3 
3.64243 -1.00543 12.8364 31 29 32 
1.56315 -0.361481 8.79902 236 227 198 
1.49583 0.290849 8.89665 46 14 15 
1.26701 0.502093 8.96602 123 55 68 
1.1316 0.540556 9.03051 177 129 129 
1.19977 0.599237 9.02997 75 45 53 
1.22711 0.632104 9.04174 57 27 35 
1.05639 0.9169 8.71542 31 3 15 
1.13342 0.951942 8.70254 53 10 30 
1.25994 0.968017 8.74563 70 13 32 
1.08486 0.980925 8.72472 173 98 118 
-2.11877 1.07607 9.51712 31 26 30 
1.10989 0.987673 8.7238 49 13 27 
-2.17729 1.10216 9.45263 20 15 11 
1.24244 1.04182 8.77495 190 105 126 
1.25988 1.10546 9.24437 188 104 127 
1.14113 1.0517 8.75226 189 108 125 
1.24451 1.07996 8.78581 75 18 35 
1.11881 1.09097 8.78631 159 85 98 
1.31476 1.10015 8.83379 67 5 20 
2.04979 1.30629 10.3456 180 121 123 
1.09451 1.12262 8.78657 174 97 115 
1.06812 1.13045 8.79697 51 9 23 
1.11871 1.13293 8.79561 57 5 17 
1.17523 1.14656 8.8022 162 88 103 
1.20057 1.15801 8.80456 62 19 29 
1.09632 1.16211 8.79926 46 5 19 
1.06875 1.17407 8.81033 120 59 74 
1.17985 1.18955 8.81392 65 19 32 
1.129 1.20025 8.8272 57 6 23 
1.18495 1.22061 8.8387 164 92 103 
1.10208 1.23457 8.83337 55 14 30 
-0.185261 1.18723 8.37747 43 20 30 
1.89998 1.40719 9.86798 166 103 112 
-0.272025 1.21296 8.34124 222 200 179 
1.01282 1.29871 8.90143 42 2 13 
1.18468 1.28844 8.82795 171 99 110 
1.13222 1.29555 8.85668 158 84 97 
1.1064 1.30578 8.86326 66 19 29 
-0.38328 1.23993 8.31185 84 15 34 
0.992514 1.32832 8.91482 40 2 13 
-0.261521 1.25235 8.32555 36 27 32 
1.18486 1.33485 8.87937 61 10 27 
1.08502 1.33985 8.88792 49 15 29 
-0.15508 1.26124 8.36579 229 190 173 
1.1343 1.33923 8.87622 54 17 34 
-0.202854 1.27109 8.33347 216 193 179 
-0.395662 1.27094 8.31992 188 147 143 
1.08718 1.36734 8.89368 162 93 112 
1.13692 1.36971 8.89286 182 107 127 
-0.143028 1.28574 8.35269 240 188 175 
1.06383 1.37489 8.90633 43 10 21 
1.11189 1.37504 8.89268 54 20 36 
1.16215 1.3749 8.89907 54 14 25 
-0.226103 1.29164 8.32155 222 200 189 
-0.417328 1.29785 8.31868 169 145 145 
-0.391602 1.31223 8.32009 20 14 16 
1.04333 1.40839 8.9274 40 7 14 
-0.210201 1.31734 8.31324 228 192 180 
-0.265612 1.32585 8.29838 217 195 184 
1.2332 1.52818 9.43011 56 14 28 
-0.290159 1.35381 8.30586 204 180 170 
-0.429919 1.34792 8.23847 5 7 19 
-0.331397 1.37393 8.31035 186 168 158 
-0.280072 1.37068 8.29978 209 171 158 
-0.360515 1.38436 8.31195 185 167 163 
0.0131274 1.41 8.36911 138 35 65 
1.03043 1.51586 8.98767 45 10 17 
-0.344804 1.41036 8.29956 190 155 153 
-0.402334 1.42237 8.3245 144 129 126 
-0.320821 1.41445 8.29211 110 55 61 
1.83748 1.63957 9.56466 200 145 151 
-0.410431 1.45972 8.32519 179 148 143 
-0.384589 1.47184 8.3338 77 12 34 
1.10347 1.58695 8.9875 163 95 106 
1.08065 1.59463 9.00166 53 12 30 
1.19112 1.68563 9.48518 62 19 36 
-0.420444 1.49839 8.32395 160 132 129 
1.12957 1.6229 8.9956 166 88 102 
1.27626 1.64989 9.05664 74 8 18 
1.13618 1.69557 9.02467 163 95 106 
1.1111 1.70187 9.03552 76 41 48 
1.04537 1.73333 9.06956 80 33 41 
0.988225 1.76056 9.12857 46 15 23 
0.972324 1.79481 9.1653 34 3 8 
-2.24172 1.93233 9.59805 9 9 19 
1.19407 1.852 9.0981 132 56 68 
0.633337 1.95161 9.539 51 20 26 
1.098 1.8949 9.14501 197 144 140 
1.14907 1.88954 9.1234 219 171 167 
0.659943 1.9784 9.53672 161 122 123 
1.12378 1.893 9.12331 125 55 57 
1.04098 1.91599 9.15871 50 9 17 
1.17726 1.92663 9.1533 255 216 209 
1.124 1.92828 9.13632 197 137 136 
1.15058 1.92903 9.13073 138 63 68 
1.02267 1.948 9.19062 29 0 6 
1.27414 1.95417 9.17732 149 71 84 
1.20382 1.95904 9.15246 225 169 170 
1.04539 1.98763 9.1893 22 0 0 
1.22828 1.98961 9.16385 221 156 164 
1.13602 1.99933 9.17097 88 32 35 
1.20509 1.99691 9.15936 135 60 65 
1.20892 2.03316 9.18793 202 136 140 
1.23319 2.03431 9.19484 147 65 79 
1.23501 2.06805 9.20669 225 155 163 
1.1406 2.06942 9.19212 61 16 21 
1.18211 2.07103 9.19234 200 130 138 
1.20996 2.07338 9.19799 144 62 74 
1.1217 2.10711 9.21502 34 0 0 
1.16964 2.10615 9.20145 78 23 26 
0.475282 2.16371 9.37639 68 23 30 
1.14831 2.14558 9.22969 72 30 34 
0.356218 2.17922 9.25827 197 145 149 
0.308778 2.18049 9.20827 201 153 153 
1.24956 2.21551 9.27495 66 40 43 
1.10791 2.21585 9.27174 53 30 36 
1.09054 2.25359 9.30293 28 5 11 
0.361542 2.25118 9.27969 207 156 153 
1.13401 2.25587 9.28325 37 14 22 
1.18087 2.25619 9.27697 47 11 21 
0.556362 2.31316 9.4894 102 26 36 
0.454269 2.3089 9.39234 48 8 19 
1.18438 2.28766 9.29087 147 83 99 
1.16036 2.29398 9.29351 28 0 5 
1.20934 2.29481 9.29719 28 0 14 
1.32637 2.31638 9.34382 46 0 9 
0.429548 2.32866 9.37372 186 152 150 
0.56066 2.36087 9.49556 117 42 49 
1.14058 2.3318 9.31807 22 3 9 
1.18717 2.33169 9.30978 45 21 34 
-0.0908429 2.21637 8.85139 234 190 177 
-0.12049 2.21707 8.82862 113 32 38 
1.26125 2.35971 9.32032 48 10 23 
0.402174 2.42064 9.33434 207 156 153 
3.74771 2.99058 11.2071 11 5 5 
1.20267 2.51377 9.39054 145 78 96 
0.728719 2.64756 9.75724 163 121 131 
-0.233566 2.3826 8.72932 227 197 187 
1.23293 2.59616 9.42684 25 0 1 
-0.279806 2.38885 8.67764 231 197 195 
-0.29014 2.40513 8.66234 226 193 188 
1.25915 2.63153 9.4407 22 2 4 
1.30079 2.89564 9.54375 107 22 41 
1.30541 2.93552 9.58052 172 77 97 
0.704017 3.05455 9.8749 168 135 130 
-0.0858316 2.80394 8.96472 215 183 184 
0.620004 3.05876 9.74697 20 5 12 
-0.110994 2.95321 8.99078 65 27 40 
-0.129768 2.96288 8.95242 201 185 188 
0.114601 3.09235 9.25311 203 131 143 
-0.0453998 3.06859 9.07786 122 73 77 
-0.0219711 3.08158 9.09724 188 162 161 
2.19835 4.31287 11.4944 98 81 73 
-2.52627 4.42485 11.1749 25 19 31 
-1.70842 4.8199 10.1445 12 10 11 
2.00806 4.94498 10.1675 154 132 108 
1.73027 4.98231 10.1434 220 198 174 
2.68648 5.03311 10.0199 152 130 106 
1.90258 5.07004 9.62352 148 126 102 
2.14465 5.10124 9.61391 140 122 98 
0.0437671 5.09396 9.31253 96 82 69 
-0.800262 5.12919 9.30645 160 147 130 
2.43548 5.19785 9.35814 143 123 99 
2.42317 5.20778 9.28566 151 133 109 
1.83072 5.20638 9.15985 149 128 101 
2.758 5.23214 9.17942 165 145 121 
-0.2353 5.21231 9.09785 157 147 137 
-0.267309 5.21653 9.10064 76 72 69 
2.42893 5.25157 9.13307 158 136 115 
-0.3094 5.23239 9.06589 73 66 58 
2.66326 5.25386 9.10466 164 142 119 
0.691185 5.21944 9.01407 152 130 107 
1.18026 5.23919 9.03261 145 123 100 
1.25709 5.24847 8.95548 152 130 109 
0.466184 5.23118 8.8963 123 104 90 
0.0709128 5.22048 8.84386 127 111 95 
3.03202 5.31254 8.98212 143 125 103 
2.05547 5.33027 8.98765 142 122 98 
1.07737 5.2696 8.85457 141 123 99 
1.98762 5.3208 8.81581 219 201 177 
0.896379 5.29927 8.7502 134 116 92 
1.2768 5.30492 8.75277 164 142 119 
1.96992 5.319 8.77106 162 144 122 
0.918112 5.3191 8.67561 140 121 106 
2.18757 5.33741 8.6905 137 119 97 
2.44256 5.35124 8.67542 155 133 112 
1.47864 5.34287 8.61704 148 126 103 
0.0608293 5.29637 8.51887 164 146 124 
1.76067 5.35821 8.56691 140 122 102 
2.0225 5.37532 8.56196 160 142 118 
1.72511 5.37301 8.52978 141 123 103 
1.61334 5.38109 8.51083 157 140 114 
0.801328 5.34485 8.43199 161 139 116 
2.09088 5.39213 8.50739 155 137 115 
1.56154 5.41958 8.5052 164 146 126 
-0.236027 5.34636 8.38641 160 142 118 
1.75544 5.40691 8.45759 138 120 96 
1.29062 5.39628 8.38416 153 135 113 
0.857725 5.39584 8.33402 169 147 126 
-0.170048 5.37298 8.29023 155 135 110 
0.00463139 5.38715 8.28593 139 117 94 
1.95381 -3.53706 9.37557 50 50 40 
1.58739 -3.12437 8.76885 63 54 49 
0.191344 -1.70536 6.6902 28 19 24 
0.576718 -1.96546 7.98212 170 185 204 
0.864049 -1.53737 8.91955 152 148 139 
-0.223635 1.15196 8.41043 218 163 158 
-0.362047 1.22337 8.32905 222 177 174 
-1.75239 4.90718 10.3152 15 13 18 
2.83579 -3.6047 9.36922 253 228 197 
0.469009 -3.85 10.0547 38 38 38 
1.22989 -3.72744 9.78396 38 35 42 
2.01239 -3.56166 9.40085 72 60 46 
1.87357 -3.56753 9.43733 62 51 45 
3.16495 -3.41126 9.07001 87 68 51 
1.51684 -3.53262 9.41409 37 39 38 
0.0741276 -3.62679 9.7105 156 148 146 
3.15093 -3.39545 9.09785 250 234 209 
2.99585 -3.30761 8.90491 110 82 60 
2.00974 -3.37197 9.10298 85 75 66 
1.95476 -3.37957 9.14489 51 61 53 
-0.272016 -3.41329 9.42644 162 154 152 
2.60083 -3.0777 8.60554 101 81 57 
2.35567 -2.94257 8.40451 93 73 48 
-0.570485 -3.18185 9.11062 37 37 39 
2.23333 -2.8529 8.24322 160 134 107 
2.14277 -2.78001 8.08962 159 131 107 
0.911808 -2.95835 8.61259 41 43 40 
2.17484 -2.84892 8.30112 97 70 49 
2.16938 -2.81319 8.27816 246 228 218 
2.16764 -2.8574 8.4451 212 198 189 
-0.479588 -2.7641 8.4226 42 44 43 
-2.20012 -2.88204 8.85892 56 36 25 
-2.18831 -2.90921 8.99901 66 51 48 
1.80852 -2.59032 8.01324 54 49 46 
-2.21532 -2.85249 8.84331 190 172 150 
-0.531042 -2.65118 8.24061 49 45 46 
1.76765 -2.57199 7.99269 45 37 35 
-0.540731 -2.65029 8.27036 46 41 45 
-2.18299 -2.81332 8.83466 32 17 10 
-0.461254 -2.60571 8.18974 46 41 38 
0.612297 -2.50089 7.8695 67 62 58 
-0.519575 -2.61122 8.23277 214 205 190 
-0.327315 -2.56568 8.11119 75 56 49 
-1.79053 -2.66842 8.44834 25 0 0 
-0.371936 -2.55842 8.09578 62 50 36 
0.576025 -2.4666 7.82009 55 54 52 
-0.225396 -2.50614 7.99809 49 31 27 
0.127054 -2.46029 7.87754 53 58 51 
1.83184 -2.56953 8.2187 46 34 38 
1.6298 -2.47687 8.07003 41 27 27 
1.20228 -2.25488 7.39823 208 166 128 
-0.549652 -2.37538 7.82481 218 201 183 
3.57465 -3.72089 12.4571 7 16 25 
3.7936 -3.68066 12.7305 31 25 35 
3.74663 -3.68352 12.7542 210 189 168 
3.42033 -3.60519 12.5094 216 192 166 
0.751027 -1.99169 7.03003 203 171 133 
3.75567 -3.44292 12.1441 136 80 91 
-0.465909 -2.00817 7.28045 14 4 13 
-0.603496 -1.98651 7.34014 175 140 102 
-0.608252 -1.95485 7.32485 17 4 11 
-0.489241 -1.92434 7.23893 189 154 122 
-0.431552 -1.88595 7.15754 171 137 112 
0.285509 -1.70727 6.62668 223 199 175 
3.62082 -3.07146 11.8687 54 74 46 
3.26403 -2.94871 11.4618 67 86 56 
3.92323 -3.0849 12.1492 152 133 129 
0.173131 -1.6976 6.73558 192 174 172 
0.504064 -2.02467 8.10662 121 119 120 
0.121265 -1.6568 6.65214 218 198 187 
0.0844638 -1.65029 6.6538 223 209 200 
0.601541 -1.97417 7.9741 16 20 29 
3.49412 -2.88606 11.7146 39 57 31 
3.96166 -3.02424 12.2764 171 125 109 
3.64245 -2.92778 11.9132 70 94 46 
0.592819 -1.93843 7.98789 144 162 174 
3.7753 -2.80591 12.0025 109 132 86 
3.55159 -2.74341 11.8582 109 132 88 
3.81158 -2.77448 11.9826 13 13 23 
1.82249 -2.03383 9.38624 5 16 18 
2.28973 -2.12576 9.96314 2 7 11 
3.23262 -2.33056 10.9607 112 125 133 
3.23465 -2.29039 10.9436 88 101 109 
1.32221 -1.94468 9.33506 135 123 125 
3.16938 -2.27462 10.9086 83 96 105 
0.620728 -1.61948 8.21805 136 125 105 
-1.89156 -1.80139 9.33628 85 83 84 
-2.12684 -1.83563 9.60513 153 138 117 
0.852816 -1.66456 8.77074 77 71 71 
0.532737 -1.55561 8.29414 78 61 45 
0.627975 -1.5132 8.24387 133 119 90 
0.0797054 -1.23144 6.99887 103 107 118 
1.2829 -1.59979 9.13475 61 63 42 
1.30861 -1.56573 9.0517 9 7 12 
0.886947 -1.5318 8.97988 177 170 154 
0.629849 -1.42205 8.48025 18 31 39 
1.3199 -1.51913 9.03657 80 71 54 
0.908521 -1.49328 8.95256 200 187 170 
1.22233 -1.48767 9.02374 98 83 52 
1.00115 -1.4636 8.99427 190 186 175 
1.78364 -1.55803 9.58615 15 14 20 
0.609789 -1.3359 8.3068 16 22 20 
0.977536 -1.38015 9.00803 157 151 137 
1.00768 -1.36483 9.0176 34 38 41 
0.671272 -1.23156 8.32372 182 173 166 
-2.32372 -1.16536 9.49904 72 71 69 
-1.14081 -0.932272 7.87587 158 151 143 
-1.13109 -0.851099 7.90347 164 161 146 
2.509 -1.29892 13.6276 15 6 23 
3.62086 -0.997239 12.7766 31 30 35 
1.4389 0.0176746 8.66916 250 234 208 
1.34117 0.0735293 8.77499 228 203 173 
1.396 0.096149 8.78672 86 63 49 
2.11338 0.108295 9.30379 71 63 60 
1.59353 0.224601 9.02604 40 0 1 
1.57951 0.218056 8.83702 42 3 4 
1.51646 0.24623 8.86908 205 175 173 
1.22149 0.555244 8.98042 60 34 43 
1.13316 0.855297 8.75017 145 65 76 
-1.94759 1.00788 9.62269 39 37 40 
1.22986 1.14375 8.79995 185 100 119 
1.06962 1.17072 8.812 120 51 69 
1.15416 1.19393 8.81885 181 105 117 
-0.253762 1.1512 8.39458 127 39 61 
1.1844 1.22307 8.85031 163 87 97 
-0.210057 1.16671 8.3891 218 181 175 
-0.272505 1.17152 8.37333 214 160 150 
-0.31581 1.19393 8.33864 85 8 24 
1.10477 1.27163 8.86099 125 62 73 
1.16114 1.27179 8.86774 169 85 101 
-0.275846 1.21281 8.33968 224 197 178 
-0.242595 1.21363 8.33117 51 41 39 
-0.352729 1.21756 8.30915 198 158 148 
1.18663 1.29445 8.85742 165 92 103 
-0.386873 1.24031 8.31871 93 21 41 
-0.296509 1.2395 8.31145 200 179 162 
-0.186475 1.25154 8.35182 87 72 77 
-0.153393 1.26336 8.35819 230 193 174 
-0.317024 1.26332 8.31024 32 16 26 
-0.400927 1.27022 8.31313 172 133 128 
-0.203073 1.27216 8.33231 217 194 178 
-0.145906 1.28473 8.35621 235 192 175 
-0.419363 1.29292 8.32544 160 135 131 
-0.370066 1.29054 8.31425 184 167 159 
-0.225224 1.29212 8.31813 231 207 195 
-0.160252 1.3011 8.31718 232 185 169 
-0.253491 1.30183 8.30997 40 36 37 
-0.184803 1.32588 8.31521 129 32 51 
3.06405 1.76342 10.8711 167 69 82 
-0.317132 1.34911 8.30031 59 48 56 
-0.288885 1.35364 8.3093 204 180 170 
-0.23641 1.35612 8.30741 238 189 174 
-0.426898 1.34987 8.22706 7 9 21 
-2.31023 1.55743 9.40953 99 90 91 
-0.25449 1.38001 8.29745 115 38 46 
-0.358488 1.38553 8.31737 193 174 168 
-0.300147 1.39909 8.29625 214 169 163 
0.0133951 1.41401 8.37296 142 34 66 
-0.318709 1.42335 8.29306 112 44 57 
-0.382068 1.47154 8.32491 70 1 22 
-0.42156 1.49574 8.31837 160 132 129 
-2.22942 1.92426 9.56067 10 10 22 
0.632025 1.95438 9.55948 42 11 17 
0.657021 1.98265 9.54098 166 127 128 
1.123 1.92748 9.13251 197 137 136 
1.14961 1.96207 9.13368 191 131 131 
0.378162 2.086 9.27535 134 62 66 
1.18137 2.07319 9.19748 198 128 136 
0.267935 2.07763 9.1289 201 163 150 
0.35603 2.17972 9.25274 197 145 149 
0.30684 2.18361 9.21227 212 157 160 
0.556151 2.31235 9.48758 102 26 36 
0.312053 2.255 9.22986 219 163 162 
0.560196 2.35419 9.4817 118 43 50 
0.425408 2.32436 9.3384 188 153 151 
-0.0888528 2.21189 8.8478 223 179 168 
-0.12559 2.21834 8.83661 106 18 30 
-0.29863 2.22763 8.80279 126 73 89 
0.182554 2.36249 9.08794 208 152 155 
3.75794 3.00367 11.247 17 13 14 
-0.35047 2.30092 8.60877 236 162 163 
-0.234538 2.38181 8.71872 229 199 191 
-0.28204 2.39383 8.65875 225 200 195 
-0.249958 2.45575 8.74415 192 111 117 
3.45391 3.16833 11.1048 10 15 18 
0.699906 3.0466 9.85435 169 134 128 
0.649929 3.03884 9.7498 168 133 131 
-0.0813079 2.80472 8.96845 206 177 179 
0.618225 3.06008 9.743 20 9 15 
-0.109659 2.95507 8.99346 64 23 39 
-0.132337 2.9681 8.95449 202 188 188 
0.053142 3.16335 9.19579 199 142 149 
-2.08905 4.34958 11.7008 129 118 100 
-0.931984 3.3358 8.9525 121 122 124 
-2.38047 4.22865 10.7012 159 146 129 
-2.55348 4.46077 11.2632 21 17 32 
-2.53998 4.50862 11.2879 20 16 31 
-3.45066 4.74569 10.3012 131 121 111 
2.49529 4.88256 10.4689 130 108 84 
-1.71419 4.83019 10.1667 12 11 16 
0.202787 5.02158 9.60192 168 154 141 
1.90559 5.0778 9.63377 152 130 106 
0.92117 5.07316 9.56567 114 100 87 
0.958832 5.07712 9.55962 210 194 169 
2.19691 5.16466 9.44295 147 129 107 
-0.667777 5.17216 9.19022 153 144 129 
-0.266294 5.21046 9.09493 77 73 72 
0.935607 5.21673 9.07252 161 139 116 
2.66259 5.24638 9.09113 175 153 130 
0.692087 5.21644 9.01022 152 130 107 
-0.465743 5.21782 9.00222 63 58 55 
1.18007 5.23796 9.02975 145 123 100 
1.66697 5.2621 9.02738 152 130 109 
1.25662 5.25369 8.96534 152 130 109 
3.03566 5.31625 8.98568 155 137 115 
2.04786 5.30879 8.95201 141 121 97 
1.07806 5.27431 8.85834 147 129 105 
2.54613 5.34401 8.86337 173 151 130 
1.88135 5.30401 8.78078 155 134 113 
1.97109 5.32286 8.7763 162 144 122 
2.28237 5.3618 8.63639 137 116 95 
1.94844 5.3778 8.53596 160 142 120 
1.55747 5.38734 8.45528 170 152 132 
0.59475 5.3666 8.415 165 147 123 
0.00386173 5.38404 8.2828 139 117 94 
3.48606 -6.77997 11.6524 29 32 49 
1.38703 -5.04328 11.9611 73 63 54 
2.30221 -5.56324 13.254 187 175 163 
1.88672 -3.56854 9.43845 57 53 44 
2.00298 -3.56817 9.42107 67 57 47 
3.00737 -3.32184 8.93788 110 82 60 
1.99922 -3.37254 9.10747 66 62 53 
1.87729 -3.36626 9.10576 54 63 60 
1.52644 -3.3416 9.11155 39 39 39 
-0.39437 -3.22676 8.95103 46 40 42 
2.1776 -2.84692 8.28344 92 64 40 
2.21382 -2.81132 8.21663 245 226 212 
-0.556818 -2.99516 8.80521 42 43 47 
-0.551114 -2.79796 8.48862 40 46 44 
-2.18796 -2.87782 8.85631 66 47 40 
-0.481712 -2.69 8.31306 218 208 196 
1.82644 -2.60347 8.07765 39 33 33 
1.93548 -2.63652 8.26947 182 169 163 
3.5207 -3.79552 12.2794 18 15 22 
1.19981 -2.25586 7.39499 203 160 118 
3.80132 -3.68343 12.7095 27 30 39 
3.42836 -3.61598 12.495 212 197 168 
3.75135 -3.45324 12.1677 128 56 68 
1.08905 -2.11187 7.57156 34 20 20 
-0.461145 -2.01125 7.26339 26 21 25 
3.70832 -3.27568 11.897 107 120 76 
-0.595225 -1.99617 7.33457 177 132 90 
-0.598588 -1.94255 7.30687 37 17 29 
-0.488572 -1.92194 7.21738 187 148 115 
3.61168 -3.07297 11.8729 55 76 45 
3.2762 -2.96098 11.4829 64 83 53 
0.339445 -1.71023 6.70732 4 2 16 
0.164246 -1.69388 6.73893 205 184 179 
0.0811947 -1.65288 6.65432 226 209 201 
3.76693 -2.82012 12.0083 109 134 77 
3.54406 -2.74785 11.8304 112 137 80 
3.76247 -2.73295 11.7813 19 21 33 
1.71519 -2.05579 9.38886 180 175 156 
3.23985 -2.3213 10.9832 113 126 134 
0.338184 -1.6309 8.32173 2 1 17 
0.620377 -1.61101 8.22761 136 126 101 
-2.13808 -1.84917 9.6193 156 142 116 
0.626674 -1.52104 8.24132 138 122 88 
1.26629 -1.59913 9.08801 56 58 34 
1.30803 -1.52012 9.052 86 70 47 
1.2284 -1.49247 9.01711 99 84 51 
1.69658 -1.58715 9.58157 1 7 23 
0.993666 -1.45643 8.99374 196 188 175 
0.661586 -1.34807 8.37935 205 190 185 
0.881181 -1.28891 8.65344 25 21 18 
0.988846 -1.31398 9.01055 104 105 97 
-2.33396 -1.17843 9.53911 71 70 68 
-1.15776 -0.953371 7.85454 23 23 25 
2.12065 -0.0128864 9.37549 208 181 172 
1.44399 0.0155796 8.68054 242 226 200 
1.34158 0.0667936 8.77781 228 203 172 
2.14545 0.0924045 9.37188 73 63 62 
1.39525 0.0899185 8.75271 118 95 87 
1.28709 0.180247 8.92608 187 163 139 
1.57453 0.209183 8.77438 148 102 105 
1.45601 0.218843 8.76085 211 179 166 
1.51335 0.244157 8.87586 207 177 175 
1.48968 0.282732 8.88817 45 25 27 
1.68788 0.399947 8.9444 31 0 4 
1.18919 0.520607 8.9223 61 34 41 
1.2928 0.689251 8.89232 159 85 98 
0.898493 1.04262 9.16956 125 75 84 
-0.319447 1.18616 8.33905 102 17 40 
1.43261 1.32197 9.08959 167 97 105 
-0.242219 1.22197 8.34889 42 30 32 
-0.393091 1.23314 8.31613 96 18 42 
-0.192886 1.24052 8.35448 47 35 49 
-0.40533 1.27764 8.3168 166 131 127 
-0.315686 1.27202 8.30927 25 19 31 
-0.369708 1.28482 8.30561 192 174 164 
-0.159352 1.2889 8.33671 226 188 169 
-0.323186 1.34023 8.29441 32 27 34 
-0.23683 1.34757 8.29979 229 186 170 
-0.301123 1.39203 8.28744 222 179 170 
-0.318204 1.4334 8.28998 102 17 40 
-0.376782 1.47504 8.32496 67 0 17 
0.625226 1.9497 9.57001 41 12 17 
0.648923 1.99221 9.54294 159 119 119 
0.268089 2.08437 9.17093 191 158 141 
0.462491 2.16343 9.41005 70 23 29 
0.557643 2.34728 9.50256 123 43 54 
0.464856 2.32292 9.37603 46 17 19 
-0.0855565 2.20474 8.84893 201 167 155 
0.419494 2.33788 9.34535 202 164 163 
-0.138921 2.21375 8.82127 112 15 35 
0.402272 2.41504 9.3405 205 156 152 
0.189163 2.37143 9.09443 204 154 157 
-0.342277 2.30105 8.60461 207 111 113 
0.568242 2.56184 9.49726 191 133 132 
-0.368418 2.33621 8.57861 60 8 30 
0.425315 2.56893 9.40476 193 112 118 
-0.2809 2.39717 8.66152 221 201 194 
0.750223 3.00219 9.87108 155 120 114 
-0.0703352 2.80597 8.97449 208 176 181 
0.615253 3.06164 9.72716 20 18 21 
-0.0923112 2.9776 8.9792 60 16 31 
-0.139301 2.97622 8.95892 205 196 191 
0.0563808 3.16711 9.18993 196 136 146 
2.47256 4.26731 11.814 42 28 43 
2.32693 4.22742 11.6295 69 48 63 
2.49788 4.35184 11.8513 49 36 53 
1.86816 4.28759 11.077 45 31 48 
-1.8596 4.47642 11.5097 106 94 82 
-2.57445 4.61153 10.0516 123 113 101 
-3.43371 4.72317 10.2675 137 125 113 
-2.25206 4.75919 10.27 149 133 118 
2.50542 4.89505 10.5049 133 111 87 
-1.72011 4.82579 10.1759 14 14 24 
0.915103 5.07803 9.59069 122 112 102 
0.965658 5.08072 9.55689 209 191 167 
1.56779 5.13796 9.50037 169 151 127 
-0.805033 5.12676 9.28874 170 154 131 
-0.458699 5.20559 8.98659 60 56 57 
-0.258692 1.14439 8.39524 129 33 61 
-0.275632 1.17901 8.36922 201 158 139 
-0.292385 1.23306 8.31437 199 172 153 
-0.259373 1.29493 8.31182 48 46 49 
-0.271525 1.33774 8.30656 208 182 169 
-0.253495 1.39077 8.28761 111 19 40 
3.48323 -6.86648 11.9056 224 207 187 
1.38426 -5.03286 11.9533 73 60 54 
2.77395 -3.62957 9.457 245 223 200 
1.99395 -3.57035 9.42562 63 53 43 
1.8122 -3.57172 9.45068 221 203 181 
1.89649 -3.56845 9.43246 56 53 44 
1.98714 -3.36595 9.09643 63 63 51 
-0.393994 -3.23698 8.97722 34 28 30 
1.62924 -3.13905 8.77265 62 57 51 
2.12388 -2.73594 8.25591 40 34 38 
3.67294 -3.98793 12.6194 213 197 172 
1.0999 -2.19215 7.28972 210 169 123 
3.56206 -3.75279 12.4929 8 17 32 
3.43673 -3.64293 12.4985 212 197 168 
1.00254 -2.12506 7.33493 37 25 29 
-0.279854 -1.95741 7.12635 31 19 5 
-0.588681 -2.01299 7.37148 174 126 88 
-0.297013 -1.93892 7.1638 18 1 9 
-0.0258819 -1.84404 6.85845 194 163 132 
-0.495944 -1.943 7.24416 191 145 109 
0.011246 -1.81235 6.83233 49 32 25 
-0.425827 -1.89894 7.20666 174 139 111 
-0.294687 -1.82972 7.04003 189 153 129 
0.0453846 -1.78006 6.84491 24 13 11 
0.286952 -1.70631 6.62341 223 199 175 
-0.034645 -1.73143 6.78611 209 178 160 
0.127573 -1.70387 6.75506 214 191 177 
0.0801413 -1.65327 6.65846 226 209 201 
0.0322056 -1.64545 6.64672 22 16 16 
3.06047 -2.80163 11.347 99 98 94 
3.30725 -2.86437 11.5851 46 67 36 
0.159312 -1.64048 6.69196 13 7 19 
1.33059 -1.94622 9.34523 117 105 107 
0.570939 -1.63843 8.24713 3 1 14 
2.04212 -1.85154 9.35861 0 2 15 
0.676208 -1.60163 8.25273 3 9 25 
-2.15061 -1.86415 9.63685 156 144 118 
-2.36417 -1.71379 9.44007 77 77 75 
-0.0110444 -1.21943 6.92382 110 114 126 
0.759871 -1.50723 8.55566 0 0 21 
0.876362 -1.51376 8.95492 188 176 160 
0.9537 -1.51028 8.97496 6 8 20 
1.29592 -1.51684 9.06178 86 70 44 
1.24091 -1.48822 9.01351 92 77 44 
0.663749 -1.33789 8.3072 199 187 171 
0.984785 -1.4517 9.00334 197 187 175 
0.633936 -1.28456 8.31061 1 5 16 
0.171343 -1.0664 6.98434 123 128 132 
0.689792 -1.25294 8.31997 192 180 166 
0.750165 -1.23337 8.41352 21 19 24 
0.610506 -1.21518 8.3312 4 12 25 
1.56147 -0.348662 8.83044 233 218 187 
1.46734 -0.0860514 8.70894 236 220 187 
2.11307 -0.00959215 9.37936 208 181 170 
1.42277 0.0739941 8.95391 122 102 91 
2.15751 0.10617 9.39796 73 55 53 
1.28559 0.187812 8.93011 194 168 145 
1.4499 0.212528 8.75125 213 180 163 
1.40762 0.24256 8.83119 50 33 39 
1.48371 0.282548 8.87897 41 21 23 
0.832802 0.355592 8.60206 229 82 92 
0.739082 0.596599 9.27119 104 73 78 
-0.222983 1.17264 8.39365 226 193 176 
-0.205677 1.28227 8.33075 212 186 169 
-0.161787 1.2846 8.35024 227 189 170 
-2.30333 1.48169 9.44029 15 14 28 
-0.177459 1.34133 8.30646 123 6 35 
-0.241028 1.34616 8.29889 230 192 173 
-0.407858 1.37441 8.26707 8 12 23 
-0.340245 1.3979 8.35041 151 124 115 
-0.411221 1.53763 8.26926 72 6 33 
0.640214 2.00628 9.5566 159 119 120 
1.85065 2.06277 9.79935 197 127 135 
1.09484 1.9929 9.16978 31 0 5 
1.88857 2.11376 9.73675 57 3 17 
1.11934 2.03872 9.20951 28 2 3 
1.13047 2.07652 9.21944 41 0 2 
0.267498 2.08836 9.19152 191 158 141 
0.553276 2.33426 9.48942 123 41 53 
-0.0820874 2.20668 8.86191 207 171 159 
-0.151046 2.21528 8.82785 110 10 36 
0.541338 2.41924 9.47563 179 124 119 
-0.253092 2.2476 8.79342 100 7 34 
0.614409 2.44665 9.49959 103 57 59 
0.192676 2.38383 9.10278 202 153 156 
0.60675 2.50287 9.51416 100 55 60 
0.573387 2.57404 9.50232 190 135 132 
-0.361119 2.34147 8.56329 81 28 46 
0.706754 2.66719 9.75039 172 127 122 
3.48294 3.08253 10.9535 11 15 24 
0.283472 2.63637 9.26705 208 174 173 
-2.422 3.47659 11.5145 67 64 55 
0.0277694 2.79441 9.03312 197 89 105 
-0.0591668 2.80122 8.96749 208 177 182 
-0.09414 2.98907 8.9846 68 25 42 
2.68064 4.3408 12.0159 103 92 86 
2.37251 4.40716 11.6712 157 144 128 
1.85919 4.29462 11.0861 48 34 51 
1.95586 4.48821 11.0718 175 160 141 
-1.7309 4.82866 10.2093 12 16 27 
-2.20691 4.98435 9.34993 88 76 62 
-0.614426 5.20176 9.20633 51 49 52 
-0.248072 5.21453 9.03651 175 159 143 
-0.459833 5.20199 8.98927 61 56 60 
-2.16515 -2.86636 8.8742 66 47 41 
-0.603756 -2.25356 7.55075 115 93 72 
-0.103763 -1.86501 6.92778 52 32 23 
-0.281848 -1.8084 6.94392 204 168 144 
0.0201089 -1.77488 6.81483 35 21 21 
0.287482 -1.7212 6.64531 220 193 166 
3.19833 -2.69251 11.4311 115 141 76 
2.31382 -2.05111 9.75378 149 134 127 
0.860622 -1.51035 8.97618 185 173 159 
1.26951 -1.51564 9.05917 89 69 42 
0.968945 -1.43553 9.0047 194 184 172 
0.702381 -1.27478 8.314 204 192 176 
0.796661 -1.27949 8.74027 31 30 35 
1.56076 -0.331911 8.84187 236 216 181 
2.09115 -0.00508089 9.363 203 181 170 
1.47354 0.0280468 8.68546 239 224 195 
1.54024 0.202177 8.74329 151 102 105 
1.16647 0.303187 8.83942 211 186 155 
0.839173 0.369256 8.55194 203 67 79 
1.08098 0.565328 8.96036 118 74 73 
-0.419467 1.20068 8.27453 83 7 35 
-0.167849 1.28279 8.34324 224 189 170 
1.82912 2.10287 9.88659 182 109 118 
1.11848 2.05377 9.25945 22 0 0 
0.436538 2.14245 9.31178 159 77 83 
0.6439 2.35647 9.55369 150 101 97 
-0.0765049 2.1972 8.85965 203 171 158 
-0.171689 2.22105 8.8382 106 7 35 
0.624083 2.49651 9.55253 94 55 58 
0.203769 2.40415 9.10262 201 152 155 
0.292159 2.67217 9.30214 205 174 172 
-0.0479879 2.8021 8.99585 206 177 181 
-0.344499 2.79917 8.66135 59 12 32 
-0.0865938 2.99644 8.98163 116 57 75 
-2.14916 4.3436 11.7392 135 120 101 
-1.99173 4.31952 11.6083 21 22 27 
3.28736 4.58511 11.495 37 35 38 
-2.54463 4.62554 10.0754 120 108 92 
-0.459049 5.21476 9.03166 63 60 67 
3.4555 -3.64069 12.503 212 197 168 
-0.231678 1.17184 8.38163 185 143 131 
-0.354814 5.22328 9.03415 85 82 89 
1.59929 -3.71876 9.70405 35 36 38 
2.0497 -3.54351 9.291 226 210 185 
1.93687 -3.37776 9.11933 57 66 61 
1.22955 -2.92567 8.47073 55 54 50 
-0.326137 -3.03358 8.8694 215 201 188 
-0.38381 -2.07652 7.24977 193 148 107 
-0.496756 -1.96328 7.21568 177 131 95 
-2.13842 -2.46012 9.38345 77 75 80 
-0.11775 -1.75277 6.87154 212 188 176 
0.464791 -1.61446 8.25977 72 56 41 
-2.33768 -1.68598 9.47659 78 78 80 
0.851221 -1.49906 8.97535 192 179 163 
0.942916 -1.43577 9.02179 197 185 169 
0.704072 -1.29999 8.28666 202 190 174 
0.786875 -1.23443 8.42084 36 35 40 
-2.3343 -1.22078 9.54393 74 74 76 
1.3245 -0.589702 9.30842 111 98 89 
1.59958 -0.619377 9.85784 50 49 54 
1.56001 -0.316006 8.83169 234 211 177 
2.06717 -0.00299222 9.35298 203 183 174 
1.50621 0.0395363 8.65037 240 224 198 
1.2506 0.0792507 8.81874 99 81 77 
1.52414 0.199143 8.72588 141 97 98 
1.26886 0.222462 8.89897 201 177 151 
1.07671 0.584267 8.95666 161 120 114 
-1.98588 1.04314 9.63726 31 35 38 
-0.133417 1.18811 8.39392 113 12 44 
-0.29012 1.37469 8.31719 204 168 156 
0.491695 2.07035 9.37073 161 106 103 
1.11848 2.04481 9.24079 30 4 7 
0.641799 2.33578 9.54135 147 98 94 
-0.0839084 2.19365 8.87639 195 165 154 
0.73623 2.54012 9.74285 64 34 44 
0.688182 2.98165 9.85224 187 140 134 
-0.231541 2.86665 8.76685 198 112 115 
-2.01262 4.40511 11.8475 21 22 27 
1.99653 4.42447 11.1022 174 158 135 
-2.57088 4.49201 11.2014 11 16 22 
-2.50862 4.60056 10.0177 116 104 92 
-1.77334 4.79629 10.1894 8 16 27 
-0.25259 5.1854 9.17645 81 85 88 
-0.319584 -2.95086 8.76143 220 204 191 
-0.140228 -2.6448 8.22208 49 51 48 
-2.11683 -2.83231 8.86526 136 113 99 
1.12957 -1.3841 9.00556 10 12 24 
0.549622 -1.20567 8.29059 2 5 20 
2.33803 -1.2905 10.5313 190 172 148 
1.36214 -0.542965 9.49113 121 107 98 
1.56077 -0.287711 8.83083 233 210 179 
1.19991 0.0356195 8.86483 86 75 73 
1.22769 0.578697 8.94258 85 47 58 
1.74678 1.58292 9.73491 127 60 77 
0.567168 2.04862 9.49656 167 121 121 
0.729651 2.48905 9.62682 37 7 17 
-0.24801 2.37253 8.6619 208 171 163 
0.654068 2.94473 9.83424 183 134 129 
-1.48849 3.69895 10.5407 109 97 37 
0.335113 3.0801 7.93188 143 141 144 
1.79192 4.46096 11.0441 46 32 49 
1.15045 -1.39023 8.94824 0 1 14 
1.57298 -0.2398 8.88815 226 203 171 
1.58832 0.0319766 8.66053 235 220 199 
1.23205 0.291485 8.84354 211 186 155 
1.91492 0.451365 9.17857 151 95 104 
-0.324085 0.9734 8.10158 116 8 42 
-0.216175 1.28317 8.32325 185 157 143 
-1.31933 1.75532 8.97047 4 14 24 
0.520952 2.06566 9.54893 169 124 118 
-0.293489 2.09624 8.58319 14 12 25 
0.62423 2.82514 9.7031 185 136 131 
0.940263 -2.7084 8.113 57 49 38 
1.83957 -2.62056 7.91116 72 41 20 
0.937005 -2.6895 8.13629 54 52 40 
1.63463 -2.48816 7.71418 43 17 2 
1.60802 -2.47885 7.7012 75 44 13 
1.60173 -2.45754 7.67724 166 149 131 
1.51898 -2.4242 7.63325 45 23 0 
-0.229457 -2.51391 7.99594 57 39 37 
1.43111 -2.36072 7.5547 158 138 129 
1.3768 -2.3415 7.51995 43 11 0 
1.39923 -2.34179 7.53447 159 140 126 
1.14872 -2.20553 7.32115 79 52 23 
1.18057 -2.17954 7.62369 27 11 12 
0.742547 -1.95653 6.95859 36 13 0 
0.642063 -1.8842 6.86917 137 117 108 
1.15667 -2.04938 7.53672 118 108 96 
3.96087 -3.08611 12.2602 163 143 142 
0.879924 -2.04659 8.28783 0 18 27 
0.913645 -2.05725 8.39917 205 225 236 
1.69296 -2.0603 9.37711 165 170 150 
1.82135 -2.02612 9.41424 27 28 20 
2.98451 -2.24675 10.7708 120 137 145 
0.741323 -1.44269 8.60545 99 89 77 
1.21035 0.946255 8.6989 161 83 105 
1.0583 0.955836 8.7008 131 68 79 
1.1839 0.954849 8.70809 50 6 21 
1.13314 0.959577 8.69795 63 12 29 
1.20436 1.09161 9.24109 63 16 36 
1.85171 1.11683 9.34146 183 123 135 
1.05765 1.05567 8.7558 39 3 15 
1.08965 1.06199 8.73465 142 73 91 
1.15189 1.09017 8.75234 74 22 35 
1.29297 1.09571 8.80048 208 120 134 
1.13596 1.11737 8.80195 165 101 118 
1.0723 1.13775 8.79855 52 15 23 
1.09458 1.13315 8.76361 141 72 90 
1.12199 1.13803 8.78752 57 4 14 
1.10465 1.1638 8.78799 45 0 11 
1.12293 1.16633 8.78679 131 60 74 
1.52504 1.20741 9.0682 185 111 124 
1.12297 1.18835 8.79568 59 0 18 
1.02964 1.19642 8.81343 30 1 5 
1.52914 1.24148 9.09103 82 14 27 
1.10699 1.20396 8.7948 166 94 106 
1.72353 1.28753 9.3081 174 106 117 
-0.257329 1.16435 8.33201 234 176 172 
1.10826 1.23044 8.80156 57 10 26 
1.66784 1.30915 9.2695 75 4 18 
1.50721 1.28647 9.09122 62 0 7 
1.64337 1.31099 9.23294 173 102 116 
1.20711 1.25627 8.83689 189 106 116 
1.54478 1.30512 9.13184 175 101 116 
1.06858 1.267 8.84283 60 2 16 
-0.3314 1.19492 8.31767 101 27 40 
1.08069 1.27999 8.85581 56 0 14 
1.0165 1.29953 8.86938 48 6 16 
-0.150635 1.23079 8.34778 184 125 131 
1.06216 1.29934 8.82637 51 10 26 
1.08247 1.30878 8.85116 144 78 90 
1.6517 1.51685 10.1362 177 104 123 
1.23165 1.33729 8.88826 62 5 12 
1.04304 1.33854 8.88091 39 1 12 
1.08829 1.33592 8.8434 50 7 24 
0.98012 1.36308 8.92132 39 6 15 
0.716301 1.44019 9.21569 42 1 15 
-0.186341 1.30982 8.30358 115 52 61 
1.00349 1.40148 8.92197 42 0 12 
1.29833 1.47767 9.38447 62 2 12 
0.761068 1.46235 9.17746 35 3 14 
0.880696 1.44473 9.05878 38 0 9 
1.00235 1.42539 8.94521 109 59 71 
1.09436 1.42089 8.93124 51 9 23 
0.925422 1.45435 9.03414 54 4 16 
1.02934 1.44576 8.94995 53 6 12 
1.21413 1.44681 8.93118 60 7 23 
0.962706 1.46106 8.99936 54 2 15 
1.015 1.55115 9.0002 28 0 8 
1.58782 1.66162 9.61511 81 11 22 
1.01367 1.57215 9.00723 126 84 98 
1.26546 1.66534 9.46994 173 92 111 
1.10346 1.59737 8.97226 147 78 96 
1.24054 1.68688 9.48827 63 13 25 
1.31843 1.66269 9.07961 195 117 131 
0.962717 1.67079 9.09259 106 68 79 
1.27942 1.67749 9.06465 199 127 139 
1.53918 1.79689 9.35919 150 84 94 
0.936027 1.8547 9.21762 26 0 6 
0.690334 2.04226 9.55533 43 0 1 
1.2282 1.95878 9.1476 147 75 87 
1.06656 1.98006 9.16717 125 74 83 
1.89008 2.12078 9.77474 57 3 17 
1.1179 2.06131 9.19051 138 81 96 
1.95319 2.22479 9.89637 47 0 9 
1.11793 2.07673 9.19247 119 71 83 
1.12348 2.13309 9.21323 155 98 105 
1.33318 2.1474 9.26996 189 115 130 
1.10556 2.17103 9.24572 140 78 89 
1.27234 2.20246 9.26535 187 119 134 
1.20026 2.22165 9.24019 67 25 29 
1.15727 2.24732 9.2661 150 89 107 
1.31874 2.37408 9.76708 147 85 100 
1.16415 2.33711 9.3063 133 68 88 
0.956156 2.71905 10.7738 28 0 6 
1.38079 2.48284 9.43119 180 109 127 
1.17687 2.4865 9.37051 123 67 80 
-0.251315 2.38181 8.6625 163 124 119 
1.12415 2.89978 10.1993 127 76 93 
1.4385 2.7819 9.59106 176 95 112 
1.20197 2.77848 9.50661 158 87 105 
1.15494 3.0253 10.2348 119 66 82 
1.38959 3.1673 10.5726 169 85 101 
-0.0365366 3.13687 9.06267 99 72 79 
2.64339 5.19928 9.30581 120 98 77 
2.97749 5.20261 9.29898 152 134 112 
1.65576 5.34032 8.5366 154 137 111 
2.24365 5.35877 8.55483 220 203 177 
3.52242 -6.9352 11.9725 228 210 198 
2.94345 -7.10209 12.3796 56 45 41 
1.88448 -4.63499 11.2724 156 141 136 
0.438661 -3.9605 10.23 45 33 33 
1.52252 -3.74473 9.77074 36 37 39 
2.01817 -3.56433 9.40653 73 61 49 
0.112207 -3.61987 9.71057 40 36 37 
1.50965 -3.34353 9.11749 31 32 27 
1.65916 -3.1472 8.77868 65 55 45 
1.57276 -3.05999 8.57853 58 51 41 
1.31151 -3.12376 8.78298 46 38 36 
2.47109 -2.99383 8.45118 144 116 92 
2.27795 -2.88122 8.32629 110 89 62 
0.910294 -2.94642 8.55972 42 43 45 
-0.563642 -2.79213 8.47016 28 32 31 
2.1043 -2.71968 8.2797 147 141 145 
-2.21408 -2.89611 8.89705 46 27 12 
-2.20387 -2.84399 8.80976 189 172 152 
-0.501887 -2.69913 8.37062 217 209 198 
1.71324 -2.53765 7.9003 29 13 23 
-2.18897 -2.81861 8.84662 33 17 17 
-0.344577 -2.57913 8.098 222 210 194 
-0.322079 -2.55875 8.08505 67 50 42 
-0.394263 -2.54521 8.07272 217 205 189 
1.46297 -2.38889 7.58965 37 13 1 
1.8224 -2.55842 8.16387 39 28 34 
1.62582 -2.46213 8.02191 40 26 26 
2.94278 -3.65833 11.97 157 147 146 
3.01424 -3.68372 12.0616 62 53 56 
-0.551964 -2.3786 7.83765 223 204 189 
2.96819 -3.63323 12.013 84 75 76 
3.01377 -3.61596 12.0485 67 58 61 
3.07066 -3.60351 12.1129 153 144 145 
3.40388 -3.70132 12.6466 54 24 26 
3.78993 -3.48215 12.2788 133 81 94 
-0.469869 -2.01445 7.29891 7 0 5 
-0.602196 -1.94606 7.27424 21 6 11 
3.9449 -3.2345 12.2306 152 151 149 
0.239457 -1.70085 6.61539 48 33 26 
3.1105 -2.93619 11.407 58 60 46 
3.90363 -3.13872 12.2049 45 35 43 
3.9582 -3.12811 12.2701 144 129 124 
3.15735 -2.90556 11.5047 66 67 53 
-0.0146237 -1.66862 6.68743 34 25 26 
0.193621 -1.6551 6.63666 38 29 32 
3.14809 -2.8504 11.4921 152 149 144 
2.87735 -2.76638 11.236 37 53 40 
3.89647 -2.98697 12.1329 165 123 107 
3.95613 -3.01868 12.2538 165 123 109 
3.31147 -2.85126 11.6367 54 75 36 
3.38098 -2.39269 11.1281 105 122 132 
2.3381 -2.13324 9.98958 154 143 149 
0.627423 -1.72566 8.16136 159 156 163 
2.97742 -2.28274 10.7747 123 140 148 
1.93966 -1.97042 9.42502 133 122 102 
1.31811 -1.93877 9.30531 130 121 122 
1.27649 -1.9158 9.29454 18 13 17 
0.522758 -1.60705 7.85395 81 76 83 
0.74632 -1.71182 8.52158 111 104 98 
0.693736 -1.66682 8.35681 113 102 96 
0.621433 -1.61863 8.19168 130 122 101 
1.36028 -1.75288 9.21837 82 82 92 
0.853592 -1.65981 8.75674 76 74 75 
1.3231 -1.51625 9.00986 82 70 54 
0.94373 -1.50886 8.98495 5 9 12 
0.9152 -1.49245 8.95712 199 187 173 
0.609969 -1.36392 8.30107 151 150 146 
1.21977 -1.48435 9.02454 96 82 55 
1.0038 -1.46474 8.98128 201 197 186 
0.64297 -1.33463 8.28417 201 191 182 
1.00546 -1.36515 9.0127 36 37 41 
0.668568 -1.22563 8.29216 179 172 164 
3.75344 -1.03257 13.1056 201 185 169 
3.67364 -1.01767 12.9851 30 28 33 
1.49288 0.28894 8.85018 49 19 19 
1.44027 0.445008 8.69573 114 48 58 
1.26664 0.501639 8.95535 122 51 65 
1.19937 0.598194 9.01701 75 43 54 
1.20161 0.631617 9.03298 140 88 101 
1.05189 0.844439 8.65879 28 0 12 
1.10425 0.913922 8.66501 46 14 27 
1.13296 0.949764 8.68171 61 20 36 
1.25922 0.965986 8.72571 69 10 30 
1.18714 0.975582 8.70687 175 90 111 
1.20275 1.03907 9.2195 173 89 112 
1.16054 0.982245 8.69995 50 13 30 
1.10949 0.985572 8.7011 47 11 25 
1.23162 1.073 9.23026 179 94 113 
1.11228 1.01543 8.71237 172 98 111 
1.08627 1.02006 8.72021 47 12 19 
1.13798 1.01938 8.71569 53 10 29 
1.26515 1.03749 8.76221 67 13 29 
1.24172 1.0393 8.75468 189 98 116 
1.14051 1.04834 8.72717 178 97 112 
1.08931 1.05013 8.73252 157 90 107 
1.61238 1.17788 9.15915 183 113 121 
1.11833 1.13056 8.77529 56 6 17 
1.17483 1.14478 8.78525 164 89 109 
1.06837 1.17071 8.78698 123 56 73 
1.17925 1.18675 8.79038 63 19 32 
1.07077 1.19963 8.80865 56 11 31 
1.12864 1.19815 8.80921 60 12 26 
1.18446 1.21852 8.81917 164 92 106 
1.1018 1.23245 8.81629 57 19 30 
-0.181938 1.18405 8.3529 35 17 29 
-0.282241 1.18582 8.30497 228 185 168 
1.22948 1.25483 8.82289 67 10 29 
1.10542 1.26313 8.83031 155 83 94 
0.968152 1.28836 8.90094 24 1 7 
1.01272 1.29685 8.88616 40 2 13 
1.18421 1.28603 8.80906 169 95 108 
0.992413 1.32562 8.89652 42 9 18 
-0.378599 1.23703 8.2834 88 17 35 
-0.255739 1.24668 8.28565 37 27 36 
1.18431 1.33203 8.85898 61 10 25 
1.08475 1.33745 8.86936 48 12 26 
-0.198695 1.26726 8.30373 218 192 177 
1.08689 1.36474 8.87424 155 86 105 
1.13655 1.36728 8.87492 178 101 121 
-0.221543 1.28751 8.28961 224 200 190 
-0.365834 1.28789 8.28473 177 162 155 
1.28368 1.38933 8.93282 65 7 19 
-0.386177 1.30742 8.28645 23 17 19 
-0.260008 1.32058 8.26038 215 195 184 
1.0237 1.43961 8.94179 56 13 20 
1.23318 1.52801 9.42957 49 8 22 
-0.285185 1.34847 8.27221 214 187 180 
-0.326061 1.36901 8.27595 188 168 159 
0.892053 1.52252 9.07887 38 2 14 
0.016909 1.40403 8.33471 138 34 67 
1.03027 1.51316 8.97087 38 1 9 
1.2618 1.58668 9.41421 175 94 111 
-0.396019 1.41691 8.28599 149 134 129 
-0.314934 1.41472 8.26803 108 51 60 
1.83714 1.63903 9.56119 200 149 154 
1.8807 1.72459 10.0118 199 138 146 
1.21274 1.64198 9.45202 55 20 27 
0.9936 1.57888 9.02708 25 4 11 
-0.405175 1.45473 8.29306 180 152 141 
-0.378988 1.46626 8.29881 75 6 27 
1.15219 1.58625 8.97065 168 91 107 
-0.414933 1.49272 8.29041 158 132 131 
1.1054 1.62719 8.98581 53 15 30 
1.2196 1.72213 9.50207 57 17 26 
0.999165 1.65213 9.06136 41 11 19 
1.29367 1.73789 9.48748 75 20 26 
1.04018 1.65808 9.02524 50 4 15 
0.982949 1.68595 9.08773 34 4 12 
1.06591 1.70125 9.0522 38 7 13 
1.13584 1.69283 9.00701 160 94 104 
1.11079 1.699 9.01979 81 46 52 
1.04519 1.73066 9.05659 83 36 42 
0.988098 1.75791 9.11704 36 5 10 
1.11971 1.84669 9.05978 213 165 163 
1.14871 1.88634 9.11001 221 172 167 
1.19811 1.88469 9.11261 241 191 192 
0.660208 1.97781 9.5304 162 122 122 
1.09772 1.89169 9.1301 202 144 140 
1.12349 1.89021 9.11054 129 63 64 
1.04084 1.91348 9.14644 56 15 23 
1.17696 1.92444 9.14294 251 212 205 
1.12363 1.92459 9.11931 194 136 135 
1.02253 1.94501 9.17585 26 0 6 
1.27363 1.95125 9.16471 149 71 84 
1.06422 1.95095 9.14997 37 1 3 
1.20323 1.95484 9.13516 229 170 174 
1.21131 2.01418 9.38968 142 65 71 
1.04519 1.98436 9.17508 28 0 4 
1.20852 2.03025 9.17577 201 135 139 
1.23457 2.06505 9.19504 223 156 163 
1.14039 2.06732 9.18084 65 20 25 
1.20957 2.07054 9.18617 144 62 74 
1.1451 2.09907 9.19327 149 96 106 
1.1694 2.1041 9.19363 82 26 27 
1.08341 2.17518 9.2518 53 12 16 
0.356986 2.17564 9.24522 199 144 149 
0.309612 2.17763 9.19613 201 152 155 
1.29456 2.20454 9.27582 67 15 28 
1.24918 2.213 9.26438 62 40 43 
1.1309 2.2132 9.2543 134 76 88 
1.32022 2.23853 9.30329 65 13 25 
1.09043 2.25212 9.2948 26 5 12 
1.27521 2.24616 9.28085 50 10 18 
0.362394 2.24724 9.26523 207 156 153 
1.18058 2.25374 9.267 52 12 21 
1.29459 2.37588 9.77795 41 9 22 
0.556626 2.31074 9.48146 101 29 40 
1.1576 2.25977 9.27191 131 72 90 
0.454183 2.30911 9.39363 58 14 27 
1.11465 2.29195 9.30227 31 0 9 
1.18405 2.28487 9.27873 149 85 101 
1.20895 2.29176 9.28442 27 1 10 
1.09577 2.32485 9.31908 32 0 10 
1.163 2.32262 9.29742 137 83 97 
-0.0853817 2.2047 8.8043 236 188 176 
1.14035 2.32943 9.30765 28 5 11 
1.1867 2.32767 9.29323 46 23 33 
1.23548 2.32857 9.30685 37 5 18 
-0.198638 2.2059 8.7992 132 59 79 
1.23792 2.35829 9.31272 166 97 116 
1.26109 2.35875 9.31551 46 13 22 
1.28752 2.39271 9.33779 67 35 40 
0.401614 2.42144 9.34195 206 155 152 
1.24346 2.43457 9.34845 165 102 119 
1.29401 2.47298 9.3827 64 21 31 
1.17539 2.47202 9.36062 142 84 98 
1.19962 2.48081 9.36769 35 5 13 
0.728656 2.64837 9.75982 165 124 130 
0.0954965 2.48842 8.99581 217 164 170 
1.2589 2.62977 9.43356 29 6 12 
3.75138 3.297 11.6825 31 31 29 
0.705153 3.03417 9.81627 165 137 136 
-0.0820425 2.79388 8.93156 210 180 180 
0.619905 3.06036 9.75067 23 10 17 
-0.107208 2.9435 8.95864 57 20 37 
-0.126494 2.95465 8.92529 201 187 187 
0.116519 3.08592 9.23189 206 133 144 
3.14682 3.71492 11.0617 235 215 188 
-0.0428152 3.06019 9.0536 125 74 79 
-0.0194546 3.07333 9.0731 186 160 159 
-0.339791 2.93443 8.55005 41 39 42 
0.0554663 3.15797 9.17888 199 139 149 
2.20403 4.33018 11.5476 97 80 70 
1.9515 4.5792 11.1887 175 159 143 
2.49759 4.8875 10.4817 129 107 83 
2.00883 4.94752 10.1753 157 135 111 
1.73088 4.98472 10.1521 220 199 172 
2.68595 5.02951 10.0176 155 133 109 
1.90217 5.06685 9.62009 145 123 99 
2.5434 5.16484 9.48403 150 134 111 
3.37521 5.21084 9.40907 158 136 113 
2.43344 5.19054 9.34558 142 122 98 
3.08995 5.1852 9.34074 156 138 114 
2.85683 5.19145 9.28279 151 133 111 
1.05221 5.174 9.10317 151 133 109 
1.82838 5.19181 9.13688 155 133 109 
-0.230146 5.18935 9.05743 157 147 137 
-0.262477 5.19574 9.06381 79 74 70 
2.63108 5.23947 9.15257 155 133 110 
2.42626 5.24085 9.11722 154 132 111 
2.66115 5.24644 9.09386 165 143 120 
0.692155 5.19565 8.97487 153 131 108 
2.96764 5.27744 9.07113 151 130 111 
1.25565 5.22562 8.91762 153 128 106 
0.468344 5.2068 8.85428 123 103 92 
3.10103 5.28917 8.98291 146 128 106 
0.0748268 5.19598 8.80301 126 110 94 
2.6113 5.27552 8.92079 228 210 186 
2.05197 5.31344 8.96024 147 127 103 
1.07658 5.243 8.81134 145 127 103 
3.11328 5.30358 8.89999 155 137 115 
2.98597 5.31934 8.83992 223 202 183 
2.54674 5.33784 8.85693 168 146 125 
1.98358 5.3001 8.7824 221 203 181 
3.15677 5.33247 8.82636 162 144 124 
0.89649 5.26926 8.70161 136 118 94 
2.97921 5.34329 8.83763 139 121 99 
1.96616 5.29945 8.73962 163 145 123 
2.39471 5.33263 8.7456 143 124 107 
1.32119 5.30587 8.62768 151 133 109 
2.70228 5.34871 8.69132 145 129 106 
2.43785 5.33357 8.64871 154 132 111 
2.6069 5.34766 8.66143 163 145 123 
1.47591 5.31612 8.57518 147 127 102 
2.27887 5.34401 8.60813 137 116 95 
