ply                 
format ascii 1.0    
element vertex 1322
property float x    
property float y    
property float z    
property uchar red  
property uchar green
property uchar blue 
end_header          
3.07797 3.53305 10.8524 89 76 68 
0.0557113 3.14236 9.23835 167 119 131 
3.10753 3.58681 10.7917 226 206 182 
2.20274 4.02377 11.2067 114 94 83 
3.44803 3.8459 10.7604 31 31 41 
0.262096 3.10731 8.04339 159 156 147 
1.92981 4.47615 11.0697 163 147 134 
-0.442407 5.17495 9.01792 65 64 62 
0.45724 5.1967 8.91712 110 98 86 
2.0317 5.23123 8.86515 160 138 115 
2.27155 5.3077 8.57796 163 136 117 
0.853673 -4.01826 10.305 45 45 47 
2.7678 -3.61189 9.41569 251 223 199 
0.799567 -3.9721 10.2643 155 145 136 
1.63518 -3.71208 9.71235 36 38 37 
1.33477 -3.73339 9.74534 164 153 151 
1.54219 -3.66346 9.60591 28 29 33 
3.1406 -3.38099 8.96898 115 90 68 
1.97971 -3.53825 9.37148 51 45 45 
3.10903 -3.34239 8.9535 255 237 213 
1.87928 -3.498 9.29083 48 46 49 
1.32871 -3.54879 9.45339 170 160 159 
1.53499 -3.47624 9.30754 39 35 34 
1.83912 -3.44898 9.2636 224 208 185 
1.97468 -3.3485 9.0675 54 40 37 
1.87027 -3.3127 8.99926 36 33 26 
1.62272 -3.33859 9.12142 57 53 54 
1.52169 -3.29874 9.0441 38 42 41 
-0.622677 -5.93309 17.7246 32 40 43 
2.35434 -2.91607 8.5948 30 20 21 
2.2058 -2.79952 8.1938 223 196 177 
2.13284 -2.74931 8.09945 190 174 159 
3.25578 -3.76473 11.9919 206 189 169 
-0.520536 -2.98107 8.80061 38 36 41 
-0.832587 -3.03821 9.00381 51 48 59 
2.9875 -3.57996 11.6812 155 143 143 
-0.897147 -2.98244 8.88384 50 47 58 
2.88433 -3.54924 11.6 156 142 142 
1.90948 -2.62147 8.02598 45 40 44 
2.11351 -2.68302 8.29146 45 33 37 
-0.551994 -2.81035 8.57077 45 44 58 
1.94284 -2.61545 8.20475 173 162 160 
2.99349 -3.47695 11.7021 154 143 139 
2.88871 -3.44399 11.6026 156 144 146 
3.06417 -3.4392 11.6463 16 15 31 
3.35457 -3.55023 12.1618 203 184 169 
2.81733 -3.43048 11.6569 18 22 34 
1.64076 -2.4895 7.80424 55 50 54 
-0.20083 -2.63479 8.24664 57 53 52 
-0.530582 -2.61966 8.30901 216 203 187 
1.45594 -2.39168 7.68184 56 50 52 
1.41746 -2.35749 7.61588 49 38 42 
0.142346 -2.47005 7.92897 63 59 58 
1.34784 -2.33053 7.58796 61 50 54 
3.63619 -3.19248 11.6314 109 120 77 
-0.528288 -2.38576 7.87588 220 202 188 
3.83064 -3.08916 11.7628 131 127 128 
1.50435 -2.28571 7.8991 125 98 91 
1.4446 -2.28112 7.90005 128 102 85 
3.53313 -2.98778 11.5844 62 72 48 
3.83268 -2.99035 11.7751 146 136 137 
3.22344 -2.88866 11.2487 79 96 62 
3.82328 -2.89215 11.7477 160 109 90 
3.43076 -2.83855 11.5214 63 75 53 
3.22893 -2.77313 11.2518 56 70 47 
4.32218 -2.82737 11.9616 90 94 97 
3.68537 -2.74045 11.6958 116 142 79 
-0.638827 -2.04191 7.52247 176 140 108 
-0.612646 -1.96733 7.39894 27 26 42 
0.883657 -2.0785 8.36395 9 17 30 
3.16551 -2.24582 10.656 146 154 156 
2.31582 -2.0735 9.8 154 141 135 
2.38263 -2.02274 9.64411 149 142 136 
4.07826 -2.2887 11.5839 156 147 132 
2.41261 -1.96262 9.59875 4 10 26 
3.82493 -2.18814 11.4294 20 39 45 
2.01008 -1.88874 9.25318 76 73 64 
1.28745 -1.87004 9.23234 77 73 72 
2.57696 -1.85417 9.63798 15 13 18 
0.716292 -1.68549 8.43689 90 81 72 
0.871392 -1.6761 8.77042 103 100 83 
1.6763 -1.70448 9.17219 91 79 57 
-0.703674 -1.4754 8.06893 5 10 32 
1.83813 -1.57904 9.53881 147 146 141 
1.90547 -1.54775 9.46487 24 24 26 
0.690725 -1.4564 8.63364 42 36 36 
1.01805 -1.45081 8.95052 200 188 174 
0.692299 -1.39773 8.49492 184 169 164 
0.139579 -1.14641 7.0221 148 144 135 
0.80312 -1.28699 8.74931 34 34 34 
2.30953 -1.21476 13.288 115 101 100 
4.361 -0.452222 10.9304 192 73 92 
3.65576 -0.303924 11.3615 3 12 43 
3.75096 -0.132857 11.4396 79 24 45 
3.56978 -0.104429 10.8534 108 58 61 
2.12646 -0.0281627 9.32164 214 187 176 
1.41476 0.0531322 8.70634 126 99 90 
1.32192 0.104994 8.80708 88 74 65 
1.55626 0.182451 8.6684 64 22 26 
-2.1945 1.07554 9.70395 154 141 125 
1.81377 1.22876 9.82881 189 125 116 
1.2402 1.09445 8.79781 144 77 94 
-0.321154 1.18198 8.41569 101 18 48 
-0.145694 1.18771 8.41313 66 12 38 
-0.346322 1.22708 8.41084 189 158 153 
-0.221896 1.21324 8.38214 43 31 43 
-0.290687 1.23413 8.40204 181 160 159 
-0.186676 1.23683 8.41497 50 37 46 
-0.3006 1.27082 8.36259 16 15 33 
-0.365992 1.27773 8.36146 164 145 138 
-0.261061 1.29203 8.38633 34 35 39 
2.93986 1.65267 10.5997 194 115 118 
-0.224712 1.33986 8.34165 202 164 155 
2.81024 1.67915 10.3853 136 59 67 
-0.398549 1.38365 8.37479 17 16 34 
-0.233248 1.38627 8.32795 96 13 43 
-0.44589 1.52497 8.62565 68 6 29 
2.65774 1.87197 10.3943 118 34 49 
-0.429681 1.54154 8.38548 44 9 31 
-2.15562 1.91948 9.4951 132 121 115 
0.677932 1.9566 9.48486 122 92 102 
1.73924 2.03676 9.62802 168 107 114 
0.275168 2.07519 9.2424 164 137 130 
0.564957 2.31559 9.51179 112 52 60 
0.490012 2.28974 9.36666 54 28 41 
4.31685 2.94856 12.1752 127 123 114 
-0.137306 2.20488 8.89553 78 14 41 
0.441528 2.30775 9.3393 169 138 133 
-0.359299 2.31702 8.73051 197 117 128 
0.742548 2.59726 9.66313 136 104 105 
-0.0361654 2.73673 9.05305 183 164 170 
-0.0688773 2.79017 9.03517 183 161 174 
0.625072 3.02176 9.71986 20 21 25 
-0.14181 2.96558 9.02199 190 171 175 
-0.199255 2.9888 8.94921 125 76 80 
3.44376 3.80989 10.6897 31 29 42 
-2.56361 4.47905 11.4428 16 15 33 
1.9149 4.13916 10.9676 178 162 146 
1.8679 4.42657 10.9238 40 32 43 
-0.400192 1.2326 8.40367 83 25 49 
0.663006 2.98901 9.75568 145 113 116 
1.02241 -4.46705 11.0635 150 140 131 
2.74592 -3.60795 9.40318 249 223 198 
2.7794 -3.57555 9.33441 249 214 192 
1.48932 -3.62247 9.58288 166 158 155 
1.68264 -3.57701 9.4677 179 164 157 
1.85401 -3.66008 9.77381 42 40 41 
2.01894 -3.39558 9.09336 237 219 195 
1.5456 -3.48534 9.31829 36 32 31 
1.67279 -3.3793 9.13716 221 204 186 
1.96701 -3.33277 9.03345 51 41 39 
1.87461 -3.33507 9.05715 53 56 49 
-2.27405 -6.76478 19.6007 40 40 42 
2.68518 -3.09638 8.53318 114 90 64 
2.61275 -3.12061 8.70184 111 90 63 
1.66515 -3.1894 8.82286 239 217 193 
1.35809 -3.10851 8.79512 234 219 188 
-1.05042 -3.43124 9.64686 111 94 84 
2.20447 -2.8041 8.20274 223 196 177 
2.13043 -2.75356 8.11126 194 175 161 
3.26566 -3.77933 12.0249 206 188 166 
3.48556 -3.73162 12.1335 13 14 32 
2.11927 -2.72067 8.23013 25 23 26 
1.99706 -2.67629 8.09103 29 29 31 
3.06299 -3.59447 11.6588 35 34 50 
2.00026 -2.66698 8.1515 38 32 34 
2.80455 -3.55849 11.6114 28 35 51 
2.11861 -2.68727 8.28023 39 28 32 
3.48806 -3.64263 12.18 15 17 30 
2.00021 -2.57909 7.91764 130 126 123 
2.05452 -2.66931 8.2664 157 147 138 
1.78521 -2.596 8.02921 60 51 52 
-0.955243 -2.88706 8.80493 43 42 48 
1.80711 -2.57879 8.02986 40 34 38 
1.88344 -2.58625 8.06483 127 117 118 
-0.607789 -2.78276 8.50611 185 179 181 
3.0744 -3.44804 11.6681 21 18 37 
1.58736 -2.50348 7.77626 191 148 105 
2.80637 -3.43278 11.6331 20 27 37 
3.3678 -3.53934 12.2086 199 182 162 
-0.452939 -2.69205 8.35788 219 205 196 
1.84453 -2.53107 8.07019 35 30 27 
-0.615545 -2.7208 8.49887 44 38 48 
-0.161312 -2.61261 8.15637 48 49 54 
3.13767 -3.47839 12.1445 106 70 48 
1.89033 -2.50076 8.13377 139 113 100 
-0.3902 -2.60123 8.24276 62 52 53 
-0.535515 -2.61083 8.30786 215 201 188 
1.74847 -2.41197 8.00481 118 96 85 
3.62469 -3.17651 11.6124 103 121 71 
-0.614094 -2.38531 7.89047 118 95 87 
1.51231 -2.2768 7.86093 122 97 90 
0.744512 -2.01497 7.09305 192 154 118 
3.83031 -2.91142 11.8161 161 110 89 
3.42863 -2.84093 11.493 61 73 53 
3.23364 -2.77659 11.2635 60 74 51 
2.80703 -2.71739 10.9565 35 49 36 
-0.341915 -2.00876 7.29624 59 41 39 
-0.599528 -2.02821 7.44829 178 137 107 
0.768318 -2.15059 8.35088 112 93 78 
3.75947 -2.6865 11.5603 12 10 23 
3.11919 -2.56174 11.0044 123 151 77 
3.52989 -2.64534 11.5415 4 21 13 
4.06293 -2.56759 11.4494 234 222 198 
3.89186 -2.53076 11.3377 240 224 201 
0.863297 -2.02501 8.27707 171 177 189 
4.06833 -2.48045 11.2804 228 219 186 
0.841077 -2.3565 10.2152 51 50 56 
3.93365 -2.40873 11.3138 227 213 187 
3.08217 -2.27939 10.6482 48 68 77 
4.06881 -2.29537 11.5365 165 154 134 
4.15879 -2.27161 11.5088 18 32 41 
3.91818 -2.25672 11.431 169 158 140 
1.35222 -1.92235 9.24208 85 76 79 
2.41334 -1.94844 9.57906 4 7 22 
3.81605 -2.19013 11.3894 21 40 46 
2.08237 -1.87633 9.2185 4 11 29 
3.92519 -2.03523 11.3233 147 141 127 
3.181 -1.82304 9.8599 229 77 76 
2.61292 -1.79543 9.64384 38 17 24 
2.77809 -1.75821 9.67052 208 71 79 
1.86822 -1.63962 9.55913 20 29 38 
0.897496 -1.51379 8.92206 198 184 171 
0.974592 -1.50927 8.97291 22 22 30 
3.7588 -1.90995 12.9013 158 144 133 
3.69416 -1.9673 13.5759 160 148 136 
1.24798 -1.49856 9.1056 86 73 54 
0.791756 -1.45867 8.7141 194 183 165 
0.650989 -1.41921 8.44255 34 47 53 
0.694725 -1.38631 8.48182 192 178 169 
1.08443 -1.41715 8.97859 0 4 22 
0.628054 -1.31347 8.31719 7 8 26 
0.64161 -1.29492 8.35598 12 14 29 
0.842713 -1.3467 9.15075 52 50 51 
0.698488 -1.26101 8.3815 192 180 164 
0.820935 -1.28509 8.70681 35 35 33 
0.785942 -1.25388 8.53733 43 42 47 
2.614 -1.37264 13.3466 13 1 21 
4.2831 -0.463382 10.9668 35 21 57 
4.13264 -0.386282 10.7465 230 83 102 
1.57713 -0.357442 8.82125 236 215 184 
3.65319 -0.315653 11.3395 0 13 47 
3.75514 -0.126351 11.391 82 24 46 
1.34396 -0.0636467 8.8819 204 180 156 
2.10855 -0.0115911 9.33548 206 176 168 
2.23909 0.0536373 10.0341 70 59 63 
1.34927 0.0232728 8.76544 200 177 146 
2.16966 0.0536783 9.36387 73 58 61 
1.58424 0.131554 8.68613 231 209 195 
1.49128 0.262774 8.83285 63 37 48 
0.883174 0.341411 8.54354 218 70 86 
1.84147 0.492743 9.5303 119 57 72 
1.20664 0.764766 8.75957 85 24 42 
2.57353 1.01949 10.4005 147 79 94 
1.15056 0.832235 8.74571 157 104 110 
1.20465 0.886241 8.77336 123 65 77 
-0.143156 1.274 8.37982 203 170 163 
-0.219456 1.29144 8.45281 178 158 151 
1.85225 1.50866 9.80194 119 49 57 
-0.328607 1.39291 8.37897 167 142 135 
-0.368443 1.48339 8.45049 78 5 34 
2.65648 1.85835 10.2815 130 48 62 
2.20162 1.81065 9.81481 206 130 140 
0.674219 1.96535 9.46643 124 94 102 
1.84606 1.97859 9.60961 176 115 114 
0.291491 2.06258 9.19626 169 140 134 
0.483394 2.11505 9.33203 82 36 46 
4.47648 2.94158 12.3425 135 125 115 
0.557831 2.30531 9.50664 112 48 64 
-0.0802008 2.2023 8.93786 188 153 151 
-0.147535 2.20246 8.89423 71 17 33 
4.13743 2.91044 11.886 14 14 24 
4.48001 3.02562 12.176 77 66 64 
0.207397 2.36485 9.13392 181 139 151 
0.618897 2.47477 9.56185 89 53 63 
3.74921 2.85482 11.069 202 189 181 
-0.32704 2.29613 8.65633 192 105 114 
0.597743 2.53553 9.48935 168 122 124 
0.739945 2.60123 9.6386 135 104 102 
-0.277808 2.39534 8.73381 209 176 185 
0.304196 2.61032 9.28129 178 157 162 
3.48436 3.13136 11.2056 13 13 25 
3.44014 3.08172 10.9172 12 15 22 
0.318612 2.72941 9.34564 176 155 162 
-2.30387 3.42318 11.245 159 143 118 
0.834188 2.92714 9.83801 9 12 31 
0.763077 2.9177 9.76517 126 97 102 
-0.0617205 2.79243 9.05575 181 161 172 
-0.348308 2.83565 8.81195 23 19 33 
-0.0828563 2.97445 9.0256 67 30 47 
-2.53091 4.45871 11.3674 10 11 29 
1.92409 4.14279 10.9645 178 160 146 
1.84729 4.19699 10.956 48 35 42 
1.94914 4.42071 11.0283 172 155 135 
-1.71123 4.78718 10.2747 10 18 31 
1.38261 -4.92149 11.8245 75 61 61 
1.59791 -3.69616 9.6694 34 39 42 
1.82148 -3.46779 9.24899 223 205 183 
1.91009 -3.32872 9.04501 58 58 48 
1.67768 -3.17149 8.81367 242 222 195 
1.1375 -3.22462 8.94045 178 167 165 
3.27326 -3.98143 11.8265 206 191 170 
0.79136 -3.02075 8.68104 206 192 181 
3.27943 -3.81215 12.058 205 188 168 
-0.527605 -3.03863 8.96782 50 45 49 
-0.822196 -2.99025 8.85104 44 42 56 
2.12835 -2.71379 8.27006 41 39 42 
1.87496 -2.79345 8.61798 40 40 40 
-0.159923 -2.84008 8.57957 53 51 54 
0.853074 -2.72254 8.26353 52 51 49 
-0.633802 -2.81809 8.5385 182 178 177 
-0.4925 -2.82777 8.59404 44 45 49 
0.559463 -2.68118 8.17593 49 51 50 
2.77844 -3.45218 11.6445 22 27 46 
3.38661 -3.52948 12.1994 200 184 168 
-0.324548 -2.66416 8.29776 219 203 190 
-0.184832 -2.665 8.33821 54 55 59 
-0.556463 -2.59993 8.34155 218 202 187 
0.17929 -2.48251 7.95153 62 62 60 
3.83032 -2.93056 11.7432 108 67 49 
2.79164 -2.71587 10.9566 35 49 36 
0.930444 -2.19977 8.34928 115 91 79 
3.64704 -2.77702 11.6858 115 142 71 
-0.577976 -2.02315 7.45819 185 140 109 
2.02137 -2.48106 10.1562 24 43 39 
3.13251 -2.60504 11.0801 124 152 75 
0.892978 -2.1042 8.27764 60 64 75 
3.54064 -2.62822 11.4641 4 24 15 
0.879674 -2.01974 8.25893 167 175 186 
3.84261 -2.34162 11.3218 41 68 75 
4.06506 -2.32847 11.5312 180 168 144 
2.32827 -2.051 9.74503 148 137 133 
3.94143 -2.27871 11.3387 183 171 157 
4.18531 -2.28201 11.4891 20 39 45 
3.79983 -2.20363 11.3809 25 44 50 
2.08286 -1.86741 9.29794 6 9 26 
4.06505 -2.11721 11.5562 141 133 122 
3.9393 -2.07094 11.3864 140 134 122 
3.17759 -1.83445 9.90799 226 76 75 
1.67312 -1.72291 9.20209 75 64 46 
2.79673 -1.7681 9.67287 213 68 73 
0.886365 -1.50565 8.9177 196 183 167 
1.287 -1.50693 9.00306 86 71 42 
1.10207 -1.42138 9.01127 0 5 21 
0.773618 -1.28808 8.83938 29 29 29 
0.801186 -1.25126 8.532 37 37 39 
0.717921 -1.10959 8.41727 126 115 109 
2.61921 -1.3377 13.2861 7 1 29 
4.26718 -0.471621 10.9631 28 23 63 
4.11996 -0.383016 10.7356 232 79 100 
1.57236 -0.33872 8.837 237 214 182 
3.77 -0.123368 11.2963 79 24 43 
1.29162 0.0886852 8.77447 107 94 86 
1.57164 0.105545 8.74225 241 228 211 
1.19582 0.270577 8.85134 200 174 151 
2.00183 0.354467 9.86184 90 43 53 
-0.415968 1.19236 8.31417 46 6 32 
-0.154469 1.27788 8.38996 203 174 168 
3.02167 1.72515 10.6585 199 115 113 
1.77812 1.57599 9.6999 124 58 72 
-0.402466 1.36493 8.31103 5 10 29 
2.652 1.88279 10.2761 125 43 57 
-0.420755 1.56734 8.41008 53 4 34 
1.23539 1.87987 9.06983 252 210 198 
0.437523 2.35364 9.3414 167 123 124 
0.537606 2.41688 9.50391 158 114 115 
0.645377 2.4561 9.55359 86 53 64 
3.87153 3.02607 11.6376 175 161 160 
0.620396 2.54946 9.45892 167 121 124 
-0.295925 2.4124 8.76186 202 169 176 
3.49261 3.1812 11.2854 14 16 28 
0.843998 2.93446 9.84063 15 11 28 
-0.0483407 2.78671 9.06841 181 161 172 
0.624893 3.01663 9.66614 17 20 25 
3.13025 3.58435 11.036 147 133 124 
3.13129 3.63052 10.8274 237 214 183 
1.84596 4.17668 10.8801 49 36 43 
1.96721 4.38497 11.035 177 159 139 
1.84116 4.40743 10.9358 39 32 40 
1.48268 -3.2425 8.93868 186 173 164 
2.78359 -1.36467 13.2822 179 161 141 
1.78271 0.369674 8.86849 90 49 63 
-0.227847 1.16784 8.45105 173 147 134 
-0.132519 1.18868 8.45569 98 12 47 
-0.157375 2.1914 8.85265 74 20 36 
1.03468 -4.40567 10.9543 152 140 140 
1.22578 -3.86964 10.0403 41 39 42 
2.70495 -3.55145 9.30655 242 225 195 
1.1612 -3.14634 7.8597 156 145 141 
1.57417 -3.70755 9.73993 28 32 35 
2.0712 -3.58578 9.41628 223 205 181 
1.21268 -3.72839 9.86364 38 38 40 
3.45921 -4.32142 12.1818 50 38 38 
1.54425 -3.57609 9.61063 38 36 37 
-0.371643 -4.77204 13.171 163 152 148 
0.502851 -3.68874 9.90981 39 39 41 
1.23847 -3.48707 9.3946 35 36 38 
1.01483 -3.39552 9.26557 174 164 163 
1.83691 -3.21011 8.99422 242 223 191 
2.24955 -2.96698 8.74371 215 199 184 
3.28916 -3.89157 12.2505 206 190 167 
2.24717 -2.7801 8.44303 40 29 35 
-0.826365 -2.99666 8.8696 44 42 56 
1.13864 -2.7957 8.45131 241 224 194 
3.44308 -3.6954 12.1851 22 18 33 
2.75745 -3.50646 11.6276 28 35 51 
2.93762 -3.50993 11.6563 158 146 148 
-0.352976 -2.67721 8.36442 219 203 190 
0.176084 -2.49115 7.98097 62 62 60 
0.0184875 -2.48131 7.96848 223 209 200 
3.57817 -3.11547 11.6014 104 125 66 
3.12522 -2.98326 11.1785 111 131 70 
3.43785 -2.86211 11.45 75 91 64 
3.01711 -2.78395 11.1115 73 73 65 
3.62053 -2.80273 11.7 117 144 73 
3.79923 -2.76143 11.6498 48 44 58 
3.14914 -2.65409 11.1853 125 151 77 
3.00618 -2.4953 11.0965 0 13 16 
2.57092 -2.22383 10.1713 29 43 44 
3.97565 -2.28779 11.2084 192 179 160 
2.91074 -2.13635 10.3433 85 100 107 
3.78107 -2.23117 11.4082 28 49 54 
1.95835 -1.92238 9.33835 53 39 30 
2.38244 -1.84546 9.29452 2 8 20 
3.3058 -1.88433 9.86923 21 41 50 
3.97404 -2.04791 11.2711 147 139 126 
0.718241 -1.73417 8.65088 88 74 63 
2.81807 -1.79362 9.75462 209 63 76 
2.59063 -1.70554 9.50112 31 24 32 
0.73663 -1.61146 8.99442 2 5 24 
0.872214 -1.49906 8.97256 205 192 176 
1.12352 -1.40526 8.99313 1 5 17 
0.712941 -1.31886 8.37322 213 201 185 
0.606846 -1.25205 8.28899 10 11 31 
2.62211 -1.3051 13.2701 2 4 29 
4.11358 -0.388068 10.9859 219 67 90 
3.89637 -0.325766 11.1603 219 73 92 
3.91867 -0.30675 11.8925 216 74 90 
1.5735 -0.320186 8.83421 235 212 180 
3.92912 -0.254569 11.31 227 78 98 
3.64548 -0.175414 11.1824 230 78 101 
1.55274 0.0636251 8.68506 237 223 196 
1.32194 0.23628 8.8362 199 173 146 
1.19848 0.272474 8.91439 202 176 151 
1.8359 0.587373 9.37206 163 106 113 
-0.259334 1.17658 8.38166 191 153 150 
2.97488 1.54662 10.72 136 52 68 
3.00004 1.75614 10.7679 197 110 116 
-0.425603 1.57103 8.49578 71 8 37 
0.496592 2.07818 9.48491 133 98 104 
1.2629 2.06629 9.20738 185 118 127 
-0.37664 2.16348 8.60912 11 8 27 
0.228156 2.40418 9.12485 175 135 144 
-0.301573 2.39269 8.7867 195 160 164 
0.624172 2.57926 9.47943 166 120 122 
0.682125 2.65655 9.67792 145 110 116 
3.65646 2.95751 10.9714 1 4 19 
-0.368858 2.79373 8.76255 17 19 32 
2.29726 4.27649 11.4082 167 149 129 
-2.52217 4.43653 11.2563 7 12 31 
3.02389 4.12381 11.0917 45 43 46 
-0.190344 5.04242 9.03804 70 69 83 
-0.413145 5.21126 9.11251 69 71 84 
2.1143 -3.46152 9.24959 241 222 190 
1.26946 -3.42723 9.20315 36 37 41 
1.53288 -3.34685 9.19125 29 38 35 
-0.00608141 -3.49435 9.52556 163 153 152 
1.76114 -3.25586 9.03019 242 222 189 
0.962039 -3.16117 8.71798 40 38 43 
1.05107 -2.85119 8.49993 240 223 193 
0.703429 -2.7446 8.23388 231 213 191 
3.17455 -3.5638 11.8505 34 31 48 
2.70974 -3.51883 11.7056 27 36 51 
0.699253 -2.64899 8.23626 240 223 197 
0.376851 -2.43924 7.93234 239 234 231 
3.15799 -2.68126 11.1796 124 150 76 
0.714674 -1.92623 7.63894 120 102 90 
2.55761 -2.17049 10.1995 23 30 40 
2.85992 -2.13478 10.2348 117 131 131 
0.907099 -1.44662 8.92073 181 167 154 
0.739439 -1.32727 8.35838 210 198 182 
0.0406868 -1.15336 7.16082 144 140 137 
0.872208 -1.24333 8.45751 50 52 49 
3.23691 -0.431941 10.6395 178 160 138 
3.65071 -0.402752 11.2414 3 14 46 
2.12061 0.371439 9.73086 83 20 37 
3.71917 1.59332 11.4396 193 119 120 
0.541915 2.10663 9.5883 125 90 96 
-0.343957 2.12099 8.61421 6 13 32 
-0.266207 2.39013 8.78151 181 145 155 
2.22072 4.26057 11.2991 169 153 130 
2.03079 4.25094 10.9811 177 159 137 
3.30279 -3.88736 11.9536 206 189 169 
0.896175 -4.0732 9.98886 78 65 59 
2.02928 -4.36534 11.95 241 220 191 
1.77552 -3.24843 9.01647 242 222 189 
-0.464717 -3.23738 8.82756 103 86 79 
0.737964 -2.60024 8.10508 241 224 198 
1.29414 -2.32885 7.68073 46 34 38 
0.0161105 -2.35377 7.82659 239 234 230 
0.545053 -1.8737 7.35149 5 12 31 
0.0331289 -1.70195 7.37842 1 9 32 
0.263963 -1.05796 7.1794 7 14 30 
-0.365705 1.00289 8.31212 48 6 30 
2.0153 1.57073 9.77601 207 154 150 
-0.321555 2.09126 8.6712 9 15 31 
-0.383062 2.68877 8.79248 25 11 28 
2.74839 4.48476 10.7198 175 149 124 
1.2267 -2.25553 7.43155 35 19 6 
3.10032 -2.23861 10.6913 125 138 147 
2.66237 1.0587 10.6366 55 0 1 
3.43121 3.84818 10.8383 26 22 19 
3.46015 3.83253 10.7999 32 23 28 
2.44389 -2.97001 8.40707 141 115 92 
2.13951 -2.8035 8.20103 115 90 70 
1.73461 -2.51239 8.11834 22 12 11 
1.88497 -2.51264 8.18402 154 127 116 
3.54334 -3.00049 11.6407 52 72 44 
3.04476 -2.85846 11.1719 58 62 45 
3.4277 -2.8239 11.5353 39 58 30 
3.80913 -2.91015 11.8755 167 123 110 
3.02044 -2.24894 10.6186 109 128 134 
3.9888 -2.40003 11.4764 133 117 101 
0.649155 -1.34542 8.36021 206 193 185 
1.14171 1.22401 8.89813 176 100 110 
0.44055 2.29635 9.35678 186 152 150 
-0.219151 2.36508 8.76224 227 197 187 
3.39331 3.1563 11.1039 23 25 24 
1.00716 -1.40443 9.02145 169 162 152 
2.32267 -2.9025 8.31653 93 73 48 
2.21651 -2.8335 8.21011 160 134 107 
1.49089 -2.37048 7.51958 102 81 76 
-0.273307 1.16854 8.32389 226 183 166 
-0.23362 1.21077 8.40772 51 41 39 
-0.285421 1.23416 8.37302 200 179 162 
-0.192683 1.26615 8.38952 217 194 178 
-0.358809 1.2839 8.37173 184 167 159 
-0.305687 1.3414 8.351 59 48 56 
0.112918 2.47872 9.09105 218 162 171 
3.10492 3.62827 10.9023 235 215 191 
-2.5441 4.47978 11.4633 21 17 32 
-1.69214 4.81572 10.2662 12 11 16 
3.47883 -6.76307 11.6793 29 32 49 
3.42896 -2.84536 11.5417 41 57 31 
-0.170764 1.33086 8.3724 121 9 34 
0.433043 2.31856 9.37751 202 164 163 
-0.267111 2.38656 8.71736 221 201 194 
0.62714 3.02473 9.72491 20 18 21 
3.44624 3.85691 10.8165 40 37 44 
3.41802 3.92409 10.8119 201 184 164 
-3.39734 4.57431 9.86461 28 26 39 
3.40522 -6.70794 11.6904 224 207 187 
3.10936 -2.59258 11.1968 115 141 76 
1.83345 -2.02506 9.33977 4 15 21 
0.959675 -1.51133 9.00148 6 8 20 
0.69726 -1.26044 8.37267 192 180 166 
0.587624 2.55519 9.54992 190 135 132 
0.297948 2.61765 9.30974 208 174 173 
0.673886 2.97484 9.72923 178 130 126 
-1.70479 4.80933 10.2897 12 16 27 
3.44518 -3.69348 12.1919 23 21 32 
1.26853 -1.50844 9.04312 89 69 42 
-1.97813 4.71065 10.2701 16 18 30 
1.25017 1.27012 9.1442 75 9 21 
1.1198 1.71728 9.2433 157 95 106 
2.44629 -2.96642 8.39576 144 116 92 
2.24717 -2.84368 8.24128 110 89 62 
2.14365 -2.79919 8.18339 106 78 54 
1.73901 -2.50868 8.10347 20 10 8 
1.88857 -2.50942 8.17095 151 127 115 
3.8189 -1.94187 12.9904 11 14 23 
3.59332 -1.99395 14.0844 13 17 18 
-0.27305 1.18287 8.39141 228 185 168 
3.3962 3.1309 11.0504 11 15 18 
0.712996 2.98594 9.7869 165 137 136 
2.14315 -2.79642 8.16493 92 65 36 
2.24474 -2.8031 8.2011 250 232 220 
2.52711 -1.82849 14.8724 174 160 149 
-0.17095 1.32165 8.37106 127 30 49 
-0.250721 1.32278 8.34599 220 198 184 
0.659832 3.00062 9.75292 172 136 136 
3.10335 3.6318 10.9179 237 215 191 
1.50806 -2.27162 7.84223 126 103 89 
4.16494 -2.29719 11.7466 17 30 39 
2.51084 -1.8118 14.8697 175 159 146 
-0.227888 1.21701 8.40329 45 33 37 
-0.301532 1.27057 8.36992 26 20 30 
3.44511 3.86021 10.8322 40 39 45 
2.35416 4.34426 11.5591 161 141 130 
4.09176 -2.38185 11.6007 184 172 150 
-0.239467 1.38829 8.34641 113 20 39 
1.73459 -2.62936 8.18613 53 34 20 
0.671317 -1.33907 8.32042 200 188 174 
-0.273085 1.36335 8.32807 203 171 156 
-2.99765 4.64683 11.1808 20 22 34 
2.18499 4.41478 11.6438 172 156 133 
2.91527 -2.17653 10.4667 119 140 141 
1.67506 -0.14359 8.82559 156 138 114 
3.34231 -3.58836 12.2691 202 186 161 
3.83231 -3.12281 11.8613 152 149 160 
3.80877 -2.91071 11.8634 154 123 102 
2.81799 -2.68712 10.9608 35 53 41 
3.70289 -2.7372 11.7704 106 127 88 
3.02499 -2.24422 10.5681 127 144 151 
3.30904 -2.25397 10.8068 114 129 136 
1.32086 -1.93062 9.31109 122 123 118 
2.01605 -1.89275 9.2894 207 200 181 
-0.216291 1.28773 8.37708 228 204 192 
0.486021 2.14603 9.411 73 29 42 
-0.268291 2.37899 8.73171 226 192 191 
-0.118255 2.95092 9.01003 202 182 184 
2.20935 4.16132 11.3952 89 71 67 
2.18115 4.20585 11.3579 98 81 73 
1.67902 -2.41551 7.82265 38 29 32 
3.34369 -3.58336 12.2564 204 188 162 
3.0816 -2.8119 11.1854 60 64 50 
3.42904 -2.82068 11.4975 58 76 52 
2.81158 -2.68714 10.9412 36 53 45 
3.22838 -2.76279 11.3046 52 71 52 
3.45245 -2.65069 11.491 108 133 93 
3.16128 -2.26559 10.6861 134 147 155 
2.39937 -1.72935 9.26764 84 87 94 
-0.152986 1.29552 8.38664 233 190 173 
-0.381591 1.31266 8.38645 29 22 29 
-0.394497 1.42169 8.37539 140 130 118 
1.76921 2.0709 9.69741 175 110 116 
0.389634 2.0711 9.30925 130 53 63 
0.317825 2.16606 9.25196 207 166 160 
-0.0303602 2.18738 8.93892 239 191 187 
0.436673 2.30525 9.36997 194 162 163 
0.736019 2.61557 9.73964 161 122 123 
3.07837 3.55665 10.9195 103 93 81 
2.41119 4.10811 11.6666 130 119 113 
3.63805 -3.56629 12.4025 216 194 171 
3.53444 -2.99409 11.6149 65 80 59 
3.22409 -2.90165 11.3043 68 88 53 
0.644524 -1.26719 8.36477 0 9 24 
-0.207664 1.16111 8.45376 219 192 173 
-0.169043 1.19946 8.46898 37 8 30 
0.198629 2.36353 9.16398 199 153 155 
-0.333471 2.29721 8.67708 198 108 108 
-0.27082 2.38978 8.72503 224 198 197 
-0.080506 2.96544 9.03456 45 14 30 
2.29863 4.16691 11.4619 53 34 54 
2.24064 4.20652 11.3965 163 146 128 
3.52271 -2.64861 11.5622 6 21 18 
-0.31481 1.33302 8.35561 44 38 50 
-1.74055 4.81895 10.4109 14 23 30 
1.38073 -4.93361 11.8309 74 64 65 
3.02937 -2.86254 11.2144 74 79 75 
3.42949 -2.84517 11.5051 55 70 51 
3.23521 -2.78753 11.3125 51 68 52 
3.11317 -2.58654 11.1487 115 145 71 
1.34595 -0.0452288 8.81288 216 193 161 
1.18631 0.519526 8.96741 74 42 53 
2.56565 1.04847 10.6018 107 41 55 
-0.408805 1.383 8.39257 9 12 27 
-0.32447 1.38707 8.36787 176 153 137 
2.19638 1.82835 9.88306 198 125 132 
0.583042 2.56098 9.56301 189 134 131 
0.294399 2.62226 9.31891 206 177 171 
2.31153 4.17167 11.5162 58 41 60 
-0.15809 1.27799 8.39804 217 191 168 
1.81057 2.02593 9.67971 163 98 102 
0.284771 2.07961 9.24671 195 162 143 
-0.348798 2.08142 8.46357 9 7 29 
0.430359 2.36568 9.37517 185 137 135 
0.593181 2.58615 9.5695 189 134 131 
3.39015 -3.54874 12.2688 217 195 172 
-0.22283 1.16468 8.44004 196 162 153 
-0.30358 2.30873 8.69095 212 106 120 
0.790403 -1.26253 8.68999 30 35 38 
0.728614 -1.10553 8.42734 118 110 107 
0.73344 -1.32786 8.37406 208 197 179 
1.73956 1.54271 9.63706 135 68 86 
2.21591 4.32183 11.4507 169 153 130 
0.61261 -1.94291 7.98098 178 186 188 
2.40956 -2.03078 9.69063 133 122 116 
1.08812 1.17783 8.81313 67 15 28 
3.67743 -3.64891 9.37717 116 70 44 
3.9289 -3.76092 9.73301 88 58 32 
3.54423 -3.54784 9.15707 145 109 83 
3.3807 -3.53182 9.14502 154 130 102 
0.4613 -3.89705 10.1302 86 74 76 
1.99678 -3.53149 9.33861 49 41 39 
3.11471 -3.33592 8.9047 253 233 209 
1.86739 -3.48083 9.24662 58 50 48 
1.64492 -3.12981 8.74281 54 41 32 
1.5646 -3.14792 8.88756 44 41 32 
1.51377 -3.08568 8.67357 67 56 54 
2.39462 -2.92878 8.32115 110 79 58 
2.33364 -2.89288 8.27726 105 77 55 
2.42271 -2.9407 8.63682 22 16 20 
-0.445029 -3.22215 9.22734 64 58 60 
3.03401 -3.62222 11.6783 31 28 35 
-1.0768 -2.93399 8.78791 57 52 56 
2.07748 -2.66204 8.2419 171 158 150 
2.94328 -3.48983 11.6841 88 76 80 
-0.195879 -2.61507 8.1877 63 54 49 
-0.328989 -2.57576 8.16016 67 53 52 
1.41768 -2.35153 7.53238 89 62 51 
3.84389 -3.00847 11.8306 147 138 139 
0.846814 -2.02338 7.07116 68 51 43 
3.80618 -2.88252 11.7253 174 127 111 
0.937434 -2.12217 8.28789 11 16 22 
4.08367 -2.61181 11.5625 244 233 213 
0.837342 -2.01126 8.20807 7 14 30 
2.31529 -2.08253 9.79216 153 143 142 
2.85359 -2.14811 10.3261 150 168 168 
3.88242 -2.22048 11.4015 144 141 126 
2.02148 -1.89009 9.26426 169 166 161 
2.47223 -1.85934 9.2761 22 20 21 
2.40412 -1.72439 9.24497 86 82 79 
0.775601 -1.67758 8.68356 83 66 59 
1.66419 -1.70107 9.19732 90 77 60 
1.84555 -1.58431 9.56619 151 151 149 
0.915442 -1.52598 8.92762 195 184 178 
3.66079 -0.291862 11.4151 15 2 30 
2.13035 -0.0417733 9.46744 204 180 170 
1.92184 0.32862 9.74338 53 10 19 
1.94021 0.380505 9.78703 177 120 127 
1.74549 0.380799 9.66103 63 16 32 
1.85368 0.388454 9.74458 49 13 23 
2.66515 1.06512 10.627 113 46 55 
2.0169 1.33979 10.1955 106 36 44 
1.45688 1.1744 8.96006 92 23 41 
1.1712 1.16581 8.79467 150 86 102 
-0.246628 1.14823 8.44934 111 49 64 
-0.267417 1.20308 8.40098 202 177 173 
-0.39039 1.24355 8.4046 79 35 50 
-0.284128 1.23507 8.37096 176 153 159 
-0.143566 1.25862 8.41344 199 170 162 
-0.183701 1.26597 8.37338 192 172 165 
-0.218243 1.29104 8.38128 192 172 163 
-0.373564 1.3112 8.37138 32 27 33 
1.18548 1.62408 9.30599 72 8 24 
1.11706 1.81078 9.68559 77 17 27 
1.84371 1.95722 9.62689 198 137 136 
1.18355 1.96142 9.44105 253 213 203 
0.399401 2.0616 9.28412 114 47 64 
0.368204 2.15793 9.29097 180 131 137 
0.375104 2.22822 9.30195 178 133 138 
0.460468 2.28032 9.30471 161 133 132 
0.482633 2.31234 9.41961 44 12 23 
-0.0925215 2.20975 8.92462 194 148 150 
-0.12969 2.21355 8.92137 80 16 40 
-0.359928 2.30544 8.69898 191 119 133 
-0.236028 2.37828 8.79751 203 173 183 
0.654669 3.00447 9.76174 139 112 119 
0.627215 3.0229 9.74329 25 19 21 
2.86409 3.39623 11.1009 59 53 55 
-0.109727 2.95845 9.07435 56 28 43 
-0.147799 2.97645 9.0746 178 163 170 
0.046861 3.15144 9.26733 171 121 133 
-0.0371509 3.13918 9.21728 162 134 149 
1.92697 4.49409 11.1025 157 143 132 
0.454072 5.20757 8.93459 110 98 86 
1.73558 5.37854 8.25486 132 116 100 
1.3924 -4.94862 11.8109 72 58 57 
2.73086 -3.92835 9.88958 217 202 169 
3.3689 -3.57731 9.17673 250 221 191 
3.25509 -3.41355 8.92807 125 98 71 
0.463267 -3.89347 10.115 86 74 76 
3.22124 -3.2431 8.71796 51 40 38 
2.95994 -3.25684 8.75735 146 114 89 
2.93651 -3.23417 8.76452 250 230 206 
1.64537 -3.31625 9.04156 49 42 36 
2.3959 -2.9237 8.31147 110 79 58 
2.33357 -2.88906 8.26567 105 77 55 
3.03871 -3.62251 11.6951 31 29 40 
2.99387 -3.60968 11.7525 147 139 136 
2.87574 -3.55843 11.5794 158 144 144 
3.50805 -3.63873 12.2418 22 21 37 
-0.885988 -2.85106 8.66218 41 40 46 
3.34677 -3.57196 12.2111 199 182 172 
2.881 -3.43475 11.6042 150 142 140 
2.82877 -3.42752 11.6792 19 19 29 
1.97096 -2.55758 8.20605 132 105 96 
-0.504601 -2.68455 8.38103 212 202 203 
-0.557269 -2.67336 8.34827 46 41 48 
1.46272 -2.38586 7.60529 65 50 45 
-0.515503 -2.62212 8.28588 216 202 189 
-0.397487 -2.59454 8.2175 61 55 55 
-0.325402 -2.57281 8.14539 67 53 52 
-0.42646 -2.58607 8.19299 213 203 191 
1.50819 -2.26952 7.84413 119 100 96 
1.45995 -2.25453 7.81277 123 100 84 
3.04553 -2.85824 11.1555 65 66 50 
3.08417 -2.80505 11.169 73 72 54 
3.81074 -2.89635 11.7785 169 125 112 
3.42886 -2.82084 11.5071 55 70 41 
2.97212 -2.70667 11.0478 60 63 46 
2.81116 -2.68724 10.946 34 47 37 
4.32713 -2.84324 12.0779 89 93 96 
3.40742 -2.61173 11.441 7 21 8 
4.08139 -2.60531 11.545 238 227 205 
0.956238 -2.06526 8.28894 122 119 128 
3.86478 -2.54531 11.3234 229 222 203 
0.89846 -2.06229 8.32204 5 12 28 
0.386523 -1.76268 6.70458 217 191 174 
0.828094 -2.01388 8.21873 10 17 33 
3.98967 -2.38896 11.3978 148 139 122 
4.08903 -2.28848 11.6621 149 142 126 
3.88272 -2.21763 11.3682 149 144 125 
1.33363 -1.92385 9.27977 97 88 91 
1.29234 -1.87087 9.2369 78 74 73 
0.651155 -1.66615 8.20543 94 91 98 
2.30436 -1.76411 9.19369 68 69 71 
2.40142 -1.72681 9.25827 79 76 69 
0.779806 -1.67831 8.66023 82 65 57 
1.66961 -1.69945 9.17581 90 77 58 
0.906287 -1.52837 8.95374 191 181 172 
0.950674 -1.51756 8.94311 21 16 23 
1.79554 -1.54096 9.48864 21 20 18 
0.707124 -1.45507 8.58547 47 39 37 
0.931941 -1.49092 8.92041 209 196 179 
0.687939 -1.4107 8.47563 155 147 145 
1.02371 -1.45843 8.95448 199 191 178 
0.668329 -1.34019 8.3276 201 192 175 
0.692069 -1.24285 8.34421 184 174 172 
1.64913 -0.564479 10.1581 140 129 123 
-2.19034 1.11205 9.63218 34 28 30 
-0.204569 1.15775 8.45609 195 165 157 
-0.21856 1.18628 8.41844 175 157 147 
-0.315503 1.18956 8.40702 97 23 48 
-0.161973 1.19264 8.4352 45 16 36 
-0.343653 1.21772 8.39155 193 158 154 
-0.288175 1.23542 8.38194 183 161 164 
-0.179354 1.24474 8.40516 64 48 51 
-0.301191 1.26152 8.36528 25 22 39 
-0.190507 1.26885 8.38454 189 169 162 
-0.366674 1.28446 8.38315 162 147 142 
-0.170983 1.3219 8.37108 108 23 52 
-0.325151 1.34717 8.38414 44 34 42 
-0.232908 1.35033 8.37007 209 166 157 
-0.38983 1.39205 8.38224 22 18 33 
-0.293823 1.39434 8.35933 177 137 137 
-0.405822 1.43115 8.39787 106 98 96 
-0.304904 1.42599 8.34736 89 25 42 
0.673593 1.9585 9.54192 120 87 94 
0.317304 2.16494 9.25274 186 140 151 
0.568224 2.33147 9.52131 111 54 61 
-0.11324 2.24605 9.12268 196 160 160 
0.483235 2.30581 9.40988 49 19 31 
-0.111638 2.18971 8.84722 76 14 37 
0.409647 2.40307 9.39836 183 134 138 
0.698064 2.99946 9.83065 143 113 115 
-0.0819123 2.79589 9.04149 179 152 169 
-0.354241 2.87174 8.87911 38 28 39 
-0.103591 3.00102 9.08933 71 37 53 
3.07963 3.55078 10.9078 89 76 68 
1.94451 3.97792 11.0044 95 78 88 
2.23412 4.17306 11.5457 140 119 114 
-1.77882 4.89138 10.423 14 16 29 
3.51232 5.1133 9.17042 166 142 118 
1.60497 5.33678 8.55295 151 135 112 
1.98313 -3.52191 9.31711 51 45 45 
3.1064 -3.3288 8.90696 255 237 213 
1.88125 -3.49016 9.26846 48 46 49 
1.9785 -3.3316 9.00967 54 40 37 
2.23325 -2.82785 8.16122 130 96 69 
2.356 -2.902 8.54388 30 20 21 
2.20765 -2.78928 8.15725 223 196 177 
2.13381 -2.74483 8.08299 190 174 159 
2.98858 -3.59062 11.7209 155 143 143 
2.88452 -3.55266 11.6123 156 142 142 
2.05963 -2.66698 8.24843 149 141 130 
1.94714 -2.60221 8.14739 173 162 160 
2.99484 -3.48976 11.7515 154 143 139 
2.88929 -3.45057 11.6289 156 144 146 
3.06635 -3.45253 11.702 16 15 31 
2.81779 -3.43068 11.6628 18 22 34 
-0.409524 -2.60391 8.25657 59 53 53 
-0.535091 -2.62217 8.32201 216 203 187 
1.42914 -2.33896 7.54064 49 38 42 
3.63798 -3.20058 11.6589 109 120 77 
3.83476 -3.10108 11.8097 131 127 128 
1.45617 -2.26189 7.82536 128 102 85 
3.5349 -2.99227 11.607 62 72 48 
3.83708 -3.00132 11.8228 146 136 137 
3.2255 -2.89766 11.2908 79 96 62 
3.8264 -2.89996 11.7822 160 109 90 
3.23052 -2.77556 11.2732 56 70 47 
3.4506 -2.66226 11.501 116 142 79 
0.864787 -2.06245 8.2441 37 39 51 
0.893622 -2.06903 8.31502 9 17 30 
3.16573 -2.24743 10.663 146 154 156 
3.82028 -2.18579 11.3916 20 39 45 
2.00909 -1.89121 9.26587 76 73 64 
0.73775 -1.49173 8.4867 84 71 65 
1.31968 -1.51642 9.01719 83 69 43 
1.06835 -1.42568 9.02873 0 5 21 
0.794124 -1.29043 8.795 34 34 34 
2.11485 -0.0278603 9.50368 214 187 176 
1.98648 0.328299 9.65371 55 9 19 
1.84256 0.313376 8.68035 56 15 31 
1.67904 0.380107 8.9744 61 20 36 
-0.31733 1.17963 8.40422 101 18 48 
-0.344043 1.22602 8.40431 189 158 153 
-0.230211 1.21858 8.40786 43 31 43 
-0.290482 1.23436 8.40092 181 160 159 
-0.183776 1.23521 8.40606 50 37 46 
-0.30559 1.27501 8.37818 16 15 33 
-0.256231 1.28825 8.37124 34 35 39 
-0.224977 1.34008 8.34248 202 164 155 
-0.398096 1.38339 8.37348 17 16 34 
-0.239003 1.391 8.34599 96 13 43 
-0.414289 1.50736 8.53528 68 6 29 
-2.20273 1.94506 9.59286 132 121 115 
0.668141 1.96908 9.53441 122 92 102 
1.84243 1.97172 9.65332 197 136 135 
1.73455 2.04541 9.67317 168 107 114 
0.274276 2.07669 9.24652 164 137 130 
0.483256 2.13421 9.38467 70 27 36 
4.37393 2.92125 12.3534 46 48 47 
0.562643 2.31885 9.52298 112 52 60 
-0.0858877 2.20197 8.93455 187 154 149 
-0.143127 2.20941 8.91425 78 14 41 
-0.357996 2.31561 8.7265 197 117 128 
0.730771 2.61679 9.72586 136 104 105 
-0.291246 2.40405 8.76663 205 176 181 
0.760341 2.9462 9.83087 126 95 103 
0.68925 2.9874 9.81451 150 110 110 
-0.0771249 2.80038 9.0638 183 161 174 
0.62019 3.03078 9.74464 20 21 25 
-0.148291 2.97328 9.04364 190 171 175 
-0.20873 3.00013 8.98013 125 76 80 
3.08882 3.53512 10.8619 99 86 77 
3.1152 3.59208 10.7955 234 217 189 
2.3246 4.10068 11.2975 55 32 48 
1.84094 4.22635 11.039 48 35 42 
0.447779 5.21469 8.95182 109 97 85 
1.80826 5.52019 8.16695 146 127 112 
3.17253 -3.19774 8.70022 48 37 41 
0.634879 -1.37284 8.34568 142 139 132 
-0.249726 1.13629 8.43964 110 36 59 
-0.397375 1.23146 8.3958 83 25 49 
-0.443013 1.4186 8.35427 11 14 31 
0.660194 2.99353 9.76972 145 113 116 
4.03906 -6.40989 10.8932 97 97 107 
3.41369 -6.61067 11.4684 216 200 185 
2.91788 -6.90334 12.1014 73 65 62 
2.45519 -7.12433 12.6231 75 76 81 
2.74428 -3.56862 9.27866 249 223 198 
2.77772 -3.55292 9.25817 249 214 192 
0.567407 -3.88813 10.0159 156 145 143 
2.02201 -3.38098 9.04736 237 219 195 
2.92422 -3.22268 8.7562 248 230 208 
1.97077 -3.31639 8.9795 51 41 39 
2.61366 -3.0616 8.50587 111 90 63 
2.52852 -2.97147 8.31201 105 77 53 
2.85289 -3.03489 8.5922 46 34 38 
2.74506 -3.00272 8.5723 46 34 34 
2.29366 -2.8494 8.26795 243 226 198 
2.20617 -2.79492 8.17059 223 196 177 
3.26582 -3.78259 12.0333 206 188 166 
3.48685 -3.73974 12.1586 13 14 32 
2.12207 -2.70843 8.18437 25 23 26 
1.99467 -2.68462 8.12253 29 29 31 
3.06438 -3.60595 11.7012 35 34 50 
2.00175 -2.66172 8.12967 38 32 34 
2.80455 -3.55828 11.6107 28 35 51 
1.91007 -2.64139 8.0477 44 42 45 
3.48931 -3.64872 12.2014 15 17 30 
1.92336 -2.61037 8.02066 37 31 31 
1.7889 -2.58675 7.9935 60 51 52 
1.81325 -2.56298 7.96838 40 34 38 
1.94858 -2.60422 8.15751 174 163 161 
1.92252 -2.54597 7.97915 165 155 154 
1.59735 -2.48386 7.69996 191 148 105 
1.88931 -2.57324 8.10357 168 157 155 
2.80679 -3.43552 11.6469 20 27 37 
3.3712 -3.55652 12.2735 199 182 162 
-0.428497 -2.67324 8.2901 219 205 196 
1.84063 -2.54135 8.11167 35 30 27 
3.13878 -3.48523 12.1729 106 70 48 
1.7518 -2.40433 7.9748 118 96 85 
3.62777 -3.18715 11.6537 103 121 71 
0.759172 -2.0031 7.03527 192 154 118 
3.83197 -2.91118 11.8263 161 110 89 
3.42961 -2.84439 11.509 61 73 53 
3.23594 -2.78536 11.3078 60 74 51 
3.76697 -2.69931 11.636 12 10 23 
3.12163 -2.57049 11.0562 123 151 77 
3.52642 -2.63665 11.4948 4 21 13 
4.06911 -2.57876 11.5039 234 222 198 
3.89141 -2.53242 11.3376 240 224 201 
0.875677 -2.0148 8.21542 171 177 189 
3.93573 -2.41312 11.3349 227 213 187 
4.09267 -2.36461 11.4895 195 183 157 
1.84134 -2.0218 9.30555 0 7 19 
4.16304 -2.27539 11.5399 18 32 41 
3.91599 -2.25301 11.4097 169 158 140 
1.34698 -1.92844 9.28135 85 76 79 
2.41481 -1.93752 9.49595 4 7 22 
3.81868 -2.19214 11.412 21 40 46 
0.330719 -1.6273 8.39559 0 6 25 
0.97971 -1.50692 8.94259 22 22 30 
0.693392 -1.45361 8.60195 37 35 36 
1.26154 -1.48802 9.01421 86 73 54 
0.656727 -1.41663 8.417 34 47 53 
1.01232 -1.44266 8.94326 198 189 174 
0.698548 -1.38455 8.46446 192 178 169 
0.70493 -1.33337 8.23686 206 193 177 
0.631449 -1.31152 8.30323 7 8 26 
0.648715 -1.29203 8.32488 12 14 29 
0.882259 -1.32619 8.9428 52 50 51 
0.704137 -1.25884 8.35597 192 180 164 
3.65846 -0.31591 11.4033 0 13 47 
1.96873 0.338387 9.73739 79 33 43 
1.83666 0.49701 9.58632 119 57 72 
2.05806 0.4983 9.64312 184 122 123 
2.56714 1.10809 11.1053 147 79 94 
-0.216244 1.16672 8.45822 202 175 164 
-0.14597 1.27591 8.38876 203 170 163 
-0.326591 1.39103 8.37267 167 142 135 
-0.362957 1.48173 8.43553 78 5 34 
-0.425147 1.54981 8.38713 47 4 31 
2.19941 1.82214 9.86598 206 130 140 
-2.22381 1.95569 9.62629 135 124 118 
0.556562 2.30593 9.5119 112 48 64 
3.9565 2.87998 11.4963 10 16 32 
0.194961 2.37871 9.18207 181 139 151 
0.614078 2.47986 9.58392 89 53 63 
-0.33639 2.30421 8.68428 192 105 114 
0.582463 2.5587 9.56364 168 122 124 
3.90951 3.14836 11.9597 190 175 168 
0.725913 2.62269 9.71151 135 104 102 
-0.283649 2.40101 8.75191 209 176 185 
0.295864 2.62038 9.31507 178 157 162 
0.683 2.96074 9.73486 152 110 111 
-0.0687598 2.80079 9.08002 181 161 172 
-0.0938021 2.98918 9.06373 67 30 47 
-0.0556563 3.11822 9.20678 142 130 144 
3.12103 3.60678 10.8166 236 215 186 
2.3192 4.15199 11.4687 70 45 64 
1.92096 4.16104 11.0115 178 160 146 
1.84282 4.21773 11.0125 48 35 42 
1.94494 4.44751 11.0932 172 155 135 
-2.0003 4.90785 10.3539 121 111 102 
2.90935 -6.94876 12.1772 77 72 68 
1.83606 -5.03682 12.1975 83 65 61 
2.131 -2.70199 8.22408 41 39 42 
-0.625767 -2.8122 8.51695 182 178 177 
-0.530841 -2.58318 8.27116 218 202 187 
2.79183 -2.71781 10.9673 35 49 36 
3.6514 -2.78688 11.7377 115 142 71 
2.01908 -2.48849 10.1978 24 43 39 
3.13178 -2.59945 11.0561 124 152 75 
3.54741 -2.64339 11.5502 4 24 15 
4.07252 -2.33939 11.5953 180 168 144 
2.32825 -2.05097 9.74277 148 137 133 
3.94345 -2.28073 11.3554 183 171 157 
4.19363 -2.29405 11.5563 20 39 45 
3.80189 -2.20629 11.4006 25 44 50 
1.34194 -1.92961 9.30681 90 81 84 
0.646966 -1.70825 8.20904 55 48 55 
2.50102 -1.79108 9.1894 154 144 119 
0.852681 -1.25106 8.45224 29 29 29 
0.774505 -1.26287 8.66111 37 37 39 
4.39604 -0.441345 10.9474 186 63 83 
2.00925 0.343609 9.73875 90 43 53 
-0.41315 1.19071 8.30609 46 6 32 
-0.424083 1.56861 8.41906 53 4 34 
-0.0744972 2.19995 8.95067 191 157 156 
0.429735 2.36405 9.37607 167 123 124 
0.53499 2.42182 9.51733 158 114 115 
0.212727 2.39343 9.16118 176 136 145 
0.604156 2.57388 9.53807 167 121 124 
-0.301422 2.41819 8.77915 202 169 176 
-0.0555601 2.79487 9.09331 181 161 172 
0.618549 3.02839 9.6983 17 20 25 
1.96399 4.40635 11.0868 177 159 139 
1.83505 4.43925 11.0157 39 32 40 
-0.227364 1.16722 8.44934 173 147 134 
-0.13918 1.1927 8.4769 98 12 47 
-0.168798 2.20132 8.88969 74 20 36 
1.0124 -4.4608 11.1097 152 140 140 
-0.141699 -4.04083 11.1023 40 39 44 
2.54802 -3.05995 8.66883 234 217 197 
3.44372 -3.69898 12.1973 22 18 33 
2.75771 -3.50662 11.6307 28 35 51 
2.93813 -3.51904 11.6881 158 146 148 
3.59757 -3.56453 12.3023 205 190 167 
3.58313 -3.12984 11.665 104 125 66 
3.80534 -2.77335 11.7127 48 44 58 
3.14895 -2.65313 11.1808 125 151 77 
3.32692 -2.61982 11.5881 0 14 11 
3.00918 -2.50759 11.175 0 13 16 
2.91317 -2.14707 10.4215 85 100 107 
3.78156 -2.2309 11.4111 28 49 54 
1.96036 -1.91827 9.30869 53 39 30 
2.06093 -1.93918 9.9379 3 11 24 
0.735153 -1.57458 8.32013 2 9 27 
0.719068 -1.31573 8.34609 213 201 185 
0.611132 -1.25068 8.27028 10 11 31 
2.62197 -1.31886 13.4988 2 4 29 
4.12634 -0.307886 11.4804 212 72 98 
1.57926 -0.322718 8.78067 235 212 180 
3.64886 -0.176334 11.227 230 78 101 
1.3191 0.23778 8.85601 199 173 146 
1.75329 0.357211 8.97593 74 36 49 
-0.411034 1.56261 8.45437 71 8 37 
0.288117 2.07642 9.23214 171 141 133 
0.64624 2.30799 9.57508 128 89 92 
-0.30021 2.39327 8.78355 195 160 164 
0.611249 2.59868 9.54247 166 120 122 
0.689938 2.918 9.80205 154 118 118 
3.02649 3.96306 11.1179 157 140 120 
2.39589 4.10259 11.3976 56 40 53 
2.29366 4.3198 11.5195 167 149 129 
1.98187 4.37594 11.0961 179 161 139 
-1.8568 4.88871 10.5148 9 17 30 
-0.435603 5.25266 9.18213 69 71 84 
1.05202 -2.85004 8.49428 240 223 193 
3.17659 -3.57509 11.896 34 31 48 
0.699185 -2.64812 8.23363 240 223 197 
3.15904 -2.68679 11.2059 124 150 76 
2.12496 -1.82304 9.41072 6 12 26 
0.508794 -1.62435 8.38499 65 47 35 
0.853949 -1.52461 8.06129 5 12 30 
0.906978 -1.44748 8.92004 181 167 154 
0.73982 -1.32607 8.35805 210 198 182 
0.865201 -1.2472 8.4913 50 52 49 
2.12067 0.370927 9.72835 83 20 37 
1.70682 1.57293 9.77317 136 70 82 
0.268316 2.1014 9.28503 173 133 131 
0.729556 2.46086 9.69245 61 35 46 
2.21529 4.32464 11.4545 169 153 130 
2.02703 4.27795 11.0475 177 159 137 
2.62948 -6.98791 12.632 207 191 176 
2.92504 -3.51998 11.6651 146 135 139 
0.874674 -2.09967 8.25367 87 88 93 
2.50703 -1.87586 9.74397 159 147 131 
0.882562 -4.10185 10.0686 78 65 59 
1.78094 -3.23095 8.95708 242 222 189 
1.09861 -2.79533 8.32502 239 222 192 
0.737763 -2.60125 8.10456 241 224 198 
0.787535 -1.91934 8.14805 0 6 25 
-0.0283474 -1.7326 7.55966 1 9 32 
1.59518 -0.237947 8.75558 224 199 168 
-0.220109 1.28312 8.40721 172 152 145 
2.01075 1.57671 9.83074 207 154 150 
1.6142 2.07239 9.43529 93 41 54 
-0.298247 2.0704 8.5997 9 15 31 
0.91907 2.98345 9.78634 48 41 48 
3.11775 3.88824 11.2081 175 153 129 
2.75059 4.62456 11.044 175 149 124 
3.78177 -3.59938 9.60014 68 47 26 
3.19491 -3.20792 8.65645 39 26 17 
3.05191 -3.09882 8.54592 236 223 206 
2.97702 -3.55817 11.7505 69 61 58 
2.97851 -3.52729 11.7719 84 73 71 
2.30709 -3.39757 11.184 80 88 101 
3.3106 -3.58674 12.3271 48 29 33 
2.33921 -3.3736 11.1893 75 87 103 
2.4672 -3.35289 11.3389 82 93 111 
2.11209 -2.67675 8.13979 108 108 118 
1.8801 -2.6004 7.82618 79 60 46 
5.16083 -3.94678 16.9737 90 72 70 
-0.165663 -2.49981 7.97403 223 209 198 
1.42764 -2.32084 7.44808 137 119 117 
3.85307 -2.99944 11.9906 172 154 142 
3.47023 -2.89721 11.531 40 62 26 
3.50671 -2.90998 11.5981 48 71 29 
3.84585 -2.94098 11.9334 70 24 0 
3.05784 -2.82586 11.1487 147 148 143 
3.53215 -2.85654 11.6046 111 130 85 
3.52025 -2.83875 11.6259 44 65 24 
3.00468 -2.73249 11.143 121 118 113 
2.51612 -2.59128 10.6647 4 22 10 
0.861856 -2.07691 8.19372 82 84 105 
0.947304 -2.05411 8.23378 12 18 30 
4.03498 -2.39151 11.4317 141 133 110 
0.924626 -2.01465 8.122 7 12 18 
0.895982 -2.03569 8.39621 1 11 21 
3.30739 -2.2769 10.8308 56 69 75 
3.03822 -2.24218 10.5609 166 184 188 
3.08917 -2.24633 10.6352 53 70 77 
3.02809 -2.22624 10.5876 55 70 75 
2.89297 -2.20591 10.4419 176 191 196 
3.08139 -2.22157 10.6493 172 184 182 
3.18882 -2.22606 10.7011 181 199 203 
3.09904 -2.21261 10.6432 44 56 54 
0.641553 -1.94498 7.99539 17 19 31 
2.85549 -2.18879 10.409 164 177 183 
2.82744 -2.18082 10.3895 189 204 209 
3.11346 -2.19994 10.6493 154 169 174 
2.91583 -2.17441 10.4662 193 206 196 
3.05327 -2.18874 10.5997 159 178 185 
3.02255 -2.1786 10.5566 190 205 202 
2.82073 -2.16023 10.4048 58 73 78 
2.9543 -2.17489 10.5281 39 56 66 
2.90694 -2.15662 10.4683 45 59 59 
2.84968 -2.14192 10.4195 68 75 68 
2.86068 -2.13281 10.4626 155 170 173 
2.75336 -2.10078 10.3149 160 178 182 
2.41983 -2.02328 9.6302 136 137 142 
2.57795 -1.93327 9.57072 146 144 147 
2.49728 -1.87165 9.27641 163 168 174 
2.01027 -1.86638 9.24468 98 97 95 
2.50612 -1.80629 9.24665 21 17 6 
2.53442 -1.84096 9.64848 14 12 23 
1.84582 -1.58857 9.47385 27 26 21 
0.770978 -1.4474 8.60979 150 136 123 
0.689968 -1.39159 8.42342 119 109 100 
0.677103 -1.36374 8.28285 108 109 95 
0.636217 -1.33981 8.31958 20 20 28 
4.36404 -0.346474 11.2908 49 0 23 
3.90906 -0.192144 11.7185 51 0 22 
3.7807 -0.160645 11.5886 58 0 23 
3.73637 -0.147012 11.5828 57 0 15 
3.97231 -0.204828 10.1945 46 2 29 
3.75689 -0.11722 11.5702 26 0 9 
3.77615 -0.00646385 11.61 32 0 5 
4.37989 0.312273 14.4117 154 80 95 
3.79289 0.315497 11.761 140 76 93 
2.16553 0.266573 10.1971 62 0 19 
3.75513 0.360604 11.7668 49 0 9 
3.78049 0.393708 11.7974 48 0 4 
4.12458 0.590092 13.1466 68 2 12 
1.91166 0.368906 9.92586 30 0 12 
1.93785 0.396915 9.92918 25 0 8 
3.66933 0.536997 11.722 50 0 5 
1.74917 0.335652 8.93668 64 3 18 
3.02703 0.531772 11.1523 72 16 25 
3.03536 0.650364 12.1983 160 97 106 
1.71229 0.346814 8.8937 55 3 16 
2.96343 0.54026 11.087 158 93 113 
2.94198 0.553685 11.0849 35 0 6 
3.03445 0.56183 11.1554 172 105 122 
3.12024 0.592475 11.2546 82 25 31 
3.77582 0.634323 11.8685 58 0 14 
3.62552 0.657099 11.7248 143 76 93 
3.56065 0.680802 11.6886 43 0 3 
1.79233 0.447383 9.04851 28 0 3 
3.14103 0.655483 11.2744 149 82 100 
2.6273 0.628038 10.7939 142 85 100 
3.22633 0.679685 11.3043 49 0 2 
3.5607 0.714135 11.6969 143 83 95 
3.53969 0.725079 11.6677 49 0 6 
3.2865 0.708996 11.4196 48 0 0 
3.45531 0.743758 11.5761 52 0 12 
3.56199 0.756456 11.7171 83 26 33 
3.52076 0.76375 11.6494 51 0 6 
3.47718 0.777548 11.6276 55 0 13 
3.43513 0.788032 11.5945 50 0 9 
2.2705 0.58744 9.57585 113 64 83 
3.44358 0.687521 10.7235 46 0 8 
2.35549 0.633775 9.64975 164 100 116 
1.97288 0.606731 9.26014 109 71 86 
2.20697 0.681486 9.51769 173 94 116 
2.55733 0.964714 10.8266 128 67 85 
2.74806 1.07804 11.0455 40 0 4 
2.5135 1.10671 10.8786 36 0 5 
2.49559 1.10023 10.8262 136 85 100 
1.27682 0.844762 8.73332 60 9 28 
1.88463 0.767276 8.43403 53 0 16 
2.37414 1.13659 10.7149 129 76 94 
1.67768 0.920248 9.08145 140 81 103 
2.51808 1.18174 10.8955 63 14 20 
1.8446 1.10351 10.1861 52 0 12 
2.31272 1.19539 10.6884 123 75 89 
2.79077 1.23858 11.1059 250 213 186 
3.6898 1.20166 11.1922 51 0 11 
1.65099 1.08012 9.17675 64 7 24 
1.74864 1.24802 10.1308 84 22 33 
1.852 1.25635 10.2289 87 20 37 
2.50012 1.35585 10.9301 145 95 84 
1.48218 1.09783 9.00338 67 10 27 
3.57291 1.35935 11.0841 62 2 14 
1.34897 1.10126 8.86326 63 2 17 
-0.23483 1.16217 8.48869 207 170 162 
3.07859 1.54527 11.4865 48 0 3 
-0.196954 1.16997 8.43145 197 183 172 
1.54312 1.18734 9.07754 54 1 19 
1.30535 1.18661 8.88956 56 3 21 
1.58044 1.2465 9.13769 61 0 20 
1.14183 1.24564 8.8488 71 17 33 
2.81188 1.6571 11.3255 74 14 24 
1.41191 1.30477 9.09091 65 11 27 
2.95709 1.58956 10.6188 71 4 22 
3.01706 1.6023 10.6457 67 0 17 
1.10429 1.38802 8.90354 52 0 10 
3.03532 1.63874 10.7067 100 15 34 
3.50194 1.7178 11.1908 71 5 17 
3.51968 1.74881 11.2094 69 5 21 
3.12807 1.72238 10.7921 76 3 23 
3.72015 1.85533 11.48 70 5 25 
1.11754 1.68101 9.03833 43 0 7 
2.67981 1.91171 10.4355 56 0 11 
1.14156 1.71543 9.05071 67 20 30 
2.51095 1.9989 10.3019 82 18 34 
1.87726 1.97036 9.71972 78 25 35 
2.45119 2.15317 10.3646 51 0 16 
1.88784 2.03732 9.69097 59 8 25 
2.3749 2.38922 10.3909 80 13 30 
1.15735 2.18406 9.23903 53 5 19 
1.21095 2.25625 9.26377 56 20 34 
3.25389 -6.13104 9.34619 17 25 48 
3.85262 -3.69078 9.72694 204 163 117 
3.54625 -3.53955 9.13914 114 90 64 
0.986715 -4.0218 10.2686 43 44 46 
2.75221 -3.73055 9.81806 250 221 187 
0.825717 -4.0161 10.3191 43 41 44 
3.43951 -3.39171 8.9007 46 34 34 
0.602992 -3.97059 10.23 44 38 40 
0.485905 -3.87527 10.0613 50 41 44 
3.14983 -3.29911 8.70788 82 59 51 
3.1963 -3.23267 8.6753 245 228 210 
3.22447 -3.22537 8.6555 32 20 24 
1.87022 -3.47789 9.2339 48 42 42 
2.93754 -3.23873 8.77507 255 233 210 
3.16767 -3.18269 8.63809 45 36 37 
1.67132 -3.38154 9.00347 29 32 39 
1.97795 -3.29071 8.83139 47 44 37 
0.491571 -3.59998 9.65988 46 45 50 
0.287684 -3.61562 9.70443 41 42 44 
1.86951 -3.28453 8.91226 64 57 51 
2.65397 -3.00705 8.29645 101 78 60 
2.52639 -2.97025 8.31226 110 88 67 
1.67062 -3.10485 8.6493 52 41 37 
