ply                 
format ascii 1.0    
element vertex 1313
property float x    
property float y    
property float z    
property uchar red  
property uchar green
property uchar blue 
end_header          
0.378827 2.21517 9.2979 207 156 153 
1.18875 2.22164 9.29755 52 12 21 
1.30066 2.3341 9.78397 41 9 22 
0.57165 2.27451 9.50363 101 29 40 
1.16599 2.22755 9.30235 131 72 90 
0.470121 2.2743 9.42017 58 14 27 
1.12346 2.2589 9.3315 31 0 9 
1.1922 2.25228 9.30884 149 85 101 
1.21684 2.25901 9.31419 27 1 10 
1.10479 2.2912 9.34771 32 0 10 
1.17136 2.28935 9.32685 137 83 97 
-0.0673174 2.18029 8.85777 236 188 176 
1.14894 2.29592 9.33669 28 5 11 
1.19483 2.29441 9.32277 46 23 33 
1.24311 2.29508 9.33563 37 5 18 
-0.179713 2.18151 8.85305 132 59 79 
1.24553 2.32441 9.34132 166 97 116 
1.26846 2.32481 9.34391 46 13 22 
1.29461 2.35806 9.36517 67 35 40 
0.418045 2.38624 9.37124 206 155 152 
1.25102 2.3993 9.37558 165 102 119 
1.30101 2.43673 9.40821 64 21 31 
1.18367 2.43614 9.38748 142 84 98 
1.20764 2.44473 9.39417 35 5 13 
0.74236 2.60314 9.76847 165 124 130 
0.113435 2.4585 9.04138 217 164 170 
1.26631 2.59093 9.45721 29 6 12 
3.69577 3.20228 11.5681 31 31 29 
0.719567 2.98267 9.82298 165 137 136 
-0.0627154 2.76249 8.98083 210 180 180 
0.635359 3.00982 9.76092 23 10 17 
-0.0873634 2.91026 9.00702 57 20 37 
-0.106705 2.922 8.97516 201 187 187 
0.135989 3.04576 9.26817 206 133 144 
3.11425 3.62536 10.9932 235 215 188 
-0.0228404 3.02397 9.09799 125 74 79 
0.000432144 3.0366 9.11664 186 160 159 
-0.321277 2.90948 8.61497 41 39 42 
0.0753195 3.11819 9.21778 199 139 149 
2.18695 4.21382 11.4493 97 80 70 
1.94271 4.46758 11.1165 175 159 143 
2.4847 4.79287 10.4544 129 107 83 
2.00591 4.86127 10.1665 157 135 111 
1.73212 4.89827 10.1451 220 199 172 
2.67527 4.94821 10.0163 155 133 109 
1.90423 4.99741 9.64075 145 123 99 
2.54005 5.09979 9.50995 150 134 111 
3.3652 5.14875 9.4362 158 136 113 
2.43252 5.12999 9.37837 142 122 98 
3.08335 5.12543 9.37171 156 138 114 
2.85294 5.13343 9.31708 151 133 111 
1.06427 5.11982 9.14911 151 133 109 
1.83406 5.13762 9.18009 155 133 109 
-0.206782 5.13338 9.10565 157 147 137 
-0.238747 5.1394 9.11177 79 74 70 
2.63053 5.18544 9.1934 155 133 110 
2.42757 5.18776 9.15999 154 132 111 
2.66099 5.19434 9.1369 165 143 120 
0.707081 5.14499 9.02661 153 131 108 
2.96563 5.2262 9.11425 151 130 111 
1.26643 5.1779 8.97109 153 128 106 
0.484696 5.15976 8.91114 123 103 92 
3.09927 5.24096 9.02901 146 128 106 
0.0938782 5.1498 8.86203 126 110 94 
2.61337 5.2293 8.97117 228 210 186 
2.05725 5.26483 9.01051 147 127 103 
1.08872 5.19858 8.8694 145 127 103 
3.11267 5.25837 8.94962 155 137 115 
2.98689 5.27607 8.89234 223 202 183 
2.54987 5.29331 8.90995 168 146 125 
1.99051 5.25797 8.84008 221 203 181 
3.1569 5.28959 8.8785 162 144 124 
0.909789 5.22819 8.76419 136 118 94 
2.98022 5.29996 8.89023 139 121 99 
1.97348 5.25886 8.79903 163 145 123 
2.39977 5.29207 8.8035 143 124 107 
1.33229 5.2682 8.69265 151 133 109 
2.70643 5.31031 8.75029 145 129 106 
2.4436 5.29647 8.70999 154 132 111 
2.61181 5.31028 8.72185 163 145 123 
1.48644 5.28053 8.64174 147 127 102 
2.2857 5.30818 8.67144 137 116 95 
2.47835 5.32127 8.67293 144 126 102 
1.76639 5.3001 8.59549 143 125 103 
2.02624 5.31801 8.59169 163 145 121 
1.73131 5.31565 8.55988 146 128 106 
1.62008 5.3201 8.53586 158 141 115 
0.815429 5.29375 8.47343 153 131 108 
2.09412 5.33499 8.53654 154 136 114 
2.51976 5.35505 8.5482 139 120 103 
1.56835 5.35561 8.52495 168 149 132 
1.76147 5.35003 8.48724 138 120 98 
1.30026 5.33446 8.40742 157 139 117 
-0.145475 5.30773 8.31198 153 135 111 
0.448783 5.32023 8.31483 141 119 98 
0.0271144 5.32347 8.30915 137 115 92 
1.6251 -3.17167 8.90204 62 55 45 
1.1896 -2.90605 8.54204 51 48 41 
0.586062 -1.95792 8.02066 164 180 193 
-0.203388 1.13473 8.44132 213 160 152 
-0.341878 1.20773 8.36927 226 181 175 
2.81475 -3.56459 9.34701 251 226 196 
0.436873 -3.81731 10.0607 156 146 144 
0.481561 -3.79904 10.0322 40 36 37 
1.86748 -3.5341 9.4382 59 48 42 
1.83372 -3.40763 9.09052 54 55 47 
1.5155 -3.50106 9.42204 39 39 39 
0.0911338 -3.58701 9.71233 156 146 145 
-0.250687 -3.37742 9.4303 162 157 154 
2.34957 -2.92568 8.42202 80 52 28 
-0.546881 -3.15217 9.12419 35 33 36 
2.15708 -2.82849 8.4226 210 192 188 
-0.438042 -2.89463 8.70656 209 195 192 
-0.514247 -2.84967 8.67443 39 41 38 
-2.17106 -2.86746 8.92025 56 37 22 
-0.574441 -2.69968 8.44221 39 34 38 
1.80588 -2.57208 8.01505 56 48 46 
-0.170002 -2.66584 8.3342 43 42 37 
-2.18228 -2.8344 8.89365 190 174 151 
-0.525412 -2.6404 8.32141 37 35 36 
-0.450775 -2.60414 8.265 50 42 40 
-0.311265 -2.55202 8.14532 67 50 42 
-1.77433 -2.66485 8.53193 22 1 0 
-0.357475 -2.54867 8.14197 60 47 41 
-0.212031 -2.49709 8.04295 67 49 49 
3.24431 -3.76888 12.1405 215 201 175 
3.05736 -3.65978 11.9053 25 24 32 
3.01487 -3.64293 11.9317 147 135 139 
1.20699 -2.24728 7.42401 206 162 127 
3.52561 -3.65989 12.3781 7 14 22 
3.02191 -3.52792 11.977 147 137 138 
2.89352 -3.47599 11.812 153 141 143 
2.8495 -3.45893 11.841 21 21 29 
3.36091 -3.60908 12.4015 207 189 169 
0.758648 -1.98537 7.05263 204 168 134 
-0.591977 -1.9853 7.39773 175 139 103 
-0.596587 -1.95354 7.38177 18 3 10 
-0.482522 -1.9291 7.31721 188 153 121 
-0.42022 -1.88451 7.20881 170 138 113 
3.07359 -2.89244 11.3378 63 63 51 
3.22981 -2.91104 11.42 66 85 55 
0.180667 -1.7003 6.79184 194 177 170 
3.11529 -2.85327 11.4098 64 62 50 
0.514262 -2.0151 8.13226 121 117 116 
0.0239365 -1.67878 6.81764 29 23 23 
3.24487 -2.83578 11.4688 61 83 45 
2.83208 -2.71425 11.1064 36 52 41 
3.45568 -2.85072 11.6727 39 57 31 
3.90978 -2.98212 12.214 167 124 107 
3.25545 -2.79411 11.4883 54 74 39 
3.72596 -2.76597 11.9344 108 127 81 
3.49913 -2.69696 11.756 110 133 89 
2.28155 -2.11163 9.97953 5 9 18 
3.2029 -2.30744 10.9337 115 128 136 
2.42817 -2.05786 9.91879 141 136 133 
3.13931 -2.25003 10.8739 84 98 107 
1.27348 -1.86893 9.27603 99 87 89 
0.544169 -1.61973 8.30372 83 69 56 
-1.85646 -1.79072 9.38124 86 84 85 
0.542762 -1.55166 8.3324 78 59 45 
0.637519 -1.50871 8.27627 142 128 99 
1.28586 -1.59015 9.13934 63 65 44 
1.31139 -1.55644 9.05682 7 5 10 
0.895273 -1.51647 8.96373 183 177 161 
0.640409 -1.41442 8.49026 21 31 43 
0.916049 -1.48752 8.97921 197 184 168 
1.78065 -1.54904 9.59188 13 12 18 
0.619989 -1.33118 8.33585 15 20 26 
0.984672 -1.37529 9.03857 153 147 135 
1.01424 -1.35806 9.02732 37 41 44 
0.654601 -1.24657 8.34563 16 20 23 
-0.866931 -0.870351 7.65017 27 26 22 
2.62574 -1.42291 13.6978 12 6 18 
1.44319 0.00777396 8.70225 242 226 200 
1.51156 0.19476 8.79794 66 28 27 
1.58398 0.208053 8.88482 39 0 1 
1.51234 0.233788 8.77339 208 179 175 
1.15492 1.10654 8.81565 177 96 113 
1.16188 1.17496 8.848 178 101 117 
1.10915 1.17879 8.85215 166 86 97 
-0.233663 1.1342 8.4282 128 38 63 
1.19179 1.20342 8.87772 161 87 100 
-0.295958 1.17802 8.37789 88 11 27 
1.1687 1.2508 8.89429 164 82 96 
-0.22539 1.19858 8.38358 49 37 37 
-0.333527 1.20326 8.35506 198 158 150 
1.19406 1.27382 8.88595 169 91 104 
-0.167161 1.23478 8.38726 88 71 81 
-0.297492 1.24758 8.35195 33 20 27 
-0.382878 1.25633 8.36891 174 133 131 
-0.141514 1.28439 8.35493 236 182 170 
-0.235167 1.36303 8.33729 117 38 44 
-0.401759 1.36893 8.25768 4 6 19 
1.1577 1.93228 9.1572 197 136 133 
1.18914 2.04138 9.21964 196 129 136 
0.288204 2.03773 9.11623 200 162 149 
0.485097 2.1192 9.37384 64 22 26 
0.329888 2.2192 9.24806 215 166 162 
0.575408 2.31527 9.49693 116 43 52 
0.441572 2.29056 9.36691 196 161 159 
0.200333 2.33235 9.12695 205 153 155 
-0.327 2.27109 8.6375 228 155 149 
-0.350081 2.31364 8.67663 58 11 31 
0.451465 2.52918 9.43708 197 115 121 
-0.212143 2.35046 8.74823 227 197 189 
0.115054 2.46309 9.06628 221 170 175 
-0.259945 2.36486 8.69392 225 202 196 
0.715457 2.97646 9.80648 167 132 128 
0.753512 2.96931 9.78095 35 22 29 
3.1592 3.6272 11.0969 129 113 100 
3.11142 3.62219 10.974 237 215 191 
-0.318968 2.90662 8.60033 42 40 43 
3.44185 3.85331 10.8927 24 23 28 
2.32289 4.22518 11.6769 48 25 45 
2.241 4.21235 11.5148 162 146 130 
3.27672 4.44653 11.3113 57 48 49 
-1.68159 4.70963 10.2808 23 19 20 
2.06095 4.82482 10.3254 158 138 114 
1.73124 4.89343 10.1329 219 198 171 
2.00523 4.9876 9.70103 164 142 121 
3.04857 5.04687 9.70478 171 149 126 
2.14563 5.02686 9.63467 145 128 102 
0.971461 4.99834 9.56709 211 193 169 
-0.237557 5.13244 9.10438 76 72 69 
0.948521 5.13792 9.07722 159 139 114 
3.03441 5.19911 9.17376 167 149 125 
2.66051 5.1876 9.12424 173 151 128 
2.05372 5.16782 9.05987 170 148 127 
1.19024 5.16636 9.04593 148 126 103 
1.67207 5.193 9.04631 153 131 110 
2.04955 5.24304 8.97312 145 125 101 
2.62197 5.23768 8.93979 172 147 125 
2.54599 5.28728 8.89866 168 146 125 
1.88513 5.24064 8.80406 159 139 115 
2.66871 5.29552 8.77574 215 197 177 
2.56161 5.308 8.62728 175 157 135 
2.85328 5.35827 8.68896 164 146 124 
1.95282 5.32075 8.5658 159 141 119 
1.56499 5.32946 8.48351 166 147 130 
1.3816 -4.95044 11.8846 73 63 54 
1.88048 -3.53505 9.43925 62 57 54 
1.99517 -3.53415 9.41948 67 58 49 
1.84191 -3.40995 9.22576 226 210 187 
1.87254 -3.33908 9.11469 51 58 51 
1.52569 -3.31558 9.12536 37 39 36 
-0.367616 -3.18387 8.92413 56 47 50 
2.16893 -2.82221 8.27268 89 60 28 
-0.534609 -2.97011 8.82298 43 44 46 
-0.563017 -2.90761 8.75618 181 177 178 
-0.53189 -2.7802 8.52039 39 45 45 
-2.15838 -2.86239 8.91601 63 46 36 
-0.463775 -2.67425 8.34646 218 208 196 
1.60496 -2.48863 7.76696 201 162 121 
1.92908 -2.61224 8.25384 184 171 163 
3.25594 -3.78185 12.1516 218 200 176 
2.89482 -3.58134 11.7686 156 140 140 
3.00939 -3.63744 11.941 146 134 136 
3.51991 -3.6743 12.3945 12 14 27 
2.90558 -3.48977 11.8288 155 140 143 
3.01802 -3.53747 11.9845 150 138 140 
2.84156 -3.47252 11.8604 19 21 33 
3.08632 -3.51286 11.9867 13 12 26 
-0.577899 -2.16668 7.60956 151 111 85 
1.09447 -2.10381 7.5953 30 15 12 
3.66404 -3.23173 11.847 106 119 76 
-0.584352 -1.99565 7.39511 174 131 89 
-0.586659 -1.94096 7.36194 35 18 28 
-0.479635 -1.92377 7.28365 189 150 117 
3.56718 -3.03036 11.814 56 74 50 
3.23952 -2.92089 11.4304 68 87 55 
0.348735 -1.70774 6.73895 6 3 14 
0.0893354 -1.65463 6.70507 229 212 204 
3.46069 -2.86958 11.6966 41 57 31 
3.72043 -2.78253 11.952 107 135 76 
3.48989 -2.69948 11.7197 109 134 77 
1.71299 -2.0416 9.39753 165 167 146 
1.83331 -1.9691 9.36124 151 141 129 
3.21146 -2.29978 10.9633 114 127 135 
2.42015 -2.06518 9.94743 150 139 135 
2.01798 -1.91463 9.44764 117 112 92 
2.03557 -1.85104 9.40579 0 2 15 
0.350628 -1.62338 8.34599 2 0 16 
1.26932 -1.58845 9.08742 56 58 34 
1.31071 -1.51098 9.05388 86 72 45 
1.23345 -1.48949 9.05977 102 83 53 
1.69491 -1.57837 9.59155 3 6 21 
1.00045 -1.45068 9.01969 196 188 177 
0.671372 -1.34333 8.40751 202 190 176 
0.980633 -1.38636 9.03468 168 160 147 
0.88937 -1.27666 8.61553 29 25 24 
3.89093 -1.08951 13.5084 203 179 155 
1.32595 -0.643067 9.32225 102 93 84 
2.11557 -0.0229682 9.38381 207 180 173 
1.29277 0.169471 8.96029 185 161 135 
1.51994 0.193217 8.8492 83 43 43 
1.4927 0.270962 8.90281 42 22 24 
1.4085 0.289223 8.89518 193 162 141 
2.60162 1.05397 10.8538 140 75 81 
0.908485 1.02314 9.1958 122 71 78 
1.82426 1.23428 9.3719 36 0 1 
-0.372719 1.21746 8.35661 102 22 49 
-0.173286 1.22364 8.38819 49 35 50 
-0.385317 1.26184 8.36035 167 134 127 
-0.140302 1.27176 8.37213 227 190 171 
-0.163725 1.31713 8.34996 124 10 36 
-0.305768 1.32537 8.34991 38 35 42 
-0.217964 1.33123 8.3417 227 190 172 
-0.28205 1.37552 8.33161 216 175 169 
0.63963 1.91646 9.58208 42 11 17 
0.662965 1.95857 9.55651 158 119 120 
0.288001 2.0453 9.16385 193 157 143 
0.479482 2.12546 9.41174 73 26 32 
-0.164383 2.13871 8.96744 116 100 101 
0.436122 2.30151 9.3659 206 165 163 
0.209663 2.2842 9.12209 177 80 89 
0.207809 2.33731 9.12092 205 155 158 
0.613244 2.47352 9.54611 104 57 63 
0.583554 2.521 9.51363 191 136 133 
-0.346429 2.30864 8.61809 64 11 31 
0.442416 2.52848 9.42045 199 114 119 
0.125058 2.46522 9.09596 208 157 164 
0.764067 2.94978 9.87392 156 121 117 
-0.047633 2.76503 8.99281 207 176 181 
0.630597 3.0135 9.74332 20 19 24 
-0.315719 2.82497 8.81095 51 15 27 
-0.116216 2.93549 8.98267 207 196 192 
3.16517 3.63206 11.1438 134 122 110 
3.13212 3.65176 11.0378 236 215 188 
2.45323 4.16094 11.7476 41 29 43 
3.46699 3.86585 10.9317 40 39 45 
2.31216 4.12821 11.5756 69 48 65 
3.43724 3.93048 10.921 201 184 164 
2.33328 4.13766 11.3929 48 31 49 
2.35773 4.32906 11.5856 161 141 130 
1.86481 4.19981 11.0522 48 30 52 
1.86176 4.41254 11.0015 34 21 38 
0.392172 3.51373 8.02774 119 117 118 
2.49253 4.79867 10.4796 134 112 88 
-3.35743 4.53722 9.81893 26 28 41 
1.90549 5.01164 9.65164 153 131 107 
0.928347 4.9973 9.59437 121 111 102 
1.98515 0.380316 9.92908 72 29 38 
-0.273621 1.21838 8.35999 200 173 152 
-0.234649 1.37436 8.33073 113 20 39 
-0.297528 1.41531 8.32478 108 20 45 
3.48465 -6.78864 11.7473 33 35 48 
3.43671 -6.74841 11.8388 225 207 185 
2.43496 -7.07407 12.5983 66 70 79 
1.37875 -4.93829 11.8723 77 64 58 
2.75437 -3.59055 9.43938 244 224 199 
2.78949 -3.55464 9.36261 248 222 195 
1.89021 -3.53486 9.4334 59 56 49 
1.80603 -3.53639 9.44474 221 203 179 
1.98025 -3.33605 9.0965 61 61 51 
-0.367985 -3.1957 8.95571 37 28 29 
1.62838 -3.11843 8.79196 55 55 43 
3.26574 -3.79608 12.1592 217 197 173 
3.51446 -3.78564 12.3973 9 18 25 
1.10639 -2.19539 7.35477 205 167 122 
3.51425 -3.69242 12.4188 8 15 31 
2.83033 -3.48161 11.862 17 23 37 
3.09896 -3.52165 11.9988 15 14 28 
3.39014 -3.58241 12.4178 213 198 169 
1.00851 -2.11644 7.35424 40 25 30 
-0.563258 -2.14842 7.53193 154 113 83 
3.15911 -3.51573 12.3099 98 61 42 
-0.48264 -2.07051 7.3862 180 138 100 
0.847606 -2.0202 7.20907 48 38 47 
-0.272786 -1.96144 7.19821 32 20 8 
-0.57671 -2.01114 7.42709 171 125 89 
-0.0206274 -1.85129 6.93544 196 163 130 
-0.490107 -1.94894 7.3271 189 143 107 
0.0178426 -1.81704 6.899 46 29 21 
-0.412295 -1.89422 7.24716 178 143 113 
0.0956577 -1.77763 6.81803 41 23 11 
-0.290688 -1.83827 7.12859 185 149 125 
0.175293 -1.74009 6.74687 44 25 18 
3.03555 -2.87139 11.2965 87 88 82 
0.13606 -1.70468 6.80439 218 190 176 
2.82705 -2.74724 11.1125 28 43 38 
0.036099 -1.65505 6.72989 21 17 16 
3.45818 -2.87678 11.6894 39 54 31 
3.0288 -2.76571 11.3004 97 94 87 
3.26805 -2.82407 11.5231 46 62 33 
0.874968 -1.98778 8.18237 203 226 240 
3.14493 -2.62061 11.3587 116 142 77 
1.82815 -2.01676 9.33387 2 13 19 
1.74742 -1.96631 9.40867 20 17 28 
1.332 -1.92919 9.33438 113 104 105 
2.43906 -1.9764 9.78926 7 10 27 
0.580659 -1.63369 8.28361 3 0 13 
0.685177 -1.59734 8.29079 5 8 25 
0.768584 -1.50211 8.58767 0 0 15 
0.653037 -1.45223 8.54727 19 34 57 
0.884203 -1.50739 8.97938 187 179 160 
0.960878 -1.50242 8.99293 4 6 18 
1.29865 -1.50729 9.06114 86 71 42 
1.24586 -1.485 9.05526 94 77 47 
1.68846 -1.57931 9.6151 1 7 23 
0.673403 -1.3337 8.33525 200 188 174 
0.99166 -1.44519 9.02439 197 188 173 
0.643679 -1.28186 8.34351 0 3 14 
0.699185 -1.25011 8.35268 194 182 168 
0.225385 -1.02607 7.03782 5 8 25 
0.620744 -1.21215 8.35857 5 13 24 
2.59936 -1.39965 13.6692 19 7 31 
2.7612 -1.35302 13.6976 181 163 141 
1.56361 -0.354319 8.85067 233 216 186 
1.4714 -0.0933921 8.73981 236 220 187 
1.34582 -0.0475386 8.81637 217 194 162 
1.48099 0.0468027 8.71403 242 226 200 
2.15483 0.0675943 9.38267 72 60 60 
2.14964 0.0935121 9.38815 74 54 55 
1.29136 0.176903 8.96673 193 167 142 
1.41211 0.232683 8.85481 55 38 46 
1.39486 0.285745 8.88514 195 169 146 
1.87288 0.544673 9.4114 154 89 97 
0.750587 0.580928 9.28655 115 83 88 
2.58488 1.06434 10.7618 152 87 95 
-0.204244 1.15699 8.43579 230 197 178 
-0.324138 1.21134 8.36793 213 182 161 
-0.142758 1.26767 8.38634 224 189 167 
-0.317965 1.37819 8.37631 171 141 130 
0.636605 1.93112 9.66946 40 9 15 
0.654289 1.97316 9.57356 158 120 119 
1.8506 2.02835 9.81704 200 127 134 
1.10335 1.96046 9.18315 30 0 4 
1.88853 2.08017 9.7571 60 6 20 
1.12781 2.008 9.23374 29 4 7 
1.13863 2.04276 9.22893 44 5 10 
0.568603 2.29556 9.50433 125 44 53 
-0.0594305 2.17243 8.87518 208 171 155 
-0.351313 2.08973 8.46696 9 8 22 
0.556669 2.38112 9.49598 178 126 115 
-0.229166 2.21534 8.81343 103 7 35 
0.629139 2.40503 9.51027 107 58 61 
0.212255 2.34606 9.11683 202 152 153 
0.621457 2.46344 9.53339 99 54 59 
-0.337836 2.31177 8.59354 81 27 43 
0.720809 2.62125 9.75647 171 126 123 
0.302299 2.59435 9.28087 206 175 173 
0.322186 2.72348 9.35444 204 175 171 
0.0475368 2.75974 9.07064 193 89 100 
0.678563 2.97307 9.77464 178 129 124 
0.144584 2.84368 9.24002 201 100 116 
-0.315276 2.78739 8.71756 54 10 27 
3.15662 3.61328 11.1176 152 140 128 
-0.0712476 2.94702 9.00568 66 25 41 
-0.310452 2.92808 8.59571 48 47 52 
2.65825 4.23592 11.9566 104 95 88 
2.4638 4.1879 11.7535 51 38 55 
2.3077 4.15184 11.5214 58 36 57 
3.44287 3.94365 10.9299 190 175 156 
2.35578 4.30056 11.6076 161 143 129 
1.85646 4.20888 11.0669 47 32 51 
3.3392 4.56988 11.6138 74 69 66 
1.95238 4.40208 11.0602 175 158 142 
-0.219607 5.13654 9.04526 173 157 141 
-2.13474 -2.85015 8.93118 66 51 44 
-0.548623 -2.2153 7.73251 152 113 80 
-0.0996554 -1.8743 7.01355 53 33 24 
-0.485572 -1.93314 7.29884 190 147 113 
3.06244 -2.8434 11.3838 74 72 73 
2.80809 -2.75623 11.1503 61 78 62 
3.16185 -2.6551 11.3711 114 143 79 
1.27283 -1.50733 9.06627 89 67 43 
1.66494 -1.58079 9.6178 0 7 23 
0.149118 -1.1237 7.01351 133 137 138 
0.975996 -1.42901 9.0249 197 185 173 
1.0812 -1.40408 9.04769 0 2 16 
0.711697 -1.2716 8.34642 201 189 173 
1.56301 -0.337858 8.86377 236 216 181 
2.08641 -0.0149776 9.37102 205 180 173 
2.1676 0.0503983 9.3486 75 64 62 
1.48553 0.1415 8.69358 129 89 89 
1.17332 0.291191 8.87694 211 186 155 
1.84843 0.556579 9.40072 170 105 111 
1.08884 0.551961 8.9911 119 73 73 
-0.398378 1.18427 8.31055 83 9 36 
-0.389496 1.34037 8.27683 8 12 24 
1.82753 2.06252 9.88656 188 117 125 
-0.0535211 2.16206 8.8692 209 173 157 
0.436388 2.34684 9.35372 189 138 137 
-0.260845 2.36803 8.67293 223 198 193 
0.3101 2.6326 9.32806 205 174 172 
-0.322175 2.76832 8.7023 55 10 30 
-0.297229 2.95646 8.60169 50 49 54 
2.32028 4.29552 11.5651 164 145 128 
1.85208 4.23503 11.1017 43 29 44 
3.10105 4.38956 11.5087 34 31 38 
3.26166 4.49199 11.4736 36 34 35 
2.96213 -3.56032 11.9057 149 143 145 
3.40942 -3.58064 12.4261 213 196 166 
-0.847429 -0.801837 7.67943 109 108 106 
-0.213602 1.15725 8.42922 191 147 134 
2.40844 -7.12977 12.6445 63 65 77 
2.56744 -6.97539 12.6376 202 186 173 
1.59542 -3.67803 9.69446 37 37 37 
1.93102 -3.34902 9.12393 58 64 60 
-1.4269 -2.64411 7.6106 181 165 149 
1.23298 -2.90826 8.49516 52 53 47 
-0.306357 -3.00786 8.88593 216 202 189 
3.13394 -3.57285 11.9005 30 27 44 
-0.377129 -2.08124 7.32694 194 149 110 
-2.10265 -2.44408 9.43324 78 76 81 
-0.109905 -1.75533 6.93215 209 185 173 
2.20944 -2.1573 9.92312 0 7 18 
0.85941 -1.49219 8.99771 192 179 163 
0.950278 -1.42903 9.04233 195 183 169 
0.713323 -1.29669 8.32124 200 191 174 
0.795854 -1.22915 8.43219 32 33 35 
2.60905 -1.33814 13.718 5 1 28 
1.5633 -0.322243 8.86739 234 212 175 
2.06226 -0.0129029 9.35722 201 181 174 
1.51032 0.0299421 8.6872 240 225 196 
1.25614 0.0696914 8.83998 97 82 75 
1.5277 0.189146 8.75289 143 101 102 
1.27471 0.211366 8.93214 202 178 152 
1.08452 0.570171 8.98551 164 121 114 
-1.88602 0.955547 10.0179 151 134 118 
-0.324032 1.20496 8.3342 212 176 160 
-0.269249 1.35457 8.34749 203 171 156 
0.507425 2.03573 9.38665 163 105 103 
1.12677 2.01171 9.26394 24 0 2 
-0.320359 2.03384 8.42293 0 10 22 
0.655902 2.29805 9.56155 147 98 94 
-0.0615128 2.16036 8.89242 193 167 152 
0.749431 2.50055 9.76698 62 30 41 
-0.25161 2.33261 8.64285 236 190 190 
-0.326539 2.47229 8.66682 93 32 50 
0.703011 2.92726 9.84838 188 140 136 
0.865244 2.94438 9.86914 21 10 16 
0.119368 2.96288 9.26915 199 134 142 
-2.0648 4.05853 11.6818 127 112 93 
2.31548 4.35264 11.6744 164 147 127 
3.08705 4.39129 11.5372 35 34 40 
1.82995 4.44703 11.1272 48 35 52 
-2.70685 4.24661 10.2123 20 22 34 
-2.70961 4.56911 10.5193 97 87 77 
-0.300472 -2.92741 8.78136 221 203 191 
-2.0854 -2.81519 8.91775 132 108 96 
-0.127959 -2.63626 8.27467 49 49 47 
1.13466 -1.3771 9.01306 10 13 22 
0.559799 -1.20443 8.3304 1 4 19 
1.36508 -0.545324 9.49529 122 110 98 
1.56405 -0.293944 8.86556 232 209 178 
1.25467 0.265196 8.88317 211 186 156 
1.23428 0.565194 8.97566 119 77 87 
1.74857 1.55647 9.76441 113 44 63 
-0.313196 1.52006 8.2949 91 6 37 
0.582252 2.01395 9.50925 166 120 120 
-0.0501956 2.15703 8.92956 148 130 116 
0.742764 2.45175 9.65619 34 4 16 
-0.224418 2.33894 8.68235 208 171 165 
0.657888 2.6709 9.68607 194 143 140 
0.669094 2.89587 9.84382 182 135 129 
-1.90119 4.83279 10.1355 157 141 126 
2.60016 -6.94744 12.6439 202 186 170 
-2.25274 1.62926 9.59764 16 20 32 
1.57493 -0.246933 8.9073 226 203 172 
1.59119 0.0219977 8.68931 237 222 203 
1.23816 0.28038 8.86959 211 186 155 
1.91144 0.435769 9.17497 148 95 103 
-0.305928 0.961167 8.14697 113 5 41 
-0.288938 1.55738 8.32536 79 0 31 
0.536626 2.031 9.5632 168 121 115 
0.639208 2.78076 9.72063 187 138 133 
0.44234 -1.78879 6.81725 41 20 3 
2.91517 -2.14564 10.5353 111 130 137 
2.78303 -1.22893 13.3284 30 11 17 
3.3845 -6.59042 11.526 225 207 195 
2.43857 -2.95697 8.40729 141 115 92 
2.38841 -2.93733 8.40071 121 95 70 
2.32746 -2.89875 8.345 93 73 48 
1.20179 -2.09704 7.66609 124 108 93 
3.82777 -3.11638 11.8985 154 150 149 
3.52601 -2.97695 11.6029 52 72 44 
3.83927 -3.01121 11.9312 144 131 125 
3.07665 -2.80482 11.2292 63 66 47 
3.68747 -2.72837 11.7732 106 127 86 
3.86028 -2.55135 11.4163 240 226 215 
3.29891 -2.32068 10.8932 106 120 131 
3.15296 -2.26632 10.7407 111 124 132 
3.98545 -2.39363 11.4901 133 117 101 
3.30995 -2.25906 10.8868 108 122 131 
3.24171 -2.24164 10.8283 95 110 117 
2.97247 -2.16465 10.5886 117 136 143 
0.898786 -1.53125 9.03136 176 170 156 
0.965526 0.840965 9.11262 29 2 11 
1.12755 1.11267 8.8363 57 5 17 
-0.18932 1.15526 8.43832 223 188 184 
1.14002 1.2717 8.88779 158 84 97 
-0.364941 1.22612 8.35862 84 15 34 
-0.138006 1.24956 8.42053 229 190 173 
-0.186007 1.26182 8.4057 216 193 179 
-0.209054 1.27862 8.3774 222 200 189 
1.15981 2.25028 9.43234 37 14 22 
0.44704 2.28954 9.38745 186 152 150 
-0.211964 2.34836 8.74928 227 197 187 
3.42977 3.16966 11.2442 23 25 24 
0.479542 5.12327 8.84885 123 104 90 
0.879347 -1.54194 9.01667 152 148 139 
3.38645 -6.60111 11.5499 230 211 194 
2.16066 -2.79811 8.20164 159 131 107 
3.33822 -3.57171 12.2784 206 192 166 
3.03663 -2.84888 11.1756 63 65 51 
3.07717 -2.80648 11.2401 65 63 51 
3.21766 -2.8018 11.3427 59 81 45 
2.80333 -2.67913 10.97 37 53 40 
3.41713 -2.80861 11.5098 39 57 31 
3.55165 -2.84335 11.6732 70 94 46 
3.6881 -2.73261 11.7851 109 132 86 
3.85878 -2.54594 11.3978 238 222 209 
1.77641 -2.00671 9.37181 144 143 123 
3.16738 -2.23576 10.7672 88 101 109 
1.32526 -1.92656 9.34112 135 123 125 
0.918982 -1.49236 9.00576 200 187 170 
1.23077 -1.4858 9.07264 98 83 52 
2.12925 0.0909066 9.40356 71 63 60 
1.5253 0.198276 8.8596 57 19 16 
1.14805 0.758234 8.83548 139 74 82 
-0.236102 1.13602 8.44033 127 39 61 
1.29193 1.30625 9.07796 167 97 107 
-0.279573 1.22929 8.38393 200 179 162 
-0.169587 1.23613 8.40047 87 72 77 
-0.168227 1.3155 8.3875 129 32 51 
1.82879 1.99113 9.80457 193 124 129 
1.74821 2.0286 9.58269 200 129 135 
-0.0870458 2.91449 9.01633 64 23 39 
3.11541 3.56469 10.9108 143 127 112 
1.93011 4.42364 11.0112 174 159 140 
1.38296 -4.91551 11.8203 73 63 54 
3.05887 -3.62171 11.8314 17 25 36 
3.83047 -3.10555 11.9079 145 141 140 
3.21628 -2.89131 11.3221 64 83 53 
2.79675 -2.72829 10.9651 38 55 39 
2.97088 -2.70559 11.0865 74 75 67 
3.68004 -2.74555 11.7906 109 134 77 
1.82317 -2.02517 9.38573 0 10 14 
3.9879 -2.38177 11.4965 146 130 114 
1.31218 -1.51457 9.07592 86 70 47 
1.00327 -1.45494 9.04637 196 188 175 
0.904625 -1.30982 8.83856 25 21 18 
1.3961 1.26002 8.85673 167 97 105 
-0.225218 1.2111 8.4179 42 30 32 
-0.175888 1.22666 8.407 47 35 49 
-0.298471 1.26308 8.38177 25 19 31 
-0.30748 1.32424 8.34659 32 27 34 
-0.219798 1.33337 8.3527 229 186 170 
-0.283382 1.37496 8.32745 222 179 170 
0.479817 2.12825 9.42282 70 23 29 
-0.321337 2.28329 8.668 207 111 113 
0.729268 2.60156 9.71129 168 122 122 
0.631356 3.00289 9.71216 20 18 21 
3.11345 3.56291 10.9334 144 130 117 
4.07546 -2.29392 11.6883 154 142 126 
-0.254645 1.32951 8.38573 208 182 169 
-0.236729 1.38166 8.36357 111 19 40 
1.38083 -4.89971 11.8102 73 60 54 
1.58994 -2.48632 7.75196 194 153 107 
3.35848 -3.53554 12.2614 212 197 168 
3.12613 -3.46237 12.1398 95 60 40 
2.7989 -2.70947 10.975 26 42 32 
3.4189 -2.83398 11.5256 41 56 33 
3.11978 -2.59416 11.2504 115 141 76 
3.76934 -2.72506 11.8199 22 24 36 
1.83522 -2.01918 9.3573 4 15 21 
3.85608 -2.39598 11.4277 53 78 83 
0.965109 -1.51025 9.03746 6 8 20 
0.994849 -1.44929 9.05299 197 187 175 
0.618005 -1.31577 8.37532 5 9 21 
0.700194 -1.25623 8.39014 192 180 166 
2.60448 -1.38706 13.6284 27 13 38 
1.56892 -0.355628 8.88433 233 218 187 
1.34207 0.0207425 8.85217 223 198 168 
1.39975 0.0586459 8.81627 122 102 91 
2.56575 1.05215 10.6556 193 128 136 
-0.326322 1.21287 8.38061 208 176 161 
-0.188614 1.26912 8.38373 212 186 169 
-0.145127 1.27144 8.41128 227 189 170 
-0.160904 1.33098 8.37699 123 6 35 
-0.321306 1.38057 8.38278 151 124 115 
0.559003 2.38225 9.5022 179 124 119 
0.722105 2.61735 9.75037 172 127 122 
0.303508 2.60189 9.3089 208 174 173 
0.324626 2.71734 9.35308 204 176 173 
2.31291 4.15071 11.5171 54 35 55 
1.49626 -2.2776 7.90818 122 99 85 
2.60996 -1.35445 13.6429 4 0 17 
-0.400365 1.18207 8.29715 83 7 35 
1.78118 1.55591 9.64162 154 87 104 
1.20299 1.9191 9.28885 222 179 172 
-0.261961 2.37079 8.68476 222 199 193 
0.311377 2.63044 9.31206 205 174 172 
-0.214413 1.15793 8.43616 185 143 131 
-1.8734 0.998953 9.34813 31 35 38 
-0.325397 1.20723 8.3646 223 190 173 
-0.271659 1.35748 8.34391 204 168 156 
-0.327299 1.3914 8.51015 180 158 147 
0.511661 2.04946 9.43655 161 106 103 
2.95784 -2.22473 10.5977 110 129 136 
-1.32371 -10.6351 30.498 51 47 48 
1.34761 -6.56561 18.9046 41 39 40 
-0.240703 -14.0628 42.3926 52 51 47 
3.29447 -3.56016 12.2892 54 24 26 
3.52805 -2.98661 11.6374 53 73 46 
3.84326 -3.02316 11.9774 144 129 124 
3.0774 -2.81274 11.2595 66 67 53 
3.02862 -2.75628 11.2052 56 55 50 
4.11147 -2.52903 11.6403 213 207 191 
3.29989 -2.3263 10.9162 105 122 132 
3.15375 -2.27178 10.7648 115 128 136 
3.98939 -2.40223 11.5289 131 118 101 
3.31109 -2.26486 10.912 110 127 134 
-0.363051 1.22701 8.35365 88 17 35 
-0.135869 1.24982 8.41423 225 188 170 
-0.184266 1.26202 8.40064 218 192 177 
-0.206978 1.27881 8.37143 224 200 190 
0.67453 1.94765 9.55561 162 122 122 
3.42446 3.13992 11.1722 11 15 18 
0.714912 2.96231 9.76493 165 137 136 
-0.0628889 2.76964 9.00575 210 180 180 
0.48088 5.12066 8.8431 123 103 92 
1.01232 -1.40816 9.04489 174 167 157 
-0.524999 -2.63833 8.29195 37 35 36 
1.75995 -2.44948 7.90531 45 34 38 
3.49643 -3.76267 12.2462 19 17 22 
2.87412 -3.45103 11.7319 153 141 143 
3.34022 -3.58539 12.3244 207 189 169 
3.52927 -2.98895 11.652 54 74 47 
3.03714 -2.85647 11.2026 63 63 51 
3.07795 -2.81433 11.2706 64 62 50 
3.21888 -2.81022 11.3754 61 83 45 
2.80325 -2.68561 10.9929 36 52 41 
3.41917 -2.81861 11.5485 39 57 31 
3.16821 -2.24094 10.7907 86 99 107 
0.899621 -1.5242 9.00732 183 177 161 
1.22973 -1.48703 9.07885 98 82 56 
0.619656 -1.37049 8.38158 151 150 146 
0.658645 -1.34078 8.38605 207 194 185 
0.62335 -1.33681 8.37784 15 20 26 
0.654543 -1.27569 8.36526 21 22 27 
0.988504 -1.38318 9.07655 153 147 135 
1.23724 0.80015 8.86131 182 104 118 
-0.23372 1.13531 8.43323 128 38 63 
-0.191453 1.15217 8.44352 220 183 174 
-0.167182 1.23615 8.39342 88 71 81 
-0.16652 1.3156 8.38251 127 30 49 
-0.339123 1.37429 8.38206 197 178 171 
-0.367685 1.3788 8.34661 25 25 33 
1.82745 1.99389 9.82014 197 131 135 
0.671897 1.95243 9.56952 165 126 127 
0.289907 2.04865 9.17847 200 162 149 
0.373803 2.14787 9.29233 199 144 149 
0.484597 2.29768 9.42733 38 12 13 
0.575637 2.31446 9.50759 116 43 52 
0.418583 2.38383 9.3828 207 156 153 
0.736152 2.59704 9.74161 165 124 128 
0.712877 2.96486 9.77529 167 132 128 
0.663084 2.98098 9.747 172 136 136 
-0.0581043 2.76435 8.98927 208 178 180 
-0.0861119 2.91456 9.0133 57 20 37 
3.11684 3.57539 10.9497 129 113 100 
-0.0742974 2.96243 9.01945 67 29 44 
-0.435543 5.1508 9.02972 61 57 56 
3.05967 -3.63448 11.8711 16 22 36 
3.62509 -3.50939 12.2194 26 29 38 
3.52754 -2.99612 11.6825 56 74 50 
3.21736 -2.89904 11.3513 68 87 55 
2.79663 -2.73517 10.9889 35 51 40 
3.22442 -2.78936 11.385 48 64 35 
3.68329 -2.75534 11.833 107 135 76 
1.2368 -1.49279 9.08347 102 83 53 
1.5242 0.195588 8.87228 83 43 43 
2.5714 1.03967 10.7294 140 75 81 
-0.29977 1.1702 8.37972 101 9 34 
-0.223167 1.21053 8.41179 45 33 37 
-0.173285 1.22664 8.39935 49 35 50 
-0.240017 1.27844 8.34942 48 43 47 
-0.217876 1.3336 8.34724 227 190 172 
0.571777 2.30187 9.50245 122 42 53 
-0.258576 2.36742 8.69347 225 202 196 
0.629063 3.00576 9.72309 20 19 24 
3.11468 3.57202 10.9673 134 122 110 
4.07835 -2.30083 11.7168 156 144 130 
-0.273972 1.22249 8.37823 200 173 152 
3.3983 -6.67545 11.7078 225 207 185 
-1.10416 -14.3463 44.1231 220 204 191 
3.48338 -3.65974 12.3096 8 15 31 
3.36064 -3.54948 12.3088 213 198 169 
-0.457493 -2.07497 7.46871 31 11 0 
-0.576292 -2.01047 7.41533 171 125 89 
2.79886 -2.71615 10.9996 28 43 38 
3.77235 -2.73398 11.857 22 24 36 
1.33644 -1.9322 9.36206 113 104 105 
3.85952 -2.31777 11.5387 39 59 66 
0.965469 -1.50978 9.03575 4 6 18 
0.620414 -1.31341 8.36603 4 10 24 
0.701722 -1.25524 8.38354 194 182 168 
1.34192 0.019412 8.85198 227 202 172 
1.48131 0.218853 8.88159 212 180 165 
-0.324265 1.21318 8.37497 213 182 161 
-0.142867 1.27151 8.4046 224 189 167 
-0.158907 1.33114 8.37115 115 0 28 
1.80336 1.56617 9.69347 124 53 67 
0.5574 2.38408 9.50965 178 126 115 
0.590039 2.53863 9.54852 190 135 132 
0.30319 2.60192 9.31009 206 175 173 
-0.316308 2.79444 8.74325 54 10 27 
-2.52926 4.45532 11.4225 17 14 31 
2.41999 -7.1149 12.6281 66 68 80 
1.43462 0.150526 9.06215 211 184 167 
-0.397336 1.18142 8.28879 83 9 36 
1.78034 1.55721 9.65075 151 82 100 
1.2027 1.91984 9.29097 225 182 176 
0.436909 2.34889 9.36833 189 138 137 
-0.213604 1.15856 8.43401 191 147 134 
3.49202 -6.76544 11.6707 35 37 52 
1.56633 -0.321587 8.8834 234 212 175 
1.509 0.0338019 8.67639 240 225 196 
1.72065 1.53199 9.60924 113 44 63 
0.920742 -1.7182 6.9464 195 211 224 
0.923284 -1.22416 8.16675 20 18 21 
1.07032 1.57589 9.24098 36 5 20 
0.453034 -3.89873 10.1908 50 46 45 
1.85503 -3.50366 9.3611 59 50 51 
-5.84491 -22.3316 65.2791 44 44 46 
2.32969 -2.88266 8.29296 105 83 70 
2.55417 -2.8987 8.42532 31 26 30 
2.08808 -2.68111 8.21199 149 147 152 
2.07482 -2.64949 8.23976 173 163 162 
3.0269 -3.62183 11.7514 36 33 42 
-0.503186 -2.60626 8.27948 214 200 197 
2.93465 -3.48295 11.7223 84 80 77 
0.131053 -2.45686 7.93769 56 52 53 
3.33894 -3.58263 12.307 202 186 161 
3.29081 -3.54171 12.2159 55 29 32 
3.83928 -3.01411 11.9285 143 131 135 
3.81071 -2.9093 11.9222 154 123 102 
3.84253 -2.90306 11.896 160 130 122 
3.09283 -2.22156 10.6405 125 143 147 
3.09609 -2.19041 10.6318 108 123 130 
2.97011 -2.15539 10.5265 125 142 149 
0.855069 -1.77535 8.82477 92 82 73 
0.860873 -1.666 8.86098 90 87 82 
0.719557 -1.49276 8.55955 107 92 87 
0.895945 -1.53265 9.04707 189 182 172 
0.670468 -1.41545 8.57025 159 156 149 
0.649312 -1.34563 8.42671 203 193 181 
1.01284 -1.37782 9.15013 31 32 34 
1.90611 0.534357 9.50327 161 106 109 
-2.18795 1.10691 9.6659 37 31 31 
1.15553 1.10005 8.82773 177 99 113 
1.12656 1.11243 8.84149 57 6 23 
1.15706 1.13879 8.83936 62 11 28 
-0.25398 1.19439 8.38764 227 197 189 
1.16757 1.24467 8.88619 170 97 116 
-0.20922 1.27896 8.37801 228 204 192 
1.11497 1.58011 9.25828 60 22 37 
-2.12791 1.96702 9.61125 34 31 38 
0.673612 1.94774 9.55991 172 131 129 
1.17697 2.06795 9.20554 89 43 46 
0.481696 2.30679 9.44694 55 18 26 
-0.0978464 2.1806 8.84366 115 25 51 
-0.208524 2.34605 8.73853 223 189 190 
-0.168721 2.94774 8.88411 120 80 88 
3.07221 3.54349 10.9358 103 93 81 
1.93087 4.41497 10.9857 164 150 137 
0.489904 5.0984 8.80482 104 85 68 
1.89743 -3.32315 9.09868 45 48 41 
0.871247 -1.54878 9.05777 155 148 142 
2.51706 -7.09185 12.7238 175 168 158 
1.38441 -4.94799 11.8729 72 62 60 
-5.90328 -22.3882 65.4661 47 47 49 
-0.167001 -3.33474 9.33468 42 41 47 
1.57973 -3.09042 8.73904 53 49 46 
-1.24919 -16.8764 51.1175 34 35 40 
2.15868 -2.80783 8.23964 91 61 37 
2.81163 -3.56333 11.6063 36 46 58 
-0.568438 -2.68892 8.40868 50 48 49 
2.98464 -3.59205 11.7574 149 141 138 
2.86844 -3.56059 11.6576 150 147 142 
3.49412 -3.61689 12.2268 14 20 34 
2.87336 -3.43989 11.6882 148 142 144 
2.81926 -3.40557 11.6522 21 24 39 
3.33809 -3.57432 12.2825 204 188 162 
1.23566 -2.24104 7.41898 56 41 36 
1.45969 -2.2444 7.81535 128 107 90 
3.82796 -3.11526 11.8982 154 149 156 
3.524 -2.97041 11.5742 63 78 55 
3.03461 -2.84153 11.1295 59 72 52 
3.21628 -2.80055 11.3246 68 86 62 
3.41511 -2.80391 11.4815 58 76 52 
3.54876 -2.83573 11.6348 66 89 45 
2.80243 -2.67334 10.9314 36 53 45 
3.6863 -2.72851 11.7638 110 131 88 
3.36306 -2.49641 10.9053 0 13 13 
3.15002 -2.25589 10.6765 134 147 155 
3.16536 -2.22862 10.7235 98 113 118 
1.27668 -1.88041 9.35057 91 85 87 
2.29656 -1.76966 9.26782 67 70 75 
1.32356 -1.51937 9.07789 84 75 60 
0.915931 -1.49435 9.02223 206 194 182 
1.22835 -1.48715 9.08936 89 81 58 
0.984659 -1.38564 9.09815 165 154 148 
1.57088 -0.371766 8.90264 237 213 185 
1.60713 0.164202 8.76202 225 188 182 
1.41302 0.825702 9.08278 162 98 114 
1.16222 1.17588 8.8727 174 99 119 
-0.194587 1.15146 8.45248 217 188 172 
-0.259515 1.16332 8.45998 214 168 153 
-0.259997 1.19702 8.40225 229 199 188 
-0.28299 1.22914 8.39287 203 183 174 
-0.29483 1.32743 8.32173 57 44 53 
-0.217905 1.33806 8.35044 224 181 164 
1.18642 1.51753 9.25229 149 73 83 
0.323022 2.15295 9.25386 207 166 160 
0.439369 2.30125 9.4099 194 162 163 
-0.326527 2.27081 8.63425 226 148 146 
-0.059252 2.76477 8.99302 204 180 180 
-0.296676 2.80415 8.73178 61 25 39 
-0.0865033 2.91545 9.0148 55 25 37 
3.07128 3.53993 10.9256 103 93 81 
3.11351 3.54741 10.8684 125 110 91 
2.23178 4.11663 11.4635 144 130 121 
1.85794 4.12327 10.866 49 41 56 
1.93109 4.41359 10.9947 166 150 137 
-0.438448 5.15491 9.03864 61 57 56 
-0.437344 -3.08013 8.87108 39 40 42 
3.2532 -3.77961 12.1389 209 188 171 
2.98024 -3.58636 11.7707 156 146 144 
2.87616 -3.5468 11.6544 155 148 142 
2.98654 -3.48525 11.8016 147 143 134 
2.88121 -3.44699 11.6805 144 140 141 
3.06116 -3.47102 11.8437 18 19 39 
2.80847 -3.41318 11.6521 20 29 46 
3.64673 -3.57942 12.5018 216 194 171 
3.52274 -2.9795 11.6119 65 80 59 
3.21536 -2.88958 11.3082 68 88 53 
3.41677 -2.81977 11.4904 54 69 50 
2.80162 -2.68336 10.9328 38 55 47 
3.22182 -2.77123 11.3148 51 70 51 
3.67819 -2.74166 11.7692 108 135 82 
3.4368 -2.64518 11.474 110 137 86 
1.77409 -2.01231 9.39304 173 162 140 
2.37746 -2.01519 9.66556 140 136 135 
1.278 -1.87197 9.30253 83 77 81 
2.30516 -1.76914 9.2748 71 72 76 
1.2349 -1.49389 9.09678 93 81 55 
1.00077 -1.45667 9.06047 198 191 175 
-1.94078 1.00864 9.77513 31 30 36 
2.57206 1.03221 10.661 88 22 36 
1.48461 1.26547 9.61064 79 11 32 
-0.16628 1.1964 8.50361 37 8 30 
-0.228282 1.21177 8.427 54 44 52 
-0.175733 1.22613 8.40641 50 38 50 
-0.372437 1.36554 8.32722 21 20 34 
-0.0669059 2.17923 8.89817 211 174 155 
0.478836 2.29737 9.44106 50 19 27 
0.417672 2.3833 9.38739 203 155 153 
-0.25834 2.36636 8.69257 224 198 197 
3.43439 3.12986 11.1463 20 18 21 
-0.0477277 2.76261 8.99208 201 182 178 
-0.113051 2.92524 8.9546 215 190 193 
2.44519 4.13979 11.6836 50 39 56 
2.31138 4.12556 11.5689 75 56 75 
2.31067 4.19464 11.604 53 34 54 
3.52252 -2.64602 11.6101 6 21 18 
-0.239391 1.12765 8.43437 124 36 58 
2.4463 -7.12248 12.6902 67 69 81 
2.54211 -7.08426 12.7549 192 176 163 
1.37951 -4.9274 11.8585 74 64 65 
1.87423 -3.31302 9.03997 56 58 57 
1.91925 -2.59668 7.9184 70 62 73 
1.9075 -2.63134 8.05514 19 15 16 
3.25981 -3.78627 12.1277 205 188 172 
1.88322 -2.57046 8.04407 109 101 99 
1.65221 -2.46714 7.76526 42 40 45 
3.4796 -3.73681 12.2292 14 24 36 
3.05797 -3.60921 11.7913 24 33 50 
2.79588 -3.54509 11.6232 21 32 50 
3.4799 -3.64311 12.251 8 22 35 
3.35769 -3.53341 12.25 209 193 168 
-0.511713 -2.38224 7.88574 219 203 178 
-0.444743 -2.07154 7.43427 184 148 112 
3.41632 -2.82986 11.4932 55 70 51 
0.252121 -1.68723 6.70359 33 31 36 
3.11821 -2.59034 11.2204 115 145 71 
2.40791 -1.94135 9.58849 3 17 30 
0.883599 -1.5149 9.01263 194 180 167 
0.960997 -1.51331 9.06001 5 17 31 
0.793751 -1.45359 8.71841 186 172 159 
0.642224 -1.28856 8.3714 11 17 33 
0.91646 -1.30338 8.77644 17 15 18 
0.88799 -1.31813 8.9267 22 20 25 
0.754279 -1.26308 8.7056 37 40 45 
0.619722 -1.21642 8.378 2 13 31 
1.56688 -0.357065 8.89988 240 215 184 
1.29177 0.177274 8.97684 190 169 142 
1.53816 0.192807 8.81645 121 80 84 
2.11772 0.679283 9.51439 186 114 125 
1.51686 0.754209 9.1458 32 0 12 
2.56551 1.04658 10.6384 107 41 55 
-0.20715 1.15912 8.45665 223 197 182 
-0.325952 1.21251 8.37949 214 186 165 
-0.363534 1.27386 8.38165 190 167 161 
-0.146537 1.272 8.41565 216 190 165 
-0.392131 1.36261 8.33759 9 12 27 
-0.388963 1.51336 8.29701 66 7 39 
2.19399 1.81983 9.89559 198 125 132 
-0.0629719 2.18039 8.90709 211 173 154 
0.209656 2.35511 9.15057 201 155 157 
0.299447 2.60856 9.32599 206 177 171 
-0.320793 2.80048 8.75718 50 26 42 
-0.0727497 2.95409 9.02039 42 18 31 
2.31168 4.16304 11.5558 58 41 60 
2.2491 4.19721 11.4061 164 147 127 
1.84564 4.16001 10.9364 45 38 56 
1.94736 4.38225 11.0035 175 162 146 
2.12648 -2.6966 8.25584 27 25 28 
3.12712 -2.61489 11.192 118 148 78 
1.33204 -1.93266 9.38192 92 91 87 
0.703623 -1.59658 8.36512 4 12 35 
0.86812 -1.50992 9.02777 197 184 168 
1.27407 -1.51117 9.09604 88 72 49 
0.686489 -1.33967 8.40288 207 193 180 
3.56957 -1.95 14.4411 161 147 138 
1.56482 -0.33923 8.89091 236 212 174 
-0.059909 2.17781 8.92788 201 170 150 
0.435101 2.35096 9.37613 185 137 135 
0.539605 2.40778 9.51768 178 124 124 
0.596139 2.57706 9.59799 189 134 131 
-0.262569 2.37453 8.6873 222 193 187 
0.112217 2.81474 9.1906 196 98 111 
3.11442 3.51508 10.9013 150 138 126 
-0.4348 5.1636 9.0885 60 61 63 
3.27102 -3.80522 12.1098 207 190 170 
3.3768 -3.53001 12.2573 217 195 172 
2.41694 -7.16265 12.7103 66 70 82 
2.37471 -1.85164 9.3743 9 16 32 
0.725632 -1.57362 8.38011 5 13 32 
0.858584 -1.50319 9.05683 198 185 169 
0.597132 -1.25343 8.34524 5 10 30 
0.792473 -1.25838 8.66636 30 35 38 
0.240135 -1.06018 7.15076 1 9 28 
1.53118 0.190108 8.80607 132 92 93 
-0.267147 1.17886 8.43145 231 194 185 
-0.255412 2.34318 8.67251 238 190 190 
0.603318 2.60032 9.60188 188 133 130 
0.315131 2.65054 9.30041 203 175 171 
-0.311919 2.58028 8.66052 67 15 37 
0.096692 2.78505 9.13086 195 93 106 
2.29009 4.2704 11.4597 165 149 126 
1.98435 4.31057 11.0028 175 158 140 
0.829919 -2.13674 8.48185 138 119 102 
0.767823 -1.57334 8.47791 4 15 33 
0.887494 -1.45303 9.03891 181 168 151 
0.73544 -1.32626 8.39022 208 197 179 
1.34731 -0.531806 9.11713 131 118 109 
1.56553 -0.296569 8.89111 234 207 177 
1.72865 1.51634 9.5245 135 68 86 
-0.274427 2.0555 8.43258 17 13 28 
0.659125 2.66745 9.65651 185 136 131 
2.21045 4.2914 11.4423 169 153 130 
-0.197424 1.26666 8.36403 189 162 145 
-2.75507 3.68058 12.1844 173 152 125 
3.83315 -2.96536 11.8958 161 140 135 
0.759064 -2.15532 8.8714 5 19 30 
3.09223 -2.22759 10.6818 125 138 147 
1.53902 1.34261 9.39676 83 15 28 
-0.145637 1.2487 8.42938 219 191 170 
-0.17605 1.3195 8.38016 112 6 29 
1.843 1.94462 9.71994 88 23 29 
1.86775 2.08316 9.68112 164 106 121 
-0.234149 2.36191 8.73875 168 129 122 
0.00809611 3.06424 9.1381 110 68 80 
4.02134 -6.47364 11.0785 101 100 108 
2.97418 -3.20025 8.58633 96 75 58 
2.92767 -3.47593 11.7124 71 62 63 
3.52569 -2.97729 11.6022 52 72 44 
3.78174 -3.01762 11.854 43 33 41 
3.82416 -3.00365 11.8867 144 131 125 
3.07054 -2.80117 11.2081 63 66 47 
3.02428 -2.74327 11.1614 60 56 53 
3.41432 -2.80523 11.509 39 58 30 
3.84411 -2.54202 11.3695 240 226 215 
2.96338 -2.15816 10.5566 117 136 143 
0.657509 -1.37307 8.35502 147 138 129 
1.17506 0.800408 8.81027 180 96 109 
1.17743 0.840773 8.82312 64 14 26 
1.22686 0.865742 8.85568 150 74 86 
-0.168287 1.17713 8.44841 43 20 30 
-0.209669 1.27923 8.38557 222 200 189 
-0.194716 1.30544 8.38782 228 192 180 
1.18622 1.63461 9.20505 58 17 31 
1.21499 1.9301 9.20015 225 169 170 
1.23693 2.02391 9.18652 225 155 163 
0.374396 2.14607 9.28471 197 145 149 
0.379659 2.21608 9.30128 207 156 153 
-0.212272 2.35194 8.76433 227 197 187 
0.116474 2.46443 9.08239 223 166 173 
0.135519 3.03758 9.25461 203 131 143 
-1.66155 4.76778 10.2211 12 10 11 
3.39687 -6.63158 11.5903 230 211 194 
2.94574 -3.16764 8.56148 250 234 209 
3.32602 -3.5568 12.2329 206 192 166 
3.2023 -2.79006 11.2901 59 81 45 
2.79745 -2.67311 10.9471 37 53 40 
3.41387 -2.80579 11.4987 39 57 31 
3.21349 -2.74842 11.312 50 72 36 
-0.210834 1.18003 8.42487 211 184 167 
-0.228956 1.20447 8.41844 51 41 39 
-0.299821 1.25327 8.38141 32 16 26 
-0.352599 1.2782 8.38061 184 167 159 
-0.299875 1.33623 8.36394 59 48 56 
1.81745 1.97904 9.7455 193 124 129 
1.77007 2.05188 9.70161 200 129 135 
0.737158 2.59314 9.72514 164 121 130 
-0.228263 2.42216 8.77262 192 111 117 
0.71121 2.97082 9.78874 169 134 128 
0.664759 2.97564 9.73106 168 133 131 
0.633944 2.99722 9.71621 20 9 15 
-0.087357 2.91232 9.01843 64 23 39 
-1.89726 4.77036 10.1532 157 139 127 
-2.39983 4.95423 9.53407 69 56 48 
2.4448 -7.05208 12.5721 66 71 77 
3.81599 -3.09165 11.8622 145 141 140 
3.5178 -2.97947 11.6208 55 76 45 
3.20911 -2.88397 11.2966 64 83 53 
2.79587 -2.68487 10.9481 29 45 35 
1.34754 0.0562751 8.81515 228 203 172 
-0.165658 1.32327 8.38143 121 9 34 
0.477394 2.11688 9.38497 70 23 29 
0.573104 2.30229 9.50099 123 43 54 
0.420481 2.37722 9.36803 205 156 152 
-0.0166242 2.71256 9.02408 207 178 182 
2.34197 4.29364 11.4832 161 145 130 
-0.275766 1.22311 8.39452 199 172 153 
-0.236599 1.38045 8.3591 111 19 40 
2.44216 -7.06431 12.5912 66 69 76 
3.84094 -2.46006 11.3689 70 85 80 
1.39642 0.0602458 8.79456 122 102 91 
-0.189033 1.27171 8.40514 212 186 169 
1.83033 1.99573 9.69935 197 127 135 
0.590731 2.53329 9.52779 190 135 132 
0.324709 2.71645 9.35144 204 176 173 
0.0485213 2.75791 9.07986 197 89 105 
2.58664 -1.34463 13.5245 4 0 17 
1.79824 2.02433 9.72187 182 109 118 
-2.51621 4.62991 10.265 120 108 92 
0.814877 -1.25853 8.65953 36 35 40 
-0.271243 1.3588 8.34056 204 168 156 
2.35971 4.12268 11.495 52 33 55 
-1.72987 4.75591 10.293 8 16 27 
0.299892 -1.61625 6.39047 129 120 105 
3.83332 -2.97396 11.9291 163 143 142 
3.31464 -2.77251 11.4432 41 58 22 
0.760915 -2.10472 8.85729 0 16 28 
3.09122 -2.23133 10.6985 124 137 145 
-0.233235 2.3626 8.73676 163 124 119 
4.02199 -6.48441 11.0989 106 103 110 
2.13303 -2.78034 8.16342 106 78 54 
2.92585 -3.48366 11.736 67 58 61 
3.81443 -3.11223 11.8889 152 151 149 
3.52505 -2.98454 11.6277 53 73 46 
3.82435 -3.01232 11.9204 144 129 124 
3.06918 -2.80699 11.2303 66 67 53 
3.41347 -2.81241 11.5369 39 58 30 
3.84433 -2.54749 11.3938 232 224 211 
3.97243 -2.39065 11.4791 131 118 101 
3.22807 -2.23502 10.8021 93 110 117 
2.96238 -2.16111 10.5706 120 139 146 
1.17637 0.936133 8.80606 165 81 104 
-0.268905 1.17586 8.41163 228 185 168 
0.000196757 3.03565 9.11898 186 160 159 
0.650311 -1.30301 8.36312 37 35 38 
2.51419 -1.37489 13.5572 20 6 21 
4.02229 -6.47756 11.0892 106 104 109 
3.39581 -6.64695 11.6171 227 208 191 
3.32482 -3.56668 12.2662 207 189 169 
-0.581252 -2.01661 7.41005 147 110 83 
3.5252 -2.98594 11.6387 54 74 47 
3.0333 -2.85132 11.1875 63 63 51 
3.20116 -2.79614 11.3136 61 83 45 
2.79587 -2.67797 10.9636 36 52 41 
3.41297 -2.81318 11.5272 39 57 31 
3.21224 -2.75486 11.3347 54 74 39 
3.68094 -2.73239 11.7902 108 127 81 
3.73663 -2.71844 11.8288 13 15 28 
1.00836 -1.45939 9.02442 190 186 175 
-0.252645 1.16244 8.45073 225 168 159 
-0.20746 1.17896 8.41709 200 178 157 
-0.368463 1.38068 8.36179 25 25 33 
0.417656 2.3787 9.36532 207 156 153 
0.714403 2.96716 9.77921 167 132 128 
-0.0864746 2.91272 9.01632 57 20 37 
-0.109597 2.92862 8.98419 200 186 186 
3.0915 3.60398 10.9011 237 215 191 
3.4168 3.82918 10.8117 24 23 28 
2.2092 4.1556 11.3496 162 146 130 
1.93038 4.42902 11.0318 175 159 143 
2.44148 -7.06738 12.596 67 71 80 
3.48132 -3.63218 12.2575 12 14 27 
3.81612 -3.10041 11.8951 147 143 142 
3.51715 -2.98697 11.6478 56 74 50 
2.7944 -2.68935 10.9643 34 47 38 
3.80995 -2.18583 11.4941 23 40 47 
1.5161 0.193221 8.82648 83 43 43 
-0.349737 1.26876 8.35047 189 169 160 
-0.218055 1.33352 8.35056 227 190 172 
0.124897 2.46365 9.0931 208 157 164 
-0.259094 2.37307 8.71317 225 202 196 
-0.255804 1.16574 8.40949 208 163 144 
2.43888 -7.07916 12.6138 66 70 79 
3.02047 -2.84968 11.236 87 88 82 
0.622921 -1.21396 8.38315 5 13 24 
1.19599 1.91794 9.2825 255 234 226 
2.58219 -1.35085 13.5782 9 1 22 
-0.398162 1.18204 8.30123 83 9 36 
1.19971 1.91541 9.26777 225 182 176 
-2.57158 4.5027 11.1074 2 8 24 
2.17557 -2.78829 8.19047 89 65 41 
1.79252 -2.6081 7.98861 39 11 0 
1.61039 -2.47316 7.73609 59 32 5 
1.6217 -2.4678 7.74708 169 150 143 
1.43777 -2.37066 7.59305 59 35 11 
1.38055 -2.33795 7.5563 46 21 1 
1.59542 -2.42314 8.00891 10 0 2 
1.6734 -0.145345 8.8267 156 138 114 
1.20715 0.730776 8.84892 181 98 124 
1.44089 0.916233 9.05364 76 18 32 
1.26364 0.957327 8.78338 66 17 36 
1.36269 1.12647 9.30719 192 113 132 
1.53294 1.14 9.42415 187 112 132 
1.55083 1.21962 9.47145 79 12 29 
1.61174 1.23744 9.53668 80 9 27 
1.38964 1.22752 9.35449 177 108 126 
1.55428 1.24107 9.48056 178 103 123 
1.57463 1.3421 9.54467 173 101 121 
1.49547 1.369 9.49173 177 108 127 
-0.151869 1.25036 8.44385 223 196 189 
2.96064 -3.26208 8.83911 123 96 75 
2.82913 -3.19745 8.75935 142 113 81 
2.33213 -2.88793 8.3082 105 83 70 
2.25667 -2.83873 8.24946 123 96 75 
2.08779 -2.67683 8.26648 13 11 12 
1.90461 -2.60309 8.05339 36 36 38 
2.07824 -2.65645 8.26426 173 163 162 
1.7141 -2.53034 7.93059 18 11 19 
1.60388 -2.46792 7.85942 25 20 24 
1.97396 -2.55904 8.25304 140 125 122 
1.46635 -2.38516 7.62732 36 13 5 
2.92412 -3.52811 11.6694 75 69 69 
1.51772 -2.38559 7.66298 20 18 23 
2.91998 -3.48854 11.6349 151 147 144 
2.88314 -3.48574 11.6405 85 81 82 
2.9285 -3.47173 11.685 84 80 77 
1.62578 -2.44803 8.0337 30 19 23 
1.23428 -2.24881 7.4373 39 23 10 
3.82391 -2.99863 11.8648 143 131 135 
2.80917 -2.67342 10.9527 35 53 41 
1.32123 -1.92404 9.31884 122 123 118 
2.01628 -1.88842 9.31576 207 200 181 
0.896149 -1.52915 9.02787 189 182 172 
2.54817 -1.38914 13.3451 27 13 26 
1.21099 0.768588 8.8618 58 17 35 
1.3647 1.19957 9.32368 181 106 126 
-0.403252 1.28459 8.39828 166 146 139 
1.33093 1.35216 8.97828 72 5 23 
1.18877 1.5941 9.17087 61 23 38 
1.19181 1.62839 9.18205 164 93 111 
0.490438 2.13617 9.41729 73 29 42 
0.330226 2.22104 9.266 211 164 158 
0.449078 2.27788 9.33562 177 148 150 
0.482008 2.30293 9.43185 55 18 26 
-1.89407e-05 3.03616 9.11961 187 156 164 
0.0023863 3.09045 9.13184 187 155 166 
2.18041 4.05087 11.3285 88 71 63 
1.01209 -1.41011 9.03592 176 177 161 
2.22168 -2.82642 8.22009 121 91 67 
2.28433 -2.83607 8.26363 244 223 206 
2.29437 -2.8334 8.29401 246 230 215 
2.14327 -2.77757 8.13875 91 61 37 
2.13605 -2.73741 8.10139 250 237 231 
2.12211 -2.75751 8.18632 232 217 214 
2.81248 -3.56619 11.6127 36 46 58 
2.86031 -3.54589 11.608 150 147 142 
3.49103 -3.60985 12.2096 14 20 34 
2.86466 -3.42612 11.6364 148 142 144 
2.81843 -3.40483 11.6476 21 24 39 
3.20273 -2.78644 11.2581 68 86 62 
3.54648 -2.83243 11.6239 66 89 45 
3.21379 -2.74524 11.2798 52 71 52 
1.27497 -1.87188 9.30388 91 85 87 
-0.195025 1.15139 8.45524 217 188 172 
-0.260669 1.16464 8.46897 214 168 153 
-0.260604 1.19732 8.40621 229 199 188 
-0.170525 1.23821 8.41285 78 61 69 
-0.131414 1.26879 8.42368 231 188 172 
-0.237443 1.28847 8.37268 43 40 47 
-0.146788 1.28907 8.39467 233 190 173 
-0.406944 1.4832 8.39754 152 122 122 
0.394284 2.05821 9.31171 130 53 63 
0.37202 2.14854 9.29051 203 155 153 
0.442187 2.28814 9.3558 194 162 163 
-0.370607 2.11323 8.47434 9 10 30 
0.111412 2.47252 9.1053 212 163 167 
-0.110373 2.92894 8.98614 211 189 191 
-0.176566 2.96236 8.92488 120 83 90 
3.06464 3.52825 10.8921 103 93 81 
2.21595 4.13197 11.291 160 146 137 
-1.91969 4.79444 10.1967 114 106 103 
-2.42497 4.98025 9.576 73 63 54 
