ply                 
format ascii 1.0    
element vertex 948
property float x    
property float y    
property float z    
property uchar red  
property uchar green
property uchar blue 
end_header          
2.24175 -2.8584 8.3516 62 31 3 
1.87974 -2.6456 8.06302 74 46 22 
1.93741 -2.68034 8.2429 25 14 18 
1.65119 -2.50451 7.85863 40 13 2 
1.61911 -2.47699 7.83247 160 146 120 
1.53554 -2.44297 7.78633 44 18 0 
1.4464 -2.37629 7.69642 159 141 131 
1.39197 -2.35818 7.66546 40 11 0 
1.19298 -2.19357 7.76768 21 6 9 
0.784506 -1.99426 7.14576 43 14 0 
0.752371 -1.97832 7.12131 37 16 0 
0.312977 -1.7074 6.72666 139 117 93 
3.89136 -3.01161 12.1327 161 140 135 
0.149849 -1.65992 6.77154 35 21 12 
0.143102 -1.64749 6.77095 111 101 99 
0.919932 -2.02732 8.3579 207 230 238 
0.122381 -1.63212 6.75052 113 102 108 
1.82085 -2.01059 9.47205 34 34 22 
0.647592 -1.36989 8.50005 76 65 59 
2.58584 -1.4208 13.7976 20 4 7 
1.55968 0.226898 8.89392 35 0 0 
2.1989 0.686829 9.65777 178 104 119 
1.40336 0.724086 9.1271 64 6 18 
1.90516 0.87089 9.38324 142 81 88 
2.66087 1.06907 11.2143 200 136 136 
2.58177 1.05683 10.8603 65 0 1 
1.21479 0.948511 8.80931 187 103 119 
1.21453 0.958348 8.80369 161 84 104 
1.1879 0.96691 8.81037 63 10 28 
1.08873 1.00334 8.81415 133 64 83 
1.09185 1.04295 8.83759 47 7 16 
1.14173 1.04208 8.83174 64 17 33 
1.85268 1.12743 9.42901 174 113 128 
1.19652 1.06704 8.83981 160 80 105 
1.09314 1.07458 8.8443 140 73 91 
1.16934 1.07543 8.85112 52 8 23 
1.78456 1.14206 9.39868 56 3 9 
1.15547 1.10252 8.85569 79 24 43 
1.04773 1.12941 8.87494 147 89 104 
1.99844 1.25648 9.85729 87 22 26 
1.07526 1.14931 8.89595 51 10 24 
1.12527 1.15058 8.89384 54 4 15 
1.10788 1.17655 8.89026 42 0 11 
1.85517 1.36561 10.2646 191 119 133 
1.64651 1.25113 9.29594 191 120 138 
1.03237 1.2081 8.91104 24 2 5 
1.11008 1.21612 8.89356 170 102 115 
1.66445 1.38982 10.0969 182 111 125 
1.16468 1.24377 8.93191 64 14 26 
-0.259042 1.17764 8.441 229 171 169 
-0.207204 1.19089 8.47771 215 197 183 
1.66801 1.31732 9.3454 77 6 20 
1.50902 1.29634 9.17802 68 0 13 
1.64427 1.32063 9.31528 175 104 118 
1.21017 1.26789 8.93555 198 116 128 
1.28274 1.28984 8.97377 198 121 139 
1.08333 1.29213 8.95469 53 0 13 
1.08478 1.30729 8.95055 157 86 100 
-0.152613 1.24495 8.4623 180 120 128 
1.08506 1.32043 8.94886 142 79 90 
1.25986 1.33065 8.97509 186 110 123 
1.64409 1.51719 10.1659 180 105 125 
1.21271 1.33806 8.96234 192 111 130 
-0.159794 1.26674 8.42167 219 191 170 
0.982066 1.37511 9.0207 40 2 13 
1.21167 1.38642 8.99073 59 2 17 
0.716586 1.44974 9.29876 44 3 17 
1.0241 1.40633 9.01972 130 78 91 
0.881751 1.45568 9.15063 41 1 10 
1.00425 1.43749 9.04095 118 68 80 
0.926701 1.46599 9.12836 53 2 17 
1.03139 1.45989 9.05565 51 5 15 
1.73192 1.55709 9.50516 68 1 18 
1.87747 1.65341 9.85834 145 86 92 
0.992035 1.54362 9.09886 101 59 73 
-0.385346 1.43118 8.36608 167 138 143 
1.07932 1.55898 9.06546 150 83 100 
1.26452 1.67355 9.54368 174 91 107 
1.39059 1.63119 9.23779 81 9 21 
1.31997 1.67335 9.16788 196 120 133 
1.04487 1.69802 9.13272 130 84 95 
0.936308 1.86691 9.30979 27 0 9 
1.00332 1.94265 9.27645 107 63 76 
0.688932 2.05026 9.63173 43 0 1 
1.2293 1.97143 9.23929 145 69 82 
1.90739 2.11842 9.83703 172 113 131 
1.06726 1.99287 9.25991 134 83 92 
1.09301 2.01001 9.26218 27 0 2 
1.05659 2.07748 9.31238 27 0 0 
1.11839 2.0726 9.27993 136 84 96 
1.11844 2.08838 9.28322 123 71 83 
1.0994 2.10926 9.30558 134 83 90 
1.35811 2.19517 9.39956 195 114 133 
1.10573 2.18245 9.33306 143 83 93 
0.330298 2.1818 9.3158 123 50 59 
1.27262 2.21418 9.35225 185 121 135 
1.15739 2.25904 9.35395 144 87 104 
0.312954 2.2665 9.28883 225 161 161 
-0.327879 2.29825 8.71817 250 133 149 
1.2086 2.59564 9.49743 159 98 114 
-0.254655 2.39954 8.77053 168 129 122 
1.32639 2.62533 9.53429 179 106 126 
1.13652 2.83902 10.2166 40 4 16 
1.39492 2.72707 9.61417 190 102 127 
1.31268 2.74294 9.57366 177 102 122 
1.31921 2.8249 9.62201 176 102 119 
2.64283 5.21433 9.39066 118 96 75 
1.6626 5.39052 8.66933 148 131 105 
3.48447 -6.78916 11.807 27 29 44 
3.46456 -6.7846 11.8483 225 207 195 
2.98172 -7.01398 12.3634 40 32 30 
1.86532 -4.55196 11.2012 157 143 140 
0.391976 -3.91932 10.253 55 44 42 
1.52103 -3.71747 9.81279 41 40 38 
1.86753 -3.54657 9.49178 64 51 43 
3.17293 -3.40615 9.17011 96 75 58 
2.99254 -3.28908 8.96236 110 82 60 
1.64281 -3.24333 9.12817 65 52 43 
2.60124 -3.06622 8.66412 133 109 85 
1.51312 -3.14091 8.8877 57 50 42 
1.31743 -3.12201 8.8797 49 40 35 
2.48683 -3.00247 8.57887 141 115 92 
2.17307 -2.82852 8.35024 115 90 70 
-0.562588 -2.7937 8.56984 27 31 30 
-2.20255 -2.8816 8.94677 44 24 13 
-2.20435 -2.84507 8.90162 188 170 150 
-0.49931 -2.69931 8.46317 216 207 198 
1.72963 -2.55387 8.04755 25 16 21 
-2.17455 -2.8022 8.88789 32 17 10 
-0.343142 -2.58441 8.20516 222 209 193 
-0.514861 -2.61529 8.31803 207 201 187 
-0.391903 -2.54829 8.17308 215 206 189 
1.47894 -2.40664 7.73926 34 10 0 
1.83784 -2.57203 8.30883 35 24 30 
1.35746 -2.32654 7.60749 36 10 0 
1.71881 -2.51592 8.21989 27 15 15 
1.63928 -2.47224 8.15337 41 27 27 
-0.552542 -2.38619 7.95125 224 205 190 
1.06564 -2.15177 7.35593 46 19 2 
3.75013 -3.62932 12.7322 38 22 32 
3.70756 -3.62655 12.7364 215 192 176 
-0.467806 -2.02059 7.40491 8 0 7 
-0.603729 -1.99346 7.45263 176 142 107 
-0.605466 -1.95734 7.40047 17 5 7 
3.87231 -3.15196 12.0913 154 150 149 
3.88451 -3.12149 12.1241 139 133 133 
3.57833 -3.02205 11.8309 52 72 44 
0.296232 -1.71021 6.72251 222 200 179 
0.245438 -1.71449 6.74608 50 33 25 
3.8881 -3.05227 12.1401 144 131 125 
0.192017 -1.69759 6.81173 182 166 167 
-0.0118228 -1.68149 6.81796 31 26 23 
0.194618 -1.67706 6.80554 23 14 17 
0.129933 -1.66147 6.75019 218 198 187 
0.0954828 -1.65198 6.7429 227 213 204 
0.563149 -1.96973 8.05678 29 27 32 
3.10919 -2.797 11.431 151 151 143 
1.32072 -1.93091 9.39677 135 123 125 
3.30215 -2.27935 11.0786 95 110 117 
1.27884 -1.90675 9.37895 37 32 38 
3.02459 -2.19954 10.8236 117 136 143 
0.527752 -1.61231 7.98644 81 76 82 
0.751049 -1.7103 8.63032 109 102 96 
0.699314 -1.66343 8.45004 112 103 94 
0.626892 -1.61825 8.30026 133 122 102 
-1.87194 -1.78379 9.36515 80 80 80 
1.36331 -1.74555 9.31145 76 75 89 
0.858012 -1.65327 8.84519 76 74 75 
0.716053 -1.48878 8.59802 106 90 90 
1.31083 -1.55485 9.11145 6 6 8 
0.891439 -1.52564 9.05546 176 170 156 
1.32728 -1.51055 9.11029 79 69 57 
0.918659 -1.4847 9.04052 204 191 175 
0.614951 -1.36135 8.40511 152 151 147 
1.22267 -1.47358 9.09122 98 84 58 
1.0072 -1.45701 9.06595 197 193 182 
0.647796 -1.33354 8.3953 206 193 185 
0.982672 -1.36777 9.09178 148 144 132 
1.00872 -1.35906 9.11129 32 36 37 
-1.14243 -0.931441 7.97128 158 155 148 
2.53829 -1.39001 13.6432 13 0 3 
3.59981 -0.98195 12.8214 31 29 32 
1.56715 -0.352902 8.88027 236 227 198 
1.4989 0.299892 8.97742 46 14 15 
1.26944 0.511092 9.04558 123 55 68 
1.13361 0.549433 9.10881 177 129 129 
1.20178 0.60819 9.10855 75 45 53 
1.22904 0.64108 9.12024 57 27 35 
1.05973 0.926517 8.79858 31 3 15 
1.13691 0.961694 8.78613 53 10 30 
1.26336 0.9778 8.829 70 13 32 
1.08816 0.990643 8.80793 173 98 118 
-2.11449 1.0809 9.57231 31 26 30 
1.11322 0.997422 8.8071 49 13 27 
-2.17313 1.10703 9.50869 20 15 11 
1.24564 1.05164 8.85799 190 105 126 
1.26048 1.11427 9.32054 188 104 127 
1.14432 1.06151 8.83535 189 108 125 
1.24763 1.08981 8.86877 75 18 35 
1.12177 1.10074 8.86894 159 85 98 
1.31769 1.10997 8.9163 67 5 20 
2.04187 1.31253 10.4033 180 121 123 
1.09743 1.13242 8.86916 174 97 115 
1.07095 1.14021 8.87936 51 9 23 
1.1216 1.14274 8.87816 57 5 17 
1.17815 1.15641 8.88483 162 88 103 
1.20351 1.16789 8.88726 62 19 29 
1.09915 1.17194 8.88174 46 5 19 
1.07149 1.18386 8.8926 120 59 74 
1.1827 1.19943 8.89648 65 19 32 
1.13171 1.21008 8.90945 57 6 23 
1.18765 1.23048 8.92097 164 92 103 
1.10471 1.24441 8.91551 55 14 30 
-0.183205 1.19713 8.46111 43 20 30 
1.89593 1.41456 9.93533 166 103 112 
-0.270123 1.22293 8.42498 222 200 179 
1.01498 1.30837 8.98245 42 2 13 
1.18741 1.29843 8.91047 171 99 110 
1.13473 1.30543 8.93866 158 84 97 
1.10884 1.31563 8.94509 66 19 29 
-0.381611 1.24995 8.39552 84 15 34 
0.994577 1.33796 8.99561 40 2 13 
-0.259612 1.26248 8.40957 36 27 32 
1.18729 1.34476 8.96125 61 10 27 
1.0873 1.34966 8.9694 49 15 29 
-0.153005 1.27138 8.44977 229 190 173 
1.13669 1.34911 8.958 54 17 34 
-0.200843 1.2813 8.41766 216 193 179 
-0.394055 1.281 8.40348 188 147 143 
1.08941 1.37717 8.97512 162 93 112 
1.13921 1.37958 8.97445 182 107 127 
-0.140927 1.29599 8.4369 240 188 175 
1.06597 1.38467 8.98753 43 10 21 
1.11416 1.3849 8.97422 54 20 36 
1.16443 1.38478 8.98066 54 14 25 
-0.224145 1.30192 8.40581 222 200 189 
-0.415789 1.30797 8.40218 169 145 145 
-0.390023 1.32241 8.40371 20 14 16 
1.04533 1.41812 9.00829 40 7 14 
-0.208218 1.32773 8.39769 228 192 180 
-0.263742 1.33625 8.3828 217 195 184 
1.23258 1.53643 9.50379 56 14 28 
-0.288379 1.36424 8.39012 204 180 170 
-0.42839 1.3584 8.32291 5 7 19 
-0.329732 1.38435 8.39441 186 168 158 
-0.278277 1.38118 8.38417 209 171 158 
-0.358925 1.39478 8.39588 185 167 163 
0.0154402 1.42067 8.45388 138 35 65 
1.03207 1.52551 9.06779 45 10 17 
-0.343189 1.42091 8.38373 190 155 153 
-0.400883 1.43281 8.40816 144 129 126 
-0.319148 1.42505 8.37646 110 55 61 
1.83561 1.64775 9.63785 200 145 151 
-0.409031 1.47025 8.40885 179 148 143 
-0.383151 1.4824 8.41748 77 12 34 
1.10513 1.59673 9.06796 163 95 106 
1.08222 1.60435 9.08184 53 12 30 
1.19014 1.6936 9.55804 62 19 36 
-0.419099 1.50902 8.40761 160 132 129 
1.13119 1.63271 9.07607 166 88 102 
1.27764 1.65961 9.13665 74 8 18 
1.13761 1.70536 9.10484 163 95 106 
1.11246 1.7116 9.11546 76 41 48 
1.0465 1.7429 9.14882 80 33 41 
0.989018 1.76985 9.20679 46 15 23 
0.972917 1.80396 9.24296 34 3 8 
-2.23777 1.93537 9.65178 9 9 19 
1.19507 1.86168 9.17756 132 56 68 
0.632304 1.95878 9.6094 51 20 26 
1.09869 1.90433 9.22353 197 144 140 
1.1499 1.8991 9.2024 219 171 167 
0.658882 1.98559 9.6073 161 122 123 
1.12459 1.90254 9.20224 125 55 57 
1.04156 1.92532 9.23687 50 9 17 
1.17792 1.93611 9.23198 255 216 209 
1.12473 1.93779 9.2151 197 137 136 
1.15135 1.93859 9.20968 138 63 68 
1.02308 1.95719 9.26827 29 0 6 
1.2747 1.96364 9.25595 149 71 84 
1.20449 1.96857 9.23128 225 169 170 
1.04579 1.99687 9.2671 22 0 0 
1.22888 1.99913 9.24261 221 156 164 
1.13654 2.00875 9.24936 88 32 35 
1.2057 2.00645 9.23813 135 60 65 
1.20936 2.04258 9.26632 202 136 140 
1.2336 2.04372 9.2732 147 65 79 
1.23533 2.07743 9.28492 225 155 163 
1.14097 2.07879 9.2703 61 16 21 
1.18249 2.08044 9.27064 200 130 138 
1.21033 2.08279 9.27629 144 62 74 
1.12192 2.11638 9.29283 34 0 0 
1.16995 2.11553 9.27963 78 23 26 
0.474764 2.17153 9.44936 68 23 30 
1.14844 2.15482 9.30741 72 30 34 
0.356078 2.18756 9.33277 197 145 149 
0.30878 2.18904 9.2834 201 153 153 
1.24944 2.22465 9.35237 66 40 43 
1.10778 2.22488 9.34876 53 30 36 
1.09023 2.26245 9.37945 28 5 11 
0.361285 2.25944 9.35396 207 156 153 
1.13381 2.26489 9.36023 37 14 22 
1.18071 2.26529 9.3542 47 11 21 
0.555319 2.32045 9.56094 102 26 36 
0.453603 2.31663 9.46516 48 8 19 
1.18413 2.2967 9.36794 147 83 99 
1.16009 2.30298 9.37047 28 0 5 
1.20906 2.30384 9.37424 28 0 14 
1.32583 2.32526 9.4205 46 0 9 
0.428935 2.33649 9.44679 186 152 150 
0.55956 2.36812 9.56708 117 42 49 
1.14016 2.34067 9.39462 22 3 9 
1.18679 2.34066 9.38661 45 21 34 
-0.0902735 2.22648 8.9304 234 190 177 
-0.119913 2.22728 8.90784 113 32 38 
1.26082 2.3687 9.39725 48 10 23 
0.401626 2.4287 9.4081 207 156 153 
3.72437 2.98766 11.2514 11 5 5 
1.20177 2.52236 9.46636 145 78 96 
0.726295 2.65327 9.82506 163 121 131 
-0.233113 2.39355 8.80965 227 197 187 
1.23179 2.60458 9.50228 25 0 1 
-0.279357 2.40007 8.75849 231 197 195 
-0.289702 2.41647 8.74338 226 193 188 
1.25792 2.63989 9.51605 22 2 4 
1.29884 2.90341 9.61787 107 22 41 
1.30324 2.94303 9.65409 172 77 97 
0.700895 3.05911 9.94101 168 135 130 
-0.0859433 2.81426 9.04285 215 183 184 
0.617475 3.06422 9.8152 20 5 12 
-0.111294 2.96353 9.0686 65 27 40 
-0.130027 2.97349 9.03075 201 185 188 
0.113766 3.1011 9.32799 203 131 143 
-0.0459065 3.07849 9.15481 122 73 77 
-0.0225124 3.09139 9.17401 188 162 161 
2.18004 4.30063 11.5304 98 81 73 
-2.51642 4.40586 11.1922 25 19 31 
-1.70778 4.81492 10.1944 12 10 11 
2.00055 4.94705 10.2356 154 132 108 
1.72333 4.98439 10.2112 220 198 174 
2.67932 5.03766 10.0928 152 130 106 
1.89914 5.07922 9.70171 148 126 102 
2.14129 5.1108 9.69295 140 122 98 
0.0412005 5.10463 9.38898 96 82 69 
-0.802986 5.13807 9.3787 160 147 130 
2.43434 5.21123 9.44216 143 123 99 
2.42264 5.22214 9.37074 151 133 109 
1.83053 5.22203 9.24541 149 128 101 
2.75877 5.24816 9.26675 165 145 121 
-0.237781 5.22564 9.17652 157 147 137 
-0.269826 5.22976 9.17912 76 72 69 
2.42973 5.26815 9.2205 158 136 115 
-0.311929 5.24606 9.14472 73 66 58 
2.66462 5.27092 9.19292 164 142 119 
0.690096 5.23575 9.09806 152 130 107 
1.17987 5.25597 9.11808 145 123 100 
1.25725 5.26646 9.04229 152 130 109 
0.465129 5.24878 8.98104 123 104 90 
0.069286 5.23808 8.92765 127 111 95 
3.03508 5.33153 9.07267 143 125 103 
2.05686 5.34882 9.07633 142 122 98 
1.07769 5.28886 8.94219 141 123 99 
1.9902 5.34172 8.90661 219 201 177 
0.896772 5.31985 8.83859 134 116 92 
1.27811 5.326 8.8424 164 142 119 
1.97279 5.34054 8.86239 162 144 122 
0.91889 5.34088 8.76508 140 121 106 
2.1916 5.36028 8.7833 137 119 97 
2.44736 5.37448 8.76889 155 133 112 
1.48126 5.36624 8.70897 148 126 103 
0.0598291 5.31887 8.60686 164 146 124 
1.76444 5.38262 8.66018 140 122 102 
2.02708 5.40006 8.65594 160 142 118 
1.72902 5.39798 8.62339 141 123 103 
1.61702 5.40628 8.6044 157 140 114 
0.802827 5.37008 8.52393 161 139 116 
2.09608 5.41777 8.60213 155 137 115 
1.56507 5.44493 8.59866 164 146 126 
-0.237695 5.37043 8.47475 160 142 118 
1.75993 5.43309 8.5521 138 120 96 
1.29399 5.42306 8.47822 153 135 113 
0.859815 5.42281 8.42727 169 147 126 
-0.171393 5.39871 8.37993 155 135 110 
0.0038704 5.41336 8.37644 139 117 94 
1.95467 -3.52121 9.44279 50 50 40 
1.59263 -3.11552 8.84584 63 54 49 
0.200794 -1.70956 6.78444 28 19 24 
0.584013 -1.96285 8.06855 170 185 204 
0.867666 -1.529 8.99549 152 148 139 
-0.221672 1.16165 8.49346 218 163 158 
-0.360333 1.23331 8.41258 222 177 174 
-1.7512 4.89971 10.3611 15 13 18 
2.83487 -3.58767 9.43723 253 228 197 
0.470414 -3.82666 10.1046 38 38 38 
1.22992 -3.70726 9.84187 38 35 42 
2.01294 -3.5454 9.46762 72 60 46 
1.87414 -3.55104 9.50329 62 51 45 
3.16636 -3.39725 9.14336 87 68 51 
1.51825 -3.51678 9.47991 37 39 38 
0.0775926 -3.60833 9.76675 156 148 146 
3.15208 -3.38122 9.17078 250 234 209 
2.9992 -3.29561 8.98088 110 82 60 
2.01248 -3.35917 9.17508 85 75 66 
1.95726 -3.36641 9.21625 51 61 53 
-0.267406 -3.39858 9.48729 162 154 152 
2.60727 -3.06923 8.68588 101 81 57 
2.36379 -2.9362 8.48742 93 73 48 
-0.565338 -3.17085 9.17633 37 37 39 
2.24266 -2.84801 8.32805 160 134 107 
2.15318 -2.77643 8.17612 159 131 107 
0.917643 -2.95155 8.69074 41 43 40 
2.18364 -2.84362 8.38526 97 70 49 
2.17836 -2.80807 8.36262 246 228 218 
2.17529 -2.8509 8.52749 212 198 189 
-0.474473 -2.75965 8.49957 42 44 43 
-2.19354 -2.87363 8.92139 56 36 25 
-2.18111 -2.89949 9.05911 66 51 48 
1.81885 -2.58751 8.10052 54 49 46 
-2.20882 -2.84426 8.90598 190 172 150 
-0.525982 -2.64819 8.31983 49 45 46 
1.77804 -2.56936 8.08017 45 37 35 
-0.535704 -2.64706 8.34922 46 41 45 
-2.17662 -2.80522 8.89766 32 17 10 
-0.456102 -2.60307 8.2699 46 41 38 
0.620457 -2.50007 7.9563 67 62 58 
-0.514533 -2.60826 8.31219 214 205 190 
-0.3219 -2.5636 8.19281 75 56 49 
-1.78609 -2.6638 8.5194 25 0 0 
-0.36659 -2.55645 8.17738 62 50 36 
0.584244 -2.46613 7.90735 55 54 52 
-0.21968 -2.50482 8.08135 49 31 27 
0.133835 -2.45965 7.96317 53 58 51 
1.84077 -2.5651 8.30391 46 34 38 
1.63936 -2.47366 8.15672 41 27 27 
1.21446 -2.25637 7.49031 208 166 128 
-0.544696 -2.37526 7.90893 218 201 183 
3.53659 -3.67034 12.4475 7 16 25 
3.75004 -3.62758 12.7121 31 25 35 
3.70331 -3.63019 12.7348 210 189 168 
3.38334 -3.55559 12.4983 216 192 166 
0.762746 -1.99495 7.12382 203 171 133 
3.71953 -3.39834 12.1456 136 80 91 
-0.460694 -2.01069 7.36979 14 4 13 
-0.598918 -1.98863 7.42863 175 140 102 
-0.603719 -1.95694 7.41346 17 4 11 
-0.484177 -1.9268 7.32852 189 154 122 
-0.426195 -1.88872 7.24783 171 137 112 
0.295733 -1.71178 6.72135 223 199 175 
3.58924 -3.0332 11.8797 54 74 46 
3.2399 -2.91538 11.4845 67 86 56 
3.88553 -3.04376 12.1517 152 133 129 
0.182344 -1.70153 6.82969 192 174 172 
0.510782 -2.02143 8.19147 121 119 120 
0.130324 -1.661 6.74644 218 198 187 
0.0932794 -1.65446 6.748 223 209 200 
0.608936 -1.97161 8.06065 16 20 29 
3.46541 -2.85091 11.7304 39 57 31 
3.92203 -2.98257 12.275 171 125 109 
3.6102 -2.89047 11.9232 70 94 46 
0.600116 -1.9357 8.07427 144 162 174 
3.74085 -2.76889 12.0102 109 132 86 
3.5208 -2.70833 11.8702 109 132 88 
3.77705 -2.73789 11.9911 13 13 23 
1.82307 -2.02163 9.45599 5 16 18 
2.28489 -2.10927 10.0226 2 7 11 
3.21409 -2.30561 10.9982 112 125 133 
3.2163 -2.26581 10.9817 88 101 109 
1.32371 -1.93331 9.40476 135 123 125 
3.15178 -2.25043 10.9475 83 96 105 
0.62702 -1.61489 8.30254 136 125 105 
-1.88512 -1.7914 9.39322 85 83 84 
-2.11861 -1.82396 9.65531 153 138 117 
0.857163 -1.65694 8.84866 77 71 71 
0.538538 -1.55059 8.37761 78 61 45 
0.634114 -1.50831 8.32823 133 119 90 
0.0873676 -1.23164 7.0922 103 107 118 
1.2854 -1.59003 9.20831 61 63 42 
1.31155 -1.5564 9.1267 9 7 12 
0.890295 -1.52313 9.05503 177 170 154 
0.635033 -1.41592 8.5619 18 31 39 
1.3229 -1.5099 9.11189 80 71 54 
0.911969 -1.48474 9.02823 200 187 170 
1.22541 -1.47859 9.09912 98 83 52 
1.00439 -1.45482 9.06958 190 186 175 
1.78274 -1.54572 9.65311 15 14 20 
0.61554 -1.33046 8.39067 16 22 20 
0.980661 -1.37137 9.08322 157 151 137 
1.01075 -1.35598 9.09271 34 38 41 
0.677004 -1.22587 8.4077 182 173 166 
-2.31608 -1.15609 9.55081 72 71 69 
-1.13883 -0.928609 7.95866 158 151 143 
-1.12912 -0.847129 7.98609 164 161 146 
2.47127 -1.26975 13.5795 15 6 23 
3.57918 -0.974062 12.7637 31 30 35 
1.44343 0.0263587 8.75252 250 234 208 
1.34494 0.0822666 8.8568 228 203 173 
1.39975 0.10495 8.86855 86 63 49 
2.11371 0.117798 9.37934 71 63 60 
1.59587 0.233676 9.10507 40 0 1 
1.58305 0.227101 8.91873 42 3 4 
1.51975 0.255258 8.95028 205 175 173 
1.22379 0.564234 9.05973 60 34 43 
1.13646 0.864817 8.83297 145 65 76 
-1.94334 1.01279 9.67689 39 37 40 
1.23286 1.15365 8.88277 185 100 119 
1.07235 1.1805 8.89425 120 51 69 
1.15695 1.2038 8.90127 181 105 117 
-0.251837 1.1609 8.47768 127 39 61 
1.18704 1.23292 8.93243 163 87 97 
-0.208049 1.17649 8.47245 218 181 175 
-0.270607 1.1813 8.45664 214 160 150 
-0.313982 1.20382 8.42222 85 8 24 
1.10724 1.28145 8.94279 125 62 73 
1.16363 1.28163 8.94961 169 85 101 
-0.273949 1.22279 8.42341 224 197 178 
-0.243014 1.22549 8.43076 51 41 39 
-0.350971 1.22756 8.39296 198 158 148 
1.18919 1.30437 8.93954 165 92 103 
-0.385218 1.25031 8.40228 93 21 41 
-0.294648 1.2496 8.39547 200 179 162 
-0.184438 1.26166 8.43583 87 72 77 
-0.151304 1.27353 8.44226 230 193 174 
-0.315229 1.27346 8.39423 32 16 26 
-0.399324 1.2803 8.39675 172 133 128 
-0.201061 1.28238 8.41651 217 194 178 
-0.143816 1.29497 8.44036 235 192 175 
-0.417831 1.303 8.40886 160 135 131 
-0.368415 1.3007 8.39801 184 167 159 
-0.22326 1.30241 8.40244 231 207 195 
-0.158147 1.31148 8.40177 232 185 169 
-0.251588 1.31215 8.39427 40 36 37 
-0.182771 1.33631 8.39975 129 32 51 
3.04761 1.76699 10.9199 167 69 82 
-0.315402 1.35952 8.38452 59 48 56 
-0.287106 1.36406 8.39353 204 180 170 
-0.234512 1.3666 8.39187 238 189 174 
-0.425356 1.3604 8.31164 7 9 21 
-2.30646 1.56167 9.46599 99 90 91 
-0.252641 1.39057 8.38198 115 38 46 
-0.3569 1.39594 8.40125 193 174 168 
-0.298418 1.40966 8.38063 214 169 163 
0.0156972 1.42468 8.4577 142 34 66 
-0.317041 1.43398 8.37743 112 44 57 
-0.380617 1.48213 8.4087 70 1 22 
-0.420211 1.50637 8.40209 160 132 129 
-2.22566 1.92751 9.6152 10 10 22 
0.630914 1.96144 9.6295 42 11 17 
0.655942 1.98982 9.61148 166 127 128 
1.12375 1.93701 9.21134 197 137 136 
1.15035 1.97165 9.21263 191 131 131 
0.378038 2.09422 9.34952 134 62 66 
1.18172 2.08258 9.2757 198 128 136 
0.268227 2.08649 9.205 201 163 150 
0.355907 2.18808 9.32734 197 145 149 
0.306828 2.19215 9.28734 212 157 160 
0.555115 2.31965 9.55915 102 26 36 
0.311939 2.26349 9.30476 219 163 162 
0.559151 2.36152 9.55345 118 43 50 
0.424911 2.33239 9.41205 188 153 151 
-0.0882714 2.22202 8.92687 223 179 168 
-0.125032 2.2285 8.91569 106 18 30 
-0.298209 2.23778 8.8816 126 73 89 
0.182705 2.37175 9.16474 208 152 155 
3.73408 3.00042 11.2903 17 13 14 
-0.349973 2.31227 8.69012 236 162 163 
-0.234072 2.39282 8.7992 229 199 191 
-0.281575 2.40517 8.73985 225 200 195 
-0.249609 2.46674 8.82431 192 111 117 
3.43325 3.16535 11.1516 10 15 18 
0.696876 3.05132 9.92083 169 134 128 
0.64737 3.04432 9.81806 168 133 131 
-0.0814233 2.81502 9.04655 206 177 179 
0.615711 3.06557 9.8113 20 9 15 
-0.109964 2.96538 9.07125 64 23 39 
-0.132607 2.9787 9.03279 202 188 188 
0.0523655 3.17255 9.27143 199 142 149 
-2.08025 4.32624 11.7062 129 118 100 
-0.933095 3.3457 9.02735 121 122 124 
-2.37372 4.21643 10.732 159 146 129 
-2.54301 4.44047 11.2777 21 17 32 
-2.52955 4.48781 11.3019 20 16 31 
-3.44036 4.73283 10.3333 131 121 111 
2.48438 4.88125 10.532 130 108 84 
-1.71348 4.82488 10.216 12 11 16 
0.199608 5.02852 9.67405 168 154 141 
1.90208 5.08685 9.7118 152 130 106 
0.918006 5.08192 9.64161 114 100 87 
0.955695 5.086 9.63579 210 194 169 
2.19492 5.17666 9.52505 147 129 107 
-0.670551 5.1831 9.26519 153 144 129 
-0.268797 5.22375 9.17348 77 73 72 
0.934644 5.23256 9.15654 161 139 116 
2.66408 5.2636 9.17956 175 153 130 
0.691017 5.23279 9.09425 152 130 107 
-0.46836 5.23201 9.08122 63 58 55 
1.1797 5.25479 9.11527 145 123 100 
1.66742 5.27959 9.11447 152 130 109 
1.25672 5.27157 9.05203 152 130 109 
3.03869 5.33521 9.0762 155 137 115 
2.04952 5.32778 9.04114 141 121 97 
1.07836 5.29352 8.9459 147 129 105 
2.54949 5.36463 8.95472 173 151 130 
1.88394 5.32529 8.87175 155 134 113 
1.97392 5.34434 8.86757 162 144 122 
2.28708 5.38557 8.73003 137 116 95 
1.95299 5.40287 8.63006 160 142 120 
1.56133 5.41328 8.54927 170 152 132 
0.595623 5.39186 8.50642 165 147 123 
0.00310654 5.41028 8.37334 139 117 94 
3.45727 -6.70704 11.6596 29 32 49 
1.37459 -4.9861 11.9599 73 63 54 
2.27104 -5.48011 13.2087 187 175 163 
1.88725 -3.55202 9.5044 57 53 44 
2.0034 -3.5517 9.48746 67 57 47 
3.01038 -3.30949 9.01334 110 82 60 
2.00194 -3.3597 9.17949 66 62 53 
1.88016 -3.35359 9.17768 54 63 60 
1.52963 -3.32924 9.18286 39 39 39 
-0.38925 -3.21724 9.02006 46 40 42 
2.18655 -2.84176 8.36778 92 64 40 
2.22334 -2.80667 8.30184 245 226 212 
-0.551725 -2.98729 8.87616 42 43 47 
-0.546063 -2.79298 8.56444 40 46 44 
-2.18142 -2.86944 8.91888 66 47 40 
-0.476602 -2.68645 8.39158 218 208 196 
1.83637 -2.60017 8.1643 39 33 33 
1.9442 -2.63165 8.35414 182 169 163 
3.48525 -3.74614 12.2755 18 15 22 
1.212 -2.25738 7.48709 203 160 118 
3.75795 -3.63053 12.6919 27 30 39 
3.39147 -3.56643 12.4844 212 197 168 
3.71498 -3.40834 12.1685 128 56 68 
1.09982 -2.11185 7.66246 34 20 20 
-0.455889 -2.01389 7.3528 26 21 25 
3.67557 -3.23514 11.9066 107 120 76 
-0.590599 -1.99835 7.42311 177 132 90 
-0.594017 -1.94471 7.39563 37 17 29 
-0.483488 -1.92451 7.30707 187 148 115 
3.58013 -3.03467 11.8837 55 76 45 
3.25173 -2.92734 11.505 64 83 53 
0.349777 -1.71427 6.80188 4 2 16 
0.173392 -1.69778 6.833 205 184 179 
0.0899915 -1.65706 6.74848 226 209 201 
3.73248 -2.78292 12.0158 109 134 77 
3.51364 -2.71295 11.8433 112 137 80 
3.73082 -2.6984 11.796 19 21 33 
1.7159 -2.0436 9.45829 180 175 156 
3.22104 -2.29624 11.0202 113 126 134 
0.343604 -1.62595 8.40427 2 1 17 
0.626626 -1.60636 8.31203 136 126 101 
-2.12974 -1.83738 9.66912 156 142 116 
0.632825 -1.51618 8.32571 138 122 88 
1.26905 -1.58961 9.16226 56 58 34 
1.31094 -1.51082 9.12705 86 70 47 
1.23151 -1.48342 9.09259 99 84 51 
1.69587 -1.57486 9.64837 1 7 23 
0.996907 -1.44845 9.07475 196 188 175 
0.667159 -1.3423 8.46247 205 190 185 
0.885852 -1.28175 8.73368 25 21 18 
0.991921 -1.30521 9.08583 104 105 97 
-2.32607 -1.16897 9.58999 71 70 68 
-1.15582 -0.949848 7.93748 23 23 25 
2.12043 -0.00325965 9.44961 208 181 172 
1.44846 0.0242723 8.76378 242 226 200 
1.34534 0.075527 8.8596 228 203 172 
2.14522 0.101967 9.44632 73 63 62 
1.39919 0.0986974 8.83494 118 95 87 
1.28991 0.189079 9.00575 187 163 139 
1.57848 0.21821 8.85695 148 102 105 
1.45991 0.227797 8.84331 211 179 166 
1.51659 0.253181 8.95695 207 177 175 
1.49281 0.291766 8.96904 45 25 27 
1.69073 0.409183 9.02513 31 0 4 
1.19181 0.529599 9.00235 61 34 41 
1.29557 0.698484 8.97329 159 85 98 
0.899481 1.05131 9.24574 125 75 84 
-0.31762 1.19603 8.42259 102 17 40 
1.43404 1.33141 9.16901 167 97 105 
-0.240271 1.23197 8.43267 42 30 32 
-0.39144 1.24311 8.3997 96 18 42 
-0.190857 1.2506 8.43842 47 35 49 
-0.403746 1.28772 8.40036 166 131 127 
-0.313895 1.2822 8.39328 25 19 31 
-0.368043 1.29498 8.38946 192 174 164 
-0.157264 1.29919 8.42106 226 188 169 
-0.323802 1.35242 8.39291 32 27 34 
-0.234916 1.35806 8.38433 229 186 170 
-0.29938 1.40261 8.37191 222 179 170 
-0.31654 1.44407 8.3744 102 17 40 
-0.375322 1.48565 8.40877 67 0 17 
0.624083 1.95671 9.63981 41 12 17 
0.647837 1.99936 9.61339 159 119 119 
0.268261 2.09301 9.24636 191 158 141 
0.461866 2.17105 9.48239 70 23 29 
0.556529 2.3545 9.57393 123 43 54 
0.46423 2.33077 9.4492 46 17 19 
-0.0849678 2.21486 8.92799 201 167 155 
0.418967 2.34586 9.41887 202 164 163 
-0.138349 2.22397 8.9005 112 15 35 
0.401708 2.42306 9.41415 205 156 152 
0.189294 2.38067 9.17117 204 154 157 
-0.341763 2.31243 8.68605 207 111 113 
0.566998 2.56911 9.56909 191 133 132 
-0.367952 2.34779 8.66032 60 8 30 
0.424434 2.57664 9.47764 193 112 118 
-0.280441 2.4085 8.74259 221 201 194 
0.747087 3.00687 9.93735 155 120 114 
-0.0704539 2.81625 9.05256 208 176 181 
0.6128 3.06725 9.79575 20 18 21 
-0.0925969 2.98808 9.05732 60 16 31 
-0.13959 2.98679 9.03714 205 196 191 
0.055614 3.17637 9.2657 196 136 146 
2.45002 4.25205 11.8417 42 28 43 
2.30683 4.21422 11.6619 69 48 63 
2.47485 4.33575 11.8781 49 36 53 
1.85456 4.27972 11.1227 45 31 48 
-1.85351 4.45523 11.5229 106 94 82 
-2.57046 4.60532 10.0966 123 113 101 
-3.42375 4.71087 10.3004 137 125 113 
-2.24866 4.75099 10.3129 149 133 118 
2.49418 4.8933 10.5672 133 111 87 
-1.71934 4.82036 10.2249 14 14 24 
0.91182 5.08644 9.66616 122 112 102 
0.962533 5.08965 9.63312 209 191 167 
1.5651 5.14854 9.57976 169 151 127 
-0.807764 5.13589 9.36127 170 154 131 
-0.461288 5.22 9.06586 60 56 57 
-0.256771 1.15406 8.47831 129 33 61 
-0.273742 1.18881 8.45257 201 158 139 
-0.290514 1.24314 8.39838 199 172 153 
-0.257479 1.30522 8.39606 48 46 49 
-0.26969 1.34814 8.39087 208 182 169 
-0.251641 1.4014 8.37228 111 19 40 
3.4516 -6.78784 11.9047 224 207 187 
1.37188 -4.9759 11.9524 73 60 54 
2.77234 -3.61164 9.52338 245 223 200 
1.99436 -3.55385 9.49195 63 53 43 
1.8128 -3.55511 9.51624 221 203 181 
1.89705 -3.55197 9.49851 56 53 44 
1.98995 -3.35326 9.16864 63 63 51 
-0.388888 -3.22719 9.04581 34 28 30 
1.63445 -3.13011 8.84964 62 57 51 
2.13297 -2.73102 8.34071 40 34 38 
3.63196 -3.93251 12.6039 213 197 172 
1.1122 -2.19426 7.38244 210 169 123 
3.52373 -3.70153 12.482 8 17 32 
3.39967 -3.59297 12.4876 212 197 168 
1.01415 -2.12669 7.42724 37 25 29 
-0.27367 -1.9606 7.21722 31 19 5 
-0.584019 -2.01498 7.45972 174 126 88 
-0.290969 -1.94179 7.25438 18 1 9 
-0.0180113 -1.84818 6.95142 194 163 132 
-0.490893 -1.9455 7.33366 191 145 109 
0.0193572 -1.81645 6.92554 49 32 25 
-0.420478 -1.90147 7.29671 174 139 111 
-0.288591 -1.83288 7.1315 189 153 129 
0.0536398 -1.7839 6.93822 24 13 11 
0.297195 -1.71084 6.7181 223 199 175 
-0.0267821 -1.73541 6.87951 209 178 160 
0.136464 -1.70775 6.84897 214 191 177 
0.0889224 -1.65743 6.75261 226 209 201 
0.0407011 -1.64965 6.74077 22 16 16 
3.03902 -2.7706 11.373 99 98 94 
3.28145 -2.83065 11.6045 46 67 36 
0.168503 -1.64434 6.78624 13 7 19 
1.33202 -1.93477 9.41475 117 105 107 
0.577035 -1.63373 8.33107 3 1 14 
2.04255 -1.83966 9.42955 0 2 15 
0.682463 -1.59679 8.33695 3 9 25 
-2.14213 -1.8522 9.6862 156 144 118 
-2.35598 -1.70341 9.49216 77 77 75 
-0.00374003 -1.21993 7.01723 110 114 126 
0.764972 -1.50073 8.6366 0 0 21 
0.87981 -1.50522 9.03042 188 176 160 
0.957055 -1.50159 9.05037 6 8 20 
1.29878 -1.5075 9.13665 86 70 44 
1.24403 -1.47918 9.08909 92 77 44 
0.6696 -1.33243 8.3912 199 187 171 
0.987972 -1.44289 9.0785 197 187 175 
0.639683 -1.27902 8.39452 1 5 16 
0.17942 -1.06574 7.07816 123 128 132 
0.695587 -1.24728 8.40401 192 180 166 
0.755672 -1.22726 8.49662 21 19 24 
0.616087 -1.20947 8.4149 4 12 25 
1.56526 -0.340024 8.91127 233 218 187 
1.47171 -0.0774309 8.7917 236 220 187 
2.11283 2.97671e-05 9.45342 208 181 170 
1.42555 0.0828762 9.03339 122 102 91 
2.15706 0.115741 9.47199 73 55 53 
1.28838 0.196648 9.00974 194 168 145 
1.45386 0.22147 8.83382 213 180 163 
1.41105 0.251508 8.91262 50 33 39 
1.48689 0.29158 8.95998 41 21 23 
0.836667 0.364307 8.68524 229 82 92 
0.739916 0.604979 9.34452 104 73 78 
-0.221013 1.18241 8.47692 226 193 176 
-0.203678 1.29251 8.41497 212 186 169 
-0.159722 1.29483 8.43441 227 189 170 
-2.29934 1.48592 9.49617 15 14 28 
-0.175412 1.35184 8.39115 123 6 35 
-0.239121 1.35664 8.38342 230 192 173 
-0.406326 1.3849 8.35132 8 12 23 
-0.338664 1.40826 8.434 151 124 115 
-0.409846 1.54857 8.35365 72 6 33 
0.639073 2.01334 9.62679 159 119 120 
1.84696 2.06966 9.86904 197 127 135 
1.09535 2.00228 9.24805 31 0 5 
1.88527 2.12096 9.80779 57 3 17 
1.11963 2.04796 9.2873 28 2 3 
1.1307 2.08575 9.29716 41 0 2 
0.26761 2.0969 9.26663 191 158 141 
0.552221 2.34154 9.56098 123 41 53 
-0.0815199 2.21673 8.9408 207 171 159 
-0.150498 2.22545 8.90694 110 10 36 
0.54028 2.4266 9.54752 179 124 119 
-0.252629 2.25789 8.8726 100 7 34 
0.61321 2.45394 9.57138 103 57 59 
0.192778 2.39304 9.17942 202 153 156 
0.605464 2.51007 9.58574 100 55 60 
0.572114 2.58128 9.57409 190 135 132 
-0.360631 2.35317 8.64524 81 28 46 
0.704371 2.67291 9.81828 172 127 122 
3.46385 3.08103 11.0039 11 15 24 
0.282968 2.64485 9.34176 208 174 173 
-2.41006 3.45981 11.5214 67 64 55 
0.0276184 2.80437 9.1107 197 89 105 
-0.0592601 2.81155 9.0457 208 177 182 
-0.0944463 2.99953 9.06265 68 25 42 
2.65496 4.32311 12.0384 103 92 86 
2.35177 4.39269 11.703 157 144 128 
1.84556 4.28662 11.1316 48 34 51 
1.94187 4.47986 11.1183 175 160 141 
-1.73 4.82276 10.2576 12 16 27 
-2.208 4.98829 9.41217 88 76 62 
-0.617212 5.21264 9.28135 51 49 52 
-0.250486 5.2287 9.11604 175 159 143 
-0.462424 5.21636 9.0685 61 56 60 
-2.1586 -2.85786 8.93666 66 47 41 
-0.598969 -2.25513 7.63724 115 93 72 
-0.0964439 -1.86889 7.02024 52 32 23 
-0.275578 -1.812 7.03585 204 168 144 
0.0282782 -1.77888 6.90816 35 21 21 
0.297676 -1.72569 6.73993 220 193 166 
3.17502 -2.66154 11.4552 115 141 76 
2.31064 -2.03619 9.81765 149 134 127 
0.863973 -1.50172 9.05131 185 173 159 
1.27239 -1.50633 9.13406 89 69 42 
0.972118 -1.42673 9.07982 194 184 172 
0.708236 -1.26917 8.39809 204 192 176 
0.800878 -1.27201 8.81908 31 30 35 
1.56447 -0.323246 8.92257 236 216 181 
2.09105 0.00451096 9.43729 203 181 170 
1.47801 0.0367771 8.76871 239 224 195 
1.54436 0.21117 8.82619 151 102 105 
1.16962 0.312021 8.92023 211 186 155 
0.843259 0.378014 8.63581 203 67 79 
1.08331 0.574242 9.0396 118 74 73 
-0.41781 1.21066 8.35845 83 7 35 
-0.165785 1.29304 8.42746 224 189 170 
1.82483 2.10928 9.95464 182 109 118 
1.1185 2.06278 9.33646 22 0 0 
0.436254 2.15057 9.38565 159 77 83 
0.642539 2.36347 9.62449 150 101 97 
-0.0759201 2.20725 8.93858 203 171 158 
-0.171183 2.23115 8.91706 106 7 35 
0.622648 2.50348 9.62348 94 55 58 
0.20386 2.41339 9.17933 201 152 155 
0.291531 2.68046 9.37636 205 174 172 
-0.0481255 2.81225 9.07369 206 177 181 
-0.344489 2.81133 8.74263 59 12 32 
-0.0868949 3.00694 9.05977 116 57 75 
-2.13968 4.31968 11.7429 135 120 101 
-1.98405 4.2977 11.6172 21 22 27 
3.26334 4.57268 11.5345 37 35 38 
-2.54067 4.61911 10.1202 120 108 92 
-0.461677 5.22855 9.11026 63 60 67 
3.41821 -3.59071 12.492 212 197 168 
-0.229709 1.18164 8.465 185 143 131 
-0.357347 5.23728 9.11322 85 82 89 
1.59876 -3.69919 9.76429 35 36 38 
2.05102 -3.52843 9.35986 226 210 185 
1.93957 -3.36485 9.19105 57 66 61 
1.23631 -2.91989 8.55145 55 54 50 
-0.321141 -3.02504 8.94021 215 201 188 
-0.378134 -2.07946 7.33942 193 148 107 
-0.491667 -1.96603 7.3053 177 131 95 
-2.13031 -2.4482 9.43731 77 75 80 
-0.110511 -1.75643 6.96436 212 188 176 
0.470624 -1.60974 8.34338 72 56 41 
-2.32946 -1.67547 9.52821 78 78 80 
0.854568 -1.49043 9.05046 192 179 163 
0.946012 -1.42692 9.09658 197 185 169 
0.710056 -1.29453 8.37105 202 190 174 
0.792412 -1.22826 8.50395 36 35 40 
-2.32636 -1.21118 9.59471 74 74 76 
1.32552 -0.580227 9.3809 111 98 89 
1.5969 -0.60838 9.92101 50 49 54 
1.56378 -0.30735 8.91256 234 211 177 
2.06717 0.00657492 9.4274 203 183 174 
1.51093 0.048281 8.73415 240 224 198 
1.25404 0.0879521 8.8997 99 81 77 
1.52834 0.208118 8.80896 141 97 98 
1.2718 0.231303 8.97906 201 177 151 
1.07904 0.593195 9.03598 161 120 114 
-1.98149 1.0479 9.69095 31 35 38 
-0.13128 1.19801 8.47756 113 12 44 
-0.28837 1.38514 8.40133 204 168 156 
0.491256 2.07819 9.44371 161 106 103 
1.11861 2.0539 9.31808 30 4 7 
0.6405 2.34286 9.61233 147 98 94 
-0.0833572 2.2036 8.95504 195 165 154 
0.733924 2.54599 9.8108 64 34 44 
0.685217 2.98642 9.91861 187 140 134 
-0.231556 2.87835 8.84729 198 112 115 
-2.00399 4.37992 11.8489 21 22 27 
1.98217 4.41601 11.148 174 158 135 
-2.56064 4.47222 11.2176 11 16 22 
-2.5051 4.59503 10.0641 116 104 92 
-1.7723 4.79057 10.2378 8 16 27 
-0.255168 5.19756 9.25384 81 85 88 
-0.314542 -2.94338 8.83403 220 204 191 
-0.134566 -2.64184 8.3029 49 51 48 
-2.11043 -2.82395 8.92817 136 113 99 
1.13269 -1.37522 9.08113 10 12 24 
0.55523 -1.20014 8.37461 2 5 20 
2.32815 -1.2744 10.5802 190 172 148 
1.36206 -0.533108 9.56065 121 107 98 
1.56454 -0.279039 8.91174 233 210 179 
1.20309 0.0442801 8.945 86 75 73 
1.23019 0.587741 9.02251 85 47 58 
1.74384 1.59043 9.8047 127 60 77 
0.566271 2.0559 9.56761 167 121 121 
0.727855 2.49567 9.69683 37 7 17 
-0.247481 2.38385 8.74309 208 171 163 
0.651242 2.94962 9.90076 183 134 129 
-1.48645 3.69259 10.5813 109 97 37 
0.338242 3.09978 8.02441 143 141 144 
1.7788 4.45282 11.0907 46 32 49 
1.15388 -1.38161 9.0248 0 1 14 
1.57637 -0.231014 8.96835 226 203 171 
1.59307 0.0407734 8.74432 235 220 199 
1.23524 0.300354 8.92444 211 186 155 
1.91616 0.460658 9.25631 151 95 104 
-0.321823 0.983233 8.18755 116 8 42 
-0.21419 1.29343 8.40753 185 157 143 
-1.31876 1.76271 9.04101 4 14 24 
0.51989 2.07262 9.61889 169 124 118 
-0.292693 2.10734 8.66488 14 12 25 
0.622014 2.83102 9.7718 185 136 131 
