ply                 
format ascii 1.0    
element vertex 1322
property float x    
property float y    
property float z    
property uchar red  
property uchar green
property uchar blue 
end_header          
2.41435 -2.536 10.557 24 45 28 
3.81469 -2.56251 11.2751 151 160 141 
4.05402 -2.58395 11.5378 238 237 209 
0.873519 -2.01532 7.0672 54 37 30 
3.83498 -2.51761 11.2709 236 233 202 
0.812439 -1.98534 7.03475 58 47 43 
3.95491 -2.44285 11.4126 182 168 141 
3.96236 -2.36897 11.3825 108 98 88 
0.889338 -2.03866 8.17307 54 57 64 
3.28797 -2.28723 10.711 159 180 185 
3.99801 -2.34325 11.4016 202 189 172 
3.96304 -2.33532 11.3969 123 110 104 
3.24491 -2.25897 10.6992 151 168 175 
3.28509 -2.26764 10.8059 50 65 72 
0.866257 -1.99619 8.18543 9 21 33 
0.569137 -1.80615 6.72083 75 57 55 
0.756384 -1.95843 7.97312 3 9 23 
0.847334 -1.98577 8.27157 61 74 91 
3.2959 -2.22662 10.7581 154 167 173 
3.09344 -2.2101 10.6085 190 205 200 
2.89898 -2.18884 10.4405 169 184 179 
0.750964 -1.9438 8.02612 140 148 151 
0.657477 -1.94274 8.07552 11 18 26 
0.719723 -1.94877 8.20117 62 79 95 
3.09436 -2.16578 10.5542 157 170 176 
0.682764 -1.94184 8.2158 3 9 33 
2.72288 -2.12238 10.2675 166 183 175 
2.30847 -2.07115 9.81865 143 135 133 
0.740361 -1.80409 7.28132 110 104 108 
0.337892 -1.7239 6.62007 234 231 226 
1.79357 -1.99889 9.29866 85 84 80 
2.4041 -2.01344 9.66173 149 144 150 
0.227484 -1.70015 6.70017 228 223 227 
0.204932 -1.69551 6.78049 37 38 43 
0.15597 -1.6579 6.67725 73 63 62 
1.3354 -1.91393 9.29686 97 97 99 
2.58937 -1.90723 9.57972 159 156 151 
2.53636 -1.89212 9.60457 20 18 29 
2.4818 -1.81906 9.27927 255 255 213 
2.50966 -1.83165 9.61922 163 160 155 
0.666573 -1.72817 8.20654 116 114 125 
2.53265 -1.82204 9.67613 4 3 8 
0.888739 -1.75893 8.72172 86 82 73 
2.29845 -1.75384 9.20675 64 69 73 
2.48671 -1.72255 9.25359 106 105 113 
4.29326 -1.96635 12.2507 10 18 31 
0.678144 -1.65691 8.19189 105 103 108 
0.789789 -1.69258 8.6714 106 87 72 
2.41257 -1.71125 9.22578 86 82 83 
1.66795 -1.69133 9.2124 92 82 73 
2.62934 -1.68938 9.73955 194 164 166 
3.78427 -1.9144 12.7962 20 22 34 
3.60212 -1.99271 14.0031 22 26 35 
0.640347 -1.52206 8.22842 9 9 21 
1.995 -1.57615 9.46051 98 96 84 
1.85616 -1.57175 9.53683 171 170 165 
1.83186 -1.55197 9.43985 138 134 133 
1.97927 -1.54569 9.36553 97 94 89 
1.74467 -1.56008 9.55954 84 82 87 
0.764655 -1.48205 8.45359 77 79 76 
1.79415 -1.53655 9.51008 21 19 22 
0.933851 -1.48818 8.97918 214 201 182 
1.25632 -1.47081 8.99141 87 78 61 
0.767844 -1.44518 8.58865 155 145 136 
0.720581 -1.40356 8.44024 183 176 168 
0.659766 -1.36391 8.31052 164 160 157 
0.683477 -1.33808 8.32641 200 194 178 
1.04565 -1.3737 9.01942 5 11 27 
2.33935 -1.2764 13.9304 136 122 121 
2.12408 -1.20093 13.9159 12 0 20 
3.81305 -0.960026 13.2377 69 75 97 
4.71302 -0.894081 10.6536 208 67 101 
1.63537 -0.563819 10.2333 138 135 126 
4.72298 -0.494768 10.616 211 164 148 
4.14173 -0.294306 11.0306 52 12 38 
2.08282 -0.117874 9.65476 188 176 162 
2.04556 -0.0484405 9.59812 20 28 31 
2.12269 -0.0481619 9.50732 208 186 165 
2.13872 0.0847053 9.31544 70 41 45 
1.56327 0.211656 8.99807 85 49 53 
2.06216 0.304809 9.67057 27 0 9 
1.48751 0.267725 8.99218 49 3 13 
1.79761 0.360186 9.87285 44 0 9 
1.70516 0.390584 9.84049 37 0 14 
1.81552 0.39715 9.91826 23 0 10 
1.66656 0.401382 9.78753 35 1 17 
1.77079 0.341615 8.99357 36 2 18 
1.67674 0.372009 8.9977 35 0 14 
1.77547 0.382645 9.001 106 67 88 
1.75856 0.387899 8.97181 35 3 18 
1.73253 0.503379 9.89542 42 6 20 
1.79468 0.407105 9.03614 97 60 77 
1.78874 0.462945 9.45765 36 4 17 
1.77516 0.418042 9.02118 31 0 11 
1.83806 0.433493 9.06364 41 5 19 
1.72078 0.544845 9.85811 31 0 11 
1.85325 0.460759 9.12431 41 0 14 
1.17974 0.500205 8.99326 95 42 58 
1.83057 0.779777 10.0472 35 0 12 
2.0524 0.68614 9.3761 34 0 5 
2.15417 0.692779 9.4656 27 0 0 
1.79131 0.791466 10.005 34 0 7 
2.08008 0.718115 9.40815 31 0 0 
1.88121 0.847173 10.1145 30 0 4 
1.55546 0.704742 8.904 44 6 17 
1.61021 0.725824 8.99262 35 0 12 
1.79396 0.87646 10.0696 29 0 0 
1.37586 0.73014 8.74754 54 7 25 
1.75812 0.903561 10.0183 158 103 108 
1.50152 0.820966 9.30869 79 28 45 
2.51429 0.984812 10.7254 156 106 115 
1.68076 0.953754 10.0506 36 0 7 
1.2109 0.775839 8.7092 138 80 95 
1.2899 0.793357 8.73926 153 97 110 
2.48637 1.05139 10.8007 41 0 4 
2.61226 1.09597 10.9241 38 0 3 
-2.17583 1.15786 9.62817 26 23 32 
1.28852 0.827592 8.74492 65 14 33 
2.46886 1.09313 10.7811 53 2 17 
1.09698 0.853981 8.71728 53 5 17 
1.7954 0.912841 9.21649 37 0 9 
1.59752 0.908572 9.05118 72 14 29 
1.43751 0.89404 8.89335 76 28 42 
2.95161 1.0478 10.3482 255 230 208 
1.56572 0.921603 9.06992 154 87 105 
1.66405 0.918475 9.07736 47 0 15 
1.32442 0.924048 8.78299 63 15 37 
1.44739 0.955574 8.90458 64 17 33 
1.60659 0.975188 9.05441 74 15 37 
1.34621 0.953737 8.81723 67 10 27 
2.31265 1.21923 10.6671 34 0 0 
1.26067 0.976444 8.76221 53 6 26 
1.21037 0.985421 8.75815 47 0 15 
2.05376 1.25935 10.4136 47 1 12 
1.66203 1.23644 10.1646 65 13 26 
1.1911 1.0217 8.75976 51 7 22 
1.30919 1.03536 8.81616 57 9 23 
1.43308 1.0696 8.93652 63 4 22 
1.77344 1.28623 10.1648 171 115 116 
1.6062 1.11625 9.12464 57 3 19 
1.1425 1.09569 8.79993 56 6 18 
-0.220439 1.1326 8.45393 116 49 67 
1.50841 1.14266 9.07582 154 90 106 
1.59197 1.15776 9.17723 144 87 94 
1.44981 1.16895 9.02018 74 13 29 
1.1253 1.15689 8.81724 131 68 87 
-0.244687 1.18854 8.41317 208 181 170 
1.28896 1.18029 8.89698 163 85 109 
1.51464 1.20375 9.07908 145 84 100 
1.66829 1.22335 9.23057 144 86 100 
1.53245 1.22876 9.16176 146 88 103 
1.31383 1.19811 8.90446 131 74 91 
1.62406 1.23676 9.20635 134 77 92 
1.84472 1.25479 9.37471 54 5 24 
1.17244 1.19792 8.84705 52 0 13 
1.64507 1.24139 9.22314 76 18 33 
1.33805 1.20201 8.90981 70 18 30 
-0.357815 1.22316 8.39896 69 20 42 
1.60691 1.25392 9.18685 66 12 28 
1.51286 1.24976 9.09684 72 15 34 
1.82282 1.29423 9.38103 52 8 23 
1.28582 1.25099 8.93789 159 92 110 
1.45223 1.26506 9.06549 158 99 117 
-0.120671 1.24177 8.42265 213 174 159 
-0.168746 1.25313 8.39961 198 179 172 
-0.344388 1.27245 8.40141 161 146 143 
1.17417 1.2676 8.88496 59 7 20 
1.32254 1.2666 8.92381 145 73 95 
1.47504 1.288 9.08428 147 93 107 
1.73773 1.33484 9.35477 138 84 100 
-0.191536 1.27356 8.38477 206 187 180 
-0.374065 1.30609 8.42971 26 24 38 
1.19965 1.30101 8.90566 59 2 19 
1.79527 1.37205 9.43196 137 80 97 
-0.281632 1.32645 8.36181 43 35 46 
-0.21928 1.34194 8.39868 207 163 164 
-0.276485 1.3839 8.38642 188 150 149 
-0.377644 1.40841 8.40306 101 92 95 
2.81732 1.6371 10.513 115 54 61 
2.97137 1.68859 10.7348 140 53 70 
2.82925 1.6627 10.4961 171 110 115 
3.017 1.69156 10.7005 200 125 132 
2.79885 1.67998 10.4897 78 19 25 
1.21676 1.46099 8.95169 128 69 87 
-0.394624 1.47992 8.4153 105 75 87 
3.01875 1.7591 10.7029 202 122 133 
1.23614 1.54486 9.01553 48 0 9 
1.42144 1.47386 8.74658 155 86 107 
3.00044 1.81189 10.7256 199 123 133 
1.06425 1.75959 9.83956 71 8 27 
1.60975 1.60931 9.35753 92 38 54 
3.05106 1.82561 10.7809 191 103 117 
1.26207 1.57404 9.03275 51 4 20 
3.03018 1.87933 10.8115 182 100 112 
3.00231 1.86913 10.7379 104 20 36 
1.19291 1.62472 9.04043 44 0 15 
2.1376 1.78953 9.87815 90 34 43 
2.19212 1.80386 9.90728 182 121 129 
2.57768 1.88124 10.3167 159 92 109 
2.14859 1.81973 9.89607 165 103 114 
2.88325 1.95052 10.6544 107 42 50 
-1.84527 2.07341 9.54093 26 24 35 
2.92177 1.99537 10.7628 172 113 117 
1.87993 1.86674 9.65714 95 45 54 
1.12036 2.0519 10.0086 255 228 212 
1.30442 1.85688 9.23108 255 230 212 
1.8371 1.9436 9.66825 184 132 144 
1.55808 2.14828 10.3312 78 28 39 
2.33591 2.03778 10.1172 167 104 112 
2.29081 2.06166 10.1277 152 91 106 
1.82942 2.00325 9.64742 167 115 119 
0.40935 2.04086 9.30485 112 46 60 
1.13821 1.95575 9.20438 78 25 33 
1.70998 2.05156 9.59888 137 85 98 
0.508383 2.1167 9.3972 61 27 28 
1.54037 2.03356 9.4291 58 14 29 
0.32687 2.14554 9.28109 181 141 142 
-0.107032 2.18917 8.9273 73 12 27 
-0.0802073 2.19122 8.95186 197 153 152 
0.437822 2.28479 9.40941 170 135 139 
0.589443 2.30264 9.51049 101 50 55 
-0.330581 2.27684 8.69703 184 119 125 
4.17642 2.86829 12.1026 7 9 21 
-0.2092 2.34867 8.79705 207 178 182 
-0.271568 2.3779 8.75873 211 176 183 
3.88465 2.84964 11.544 15 18 27 
3.69699 2.84851 11.1617 204 196 185 
3.95862 3.04357 11.7216 5 5 15 
-0.0897715 2.78425 9.0999 194 162 175 
0.635996 3.00173 9.85286 141 111 113 
0.628166 2.997 9.77755 18 16 21 
-0.32017 2.8372 8.87501 35 27 40 
2.83301 3.3828 11.1796 42 41 49 
-0.187477 2.97122 9.00077 109 56 72 
-0.00251822 3.03378 9.16606 159 131 143 
2.23837 3.00418 9.6901 155 144 148 
-0.015607 3.10316 9.21986 156 128 140 
0.061178 3.12251 9.28501 166 115 130 
3.05396 3.53826 10.9867 55 55 57 
3.1239 3.57923 10.985 103 95 82 
3.07743 3.59293 10.9352 220 206 180 
1.94751 3.8415 11.1332 49 40 57 
2.16149 4.09003 11.4864 65 51 51 
2.15112 4.2014 11.4663 71 58 52 
1.92246 4.43664 11.0882 135 125 116 
0.452758 5.18748 8.98838 111 94 86 
2.26576 5.1249 9.05542 139 121 101 
3.96088 5.10703 9.41361 139 119 95 
3.9179 5.26469 8.79828 147 129 107 
3.16917 -3.18986 8.65339 224 211 195 
1.93629 -3.24993 8.80879 40 40 32 
0.937041 -2.86735 8.49367 46 41 37 
0.854358 -2.69059 8.17036 49 48 44 
3.24498 -6.12148 9.4156 13 24 46 
3.21992 -6.03682 9.28509 120 121 123 
2.52089 -6.9283 12.4733 184 175 168 
1.87472 -4.47988 11.0635 151 136 141 
3.91804 -3.71221 9.83227 185 151 114 
3.84035 -3.63888 9.65943 208 167 123 
0.613596 -3.93868 10.2381 46 40 42 
1.20647 -3.78638 9.8954 45 40 44 
0.990598 -3.79754 9.95275 34 35 39 
0.529319 -3.81405 9.96559 49 40 43 
3.14352 -3.30001 8.78338 76 52 42 
2.01315 -3.48108 9.26253 59 50 51 
0.507989 -3.76235 9.98599 28 27 32 
2.97052 -3.21205 8.67942 118 89 73 
2.93584 -3.21286 8.76912 252 232 208 
3.13699 -3.15954 8.66946 241 230 224 
3.0829 -3.09997 8.55754 43 34 37 
2.68581 -3.03531 8.3822 118 89 59 
2.68208 -3.08956 8.60548 104 80 54 
2.75821 -3.02623 8.66304 211 205 205 
0.173484 -3.36245 9.36895 38 38 48 
2.53143 -2.95257 8.3331 115 93 72 
-0.0188263 -3.36097 9.36732 32 36 39 
2.81928 -2.84952 7.99352 197 185 185 
-0.158761 -3.33576 9.37343 41 40 46 
1.53385 -3.06253 8.66341 58 50 47 
2.39676 -2.91092 8.34525 119 92 71 
3.13016 -3.7062 11.9671 167 133 108 
3.48292 -3.70597 12.0921 18 21 28 
3.16342 -3.69929 12.0455 46 37 40 
3.01942 -3.58261 11.6729 27 29 42 
2.33244 -2.81824 8.17435 248 223 203 
2.43664 -2.90723 8.59155 15 12 19 
-0.976584 -3.31237 9.46955 93 75 73 
2.27753 -2.80577 8.1448 114 92 71 
2.97867 -3.56069 11.6874 156 149 139 
2.23977 -2.80241 8.14521 117 86 66 
2.28162 -2.86101 8.41831 240 222 210 
2.86175 -3.51385 11.5334 159 152 146 
2.31886 -2.71924 7.90848 225 211 202 
2.12945 -2.80389 8.26145 104 77 60 
3.48449 -3.57807 12.1415 9 17 30 
2.1777 -2.73126 7.97421 103 74 58 
2.22637 -2.75553 8.10318 227 210 194 
1.19472 -2.8574 8.38739 45 46 41 
0.326353 -2.94153 8.57967 44 47 52 
2.14006 -2.73633 8.12057 206 191 184 
-0.17146 -3.03051 8.92346 44 44 46 
3.32069 -3.53039 12.1891 217 204 188 
2.98117 -3.44561 11.74 147 144 137 
2.86671 -3.3925 11.5565 160 150 151 
3.03104 -3.41501 11.7021 21 19 32 
-0.160804 -2.96698 8.77628 56 55 63 
-0.127295 -2.98143 8.85354 55 56 60 
2.82009 -3.37456 11.5845 14 23 32 
2.50734 -3.31472 11.2993 74 84 96 
-0.497158 -2.95127 8.78447 40 41 46 
2.38429 -3.28413 11.1964 36 44 65 
-0.85375 -2.99166 8.96373 45 48 57 
3.14762 -3.41349 12.0781 106 73 56 
2.25787 -3.25178 11.1084 34 46 62 
3.19657 -3.40122 12.0922 46 27 31 
-0.852073 -2.94329 8.827 45 44 50 
0.316977 -2.77899 8.35377 40 38 41 
2.14701 -3.20589 10.9606 37 45 64 
2.08645 -3.20032 10.9518 48 59 79 
0.652757 -2.67291 8.15624 57 49 46 
3.62303 -3.17474 11.6299 113 125 87 
0.561991 -2.65282 8.20069 46 48 43 
1.78118 -2.52778 7.91561 38 33 37 
1.92308 -2.55456 8.1393 36 27 22 
1.99449 -2.53266 8.15619 126 109 101 
-0.0252706 -2.6363 8.212 55 51 50 
0.195594 -2.60908 8.12455 58 57 55 
1.77019 -2.47832 8.04844 41 34 41 
3.80511 -3.07708 11.7856 162 154 152 
0.657938 -2.49042 7.84907 63 54 55 
-0.33219 -2.56153 8.15311 52 50 55 
-0.246046 -2.53575 8.05236 58 53 57 
1.65313 -2.42717 7.96067 29 22 29 
0.324193 -2.4674 7.86613 62 60 63 
3.83956 -3.01395 11.7818 51 47 64 
3.5195 -2.96641 11.6022 45 61 32 
0.247369 -2.44559 7.90196 66 66 66 
0.182329 -2.43665 7.86328 60 58 63 
3.35232 -2.90854 11.4134 50 70 35 
3.03643 -2.81686 11.073 58 60 47 
1.26001 -2.23926 7.40096 57 43 34 
3.40365 -2.82574 11.4205 44 59 40 
2.94284 -2.77966 11.0465 35 44 41 
3.07274 -2.76877 11.0943 61 61 53 
-0.478967 -2.33719 7.72631 115 95 84 
-0.471908 -2.35212 7.79849 222 209 193 
2.98473 -2.74705 11.0417 107 106 104 
3.40969 -2.78315 11.4374 52 66 53 
1.49491 -2.23261 7.75896 120 101 87 
3.21067 -2.73177 11.2763 46 61 40 
2.95796 -2.67928 11.03 47 50 39 
2.79497 -2.66656 10.9641 27 43 40 
1.05158 -2.10133 7.17594 61 46 41 
2.18222 -2.55728 10.3461 13 34 29 
3.67362 -2.70447 11.7008 111 139 81 
3.72523 -2.64127 11.4472 7 13 25 
2.41316 -2.53888 10.5642 26 46 34 
3.8151 -2.5692 11.2657 113 126 117 
4.05171 -2.57913 11.5284 238 235 204 
1.89245 -2.43323 10.0759 44 62 62 
0.867563 -2.01623 7.07838 51 36 33 
0.25923 -2.00793 7.13691 240 236 225 
0.937038 -2.1385 8.27212 12 24 36 
0.984009 -2.10979 8.28018 164 157 164 
0.881242 -2.0831 8.15406 33 35 48 
4.01144 -2.41448 11.4091 130 119 101 
-0.599153 -2.00413 7.44472 172 135 109 
0.964781 -2.05733 8.31586 158 159 161 
0.587299 -1.85305 6.79345 207 178 160 
3.28807 -2.28969 10.7393 159 180 185 
3.18405 -2.27822 10.667 50 69 76 
4.08517 -2.34509 11.4152 201 194 165 
3.96265 -2.33965 11.3839 102 91 87 
0.879176 -2.02909 8.41957 118 127 136 
0.747446 -1.98651 8.08212 125 135 136 
0.8559 -1.99853 8.19981 13 25 39 
0.912161 -1.99424 8.18858 136 145 152 
3.15007 -2.23914 10.6492 181 194 187 
0.546021 -1.81378 6.77616 65 49 49 
3.06333 -2.22078 10.5598 49 67 79 
-0.42376 -1.89911 7.20806 31 29 40 
3.01165 -2.22318 10.5717 128 143 148 
0.636656 -1.93932 7.96521 195 194 202 
0.737411 -1.95019 8.0667 132 140 143 
0.4918 -1.77542 6.66535 202 184 172 
0.791505 -1.83618 7.27288 124 105 98 
4.05872 -2.26141 11.6125 147 143 131 
0.43096 -1.75454 6.67687 221 204 194 
0.673834 -1.9091 7.98858 102 112 121 
0.622767 -1.94163 8.22961 121 127 139 
0.791663 -1.80172 7.2563 11 10 28 
3.85759 -2.19079 11.3032 148 143 139 
0.353546 -1.72127 6.59268 234 231 226 
2.84279 -2.1083 10.4009 144 156 154 
0.225657 -1.71514 6.7372 207 201 205 
0.287175 -1.69843 6.6962 37 36 44 
0.0423064 -1.69525 6.71874 30 32 44 
0.228132 -1.68584 6.73829 35 35 43 
2.49934 -1.91521 9.46896 95 95 97 
2.93962 -2.02022 10.5143 78 95 103 
2.02239 -1.87837 9.26859 132 134 129 
1.28834 -1.86425 9.28479 80 75 81 
2.52192 -1.86299 9.63037 148 144 135 
2.51765 -1.8223 9.27933 28 27 33 
2.62374 -1.85081 9.63995 151 132 115 
2.53388 -1.87653 9.90295 6 12 24 
2.5085 -1.83195 9.60493 159 156 149 
4.51718 -2.01149 12.3127 213 189 165 
2.30018 -1.75648 9.2261 63 67 70 
4.28958 -1.95585 12.1734 13 23 33 
0.705209 -1.68184 8.50204 93 84 79 
2.40563 -1.71426 9.24078 81 75 75 
0.792263 -1.68346 8.56146 6 12 24 
0.892781 -1.6551 8.75802 99 91 88 
3.78604 -1.91973 12.8754 18 21 36 
3.65238 -1.99156 13.9909 194 177 151 
3.55695 -1.9714 13.9375 18 22 34 
3.50503 -1.95674 13.9493 196 178 156 
1.29691 -1.58225 9.05943 49 49 37 
0.637429 -1.57766 9.34366 20 22 34 
0.930927 -1.52333 8.86447 185 173 161 
1.83855 -1.55255 9.42587 132 128 125 
1.7419 -1.56091 9.57554 76 74 79 
2.00469 -1.53545 9.39789 22 22 22 
1.354 -1.51104 8.9725 76 69 53 
2.48973 -1.50672 9.15974 10 13 22 
0.755325 -1.48138 8.48053 77 79 76 
1.01781 -1.49952 9.01547 5 13 24 
0.439361 -1.47264 8.61791 48 52 63 
0.932451 -1.48942 8.96029 213 201 177 
0.749139 -1.44359 8.52635 49 41 39 
1.03601 -1.45164 8.96029 199 193 181 
0.657252 -1.36501 8.32151 164 160 157 
1.01291 -1.37843 9.00745 160 156 144 
0.664675 -1.32991 8.28109 22 26 38 
1.05424 -1.37133 9.00435 6 13 31 
0.840545 -1.33486 9.14112 37 32 38 
0.695361 -1.2548 8.29241 17 21 32 
0.711266 -1.24047 8.34594 183 177 163 
2.58918 -1.38018 13.2333 15 4 20 
2.43103 -1.29043 13.5534 152 137 132 
2.75961 -1.24981 13.4903 33 13 22 
2.23903 -1.22372 13.8618 86 78 89 
2.13156 -1.19611 13.9061 13 1 21 
2.9804 -1.0224 13.3601 73 72 80 
4.65903 -0.932903 10.5748 207 170 151 
4.71585 -0.892944 10.6773 201 62 95 
4.35668 -0.734874 10.3096 216 90 111 
4.72132 -0.579872 10.6546 208 89 111 
1.60351 -0.553859 9.93526 52 50 53 
4.33176 -0.450047 11.0364 200 76 100 
3.63549 -0.293299 11.4079 14 8 34 
1.90882 -0.201694 9.80895 32 34 46 
2.08098 -0.112142 9.67355 191 179 163 
2.03871 -0.0502964 9.62027 24 33 40 
2.10955 -0.0389686 9.55602 206 184 163 
1.47019 0.0128785 8.66343 236 220 187 
1.35777 0.0510425 8.80986 208 191 165 
1.44689 0.11847 8.75858 47 19 18 
1.64978 0.146793 8.63972 214 183 181 
1.53523 0.183495 8.77745 24 0 0 
1.49745 0.263266 8.94715 54 11 20 
1.90643 0.382881 9.91951 149 107 108 
1.66149 0.4043 9.80727 35 1 17 
1.81141 0.326213 9.01017 42 6 20 
1.73635 0.350966 8.93792 43 9 23 
1.68343 0.367371 8.96331 41 2 20 
1.17272 0.505259 9.0224 92 46 59 
1.76167 0.89469 9.99027 162 110 114 
2.51543 0.986686 10.7505 145 95 107 
1.26433 0.769806 8.74499 138 81 98 
2.46279 1.02829 10.7362 148 99 103 
1.29536 0.790723 8.72874 152 96 109 
-2.21055 1.16934 9.6893 29 26 37 
1.23991 0.878891 8.75154 146 75 93 
2.42038 1.13321 10.5995 146 93 103 
1.14032 1.06495 8.81172 131 78 94 
1.17183 1.0848 8.79351 158 91 108 
-0.192364 1.14686 8.48766 202 165 157 
1.12321 1.16096 8.82633 138 75 94 
1.175 1.15904 8.83603 142 81 96 
4.62986 1.6463 12.5289 23 16 23 
-0.279729 1.17012 8.39453 92 23 44 
1.42274 1.18808 9.02872 144 81 98 
-0.183103 1.19519 8.53358 45 17 39 
-0.227375 1.20354 8.45191 52 41 55 
-0.324745 1.20627 8.41285 191 152 147 
-0.147981 1.22617 8.39877 70 55 62 
1.22437 1.23058 8.84255 128 66 81 
-0.126583 1.25152 8.4403 220 174 161 
1.53046 1.29332 9.19097 123 66 83 
-0.220291 1.27896 8.37226 41 33 44 
-0.13665 1.28163 8.40971 217 184 175 
-0.166279 1.31388 8.41792 106 23 51 
-0.213285 1.33522 8.38778 208 169 164 
-0.328774 1.36889 8.40563 157 145 133 
-0.362374 1.37318 8.38686 25 29 41 
2.93165 1.61288 10.5844 177 110 119 
-0.231923 1.37107 8.38662 101 33 48 
2.85327 1.62778 10.4978 185 123 126 
-0.385751 1.41669 8.41724 103 92 96 
-0.297883 1.41773 8.39117 90 25 49 
3.07284 1.71652 10.7696 159 72 89 
2.96109 1.79141 10.6789 143 57 66 
-2.12521 1.9572 9.6353 30 33 42 
2.67234 1.81626 10.515 178 115 123 
-1.9891 2.02435 9.51824 24 18 28 
2.19403 1.8068 9.9174 185 124 132 
2.57889 1.87481 10.3011 159 92 109 
-1.81116 2.09443 9.71824 21 19 32 
2.21102 1.83359 9.92705 186 122 136 
-1.85738 2.07315 9.56069 22 22 34 
2.15411 1.89134 9.91209 155 93 108 
0.288351 2.05242 9.24009 165 138 131 
0.514548 2.10817 9.37208 59 23 25 
0.371082 2.14523 9.33186 182 137 142 
0.379142 2.21362 9.34033 179 134 137 
0.334627 2.21467 9.28704 187 148 149 
-0.0835388 2.17079 8.8673 77 13 30 
0.483401 2.29019 9.45345 43 22 29 
0.429593 2.29658 9.43379 173 141 144 
4.46026 2.86917 12.5867 19 19 27 
4.31698 2.91573 12.5001 24 25 30 
4.17351 2.85052 12.0351 5 9 20 
-0.216103 2.35499 8.80961 207 178 182 
0.0874251 2.48743 9.20193 190 142 156 
3.89026 2.84427 11.5259 15 17 29 
3.87334 2.93405 11.6837 124 123 121 
3.69754 2.84031 11.1387 198 189 180 
0.781645 2.92236 9.8394 118 91 100 
3.62877 3.17117 11.4883 17 20 27 
-0.119161 2.81136 9.17629 192 160 173 
0.704521 2.97005 9.84802 133 107 116 
-0.314768 2.82716 8.85414 32 26 40 
-0.133599 2.94792 9.08589 184 164 176 
-0.197459 2.97813 9.01705 111 60 75 
-0.166047 2.98932 9.04199 188 152 164 
-0.0356402 3.08643 9.21739 144 131 141 
0.0564239 3.12783 9.29733 166 115 130 
3.05796 3.52601 10.9541 55 55 57 
-0.137906 3.26991 9.19704 63 51 61 
3.1232 3.55828 10.9378 93 86 78 
3.11886 3.6288 10.9964 216 196 169 
1.85978 3.78141 10.9944 127 126 131 
1.95598 3.83382 11.0914 47 38 55 
2.26854 4.07957 11.6321 119 109 107 
1.93113 3.94157 11.0342 63 48 71 
2.17952 4.1537 11.498 73 59 56 
2.18729 4.20992 11.5355 131 118 110 
3.4301 3.82218 10.8038 11 10 18 
1.9061 4.09148 10.974 148 137 131 
3.34831 3.87782 10.8107 128 113 94 
-3.52436 4.6427 10.1094 32 34 47 
1.91892 4.44319 11.1137 134 126 115 
-1.76267 4.85463 10.4566 13 15 28 
3.49849 5.09666 9.23883 155 138 120 
3.25438 -6.11912 9.39474 9 24 45 
1.40552 -4.85795 11.7125 68 58 59 
3.43136 -3.46533 9.06589 247 233 206 
0.987721 -3.96769 10.2178 36 37 41 
2.72893 -3.712 9.85569 247 223 197 
1.21481 -3.7954 9.91603 41 41 51 
1.66666 -3.64087 9.57495 32 41 46 
0.552728 -3.86142 10.1033 149 144 140 
1.36701 -3.66892 9.635 161 157 154 
3.14299 -3.31923 8.84452 76 52 42 
1.55377 -3.62573 9.58279 42 36 46 
2.00452 -3.47302 9.24036 51 47 48 
1.89304 -3.45551 9.24119 47 46 51 
0.481277 -3.7175 9.92231 153 149 146 
1.85208 -3.40979 9.22173 227 210 190 
3.17451 -3.16782 8.66954 50 46 47 
2.0013 -3.28756 8.93773 55 52 63 
3.08915 -3.09573 8.56554 33 26 33 
3.03989 -3.09089 8.5557 251 237 208 
0.186194 -3.36532 9.37174 36 39 46 
3.12488 -3.70023 11.9112 160 126 99 
1.20923 -3.04279 8.67983 41 39 40 
-0.0438888 -3.18314 9.10308 36 40 52 
2.26356 -2.8878 8.50998 246 228 214 
-0.159248 -3.16227 9.10381 42 41 47 
0.173679 -3.10988 8.96301 173 169 170 
2.97031 -3.54978 11.6899 154 145 138 
0.333112 -3.06468 8.82924 178 169 172 
-0.397028 -3.17123 9.14521 43 41 44 
2.87255 -3.50328 11.5449 155 146 147 
0.84487 -2.97275 8.63785 215 201 190 
3.47559 -3.58638 12.1367 9 18 33 
-0.185521 -3.10937 9.02948 180 174 174 
2.22161 -2.76666 8.13946 238 220 208 
-0.520862 -3.15489 9.17317 40 43 48 
-0.522844 -3.09058 9.02931 172 166 166 
0.986426 -2.86368 8.40438 51 47 48 
2.14111 -2.73096 8.09653 205 188 181 
-0.0324117 -2.99292 8.78108 50 49 54 
2.97509 -3.45263 11.7337 157 147 135 
2.87439 -3.40873 11.5831 154 142 142 
3.04414 -3.42147 11.6992 25 24 40 
-0.150413 -2.97007 8.78162 46 49 56 
-0.380915 -2.98386 8.8133 47 46 54 
2.13215 -2.69279 8.15978 20 20 30 
2.80733 -3.38177 11.5858 17 30 39 
-0.500465 -2.96246 8.82074 48 49 54 
3.3398 -3.46545 12.2229 221 201 176 
3.1329 -3.43168 12.1167 104 73 53 
3.60849 -3.36608 11.9353 136 54 68 
-1.40341 -3.0464 9.10158 141 116 96 
3.1956 -3.40981 12.1227 42 25 31 
-0.845079 -2.94785 8.84306 46 45 51 
-0.0335763 -2.80976 8.48854 48 48 50 
-0.638008 -2.78599 8.24563 176 170 174 
3.61 -3.33159 12.1275 43 12 28 
0.85808 -2.6676 8.13982 56 57 52 
-0.374085 -2.7982 8.51431 51 51 61 
-0.150089 -2.78657 8.49438 51 51 51 
1.971 -2.57637 8.09976 178 168 166 
-0.496138 -2.77491 8.51395 47 45 56 
3.61332 -3.16169 11.6131 101 118 73 
0.502259 -2.59165 8.0872 238 220 196 
0.663479 -2.54475 7.91752 239 222 194 
-0.0245882 -2.62701 8.181 55 55 57 
1.82818 -2.53053 8.20909 48 34 34 
-0.457065 -2.63828 8.23816 49 47 50 
-0.143101 -2.59915 8.17692 54 54 56 
1.88377 -2.49834 8.19449 114 101 84 
3.80625 -3.06591 11.7858 146 137 132 
-0.209188 -2.54501 8.07556 223 207 191 
0.528821 -2.46269 7.84347 62 66 69 
0.317957 -2.46226 7.85166 61 61 59 
1.48509 -2.36622 7.62468 47 42 48 
3.76316 -3.00938 11.7968 49 42 60 
3.51219 -2.95577 11.5588 79 95 66 
1.46816 -2.31579 7.48188 43 37 41 
0.188107 -2.44215 7.87843 57 58 62 
3.43361 -2.93573 11.4991 53 68 47 
3.80815 -2.96852 11.8008 153 136 128 
3.20581 -2.87002 11.2859 64 81 49 
1.31408 -2.26286 7.46588 43 37 47 
3.79871 -2.86442 11.7422 178 131 111 
2.95066 -2.77615 11.0132 37 46 45 
-0.522156 -2.34921 7.78533 116 94 83 
-0.441444 -2.34539 7.76294 225 206 191 
3.213 -2.74542 11.2403 50 64 51 
2.79355 -2.69707 10.8757 17 31 31 
2.80018 -2.66066 10.8683 38 52 53 
2.48444 -2.60844 10.5541 15 31 28 
3.66252 -2.71688 11.7068 110 141 74 
3.08766 -2.54698 11.1295 121 148 81 
3.85252 -2.51027 11.2824 236 227 194 
4.07856 -2.50027 11.4963 226 221 191 
0.86013 -2.03922 8.17287 179 189 191 
0.927494 -2.05178 8.27498 11 18 36 
-0.0405476 -1.86146 6.97192 86 62 60 
0.793694 -1.84674 7.24735 139 112 103 
0.593469 -1.93469 7.98465 36 49 66 
4.12136 -2.25211 11.5786 20 34 45 
2.67275 -2.1291 10.2566 17 29 41 
0.670893 -1.93279 8.24766 5 13 34 
2.84303 -2.12792 10.3401 166 176 168 
2.72658 -2.10597 10.2634 94 111 101 
1.71394 -2.0153 9.30168 39 38 33 
2.31876 -2.05259 9.76862 151 140 134 
2.37188 -2.02087 9.71788 148 140 138 
2.41464 -1.94634 9.56595 2 9 27 
2.4946 -1.92135 9.48189 82 80 85 
1.3432 -1.91385 9.30234 83 81 82 
2.57909 -1.90523 9.59202 151 147 136 
2.00744 -1.88158 9.29208 102 102 94 
2.52418 -1.90407 9.61979 22 21 35 
2.57606 -1.84017 9.61199 8 11 30 
2.53503 -1.8093 9.3976 151 149 136 
2.30962 -1.75499 9.23245 62 64 63 
4.52822 -2.00433 12.3248 215 189 164 
0.787896 -1.71954 8.65082 101 86 55 
2.39423 -1.71737 9.2453 88 79 80 
1.67222 -1.70043 9.2276 94 82 70 
0.141309 -1.56127 7.81178 51 51 63 
2.58324 -1.67394 9.74921 0 5 21 
2.67739 -1.67733 9.84297 25 4 19 
3.49282 -1.94464 13.9875 198 177 156 
2.49108 -1.50918 9.13549 11 17 29 
1.90475 -1.53805 9.49564 33 34 36 
0.723369 -1.44388 8.58737 52 47 44 
1.02955 -1.44378 8.95829 205 198 182 
1.0418 -1.37407 9.07529 19 25 39 
0.781501 -1.29003 8.87532 23 25 24 
2.43498 -1.29785 13.4818 148 130 120 
2.75988 -1.23698 13.4944 35 15 24 
2.2327 -1.23472 13.8956 90 80 91 
1.62654 -0.562102 10.258 127 124 115 
4.34309 -0.447267 11.0381 201 74 95 
4.1281 -0.392699 10.8187 224 88 112 
3.72879 -0.132444 11.5903 51 11 35 
2.03971 -0.0618461 9.58929 34 44 54 
1.41431 0.0536576 8.75781 100 82 72 
1.32259 0.10386 8.85319 108 98 96 
0.868665 0.332935 8.70395 218 83 97 
0.875183 0.32912 8.47326 216 80 92 
1.64977 0.385759 9.11435 29 0 7 
1.18875 0.507654 8.99704 88 46 60 
1.33013 0.643 8.73992 154 101 117 
-2.1452 1.10458 9.65418 37 36 42 
-0.287419 1.16211 8.40295 92 17 40 
-0.146845 1.18485 8.47987 66 16 43 
-0.368748 1.21329 8.39804 78 19 49 
-0.157463 1.21813 8.40952 42 32 43 
-0.294055 1.26475 8.41275 24 23 37 
-0.225148 1.26934 8.36706 40 38 51 
-0.155508 1.32024 8.39824 102 12 47 
-0.205094 1.3246 8.35963 203 170 163 
-0.374125 1.36609 8.38489 11 18 36 
2.92576 1.63963 10.6405 191 122 127 
3.01429 1.66304 10.7194 155 84 88 
-2.25942 1.81817 9.69512 25 29 41 
-0.380651 1.46707 8.37999 99 79 90 
4.60302 2.04755 12.5706 20 16 31 
2.63954 1.88144 10.5215 45 0 4 
2.18441 1.80086 9.92008 183 122 130 
-1.92195 2.06267 9.56487 112 109 104 
-1.84081 2.088 9.65151 109 105 104 
1.72269 2.03771 9.73763 137 84 90 
0.29291 2.05239 9.24944 166 136 128 
-0.0679903 2.17856 8.94895 188 157 152 
-0.130545 2.19048 8.94149 72 13 35 
0.575517 2.29286 9.53013 98 45 55 
0.47669 2.28979 9.46426 45 24 31 
4.47715 2.8753 12.5906 17 20 29 
4.32491 2.89825 12.4154 25 25 33 
-0.329423 2.28769 8.72598 190 110 119 
-0.270018 2.37961 8.77937 200 180 182 
0.123988 2.46129 9.13535 185 143 157 
0.718537 2.60974 9.79883 131 99 102 
3.70452 2.82472 11.0847 201 191 182 
3.96446 3.02088 11.7086 11 13 26 
-0.0414199 2.7265 9.12742 181 162 168 
-0.0691445 2.77731 9.09801 184 156 171 
0.671861 2.95909 9.77366 147 113 112 
4.79652 3.4064 12.3884 70 62 60 
0.627431 3.00002 9.76198 18 18 26 
-0.135714 2.94777 9.06973 184 162 174 
-0.0854792 2.95651 9.09896 57 30 47 
2.71577 3.19959 10.5977 116 115 121 
2.86272 3.35797 11.0939 38 40 52 
-0.139497 3.05187 9.0823 171 130 146 
3.08885 3.58431 10.8911 224 208 182 
1.95145 3.84347 11.0912 50 39 56 
2.26527 4.06613 11.627 121 112 107 
1.93507 3.93949 11.0103 63 48 69 
2.20588 4.21376 11.5301 131 118 109 
0.287332 3.07814 8.06025 143 138 135 
3.42423 3.82881 10.8484 31 31 39 
1.90208 4.1176 11.0293 150 140 131 
2.31852 4.34912 11.6934 121 111 102 
3.39537 3.90084 10.8559 191 177 151 
-2.56912 5.11463 9.86873 92 82 72 
-2.35348 5.33265 8.97099 135 119 104 
-0.264623 5.21018 9.35021 64 65 70 
0.447734 5.19093 9.00153 107 90 82 
3.12726 -3.16417 8.66788 230 216 207 
2.43206 -2.90428 8.3424 250 227 209 
3.16061 -3.69582 12.0599 44 39 45 
2.17716 -2.7549 8.0533 107 81 66 
1.27498 -2.22608 7.37447 55 45 46 
3.01231 -2.2116 10.5574 67 82 85 
3.08566 -2.19762 10.6195 53 65 61 
2.12284 0.666209 9.44946 100 53 59 
-0.241696 1.15908 8.41668 182 143 136 
-0.26131 1.21548 8.4002 174 156 146 
-0.291578 1.31695 8.36767 38 37 53 
-2.12823 1.95675 9.65148 23 27 36 
3.2155 -6.05692 9.32712 121 122 124 
4.11788 -6.38295 10.7812 60 67 77 
2.44156 -7.02013 12.5702 77 79 91 
1.87284 -4.45153 11.0421 148 136 140 
1.06986 -4.36166 10.8771 148 138 136 
0.955214 -3.98703 10.2841 37 38 42 
0.942641 -3.92021 10.086 42 41 49 
1.3084 -3.81348 9.9209 37 37 45 
0.553742 -3.91533 10.1984 142 137 133 
0.72273 -3.73145 9.60522 148 145 140 
1.37516 -3.66572 9.64274 160 157 150 
1.71775 -3.50268 9.3182 176 165 163 
1.65365 -3.44262 9.25637 38 37 43 
1.5628 -3.44407 9.27331 32 34 46 
1.8496 -3.40672 9.19878 226 210 187 
2.04025 -3.34016 8.99209 240 221 191 
1.70318 -3.31939 9.02377 220 202 178 
1.56486 -3.2555 8.94888 40 44 53 
2.69987 -3.03939 8.40654 114 88 63 
2.66172 -2.9776 8.2566 111 88 70 
1.51064 -3.19911 8.92471 206 193 174 
2.63483 -2.94569 8.35068 239 224 203 
2.52063 -2.99739 8.63699 251 233 211 
0.347336 -3.24513 9.12198 174 165 166 
2.65177 -3.00566 8.73118 23 21 26 
3.24673 -3.72362 11.9386 208 193 172 
1.47562 -3.05585 8.65034 237 222 191 
1.38425 -3.06916 8.73435 236 221 192 
-0.186217 -3.29818 9.30515 164 158 158 
2.68087 -2.92897 8.54018 29 22 29 
3.46215 -3.68532 12.0821 12 25 34 
2.38346 -2.87077 8.32345 244 225 210 
2.52403 -2.88515 8.51767 25 21 35 
3.04517 -3.56529 11.6747 24 27 46 
2.27717 -2.85777 8.38186 247 229 209 
-0.134056 -3.15372 9.08047 41 40 46 
2.79593 -3.5046 11.5243 23 36 52 
3.46503 -3.59299 12.1175 7 19 35 
0.841246 -2.97151 8.62901 215 201 190 
-0.199773 -3.11622 9.03954 177 169 166 
2.21829 -2.77448 8.1595 227 208 194 
0.54766 -3.00057 8.72934 33 37 46 
2.9207 -3.48644 11.6314 128 126 129 
-0.289176 -3.11177 9.07735 200 191 186 
0.00285 -3.04572 8.8618 179 173 175 
-0.525264 -3.09927 9.02114 168 162 162 
-0.248149 -3.0209 8.82321 216 202 191 
2.18144 -2.73425 8.19739 17 12 16 
-0.332465 -3.02052 8.86422 213 200 192 
3.34412 -3.5157 12.2513 218 201 175 
3.61136 -3.50523 12.2979 207 192 171 
2.79515 -3.38937 11.582 19 31 45 
0.061674 -2.93354 8.72952 211 200 194 
2.13942 -2.68478 8.15355 23 23 35 
0.536765 -2.82388 8.45939 42 43 45 
1.9843 -2.68743 8.20636 32 31 36 
3.11933 -3.43463 12.1016 104 71 52 
0.00600067 -2.85757 8.55273 219 207 193 
-0.538474 -2.91434 8.73854 180 174 176 
2.13311 -2.65945 8.23504 29 26 33 
1.9164 -2.63096 8.06937 28 26 29 
2.0688 -2.64345 8.22847 158 151 143 
-0.345374 -2.85139 8.58943 223 210 201 
1.93674 -2.59376 8.01769 30 28 33 
2.00495 -2.56874 7.94363 126 118 116 
0.156261 -2.7517 8.39443 221 209 187 
0.637667 -2.66628 8.12664 54 54 54 
0.33518 -2.70125 8.25343 222 205 187 
1.80575 -2.56954 7.98139 45 39 43 
1.96698 -2.58303 8.13025 181 171 169 
2.12042 -2.6111 8.30406 104 90 81 
-0.180028 -2.73291 8.40722 223 209 196 
0.533488 -2.64484 8.16728 56 50 50 
1.9345 -2.53237 7.9808 175 165 163 
0.296798 -2.64778 8.1639 50 46 45 
3.60219 -3.15305 11.63 102 119 67 
-0.000930614 -2.68189 8.274 223 207 192 
1.63389 -2.45784 7.63679 189 147 107 
1.80967 -2.55241 8.17421 145 140 146 
1.82582 -2.54729 8.21021 32 26 30 
1.69496 -2.4359 7.64649 33 31 34 
-0.471546 -2.64578 8.25419 49 43 47 
-0.359418 -2.63899 8.21731 225 209 196 
0.0436202 -2.54635 7.92523 50 48 51 
3.10557 -2.98112 11.0396 110 125 68 
-0.13532 -2.59834 8.19152 54 53 58 
0.165604 -2.56481 8.07658 226 209 193 
1.88428 -2.50184 8.21381 121 108 92 
0.641918 -2.48626 7.8274 58 59 54 
0.340542 -2.5165 7.94121 235 222 203 
-0.273613 -2.53991 8.04992 52 50 55 
0.530139 -2.46621 7.87294 58 59 63 
-0.562937 -2.6184 8.4327 222 209 192 
1.43836 -2.3377 7.46025 200 163 121 
0.213535 -2.4862 7.9617 48 54 52 
1.7674 -2.38858 7.97077 104 86 84 
0.194155 -2.44219 7.89552 62 64 63 
3.02513 -2.80945 11.094 59 59 57 
3.80402 -2.87289 11.7519 180 129 110 
3.04285 -2.76319 11.0721 53 55 50 
3.4097 -2.808 11.4548 46 58 44 
-0.512721 -2.34294 7.74967 116 94 83 
3.21523 -2.7611 11.3069 49 62 52 
-0.268454 -2.23246 7.49698 154 123 95 
1.00949 -2.10654 7.16468 198 164 137 
2.49484 -2.58876 10.5533 40 56 53 
3.65034 -2.72953 11.7112 116 145 79 
2.37836 -2.56886 10.531 56 72 71 
3.7379 -2.68036 11.6701 6 13 23 
0.942512 -2.09024 7.33265 31 25 37 
3.50996 -2.59095 11.3499 1 15 15 
2.01472 -2.47344 10.2523 11 29 29 
3.10148 -2.55285 11.079 122 148 77 
4.03968 -2.55599 11.5097 236 227 196 
0.797769 -1.99147 7.00717 198 167 136 
3.86655 -2.49984 11.2681 239 228 196 
0.267141 -2.01337 7.11963 238 238 226 
3.90985 -2.38573 11.2979 227 218 189 
0.881426 -2.31948 10.0991 47 49 61 
0.937438 -2.05254 8.22362 37 43 57 
0.96638 -1.96595 7.66099 3 14 42 
0.625577 -1.87379 6.94844 30 26 40 
4.06117 -2.34961 11.4799 201 192 161 
0.917387 -1.9945 8.15844 177 185 188 
4.04424 -2.27896 11.5664 156 148 129 
4.13217 -2.253 11.5113 20 34 45 
0.395529 -1.76013 6.71798 226 208 196 
0.86083 -1.80961 7.22704 11 19 40 
2.66219 -2.13085 10.2506 16 28 40 
3.891 -2.22085 11.3074 165 156 139 
1.70737 -2.02625 9.34161 61 58 53 
1.83338 -2.0169 9.35816 0 11 25 
2.35131 -2.02682 9.7008 147 137 135 
3.79278 -2.17058 11.377 25 45 56 
1.33793 -1.92516 9.34313 90 88 89 
2.63771 -1.90877 9.61628 22 26 37 
3.90497 -2.02448 11.4078 147 134 125 
3.27858 -1.85867 9.84566 14 31 41 
2.64007 -1.84883 9.70516 163 138 118 
2.3233 -1.75551 9.22188 66 64 67 
2.61341 -1.777 9.61174 39 12 29 
4.5381 -1.99108 12.3055 217 190 163 
4.26929 -1.92396 12.1462 11 23 37 
2.57447 -1.67987 9.75874 2 8 22 
2.69128 -1.67607 9.77723 41 10 26 
3.81093 -1.89986 12.8725 12 21 36 
3.48097 -1.92776 13.9923 198 177 156 
1.83469 -1.56719 9.54153 164 164 156 
2.5115 -1.50228 9.00863 11 17 31 
0.441818 -1.49407 8.60878 54 57 66 
0.912984 -1.50662 8.91829 197 184 165 
1.00528 -1.49594 8.91158 25 23 28 
0.0527768 -1.45375 8.26663 76 66 39 
1.30918 -1.47108 8.89974 88 77 59 
0.6213 -1.44517 8.53934 1 9 30 
0.681401 -1.41042 8.4056 16 29 38 
1.02124 -1.43642 8.95977 200 191 176 
1.0868 -1.41634 9.01464 4 13 28 
0.718432 -1.37932 8.46355 198 184 171 
0.649734 -1.30676 8.31046 8 10 31 
0.676637 -1.28582 8.30778 19 22 41 
0.991933 -1.30318 8.67773 37 32 38 
0.675733 -1.25631 8.28905 4 16 32 
0.727799 -1.2548 8.34664 193 185 172 
0.745684 -1.26229 8.72189 38 36 49 
2.86227 -1.197 13.4063 166 137 123 
2.17188 -1.17679 13.849 10 2 23 
3.77388 -1.04201 13.161 186 168 146 
4.26017 -0.460372 10.997 42 23 51 
4.35814 -0.434246 11.0583 194 68 89 
4.11537 -0.383703 10.8595 227 83 108 
1.59477 -0.360492 8.78206 236 215 184 
3.73655 -0.114366 11.8004 78 36 60 
2.04285 -0.076533 9.54061 21 35 46 
2.08487 -0.004128 9.51006 192 164 160 
2.14632 0.0596819 9.53615 52 45 52 
2.15766 0.0806006 9.39252 57 37 46 
1.46822 0.120391 8.75331 131 101 101 
1.21987 0.235294 8.80408 193 169 145 
1.50748 0.254202 8.8063 86 56 64 
1.61223 0.417997 9.38805 30 0 14 
1.68654 0.376451 9.01483 65 29 43 
1.82084 0.496326 9.66757 27 0 9 
1.24423 0.644474 8.80066 80 31 50 
1.53709 0.753608 9.10248 44 0 19 
2.39196 1.27512 12.2415 153 103 112 
3.09873 1.05279 11.0074 230 181 166 
1.1568 0.824958 8.77354 146 92 105 
1.22418 0.869955 8.74786 152 95 110 
2.86367 1.17833 11.0572 247 205 180 
2.7705 1.22336 11.0556 236 194 169 
2.74846 1.20092 10.7687 255 246 218 
2.29244 1.43423 10.6954 241 218 186 
-0.131978 1.26387 8.41661 195 171 159 
-0.247756 1.26345 8.3637 27 29 44 
-0.214059 1.32833 8.37209 204 174 166 
-0.300251 1.37384 8.37906 168 143 136 
-0.419703 1.39649 8.36783 5 14 31 
1.84562 1.50214 9.4141 77 19 41 
-0.329424 1.45758 8.42692 86 10 40 
1.78198 1.72035 10.3139 238 209 177 
-0.39707 1.53093 8.39172 35 5 33 
3.13159 1.94998 10.9789 87 35 48 
-1.98665 2.01398 9.54414 37 39 54 
2.62145 1.90767 10.5975 51 0 10 
2.18432 1.81522 9.9344 185 124 132 
1.84792 1.89434 9.688 116 64 76 
0.652287 1.97692 9.59551 116 89 96 
1.26587 1.86955 9.20845 255 218 203 
0.281606 2.06331 9.28522 175 140 134 
0.572125 2.27945 9.51284 107 50 65 
-0.144649 2.19058 8.94993 68 13 34 
4.49842 2.95928 12.891 13 17 28 
0.189244 2.37084 9.24576 176 136 144 
0.620932 2.45705 9.60586 88 55 64 
4.46238 2.99689 12.6684 95 87 85 
0.564107 2.55794 9.6555 165 121 122 
0.708341 2.62183 9.8008 132 101 107 
3.92494 2.86438 11.5696 12 20 31 
0.29835 2.60351 9.35666 177 155 158 
3.8707 2.95783 11.6449 135 132 127 
0.81239 2.9343 9.96487 6 12 26 
0.749247 2.917 9.86371 121 91 99 
3.61525 3.15248 11.4377 3 9 21 
-0.0582525 2.7754 9.10838 182 153 171 
3.46662 3.02615 10.9872 8 11 28 
0.686691 2.93144 9.76 146 112 111 
3.41754 3.15557 11.2486 8 12 21 
0.628751 2.99629 9.74432 20 19 27 
-0.332816 2.81139 8.83997 20 23 38 
-0.0910508 2.9699 9.10982 56 25 40 
2.87783 3.36384 11.0982 42 46 57 
2.437 3.58966 11.4303 21 18 35 
-0.132341 3.04585 9.06609 171 130 146 
3.11587 3.56492 11.0166 107 102 98 
2.27214 4.18402 11.6737 45 32 50 
2.9823 3.90118 11.0241 131 119 105 
0.299373 3.07047 8.05029 144 139 136 
2.32059 4.30067 11.6302 122 112 100 
1.91045 4.1219 11.0308 154 140 137 
1.82992 4.18454 11.0468 32 29 48 
1.92939 4.41299 11.133 145 133 121 
-1.78817 4.84605 10.5096 13 20 30 
-1.99002 4.87914 10.4009 114 104 95 
-0.27554 5.2167 9.37309 60 61 66 
2.43459 -6.9711 12.4473 75 77 89 
1.39081 -4.85377 11.776 68 57 61 
1.85305 -4.47666 11.1253 149 137 141 
2.04609 -4.35857 10.8198 149 139 138 
0.945638 -3.96211 10.218 37 36 50 
0.806219 -3.95075 10.1747 150 140 139 
1.29559 -3.79113 9.85819 31 34 41 
0.530491 -3.9334 10.1985 152 144 141 
1.62227 -3.63725 9.57525 29 36 44 
1.84178 -3.41807 9.16476 227 211 188 
0.925598 -4.15789 11.8245 35 37 49 
0.763166 -3.58271 9.63087 164 154 153 
2.04404 -3.33428 9.03259 243 223 186 
1.94509 -3.25666 8.87866 49 51 50 
1.35769 -3.30698 9.12811 176 167 160 
2.75458 -3.06419 8.63815 250 234 219 
2.79433 -2.9477 8.20731 251 236 217 
3.54854 -3.8339 12.2534 207 190 172 
0.108436 -3.33848 9.30911 168 158 159 
2.64999 -3.21712 9.49742 27 24 31 
-0.0466659 -3.33137 9.28714 42 43 45 
-0.935743 -3.36459 9.47165 101 84 76 
0.23458 -3.19596 9.10172 42 47 51 
0.950094 -3.02335 8.64321 38 42 45 
1.17337 -2.98908 8.55821 219 204 185 
2.4596 -2.9261 8.63955 38 36 39 
-0.0769155 -3.16088 9.05357 39 41 54 
2.51702 -2.80854 8.1788 15 12 19 
3.44662 -3.63748 12.118 18 24 40 
2.31019 -2.81343 8.21662 244 227 209 
-0.413362 -3.14544 9.06832 42 46 49 
-0.231156 -3.13285 9.03365 174 170 161 
0.425898 -3.00357 8.73139 176 171 168 
0.22437 -3.01183 8.81324 43 47 56 
0.0878512 -2.9809 8.75997 185 175 176 
3.07956 -3.4483 11.707 22 31 46 
3.20351 -3.54017 12.2251 16 13 30 
-0.123759 -2.99799 8.84804 49 52 57 
2.7673 -3.4091 11.5866 24 32 45 
3.36338 -3.50623 12.2545 218 202 176 
-0.268239 -2.97888 8.81071 218 204 193 
-0.387195 -2.94792 8.71063 44 47 52 
0.589728 -2.83291 8.43261 44 43 48 
2.1481 -2.67853 8.19202 34 34 46 
-0.793246 -2.96816 8.85671 45 48 57 
-0.571626 -2.93643 8.74854 181 175 177 
0.244788 -2.81687 8.46518 50 51 56 
1.98081 -2.5874 7.8685 36 36 38 
-0.13575 -2.81993 8.5842 53 54 56 
-0.584809 -2.78868 8.49789 181 177 176 
-0.395793 -2.77041 8.44271 49 49 57 
0.25521 -2.62866 8.15095 47 50 55 
0.544924 -2.56635 7.89533 225 210 187 
-0.536667 -2.67099 8.34067 52 47 54 
-0.229481 -2.6111 8.14662 223 210 193 
-0.120274 -2.62607 8.24944 47 46 51 
0.189982 -2.47456 7.98546 59 61 60 
-0.421755 -2.3562 7.79249 223 208 185 
3.00766 -2.77566 11.1761 41 41 43 
-0.556375 -2.3499 7.78738 115 95 84 
2.78253 -2.68736 10.9294 18 34 34 
3.62472 -2.75832 11.7278 114 143 77 
3.1223 -2.56313 10.9653 125 151 77 
2.00963 -2.47437 10.2348 34 52 54 
3.51905 -2.62869 11.6039 0 12 12 
4.02648 -2.53922 11.4964 237 226 196 
-0.575993 -2.10032 7.41963 37 30 46 
3.88518 -2.49934 11.2791 239 228 196 
0.850474 -2.11081 8.16428 109 93 80 
3.82927 -2.39424 11.3357 59 79 86 
0.056555 -2.17406 9.27447 135 116 102 
4.04225 -2.32012 11.6129 178 167 149 
0.784622 -1.85484 7.26578 138 110 99 
3.91705 -2.25579 11.3129 178 167 145 
4.16235 -2.27748 11.5809 23 37 48 
-0.201594 -1.92515 7.83115 230 212 200 
2.32826 -2.03541 9.73322 145 134 130 
3.7762 -2.18473 11.3615 26 46 57 
2.28311 -1.94068 9.4921 138 133 129 
1.34831 -1.91841 9.31738 82 80 81 
1.97938 -1.89482 9.28023 65 65 57 
4.04631 -2.12023 11.74 135 129 115 
3.91557 -2.05229 11.3839 141 133 120 
3.28407 -1.87154 9.88244 14 32 44 
2.50677 -1.77591 9.16158 255 255 225 
3.16947 -1.81797 9.87284 226 72 74 
2.35112 -1.73683 9.25368 73 69 68 
2.60417 -1.76682 9.60904 25 19 31 
1.66131 -1.72127 9.29905 87 76 58 
0.764437 -1.58715 8.98914 0 9 26 
3.45876 -1.89898 13.997 196 178 154 
2.48103 -1.52453 9.19367 10 16 32 
0.610398 -1.47924 8.62675 0 8 31 
1.00199 -1.42224 8.96304 199 190 173 
0.724265 -1.32764 8.32708 212 204 185 
0.854067 -1.2664 8.62635 28 32 35 
0.71486 -1.27009 8.86668 30 29 43 
2.57475 -1.34351 13.5992 3 4 32 
2.35684 -1.33211 13.974 149 131 119 
4.24441 -0.469615 10.9989 28 23 55 
4.10206 -0.379313 10.8246 228 82 103 
3.63433 -0.334696 11.402 0 8 41 
1.60337 -0.343676 8.73602 231 211 176 
3.74872 -0.122178 11.3967 80 38 58 
2.06941 0.0147379 9.43213 193 158 154 
2.16698 0.0345982 9.59118 57 52 59 
1.28685 0.0897772 8.8438 126 115 111 
1.21523 0.260519 8.82448 197 171 146 
2.04785 0.317056 9.56544 59 18 32 
1.77862 0.366744 8.92605 65 30 50 
1.80015 0.481065 9.59261 89 53 67 
1.51712 0.774092 9.15341 51 13 28 
3.6749 1.4491 11.3151 178 116 119 
-0.384992 1.17353 8.31031 42 8 33 
-0.307909 1.20703 8.39246 196 164 151 
-0.383324 1.35427 8.33503 8 20 36 
2.89288 1.66594 10.5784 154 88 92 
-0.40644 1.55365 8.44297 43 2 34 
0.642303 1.98938 9.57811 119 89 99 
1.8042 2.00518 9.71659 156 101 106 
0.43118 2.34832 9.41772 169 131 130 
0.547342 2.39503 9.52629 154 108 111 
0.627296 2.46023 9.66677 84 52 63 
4.35057 2.94068 12.5321 35 34 40 
0.73862 2.49795 9.78051 31 14 32 
-0.286669 2.39682 8.80467 208 178 186 
4.09121 3.0153 12.2538 3 12 27 
0.582859 2.57658 9.63856 165 121 122 
0.309844 2.64223 9.36877 180 154 163 
3.77675 2.82161 10.9903 190 176 173 
0.720451 2.90243 9.83469 135 100 106 
0.827655 2.92921 9.94316 6 12 26 
-0.0457374 2.77157 9.12351 187 161 174 
3.47105 3.16378 11.3493 6 13 23 
0.621954 3.00262 9.72743 20 22 34 
2.76594 3.13871 10.4586 122 119 126 
2.90531 3.36812 11.0902 53 58 64 
3.11937 3.50052 10.9151 106 103 98 
-2.64177 4.52343 11.6201 4 10 26 
3.1119 3.62792 10.9322 220 199 170 
0.310271 3.08177 8.08131 143 139 138 
1.95194 4.36465 11.1085 144 134 124 
1.81506 4.42233 11.0857 29 29 41 
-1.78315 4.80182 10.4457 9 18 33 
-0.284873 5.20367 9.38488 55 58 65 
-0.302235 5.03161 8.91147 68 74 86 
1.5116 -3.19609 8.84874 188 175 166 
1.69926 -3.13026 8.75229 244 222 185 
1.36067 -2.92875 8.48195 239 225 190 
0.690068 -2.52781 7.92107 239 224 193 
-0.455618 -2.5475 8.19131 223 208 185 
3.80686 -2.90829 11.7781 176 136 110 
0.944343 -2.07441 8.16368 90 92 104 
-0.204919 1.15229 8.46082 149 108 106 
-0.132498 1.18445 8.51916 97 12 45 
-0.167553 2.19052 8.9417 69 22 42 
-0.299965 2.30005 8.74067 186 99 116 
4.27628 3.04955 12.5211 113 108 105 
2.42123 -6.96302 12.4196 73 75 87 
2.03478 -4.34828 10.7847 145 137 135 
0.971177 -4.46642 11.2662 148 138 136 
2.76767 -3.89972 9.91063 224 207 187 
2.985 -3.82747 9.83363 243 219 191 
2.17326 -3.86387 9.79076 97 78 72 
1.07596 -4.02036 10.2033 150 140 138 
0.765688 -3.9753 10.2301 150 140 138 
2.29824 -3.75729 9.84656 228 211 185 
2.69946 -3.53512 9.3364 243 227 194 
1.59573 -3.65387 9.6574 29 36 46 
2.09532 -3.51663 9.27337 226 211 180 
0.918715 -3.60737 9.6639 33 36 43 
1.86644 -3.15384 8.86444 240 224 190 
3.52127 -3.89545 12.3876 210 194 171 
2.6462 -3.39286 10.1267 33 29 30 
3.26538 -3.87696 12.3542 216 200 174 
2.57422 -2.98629 8.76733 34 29 36 
2.19907 -3.23483 9.79534 178 167 163 
0.0770206 -3.17745 9.08042 173 167 167 
2.41615 -2.82784 8.18918 208 192 179 
2.56643 -2.8189 8.18355 36 34 45 
3.42107 -3.63911 12.0996 22 24 39 
1.50982 -2.96013 8.63371 240 226 191 
2.2964 -2.76018 8.0704 215 202 193 
3.09923 -3.51375 11.6644 27 34 50 
3.20008 -3.60842 12.1671 24 29 49 
2.74847 -3.45676 11.551 19 33 46 
2.92212 -3.47576 11.6454 156 152 153 
0.0983342 -2.97499 8.72027 185 175 176 
3.18667 -3.52859 12.1757 20 17 34 
0.759043 -2.84338 8.42875 217 202 181 
-0.2594 -2.97044 8.78883 218 204 193 
0.427813 -2.81715 8.43108 194 181 173 
1.19582 -2.74061 8.29185 241 225 191 
0.0864985 -2.80251 8.46392 221 208 189 
0.74219 -2.67107 8.15527 239 223 189 
-0.253143 -2.78727 8.48293 222 210 196 
1.89567 -2.63665 8.37961 184 174 172 
0.41891 -2.64482 8.15905 221 206 183 
3.55601 -3.10372 11.6763 105 125 72 
-0.0864187 -2.61015 8.17624 47 48 53 
3.11532 -2.93008 11.035 111 126 67 
0.408336 -2.4711 7.87396 238 227 209 
0.242063 -2.45245 7.87736 59 61 60 
0.0751193 -2.45024 7.89415 226 216 204 
0.551631 -2.3328 7.68047 242 238 235 
-0.548427 -2.33683 7.74303 112 94 82 
1.0947 -2.20738 7.38449 206 169 127 
3.59836 -2.77886 11.7162 116 145 79 
3.77664 -2.74828 11.7213 50 47 56 
0.931179 -2.11118 7.23717 206 165 133 
3.13659 -2.61796 11.1117 125 151 77 
0.751114 -2.02359 7.12991 202 162 127 
-0.544117 -2.09316 7.36237 34 32 46 
3.24419 -2.50488 11.0816 0 13 14 
3.90701 -2.47284 11.2029 238 227 195 
2.98538 -2.49526 11.2335 0 14 27 
3.78866 -2.33283 11.3104 43 72 80 
0.328673 -1.95365 7.66166 8 15 33 
2.89081 -2.1428 10.5117 54 66 64 
3.75727 -2.20482 11.3459 26 48 59 
2.65608 -1.98516 9.90826 23 25 38 
0.267623 -1.68152 6.71442 28 30 43 
1.97227 -1.90328 9.27318 118 118 110 
2.71469 -1.92892 9.98867 28 28 40 
3.94367 -2.01005 11.0745 143 133 123 
2.39524 -1.81876 9.19977 10 18 31 
3.15421 -1.81567 9.81624 226 72 74 
2.81266 -1.78013 9.75743 209 53 64 
0.762821 -1.60016 8.95905 0 9 27 
3.86243 -1.86902 12.9595 12 19 38 
0.65785 -1.49689 8.55822 7 15 34 
3.43131 -1.86663 14.0118 194 177 151 
0.758982 -1.45972 8.81339 192 180 164 
0.969193 -1.42582 8.96303 209 197 181 
0.790831 -1.3725 8.74007 201 190 170 
0.743427 -1.31068 8.33508 213 204 187 
0.632949 -1.24467 8.27064 5 12 31 
2.57234 -1.31406 13.6589 4 8 35 
0.929498 -1.10022 13.0815 0 6 24 
4.08452 -0.390832 10.8673 211 70 89 
3.9845 -0.367422 10.8634 199 63 85 
3.86322 -0.337556 10.7458 213 76 92 
2.66794 -0.312825 10.3322 186 168 144 
3.84199 -0.359325 9.8715 209 72 90 
1.60545 -0.326741 8.72762 232 209 175 
3.88834 -0.27583 10.6916 216 70 93 
3.62398 -0.179169 11.2382 221 78 98 
3.76857 -0.108589 11.2848 39 0 12 
1.4825 -0.0276525 8.64813 228 214 179 
1.31689 0.233254 8.90231 188 166 143 
1.51145 0.236099 8.82054 46 28 24 
2.04836 0.28179 9.53995 85 49 63 
1.25658 0.246497 8.73239 198 172 145 
2.06038 0.337975 9.67958 91 53 68 
1.74809 0.351153 9.02452 63 26 43 
1.7112 0.452896 9.76125 81 42 61 
1.3322 0.57341 8.7528 83 46 63 
-1.31367 0.890644 8.71436 15 25 37 
-0.234645 1.16317 8.38977 208 176 165 
2.96161 1.53365 10.7432 132 65 83 
-0.276705 1.36409 8.39332 152 127 120 
1.85376 1.46541 9.29056 116 61 80 
-0.358978 1.52763 8.41055 77 8 37 
-2.01083 1.99168 9.61633 11 20 37 
1.21288 1.89932 9.24444 251 198 190 
0.532694 2.037 9.42333 128 89 92 
1.26886 2.04675 9.22623 180 119 127 
0.638622 2.29516 9.63512 124 88 92 
-0.361803 2.14214 8.63848 1 9 28 
-0.271869 2.36212 8.78097 213 172 176 
0.597976 2.5939 9.62071 163 122 120 
0.67299 2.65557 9.76262 142 107 111 
0.305938 2.66694 9.37588 181 153 165 
0.693538 2.88831 9.82631 151 115 115 
-0.368091 2.78437 8.82669 19 22 39 
-0.0740854 2.92943 9.09624 137 82 105 
3.47989 3.39682 11.3319 226 209 181 
-0.0343092 3.1792 9.17082 112 80 91 
3.30909 3.50952 11.1644 216 195 168 
-2.65895 4.52984 11.6073 7 12 31 
-3.1069 4.66051 11.4239 11 18 34 
-2.7225 4.62056 11.4403 6 13 31 
-3.19334 4.69962 11.29 13 22 37 
2.34083 4.15963 11.6617 40 31 50 
3.00635 3.92163 11.1345 141 125 110 
0.315406 3.10307 8.11572 141 136 133 
1.94718 4.1043 11.0554 147 137 127 
2.26482 4.30845 11.6124 127 117 105 
-2.87463 4.74458 10.9613 96 85 81 
2.99926 4.15303 11.2792 33 33 43 
1.97136 4.32719 11.107 146 133 124 
3.02977 4.34708 11.3881 47 48 50 
1.78899 4.41069 11.1015 32 31 45 
-0.312563 5.20478 9.41097 63 66 75 
-0.447327 5.24381 9.26185 65 72 82 
3.10926 -4.10435 10.2805 110 85 78 
0.707512 -3.88013 10.0826 147 137 136 
1.95356 -3.43511 9.14647 49 49 51 
1.64631 -3.37649 9.02009 33 37 46 
1.77927 -3.21632 8.96904 240 224 190 
1.29916 -3.18598 8.79797 32 35 40 
-0.267804 -3.2265 9.1012 167 158 163 
1.40694 -3.03433 8.79128 240 224 188 
2.35115 -2.95358 8.65979 238 220 210 
2.24705 -2.97185 8.81588 247 231 218 
2.41104 -2.68415 7.68381 244 228 212 
3.15549 -3.53208 11.8645 31 34 49 
