ply                 
format ascii 1.0    
element vertex 1260
property float x    
property float y    
property float z    
property uchar red  
property uchar green
property uchar blue 
end_header          
0.000442036 0.206902 2.37766 65 63 64 
-0.0610982 0.221762 2.39621 66 64 65 
-0.0292555 0.221844 2.38002 57 56 54 
0.173497 1.10688 2.35653 93 92 90 
0.0626644 1.09341 2.31276 77 76 72 
0.082995 1.12525 2.31443 91 86 82 
0.0219594 -0.664996 2.60181 94 90 87 
0.0388096 -0.527927 2.55639 107 103 102 
0.0585168 0.0472987 2.38513 72 70 71 
-0.057461 0.23888 2.39324 94 92 93 
0.00158782 -1.22857 2.73173 166 165 197 
0.193249 0.0711248 2.44104 83 82 80 
0.112641 0.147098 2.39993 69 69 69 
-0.00717177 0.233779 2.38076 67 66 64 
0.0365288 -1.14208 2.73569 191 201 213 
0.107845 -0.782573 2.72225 48 46 47 
-0.00992029 -0.000265352 2.38224 24 22 23 
0.0513358 1.1452 2.30068 120 121 115 
0.0572317 1.07763 2.33316 108 107 102 
0.0381193 -0.0372072 2.38871 101 98 91 
0.00687927 -1.24415 2.73249 197 204 223 
0.013801 -1.23716 2.72193 194 200 222 
0.00701307 -1.23052 2.72874 232 232 255 
-0.00170821 -1.21943 2.71568 88 92 129 
0.0215258 -1.21908 2.73358 19 16 47 
0.036614 -1.3162 2.94519 211 213 228 
-0.00195393 -1.21287 2.72839 200 205 224 
0.00679212 -1.20857 2.7304 222 226 251 
-0.00470252 -1.20487 2.74141 191 192 223 
0.0158387 -1.19771 2.73349 128 132 161 
0.0135723 -1.1901 2.72838 45 44 76 
0.0178004 -1.17963 2.72631 238 235 255 
0.0180409 -1.15729 2.72829 186 184 208 
0.0105864 -1.13285 2.73068 198 203 222 
-0.0400541 -1.09119 2.73824 43 40 57 
-0.0341095 -1.08203 2.73552 18 19 37 
0.0670683 -1.0712 2.71591 196 201 220 
0.0674585 -0.986178 2.71292 188 194 208 
0.0677738 -0.972127 2.71411 5 4 18 
-0.0349409 -0.973763 2.73725 28 29 47 
0.0739154 -0.943075 2.71074 215 214 232 
0.113001 -0.80212 2.69789 190 192 207 
0.131084 -0.736301 2.69023 200 212 224 
0.0315868 -0.536489 2.5567 142 138 135 
-0.0266024 -0.530952 2.55025 115 112 107 
0.179284 -0.556595 2.67364 68 65 74 
-0.0354307 -0.493345 2.53298 79 76 71 
-0.0901788 -0.485318 2.56382 106 103 98 
0.200979 -0.490651 2.66365 196 196 206 
-0.148135 -0.467614 2.59995 127 124 119 
0.247299 -0.464418 2.72981 43 41 46 
0.119634 -0.364311 2.51389 143 141 142 
-0.0769948 -0.346849 2.49784 112 108 105 
0.120321 -0.330023 2.5036 97 96 94 
0.105191 -0.326124 2.49668 99 98 96 
-0.0924373 -0.286292 2.48631 89 85 82 
-0.181892 -0.265158 2.54824 118 117 115 
0.269509 -0.23373 2.63923 68 69 74 
-0.142615 -0.192305 2.49084 114 113 109 
-0.0477499 -0.103289 2.41133 91 89 90 
-0.20396 -0.0396385 2.46322 51 46 40 
0.25701 0.0887245 2.5029 98 97 93 
-0.188934 0.554775 2.46521 133 133 133 
-0.15056 1.04543 2.37859 85 81 82 
-0.10431 1.08205 2.32605 110 109 105 
0.123845 1.12709 2.33054 84 80 77 
0.0091946 -1.19752 2.72514 30 32 70 
0.0333862 -1.13117 2.71858 191 200 217 
-0.0340712 -1.10119 2.70088 70 70 96 
-0.0342846 -1.06861 2.74021 197 205 218 
0.0628759 -1.00823 2.71911 56 52 67 
0.079111 -0.925787 2.70959 191 193 208 
0.0978407 -0.83986 2.70455 39 41 53 
-0.0499604 -0.706194 2.6179 46 42 39 
0.135121 -0.725414 2.68823 188 191 208 
0.0116395 -0.602012 2.57498 118 114 113 
-0.010076 -0.555405 2.55584 100 99 97 
-0.0302213 -0.552542 2.55789 37 34 29 
0.183407 -0.551589 2.66829 174 180 192 
-0.0122926 -0.502895 2.5377 89 85 86 
-0.0402266 -0.474884 2.52544 94 90 87 
0.195613 -0.499266 2.66989 52 52 64 
-0.140107 -0.468827 2.59859 113 109 106 
-0.182024 -0.434915 2.6292 88 87 85 
-0.0323833 -0.395734 2.48017 110 109 105 
-0.0929285 -0.383162 2.52664 117 114 109 
-0.190785 -0.359677 2.59404 92 88 85 
-0.195594 -0.349749 2.59173 96 94 95 
-0.0512665 -0.330795 2.48095 76 72 73 
-0.129831 -0.324288 2.53318 61 60 58 
-0.202466 -0.32527 2.59015 100 99 97 
-0.145917 -0.300788 2.53317 120 116 115 
-0.155147 -0.272715 2.53022 111 107 106 
-0.199592 -0.258485 2.55849 37 36 34 
-0.104464 -0.19691 2.46514 39 36 31 
-0.174039 -0.189815 2.51538 124 123 121 
-0.221948 -0.13257 2.5352 100 96 93 
-0.165581 -0.0923708 2.46111 60 57 52 
-0.204768 -0.0599605 2.47182 117 115 103 
-0.18945 -0.0513093 2.46035 109 105 104 
-0.182606 -0.0376013 2.44533 109 105 96 
-0.235336 0.0411258 2.4888 32 30 31 
0.148783 0.0848648 2.41748 17 15 16 
-0.255722 0.111637 2.53513 66 64 65 
0.13201 0.105001 2.4119 35 35 35 
-0.0579392 0.133179 2.38543 3 1 4 
-0.0642896 0.193967 2.39761 74 73 71 
-0.0655964 0.233302 2.39562 91 89 90 
0.251916 0.302207 2.52003 29 25 22 
-0.000647392 0.379804 2.37457 89 87 88 
0.15825 0.430358 2.43505 105 104 100 
0.0957569 0.553223 2.38921 6 5 3 
0.173939 0.766458 2.4374 34 30 29 
0.00158622 0.747959 2.36885 91 88 81 
0.165358 0.843668 2.41105 81 79 80 
-0.200312 1.07225 2.40053 90 89 87 
-0.251626 1.10091 2.39474 79 78 74 
0.00116942 1.10515 2.31377 95 94 92 
0.0634607 1.11074 2.31469 103 99 96 
0.203158 1.13639 2.36634 67 66 64 
0.0800619 1.12512 2.31337 88 83 79 
0.0488505 1.12856 2.30985 61 57 54 
0.106292 1.13825 2.32224 80 79 74 
0.0347667 -1.13012 2.7266 191 200 217 
0.095414 -0.85721 2.70564 49 49 61 
0.134093 -0.71516 2.68799 45 42 53 
0.00411491 -0.525967 2.54651 50 46 45 
0.250964 -0.440794 2.711 50 47 54 
-0.0596018 -0.386912 2.50531 75 72 67 
-0.0314744 -0.362944 2.48274 30 29 24 
-0.0821766 -0.353592 2.5013 47 43 40 
0.255155 -0.379092 2.68049 53 53 55 
-0.171281 -0.330769 2.5676 47 43 40 
-0.0923356 -0.277943 2.48188 25 21 20 
-0.166234 -0.0932167 2.46364 52 49 44 
0.239215 0.00565531 2.47742 73 72 70 
-0.264145 0.122435 2.54801 11 10 8 
-0.0649942 0.157375 2.3959 83 81 82 
0.0263628 0.161986 2.37625 76 75 73 
-0.0637434 0.264618 2.39133 94 93 91 
-0.0638181 0.334647 2.39002 71 70 68 
-0.244513 0.359396 2.50903 77 77 77 
-0.0659133 0.53341 2.38303 62 60 61 
0.197977 1.16582 2.32195 65 66 52 
0.028834 -1.21582 2.71738 22 26 51 
0.0692757 -0.952888 2.7144 40 40 52 
0.0783247 -0.914574 2.70876 50 47 58 
0.0845456 -0.898196 2.71154 40 42 55 
0.0706808 -0.587442 2.56747 108 104 103 
-0.0666422 -0.430393 2.51938 56 52 49 
0.247232 -0.425704 2.7101 43 42 38 
-0.0639652 -0.368668 2.4944 101 98 93 
0.110785 -0.364889 2.51801 11 9 10 
0.103592 -0.359351 2.48761 30 29 25 
0.12622 -0.223459 2.46875 76 75 73 
0.275965 -0.225994 2.64373 162 164 176 
0.301159 -0.106108 2.63179 12 11 16 
-0.219632 -0.0736449 2.4846 33 29 28 
-0.222067 -0.053435 2.47525 129 126 121 
-0.170554 -0.0463175 2.44338 46 42 39 
-0.325216 0.00995904 2.69326 149 155 167 
-0.234318 0.0326116 2.4858 83 81 82 
-0.229894 0.0488111 2.48219 87 87 87 
-0.133566 0.0889129 2.41416 62 62 62 
-0.0621876 0.0894329 2.39317 81 81 81 
0.141498 0.0889319 2.42587 66 64 67 
-0.129248 0.112003 2.41977 60 60 60 
-0.0482544 0.141666 2.38518 61 59 60 
0.125359 0.236737 2.39737 71 70 68 
-0.0233296 0.349527 2.37949 82 80 81 
-0.0424898 0.542011 2.37132 75 73 76 
0.149168 0.710527 2.41906 24 22 23 
-0.0907164 1.06988 2.35364 116 112 109 
0.174131 1.10891 2.36202 93 92 90 
-0.47388 1.17059 2.46973 83 79 67 
-0.766023 1.16509 2.39653 19 19 7 
-0.745367 1.17897 2.40669 104 102 90 
-0.140234 1.17617 2.26564 39 35 24 
-0.226965 -0.480531 2.68681 68 67 75 
-0.0628311 0.17784 2.39815 83 81 82 
-0.000476287 -1.2397 2.73259 195 205 215 
0.022276 -1.21558 2.74832 10 14 51 
-0.00807207 -1.15442 2.75734 191 200 215 
0.0380768 -1.06095 2.69156 100 96 95 
0.0717507 -0.961187 2.7129 195 198 213 
0.193389 -0.534046 2.66568 168 177 192 
0.189598 -0.518489 2.67011 26 21 28 
-0.0536741 -0.471025 2.53153 45 41 40 
-0.135473 -0.332451 2.54316 91 90 88 
0.00683579 -0.225439 2.45593 54 53 51 
-0.237406 0.0928686 2.49358 68 67 65 
-0.0645468 0.562371 2.38408 45 44 42 
-0.372026 1.07234 2.53681 28 27 23 
0.171194 1.10381 2.35062 92 91 87 
0.0232026 -1.22783 2.7193 191 201 213 
0.0364298 -1.2193 2.72013 60 67 85 
-0.00330798 -1.19627 2.72942 195 204 219 
0.0214329 -1.06383 2.68395 22 22 22 
-0.0307529 -1.05764 2.72771 23 22 36 
-0.180434 -0.405482 2.62114 85 85 83 
-0.0339888 -0.359528 2.49102 24 23 21 
0.0379258 -0.00642445 2.38034 21 20 18 
-0.26097 0.0894557 2.50189 15 15 13 
0.188024 0.0874023 2.44925 14 14 14 
-0.307887 0.102282 2.68633 19 19 21 
-0.247615 0.111136 2.52275 80 80 80 
0.0693948 0.327799 2.38318 78 78 76 
0.00693665 0.691037 2.37095 95 92 83 
-0.397103 1.09932 2.54374 33 32 28 
-0.0149582 -1.09601 2.6946 41 39 42 
0.0328455 -1.08766 2.69434 100 96 95 
-0.0391892 -1.07713 2.74232 190 200 212 
-0.0135392 -1.05383 2.70371 19 15 16 
0.154623 -0.722925 2.68187 177 186 201 
-0.192429 -0.511475 2.73571 167 179 193 
0.18835 -0.474535 2.64874 48 47 45 
0.304394 -0.0768945 2.62515 55 53 56 
-0.395297 1.09112 2.57383 70 71 66 
0.0131274 -1.11939 2.73114 61 62 64 
-0.0216344 -0.978289 2.73269 87 84 79 
0.0829336 -0.962645 2.7093 185 197 209 
0.112437 -0.733394 2.68366 50 46 45 
-0.14674 -0.549468 2.7267 77 72 69 
0.261646 -0.461035 2.71344 169 181 197 
-0.0290169 -0.383733 2.48758 98 98 86 
-0.130999 0.0989514 2.44012 45 43 44 
0.256126 -0.367072 2.68172 52 50 53 
-0.314425 0.000467001 2.72085 16 14 15 
-0.0558786 0.174907 2.38152 75 75 75 
-0.023587 0.201369 2.38097 34 33 31 
0.0562254 1.07398 2.32407 108 107 102 
-0.0141483 -1.19693 2.72579 191 198 216 
-0.0129246 -1.18235 2.73763 192 201 216 
-0.0178396 -1.11328 2.72389 71 68 87 
0.0471622 -1.16121 2.76328 191 201 213 
-0.165347 -0.515569 2.73676 75 75 77 
0.315436 -0.00423609 2.61759 50 49 47 
-0.0747074 0.0743771 2.39496 131 130 128 
-0.0365841 -0.957612 2.72707 63 62 70 
0.0131429 -1.14699 2.72512 18 16 53 
-0.215185 -0.15267 2.53596 95 94 92 
4.26966 -1.31086 18.0594 90 99 116 
4.24123 -1.17362 18.0575 166 173 191 
4.24189 -1.09526 18.0607 165 172 190 
4.23933 -1.02129 18.0524 158 165 183 
4.26382 -0.951414 18.0301 67 76 91 
4.23568 -0.85409 18.0464 167 176 191 
4.23147 -0.763914 18.0307 163 172 187 
4.30814 -0.759332 18.059 162 171 188 
4.30329 -0.708077 18.0251 69 78 95 
4.3158 -0.663535 18.0775 157 164 182 
4.31231 -0.606389 18.0481 59 66 84 
4.23605 -0.571234 18.0504 162 171 186 
4.30363 -0.571472 18.0253 168 175 193 
4.32633 -0.400432 18.0638 65 72 88 
5.34925 -0.0776597 19.2936 53 60 78 
4.21734 -0.0455724 18.0611 57 67 79 
4.34577 -0.0461329 18.0756 87 95 108 
5.67624 0.146146 19.7238 145 158 167 
0.766646 1.08308 3.07863 91 91 81 
-0.0717365 -0.326394 2.4849 87 83 80 
-0.0733436 -0.263531 2.4656 59 58 56 
-0.134542 -0.246578 2.50378 38 32 32 
-0.0905492 -0.114108 2.4209 108 106 107 
4.30326 -0.760922 18.0358 162 171 188 
-0.194672 -0.055447 2.46404 68 65 60 
4.54823 -0.723611 18.0896 70 79 96 
4.23453 -0.65209 18.0484 160 169 184 
4.30948 -0.653566 18.0519 149 156 174 
4.22745 -0.453731 18.0395 159 168 183 
4.3251 -0.453161 18.0776 159 166 184 
4.04745 -0.402733 18.052 62 71 86 
4.22339 -0.341654 18.041 158 167 182 
4.3376 -0.342739 18.1044 148 155 171 
4.22185 -0.23224 18.0516 152 160 179 
4.28497 -0.232398 18.0856 140 149 166 
4.34018 -0.232259 18.0974 151 158 177 
4.23209 0.0202174 18.1167 151 159 172 
5.66849 0.145053 19.7069 145 158 167 
0.0258592 0.600372 2.36855 76 75 73 
-0.179063 -0.32589 2.57059 115 111 108 
-0.186516 -0.043738 2.45008 57 53 50 
4.22877 -0.231117 18.0748 152 160 179 
4.34066 -0.232177 18.0923 151 158 177 
4.25374 0.0171854 18.1864 170 178 191 
0.019179 -1.2234 2.72174 201 207 219 
4.23269 -0.112525 18.1033 149 159 171 
5.28565 -0.0710441 19.3068 153 160 176 
3.9094 0.113546 21.1721 86 91 110 
4.80896 0.313725 18.9963 255 253 255 
4.16981 -1.17232 18.0582 158 170 186 
4.37009 -1.16643 18.0813 159 168 185 
5.24328 -0.0722137 19.1849 148 155 171 
0.0223454 -1.22973 2.71766 191 201 213 
-0.0207059 -0.14573 2.43181 82 78 77 
4.27163 -1.3095 18.0676 90 99 116 
4.26753 -1.25783 18.0507 64 73 90 
4.27374 -0.60558 18.0571 89 98 113 
5.66691 0.147823 19.6868 145 158 167 
4.80566 0.314159 18.9853 255 253 255 
5.4829 -0.0798675 19.4866 70 77 93 
4.26945 -0.950298 18.0513 67 76 91 
4.26829 -0.873427 18.0416 81 88 104 
-0.00276385 -1.10917 2.72757 117 115 116 
0.0179092 -1.21134 2.71399 31 33 56 
0.00280088 -1.19075 2.72539 157 166 183 
-0.00338004 -1.03196 2.68912 209 209 221 
-0.002818 -1.00436 2.68869 196 192 206 
0.024266 -0.542884 2.55357 77 73 70 
-0.114305 -0.479023 2.57989 124 123 121 
-0.231781 -0.479566 2.70518 36 39 54 
-0.203446 -0.265856 2.56226 112 111 109 
-0.0822357 -0.135489 2.42566 113 112 110 
-0.157729 1.04119 2.38018 124 120 121 
-0.202406 1.07874 2.38535 135 132 125 
0.0602594 -1.00356 2.70599 39 35 49 
-0.0475698 -0.690504 2.60731 43 39 38 
-0.244244 0.15754 2.52162 113 113 113 
-0.459297 1.06498 3.5744 98 100 99 
-0.167212 -0.526803 2.76327 55 54 62 
-0.11382 -0.402179 2.54274 50 47 42 
0.0653118 0.157858 2.38658 70 68 69 
-0.0650664 0.347083 2.39016 92 91 89 
0.0104185 -1.2129 2.72291 20 17 46 
-0.201363 -0.326196 2.59055 86 85 81 
-0.222026 -0.0544129 2.47944 129 126 121 
0.0439554 -0.0454929 2.38157 38 34 31 
-0.00729027 -1.12441 2.74811 52 53 57 
0.0882413 0.0642179 2.38642 69 65 62 
-0.0515063 0.238495 2.38407 79 78 76 
-0.0135672 -1.21151 2.73937 73 80 96 
-0.00132931 -1.16543 2.72948 194 203 218 
-0.221064 -0.0728622 2.49282 53 49 46 
-0.0726736 0.0865057 2.39853 15 15 17 
-0.0351887 -0.996058 2.73719 187 195 208 
-0.247486 0.110713 2.5284 77 75 76 
0.0312772 -1.19059 2.71021 194 203 218 
-0.421387 1.14565 2.51376 61 58 53 
0.0404156 -1.17939 2.70513 196 205 220 
-0.036223 -1.073 2.73115 192 195 210 
-0.0306005 -1.00818 2.73214 38 34 48 
-0.0168676 -1.01104 2.73095 24 20 19 
-0.0353771 -1.08561 2.72992 24 20 35 
-0.0341207 -0.980702 2.73243 75 72 79 
-0.0383606 -0.958916 2.73093 41 35 45 
0.0399259 -1.16725 2.73265 189 199 211 
-0.027497 -0.951398 2.72857 76 72 63 
-0.0381653 -0.951254 2.73159 49 48 53 
-0.0154757 -1.18382 2.72959 189 199 211 
0.0150604 -0.703547 2.60254 107 103 102 
4.68914 -0.639349 19.9278 162 171 186 
5.96189 -0.0945353 21.4536 53 60 78 
4.67582 -0.0583013 19.97 57 67 79 
6.33811 0.155092 21.9746 145 158 167 
6.07196 0.740987 19.067 159 164 168 
0.00468259 -0.655184 2.58642 78 74 71 
-0.204666 -0.253296 2.56039 88 87 83 
4.49261 -1.24114 19.8975 68 80 96 
4.68211 -0.847145 19.9024 157 166 181 
4.76272 -0.849725 19.9092 162 171 188 
4.4036 -0.820419 19.9057 98 107 122 
4.76549 -0.729031 19.9101 149 156 174 
4.73234 -0.512468 19.9338 145 154 169 
4.67941 -0.508987 19.9148 159 168 183 
4.78384 -0.507807 19.943 159 166 184 
4.98483 -0.452315 20.0069 70 79 96 
4.65344 -0.26399 19.8459 152 160 179 
4.79989 -0.263072 19.9623 151 158 177 
6.64048 0.346367 20.7846 112 121 130 
-0.0688514 0.150483 2.40386 24 24 24 
4.49571 1.07186 17.9003 115 119 120 
4.01527 1.24845 16.3115 97 101 112 
-0.0322718 -0.362081 2.47453 30 29 24 
-0.142675 0.371677 2.42656 57 56 54 
4.68216 -0.131571 19.9725 149 159 171 
-0.121467 1.12933 2.31845 88 87 85 
0.0348783 -1.21553 2.70897 60 67 85 
4.86519 -0.514914 19.9737 155 164 179 
5.36116 0.340459 21.1258 255 253 255 
6.0974 -0.0968718 21.6226 70 77 93 
0.0694178 -0.945949 2.70903 2 0 12 
4.72607 -0.974021 19.9237 81 88 104 
0.0381766 -1.1884 2.71472 193 203 215 
6.60434 0.78272 20.3783 163 166 171 
5.83718 1.3624 16.5092 182 190 203 
0.000863382 -0.611406 2.57196 131 127 126 
-0.180861 -0.267516 2.55206 118 117 115 
7.27253 0.364192 22.3658 111 119 132 
0.0194706 0.168065 2.38009 14 12 13 
0.696998 1.18836 2.68948 98 94 83 
0.0789399 1.12329 2.30905 101 101 93 
0.0480595 1.12746 2.30649 75 71 68 
0.0506945 1.14438 2.298 136 133 128 
0.0205698 -0.669084 2.59167 113 109 106 
-0.0347555 -0.551468 2.55109 29 28 24 
-0.152412 -0.301925 2.53885 128 127 123 
-0.210807 -0.118616 2.51257 49 45 42 
0.0721738 -1.08122 2.71336 192 200 213 
0.0266427 -1.23438 2.71204 196 205 220 
0.0324347 -1.02838 2.74162 206 205 213 
-0.0218832 -0.979666 2.73184 66 63 58 
-0.0149682 -1.06271 2.73484 19 15 16 
0.0191164 -1.20796 2.78673 30 33 64 
0.0137533 -1.23946 2.72207 194 201 217 
0.00482839 -1.23872 2.72535 189 196 212 
0.483875 -1.63356 3.5195 57 63 87 
0.295123 -1.4661 3.20241 19 20 50 
-0.00712559 -1.21226 2.73328 28 29 57 
0.0074585 -1.18791 2.72679 191 194 211 
-0.00378083 -1.1277 2.73237 184 193 208 
0.0156772 -1.11756 2.69856 37 44 62 
0.0694294 -1.08862 2.70887 207 209 224 
-0.036443 -0.959998 2.74342 187 190 205 
-0.0377839 -0.941058 2.74151 54 55 60 
-0.0660224 -0.852929 2.74595 24 22 33 
-0.107746 -0.708004 2.75732 64 62 67 
-0.0429781 -0.552421 2.55318 32 28 25 
-0.136122 -0.546948 2.6283 21 18 13 
-0.0189537 -0.524302 2.54235 120 116 113 
-0.16089 -0.543702 2.77469 178 180 192 
-0.0262221 -0.506786 2.53894 114 111 104 
-0.167681 -0.525954 2.77447 189 187 201 
-0.11266 -0.479659 2.58301 110 110 108 
-0.23086 -0.482339 2.707 54 54 66 
-0.14669 -0.468627 2.60311 116 111 107 
-0.22894 -0.462391 2.70937 68 66 71 
0.0256673 -0.36819 2.47895 105 97 94 
-0.238188 -0.353464 2.76054 179 186 192 
-0.143909 -0.302027 2.53718 108 105 100 
-0.182249 -0.268281 2.55157 128 127 125 
-0.200915 -0.266257 2.56772 102 98 95 
-0.139734 -0.19322 2.49652 96 97 91 
-0.175285 -0.191516 2.51426 115 114 112 
-0.266214 -0.190818 2.80446 177 184 194 
-0.212948 -0.153426 2.54059 116 110 112 
-0.218129 -0.130997 2.52433 113 110 101 
-0.151529 -0.120522 2.4688 111 107 106 
-0.278572 -0.131501 2.81069 44 43 49 
-0.201789 -0.0405656 2.46696 59 52 44 
0.278788 -0.00919913 2.51257 35 36 41 
-0.244693 0.157407 2.52052 101 99 100 
7.35658 2.23564 10.6655 147 149 146 
7.38272 2.23541 10.6472 153 155 152 
7.47748 2.28468 10.727 173 175 170 
7.14089 2.31056 9.84064 88 89 84 
7.3393 2.37652 9.58113 147 149 138 
7.31947 2.39283 9.31128 156 157 152 
7.25525 2.3757 9.19413 166 165 160 
7.42753 2.42047 9.08657 149 152 145 
0.286269 1.22108 4.66389 125 129 115 
0.0573156 1.23295 4.7215 189 192 173 
0.247136 1.22363 4.53022 81 93 71 
-0.320956 0.822379 2.70336 102 102 102 
-0.317949 0.826297 2.67621 114 114 124 
-0.322043 0.834629 2.69841 129 128 144 
-0.31929 0.835439 2.68342 94 95 113 
-0.320751 0.832144 2.64685 15 18 35 
-0.321864 0.846137 2.69982 99 98 104 
-0.320484 0.839463 2.66837 25 28 45 
-0.31883 0.840962 2.65677 19 23 35 
-0.319149 0.848779 2.67368 0 4 15 
-0.320275 0.855711 2.69234 112 111 116 
-0.468535 1.07709 3.61305 125 123 128 
-0.31929 0.856996 2.68372 0 0 5 
-0.320948 0.855522 2.6659 5 6 11 
-0.530175 1.08387 3.63359 93 95 90 
-0.321722 0.850107 2.61441 36 36 38 
-0.316669 0.859753 2.63885 105 105 107 
-0.319682 0.893437 2.69718 126 126 126 
-0.332692 0.915447 2.71246 156 138 100 
-0.314352 0.997277 2.70788 95 93 94 
0.857708 1.19838 2.59333 129 129 117 
-0.168157 1.03322 2.36248 136 135 133 
0.050883 1.10164 2.29604 114 111 102 
0.0596088 1.11279 2.29976 97 92 86 
0.0487789 1.12952 2.29438 96 97 83 
-0.876015 1.06296 2.37846 16 11 5 
0.0130905 1.04413 1.68662 149 149 139 
0.0144886 -1.22582 2.71946 188 201 210 
0.0186249 -1.20524 2.71017 189 199 208 
-0.0122428 -1.2064 2.73757 190 197 213 
0.0306172 -1.07057 2.68015 46 46 44 
-0.0306105 -0.999696 2.70876 34 30 29 
-0.0338606 -0.952351 2.74079 26 24 29 
-0.065897 -0.808089 2.66509 41 39 40 
-0.101947 -0.752649 2.74861 184 190 202 
-0.104531 -0.738455 2.75335 191 193 206 
-0.0896061 -0.707108 2.64444 43 40 35 
-0.103497 -0.727465 2.75269 55 55 65 
0.0047159 -0.67285 2.59612 121 117 114 
-0.1178 -0.675084 2.76101 61 58 67 
-0.0149586 -0.620861 2.57791 126 122 119 
-0.13741 -0.604771 2.77077 68 65 72 
0.00512323 -0.486664 2.53669 104 103 101 
-0.105585 -0.405707 2.55697 49 46 39 
-0.239115 -0.3939 2.75722 173 176 191 
-0.195842 -0.350591 2.59151 84 80 77 
-0.0382852 -0.346664 2.48903 100 100 98 
-0.178738 -0.338516 2.57159 107 106 102 
-0.203284 -0.325934 2.58952 95 94 89 
-0.0885399 -0.289529 2.48179 37 34 29 
-0.221925 -0.29361 2.61313 88 89 84 
-0.222323 -0.279156 2.59681 30 26 23 
-0.153623 -0.275688 2.53469 90 86 83 
-0.2337 -0.285858 2.79861 36 37 41 
-0.249224 -0.251924 2.79894 160 166 178 
-0.177649 -0.173707 2.51143 95 93 94 
0.0067351 -0.159597 2.43668 39 38 34 
-0.0045383 -0.108256 2.41647 73 69 66 
-0.129807 -0.10056 2.44905 99 96 87 
-0.287552 -0.107531 2.81929 167 170 185 
-0.162115 -0.0892688 2.45773 104 104 94 
0.026109 -0.0775587 2.40074 113 113 111 
-0.201273 -0.0604235 2.47804 126 126 116 
-0.180928 -0.0379801 2.44861 110 108 96 
0.0368186 -0.0388715 2.38478 102 103 89 
0.260563 4.54654e-05 2.49889 6 6 6 
0.14155 0.0173001 2.41402 82 78 77 
-0.234345 0.0410588 2.49115 21 20 18 
0.14556 0.0867208 2.40896 20 19 17 
-0.257242 0.109455 2.53658 66 66 64 
-0.244616 0.112434 2.53583 68 68 66 
-0.130504 0.111371 2.42766 69 67 68 
-0.0723714 0.140317 2.40667 73 71 72 
0.065102 0.15804 2.38628 84 84 86 
0.019535 0.168269 2.38013 11 10 8 
-0.067136 0.175195 2.3965 81 81 81 
0.13994 0.189757 2.41389 26 22 21 
0.0896797 0.220193 2.3891 87 83 82 
-0.0153328 0.235625 2.37371 80 78 79 
-0.308773 0.290781 2.6525 42 38 35 
-0.0690161 0.346703 2.38259 90 89 85 
-0.058142 0.350778 2.37891 79 78 74 
-0.00451054 0.37968 2.36822 78 74 73 
0.134264 0.495592 2.40223 25 21 20 
-0.308187 0.516376 2.71093 7 7 5 
7.11906 2.30467 9.81665 102 103 98 
7.05968 2.3181 9.7895 27 26 21 
7.28735 2.38357 9.21893 159 160 154 
7.41323 2.41686 9.01182 134 136 131 
-0.127928 1.23247 5.24513 134 137 118 
-0.330805 0.794703 2.69106 12 10 11 
-0.333534 0.798688 2.70178 82 82 82 
-0.327494 0.813349 2.72358 11 13 12 
-0.331815 0.793715 2.62342 80 76 75 
-0.338954 0.796403 2.60332 18 14 13 
-0.483572 1.08209 3.64716 22 21 16 
-0.31751 0.848422 2.64515 25 23 36 
-0.32335 0.838838 2.60874 24 23 28 
-0.492164 1.07796 3.60638 152 147 151 
-0.532127 1.0928 3.63934 15 16 10 
-0.512254 1.09521 3.58019 88 88 88 
-0.326816 0.910677 2.70537 119 85 22 
0.954705 1.11325 2.72319 81 79 66 
-0.314682 0.942425 2.64787 98 102 105 
-0.0200351 0.955166 2.34471 87 85 86 
0.712834 1.1944 2.70618 106 107 91 
0.699067 1.19715 2.67563 83 81 66 
0.222762 1.07275 2.42068 16 15 11 
-0.300937 1.02031 2.48877 93 92 90 
-0.16115 1.03851 2.35882 87 85 86 
0.0678397 1.07937 2.33587 107 104 95 
0.0522799 1.08625 2.29854 87 86 82 
-0.209459 1.06492 2.38381 94 94 86 
0.113458 1.11909 2.31527 78 73 70 
0.0683184 1.11618 2.29622 93 90 85 
0.036728 1.11988 2.29247 81 78 73 
-0.262732 1.09091 2.37376 81 78 73 
-0.530015 1.17477 2.74051 42 39 30 
0.0399798 1.13697 2.28481 156 159 150 
-0.785214 1.15387 2.38456 101 97 86 
-0.872224 1.13165 2.33077 83 79 76 
-0.925279 1.15941 2.28152 109 100 85 
-0.228857 -0.463611 2.72938 175 177 190 
-0.181502 -0.439624 2.63556 94 90 87 
-0.111445 -0.403763 2.54797 46 43 36 
-0.233342 -0.419704 2.75274 67 67 75 
-0.239076 -0.362014 2.75723 51 51 53 
-0.170378 -0.332322 2.56914 43 42 38 
-0.131711 -0.32575 2.53142 84 83 79 
-0.199983 -0.259991 2.55627 33 29 26 
-0.272546 -0.157893 2.80597 60 59 67 
-0.18489 -0.0441895 2.45303 54 51 42 
-0.155869 0.00257351 2.43245 69 68 66 
-0.299435 0.118009 2.76908 57 56 54 
-0.0675036 0.193729 2.39287 69 67 68 
-0.30692 0.295135 2.7036 12 9 2 
-0.305273 0.33873 2.69411 76 72 71 
-0.0425223 0.542802 2.37138 75 74 72 
7.40722 2.4147 9.3207 152 155 148 
7.09936 2.3324 8.78558 111 117 107 
-0.334656 0.790494 2.63416 27 21 23 
-0.308711 0.781794 2.5567 23 22 20 
-0.310418 0.821179 2.54789 99 98 96 
-0.474135 1.08029 3.62754 11 10 8 
-0.49919 1.08108 3.61758 6 3 10 
0.986465 1.124 2.58424 97 93 82 
0.244148 1.07817 2.43509 70 69 65 
-0.388658 1.1604 2.93272 35 33 21 
-0.0899977 1.07107 2.3542 129 126 121 
-0.512957 1.16942 2.37098 89 90 76 
-0.0146061 1.04986 1.68639 17 15 18 
-0.930909 1.15603 2.28728 117 114 99 
0.0199186 -1.20361 2.7173 190 198 211 
0.0281874 -1.10413 2.66641 198 207 222 
-0.0121012 -1.06766 2.69327 25 25 25 
0.0287369 -1.0983 2.7558 28 27 25 
-0.0212617 -1.0133 2.7393 35 33 36 
-0.0521275 -0.902336 2.73937 53 51 64 
0.0870347 -0.863078 2.70173 58 57 63 
-0.0785374 -0.806872 2.75108 44 44 56 
-0.0876534 -0.789858 2.75186 182 188 200 
0.101672 -0.78859 2.68711 46 44 49 
-0.121575 -0.65141 2.75829 59 54 58 
-0.124642 -0.636465 2.7636 66 65 61 
-0.152297 -0.585027 2.76272 182 181 195 
-0.151115 -0.553989 2.76569 46 42 43 
-0.0833832 -0.47772 2.55226 114 111 104 
-0.221031 -0.361157 2.61771 22 18 17 
-0.223783 -0.301861 2.61653 18 17 13 
-0.236496 -0.294784 2.79499 170 178 189 
-0.247166 -0.279585 2.7946 161 174 183 
-0.237557 -0.257029 2.79718 58 60 57 
-0.248575 -0.239401 2.78928 66 66 68 
-0.254562 -0.23417 2.80036 166 172 184 
-0.0985029 -0.198466 2.47029 38 35 26 
-0.223122 -0.0551753 2.47762 119 118 113 
0.045832 -0.0454251 2.3845 45 46 41 
0.25836 0.0138434 2.5105 56 54 57 
-0.233714 0.0318264 2.48699 78 76 77 
-0.227453 0.0485292 2.48728 81 81 81 
0.0574493 0.0479253 2.38341 77 75 78 
0.0933673 0.0649113 2.39416 73 72 70 
-0.13007 0.0889843 2.42043 64 62 63 
0.136713 0.0894834 2.4141 73 73 71 
0.0852539 0.0896318 2.39251 70 69 67 
0.225342 0.091805 2.50166 17 15 16 
-0.314559 0.097751 2.67895 57 57 57 
0.169986 0.116953 2.45162 79 78 76 
0.000406006 0.207507 2.37814 65 64 62 
-0.0714548 0.235201 2.38292 83 83 83 
-0.30482 0.314468 2.6605 87 84 79 
0.0681259 0.328787 2.38086 98 97 95 
0.053738 0.368822 2.3767 74 73 69 
-0.293096 0.532931 2.72194 57 56 52 
0.0281214 0.510152 2.36776 57 56 54 
7.38109 2.36643 9.02687 20 24 10 
7.36204 2.40092 9.15597 125 127 122 
6.87901 2.27634 8.26496 163 164 156 
7.71581 2.49633 8.94132 144 147 138 
0.171514 1.10362 5.12563 17 17 17 
0.0510491 0.697841 2.36524 22 19 12 
-0.315371 0.839652 2.62663 15 14 20 
-0.508587 1.08539 3.64071 3 5 0 
-0.320601 0.926193 2.71859 9 8 6 
0.236307 1.08095 2.38619 7 6 2 
-0.155021 1.16335 2.24237 50 48 35 
-0.772451 1.15479 2.34214 103 100 91 
0.0313639 -1.21454 2.73779 190 198 211 
0.0365073 -1.1444 2.71583 189 199 211 
-0.0780779 -0.846706 2.74572 181 190 205 
-0.0657935 -0.842335 2.74786 59 56 67 
0.0955343 -0.785758 2.67843 35 33 38 
-0.109398 -0.691468 2.75421 83 79 76 
-0.136778 -0.584903 2.76759 57 53 50 
-0.21979 -0.294505 2.59838 54 54 46 
-0.243635 -0.240507 2.79864 65 65 67 
-0.25121 -0.197422 2.80615 54 50 47 
-0.318511 -0.0352133 2.65226 31 30 26 
-0.234252 0.0925144 2.49939 52 51 49 
-0.306694 0.0973684 2.69388 69 69 69 
-0.0517539 0.238962 2.38309 81 81 79 
7.23875 2.37341 9.26531 143 144 139 
7.4404 2.42416 8.99018 146 147 141 
-0.318711 0.841005 2.70572 63 61 74 
-0.000597275 -1.17764 2.73108 196 204 217 
0.0238517 -1.17769 2.71563 189 198 213 
-0.0253858 -1.07288 2.70405 98 97 95 
0.0603712 -0.966803 2.71811 40 35 39 
-0.199126 -0.407388 2.63033 29 29 29 
-0.24307 -0.17539 2.55556 43 39 38 
-0.21729 -0.0730744 2.50067 51 47 44 
-0.0748988 0.0864093 2.39523 12 12 10 
7.68552 2.49032 9.0579 163 164 156 
-0.338216 0.658726 2.62414 79 78 76 
-0.298421 0.77894 2.56644 32 32 32 
-0.318575 0.830934 2.66428 111 114 133 
0.0184605 0.824113 2.35318 66 66 64 
-0.32079 0.855073 2.65641 128 129 134 
0.0330276 -1.13354 2.71773 189 198 213 
-0.0532863 -0.88829 2.74337 54 51 62 
-0.112022 -0.765926 2.75385 177 187 199 
0.102627 -0.759294 2.67961 58 58 60 
-0.15999 -0.559301 2.77334 174 182 195 
-0.155562 -0.562917 2.75768 87 82 88 
-0.258579 -0.22392 2.8043 163 170 186 
8.15772 2.61424 10.0366 138 141 132 
0.033029 -1.16203 2.71928 189 199 211 
-0.00676145 -1.10768 2.71932 59 59 61 
-0.0463066 -0.874 2.73777 68 65 56 
-0.0685692 -0.860753 2.74845 182 190 203 
-0.0920885 -0.725422 2.75256 49 45 42 
-0.143391 -0.558107 2.65115 110 105 102 
-0.153135 -0.524492 2.7692 35 30 27 
-0.235091 -0.374646 2.76731 54 55 57 
-0.271164 -0.179232 2.80878 163 169 181 
-0.26927 -0.170622 2.79964 55 54 60 
-0.301549 -0.112019 2.8228 157 169 183 
-0.264098 -0.0911813 2.84405 80 79 74 
-0.277748 -0.0889953 2.81729 73 73 65 
-0.010569 -0.000289484 2.38136 27 25 26 
-0.287474 0.00135382 2.8385 36 34 35 
-0.111658 0.0841662 2.41332 16 12 11 
-0.302115 0.0931669 2.66677 13 13 13 
7.38231 2.40604 9.14739 143 146 139 
7.60403 2.46484 8.85835 121 124 113 
-0.329969 1.00388 2.59661 47 46 42 
-0.423146 1.14354 2.50959 69 66 57 
0.05406 -1.09573 2.68905 22 19 30 
0.0348843 -1.09162 2.71014 107 105 106 
-0.0521392 -0.843328 2.74689 67 62 59 
-0.304342 0.103125 2.78196 14 14 14 
7.29399 2.38788 8.96621 151 154 147 
-0.331848 0.807938 2.67909 14 14 16 
-0.349275 0.993703 2.713 78 77 73 
-0.480845 1.14444 2.7512 33 32 30 
-0.809549 1.13666 2.36126 19 18 16 
-0.0131358 -1.18402 2.73661 189 199 211 
-0.0548207 -0.82312 2.74047 53 49 48 
-0.056011 -0.79634 2.75773 74 73 69 
-0.0953554 -0.772635 2.75739 179 187 200 
-0.112703 -0.715692 2.75831 177 183 195 
0.168784 -0.404521 2.60485 52 53 47 
-0.203316 -0.359685 2.62565 20 20 18 
-0.225892 -0.323863 2.69245 44 28 29 
-0.287067 -0.0833479 2.82395 91 89 92 
0.0452482 -1.15088 2.71255 189 199 211 
-0.0385057 -0.862162 2.74622 75 70 64 
-0.0881986 -0.862104 2.74932 181 191 203 
-0.146823 -0.603054 2.7681 183 182 198 
-0.284181 -0.206221 2.80339 156 165 180 
-0.275499 -0.168926 2.81102 156 163 181 
-0.272987 -0.14181 2.80807 70 69 65 
-0.0548404 -0.960094 2.73148 189 199 211 
0.0403337 -1.16671 2.73118 186 196 208 
-0.027184 -0.949646 2.73367 97 92 88 
-0.0385034 -1.08633 2.74527 43 40 57 
-0.032738 -1.07852 2.74295 18 19 37 
-0.341775 -0.00427293 2.81686 57 59 71 
-0.00249886 -1.01813 2.73269 15 11 12 
-0.0221297 -1.00995 2.73996 100 96 95 
-0.0277729 -1.00228 2.7423 44 36 59 
-0.333496 0.00364112 2.81849 7 10 17 
0.00623818 -1.17474 2.72787 1 0 39 
-0.0396459 -1.10251 2.74602 204 211 227 
-0.00609078 -1.08174 2.73428 30 28 31 
0.013988 -1.18007 2.72157 30 25 55 
-0.00820557 -1.14244 2.73503 191 200 215 
-0.0158836 -1.09473 2.73689 87 85 86 
-0.037613 -1.07473 2.74706 190 200 212 
-0.0242113 -1.1066 2.74193 51 49 52 
0.0779123 -0.894743 2.68417 25 24 32 
0.0115148 -1.18873 2.71722 46 49 84 
-0.0166217 -1.11557 2.738 71 68 87 
-0.016977 -1.14491 2.73729 193 202 217 
9.01634 0.239713 18.8001 80 88 101 
5.60884 1.23596 13.3365 128 132 144 
9.09447 0.229985 18.7892 132 139 149 
9.09849 0.269608 18.7909 122 131 140 
5.55126 1.23277 13.3372 123 127 139 
5.54885 1.29112 13.3363 117 122 126 
5.62728 1.30224 13.359 111 114 119 
5.58441 1.32211 13.3448 51 55 58 
5.57421 1.28418 13.2335 114 119 125 
9.89488 -0.312427 20.6592 88 98 110 
8.89732 0.248693 18.8648 131 140 149 
9.07419 0.24754 18.7723 126 135 144 
5.53103 1.24621 13.3359 117 121 132 
5.63101 1.26195 13.33 118 122 133 
0.00405428 -1.15633 2.73228 193 200 216 
5.6554 1.26822 13.3697 118 122 133 
8.90928 0.231573 18.8252 105 112 122 
5.50904 1.29323 13.467 114 117 122 
-0.031027 -0.901909 2.73994 68 69 63 
-0.235624 0.0940709 2.79714 16 14 17 
0.0159406 -1.129 2.71368 190 197 216 
-0.00297305 -1.12303 2.72545 46 52 68 
-0.319163 0.850245 2.69109 26 27 32 
0.0311925 -1.20877 2.70658 188 201 207 
-0.125236 -0.487447 2.5903 106 105 101 
-0.193895 0.00129588 2.45121 64 60 61 
-0.188891 0.621919 2.44727 74 73 71 
-0.157602 1.0421 2.38106 136 135 133 
-0.202557 1.08015 2.38394 88 85 76 
-0.304215 0.826099 2.56052 99 98 96 
0.00185357 -1.07539 2.70385 28 27 25 
-0.0309425 0.221943 2.37771 60 54 56 
-0.318559 0.899497 2.69318 133 133 131 
-0.375099 1.08633 2.56194 25 24 20 
-0.140652 1.17712 2.26645 50 48 35 
0.0383716 -1.09716 2.67832 33 31 34 
0.0585553 -0.859394 2.6757 50 48 49 
-0.119183 -0.707623 2.7537 182 188 202 
0.0271474 -1.15754 2.70958 189 199 211 
-0.057195 0.233905 2.39031 75 75 73 
0.03077 -1.24208 2.70636 194 203 218 
-0.00565781 -1.1486 2.74884 189 199 211 
0.00748916 -1.12314 2.70588 194 201 217 
0.0852998 -0.424535 2.4847 43 44 49 
-0.321401 0.822312 2.70248 104 105 109 
-0.315221 0.824696 2.63834 2 5 22 
-0.316035 0.890272 2.66421 124 124 122 
-0.315477 0.995877 2.7055 96 94 95 
0.00889234 -1.22929 2.7227 0 1 36 
-0.0666854 -0.807525 2.66441 30 26 25 
-0.234907 -0.373741 2.68384 90 84 84 
-0.191094 -0.343853 2.58355 32 28 27 
-0.179829 -0.296376 2.55276 69 65 66 
-0.224027 -0.29333 2.61083 94 91 86 
0.00802402 -0.220449 2.45499 87 86 84 
0.00571823 -0.159133 2.43529 40 36 33 
-0.32244 0.0341883 2.69349 80 78 81 
-0.314525 0.113469 2.66338 59 59 59 
-0.31642 0.826561 2.65946 0 0 17 
0.911443 1.09247 2.68229 109 109 99 
0.0706548 -0.588128 2.57091 129 123 123 
-0.0719332 -0.255087 2.45784 17 16 14 
-0.175629 -0.0879167 2.46695 106 103 94 
-0.255253 0.10141 2.86008 63 62 60 
0.0172765 0.257508 2.3797 72 71 69 
-0.31551 0.893991 2.68407 21 17 16 
-0.415028 1.12388 2.53203 76 75 71 
-0.393315 1.13831 2.55505 11 12 6 
-0.000973805 -1.10196 2.66733 42 49 67 
0.084914 -0.396637 2.49039 37 37 37 
-0.205977 0.0549455 2.45869 18 14 15 
0.000815612 0.207353 2.3787 54 53 51 
0.0566378 0.369881 2.38042 67 66 64 
0.0328967 0.511128 2.37387 63 62 60 
-0.320951 0.902775 2.7128 26 17 18 
0.0480254 -1.0974 2.70789 98 92 92 
-0.304375 0.293229 2.6388 71 68 63 
0.0634671 -0.707202 2.60976 41 40 38 
-0.145785 -0.555358 2.63829 94 90 89 
-0.0843984 0.389505 2.40451 61 59 60 
-0.115835 0.0834761 2.40727 14 13 11 
0.0316964 -0.990276 2.69544 54 50 49 
-0.334048 0.91817 2.72932 78 77 82 
0.0372517 -1.14664 2.70106 185 195 207 
-0.00116888 -1.22921 2.73404 185 194 209 
-0.00388234 -1.19717 2.73562 184 193 208 
0.0147443 -1.16621 2.72248 229 228 255 
-0.0378074 -1.08436 2.7519 192 200 213 
-0.0331745 -1.07617 2.75014 191 198 216 
0.300755 0.0152828 2.47831 146 150 161 
0.0111833 -1.14252 2.72007 37 31 65 
-0.0350502 -1.09174 2.75541 37 35 56 
0.0290691 -1.02229 2.71717 204 203 211 
-0.0259193 -1.00419 2.74822 51 49 54 
0.0284457 -1.08241 2.71296 28 23 27 
-0.00715929 -1.11209 2.73133 42 42 40 
0.0115071 -1.09199 2.71843 91 90 88 
-0.00712225 -1.06549 2.73741 32 27 31 
0.0289878 -1.03549 2.7158 192 195 214 
-0.0169579 -1.10032 2.74495 79 77 78 
-0.0482109 -1.06015 2.76326 190 200 212 
0.00545391 -1.03261 2.72986 196 195 211 
14.6008 -0.138038 18.6108 70 78 91 
14.8448 0.0154101 18.4739 169 177 188 
15.3418 0.0871725 17.7731 144 153 162 
15.7958 0.109586 17.7251 185 189 200 
16.5332 0.171086 17.3012 131 140 149 
16.6423 0.17598 17.2895 197 206 215 
13.8233 0.828884 15.6351 154 163 172 
14.3074 0.869511 15.6114 67 71 83 
14.3989 0.867773 15.5931 53 57 69 
7.33981 1.42839 10.626 54 60 72 
7.33797 1.44015 10.4998 53 57 68 
6.81304 1.48433 11.0282 143 148 152 
7.34805 1.47438 10.6304 35 39 51 
7.35733 1.48692 10.5182 35 39 50 
6.82857 1.56058 11.0393 130 134 143 
7.37037 1.57829 10.7053 34 37 44 
7.34471 1.59141 10.507 42 45 54 
5.02715 1.70496 8.81279 145 145 147 
5.09783 1.70832 8.80081 200 198 199 
5.08912 1.70255 8.57694 136 135 133 
5.09064 1.70903 8.60663 145 144 142 
5.16998 1.71468 8.53432 101 102 97 
0.00992522 -1.21385 2.72264 28 27 59 
14.6847 -0.120273 18.5234 79 87 100 
14.5814 -0.0986855 18.6552 77 85 98 
14.789 -0.0271778 18.4807 166 173 183 
15.262 -0.0178132 17.7486 93 102 111 
15.2608 0.0782707 17.818 150 163 169 
15.366 0.0798216 17.7932 165 174 183 
15.5814 0.0961237 17.6698 155 164 171 
15.7391 0.103362 17.6764 157 159 171 
16.1873 0.135028 17.4508 177 186 195 
14.6549 0.301735 17.6475 255 249 254 
16.1044 0.468503 16.607 80 89 98 
14.3574 0.852479 15.605 110 114 125 
13.9892 0.854524 15.598 124 128 139 
13.6862 0.899121 15.374 71 70 84 
6.99064 1.33295 10.9085 132 137 140 
6.81081 1.42706 11.0148 131 136 140 
6.76143 1.42899 11.0125 41 45 54 
6.80192 1.50711 11.039 53 58 62 
7.35738 1.4736 10.4038 46 50 61 
7.18598 1.53085 10.8932 48 49 54 
7.01997 1.58408 10.9656 53 54 59 
7.06842 1.59041 10.926 49 50 55 
6.97554 1.60484 10.9644 120 121 125 
6.772 1.60648 10.7893 32 33 37 
7.38124 1.64531 10.7165 29 32 39 
4.98996 1.72001 8.76843 49 49 47 
14.3221 -0.0524165 18.8367 174 181 191 
14.304 -0.0110588 18.9208 82 91 100 
15.2212 0.0330502 18.0725 161 165 176 
15.5193 0.464702 16.8294 94 96 111 
14.0256 0.858692 15.6172 118 122 133 
14.4061 0.86857 15.5282 134 136 149 
12.4674 1.01006 15.4798 114 117 122 
7.34732 1.47051 10.4482 126 129 138 
6.80315 1.57777 11.0382 48 51 58 
6.82695 1.58816 10.9226 124 124 132 
5.01299 1.72437 8.77877 49 49 47 
-0.0902486 1.07071 2.3552 129 126 121 
14.6285 -0.11075 18.6479 93 103 115 
14.9052 0.00835571 18.4799 176 184 195 
15.5919 0.0668399 17.8544 158 167 176 
13.8393 0.867878 15.5945 127 131 142 
7.34725 1.45314 10.6285 32 36 48 
7.35034 1.46615 10.5172 48 52 63 
6.78671 1.56154 11.111 118 121 130 
17.1067 0.508232 17.4652 250 254 255 
14.4006 0.867283 15.5089 128 130 143 
7.20112 1.4521 10.8688 118 121 130 
7.35112 1.52573 10.6804 112 119 127 
6.80755 1.54261 11.0306 19 22 31 
7.12204 1.58595 10.8971 112 113 118 
13.3484 0.812684 15.1418 127 136 145 
7.03983 1.61568 10.9357 57 58 62 
0.0240488 -1.19869 2.7128 190 200 212 
15.4931 0.471279 16.9056 255 251 255 
13.585 0.539199 16.5114 112 121 128 
7.28143 1.56223 10.7992 59 60 64 
6.92344 1.60341 10.9674 121 124 129 
5.03547 1.69773 8.77145 126 125 131 
15.9421 0.00322976 17.5742 179 182 197 
16.7277 0.103027 17.0633 174 178 189 
14.6724 0.204429 17.6042 84 95 99 
14.9161 0.207573 17.6236 251 254 255 
14.8332 0.303337 17.5416 255 246 255 
16.1782 0.486485 16.5978 250 254 255 
7.23202 1.4593 10.948 116 120 129 
7.2864 1.43803 9.53432 35 41 41 
16.1436 0.0391796 17.4129 182 184 197 
15.4287 0.104656 17.933 89 104 109 
-0.0142271 -1.24023 2.73897 189 198 213 
-0.0453116 -0.829181 2.75737 53 49 48 
15.6078 -0.0919144 17.8208 176 180 191 
15.0965 0.308098 17.4957 91 92 97 
7.64647 1.43945 9.45662 46 46 58 
13.8972 -0.189287 18.8587 176 180 189 
7.29352 1.57971 9.3734 96 101 107 
0.0240471 -1.05582 2.74318 224 226 241 
0.024481 -1.02742 2.74277 203 202 216 
12.537 -0.109928 16.5063 71 75 86 
12.6017 -0.100243 16.4155 76 82 96 
12.7333 0.0238744 16.3684 172 182 192 
13.4501 0.107396 15.6064 170 178 191 
14.0743 0.161103 15.2228 162 171 180 
14.1631 0.166382 15.2075 164 173 182 
12.6096 0.275192 15.6879 255 252 255 
12.0047 0.744472 14.0273 146 154 165 
6.73197 1.34246 10.0429 30 34 43 
6.72505 1.35175 9.91976 66 70 81 
6.73443 1.38435 10.042 40 44 53 
6.7465 1.39623 9.94015 38 42 53 
6.75968 1.48233 10.1163 48 51 60 
6.7693 1.54928 10.1262 51 52 57 
12.6912 -0.01289 16.3812 173 181 192 
13.0456 0.0798207 15.7444 125 138 146 
13.1406 0.081139 15.7256 99 112 120 
13.2704 0.0954029 15.5645 162 170 181 
13.4263 0.101613 15.5871 153 161 174 
13.766 0.128577 15.3462 150 159 168 
14.5805 0.136009 15.0392 87 95 106 
14.6155 0.190618 15.0045 118 126 139 
12.5905 0.275044 15.6666 255 252 255 
13.7476 0.420146 14.6574 84 93 102 
12.4441 0.76495 13.9713 86 90 101 
12.1415 0.766578 13.9853 136 135 149 
6.77958 1.3662 10.1653 126 126 136 
6.77031 1.37403 9.91963 125 129 140 
6.75515 1.38502 9.84101 53 57 68 
6.8002 1.50751 9.99155 67 70 75 
12.975 0.00926473 15.6125 82 92 102 
13.0278 0.0396636 15.9828 164 173 182 
13.8154 0.127678 15.3891 165 174 183 
-0.240686 0.10144 2.88859 63 62 60 
13.2615 0.416852 14.8721 88 90 103 
12.1848 0.770536 14.012 129 128 142 
12.479 0.777195 13.8964 117 121 132 
10.9578 0.915476 14.0382 102 105 110 
13.4901 0.3837 14.7333 116 120 131 
6.75197 1.301 10.0622 126 130 141 
6.73553 1.36437 10.042 46 50 59 
12.5118 0.777936 13.9111 106 110 121 
0.0429842 -0.973951 2.67873 50 49 57 
13.4082 0.064395 15.6405 151 157 171 
0.0190312 -1.2267 2.71181 189 197 210 
-0.214147 0.0454579 2.46566 70 68 69 
13.5523 0.370755 14.7877 170 174 185 
13.8324 0.377165 14.6686 110 119 128 
13.5591 0.429387 14.7943 247 254 255 
6.94208 1.33183 9.11788 128 132 143 
13.685 0.0141832 15.5706 172 176 188 
13.0866 0.105018 15.7462 89 104 111 
14.2318 0.103522 15.0065 172 181 190 
12.5687 0.190099 15.5931 78 87 94 
13.839 0.436387 14.6716 241 250 255 
0.0394867 -1.27099 2.77072 37 44 70 
12.9583 -0.089247 16.0871 181 183 196 
13.6987 0.0453722 15.2878 174 180 192 
13.2402 0.422189 14.9399 255 253 255 
6.59082 1.39966 9.37506 33 39 39 
0.0233251 -1.04019 2.73998 193 196 215 
-0.0120868 -1.08494 2.76425 11 14 31 
0.0432105 -0.986945 2.67758 209 206 223 
0.0620617 -0.780007 2.6296 42 41 49 
0.0837145 -0.622093 2.58487 37 34 41 
-0.199621 -0.121318 2.50469 117 113 110 
-0.313354 0.823318 2.65215 13 12 26 
-0.31386 0.832543 2.64457 9 10 30 
-0.315246 0.836731 2.65517 7 8 29 
-0.316983 0.84527 2.68138 104 102 116 
-0.313881 0.845226 2.6466 89 89 99 
-0.314762 0.859484 2.67528 26 27 32 
-0.312066 0.856924 2.64236 127 126 132 
-0.315898 0.866343 2.66948 4 5 7 
-0.314092 0.889205 2.67372 136 136 138 
-0.314521 0.902807 2.69723 121 119 120 
-0.314005 0.901871 2.68669 115 113 116 
-0.32821 0.919358 2.71758 151 134 90 
-0.0815253 1.16389 3.3065 176 179 162 
-0.309968 0.959331 2.65701 66 65 70 
-0.329681 0.988869 2.61653 1 2 6 
0.0541496 -0.851659 2.64733 194 197 212 
-0.0924183 -0.11416 2.41904 103 101 102 
-0.181479 -0.0918701 2.45436 47 44 35 
-0.278672 0.0398054 2.54235 1 0 0 
-0.313588 0.112652 2.66332 44 44 46 
-0.307049 0.194556 2.74581 74 72 75 
-0.0556731 0.351254 2.38091 83 82 80 
-0.314719 0.838522 2.68849 80 81 101 
-0.313593 0.844023 2.66337 28 30 45 
-0.313528 0.846543 2.63745 94 94 106 
-0.314432 0.860404 2.69985 101 102 107 
-0.316374 0.852444 2.66392 1 5 16 
-0.313074 0.866 2.6603 16 16 18 
-0.321793 0.914943 2.71106 129 89 27 
-0.315131 0.924968 2.68954 95 96 91 
-0.291572 1.02939 2.50475 93 92 90 
-0.131328 0.111919 2.41839 51 49 50 
-0.0267485 0.222365 2.38101 66 64 65 
-0.306986 0.265223 2.70222 27 23 20 
-0.325732 0.798297 2.63497 75 71 68 
-0.313133 0.8198 2.64346 65 63 76 
0.00412709 -1.22272 2.73158 183 192 207 
-0.106203 -0.197032 2.45937 32 29 24 
-0.205104 -0.135132 2.51699 91 88 83 
-0.0742538 0.0740034 2.39111 105 103 104 
-0.131893 0.0946997 2.41464 66 64 65 
-0.212931 0.100996 2.90887 66 66 66 
-0.29907 0.150941 2.7653 98 98 96 
-0.0667661 0.150895 2.40459 24 24 24 
-0.0497882 0.221935 2.3848 76 74 75 
-0.333213 0.794557 2.64215 18 14 13 
-0.295892 0.792608 2.56326 66 64 65 
-0.315127 0.850235 2.69533 18 17 25 
-0.317692 0.905934 2.71648 18 17 15 
-0.137156 1.17948 2.26826 51 48 41 
0.0481281 -0.947219 2.67054 184 192 205 
0.0511908 -0.898801 2.6553 183 190 206 
-0.0833966 0.100032 2.41093 61 59 60 
-0.199525 0.127263 2.90231 12 12 12 
-0.241078 0.358842 2.51397 78 76 77 
-0.0357003 -1.19904 2.71763 70 74 99 
0.0198839 -1.1662 2.71072 183 192 209 
-0.234507 -0.320895 2.65418 39 25 25 
-0.172735 -0.0742693 2.96888 69 69 77 
-0.0840527 0.3893 2.40478 57 57 57 
0.0244605 -1.14248 2.70634 184 193 208 
0.0491698 -0.866353 2.65752 48 47 53 
0.083419 -0.716357 2.59152 182 192 204 
0.0874049 -0.646475 2.57834 183 193 205 
-0.317865 0.836667 2.70226 118 116 130 
-0.312899 0.865297 2.62723 12 12 14 
-0.323767 0.897462 2.71773 25 21 20 
-0.314663 0.892073 2.62619 26 22 19 
-0.31276 0.973486 2.64689 88 84 107 
0.123663 -0.00544546 2.48427 25 23 26 
-0.312296 0.884273 2.65481 14 14 16 
0.0416491 -0.954742 2.6776 45 39 53 
-0.0195633 -1.12409 2.74351 53 54 75 
0.0616404 -1.07566 2.71765 30 28 31 
-0.0168071 -1.04098 2.73109 55 49 49 
0.06719 -0.907484 2.69894 64 60 57 
0.0973475 -0.93791 2.69526 185 197 209 
0.0070549 -1.16445 2.72827 201 204 221 
0.0123004 -1.14417 2.72671 44 41 72 
0.00701676 -1.13657 2.73064 11 11 49 
0.0331369 -1.22305 2.71668 195 201 223 
-0.00194191 -1.01842 2.73531 31 29 34 
-0.00186579 -1.21632 2.72654 202 211 226 
0.0086142 -1.17816 2.72813 27 30 61 
0.00150995 -1.05682 2.72942 18 17 23 
0.0180445 -1.03205 2.73086 62 58 57 
-0.0114171 -1.21992 2.72741 196 205 220 
0.0108695 -1.17004 2.73298 18 18 42 
-0.00757748 -1.11362 2.73517 42 42 40 
0.000657358 -1.03953 2.71312 191 191 203 
0.0165966 -1.04636 2.72668 68 62 62 
0.0307298 -1.03455 2.72487 192 195 214 
-0.0307319 -0.95559 2.71092 66 63 58 
0.0338245 -1.19454 2.72335 194 203 218 
0.0476952 -0.98859 2.72197 46 45 43 
0.0325333 -1.24138 2.71194 194 203 218 
0.0234172 -1.17287 2.72561 49 57 78 
0.0217074 -1.13362 2.72395 190 197 215 
0.0717313 -1.09712 2.71256 28 25 44 
0.025425 -1.18024 2.71986 189 198 213 
0.00498904 -1.15171 2.74066 189 198 213 
-0.0297556 -0.969209 2.74759 41 35 45 
-0.021013 -0.93614 2.73433 81 77 74 
-0.0350316 -0.971051 2.73355 67 60 76 
0.017721 -1.0467 2.72302 193 197 206 
-0.024254 -0.944617 2.7431 97 92 88 
-0.018402 -1.23209 2.72611 188 198 210 
0.0488947 -1.12887 2.69385 47 46 64 
0.0630796 -1.10531 2.68329 29 26 47 
0.00401763 -1.04679 2.73191 221 224 241 
0.0647093 -0.99634 2.68927 193 192 206 
0.0618394 -1.09102 2.68646 188 187 203 
0.0280673 -1.05013 2.714 184 190 204 
-0.0187187 -1.06733 2.75024 38 36 41 
0.0510743 -1.07975 2.69547 29 25 22 
0.0441898 -1.11877 2.69967 46 44 45 
0.0279015 -1.12 2.71518 38 39 43 
0.0800445 -0.998391 2.67771 183 192 207 
0.02756 -1.22026 2.7004 53 54 84 
0.111408 -0.855799 2.68153 199 205 219 
-0.0312298 -1.02922 2.72667 40 35 57 
0.11555 -0.845094 2.66095 202 204 219 
-0.0307615 -1.06117 2.7459 32 28 43 
0.0119808 -1.18692 2.69846 26 27 47 
-0.0610402 -0.885289 2.75968 183 192 207 
-0.00975204 -1.21767 2.69122 21 26 56 
-0.0225085 -1.193 2.70626 28 29 57 
-0.00093899 -1.18323 2.70216 25 28 61 
-0.00342635 -1.17386 2.70878 191 194 211 
-0.0109414 -1.10023 2.78287 34 30 47 
-0.00104164 -1.22179 2.69503 190 198 211 
0.0008877 -1.20998 2.69734 188 201 210 
-0.012913 -1.19238 2.71222 193 199 211 
0.0190578 -1.12819 2.73538 69 72 89 
-0.013036 -1.08548 2.77985 192 195 210 
0.0739519 -1.08352 2.72372 194 197 212 
0.0323678 -1.05583 2.75538 69 73 82 
0.00545627 -1.17449 2.71508 9 13 42 
0.00133579 -1.14566 2.71917 195 201 215 
-0.0155044 -1.096 2.77228 24 20 35 
0.0121064 -1.19811 2.69079 19 20 50 
0.0636906 -1.1156 2.71801 59 58 64 
0.0133758 -1.19387 2.7074 190 198 211 
0.003666 -1.14514 2.75163 188 198 208 
-0.0012083 -1.12628 2.76069 56 57 75 
-0.0135082 -1.18236 2.71044 188 196 209 
0.0795535 -1.11183 2.70811 190 200 212 
0.0506525 -1.08628 2.73653 28 28 28 
-1.44883e-06 -1.07961 2.77463 37 33 34 
0.0523478 -1.04133 2.75014 17 16 14 
0.00349083 -1.21067 2.67322 191 201 211 
0.0630352 -1.04958 2.75285 50 49 45 
0.00354284 -1.21269 2.65844 189 199 211 
-2.12357 0.56211 -0.523181 190 198 211 
-2.20581 0.629636 -0.651853 24 18 64 
-2.2941 0.705134 -0.792724 22 18 53 
-6.85882 4.57834 -7.99676 51 61 73 
-3.67619 1.8212 -2.89807 134 139 159 
-4.57208 2.55575 -4.30985 194 197 212 
187.343 -148.669 289.289 8 6 43 
-6.64842 4.02621 -7.4278 194 201 217 
105.939 -83.5473 166.675 38 45 63 
6.26811 -5.54998 11.8276 6 8 23 
-1.87397 0.362328 -0.158407 190 196 212 
-2.24032 0.662902 -0.709066 194 202 215 
43.692 -35.5357 69.5476 8 6 43 
11.3696 -10.0305 20.404 189 198 215 
426.59 -332.907 662.741 55 58 77 
-7.9664 5.14743 -9.42978 186 194 207 
-13.6433 9.69219 -18.27 189 195 209 
17.4129 -14.6753 29.5022 188 198 210 
-2.81117 1.15435 -1.61398 187 197 209 
-1.93639 0.413526 -0.248941 189 197 210 
-3.8863 1.95811 -3.19793 187 196 211 
-12.2467 8.79188 -16.2327 187 197 209 
6.15592 -5.41968 11.6132 188 198 210 
-25.1182 18.1516 -35.1213 185 194 209 
8.61473 -6.11971 16.9576 70 68 73 
-1.79516 0.295913 -0.0321028 187 197 209 
26.5289 -23.1208 44.0649 186 196 208 
1.93699 -2.71221 5.75856 186 196 208 
-0.664221 -0.513387 1.65877 54 50 49 
1.2146 -1.73695 4.45372 62 58 55 
-2.31568 0.723117 -0.824984 21 17 54 
3.81344 -3.3387 9.09842 188 198 210 
0.0179597 -1.23522 2.7328 4 3 45 
0.0360178 -1.23709 2.72166 188 197 212 
-0.0481178 -0.890258 2.72351 71 66 60 
0.957577 1.33009 3.43759 97 99 114 
0.955048 1.34446 3.44911 10 11 29 
0.943786 1.54638 3.43885 15 13 24 
1.0031 1.29791 3.48771 15 11 10 
0.00530165 -1.23527 2.70662 203 209 223 
0.00315606 -1.20614 2.70771 15 8 42 
-0.0136357 -1.20232 2.71638 22 18 53 
0.00170239 -1.01664 2.71264 208 212 224 
-0.0477459 -0.938544 2.73157 224 227 246 
-0.0731222 -0.856196 2.72966 206 212 228 
0.064231 -1.07808 2.70564 200 203 218 
0.0599787 -1.05973 2.70696 42 37 59 
-0.0262269 -0.863241 2.70914 84 84 82 
0.0128319 -0.740103 2.67549 95 91 88 
-0.0513586 -0.727046 2.69026 97 93 90 
-0.109457 -0.363718 2.57822 84 83 81 
-0.00337546 -1.19657 2.71414 196 206 215 
-0.0432943 -0.930003 2.72873 47 45 58 
-0.185384 -0.394182 2.60738 103 101 102 
0.0452942 -0.383196 2.55468 65 64 62 
0.0510892 -1.06908 2.70914 37 32 38 
-0.0211403 -1.22493 2.71674 198 206 219 
-0.0218244 -1.17248 2.72223 198 208 220 
-0.0478844 -0.994728 2.72304 197 203 217 
-0.0542867 -1.00422 2.74002 198 206 219 
-0.0100683 -1.05728 2.72693 32 27 31 
0.000723505 -1.02871 2.71303 191 191 203 
-0.067168 -0.926861 2.74741 185 194 209 
-0.0105637 -0.983365 2.72424 54 47 37 
0.153734 -1.33668 2.96579 16 17 45 
0.00248729 -1.16175 2.70954 0 0 38 
0.0036009 -1.13005 2.71781 199 201 222 
0.278561 -1.44732 3.17531 29 30 58 
0.0253747 -1.19778 2.6985 188 201 207 
-0.00868792 -1.1352 2.71572 189 198 213 
-0.0267061 -1.01383 2.78328 187 197 209 
-0.0673155 -0.976124 2.71749 182 194 206 
-1.8432 0.341644 -0.112756 36 43 72 
