ply                 
format ascii 1.0    
element vertex 327
property float x    
property float y    
property float z    
property uchar red  
property uchar green
property uchar blue 
end_header          
0.0304602 -0.738092 2.58858 113 109 106 
-0.00778958 -0.69369 2.56916 98 94 91 
0.00905628 -0.673394 2.56392 126 122 119 
0.0543206 -0.661792 2.56612 110 106 105 
0.0667845 -0.596318 2.54301 104 103 101 
0.0495925 -0.577813 2.53375 107 103 102 
0.0334578 -0.394363 2.44319 90 85 81 
0.0219991 -0.392574 2.44078 84 74 73 
0.0619851 -0.393974 2.4479 99 87 87 
0.0278326 -0.20387 2.40485 124 123 121 
0.0125634 -0.0994395 2.35892 105 104 100 
0.138955 -0.0612232 2.36213 103 102 100 
0.252943 0.0424582 2.42495 7 5 6 
0.285238 0.113068 2.45988 98 97 93 
0.122685 0.120918 2.34195 100 99 97 
0.109995 1.07984 2.27963 139 138 136 
0.0628935 1.22049 2.20489 91 87 84 
0.0730857 1.23127 2.20654 85 81 78 
0.0595389 1.25005 2.20055 103 102 97 
0.0167344 -1.28784 2.76034 194 202 215 
0.0238918 -0.777295 2.6021 98 94 93 
0.0101225 -0.74013 2.58847 115 111 110 
0.0303997 -0.737983 2.58834 113 109 106 
-0.00738147 -0.731588 2.58368 106 102 99 
0.0782997 -0.707574 2.58223 41 37 36 
-0.00771071 -0.693626 2.56919 98 94 91 
0.00429699 -0.689002 2.56791 123 119 116 
-0.00879897 -0.623848 2.54202 115 111 110 
-0.0359239 -0.610277 2.53572 66 65 60 
-0.0294217 -0.591621 2.52963 97 92 89 
0.00871895 -0.591364 2.53419 21 20 18 
0.0783004 -0.592687 2.54057 87 83 82 
-0.0312521 -0.573668 2.52195 135 132 127 
-0.0126888 -0.574471 2.52446 135 132 127 
0.0221084 -0.392258 2.44043 84 74 73 
0.0160622 -0.388268 2.44159 44 37 31 
0.0270465 -0.387767 2.44103 47 36 34 
0.0266261 -0.330701 2.44087 90 80 79 
-0.0273234 -0.163594 2.38475 97 93 90 
0.127247 -0.148672 2.40278 107 106 104 
-0.0595015 -0.116747 2.35617 88 87 85 
0.00314567 -0.11043 2.36438 97 96 92 
0.0123997 -0.099079 2.35921 110 109 105 
0.0380043 -0.0769576 2.351 116 114 115 
0.138888 -0.061454 2.36241 103 102 100 
0.054911 -0.038367 2.3322 51 48 43 
0.169869 0.106072 2.36944 17 15 16 
0.12309 0.120899 2.34099 100 99 97 
0.0140483 0.170927 2.31703 90 89 87 
-0.0544333 0.174527 2.31841 1 0 0 
0.0329 0.188692 2.31568 75 74 72 
-0.0612665 0.393434 2.30116 78 77 75 
0.185073 0.856424 2.35997 34 30 29 
0.221032 0.955183 2.35788 85 84 82 
0.0790043 1.1094 2.25591 81 79 80 
0.0612646 1.2028 2.20572 87 86 82 
0.0722966 1.23228 2.2082 79 75 72 
0.0665052 1.2394 2.20336 83 79 76 
0.047672 1.24045 2.20042 61 57 54 
0.109362 1.25136 2.21365 80 79 74 
0.0531921 1.24552 2.19979 42 41 36 
0.0598892 1.24943 2.19972 103 102 97 
0.206348 1.27311 2.2284 92 93 88 
0.05106 1.25769 2.18978 120 121 115 
0.0528203 1.28259 2.14173 107 107 97 
0.0126896 -1.32546 2.75667 196 202 218 
0.0124164 -0.72289 2.5801 78 74 71 
0.0503245 -0.692217 2.5774 109 105 104 
-0.0230409 -0.554571 2.51542 119 116 111 
0.0153964 -0.167311 2.39192 26 22 21 
0.267733 0.0203167 2.43361 73 72 70 
0.094187 0.108134 2.33147 86 86 86 
0.0142733 0.171165 2.31646 90 89 87 
0.0348453 0.188391 2.31327 76 75 73 
-0.0167172 1.0603 2.25856 99 97 98 
0.0869913 1.17895 2.25182 69 65 66 
0.212667 1.25434 2.2662 68 67 65 
0.322214 1.28271 2.31426 71 70 66 
0.0686036 1.23687 2.19892 88 84 81 
0.0478779 1.24032 2.20036 73 69 66 
0.0785703 -0.591007 2.54149 95 91 90 
0.0632318 -0.584236 2.53548 53 47 47 
0.0934615 -0.554791 2.52889 120 119 115 
0.120942 -0.340721 2.45715 38 37 32 
0.106288 -0.230965 2.42544 33 31 32 
-0.168303 0.0121398 2.36699 71 70 68 
0.103502 0.0802562 2.33396 74 73 71 
0.214484 0.108895 2.40051 17 17 17 
0.00319059 0.236181 2.31027 60 58 59 
-0.0641444 0.252788 2.32321 66 64 65 
-0.0284398 0.253019 2.30991 57 56 54 
0.182209 1.22123 2.25732 93 92 90 
0.0635534 1.20253 2.20567 77 76 72 
0.0852141 1.23728 2.20666 91 86 82 
0.0308077 -0.732216 2.58833 94 90 87 
0.0497738 -0.577484 2.53366 107 103 102 
0.0710762 0.0619482 2.3257 72 70 71 
-0.0600338 0.271607 2.31911 94 92 93 
0.0107195 -1.37276 2.75123 166 165 197 
0.217115 0.0928357 2.39135 83 82 80 
0.128735 0.173905 2.33974 69 69 69 
-0.00387472 0.266667 2.30895 67 66 64 
0.0492426 -1.27434 2.75434 191 201 213 
0.123996 -0.863752 2.729 48 46 47 
-0.00347042 0.00836559 2.31932 24 22 23 
0.0510366 1.25766 2.1898 120 121 115 
0.0567429 1.18513 2.22471 108 107 102 
0.0497957 -0.0315103 2.33088 101 98 91 
0.0167168 -1.39705 2.77181 197 204 223 
0.026306 -1.39453 2.77133 194 200 222 
0.0168414 -1.3812 2.76679 232 232 255 
0.00739349 -1.36769 2.75003 88 92 129 
0.0329287 -1.36842 2.77321 19 16 47 
0.041985 -1.49487 3.03746 211 213 228 
0.00591628 -1.35745 2.7579 200 205 224 
0.0161883 -1.35621 2.76798 222 226 251 
0.00256223 -1.35267 2.78038 191 192 223 
0.0261554 -1.34397 2.77195 128 132 161 
0.0236986 -1.33515 2.76578 45 44 76 
0.0291683 -1.32566 2.7685 238 235 255 
0.0282225 -1.29781 2.76523 186 184 208 
0.0180875 -1.26468 2.7553 198 203 222 
-0.0390648 -1.22254 2.76997 43 40 57 
-0.032321 -1.21192 2.76677 18 19 37 
0.0831757 -1.19825 2.74951 196 201 220 
0.0824521 -1.1011 2.74287 188 194 208 
0.0825457 -1.08514 2.74382 5 4 18 
-0.0349198 -1.08846 2.7649 28 29 47 
0.0892067 -1.05184 2.73909 215 214 232 
0.13183 -0.890623 2.72096 190 192 207 
0.151561 -0.815433 2.71048 200 212 224 
0.0420993 -0.587637 2.53852 142 138 135 
-0.0227493 -0.581849 2.5271 115 112 107 
0.2038 -0.610765 2.68691 68 65 74 
-0.0322089 -0.53898 2.50652 79 76 71 
-0.0948261 -0.530313 2.54035 106 103 98 
0.227568 -0.535742 2.67378 196 196 206 
-0.161634 -0.509785 2.5762 127 124 119 
0.277424 -0.506273 2.75497 43 41 46 
0.139659 -0.393356 2.48739 143 141 142 
-0.0788456 -0.375348 2.45781 112 108 105 
0.140294 -0.355 2.4742 97 96 94 
0.123637 -0.350819 2.46513 99 98 96 
-0.0960326 -0.30814 2.44432 89 85 82 
-0.199413 -0.285956 2.50513 118 117 115 
0.301329 -0.244839 2.63907 68 69 74 
-0.153212 -0.203583 2.43993 114 113 109 
-0.0455466 -0.105645 2.3497 91 89 90 
-0.221831 -0.0357398 2.39871 51 46 40 
0.285969 0.113601 2.46617 98 97 93 
-0.213008 0.618724 2.3791 133 133 133 
-0.1724 1.15045 2.26782 85 81 82 
-0.119551 1.18683 2.21021 110 109 105 
0.128743 1.24182 2.22697 84 80 77 
0.0194607 -1.34436 2.76356 30 32 70 
0.0449387 -1.26016 2.74928 188 197 214 
-0.030284 -1.23189 2.72572 70 70 96 
-0.0328902 -1.1942 2.76557 197 205 218 
0.0773275 -1.12658 2.75085 56 52 67 
0.0948782 -1.03206 2.73742 191 193 208 
0.114983 -0.933902 2.72942 39 41 53 
-0.0496424 -0.780427 2.61368 46 42 39 
0.156032 -0.802975 2.70792 188 191 208 
0.0199048 -0.661768 2.56112 118 114 113 
-0.00418897 -0.609233 2.53557 100 99 97 
-0.0268551 -0.606225 2.53661 37 34 29 
0.20856 -0.604961 2.68055 174 180 192 
-0.00656859 -0.55009 2.5123 89 85 86 
-0.0377326 -0.517652 2.49361 94 90 87 
0.221443 -0.54563 2.68126 52 52 64 
-0.152969 -0.512081 2.57135 113 109 106 
-0.202094 -0.476253 2.60613 88 87 85 
-0.0277364 -0.429965 2.44013 110 109 105 
-0.097625 -0.416788 2.49004 117 114 109 
-0.21078 -0.391717 2.56142 92 88 85 
-0.215672 -0.377449 2.55821 96 94 95 
-0.049616 -0.35809 2.44024 76 72 73 
-0.13986 -0.351426 2.49319 61 60 58 
-0.223465 -0.34994 2.55232 100 99 97 
-0.157721 -0.323864 2.49404 120 116 115 
-0.168541 -0.294151 2.48623 111 107 106 
-0.219305 -0.276392 2.51696 37 36 34 
-0.10972 -0.209382 2.41267 39 36 31 
-0.189457 -0.200386 2.46649 124 123 121 
-0.244819 -0.137405 2.48374 100 96 93 
-0.178476 -0.0935793 2.39267 60 57 52 
-0.223155 -0.0586534 2.41799 117 115 103 
-0.20543 -0.0492682 2.39527 109 105 104 
-0.197036 -0.0331826 2.37874 109 105 96 
-0.258692 0.0541641 2.41808 32 30 31 
0.168729 0.105396 2.36159 17 15 16 
-0.28535 0.131964 2.47155 66 64 65 
0.150077 0.127249 2.35361 35 35 35 
-0.0586408 0.15485 2.31619 3 1 4 
-0.0680366 0.22164 2.32484 72 71 69 
-0.0691505 0.265072 2.31945 91 89 90 
0.276364 0.351348 2.47872 29 25 22 
0.00141723 0.426538 2.29662 89 87 88 
0.173262 0.487673 2.37094 105 104 100 
0.104202 0.619228 2.31088 6 5 3 
0.185335 0.857922 2.36337 34 30 29 
-0.00124935 0.829282 2.27602 91 88 81 
0.175622 0.940477 2.33011 81 79 80 
-0.228257 1.17624 2.28571 90 89 87 
-0.284142 1.20586 2.276 79 78 74 
-0.004231 1.21355 2.20197 95 94 92 
0.0636492 1.22132 2.20644 103 99 96 
0.214162 1.25703 2.27134 67 66 64 
0.0816628 1.23754 2.20582 88 83 79 
0.0476384 1.23974 2.1995 61 57 54 
0.109712 1.25276 2.21629 80 79 74 
0.0470221 -1.26685 2.76379 191 200 217 
0.112458 -0.953706 2.73121 49 49 61 
0.15472 -0.791335 2.70721 45 42 53 
0.0116839 -0.575928 2.52447 50 46 45 
0.281743 -0.479223 2.73161 50 47 54 
-0.059375 -0.42054 2.46743 75 72 67 
-0.0273182 -0.393413 2.44207 30 29 24 
-0.0846877 -0.382806 2.4611 47 43 40 
0.286362 -0.40907 2.69289 53 53 55 
-0.187839 -0.357698 2.53025 47 43 40 
-0.096042 -0.299107 2.43518 25 21 20 
-0.17932 -0.0945353 2.40572 52 49 44 
0.268262 0.0203646 2.43832 73 72 70 
-0.295628 0.144166 2.48549 11 10 8 
-0.0673521 0.181153 2.3253 83 81 82 
0.0340718 0.187418 2.30501 76 75 73 
-0.0673309 0.299391 2.31357 94 93 91 
-0.0683165 0.376325 2.30981 71 70 68 
-0.274451 0.405298 2.43364 77 77 77 
-0.0730187 0.594018 2.29516 62 60 61 
0.209503 1.28463 2.21972 65 66 52 
0.0419119 -1.36365 2.75401 22 26 51 
0.0839433 -1.06321 2.74357 40 40 52 
0.0938512 -1.01925 2.73596 50 47 58 
0.100533 -1.00068 2.73912 40 42 55 
0.0861702 -0.644711 2.55534 108 104 103 
-0.0670705 -0.468747 2.48829 56 52 49 
0.277301 -0.46215 2.72976 43 42 38 
-0.0635643 -0.399802 2.45829 101 98 93 
0.129638 -0.394126 2.49176 11 9 10 
0.122716 -0.387907 2.45557 30 29 25 
0.146549 -0.236168 2.43021 76 75 73 
0.308333 -0.236012 2.64447 162 164 176 
0.334995 -0.100895 2.62728 12 11 16 
-0.239934 -0.0740176 2.42191 33 29 28 
-0.242315 -0.0518113 2.41024 129 126 121 
-0.183676 -0.0433599 2.37917 46 42 39 
-0.371764 0.0215468 2.65494 149 155 167 
-0.25745 0.0442511 2.41522 83 81 82 
-0.25235 0.0625535 2.4103 87 87 87 
-0.142835 0.105648 2.34413 62 62 62 
-0.0632718 0.106595 2.32158 81 81 81 
0.160298 0.110009 2.37076 66 64 67 
-0.138874 0.13131 2.34849 60 60 60 
-0.048247 0.164045 2.31176 61 59 60 
0.141271 0.272061 2.33217 71 70 68 
-0.0237379 0.392328 2.29821 82 80 81 
-0.0467692 0.602664 2.28312 75 73 76 
0.159532 0.794756 2.34284 24 22 23 
-0.10592 1.17641 2.24492 116 112 109 
0.182921 1.22612 2.2659 93 92 90 
-0.532087 1.28371 2.34259 83 79 67 
-0.839493 1.25826 2.23386 19 19 7 
-0.818599 1.27508 2.24674 104 102 90 
-0.15651 1.28311 2.14105 39 35 24 
-0.255329 -0.528509 2.67264 68 67 75 
-0.0652911 0.204664 2.32926 83 81 82 
0.00829333 -1.39195 2.77125 195 205 215 
0.0330563 -1.36537 2.79101 10 14 51 
-0.00276989 -1.29591 2.79762 191 200 215 
0.0510063 -1.18357 2.71474 100 96 95 
0.0869381 -1.07259 2.74222 195 198 213 
0.219631 -0.584951 2.67735 168 177 192 
0.214956 -0.567455 2.68189 26 21 28 
-0.0525212 -0.51574 2.51038 45 41 40 
-0.146558 -0.358981 2.50249 91 90 88 
0.0145346 -0.239924 2.40912 54 53 51 
-0.262364 0.111382 2.42778 68 67 65 
-0.0719441 0.625935 2.29633 45 44 42 
-0.425022 1.18674 2.43107 28 27 23 
0.180175 1.21942 2.25292 92 91 87 
0.0375292 -1.38467 2.77033 191 201 213 
0.0504626 -1.36779 2.75796 60 67 85 
0.00602986 -1.34208 2.77069 195 204 219 
0.0327715 -1.1883 2.7078 22 22 22 
-0.0284834 -1.18366 2.7567 23 22 36 
-0.200229 -0.443124 2.59573 85 85 83 
-0.0305635 -0.389661 2.45145 24 23 21 
0.0495321 0.00241365 2.32059 21 20 18 
-0.288746 0.106398 2.43336 15 15 13 
0.211042 0.109644 2.40029 14 14 14 
-0.353112 0.124929 2.64484 19 19 21 
-0.275596 0.131193 2.4578 80 80 80 
0.0793328 0.371392 2.31597 78 78 76 
0.00533713 0.767324 2.28058 95 92 83 
-0.453259 1.21595 2.43603 33 32 28 
-0.0084252 -1.22561 2.71929 41 39 42 
0.0455758 -1.21598 2.72189 100 96 95 
-0.0386438 -1.20329 2.76647 190 200 212 
-0.00787421 -1.17803 2.72884 19 15 16 
0.178278 -0.799789 2.70134 177 186 201 
-0.219152 -0.563846 2.73477 167 179 193 
0.21357 -0.517485 2.65467 48 47 45 
0.338314 -0.0681282 2.6185 55 53 56 
-0.453385 1.20978 2.47104 70 71 66 
0.0219866 -1.25583 2.76965 61 62 64 
-0.0195487 -1.09337 2.76047 87 84 79 
0.0997853 -1.07403 2.73864 185 197 209 
0.130686 -0.812091 2.70137 50 46 45 
-0.166652 -0.606421 2.72884 77 72 69 
0.294092 -0.502077 2.73585 169 181 197 
-0.0245241 -0.416586 2.44857 98 98 86 
-0.141754 0.11729 2.37083 45 43 44 
0.287228 -0.395472 2.694 52 50 53 
-0.361523 0.0116623 2.68889 16 14 15 
-0.0567397 0.200385 2.3116 75 75 75 
-0.0216871 0.229754 2.30708 34 33 31 
0.0560329 1.18166 2.2186 108 107 102 
-0.00752992 -1.34261 2.76056 191 198 216 
-0.00692521 -1.32669 2.77445 192 201 216 
-0.0128486 -1.24694 2.75498 71 68 87 
0.059876 -1.30397 2.80884 191 201 213 
-0.188664 -0.568311 2.73826 75 75 77 
0.349672 0.0134378 2.60743 50 49 47 
-0.0766211 0.0898305 2.32604 131 130 128 
-0.0370908 -1.06724 2.73633 63 62 70 
