ply                 
format ascii 1.0    
element vertex 108
property float x    
property float y    
property float z    
property uchar red  
property uchar green
property uchar blue 
end_header          
0.0324851 -0.762902 2.57315 113 109 106 
-0.00726736 -0.716627 2.5527 98 94 91 
0.0101182 -0.695336 2.54707 126 122 119 
0.0573577 -0.682684 2.54792 110 106 105 
0.0702912 -0.613891 2.52246 104 103 101 
0.0525058 -0.59461 2.51262 107 103 102 
0.035561 -0.402794 2.41623 90 85 81 
0.0237338 -0.400987 2.41384 84 74 73 
0.0649828 -0.402286 2.42088 99 87 87 
0.0295034 -0.205898 2.37507 124 123 121 
0.013915 -0.0979675 2.32601 105 104 100 
0.143795 -0.0582363 2.32741 81 80 78 
0.260697 0.0484926 2.39191 7 5 6 
0.29394 0.12124 2.42826 98 97 93 
0.126664 0.12865 2.30581 100 99 97 
0.111752 1.10884 2.23722 139 138 136 
0.0635941 1.24887 2.15913 91 87 84 
0.0739543 1.25987 2.16072 85 81 78 
0.0604766 1.27823 2.15362 103 102 97 
0.0183105 -1.34603 2.76251 194 202 215 
0.0257022 -0.804154 2.58787 98 94 93 
0.0113115 -0.765423 2.57348 115 111 110 
0.0324247 -0.762761 2.57289 113 109 106 
-0.00687501 -0.756479 2.56851 106 102 99 
0.0820548 -0.730614 2.56579 41 37 36 
-0.00718453 -0.71656 2.55273 98 94 91 
0.00527548 -0.711609 2.55122 123 119 116 
-0.00827112 -0.643215 2.52325 115 111 110 
-0.036393 -0.629178 2.51676 66 65 60 
-0.0295498 -0.609603 2.50985 97 92 89 
0.00988968 -0.609114 2.51448 21 20 18 
0.0819765 -0.610048 2.52042 87 83 82 
-0.0315107 -0.590754 2.50179 135 132 127 
-0.0121756 -0.591437 2.50397 135 132 127 
0.0238529 -0.400648 2.41344 84 74 73 
0.0176871 -0.396751 2.41455 44 37 31 
0.0289377 -0.395992 2.41401 47 36 34 
0.0285649 -0.337273 2.41319 90 80 79 
-0.0271894 -0.164363 2.354 97 93 90 
0.131839 -0.14844 2.37108 107 106 104 
-0.0602918 -0.11609 2.32425 88 87 85 
0.00388296 -0.109489 2.33283 97 96 92 
0.0137439 -0.0975998 2.32633 110 109 105 
0.0396325 -0.0748287 2.31847 116 114 115 
0.143633 -0.058453 2.32791 103 102 100 
0.0574328 -0.0349299 2.29713 51 48 43 
0.17456 0.113693 2.33603 17 15 16 
0.127079 0.128628 2.3048 100 99 97 
0.0151783 0.179652 2.28075 90 89 87 
-0.055162 0.183258 2.28291 1 0 0 
0.0345001 0.197883 2.27903 75 74 72 
-0.0624241 0.407603 2.26394 78 77 75 
0.189077 0.883108 2.32155 34 30 29 
0.225686 0.984051 2.31864 85 84 82 
0.0800808 1.13811 2.2126 81 79 80 
0.0620896 1.23069 2.15976 87 86 82 
0.0731423 1.261 2.16245 79 75 72 
0.0672436 1.26803 2.15744 83 79 76 
0.0480603 1.26909 2.15454 61 57 54 
0.111065 1.28007 2.16714 80 79 74 
0.0536779 1.27418 2.15382 42 41 36 
0.0604958 1.27809 2.15367 103 102 97 
0.209598 1.30248 2.18203 92 93 88 
0.0519602 1.28533 2.14225 120 121 115 
0.0534701 1.30859 2.09345 107 107 97 
0.0143259 -1.38472 2.75814 196 202 218 
0.0139855 -0.746898 2.56353 78 74 71 
0.0535237 -0.714295 2.55928 109 105 104 
-0.0229903 -0.570761 2.49464 119 116 111 
0.0167822 -0.168059 2.3611 26 22 21 
0.275978 0.0257599 2.40096 73 72 70 
0.0974734 0.115455 2.29521 86 86 86 
0.0154154 0.179894 2.28014 90 89 87 
0.0358042 0.197771 2.27834 76 75 73 
-0.0175782 1.08847 2.21616 99 97 98 
0.0881094 1.20885 2.20801 69 65 66 
0.216308 1.2853 2.22104 68 67 65 
0.328091 1.31614 2.27056 71 70 66 
0.069402 1.26518 2.15281 88 84 81 
0.0483569 1.26884 2.15424 73 69 66 
0.0822539 -0.608328 2.52137 95 91 90 
0.0663652 -0.601272 2.51512 53 47 47 
0.097631 -0.570294 2.50751 120 119 115 
0.125824 -0.347258 2.4293 38 37 32 
0.110379 -0.233866 2.3959 33 31 32 
-0.172635 0.0161717 2.33585 71 70 68 
0.1069 0.0869172 2.29835 74 73 71 
0.220965 0.116653 2.36638 17 17 17 
0.00395976 0.246499 2.27347 60 58 59 
-0.0653179 0.263604 2.2877 66 64 65 
-0.028933 0.263948 2.27432 57 56 54 
0.185178 1.25148 2.21266 93 92 90 
0.0644722 1.23024 2.15958 77 76 72 
0.0863611 1.26563 2.16061 91 86 82 
0.0327165 -0.756918 2.57322 94 90 87 
0.0525648 -0.594443 2.51293 107 103 102 
0.073553 0.0681126 2.29049 72 70 71 
-0.0610081 0.282696 2.28312 94 92 93 
0.0129683 -1.4332 2.75061 166 165 197 
0.223657 0.100146 2.35675 83 82 80 
0.132625 0.18296 2.30363 69 69 69 
-0.00366816 0.277807 2.27288 67 66 64 
0.0523438 -1.331 2.75546 191 201 213 
0.129854 -0.898671 2.72445 48 46 47 
-0.00321032 0.0128053 2.2858 24 22 23 
0.0519396 1.28528 2.14227 120 121 115 
0.0568023 1.21476 2.1813 108 107 102 
0.0522222 -0.0277012 2.29558 101 98 91 
