ply                 
format ascii 1.0    
element vertex 1246
property float x    
property float y    
property float z    
property uchar red  
property uchar green
property uchar blue 
end_header          
-0.872014 -0.601302 3.61661 52 0 0 
-0.875252 -0.59714 3.6034 175 159 133 
-0.903438 -0.593556 3.61401 216 107 146 
-0.614817 -0.599687 3.64748 132 43 27 
-0.761195 -0.592691 3.6294 100 123 103 
-0.901044 -0.588436 3.6193 81 9 33 
-0.884657 -0.587296 3.61735 127 107 106 
-0.534459 -0.590858 3.66149 64 19 0 
-0.536011 -0.584327 3.65969 162 115 97 
-1.18159 -0.548975 3.44624 217 122 152 
-0.538521 -0.576366 3.6653 64 15 1 
-0.84033 -0.568367 3.63038 110 129 107 
-0.759658 -0.568331 3.63863 67 96 78 
-0.519481 -0.571401 3.66916 151 105 89 
-1.05967 -0.560538 3.59147 108 24 39 
-0.792185 -0.550978 3.6146 132 120 94 
-0.692501 -0.546737 3.65217 76 101 80 
-0.67656 -0.544178 3.66152 121 133 97 
-0.512957 -0.513138 3.69281 5 33 11 
-0.674486 -0.504654 3.6768 0 17 0 
-0.51772 -0.500309 3.69425 2 40 15 
-0.512734 -0.498778 3.70018 97 134 116 
-0.469785 -0.496382 3.70363 82 110 88 
-0.675963 -0.491466 3.67681 89 107 93 
-0.660242 -0.487741 3.68213 143 157 132 
-2.76905 -0.736488 5.56121 178 148 112 
-1.04919 -0.462268 3.6337 72 0 24 
-0.645049 -0.46937 3.68974 130 146 117 
-2.74651 -0.706106 5.58026 201 160 128 
-0.587517 -0.459204 3.70191 134 43 25 
-0.339418 -0.444867 3.61325 131 104 77 
-0.892805 -0.4502 3.66852 219 113 151 
-0.851704 -0.447124 3.66955 159 119 127 
-0.862893 -0.445895 3.66695 196 176 169 
-0.338256 -0.435456 3.61441 125 95 71 
-0.688235 -0.442166 3.69459 47 81 54 
-0.300329 -0.431797 3.62273 111 80 59 
-0.99881 -0.437542 3.65278 20 5 0 
-0.58418 -0.442433 3.70889 46 15 0 
-1.00473 -0.434989 3.65127 70 54 41 
-0.276311 -0.429548 3.62444 120 93 74 
-1.02595 -0.432457 3.6499 34 22 0 
-0.979455 -0.433465 3.65552 192 172 163 
-0.67406 -0.436626 3.70446 0 10 0 
-0.574133 -0.437647 3.71308 40 11 0 
-0.501646 -0.439742 3.71745 137 162 123 
-0.286624 -0.425261 3.62724 122 94 73 
-0.965775 -0.42674 3.66013 50 0 2 
-0.605579 -0.428528 3.70889 144 107 89 
-0.536841 -0.425188 3.70605 50 16 0 
-0.452399 -0.418151 3.72711 37 87 52 
-0.665368 -0.41171 3.71153 153 123 113 
-0.65212 -0.406517 3.71097 162 124 103 
-0.438268 -0.406488 3.74082 35 74 43 
-0.341981 -0.39421 3.63287 226 191 171 
-0.428224 -0.403754 3.73724 55 60 37 
-0.333549 -0.391668 3.63034 255 225 204 
-0.662369 -0.399232 3.71457 157 128 120 
-0.313925 -0.389025 3.63249 255 226 204 
-0.722384 -0.391452 3.71128 132 146 123 
-0.680299 -0.392316 3.71401 142 112 102 
-0.433496 -0.390576 3.72903 169 150 120 
-0.305434 -0.380221 3.63942 108 76 53 
-3.08518 -0.582244 5.58113 222 192 156 
-2.22525 -0.584927 5.67963 131 98 63 
-2.83314 -0.579059 5.60816 206 173 138 
-0.737545 -0.379659 3.71144 116 134 92 
-0.245591 -0.371763 3.65098 237 210 181 
-0.98769 -0.367445 3.67633 137 121 105 
-0.55048 -0.370194 3.73436 55 23 0 
-0.655224 -0.364842 3.72585 33 6 0 
-0.568221 -0.363561 3.74075 53 18 0 
-0.499401 -0.356887 3.75156 176 130 106 
-0.49865 -0.352124 3.75263 38 2 0 
-0.560096 -0.345016 3.74588 217 176 148 
-3.18247 -0.503849 5.58645 196 162 127 
-0.705777 -0.331569 3.7311 161 123 104 
-0.697637 -0.316855 3.73657 41 4 0 
-0.603749 -0.318297 3.75518 201 160 140 
-0.687527 -0.316131 3.74006 202 148 122 
-3.10295 -0.473499 5.60214 126 96 72 
-0.374466 -0.302539 3.78182 200 181 200 
-0.444507 -0.29349 3.69879 113 104 97 
-3.1324 -0.439063 5.62334 214 179 139 
-0.33368 -0.290443 3.794 172 155 173 
-0.293578 -0.291868 3.79547 91 74 93 
-0.260731 -0.286964 3.80612 72 81 86 
-2.99915 -0.430812 5.68073 123 84 53 
-0.300286 -0.272378 3.80252 172 155 173 
-0.15529 -0.225753 3.64818 95 43 19 
-0.490389 -0.215468 3.72051 138 128 119 
-0.0990131 -0.209696 3.82578 51 36 5 
-3.13945 -0.299786 5.67949 209 179 143 
-0.562791 -0.185986 3.71967 126 119 109 
-3.06834 -0.289897 5.69366 162 128 80 
-0.973276 -0.183815 3.73593 24 0 0 
-0.579163 -0.18181 3.7199 129 114 107 
-0.564074 -0.155197 3.72996 59 48 42 
-0.288952 -0.148185 3.65567 147 45 23 
-0.301581 -0.139928 3.65198 135 39 15 
-0.769555 -0.121152 3.79556 240 95 134 
-0.33597 -0.111921 3.64852 143 53 26 
-0.888037 -0.103507 3.78788 159 58 50 
-0.637721 -0.0994591 3.74032 164 157 147 
-3.01781 -0.141251 5.76361 165 127 82 
-3.07516 -0.137622 5.74891 222 190 152 
-0.415726 -0.0473894 3.64267 71 20 0 
-3.30304 -0.0742626 5.74796 205 174 146 
-0.424138 -0.0407627 3.64568 196 146 113 
-0.461253 -0.03265 3.66126 195 150 119 
-0.46251 -0.0259804 3.65682 57 15 0 
-0.437707 -0.0265943 3.64272 182 131 104 
-2.70572 -0.0176053 5.86332 188 154 117 
-0.787886 -5.91351e-05 3.8373 142 92 85 
-0.782134 0.0224309 3.84946 156 76 77 
-0.776508 0.0580256 3.8496 132 4 5 
-2.80407 0.105179 5.88182 229 199 163 
-3.2083 0.125535 5.83309 228 195 162 
-3.36937 0.15087 5.81092 134 102 63 
-2.94353 0.185044 5.89176 214 176 129 
0.0973625 0.156817 3.77523 151 149 150 
0.440655 0.219105 3.83071 212 207 211 
-0.191825 0.226203 3.99089 231 209 196 
-0.25797 0.238049 3.9898 245 220 200 
-0.280365 0.246225 3.9878 233 215 201 
-0.161349 0.248131 3.99493 54 49 43 
-0.251508 0.250743 3.99306 177 149 135 
-0.280092 0.253303 3.98979 78 62 49 
-0.320752 0.254947 3.98217 74 58 35 
-0.285033 0.26662 3.99477 86 68 54 
-2.95892 0.392738 5.98525 129 91 55 
-3.39471 0.390171 5.88923 131 97 62 
-0.43045 0.277405 3.98138 106 71 49 
-0.291187 0.281764 3.99556 180 90 89 
-0.410169 0.290987 3.99157 136 107 89 
-3.11493 0.444607 5.98821 192 153 112 
-0.259669 0.316902 4.00791 89 107 109 
-0.344499 0.331941 4.01282 178 93 96 
-0.452863 0.34255 4.0015 75 42 23 
-0.375981 0.359636 4.01831 243 185 173 
-2.80976 0.588335 6.10176 175 148 121 
-2.8024 0.633057 6.09561 199 164 134 
-2.99794 0.684179 6.09726 209 176 135 
-3.13339 0.690664 6.09274 227 195 154 
-3.28847 0.693876 6.042 137 104 69 
-0.293722 0.603342 3.90579 223 222 227 
-2.8175 0.946718 6.22476 189 159 121 
-3.53 1.16708 6.22775 74 46 24 
-3.7398 1.33429 6.26359 148 120 98 
-3.31736 1.41493 6.36946 100 71 37 
-3.54195 1.43281 6.35129 214 180 142 
-3.13211 1.48436 6.41393 197 159 112 
-2.9961 1.60809 6.45825 145 107 62 
-3.39377 1.61693 6.40985 216 186 150 
-3.40736 1.6803 6.46492 215 177 140 
-3.24919 1.73942 6.48893 171 136 94 
-2.91865 1.76079 6.53477 134 98 62 
-3.27067 1.88405 6.56711 179 141 102 
-3.07979 1.89866 6.57437 224 187 143 
-3.47814 2.07747 6.60893 212 180 141 
-3.43395 2.07414 6.60041 207 178 146 
-3.48546 2.09243 6.60845 106 80 45 
-3.00471 2.13675 6.69212 241 206 164 
-3.39984 2.12451 6.63952 222 187 145 
-3.14193 2.20047 6.70701 222 193 151 
-3.19155 2.21289 6.69514 140 108 67 
-3.6883 2.2054 6.63141 74 44 20 
-3.39729 2.23013 6.68632 138 109 67 
-1.0918 -1.11873 3.26046 166 43 87 
-1.14566 -1.03012 3.28194 251 101 162 
-0.0690176 -1.05492 3.3994 222 85 141 
-1.98914 -1.64282 5.32046 154 122 83 
-1.99559 -1.6348 5.33916 197 159 123 
-1.99773 -1.62655 5.33498 141 103 66 
-2.8116 -1.55727 5.22153 147 114 81 
-0.0673333 -1.01263 3.41718 122 0 53 
-2.60085 -1.5056 5.274 207 163 124 
-2.63032 -1.48923 5.26559 221 187 149 
-2.81383 -1.47938 5.26362 214 184 150 
-2.60765 -1.48591 5.28303 227 185 143 
-0.460372 -0.938089 3.33185 92 92 84 
-0.447159 -0.938144 3.33739 102 101 96 
-0.46821 -0.935357 3.33409 144 143 139 
-2.65347 -1.4667 5.27483 209 179 143 
-1.17907 -0.904436 3.32276 245 96 164 
-1.17147 -0.887621 3.33233 123 15 64 
-0.2978 -0.93976 3.54956 220 111 91 
-2.35216 -1.40558 5.35206 139 104 74 
-2.51493 -1.39992 5.33733 219 181 144 
-2.5009 -1.39037 5.32788 205 167 130 
-0.288217 -0.924176 3.55736 84 134 131 
-2.01377 -1.39969 5.3946 205 172 127 
-0.257698 -0.917919 3.56839 0 32 41 
-2.79834 -1.35082 5.31436 140 107 76 
-2.62455 -1.35283 5.32728 208 178 140 
-0.307122 -0.903508 3.57069 91 110 106 
-1.09464 -0.873825 3.44771 149 50 71 
-0.180182 -0.901517 3.57705 44 15 11 
-2.32204 -1.34762 5.35323 217 185 147 
-2.12163 -1.35079 5.40192 136 92 65 
-2.78508 -1.32332 5.30978 145 110 80 
-0.471444 -0.843863 3.37317 92 91 89 
-0.202176 -0.891768 3.58751 153 97 96 
-0.293465 -0.887964 3.57699 5 30 34 
-0.469101 -0.836655 3.3751 228 227 223 
-1.12498 -0.844273 3.44536 157 63 89 
-0.207513 -0.877478 3.58956 61 0 0 
-2.73716 -1.29345 5.3181 187 152 120 
-0.253695 -0.865124 3.58993 97 133 131 
-0.227175 -0.864226 3.58935 42 8 0 
-1.01732 -0.841793 3.50465 150 37 65 
-0.282267 -0.861245 3.58949 0 41 41 
-2.61095 -1.28355 5.38581 131 95 63 
-1.03449 -0.839255 3.50853 159 60 81 
-2.92618 -1.26255 5.29657 153 109 64 
-0.234465 -0.854933 3.59258 149 102 94 
-0.535135 -0.796041 3.38769 82 81 77 
-0.3046 -0.835505 3.59796 0 33 35 
-2.81887 -1.23507 5.35649 199 164 132 
-0.717391 -0.820553 3.54747 18 52 15 
-0.977355 -0.810823 3.52021 49 2 8 
-2.28417 -1.23996 5.438 208 169 128 
-0.284105 -0.819088 3.60362 10 31 36 
-2.801 -1.207 5.36488 112 81 53 
-0.30047 -0.809749 3.60788 4 28 30 
-0.803494 -0.787411 3.53636 17 22 16 
-0.326045 -0.801984 3.61034 95 125 133 
-0.748567 -0.785966 3.55367 28 38 27 
-0.291676 -0.795493 3.61245 2 40 43 
-0.193944 -0.79525 3.61282 115 106 99 
-0.779905 -0.778153 3.53139 226 228 217 
-0.761222 -0.777918 3.53478 225 238 218 
-0.156024 -0.793817 3.62118 44 0 0 
-0.197428 -0.784691 3.62187 35 19 6 
-1.05714 -0.762344 3.52289 226 121 154 
-2.29808 -1.17101 5.4558 231 196 158 
-0.804039 -0.763029 3.54157 221 224 203 
-0.263284 -0.777313 3.6197 199 168 111 
-2.13863 -1.16958 5.48794 194 155 114 
-1.01665 -0.758789 3.54178 147 35 57 
-0.825631 -0.758571 3.54596 23 5 0 
-0.225702 -0.771513 3.62664 63 0 0 
-0.266183 -0.767389 3.62991 189 138 81 
-0.252838 -0.766545 3.62555 199 154 123 
-2.33143 -1.15507 5.46421 144 110 73 
-1.00768 -0.750377 3.53815 151 32 62 
-2.08732 -1.13686 5.51099 137 103 75 
-2.9658 -1.10806 5.38449 227 195 154 
-2.09084 -1.12162 5.51008 175 140 118 
-0.71183 -0.726276 3.58502 186 136 113 
-0.629344 -0.72707 3.60015 121 35 20 
-1.03494 -0.710355 3.54424 143 33 58 
-0.559868 -0.71264 3.6097 69 22 2 
-0.551908 -0.685437 3.62001 82 35 17 
-0.834548 -0.680676 3.60689 9 49 22 
-2.08747 -1.03927 5.54694 128 94 59 
-0.797101 -0.665533 3.58654 59 93 66 
-0.798797 -0.664669 3.5965 99 118 98 
-0.640904 -0.667157 3.61734 185 118 91 
-0.821425 -0.660998 3.5966 95 114 95 
-0.770418 -0.650198 3.60559 93 126 99 
-0.739203 -0.650265 3.61649 89 129 103 
-0.609069 -0.651305 3.62776 224 160 116 
-0.813046 -0.640563 3.60759 103 135 112 
-0.774879 -0.640705 3.61146 7 36 14 
-0.588712 -0.641903 3.63138 226 164 127 
-0.537197 -0.641356 3.6311 64 11 0 
-0.826977 -0.628105 3.61335 103 134 100 
-0.599992 -0.627914 3.64107 213 139 114 
-0.594094 -0.62154 3.64299 132 47 27 
-0.883736 -0.612437 3.60498 45 0 4 
-1.04344 -0.602857 3.56993 53 0 1 
-0.795939 -0.611847 3.62247 96 131 101 
-0.53963 -0.614872 3.64864 163 126 110 
-0.869888 -0.599728 3.61109 53 0 3 
-0.748757 -0.59782 3.62917 173 137 105 
-0.883679 -0.593374 3.61396 24 14 2 
-1.11799 -0.578381 3.52219 162 84 110 
-0.522929 -0.592022 3.65957 213 169 132 
-0.879858 -0.582694 3.61443 51 0 4 
-0.835939 -0.580224 3.62808 61 4 0 
-2.80106 -0.871942 5.47663 219 180 141 
-0.770334 -0.578817 3.63415 92 126 101 
-2.80164 -0.872194 5.48 210 173 131 
-0.777582 -0.56803 3.64644 0 28 6 
-2.47019 -0.863966 5.55453 137 111 84 
-0.516673 -0.56606 3.67679 113 68 49 
-0.843017 -0.553854 3.615 73 21 0 
-2.4537 -0.837119 5.54925 242 218 184 
-0.686843 -0.54894 3.65573 4 30 5 
-3.07906 -0.815235 5.49584 233 195 148 
-3.11949 -0.806218 5.5053 246 211 179 
-0.453816 -0.53539 3.67189 37 14 0 
-0.897482 -0.530256 3.64181 197 35 95 
-0.454314 -0.534751 3.67647 40 17 1 
-0.684077 -0.522312 3.66354 155 120 98 
-0.527086 -0.524135 3.68679 162 115 99 
-0.11695 -0.520246 3.7123 112 82 80 
-0.667977 -0.514461 3.66972 15 13 0 
-2.73417 -0.772331 5.5197 214 180 142 
-0.512799 -0.512918 3.69551 0 26 7 
-0.67709 -0.491044 3.67994 90 108 96 
-0.497622 -0.482555 3.69511 19 61 37 
-0.482918 -0.483017 3.70426 13 35 22 
-3.08174 -0.716092 5.49597 221 188 155 
-0.478843 -0.478055 3.71276 103 134 119 
-2.74866 -0.705893 5.58468 201 161 126 
-2.96796 -0.700543 5.55298 207 172 130 
-0.634618 -0.460321 3.69661 177 115 94 
-0.892247 -0.450831 3.66326 219 113 151 
-0.314645 -0.441883 3.61408 129 101 77 
-2.75372 -0.68351 5.59723 218 178 143 
-0.515195 -0.445391 3.71827 138 162 112 
-0.493906 -0.442665 3.7188 39 82 52 
-0.860497 -0.436115 3.67977 37 0 0 
-0.485056 -0.436658 3.72104 42 96 62 
-0.477646 -0.433849 3.72646 6 56 18 
-0.966331 -0.426424 3.66174 50 0 2 
-0.678591 -0.430776 3.70213 131 146 117 
-0.505676 -0.432998 3.71688 32 28 3 
-0.461905 -0.431 3.7265 41 97 58 
-0.959952 -0.419334 3.66742 125 105 98 
-0.691929 -0.420616 3.70018 128 147 117 
-0.668432 -0.423871 3.70145 102 82 71 
-0.514915 -0.422425 3.7179 61 23 2 
-0.481912 -0.420946 3.72798 36 39 12 
-2.82995 -0.633385 5.59323 132 94 57 
-2.95452 -0.627186 5.59146 200 165 127 
-0.983506 -0.406681 3.66728 146 137 122 
-0.651942 -0.406464 3.71192 167 125 101 
-0.476582 -0.409183 3.72822 179 153 128 
-0.432008 -0.410286 3.73376 5 37 13 
-2.76732 -0.604882 5.6104 200 167 134 
-2.82273 -0.598099 5.62257 120 86 51 
-0.999076 -0.389156 3.66762 184 165 150 
-2.92832 -0.591743 5.59247 213 171 131 
-2.60875 -0.58726 5.64109 195 165 131 
-0.245827 -0.371606 3.6514 237 210 181 
-0.232072 -0.367008 3.65553 242 209 192 
-0.72772 -0.372811 3.71394 209 153 120 
-0.682666 -0.364392 3.72385 141 116 111 
-0.568055 -0.364479 3.73454 51 17 0 
-0.883157 -0.360473 3.68953 236 147 153 
-0.555096 -0.358299 3.7401 47 16 0 
-0.655648 -0.357099 3.73321 140 113 102 
-0.545149 -0.355901 3.74331 58 26 3 
-0.555392 -0.353953 3.74461 57 22 0 
-2.95567 -0.527875 5.62273 213 174 133 
-0.997824 -0.336474 3.69242 18 10 0 
-0.571235 -0.328891 3.75115 194 146 110 
-0.802736 -0.317172 3.64486 153 131 118 
-2.60301 -0.47705 5.68316 121 91 65 
-0.710288 -0.30722 3.74519 55 0 0 
-0.113794 -0.303874 3.80046 33 2 0 
-2.61011 -0.460976 5.6747 187 158 124 
-0.101336 -0.268032 3.80794 78 102 89 
-3.18043 -0.398827 5.64474 140 104 78 
-3.15096 -0.394138 5.62747 221 188 155 
-3.19231 -0.387088 5.63365 187 157 121 
-0.960018 -0.227427 3.72418 69 0 0 
-0.346442 -0.224053 3.73341 246 178 113 
-3.18369 -0.34237 5.66439 205 169 133 
-3.24337 -0.31962 5.65221 123 90 59 
-2.57944 -0.319228 5.76254 217 187 149 
-2.51934 -0.318942 5.74903 114 79 47 
-0.0715983 -0.202878 3.8114 11 40 20 
-2.77093 -0.315234 5.72272 124 88 52 
-0.0722566 -0.203012 3.80979 18 45 28 
-3.23477 -0.291403 5.67285 204 172 134 
-3.06398 -0.290869 5.6832 169 135 90 
-2.79874 -0.278915 5.72473 212 179 136 
-2.94996 -0.275397 5.71913 204 168 132 
-0.0434276 -0.175288 3.79873 0 29 3 
-2.98816 -0.264618 5.707 228 195 154 
-0.0629435 -0.170577 3.82315 86 104 88 
-0.555682 -0.163269 3.72552 111 102 97 
-3.09805 -0.21143 5.70994 141 101 66 
-3.19477 -0.195291 5.736 207 176 147 
-0.853686 -0.115299 3.79113 211 111 139 
-0.771195 -0.115075 3.79888 121 0 0 
-0.811787 -0.108581 3.79987 228 88 133 
-0.375141 -0.105216 3.66452 219 100 94 
-2.85482 -0.169938 5.767 208 170 133 
-2.76804 -0.171307 5.78568 184 154 130 
-0.888163 -0.103716 3.79213 172 68 57 
-0.419943 -0.0872561 3.6764 156 36 22 
-2.80065 -0.133827 5.79521 212 173 134 
-0.400926 -0.0660613 3.64798 214 113 93 
-3.28064 -0.111238 5.75807 196 164 126 
-0.395578 -0.0617504 3.64474 159 49 34 
-3.22971 -0.0980226 5.73901 212 176 140 
-0.810411 -0.015532 3.82916 173 103 113 
-2.75362 -0.021615 5.85128 224 190 145 
-2.69858 -0.0159782 5.85678 193 159 122 
-0.787167 -0.000483683 3.83642 145 91 81 
-2.77013 -0.00456968 5.86771 133 103 65 
-3.26014 0.0132662 5.79884 198 165 132 
-2.96815 0.0262261 5.83355 210 176 139 
-3.30052 0.0339105 5.79477 186 147 108 
-2.936 0.0475197 5.84587 213 171 121 
-3.25255 0.0503606 5.83615 107 75 54 
-0.776602 0.0584296 3.85118 132 4 5 
-2.77081 0.0844306 5.89911 225 193 155 
-2.71852 0.0893646 5.8925 138 95 53 
-3.34677 0.0978113 5.79093 210 171 132 
0.129869 0.073136 3.77265 160 158 161 
-2.80578 0.106695 5.88478 232 202 166 
-3.17476 0.114264 5.82512 111 77 49 
-3.14769 0.124265 5.84138 200 166 138 
-2.7442 0.135673 5.90411 145 107 70 
-3.38532 0.14377 5.80803 184 151 108 
-3.13828 0.152095 5.8486 149 115 78 
-3.36893 0.150689 5.80967 134 102 63 
-2.72304 0.154761 5.92272 110 76 41 
-0.909964 0.115785 3.82579 77 0 0 
-3.26524 0.165344 5.82453 194 161 126 
-2.94275 0.184825 5.89162 219 181 134 
-3.0934 0.198363 5.85145 210 180 146 
-2.46873 0.205761 5.98956 175 145 109 
-3.23237 0.202784 5.84138 120 85 63 
-3.3485 0.217478 5.84861 197 165 124 
-3.12508 0.220025 5.86948 201 164 112 
-0.535591 0.151114 3.80436 181 31 42 
-3.33469 0.21975 5.80428 133 102 58 
0.0973938 0.155225 3.77027 152 150 151 
-3.21398 0.234829 5.84362 196 160 126 
-0.512872 0.163626 3.79394 197 74 76 
0.103124 0.174941 3.78105 143 142 147 
0.420362 0.187683 3.82713 139 134 138 
0.435035 0.187464 3.82231 108 103 107 
0.412138 0.193476 3.82265 115 109 113 
0.0287069 0.195357 3.77533 55 50 56 
-0.959851 0.19384 3.74694 215 94 85 
-3.0964 0.298636 5.89483 169 133 97 
-3.30102 0.303503 5.8696 201 167 129 
-2.94576 0.309126 5.95968 208 170 123 
-3.44445 0.312754 5.85532 176 145 117 
0.450203 0.217805 3.83985 141 138 145 
-3.13158 0.321055 5.9085 148 113 81 
-3.06194 0.3188 5.92738 219 181 136 
-3.24371 0.327215 5.87567 200 170 132 
-0.257875 0.23708 3.98688 245 220 200 
-2.77286 0.363698 6.01775 220 188 141 
-2.45618 0.373632 6.05645 186 153 118 
-0.208804 0.257197 3.99315 218 191 180 
-0.268345 0.25676 3.98824 100 70 60 
-2.54942 0.39645 6.05913 113 77 41 
-0.165058 0.268232 4.00426 204 185 171 
-3.27806 0.389531 5.90172 143 113 77 
-2.9706 0.39479 6.00653 129 91 55 
-2.83512 0.392815 5.99442 115 81 44 
-3.38596 0.386396 5.87215 134 100 65 
-2.68322 0.404984 6.04531 187 155 117 
-0.398678 0.2834 3.98154 235 207 185 
-0.291922 0.284526 3.9967 185 91 91 
-3.15467 0.428191 5.96458 209 178 147 
-3.19849 0.507119 6.98014 204 170 132 
-0.304679 0.301006 4.00657 255 191 185 
-3.43944 0.436362 5.91536 90 63 36 
-0.386336 0.303606 3.99439 117 87 76 
-2.78285 0.453374 6.03611 116 87 55 
-2.84296 0.456012 6.02301 139 100 67 
-0.322014 0.316133 4.01137 252 199 185 
-3.30499 0.45393 5.95531 116 82 47 
-0.247517 0.320426 4.01988 82 93 87 
-3.27047 0.461016 5.9805 206 173 138 
-2.98803 0.465466 6.01653 133 94 65 
-3.20413 0.472703 5.99143 211 178 145 
-0.320078 0.334435 4.01298 113 63 52 
-3.02284 0.519814 6.02974 130 91 50 
-0.4109 0.360997 4.02174 156 124 103 
-3.46022 0.519921 5.9547 171 139 100 
-0.496244 0.363797 3.80233 175 173 178 
-2.79526 0.575398 6.0865 130 101 61 
-0.222513 0.412083 4.05528 120 88 65 
-2.80533 0.634875 6.10232 199 164 134 
-3.38028 0.650487 6.03006 98 71 42 
-3.00854 0.820421 6.14696 198 163 135 
-2.60298 0.865637 6.23685 195 160 130 
-2.78863 0.906851 6.22352 178 145 112 
-3.10857 0.922323 6.2154 133 98 56 
-3.0751 0.924798 6.18782 206 174 135 
-2.07195 0.98823 6.35738 181 146 114 
-3.2213 0.994166 6.17563 214 183 152 
-2.4796 1.03832 6.30767 118 77 45 
-2.81619 1.10059 6.29237 91 64 35 
-2.59932 1.18182 6.35995 101 67 32 
-2.42924 1.18665 6.39062 92 56 22 
-2.32941 1.18853 6.38439 84 53 32 
-3.53461 1.17023 6.23695 73 46 25 
-2.41665 1.21086 6.38673 173 140 105 
-2.46498 1.23463 6.38861 195 160 122 
-2.4174 1.24115 6.39688 194 162 123 
-3.39598 1.22719 6.29965 137 102 64 
-3.6904 1.26555 6.24035 121 95 72 
-3.44659 1.30605 6.30029 193 158 118 
-3.01665 1.33403 6.36516 146 109 67 
-2.96308 1.33524 6.3767 218 179 136 
-2.76159 1.37097 6.43591 184 155 115 
-2.80539 1.37758 6.41479 144 114 80 
-3.45149 1.38554 6.33221 133 99 72 
-3.15679 1.40392 6.34377 235 201 153 
-3.54335 1.4379 6.35679 219 184 144 
-3.44486 1.44026 6.34949 124 89 59 
-3.20582 1.44397 6.36274 213 180 137 
-3.21092 1.45579 6.39128 190 157 114 
-3.3856 1.46853 6.35759 213 179 142 
-3.14403 1.50607 6.41593 232 190 148 
0.326734 1.03803 4.34004 65 59 47 
-2.86034 1.54894 6.47376 183 149 121 
-3.07596 1.55414 6.42017 137 99 52 
0.527858 1.10856 4.39311 151 113 92 
-3.34029 1.60601 6.43063 197 163 126 
-3.39648 1.61896 6.4145 220 190 154 
0.616992 1.13816 4.40828 102 57 36 
-1.58966 1.71414 6.71593 151 116 86 
-3.40809 1.68098 6.4666 215 177 140 
-2.93738 1.69742 6.52325 194 155 112 
-3.26903 1.73609 6.48219 224 194 156 
-3.24921 1.73963 6.48959 171 136 94 
-3.72246 1.73448 6.41439 152 125 98 
-3.57836 1.75175 6.46162 185 151 114 
-3.55281 1.77606 6.46434 191 155 123 
-3.20575 1.79374 6.52125 239 204 162 
-3.21363 1.80276 6.52134 187 152 114 
-1.61445 1.88207 6.77961 100 70 44 
-3.51018 1.80254 6.47753 220 185 147 
-2.96525 1.87226 6.60126 134 98 64 
-3.02681 1.87769 6.57945 167 120 76 
-3.06384 1.91177 6.58561 145 103 61 
-3.70857 1.886 6.49297 151 126 96 
-3.06665 1.96601 6.61884 146 104 62 
-3.18193 1.96591 6.61134 103 65 28 
-1.58808 2.06555 6.85715 176 141 103 
-3.50901 2.03295 6.58104 192 161 130 
-1.63687 2.12986 6.88306 107 73 48 
-3.49449 2.04347 6.58858 144 109 79 
-3.0095 2.05837 6.64313 216 179 135 
-3.49119 2.08625 6.5908 169 136 101 
-3.41866 2.10753 6.62116 210 180 146 
-3.40151 2.13284 6.65428 213 178 138 
-3.39281 2.16379 6.64486 220 188 150 
-3.14307 2.18704 6.69782 230 197 156 
-3.42708 2.16169 6.62512 226 196 162 
-3.12015 2.20129 6.72767 213 179 134 
-3.13421 2.19236 6.69069 226 194 153 
-3.46947 2.23897 6.65454 113 86 59 
-3.51974 2.26219 6.67455 167 132 102 
-3.7571 2.30765 6.66123 77 51 24 
-3.78587 2.31494 6.65058 68 44 18 
-1.11137 -1.083 3.26883 225 98 151 
-0.0676997 -1.0535 3.39633 223 86 142 
-2.00817 -1.61872 5.31601 203 164 123 
-0.0604364 -1.0017 3.41943 235 102 157 
-2.33961 -1.52014 5.31443 109 79 45 
-2.53811 -1.48402 5.28426 216 184 145 
-2.46046 -1.47722 5.28559 232 191 145 
-0.416246 -0.928622 3.33977 234 229 223 
-0.249185 -0.983494 3.56358 242 101 144 
-0.760417 -0.958119 3.46026 17 8 13 
-0.42294 -0.913398 3.33668 113 112 107 
-1.17948 -0.904402 3.3239 245 96 164 
-0.0243136 -0.910036 3.45744 133 38 68 
-2.36397 -1.39758 5.34981 214 176 137 
-0.0530845 -0.902359 3.45689 235 113 152 
-0.748073 -0.904573 3.50957 85 0 0 
-0.280438 -0.908646 3.57072 12 33 34 
-0.303617 -0.902117 3.56947 84 111 106 
-2.1221 -1.35366 5.39806 140 96 67 
-0.965635 -0.865642 3.483 41 2 7 
-0.293926 -0.887827 3.57475 8 29 32 
-0.262921 -0.883186 3.57862 6 29 35 
-0.489879 -0.829576 3.37256 229 229 221 
-0.658937 -0.863805 3.55052 110 65 34 
-0.254011 -0.865083 3.58693 88 130 126 
-0.189549 -0.87147 3.60242 44 17 6 
-1.02441 -0.836266 3.4988 253 202 149 
-0.26671 -0.85368 3.60448 106 132 133 
-0.20804 -0.843763 3.61195 78 20 16 
-0.243922 -0.839574 3.60256 196 148 126 
-2.28185 -1.2395 5.43145 211 172 129 
-2.49933 -1.22643 5.3774 208 174 139 
-0.967585 -0.803757 3.53627 34 5 10 
-0.314711 -0.812448 3.60587 189 80 83 
-0.300501 -0.809845 3.60496 20 24 27 
-0.744843 -0.785928 3.54297 21 31 22 
-0.850184 -0.777069 3.52078 93 127 103 
-0.323959 -0.79549 3.61355 48 26 29 
-0.287942 -0.794678 3.6148 14 35 40 
-0.700355 -0.775689 3.5404 224 231 215 
-1.02919 -0.767219 3.52997 158 39 81 
-0.721926 -0.774597 3.55549 245 243 230 
-0.210546 -0.77942 3.62968 50 14 0 
-0.641169 -0.763977 3.55742 238 237 217 
-0.979015 -0.757219 3.5368 229 107 128 
-0.824583 -0.758132 3.55158 31 18 1 
-2.08859 -1.13712 5.51539 137 102 74 
-0.266049 -0.732339 3.61807 199 141 119 
-1.0384 -0.711363 3.54589 145 32 60 
-0.730432 -0.711579 3.58943 136 159 113 
-1.99952 -1.07813 5.52681 170 136 99 
-1.16393 -0.668762 3.41039 232 104 152 
-0.992313 -0.690696 3.54814 42 0 1 
-1.15029 -0.646214 3.43827 176 69 95 
-2.42388 -1.02371 5.48204 120 80 44 
-2.10097 -1.00985 5.55595 184 152 114 
-0.843831 -0.646209 3.6074 108 127 108 
-2.17235 -0.981872 5.55704 179 147 109 
-0.53716 -0.637259 3.642 75 23 0 
-0.457666 -0.631834 3.64468 96 129 110 
-2.78884 -0.933392 5.47438 172 138 111 
-1.04388 -0.601028 3.56812 51 8 17 
-0.55554 -0.60434 3.64709 240 182 145 
-0.882927 -0.581034 3.61629 63 0 13 
-0.63424 -0.534162 3.66565 145 42 33 
-0.597108 -0.530938 3.67845 193 103 94 
-0.446002 -0.527638 3.68143 172 164 153 
-0.668263 -0.513448 3.68028 22 11 0 
-0.565264 -0.511742 3.6853 192 93 87 
-0.786377 -0.496054 3.60593 248 246 233 
-2.98618 -0.743625 5.53037 209 175 130 
-0.935879 -0.476672 3.65189 54 0 13 
-2.77513 -0.714388 5.5649 191 155 119 
-0.55861 -0.462409 3.71411 137 161 111 
-0.530561 -0.46316 3.70584 124 161 117 
-0.635556 -0.459181 3.70443 173 111 88 
-0.513624 -0.455613 3.70621 125 161 115 
-0.344951 -0.434908 3.6157 241 217 193 
-2.88974 -0.671138 5.58198 132 92 56 
-2.93957 -0.630696 5.54622 219 181 144 
-0.431822 -0.410274 3.73431 5 37 13 
-0.686774 -0.39806 3.7074 114 94 85 
-2.77018 -0.604541 5.61704 201 168 135 
-0.55886 -0.39328 3.71263 71 38 21 
-1.00569 -0.383618 3.67396 29 12 0 
-3.13224 -0.573976 5.55583 201 168 133 
-0.668832 -0.372402 3.72172 26 2 0 
-0.759709 -0.361394 3.7146 44 0 0 
-0.544352 -0.365727 3.7299 203 172 141 
-3.01216 -0.542992 5.56603 226 191 149 
-2.86909 -0.540164 5.64366 210 171 128 
-0.68084 -0.354027 3.72824 139 114 107 
-2.29931 -0.542074 5.70668 130 100 64 
-0.994948 -0.337364 3.69185 21 12 3 
-3.03427 -0.507804 5.62134 132 100 59 
-2.70907 -0.506752 5.66216 211 176 144 
-2.88727 -0.485334 5.63231 208 174 136 
-2.77024 -0.474348 5.67334 203 173 145 
-0.709431 -0.308289 3.73964 57 1 0 
-2.86276 -0.460115 5.66508 213 180 139 
-2.60866 -0.461259 5.67105 187 158 124 
-2.56034 -0.425186 5.69809 198 165 120 
-3.0996 -0.416819 5.64986 134 99 69 
-3.17253 -0.397637 5.6345 141 105 79 
-3.15884 -0.392718 5.64348 221 188 153 
-2.70205 -0.36934 5.70561 193 160 119 
-2.54765 -0.36885 5.73914 202 167 137 
-0.0906347 -0.236206 3.8166 13 21 6 
-0.831538 -0.223779 3.69118 244 185 215 
-0.096653 -0.227107 3.81704 75 105 81 
-0.0813883 -0.213936 3.8116 5 16 2 
-2.77203 -0.31496 5.72485 124 88 52 
-3.24475 -0.303367 5.65647 192 162 126 
-0.0576202 -0.188006 3.80524 0 16 5 
-0.955499 -0.180419 3.73828 61 0 0 
-3.07874 -0.277236 5.68935 219 187 148 
-0.058661 -0.172685 3.81764 72 100 77 
-0.316898 -0.160029 3.67491 166 44 41 
-0.293477 -0.153526 3.65618 163 34 29 
-0.293082 -0.130025 3.63866 112 49 8 
-0.324444 -0.1259 3.65291 162 43 35 
-0.72378 -0.115381 3.80524 148 21 50 
-2.85564 -0.172982 5.77116 206 166 130 
-2.79825 -0.156051 5.78777 201 164 122 
-3.00433 -0.153773 5.74792 220 183 141 
-3.11753 -0.141699 5.75229 142 108 73 
-2.76198 -0.13501 5.79821 125 95 61 
-0.783339 -0.0829845 3.80876 44 0 0 
-2.7775 -0.12995 5.80269 202 168 130 
-3.06859 -0.0453745 5.82641 153 115 79 
-2.88868 -0.0198089 5.84671 136 102 67 
-2.60097 0.0137529 5.87324 130 101 71 
-2.83714 0.0532333 5.85922 190 155 117 
-3.23671 0.142228 5.82665 120 90 56 
-3.13665 0.153519 5.84618 141 107 70 
2.82287 0.146109 4.63634 80 74 74 
-3.01102 0.175168 5.87806 136 104 66 
-3.16356 0.18568 5.84541 132 97 57 
-3.34191 0.215098 5.83804 198 166 125 
-0.00184751 0.152851 3.77806 104 102 105 
-2.95739 0.237937 5.92594 120 86 48 
-0.536455 0.157322 3.82496 197 36 41 
-2.57243 0.242889 5.98373 193 160 125 
-0.510175 0.162214 3.78327 197 63 64 
-3.10653 0.251474 5.87842 237 203 165 
-3.03604 0.265086 5.90544 213 178 136 
-2.75001 0.273115 5.96879 154 116 77 
-2.61722 0.271477 5.99352 205 173 135 
-3.16311 0.285182 5.88199 214 176 139 
-3.28367 0.28844 5.8594 111 79 56 
-3.37609 0.3036 5.85035 142 110 72 
-2.90404 0.308602 5.9713 104 74 38 
0.374882 0.209305 3.82843 155 153 154 
-3.26596 0.322286 5.88061 198 164 129 
-3.13509 0.322783 5.9174 147 114 79 
-2.99926 0.327379 5.92434 142 103 62 
-2.94632 0.3371 5.95613 212 171 127 
0.444315 0.22614 3.83796 151 149 154 
-3.17541 0.338243 5.89031 223 195 155 
-3.17129 0.385099 5.94204 138 103 65 
-3.37211 0.384368 5.89173 221 184 140 
-3.38337 0.385178 5.86629 129 95 60 
-3.12503 0.400895 5.96111 230 200 164 
-3.49138 0.411088 5.91127 94 70 46 
-0.306189 0.296753 3.99743 246 209 200 
-2.79072 0.455477 6.05347 114 85 53 
-0.350861 0.315912 4.0033 243 203 193 
-3.46119 0.479198 5.94161 165 133 92 
-3.40358 0.487921 5.95202 173 142 113 
-2.96151 0.510161 6.03072 213 172 126 
-2.91627 0.511267 6.04994 132 98 61 
-3.40478 0.510198 5.9762 123 88 58 
-3.02187 0.519308 6.02778 130 91 50 
-1.94582 0.530153 6.15338 187 144 109 
-3.13944 0.54166 6.02814 236 204 165 
-3.24413 0.560481 6.04335 226 197 157 
-2.77787 0.587889 6.0857 209 177 139 
-3.3837 0.594743 6.03155 214 181 146 
-2.96572 0.616277 6.09115 204 165 122 
-3.46523 0.675477 6.02849 111 85 60 
0.729428 0.453007 3.61971 20 13 7 
-3.3602 0.806304 6.09293 151 121 97 
-3.32291 0.84025 6.12433 160 136 98 
-2.69995 0.859738 6.2038 177 145 106 
-3.21705 0.876367 6.14133 107 74 39 
-2.79853 0.88576 6.19517 110 80 52 
-2.47394 0.89623 6.2572 116 76 51 
-3.35881 0.896464 6.13501 174 144 110 
-2.52542 0.909628 6.23954 166 133 98 
-3.05941 0.955927 6.19972 196 161 123 
-2.97708 0.964975 6.2113 194 152 110 
-3.43098 0.972611 6.11918 127 99 77 
-3.43033 0.972188 6.11783 125 97 76 
-2.37563 1.02687 6.32747 148 113 71 
-2.71179 1.01512 6.27289 186 151 119 
-2.96606 1.02317 6.24067 182 143 110 
-2.83453 1.0639 6.32919 78 53 22 
-2.26546 1.08995 6.3819 108 75 40 
-2.23421 1.122 6.39594 174 139 107 
-2.32822 1.18753 6.38177 84 53 32 
-3.71698 1.28199 6.25205 60 32 18 
-3.40055 1.28565 6.29007 215 179 127 
-3.44631 1.29159 6.26849 96 61 39 
-3.50395 1.30598 6.27212 189 155 110 
-3.43323 1.31065 6.29358 208 169 128 
-3.5834 1.3427 6.29433 79 53 30 
-2.83895 1.38259 6.42126 104 78 43 
-3.36852 1.373 6.33661 120 87 54 
-3.5873 1.41526 6.32855 80 52 38 
-3.4219 1.43429 6.36587 212 178 133 
-3.27143 1.44752 6.43197 204 171 138 
-3.21258 1.45043 6.3803 217 183 138 
0.562318 1.01948 4.36504 84 62 51 
-3.33886 1.46239 6.37268 206 172 135 
-3.45037 1.4688 6.36482 219 183 135 
-3.65961 1.48307 6.3345 144 120 94 
0.618772 1.14046 4.4133 97 56 36 
-3.21266 1.73337 6.47589 225 187 142 
0.695119 1.2144 4.44362 68 48 23 
-1.5914 1.82877 6.76698 158 123 93 
0.800623 1.23952 4.47954 44 33 27 
-3.15661 1.79482 6.52894 116 77 36 
-3.51098 1.80335 6.47945 220 185 147 
-1.53773 1.90376 6.77875 155 116 77 
-3.23367 1.86985 6.55439 125 95 61 
-3.02681 1.87769 6.57945 167 120 76 
-3.29893 1.91972 6.57338 237 211 174 
-1.63862 2.02798 6.82968 161 128 95 
-3.47242 2.06715 6.59272 221 188 145 
-3.52023 2.14988 6.61562 168 133 95 
-1.60668 2.27483 6.96186 183 140 105 
-3.15984 2.20604 6.73714 228 196 155 
-3.57755 2.19037 6.63476 151 123 99 
-3.4686 2.23782 6.65206 113 86 59 
-3.51856 2.26408 6.66628 172 133 100 
-1.16729 -1.00256 3.30581 195 60 116 
-0.05506 -0.943888 3.43678 226 92 145 
-0.952877 -0.938366 3.47864 242 90 129 
-0.294268 -0.943991 3.57093 195 72 56 
-1.17845 -0.877988 3.32915 236 90 152 
-0.283127 -0.92072 3.56002 76 134 136 
-0.748291 -0.904617 3.51253 94 0 2 
-0.494967 -0.815223 3.37767 101 97 98 
-0.275007 -0.859843 3.58766 23 47 51 
-1.03699 -0.835252 3.49656 164 42 89 
-0.243657 -0.839454 3.60897 203 149 125 
-0.23642 -0.818334 3.61077 212 145 118 
-0.771579 -0.777417 3.53799 93 133 98 
-0.285452 -0.794458 3.61893 23 41 43 
-0.191559 -0.790375 3.62091 130 119 99 
-0.641414 -0.763816 3.56254 237 230 212 
-2.67268 -1.10783 5.40536 203 165 126 
-2.08213 -1.13339 5.5639 210 172 135 
-0.820692 -0.703011 3.58234 41 112 70 
-0.787246 -0.687884 3.59489 3 55 19 
-0.565072 -0.684784 3.61395 60 19 1 
-0.608936 -0.678652 3.61313 205 172 127 
-0.886755 -0.602617 3.60874 196 187 144 
-0.859963 -0.586814 3.6249 60 8 20 
-0.125867 -0.529542 3.66619 129 84 81 
-0.597932 -0.529214 3.68239 247 157 148 
-0.801846 -0.499104 3.60152 248 246 233 
-1.17149 -0.463687 3.46298 37 27 25 
-1.15248 -0.41393 3.51021 245 78 124 
-0.529611 -0.421893 3.7266 160 108 87 
-0.944879 -0.397925 3.67326 175 152 118 
-0.686906 -0.39762 3.71073 146 123 115 
-0.5842 -0.391974 3.73308 66 37 21 
-2.99191 -0.542588 5.6172 124 90 55 
-3.05014 -0.517662 5.59083 232 198 150 
-0.708623 -0.310168 3.73154 60 8 0 
-2.95519 -0.43204 5.69368 137 101 69 
-3.11966 -0.403353 5.65367 232 193 154 
-2.58943 -0.34521 5.72112 205 172 137 
-0.293154 -0.153039 3.65875 170 40 38 
-3.09406 -0.225367 5.70217 127 96 68 
-0.0490142 -0.137557 3.81239 18 7 5 
-0.736094 -0.121828 3.80074 100 0 5 
-0.382016 -0.110816 3.68044 162 27 34 
-0.71462 -0.112796 3.80903 216 74 122 
-0.799385 -0.105585 3.79486 64 0 0 
-0.749314 -0.09206 3.80333 56 0 0 
-3.07964 -0.141136 5.74014 225 193 154 
-3.2125 -0.082644 5.79367 202 172 136 
-0.0527274 -0.0397241 3.83739 0 17 26 
-3.16041 -0.067759 5.8076 161 127 90 
-2.88526 -0.0209341 5.84135 135 101 66 
-0.782178 0.00457795 3.82874 44 0 0 
-3.26232 0.0117793 5.80967 205 175 141 
-2.88249 0.063981 5.84927 114 79 37 
-2.65357 0.134173 5.90841 210 167 122 
-2.61932 0.153808 5.93333 197 167 131 
-2.84348 0.15604 5.90784 123 85 49 
-3.0796 0.18613 5.88844 121 86 56 
-2.565 0.242748 5.97166 194 161 126 
-0.955439 0.163106 3.74453 193 43 29 
-3.09816 0.301627 5.90995 175 137 100 
-0.965051 0.202219 3.75784 200 87 83 
-3.1385 0.407364 5.98935 228 198 162 
-2.68599 0.443027 6.06078 194 157 113 
-2.66436 0.438213 6.05428 104 74 40 
-3.04334 0.470869 6.00098 213 173 121 
-3.46479 0.480888 5.94881 162 130 89 
-2.90095 0.50324 6.01943 126 92 57 
-2.73557 0.521117 6.08595 125 94 63 
-3.47264 0.515251 5.9679 175 143 102 
-0.218494 0.384742 4.03754 116 114 101 
-3.4127 0.569349 6.01342 194 155 114 
-3.15737 0.604564 6.05588 143 108 76 
0.720382 0.481225 3.62463 214 212 199 
0.745725 0.481749 3.62633 255 253 241 
-2.32097 0.847402 6.26662 106 72 45 
-3.38978 0.824269 6.10508 47 18 0 
-3.24399 0.901057 6.16142 202 171 142 
3.80182 1.10211 7.15535 102 88 75 
-2.62592 0.978407 6.27617 97 73 47 
-2.1873 0.992704 6.35381 173 138 100 
-3.30639 1.0755 6.21234 201 171 137 
-2.33915 1.10525 6.36606 106 73 40 
-3.55997 1.14964 6.22272 67 40 19 
-3.4735 1.17311 6.26317 190 154 120 
-2.48893 1.24836 6.41268 207 168 125 
-3.41665 1.29681 6.31973 209 171 124 
-3.45084 1.29506 6.27822 96 61 39 
-3.58732 1.34476 6.29882 80 54 29 
-3.20871 1.39985 6.35942 126 96 60 
-3.50302 1.42048 6.33686 135 102 67 
-3.5328 1.44384 6.34596 216 178 141 
-3.42915 1.44634 6.33979 96 66 40 
-3.74177 1.44653 6.30383 134 107 86 
0.518128 1.04624 4.37038 173 119 75 
-3.53789 1.82186 6.47304 198 163 135 
-3.59599 1.83676 6.46588 173 138 108 
-3.08969 1.9614 6.62993 243 208 170 
-3.46955 1.95644 6.54918 132 102 66 
-3.51779 1.96371 6.53393 193 159 132 
-3.47235 2.00599 6.60399 235 197 148 
-3.45735 2.02635 6.54947 224 189 157 
-3.3632 2.18745 6.69648 237 204 169 
-0.050449 -1.08842 3.37588 160 60 96 
-0.0584201 -0.999007 3.39366 165 32 87 
-0.192046 -1.00229 3.53701 212 83 124 
-0.454653 -0.936965 3.32485 232 229 222 
-1.10441 -0.885718 3.46094 213 126 143 
-1.12238 -0.676365 3.48899 218 62 123 
-1.0658 -0.677586 3.53447 233 181 157 
2.57661 -1.11819 6.09822 211 197 186 
-1.18237 -0.615216 3.42177 36 27 30 
-0.853867 -0.649549 3.60982 43 18 0 
-1.05789 -0.621605 3.54201 226 175 146 
-0.073928 -0.579058 3.67445 121 87 86 
-0.804436 -0.553558 3.61057 174 148 111 
-0.628958 -0.533849 3.67556 152 28 28 
-0.563262 -0.432227 3.69857 162 120 96 
-0.707632 -0.415201 3.6901 90 142 96 
-3.03594 -0.614349 5.53235 226 190 138 
-0.714295 -0.406609 3.74692 12 7 3 
-0.885261 -0.369966 3.68205 221 161 125 
-0.758771 -0.362561 3.72504 36 0 0 
-0.73157 -0.355949 3.72377 236 119 24 
-0.739937 -0.319816 3.73782 239 187 209 
-0.0516054 -0.1443 3.782 4 7 0 
-2.95771 -0.0648672 5.84275 129 99 63 
-0.722462 0.0214499 3.81976 39 3 3 
-0.0928776 0.0602558 3.82146 59 102 108 
-3.17489 0.115356 5.82908 110 76 48 
-2.71334 0.130087 5.92097 120 85 45 
-0.954507 0.162379 3.74283 182 59 52 
-2.61187 0.246464 5.97559 213 180 147 
-3.13802 0.265274 5.89316 126 88 51 
0.35908 0.220077 3.83663 142 140 141 
-2.78403 0.376731 6.04282 212 173 130 
-0.312574 0.363807 4.02821 213 60 78 
-3.3569 0.63106 6.01763 216 182 145 
0.794117 0.435706 3.60519 145 138 128 
-2.32315 0.927103 6.30636 106 72 47 
-0.316154 0.591155 3.8942 60 59 67 
3.8057 1.09814 7.17051 105 89 76 
-3.51218 1.11739 6.22413 200 165 127 
-3.45072 1.33411 6.32264 187 148 109 
0.337774 1.00536 4.33974 210 193 183 
-3.03631 1.90333 6.59737 241 199 149 
-3.49103 1.96289 6.53189 233 190 148 
-3.41968 2.03458 6.56784 225 191 153 
-0.239809 -0.878428 3.55294 82 93 95 
-0.768573 -0.836556 3.51533 94 81 64 
-0.713695 -0.824401 3.52298 65 82 46 
-0.699811 -0.823299 3.52391 73 85 63 
-0.664938 -0.824038 3.52829 51 23 11 
-0.668916 -0.806751 3.52736 89 102 84 
-0.609365 -0.811151 3.53628 58 24 12 
-0.958082 -0.785812 3.5094 220 179 135 
-0.805693 -0.772643 3.508 106 125 105 
-0.764664 -0.771261 3.51514 111 143 119 
-0.642344 -0.775518 3.53046 126 103 85 
-0.65116 -0.768625 3.52505 219 218 198 
-0.983029 -0.754218 3.5198 138 44 45 
-0.9887 -0.745481 3.5187 138 30 53 
-0.771383 -0.750665 3.5326 143 110 103 
-0.424175 -0.770692 3.56875 121 95 68 
-1.00138 -0.722887 3.52703 159 31 66 
-0.488037 -0.746246 3.56924 164 126 107 
-0.587239 -0.737121 3.5638 77 36 18 
-0.571966 -0.738575 3.56562 130 97 78 
-0.469287 -0.74368 3.57668 208 76 89 
-0.734288 -0.72373 3.55164 173 132 100 
-0.564981 -0.728625 3.56867 67 26 8 
-0.716748 -0.718912 3.55601 179 155 129 
-0.768626 -0.714228 3.5541 117 137 102 
-0.41054 -0.736668 3.58426 160 114 98 
-0.58438 -0.721147 3.56732 73 32 12 
-0.746174 -0.710055 3.55718 127 154 121 
-0.768552 -0.677526 3.56563 38 78 52 
-0.805007 -0.672617 3.56989 33 78 47 
-0.66418 -0.666711 3.58127 182 150 129 
-0.804259 -0.655147 3.56501 89 97 84 
-0.480553 -0.656981 3.60331 195 167 145 
-0.619221 -0.645814 3.58765 103 54 14 
-0.682467 -0.639139 3.58705 158 106 92 
-0.881419 -0.623726 3.56775 149 83 84 
-0.820972 -0.627618 3.57696 14 50 22 
-0.607154 -0.627009 3.59972 112 51 23 
-0.550882 -0.622498 3.60723 96 54 32 
-0.971439 -0.593308 3.57019 162 68 104 
-0.865674 -0.599103 3.58447 78 18 20 
-0.862519 -0.579623 3.58123 202 127 148 
-0.700446 -0.583422 3.60064 49 85 57 
-0.523347 -0.562472 3.63235 105 76 68 
-0.526979 -0.549124 3.63554 69 28 10 
-0.585874 -0.537558 3.63309 166 86 79 
-1.03369 -0.494065 3.59412 194 116 140 
-0.455737 -0.524352 3.65407 155 128 119 
-0.733681 -0.448871 3.57609 162 111 108 
-0.336012 -0.456566 3.57601 244 211 192 
-0.654349 -0.474487 3.64843 71 84 66 
-0.573756 -0.458642 3.66542 98 37 34 
-0.467144 -0.463451 3.67835 30 73 53 
-0.873553 -0.433575 3.63273 94 30 46 
-1.02649 -0.412004 3.60581 174 155 123 
-0.328128 -0.421341 3.59166 236 206 182 
-0.349112 -0.416922 3.59218 166 138 117 
-0.313463 -0.4175 3.59471 141 108 89 
-0.570338 -0.441317 3.67062 32 8 0 
-0.304795 -0.412647 3.59716 241 210 190 
-0.676512 -0.432342 3.66027 120 141 108 
-0.745117 -0.399375 3.59582 139 84 81 
-0.468443 -0.44167 3.68357 23 78 46 
-0.291462 -0.407603 3.60256 215 183 168 
0.0265283 -0.473635 3.72996 156 142 133 
-0.751119 -0.392759 3.60087 158 103 100 
-0.680146 -0.421238 3.66327 22 39 7 
-0.522635 -0.431441 3.67717 86 76 66 
-0.307164 -0.401721 3.60153 141 111 87 
-0.266163 -0.40278 3.60463 136 108 87 
-0.671679 -0.415792 3.66648 119 106 97 
-0.565888 -0.421827 3.67904 49 17 0 
-0.262851 -0.392282 3.60366 208 176 163 
-0.484206 -0.426805 3.68906 79 90 58 
-0.272589 -0.393255 3.60708 226 194 181 
-0.650818 -0.392439 3.62694 102 80 69 
-0.755231 -0.375468 3.60392 182 129 123 
-0.538735 -0.414511 3.6859 41 13 1 
-0.550856 -0.410857 3.68824 55 28 17 
-0.647015 -0.402539 3.67775 157 118 101 
-0.560461 -0.405572 3.68328 137 105 90 
-0.527349 -0.408424 3.68849 57 26 6 
-0.254954 -0.380075 3.61434 123 92 74 
-0.139431 -0.429228 3.72288 65 6 0 
-0.593687 -0.392217 3.66456 134 105 89 
-0.595953 -0.393029 3.67355 51 21 10 
-0.227729 -0.37556 3.61953 230 202 180 
-0.661045 -0.390398 3.677 122 93 87 
-0.674614 -0.388524 3.67892 117 92 85 
-0.597844 -0.3945 3.68697 130 101 87 
-0.283666 -0.369865 3.62062 194 164 153 
-0.559578 -0.391067 3.68959 57 34 18 
-0.540674 -0.39083 3.69376 63 34 18 
-0.664692 -0.379791 3.68119 68 40 19 
-0.441592 -0.394736 3.70382 119 132 112 
-0.138996 -0.41138 3.72946 28 0 0 
-0.554918 -0.38225 3.68926 71 42 28 
-0.595033 -0.376946 3.69045 135 106 92 
-1.008 -0.340669 3.63627 181 158 142 
-0.542513 -0.371416 3.69686 84 52 29 
-0.784374 -0.321502 3.61402 173 153 144 
0.0511306 -0.392219 3.74469 80 75 69 
-0.43425 -0.368521 3.71713 123 93 83 
-0.134859 -0.385057 3.74124 52 0 0 
-0.636609 -0.349656 3.69674 158 117 95 
-0.48002 -0.352921 3.71595 50 9 0 
-0.655728 -0.340045 3.69699 34 12 1 
-0.518237 -0.343547 3.70999 172 142 118 
0.066773 -0.374937 3.75225 187 175 163 
-0.327921 -0.356855 3.73393 149 131 143 
0.0804304 -0.370892 3.75548 154 132 121 
-0.312257 -0.350924 3.73795 87 73 86 
-0.52731 -0.334951 3.71587 179 141 118 
-0.134337 -0.357686 3.74818 35 0 0 
-0.688674 -0.318196 3.70099 54 13 0 
-0.570998 -0.324884 3.713 109 59 34 
-0.556695 -0.326077 3.71328 96 50 26 
-0.58098 -0.318156 3.71162 177 141 117 
-0.608262 -0.317192 3.7122 63 22 0 
-0.385224 -0.327918 3.73565 167 148 152 
-0.287493 -0.332943 3.74445 188 178 186 
-0.270279 -0.333692 3.74832 7 14 22 
-0.118309 -0.339767 3.74972 175 115 105 
-0.60164 -0.311543 3.71824 98 52 26 
-0.433554 -0.285337 3.66905 115 110 106 
-0.265206 -0.324166 3.75262 175 170 177 
-0.959871 -0.26957 3.67247 105 80 75 
-0.4463 -0.278566 3.6692 255 248 240 
-0.0958527 -0.319342 3.74873 100 33 25 
-0.086573 -0.309631 3.74698 92 35 28 
-0.424196 -0.272141 3.6754 152 143 138 
-0.369136 -0.299906 3.74933 179 163 176 
-0.465044 -0.264572 3.67442 255 251 249 
-1.04107 -0.24062 3.65761 148 83 87 
-0.429512 -0.26058 3.67789 106 101 98 
-0.445946 -0.254743 3.67724 103 98 94 
-0.451202 -0.246571 3.67939 255 253 248 
-0.297384 -0.283952 3.76164 178 161 177 
-0.324178 -0.271568 3.76542 169 155 172 
-0.474054 -0.232703 3.68529 117 108 99 
-0.993827 -0.212057 3.68962 116 0 0 
-0.0979154 -0.264148 3.77054 77 94 84 
-0.524537 -0.210821 3.68325 189 181 170 
-0.496981 -0.209627 3.6849 251 242 233 
-0.985869 -0.194614 3.69588 105 74 72 
-0.510624 -0.198309 3.68555 255 252 246 
-0.516326 -0.190178 3.68806 117 106 102 
-0.56509 -0.186238 3.68461 111 101 99 
-0.931317 -0.15691 3.6812 99 54 49 
-0.0696895 -0.213786 3.77505 13 41 16 
-0.921169 -0.151579 3.71771 113 38 17 
-0.573077 -0.151764 3.69525 144 139 133 
-0.582403 -0.14422 3.69317 123 119 108 
-0.629443 -0.134557 3.69296 252 243 238 
-0.601197 -0.12937 3.69764 136 127 120 
-0.618368 -0.121681 3.698 156 157 141 
-0.0668083 -0.168439 3.78761 73 76 65 
-0.607395 -0.114452 3.69892 254 244 245 
-0.708355 -0.106285 3.76913 169 98 102 
-0.767178 0.0749628 3.79329 125 0 0 
-0.041981 0.0630281 3.76897 0 28 27 
-0.749433 0.0769917 3.79315 152 0 0 
-0.404384 0.187132 3.89374 65 33 22 
-0.211402 0.182258 3.90995 161 143 121 
-0.366445 0.191718 3.89814 115 83 68 
-0.225118 0.185021 3.90935 149 119 109 
-0.416582 0.197884 3.89083 108 80 59 
-0.395346 0.19716 3.8962 91 65 52 
-0.252054 0.190042 3.90966 117 91 74 
-0.371072 0.210488 3.90184 237 211 196 
-0.418056 0.216524 3.8982 113 84 66 
-0.432422 0.218655 3.89613 70 50 41 
-0.20121 0.207273 3.91818 228 196 181 
-0.241194 0.213468 3.91507 125 95 84 
-0.306403 0.21805 3.91235 97 58 43 
-0.397009 0.224691 3.90391 83 53 42 
-0.428824 0.228253 3.90173 86 59 40 
-0.287881 0.222274 3.91541 160 77 73 
-0.391712 0.235669 3.90712 249 217 206 
-0.30087 0.230728 3.91501 214 193 174 
-0.281995 0.233089 3.91822 88 66 52 
-0.429942 0.244015 3.9049 98 68 44 
-0.310653 0.236305 3.91558 106 70 54 
-0.399529 0.243384 3.90853 141 109 94 
-0.375338 0.242939 3.91082 255 230 210 
-0.420478 0.249681 3.90667 77 47 23 
-0.240486 0.239798 3.92683 158 132 119 
-0.419141 0.284898 3.9181 138 108 82 
-0.249633 0.33075 3.94982 92 118 115 
-0.311981 0.338479 3.93767 242 175 169 
-0.311245 0.349983 3.94371 147 26 33 
-0.487449 0.574578 3.77963 0 0 4 
-0.333169 0.651897 3.82278 156 153 160 
-0.226708 -0.866426 3.55892 50 25 18 
-0.804613 -0.821744 3.51587 36 53 37 
-0.323885 -0.850601 3.55395 81 96 99 
-0.740755 -0.815748 3.51932 51 93 57 
-0.724344 -0.815116 3.52647 40 77 43 
-0.70786 -0.813952 3.52555 122 152 114 
-0.236743 -0.841616 3.56452 74 40 38 
-0.799049 -0.781153 3.5105 42 50 37 
-0.600127 -0.796422 3.54116 119 90 72 
-0.724904 -0.769786 3.51371 114 133 114 
-0.695103 -0.772617 3.52515 210 224 207 
-0.341265 -0.797558 3.57036 107 0 5 
-0.637416 -0.747674 3.5402 66 10 9 
-0.81199 -0.726181 3.54451 115 61 1 
-0.780241 -0.72129 3.54748 193 144 114 
-0.375255 -0.726352 3.59065 130 133 104 
-0.836588 -0.69555 3.55434 111 123 83 
-0.784127 -0.664592 3.57173 96 102 90 
-0.791958 -0.599004 3.5876 104 51 0 
-0.535524 -0.609416 3.61644 145 111 99 
-0.787294 -0.546887 3.58865 106 97 66 
-1.04657 -0.52805 3.57232 145 145 121 
-0.685586 -0.534403 3.62165 119 146 103 
-1.03044 -0.468863 3.60017 205 104 134 
-0.634127 -0.495823 3.6438 173 114 106 
-0.233466 -0.52363 3.6817 135 139 122 
-0.590866 -0.491603 3.6497 135 51 40 
-1.03668 -0.442643 3.60491 188 105 135 
-0.119363 -0.498447 3.68416 100 80 79 
-1.03884 -0.417643 3.60404 40 14 0 
-0.973897 -0.402899 3.63213 143 131 117 
-0.924603 -0.388025 3.63739 74 6 19 
-0.66036 -0.410178 3.67529 144 117 106 
-0.116671 -0.406533 3.72685 36 0 0 
-0.585029 -0.374482 3.69771 58 29 11 
-0.562361 -0.351883 3.70493 42 11 0 
-0.144696 -0.367424 3.744 117 68 51 
-0.128909 -0.349034 3.75249 159 115 102 
-0.285211 -0.321858 3.74841 28 18 27 
-0.262006 -0.310995 3.75369 92 101 106 
-0.272436 -0.295657 3.75488 31 20 28 
-1.02747 -0.237808 3.67261 136 1 0 
-0.324774 -0.284225 3.75812 83 69 82 
-0.0900379 -0.257739 3.77041 69 101 80 
-0.604454 -0.146153 3.692 156 147 140 
-0.877284 -0.0282283 3.7652 96 62 60 
0.0523709 0.155749 3.72975 133 134 136 
-0.269641 0.211685 3.91152 242 211 191 
-0.36469 0.22943 3.90605 95 58 42 
-0.26681 0.242213 3.92035 86 68 48 
-0.266945 0.332112 3.94193 117 136 130 
-0.315324 -0.870225 3.54891 71 89 89 
-0.769383 -0.782327 3.51775 29 41 31 
-0.643552 -0.765753 3.51796 128 126 113 
-0.361706 -0.797705 3.56712 60 0 2 
-0.733699 -0.755125 3.51126 235 232 213 
-0.636029 -0.767253 3.53028 229 222 206 
-0.994552 -0.733971 3.52441 162 35 76 
-0.582087 -0.755778 3.55597 57 27 17 
-0.781983 -0.736136 3.53925 110 125 102 
-0.368297 -0.766406 3.5775 122 34 0 
-0.249016 -0.767878 3.58367 78 38 13 
-0.708142 -0.698089 3.55626 39 58 26 
-0.986506 -0.677203 3.5386 150 137 128 
-0.592863 -0.702336 3.5747 138 40 37 
-0.743971 -0.670447 3.57131 98 122 108 
-0.547589 -0.679825 3.59026 85 43 29 
-0.696187 -0.650408 3.57738 29 50 35 
-0.747381 -0.622886 3.5859 184 148 126 
-0.764779 -0.596103 3.59171 165 123 98 
-0.0868428 -0.613605 3.60511 49 12 6 
-0.755727 -0.586893 3.59567 97 110 100 
-0.598755 -0.579783 3.62506 115 35 24 
-1.04075 -0.542836 3.58246 135 71 88 
-1.05205 -0.517169 3.58318 82 27 48 
-0.531047 -0.523275 3.64808 133 50 42 
-0.460392 -0.521823 3.66208 94 91 76 
-0.658787 -0.491858 3.64997 22 37 18 
-1.03778 -0.455131 3.60148 72 23 42 
-0.628444 -0.46506 3.65387 44 21 15 
-0.940078 -0.420306 3.63039 137 49 65 
0.0529487 -0.483191 3.72811 160 152 141 
-0.651667 -0.435643 3.66188 157 122 100 
-0.498368 -0.44284 3.68222 12 48 22 
-0.580526 -0.436167 3.6738 58 29 15 
-1.08291 -0.354039 3.5887 36 0 0 
-0.473454 -0.40588 3.6991 165 133 108 
-0.721062 -0.369342 3.67875 214 154 118 
-1.04386 -0.323051 3.63198 199 105 132 
-1.03539 -0.322142 3.64225 201 93 116 
-0.674898 -0.351068 3.69645 127 110 100 
-1.03209 -0.310998 3.64408 32 9 3 
-0.807745 -0.305204 3.60614 188 150 139 
-0.550444 -0.350747 3.71069 53 18 0 
-0.318878 -0.34338 3.74016 181 167 184 
-0.810013 -0.266273 3.62228 187 146 140 
-0.689229 -0.278953 3.70849 82 2 0 
-0.294665 -0.295973 3.75323 143 126 142 
-0.0507524 -0.275759 3.73488 57 0 0 
-0.0357108 -0.256344 3.7257 54 0 0 
-0.550456 -0.143387 3.70167 110 44 9 
-0.752285 -0.121735 3.7591 121 0 22 
-0.765388 -0.0964296 3.75964 200 78 75 
-0.783801 -0.0894038 3.76156 201 52 45 
-0.865261 -0.0377034 3.76403 207 100 94 
-0.0777083 0.0273149 3.79783 0 13 13 
-0.576624 0.0600322 3.80745 246 165 136 
-0.060346 0.0634855 3.77429 112 151 150 
-0.737235 0.106948 3.77499 183 66 72 
0.00958008 0.118614 3.73157 38 38 40 
0.0673966 0.155337 3.65443 104 99 103 
-0.335579 0.19991 3.90427 255 206 192 
-0.228595 0.209175 3.9188 134 106 85 
-0.329411 0.217564 3.90801 168 84 82 
-0.32746 0.242058 3.91718 161 65 67 
-0.396389 0.266154 3.91627 146 115 95 
-0.334717 0.26749 3.93406 199 103 104 
-0.389636 0.287305 3.92717 225 196 182 
-0.271755 0.319871 3.93839 154 155 141 
