ply                 
format ascii 1.0    
element vertex 1246
property float x    
property float y    
property float z    
property uchar red  
property uchar green
property uchar blue 
end_header          
-0.88708 -0.726721 3.86101 103 135 112 
-0.845257 -0.725887 3.86499 7 36 14 
-0.641355 -0.722355 3.88554 226 164 127 
-0.585067 -0.72055 3.88514 64 11 0 
-0.90246 -0.713277 3.86683 103 134 100 
-0.653847 -0.707095 3.89548 213 139 114 
-0.647512 -0.69994 3.89737 132 47 27 
-0.965051 -0.69765 3.8579 45 0 4 
-1.14087 -0.691703 3.82127 53 0 1 
-0.868683 -0.694546 3.87604 96 131 101 
-0.58807 -0.691239 3.90305 163 126 110 
-0.950041 -0.683274 3.86405 53 0 3 
-0.817279 -0.677936 3.88273 173 137 105 
-0.965193 -0.67658 3.86698 24 14 2 
-1.22433 -0.667675 3.77077 162 84 110 
-0.570186 -0.665619 3.91409 213 169 132 
-0.961226 -0.664791 3.86725 51 0 4 
-0.912974 -0.660759 3.88145 61 4 0 
-2.92937 -0.972906 5.74338 219 180 141 
-0.841173 -0.657546 3.88764 92 126 101 
-2.92979 -0.973094 5.74669 210 173 131 
-0.849089 -0.645655 3.90035 0 28 6 
-2.57842 -0.954953 5.81833 137 111 84 
-0.563701 -0.636727 3.93163 113 68 49 
-0.921539 -0.632347 3.86723 73 21 0 
-2.56209 -0.926601 5.8131 242 218 184 
-0.750202 -0.622452 3.90955 4 30 5 
-3.22074 -0.919168 5.76171 233 195 148 
-3.26261 -0.910372 5.77076 246 211 179 
-0.495814 -0.601834 3.92584 37 14 0 
-0.980989 -0.607262 3.89502 197 35 95 
-0.496322 -0.601055 3.93064 40 17 1 
-0.747619 -0.593122 3.91721 155 120 98 
-0.575855 -0.590961 3.94135 162 115 99 
-0.128305 -0.576577 3.96735 112 82 80 
-0.730111 -0.58404 3.92355 15 13 0 
-2.85888 -0.865783 5.78421 214 180 142 
-0.560397 -0.578202 3.95022 0 26 7 
-0.740391 -0.558469 3.93382 90 108 96 
-0.544508 -0.544695 3.94923 19 61 37 
-0.528348 -0.54468 3.9588 13 35 22 
-3.22579 -0.815231 5.76104 221 188 155 
-0.523909 -0.539009 3.96757 103 134 119 
-2.87149 -0.794907 5.84621 201 161 126 
-3.10308 -0.794997 5.81579 207 172 130 
-0.694432 -0.523606 3.95058 177 115 94 
-0.976459 -0.519901 3.91597 219 113 151 
-0.346427 -0.497435 3.86319 129 101 77 
-2.87652 -0.771295 5.85812 218 178 143 
-0.564196 -0.504112 3.97277 138 162 112 
-0.541038 -0.500628 3.97325 39 82 52 
-0.941744 -0.50278 3.93289 37 0 0 
-0.531493 -0.493826 3.97548 42 96 62 
-0.523412 -0.490491 3.98108 6 56 18 
-1.0579 -0.494999 3.91404 50 0 2 
-0.742949 -0.492283 3.95588 131 146 117 
-0.554105 -0.49039 3.97106 32 28 3 
-0.506313 -0.487014 3.98103 41 97 58 
-1.05094 -0.487004 3.91983 125 105 98 
-0.757746 -0.48154 3.95366 128 147 117 
-0.732024 -0.484519 3.95501 102 82 71 
-0.564398 -0.479052 3.97197 61 23 2 
-0.528325 -0.476489 3.9824 36 39 12 
-2.95758 -0.720632 5.85388 132 94 57 
-3.08807 -0.716986 5.85216 200 165 127 
-1.07692 -0.473737 3.91948 146 137 122 
-0.714243 -0.464953 3.96561 167 125 101 
-0.522771 -0.463528 3.98243 179 153 128 
-0.4741 -0.46359 3.98818 5 37 13 
-2.89169 -0.689014 5.87016 200 167 134 
-2.94894 -0.682904 5.88174 120 86 51 
-1.09427 -0.454954 3.91952 184 165 150 
-3.06142 -0.679271 5.85286 213 171 131 
-2.72456 -0.66636 5.89945 195 165 131 
-0.27257 -0.418371 3.90085 237 210 181 
-0.257632 -0.412959 3.90506 242 209 192 
-0.797558 -0.429977 3.96719 209 153 120 
-0.748447 -0.419575 3.97732 141 116 111 
-0.62336 -0.416812 3.98831 51 17 0 
-0.967844 -0.420552 3.9417 236 147 153 
-0.609294 -0.409681 3.99398 47 16 0 
-0.718998 -0.41084 3.9869 140 113 102 
-0.598462 -0.406785 3.99725 58 26 3 
-0.60965 -0.404879 3.99861 57 22 0 
-3.0894 -0.612425 5.88134 213 174 133 
-1.09337 -0.397003 3.94443 18 10 0 
-0.627358 -0.377833 4.00495 194 146 110 
-0.881894 -0.372077 3.89387 153 131 118 
-2.71853 -0.550192 5.93882 121 91 65 
-0.779402 -0.357558 3.99854 55 0 0 
-0.129513 -0.339137 4.05538 33 2 0 
-2.72679 -0.533707 5.93058 187 158 124 
-0.116755 -0.299736 4.06242 78 102 89 
-3.32544 -0.482106 5.90127 140 104 78 
-3.29598 -0.476831 5.88461 221 188 155 
-3.33891 -0.470284 5.89054 187 157 121 
-1.05361 -0.276729 3.97536 69 0 0 
-0.384975 -0.258567 3.98398 246 178 113 
-3.32864 -0.422837 5.91953 205 169 133 
-3.3923 -0.400589 5.90762 123 90 59 
-2.69274 -0.383573 6.01319 217 187 149 
-2.63092 -0.38212 6.00032 114 79 47 
-0.0858887 -0.228114 4.06469 11 40 20 
-2.89476 -0.384306 5.97508 124 88 52 
-0.0866041 -0.228292 4.06306 18 45 28 
-3.38239 -0.370598 5.92703 204 172 134 
-3.20344 -0.366042 5.9369 169 135 90 
-2.92441 -0.346987 5.97662 212 179 136 
-3.08243 -0.346805 5.97111 204 168 132 
-0.0559069 -0.197595 4.05086 0 29 3 
-3.12333 -0.336576 5.95946 228 195 154 
-0.0771923 -0.19265 4.07627 86 104 88 
-0.61434 -0.197333 3.97476 111 102 97 
-3.23884 -0.283476 5.9617 141 101 66 
-3.33811 -0.268486 5.98638 207 176 147 
-0.938652 -0.151377 4.04276 211 111 139 
-0.848771 -0.149125 4.05072 121 0 0 
-0.893038 -0.143002 4.05168 228 88 133 
-0.419501 -0.130478 3.90931 219 100 94 
-2.98242 -0.234008 6.01576 208 170 133 
-2.89086 -0.233264 6.03363 184 154 130 
-0.976374 -0.139575 4.04362 172 68 57 
-0.468635 -0.111833 3.92145 156 36 22 
-2.92502 -0.194822 6.04232 212 173 134 
-0.448649 -0.0885424 3.89112 214 113 93 
-3.42771 -0.182484 6.0065 196 164 126 
-0.44294 -0.0837463 3.8876 159 49 34 
-3.37629 -0.167754 5.98807 212 176 140 
-0.892891 -0.0415824 4.0802 173 103 113 
-2.87494 -0.0763594 6.09441 224 190 145 
-2.8175 -0.0692085 6.09959 193 159 122 
-0.867806 -0.0246402 4.08742 145 91 81 
-2.89141 -0.0588637 6.1098 133 103 65 
-3.40585 -0.0518859 6.04375 198 165 132 
-3.1 -0.0315456 6.07673 210 176 139 
-3.44863 -0.0313107 6.03969 186 147 108 
-3.06626 -0.00855558 6.08834 213 171 121 
-3.39599 -0.0128108 6.07886 107 75 54 
-0.85727 0.0396583 4.10148 132 4 5 
-2.89202 0.0339062 6.13858 225 193 155 
-2.83821 0.0401732 6.13224 138 95 53 
-3.49826 0.0341861 6.03512 210 171 132 
0.126809 0.0763331 4.01807 160 158 161 
-2.92966 0.0561823 6.12464 232 202 166 
-3.31719 0.0553989 6.06755 111 77 49 
-3.28808 0.0665022 6.08288 200 166 138 
-2.86513 0.0878017 6.14269 145 107 70 
-3.53796 0.0812714 6.05075 184 151 108 
-3.27838 0.0957153 6.08944 149 115 78 
-3.52094 0.0888572 6.05225 134 102 63 
-2.8424 0.108194 6.16008 110 76 41 
-1.0038 0.0986423 4.07392 77 0 0 
-3.41228 0.106519 6.06621 194 161 126 
-3.07301 0.13435 6.13 219 181 134 
-3.23244 0.144876 6.09152 210 180 146 
-2.57592 0.167155 6.2231 175 145 109 
-3.37759 0.146286 6.0817 120 85 63 
-3.49803 0.158974 6.08833 197 165 124 
-3.26454 0.166753 6.10838 201 164 112 
-0.598162 0.145628 4.05027 181 31 42 
-3.48703 0.161508 6.04608 133 102 58 
0.0895676 0.164734 4.01372 152 150 151 
-3.35898 0.180056 6.08344 196 160 126 
-0.573872 0.159695 4.03905 197 74 76 
0.0953211 0.186328 4.0246 143 142 147 
0.439449 0.207742 4.07221 139 134 138 
0.455427 0.207827 4.06713 108 103 107 
0.430417 0.213822 4.06742 115 109 113 
0.0139538 0.206724 4.01818 55 50 56 
-1.06137 0.181898 3.98983 215 94 85 
-3.2345 0.249166 6.13131 169 133 97 
-3.44883 0.249563 6.10715 201 167 129 
-3.07412 0.263553 6.19286 208 170 123 
-3.59907 0.255923 6.09339 176 145 117 
0.470992 0.241137 4.08476 141 138 145 
-3.27045 0.271665 6.14386 148 113 81 
-3.19694 0.270939 6.16203 219 181 136 
-3.38931 0.275508 6.11256 200 170 132 
-0.297089 0.245821 4.23797 245 220 200 
-2.89241 0.324097 6.24727 220 188 141 
-2.56265 0.341556 6.28411 186 153 118 
-0.244402 0.268722 4.24398 218 191 180 
-0.308845 0.266848 4.23894 100 70 60 
-2.65941 0.363074 6.2862 113 77 41 
-0.197269 0.281686 4.25522 204 185 171 
-3.42427 0.339485 6.13639 143 113 77 
-3.09845 0.351851 6.23599 129 91 55 
-2.95887 0.352873 6.22465 115 81 44 
-3.53837 0.333792 6.10821 134 100 65 
-2.79878 0.368884 6.27279 187 155 117 
-0.450516 0.292579 4.23148 235 207 185 
-0.334907 0.296308 4.24708 185 91 91 
-3.29257 0.382349 6.19554 209 178 147 
-3.26966 0.460402 7.13798 204 170 132 
-0.348995 0.313827 4.25698 255 191 185 
-3.59157 0.384458 6.14857 90 63 36 
-0.437477 0.314714 4.24435 117 87 76 
-2.90338 0.416772 6.26333 116 87 55 
-2.96642 0.418156 6.25076 139 100 67 
-0.368034 0.329755 4.26159 252 199 185 
-3.4495 0.405662 6.18626 116 82 47 
-0.287518 0.336134 4.27026 82 93 87 
-3.41202 0.413741 6.21004 206 173 138 
-3.1172 0.424688 6.2444 133 94 65 
-3.3428 0.427354 6.22037 211 178 145 
-0.36633 0.349562 4.26284 113 63 52 
-3.15334 0.480146 6.25594 130 91 50 
-0.465015 0.376108 4.27136 156 124 103 
-3.61158 0.470579 6.18446 171 139 100 
-0.559984 0.377213 4.04309 175 173 178 
-2.91543 0.542616 6.30897 130 101 61 
-0.262316 0.435581 4.30477 120 88 65 
-2.92602 0.603828 6.32303 199 164 134 
-3.52554 0.607333 6.25383 98 71 42 
-3.13638 0.790519 6.3617 198 163 135 
-2.71367 0.845497 6.44612 195 160 130 
-2.90644 0.883876 6.43261 178 145 112 
-3.23684 0.89263 6.4243 133 98 56 
-3.20417 0.89623 6.39822 206 174 135 
-2.16358 0.982369 6.55804 181 146 114 
-3.35692 0.964552 6.38531 214 183 152 
-2.586 1.02519 6.50977 118 77 45 
-2.93413 1.08174 6.49371 91 64 35 
-2.70879 1.16907 6.55589 101 67 32 
-2.53261 1.17741 6.58479 92 56 22 
-2.43048 1.18173 6.5791 84 53 32 
-3.6781 1.1378 6.43928 73 46 25 
-2.52032 1.20261 6.5807 173 140 105 
-2.57027 1.22585 6.58194 195 160 122 
-2.52111 1.23347 6.58959 194 162 123 
-3.53183 1.19846 6.49722 137 102 64 
-3.83957 1.23215 6.44025 121 95 72 
-3.58504 1.27825 6.49613 193 158 118 
-3.13955 1.31557 6.55704 146 109 67 
-3.08385 1.3178 6.56788 218 179 136 
-2.87424 1.35785 6.62285 184 155 115 
-2.9205 1.36406 6.60293 144 114 80 
-3.58895 1.35905 6.52434 133 99 72 
-3.28595 1.38445 6.53535 235 201 153 
-3.68233 1.41017 6.54632 219 184 144 
-3.58177 1.41496 6.53945 124 89 59 
-3.33556 1.42393 6.55204 213 180 137 
-3.33907 1.43532 6.57855 190 157 114 
-3.52075 1.44507 6.54639 213 179 142 
-3.26964 1.48777 6.60063 232 190 148 
0.31423 1.11761 4.58242 65 59 47 
-2.97616 1.53684 6.65433 183 149 121 
-3.20039 1.53843 6.6037 137 99 52 
0.527583 1.19678 4.63499 151 113 92 
-3.47133 1.58517 6.61196 197 163 126 
-3.53021 1.59751 6.59648 220 190 154 
0.622124 1.23022 4.64986 102 57 36 
-1.66963 1.72864 6.87893 151 116 86 
-3.53936 1.65932 6.64381 215 177 140 
-3.0544 1.68548 6.69713 194 155 112 
-3.3968 1.71836 6.65729 224 194 156 
-3.37612 1.72226 6.66424 171 136 94 
-3.86578 1.70808 6.5932 152 125 98 
-3.7149 1.72774 6.63711 185 151 114 
-3.68896 1.7531 6.63923 191 155 123 
-3.33037 1.77758 6.69258 239 204 162 
-3.33855 1.78659 6.69243 187 152 114 
-1.69587 1.89694 6.93411 100 70 44 
-3.64475 1.78073 6.65097 220 185 147 
-3.08087 1.86085 6.76573 134 98 64 
-3.14513 1.86559 6.74521 167 120 76 
-3.18306 1.89923 6.75005 145 103 61 
-3.84758 1.86079 6.66302 151 126 96 
-3.18466 1.95334 6.77967 146 104 62 
-3.30269 1.95079 6.77245 103 65 28 
-1.66984 2.08117 7.0016 176 141 103 
-3.63931 2.01232 6.74195 192 161 130 
-1.71971 2.14426 7.02384 107 73 48 
-3.62417 2.02314 6.74885 144 109 79 
-3.12626 2.04774 6.80011 216 179 135 
-3.62117 2.06659 6.74977 169 136 101 
-3.54545 2.08894 6.77774 210 180 146 
-3.52605 2.11394 6.80795 213 178 138 
-3.51822 2.14583 6.79836 220 188 150 
-3.26077 2.17339 6.84745 230 197 156 
-3.55441 2.14354 6.77988 226 196 162 
-3.23575 2.18733 6.87481 213 179 134 
-3.25227 2.17924 6.84072 226 194 153 
-3.59658 2.21993 6.80518 113 86 59 
-3.64665 2.24159 6.82308 167 132 102 
-3.88977 2.28263 6.80909 77 51 24 
-3.9199 2.28971 6.79885 68 44 18 
-1.21387 -1.23047 3.5119 225 98 151 
-0.0629031 -1.16851 3.64378 223 86 142 
-2.08788 -1.745 5.5901 203 164 123 
-0.0560794 -1.11054 3.66736 235 102 157 
-2.43874 -1.64895 5.58855 109 79 45 
-2.65011 -1.61674 5.55938 216 184 145 
-2.56855 -1.6078 5.56069 232 191 145 
-0.449503 -1.041 3.5826 234 229 223 
-0.263004 -1.09044 3.8194 242 101 144 
-0.825485 -1.07796 3.71139 17 8 13 
-0.457245 -1.02447 3.57908 113 112 107 
-1.29109 -1.03301 3.56748 245 96 164 
-0.0184855 -1.00768 3.70599 133 38 68 
-2.46554 -1.51927 5.62277 214 176 137 
-0.0502375 -0.999944 3.70539 235 113 152 
-0.812157 -1.0173 3.76241 85 0 0 
-0.298865 -1.00887 3.82583 12 33 34 
-0.324398 -1.0023 3.82445 84 111 106 
-2.21021 -1.46581 5.6694 140 96 67 
-1.05227 -0.980479 3.7343 41 2 7 
-0.314072 -0.986249 3.82976 8 29 32 
-0.28021 -0.980312 3.83366 6 29 35 
-0.532361 -0.932635 3.61586 229 229 221 
-0.714613 -0.969236 3.80459 110 65 34 
-0.270814 -0.960023 3.84212 88 130 126 
-0.200056 -0.965059 3.85839 44 17 6 
-1.11699 -0.949145 3.75059 253 202 149 
-0.284852 -0.947328 3.86034 106 132 133 
-0.220862 -0.934874 3.86796 78 20 16 
-0.260255 -0.931393 3.8581 196 148 126 
-2.37888 -1.34834 5.70136 211 172 129 
-2.61042 -1.34147 5.64916 208 174 139 
-1.05441 -0.911059 3.7893 34 5 10 
-0.338275 -0.903256 3.86125 189 80 83 
-0.322798 -0.900093 3.86021 20 24 27 
-0.810563 -0.886042 3.79557 21 31 22 
-0.92665 -0.879405 3.77231 93 127 103 
-0.348707 -0.884691 3.86899 48 26 29 
-0.30933 -0.882919 3.87023 14 35 40 
-0.762086 -0.873823 3.79258 224 231 215 
-1.12287 -0.872588 3.78219 158 39 81 
-0.785472 -0.872737 3.80848 245 243 230 
-0.224964 -0.863998 3.88549 50 14 0 
-0.697222 -0.85913 3.81015 238 237 217 
-1.06791 -0.860247 3.78909 229 107 128 
-0.898344 -0.857208 3.80428 31 18 1 
-2.17466 -1.23374 5.78204 137 102 74 
-0.286769 -0.814058 3.87257 199 141 119 
-1.13372 -0.811112 3.79797 145 32 60 
-0.795523 -0.802988 3.84302 136 159 113 
-2.08232 -1.16956 5.79292 170 136 99 
-1.27617 -0.770612 3.65466 232 104 152 
-1.0836 -0.787299 3.79985 42 0 1 
-1.26081 -0.744826 3.68366 176 69 95 
-2.53024 -1.12346 5.74941 120 80 44 
-2.1887 -1.09941 5.82057 184 152 114 
-0.920636 -0.733633 3.86097 108 127 108 
-2.26396 -1.07168 5.82144 179 147 109 
-0.58497 -0.715818 3.8965 75 23 0 
-0.498201 -0.707951 3.89908 96 129 110 
-2.91528 -1.03717 5.74163 172 138 111 
-1.14143 -0.689749 3.81933 51 8 17 
-0.605705 -0.680129 3.90129 240 182 145 
-0.964581 -0.663006 3.86918 63 0 13 
-0.69291 -0.604859 3.91956 145 42 33 
-0.652246 -0.600206 3.93284 193 103 94 
-0.487348 -0.592989 3.93564 172 164 153 
-0.730266 -0.582732 3.93456 22 11 0 
-0.61781 -0.578349 3.93962 192 93 87 
-0.861018 -0.567943 3.85651 248 246 233 
-3.12269 -0.841102 5.79435 209 175 130 
-1.02383 -0.54938 3.90463 54 0 13 
-2.90025 -0.804872 5.82732 191 155 119 
-0.611223 -0.523779 3.96881 137 161 111 
-0.580727 -0.524093 3.96013 124 161 117 
-0.695358 -0.522239 3.95875 173 111 88 
-0.562416 -0.515449 3.96039 125 161 115 
-0.379686 -0.49049 3.86479 241 217 193 
-3.01998 -0.761757 5.84341 132 92 56 
-3.07543 -0.721327 5.80875 219 181 144 
-0.473892 -0.463565 3.98874 5 37 13 
-0.752485 -0.456676 3.96077 114 94 85 
-2.89427 -0.68858 5.87654 201 168 135 
-0.613015 -0.448373 3.96593 71 38 21 
-1.10144 -0.448954 3.92607 29 12 0 
-3.27764 -0.666032 5.81757 201 168 133 
-0.733232 -0.428023 3.97524 26 2 0 
-0.832671 -0.41826 3.96771 44 0 0 
-0.597563 -0.417693 3.98344 203 172 141 
-3.15194 -0.630657 5.82697 226 191 149 
-2.99728 -0.622913 5.90147 210 171 128 
-0.746604 -0.408159 3.9817 139 114 107 
-2.39901 -0.610839 5.96203 130 100 64 
-1.09023 -0.397915 3.94385 21 12 3 
-3.17206 -0.593224 5.87986 132 100 59 
-2.82981 -0.584016 5.91895 211 176 144 
-3.01826 -0.566198 5.89016 208 174 136 
-2.89367 -0.551313 5.92935 203 173 145 
-0.778541 -0.358786 3.99276 57 1 0 
-2.99106 -0.538671 5.92131 213 180 139 
-2.72549 -0.534037 5.92708 187 158 124 
-2.6743 -0.494779 5.95267 198 165 120 
-3.24028 -0.499011 5.90631 134 99 69 
-3.3179 -0.480861 5.89133 141 105 79 
-3.30312 -0.475253 5.9 221 188 153 
-2.82282 -0.439515 5.95924 193 160 119 
-2.65991 -0.434991 5.99136 202 167 137 
-0.105816 -0.264742 4.07086 13 21 6 
-0.914342 -0.270165 3.94055 244 185 215 
-0.112567 -0.254984 4.07112 75 105 81 
-0.0962818 -0.240368 4.06515 5 16 2 
-2.89577 -0.384013 5.97711 124 88 52 
-3.39378 -0.383565 5.91152 192 162 126 
-0.0710396 -0.211683 4.05796 0 16 5 
-1.04932 -0.225225 3.98911 61 0 0 
-3.21874 -0.352042 5.94272 219 187 148 
-0.0724996 -0.194906 4.07055 72 100 77 
-0.354678 -0.18878 3.92129 166 44 41 
-0.32942 -0.181344 3.90147 163 34 29 
-0.329642 -0.155887 3.88252 112 49 8 
-0.363845 -0.151968 3.89748 162 43 35 
-0.797086 -0.148282 4.05731 148 21 50 
-2.98294 -0.237154 6.01973 206 166 130 
-2.9225 -0.218017 6.03544 201 164 122 
-3.13974 -0.220736 5.99731 220 183 141 
-3.25761 -0.210642 6.00136 142 108 73 
-2.88455 -0.195155 6.04517 125 95 61 
-0.862461 -0.114421 4.06035 44 0 0 
-2.90053 -0.190183 6.04939 202 168 130 
-3.2035 -0.108409 6.07087 153 115 79 
-3.01561 -0.0775675 6.08992 136 102 67 
-2.71574 -0.0359389 6.11499 130 101 71 
-2.96276 -0.000290481 6.10101 190 155 117 
-3.38205 0.0831185 6.06861 120 90 56 
-3.27683 0.0972111 6.08702 141 107 70 
3.00535 0.222905 4.91096 80 74 74 
-3.14461 0.122716 6.11721 136 104 66 
-3.3055 0.130069 6.08588 132 97 57 
-3.49196 0.156621 6.07838 198 166 125 
-0.0182729 0.159873 4.02208 104 102 105 
-3.08699 0.189318 6.16185 120 86 48 
-0.598962 0.152429 4.07163 197 36 41 
-2.68442 0.203307 6.2169 193 160 125 
-0.571045 0.158185 4.02794 197 63 64 
-3.24522 0.199882 6.11634 237 203 165 
-3.17046 0.215687 6.14189 213 178 136 
-2.86995 0.230626 6.20219 154 116 77 
-2.73085 0.231978 6.22579 205 173 135 
-3.30438 0.233652 6.11924 214 176 139 
-3.43128 0.234281 6.0977 111 79 56 
-3.5282 0.247927 6.08871 142 110 72 
-3.03013 0.263972 6.20396 104 74 38 
0.389522 0.230127 4.0731 155 153 154 
-3.41198 0.269892 6.11736 198 164 129 
-3.27355 0.273401 6.15238 147 114 79 
-3.13226 0.281253 6.15899 142 103 62 
-3.07545 0.292562 6.18905 212 171 127 
0.464424 0.250044 4.08268 151 149 154 
-3.31759 0.288533 6.12641 223 195 155 
-3.31058 0.337292 6.17486 138 103 65 
-3.52251 0.331996 6.1269 221 184 140 
-3.53606 0.332576 6.10259 129 95 60 
-3.26158 0.354712 6.19271 230 200 164 
-3.6453 0.357048 6.14506 94 70 46 
-0.350604 0.309183 4.24757 246 209 200 
-2.91049 0.418732 6.27967 114 85 53 
-0.399294 0.328841 4.25327 243 203 193 
-3.6129 0.428371 6.1728 165 133 92 
-3.5525 0.438682 6.18247 173 142 113 
-3.08968 0.471554 6.25718 213 172 126 
-3.04162 0.473647 6.27528 132 98 61 
-3.55232 0.461684 6.20501 123 88 58 
-3.15246 0.479651 6.2541 130 91 50 
-2.03359 0.514881 6.3741 187 144 109 
-3.27453 0.50014 6.25402 236 204 165 
-3.38213 0.517202 6.26805 226 197 157 
-2.89776 0.555945 6.30809 209 177 139 
-3.52792 0.549533 6.25607 214 181 146 
-3.09207 0.581009 6.31255 204 165 122 
-3.61395 0.631275 6.25182 111 85 60 
0.771278 0.502836 3.84742 20 13 7 
-3.5029 0.768449 6.3106 151 121 97 
-3.46276 0.804078 6.33977 160 136 98 
-2.81533 0.837532 6.41492 177 145 106 
-3.35286 0.843556 6.35511 107 74 39 
-2.91793 0.862202 6.4062 110 80 52 
-2.58024 0.879736 6.46493 116 76 51 
-3.49992 0.861136 6.34863 174 144 110 
-2.63443 0.892548 6.44797 166 133 98 
-3.18779 0.928543 6.40895 196 161 123 
-3.10238 0.939606 6.41981 194 152 110 
-3.57688 0.938263 6.33228 127 99 77 
-3.57629 0.937857 6.331 125 97 76 
-2.47783 1.01551 6.52866 148 113 71 
-2.82634 0.996489 6.47713 186 151 119 
-3.09012 0.999378 6.44624 182 143 110 
-2.9501 1.04307 6.52889 78 53 22 
-2.36314 1.08207 6.57877 108 75 40 
-2.33097 1.11547 6.59137 174 139 107 
-2.42937 1.18078 6.57668 84 53 32 
-3.86628 1.24825 6.45097 60 32 18 
-3.53813 1.25854 6.48701 215 179 127 
-3.58678 1.26396 6.46645 96 61 39 
-3.64606 1.27739 6.46958 189 155 110 
-3.57185 1.28339 6.48972 208 169 128 
-3.72664 1.31287 6.48962 79 53 30 
-2.95462 1.36829 6.60884 104 78 43 
-3.50334 1.34805 6.52901 120 87 54 
-3.72909 1.38649 6.52005 80 52 38 
-3.55692 1.40902 6.55493 212 178 133 
-3.39824 1.42461 6.61676 204 171 138 
-3.34147 1.43005 6.56847 217 183 138 
0.566989 1.10304 4.60862 84 62 51 
-3.47175 1.43959 6.56095 206 172 135 
-3.58672 1.44372 6.55312 219 183 135 
-3.80396 1.45426 6.52423 144 120 94 
0.623909 1.23261 4.6549 97 56 36 
-3.33947 1.71703 6.65149 225 187 142 
0.703346 1.31258 4.68392 68 48 23 
-1.67184 1.84371 6.92368 158 123 93 
0.814997 1.34117 4.71999 44 33 27 
-3.27966 1.7796 6.69983 116 77 36 
-3.64545 1.78149 6.65277 220 185 147 
-1.6182 1.92077 6.93304 155 116 77 
-3.35786 1.85357 6.72168 125 95 61 
-3.14513 1.86559 6.74521 167 120 76 
-3.42396 1.90229 6.7381 237 211 174 
-1.72144 2.04281 6.97697 161 128 95 
-3.60163 2.04755 6.75203 221 188 145 
-3.64988 2.12973 6.77123 168 133 95 
-1.68907 2.28871 7.09301 183 140 105 
-3.27561 2.19091 6.88343 228 196 155 
-3.70741 2.16883 6.78784 151 123 99 
-3.59584 2.21886 6.80288 113 86 59 
-3.64611 2.24387 6.81546 172 133 100 
-1.27616 -1.14166 3.54996 195 60 116 
-0.0514765 -1.04627 3.68482 226 92 145 
-1.03682 -1.06024 3.73089 242 90 129 
-0.313212 -1.04796 3.82664 195 72 56 
-1.29033 -1.00368 3.57258 236 90 152 
-0.301612 -1.0225 3.81475 76 134 136 
-0.812338 -1.01727 3.76552 94 0 2 
-0.538211 -0.916803 3.62104 101 97 98 
-0.293904 -0.954754 3.84283 23 47 51 
-1.13087 -0.948392 3.74825 164 42 89 
-0.25993 -0.931077 3.86482 203 149 125 
-0.25248 -0.907723 3.86636 212 145 118 
-0.840134 -0.877468 3.79023 93 133 98 
-0.306583 -0.882509 3.87456 23 41 43 
-0.204003 -0.875773 3.87642 130 119 99 
-0.69741 -0.858825 3.81552 237 230 212 
-2.79362 -1.21982 5.67584 203 165 126 
-2.16566 -1.22807 5.82861 210 172 135 
-0.894626 -0.795906 3.83561 41 112 70 
-0.858099 -0.778237 3.84847 3 55 19 
-0.614824 -0.769143 3.86796 60 19 1 
-0.662937 -0.763482 3.86708 205 172 127 
-0.968474 -0.686886 3.86165 196 187 144 
-0.939162 -0.668605 3.87828 60 8 20 
-0.137967 -0.587851 3.91925 129 84 81 
-0.653127 -0.598262 3.93695 247 157 148 
-0.877955 -0.57173 3.85197 248 246 233 
-1.28702 -0.544271 3.70619 37 27 25 
-1.26579 -0.488377 3.75496 245 78 124 
-0.580318 -0.478664 3.98105 160 108 87 
-1.03479 -0.463164 3.9255 175 152 118 
-0.75258 -0.456143 3.96425 146 123 115 
-0.640382 -0.447199 3.98735 66 37 21 
-3.12727 -0.628746 5.87611 124 90 55 
-3.19046 -0.604494 5.8505 232 198 150 
-0.777761 -0.360935 3.98432 60 8 0 
-3.08621 -0.510905 5.94837 137 101 69 
-3.26126 -0.485319 5.90987 232 193 154 
-2.705 -0.411538 5.97389 205 172 137 
-0.329059 -0.180778 3.90415 170 40 38 
-3.23491 -0.298039 5.9544 127 96 68 
-0.062824 -0.156542 4.06435 18 7 5 
-0.810421 -0.155628 4.05276 100 0 5 
-0.426727 -0.136583 3.92618 162 27 34 
-0.78711 -0.145222 4.06118 216 74 122 
-0.87971 -0.139505 4.04637 64 0 0 
-0.825375 -0.123543 4.05485 56 0 0 
-3.219 -0.209335 5.98975 225 193 154 
-3.35472 -0.150785 6.04005 202 172 136 
-0.0690554 -0.0500833 4.08837 0 17 26 
-3.29981 -0.133973 6.0531 161 127 90 
-3.0124 -0.0787004 6.0849 135 101 66 
-0.862639 -0.0190826 4.07931 44 0 0 
-3.40728 -0.0534024 6.05406 205 175 141 
-3.01074 0.00980498 6.09137 114 79 37 
-2.77072 0.0882997 6.14678 210 167 122 
-2.73416 0.109601 6.17031 197 167 131 
-2.96835 0.106742 6.14588 123 85 49 
-3.2153 0.132598 6.12682 121 86 56 
-2.67738 0.203295 6.20544 194 161 126 
-1.05601 0.1486 3.98802 193 43 29 
-3.23537 0.252264 6.1457 175 137 100 
-1.06694 0.190914 4.00105 200 87 83 
-3.27373 0.361104 6.21943 228 198 162 
-2.80149 0.408201 6.28688 194 157 113 
-2.7794 0.40372 6.28085 104 74 40 
-3.17558 0.429061 6.22951 213 173 121 
-3.61614 0.430034 6.17965 162 130 89 
-3.0276 0.465788 6.24665 126 92 57 
-2.85277 0.487839 6.30947 125 94 63 
-3.62344 0.465443 6.1972 175 143 102 
-0.25747 0.406207 4.28702 116 114 101 
-3.5589 0.522693 6.23949 194 155 114 
-3.29235 0.564742 6.2793 143 108 76 
0.760614 0.533271 3.85194 214 212 199 
0.788178 0.534429 3.85369 255 253 241 
-2.42133 0.832841 6.47487 106 72 45 
-3.5329 0.786234 6.32179 47 18 0 
-3.3797 0.86821 6.37362 202 171 142 
3.83794 1.2267 7.32984 102 88 75 
-2.73715 0.960635 6.48104 97 73 47 
-2.28236 0.984373 6.55439 173 138 100 
-3.44337 1.04588 6.41817 201 171 137 
-2.43986 1.09631 6.56345 106 73 40 
-3.70494 1.11626 6.42627 67 40 19 
-3.61336 1.14175 6.46403 190 154 120 
-2.59379 1.23893 6.60405 207 168 125 
-3.55269 1.26907 6.51453 209 171 124 
-3.59081 1.26727 6.47557 96 61 39 
-3.73029 1.31476 6.49364 80 54 29 
-3.33809 1.37875 6.54997 126 96 60 
-3.64213 1.39365 6.52803 135 102 67 
-3.67236 1.41671 6.536 216 178 141 
-3.56646 1.42177 6.5303 96 66 40 
-3.89013 1.41555 6.49607 134 107 86 
0.518922 1.13046 4.61338 173 119 75 
-3.6737 1.79993 6.6463 198 163 135 
-3.73389 1.81401 6.63921 173 138 108 
-3.20739 1.94779 6.79005 243 208 170 
-3.60031 1.93643 6.71433 132 102 66 
-3.65071 1.94315 6.69974 193 159 132 
-3.59992 1.98504 6.76403 235 197 148 
-3.58876 2.00781 6.71282 224 189 157 
-3.4849 2.16877 6.84581 237 204 169 
-0.0431584 -1.20726 3.62258 160 60 96 
-0.0539536 -1.10836 3.64009 165 32 87 
-0.200128 -1.11055 3.79169 212 83 124 
-0.491772 -1.05158 3.56704 232 229 222 
-1.2048 -1.0065 3.71176 213 126 143 
-1.22809 -0.776086 3.73765 218 62 123 
-1.16475 -0.774989 3.78542 233 181 157 
2.69278 -1.09292 6.36589 211 197 186 
-1.29717 -0.711882 3.66571 36 27 30 
-0.931489 -0.73747 3.86358 43 18 0 
-1.15704 -0.713223 3.7923 226 175 146 
-0.0801191 -0.640574 3.92871 121 87 86 
-0.879456 -0.631206 3.86252 174 148 111 
-0.686997 -0.604193 3.92993 152 28 28 
-0.617166 -0.491224 3.95198 162 120 96 
-0.77517 -0.476171 3.94306 90 142 96 
-3.17761 -0.706672 5.7953 226 190 138 
-0.781623 -0.465975 4.00231 12 7 3 
-0.970107 -0.431086 3.93406 221 161 125 
-0.831428 -0.419343 3.97865 36 0 0 
-0.801938 -0.411514 3.97714 236 119 24 
-0.811572 -0.372093 3.99115 239 187 209 
-0.0655402 -0.16426 4.03276 4 7 0 
-3.08671 -0.12606 6.08668 129 99 63 
-0.79826 0.000567576 4.06948 39 3 3 
-0.114997 0.0574294 4.06963 59 102 108 
-3.31703 0.0565471 6.07124 110 76 48 
-2.83192 0.0827646 6.1587 120 85 45 
-1.05502 0.147824 3.98626 182 59 52 
-2.72581 0.206101 6.20907 213 180 147 
-3.27716 0.213551 6.13016 126 88 51 
0.37205 0.241469 4.08148 142 140 141 
-2.9027 0.337346 6.27079 212 173 130 
-0.358743 0.381446 4.27798 213 60 78 
-3.50192 0.587824 6.24241 216 182 145 
0.84246 0.485589 3.8325 145 138 128 
-2.4231 0.9144 6.51081 106 72 47 
-0.368677 0.627112 4.13321 60 59 67 
3.84104 1.22257 7.34411 105 89 76 
-3.65514 1.08415 6.42831 200 165 127 
-3.58805 1.3065 6.51644 187 148 109 
0.326862 1.08303 4.58305 210 193 183 
-3.15406 1.89091 6.76116 241 199 149 
-3.62359 1.94304 6.69804 233 190 148 
-3.54914 2.01647 6.7298 225 191 153 
-0.256027 -0.977622 3.81696 82 93 95 
-0.838588 -0.945649 3.77972 94 81 64 
-0.778397 -0.930766 3.78756 65 82 46 
-0.763133 -0.929181 3.78844 73 85 63 
-0.72471 -0.929031 3.79296 51 23 11 
-0.729467 -0.910128 3.79172 89 102 84 
-0.663809 -0.913333 3.80118 58 24 12 
-1.04845 -0.894734 3.77434 220 179 135 
-0.880879 -0.876355 3.77098 106 125 105 
-0.835689 -0.873688 3.77852 111 143 119 
-0.70089 -0.875047 3.79447 126 103 85 
-0.710769 -0.867767 3.78842 219 218 198 
-1.07652 -0.86044 3.78576 138 44 45 
-1.08297 -0.850988 3.78449 138 30 53 
-0.843425 -0.850962 3.79784 143 110 103 
-0.460925 -0.86368 3.835 121 95 68 
-1.09737 -0.826331 3.79362 159 31 66 
-0.531655 -0.838429 3.83588 164 126 107 
-0.640943 -0.830965 3.83063 77 36 18 
-0.624112 -0.832162 3.83256 130 97 78 
-0.511077 -0.835045 3.84399 208 76 89 
-0.803075 -0.820148 3.81842 173 132 100 
-0.616635 -0.821007 3.83576 67 26 8 
-0.783849 -0.814341 3.82304 179 155 129 
-0.841052 -0.810529 3.82136 117 137 102 
-0.446637 -0.825742 3.85175 160 114 98 
-0.63814 -0.813304 3.83438 73 32 12 
-0.816417 -0.805333 3.82454 127 154 121 
-0.841698 -0.770017 3.83377 38 78 52 
-0.881907 -0.765498 3.83888 33 78 47 
-0.727027 -0.755307 3.85007 182 150 129 
-0.881492 -0.746327 3.83317 89 97 84 
-0.525261 -0.739722 3.87273 195 167 145 
-0.678004 -0.731121 3.85646 103 54 14 
-0.747712 -0.725387 3.85636 158 106 92 
-0.967094 -0.71369 3.83663 149 83 84 
-0.900423 -0.716349 3.84641 14 50 22 
-0.665091 -0.710005 3.86959 112 51 23 
-0.603304 -0.703564 3.8774 96 54 32 
-1.06686 -0.682477 3.83992 162 68 104 
-0.950184 -0.686013 3.85485 78 18 20 
-0.947161 -0.664562 3.85095 202 127 148 
-0.76864 -0.664451 3.87105 49 85 57 
-0.57426 -0.63665 3.90446 105 76 68 
-0.578539 -0.622058 3.90794 69 28 10 
-0.643531 -0.610851 3.90567 166 86 79 
-1.13741 -0.57464 3.86613 194 116 140 
-0.500749 -0.592887 3.92765 155 128 119 
-0.808335 -0.517776 3.8425 162 111 108 
-0.371 -0.516428 3.83855 244 211 192 
-0.720122 -0.543121 3.92278 71 84 66 
-0.631827 -0.523563 3.94082 98 37 34 
-0.514548 -0.526069 3.95424 30 73 53 
-0.962196 -0.503778 3.907 94 30 46 
-1.13121 -0.484146 3.87823 174 155 123 
-0.36309 -0.477417 3.85565 236 206 182 
-0.386232 -0.473066 3.85636 166 138 117 
-0.34706 -0.472808 3.85888 141 108 89 
-0.628435 -0.504408 3.94641 32 8 0 
-0.33764 -0.467239 3.86145 241 210 190 
-0.745375 -0.497288 3.93585 120 141 108 
-0.821894 -0.463461 3.86409 139 84 81 
-0.516445 -0.502156 3.95988 23 78 46 
-0.323095 -0.461315 3.8673 215 183 168 
0.0273985 -0.524534 4.00702 156 142 133 
-0.828626 -0.456301 3.86978 158 103 100 
-0.749598 -0.48515 3.93909 22 39 7 
-0.576215 -0.492319 3.95311 86 76 66 
-0.340478 -0.455268 3.86629 141 111 87 
-0.29542 -0.455391 3.86935 136 108 87 
-0.740402 -0.478938 3.94257 119 106 97 
-0.623943 -0.482819 3.95556 49 17 0 
-0.292023 -0.443811 3.86816 208 176 163 
-0.534062 -0.486163 3.96597 79 90 58 
-0.302687 -0.44508 3.87208 226 194 181 
-0.718184 -0.453202 3.89788 102 80 69 
-0.833514 -0.437374 3.87303 182 129 123 
-0.594252 -0.474059 3.9629 41 13 1 
-0.607635 -0.470318 3.96559 55 28 17 
-0.713529 -0.463661 3.95475 157 118 101 
-0.618328 -0.464809 3.96009 137 105 90 
-0.581867 -0.46707 3.9656 57 26 6 
-0.283601 -0.43011 3.87988 123 92 74 
-0.155545 -0.480023 4.00036 65 6 0 
-0.655231 -0.451185 3.93945 134 105 89 
-0.65765 -0.45202 3.94946 51 21 10 
-0.253802 -0.424441 3.88538 230 202 180 
-0.729228 -0.450695 3.95395 122 93 87 
-0.744165 -0.448937 3.95617 117 92 85 
-0.659635 -0.453541 3.96449 130 101 87 
-0.31534 -0.419545 3.88707 194 164 153 
-0.617658 -0.44881 3.967 57 34 18 
-0.596876 -0.448038 3.97145 63 34 18 
-0.733443 -0.439085 3.95852 68 40 19 
-0.487934 -0.449795 3.98174 119 132 112 
-0.155455 -0.460375 4.0075 28 0 0 
-0.612738 -0.439026 3.9665 71 42 28 
-0.656922 -0.434172 3.96817 135 106 92 
-1.11223 -0.405012 3.91142 181 158 142 
-0.599316 -0.426751 3.97473 84 52 29 
-0.866741 -0.378741 3.88415 173 153 144 
0.052549 -0.434595 4.02248 80 75 69 
-0.48042 -0.420737 3.99632 123 93 83 
-0.151495 -0.431321 4.02042 52 0 0 
-0.703194 -0.405188 3.97538 158 117 95 
-0.531033 -0.404764 3.99533 50 9 0 
-0.724412 -0.395099 3.97573 34 12 1 
-0.573232 -0.395467 3.98894 172 142 118 
0.0693052 -0.415196 4.03056 187 175 163 
-0.36392 -0.405183 4.01389 149 131 143 
0.0841788 -0.410402 4.034 154 132 121 
-0.346855 -0.398262 4.01818 87 73 86 
-0.583371 -0.386207 3.99554 179 141 118 
-0.151524 -0.401243 4.0279 35 0 0 
-0.761097 -0.371897 3.98035 54 13 0 
-0.631595 -0.376257 3.99267 109 59 34 
-0.615853 -0.377211 3.99283 96 50 26 
-0.642715 -0.369128 3.99115 177 141 117 
-0.672705 -0.368728 3.99206 63 22 0 
-0.427455 -0.37484 4.01614 167 148 152 
-0.320071 -0.377888 4.02503 188 178 186 
-0.301159 -0.378246 4.02917 7 14 22 
-0.134349 -0.381212 4.02933 175 115 105 
-0.665525 -0.362305 3.99866 98 52 26 
-0.481696 -0.329986 3.9419 115 110 106 
-0.295799 -0.367645 4.03385 175 170 177 
-1.0606 -0.325399 3.95073 105 80 75 
-0.495849 -0.322869 3.94214 255 248 240 
-0.110183 -0.358293 4.0278 100 33 25 
-0.100228 -0.347448 4.02568 92 35 28 
-0.471697 -0.31523 3.94881 152 143 138 
-0.410388 -0.343609 4.031 179 163 176 
-0.516735 -0.307927 3.94805 255 251 249 
-1.15074 -0.295727 3.93468 148 83 87 
-0.477787 -0.302652 3.95153 106 101 98 
-0.495971 -0.296657 3.95093 103 98 94 
-0.501922 -0.287803 3.95332 255 253 248 
-0.331978 -0.32426 4.04387 178 161 177 
-0.361646 -0.311305 4.04827 169 155 172 
-0.527317 -0.273097 3.96006 117 108 99 
-1.09916 -0.26292 3.96976 116 0 0 
-0.113657 -0.297676 4.05172 77 94 84 
-0.583279 -0.250338 3.95812 189 181 170 
-0.553022 -0.24834 3.95964 251 242 233 
-1.09076 -0.243525 3.97654 105 74 72 
-0.568264 -0.236251 3.96041 255 252 246 
-0.574705 -0.227449 3.96323 117 106 102 
-0.628379 -0.224327 3.9598 111 101 99 
-1.0317 -0.200954 3.95925 99 54 49 
-0.0838361 -0.241797 4.05611 13 41 16 
-1.02042 -0.194545 3.99998 113 38 17 
-0.637892 -0.186609 3.9715 144 139 133 
-0.648327 -0.178583 3.96924 123 119 108 
-0.700239 -0.169111 3.96939 252 243 238 
-0.669298 -0.162707 3.97431 136 127 120 
-0.68834 -0.154678 3.97482 156 157 141 
-0.0816836 -0.191964 4.06982 73 76 65 
-0.676447 -0.146485 3.97572 254 244 245 
-0.787212 -0.139327 4.05502 169 98 102 
-0.855942 0.0582131 4.08157 125 0 0 
-0.0596648 0.0619635 4.04762 0 28 27 
-0.836486 0.0608555 4.08121 152 0 0 
-0.459742 0.190313 4.18972 65 33 22 
-0.247936 0.189559 4.20597 161 143 121 
-0.418213 0.196245 4.19426 115 83 68 
-0.263035 0.192266 4.20539 149 119 109 
-0.473391 0.201784 4.18662 108 80 59 
-0.450054 0.20152 4.19237 91 65 52 
-0.292687 0.197136 4.20601 117 91 74 
-0.423713 0.21672 4.19838 237 211 196 
-0.475407 0.222224 4.19473 113 84 66 
-0.491232 0.22421 4.1926 70 50 41 
-0.237314 0.217242 4.21494 228 196 181 
-0.281303 0.223076 4.21188 125 95 84 
-0.352923 0.226567 4.20946 97 58 43 
-0.452494 0.231688 4.20093 83 53 42 
-0.487488 0.234843 4.19878 86 59 40 
-0.332701 0.23164 4.21269 160 77 73 
-0.446924 0.243859 4.20442 249 217 206 
-0.34714 0.240597 4.21234 214 193 174 
-0.326491 0.243635 4.21577 88 66 52 
-0.489072 0.252104 4.2023 98 68 44 
-0.357995 0.246485 4.21304 106 70 54 
-0.455674 0.25214 4.20604 141 109 94 
-0.429123 0.252219 4.20842 255 230 210 
-0.47881 0.258544 4.20413 77 47 23 
-0.281105 0.251997 4.22494 158 132 119 
-0.478127 0.297224 4.21681 138 108 82 
-0.29317 0.351529 4.25047 92 118 115 
-0.361755 0.358499 4.23753 242 175 169 
-0.361191 0.371155 4.24417 147 26 33 
-0.560506 0.612705 4.06293 0 0 4 
-0.392668 0.701228 4.10994 156 153 160 
-0.241889 -0.964008 3.82334 50 25 18 
-0.878593 -0.930275 3.78051 36 53 37 
-0.349008 -0.949175 3.81857 81 96 99 
-0.808392 -0.921987 3.78363 51 93 57 
-0.790296 -0.920765 3.79142 40 77 43 
-0.772186 -0.91908 3.79023 122 152 114 
-0.253448 -0.93692 3.82935 74 40 38 
-0.873371 -0.885529 3.77386 42 50 37 
-0.653944 -0.89683 3.80633 119 90 72 
-0.791961 -0.871073 3.7765 114 133 114 
-0.759044 -0.873286 3.78907 210 224 207 
-0.369228 -0.891098 3.83637 107 0 5 
-0.696027 -0.844173 3.80494 66 10 9 
-0.888588 -0.824911 3.81127 115 61 1 
-0.853724 -0.81868 3.81419 193 144 114 
-0.408074 -0.81343 3.85838 130 133 104 
-0.916265 -0.79171 3.82209 111 123 83 
-0.859085 -0.756113 3.84058 96 102 90 
-0.869051 -0.684032 3.85763 104 51 0 
-0.586667 -0.688688 3.88735 145 111 99 
-0.865058 -0.626627 3.85812 106 97 66 
-1.15101 -0.612571 3.84225 145 145 121 
-0.75327 -0.609988 3.89382 119 146 103 
-1.13434 -0.546798 3.8726 205 104 134 
-0.697445 -0.566103 3.91765 173 114 106 
-0.256669 -0.586301 3.95634 135 139 122 
-0.649957 -0.560324 3.92373 135 51 40 
-1.14176 -0.518079 3.87767 188 105 135 
-0.132038 -0.555827 3.95764 100 80 79 
-1.14469 -0.490667 3.87643 40 14 0 
-1.07332 -0.472567 3.90705 143 131 117 
-1.01936 -0.454959 3.91227 74 6 19 
-0.72804 -0.472401 3.95223 144 117 106 
-0.131087 -0.454552 4.00436 36 0 0 
-0.645965 -0.431168 3.97623 58 29 11 
-0.62153 -0.405734 3.98379 42 11 0 
-0.162671 -0.412207 4.02343 117 68 51 
-0.145759 -0.391589 4.03258 159 115 102 
-0.317807 -0.365643 4.02933 28 18 27 
-0.292582 -0.353124 4.0349 92 101 106 
-0.30437 -0.336567 4.03625 31 20 28 
-1.13571 -0.292162 3.95128 136 1 0 
-0.362035 -0.325262 4.04023 83 69 82 
-0.105165 -0.290472 4.05147 69 101 80 
-0.672519 -0.181243 3.96816 156 147 140 
-0.974718 -0.0577702 4.0518 96 62 60 
0.0417136 0.165461 4.00273 133 134 136 
-0.312462 0.220444 4.20818 242 211 191 
-0.417136 0.237644 4.20296 95 58 42 
-0.310039 0.253994 4.21796 86 68 48 
-0.312203 0.352581 4.24184 117 136 130 
-0.339184 -0.970604 3.81313 71 89 89 
-0.840631 -0.885952 3.78165 29 41 31 
-0.702493 -0.864504 3.78036 128 126 113 
-0.391692 -0.891816 3.83294 60 0 2 
-0.801987 -0.855222 3.77371 235 232 213 
-0.694116 -0.865786 3.79405 229 222 206 
-1.08962 -0.838386 3.79076 162 35 76 
-0.634917 -0.851473 3.82213 57 27 17 
-0.855366 -0.835156 3.80517 110 125 102 
-0.399586 -0.85743 3.84413 122 34 0 
-0.268514 -0.855949 3.84986 78 38 13 
-0.77483 -0.791219 3.82293 39 58 26 
-1.08187 -0.775534 3.80581 150 137 128 
-0.647849 -0.792752 3.84248 138 40 37 
-0.814787 -0.761566 3.83985 98 122 108 
-0.598495 -0.766671 3.85911 85 43 29 
-0.762611 -0.738244 3.84585 29 50 35 
-0.819489 -0.70918 3.85557 184 148 126 
-0.839169 -0.680089 3.86184 165 123 98 
-0.0938829 -0.682257 3.87034 49 12 6 
-0.829395 -0.669701 3.86609 97 110 100 
-0.656793 -0.657637 3.89733 115 35 24 
-1.1442 -0.62856 3.85371 135 71 88 
-1.1572 -0.600611 3.85431 82 27 48 
-0.583526 -0.593626 3.92167 133 50 42 
-0.505887 -0.590127 3.9366 94 91 76 
-0.724613 -0.562295 3.92478 22 37 18 
-1.14272 -0.531863 3.87396 72 23 42 
-0.691839 -0.532086 3.92854 44 21 15 
-1.03573 -0.490884 3.90497 137 49 65 
0.0565661 -0.53438 4.00481 160 152 141 
-0.717986 -0.500286 3.93744 157 122 100 
-0.54929 -0.504187 3.95867 12 48 22 
-0.639731 -0.498974 3.95002 58 29 15 
-1.19479 -0.422029 3.85908 36 0 0 
-0.522689 -0.462847 3.9769 165 133 108 
-0.795652 -0.429024 3.95625 214 154 118 
-1.15213 -0.386576 3.90679 199 105 132 
-1.14276 -0.385268 3.91819 201 93 116 
-0.745242 -0.407676 3.97546 127 110 100 
-1.13935 -0.372922 3.92007 32 9 3 
-0.892867 -0.361492 3.87541 188 150 139 
-0.608443 -0.404144 3.99011 53 18 0 
-0.35429 -0.390145 4.0207 181 167 184 
-0.896132 -0.318628 3.89307 187 146 140 
-0.762559 -0.328787 3.9884 82 2 0 
-0.328749 -0.337458 4.03459 143 126 142 
-0.061724 -0.309606 4.01161 57 0 0 
-0.0456732 -0.288067 4.00109 54 0 0 
-0.613203 -0.176823 3.97838 110 44 9 
-0.835165 -0.15739 4.04429 121 0 22 
-0.850167 -0.129963 4.04494 200 78 75 
-0.870539 -0.122667 4.04714 201 52 45 
-0.961275 -0.0678805 4.05038 207 100 94 
-0.0980141 0.0222216 4.0803 0 13 13 
-0.646189 0.0464168 4.09565 246 165 136 
-0.0798094 0.062072 4.05372 112 151 150 
-0.823887 0.0938626 4.06068 183 66 72 
-0.00438644 0.123792 4.00525 38 38 40 
0.0582043 0.16485 3.91856 104 99 103 
-0.384529 0.20597 4.20079 255 206 192 
-0.267384 0.218689 4.21594 134 106 85 
-0.378162 0.225472 4.20488 168 84 82 
-0.376556 0.252407 4.21497 161 65 67 
-0.452729 0.277207 4.21455 146 115 95 
-0.385054 0.280199 4.23377 199 103 104 
-0.445785 0.300591 4.22666 225 196 182 
-0.317207 0.33904 4.23799 154 155 141 
-0.41577 0.378732 4.24545 126 56 46 
-0.237794 0.382759 4.25535 124 122 101 
-0.288387 0.413605 4.25705 204 170 142 
-0.259456 0.431631 4.26632 101 74 47 
-0.310366 0.692511 4.12453 146 145 151 
-0.341795 -0.922732 3.82984 73 94 95 
-0.850739 -0.875895 3.77336 222 228 218 
-0.898148 -0.869449 3.77935 252 241 223 
-1.13229 -0.855565 3.79031 228 118 153 
-0.28167 -0.821485 3.86682 197 148 133 
-0.825316 -0.786414 3.82925 25 69 42 
-1.10666 -0.765438 3.80915 60 26 24 
-0.498331 -0.707281 3.8958 81 115 98 
-0.676126 -0.659377 3.8916 130 52 39 
-0.213194 -0.651682 3.87173 139 131 129 
-1.14109 -0.626495 3.83995 87 54 71 
-0.477303 -0.61089 3.88861 128 123 117 
-0.624554 -0.520207 3.94766 44 17 10 
-0.19988 -0.443095 3.88126 254 187 161 
-0.220778 -0.39766 3.89984 230 197 180 
-1.00686 -0.395319 3.94379 215 103 143 
-1.03351 -0.276601 3.97191 218 86 126 
-1.04972 -0.270848 3.9773 56 0 0 
0.02788 -0.186569 3.98868 146 87 69 
-0.0411875 -0.146048 4.05516 57 85 71 
-0.930166 -0.130198 4.02847 197 77 78 
-0.920958 -0.125224 4.03126 198 83 86 
-0.729681 0.0229864 4.09331 178 62 62 
-0.721183 0.0276089 4.10385 177 62 69 
-0.497951 0.215543 4.19023 90 77 68 
-0.390276 0.240083 4.20944 255 220 211 
-0.42579 0.282327 4.20718 98 73 53 
-0.538171 0.371471 4.04816 236 230 232 
-0.407321 0.674549 4.09906 131 130 135 
-0.430488 0.692634 4.10395 153 150 157 
-1.9032 2.3285 6.82178 137 105 80 
-1.15935 -0.780395 3.77327 231 155 159 
-0.889721 -0.793375 3.8198 49 104 72 
-0.703461 -0.746496 3.8426 128 39 41 
-0.60419 -0.678671 3.89198 215 163 139 
-0.635204 -0.635519 3.89223 177 117 89 
-0.847308 -0.549265 3.83255 29 18 12 
-0.518616 -0.590118 3.92439 34 28 16 
-0.801301 -0.524099 3.86087 200 157 150 
-0.961911 -0.49152 3.90602 231 158 139 
-0.652098 -0.488257 3.96438 40 31 26 
-0.641415 -0.466661 3.96272 161 111 88 
-0.211345 -0.409241 3.89031 243 211 190 
-0.625096 -0.425229 3.97013 157 111 78 
-0.594356 -0.423137 3.98412 185 151 114 
-0.962068 -0.379737 3.91881 39 25 24 
-1.02441 -0.374768 3.94186 46 23 33 
-0.76869 -0.384122 3.98536 152 104 82 
-0.834647 -0.359864 3.96862 234 182 204 
-1.10656 -0.325118 3.95921 52 8 5 
-0.720839 -0.339573 3.99224 50 32 18 
-0.039183 -0.310882 3.9924 23 8 11 
-0.535514 -0.293243 3.95468 145 135 133 
0.0197366 -0.259569 3.96588 40 32 30 
-0.0711807 -0.211864 4.06374 0 15 0 
-1.07205 0.15644 3.99859 10 0 0 
0.123113 0.198565 4.01403 77 77 77 
-0.295631 0.262883 4.21037 111 83 72 
-0.402634 0.303126 4.21975 136 63 57 
-0.350021 0.34108 4.23473 255 209 197 
-0.306393 0.342023 4.25827 143 159 158 
-0.323702 0.615041 4.12288 229 225 222 
-0.386606 0.712332 4.10056 101 100 105 
-0.327091 0.727593 4.13356 230 231 235 
-1.15927 -0.715036 3.80261 200 151 118 
-0.927808 -0.735093 3.84893 52 23 0 
-1.14014 -0.681717 3.80365 59 39 40 
-0.877761 -0.677077 3.85608 230 129 15 
-0.589441 -0.704085 3.89639 87 53 43 
-0.155108 -0.633625 3.82013 254 252 240 
0.0462857 -0.693936 3.93456 161 153 142 
-0.878218 -0.629497 3.85198 161 129 106 
-0.878917 -0.587384 3.838 39 21 7 
-0.874439 -0.569103 3.85298 245 238 230 
-0.775972 -0.476345 3.94551 109 145 99 
-1.06657 -0.429063 3.92419 133 120 101 
-0.530868 -0.450583 3.96115 181 149 111 
-0.222448 -0.415764 3.91952 132 101 83 
-0.799929 -0.410626 3.96661 227 115 52 
-0.714938 -0.409426 3.98824 39 24 17 
-0.779935 -0.398072 3.97749 39 26 18 
-1.06562 -0.335434 3.95257 49 9 20 
-0.0545095 -0.332521 3.97888 113 53 42 
-1.0367 -0.305366 3.9538 47 26 33 
-0.694593 -0.314993 4.00173 237 180 199 
-0.909165 -0.258919 3.95186 231 177 209 
-0.924678 -0.186286 4.00103 59 22 29 
-0.00202597 -0.197533 4.0028 202 129 97 
-0.810451 -0.15609 4.02592 223 90 137 
-0.952048 -0.142387 4.03848 36 25 29 
-0.763727 -0.0681454 4.07929 232 218 218 
-0.740918 -0.0345977 4.08643 236 215 186 
-0.0507326 -0.0275911 4.06506 0 4 13 
0.00884313 0.0415728 4.02983 194 188 190 
-0.81898 0.144888 4.02696 35 8 17 
-0.708588 0.356117 3.99668 38 38 38 
-0.298297 0.283088 4.22889 245 216 184 
0.372497 1.23739 4.57537 219 206 198 
-0.839335 -0.947479 3.78291 94 81 64 
-0.82566 -0.939169 3.78501 28 54 17 
-0.737258 -0.926236 3.79974 108 129 88 
-0.723253 -0.924633 3.79868 141 118 102 
-0.841336 -0.825289 3.82349 114 89 69 
-0.912793 -0.779855 3.83345 47 81 48 
-0.676489 -0.774667 3.85132 105 29 16 
-0.729792 -0.754526 3.85764 176 152 126 
-0.337984 -0.512099 3.8543 171 151 144 
-0.646669 -0.428284 3.97891 116 95 76 
0.0824229 -0.421161 4.03509 237 221 208 
-0.631867 -0.368839 4.00108 199 153 129 
-0.397037 -0.370249 4.02665 125 108 118 
-0.534289 -0.300331 3.94976 157 147 138 
-0.548837 -0.288707 3.95226 115 110 104 
-0.167342 -0.253508 3.88821 127 69 32 
-0.0852881 -0.290407 4.03758 67 28 21 
-3.53238 2.27228 6.71029 133 99 71 
-3.52596 2.46433 6.76626 148 112 78 
-3.34252 2.49823 6.8112 217 181 145 
-3.02265 2.56552 6.87283 206 175 147 
-1.03875 -0.865864 3.77321 93 50 59 
-0.902648 -0.820638 3.81973 90 27 0 
-0.870923 -0.770134 3.84417 35 74 45 
-0.653001 -0.577018 3.92413 124 41 35 
-0.262203 -0.435738 3.88709 224 196 174 
0.0514002 0.183166 4.01424 222 222 224 
-0.342221 0.627409 4.12793 132 132 134 
-0.423904 0.774558 4.10719 165 164 169 
0.718907 0.952021 4.53347 137 110 93 
0.411415 1.1167 4.55752 151 117 90 
-3.75928 2.36347 6.71724 141 108 75 
-3.73949 2.49424 6.75998 99 72 43 
-1.03201 -0.889059 3.76536 235 216 209 
-0.987037 -0.861462 3.76627 104 92 78 
-1.07802 -0.85734 3.78554 147 34 54 
-1.0905 -0.840233 3.79414 162 35 76 
-0.622546 -0.776655 3.86137 76 28 14 
-0.22913 -0.406298 3.90121 234 203 183 
-1.06211 -0.244923 3.99205 103 11 0 
0.263388 0.278821 4.06631 11 10 15 
-0.435707 0.296285 4.23764 249 220 202 
0.549761 1.02789 4.54629 132 94 71 
0.307243 1.09119 4.53042 67 54 46 
0.295323 1.09358 4.5397 213 201 189 
0.701532 1.1613 4.59756 151 125 100 
-2.99101 2.20433 6.76447 205 172 139 
-3.72869 2.35151 6.72326 187 161 124 
-2.99731 2.42775 6.84047 129 99 65 
-3.54298 2.44522 6.75825 147 115 76 
-3.81648 2.4708 6.7579 205 169 133 
-3.66312 2.48171 6.76603 195 161 124 
-3.23318 2.58083 6.85271 159 115 76 
-1.14264 -0.591948 3.87117 61 0 17 
-0.640542 -0.535564 3.94333 223 135 131 
0.409195 0.217032 4.0585 236 234 237 
0.248635 0.273265 4.06184 20 21 25 
0.521269 1.07546 4.55442 156 112 85 
0.503016 1.15337 4.57313 57 46 42 
0.702679 1.18694 4.60967 141 109 86 
0.634445 1.22318 4.60148 152 107 78 
-2.94837 2.17516 6.75847 217 183 145 
-3.47504 2.20081 6.70374 209 179 141 
-2.95247 2.24515 6.76031 214 182 143 
-3.70374 2.41296 6.73689 215 180 142 
-3.82821 2.47283 6.75126 99 70 36 
-3.8429 2.49572 6.75785 210 187 153 
-1.03053 -0.87986 3.77123 230 230 222 
-1.12726 -0.856057 3.787 226 117 149 
-0.292016 -0.862377 3.86793 205 137 76 
-0.920808 -0.723146 3.84434 48 15 0 
2.0938 -1.78324 6.05013 120 95 75 
-0.725357 -0.699049 3.87417 146 43 47 
2.03838 -1.74882 6.02346 187 152 112 
-1.15917 -0.597608 3.85061 51 9 29 
-0.703664 -0.582515 3.92161 167 110 81 
2.01349 -1.58479 6.08635 108 78 54 
-1.03673 -0.298442 3.96904 67 8 28 
-0.0476677 -0.158799 4.01226 49 67 55 
-0.15514 0.00628336 4.04038 68 109 111 
-0.885683 -0.600533 3.86585 39 21 7 
2.10391 -1.57861 6.10616 173 148 118 
0.368647 0.23254 4.05688 219 219 221 
0.405399 0.952509 4.50721 177 161 148 
-1.03564 -0.936124 3.75249 170 118 131 
-0.881427 -0.950701 3.77599 177 114 61 
-0.839021 -0.94664 3.78107 112 93 78 
-0.339022 -0.963598 3.8249 89 57 70 
-1.07519 -0.924758 3.75492 132 30 41 
-0.894623 -0.931948 3.77115 149 114 94 
-0.877612 -0.935365 3.77745 117 122 102 
-0.807973 -0.934567 3.78229 26 46 18 
-0.899595 -0.930922 3.78129 56 54 59 
-0.725314 -0.930591 3.79562 46 25 8 
-0.162356 -0.932603 3.8269 52 38 38 
-0.909462 -0.924277 3.78771 100 101 105 
-0.737126 -0.923844 3.79573 118 133 102 
-0.216418 -0.930501 3.83614 137 81 80 
-0.800661 -0.910889 3.7986 96 120 96 
-0.396344 -0.917636 3.82589 116 113 104 
-0.507377 -0.907 3.82051 81 55 40 
-0.827123 -0.883384 3.77945 36 57 42 
-0.799108 -0.871996 3.77575 197 210 200 
-0.800758 -0.876877 3.78435 207 221 208 
-0.0699213 -0.847413 3.77878 61 45 48 
-0.328331 -0.90308 3.84498 118 77 85 
-0.711409 -0.868907 3.7905 208 207 189 
-0.74484 -0.864531 3.78791 175 186 169 
-0.352073 -0.888302 3.83977 83 66 72 
-0.892148 -0.865306 3.79145 194 189 169 
-0.170243 -0.877519 3.84744 120 100 89 
-1.08671 -0.853904 3.78148 249 165 165 
-0.761125 -0.85377 3.79949 145 146 130 
-0.445993 -0.87421 3.84202 128 46 0 
-0.462446 -0.869116 3.84503 119 86 67 
-0.373191 -0.867804 3.8531 125 22 3 
-0.646351 -0.848414 3.82879 78 34 21 
-0.532012 -0.849351 3.83993 83 9 8 
-0.239693 -0.855809 3.86187 77 7 7 
-0.857907 -0.841304 3.82042 95 96 82 
-0.79531 -0.834605 3.825 203 171 133 
-0.616442 -0.82742 3.82351 69 27 5 
-0.951568 -0.827298 3.8126 166 69 78 
-0.636973 -0.829141 3.83405 144 109 89 
-0.839667 -0.82266 3.81826 171 130 108 
-0.902109 -0.820011 3.81665 117 53 17 
-0.803702 -0.821033 3.82015 156 118 81 
-1.13324 -0.806567 3.78994 160 71 89 
-0.840927 -0.810245 3.82065 114 127 109 
-0.640274 -0.818207 3.84374 91 50 28 
-0.61466 -0.814262 3.8421 89 46 37 
-0.822945 -0.808851 3.82772 36 61 22 
-0.606596 -0.792407 3.84472 61 15 0 
-0.91155 -0.776362 3.82676 45 84 53 
-0.843808 -0.773283 3.84012 33 72 54 
-0.134476 -0.77077 3.86512 22 0 0 
-1.26127 -0.664817 3.6844 72 13 33 
-0.602789 -0.76509 3.85589 133 91 79 
-0.615372 -0.761612 3.85926 148 111 95 
-0.727537 -0.755824 3.85113 199 164 142 
-0.599912 -0.745895 3.8642 145 109 95 
-0.611058 -0.741877 3.86207 145 109 97 
-0.677659 -0.729548 3.8532 98 49 16 
-0.661211 -0.729151 3.85913 195 133 112 
-0.748117 -0.725569 3.85668 169 111 107 
-0.670302 -0.736888 3.87623 117 68 28 
-0.648036 -0.720918 3.86729 93 37 4 
-0.999976 -0.699422 3.83101 27 0 7 
-0.584743 -0.719943 3.87651 49 1 0 
-0.6425 -0.708413 3.86717 111 64 34 
-0.603972 -0.704214 3.87889 84 37 21 
-0.580344 -0.702927 3.8777 60 23 5 
-0.947201 -0.680377 3.84333 84 24 24 
-0.577731 -0.692789 3.88192 74 33 15 
-0.600167 -0.692136 3.88209 54 21 2 
-0.624169 -0.683219 3.88039 124 49 30 
-0.584861 -0.683535 3.88227 137 110 93 
-0.948735 -0.667065 3.85596 180 131 150 
-0.594513 -0.682212 3.89053 71 29 5 
-0.574237 -0.678554 3.88877 74 39 19 
