ply                 
format ascii 1.0    
element vertex 1258
property float x    
property float y    
property float z    
property uchar red  
property uchar green
property uchar blue 
end_header          
-1.66371 1.16857 6.43339 155 128 99 
-2.98385 1.25668 6.29911 114 79 47 
-2.61608 1.23481 6.34255 98 67 38 
-1.93134 1.21299 6.40615 123 90 57 
-1.89954 1.24932 6.40429 157 126 97 
-1.83058 1.24949 6.43032 158 131 101 
-2.31431 1.28303 6.39351 182 157 126 
-2.5357 1.34876 6.37176 106 76 52 
-2.19528 1.33832 6.4168 187 155 130 
-2.27124 1.38763 6.40903 191 161 127 
-2.81864 1.46069 6.37312 160 130 106 
-2.24575 1.44307 6.41232 199 165 128 
-2.16716 1.49068 6.45627 93 62 33 
-2.07886 1.5378 6.48059 107 71 35 
-1.9794 1.76681 6.59517 128 93 63 
-0.921815 -0.929254 3.80571 151 156 159 
-0.770098 -0.931609 3.82162 46 23 9 
-0.235185 -0.927956 3.87617 67 10 3 
-0.337077 -0.914426 3.86002 10 39 47 
-0.739738 -0.908082 3.83908 108 114 102 
-0.0230399 -0.827875 3.77826 151 121 113 
-0.428817 -0.889684 3.84608 143 38 53 
-0.845939 -0.86701 3.80437 68 102 78 
-0.483929 -0.891886 3.85347 19 0 4 
-0.316475 -0.902043 3.87749 7 35 38 
-0.269486 -0.893512 3.871 48 20 9 
-0.792455 -0.864245 3.81455 217 225 212 
-0.219322 -0.892157 3.87584 43 10 3 
-1.12116 -0.866684 3.81026 146 55 73 
-0.935239 -0.854523 3.80592 91 78 46 
-0.401887 -0.879127 3.85744 52 0 3 
-0.838483 -0.849383 3.81994 177 177 151 
-0.873973 -0.852942 3.83623 18 33 28 
-0.851324 -0.843424 3.83474 178 140 119 
-0.692216 -0.832957 3.83933 91 26 22 
-0.336186 -0.849068 3.88176 42 28 15 
-0.77806 -0.834642 3.85394 133 37 38 
-0.171421 -0.837746 3.89311 52 13 8 
-1.25933 -0.736359 3.7071 151 89 102 
-0.969113 -0.812534 3.84498 146 35 68 
-1.15157 -0.795784 3.81572 145 46 67 
-0.833155 -0.805197 3.86397 36 61 22 
-1.17409 -0.782333 3.82218 207 140 134 
-0.298901 -0.784092 3.86276 40 0 0 
-0.655575 -0.781094 3.86475 135 41 42 
-1.0865 -0.767732 3.83174 141 127 126 
-0.836083 -0.783188 3.86698 13 59 31 
-0.613875 -0.775353 3.88536 62 18 5 
-0.293225 -0.764645 3.88271 96 76 69 
-0.605849 -0.75175 3.87733 76 32 21 
-0.861883 -0.736786 3.84543 94 115 100 
-0.814486 -0.750082 3.8691 28 40 28 
-0.903404 -0.743573 3.86402 104 115 98 
-0.497391 -0.7567 3.90033 29 84 53 
-0.781448 -0.743837 3.87487 83 93 85 
-0.671912 -0.724238 3.89412 206 146 122 
-0.827273 -0.700643 3.88149 189 156 139 
-0.632691 -0.708958 3.90127 123 52 30 
-0.977845 -0.696919 3.8845 55 36 30 
-0.635155 -0.678465 3.91546 118 39 22 
-0.593664 -0.647999 3.91479 82 37 18 
-0.9227 -0.626007 3.8748 81 23 1 
-0.774899 -0.638238 3.91252 84 95 91 
-1.16008 -0.590486 3.87136 61 13 27 
-0.756663 -0.610464 3.91173 19 30 14 
-0.892771 -0.597084 3.89674 20 8 0 
-0.768673 -0.611282 3.9272 102 133 89 
-0.764016 -0.62557 3.94504 8 33 0 
-0.750428 -0.582765 3.92581 156 128 114 
-0.738544 -0.572944 3.9212 105 80 58 
-0.583782 -0.575095 3.93649 147 97 86 
-0.462639 -0.570551 3.94188 40 35 31 
-0.52335 -0.541674 3.94576 79 95 84 
-0.788937 -0.527667 3.96827 93 124 108 
-0.525781 -0.52564 3.98159 88 114 103 
0.0430268 -0.512599 4.00475 108 100 89 
-0.357431 -0.439339 3.88376 236 207 189 
-0.836626 -0.446604 3.90826 214 170 167 
-0.655062 -0.470931 3.97272 41 18 10 
-0.283208 -0.400399 3.88778 214 186 164 
-0.268337 -0.397699 3.89878 221 192 176 
-0.528229 -0.43982 3.96593 171 149 128 
-0.587195 -0.441923 3.97252 58 30 9 
-0.844711 -0.407831 3.9199 178 156 142 
-0.485871 -0.450625 3.99781 32 51 31 
-0.241139 -0.387664 3.9101 198 166 153 
-0.836026 -0.414018 3.96315 115 129 96 
-0.180546 -0.424857 4.01601 62 29 12 
-0.966684 -0.377827 3.95267 46 21 25 
0.0579303 -0.404235 4.03747 74 55 40 
-0.778932 -0.373094 3.98883 159 123 107 
-0.458153 -0.37739 4.0059 153 93 69 
-0.379396 -0.38387 4.0221 170 157 166 
-0.461556 -0.387735 4.03204 217 131 74 
-0.469927 -0.345298 3.99126 151 124 113 
-0.849437 -0.348052 3.98353 243 168 198 
-0.599626 -0.348095 3.99784 204 160 131 
-0.894681 -0.306235 3.91816 139 104 98 
-1.16515 -0.29858 3.95225 137 78 84 
-0.503359 -0.253486 3.96186 113 52 8 
-0.130885 -0.278553 4.0413 74 92 78 
-0.141374 -0.25236 4.06734 7 3 0 
-0.603813 -0.194279 3.96459 123 113 111 
-0.149228 -0.216644 4.03389 114 83 39 
-0.105456 -0.222138 4.05119 0 15 0 
-0.0204413 -0.170317 3.97352 202 146 121 
-0.082605 -0.192863 4.04397 0 21 0 
-0.705019 -0.154949 3.97967 190 180 178 
-0.672872 -0.124028 3.98245 153 96 76 
-0.0767517 -0.155974 4.06133 69 75 63 
-0.7039 -0.113111 3.96736 151 145 133 
-0.856136 -0.14994 4.04376 142 0 23 
-0.837557 -0.14192 4.03596 203 70 99 
-0.789495 -0.128103 4.04857 227 108 146 
-0.875537 -0.106427 4.03058 211 72 69 
-0.795452 -0.106803 4.0499 127 0 0 
-2.8189 -0.915401 5.6263 203 165 128 
-3.22918 -0.892631 5.59207 111 84 55 
-3.18626 -0.880978 5.60471 193 164 130 
-3.00761 -0.889957 5.62604 194 161 130 
-3.14876 -0.888245 5.62108 205 172 141 
-0.949522 -0.0608192 4.06125 104 0 0 
-3.09976 -0.888658 5.65803 137 105 66 
-3.0082 -0.874507 5.66303 199 166 131 
-3.15189 -0.869171 5.6702 204 171 136 
-0.0365575 -0.00556164 4.01972 108 140 135 
-2.77775 -0.848622 5.68045 212 182 156 
-0.681641 -0.025663 4.08884 68 5 0 
-2.99253 -0.821453 5.66054 155 122 89 
-3.11659 -0.803057 5.6336 227 200 171 
-2.78852 -0.827043 5.68177 109 79 43 
-2.76231 -0.831967 5.68788 157 121 89 
-2.87645 -0.803662 5.66817 196 161 119 
-0.054234 0.029521 4.02943 106 155 160 
-1.02575 0.010437 4.08315 160 160 136 
-2.8092 -0.774969 5.66723 208 174 139 
-3.15105 -0.755129 5.64061 109 78 47 
-2.78205 -0.774019 5.69222 170 136 108 
-0.112962 0.0416706 4.06344 0 10 16 
-3.04465 -0.728613 5.64039 219 186 153 
-0.735897 0.0334408 4.09296 187 58 63 
-3.01178 -0.719037 5.69516 217 181 145 
-2.84278 -0.709723 5.6726 113 78 38 
-0.141091 0.0809824 4.0614 54 63 60 
-3.29935 -0.692473 5.65173 132 101 70 
0.0472153 0.116259 4.00702 239 239 241 
-3.2054 -0.693035 5.68007 175 150 110 
-3.0605 -0.689272 5.67599 119 83 47 
-3.00121 -0.688899 5.67092 202 168 130 
-0.612424 0.0781888 4.08569 249 180 175 
-2.84966 -0.697295 5.71675 199 170 130 
-3.15937 -0.671669 5.67524 173 142 114 
0.0536836 0.142772 3.98525 66 65 70 
-3.48741 -0.638525 5.61742 183 158 128 
-3.05035 -0.660147 5.68155 202 174 135 
-2.98292 -0.669945 5.70513 140 107 72 
-3.57288 -0.628561 5.61895 162 138 110 
-2.93991 -0.632471 5.71877 189 150 117 
-3.10981 -0.618163 5.68748 81 54 24 
-3.54311 -0.583963 5.62979 166 131 109 
-3.33504 -0.606527 5.69106 120 85 43 
-3.00962 -0.614692 5.71584 204 166 129 
-3.11458 -0.587699 5.69787 127 97 59 
-3.10317 -0.577632 5.71733 122 89 58 
-3.21839 -0.558881 5.70569 93 62 34 
-3.04798 -0.551376 5.74143 102 74 37 
-3.35732 -0.483837 5.66445 86 60 37 
-3.30505 -0.498567 5.71237 207 173 136 
-2.77247 -0.526574 5.7797 113 85 61 
-3.03888 -0.497627 5.7308 129 95 60 
-3.4154 -0.467827 5.69064 183 155 118 
-2.7712 -0.505391 5.77251 171 144 117 
-3.55009 -0.461247 5.67608 137 113 87 
-3.04643 -0.495558 5.76579 183 149 111 
-3.02527 -0.497416 5.77587 174 144 106 
-2.90021 -0.491065 5.77283 172 138 100 
-0.37247 0.203745 4.17826 247 220 211 
-0.269659 0.196683 4.2045 136 107 91 
-3.24992 -0.460617 5.72539 184 155 123 
-3.06241 -0.471835 5.7516 217 178 137 
-2.94345 -0.473349 5.76488 117 81 45 
-3.49733 -0.429669 5.66912 134 109 87 
-0.394017 0.219858 4.18249 251 203 191 
-2.99883 -0.469345 5.77355 97 68 36 
-0.458208 0.214544 4.19536 104 76 73 
-0.346579 0.239363 4.17602 250 183 175 
-3.15546 -0.428738 5.75741 208 178 144 
-0.388782 0.237698 4.19255 171 96 100 
-3.30373 -0.405752 5.71066 180 154 121 
-2.61073 -0.450943 5.80937 100 74 47 
-3.65806 -0.395769 5.69189 107 88 73 
-3.04591 -0.417356 5.76741 115 79 53 
-2.6016 -0.440494 5.82288 206 179 150 
-0.400812 0.249507 4.20639 233 188 182 
-0.324022 0.26142 4.19148 231 204 185 
-3.07324 -0.410485 5.79384 216 180 146 
-3.49135 -0.37091 5.70873 190 164 127 
-3.28848 -0.382949 5.74356 85 58 37 
-0.641974 0.35212 4.00274 89 89 89 
-3.52412 -0.362769 5.70482 174 144 108 
-0.672648 0.369 3.98216 126 124 127 
-0.405654 0.272688 4.2136 240 198 184 
-3.4235 -0.3457 5.71839 165 139 112 
-3.41243 -0.349278 5.72601 171 145 112 
-3.31162 -0.361301 5.75599 187 161 124 
-0.453625 0.282954 4.20905 91 61 50 
-0.444304 0.288011 4.197 91 64 53 
-0.224143 0.283606 4.21203 93 66 57 
-3.36833 -0.346578 5.73736 82 58 34 
-0.461776 0.289557 4.19626 189 162 141 
-0.633339 0.376105 3.99985 148 147 145 
-0.453869 0.30426 4.19682 223 194 178 
-3.34184 -0.331894 5.76596 191 162 132 
-0.564392 0.379015 4.02882 118 117 122 
-0.457486 0.301299 4.21227 228 200 179 
-3.77327 -0.297591 5.70814 99 77 64 
-0.343994 0.308353 4.21109 190 77 73 
-0.628044 0.395343 4.00371 159 157 160 
-0.449143 0.309043 4.21426 227 198 180 
-0.431482 0.314771 4.2046 95 59 47 
-0.304932 0.310127 4.21885 211 218 200 
-3.35879 -0.302128 5.74874 158 131 110 
-3.40894 -0.292705 5.73996 185 152 119 
-3.14929 -0.309004 5.78049 202 175 145 
-0.392029 0.323614 4.20376 238 201 185 
-3.35358 -0.288746 5.77125 150 118 93 
-3.51653 -0.266621 5.74349 63 38 16 
-3.17282 -0.288944 5.81437 200 170 132 
-0.385963 0.339907 4.2246 255 184 182 
-0.631842 0.431162 4.02157 246 244 247 
-3.49928 -0.243206 5.73117 148 122 97 
-2.85913 -0.27658 5.83323 189 156 123 
-3.36091 -0.249024 5.77553 189 156 125 
-3.48492 -0.234032 5.76758 210 183 162 
-3.2142 -0.244467 5.79409 98 70 46 
-3.09419 -0.258838 5.82256 197 166 137 
-2.95285 -0.263561 5.83627 195 162 129 
-3.17348 -0.232069 5.81015 62 34 20 
-0.433219 0.381092 4.22582 238 180 168 
-0.400601 0.378815 4.22674 152 91 86 
-3.48402 -0.213896 5.77377 163 137 114 
-0.345807 0.380711 4.24004 242 206 192 
-3.33585 -0.218436 5.81568 198 165 132 
-3.31571 -0.214406 5.80945 103 72 44 
-3.30485 -0.203333 5.81816 192 162 134 
-3.03166 -0.200954 5.83564 120 94 57 
-2.9029 -0.178823 5.83757 110 71 42 
-2.92534 -0.167852 5.85562 180 145 103 
-3.11687 -0.141611 5.81784 206 167 128 
-3.49951 -0.122325 5.79548 123 94 76 
-3.38565 -0.120435 5.83285 110 75 47 
-3.31125 -0.119357 5.83852 184 155 125 
-3.51091 -0.104645 5.82884 105 78 49 
-3.49682 -0.105642 5.82615 173 149 123 
-3.43707 -0.100217 5.81117 148 122 99 
-3.20944 -0.114447 5.85346 181 151 123 
-3.38274 -0.102563 5.84968 202 161 129 
-3.05552 -0.113469 5.86832 206 167 128 
-3.31385 -0.0954943 5.83254 173 143 115 
-3.25319 -0.0923829 5.83221 142 114 75 
-2.65722 -0.112661 5.89273 183 150 119 
-2.98665 -0.103896 5.88532 196 167 137 
-3.50174 -0.0736718 5.81591 112 81 60 
-2.95319 -0.100153 5.8851 208 183 142 
-2.82003 -0.103036 5.87827 172 138 100 
-3.35001 -0.0812315 5.87557 181 150 119 
-3.12092 -0.0684601 5.88087 220 196 160 
-2.9439 -0.05585 5.87969 199 167 129 
-3.36529 -0.0474507 5.88473 207 172 140 
-3.3719 -0.019632 5.85395 183 153 129 
-2.80208 -0.0478418 5.92119 197 162 124 
-2.99179 -0.0213941 5.87403 106 75 44 
-3.03605 -0.027933 5.92519 188 153 121 
-3.48169 0.0606923 5.846 193 164 134 
-3.22429 0.052757 5.87376 90 59 31 
-2.75699 0.0210336 5.95737 208 178 140 
-3.44576 0.0785335 5.86384 103 72 51 
-3.54469 0.0852773 5.84814 108 85 69 
-3.4911 0.0816895 5.84956 188 160 123 
-2.71259 0.0558267 5.95052 121 83 38 
-3.31484 0.114907 5.89946 191 159 118 
-3.38933 0.132465 5.88481 175 143 118 
-3.23089 0.131332 5.88679 110 83 56 
-2.72084 0.0971358 5.96272 191 156 116 
-2.74138 0.102179 5.96502 116 83 48 
-0.397118 0.699766 4.11442 109 109 117 
-3.07137 0.140257 5.932 111 74 47 
-2.98687 0.139561 5.93341 172 141 110 
-3.15276 0.145883 5.92683 212 178 130 
-3.09481 0.189147 5.91372 115 85 47 
-2.99068 0.201541 5.95604 189 154 116 
-2.61049 0.177691 6.02344 204 174 146 
-3.3103 0.227761 5.91795 210 180 142 
-2.92888 0.216667 5.96254 158 131 101 
-3.32388 0.241611 5.92109 140 104 68 
-2.5836 0.22553 5.99058 198 172 137 
-0.333676 0.769413 4.15002 104 103 108 
-2.7799 0.244485 6.00749 78 48 22 
-3.12489 0.272887 5.94879 118 88 64 
-2.79889 0.251678 6.01991 176 144 106 
-3.16935 0.295594 5.93774 205 177 153 
-2.57607 0.247459 6.06094 118 83 41 
-3.43026 0.3125 5.91247 170 141 111 
-3.22112 0.32159 5.94977 163 134 104 
-2.93404 0.299493 5.99545 196 154 114 
-2.89729 0.30774 5.97831 191 157 119 
-3.3642 0.330906 5.9295 209 176 131 
-3.39297 0.335563 5.93843 119 86 53 
-3.15038 0.334865 5.95031 120 87 42 
-3.41796 0.385165 5.93249 69 47 24 
-3.14627 0.365985 5.99274 82 57 27 
-2.01784 0.340168 6.0883 120 84 48 
-3.07239 0.407219 5.96118 191 157 120 
-3.13922 0.40775 6.01567 102 73 43 
-2.17136 0.377768 6.07885 186 157 127 
-2.11932 0.372868 6.06714 116 85 56 
-2.54203 0.389544 6.07287 184 136 88 
-2.15039 0.379565 6.08292 86 60 37 
-3.39164 0.435262 5.97326 146 118 96 
-3.16026 0.419168 6.04529 154 127 98 
-2.70636 0.408636 6.0709 181 148 113 
-3.00525 0.426074 6.02699 107 71 37 
-3.24417 0.436092 6.01492 88 62 37 
-3.10199 0.442756 6.01594 178 145 114 
-2.92791 0.43847 6.03132 86 53 22 
-2.9397 0.466716 6.03802 193 158 116 
-3.08666 0.475244 6.0689 123 91 52 
-3.20458 0.496226 6.06748 100 71 41 
-3.16619 0.503163 6.0583 103 74 40 
-3.33792 0.513795 6.0188 183 153 115 
-3.26854 0.517617 6.02932 117 90 60 
-3.27048 0.533707 6.03169 186 157 127 
-2.44286 0.503637 6.10924 165 136 106 
-3.70178 0.579961 5.99785 116 99 81 
-3.20987 0.563145 6.05686 168 138 102 
-2.30458 0.537762 6.13214 163 133 97 
-3.18555 0.574141 6.07148 174 141 106 
-2.71547 0.551708 6.12289 186 153 118 
-2.01582 0.539096 6.13571 190 162 123 
-2.58676 0.557308 6.13133 212 178 133 
-3.27701 0.635135 6.05831 120 89 58 
-2.15492 0.59391 6.15886 197 167 129 
-3.00641 0.628701 6.1056 104 71 40 
-3.26952 0.644508 6.0779 195 164 120 
-3.12144 0.637703 6.10415 213 181 143 
-3.31913 0.64874 6.07671 179 150 118 
-2.48934 0.61351 6.15585 179 148 117 
-2.17945 0.600371 6.17627 95 69 42 
-3.20954 0.654594 6.07643 175 145 109 
-2.44491 0.618215 6.16441 110 78 53 
-2.78399 0.635938 6.11529 113 84 52 
-3.18771 0.659836 6.1025 106 73 42 
-2.95673 0.658713 6.1205 97 62 32 
-1.79165 0.626858 6.20762 156 125 94 
0.398062 0.989804 4.49697 121 95 82 
-2.07168 0.651461 6.18581 106 72 35 
-2.98667 0.683157 6.15109 201 166 126 
-2.04373 0.658685 6.1898 207 173 136 
-2.49733 0.684988 6.18019 179 149 115 
-2.61379 0.695325 6.15967 190 157 122 
-2.11799 0.675965 6.19758 167 129 92 
-3.04112 0.71909 6.13118 194 155 116 
-2.95217 0.716524 6.12201 88 58 22 
-2.62376 0.705656 6.15502 107 73 45 
-4.1783 0.779596 6.02695 88 72 59 
-2.35672 0.7117 6.18715 187 152 112 
-2.78697 0.747607 6.14317 187 156 128 
0.392817 1.04146 4.51483 115 87 73 
-2.83971 0.75442 6.12812 191 161 125 
-2.98984 0.76375 6.137 188 157 128 
-2.15984 0.733389 6.20962 188 159 127 
-2.29513 0.748548 6.2028 80 51 21 
-2.04538 0.739129 6.21318 198 168 130 
-2.99919 0.778405 6.14934 127 96 68 
-2.71218 0.773492 6.16188 102 73 43 
0.43702 1.05897 4.53139 54 32 21 
-2.9113 0.784931 6.14523 167 135 96 
-2.75049 0.781556 6.16342 124 87 58 
-2.14139 0.759445 6.21864 122 89 56 
-2.91263 0.810471 6.15344 185 152 119 
0.258863 1.09219 4.5091 53 24 8 
0.38919 1.08759 4.53611 116 89 62 
-2.12671 0.790631 6.22355 81 50 19 
-3.07488 0.831647 6.15439 226 188 151 
-3.04762 0.834984 6.1615 175 141 113 
-2.57682 0.815892 6.19396 193 159 131 
-1.9113 0.79128 6.23119 193 160 125 
-2.94064 0.832465 6.16876 178 148 112 
-3.12325 0.857196 6.13148 127 101 68 
-2.22035 0.820432 6.22988 190 152 115 
0.400597 1.10346 4.54429 45 23 9 
0.422973 1.10296 4.54043 57 27 16 
-3.14307 0.86386 6.15834 171 138 103 
-3.09783 0.847763 6.21518 136 108 68 
-2.14093 0.824637 6.23014 101 66 44 
-3.04781 0.86374 6.1576 200 166 131 
-2.07779 0.823606 6.24465 171 137 99 
0.387895 1.11362 4.54954 129 93 81 
-2.30329 0.855068 6.20962 166 135 104 
-3.0922 0.886232 6.20211 140 107 66 
-2.96894 0.893849 6.19868 198 159 118 
-2.93414 0.895114 6.1731 96 56 20 
-2.8009 0.889032 6.21243 199 169 133 
-2.57199 0.88794 6.21613 132 89 44 
-2.51821 0.885476 6.24066 185 152 119 
-1.97328 0.863103 6.27379 113 79 41 
-3.10776 0.919159 6.14234 98 69 35 
0.427679 1.15051 4.56165 52 29 13 
-3.01295 0.925334 6.16032 117 83 45 
-2.28351 0.889727 6.25697 186 152 115 
0.450787 1.15229 4.56161 54 27 20 
-3.5063 0.944832 6.14432 109 88 67 
-2.49492 0.907584 6.24017 190 160 122 
-2.3117 0.909155 6.26571 120 86 58 
-3.09333 0.956926 6.17807 143 110 69 
-2.31198 0.926407 6.23284 189 159 123 
-2.70359 0.935875 6.24284 97 67 43 
-2.56988 0.937999 6.22258 171 137 109 
-1.87955 0.906834 6.2688 73 45 23 
-2.99219 0.957395 6.22302 203 171 132 
-2.6261 0.952079 6.2424 190 159 128 
0.38047 1.19307 4.56549 119 85 60 
-3.26539 0.991569 6.167 172 145 116 
-2.30492 0.950354 6.27956 89 58 37 
-2.18987 0.943113 6.29917 93 62 33 
-2.19744 0.958311 6.24786 108 76 53 
-1.92067 0.942269 6.30811 206 172 134 
-2.22095 0.959405 6.28138 178 144 116 
-1.99087 0.95765 6.28105 159 129 95 
-2.12424 0.95498 6.3116 194 159 129 
-2.22205 0.972038 6.2928 91 56 24 
-2.95846 1.00808 6.23595 171 138 103 
-1.91143 0.966643 6.3208 189 159 125 
-3.00163 1.01294 6.26024 184 148 114 
-2.79534 1.01535 6.22651 168 141 114 
-2.79357 1.00482 6.25223 75 52 21 
-3.15522 1.03336 6.21803 184 147 103 
-2.59835 1.01212 6.24874 193 153 117 
-1.93633 0.983086 6.30837 92 61 33 
-2.23304 1.00507 6.27807 215 177 138 
-2.94051 1.04556 6.2261 124 88 52 
-2.79187 1.03836 6.24911 88 57 36 
-3.27686 1.06597 6.19382 170 136 99 
-3.00339 1.06344 6.23829 192 163 123 
-2.06118 1.02482 6.31411 216 182 145 
-2.85281 1.06299 6.25558 109 79 45 
-2.29598 1.03944 6.31647 183 157 124 
-3.03057 1.08175 6.18132 144 106 69 
-2.93241 1.08182 6.25336 189 152 110 
-2.84069 1.0801 6.24622 187 153 118 
-3.5208 1.11385 6.20337 170 144 119 
-2.10749 1.0618 6.31745 151 124 94 
-3.92096 1.14569 6.19049 97 76 55 
-1.89742 1.07086 6.35961 164 136 112 
-2.2214 1.09375 6.3275 90 56 29 
-1.87762 1.0758 6.33678 67 41 18 
-1.85105 1.07969 6.33163 76 48 26 
-2.12684 1.10404 6.28423 185 151 114 
-2.14151 1.08771 6.3394 93 63 29 
-2.58181 1.1199 6.31052 93 57 35 
-2.52027 1.117 6.29163 111 77 42 
-1.93939 1.09696 6.36657 173 143 107 
-2.40483 1.13209 6.31344 73 39 2 
-2.36133 1.12424 6.34635 161 127 99 
-2.23661 1.12183 6.3363 182 146 110 
-2.90315 1.15052 6.28349 186 150 118 
-1.80317 1.1067 6.37129 172 142 116 
-1.9991 1.12815 6.343 193 157 131 
-2.44522 1.14404 6.34698 91 61 27 
-2.3643 1.14992 6.32234 180 138 100 
-2.80761 1.16339 6.30654 93 67 42 
-3.51552 1.20689 6.21158 143 121 97 
-2.61079 1.16912 6.29706 191 152 119 
-2.46361 1.15678 6.3211 206 168 129 
-2.53215 1.16733 6.32863 179 148 119 
-3.35281 1.20884 6.22114 195 156 113 
-2.44135 1.16941 6.34118 98 65 32 
-1.98449 1.15363 6.36222 118 84 47 
-3.43785 1.22312 6.25013 147 117 91 
-2.40008 1.18447 6.33906 193 163 127 
-2.57214 1.1954 6.31438 119 80 39 
-2.26634 1.18439 6.35537 121 88 57 
-2.17435 1.18289 6.35317 172 139 108 
-2.26321 1.18483 6.34516 121 88 57 
-2.88713 1.21796 6.30255 104 69 37 
-1.95388 1.17959 6.40365 190 156 118 
-3.0369 1.24178 6.31449 204 170 133 
-3.0037 1.24651 6.28119 122 92 54 
-2.15084 1.2084 6.36695 186 153 118 
-2.31873 1.216 6.38459 182 152 118 
-2.60761 1.23466 6.32446 93 62 33 
-2.93231 1.25838 6.30961 196 160 128 
-1.93352 1.21271 6.41435 122 89 56 
-1.99864 1.22193 6.40318 175 142 107 
-2.93217 1.27899 6.31994 183 148 116 
-2.84298 1.27369 6.3217 160 131 101 
-1.75103 1.22465 6.44436 168 134 107 
-1.7148 1.21669 6.46781 186 153 122 
-1.83942 1.23456 6.4207 68 45 14 
-2.01729 1.24579 6.42292 216 186 150 
-2.64836 1.27565 6.35166 197 163 138 
-2.19832 1.25972 6.39575 56 36 11 
-2.74895 1.2857 6.34769 89 61 24 
-2.52031 1.27282 6.40499 83 53 29 
-2.22604 1.26322 6.39117 80 49 28 
-1.90192 1.25018 6.41087 157 126 97 
-3.08976 1.30508 6.29953 112 74 37 
-1.79712 1.25093 6.41055 163 136 106 
-2.72519 1.2929 6.34082 171 138 107 
-2.76358 1.29738 6.34263 182 153 113 
-2.48172 1.28706 6.38145 198 164 126 
-2.03794 1.26401 6.41771 58 34 8 
-1.8799 1.26791 6.40186 194 156 119 
-2.77762 1.30444 6.34374 124 91 74 
-2.82305 1.31294 6.34338 161 130 99 
-2.55515 1.2983 6.3618 86 60 37 
-1.76299 1.26485 6.44282 92 65 38 
-2.05473 1.2812 6.41056 188 157 128 
-2.63697 1.3197 6.38822 202 173 133 
-2.04252 1.29173 6.40719 120 89 61 
-1.86203 1.30226 6.43902 177 139 103 
-1.65747 1.29391 6.46778 172 142 116 
-1.78718 1.30488 6.47185 79 51 29 
-2.65569 1.3531 6.36934 113 83 55 
-2.32191 1.33911 6.39893 102 70 49 
-2.15172 1.33138 6.40011 190 160 126 
-2.53852 1.34877 6.37889 102 72 48 
-2.79808 1.36743 6.36711 186 156 120 
-2.20132 1.33948 6.43703 193 163 135 
-2.49137 1.36308 6.38684 103 79 51 
-2.34858 1.35694 6.41688 99 72 43 
-2.66964 1.38824 6.3711 178 145 110 
-2.22656 1.36864 6.42472 188 155 122 
-2.44065 1.38529 6.41789 198 158 122 
-2.33374 1.40883 6.41796 113 84 52 
-2.00143 1.40257 6.47799 163 131 92 
-1.97632 1.40256 6.46031 93 64 32 
-2.33041 1.42135 6.38791 186 155 124 
-2.27965 1.41111 6.47516 190 155 123 
-2.22455 1.41206 6.43968 146 120 95 
-1.87071 1.40012 6.47802 205 161 114 
-2.53857 1.42974 6.43349 179 150 118 
-2.01118 1.40782 6.45655 105 74 43 
-2.66355 1.44919 6.39633 99 68 47 
-2.33094 1.43797 6.41021 85 58 31 
-2.00207 1.45921 6.45666 116 81 51 
-2.23508 1.47061 6.45699 164 133 104 
-2.17048 1.4908 6.4669 94 63 35 
-2.66758 1.53394 6.43641 194 162 137 
-2.08053 1.5109 6.47738 130 96 68 
-1.83884 1.50313 6.5317 110 77 44 
-1.98124 1.53714 6.52217 198 164 129 
-2.1806 1.55852 6.49125 198 160 121 
-2.20264 1.56275 6.46106 173 140 107 
-2.0437 1.5648 6.50676 201 165 131 
-2.26525 1.62862 6.51412 96 61 39 
-2.0132 1.62125 6.5015 102 68 40 
-2.10024 1.76017 6.56632 109 75 47 
-0.296205 -0.934474 3.86335 72 91 89 
-0.798686 -0.868089 3.79873 26 40 25 
-0.698338 -0.864661 3.8106 102 71 50 
-0.488913 -0.873398 3.86375 174 90 20 
-1.1335 -0.841396 3.80547 223 108 147 
-0.851143 -0.845739 3.84532 178 126 102 
-0.303298 -0.847659 3.88914 183 123 63 
-0.802703 -0.812395 3.84369 216 187 147 
-0.4894 -0.740623 3.89694 80 117 99 
-0.945382 -0.65767 3.85434 76 22 35 
-1.15468 -0.629348 3.85555 43 3 12 
-0.275343 -0.629554 3.89786 130 125 96 
-0.770477 -0.644236 3.90192 21 38 30 
-1.02874 -0.59307 3.89306 30 12 10 
-0.884661 -0.56659 3.86969 238 235 220 
-1.04503 -0.569538 3.89959 125 24 58 
-0.741887 -0.581681 3.9403 50 32 12 
-0.522311 -0.572503 3.93418 46 36 24 
-0.758529 -0.567541 3.93236 94 119 98 
-0.525003 -0.546268 3.95629 79 95 84 
-0.783989 -0.534499 3.92899 86 97 91 
-0.391362 -0.480953 3.87062 233 204 190 
-0.815058 -0.47289 3.87948 191 142 138 
-0.426483 -0.46595 3.88602 43 33 21 
-0.70332 -0.516163 3.96442 170 118 97 
-0.61649 -0.512161 3.96462 129 150 117 
-0.806476 -0.493976 3.96504 72 112 88 
-0.727242 -0.49207 3.96145 167 136 118 
-0.655682 -0.485139 3.97562 33 22 16 
-0.253314 -0.406571 3.89038 219 190 174 
-0.79906 -0.40481 3.95818 214 128 71 
-0.717553 -0.366289 4.00207 54 21 6 
-1.12109 -0.332846 3.97 215 75 74 
-0.474253 -0.304543 3.95041 131 122 115 
-1.03634 -0.294657 3.96253 57 21 31 
-0.574931 -0.258222 3.96484 98 91 85 
-1.04831 -0.255737 3.9723 73 15 13 
-0.0083627 -0.229841 3.94073 40 9 17 
-0.0208236 -0.228883 3.946 160 99 98 
-0.104819 -0.232432 4.03869 49 81 58 
-1.04966 -0.21391 3.99888 64 13 10 
-2.35546 -1.1142 5.62139 188 147 103 
-1.03428 -0.204083 4.00914 109 4 0 
0.0985337 -0.227455 4.10348 98 89 80 
-0.727782 -0.137271 4.00688 248 235 227 
-0.0553701 -0.147321 4.02412 0 16 0 
-0.933051 -0.138111 4.0278 220 89 133 
-0.707261 -0.107324 3.98378 235 222 213 
-0.84839 -0.135143 4.03815 122 0 0 
-0.800205 -0.13371 4.03895 152 27 59 
-0.937682 -0.123634 4.04454 209 91 91 
-2.69719 -0.970549 5.6276 102 75 48 
-0.927338 -0.117763 4.04438 182 76 76 
-0.793839 -0.120897 4.05755 73 4 0 
-0.876016 -0.111643 4.05101 218 56 53 
-0.970594 -0.0751559 4.04214 105 28 20 
-3.05293 -0.89927 5.63584 229 200 158 
-3.01057 -0.891861 5.63133 194 161 130 
-0.113091 -0.0649106 4.09321 0 3 15 
-0.996902 -0.0512317 4.05227 47 0 0 
-0.0361564 -0.00896198 4.02998 114 153 148 
-3.12043 -0.805414 5.64037 227 200 171 
-2.70233 -0.807976 5.6946 174 148 113 
-3.0142 -0.786109 5.65594 211 177 139 
-3.5537 -0.746477 5.58921 157 131 104 
-3.10033 -0.759505 5.6297 214 184 146 
-3.14341 -0.749979 5.6262 105 74 43 
-0.732534 0.01819 4.09908 81 0 0 
-3.00987 -0.7543 5.66842 211 177 131 
-3.3161 -0.715061 5.62441 195 166 136 
-0.996674 0.0630672 4.04536 198 65 66 
-0.724532 0.0402265 4.09532 172 62 71 
-3.35527 -0.70268 5.60283 192 150 125 
-3.01267 -0.735212 5.68515 127 92 50 
-2.79498 -0.725271 5.69346 102 68 31 
-0.64907 0.0567351 4.10196 240 150 142 
-3.10768 -0.702077 5.67795 205 174 145 
-3.34704 -0.679137 5.63699 112 79 48 
-2.68156 -0.709576 5.72402 176 146 108 
-3.22668 -0.667478 5.64966 109 79 53 
-3.13474 -0.68316 5.71996 223 197 162 
-3.34084 -0.642361 5.65594 201 170 141 
-3.12094 -0.646583 5.70135 107 81 54 
-3.35535 -0.620633 5.66937 190 158 119 
-3.09878 -0.624028 5.69145 205 179 146 
-2.90199 -0.627541 5.70219 111 72 39 
-2.8168 -0.649461 5.74588 169 131 94 
-3.40846 -0.589252 5.64323 84 57 38 
-3.25317 -0.571313 5.66919 116 87 55 
-3.11109 -0.572237 5.68788 199 165 128 
-3.37167 -0.5435 5.67724 203 161 121 
-3.00552 -0.562715 5.7164 209 177 130 
0.155537 0.217942 4.01856 173 173 173 
-3.53551 -0.517542 5.65305 182 155 125 
-2.77632 -0.556378 5.75204 178 151 121 
-3.27972 -0.506318 5.70032 98 67 38 
-0.390379 0.178185 4.17464 67 21 24 
-0.395045 0.193765 4.16862 210 162 152 
-0.403453 0.203601 4.16705 85 24 21 
-0.522911 0.20564 4.18363 227 198 180 
-3.37759 -0.451706 5.70034 153 128 98 
-0.310084 0.208704 4.18368 228 202 179 
-3.00325 -0.452985 5.76608 202 168 130 
-3.48691 -0.412636 5.69767 165 137 113 
-0.468678 0.238022 4.17946 96 64 49 
-3.51816 -0.402719 5.68676 177 153 127 
-3.65278 -0.393192 5.68319 108 89 74 
-0.331594 0.240313 4.20751 112 80 65 
-0.395354 0.258813 4.18138 247 207 199 
-2.87481 -0.415025 5.81542 202 163 132 
-0.319394 0.269412 4.18014 227 200 179 
-0.390642 0.272909 4.20304 249 201 189 
-3.25233 -0.366992 5.75079 95 68 39 
-0.49686 0.278025 4.2053 123 92 71 
-2.85901 -0.383224 5.83163 121 82 49 
-0.437613 0.290524 4.20663 95 68 57 
-3.44985 -0.356425 5.78032 176 148 111 
-3.34998 -0.337656 5.77309 191 162 132 
-3.02972 -0.343814 5.78965 126 94 56 
-2.81853 -0.336946 5.82634 107 80 51 
-0.405956 0.312227 4.2161 245 212 197 
-0.345885 0.309375 4.22077 183 84 79 
-2.88643 -0.336057 5.84237 107 77 41 
-3.15942 -0.315475 5.80222 218 188 160 
-0.45479 0.322814 4.21453 94 65 49 
-3.16305 -0.282708 5.79324 211 182 142 
-3.11248 -0.272056 5.82002 107 75 36 
-2.86409 -0.279278 5.84351 189 156 123 
-3.52207 -0.228095 5.77307 166 138 101 
-2.78792 -0.245769 5.86269 178 150 113 
-3.34063 -0.220278 5.82355 197 164 131 
-3.1166 -0.236338 5.84831 213 181 142 
-3.41428 -0.204474 5.78705 170 135 105 
-3.18851 -0.197046 5.81009 182 155 128 
-2.87189 -0.21286 5.84124 114 83 52 
-3.45929 -0.189409 5.80748 160 131 91 
-3.02888 -0.202535 5.82973 116 90 53 
-0.356034 0.399498 4.23256 174 80 81 
-2.88222 -0.144221 5.86177 182 147 105 
-3.51091 -0.0767819 5.8305 110 79 58 
-3.34936 -0.0823482 5.85137 105 72 41 
-3.4915 -0.0660907 5.83057 173 147 122 
-3.28477 -0.0783316 5.85923 167 136 105 
-3.12828 -0.0715388 5.89471 220 196 160 
-2.79193 -0.076732 5.92393 104 73 42 
-3.35018 -0.0417496 5.86849 206 171 139 
-2.89153 -0.039013 5.90588 166 132 97 
-3.52931 0.0225109 5.8468 118 88 60 
-2.92292 0.00762941 5.88713 198 158 122 
-3.29873 0.0889201 5.886 177 146 115 
-3.4179 0.10714 5.87593 91 63 41 
-0.430195 0.677865 4.10525 129 128 133 
-2.20519 0.0733027 6.00907 201 164 122 
-2.96568 0.106851 5.94516 180 148 109 
-3.22594 0.134807 5.87741 109 79 51 
-2.73352 0.160102 5.96876 181 156 116 
-3.49222 0.203193 5.90632 77 55 34 
-3.48064 0.230063 5.87271 178 154 128 
-3.25095 0.210926 5.90715 196 167 127 
-3.10797 0.208621 5.93812 230 200 162 
-3.39304 0.231067 5.89509 100 70 34 
-2.94026 0.202987 5.95396 100 71 41 
-3.28152 0.240778 5.91647 88 67 40 
-3.13874 0.243834 5.89372 184 152 111 
-3.57727 0.264151 5.90995 93 75 61 
-3.4201 0.277697 5.88147 156 134 95 
-2.88874 0.25449 5.98823 97 64 33 
-0.334666 0.782076 4.16141 88 86 91 
-2.80637 0.249771 6.03373 180 147 106 
-3.42294 0.314823 5.89444 166 136 108 
-3.17196 0.294546 5.94328 205 177 153 
-2.5726 0.261312 6.02636 189 157 119 
-0.356392 0.802905 4.15241 136 135 140 
-2.99593 0.308784 5.95112 209 175 140 
-3.38687 0.33743 5.92723 118 88 54 
-3.27328 0.337271 5.94786 117 88 58 
-3.15528 0.333073 5.96048 121 88 43 
-3.49054 0.374644 5.94375 165 138 117 
-3.58525 0.430679 5.96544 121 100 81 
-3.19338 0.426067 6.02885 184 156 119 
-3.03583 0.422665 6.03877 200 164 116 
-3.38209 0.455412 5.98436 97 63 35 
-3.45168 0.461193 5.99088 151 121 85 
-2.12373 0.420319 6.0599 176 149 119 
-3.01568 0.46911 6.06256 109 75 38 
-2.76947 0.46641 6.09677 205 173 135 
-3.09338 0.485293 6.04859 204 173 129 
-3.38744 0.509741 6.01555 183 148 108 
-1.8392 0.454913 6.12109 155 127 103 
-3.8545 0.539038 5.97887 116 98 84 
-3.27437 0.533212 6.03776 181 152 122 
-3.44345 0.559233 6.01671 120 93 63 
-3.03457 0.566883 6.0801 218 179 140 
-2.71063 0.553672 6.11362 186 153 118 
-3.7189 0.61052 5.99802 104 86 74 
-3.38047 0.597522 6.07722 62 37 15 
-3.25781 0.599169 6.05215 196 162 125 
-3.4629 0.608547 6.06582 106 79 58 
-2.2931 0.594876 6.18279 189 160 128 
-2.15081 0.598965 6.14983 193 164 124 
-2.4728 0.620858 6.16005 76 49 22 
-2.31817 0.636739 6.17458 173 141 102 
-2.78536 0.679963 6.14644 93 65 44 
-2.0413 0.659379 6.18276 207 173 136 
-3.27863 0.704722 6.08222 161 132 98 
-2.92935 0.694237 6.11412 108 75 40 
-3.22149 0.711666 6.12627 194 160 123 
-2.16841 0.694151 6.13628 175 149 116 
-3.04779 0.71945 6.1448 193 153 117 
-4.17226 0.780468 6.01781 86 69 59 
-3.17897 0.740878 6.1085 198 169 137 
-2.85351 0.730351 6.12886 178 142 108 
-2.01311 0.711844 6.19378 179 149 113 
-2.99655 0.779117 6.13927 125 94 66 
-2.90302 0.786225 6.12832 170 136 98 
-2.97591 0.789683 6.14754 199 167 126 
-2.74958 0.784048 6.17227 131 92 61 
0.28322 1.09092 4.54274 41 31 22 
-2.19653 0.805221 6.21304 87 57 33 
0.494479 1.10278 4.53625 133 94 65 
-2.46238 0.83317 6.2251 175 140 110 
-3.2072 0.876532 6.14636 94 68 45 
-2.90643 0.867999 6.20387 85 54 33 
-3.27225 0.896193 6.15375 145 118 88 
-2.33989 0.859184 6.22551 186 151 109 
-3.08299 0.887318 6.18416 137 104 63 
-3.03602 0.892402 6.17303 196 162 124 
-2.3616 0.855466 6.28102 189 156 113 
-2.37376 0.880851 6.21657 177 144 109 
-2.62411 0.893605 6.226 186 156 118 
-2.9996 0.934807 6.1571 101 68 35 
-2.49191 0.914418 6.28172 85 58 31 
-3.12039 0.959365 6.19874 221 187 152 
-2.60993 0.953045 6.25786 93 63 35 
-2.61888 0.957893 6.23418 197 166 135 
-3.27138 0.991599 6.17616 175 148 118 
-2.12193 0.954997 6.30674 191 158 127 
-2.35299 0.977952 6.27831 172 133 90 
-2.32279 0.977114 6.28538 163 129 94 
-2.78208 1.00304 6.22538 81 55 28 
-3.27751 1.03953 6.20918 173 145 108 
-2.80768 1.01361 6.25582 173 146 116 
-3.16153 1.03262 6.23123 183 146 102 
-2.81521 1.03147 6.23795 105 71 44 
-2.46232 1.01099 6.28323 197 155 115 
-2.42608 1.01899 6.25493 90 61 21 
-2.13448 1.02285 6.2979 93 63 39 
-2.11411 1.02106 6.29464 189 153 121 
-2.82393 1.04814 6.28314 177 143 116 
-2.00955 1.01823 6.33229 64 36 12 
-3.4941 1.08857 6.19222 68 42 19 
-2.36693 1.04465 6.30043 86 61 31 
-2.85069 1.06656 6.24877 111 80 51 
-2.84409 1.07987 6.25347 186 152 117 
-2.60982 1.07952 6.28133 102 72 38 
-1.93305 1.091 6.346 196 166 128 
-3.29875 1.15413 6.25905 177 146 115 
-2.76176 1.12946 6.30046 194 155 122 
-2.54008 1.12637 6.3185 170 141 107 
-2.4995 1.12748 6.32126 75 40 18 
-1.99849 1.10287 6.3645 186 153 118 
-2.85572 1.14619 6.29018 166 136 102 
-2.69539 1.15192 6.26666 104 72 47 
-2.45204 1.1337 6.31097 174 134 99 
-2.9201 1.16173 6.29711 96 62 37 
-3.16945 1.1846 6.26652 175 143 102 
-3.02917 1.17761 6.2664 107 77 41 
-2.36102 1.1543 6.31447 181 143 104 
-2.65371 1.17938 6.31224 168 137 108 
-3.4058 1.22287 6.25171 190 151 118 
-2.88535 1.20334 6.29474 180 149 120 
-2.20014 1.17518 6.33315 156 123 92 
-2.10875 1.1726 6.36442 102 63 34 
-1.69941 1.15933 6.38017 181 150 122 
-2.85784 1.21687 6.30379 87 60 31 
-1.95697 1.17902 6.41605 200 166 128 
-1.86939 1.18827 6.38582 160 132 95 
-1.74716 1.17795 6.40428 164 135 103 
-2.77812 1.23647 6.30216 177 146 115 
-2.64323 1.22189 6.3417 203 170 137 
-2.3129 1.20803 6.40282 140 103 74 
-2.22491 1.20862 6.37146 88 55 38 
-1.99489 1.22207 6.39175 175 142 107 
-1.65813 1.22981 6.45121 168 134 99 
-2.19119 1.26014 6.3739 53 31 7 
-1.79888 1.25115 6.41591 165 138 108 
-2.58966 1.29659 6.39527 199 157 117 
-2.83302 1.31604 6.36782 166 136 102 
-2.70889 1.3145 6.32905 95 66 32 
-2.12073 1.29391 6.37498 187 149 104 
-2.56171 1.32081 6.35752 205 163 123 
-2.94384 1.34528 6.33231 216 174 132 
-1.78062 1.30432 6.4471 83 55 33 
-2.87851 1.36007 6.33609 188 155 120 
-3.0736 1.38112 6.37465 112 78 41 
-2.08148 1.33709 6.42207 186 148 112 
-2.66411 1.37581 6.38532 126 96 62 
-1.88361 1.34948 6.42872 181 150 122 
-2.52798 1.3785 6.41446 179 146 111 
-2.44322 1.3853 6.42486 198 158 122 
-1.86527 1.37814 6.46437 173 135 98 
-1.84588 1.38485 6.48255 72 44 20 
-2.28319 1.41126 6.48479 187 152 120 
-2.40708 1.4247 6.41652 167 133 98 
-1.82046 1.40142 6.4903 166 136 108 
-2.81237 1.46636 6.35269 173 143 119 
-2.37811 1.43721 6.45494 93 65 28 
-2.26506 1.44753 6.44776 192 158 123 
-1.92672 1.46428 6.5102 95 64 36 
-2.16784 1.5086 6.45976 188 152 116 
-2.79671 1.5333 6.46374 182 147 115 
-1.84389 1.50345 6.55057 103 70 37 
-2.15269 1.54022 6.47037 74 44 16 
-1.997 1.53034 6.50611 90 60 32 
-1.85117 1.52875 6.49777 90 59 30 
-2.29018 1.58279 6.47537 121 86 64 
-2.26777 1.62859 6.52468 89 57 34 
-1.92654 1.80064 6.60779 171 141 105 
-0.781144 -0.860071 3.80865 214 217 208 
-0.27822 -0.865614 3.86722 182 128 104 
-0.545698 -0.846952 3.85867 30 4 3 
-0.736388 -0.796044 3.87863 143 96 68 
-0.937446 -0.730416 3.87396 69 35 0 
-1.23083 -0.661746 3.79927 186 56 100 
-1.00811 -0.705811 3.87067 16 1 4 
-0.898287 -0.697006 3.88323 50 41 24 
-0.508888 -0.698289 3.92377 90 113 97 
-0.967647 -0.64282 3.8618 74 36 51 
-0.64545 -0.630053 3.92461 175 116 98 
-0.763697 -0.592247 3.90323 101 131 81 
-1.15162 -0.593463 3.90959 73 5 30 
-0.683127 -0.59592 3.9282 152 35 41 
-0.618744 -0.564615 3.93644 183 98 95 
-0.789743 -0.559975 3.9209 99 73 60 
-0.667876 -0.551412 3.93534 173 106 90 
-0.127366 -0.517325 3.94747 123 74 69 
-0.259054 -0.481 3.90708 37 23 14 
-0.78305 -0.510368 3.94398 95 126 108 
-0.318474 -0.438961 3.87011 227 200 181 
-0.97371 -0.492051 3.94738 217 166 135 
-0.636272 -0.493777 3.96504 44 21 15 
-0.824371 -0.490454 3.95586 7 14 6 
-0.651678 -0.458713 3.93771 47 33 32 
-0.659662 -0.478452 3.98436 41 20 15 
-0.833983 -0.434233 3.94127 0 20 0 
-0.646357 -0.449828 3.96554 168 120 98 
-0.675364 -0.44144 3.96641 49 11 0 
-1.03174 -0.370399 3.96881 68 35 46 
-1.20022 -0.31324 3.94859 25 10 13 
-0.0971598 -0.250065 3.99739 25 0 0 
0.0190706 -0.249086 4.0388 138 126 112 
-1.06509 -0.214109 3.98498 103 94 89 
-0.919249 -0.235526 4.02528 242 171 203 
-0.952991 -0.121094 4.01529 42 31 29 
-0.789499 -0.136295 4.05452 228 81 126 
-2.85824 -0.963355 5.60614 176 146 108 
-0.872291 -0.108429 4.03998 206 86 85 
-0.732337 -0.114583 4.11219 219 139 116 
-2.78388 -0.885904 5.69388 192 162 128 
-0.877406 -0.0417764 4.06447 125 0 0 
-0.686098 -0.0453323 4.09421 226 208 188 
-3.13019 -0.845969 5.65282 225 194 165 
-3.08406 -0.810297 5.67571 127 94 61 
-2.77819 -0.827173 5.71054 201 166 128 
-0.607837 0.0212259 4.0602 115 32 24 
-0.00100338 0.0547811 4.00557 180 176 175 
-1.02286 0.0700148 4.04319 26 5 10 
-3.16448 -0.708548 5.66484 184 155 121 
-0.870459 0.0691101 4.07328 166 87 90 
-3.11264 -0.706149 5.68887 206 177 147 
-3.58407 -0.634964 5.63773 177 152 122 
-2.90208 -0.679174 5.73969 124 88 54 
-1.05874 0.154501 4.00311 158 33 37 
-0.597255 0.140711 4.06598 48 0 0 
-3.42503 -0.576404 5.64505 170 141 111 
-3.59918 -0.580935 5.66813 169 148 129 
-3.41213 -0.554802 5.69536 186 157 117 
-3.05904 -0.551047 5.71584 218 191 138 
-3.97334 -0.480547 5.67538 118 98 73 
-3.86034 -0.446557 5.6392 87 68 54 
-0.358999 0.200606 4.18468 240 212 200 
-3.16567 -0.478063 5.7598 192 159 116 
-0.353317 0.235468 4.18127 237 205 194 
-0.242502 0.229104 4.18891 93 84 79 
-3.70275 -0.370579 5.68905 98 75 59 
-3.21817 -0.395749 5.7586 112 85 55 
-3.09786 -0.397805 5.78258 216 186 150 
-0.397707 0.257046 4.21151 133 50 60 
-0.309141 0.271891 4.21035 105 81 71 
-3.31283 -0.363337 5.76347 184 156 119 
-3.42215 -0.343498 5.73878 173 145 108 
-0.307502 0.300152 4.19111 234 208 181 
-2.03983 -0.402592 5.90433 197 164 121 
-0.55705 0.359479 4.05468 215 213 216 
-3.30234 -0.319157 5.75197 184 154 116 
-3.03344 -0.345407 5.79607 126 94 56 
-3.4816 -0.322636 5.78517 183 154 124 
-3.13218 -0.32014 5.78748 101 73 49 
-0.361649 0.318001 4.22736 250 202 190 
-4.05376 -0.264631 5.71169 94 78 65 
-3.35742 -0.26962 5.77702 198 162 126 
-0.377592 0.347413 4.22372 237 215 201 
-2.72771 -0.263162 5.88935 193 163 129 
-0.623943 0.479416 4.02578 120 121 123 
-3.34733 -0.191169 5.8259 201 169 128 
-3.66171 -0.161489 5.78861 121 99 78 
-3.09507 -0.18344 5.84301 210 179 148 
-3.11596 -0.145583 5.83115 214 174 139 
-3.28034 -0.145769 5.85111 175 146 114 
-2.85384 -0.115707 5.87426 197 159 120 
-3.37846 -0.0795975 5.82699 104 69 47 
-3.43513 -0.0376125 5.8421 176 141 103 
-3.37684 -0.0134637 5.89715 116 86 58 
-3.58394 0.00606249 5.84886 118 102 76 
-3.06507 -0.00632465 5.92733 212 184 145 
-0.42246 0.649077 4.10365 59 60 64 
-0.439044 0.659245 4.10579 62 63 65 
-0.440022 0.713723 4.1067 164 163 168 
-0.340482 0.731246 4.12109 148 147 153 
-3.48867 0.227414 5.88696 177 151 126 
-3.34116 0.220655 5.89124 118 88 52 
-2.94992 0.200203 5.97169 113 82 51 
-3.1714 0.229389 5.9112 92 63 33 
-0.521502 0.769905 4.12056 43 43 43 
-3.58495 0.261964 5.92281 97 79 65 
-0.461334 0.769519 4.18453 143 142 147 
-2.57029 0.235864 6.08072 183 142 98 
-3.1914 0.287493 5.98198 204 174 150 
-3.12017 0.28465 5.97868 187 156 125 
-3.01959 0.301498 5.97987 203 169 132 
-3.3784 0.351054 5.88735 158 132 99 
-3.12761 0.330868 5.9434 187 146 80 
-3.36078 0.361701 5.97269 107 78 46 
-3.97059 0.402535 5.93132 101 84 68 
-3.113 0.406594 6.0129 215 183 145 
-3.593 0.428541 5.9792 118 97 78 
-2.30863 0.447065 6.13653 100 74 41 
-3.37068 0.496513 6.01877 109 77 54 
-2.96081 0.499532 6.0405 192 158 120 
-3.22002 0.510387 6.05356 221 190 162 
-3.44799 0.561236 6.02902 117 90 60 
-3.73129 0.608041 6.01877 104 86 74 
-3.45104 0.605125 6.04114 110 86 62 
-1.80731 0.555871 6.14637 185 143 105 
-2.97817 0.646297 6.10765 204 172 134 
-3.0668 0.676389 6.11148 127 98 58 
-3.21485 0.711615 6.09788 185 153 115 
-2.00802 0.667263 6.17846 108 76 53 
-3.2593 0.717245 6.1298 99 68 40 
-2.54607 0.706643 6.16179 197 159 120 
-3.26903 0.745826 6.11908 186 153 112 
-3.365 0.761821 6.1004 51 29 6 
-2.33278 0.726127 6.15508 189 156 113 
-2.30097 0.748667 6.21206 90 59 31 
-2.62034 0.785552 6.19082 189 160 126 
-3.2623 0.868138 6.13439 95 68 49 
-3.80353 0.901664 6.09682 98 79 62 
-2.64078 0.859205 6.17258 83 54 22 
-3.22066 0.874644 6.17262 100 73 52 
-3.21419 0.910917 6.13341 182 154 117 
-2.99761 0.895146 6.19884 180 145 115 
-2.67539 0.883636 6.20502 167 128 87 
-2.78572 0.899757 6.18315 199 166 131 
-3.19682 0.933814 6.15533 203 175 136 
-1.91447 0.880002 6.26618 198 166 128 
-3.41433 0.973628 6.14729 160 133 104 
-2.96462 0.970076 6.1751 197 165 126 
-3.19303 0.991437 6.20006 104 75 43 
-2.70612 0.98245 6.24112 104 78 55 
-2.82741 1.02729 6.21521 184 149 119 
-2.65508 1.04966 6.25981 113 82 51 
-2.18685 1.02911 6.31719 93 62 41 
-2.83473 1.06933 6.31085 93 66 37 
-1.95678 1.03326 6.32755 123 90 55 
-2.91998 1.07613 6.27733 111 72 41 
-2.51991 1.07216 6.27891 56 30 15 
-1.82584 1.08776 6.35797 53 22 1 
-3.27959 1.15553 6.22071 159 130 98 
-2.02371 1.11676 6.3672 96 66 40 
-3.07368 1.17344 6.30507 196 157 116 
-3.37829 1.20206 6.26478 194 155 112 
-2.45071 1.17191 6.30041 210 168 128 
-1.94598 1.15277 6.38882 99 68 39 
-3.05285 1.21801 6.31771 110 73 46 
-2.07391 1.19458 6.37854 198 162 126 
-1.95678 1.18587 6.43305 203 168 126 
-2.86726 1.23959 6.33646 91 59 36 
-3.12001 1.26627 6.26028 218 188 152 
-2.79175 1.23962 6.33688 185 151 113 
-2.14649 1.21255 6.36147 192 163 123 
-2.82627 1.26043 6.31689 187 160 130 
-1.86172 1.25579 6.43546 171 137 99 
-2.56091 1.28692 6.38134 87 65 41 
-2.59397 1.2964 6.40664 199 157 117 
-2.60811 1.3364 6.35403 214 180 143 
-2.47319 1.32822 6.3998 214 172 132 
-1.71499 1.3492 6.45952 182 151 120 
-2.20795 1.40214 6.42341 82 55 34 
-1.87081 1.37807 6.4849 179 139 104 
-2.24016 1.41192 6.43316 77 49 25 
-2.02461 1.44519 6.47198 177 141 107 
-2.56485 1.48847 6.36787 194 153 109 
-2.38923 1.51097 6.40397 88 67 46 
-1.84531 1.52789 6.48438 89 58 27 
-1.90262 1.74324 6.59715 199 156 121 
0.523666 1.86986 4.80216 148 134 125 
-0.673029 -0.77923 3.85258 147 38 41 
-1.1704 -0.718117 3.84893 191 136 105 
-0.661567 -0.736765 3.89577 139 35 44 
-0.723308 -0.680202 3.89754 153 39 47 
-0.338804 -0.475634 3.85157 229 203 188 
-0.5088 -0.516825 3.97147 45 50 44 
-0.682789 -0.444444 4.02297 144 102 78 
-0.806083 -0.397163 3.97519 230 116 43 
-0.704831 -0.308113 4.02499 227 184 204 
-0.808215 -0.272902 3.99569 215 98 150 
-1.02396 -0.274262 3.98623 225 80 135 
-0.925253 -0.264372 4.00426 231 178 204 
-0.981627 -0.251095 3.98929 65 29 43 
-0.912236 -0.224596 3.99513 244 177 208 
-2.23163 -1.1321 5.63083 118 86 61 
-1.0488 -0.206087 4.00544 61 25 29 
-0.928264 -0.199921 3.99216 59 13 26 
-0.882165 -0.201118 4.03191 229 184 205 
-0.765014 -0.169229 4.03751 214 94 121 
-2.9258 -1.03155 5.65578 229 191 154 
-3.13486 -0.980859 5.59273 228 197 168 
-0.710846 -0.0735921 4.05218 222 202 213 
-0.76718 -0.0549741 4.07419 230 218 202 
-3.55279 -0.841205 5.5886 174 147 128 
-2.84662 -0.882257 5.67172 82 51 30 
-2.87207 -0.843385 5.63222 179 140 107 
-0.745664 -0.0228958 4.08476 237 222 183 
-2.87506 -0.805114 5.65079 217 179 142 
-3.09584 -0.772738 5.61681 200 173 144 
-0.784526 -0.00373812 4.12386 208 62 49 
-0.612588 0.0133822 4.0868 152 66 77 
-3.00743 -0.70812 5.64845 207 175 128 
-3.4974 -0.687746 5.60126 169 145 111 
-1.1181 0.110042 3.99113 4 0 1 
-2.92002 -0.741344 5.78151 196 161 123 
-3.50146 -0.647004 5.62657 182 155 125 
-3.15193 -0.701685 5.75488 227 201 166 
-0.570898 0.18861 4.03275 42 22 13 
0.140345 0.190486 4.057 216 216 216 
-3.49407 -0.548836 5.65597 182 157 135 
-3.37202 -0.539302 5.66045 180 143 99 
-0.798648 0.209722 4.00559 35 25 24 
-3.48932 -0.505829 5.64246 196 170 143 
-3.07095 -0.509876 5.68175 223 198 167 
-3.83281 -0.489987 5.66281 101 78 62 
-3.37461 -0.492442 5.67439 98 72 49 
-3.19635 -0.436475 5.64314 179 151 112 
-0.319269 0.199829 4.19463 228 201 174 
-3.65944 -0.44471 5.68771 129 109 84 
-2.56872 -0.484611 5.8494 209 167 119 
-3.50639 -0.310355 5.71312 83 60 46 
-3.10953 -0.329446 5.82326 200 170 132 
-3.04663 -0.324807 5.88275 183 144 101 
-2.6228 -0.27515 5.91879 205 174 145 
-0.586513 0.450967 4.03255 136 136 138 
-3.66531 -0.162312 5.79325 125 103 82 
-3.41274 -0.00506448 5.86152 104 72 49 
-4.05352 0.0493158 5.80081 92 79 63 
-3.51807 0.0828694 5.85156 135 110 70 
-0.479373 0.655267 4.10926 225 224 229 
-0.464761 0.67618 4.09943 57 57 55 
-0.292846 0.667857 4.22491 16 12 13 
-3.26729 0.213499 5.89375 190 164 129 
-0.411014 0.7627 4.11955 105 106 110 
-3.12232 0.268729 5.97485 197 169 132 
-3.00209 0.263595 5.98191 130 91 58 
-3.3861 0.322127 5.95509 215 182 137 
-2.30828 0.398379 6.05485 183 144 103 
-3.0511 0.450937 6.06037 201 168 117 
-3.12628 0.501458 6.0685 209 176 143 
-2.14255 0.544706 6.05717 75 47 25 
-3.95039 0.714246 5.97978 103 81 67 
-2.16231 0.630089 6.17374 193 161 122 
-3.18058 0.674942 6.24243 209 171 124 
0.408668 0.994195 4.49881 129 83 57 
-3.15497 0.750913 6.12006 201 162 121 
-2.92199 0.756951 6.13881 189 150 111 
-2.97288 0.789523 6.13612 192 160 121 
0.278022 1.07562 4.51556 105 88 80 
-3.22401 0.821441 6.1468 203 174 144 
-3.08099 0.815803 6.08175 211 176 134 
-2.11528 0.793217 6.21659 92 66 33 
-3.48531 0.86065 6.1714 119 93 66 
-2.39163 0.832638 6.22185 92 58 30 
-2.88152 0.874134 6.15672 83 52 31 
0.284497 1.12795 4.55673 197 184 168 
-3.04059 0.891215 6.1629 206 172 134 
0.302894 1.16474 4.57704 124 106 104 
-2.65966 0.924499 6.20749 96 66 38 
-2.06532 0.905465 6.29632 189 157 116 
-2.97408 0.971187 6.18418 202 168 130 
-3.48122 1.02113 6.19272 160 124 100 
-3.11288 1.00186 6.19333 209 180 140 
-2.2497 1.00568 6.33889 209 177 130 
-2.4516 1.07385 6.31528 88 54 26 
-1.98652 1.13291 6.35451 184 146 110 
-3.44838 1.2035 6.23628 89 62 41 
-3.2056 1.22634 6.27259 180 151 121 
-3.46132 1.27183 6.13313 128 102 77 
-2.08118 1.19894 6.39985 196 164 125 
-3.14713 1.26611 6.31336 210 184 147 
-2.06741 1.24478 6.50701 76 49 20 
-2.26714 1.30044 6.43803 174 136 97 
-1.78379 1.30109 6.45518 84 56 34 
-2.06767 1.36292 6.37437 211 178 137 
-2.28024 1.60193 6.50688 207 170 128 
-0.827634 -1.00273 3.79399 189 65 67 
-0.256624 -0.958924 3.84888 123 105 95 
-0.884274 -0.922674 3.80905 34 54 29 
-0.733003 -0.920847 3.82356 46 25 8 
-0.228907 -0.918298 3.86377 137 81 80 
-0.338708 -0.887563 3.86727 118 77 85 
-1.07043 -0.86283 3.81374 175 90 95 
-0.454419 -0.861158 3.86614 128 46 0 
-0.425784 -0.852833 3.87225 171 104 59 
-0.509262 -0.845526 3.86532 185 67 79 
-0.540152 -0.836259 3.86331 83 9 8 
-0.639587 -0.825483 3.86059 73 36 18 
-0.701716 -0.80995 3.86061 124 51 32 
-0.622485 -0.791704 3.87206 151 109 97 
-0.73595 -0.747475 3.87894 199 164 142 
-0.686581 -0.722946 3.8831 98 49 16 
-0.717331 -0.705707 3.89194 121 68 37 
-0.633813 -0.67533 3.90855 124 49 30 
-0.777434 -0.657254 3.89952 29 68 39 
-0.734685 -0.653113 3.90589 127 60 43 
-0.574723 -0.636991 3.92705 69 31 12 
-0.575345 -0.621384 3.9304 136 106 95 
-0.588561 -0.613769 3.93398 64 30 20 
-0.653631 -0.602976 3.93269 188 108 99 
-0.38051 -0.499683 3.86276 136 110 93 
-0.817071 -0.511719 3.86604 151 95 96 
-0.387708 -0.484273 3.86655 154 126 112 
-0.348986 -0.48588 3.87062 126 97 83 
-0.331361 -0.479343 3.8758 136 108 94 
-0.341952 -0.476191 3.87366 112 82 71 
-0.700448 -0.530651 3.9493 108 53 50 
-0.384766 -0.470041 3.87262 129 100 86 
-0.320905 -0.471273 3.87884 231 204 185 
-0.354876 -0.466455 3.87569 241 213 192 
-0.334306 -0.466006 3.87878 229 200 182 
-0.535295 -0.523255 3.96298 16 49 32 
-0.367852 -0.462093 3.87633 146 117 101 
-0.389108 -0.460349 3.8758 147 119 107 
-0.306118 -0.46243 3.88358 222 194 180 
-0.618007 -0.518486 3.96317 117 129 109 
-0.601379 -0.520433 3.96346 104 129 108 
-0.520594 -0.522678 3.97102 99 116 108 
-0.277105 -0.460643 3.88624 231 181 158 
-0.34761 -0.454661 3.88197 116 87 69 
-0.379185 -0.454011 3.88158 124 92 79 
-0.330247 -0.452043 3.88445 117 90 71 
-0.302682 -0.450843 3.88739 235 207 186 
-0.501898 -0.504012 3.97883 103 132 110 
-0.40125 -0.441763 3.88315 108 79 61 
-0.315268 -0.441079 3.89115 117 91 74 
-0.343074 -0.438111 3.88824 231 202 186 
-0.837051 -0.450411 3.89157 136 80 79 
0.011441 -0.512586 4.02211 147 134 125 
-0.305523 -0.436071 3.89163 215 188 171 
-0.49602 -0.495099 3.98144 3 39 13 
-0.395927 -0.432007 3.88798 118 90 69 
-0.363028 -0.432019 3.88873 113 81 68 
-0.320309 -0.42575 3.89228 168 140 126 
-0.605754 -0.481586 3.97649 48 18 7 
-0.297012 -0.421829 3.89776 125 96 80 
-0.267493 -0.415883 3.90138 212 185 168 
-0.632632 -0.464962 3.97701 41 5 0 
-0.28411 -0.407515 3.9054 219 188 168 
-0.271459 -0.406834 3.9072 229 200 184 
-0.67296 -0.45307 3.97903 125 95 84 
-0.637017 -0.432188 3.98921 32 5 0 
-0.6664 -0.426795 3.98888 152 123 105 
-0.657836 -0.416231 3.99203 148 120 109 
-0.869424 -0.37041 3.91139 170 154 141 
-0.7121 -0.397885 3.99238 175 138 119 
-0.583221 -0.387719 4.00618 179 144 124 
-0.375883 -0.396036 4.02808 139 126 135 
-0.17122 -0.402835 4.04427 47 7 0 
0.0677004 -0.399318 4.04734 130 114 99 
-0.161973 -0.389379 4.04459 31 0 0 
-0.396585 -0.384089 4.03036 136 105 100 
-0.375051 -0.381395 4.03066 70 57 64 
-0.35747 -0.383094 4.03484 73 59 76 
-0.619246 -0.369874 4.00961 32 0 0 
-0.414092 -0.376889 4.03023 110 84 85 
-0.681675 -0.361488 4.00764 85 38 10 
-0.61324 -0.364309 4.01673 67 23 0 
-0.371519 -0.370002 4.03729 125 111 124 
-0.155252 -0.37084 4.04809 25 0 0 
-0.495591 -0.319918 3.95861 244 234 232 
-0.653869 -0.355164 4.01437 51 14 0 
-0.511714 -0.317872 3.95865 127 118 111 
-0.47023 -0.318174 3.96317 110 100 98 
