ply                 
format ascii 1.0    
element vertex 1241
property float x    
property float y    
property float z    
property uchar red  
property uchar green
property uchar blue 
end_header          
-0.492102 -0.505768 3.69924 102 102 94 
-1.04204 -0.49242 3.6309 167 50 92 
-0.510143 -0.498686 3.70044 97 134 116 
-0.464973 -0.499021 3.70524 77 106 84 
-0.536491 -0.496259 3.69814 105 134 116 
-0.50226 -0.495091 3.69767 12 41 21 
-0.499899 -0.49563 3.7025 87 115 93 
-0.662695 -0.488619 3.68446 116 128 106 
-0.657461 -0.486996 3.68526 138 152 129 
-0.541449 -0.488085 3.69947 97 110 100 
-0.493226 -0.489851 3.70567 19 54 30 
-0.642388 -0.479919 3.68907 107 114 98 
-0.477655 -0.480993 3.71137 91 111 99 
-0.544789 -0.479913 3.70092 87 94 86 
-0.661507 -0.472051 3.68711 100 138 113 
-0.479096 -0.473518 3.71202 42 90 68 
-0.645932 -0.471236 3.69509 127 147 119 
-0.549185 -0.472448 3.70607 90 108 94 
-0.703202 -0.468201 3.68544 66 86 75 
-0.576314 -0.462378 3.70179 97 25 11 
-0.454036 -0.462443 3.71824 98 119 102 
-0.33177 -0.447612 3.61283 250 222 198 
-0.584858 -0.458747 3.70506 127 42 21 
-0.472662 -0.458826 3.71923 21 82 49 
-0.8648 -0.451757 3.66873 119 116 97 
-0.571958 -0.455952 3.70888 31 0 0 
-0.337071 -0.443932 3.6135 131 104 77 
-0.0710839 -0.455169 3.70827 33 0 0 
-0.308221 -0.443427 3.61752 171 144 123 
-0.451516 -0.455588 3.72475 0 48 19 
-0.861914 -0.448723 3.67061 36 27 12 
-0.308875 -0.440408 3.61918 210 184 159 
-0.303155 -0.43997 3.61786 124 98 75 
-0.860436 -0.444921 3.66953 196 176 169 
-0.567099 -0.450839 3.7096 132 114 104 
-0.339672 -0.437155 3.6138 127 101 76 
-0.596822 -0.448835 3.70772 142 65 45 
-0.292771 -0.437316 3.62203 178 150 129 
-0.325914 -0.435175 3.61897 235 203 182 
-0.997882 -0.440395 3.65764 95 81 80 
-0.44185 -0.448589 3.72834 25 60 30 
-0.321542 -0.433832 3.6179 235 205 181 
-0.287083 -0.434765 3.62581 143 115 94 
-0.297344 -0.431532 3.62463 111 80 59 
-0.265054 -0.431999 3.62886 248 221 204 
-0.996571 -0.436185 3.65643 20 5 0 
-0.581681 -0.441973 3.71184 46 15 0 
-0.313596 -0.430622 3.62161 177 146 125 
-0.286367 -0.431079 3.6256 255 229 209 
-0.343416 -0.429273 3.61872 114 87 66 
-0.316367 -0.430124 3.62233 254 223 202 
-0.308885 -0.430308 3.62346 255 227 206 
-0.970187 -0.434417 3.66176 86 18 29 
-0.273331 -0.428772 3.63005 120 93 74 
-1.01985 -0.432206 3.65385 130 118 104 
-0.995323 -0.431881 3.65788 159 142 132 
-0.976976 -0.432338 3.65759 192 172 163 
-0.870564 -0.434485 3.67479 91 56 50 
-0.867042 -0.434187 3.6752 131 103 102 
-0.297982 -0.426795 3.62179 119 88 68 
-0.564729 -0.437674 3.71693 130 103 82 
-0.592808 -0.435197 3.71069 82 48 36 
-0.589175 -0.436237 3.71201 127 92 73 
-0.286225 -0.42399 3.62779 128 97 77 
-1.02953 -0.427533 3.65344 187 171 135 
-0.501099 -0.433738 3.72123 10 19 0 
-0.289858 -0.422166 3.62763 245 214 194 
-0.673692 -0.430706 3.704 144 154 127 
-0.555626 -0.432775 3.71787 95 50 31 
-0.293405 -0.420986 3.62725 118 87 66 
-0.263419 -0.419783 3.63251 244 216 194 
-0.602952 -0.429054 3.71551 127 91 75 
-0.236959 -0.418896 3.63588 255 198 171 
-0.979847 -0.422824 3.66624 82 70 54 
-0.511884 -0.42912 3.72679 122 96 83 
-0.959665 -0.422412 3.6693 71 25 27 
-0.560988 -0.427457 3.7226 73 35 16 
-0.331889 -0.415005 3.62622 211 181 157 
-0.581729 -0.424797 3.71635 159 123 101 
-0.540718 -0.426505 3.72297 139 107 84 
-0.66436 -0.422882 3.70825 118 96 83 
-0.951934 -0.415283 3.66698 46 17 11 
-0.664843 -0.419873 3.7069 44 16 4 
-0.556911 -0.42066 3.72268 42 14 0 
-0.511678 -0.420564 3.71853 51 13 0 
-0.601553 -0.418445 3.71875 104 87 71 
-0.695944 -0.416666 3.70714 0 19 0 
-0.596448 -0.415868 3.72034 123 91 76 
-0.129783 -0.420685 3.76797 73 6 0 
-0.536467 -0.415923 3.72522 145 113 98 
-0.325807 -0.403875 3.62976 176 145 117 
-0.31841 -0.406432 3.63633 128 96 73 
-0.133829 -0.418056 3.76757 118 71 61 
-0.662644 -0.411438 3.71261 156 126 116 
-0.329609 -0.40125 3.6307 249 217 192 
-0.687413 -0.407647 3.70859 148 129 122 
-0.298292 -0.399294 3.63335 147 112 92 
-0.682484 -0.407967 3.71072 27 3 0 
-0.667762 -0.406684 3.71432 140 107 102 
-0.351528 -0.398248 3.633 107 70 51 
-0.312317 -0.395502 3.63549 120 88 63 
-0.435792 -0.406188 3.74492 30 65 33 
-0.587341 -0.401807 3.72679 41 3 0 
-0.558379 -0.401773 3.72837 149 122 101 
-0.541521 -0.403132 3.73204 39 6 0 
-0.533842 -0.403129 3.73233 39 7 0 
-0.330195 -0.391866 3.63941 244 212 191 
-0.290661 -0.391062 3.63922 178 147 127 
-0.158912 -0.392158 3.65451 188 157 136 
-0.68018 -0.398749 3.71467 154 127 118 
-0.659972 -0.398529 3.71863 157 128 120 
-0.98607 -0.393113 3.67124 132 120 106 
-0.684974 -0.396805 3.71387 132 113 106 
-0.679984 -0.394873 3.7126 29 2 0 
-0.275324 -0.385604 3.64442 244 213 192 
-0.542815 -0.394038 3.73064 57 24 7 
-0.719735 -0.390921 3.71378 132 146 123 
-0.678703 -0.390999 3.7169 127 97 87 
-0.301417 -0.381901 3.64275 102 70 47 
-1.00459 -0.384393 3.67202 43 23 0 
-0.724859 -0.389158 3.71366 6 31 0 
-0.658954 -0.389469 3.72083 141 114 103 
-0.302327 -0.379778 3.64325 108 76 53 
-0.278091 -0.37979 3.64773 245 209 195 
-0.314199 -0.377835 3.64387 123 88 69 
-0.206611 -0.378333 3.65472 176 143 124 
-0.660924 -0.384793 3.72458 27 0 0 
-0.438122 -0.387429 3.75038 26 8 0 
-0.30114 -0.375568 3.64483 255 226 202 
-0.667459 -0.383139 3.71985 43 10 0 
-1.0094 -0.377656 3.67404 46 31 12 
-0.545443 -0.383529 3.73784 45 13 0 
-0.207154 -0.374481 3.65632 125 93 72 
-0.680597 -0.380774 3.72013 135 108 97 
-0.656927 -0.380965 3.72464 133 106 99 
-0.431696 -0.38051 3.74954 39 12 0 
-1.01534 -0.372286 3.6778 28 16 0 
-0.660109 -0.376715 3.72941 23 5 0 
-1.00642 -0.369246 3.67963 65 56 49 
-0.655838 -0.374266 3.72807 148 123 119 
-0.658516 -0.370771 3.72734 39 17 6 
-0.547809 -0.369985 3.73693 55 23 0 
-0.744392 -0.367111 3.71742 182 122 88 
-0.65473 -0.36822 3.73019 140 112 98 
-0.989754 -0.362708 3.68121 49 29 4 
-0.680983 -0.363475 3.72821 134 111 105 
-0.579774 -0.363484 3.73847 163 131 116 
-0.67241 -0.358448 3.73117 153 123 113 
-0.652565 -0.357596 3.73265 143 116 105 
-0.573063 -0.360191 3.74287 142 109 92 
-0.657301 -0.357817 3.73233 24 0 0 
-0.674286 -0.354273 3.73255 24 0 0 
-0.995868 -0.348682 3.68188 49 28 9 
-0.495942 -0.351875 3.75667 38 2 0 
-0.994417 -0.345949 3.68695 143 132 114 
-0.553142 -0.34934 3.74536 119 73 47 
-0.659222 -0.342614 3.73438 23 1 0 
-0.510318 -0.343084 3.75748 192 151 121 
-1.00448 -0.334647 3.68732 212 200 160 
-0.996911 -0.335053 3.69171 16 4 0 
-0.521152 -0.337966 3.75665 103 57 31 
-0.514313 -0.338769 3.75701 77 33 6 
-0.523526 -0.335991 3.75669 165 119 93 
-0.520592 -0.335211 3.75671 106 62 33 
-0.535775 -0.332988 3.75587 91 47 18 
-0.652387 -0.328103 3.7458 192 142 105 
-0.661844 -0.322132 3.74311 89 43 19 
-0.655045 -0.323686 3.74548 69 22 2 
-0.535073 -0.324535 3.76076 103 50 19 
-0.530317 -0.325001 3.76266 94 49 18 
-0.305599 -0.326273 3.79049 206 189 207 
-0.693325 -0.320615 3.74043 82 38 13 
-0.662369 -0.321633 3.74548 79 33 9 
-0.316003 -0.322732 3.78879 196 179 197 
-0.68671 -0.317023 3.74456 205 153 140 
-0.695802 -0.314993 3.73712 28 0 0 
-0.389694 -0.31643 3.7814 106 89 107 
-0.701789 -0.31093 3.73386 62 25 16 
-0.0847499 -0.307728 3.78407 135 78 71 
-0.36937 -0.308061 3.78742 137 118 137 
-0.335314 -0.306845 3.78948 190 173 191 
-0.706689 -0.301972 3.73739 57 0 0 
-0.333844 -0.304201 3.79512 188 171 189 
-0.369655 -0.302601 3.78639 203 186 202 
-0.347168 -0.30212 3.79233 101 87 102 
-0.329656 -0.30192 3.79317 115 98 116 
-0.365466 -0.299543 3.78887 105 89 102 
-0.663924 -0.289376 3.75563 69 10 0 
-0.290498 -0.292097 3.80001 102 85 104 
-0.330922 -0.290762 3.79706 172 155 173 
-0.338586 -0.287166 3.79687 172 155 173 
-0.296953 -0.286863 3.80115 164 147 165 
-0.408164 -0.274894 3.71003 101 82 88 
-0.283027 -0.280999 3.80512 160 143 159 
-0.288232 -0.275459 3.80913 164 147 166 
-0.297665 -0.272256 3.80818 168 151 169 
-0.422323 -0.262868 3.71506 202 191 189 
-1.07913 -0.252626 3.67843 147 76 74 
-0.0394296 -0.2517 3.7674 60 2 0 
-0.461973 -0.245035 3.71545 103 93 83 
-0.157106 -0.233416 3.65887 198 148 121 
-0.454903 -0.237814 3.71817 112 108 99 
-0.466498 -0.235837 3.71697 246 237 230 
-0.164219 -0.22946 3.66071 183 137 114 
-0.150466 -0.229779 3.65306 185 131 105 
-0.0744834 -0.237681 3.80777 83 91 76 
-0.170535 -0.225045 3.65897 207 157 134 
-0.518323 -0.227182 3.71447 109 98 92 
-0.506902 -0.224435 3.71552 132 125 115 
-0.473594 -0.225957 3.72086 255 245 245 
-0.489637 -0.218324 3.72029 255 254 246 
-0.488122 -0.214466 3.72162 134 123 117 
-0.536068 -0.213557 3.71694 97 90 84 
-0.165838 -0.208609 3.6473 125 64 20 
-0.541388 -0.209247 3.71836 109 100 95 
-0.535731 -0.205054 3.71904 130 123 115 
-0.542083 -0.200223 3.72303 103 90 84 
-0.524543 -0.186867 3.72319 149 138 132 
-0.535156 -0.186808 3.72508 252 243 238 
-0.52839 -0.186887 3.72711 255 252 246 
-0.96829 -0.183295 3.7488 125 98 91 
-0.576573 -0.181094 3.72438 132 119 111 
-0.257031 -0.177735 3.66889 135 39 14 
-0.537962 -0.179331 3.72831 255 248 242 
-0.533942 -0.178252 3.72997 123 108 103 
-0.580838 -0.177862 3.72466 108 98 89 
-0.572748 -0.175393 3.72629 166 157 150 
-0.527441 -0.174578 3.72911 152 147 141 
0.00411521 -0.173328 3.74032 216 144 122 
-0.576928 -0.172868 3.72518 121 108 100 
-0.551742 -0.172611 3.72973 85 78 68 
-0.543112 -0.171438 3.72895 134 124 115 
-0.536263 -0.172342 3.72774 97 88 83 
-0.586317 -0.169444 3.72654 255 243 234 
-0.936336 -0.169028 3.76387 158 0 0 
-0.596731 -0.166894 3.72661 153 143 134 
-0.583152 -0.163278 3.72816 189 179 170 
-0.55709 -0.16419 3.73033 255 253 244 
-0.549715 -0.164718 3.72927 244 234 233 
-0.553331 -0.162791 3.73239 111 102 97 
-0.283199 -0.159565 3.66275 146 41 19 
-0.566879 -0.160481 3.73018 113 100 92 
-0.561639 -0.160737 3.73366 255 244 236 
-0.55603 -0.1603 3.73156 131 120 114 
-0.592449 -0.156094 3.73078 255 246 237 
-0.598421 -0.14986 3.73206 181 174 164 
-0.325719 -0.1443 3.67432 138 58 25 
-0.62415 -0.143073 3.73097 118 103 100 
-0.574767 -0.141562 3.7352 101 91 89 
-0.335741 -0.137752 3.67744 135 53 29 
-0.59091 -0.133553 3.73766 102 92 83 
-0.594981 -0.133746 3.73714 255 253 246 
-0.591412 -0.133048 3.73936 119 108 104 
-0.596149 -0.130043 3.738 82 71 69 
-0.322039 -0.118977 3.65741 144 60 34 
-0.309132 -0.117595 3.64699 123 61 22 
-0.767875 -0.119187 3.80602 246 109 139 
-0.630042 -0.111806 3.74228 162 155 147 
-0.336885 -0.106385 3.64866 129 37 12 
-0.628583 -0.104484 3.74375 112 107 103 
-0.640954 -0.101811 3.74334 111 105 93 
-0.634019 -0.0996265 3.74528 105 98 92 
-0.636018 -0.0966626 3.74672 144 135 126 
-0.371449 -0.078897 3.64507 149 40 17 
-0.404252 -0.0773987 3.66643 147 30 23 
-0.423712 -0.0648134 3.66547 72 24 0 
-0.424784 -0.0580796 3.6669 169 125 98 
-0.418241 -0.0587155 3.66365 72 22 0 
-0.462348 -0.0466006 3.67311 142 91 44 
-0.699383 -0.0406951 3.84095 199 164 110 
-0.458147 -0.0318699 3.66598 197 153 124 
-0.81025 -0.0147745 3.83384 162 101 109 
-0.781925 0.0352754 3.85453 130 81 76 
-0.783156 0.0472138 3.85412 158 107 104 
-0.772439 0.0566001 3.85363 131 0 0 
-0.769105 0.0899758 3.84363 171 91 92 
0.0684913 0.149041 3.77362 137 135 136 
0.0725472 0.149808 3.7738 250 248 251 
-0.369321 0.155979 3.80698 231 101 139 
0.0504054 0.19068 3.77981 157 155 158 
-0.164239 0.237251 4.00304 161 186 180 
-0.277419 0.246067 3.99559 233 215 201 
-0.200776 0.24647 4.00116 86 58 37 
-0.157956 0.24801 4.00387 54 49 43 
-0.248779 0.249225 3.99933 161 135 122 
-0.187844 0.250768 4.00309 121 89 78 
-0.318572 0.25099 3.99356 115 77 58 
-0.17711 0.252244 4.00474 231 199 186 
-0.207248 0.256956 4.00346 215 188 177 
-0.201929 0.257805 4.00502 94 65 57 
-0.267946 0.258207 4.00003 98 68 57 
-0.278033 0.259858 4.00043 237 218 203 
-0.25102 0.262228 4.00495 187 160 141 
-0.314887 0.262342 3.99732 241 213 199 
-0.246842 0.263505 4.00481 149 121 107 
-0.240766 0.26612 4.00258 225 213 199 
-0.32604 0.265275 3.99717 246 207 190 
-0.240817 0.267052 4.00539 225 219 205 
-0.435948 0.267531 3.98537 122 90 65 
-0.320599 0.270103 4.00062 108 54 42 
-0.28788 0.270493 4.0012 210 188 177 
-0.305269 0.271151 4.00069 232 206 193 
-0.292844 0.272826 4.00105 117 80 71 
-0.430644 0.273473 3.98742 230 195 173 
-0.2992 0.274351 4.00723 126 88 75 
-0.160649 0.278235 4.01738 62 45 37 
-0.436529 0.276407 3.98952 112 80 57 
-0.431282 0.280606 3.9909 240 205 183 
-0.156877 0.282701 4.01884 156 151 145 
-0.436915 0.284828 3.99044 108 75 56 
-0.43791 0.291413 3.99443 112 81 61 
-0.347164 0.309172 4.01035 255 177 174 
-0.255612 0.316528 4.02128 92 110 112 
-0.244493 0.316593 4.01603 86 109 103 
-0.34125 0.318241 4.01541 255 186 183 
-0.212725 0.391599 4.05139 192 156 134 
-0.585137 0.374393 3.72137 141 137 138 
-3.29742 0.696736 6.07389 207 169 133 
-0.289541 0.601552 3.91174 223 222 227 
-2.48893 1.03733 6.32905 118 78 43 
-3.75529 1.33549 6.28677 148 120 98 
0.431383 1.06085 4.38412 138 110 96 
-3.20364 1.64105 6.48837 231 191 156 
-3.46811 1.76427 6.52508 211 173 128 
-3.01424 2.13482 6.71531 237 202 162 
-0.0628106 -1.05617 3.45382 225 90 149 
-2.00684 -1.63593 5.34751 141 103 66 
-0.0624379 -1.02996 3.41005 224 91 148 
-0.205111 -1.04143 3.51917 151 31 69 
-2.27562 -1.48355 5.33503 215 177 140 
-0.953395 -0.942925 3.47331 200 71 112 
-1.09772 -0.921101 3.44629 179 75 100 
-0.801232 -0.923946 3.49487 184 58 62 
-2.81269 -1.40477 5.31698 242 206 174 
-2.51239 -1.39809 5.34126 208 170 133 
-1.09317 -0.891042 3.45974 111 92 77 
-0.409607 -0.864202 3.37025 98 94 91 
-1.1041 -0.884573 3.45291 72 21 28 
-0.434573 -0.843606 3.37473 208 207 202 
-0.430536 -0.846479 3.37574 107 104 97 
-0.241573 -0.885331 3.57994 101 120 118 
-0.31533 -0.865856 3.58432 140 81 83 
-0.483352 -0.815399 3.37603 102 99 92 
-2.71273 -1.2915 5.34088 124 81 46 
-1.14714 -0.810149 3.407 163 74 102 
-0.288243 -0.844028 3.59537 5 41 57 
-0.200499 -0.845584 3.60599 82 21 16 
-0.298951 -0.832418 3.5947 2 49 57 
-2.82559 -1.2409 5.35724 204 168 134 
-0.725423 -0.818472 3.54638 14 62 20 
-0.784341 -0.80901 3.54106 89 127 102 
-0.672108 -0.813276 3.56102 108 126 104 
-0.734379 -0.806843 3.55136 88 115 96 
-0.305071 -0.811651 3.60603 161 100 105 
-0.297909 -0.809488 3.60681 10 25 28 
-0.326872 -0.801847 3.61022 104 110 108 
-0.841806 -0.776068 3.52503 230 238 223 
-0.81531 -0.761835 3.53268 230 226 201 
-0.26065 -0.777199 3.61863 199 168 111 
-0.80206 -0.761569 3.54387 215 223 200 
-1.01337 -0.757307 3.5381 144 40 49 
-0.215672 -0.753288 3.63778 134 81 73 
-0.589967 -0.737593 3.5996 64 17 0 
-2.0985 -1.12916 5.51904 175 140 118 
-0.808858 -0.723413 3.56993 224 223 175 
-0.759046 -0.724371 3.57837 97 65 42 
-0.626332 -0.726665 3.59084 109 35 10 
-0.802267 -0.720477 3.5754 91 99 50 
-2.08004 -1.11531 5.52398 110 74 48 
-0.776405 -0.71764 3.58095 75 96 55 
-1.03937 -0.705983 3.54428 151 33 67 
-0.820793 -0.71141 3.58235 66 109 63 
-0.557046 -0.710189 3.615 75 27 7 
-1.17247 -0.667367 3.40487 229 101 150 
-2.05353 -1.07337 5.53836 125 91 64 
-0.374709 -0.691613 3.60266 160 154 120 
-0.549319 -0.687693 3.62364 73 25 5 
-0.76412 -0.681504 3.60172 11 56 25 
-0.553941 -0.683919 3.62218 152 109 93 
-0.446774 -0.685798 3.63529 21 79 54 
-2.08608 -1.05189 5.58108 211 179 138 
-0.807217 -0.674535 3.59456 12 64 26 
-0.796254 -0.663646 3.59691 112 137 115 
-0.822994 -0.662113 3.61456 96 110 93 
-0.594522 -0.642201 3.63284 108 40 1 
-0.535992 -0.64229 3.64014 79 26 0 
-0.82351 -0.631525 3.60973 0 35 1 
-0.457991 -0.63288 3.65237 107 135 121 
-0.590669 -0.622355 3.64489 131 59 35 
-0.456202 -0.626614 3.65879 98 142 117 
-0.550235 -0.617288 3.65066 54 8 0 
-2.30603 -0.945743 5.56012 183 154 114 
-0.746801 -0.606839 3.62991 228 195 152 
-0.892274 -0.601951 3.60885 174 163 141 
-0.869588 -0.600202 3.61804 52 0 0 
-0.872787 -0.595975 3.60481 175 159 133 
-0.901012 -0.592403 3.61542 216 107 146 
-0.612333 -0.599036 3.6494 132 43 27 
-0.758737 -0.591778 3.63107 100 123 103 
-0.898626 -0.587307 3.62075 81 9 33 
-0.882224 -0.586179 3.61883 127 107 106 
-0.531952 -0.590362 3.66361 64 19 0 
-0.533493 -0.583818 3.66182 162 115 97 
-1.17872 -0.54673 3.44696 217 122 152 
-0.536008 -0.575874 3.66747 64 15 1 
-0.837889 -0.567353 3.63204 110 129 107 
-0.757196 -0.56745 3.64043 67 96 78 
-0.516961 -0.570947 3.6714 151 105 89 
-1.05722 -0.559083 3.59272 108 24 39 
-0.789659 -0.549945 3.61635 132 120 94 
-0.690012 -0.545987 3.6542 76 101 80 
-0.674082 -0.543488 3.66361 121 133 97 
-0.510418 -0.512765 3.69536 5 33 11 
-0.672 -0.504012 3.6791 0 17 0 
-0.515173 -0.49993 3.69685 2 40 15 
-0.510196 -0.49843 3.70281 97 134 116 
-0.467224 -0.496099 3.70635 82 110 88 
-0.673463 -0.490815 3.67917 89 107 93 
-0.657741 -0.48713 3.68454 143 157 132 
-2.7784 -0.74225 5.57059 178 148 112 
-1.04676 -0.460967 3.63549 72 0 24 
-0.642536 -0.4688 3.69227 130 146 117 
-2.75584 -0.711884 5.58994 201 160 128 
-0.584986 -0.458751 3.7046 134 43 25 
-0.336539 -0.444329 3.61611 131 104 77 
-0.890367 -0.44923 3.6707 219 113 151 
-0.849242 -0.446207 3.6718 159 119 127 
-0.860429 -0.444953 3.66918 196 176 169 
-0.335369 -0.43492 3.61731 125 95 71 
-0.685731 -0.441549 3.69719 47 81 54 
-0.297433 -0.431341 3.62572 111 80 59 
-0.996376 -0.43637 3.6548 20 5 0 
-0.581644 -0.442004 3.71168 46 15 0 
-1.00229 -0.433803 3.65329 70 54 41 
-0.273403 -0.429127 3.62749 120 93 74 
-1.02352 -0.431237 3.6519 34 22 0 
-0.977013 -0.432326 3.65759 192 172 163 
-0.671565 -0.436066 3.70713 0 10 0 
-0.571595 -0.437245 3.71591 40 11 0 
-0.499072 -0.439447 3.7204 137 162 123 
-0.283722 -0.424838 3.6303 122 94 73 
-0.963331 -0.425634 3.66227 50 0 2 
-0.603041 -0.428064 3.71171 144 107 89 
-0.534248 -0.424794 3.70897 50 16 0 
-0.449788 -0.417943 3.73025 37 87 52 
-0.662857 -0.411175 3.71433 153 123 113 
-0.649593 -0.405993 3.71381 162 124 103 
-0.435662 -0.406348 3.74407 35 74 43 
-0.339084 -0.393728 3.63599 226 191 171 
-0.425601 -0.403609 3.7405 55 60 37 
-0.33064 -0.391185 3.63348 255 225 204 
-0.65985 -0.398707 3.71744 157 128 120 
-0.311006 -0.388573 3.63567 255 226 204 
-0.719888 -0.390836 3.71408 132 146 123 
-0.677782 -0.391762 3.71688 142 112 102 
-0.430845 -0.390383 3.73232 169 150 120 
-0.302514 -0.379804 3.64267 108 76 53 
-3.0955 -0.58721 5.59078 222 192 156 
-2.23313 -0.591386 5.69132 131 98 63 
-2.84275 -0.584441 5.61841 206 173 138 
-0.735045 -0.379018 3.71427 116 134 92 
-0.242649 -0.371462 3.65438 237 210 181 
-0.985242 -0.366348 3.67873 137 121 105 
-0.547898 -0.369868 3.73758 55 23 0 
-0.652689 -0.364351 3.7289 33 6 0 
-0.565658 -0.363237 3.74399 53 18 0 
-0.496806 -0.356686 3.75495 176 130 106 
-0.496051 -0.351925 3.75605 38 2 0 
-0.557519 -0.34471 3.74922 217 176 148 
-3.19305 -0.508463 5.59628 196 162 127 
-0.703252 -0.331017 3.73423 161 123 104 
-0.695104 -0.316327 3.7398 41 4 0 
-0.601195 -0.317959 3.7586 201 160 140 
-0.684994 -0.315628 3.74332 202 148 122 
-3.11331 -0.478178 5.61232 126 96 72 
-0.37178 -0.302576 3.78572 200 181 200 
-0.441691 -0.2931 3.70237 113 104 97 
-3.14294 -0.443683 5.6338 214 179 139 
-0.330973 -0.29057 3.79805 172 155 173 
-0.290844 -0.292051 3.79958 91 74 93 
-0.257985 -0.287226 3.81033 72 81 86 
-3.00956 -0.43581 5.6919 123 84 53 
-0.297548 -0.272567 3.80672 172 155 173 
-0.152122 -0.225473 3.65231 95 43 19 
-0.487562 -0.21506 3.72441 138 128 119 
-0.0960806 -0.210174 3.8306 51 36 5 
-3.15019 -0.304162 5.69094 209 179 143 
-0.55998 -0.185469 3.72359 126 119 109 
-3.0789 -0.294384 5.70537 162 128 80 
-0.970793 -0.182862 3.73931 24 0 0 
-0.576359 -0.181271 3.72382 129 114 107 
-0.561253 -0.154697 3.73404 59 48 42 
-0.285788 -0.147728 3.65996 147 45 23 
-0.298408 -0.139437 3.65628 135 39 15 
-0.767009 -0.120629 3.7997 240 95 134 
-0.332779 -0.111358 3.65288 143 53 26 
-0.885547 -0.102797 3.79189 159 58 50 
-0.634915 -0.0988704 3.74456 164 157 147 
-3.02842 -0.14556 5.77656 165 127 82 
-3.08588 -0.141792 5.76167 222 190 152 
-0.412499 -0.0466706 3.64717 71 20 0 
-3.31451 -0.0779281 5.76062 205 174 146 
-0.420915 -0.0400407 3.65021 196 146 113 
-0.458076 -0.0319356 3.66581 195 150 119 
-0.459317 -0.0252438 3.66139 57 15 0 
-0.434471 -0.0258364 3.64728 182 131 104 
-2.71557 -0.0222277 5.87807 188 154 117 
-0.785331 0.000430413 3.84206 142 92 85 
-0.779581 0.0228891 3.85436 156 76 77 
-0.773912 0.0585088 3.85466 132 4 5 
-2.81425 0.101062 5.89708 229 199 163 
-3.21971 0.12216 5.84743 228 195 162 
-3.38122 0.14786 5.82493 134 102 63 
-2.95422 0.18136 5.90724 214 176 129 
0.100962 0.156582 3.78173 151 149 150 
0.444552 0.218312 3.83813 212 207 211 
-0.188755 0.225653 3.998 231 209 196 
-0.254956 0.237598 3.99686 245 220 200 
-0.277363 0.245817 3.99486 233 215 201 
-0.158226 0.247556 4.00219 54 49 43 
-0.248479 0.250288 4.00021 177 149 135 
-0.277086 0.252896 3.9969 78 62 49 
-0.317774 0.254618 3.9892 74 58 35 
-0.282026 0.266218 4.00194 86 68 54 
-2.96996 0.389556 6.00239 129 91 55 
-3.40689 0.387818 5.90488 131 97 62 
-0.427567 0.277238 3.98834 106 71 49 
-0.288171 0.281384 4.00279 180 90 89 
-0.407269 0.290778 3.99866 136 107 89 
-3.12656 0.441811 6.00538 192 153 112 
-0.256601 0.316484 4.01539 89 107 109 
-0.341521 0.33163 4.02026 178 93 96 
-0.449974 0.342421 4.00879 75 42 23 
-0.373019 0.359379 4.02585 243 185 173 
-2.82062 0.585392 6.121 175 148 121 
-2.81315 0.630304 6.11498 199 164 134 
-3.00946 0.681874 6.1166 209 176 135 
-3.14544 0.688567 6.11188 227 195 154 
-3.30086 0.692125 6.06047 137 104 69 
-0.290175 0.603621 3.91412 223 222 227 
-2.82869 0.944956 6.24667 189 159 121 
-3.54412 1.16717 6.24972 74 46 24 
-3.75495 1.33531 6.28637 148 120 98 
-3.33117 1.41559 6.39421 100 71 37 
-3.55667 1.43387 6.37565 214 180 142 
-3.14526 1.48503 6.43968 197 159 112 
-3.00875 1.60909 6.48518 145 107 62 
-3.40801 1.61857 6.43582 216 186 150 
-3.42195 1.68217 6.49173 215 177 140 
-3.26311 1.74134 6.51645 171 136 94 
-2.93121 1.76232 6.56328 134 98 62 
-3.28503 1.88662 6.5961 179 141 102 
-3.09324 1.90104 6.60373 224 187 143 
-3.49364 2.08125 6.63901 212 180 141 
-3.44918 2.07785 6.63043 207 178 146 
-3.50098 2.0963 6.63858 106 80 45 
-3.01823 2.14013 6.72395 241 206 164 
-3.41509 2.1284 6.67024 222 187 145 
-3.1562 2.20436 6.73913 222 193 151 
-3.206 2.21692 6.72713 140 108 67 
-3.70492 2.21011 6.66208 74 44 20 
-3.41273 2.23454 6.71804 138 109 67 
-1.08896 -1.1157 3.25859 166 43 87 
-1.14278 -1.02715 3.28038 251 101 162 
-0.0663721 -1.05387 3.39966 222 85 141 
-1.99607 -1.65113 5.32607 154 122 83 
-2.0026 -1.64319 5.34494 197 159 123 
-2.00473 -1.63489 5.34074 141 103 66 
-2.82037 -1.56373 5.22541 147 114 81 
-0.0646665 -1.01166 3.41766 122 0 53 
-2.60921 -1.51248 5.27877 207 163 124 
-2.63869 -1.49597 5.27029 221 187 149 
-2.82272 -1.48585 5.26807 214 184 150 
-2.61605 -1.49277 5.28792 227 185 143 
-0.457516 -0.936214 3.33183 92 92 84 
-0.444314 -0.936312 3.33741 102 101 96 
-0.465356 -0.933483 3.33407 144 143 139 
-2.66193 -1.4734 5.27965 209 179 143 
-1.17619 -0.901642 3.32174 245 96 164 
-1.1686 -0.884884 3.33141 123 15 64 
-0.295346 -0.939161 3.55031 220 111 91 
-2.36001 -1.41289 5.35812 139 104 74 
-2.52321 -1.40693 5.34305 219 181 144 
-2.50907 -1.39732 5.33358 205 167 130 
-0.285756 -0.923622 3.55821 84 134 131 
-2.02075 -1.40763 5.4015 205 172 127 
-0.255237 -0.917454 3.56934 0 32 41 
-2.80728 -1.35721 5.31963 140 107 76 
-2.63304 -1.35951 5.33291 208 178 140 
-0.30467 -0.90299 3.57163 91 110 106 
-1.09211 -0.871743 3.44725 149 50 71 
-0.177685 -0.901183 3.5782 44 15 11 
-2.32971 -1.35479 5.35952 217 185 147 
-2.12891 -1.35849 5.40887 136 92 65 
-2.79391 -1.32962 5.31512 145 110 80 
-0.46857 -0.842175 3.3736 92 91 89 
-0.199696 -0.891455 3.58869 153 97 96 
-0.291001 -0.887489 3.57803 5 30 34 
-0.466224 -0.83498 3.37557 228 227 223 
-1.12241 -0.842139 3.44496 157 63 89 
-0.205022 -0.877164 3.5908 61 0 0 
-2.74585 -1.29976 5.32367 187 152 120 
-0.251211 -0.864751 3.59115 97 133 131 
-0.224678 -0.863882 3.59061 42 8 0 
-1.0149 -0.840076 3.50458 150 37 65 
-0.279792 -0.860834 3.59069 0 41 41 
-2.6196 -1.29036 5.39215 131 95 63 
-1.03208 -0.837535 3.50846 159 60 81 
-2.93527 -1.26842 5.30178 153 109 64 
-0.231966 -0.854593 3.59388 149 102 94 
-0.532249 -0.794343 3.38825 82 81 77 
-0.302121 -0.835099 3.59925 0 33 35 
-2.82794 -1.24131 5.36243 199 164 132 
-0.71496 -0.819399 3.54806 18 52 15 
-0.974934 -0.809221 3.52038 49 2 8 
-2.29199 -1.24731 5.44537 208 169 128 
-0.281608 -0.818727 3.60502 10 31 36 
-2.81002 -1.21322 5.371 112 81 53 
-0.297978 -0.809385 3.60931 4 28 30 
-0.80103 -0.78609 3.53692 17 22 16 
-0.323562 -0.801598 3.61177 95 125 133 
-0.746126 -0.784793 3.55437 28 38 27 
-0.289172 -0.795156 3.61396 2 40 43 
-0.191393 -0.795032 3.61447 115 106 99 
-0.777409 -0.776834 3.53201 226 228 217 
-0.758727 -0.776639 3.53544 225 238 218 
-0.153467 -0.793684 3.62291 44 0 0 
-0.194883 -0.784507 3.62358 35 19 6 
-1.0547 -0.760645 3.52313 226 121 154 
-2.30593 -1.17822 5.46352 231 196 158 
-0.801562 -0.761725 3.54224 221 224 203 
-0.260759 -0.777037 3.62134 199 168 111 
-2.1461 -1.17715 5.49615 194 155 114 
-1.01425 -0.757227 3.54215 147 35 57 
-0.823169 -0.75726 3.54663 23 5 0 
-0.223164 -0.771313 3.62838 63 0 0 
-0.263667 -0.767153 3.63162 189 138 81 
-0.250306 -0.766305 3.62727 199 154 123 
-2.3394 -1.16223 5.47201 144 110 73 
-1.00526 -0.748807 3.53856 151 32 62 
-2.09469 -1.14451 5.51958 137 103 75 
-2.97529 -1.11389 5.39086 227 195 154 
-2.0982 -1.12921 5.5187 175 140 118 
-0.709385 -0.725275 3.5861 186 136 113 
-0.626899 -0.72624 3.60139 121 35 20 
-1.0325 -0.708768 3.54478 143 33 58 
-0.557395 -0.711932 3.61113 69 22 2 
-0.549424 -0.684775 3.62159 82 35 17 
-0.832165 -0.67961 3.60804 9 49 22 
-2.09486 -1.04677 5.55614 128 94 59 
-0.794631 -0.664414 3.58774 59 93 66 
-0.796353 -0.663593 3.59773 99 118 98 
-0.638438 -0.666368 3.61886 185 118 91 
-0.818987 -0.659894 3.59782 95 114 95 
-0.767967 -0.649192 3.60694 93 126 99 
-0.736765 -0.649346 3.61793 89 129 103 
-0.606593 -0.650595 3.62942 224 160 116 
-0.81061 -0.63951 3.60893 103 135 112 
-0.772435 -0.639716 3.61287 7 36 14 
-0.586224 -0.64123 3.63312 226 164 127 
-0.534681 -0.640744 3.63292 64 11 0 
-0.82455 -0.627056 3.61473 103 134 100 
-0.597517 -0.627265 3.64287 213 139 114 
-0.591613 -0.620904 3.64484 132 47 27 
-0.881297 -0.611276 3.60632 45 0 4 
-1.04097 -0.601341 3.57097 53 0 1 
-0.793503 -0.61087 3.624 96 131 101 
-0.537124 -0.614323 3.65061 163 126 110 
-0.867445 -0.598605 3.61252 53 0 3 
-0.746298 -0.596924 3.63084 173 137 105 
-0.881243 -0.592244 3.61541 24 14 2 
-1.11537 -0.576556 3.52308 162 84 110 
-0.520412 -0.591532 3.66169 213 169 132 
-0.87741 -0.581567 3.61593 51 0 4 
-0.833503 -0.57921 3.62969 61 4 0 
-2.81022 -0.877695 5.48479 219 180 141 
-0.767878 -0.577909 3.63588 92 126 101 
-2.81083 -0.877964 5.48818 210 173 131 
-0.775149 -0.567162 3.64824 0 28 6 
-2.47867 -0.870475 5.56385 137 111 84 
-0.514161 -0.565641 3.67908 113 68 49 
-0.84052 -0.552762 3.61667 73 21 0 
-2.46206 -0.843534 5.55863 242 218 184 
-0.684362 -0.548213 3.65778 4 30 5 
-3.08916 -0.820564 5.50395 233 195 148 
-3.12976 -0.811515 5.51346 246 211 179 
-0.451222 -0.535009 3.67438 37 14 0 
-0.89506 -0.529205 3.64357 197 35 95 
-0.451729 -0.53439 3.67897 40 17 1 
-0.681584 -0.52161 3.66572 155 120 98 
-0.524556 -0.523726 3.68926 162 115 99 
-0.114207 -0.520441 3.71546 112 82 80 
-0.66548 -0.513801 3.67197 15 13 0 
-2.74322 -0.778056 5.52866 214 180 142 
-0.510266 -0.512557 3.69807 0 26 7 
-0.674598 -0.490405 3.6823 90 108 96 
-0.495044 -0.482195 3.69782 19 61 37 
-0.480352 -0.482713 3.70702 13 35 22 
-3.09172 -0.721104 5.50442 221 188 155 
-0.476287 -0.47779 3.71557 103 134 119 
-2.75802 -0.711689 5.5944 201 161 126 
-2.97788 -0.705908 5.56213 207 172 130 
-0.632106 -0.459789 3.69921 177 115 94 
-0.889796 -0.44984 3.66542 219 113 151 
-0.311751 -0.441377 3.61699 129 101 77 
-2.76314 -0.689285 5.60713 218 178 143 
-0.512638 -0.445086 3.72117 138 162 112 
-0.491333 -0.442387 3.72175 39 82 52 
-0.858056 -0.435224 3.68209 37 0 0 
-0.482475 -0.436397 3.72404 42 96 62 
-0.475068 -0.433617 3.72949 6 56 18 
-0.963891 -0.425323 3.66388 50 0 2 
-0.676086 -0.430197 3.7048 131 146 117 
-0.503095 -0.432692 3.71984 32 28 3 
-0.459313 -0.430787 3.72957 41 97 58 
-0.957517 -0.418261 3.66962 125 105 98 
-0.689418 -0.420007 3.70288 128 147 117 
-0.665912 -0.423297 3.70417 102 82 71 
-0.512331 -0.422106 3.7209 61 23 2 
-0.479326 -0.420708 3.73106 36 39 12 
-2.83954 -0.638883 5.60316 132 94 57 
-2.96451 -0.632504 5.60122 200 165 127 
-0.981071 -0.405573 3.6695 146 137 122 
-0.649417 -0.405944 3.71476 167 125 101 
-0.47398 -0.408945 3.73136 179 153 128 
-0.429388 -0.410126 3.73698 5 37 13 
-2.77676 -0.610439 5.62067 200 167 134 
-2.83242 -0.603621 5.63289 120 86 51 
-0.996633 -0.388021 3.66989 184 165 150 
-2.93818 -0.596981 5.6024 213 171 131 
-2.61779 -0.593089 5.65191 195 165 131 
-0.242886 -0.371307 3.65481 237 210 181 
-0.229125 -0.36674 3.65899 242 209 192 
-0.725213 -0.372188 3.71683 209 153 120 
-0.680144 -0.363859 3.72686 141 116 111 
-0.565479 -0.364129 3.73776 51 17 0 
-0.880673 -0.359554 3.69216 236 147 153 
-0.552517 -0.357984 3.74338 47 16 0 
-0.653122 -0.356633 3.73632 140 113 102 
-0.542567 -0.35561 3.74662 58 26 3 
-0.552818 -0.353653 3.74792 57 22 0 
-2.96572 -0.533002 5.63311 213 174 133 
-0.995395 -0.335414 3.69499 18 10 0 
-0.56866 -0.328583 3.75456 194 146 110 
-0.800039 -0.316144 3.64765 153 131 118 
-2.6121 -0.482698 5.69474 121 91 65 
-0.707774 -0.306704 3.74846 55 0 0 
-0.110941 -0.304304 3.80478 33 2 0 
-2.61916 -0.466524 5.68626 187 158 124 
-0.0984446 -0.26848 3.81245 78 102 89 
-3.19123 -0.403344 5.65546 140 104 78 
-3.16154 -0.398603 5.63809 221 188 155 
-3.20306 -0.391506 5.6443 187 157 121 
-0.957539 -0.226473 3.72735 69 0 0 
-0.343551 -0.223877 3.73753 246 178 113 
-3.19454 -0.346775 5.67548 205 169 133 
-3.25433 -0.323826 5.6632 123 90 59 
-2.58866 -0.324693 5.77543 217 187 149 
-2.52827 -0.324424 5.76188 114 79 47 
-0.0686125 -0.203327 3.81624 11 40 20 
-2.78063 -0.320289 5.735 124 88 52 
-0.069269 -0.203454 3.81463 18 45 28 
-3.24579 -0.295608 5.68413 204 172 134 
-3.07446 -0.295321 5.69482 169 135 90 
-2.80851 -0.283818 5.73713 212 179 136 
-2.96023 -0.280082 5.73128 204 168 132 
-0.0403672 -0.175701 3.80369 0 29 3 
-2.99848 -0.269169 5.71903 228 195 154 
-0.0599314 -0.171057 3.82818 86 104 88 
-0.552854 -0.162768 3.72956 111 102 97 
-3.10872 -0.215677 5.72204 141 101 66 
-3.20592 -0.199466 5.74826 207 176 147 
-0.85119 -0.114652 3.79515 211 111 139 
-0.768652 -0.114558 3.80305 121 0 0 
-0.809273 -0.108013 3.80401 228 88 133 
-0.371998 -0.104663 3.6689 219 100 94 
-2.86489 -0.17456 5.78011 208 170 133 
-2.77789 -0.176113 5.79907 184 154 130 
-0.885685 -0.103023 3.79615 172 68 57 
-0.416833 -0.0866824 3.68082 156 36 22 
-2.81063 -0.138496 5.80877 212 173 134 
-0.397722 -0.0653912 3.65244 214 113 93 
-3.29213 -0.115099 5.77072 196 164 126 
-0.39236 -0.0610721 3.64921 159 49 34 
-3.24089 -0.101827 5.75161 212 176 140 
-0.807872 -0.0149985 3.83379 173 103 113 
-2.7636 -0.0261489 5.86584 224 190 145 
-2.70837 -0.0205793 5.8715 193 159 122 
-0.78461 7.97859e-06 3.84117 145 91 81 
-2.78024 -0.00908144 5.88247 133 103 65 
-3.27167 0.00967085 5.81237 198 165 132 
-2.97878 0.022194 5.84784 210 176 139 
-3.31215 0.030453 5.80828 186 147 108 
-2.94655 0.0434807 5.8604 213 171 121 
-3.26423 0.0467552 5.85017 107 75 54 
-0.77401 0.0589076 3.85625 132 4 5 
-2.78098 0.0801348 5.91449 225 193 155 
-2.72845 0.0850463 5.90791 138 95 53 
-3.35847 0.094653 5.80459 210 171 132 
0.133397 0.0728017 3.77883 160 158 161 
-2.81598 0.102575 5.90007 232 202 166 
-3.18601 0.110834 5.83939 111 77 49 
-3.15892 0.120781 5.85588 200 166 138 
-2.75424 0.131518 5.91977 145 107 70 
-3.39723 0.140765 5.82197 184 151 108 
-3.1495 0.148676 5.86328 149 115 78 
-3.38077 0.147683 5.82368 134 102 63 
-2.73308 0.150586 5.93866 110 76 41 
-0.907364 0.116566 3.83083 77 0 0 
-3.27677 0.162213 5.83887 194 161 126 
-2.95343 0.18114 5.90709 219 181 134 
-3.1044 0.195049 5.8664 210 180 146 
-2.47805 0.201238 6.00666 175 145 109 
-3.24384 0.199691 5.85607 120 85 63 
-3.36044 0.214559 5.86326 197 165 124 
-3.13629 0.216769 5.88464 201 164 112 
-0.532575 0.151545 3.81002 181 31 42 
-3.3463 0.21697 5.81855 133 102 58 
0.100998 0.155005 3.77675 152 150 151 
-3.22536 0.231824 5.85848 196 160 126 
-0.5098 0.164077 3.79966 197 74 76 
0.106742 0.174694 3.78765 143 142 147 
0.424206 0.186898 3.83437 139 134 138 
0.438896 0.186679 3.82955 108 103 107 
0.415986 0.192722 3.82988 115 109 113 
0.0322973 0.195237 3.7819 55 50 56 
-0.956996 0.195021 3.752 215 94 85 
-3.10756 0.295553 5.91057 169 133 97 
-3.31281 0.300773 5.88485 201 167 129 
-2.9567 0.305688 5.97627 208 170 123 
-3.45669 0.310281 5.87028 176 145 117 
0.454098 0.216968 3.8473 141 138 145 
-3.14294 0.318056 5.92441 148 113 81 
-3.07314 0.315645 5.94355 219 181 136 
-3.25529 0.324483 5.89115 200 170 132 
-0.254857 0.236637 3.99394 245 220 200 
-2.78336 0.36007 6.03533 220 188 141 
-2.46559 0.369527 6.07486 186 153 118 
-0.20572 0.256696 4.00038 218 191 180 
-0.265319 0.256348 3.99537 100 70 60 
-2.5592 0.392544 6.07753 113 77 41 
-0.161932 0.267653 4.01164 204 185 171 
-3.28987 0.386992 5.91764 143 113 77 
-2.98181 0.391564 6.02387 129 91 55 
-2.84572 0.389451 6.01181 115 81 44 
-3.39801 0.384072 5.88764 134 100 65 
-2.69347 0.401321 6.06343 187 155 117 
-0.395753 0.2832 3.98857 235 207 185 
-0.288907 0.284147 4.00395 185 91 91 
-3.16633 0.425453 5.98141 209 178 147 
-3.21627 0.501725 7.00822 204 170 132 
-0.301678 0.300629 4.01391 255 191 185 
-3.45191 0.434158 5.93137 90 63 36 
-0.3834 0.303372 4.00158 117 87 76 
-2.7934 0.450053 6.05421 116 87 55 
-2.85368 0.452816 6.04092 139 100 67 
-0.319025 0.315781 4.01877 252 199 185 
-3.31717 0.451505 5.97195 116 82 47 
-0.244452 0.319959 4.02744 82 93 87 
-3.28265 0.458499 5.99746 206 173 138 
-2.99928 0.462507 6.03422 133 94 65 
-3.21609 0.470116 6.00862 211 178 145 
-0.317069 0.334097 4.02046 113 63 52 
-3.03425 0.517073 6.04773 130 91 50 
-0.407984 0.360774 4.02924 156 124 103 
-3.47294 0.517945 5.9714 171 139 100 
-0.492954 0.364383 3.80897 175 173 178 
-2.806 0.57243 6.10556 130 101 61 
-0.219377 0.411586 4.0634 120 88 65 
-2.81613 0.632114 6.12176 199 164 134 
-3.39302 0.648709 6.04811 98 71 42 
-3.02025 0.818559 6.16734 198 163 135 
-2.61338 0.863226 6.25882 195 160 130 
-2.79973 0.904884 6.24529 178 145 112 
-3.12099 0.920846 6.23675 133 98 56 
-3.08722 0.923357 6.20894 206 174 135 
-2.08044 0.985384 6.38174 181 146 114 
-3.23392 0.993233 6.19674 214 183 152 
-2.48963 1.03633 6.33122 118 77 45 
-2.82759 1.09934 6.31562 91 64 35 
-2.61001 1.1805 6.3845 101 67 32 
-2.43929 1.18508 6.41572 92 56 22 
-2.33898 1.18685 6.40955 84 53 32 
-3.54881 1.17032 6.25901 73 46 25 
-2.42661 1.20939 6.4119 173 140 105 
-2.47514 1.23332 6.41384 195 160 122 
-2.42737 1.2398 6.42228 194 162 123 
-3.4099 1.22723 6.32277 137 102 64 
-3.70523 1.26625 6.26266 121 95 72 
-3.46067 1.3065 6.3237 193 158 118 
-3.02912 1.33394 6.3899 146 109 67 
-2.97537 1.33506 6.40163 218 179 136 
-2.77323 1.37058 6.46186 184 155 115 
-2.81712 1.37733 6.44049 144 114 80 
-3.46572 1.3863 6.35629 133 99 72 
-3.16973 1.40437 6.36841 235 201 153 
-3.55811 1.43898 6.38122 219 184 144 
-3.45912 1.44123 6.37399 124 89 59 
-3.21905 1.44463 6.3877 213 180 137 
-3.22433 1.45647 6.41657 190 157 114 
-3.39961 1.46955 6.38238 213 179 142 
-3.15722 1.50685 6.44179 232 190 148 
0.330998 1.03704 4.35285 65 59 47 
-2.87248 1.54946 6.50076 183 149 121 
-3.08882 1.55505 6.44636 137 99 52 
0.532497 1.10732 4.40674 151 113 92 
-3.35441 1.6075 6.45684 197 163 126 
-3.41076 1.62061 6.44053 220 190 154 
0.621809 1.13683 4.42222 102 57 36 
-1.59652 1.71342 6.74777 151 116 86 
-3.42269 1.68286 6.49343 215 177 140 
-2.95002 1.69868 6.55134 194 155 112 
-3.28302 1.73803 6.50961 224 194 156 
-3.26313 1.74155 6.51712 171 136 94 
-3.7382 1.7371 6.44053 152 125 98 
-3.59369 1.75421 6.48851 185 151 114 
-3.56802 1.7786 6.4914 191 155 123 
-3.2196 1.79583 6.54942 239 204 162 
-3.22751 1.8049 6.54954 187 152 114 
-1.62149 1.88216 6.81287 100 70 44 
-3.52524 1.80513 6.5049 220 185 147 
-2.9783 1.87432 6.63093 134 98 64 
-3.04004 1.87989 6.60883 167 120 76 
-3.07726 1.91418 6.61517 145 103 61 
-3.72464 1.88924 6.52064 151 126 96 
-3.08023 1.96866 6.649 146 104 62 
-3.19604 1.96872 6.64129 103 65 28 
-1.59508 2.06648 6.89213 176 141 103 
-3.52453 2.03657 6.61057 192 161 130 
-1.64415 2.13118 6.91857 107 73 48 
-3.50998 2.04711 6.61825 144 109 79 
-3.02285 2.06139 6.67405 216 179 135 
-3.50664 2.09011 6.6207 169 136 101 
-3.43391 2.11138 6.65158 210 180 146 
-3.41686 2.13676 6.68519 213 178 138 
-3.40803 2.16787 6.67582 220 188 150 
-3.1573 2.19086 6.72977 230 197 156 
-3.44236 2.16583 6.65583 226 196 162 
-3.13441 2.20513 6.76005 213 179 134 
-3.14834 2.19621 6.7226 226 194 153 
-3.48509 2.24354 6.68587 113 86 59 
-3.53573 2.26694 6.70615 167 132 102 
-3.77419 2.31297 6.69262 77 51 24 
-3.80304 2.32035 6.68185 68 44 18 
-1.10851 -1.08 3.26709 225 98 151 
-0.0650476 -1.05243 3.39659 223 86 142 
-2.0151 -1.62691 5.32163 203 164 123 
-0.0577591 -1.00075 3.41996 235 102 157 
-2.34741 -1.52761 5.31986 109 79 45 
-2.54631 -1.49096 5.28927 216 184 145 
-2.46842 -1.48424 5.29074 232 191 145 
-0.413393 -0.92684 3.33988 234 229 223 
-0.246788 -0.983038 3.56428 242 101 144 
-0.757934 -0.956519 3.46001 17 8 13 
-0.420064 -0.911593 3.33683 113 112 107 
-1.1766 -0.901613 3.32288 245 96 164 
-0.0215799 -0.909306 3.45848 133 38 68 
-2.37183 -1.40484 5.35585 214 176 137 
-0.0503486 -0.90159 3.45791 235 113 152 
-0.745652 -0.903221 3.50968 85 0 0 
-0.277981 -0.908162 3.57168 12 33 34 
-0.301159 -0.901597 3.57042 84 111 106 
-2.12937 -1.36134 5.40498 140 96 67 
-0.963164 -0.863888 3.48286 41 2 7 
-0.291459 -0.887339 3.57578 8 29 32 
-0.260442 -0.882754 3.57973 6 29 35 
-0.486991 -0.827863 3.37302 229 229 221 
-0.65654 -0.862751 3.55104 110 65 34 
-0.251522 -0.864695 3.58814 88 130 126 
-0.187066 -0.871237 3.60375 44 17 6 
-1.02197 -0.834511 3.49873 253 202 149 
-0.264246 -0.853357 3.60578 106 132 133 
-0.205551 -0.843544 3.61339 78 20 16 
-0.241427 -0.839265 3.60393 196 148 126 
-2.28963 -1.24681 5.43877 211 172 129 
-2.50751 -1.23315 5.38401 208 174 139 
-0.9652 -0.802242 3.53652 34 5 10 
-0.312225 -0.812058 3.60726 189 80 83 
-0.298004 -0.809467 3.60637 20 24 27 
-0.742373 -0.78471 3.54364 21 31 22 
-0.847684 -0.775615 3.52127 93 127 103 
-0.321473 -0.79512 3.61502 48 26 29 
-0.28544 -0.794356 3.61632 14 35 40 
-0.69785 -0.774509 3.54118 224 231 215 
-1.02677 -0.765589 3.53026 158 39 81 
-0.719466 -0.773462 3.55628 245 243 230 
-0.208015 -0.779256 3.63142 50 14 0 
-0.638669 -0.762946 3.55838 238 237 217 
-0.976583 -0.755679 3.53722 229 107 128 
-0.822135 -0.756849 3.55227 31 18 1 
-2.09598 -1.14478 5.52401 137 102 74 
-0.263471 -0.732034 3.61989 199 141 119 
-1.03597 -0.70978 3.54643 145 32 60 
-0.727991 -0.710571 3.59056 136 159 113 
-2.00659 -1.08577 5.53583 170 136 99 
-1.16108 -0.666396 3.41056 232 104 152 
-0.989846 -0.689173 3.54883 42 0 1 
-1.14749 -0.643988 3.43862 176 69 95 
-2.43206 -1.03043 5.49027 120 80 44 
-2.10841 -1.01729 5.56531 184 152 114 
-0.841416 -0.64512 3.60867 108 127 108 
-2.18 -0.98914 5.5664 179 147 109 
-0.534663 -0.636695 3.64387 75 23 0 
-0.455126 -0.631375 3.64669 96 129 110 
-2.79803 -0.939343 5.48233 172 138 111 
-1.04139 -0.599504 3.56916 51 8 17 
-0.553027 -0.603761 3.64907 240 182 145 
-0.880484 -0.579911 3.61779 63 0 13 
-0.631736 -0.533535 3.66786 145 42 33 
-0.594609 -0.530411 3.68077 193 103 94 
-0.443415 -0.527304 3.68399 172 164 153 
-0.665791 -0.512833 3.68257 22 11 0 
-0.562739 -0.511273 3.68776 192 93 87 
-0.783765 -0.494966 3.60789 248 246 233 
-2.99608 -0.749002 5.53916 209 175 130 
-0.933449 -0.475593 3.65385 54 0 13 
-2.78449 -0.720087 5.57438 191 155 119 
-0.556092 -0.462044 3.71687 137 161 111 
-0.528006 -0.462794 3.70861 124 161 117 
-0.633062 -0.45868 3.70706 173 111 88 
-0.51105 -0.455265 3.70904 125 161 115 
-0.342068 -0.434369 3.6186 241 217 193 
-2.89952 -0.676636 5.5916 132 92 56 
-2.94926 -0.635839 5.5556 219 181 144 
-0.429203 -0.410117 3.73753 5 37 13 
-0.684252 -0.397474 3.71021 114 94 85 
-2.77966 -0.610124 5.62737 201 168 135 
-0.556261 -0.392868 3.71567 71 38 21 
-1.00326 -0.382498 3.67627 29 12 0 
-3.14255 -0.578744 5.56521 201 168 133 
-0.666304 -0.371882 3.72472 26 2 0 
-0.757212 -0.360727 3.71748 44 0 0 
-0.541751 -0.365388 3.73313 203 172 141 
-3.0221 -0.547851 5.57579 226 191 149 
-2.87897 -0.545529 5.65431 210 171 128 
-0.678316 -0.353508 3.73131 139 114 107 
-2.30752 -0.548416 5.71866 130 100 64 
-0.992517 -0.336305 3.69441 21 12 3 
-3.04456 -0.512763 5.63167 132 100 59 
-2.71846 -0.512281 5.67331 211 176 144 
-2.89709 -0.490445 5.64302 208 174 136 
-2.77986 -0.479741 5.68461 203 173 145 
-0.706904 -0.307753 3.7429 57 1 0 
-2.87264 -0.465312 5.67621 213 180 139 
-2.61769 -0.466794 5.68257 187 158 124 
-2.56929 -0.430772 5.71005 198 165 120 
-3.11017 -0.421517 5.66067 134 99 69 
-3.18324 -0.402117 5.64515 141 105 79 
-3.16954 -0.397236 5.65424 221 188 153 
-2.71147 -0.374594 5.71765 193 160 119 
-2.55669 -0.37443 5.75169 202 167 137 
-0.0877115 -0.236678 3.82129 13 21 6 
-0.828879 -0.222848 3.69446 244 185 215 
-0.0937248 -0.227567 3.82177 75 105 81 
-0.0784236 -0.214382 3.81638 5 16 2 
-2.78174 -0.320021 5.73716 124 88 52 
-3.25572 -0.307534 5.66755 192 162 126 
-0.0545962 -0.188437 3.81014 0 16 5 
-0.953006 -0.179493 3.7417 61 0 0 
-3.08929 -0.28165 5.70105 219 187 148 
-0.0556392 -0.173151 3.82265 72 100 77 
-0.313801 -0.159619 3.67917 166 44 41 
-0.290323 -0.153069 3.66044 163 34 29 
-0.289868 -0.129488 3.64298 112 49 8 
-0.321271 -0.125377 3.65724 162 43 35 
-0.721215 -0.114946 3.80949 148 21 50 
-2.86574 -0.17763 5.78428 206 166 130 
-2.8082 -0.160774 5.80119 201 164 122 
-3.01482 -0.158082 5.76071 220 183 141 
-3.12843 -0.145844 5.765 142 108 73 
-2.77184 -0.139743 5.81185 125 95 61 
-0.780797 -0.0824643 3.81307 44 0 0 
-2.78743 -0.134663 5.81637 202 168 130 
-3.07963 -0.0495168 5.84022 153 115 79 
-2.89913 -0.0241538 5.86106 136 102 67 
-2.61044 0.00908039 5.88834 130 101 71 
-2.84738 0.0490461 5.87403 190 155 117 
-3.24817 0.138971 5.84096 120 90 56 
-3.14785 0.150112 5.86085 141 107 70 
2.82991 0.13942 4.64948 80 74 74 
-3.0219 0.171577 5.89327 136 104 66 
-3.17481 0.182427 5.86016 132 97 57 
-3.35375 0.212197 5.8526 198 166 125 
0.00166365 0.152724 3.78441 104 102 105 
-2.96826 0.234353 5.94191 120 86 48 
-0.533478 0.157689 3.83072 197 36 41 
-2.58209 0.238656 6.00078 193 160 125 
-0.507079 0.162697 3.78895 197 63 64 
-3.11769 0.248283 5.89381 237 203 165 
-3.04707 0.261769 5.92123 213 178 136 
-2.76027 0.269266 5.98559 154 116 77 
-2.62708 0.267377 6.01071 205 173 135 
-3.17447 0.282174 5.89747 214 176 139 
-3.29534 0.285666 5.87452 111 79 56 
-3.38805 0.301025 5.86532 142 110 72 
-2.91487 0.305071 5.98805 104 74 38 
0.378712 0.208592 3.8357 155 153 154 
-3.27766 0.319547 5.89608 198 164 129 
-3.14651 0.319766 5.93339 147 114 79 
-3.01019 0.32419 5.94059 142 103 62 
-2.95721 0.33378 5.97279 212 171 127 
0.448217 0.225324 3.84543 151 149 154 
-3.18681 0.335421 5.90606 223 195 155 
-3.18293 0.382285 5.95846 138 103 65 
-3.38423 0.381957 5.90741 221 184 140 
-3.39537 0.382864 5.88173 129 95 60 
-3.13659 0.398025 5.97784 230 200 164 
-3.50405 0.408865 5.92707 94 70 46 
-0.303177 0.296403 4.00471 246 209 200 
-2.80139 0.452122 6.07173 114 85 53 
-0.347889 0.31562 4.01063 243 203 193 
-3.47386 0.477105 5.95801 165 133 92 
-3.41609 0.48576 5.96864 173 142 113 
-2.97269 0.507303 6.04876 213 172 126 
-2.92738 0.5083 6.06823 132 98 61 
-3.41742 0.508052 5.99314 123 88 58 
-3.03327 0.51657 6.04575 130 91 50 
-1.95339 0.525742 6.17399 187 144 109 
-3.15129 0.539155 6.04604 236 204 165 
-3.25648 0.558136 6.06134 226 197 157 
-2.78852 0.584952 6.10482 209 177 139 
-3.39652 0.592744 6.04938 214 181 146 
-2.97714 0.613673 6.11019 204 165 122 
-3.47828 0.67391 6.04651 111 85 60 
0.734001 0.452741 3.62796 20 13 7 
-3.37309 0.804964 6.11226 151 121 97 
-3.33579 0.838922 6.14415 160 136 98 
-2.71061 0.857508 6.22529 177 145 106 
-3.22956 0.875015 6.16161 107 74 39 
-2.80954 0.883786 6.21657 110 80 52 
-2.48384 0.893737 6.27966 116 76 51 
-3.37186 0.89539 6.15513 174 144 110 
-2.53545 0.907301 6.26182 166 133 98 
-3.0715 0.954569 6.22112 196 161 123 
-2.98887 0.963525 6.23295 194 152 110 
-3.44416 0.971983 6.13937 127 99 77 
-3.4435 0.971561 6.138 125 97 76 
-2.3853 1.02466 6.35131 148 113 71 
-2.7227 1.01341 6.2957 186 151 119 
-2.97791 1.02189 6.26288 182 143 110 
-2.84623 1.06243 6.35263 78 53 22 
-2.27482 1.08775 6.40669 108 75 40 
-2.24346 1.11987 6.42105 174 139 107 
-2.33777 1.18585 6.4069 84 53 32 
-3.73198 1.28277 6.27452 60 32 18 
-3.41437 1.28597 6.31335 215 179 127 
-3.4602 1.29204 6.29152 96 61 39 
-3.51812 1.30656 6.29516 189 155 110 
-3.4472 1.31112 6.31696 208 169 128 
-3.59803 1.34351 6.31766 79 53 30 
-2.85086 1.38238 6.44701 104 78 43 
-3.38241 1.37359 6.36077 120 87 54 
-3.6021 1.41634 6.35255 80 52 38 
-3.43615 1.43518 6.39054 212 178 133 
-3.28537 1.44816 6.45758 204 171 138 
-3.22594 1.4511 6.40545 217 183 138 
0.566923 1.0181 4.37818 84 62 51 
-3.35275 1.46329 6.39765 206 172 135 
-3.46473 1.46988 6.3896 219 183 135 
-3.67473 1.48455 6.35876 144 120 94 
0.623592 1.13913 4.42728 97 56 36 
-3.22634 1.73524 6.5033 225 187 142 
0.700149 1.21305 4.45818 68 48 23 
-1.59834 1.82856 6.79988 158 123 93 
0.805854 1.23801 4.4945 44 33 27 
-3.17026 1.79683 6.55726 116 77 36 
-3.52606 1.80594 6.50685 220 185 147 
-1.54436 1.90386 6.81218 155 116 77 
-3.24779 1.87231 6.58321 125 95 61 
-3.04004 1.87989 6.60883 167 120 76 
-3.31344 1.92249 6.60256 237 211 174 
-1.64582 2.02881 6.86412 161 128 95 
-3.48781 2.07089 6.62258 221 188 145 
-3.53593 2.15408 6.64605 168 133 95 
-1.61395 2.27683 6.99898 183 140 105 
-3.17436 2.20995 6.7696 228 196 155 
-3.59363 2.19485 6.66552 151 123 99 
-3.4842 2.24239 6.68336 113 86 59 
-3.53448 2.26884 6.6978 172 133 100 
-1.16446 -0.99969 3.30438 195 60 116 
-0.0523417 -0.943024 3.43759 226 92 145 
-0.95047 -0.93662 3.47822 242 90 129 
-0.291858 -0.943503 3.57173 195 72 56 
-1.17555 -0.875227 3.32826 236 90 152 
-0.280665 -0.920185 3.5609 76 134 136 
-0.745878 -0.903279 3.51265 94 0 2 
-0.492075 -0.813527 3.3782 101 97 98 
-0.272523 -0.859432 3.58887 23 47 51 
-1.03454 -0.83347 3.49647 164 42 89 
-0.241175 -0.839175 3.61036 203 149 125 
-0.233913 -0.818064 3.61226 212 145 118 
-0.769097 -0.77614 3.53864 93 133 98 
-0.282956 -0.794158 3.62047 23 41 43 
-0.189016 -0.790197 3.62261 130 119 99 
-0.638926 -0.762809 3.56351 237 230 212 
-2.68137 -1.11412 5.41233 203 165 126 
-2.08971 -1.14131 5.57296 210 172 135 
-0.818263 -0.701858 3.58335 41 112 70 
-0.784818 -0.686823 3.59604 3 55 19 
-0.56258 -0.684078 3.6155 60 19 1 
-0.606457 -0.677887 3.61463 205 172 127 
-0.884317 -0.601464 3.61012 196 187 144 
-0.857538 -0.585759 3.62644 60 8 20 
-0.123064 -0.529531 3.66916 129 84 81 
-0.59544 -0.528702 3.68473 247 157 148 
-0.799234 -0.49798 3.60344 248 246 233 
-1.16858 -0.46151 3.46411 37 27 25 
-1.14967 -0.411963 3.5117 245 78 124 
-0.527055 -0.421592 3.72961 160 108 87 
-0.942429 -0.396884 3.6756 175 152 118 
-0.684392 -0.397048 3.71356 146 123 115 
-0.581663 -0.391616 3.73615 66 37 21 
-3.00207 -0.547696 5.62743 124 90 55 
-3.06032 -0.522501 5.60084 232 198 150 
-0.706078 -0.309601 3.73476 60 8 0 
-2.96552 -0.437152 5.70503 137 101 69 
-3.1303 -0.407998 5.66454 232 193 154 
-2.5985 -0.350583 5.73354 205 172 137 
-0.290004 -0.152592 3.66302 170 40 38 
-3.10468 -0.229635 5.71415 127 96 68 
-0.0459352 -0.137987 3.81754 18 7 5 
-0.733534 -0.121366 3.80493 100 0 5 
-0.378916 -0.110318 3.68483 162 27 34 
-0.712054 -0.112384 3.81332 216 74 122 
-0.796845 -0.105011 3.79901 64 0 0 
-0.74674 -0.0915681 3.80764 56 0 0 
-3.09034 -0.145279 5.7528 225 193 154 
-3.22393 -0.0866215 5.80684 202 172 136 
-0.0495758 -0.0401638 3.84303 0 17 26 
-3.17172 -0.0717992 5.82104 161 127 90 
-2.89567 -0.0252677 5.85565 135 101 66 
-0.779591 0.0050957 3.83349 44 0 0 
-3.27393 0.00814208 5.82328 205 175 141 
-2.89284 0.0599242 5.86397 114 79 37 
-2.66328 0.129886 5.92423 210 167 122 
-2.62901 0.149466 5.94951 197 167 131 
-2.8539 0.15207 5.92348 123 85 49 
-3.09078 0.182629 5.9037 121 86 56 
-2.57457 0.238546 5.98861 194 161 126 
-0.952606 0.164265 3.74945 193 43 29 
-3.10941 0.298509 5.92584 175 137 100 
