ply
format ascii 1.0
comment PCL generated
element vertex 1160
property float x
property float y
property float z
property uchar red
property uchar green
property uchar blue
element face 0
element camera 0
property float view_px
property float view_py
property float view_pz
property float x_axisx
property float x_axisy
property float x_axisz
property float y_axisx
property float y_axisy
property float y_axisz
property float z_axisx
property float z_axisy
property float z_axisz
property float focal
property float scalex
property float scaley
property float centerx
property float centery
property int viewportx
property int viewporty
property float k1
property float k2
end_header
0.66325998 0.41779 8.8799 109 40 68
-1.28039 0.43361801 7.2709999 114 106 103
-1.26536 0.43335101 7.2649598 86 78 76
-1.24492 0.43705499 7.28654 93 89 90
-1.30039 0.37723801 8.2962704 101 90 78
-1.06326 0.37862101 8.4888401 134 118 103
-0.96027499 0.37970999 8.5087996 157 138 115
-0.91836399 0.38944599 8.5269098 171 149 123
-0.76134998 0.39574 8.4949999 219 193 154
-0.30263999 0.389981 8.8034801 187 161 126
0.61154997 0.438434 8.6659899 107 39 67
1.9711601 0.462652 9.0901299 190 171 144
-1.94924 0.36802599 8.2280397 185 182 178
-1.29117 0.44789499 7.2599502 209 202 200
-1.28093 0.44738799 7.2607298 212 204 202
-1.26852 0.45164099 7.24826 220 212 209
-1.23586 0.450587 7.2889199 106 100 101
-1.32245 0.39608201 8.2801704 125 110 97
-1.31133 0.39000499 8.2944803 128 115 100
-1.20761 0.391619 8.4177103 117 102 90
-0.93008602 0.39337501 8.5206804 147 128 106
-0.80561697 0.40479401 8.4894505 228 203 165
-0.0132925 0.413185 8.7831001 118 47 68
0.59783798 0.454018 8.6287403 109 44 70
0.63312203 0.45311201 8.6179399 64 29 43
-1.23159 0.473995 7.0331998 189 178 170
-1.2592601 0.455764 7.2521701 220 213 208
-1.25185 0.463431 7.2223401 218 211 205
-1.2397701 0.461079 7.23067 218 212 207
-1.24631 0.45959401 7.2699699 207 202 198
-1.19239 0.46651 7.1325402 202 191 182
-1.17972 0.473324 7.11233 206 195 183
-1.1580499 0.47277999 7.0802999 193 182 171
-1.30687 0.406104 8.2948303 196 182 159
-1.24089 0.40018699 8.3772802 114 99 87
-1.2302001 0.40645099 8.3817997 121 107 95
-1.14121 0.40613401 8.4770298 139 123 108
0.080089703 0.43486699 8.8380499 88 43 58
0.476179 0.444363 8.8607101 133 60 92
-1.42873 0.46641999 7.1324601 140 142 148
-1.22306 0.48043901 7.0230799 185 173 162
-1.19191 0.478975 7.1079702 223 211 198
-1.17327 0.483293 7.05762 222 210 196
-1.17992 0.481713 7.1020498 221 209 196
-1.16208 0.479855 7.06353 211 199 187
-1.14992 0.483441 7.0535402 204 192 181
-1.16236 0.41302001 8.46665 137 122 108
-0.965514 0.41738501 8.5444298 144 126 106
-0.94967598 0.42434901 8.5420599 152 132 111
0.123326 0.44369501 8.8285904 73 35 50
0.13545799 0.44362 8.82584 68 30 44
0.424007 0.46044001 8.8541803 117 52 84
0.52962297 0.46097901 8.8674898 118 47 77
-1.3423899 0.48592401 7.0512199 209 199 190
-1.33148 0.48853099 7.0475502 213 203 192
-1.3315001 0.488787 7.0481701 213 203 192
-1.31991 0.48923299 7.0380902 221 210 198
-1.31991 0.489474 7.0385499 221 210 198
-1.30959 0.49189001 7.0344601 224 211 199
-1.31024 0.492387 7.03723 224 211 199
0.53215802 0.476529 8.8870897 121 49 79
0.54256999 0.46693 8.8624296 124 55 85
1.96162 0.51897502 9.0788803 192 173 146
-1.62316 0.47232401 7.4746699 152 185 214
-1.56994 0.46974501 7.53514 153 177 201
-1.40969 0.49057201 7.14291 201 201 199
-1.40178 0.49434599 7.15483 203 201 197
-1.36985 0.498483 7.0465102 207 203 195
-1.35866 0.49735001 7.0475302 208 202 193
-1.3663 0.49327299 7.0936999 206 200 192
-1.3397501 0.49322501 7.0268998 209 201 191
-1.33838 0.50055599 6.9832702 210 203 191
-1.32813 0.49399799 7.0174499 210 200 189
-1.3214 0.50073802 7.0162101 210 200 188
-1.31002 0.50063998 7.0247102 220 208 195
-1.2589099 0.49860799 7.0195398 222 209 196
-1.2473 0.49817601 7.0104299 223 211 198
-1.15887 0.50744599 7.01053 213 199 186
-1.21136 0.445591 8.4000902 125 111 98
-1.1998301 0.44535199 8.4158802 129 114 100
-1.2094001 0.43399999 8.4700403 129 114 101
-1.18286 0.44051099 8.3959103 132 116 101
-1.16597 0.44593701 8.3847704 139 121 101
-0.94493198 0.46572 8.0248404 168 141 112
-0.88646603 0.447476 8.5467901 161 139 114
-0.76714599 0.459203 8.4607697 169 145 118
1.96961 0.52855498 9.1498098 186 168 143
1.96861 0.51895797 9.1766596 180 163 138
-1.70468 0.47966099 7.4814501 146 190 226
-1.67573 0.47710699 7.4857001 147 189 223
-1.66377 0.47695899 7.4812799 148 187 221
-1.6257 0.47738001 7.4682798 153 185 213
-1.38888 0.508641 7.0331502 205 204 200
-1.37728 0.50676602 7.03901 206 204 197
-1.30953 0.50739598 7.01015 214 202 189
-1.25528 0.51718497 6.9710999 214 202 187
-1.15022 0.52106202 6.9929399 212 199 186
-1.15031 0.51965803 7.0204501 212 198 186
-1.14054 0.51406401 7.0170298 208 195 184
-1.21 0.45407 8.3795996 124 109 94
-1.19945 0.4544 8.3987999 129 113 95
-1.18296 0.451206 8.3894997 134 117 96
-1.17144 0.45558399 8.3804598 165 144 117
-0.78892601 0.463873 8.4921904 166 143 118
1.9432499 0.54747301 9.0588799 172 155 133
-1.75577 0.48767701 7.5046301 145 199 235
-1.7399499 0.48615101 7.4902201 145 196 233
-1.71864 0.480028 7.49055 144 194 230
-1.69498 0.48066899 7.48597 147 190 224
-1.68534 0.48116401 7.4830499 148 190 223
-1.35197 0.52426499 6.9820499 209 202 191
-1.31926 0.52389699 6.9657102 215 205 189
-1.29752 0.52464098 6.9521098 216 204 190
-1.21138 0.46551999 8.3751097 140 123 100
-1.19774 0.46563399 8.3821096 193 172 141
-1.1864901 0.470945 8.3779602 224 200 161
-0.843355 0.484162 8.2333603 173 145 115
0.48825601 0.50902599 8.8761902 135 57 85
1.94033 0.56053603 9.0929203 162 147 127
1.95055 0.55801201 9.1504402 163 148 128
-1.73195 0.49009001 7.4900799 147 191 225
-1.705 0.495285 7.4695501 156 182 204
-1.69705 0.49459001 7.4843502 156 185 208
-1.55654 0.50690901 7.4903898 70 74 83
-1.55163 0.497289 7.4917302 76 81 90
-1.34701 0.526366 6.9661198 209 201 189
-1.33807 0.53686899 6.9393902 207 197 185
-1.3414299 0.53533 6.9722199 208 199 186
-1.32652 0.53783 6.9288802 209 198 185
-1.29651 0.53757501 6.9208598 213 200 186
-1.29171 0.53524798 6.9247699 213 201 187
-1.2109801 0.47635499 8.3626003 213 190 158
-1.20705 0.48504001 8.3459101 218 190 151
-1.1928 0.48343199 8.3569899 217 188 147
-0.97575903 0.49769899 8.0279198 143 105 74
-0.95596701 0.50493997 8.0242996 209 172 132
-0.94415098 0.50378299 8.0243998 193 157 119
1.90898 0.56630701 9.1950397 170 156 135
1.90017 0.56410998 9.1925001 172 157 136
-1.69318 0.50811303 7.4763198 167 173 176
-1.68132 0.50780398 7.4731598 183 187 188
-1.1327 0.54912901 7.0360398 204 192 180
-1.2227499 0.48842499 8.3447304 194 171 142
-1.20898 0.49652001 8.3446598 220 191 153
-1.08585 0.51833999 7.9229598 130 98 76
-0.94714701 0.514193 8.0307102 176 138 104
0.37512699 0.53595698 8.8513498 171 130 124
0.38974199 0.52622098 8.8473301 128 68 86
0.43557101 0.542696 8.5789299 145 80 98
1.88144 0.57723498 9.1883202 173 157 136
1.94631 0.57788301 9.1656199 157 143 126
-1.71822 0.51533002 7.4653201 87 89 96
-1.69792 0.51660103 7.4700699 99 100 101
-1.24173 0.499704 8.3198605 197 174 145
-1.19706 0.50347698 8.3412104 210 182 146
-1.18191 0.50246298 8.3128405 212 183 148
-0.94624001 0.52686399 8.0441599 162 124 98
0.41201201 0.55226499 8.5780201 143 84 97
1.87773 0.58671099 9.1805801 171 156 135
1.9170099 0.590478 9.1911497 157 143 125
-1.7512701 0.53133702 7.4910002 58 60 69
-1.73678 0.52920401 7.4791198 65 68 75
-1.7229 0.53334802 7.4400101 66 68 76
-1.70123 0.52581799 7.44559 83 83 90
-1.69712 0.53377301 7.46172 86 85 91
-1.70314 0.52524197 7.4661102 87 86 92
-1.56678 0.52999997 7.5009999 76 80 88
-1.31241 0.569543 6.8962698 210 197 183
-1.3006001 0.57115197 6.8877802 212 199 185
-1.29615 0.57209897 6.8645301 212 199 184
-1.2483 0.51867503 8.2985497 197 171 138
-1.23629 0.51096201 8.3320704 199 174 141
-1.07731 0.53051698 7.9792099 125 95 80
0.39119801 0.56413502 8.7447205 144 85 95
0.39952299 0.57167298 8.6296597 146 89 99
-1.76782 0.541381 7.5145998 52 58 66
-1.3079 0.57947499 6.8621602 209 196 182
-1.3035001 0.57507998 6.8337898 209 196 182
-1.29625 0.58102298 6.8541498 210 198 184
-1.24303 0.52808398 8.3130798 183 157 123
-0.95161903 0.54440302 8.0101099 197 165 141
-0.944736 0.54727697 8.0459604 114 82 65
0.143746 0.56471097 8.84517 158 70 83
0.32761499 0.56687301 8.8232899 190 177 148
0.351531 0.56562901 8.83426 190 176 148
0.37727201 0.57315803 8.7489796 184 127 119
1.89728 0.62039298 8.8930902 153 141 125
-2.23561 0.4948 8.5740499 194 193 196
-1.44128 0.57593 7.0753899 166 170 171
-1.2298 0.54171902 8.3217297 196 168 140
-0.99533701 0.56150597 7.9809599 193 152 117
0.28896701 0.58664697 8.8221798 140 126 126
0.352552 0.588099 8.6745195 189 166 141
0.35260299 0.58578598 8.8078203 190 175 147
0.350173 0.58883399 8.6120195 189 165 141
0.364777 0.59080499 8.7830801 194 164 142
-2.2699499 0.50844198 8.5269003 185 194 206
-2.2430899 0.50647902 8.5778999 163 165 170
-2.2315099 0.50678599 8.5820398 158 161 168
-2.1436999 0.506603 8.6127796 162 165 172
-1.19613 0.56277502 8.0499601 142 115 98
-1.1061 0.56911701 8.0019598 54 37 31
-0.79410499 0.56676102 8.2994804 206 179 146
-0.63381499 0.57892001 8.2884998 204 185 163
-0.63482302 0.570306 8.3130999 172 155 134
-0.63381499 0.57892001 8.2884998 204 185 163
0.154181 0.585383 8.8565197 154 70 82
0.229017 0.59246099 8.8663101 121 86 95
0.69474602 0.60514897 8.9379396 77 43 54
-2.26405 0.51638901 8.5245399 151 163 178
-2.26208 0.52409601 8.5014496 153 172 192
-2.23949 0.513915 8.55023 129 133 141
-2.22282 0.51901501 8.5294104 120 128 139
-2.1923201 0.52515298 8.5241699 109 118 131
-2.1904199 0.52132797 8.5689201 103 110 121
-2.12356 0.52900398 8.5327196 106 112 121
-2.1329501 0.52830499 8.5554199 104 110 119
-1.81416 0.567662 7.57373 44 54 63
-1.7872 0.56488597 7.55439 49 56 65
-1.11115 0.61157203 7.0825901 196 183 172
-1.1198 0.575207 7.9948001 162 124 102
-0.78887099 0.581833 8.2865295 198 172 139
-0.61921102 0.58982098 8.2443104 222 199 172
-0.62124997 0.59377497 8.2402096 223 201 173
0.248448 0.60779297 8.81847 140 114 112
-2.2184701 0.53338301 8.4428101 127 145 170
-2.2286201 0.528377 8.4942102 119 132 148
-2.2194901 0.52991199 8.5067196 115 126 142
-2.19818 0.53083098 8.4824896 110 122 137
-2.1847501 0.54002398 8.4172096 118 135 158
-2.1537299 0.54279101 8.4223299 79 90 105
-2.1624899 0.53784198 8.4756002 74 84 97
-2.1556399 0.53540403 8.5229797 88 97 110
-1.66491 0.58926398 7.5120201 76 71 65
-1.20601 0.58225101 8.0907803 101 84 70
-1.1444401 0.59287298 8.0313797 30 25 31
-1.11409 0.58987802 7.9791498 150 113 90
-0.66176498 0.59350902 8.2820501 64 58 44
-0.64679903 0.60328901 8.24856 55 48 35
-0.646182 0.596187 8.2715702 69 61 48
-0.60940897 0.60315597 8.1372404 202 182 158
-0.620713 0.602112 8.2195597 222 201 172
-0.60787702 0.60588098 8.2158499 158 140 121
0.22861899 0.61131197 8.8263302 139 108 109
-2.2537501 0.54368401 8.4416599 149 181 216
-2.24717 0.54318202 8.4816999 135 164 198
-2.2169399 0.54212302 8.4220695 135 162 194
-2.20048 0.54603601 8.4110098 137 161 191
-2.1956501 0.55386502 8.3787498 137 167 201
-2.1816599 0.548715 8.3911505 135 158 187
-1.81101 0.58322197 7.5841098 71 78 81
-1.3419 0.62606901 6.9461298 203 193 179
-1.33373 0.62494397 6.9545202 205 193 179
-1.15306 0.60514301 8.00914 18 24 33
-1.14249 0.59876698 8.00453 23 23 32
-1.10041 0.60752702 7.9809899 150 116 89
-0.63372302 0.61769903 8.12815 99 86 67
-0.639808 0.610246 8.1842604 72 63 48
-0.24411801 0.605003 8.8582201 210 193 154
-2.20595 0.56879598 8.2767601 135 195 236
-2.21292 0.56809199 8.32271 134 186 224
-2.19115 0.56603098 8.2864304 132 177 216
-2.13785 0.57079601 8.1129198 125 182 225
-2.1651001 0.56872803 8.23839 128 171 209
-2.11005 0.57660502 8.0812798 125 167 208
-2.1807401 0.55717701 8.3713598 135 164 197
-2.1802199 0.56813103 8.3551197 129 162 198
-2.14149 0.57091498 8.2310696 125 158 195
-2.1405799 0.572797 8.2249603 125 159 197
-2.12884 0.574045 8.2262297 126 151 179
-2.14836 0.56546199 8.2747402 129 158 193
-1.82928 0.60231799 7.6030898 94 107 104
-1.81027 0.600541 7.59618 97 102 96
-1.2064199 0.604954 8.0904198 52 49 43
-1.02495 0.622446 7.9907999 56 42 35
-1.00562 0.62348801 7.9903698 37 34 36
-0.67894602 0.61812299 8.3253698 44 43 35
-0.65050399 0.62863702 8.1669798 87 84 66
-0.31802699 0.61934298 8.8138103 167 141 112
0.647488 0.65953499 8.9709902 74 49 58
-2.2030301 0.579301 8.1697903 138 217 247
-2.15938 0.58420199 8.11765 121 206 247
-2.1865101 0.57866502 8.2351198 127 198 238
-2.1918099 0.57614899 8.2735395 130 188 229
-2.13603 0.57935703 8.0921097 126 191 236
-2.13592 0.58924001 8.0775604 125 199 244
-2.1066699 0.58446097 8.1107502 124 156 189
-2.1015401 0.590092 8.1346302 71 87 106
-1.82532 0.60540199 7.6106701 95 106 101
-1.80529 0.61505902 7.5839 99 108 96
-1.22541 0.62349701 8.0790396 77 77 56
-1.20092 0.623146 8.0959101 29 38 36
-1.10268 0.62083697 7.9868698 158 118 90
-0.69086701 0.62998003 8.3192301 48 51 48
0.73539501 0.67474002 8.8868704 142 86 97
-2.19626 0.59098899 8.1018801 150 220 241
-2.1662099 0.59323299 8.1290798 119 210 250
-2.1373301 0.59719402 8.07127 121 202 247
-2.12291 0.59915602 8.0603905 125 194 240
-1.75475 0.61838299 7.5531502 109 110 94
-1.42988 0.64637601 7.0753398 189 194 197
-1.22654 0.633587 8.0721197 66 65 47
-1.21214 0.62811399 8.0778704 52 59 48
-1.16102 0.63650101 7.9668498 38 43 43
-1.10421 0.63258302 7.9583902 190 156 126
-1.03987 0.63752502 7.9871402 117 86 70
-0.870646 0.63507402 8.3614197 121 93 72
-0.70020902 0.63959002 8.2993002 60 63 53
-0.467325 0.64413297 8.8973503 219 194 158
0.083736598 0.66493702 8.7434597 139 98 100
-2.13692 0.60971898 8.0569096 118 206 249
-2.0981801 0.60848302 7.9518199 123 200 246
-2.11361 0.61106199 8.0361404 128 193 243
-1.82478 0.627352 7.60607 94 111 101
-1.80529 0.62695003 7.57201 98 113 98
-1.7911 0.63563901 7.5819602 101 113 98
-1.79225 0.62918401 7.57552 103 112 97
-1.7738301 0.638129 7.5753198 104 114 100
-1.75985 0.63864702 7.56214 109 115 101
-1.73428 0.63653201 7.55056 119 120 101
-1.74236 0.63612098 7.5563698 117 118 101
-1.70953 0.63146299 7.5410199 132 126 103
-1.69771 0.63497001 7.5327301 133 128 104
-1.67933 0.63462198 7.5185699 134 128 103
-1.3552099 0.66486597 6.9781599 198 188 177
-1.31817 0.66869301 6.9721799 205 192 178
-1.26433 0.66542 7.05514 213 200 186
-1.2125 0.64624703 8.0515699 55 57 47
-1.21236 0.64661503 8.05161 55 58 47
-1.16313 0.64928198 7.9486899 56 60 51
-1.14695 0.64740199 7.9509101 133 119 97
-1.08167 0.645913 7.94982 145 104 74
-1.04047 0.647138 7.98949 148 109 88
-0.90753698 0.65692699 8.2346497 220 188 149
-0.89927202 0.65209001 8.3076696 212 183 143
-0.62179703 0.64593601 8.8700104 151 133 109
-0.62212801 0.65306902 8.8154602 122 111 94
-0.62212801 0.65306902 8.8154602 122 111 94
-0.61042303 0.653175 8.82971 127 115 99
-0.54593599 0.65691799 8.77279 130 119 104
-0.55194497 0.65380502 8.87045 142 126 103
-0.45170301 0.658719 8.8979702 167 148 120
-0.16726799 0.66733199 8.8489399 222 185 145
0.050490201 0.67447698 8.8585196 134 97 99
0.065397397 0.67026597 8.78263 138 99 101
0.209979 0.69037801 8.5555496 176 143 129
1.07772 0.70942003 9.1433096 194 169 133
1.92623 0.73652601 9.1591501 153 141 125
-2.1903 0.62556303 7.9103699 88 107 131
-2.0896499 0.62774098 8.0422096 50 65 82
-1.83915 0.64527702 7.6200399 61 88 80
-1.82294 0.64111799 7.5952601 75 100 88
-1.773 0.64745402 7.5585198 92 110 94
-1.71794 0.64792502 7.5416598 118 124 100
-1.7102 0.64274901 7.5330701 125 126 102
-1.26425 0.676691 7.04352 212 199 184
-1.2029901 0.66008002 7.9061499 212 198 174
-1.18809 0.66285098 7.8923001 207 195 173
-1.17493 0.66106302 7.9025302 125 119 100
-1.16223 0.66081798 7.90239 89 83 64
-1.12854 0.66242403 7.9414501 188 158 126
-0.99506497 0.66670102 8.0232296 104 78 64
-0.99279201 0.66596597 7.9960399 137 106 88
-0.87106502 0.66604799 8.2340498 195 167 140
-0.87804902 0.66635197 8.3323002 158 133 109
-0.87144101 0.66591197 8.3502998 120 96 75
-0.85778499 0.66887897 8.2292299 106 80 61
-0.85633397 0.65910202 8.3588696 187 158 128
-0.623276 0.67400402 8.1185904 162 137 121
-0.588871 0.66399997 8.7623196 93 84 75
-0.58103502 0.664774 8.7607498 91 82 74
-0.50020701 0.66399401 8.77806 125 113 99
-0.492158 0.658714 8.8893995 150 132 107
-0.49134499 0.66771799 8.8852501 133 119 99
-0.48543701 0.66877198 8.7764702 115 102 91
-0.47368401 0.66575497 8.7904997 131 119 104
-0.44008401 0.66918701 8.7835598 126 114 98
-0.43974799 0.665353 8.81847 137 124 105
-0.419038 0.67225599 8.8419304 130 118 100
-0.404039 0.67170399 8.8413095 132 120 102
-0.083971404 0.677104 8.7938805 199 158 132
0.0236963 0.68948102 8.8819199 153 111 109
0.036326502 0.68885702 8.8655701 144 106 104
0.050436899 0.68301803 8.8258305 141 104 104
0.065651998 0.68468201 8.8204699 142 104 105
1.28947 0.72059602 9.1703396 163 143 114
1.78857 0.74243701 9.2189102 156 142 123
1.92659 0.74871403 9.2296495 154 142 126
1.93946 0.754067 9.1952 153 141 125
-2.1789601 0.633048 7.94556 81 106 124
-2.08161 0.63447499 7.9345498 122 168 203
-2.06796 0.64113802 7.9306302 50 64 80
-2.08109 0.63424098 8.0082998 46 59 75
-1.82579 0.65562898 7.59795 53 82 73
-1.82382 0.65614098 7.58599 52 82 74
-1.80962 0.65506202 7.5728998 58 87 75
-1.79467 0.65661401 7.5641198 68 96 80
-1.18408 0.68461698 7.0181298 209 197 184
-1.12959 0.69442701 7.0844698 189 180 170
-1.11691 0.68855399 7.1501498 184 171 160
-1.17416 0.668284 7.8839002 204 192 171
-1.11384 0.67699099 7.9449501 131 102 77
-1.09833 0.67217201 7.9795599 145 112 82
-1.03652 0.67649198 7.9694901 94 72 60
-0.91320097 0.68035001 8.1663904 105 81 66
-0.88094598 0.675515 8.2081003 210 176 138
-0.86041802 0.68142903 8.2154503 87 61 48
-0.63811702 0.68450999 8.09237 178 157 137
-0.52452302 0.68153298 8.7371702 80 71 67
-0.49975801 0.67433703 8.7810297 97 85 77
-0.50062901 0.67528498 8.7718 93 82 74
-0.49945301 0.682082 8.7403297 84 74 70
0.0227005 0.70138901 8.86514 168 120 115
0.0321339 0.70496899 8.8023596 166 118 114
0.035608001 0.69907999 8.8741903 153 111 109
0.035414401 0.70109701 8.85005 157 113 110
1.34249 0.74029201 9.1848402 164 145 119
1.5080301 0.74942303 9.1445799 162 144 123
1.66192 0.75365698 9.2264795 160 145 125
1.6742899 0.74974799 9.2117901 161 145 125
1.78899 0.75728798 9.2050695 158 143 124
1.92887 0.761747 9.2128401 155 144 127
-2.1757901 0.64082497 7.9257398 74 93 110
-2.1784999 0.64620298 7.9315901 72 89 107
-2.16871 0.64874703 7.9407601 94 142 166
-2.0674701 0.64923197 7.9143 45 60 77
-1.83902 0.65883398 7.6095099 51 82 77
-1.78952 0.66361201 7.5569501 59 89 75
-1.77483 0.66550398 7.5436301 63 94 77
-1.77153 0.67009199 7.5440698 61 93 76
-1.75948 0.66839999 7.5300498 61 93 75
-1.65097 0.668257 7.5005698 98 118 92
-1.43922 0.68541998 7.0467 132 138 142
-1.11678 0.69711399 7.12814 176 165 155
-1.10867 0.70304698 7.15066 159 143 131
-1.11432 0.68792802 7.9211602 152 123 97
-1.09522 0.68989098 7.8738499 166 136 106
-1.05753 0.68692201 7.9668899 111 85 67
-0.99507499 0.68874502 7.97155 55 41 35
-0.87045997 0.691998 8.1818104 171 141 113
-0.87314099 0.68923801 8.1913605 185 154 121
-0.87092799 0.694821 8.1261396 184 150 119
-0.85509098 0.69492501 8.1396399 61 37 30
-0.86045903 0.68852001 8.2037401 66 41 29
-0.62225199 0.70229203 8.1465197 139 114 97
-0.62545699 0.69045699 8.8530397 73 66 62
-0.16169 0.69839501 8.8031998 220 176 141
-0.156615 0.70894599 8.7074003 217 170 140
-0.143494 0.71289402 8.7215405 214 167 138
-0.13576999 0.705136 8.7771597 214 168 138
0.0453724 0.70592999 8.8375597 155 112 110
0.82180101 0.73256999 9.0019798 194 141 109
1.33868 0.75515801 9.1356897 158 140 115
1.4148 0.75226903 9.1714401 146 129 108
1.61938 0.76995999 9.19205 159 144 123
1.67068 0.76465201 9.2018604 163 147 127
1.84286 0.77002901 9.2135296 184 168 142
-2.1781299 0.65955698 7.9179001 68 81 97
-2.1612799 0.66060698 7.8967299 86 113 130
-2.1507299 0.66261703 7.9053998 119 191 226
-2.0650001 0.66445798 7.8249502 99 149 180
-2.06952 0.658068 7.86167 87 129 158
-1.8300101 0.67792398 7.61097 52 83 78
-1.811 0.67783898 7.5848799 57 90 80
-1.79318 0.68133301 7.5648599 61 94 81
-1.687 0.685121 7.51438 73 105 81
-1.6772799 0.68346399 7.5240698 84 116 90
-1.42506 0.705446 7.0187502 139 147 153
-1.40795 0.69944602 6.9820199 141 150 158
-1.4067 0.69835299 6.97439 142 150 158
-1.21102 0.70689201 7.0046401 202 194 183
-1.1098599 0.71271002 7.1297798 146 135 127
-1.17581 0.69073302 7.8846502 168 151 134
-1.0650001 0.69701803 7.8688102 151 119 93
-1.02555 0.70380503 7.8982902 97 78 65
-0.98220301 0.70145398 7.9991298 70 52 42
-0.88773602 0.696747 8.1598597 164 128 93
-0.87184101 0.70560902 8.1213198 167 133 101
-0.74671203 0.70846301 7.97855 129 114 89
-0.127774 0.71481198 8.724 208 163 135
-0.127774 0.71482402 8.7240601 208 163 135
0.0208943 0.72640198 8.8543301 176 124 116
0.034081601 0.72275299 8.8366203 171 119 115
0.84763598 0.74734598 9.0348396 182 141 112
1.66085 0.78192902 9.2098904 167 151 129
1.8056 0.77970701 9.1877403 169 154 132
1.95272 0.78563797 9.1587496 159 146 130
-2.16698 0.66925102 7.8655 74 83 99
-2.1454999 0.67356402 7.8580899 91 129 152
-2.1535101 0.67387998 7.8596702 84 104 120
-2.0562 0.67615402 7.7504702 115 183 216
-2.0489299 0.67506701 7.79284 36 54 72
-1.82698 0.691553 7.5989599 48 77 73
-1.82436 0.687168 7.5821099 47 77 73
-1.81258 0.69148898 7.5808702 49 81 74
-1.78233 0.68847001 7.5708799 63 95 82
-1.7690099 0.68963701 7.5585198 64 97 83
-1.75841 0.69240302 7.5325799 60 91 78
-1.4588 0.70652598 7.08354 103 100 95
-1.2088 0.72326499 6.99892 149 147 145
-1.0848 0.70739901 7.86239 222 198 175
-0.96825498 0.71853399 7.9575801 120 94 74
-0.87184101 0.71456599 8.1073303 203 169 132
-0.85825002 0.71901 8.1055002 198 172 139
-0.84767199 0.71346498 8.1071796 161 134 105
-0.83455598 0.71520799 8.0987101 199 169 127
-0.75449002 0.71625 7.95327 179 160 133
0.94843799 0.76363802 9.1391296 167 148 121
1.77177 0.79411 9.1967697 156 142 125
-2.05936 0.68868798 7.74335 116 183 217
-2.0425899 0.68817902 7.7232599 45 69 92
-2.05108 0.69058901 7.7712798 36 57 78
-1.80832 0.69656098 7.54811 48 79 73
-1.78201 0.69924998 7.5267901 51 82 72
-1.76907 0.70084703 7.5170002 52 83 72
-1.7431 0.705863 7.5394301 58 90 77
-1.35932 0.72195601 6.9943399 133 133 133
-1.34601 0.72321099 6.9837899 136 134 134
-1.3418 0.72429103 6.97228 136 134 134
-1.3266799 0.728778 6.9806299 138 136 135
-1.31475 0.72702402 6.9714999 141 137 137
-1.24555 0.72931302 6.9696102 146 143 143
-0.89779902 0.723571 7.8709698 173 142 107
-0.67194003 0.735071 8.0513697 169 148 135
-0.662687 0.73679101 8.07728 168 147 133
-0.62826198 0.736996 8.1930199 126 97 80
-0.038541801 0.74998498 8.8207102 182 134 119
-0.036275599 0.74108899 8.8925695 184 136 121
-0.017778801 0.74893302 8.8281603 181 131 117
0.0258983 0.753187 8.8295202 176 121 114
0.038934998 0.748963 8.8172998 174 120 113
0.87541097 0.772385 9.0874701 106 93 75
0.875314 0.78232801 9.0707302 82 74 62
0.89154702 0.77848601 9.0795898 93 83 67
0.96300501 0.78818703 9.0398197 105 95 80
0.97131199 0.78927398 9.03368 107 97 83
0.97422999 0.78926498 9.0250998 108 98 83
0.98900801 0.78932202 9.0664101 115 103 85
1.21497 0.78942502 9.1606798 162 146 120
1.25474 0.79291201 9.1732597 162 144 121
-2.04649 0.69657099 7.4794002 97 117 135
-2.0369899 0.697752 7.6101999 132 203 235
-2.04182 0.69476998 7.7033901 52 79 103
-2.04214 0.69703799 7.70964 42 65 88
-1.82877 0.70560098 7.5928402 46 75 72
-1.79975 0.705899 7.5620899 50 81 72
-1.7983201 0.71153802 7.5497599 49 80 72
-1.76928 0.70955998 7.5131602 52 83 73
-1.74246 0.715253 7.52421 56 87 76
-1.30585 0.733715 6.9769001 141 137 137
-1.15755 0.73775202 7.0327001 133 132 134
-0.96917403 0.735309 7.8983002 217 196 172
-0.69900602 0.750126 8.0095196 170 152 137
-0.69884801 0.74971002 8.0076504 170 152 137
-0.68862599 0.746261 8.0127001 170 151 137
-0.621382 0.74509901 8.2530403 81 63 53
-0.26903501 0.75329697 8.79953 227 187 142
-0.257076 0.756733 8.8076696 222 180 140
-0.18456399 0.75405699 8.8351402 220 171 142
-0.14733601 0.76176298 8.8916302 212 163 136
-0.133661 0.75655198 8.8491898 207 158 134
-0.133568 0.75439399 8.8384304 207 159 134
-0.0621107 0.76413399 8.7082596 184 136 120
-0.053752001 0.76504999 8.7256603 183 134 119
0.97086197 0.798262 9.0354004 92 82 72
-2.09723 0.71121597 7.3347998 77 85 100
-2.1189899 0.70588303 7.45364 80 86 101
-2.0439601 0.71269101 7.5974998 131 203 240
-2.0367999 0.71647102 7.5612102 134 201 237
-2.0332501 0.71154201 7.59833 118 167 193
-1.82666 0.71574903 7.57375 44 73 70
-1.81721 0.72174603 7.5868602 47 78 72
-1.73733 0.725743 7.4897199 54 85 75
-1.11294 0.74813002 7.1438098 130 119 117
-1.04783 0.74974298 7.8228202 156 142 129
-0.62190598 0.75670999 8.2356796 77 60 53
-0.26446599 0.76732999 8.8055601 221 176 136
-0.252543 0.77090502 8.8151503 208 162 128
-0.191 0.76542401 8.8381596 217 169 141
-0.177527 0.76639599 8.8403797 218 170 142
-0.16435701 0.76964402 8.8532495 216 168 141
-0.13020401 0.77009201 8.8581305 204 156 134
-0.049021699 0.77393198 8.7423201 182 133 118
0.98708498 0.80529702 9.0375099 79 70 61
1.3356 0.82786399 9.0726204 81 74 66
1.38318 0.82646799 9.16502 88 79 68
1.51103 0.82893199 9.2104101 141 129 111
1.56299 0.82506901 9.2276297 165 151 131
1.6617399 0.829346 9.2270498 169 154 134
-2.02723 0.71911299 7.51894 139 200 234
-2.0195999 0.72136998 7.5336299 93 129 155
-1.81824 0.73510998 7.59723 47 78 72
-1.36538 0.756863 7.0055699 125 125 126
-1.11576 0.75848597 7.1291599 127 120 121
-0.61245 0.76509303 8.2858295 61 55 56
-0.184435 0.77478099 8.8327904 196 149 123
-0.117662 0.777996 8.8726902 193 147 127
-0.108473 0.77784801 8.8678703 192 145 126
-0.0950813 0.78033602 8.8762598 191 144 126
0.493604 0.81020498 8.9492903 152 130 120
0.50794601 0.81203097 8.9626904 148 129 119
0.52259398 0.81091398 8.9805803 145 128 118
1.3170201 0.83676702 9.0439501 67 59 55
1.48285 0.83632302 9.2198896 105 94 80
1.48813 0.83760399 9.14431 90 82 72
1.5111901 0.83920199 9.1422005 89 82 71
1.5325 0.83924001 9.1853704 96 86 73
1.5650001 0.848791 9.2081099 90 81 70
1.74786 0.84835601 9.2363596 136 127 112
1.76164 0.85407799 9.2371702 115 107 93
-2.0184 0.73856699 7.46315 139 185 215
-2.0090699 0.74199498 7.42764 133 171 199
-2.0248301 0.73071897 7.4952898 141 193 226
-2.01635 0.73030102 7.5187998 70 99 120
-2.00896 0.73859102 7.4753499 64 89 110
-1.99956 0.74190801 7.4393201 50 70 91
-2.0002301 0.73074198 7.51333 39 51 69
-1.82706 0.73757702 7.5868402 43 73 69
-1.82714 0.73770797 7.5872402 43 73 69
-1.58202 0.75297803 7.5344801 96 90 76
-1.58937 0.74741203 7.52912 107 101 84
-1.42647 0.765046 7.0520902 119 124 132
-1.41451 0.76434797 7.0425901 123 126 133
-1.1192 0.77168399 7.1230798 108 104 108
-0.68579602 0.785595 8.09655 172 139 119
-0.145978 0.788225 8.8496599 182 136 116
-0.120115 0.78978401 8.8574696 169 125 108
0.370022 0.81878901 8.9579802 183 143 122
0.521065 0.81664002 8.9442902 141 126 117
0.53719199 0.81743699 8.9724197 142 121 114
0.55541199 0.82422501 8.9709301 148 112 112
0.86956602 0.82609999 8.9868698 62 54 52
0.97170901 0.82955301 9.00105 59 50 48
1.13309 0.84698701 9.0738297 59 51 49
1.22051 0.83862698 9.2290697 70 61 55
1.23439 0.85071898 9.08424 58 50 48
1.24379 0.84707397 9.06744 59 51 49
1.55021 0.85912699 9.1111498 64 58 53
1.55845 0.86272502 9.12008 62 56 51
1.60759 0.86368197 9.1203899 65 59 55
1.60759 0.86368197 9.1203899 65 59 55
1.60917 0.86616302 9.0875597 60 55 52
1.62536 0.865583 9.1033096 61 56 54
1.71043 0.86703002 9.1977596 79 73 67
1.73857 0.85956901 9.0220804 89 82 73
1.80448 0.86438602 9.2290297 97 87 73
1.819 0.86312699 9.2146196 113 103 86
1.84091 0.87418002 9.0451603 165 152 132
1.85507 0.87368399 9.0822296 169 154 133
1.88053 0.872401 9.2401304 171 155 133
1.89968 0.87443101 9.25354 166 150 130
-1.99675 0.74833202 7.4523501 43 56 75
-1.8053401 0.75013202 7.5838499 47 78 71
-0.68608099 0.79671901 8.0806398 127 76 62
-0.167642 0.81275898 8.8677397 207 159 136
-0.14547899 0.811481 8.8471899 174 130 112
-0.131804 0.80973601 8.8432903 163 121 105
-0.119484 0.80942398 8.8439198 157 115 99
-0.109951 0.81148797 8.8670301 158 114 98
0.52280301 0.83083898 8.9313297 136 120 112
0.53530598 0.82782602 8.9188099 135 116 110
0.55209398 0.83841199 8.9761496 135 110 108
0.59299499 0.83909899 8.9589396 69 48 50
0.62374097 0.84184802 8.9720097 61 34 39
1.11449 0.84816003 9.0544701 58 51 49
1.46858 0.861696 9.0824203 58 50 48
1.64923 0.87764299 9.1233397 55 51 50
1.74576 0.88445997 8.9834805 81 74 67
1.79638 0.87300301 9.2203798 89 81 69
1.80216 0.88285297 9.2149401 89 82 71
1.81986 0.87532902 9.1965504 94 86 72
1.83358 0.88475001 9.2034903 98 88 74
1.8338799 0.88782102 9.11765 103 94 81
1.84486 0.88113499 9.1012802 153 141 124
1.854 0.88379002 9.0215797 169 156 137
-2.0927401 0.752581 7.3311701 71 78 94
-2.0863299 0.75887799 7.3516302 93 99 113
-2.08812 0.755786 7.3668199 93 100 113
-2.0875199 0.75974202 7.35782 94 100 113
-1.89132 0.76528603 7.7616401 45 69 75
-1.83685 0.76378697 7.6399698 42 72 68
-1.12458 0.79444802 7.1044302 30 30 40
-0.765176 0.79805899 8.0065699 173 156 142
-0.196913 0.81877702 8.8333302 218 169 141
-0.180158 0.82430702 8.8371296 216 169 142
-0.158134 0.816073 8.8396702 206 160 138
-0.16777299 0.82536602 8.8462801 214 167 142
-0.15275 0.82642901 8.8407602 196 151 129
-0.13748001 0.820656 8.8416405 170 126 109
0.53388 0.841591 8.9049997 128 111 107
0.605066 0.85229999 8.9748096 77 56 61
0.72420102 0.85458601 9.0057497 61 39 45
0.764045 0.86078 8.9966002 84 44 55
0.78046203 0.85870498 8.9914904 131 73 87
0.86764401 0.85511798 8.9811001 60 53 50
1.29075 0.88187498 8.3792696 95 61 61
1.58374 0.88377202 8.9787798 52 47 46
1.72183 0.88804603 9.0306597 52 47 43
1.75318 0.89430302 8.8717299 85 79 72
1.8196599 0.90063298 9.0915499 89 82 73
1.8252701 0.89692801 9.1352701 91 84 73
1.82619 0.89212799 9.1555901 92 84 72
1.8304 0.89339501 9.0756302 94 85 74
1.8495899 0.89112902 8.9873896 159 148 131
-2.07199 0.76754498 7.2257299 76 84 101
-2.08254 0.76677299 7.2801199 78 85 101
-2.08571 0.76860601 7.3373199 94 100 115
-2.0000701 0.76664698 7.3561201 105 119 136
-1.99663 0.76687598 7.40131 46 58 76
-1.9762501 0.76755399 7.9973798 41 57 79
-1.89467 0.773444 7.76051 53 74 82
-1.41303 0.79066497 7.0299702 17 29 41
-1.08443 0.79704797 7.9005799 162 146 132
-0.75288099 0.80955201 8.0131798 178 155 134
-0.15287 0.837304 8.8305597 205 162 139
-0.135196 0.836757 8.8413401 198 156 137
0.55260801 0.85454798 8.9636497 126 106 105
0.56728798 0.85857099 8.9685297 93 70 73
0.581608 0.86402202 8.96488 77 56 61
0.632182 0.85792297 8.9773998 149 101 109
0.64570701 0.85941398 8.9999599 150 96 105
0.656196 0.85717499 8.9892101 150 94 104
0.67137599 0.86975801 8.9922895 147 87 97
0.68284702 0.86576903 8.9559202 141 84 94
0.698946 0.86820602 9.0064697 137 83 93
0.712282 0.86709499 9.0034103 111 73 81
0.72501498 0.86890399 8.9887104 50 25 32
0.74895298 0.86224997 8.9656296 65 40 48
0.76185101 0.86871201 8.9868603 65 28 39
0.77899098 0.87466699 8.9958096 129 72 86
0.82504898 0.86430299 8.9849396 130 69 84
0.86752802 0.869712 8.9858799 58 50 49
1.45595 0.89839399 8.38167 74 51 51
1.46755 0.89784998 8.3520899 75 51 51
1.71622 0.900814 9.1199102 47 43 42
1.72294 0.90147901 9.1090899 48 43 42
1.74213 0.90281397 8.9907598 58 52 48
1.7486399 0.90877402 8.9246798 63 56 52
1.81358 0.90310103 9.0416098 88 82 74
1.8441401 0.91327 8.9881201 97 90 77
1.85331 0.90381497 8.9691896 148 138 124
1.88877 0.91287601 8.9740496 143 135 122
2.5081301 0.94262898 8.3168001 26 26 21
-2.07459 0.78300399 7.2733898 98 105 120
-1.98071 0.787211 7.2026801 102 111 123
-1.98628 0.77696198 7.3277302 51 61 79
-2.0780599 0.77169299 8.0595398 54 65 85
-2.0537901 0.78201699 8.0194902 47 59 80
-1.9826601 0.78437102 7.9483199 66 80 100
-1.0757 0.81840903 7.8742499 166 132 91
-0.85671097 0.82473898 7.9351501 176 154 136
-0.72921598 0.831882 8.0072203 96 28 29
-0.729343 0.82299697 8.0203896 104 46 41
-0.40437299 0.83499402 8.8089199 59 56 54
0.55343699 0.86947399 8.9609003 129 105 103
0.55306602 0.87846202 8.9408302 142 110 108
0.56713402 0.86742598 8.9644499 77 53 56
0.56869203 0.879857 8.9289503 57 29 34
0.58170301 0.87508202 8.9511003 74 52 57
0.60467201 0.87014103 8.9758701 64 40 45
0.60375702 0.87964302 8.9559698 58 31 35
0.61808002 0.86939001 8.9777098 119 80 86
0.60899001 0.88057899 8.9527102 65 32 38
0.63123298 0.87083203 8.9835196 156 101 109
0.62399399 0.87985098 8.9615803 156 102 110
0.636419 0.87945801 8.9587698 155 97 104
0.65887898 0.87460101 8.9922199 151 92 102
0.71258199 0.87829602 8.9792805 110 69 79
0.72652203 0.87868702 8.9814501 53 29 37
0.747697 0.87886101 8.9935398 60 39 46
0.76505399 0.88533503 9.0048304 66 28 38
0.81593001 0.88135099 8.9756203 128 68 82
0.85639298 0.88086998 8.9790001 52 45 45
1.22609 0.898072 8.4130402 110 64 67
1.24818 0.89526099 8.4109201 107 65 68
1.33261 0.90927798 8.3157597 185 163 145
1.47993 0.91419202 8.3614798 93 69 67
1.7372299 0.92252898 9.0056496 52 47 44
1.75174 0.92134899 8.9062595 57 50 48
1.75945 0.91278499 8.8773804 76 70 64
1.81622 0.91476202 9.0234299 88 82 71
1.8250999 0.91506898 8.9628496 87 81 68
1.82881 0.92646199 8.9521303 85 80 68
1.8425699 0.92229599 8.95257 87 82 69
1.84474 0.919074 8.9688501 90 84 71
1.85674 0.91822398 8.9510298 123 117 104
1.8523 0.92502099 8.9080095 99 95 84
1.85636 0.92322898 8.8207703 123 117 109
-2.0647299 0.78825998 7.1494198 74 82 100
-2.07183 0.78462201 7.1854 73 81 99
-1.98133 0.78808099 7.1817999 101 110 122
-1.9823 0.78866899 7.2081699 102 111 123
-1.97923 0.79712403 7.19417 97 107 119
-1.97785 0.79588401 7.1897001 98 108 120
-1.97328 0.79018199 7.2211199 73 83 97
-2.05303 0.79314399 8.0043697 43 55 77
-2.02351 0.78394097 7.98002 56 69 93
-2.01142 0.788454 7.9777398 81 95 117
-1.94016 0.79229802 7.88832 65 81 95
-1.09755 0.826877 7.88064 98 40 33
-0.76149201 0.83220899 8.0007401 123 75 51
-0.74624199 0.83406198 8.0082903 169 116 71
-0.74262398 0.83645898 8.0148401 147 89 55
-0.49915001 0.85077602 8.6209698 51 49 51
-0.45832801 0.85091901 8.6700401 50 48 50
0.60233498 0.88304698 8.9387197 62 35 39
0.61590397 0.88241702 8.9559698 129 87 93
0.62397802 0.89143401 8.9457397 155 102 107
0.696347 0.88695103 8.9696102 135 81 92
0.71082401 0.89453298 8.9636497 87 51 61
0.72518998 0.891307 8.9713697 53 30 38
0.75374001 0.89674997 8.9779196 45 19 26
0.76972097 0.89207202 8.9871798 115 66 78
0.78551501 0.89585102 8.9737902 126 67 81
0.80202198 0.89091599 8.9216099 124 65 78
0.82152098 0.89639097 8.9722795 121 64 77
0.847718 0.89104801 8.9924603 53 37 40
1.22883 0.907121 8.4193296 116 71 71
1.32177 0.91343898 8.3295298 182 162 143
1.34661 0.91162902 8.3254099 185 163 144
1.72847 0.93679202 9.1119204 49 45 43
1.73438 0.93057299 9.12924 49 45 43
1.73044 0.93417299 9.0424995 50 46 44
1.7474 0.93024701 8.9541702 53 47 45
1.7492599 0.93373603 8.8572102 53 47 46
1.7551 0.93723601 8.7851601 57 50 47
1.77952 0.929335 8.7487402 82 76 68
1.7916501 0.93523598 8.7700996 83 78 69
1.8494101 0.940395 8.8587399 86 81 73
1.86581 0.93300802 8.76542 128 123 115
-2.05355 0.80053002 7.1313 98 108 125
-2.06125 0.79701 7.1782298 100 108 125
-1.97905 0.79865199 7.1466098 101 110 122
-1.96292 0.80863601 7.0893798 102 111 124
-1.9747601 0.80431098 7.17589 92 101 114
-1.9706399 0.79903299 7.2086101 62 72 86
-2.0283101 0.797571 7.9663801 35 48 70
-1.96198 0.80533701 7.9063601 79 91 112
-1.9148999 0.802311 7.8211298 69 86 96
-1.43551 0.82066298 7.0854301 16 27 42
-0.32532001 0.86119097 8.2389202 183 152 134
0.76954401 0.90105599 8.9656401 119 68 80
1.23092 0.92833698 8.3966999 167 145 129
1.25267 0.92958403 8.3552399 164 145 127
1.25326 0.93216598 8.3288603 166 146 128
1.3116699 0.92575401 8.3361597 177 156 137
1.30591 0.929627 8.3160496 173 151 132
1.38108 0.93729901 8.26581 175 154 133
1.46589 0.94030601 8.3157301 141 121 109
1.75071 0.942599 8.9378204 52 46 46
1.75109 0.94616801 8.8328695 52 46 45
1.75485 0.94029897 8.7565403 57 50 46
1.76868 0.94389403 8.7379599 66 60 56
1.80112 0.945108 8.7410202 81 77 69
1.81189 0.95038998 8.75949 82 77 69
-2.0427999 0.811508 7.0097899 74 84 102
-1.9556201 0.81166399 7.04984 104 112 126
-1.95306 0.819175 7.0834899 76 84 100
-1.97083 0.810112 7.2047901 58 67 82
-1.91234 0.81431198 7.8190498 64 83 92
-1.8919801 0.81898898 7.7945199 43 73 70
-0.80727798 0.85891998 7.9568 136 96 56
-0.66733199 0.86366898 8.1417999 177 118 58
-0.65864599 0.86900198 8.1851501 140 76 41
-0.48632401 0.87768298 8.5877895 49 45 48
-0.472038 0.875907 8.6316204 50 40 42
-0.45957801 0.866795 8.6686296 53 43 45
-0.447032 0.86974102 8.68297 73 46 51
-0.319677 0.88317299 8.10009 159 125 111
-0.31913799 0.87346703 8.1227398 165 132 115
-0.30741 0.88424897 8.0708904 196 171 152
0.73959798 0.92328602 8.1597996 191 165 144
0.80532497 0.92520601 8.1635599 162 142 121
0.83828199 0.92436302 8.1672001 158 138 118
0.82850099 0.926404 8.1505299 165 144 124
0.852732 0.928864 8.15907 171 151 128
1.39609 0.94543701 8.26054 171 148 130
1.4193701 0.94312 8.3335695 168 145 127
1.43099 0.947644 8.3124504 152 130 115
1.42468 0.95083302 8.2625599 149 124 112
1.44572 0.94344997 8.3208303 148 127 112
1.43576 0.94484198 8.2527704 145 122 110
1.45362 0.94158602 8.2888002 143 122 110
1.46841 0.94905198 8.2813301 136 114 103
1.75046 0.962556 8.7625704 52 45 44
1.76273 0.952564 8.7719202 54 48 45
1.7612799 0.96460599 8.72542 54 47 45
1.76592 0.96074301 8.6488199 59 52 49
1.75616 0.953973 8.6492004 58 51 47
1.77555 0.95314699 8.63169 73 67 62
1.86251 0.95819098 8.7618399 85 80 72
-1.95652 0.82453102 7.0755 89 97 112
-1.94721 0.82251197 7.0296698 97 105 119
-1.9449 0.825993 7.0844498 59 67 83
-1.94621 0.82311702 7.0998998 58 67 83
-1.96058 0.82320899 7.16435 56 64 81
-1.95566 0.82677001 7.1345301 58 66 83
-1.98864 0.822258 7.89396 48 62 87
-1.85141 0.829395 7.6889601 51 84 74
-1.7551399 0.83715999 7.5623002 63 96 82
-0.66140503 0.87209398 8.1437197 167 104 58
-0.47772601 0.88918799 8.6135502 59 44 47
-0.45966199 0.88020003 8.6501303 117 73 80
-0.44714499 0.88040602 8.6576796 159 93 103
-0.42489001 0.88412398 8.6905098 183 105 113
-0.40543699 0.885598 8.7330198 194 109 117
-0.33174399 0.89078802 8.1149702 107 68 58
-0.33221099 0.89302498 8.09056 99 62 53
-0.33035299 0.89115298 8.0658302 97 62 51
-0.318353 0.89247602 8.0368605 161 132 118
0.62995398 0.93193197 8.1121502 196 174 151
0.71447998 0.92733401 8.1448603 199 176 153
0.72596902 0.93237299 8.1436701 198 175 152
0.75331497 0.92757303 8.1535101 191 167 145
0.79363698 0.93867701 8.1427097 186 165 142
0.80432802 0.93788803 8.1346197 183 162 140
0.86675102 0.93305898 8.1472197 185 163 140
1.21155 0.94549501 8.2896299 163 143 123
1.33521 0.94936401 8.2205095 181 158 138
1.39432 0.95353401 8.2361498 170 146 129
1.41012 0.95288002 8.2526999 162 138 122
1.42667 0.96311599 8.26015 148 123 110
1.45464 0.952528 8.2795601 142 120 109
1.75286 0.966039 8.6461296 56 48 46
1.76814 0.97292799 8.6322298 60 50 49
1.76847 0.97529501 8.6221399 60 50 49
1.87955 0.97330302 8.7011499 57 54 50
1.87955 0.97330302 8.7011499 57 54 50
-1.9452699 0.83292902 7.0725398 59 68 83
-1.94476 0.83922499 7.0576601 60 68 84
-2.0108399 0.84227699 7.9335699 31 45 68
-1.99307 0.83780998 7.9113202 47 61 86
-1.97515 0.836528 7.8913798 51 66 92
-1.95022 0.83469099 7.84865 74 89 115
-1.93857 0.83593601 7.85432 108 122 146
-1.91049 0.84079498 7.8058901 123 142 156
-1.89644 0.84580201 7.7986698 56 81 82
-1.88747 0.83517998 7.7941399 48 78 74
-1.87393 0.84095597 7.7502699 52 82 76
-1.87502 0.83898401 7.74018 52 80 76
-1.89653 0.83659399 7.8091602 49 77 75
-1.85352 0.84260303 7.68994 55 85 77
-0.79359901 0.884709 7.9626498 149 102 48
-0.73513502 0.88107598 8.0379601 191 126 52
-0.65137303 0.88635898 8.1889696 107 40 25
-0.477395 0.896595 8.5916595 74 52 56
-0.44804299 0.90247399 8.6133299 170 92 102
-0.433099 0.89848399 8.6237803 138 72 75
-0.429297 0.90384102 8.5880899 98 45 42
-0.40173 0.90526497 8.5362597 126 75 57
-0.40417299 0.90267497 8.5927095 130 79 60
-0.405424 0.89674902 8.6272001 139 84 67
-0.330219 0.90193599 8.0194998 88 56 48
-0.31832099 0.90118003 8.0215101 176 148 135
-0.28419 0.90802801 8.0349703 196 175 156
0.680484 0.94106698 8.1492996 196 175 151
0.76713002 0.94326001 8.1611099 192 171 147
0.78323501 0.94039398 8.1532001 189 167 144
1.1498801 0.95428801 8.16714 191 172 148
1.21698 0.963687 8.2531996 177 156 135
1.3342299 0.968054 8.1819601 164 141 124
1.39477 0.96359098 8.2241201 168 144 127
1.41023 0.963063 8.2392797 160 136 121
1.42559 0.97174102 8.24051 147 123 109
1.42743 0.96907997 8.1587896 143 119 107
1.6973 0.98385698 8.3806696 55 46 45
1.71286 0.98548901 8.4517202 57 47 46
1.87253 0.98368901 8.7545404 65 61 56
-1.95517 0.84522998 7.0229301 95 103 117
-1.94476 0.85138601 7.0238299 63 71 86
-1.94712 0.84275299 7.0344501 71 80 94
-2.01228 0.85122102 7.8994002 23 36 57
-1.99699 0.84862602 7.88621 27 41 65
-1.9816999 0.84612 7.8727002 45 59 85
-1.94771 0.849801 7.7990999 68 83 110
-1.95166 0.84577203 7.8288999 60 75 103
-1.93626 0.84646201 7.8443298 99 115 142
-1.88541 0.85123497 7.7447 75 96 102
-1.874 0.85368299 7.7315798 62 87 86
-1.8397599 0.853872 7.6675601 61 88 82
-1.80951 0.85533398 7.5841298 72 91 90
-1.7827899 0.85299897 7.5745902 67 93 84
-0.79934698 0.89421898 7.9605198 172 113 40
-0.79372901 0.89696002 7.9521999 158 102 40
-0.475445 0.91158402 8.5657797 82 55 61
-0.46057799 0.91098601 8.5500202 166 94 104
-0.44808 0.91168702 8.5994501 161 86 94
-0.43256301 0.91294098 8.5786505 79 28 29
-0.41635099 0.907022 8.5778399 126 79 64
-0.41620401 0.91582799 8.5600796 118 76 63
-0.40031999 0.918495 8.4748697 126 80 63
-0.40143901 0.91343403 8.51437 124 76 57
-0.330024 0.91213697 7.9998598 97 69 63
-0.318387 0.91317701 8.0093403 208 183 169
-0.265901 0.91550499 8.0390196 192 173 157
0.69460499 0.94715101 8.1568098 195 175 149
0.71415502 0.94998699 8.1349096 189 171 145
1.22858 0.96991599 8.2385101 181 159 138
1.27163 0.97878999 8.2058601 166 146 124
1.8895 0.99562597 8.7671099 59 55 52
-1.9395601 0.85602099 6.9929399 65 72 88
-1.99633 0.855151 7.84376 23 36 57
-1.97804 0.85650599 7.8196702 25 39 62
-1.96451 0.86412501 7.81392 30 44 69
-1.92758 0.85966402 7.79281 73 89 116
-1.9307801 0.86020702 7.8046598 71 86 114
-1.8979599 0.86740601 7.75038 100 116 143
-1.8827 0.86557299 7.7345901 85 104 119
-1.0314 0.89933699 7.7623501 201 126 23
-0.882339 0.89734799 7.92311 211 143 28
-0.49064901 0.92371601 8.5728903 42 40 42
-0.46057501 0.92092299 8.5350399 162 98 106
-0.43267599 0.92874199 8.5535202 83 33 39
-0.415741 0.930161 8.4859104 65 27 27
-0.416118 0.92267698 8.5107203 87 47 41
-0.40002799 0.92617601 8.4530602 114 71 61
-0.37857699 0.92327797 8.4124098 134 87 64
0.65657198 0.96898001 8.1290398 182 165 140
0.66776502 0.95950103 8.1719599 187 169 143
0.69160199 0.97069299 8.1483002 180 162 137
1.30114 0.99224699 8.1932297 172 153 130
1.30216 0.98895401 8.2018995 170 150 128
1.3175 0.98499101 8.2098503 158 136 117
1.56935 1.00214 8.5051603 128 103 99
-1.94497 0.87223798 7.8057799 41 56 80
-1.92725 0.86968702 7.7783098 63 77 103
-1.91295 0.87129903 7.7677798 106 121 149
-1.86194 0.87296402 7.7010398 88 106 117
-1.62503 0.88304502 7.51618 83 82 84
-1.16808 0.90087599 7.1024499 15 22 38
-0.84513402 0.91197503 7.9685998 212 142 25
-0.461575 0.933267 8.5383797 144 92 97
-0.447063 0.93701798 8.5211601 165 91 98
-0.431568 0.93398201 8.5186901 102 48 55
-0.41620699 0.94190401 8.4820404 67 26 33
-0.38993001 0.94127399 8.4207296 83 44 39
-0.38475099 0.93452901 8.4161701 110 66 52
-0.241951 0.94117701 8.0207901 110 100 108
0.127184 0.95903701 8.0774002 164 150 138
0.67603397 0.97353297 8.1474895 179 162 136
0.68831301 0.973351 8.1386003 181 163 137
1.12537 0.99065697 8.2020798 188 168 140
1.28494 1.00317 8.2416601 167 148 124
1.36967 1.00605 8.2086897 167 143 124
1.3770601 1.00306 8.2038898 167 143 125
1.56071 1.01373 8.4847298 131 107 100
1.59812 1.01333 8.4380703 133 116 109
-2.07374 0.884372 8.0432501 21 33 57
-2.0527 0.877056 8.0085497 22 34 58
-1.93291 0.88397998 7.7772799 43 55 78
-1.91494 0.88265097 7.75705 50 64 90
-1.89531 0.881872 7.73487 105 120 150
-1.8757 0.88361198 7.6998601 102 119 148
-1.8940901 0.88057202 7.7349501 108 124 154
-1.59254 0.89117903 7.5651498 93 88 86
-0.99449003 0.92433703 7.7512698 202 143 77
-0.47487301 0.942191 8.5233898 40 33 36
-0.446969 0.94564903 8.5042 171 100 106
-0.43182001 0.943703 8.5077801 126 66 73
-0.424052 0.95340598 8.3186398 161 89 96
-0.42727 0.94964802 8.4619904 133 71 78
-0.417312 0.94783401 8.4812498 76 34 41
-0.401678 0.943739 8.4414902 62 25 28
0.61213702 0.98831397 8.1512804 189 171 148
0.622926 0.98433799 8.1549597 189 171 147
0.63344699 0.98305601 8.1346798 188 170 146
0.67106903 0.98382902 8.1222296 198 180 154
1.21701 1.00544 8.1938105 186 165 142
1.2895 1.01442 8.2250795 175 157 132
1.5772901 1.02108 8.4703999 142 119 110
1.5846601 1.02876 8.4298201 146 122 111
1.59577 1.02793 8.4173803 147 123 113
1.73427 1.03239 8.3468504 60 48 46
-2.07528 0.88964099 8.0494404 20 32 56
-2.0515101 0.89046001 8.0047598 20 32 56
-1.94593 0.89495403 7.7944999 32 45 68
-1.95933 0.89422202 7.80794 27 40 63
-1.94593 0.89495403 7.7944999 32 45 68
-1.9233299 0.90091097 7.7463799 37 50 72
-1.93246 0.894481 7.7867799 42 55 78
-1.89985 0.90197802 7.6916599 43 57 77
-1.92225 0.90135598 7.7444301 37 50 73
-1.9077899 0.89445603 7.7333498 49 63 86
-1.89371 0.89493603 7.7197599 61 77 101
-1.87705 0.89640999 7.6935601 91 106 132
-1.02468 0.93156898 7.72017 219 189 156
-0.99598002 0.92939901 7.7292199 217 181 148
-0.575921 0.958211 8.8534803 61 55 54
-0.53750801 0.95801502 8.8186102 56 54 53
-0.52471697 0.96125001 8.8310699 54 51 51
-0.45814699 0.95858198 8.4857302 82 56 58
-0.45650199 0.95962399 8.4373198 62 41 42
-0.443057 0.96039999 8.4741297 178 111 114
-0.44469199 0.96259499 8.4517002 172 113 115
-0.424514 0.95615298 8.3302898 161 90 97
-0.42448601 0.95589 8.32862 161 90 97
-0.423296 0.96251601 8.3183498 161 92 98
-0.40710601 0.96388298 8.2538795 125 64 71
-0.412516 0.95617503 8.3323298 109 52 61
0.21822999 0.98273599 8.0760803 105 89 82
0.37966499 0.98722202 8.1117496 182 165 147
1.27753 1.02654 8.2167702 153 135 112
1.27885 1.0221601 8.2428703 152 134 111
1.49308 1.028 8.2279596 151 124 113
1.57657 1.03328 8.3179398 159 132 119
1.6012 1.03203 8.3584404 154 128 115
1.62442 1.0379699 8.4098501 144 121 110
1.61139 1.03816 8.3418398 153 128 115
1.6300499 1.04114 8.3879805 142 119 107
1.7360899 1.0419101 8.3216105 61 47 45
1.73431 1.04645 8.2803202 63 47 44
-1.93329 0.90168101 7.74682 29 42 65
-1.8676 0.90837097 7.67272 66 79 98
-1.8110501 0.90696102 7.58254 98 103 121
-1.22311 0.92487502 7.0542898 21 23 39
-1.03739 0.943762 7.7087998 221 194 168
-1.0127 0.940979 7.7020798 153 135 114
-1.00843 0.93752801 7.7138 157 135 113
-0.98472703 0.93976802 7.7512999 224 183 138
-0.60510898 0.96815699 8.3346996 76 66 62
-0.59403199 0.96887499 8.3464098 76 65 62
-0.58218402 0.97201002 8.3609304 76 66 62
-0.58803499 0.97665602 8.7532997 70 63 60
-0.59028101 0.972229 8.8547897 67 61 58
-0.55082601 0.97217 8.8050804 59 55 54
-0.537628 0.97241402 8.8109598 54 51 52
-0.45274001 0.97347999 8.4050798 52 36 36
-0.43963301 0.97013402 8.3902102 171 116 117
-0.43530101 0.97242802 8.33074 161 111 110
-0.423296 0.97217202 8.3038502 180 110 115
-0.409132 0.97537899 8.2388296 160 88 95
-0.395493 0.97947901 8.4998598 53 22 29
0.379538 0.99507701 8.1062899 140 122 107
0.379648 1.00401 8.0953598 76 59 48
1.26322 1.03497 8.2446699 143 125 102
1.2780401 1.0323 8.2491198 141 123 100
1.49176 1.04239 8.2117701 156 129 117
1.50383 1.04825 8.21591 156 129 117
1.58173 1.04782 8.3276997 159 132 118
1.57567 1.05088 8.2344103 161 134 119
1.59411 1.0464799 8.32199 166 140 124
1.59724 1.04742 8.2760296 168 141 125
1.72881 1.05962 8.3183699 103 83 77
1.72887 1.05346 8.2848101 71 52 48
1.7373199 1.05933 8.2746 62 46 43
-2.0411201 0.91689199 8.0201702 20 33 56
-1.88535 0.91430598 7.6969199 57 69 88
-1.86562 0.92611498 7.6808 66 73 91
-1.84091 0.92597598 7.6073298 69 75 92
-1.84825 0.92523998 7.6300998 68 75 92
-1.81703 0.919949 7.5708299 84 88 107
-1.82511 0.92545003 7.5738301 71 76 94
-1.68859 0.92206502 7.4803901 122 115 112
-1.6137 0.93119103 7.52985 159 150 140
-1.58162 0.93378103 7.5580201 173 163 153
-1.18524 0.94328398 7.0768299 15 19 36
-0.91067499 0.95870298 7.9489002 211 141 26
-0.62477398 0.97122502 8.3093996 79 67 62
-0.62232101 0.98102099 8.3113899 80 68 62
-0.60783398 0.98052597 8.31738 79 68 62
