ply                 
format ascii 1.0    
element vertex 1303
property float x    
property float y    
property float z    
property uchar red  
property uchar green
property uchar blue 
end_header          
3.06701 5.08677 12.8339 94 95 81 
-0.430773 3.39799 8.00581 5 5 17 
-0.336568 3.38761 7.94175 8 9 27 
-0.226407 3.38879 7.85626 9 10 30 
-0.214401 3.41347 7.84691 121 120 134 
-0.409325 3.50111 7.99867 164 165 170 
-0.29027 3.467 7.89148 3 7 18 
-0.304937 3.48352 7.92764 17 17 27 
-0.296385 3.51984 7.91139 127 128 132 
-0.314977 3.52844 7.91954 4 5 7 
-0.299005 3.54502 7.91131 134 134 136 
-0.330456 3.663 7.93913 75 75 77 
3.18346 5.44983 12.1681 130 134 120 
-0.50655 3.74614 8.01047 151 134 90 
4.22882 5.47594 11.1942 84 84 76 
0.670846 4.07438 7.59213 73 72 70 
0.58981 -5.13438 9.18022 176 186 196 
0.553787 -5.04331 9.16615 183 191 210 
0.63569 -4.91532 9.19134 194 194 218 
0.620604 -4.74882 9.22033 19 18 49 
0.73034 -2.89281 8.67645 36 32 31 
1.40865 -1.85707 8.65443 187 195 206 
0.870918 -1.55136 8.27045 101 98 91 
0.492036 -1.31865 8.09568 99 95 94 
1.04414 -1.30612 8.24337 93 89 86 
0.244127 -1.19168 8.06376 93 89 86 
1.00263 -1.1522 8.16724 36 33 28 
0.30435 -1.1304 8.0004 29 25 24 
0.468712 -1.04089 7.97998 30 29 24 
0.449989 -1.02125 7.98405 78 77 72 
0.662812 -0.758004 7.9619 102 101 99 
0.822277 -0.760002 8.00942 84 83 79 
0.663449 -0.687626 7.94532 93 92 90 
0.469768 -0.530873 7.85842 101 98 89 
0.533094 -0.504152 7.83665 43 40 33 
1.16845 -0.429169 7.98473 103 101 102 
0.55764 -0.332663 7.73985 86 82 79 
0.840932 -0.130008 7.74376 108 104 95 
-0.198035 0.453821 7.90155 44 44 46 
1.33021 1.4796 8.01016 83 82 80 
-0.414274 3.23202 7.92261 14 12 13 
-0.431507 3.36192 8.01544 81 82 86 
-0.250399 3.37919 7.88166 116 117 137 
-0.369571 3.41684 7.97548 80 81 101 
4.20608 5.24349 12.3589 64 64 56 
-0.420669 3.6539 8.00972 81 81 83 
-0.491917 3.71721 8.01689 141 102 35 
4.18503 5.48838 11.2277 147 165 167 
-0.275767 3.99663 7.89611 7 6 14 
-0.447783 4.0783 8.045 82 82 82 
0.639363 -4.77829 9.20268 187 193 209 
0.842254 -4.53384 9.17051 42 41 59 
0.949854 -1.90719 8.40781 29 25 22 
1.46897 -1.70242 8.7908 52 49 56 
0.492453 -1.31904 8.09884 99 95 94 
1.00757 -1.15244 8.16717 35 32 27 
0.30255 -1.12741 7.98903 36 32 29 
0.672173 -1.10636 8.07471 67 66 64 
0.54073 -1.07648 8.02744 113 109 106 
0.95371 0.0394575 7.76938 74 68 68 
-0.307636 0.127766 7.96023 84 80 81 
0.583743 0.20201 7.68244 67 65 66 
0.585896 0.218666 7.67671 76 74 75 
1.05606 0.488363 7.90183 57 55 56 
-0.200746 0.456124 7.8978 52 52 54 
-0.837723 0.499132 9.03637 28 30 29 
0.420239 0.649591 7.74511 88 86 87 
1.27306 0.757848 8.02004 71 71 71 
-0.412463 3.24471 7.94987 13 11 12 
-0.253526 3.22536 7.79182 18 14 13 
-0.219888 3.33549 7.85277 65 63 76 
-0.423478 3.40973 7.99344 123 121 135 
-0.182017 3.39323 7.8453 9 10 15 
0.0654417 3.36373 7.66659 91 90 88 
-0.403326 3.67096 7.99134 115 113 114 
-0.474403 3.71779 7.99067 114 70 9 
1.42271 -1.82342 8.71424 68 69 61 
0.244099 -1.46699 8.0989 14 13 11 
0.590466 0.212527 7.68244 81 79 80 
-0.222551 0.384225 7.89122 75 75 75 
-0.173224 3.41138 7.86514 12 11 16 
4.19414 5.48764 11.2223 148 168 179 
0.574309 -4.41148 8.96548 96 92 89 
1.17463 -2.61617 9.07411 191 193 205 
0.390957 -2.25874 8.41492 99 95 94 
0.252521 -1.46218 8.09813 11 11 9 
-0.477399 3.32985 8.01806 13 11 12 
-0.16789 3.40478 7.81364 12 10 13 
-0.237181 4.4445 7.34492 74 71 62 
0.519222 -4.79698 9.33395 187 196 211 
0.375095 -4.45331 9.24171 185 191 207 
0.613422 -5.03114 9.19546 27 23 50 
0.330512 -3.88974 9.2295 183 193 205 
1.44476 -1.56577 8.83193 33 33 35 
1.56585 -1.02567 9.00895 74 73 69 
0.555557 -5.44663 9.80914 146 155 170 
0.503549 -5.3895 9.7956 165 173 196 
0.518753 -5.33994 9.80946 198 203 222 
0.646082 -2.12867 8.9102 103 102 98 
0.93162 -2.08104 8.95618 48 45 40 
0.920552 -2.0593 8.9398 119 115 112 
0.838998 -2.03107 8.91572 92 88 85 
0.95898 -1.80812 8.85458 109 106 101 
1.13479 -1.47914 8.86048 102 100 101 
0.461103 -1.46298 8.63501 120 116 115 
0.73919 -1.39776 8.67478 118 114 113 
0.677271 -1.29523 8.62349 105 102 97 
0.679814 -1.08588 8.55497 81 77 74 
0.963926 -0.940928 8.57384 105 102 95 
0.957183 -0.738094 8.52164 92 88 87 
1.07049 -0.509432 8.45774 113 112 108 
0.729941 -0.444121 8.34398 64 61 56 
0.968177 -0.405371 8.38288 34 30 21 
0.853786 -0.370832 8.33582 114 111 102 
0.778488 -0.256176 8.26508 106 103 94 
0.703953 -0.234301 8.22384 40 37 28 
-0.599533 3.96539 8.56347 125 114 84 
0.653214 4.28726 8.05731 101 97 96 
0.981372 4.50922 8.15645 138 134 135 
1.31457 4.69249 8.16655 128 127 123 
0.564825 -5.47198 9.81062 186 196 208 
0.591157 -5.42028 9.80739 0 1 36 
0.51956 -3.53372 9.34815 30 26 25 
1.07792 -2.28653 9.23147 48 43 40 
-0.27268 -1.84949 8.96138 66 64 75 
1.20558 -1.55448 8.84898 28 28 18 
0.969058 -1.52337 8.76713 36 32 29 
0.350377 -1.51793 8.63377 88 84 81 
0.333853 -1.40985 8.59719 89 85 82 
0.799627 -1.05365 8.57106 41 37 34 
1.35586 -0.929446 8.95134 87 86 84 
0.833068 -0.388895 8.33625 51 48 39 
0.721685 -0.168127 8.19371 50 47 40 
0.777508 0.015404 8.1984 57 55 56 
-0.335179 0.294156 8.45452 65 63 64 
-0.537406 3.44538 8.50318 69 67 68 
-0.325749 3.5723 8.40851 130 132 153 
2.49897 5.57686 12.2599 88 89 73 
0.669463 4.73194 7.86412 112 111 109 
0.636051 -5.3612 9.77398 191 201 213 
0.61744 -5.32836 9.84303 193 198 218 
-0.238574 -1.87886 8.92388 171 181 193 
1.0336 -1.66535 8.83376 84 81 76 
1.04454 -1.5777 8.79399 86 83 78 
0.514959 -1.27788 8.57831 69 65 66 
0.786916 -0.367137 8.31934 106 103 94 
1.02957 0.497586 8.32082 64 64 64 
1.0595 0.498276 8.34089 58 58 58 
1.30131 1.52567 8.46133 85 84 82 
-0.561636 3.90405 8.58579 17 7 8 
1.7538 4.75065 8.82853 104 101 94 
1.25202 4.65267 8.30993 104 101 96 
-0.231327 4.78546 7.69102 76 75 71 
-0.0553685 5.02965 7.07408 91 89 76 
0.182481 -1.31229 8.61772 25 25 15 
1.05446 0.413605 8.30453 63 63 61 
0.722156 -4.99575 9.94653 188 195 211 
0.54774 -4.70981 9.59669 94 90 89 
0.763726 -4.64466 9.64412 25 23 24 
1.47095 -1.69378 9.30547 29 29 29 
0.458128 -4.69157 9.76894 27 25 28 
-0.335063 -1.46785 9.2015 55 51 48 
14.3764 0.31189 -99.6866 80 86 98 
14.5412 0.0906644 -99.5751 64 72 83 
12.9709 -0.247258 -100.103 172 182 192 
13.2023 -0.273156 -100.395 78 88 98 
8.89016 -0.708728 -101.189 195 203 214 
7.64666 -0.851141 -101.628 170 178 191 
3.78665 -1.10676 -101.459 98 107 116 
3.96605 -1.22197 -101.214 162 171 180 
3.59444 -1.25685 -100.948 164 173 182 
8.13222 -5.62245 -122.375 146 154 165 
5.90247 -5.73698 -119.974 61 65 76 
-29.4606 115.271 820.916 132 134 146 
14.2047 0.464503 -100.23 80 86 98 
13.6753 0.400428 -100.468 76 82 96 
9.72855 -0.655047 -102.419 125 138 146 
8.23427 -0.786923 -102.991 162 170 181 
5.54331 -1.02452 -102.028 183 192 201 
1.53667 -1.14556 -100.414 87 95 106 
5.65595 -5.60282 -119.569 86 90 101 
7.80331 -5.73285 -122.242 125 131 145 
7.22869 -5.73769 -121.623 136 135 149 
6.19029 -5.68325 -120.245 117 121 132 
-1.60399 -51.1748 -411.061 96 100 111 
-38.3431 136.043 952.747 48 50 62 
-28.3174 157.316 1068.87 124 124 132 
14.2425 0.429415 -100.426 81 89 100 
13.6966 0.365035 -100.531 82 88 102 
9.53046 -0.250795 -102.875 82 92 102 
12.7557 -0.208595 -99.3595 176 185 194 
5.50301 -1.00695 -101.406 165 174 183 
7.85197 -5.8202 -122.625 120 128 141 
7.15511 -5.75917 -121.568 120 119 133 
5.14963 -5.74113 -120.029 117 121 132 
-26.3619 108.275 758.627 37 40 49 
-38.4969 138.995 969.489 47 49 61 
-24.7124 158.746 1098.71 122 122 132 
8.98322 -0.58106 -102.138 135 145 155 
-46.0886 171.65 1192 49 52 59 
5.35176 -0.723005 -101.186 164 172 183 
4.28936 -2.8192 -106.443 247 254 255 
5.25739 -5.86985 -120.748 131 133 145 
5.47168 -0.392946 -101.786 176 180 192 
25.6821 -117.587 -905.867 79 81 93 
0.583444 -5.48318 9.83523 21 26 56 
0.623463 -5.44562 9.84087 151 160 175 
0.50145 -5.39484 9.8028 156 164 187 
0.691127 -5.39231 9.87126 189 196 212 
0.712388 -5.36732 9.86248 57 63 87 
0.470267 -5.38884 9.82384 197 205 224 
0.633664 -5.3683 9.85029 16 17 45 
0.514588 -5.34919 9.82478 203 206 221 
0.562433 -5.25506 9.84017 210 212 233 
0.516639 -4.97823 9.83251 46 52 68 
0.774329 -4.79186 10.004 198 201 216 
0.356727 -4.22039 9.75556 35 32 39 
0.180135 -3.62216 9.6307 197 200 215 
0.707576 -3.45885 9.40348 105 101 98 
0.0839306 -3.28213 9.5693 188 190 203 
0.85648 -3.10654 9.33073 104 103 99 
0.448233 -3.10748 9.24343 50 47 42 
0.762465 -3.06697 9.27376 104 101 92 
0.880355 -3.07381 9.37044 103 102 100 
0.781671 -3.05309 9.27614 56 53 48 
0.919785 -3.07883 9.44194 109 108 106 
0.0923627 -3.16985 9.51379 48 47 53 
0.889889 -2.986 9.31777 113 109 108 
0.933694 -2.9402 9.40095 108 104 101 
0.898877 -2.90323 9.32178 102 101 97 
0.991725 -2.92463 9.43991 118 114 111 
0.438855 -2.64946 9.08608 22 18 15 
1.09919 -2.62859 9.47281 112 108 107 
0.987347 -2.47839 9.22288 114 111 106 
0.935382 -2.41876 9.09974 68 67 62 
0.926426 -2.39728 9.07916 32 28 25 
1.01182 -2.41873 9.21503 143 139 136 
0.965411 -2.36781 9.10941 123 119 116 
0.983916 -2.35579 9.11539 39 36 31 
1.00061 -2.35193 9.16036 111 106 103 
0.97132 -2.33858 9.09686 92 89 84 
1.10596 -2.3695 9.3596 98 94 93 
1.05783 -2.34247 9.23727 8 7 5 
1.18188 -2.37296 9.4644 115 114 112 
0.982005 -2.27246 9.07623 123 119 116 
1.02399 -2.27624 9.14132 120 116 113 
1.0926 -2.29183 9.27407 107 103 102 
1.05815 -2.22717 9.16167 112 108 105 
1.17238 -2.22876 9.34985 87 86 84 
1.06089 -2.18589 9.14397 112 111 109 
0.639029 -2.1358 8.93593 129 125 122 
0.741952 -2.11399 8.96627 117 114 105 
0.789715 -2.09318 8.96449 59 56 51 
0.825055 -2.09131 8.9711 39 38 33 
1.11183 -2.10393 9.18577 99 98 96 
0.618284 -2.08693 8.93753 110 110 108 
0.808944 -2.06567 8.97321 41 40 35 
0.784001 -2.05899 8.93919 53 50 45 
0.809065 -2.03202 8.94825 39 35 34 
0.452309 -2.04313 8.88555 116 111 107 
0.78454 -2.01637 8.94393 112 108 105 
0.926648 -1.95222 8.93476 116 111 105 
-0.13882 -2.0315 8.93672 56 54 59 
1.3189 -1.55486 9.02833 87 82 78 
1.40446 -1.5599 9.17521 91 82 83 
1.12937 -1.48842 8.88395 100 100 98 
0.375672 -1.49886 8.69604 21 17 14 
0.441856 -1.47451 8.69924 110 109 105 
0.727824 -1.40697 8.71682 130 129 125 
0.662865 -1.30479 8.67536 108 105 100 
1.31612 -1.31751 9.06925 104 92 92 
0.957967 -1.24334 8.69303 30 27 22 
0.969903 -1.23164 8.70698 107 104 99 
1.08203 -1.22588 8.72713 104 101 96 
0.856112 -1.22696 8.68653 103 100 95 
0.493896 -1.16386 8.61166 128 127 125 
1.07202 -1.10102 8.67928 32 27 24 
0.879784 -0.972125 8.62127 87 86 84 
0.95492 -0.948538 8.60994 123 119 116 
1.11366 -0.931575 8.63973 42 39 34 
1.06767 -0.909054 8.60735 112 108 105 
1.0539 -0.896228 8.5924 46 43 36 
0.987709 -0.8404 8.59337 13 10 3 
1.39791 -0.814834 8.98084 131 127 126 
1.32313 -0.758404 8.80295 104 102 103 
1.30696 -0.653027 8.74609 108 107 105 
0.439395 -0.663827 8.44734 116 110 112 
1.00053 -0.630444 8.52319 45 44 40 
1.1835 -0.568085 8.54054 128 126 127 
0.400828 -0.590174 8.42189 29 24 21 
0.466524 -0.564886 8.40567 113 110 101 
0.481828 -0.545071 8.4031 51 48 43 
1.06575 -0.514294 8.47741 99 94 91 
0.468067 -0.531354 8.39803 126 123 118 
0.584193 -0.519116 8.41114 122 121 117 
0.838775 -0.511051 8.45279 111 107 106 
-0.704787 -0.59254 9.1322 196 199 214 
1.33034 -0.457817 8.60651 104 101 96 
0.719486 -0.448054 8.3813 50 49 45 
1.34174 -0.424022 8.59064 108 107 105 
1.47377 -0.398067 8.79553 121 120 116 
0.794299 -0.386005 8.36676 41 38 33 
0.845066 -0.374451 8.36852 104 104 94 
1.56585 -0.305621 8.84062 113 113 111 
0.767855 -0.259283 8.30344 100 100 88 
0.689017 -0.237577 8.27606 36 36 26 
1.80169 -0.240252 9.20921 85 84 80 
0.810321 -0.231294 8.27789 52 48 36 
0.681466 -0.218481 8.2621 100 100 92 
0.839401 -0.164475 8.27076 56 52 43 
1.66259 -0.127575 8.8055 107 107 97 
0.519077 0.176614 8.22861 0 0 0 
0.219559 0.171739 8.2517 1 0 0 
0.469184 0.223576 8.22328 120 116 115 
1.82607 0.504828 9.2458 25 24 22 
-0.240661 0.505582 8.56304 88 87 85 
1.55817 0.665408 8.69325 110 110 110 
0.37114 0.682142 8.29841 101 99 100 
1.79731 0.843058 9.1879 70 66 67 
1.69166 1.46079 8.89194 92 91 89 
1.53204 1.67287 8.62251 78 74 73 
128.594 -198.337 -1067.65 157 159 154 
90.7506 -139.276 -743.094 66 68 63 
108.185 -170.226 -904.936 173 175 170 
1.28267 -83.7295 -443.134 125 124 120 
271583 -627936 -3.08744e+06 88 89 84 
-32.9249 174.652 810.465 156 157 152 
-24.0081 142.034 656.899 160 159 154 
-12.4214 144.258 656.862 149 152 145 
-7.3891 6.72504 20.158 125 129 115 
-0.995063 22.7801 74.5966 13 18 0 
1.52615 3.25838 8.58719 104 102 90 
-0.517344 3.44224 8.52528 16 15 13 
-0.504906 3.60188 8.58243 13 12 30 
-0.45206 3.65774 8.53185 37 39 51 
0.959871 3.47175 8.21656 73 71 72 
-0.447655 3.69611 8.55137 0 4 15 
-0.427309 3.72461 8.5221 11 12 17 
-0.625153 3.98967 8.62563 156 138 100 
0.677679 4.25123 7.97382 112 106 106 
1.00642 4.46452 8.05735 133 132 130 
0.867589 4.61047 7.91041 163 160 151 
1.34142 4.63351 8.04218 137 136 132 
0.951951 4.62323 7.82585 104 100 99 
1.5592 4.96948 8.01746 111 111 101 
0.612476 -5.41797 9.83496 188 201 210 
0.56995 -5.3946 9.78302 195 198 213 
0.583247 -5.36904 9.84206 28 27 59 
0.55395 -5.31353 9.84566 190 193 210 
0.668732 -4.93952 9.7863 37 44 62 
0.534709 -4.86033 9.59017 66 69 88 
0.773827 -4.71921 9.76271 43 45 42 
0.416509 -4.70069 9.72103 55 54 60 
0.491701 -4.58875 10.0109 33 31 42 
0.490349 -4.41236 9.64706 28 24 23 
0.79275 -4.30334 9.82023 34 31 40 
0.377841 -4.26971 9.73466 41 35 45 
0.50195 -3.55891 9.41212 25 23 24 
0.941508 -3.08238 9.45856 106 105 103 
0.748131 -3.01835 9.24501 45 41 38 
1.01482 -2.0585 9.00395 107 104 99 
0.482518 -2.05477 8.90686 113 110 105 
1.0247 -1.67302 8.86129 78 75 70 
1.34875 -1.57342 9.06535 97 89 86 
0.967561 -1.52863 8.77258 45 42 37 
0.329033 -1.52907 8.70252 84 80 77 
-0.372696 -1.61227 9.11915 54 55 59 
1.03799 -1.40453 8.77311 82 77 73 
0.994218 -1.2435 8.7138 31 28 23 
0.639807 -1.19032 8.63586 90 86 83 
0.413872 -1.12726 8.58674 40 35 32 
0.797713 -0.825079 8.55719 96 97 91 
0.626249 -0.821599 8.52642 119 118 116 
0.971274 -0.420712 8.43749 99 96 87 
0.823907 -0.393921 8.37037 44 41 34 
0.778631 -0.372429 8.35421 106 101 95 
0.706801 -0.171735 8.24591 48 41 33 
0.82288 -0.153666 8.25683 110 108 96 
1.64732 -0.135383 8.81407 102 103 89 
1.91992 0.00593927 10.1317 31 32 37 
0.766524 0.0138669 8.2378 64 60 61 
1.84484 0.116142 9.29548 82 78 77 
0.331244 0.484187 8.33104 68 68 66 
1.0151 0.495406 8.36536 69 67 68 
1.06021 0.494413 8.35503 65 63 64 
1.24431 0.628087 8.50321 84 80 81 
1.69914 0.722708 8.93034 79 79 79 
1.75258 0.997526 9.02707 79 75 74 
1.31321 1.03044 8.45178 91 91 91 
1.50146 1.04881 8.59949 80 78 79 
1.30573 1.5218 8.44701 90 89 85 
1.35459 1.53712 8.4468 79 78 74 
85.0136 -126.126 -678.64 147 149 146 
-1.99827 -80.3921 -420.28 132 130 115 
-3.53193 -83.9808 -438.25 96 98 77 
321003 -730396 -3.55592e+06 27 26 21 
-0.339671 3.42512 8.36536 21 17 16 
-0.34442 3.59167 8.45555 60 61 81 
-0.495121 3.68665 8.57546 18 18 26 
-0.480659 3.75512 8.57355 130 129 134 
-0.382199 3.79455 8.4842 25 23 26 
-0.581212 3.9666 8.61977 119 85 22 
1.49029 4.17365 8.52504 87 85 86 
2.4228 5.6687 12.6367 106 107 91 
1.27166 4.61464 8.222 103 100 95 
1.82841 4.76522 8.6504 87 86 82 
0.817668 4.59182 7.97988 99 99 91 
1.87744 4.90191 8.69922 93 90 85 
1.79989 4.90292 8.57172 81 78 73 
0.699464 4.68187 7.76336 114 111 106 
0.620238 -5.39849 9.8341 188 201 210 
0.601388 -5.36266 9.9062 192 200 213 
0.609161 -5.19703 9.87114 188 196 207 
0.558343 -4.99183 9.81838 187 193 205 
0.666635 -4.943 9.79605 50 57 73 
0.52547 -4.87346 9.62056 66 69 88 
0.784616 -4.77577 9.81579 99 98 96 
0.787956 -4.79242 9.9899 193 196 211 
0.74147 -4.68186 9.71595 26 26 26 
0.492226 -4.58579 9.98846 24 24 34 
0.41082 -4.47158 9.75599 49 44 51 
0.819617 -4.26137 9.71668 25 23 28 
0.9627 -2.40377 9.12841 33 32 28 
1.06622 -2.29841 9.26133 51 47 44 
1.02129 -2.05626 8.99094 107 104 99 
0.934874 -2.04424 8.98545 33 32 28 
0.237792 -1.92537 8.87876 94 90 87 
0.731472 -1.74745 8.82011 46 43 36 
0.853476 -1.66327 8.83189 107 104 95 
1.20245 -1.55772 8.84587 28 29 23 
-0.375685 -1.723 9.1382 54 56 55 
0.710052 -1.40965 8.72643 84 83 79 
0.310534 -1.4257 8.67729 95 94 89 
0.14971 -1.32401 8.71216 18 17 13 
0.16781 -1.28666 8.71355 77 78 73 
-0.495411 -1.32392 9.24426 170 178 189 
0.420119 -1.13036 8.58901 33 29 26 
0.995928 -0.84556 8.61762 38 35 26 
-0.582137 -0.91503 9.15375 51 50 56 
0.972468 -0.472883 8.43871 127 126 124 
1.66985 -0.159482 8.83939 37 38 33 
0.941345 0.0240581 8.28899 69 68 66 
1.8714 0.104754 10.0623 49 47 50 
1.69868 0.242625 8.89705 86 84 85 
1.03168 0.429035 8.34275 66 64 65 
1.01552 0.497431 8.37783 67 65 66 
1.25931 0.672924 8.51608 0 0 0 
1.28712 0.780037 8.49968 74 74 74 
1.29786 0.859751 8.47302 76 76 76 
1.53208 0.923719 8.64894 70 69 67 
1.74342 1.00025 9.05578 87 83 82 
1.45182 0.984357 8.53191 73 67 69 
1.52257 1.05477 8.65236 77 75 76 
-0.429029 1.46735 8.69227 76 72 71 
1.71885 1.45963 8.84816 98 97 95 
1.30676 1.51997 8.43673 90 89 85 
80.6181 -119.644 -643.046 133 135 132 
-2.05348 -82.354 -429.967 132 130 115 
-0.627474 3.54372 8.66827 16 18 17 
-0.0130469 3.38665 8.20969 23 22 20 
0.0161277 3.54701 8.15857 99 98 96 
-0.622535 4.04056 8.691 16 15 13 
1.94207 4.83095 9.7803 70 69 65 
1.91643 4.81726 9.71 16 15 11 
1.88215 4.90361 8.70768 88 85 80 
0.595412 -5.42763 9.79412 10 15 47 
0.533675 -5.32375 9.84045 191 198 214 
0.382474 -4.86045 9.73245 68 64 78 
0.796219 -4.83974 9.9571 32 28 43 
0.546925 -4.72475 9.61069 89 88 86 
0.750716 -4.68714 9.71002 23 23 23 
0.60139 -4.6405 9.75667 23 19 20 
0.478968 -4.60489 9.99395 30 29 35 
0.376627 -4.33467 9.75894 51 48 55 
0.340526 -4.24545 9.74344 186 192 206 
0.753104 -4.23744 9.89477 41 36 40 
0.355845 -4.06548 9.70972 57 52 49 
0.182497 -3.57318 9.62995 51 51 61 
-0.0619756 -2.58912 9.43725 61 58 51 
1.03193 -1.59409 8.84514 95 91 88 
1.18791 -1.55708 8.85221 32 31 27 
-0.372529 -1.71038 9.14337 64 63 61 
0.177178 -1.57709 8.70311 20 16 15 
0.67077 -1.44444 8.72729 90 89 85 
0.316342 -1.43068 8.67103 59 58 53 
-0.546983 -1.09748 9.2235 42 41 46 
-0.553651 -0.997828 9.21756 60 59 57 
0.552584 0.213111 8.21762 81 81 81 
1.74275 0.418013 9.03268 50 49 47 
0.486398 0.402273 8.24803 52 51 49 
-0.356446 0.404651 8.57835 77 77 77 
1.03757 0.497382 8.36238 65 63 64 
1.29526 0.787293 8.50724 57 57 57 
1.37815 1.05437 8.47573 81 81 79 
-0.227303 1.26823 8.51748 72 69 64 
97.4499 -146.407 -787.132 133 135 132 
-2.39913 -79.4863 -414.742 97 96 78 
-0.611126 3.55156 8.67092 9 9 9 
-0.504778 3.74711 8.60419 140 139 144 
-0.581135 3.91443 8.62663 13 12 7 
1.7639 4.70406 8.71402 104 101 94 
0.647482 -5.0376 9.86914 188 195 211 
0.528291 -5.01537 9.79316 189 196 212 
0.572619 -4.98554 9.8848 65 67 80 
0.513126 -4.88819 9.67345 72 74 87 
0.796263 -4.85517 9.8302 36 34 37 
0.725035 -4.71689 9.63017 99 98 96 
0.568892 -4.69879 9.85828 22 18 17 
0.343712 -4.23991 9.72852 186 192 206 
0.238508 -3.84565 9.66342 188 196 207 
0.226538 -3.7427 9.61141 184 187 202 
0.26375 -3.68533 9.6323 69 67 70 
0.191061 -3.64376 9.60895 189 195 209 
0.0412314 -3.11148 9.51601 188 192 204 
0.0525849 -3.08272 9.52689 76 75 83 
0.344628 -2.41158 8.9996 100 99 95 
0.176917 -1.57726 8.73661 22 21 19 
1.89879 0.00764174 10.1019 50 50 50 
-0.292989 0.374427 8.5861 14 14 12 
-7.75391 142.186 643.249 146 147 141 
0.00411582 3.35915 8.21578 29 29 29 
-0.468356 3.75489 8.58762 134 135 139 
-0.596349 3.90697 8.63797 23 22 18 
-0.321087 4.70573 7.88328 82 82 70 
0.500706 -5.03451 9.7794 188 198 208 
0.793433 -4.76755 10.0224 189 199 209 
0.320349 -4.13735 9.69747 184 193 208 
0.829689 -3.87836 10.057 62 59 66 
0.111715 -3.24633 9.55273 58 56 61 
0.0527086 -3.17476 9.52041 178 184 196 
0.473339 -4.70425 9.83048 62 59 50 
0.323755 -4.16064 9.69063 184 196 210 
0.318834 -3.98173 9.68914 94 89 95 
0.233303 -3.83655 9.64083 181 189 200 
0.243801 -3.71303 9.63875 79 76 83 
0.926982 -3.62848 10.1176 180 187 203 
0.117034 -3.41372 9.55988 179 187 200 
0.0371947 -2.97786 9.50347 82 78 79 
-0.0253063 -2.77321 9.47305 99 97 100 
-0.0863136 -2.56986 9.44115 69 63 63 
-0.15634 -2.48134 9.40188 174 182 195 
-0.44938 -1.4206 9.18215 163 173 185 
-0.485809 -1.32249 9.18943 164 174 186 
-0.526306 -1.2226 9.19261 162 170 183 
-0.351988 -2.15387 9.70984 73 72 67 
-0.259816 -1.82091 9.09489 66 67 62 
1.67634 -0.872935 10.0877 161 170 187 
2.04935 0.0799343 10.3122 169 173 184 
0.588701 -5.504 9.82055 52 59 77 
0.574201 -5.48714 9.81581 198 206 217 
0.671346 -5.3983 9.85212 176 185 200 
0.503438 -5.3898 9.79806 156 164 187 
0.605557 -5.3159 9.74448 32 32 60 
0.452305 -2.63933 9.05008 22 18 15 
0.789195 -2.05313 8.92458 53 50 45 
0.481359 -2.05551 8.85001 59 58 54 
0.468141 -2.03366 8.84393 116 111 107 
0.460146 -1.46626 8.65224 110 109 105 
0.738912 -1.40058 8.6861 130 129 125 
0.963303 -1.23793 8.67749 30 27 22 
1.01917 -1.21276 8.68225 112 111 106 
0.963931 -0.94314 8.5836 123 119 116 
0.459262 -0.659755 8.39769 116 110 112 
1.00688 -0.626092 8.50454 45 44 40 
0.42179 -0.586107 8.37018 29 24 21 
0.484455 -0.561487 8.36072 113 110 101 
1.07058 -0.510391 8.46301 99 94 91 
0.805531 -0.382894 8.33609 41 38 33 
0.687291 -0.251271 8.23455 124 124 114 
0.703516 -0.235662 8.23801 36 36 26 
0.146785 0.100031 8.23312 94 93 91 
0.535655 0.176335 8.18728 0 0 0 
0.485033 0.222903 8.1843 120 116 115 
0.38903 0.678747 8.25523 101 99 100 
1.52162 1.67964 8.65995 78 74 73 
-0.513191 3.61735 8.57086 129 128 144 
0.65406 4.27758 8.03361 112 106 106 
0.981339 4.49737 8.12781 133 132 130 
4.29983 5.67223 11.5482 123 125 120 
1.31321 4.67673 8.1305 137 136 132 
0.591231 -5.42092 9.80548 8 13 45 
0.625384 -4.9798 9.82013 192 197 216 
0.672685 -2.74886 9.12596 88 88 86 
0.969091 -1.52378 8.7685 45 42 37 
1.0472 -1.39648 8.74519 82 77 73 
0.436372 -1.1191 8.52999 40 35 32 
0.799384 -1.05656 8.5847 39 35 34 
0.812793 -0.818726 8.51514 96 97 91 
0.643657 -0.816199 8.48027 119 118 116 
0.721283 -0.169334 8.20783 48 41 33 
0.832582 -0.151883 8.2304 110 108 96 
0.777266 0.0148457 8.20907 64 60 61 
1.34793 1.54085 8.46891 79 78 74 
0.726813 2.68754 8.22626 74 73 71 
0.798111 4.61655 8.03131 99 99 91 
0.670472 4.71845 7.83522 114 111 106 
0.63551 -5.36969 9.79048 188 201 210 
0.616839 -5.33665 9.86039 192 200 213 
0.947554 -2.0343 8.94704 33 32 28 
-0.242257 -1.88391 8.95295 173 176 193 
-0.273207 -1.85163 8.99736 67 67 75 
1.03367 -1.66744 8.84143 75 72 67 
0.724786 -1.40123 8.68574 84 83 79 
0.442519 -1.12267 8.5324 33 29 26 
0.806852 -0.17777 8.23398 54 51 42 
0.951775 0.0254784 8.25945 69 68 66 
1.53097 0.925817 8.65295 70 69 67 
1.30114 1.52372 8.45493 90 89 85 
1.39305 2.37366 8.50206 75 74 72 
-0.570964 3.94718 8.57717 125 85 15 
0.501687 -5.35609 9.80486 28 29 57 
0.567234 0.212354 8.18081 81 81 81 
4.29861 5.67611 11.6206 143 146 161 
0.659364 -5.01511 9.83515 188 195 211 
0.527927 -5.01118 9.79647 189 196 212 
-0.431231 3.72773 8.51175 134 135 139 
0.588947 -4.95564 9.84142 75 75 85 
0.593395 -4.94562 9.8208 75 75 85 
0.854226 -4.12174 9.8861 185 192 208 
-0.549283 -0.797344 9.0852 67 63 62 
0.629209 -2.05936 8.66599 28 27 25 
0.992317 -2.00842 8.73099 112 111 106 
1.02748 -0.714857 8.32554 105 104 100 
0.543919 -0.637881 8.18609 116 110 112 
1.07462 -0.604511 8.30361 45 44 40 
0.617967 0.179497 7.98192 0 0 0 
0.474472 0.670257 8.04884 101 99 100 
166.659 -115.072 -938.965 44 49 53 
159.047 -111.998 -900.337 143 148 152 
162.958 -115.895 -917.712 59 64 68 
-28.6762 32.8265 177.637 26 26 26 
0.886355 -0.793505 8.30936 96 97 91 
104.748 -106.808 -864.708 40 44 56 
117.387 -130.466 -1055.87 131 134 143 
109.748 -95.5897 -751.277 43 44 49 
128.163 -105.464 -798.772 53 54 59 
124.329 -106.231 -801.264 49 50 55 
100.043 -429.995 -3028.38 44 51 59 
171167 -409291 -2.85947e+06 101 106 109 
1.01966 -1.98144 8.72747 33 32 28 
1.02205 0.034167 8.05971 69 68 66 
1.34784 0.774528 8.30143 74 74 74 
158.228 -105.844 -881.467 42 46 55 
127.31 -132.171 -1111.84 128 130 143 
108.664 -95.0729 -745.667 46 47 52 
94.0196 -96.8296 -753.779 111 118 126 
123.689 -105.867 -795.772 54 55 60 
529.891 -1270.69 -8881.38 101 106 109 
0.647765 0.215172 7.97826 81 81 81 
-0.713783 0.495357 9.31888 64 64 64 
104.667 -102.155 -812.608 46 49 54 
109.003 -96.363 -752.302 45 46 51 
94.9496 -97.7429 -765.497 113 117 128 
0.749188 -4.7672 9.4969 57 58 60 
113.04 -95.5125 -789.873 117 120 129 
127.738 -108.7 -809.463 51 52 56 
107.679 -88.4495 -732.559 118 121 130 
0.699285 -2.092 8.76778 124 123 119 
0.979157 -2.02484 8.76983 115 111 108 
0.86344 -2.0048 8.75951 118 115 110 
0.548014 -2.0381 8.72474 130 129 127 
1.12103 -1.78295 8.74806 99 95 92 
0.438478 -1.46445 8.53679 27 26 24 
1.03198 -1.20343 8.52103 112 108 105 
0.919241 -1.19809 8.50422 110 106 103 
1.01413 -0.926284 8.43513 126 122 119 
1.1229 -0.889785 8.43859 120 116 107 
1.04699 -0.820464 8.417 40 37 32 
1.00559 -0.72579 8.38936 95 94 92 
1.50461 -0.635083 8.75364 107 106 102 
0.495298 -0.645356 8.30726 87 86 84 
1.38449 -0.447745 8.426 106 103 98 
0.896059 -0.362891 8.22664 119 116 111 
0.713303 -0.226488 8.12877 44 40 37 
0.743086 -0.226651 8.13381 43 40 33 
0.732363 -0.209312 8.1287 106 103 98 
0.891835 -0.155958 8.12672 61 57 48 
0.568194 0.181862 8.10611 7 6 2 
1.5438 3.23734 8.52319 103 99 90 
0.850266 4.63348 7.95476 135 132 125 
0.652294 -4.97857 9.57031 205 207 222 
0.47408 -4.71248 9.45357 37 35 56 
1.17431 -1.39345 8.63099 93 92 88 
1.05576 -1.21499 8.5279 38 34 31 
0.858647 -0.804553 8.3866 95 94 92 
1.22678 -0.464179 8.32561 102 98 95 
0.87502 -0.382391 8.22906 52 49 42 
0.781025 -0.226677 8.1397 56 52 41 
1.88573 0.408321 9.07767 73 73 73 
1.33487 0.847858 8.35455 74 72 73 
0.669108 4.72222 7.83792 72 71 67 
0.544152 -1.41061 8.53345 54 51 46 
1.04443 -1.16953 8.50941 29 25 22 
1.06354 -0.823043 8.41542 37 34 27 
0.584999 0.14757 8.09635 75 75 75 
0.589762 0.222343 8.11468 81 81 81 
1.0988 0.492807 8.22819 62 60 61 
2.48762 5.48098 12.1389 98 94 83 
-0.821374 5.01274 6.36093 102 99 90 
1.73281 -0.162124 8.6466 34 33 29 
1.34097 0.776626 8.35816 71 69 70 
0.68775 -4.81987 9.54962 92 90 104 
0.690678 -4.81103 9.53327 99 97 110 
0.755652 -4.61303 9.67424 72 69 64 
0.820676 -3.88423 9.74457 64 62 63 
0.320849 -3.74263 9.40707 183 190 208 
0.673696 -4.68164 9.60049 62 57 54 
0.510396 -5.2622 9.60444 63 71 84 
0.49695 -3.04836 9.07078 44 40 37 
1.08719 -0.820068 8.44456 14 11 6 
1.43209 -0.801053 8.8054 104 103 101 
0.992154 -0.399229 8.28796 48 44 35 
0.996332 -0.370423 8.26625 44 41 32 
1.53612 3.24085 8.53453 103 99 90 
1.00143 4.47339 8.07875 124 120 121 
0.618017 -4.3785 9.52462 31 29 34 
1.38005 0.593943 8.3636 4 0 0 
0.68186 4.71212 7.82334 72 71 67 
1.03641 -0.826949 8.45168 37 34 27 
0.571244 0.222216 8.13665 81 81 81 
1.41643 2.35013 8.40227 71 69 70 
1.07242 -1.5635 8.67284 90 86 83 
0.425021 -4.31733 9.5408 187 197 209 
-0.701696 0.378764 8.91678 18 14 13 
0.289109 -3.76298 9.44942 183 190 208 
34.9526 -0.830862 -90.1153 79 88 97 
31.6537 1.86043 -80.4657 161 169 182 
33.6847 -0.679619 -90.2083 132 139 149 
73.9909 -16.04 -177.367 120 129 138 
90.8621 -23.3855 -236.418 117 122 126 
87.7681 -22.9473 -231.052 111 114 119 
34.7106 -0.782245 -89.957 137 146 155 
91.2775 -22.4412 -237.295 116 120 131 
88.8849 -22.357 -234.648 116 120 132 
90.7647 -23.1953 -235.754 119 124 128 
34.6931 -0.752859 -90.0081 120 129 138 
33.8033 -0.774328 -90.4278 126 135 144 
88.5727 -22.7738 -234.634 118 122 133 
89.4861 -23.7502 -234.088 49 53 56 
34.6981 -0.715039 -90.3589 121 130 139 
0.672261 -4.93816 9.57872 44 41 72 
0.727053 -4.4003 9.61282 206 205 213 
0.580019 -4.39774 9.58304 31 29 34 
0.718002 -4.97282 9.58969 196 201 220 
0.56427 -4.41386 9.57618 29 26 33 
0.676614 -5.23462 9.57288 39 36 67 
0.773304 -4.91285 9.59628 193 202 217 
0.798688 -4.93547 9.60691 195 204 219 
0.560442 -4.60397 9.56351 47 41 43 
0.626797 -4.44974 9.58452 222 220 231 
0.718359 -4.44549 9.61018 224 222 243 
0.730794 -5.29926 9.54792 139 147 166 
0.688388 -5.28518 9.52134 232 232 255 
0.692621 -5.14803 9.571 128 132 161 
0.709521 -5.04646 9.5101 235 232 255 
0.522911 -4.65203 9.42722 17 18 36 
0.943844 -3.9646 9.67482 208 210 225 
0.978438 -3.8186 9.67979 37 35 48 
1.09466 -2.92304 8.93506 102 101 99 
1.10613 -2.8415 8.8938 93 89 88 
1.20915 -2.78217 8.99067 113 109 106 
1.24603 -2.78965 9.05405 105 102 97 
1.21323 -2.53653 8.83277 19 15 12 
1.2273 -2.52651 8.84475 126 122 119 
1.25191 -2.51982 8.87457 87 83 82 
1.31467 -2.46006 8.94081 119 115 114 
1.30054 -2.61197 9.80816 177 179 191 
1.29934 -2.57848 9.82814 185 191 203 
1.19615 -2.2728 8.63291 102 101 96 
1.47138 -2.29962 9.03578 106 102 101 
1.25179 -2.21745 8.68481 100 96 93 
1.42698 -2.23897 8.94362 104 103 101 
1.36635 -2.21244 8.84583 48 44 41 
1.38263 -2.20142 8.85266 142 138 135 
1.35145 -2.15329 8.75562 132 128 129 
1.40688 -2.16612 8.86825 107 103 102 
1.23481 -2.14049 8.6078 135 132 127 
1.30812 -2.10032 8.68472 123 119 116 
1.31694 -2.06022 8.66518 130 126 123 
1.5419 -2.07944 8.96588 109 108 104 
1.5289 -2.0677 8.95477 41 40 38 
0.882195 -2.01434 8.52737 116 112 111 
0.991781 -1.98978 8.52738 106 103 98 
0.860229 -1.96729 8.5226 126 126 124 
1.43644 -2.07604 9.88112 196 196 206 
0.682992 -1.93001 8.50261 127 124 119 
1.18885 -1.83433 8.46413 119 114 111 
1.66415 -1.71504 8.55763 127 122 118 
1.63444 -1.47716 8.53261 100 92 90 
1.68703 -1.45608 8.60648 99 87 87 
1.60682 -1.41395 8.46972 92 78 78 
1.34871 -1.24673 8.24645 98 94 91 
0.937102 -1.21476 8.23722 120 116 115 
1.25177 -1.15227 8.20214 30 26 23 
1.26381 -1.14095 8.2086 89 85 82 
1.14397 -1.13789 8.208 99 95 94 
0.925458 -1.10034 8.18857 85 81 80 
0.774129 -1.07873 8.18651 118 117 115 
1.3803 -0.835726 8.08986 124 120 111 
1.56961 -0.812012 8.20268 121 120 116 
1.37146 -0.764269 8.06158 8 5 0 
0.91135 -0.760382 8.08925 108 107 105 
1.70329 -0.666863 8.34205 66 62 61 
1.62772 -0.596031 8.17253 97 93 90 
1.76279 -0.5946 8.36194 112 106 108 
0.718177 -0.605745 8.04099 95 94 92 
1.20494 -0.54583 8.00375 112 110 111 
0.681726 -0.513026 7.98219 106 102 99 
1.27464 -0.426955 7.96186 109 108 106 
1.79209 -0.360378 8.20448 105 104 100 
1.1002 -0.344067 7.90818 60 56 53 
0.988153 -0.185352 7.81858 113 110 105 
1.97935 -0.133118 8.21026 37 34 29 
1.01648 -0.134985 7.78935 51 46 40 
0.832784 0.189997 7.79504 20 18 19 
2.13352 0.270798 8.52329 6 2 0 
2.14161 0.436985 8.56573 2 2 2 
2.14766 0.467462 8.56293 35 35 35 
0.560783 0.50893 7.94098 67 65 66 
1.62459 0.751539 7.93864 90 90 90 
-88.6625 16.2367 81.4677 104 105 100 
2.04336 1.3545 8.23728 87 87 85 
2.11408 3.11523 9.08402 1 0 0 
1.87616 2.92288 8.02378 98 95 90 
1.86886 2.98949 8.00817 47 42 39 
1.87112 3.00577 8.02748 84 81 76 
1.20174 4.35858 7.52891 115 112 107 
2.28215 4.90772 9.99509 131 131 129 
1.70975 4.32971 7.56296 110 109 105 
0.71719 -4.96851 9.55939 198 199 220 
0.974344 -4.69384 9.43644 71 73 94 
0.671271 -4.69328 9.26648 70 70 96 
0.952192 -4.6938 9.62602 56 57 77 
0.520689 -4.5871 9.4276 197 205 218 
0.536651 -4.56025 9.43679 32 28 43 
1.12228 -2.75393 8.87402 106 102 99 
1.24906 -2.8038 9.74984 50 48 51 
1.28864 -2.60862 9.01594 109 105 104 
1.20257 -2.26731 8.66991 37 34 29 
1.27174 -2.14736 8.6697 135 132 127 
1.27479 -2.06627 8.60642 119 116 111 
1.27134 -2.0116 8.55987 96 93 88 
1.2949 -1.92625 8.49998 115 112 107 
0.724189 -1.93636 8.50355 120 116 113 
0.11871 -2.0403 8.601 50 48 61 
1.33248 -1.94856 10.3591 171 179 192 
1.12913 -1.55377 8.35388 117 114 109 
1.63996 -1.46459 8.50486 99 94 90 
1.48502 -1.65625 10.1998 172 176 187 
0.57126 -1.4887 8.35129 92 88 85 
1.51206 -1.61418 10.1498 46 46 48 
1.33159 -1.30403 8.26217 87 83 80 
1.80236 -1.30581 8.83047 73 72 70 
0.991579 -1.31507 8.27512 61 60 58 
1.08233 -0.982944 8.14576 38 32 32 
1.50677 -0.425669 7.94484 108 106 107 
1.76624 -0.399459 8.18033 97 96 92 
1.17276 -0.344305 7.85393 60 57 52 
2.11487 -0.221635 8.53789 103 102 100 
0.956145 -0.221953 7.85067 117 115 103 
1.96534 -0.152504 8.21159 108 104 101 
2.1717 0.38703 8.64152 17 15 16 
1.63897 0.660379 7.93266 93 91 92 
1.95797 0.691126 8.12234 72 71 69 
1.64583 0.970728 7.91744 94 92 93 
121143 -16237.1 -97978.9 49 50 55 
90419.9 -12054.6 -71965.1 52 53 57 
54998.5 -7449.35 -44265.5 139 142 151 
141134 -19159 -112936 131 133 145 
35280.8 -4983.26 -27955.1 180 184 183 
2.06133 1.30159 9.415 29 25 22 
1.88321 1.56036 8.03516 89 87 88 
2.11729 1.85855 8.82789 45 44 40 
1.9645 2.44383 8.08624 76 75 73 
2.17477 3.47058 8.68442 81 79 80 
1.16753 4.33041 7.57567 90 89 87 
1.03108 4.44224 7.41964 96 95 91 
2.20698 4.39246 7.99181 92 88 85 
2.21358 4.45674 7.99661 103 99 96 
2.41513 4.63056 8.6183 67 66 64 
2.21517 4.51247 8.04639 79 75 72 
2.18995 4.52017 7.93528 61 57 54 
2.30348 4.57949 8.15115 80 79 74 
0.688802 -5.28904 9.4765 196 204 217 
0.726986 -5.25273 9.55361 196 204 215 
0.671469 -5.21566 9.4829 224 228 253 
0.724497 -5.21225 9.59571 222 234 250 
0.680786 -5.08775 9.50988 196 202 218 
0.692653 -4.99674 9.55592 35 31 68 
0.666349 -4.69646 9.27748 67 67 91 
0.501414 -4.69975 9.41808 62 58 73 
0.911171 -4.29243 9.60098 41 38 47 
0.899908 -4.17184 9.65126 49 49 59 
0.503399 -4.19862 9.44166 43 42 58 
1.02107 -3.85322 9.55735 56 53 62 
1.09442 -3.35429 9.75593 186 189 204 
1.21722 -2.21651 8.63725 104 99 96 
1.34043 -2.15261 8.72842 50 46 45 
1.29126 -1.92715 8.50813 94 90 87 
1.42077 -2.14216 9.8713 171 173 188 
1.50218 -1.95672 9.78331 51 49 50 
0.479409 -1.81201 8.50998 77 76 74 
1.46791 -1.45384 8.35849 30 29 24 
1.79998 -1.37596 8.81349 17 16 11 
1.40719 -1.32107 8.30464 96 92 93 
0.959194 -1.35368 8.27183 98 97 95 
1.53808 -1.49198 10.0881 38 36 37 
0.73502 -1.3514 8.29639 47 43 40 
1.80913 -1.27173 8.79772 35 34 30 
1.29134 -1.10502 8.17643 25 21 20 
1.86972 -0.848941 8.63868 28 26 27 
1.61375 -0.42201 8.01307 103 102 100 
1.99427 -0.137698 8.21255 41 38 33 
2.08474 0.398395 8.31096 84 84 84 
1.36246 0.47991 7.83903 57 57 57 
1.40482 0.4793 7.82702 67 67 67 
1.63025 0.738013 7.94025 76 74 75 
2.18422 0.905741 8.53094 20 16 15 
1.66602 1.09884 7.90454 94 93 91 
-95.6442 17.258 86.4455 144 143 139 
1.66252 2.17289 7.87616 62 60 61 
1.77341 2.20399 7.89372 73 71 74 
2.41953 4.62416 8.60629 68 67 65 
2.55999 4.76615 9.08147 71 70 66 
2.26438 4.51722 8.04972 98 93 89 
2.55582 4.7051 8.41814 65 66 52 
0.625224 -5.19384 9.50112 85 85 121 
0.732276 -4.95686 9.57032 192 202 214 
0.685094 -4.92454 9.56891 57 53 88 
0.973162 -4.67722 9.43108 45 47 60 
0.772325 -4.65952 9.25999 45 43 54 
1.44624 -2.18124 8.89503 43 37 37 
1.32167 -1.48197 8.32763 99 96 91 
1.79573 -1.4486 8.83722 20 18 19 
1.80687 -1.36773 8.82019 29 28 23 
0.952146 -1.34403 8.28117 91 90 88 
2.00305 -0.143118 8.22337 39 35 32 
-0.15876 0.378135 8.32885 5 3 6 
0.805043 0.403572 7.80247 64 63 61 
1.39992 0.400242 7.79754 60 60 60 
1.64732 0.983212 7.92926 55 53 54 
1.64273 1.438 7.94194 75 74 72 
0.745421 -4.89279 9.60215 191 201 213 
0.859265 -4.55421 9.29974 92 91 89 
0.900692 -4.51641 9.36367 22 22 22 
0.765886 -4.52712 9.31652 25 23 26 
0.507993 -4.25964 9.4261 186 193 209 
0.95367 -3.89571 9.664 31 29 40 
1.10954 -3.34275 9.74441 185 191 205 
1.07665 -3.30262 9.71093 57 55 56 
1.10298 -3.2849 9.74156 64 65 70 
1.15939 -3.07467 9.76392 57 57 69 
0.0729926 -2.03549 8.67345 79 77 78 
1.81497 -1.36353 8.82233 26 25 21 
2.08237 0.393549 8.35499 46 46 46 
142806 -18842.5 -114647 104 110 126 
1.67058 1.4303 7.92425 68 67 65 
0.764142 -4.91134 9.61429 192 201 216 
0.654173 -4.85847 9.59874 67 69 81 
0.47654 -4.62231 9.43923 190 200 212 
0.912267 -4.49617 9.5717 42 38 39 
0.343909 -1.9388 8.59405 38 36 37 
1.68445 0.978993 7.92152 72 70 71 
0.688761 -5.04524 9.55571 8 2 40 
0.171192 -2.72993 9.10092 174 181 197 
0.0460814 -2.01173 8.75882 75 71 70 
1.68487 -1.09406 10.02 164 174 186 
1.8332 -0.52035 10.0804 154 162 175 
1.01621 -4.19939 9.59396 185 197 209 
0.122338 -1.94898 8.71284 53 52 50 
0.272006 -2.96113 9.19806 86 81 78 
0.714432 -4.85267 9.55031 218 219 247 
0.725417 -2.07171 8.69455 116 112 111 
0.885599 -2.02436 8.68454 36 32 29 
0.710399 -2.02083 8.68172 126 126 124 
0.53321 -1.37103 8.45285 109 108 106 
0.950798 -1.18166 8.41283 99 95 94 
0.48486 -1.11383 8.35238 113 112 110 
0.97516 -0.934706 8.34566 94 92 93 
40.5534 6.28402 -60.8817 90 99 116 
40.3175 6.03998 -60.8752 70 79 96 
40.6524 5.37746 -60.7924 165 172 190 
40.3318 5.36058 -60.7028 158 167 184 
40.3094 5.04896 -60.6612 166 175 192 
40.7159 4.75524 -60.6307 96 105 120 
40.5403 4.77265 -60.8158 67 76 91 
40.7773 4.46627 -60.7238 56 65 80 
39.9394 4.40843 -60.6903 62 71 88 
40.6408 4.36358 -60.7096 167 176 191 
40.2998 4.18791 -60.6873 61 70 87 
40.2765 3.73057 -60.6419 69 78 95 
40.3566 3.50462 -60.4612 114 123 138 
40.1926 3.43953 -60.4746 161 168 186 
40.5506 3.16284 -60.5002 162 171 186 
40.6198 3.00524 -60.5674 149 158 173 
40.1428 2.85922 -60.4376 58 65 83 
39.9014 1.94814 -60.0546 81 88 106 
40.5157 1.96238 -60.2653 90 99 116 
40.5246 1.50991 -60.2363 66 75 90 
40.6402 1.33268 -60.0304 68 78 90 
39.8732 0.949093 -60.0476 87 95 108 
40.6305 0.882494 -60.0855 151 159 172 
36.6927 -0.576518 -56.6047 121 129 140 
40.6316 3.96951 -60.6718 157 166 181 
40.2653 3.94719 -60.6054 162 171 188 
40.5658 3.50446 -60.5326 160 169 184 
40.2156 3.49364 -60.5169 149 156 174 
1.72598 -0.127471 8.5123 95 92 83 
40.593 2.67495 -60.5081 159 168 183 
40.0424 2.63946 -60.2422 159 166 184 
40.5773 2.20677 -60.4249 158 167 182 
40.213 2.19677 -60.1832 137 147 159 
39.9421 2.17046 -60.0898 148 155 171 
40.1865 1.72644 -60.123 140 149 166 
32.912 0.778117 -51.9005 157 164 180 
1.44082 0.586757 8.20217 3 1 4 
43.5204 -4.27003 -68.6719 115 119 120 
1.42946 1.49929 8.19865 78 77 75 
0.705098 -4.97095 9.58052 192 200 221 
0.950805 -1.60484 8.54648 119 116 111 
1.13126 -1.53392 8.53862 77 74 69 
1.03057 0.0325 8.03575 75 74 72 
39.8276 1.23206 -59.9446 153 161 174 
40.6055 1.25515 -60.3656 145 155 167 
1.12895 0.385885 8.06703 63 63 63 
1.47316 2.31011 8.2312 73 71 74 
1.54715 4.09064 8.32251 99 97 98 
1.12464 0.48983 8.10576 56 56 56 
0.896799 -3.87255 9.74611 54 55 60 
0.973551 -2.01298 8.72189 109 105 102 
1.37507 -1.51082 8.75087 84 74 73 
0.917107 -1.18837 8.44855 99 95 94 
0.895189 -0.885503 8.3587 109 108 106 
1.00736 -0.71734 8.3208 108 107 105 
1.05809 -0.607178 8.2887 48 47 45 
1.38494 -0.440652 8.34498 91 90 86 
0.993681 3.4241 8.08637 77 75 76 
1.03415 4.4114 7.95129 137 133 134 
1.36878 4.57257 7.92149 110 109 105 
0.88457 -0.373358 8.14436 60 57 52 
1.69538 -0.131296 8.53393 95 92 87 
1.69186 -0.128657 8.5541 95 92 83 
0.823097 0.0231221 8.03499 56 55 53 
0.999452 1.42515 8.13665 82 81 79 
1.39941 1.50543 8.23192 78 77 75 
1.52543 4.1002 8.34807 99 97 98 
0.544917 -2.00146 8.69063 120 116 113 
0.998288 0.0316467 8.0685 75 74 72 
1.80246 0.297582 8.72628 84 83 81 
1.34262 0.845052 8.26427 74 73 71 
1.00439 1.58897 8.12539 57 56 54 
1.09236 0.491401 8.13934 56 56 56 
1.34696 0.772983 8.26592 61 59 60 
0.0281349 3.33465 8.14972 27 27 27 
0.633358 -4.90546 9.65011 218 219 247 
0.728758 -4.8907 9.73425 72 75 92 
0.606237 -4.8897 9.65871 70 72 85 
0.72523 -4.87621 9.73283 35 35 47 
0.809038 -4.79363 9.75639 21 21 23 
0.612721 -4.90987 9.57642 188 194 210 
0.823398 -4.5999 9.66862 42 38 39 
0.813722 -5.08259 9.49047 194 201 217 
0.742858 -5.05281 9.52713 238 235 255 
0.711651 -5.04411 9.50589 235 232 255 
0.725073 -5.0182 9.52879 232 228 255 
0.747551 -4.99818 9.53011 6 4 41 
0.70079 -5.00355 9.52736 107 106 137 
0.704359 -4.9812 9.49615 225 226 247 
0.726323 -4.98188 9.5453 32 28 61 
0.734047 -5.11094 9.42117 193 199 215 
0.777011 -5.11286 9.47759 191 202 220 
0.814826 -5.09491 9.47451 22 26 55 
0.776062 -5.07492 9.50555 193 202 217 
0.722544 -5.0609 9.5061 33 30 59 
0.715568 -4.97631 9.52763 26 22 57 
0.721547 -4.96299 9.55242 198 199 220 
0.693921 -4.93355 9.51471 194 202 215 
0.716266 -4.96277 9.56602 192 200 221 
0.692185 -4.94368 9.50873 194 203 212 
0.706578 -5.06394 9.45965 193 200 216 
0.77139 -5.07044 9.52613 192 199 217 
0.725714 -4.96037 9.57594 192 202 214 
0.624276 -4.91337 9.49549 191 200 215 
0.714712 -4.95176 9.67412 192 201 216 
0.63724 -4.87536 9.62026 67 69 81 
0.732541 -5.00785 9.49864 8 2 40 
0.619061 -4.9137 9.45766 191 200 215 
0.618723 -4.88596 9.63988 66 66 74 
0.363927 -4.74773 9.85662 24 22 25 
0.748838 -5.15526 9.46669 47 47 75 
0.766005 -5.19242 9.57928 166 172 188 
0.672927 -5.12001 9.37841 63 71 84 
0.688811 -5.10901 9.42166 155 162 178 
0.765758 -5.11584 9.48264 203 200 227 
0.726115 -4.98514 9.48916 18 18 42 
0.69777 -4.9845 9.50357 216 217 235 
0.71268 -4.94348 9.5569 207 208 238 
0.658299 -4.92066 9.61735 43 38 68 
0.610328 -4.92688 9.64339 207 208 228 
0.779926 -5.27153 9.45954 200 208 219 
0.744588 -5.25659 9.53357 195 203 222 
0.784795 -5.21374 9.51171 199 206 222 
0.708922 -5.13559 9.5125 17 16 50 
0.751476 -5.08634 9.52839 197 204 222 
0.735228 -4.95269 9.53212 189 193 220 
0.671384 -4.967 9.54258 205 207 222 
0.678137 -4.94303 9.53545 188 198 210 
0.679559 -4.92921 9.56511 44 41 72 
0.645471 -4.93005 9.69085 193 200 218 
0.66759 -4.93508 9.74069 197 204 222 
0.764013 -4.70363 9.81325 32 29 36 
0.785396 -5.06028 9.48508 192 199 217 
0.746269 -4.94206 9.52389 193 199 225 
0.664422 -4.96143 9.54621 193 203 213 
0.670231 -4.93636 9.74775 203 208 228 
0.801292 -5.0469 9.47844 193 203 215 
0.733705 -4.95406 9.56496 196 201 220 
0.594074 -4.89451 9.54849 192 201 216 
0.759048 -4.83148 9.88266 56 51 58 
0.72817 -5.23261 9.43917 36 42 66 
0.770876 -4.98066 9.40754 20 23 54 
0.683311 -4.94442 9.68624 194 203 218 
0.647444 -4.85711 9.4655 192 201 216 
0.736761 -4.56362 9.5949 19 17 20 
0.733287 -5.0035 9.49175 10 9 40 
0.701131 -4.96255 9.69974 193 202 217 
0.49202 -4.60468 9.40506 190 200 212 
0.56199 -4.61689 9.54175 47 41 43 
0.879493 -4.30525 9.80106 188 198 210 
0.638652 -5.36236 9.62383 16 19 54 
0.640072 -5.24718 9.62381 45 44 84 
0.634273 -4.87785 9.63418 58 59 77 
0.640336 -4.86536 9.62426 64 66 79 
0.738608 -4.42533 9.79071 47 38 41 
0.676477 -4.93096 9.72986 187 194 212 
0.834093 -4.80648 9.78341 42 41 59 
0.727774 -4.76001 9.75468 96 92 91 
0.594676 -5.2865 9.69258 27 23 50 
0.845253 -4.69925 9.78207 184 194 206 
0.701637 -4.65928 9.77773 68 60 57 
0.665297 -4.88683 9.5642 41 42 72 
0.85348 -4.35138 9.62567 52 48 47 
0.675332 -5.2213 9.57437 34 31 60 
0.717361 -4.96798 9.5828 179 193 202 
0.918082 -4.73106 9.62232 39 33 47 
0.743477 -4.904 9.59225 182 192 204 
0.740938 -4.5643 9.58346 15 15 17 
0.676249 -5.22991 9.57503 35 32 61 
0.799213 -4.93344 9.59219 181 193 207 
1.02207 -3.95396 9.70057 183 192 207 
0.105316 -5.80252 10.4068 60 67 85 
0.687113 -4.93567 9.66911 191 201 213 
0.541939 -5.0141 9.96788 35 35 47 
0.696625 -4.82843 9.54797 67 69 81 
0.686995 -4.83418 9.55924 66 66 74 
0.79683 -5.18585 9.40507 45 47 88 
0.728096 -4.92968 9.53388 207 208 238 
0.784545 -5.21536 9.46601 195 203 222 
0.680628 -5.13648 9.50931 196 202 216 
0.735507 -4.95026 9.48666 7 5 42 
0.744058 -4.94473 9.51886 189 193 220 
0.767768 -5.15059 9.44474 34 31 62 
0.72768 -5.0369 9.48402 79 79 113 
0.75235 -4.93687 9.51552 193 199 225 
0.691353 -4.93692 9.505 193 203 213 
0.757981 -5.15817 9.45545 36 33 64 
0.692762 -5.05182 9.52535 21 24 55 
0.768047 -4.92426 9.51648 196 201 220 
0.491725 -4.83944 9.53801 101 104 119 
0.472942 -4.84405 9.57358 64 69 72 
0.664854 -4.84801 9.58782 92 90 104 
0.269794 -4.95467 9.83181 55 53 58 
0.590475 -4.92326 9.48428 193 202 217 
0.861508 -4.1165 10.1702 183 195 207 
0.754045 -4.10583 10.0836 184 194 206 
0.4749 -4.08652 10.4163 41 36 40 
0.149959 -3.35549 11.4973 31 29 30 
0.219732 -3.37549 9.37227 188 190 203 
0.880791 -4.6366 9.74076 189 199 209 
0.747123 -4.61636 9.69324 36 35 33 
0.86893 -4.12573 9.81239 186 194 205 
0.871907 -4.10604 9.82301 185 192 208 
0.131534 -2.99191 9.26231 177 185 196 
0.919881 -4.01645 9.83847 184 194 206 
-0.0594665 -2.54366 9.231 175 184 199 
0.520802 -5.235 9.56607 51 61 73 
0.536959 -5.22074 9.57559 191 201 213 
0.654318 -5.08936 9.57455 30 28 65 
0.631796 -4.87449 9.65318 58 59 77 
0.894759 -3.99807 9.90079 189 199 211 
0.629154 -4.92676 9.69762 214 217 234 
0.552851 -5.3116 9.65117 187 196 211 
0.533622 -4.94749 9.65851 181 193 207 
0.663475 -4.94789 9.69979 186 193 211 
0.727565 -4.88821 9.71308 82 82 92 
0.834082 -4.69577 9.77351 182 190 203 
0.690545 -4.96372 9.70703 184 193 208 
0.221261 -3.5084 9.55917 63 58 54 
0.717089 -4.96483 9.58243 179 193 202 
0.606401 -4.89523 9.56023 178 192 205 
-0.381683 -6.09927 11.2376 181 189 210 
3.5714 -3.085 5.36199 44 51 79 
3.1911 -3.35102 5.90501 198 205 221 
0.417971 -5.14134 9.97359 200 202 223 
0.679516 -5.00305 9.58108 39 35 68 
0.587323 -5.05235 9.74092 204 206 219 
2.5711 -3.40872 6.59767 39 37 50 
0.368499 -5.21808 10.0232 43 39 74 
0.54136 -5.08085 9.81412 200 202 215 
1.64056 -4.26216 8.2605 195 200 219 
2.66177 -3.79214 6.76743 33 28 60 
-0.532983 -5.81437 11.3714 201 203 215 
0.759424 -4.8879 9.56633 196 205 220 
0.698775 -4.83331 9.40962 197 207 219 
-9080.62 -6145.48 13099.2 196 203 221 
-3.06485 -7.21575 15.5886 199 202 219 
1.37863 -1.76304 7.15907 46 46 46 
0.493863 -5.16781 9.83085 39 32 73 
-4.92503 -8.41811 18.4008 195 202 218 
-3.84558 -7.08786 16.7875 186 198 212 
-2.81965 -6.31089 15.1399 71 70 78 
1.9075 -3.39165 7.54704 61 58 69 
0.783084 -1.45792 7.78903 36 36 38 
1.19367 -2.78319 8.12435 55 51 50 
0.754281 -4.94174 9.47455 35 31 68 
0.759714 -4.9787 9.49888 0 0 30 
0.790563 -4.95934 9.42721 8 2 40 
0.679417 -4.86926 9.38979 191 200 215 
0.719427 -5.19082 9.42582 195 204 219 
0.839865 -5.04742 9.3742 203 200 227 
0.590844 -4.94501 9.67507 207 208 228 
0.895955 -4.65983 9.65726 9 2 18 
0.762378 -5.22562 9.39014 201 208 224 
0.8046 -5.03787 9.45094 197 204 222 
0.893434 -4.68131 9.70659 197 198 218 
0.565359 -4.44932 9.6456 200 196 210 
0.555326 -4.55256 9.35858 192 201 218 
0.729409 -5.04753 9.45069 201 207 229 
0.816887 -4.65577 9.72539 47 45 48 
0.603409 -4.88969 9.54394 192 201 216 
0.488898 -4.6276 9.4278 187 199 215 
0.715342 -4.48927 9.40555 20 19 27 
0.598551 -4.39897 9.51168 29 26 33 
0.728585 -4.57173 9.61102 19 17 20 
0.525239 -4.97578 9.61349 192 201 216 
0.888364 -4.64196 9.72869 191 201 213 
0.774823 -4.86603 9.62666 194 204 216 
0.479518 -4.62328 9.43675 190 196 210 
0.351819 -3.95136 9.55558 56 52 66 
0.318864 -4.10947 9.58031 183 193 205 
0.90322 -4.11312 9.82496 184 194 206 
0.864481 -4.14549 9.87514 189 199 211 
0.615856 -5.35601 9.72452 193 196 215 
0.612513 -5.00616 9.69777 208 211 230 
0.602287 -4.95831 9.69158 39 38 69 
0.87726 -4.12676 9.8656 182 191 206 
0.897664 -4.08773 9.85374 182 191 206 
0.929758 -4.67929 9.64051 202 205 222 
0.736395 -4.40115 9.60873 201 206 210 
0.614068 -4.49926 9.56853 182 189 207 
0.614743 -4.40699 9.57738 179 185 199 
0.57599 -4.39819 9.57078 31 29 34 
0.615989 -4.48661 9.56801 178 190 204 
0.559934 -4.40931 9.56345 30 28 31 
0.61698 -4.4152 9.5745 183 193 203 
0.742062 -4.56694 9.5901 15 15 17 
0.771602 -4.90503 9.5749 182 192 204 
-0.439733 -1.52142 9.42248 41 40 45 
0.755382 -4.90873 9.4947 216 221 243 
0.657818 -5.10581 9.56452 201 206 228 
0.302579 -5.24423 10.1465 203 210 228 
2.11092 -3.96851 7.51726 208 214 236 
0.905341 -4.67056 9.68881 207 210 229 
-1.06442 -6.30929 11.9829 203 210 229 
0.307586 -4.56453 9.90926 29 27 30 
1.77147 -4.38189 8.06944 43 47 82 
-36.6263 -30.9774 62.1789 21 19 56 
0.859259 -4.47314 9.42605 25 21 22 
6.35286 -1.0998 1.53439 200 212 226 
2.86389 -3.20665 6.40263 23 22 27 
4.31537 -2.38074 4.31046 62 59 68 
0.804934 -4.68721 9.85547 201 213 227 
-2.05915 -4.6919 12.2162 197 209 223 
-0.995556 -4.04179 13.0499 77 74 67 
-1.61451 -6.9871 12.8391 24 24 74 
-0.993335 -6.34261 11.9854 228 237 254 
-3.13707 -7.64562 15.0152 196 193 224 
-1.85913 -6.69162 13.1748 15 12 65 
-1.24073 -6.26608 12.3366 216 221 243 
-1.54105 -6.38816 12.74 48 42 88 
0.991331 -4.67565 9.10549 228 236 255 
-1.6783 -7.03683 13.0048 201 210 225 
-0.399876 -6.04625 11.0647 211 213 236 
-0.978947 -6.4917 11.9443 26 29 74 
0.0769246 -5.55658 10.3604 199 208 225 
-2.19101 -7.19324 13.6246 32 35 78 
-0.896367 -6.23882 11.8274 19 13 57 
0.676184 -5.01985 9.56141 39 39 75 
-0.786678 -5.98951 11.7 203 210 228 
-1.16367 -6.20969 12.1354 205 215 227 
-2.17892 -6.8677 13.5719 208 214 236 
-1.49769 -6.2976 12.5299 205 214 229 
-12.9858 -13.9232 30.473 32 27 57 
