ply                 
format ascii 1.0    
element vertex 234
property float x    
property float y    
property float z    
property uchar red  
property uchar green
property uchar blue 
end_header          
-0.212998 -0.839161 2.6283 40 48 67 
-0.226313 -0.819858 2.6238 168 179 199 
-0.206023 -0.800886 2.62806 145 152 168 
-0.225341 -0.448377 2.5159 35 30 24 
-0.175644 -0.444223 2.52424 104 100 97 
-0.225858 -0.375303 2.48926 22 19 14 
-0.177027 -0.349344 2.48961 126 122 119 
-0.146034 -0.340933 2.49218 102 97 93 
-0.0919097 -0.361585 2.57789 205 203 214 
-0.175784 -0.291319 2.46883 124 121 116 
-0.19554 -0.286677 2.46456 112 108 105 
-0.184963 -0.281483 2.46387 93 89 86 
-0.221755 -0.27868 2.45457 115 111 110 
-0.167242 -0.281583 2.46741 78 75 70 
-0.148022 -0.272792 2.46698 99 96 91 
-0.247499 -0.15517 2.40607 70 67 62 
-0.139732 -0.154024 2.4242 33 29 28 
-0.21944 -0.0597606 2.37799 104 103 101 
-0.130997 -0.0568047 2.39428 44 43 41 
-0.215198 -0.0445154 2.37143 110 107 102 
-0.196596 -0.0375733 2.37197 117 113 110 
-0.163277 -0.0174052 2.36636 37 34 25 
-0.14415 -0.000510624 2.36157 42 37 33 
-0.182228 0.00357045 2.35135 116 113 108 
-0.251667 0.0727959 2.3433 1 0 0 
-0.204571 0.0723873 2.33982 1 0 0 
-0.212397 0.0799614 2.33858 118 114 113 
-0.224791 0.152966 2.34782 96 94 95 
-0.323625 0.409314 2.37621 109 108 103 
0.274168 0.883993 3.0866 94 95 81 
-0.350112 0.615725 2.37461 5 5 17 
-0.334984 0.61335 2.36387 8 9 27 
-0.317293 0.61272 2.34949 9 10 30 
-0.315224 0.616699 2.34773 121 120 134 
-0.345997 0.632595 2.37255 164 165 170 
-0.327208 0.626052 2.35495 3 7 18 
-0.329273 0.62896 2.36068 17 17 27 
-0.327767 0.634852 2.35776 127 128 132 
-0.33075 0.636388 2.35912 4 5 7 
-0.32806 0.639014 2.35757 134 134 136 
-0.332399 0.658689 2.36131 75 75 77 
0.289017 0.939429 2.97534 130 134 120 
-0.360655 0.673439 2.37318 151 134 90 
0.449082 0.929414 2.80193 84 84 76 
-0.166269 0.719547 2.29438 73 72 70 
-0.216757 -0.833822 2.62679 176 186 196 
-0.222534 -0.817755 2.62401 183 191 210 
-0.207605 -0.795884 2.62624 194 194 218 
-0.209035 -0.766695 2.62963 19 18 49 
-0.184579 -0.448131 2.52387 36 32 31 
-0.0644234 -0.274706 2.5042 187 195 206 
-0.156821 -0.220691 2.44546 101 98 91 
-0.221073 -0.179325 2.419 99 95 94 
-0.126472 -0.180049 2.43724 93 89 86 
-0.262573 -0.156288 2.415 93 89 86 
-0.133291 -0.153878 2.42413 36 33 28 
-0.252545 -0.146455 2.40376 29 25 24 
-0.224414 -0.132336 2.39829 30 29 24 
-0.22744 -0.128873 2.39896 78 77 72 
-0.190223 -0.0855826 2.39128 102 101 99 
-0.162937 -0.0867352 2.39737 84 83 79 
-0.189869 -0.0737112 2.38804 93 92 90 
-0.222405 -0.0462574 2.37462 101 98 89 
-0.211744 -0.0421925 2.37031 43 40 33 
-0.103075 -0.0328741 2.387 103 101 102 
-0.207438 -0.013644 2.35313 86 82 79 
-0.158579 0.0188816 2.34935 108 104 95 
-0.329076 0.124054 2.37922 44 44 46 
-0.0662337 0.286913 2.37403 83 82 80 
-0.348982 0.588009 2.36255 14 12 13 
-0.350368 0.60981 2.37642 81 82 86 
-0.321147 0.611338 2.35378 116 117 137 
-0.340048 0.618437 2.36924 80 81 101 
0.454807 0.896952 2.98971 64 64 56 
-0.346912 0.657848 2.37321 81 81 83 
-0.35834 0.66863 2.37433 141 102 35 
0.442433 0.932027 2.80796 147 165 167 
-0.321723 0.713156 2.35155 7 6 14 
-0.348682 0.727853 2.37574 82 82 82 
-0.206132 -0.772005 2.62684 187 193 209 
-0.170376 -0.730821 2.61741 42 41 59 
-0.144238 -0.281419 2.4698 29 25 22 
-0.0523846 -0.248237 2.52429 52 49 56 
-0.220979 -0.179384 2.41951 99 95 94 
-0.132458 -0.153948 2.42407 35 32 27 
-0.252924 -0.145974 2.40192 36 32 29 
-0.189618 -0.144401 2.4122 67 66 64 
-0.212054 -0.138672 2.40558 113 109 106 
-0.13851 0.0468701 2.35095 74 68 68 
-0.348955 0.0700502 2.39195 84 80 81 
-0.200605 0.0762475 2.33946 67 65 66 
-0.200198 0.0790218 2.33839 76 74 75 
-0.117953 0.122244 2.36762 57 55 56 
-0.329548 0.124445 2.37862 52 52 54 
-0.427254 0.139031 2.56456 28 30 29 
-0.225196 0.152734 2.34758 88 86 87 
-0.0792735 0.166528 2.38203 71 71 71 
-0.348392 0.590179 2.36677 13 11 12 
-0.323254 0.585693 2.34068 18 14 13 
-0.316538 0.603883 2.3493 65 63 76 
-0.348925 0.617586 2.37251 123 121 135 
-0.309956 0.613188 2.34739 9 10 15 
-0.270273 0.606433 2.31724 91 90 88 
-0.344071 0.660516 2.37004 115 113 114 
-0.35563 0.668563 2.37005 114 70 9 
-0.0614034 -0.268854 2.51345 68 69 61 
-0.263844 -0.203012 2.4229 14 13 11 
-0.199416 0.0779781 2.33931 81 79 80 
-0.333685 0.112469 2.37827 75 75 75 
-0.308232 0.616197 2.35034 12 11 16 
0.443836 0.931788 2.80694 148 168 179 
-0.217143 -0.708609 2.58547 96 92 89 
-0.104504 -0.401941 2.58146 191 193 205 
-0.240853 -0.338099 2.47927 99 95 94 
-0.262398 -0.20225 2.42266 11 11 9 
-0.358178 0.604753 2.37738 13 11 12 
-0.307784 0.614921 2.34216 12 10 13 
-0.317064 0.784781 2.26051 74 71 62 
-0.225734 -0.774064 2.64959 187 196 211 
-0.249201 -0.71366 2.63272 185 191 207 
-0.212021 -0.815914 2.62815 27 23 50 
-0.253745 -0.615717 2.62612 183 193 205 
-0.0554652 -0.224686 2.53008 33 33 35 
-0.031007 -0.133001 2.55269 74 73 69 
-0.381244 -8.68507 17.4983 146 155 170 
-0.462506 -8.58996 17.4758 165 173 196 
-0.434574 -8.50936 17.4915 198 203 222 
-0.135412 -3.35139 15.7747 103 102 98 
0.31981 -3.28658 15.8194 48 45 40 
0.302206 -3.25196 15.793 119 115 112 
0.173443 -3.20432 15.7597 92 88 85 
0.368283 -2.85712 15.6358 109 106 101 
0.660335 -2.34396 15.6013 102 100 101 
-0.412695 -2.2951 15.3032 120 116 115 
0.0296752 -2.20326 15.3391 118 114 113 
-0.0661531 -2.0401 15.2556 105 102 97 
-0.0568681 -1.71214 15.1316 81 77 74 
0.396294 -1.49598 15.1269 105 102 95 
0.391477 -1.17859 15.0297 92 88 87 
0.574468 -0.826907 14.9033 113 112 108 
0.0374459 -0.712893 14.7487 64 61 56 
0.414014 -0.661687 14.7876 34 30 21 
0.233654 -0.603962 14.7211 114 111 102 
0.116493 -0.423465 14.6085 106 103 94 
-0.001702 -0.387171 14.5487 40 37 28 
-1.77133 6.13058 14.7777 125 114 84 
0.126174 6.54071 13.9248 101 97 96 
0.645702 6.86353 14.0335 138 134 135 
1.16373 7.12186 14.0091 128 127 123 
-0.367618 -8.72684 17.5024 186 196 208 
-0.323088 -8.64313 17.4899 0 1 36 
-0.374098 -5.5849 16.5944 30 26 25 
0.561254 -3.61335 16.2519 48 43 40 
-1.56184 -2.86633 15.8873 66 64 75 
0.767021 -2.46612 15.5843 28 28 18 
0.391142 -2.40915 15.4749 36 32 29 
-0.589297 -2.37703 15.3135 88 84 81 
-0.612259 -2.20649 15.2486 89 85 82 
0.133505 -1.66621 15.1449 41 37 34 
1.0389 -1.48482 15.6735 87 86 84 
0.200494 -0.63128 14.7248 51 48 39 
0.0269534 -0.285531 14.4958 50 47 40 
0.12319 -0.00170568 14.4836 57 55 56 
-1.57487 0.489807 14.9162 65 63 64 
-1.70905 5.33864 14.728 69 67 68 
-1.38436 5.5186 14.5651 130 132 153 
3.32937 8.57906 19.9765 88 89 73 
0.158065 7.19855 13.5988 112 111 109 
-0.250679 -8.54825 17.4277 191 201 213 
-0.273622 -8.49351 17.5348 193 198 218 
-1.51252 -2.91528 15.8301 171 181 193 
0.490726 -2.63469 15.585 84 81 76 
0.509032 -2.49749 15.515 86 83 78 
-0.323005 -2.00677 15.1959 69 65 66 
0.128277 -0.595694 14.7004 106 103 94 
0.547435 0.740628 14.6114 64 64 64 
0.595508 0.740978 14.6397 58 58 58 
1.0265 2.32218 14.7171 85 84 82 
-1.71533 6.03768 14.8152 17 7 8 
1.88752 7.2161 14.9587 104 101 94 
1.07727 7.07239 14.2318 104 101 96 
-1.22432 7.3064 13.3831 76 75 71 
-0.986387 7.63275 12.4351 91 89 76 
-0.842921 -2.0453 15.2811 25 25 15 
0.580992 0.608585 14.5918 63 63 61 
-0.0814792 -7.95335 17.6561 188 195 211 
-0.371433 -7.48492 17.0932 94 90 89 
-0.0202601 -7.38618 17.1431 25 23 24 
1.21246 -2.68645 16.2772 29 29 29 
-0.500608 -7.45045 17.3693 27 25 28 
-1.62174 -2.25377 16.2274 55 51 48 
7.93252 -1.77884 -75.0925 80 86 98 
8.07067 -1.96015 -75.1022 64 72 83 
6.77791 -2.19212 -75.2407 172 182 192 
6.95017 -2.2235 -75.4832 78 88 98 
3.47342 -2.4585 -75.468 195 203 214 
2.4703 -2.54367 -75.6595 170 178 191 
-0.568454 -2.64353 -75.2898 98 107 116 
-0.421633 -2.73716 -75.1627 162 171 180 
-0.705268 -2.75234 -74.9728 164 173 182 
1.90885 -6.58155 -90.3553 146 154 165 
0.258713 -6.59388 -88.6694 61 65 76 
43.6493 391.327 2327.35 132 134 146 
7.7683 -1.65854 -75.3849 80 86 98 
7.33052 -1.69777 -75.4591 76 82 96 
4.08528 -2.45421 -76.3736 125 138 146 
2.87858 -2.52498 -76.602 162 170 181 
0.793664 -2.6305 -75.7702 183 192 201 
-2.30272 -2.60507 -74.4955 87 95 106 
0.0852155 -6.47586 -88.3524 86 90 101 
1.65502 -6.66024 -90.2751 125 131 145 
1.23068 -6.64246 -89.8187 136 135 149 
0.474684 -6.56006 -88.8444 117 121 132 
-14.9823 -38.9332 -256.116 96 100 111 
59.1952 710.697 4160.57 48 50 62 
213.833 1304.33 7447.54 124 124 132 
7.78922 -1.69036 -75.5296 81 89 100 
7.34454 -1.72757 -75.5128 82 88 102 
3.91581 -2.13199 -76.5612 82 92 102 
6.64031 -2.14539 -74.7042 176 185 194 
0.78658 -2.60771 -75.3472 165 174 183 
1.67568 -6.73401 -90.5398 120 128 141 
1.17489 -6.65753 -89.787 120 119 133 
-0.331418 -6.57656 -88.6445 117 121 132 
35.8871 304.779 1787.69 37 40 49 
66.678 772.201 4504.76 47 49 61 
345.514 1815.24 10540.3 122 122 132 
3.5092 -2.37089 -76.0804 135 145 155 
5303.49 57646.6 334869 49 52 59 
0.683622 -2.37451 -75.1287 164 172 183 
-0.411064 -4.08393 -79.0133 247 254 255 
-0.277969 -6.68868 -89.1528 131 133 145 
0.763269 -2.12246 -75.4639 176 180 192 
-10.8538 -67.7608 -429.257 79 81 93 
