ply                 
format ascii 1.0    
element vertex 686
property float x    
property float y    
property float z    
property uchar red  
property uchar green
property uchar blue 
end_header          
-0.0562592 -6.47722 10.7458 40 48 67 
-0.149403 -6.33963 10.7148 168 179 199 
-0.00482547 -6.20684 10.7498 145 152 168 
-0.113257 -3.69763 9.9903 35 30 24 
0.239415 -3.67131 10.056 104 100 97 
-0.110625 -3.17667 9.8087 22 19 14 
0.237865 -2.99477 9.81981 126 122 119 
0.458458 -2.93677 9.84271 102 97 93 
0.833969 -3.09389 10.4602 205 203 214 
0.251731 -2.58099 9.67841 124 121 116 
0.111877 -2.54671 9.64628 112 108 105 
0.187432 -2.51026 9.6431 93 89 86 
-0.0731543 -2.4878 9.57284 115 111 110 
0.313121 -2.51213 9.67046 78 75 70 
0.450338 -2.45056 9.67057 99 96 91 
-0.245273 -1.60495 9.23809 70 67 62 
0.519706 -1.60336 9.3799 33 29 28 
-0.0381 -0.925579 9.05175 104 103 101 
0.589887 -0.909965 9.17863 44 43 41 
-0.00649531 -0.81681 9.00703 110 107 102 
0.126182 -0.768331 9.0138 117 113 110 
0.364918 -0.625949 8.97985 37 34 25 
0.502421 -0.506245 8.94976 42 37 33 
0.232594 -0.474651 8.87273 116 113 108 
-0.25748 0.021911 8.81579 1 0 0 
0.0781481 0.0170994 8.796 1 0 0 
0.0229316 0.0714799 8.7872 118 114 113 
-0.0626987 0.591416 8.86083 96 94 95 
-0.757941 2.4231 9.08468 109 108 103 
3.48224 5.77199 14.3511 94 95 81 
-0.937401 3.90041 9.09546 5 5 17 
-0.828366 3.88327 9.01965 8 9 27 
-0.700587 3.87871 8.91823 9 10 30 
-0.685455 3.90719 8.9063 121 120 134 
-0.90705 4.02109 9.0831 164 165 170 
-0.771333 3.97429 8.95796 3 7 18 
-0.786553 3.99492 8.99924 17 17 27 
-0.775223 4.03717 8.97913 127 128 132 
-0.796589 4.04822 8.98875 4 5 7 
-0.777099 4.06699 8.97826 134 134 136 
-0.807583 4.20786 9.00704 75 75 77 
3.60212 6.17596 13.5545 130 134 120 
-1.00993 4.31416 9.09104 151 134 90 
4.76693 6.10587 12.32 84 84 76 
0.388452 4.64001 8.55275 73 72 70 
-0.0825328 -6.43912 10.7353 176 186 196 
-0.122488 -6.32494 10.717 183 191 210 
-0.0156281 -6.17118 10.7373 194 194 218 
-0.0246924 -5.96506 10.7653 19 18 49 
0.175729 -3.69857 10.0518 36 32 31 
1.04141 -2.47148 9.94641 187 195 206 
0.392559 -2.07815 9.52198 101 98 91 
-0.059786 -1.77894 9.33058 99 95 94 
0.611424 -1.79007 9.47156 93 89 86 
-0.353499 -1.61295 9.30029 93 89 86 
0.565558 -1.60262 9.38015 36 33 28 
-0.280515 -1.54259 9.22212 29 25 24 
-0.079128 -1.44307 9.18771 30 29 24 
-0.100559 -1.41836 9.1926 78 77 72 
0.167178 -1.11165 9.14698 102 101 99 
0.360697 -1.12162 9.19349 84 83 79 
0.17062 -1.02698 9.12526 93 92 90 
-0.0581928 -0.829125 9.02891 101 98 89 
0.0183192 -0.800358 8.99969 43 40 33 
0.790644 -0.740438 9.13268 103 101 102 
0.0521302 -0.596112 8.88059 86 82 79 
0.401919 -0.366628 8.86296 108 104 95 
-0.810074 0.387933 9.07103 44 44 46 
1.07161 1.53783 9.08342 83 82 80 
-0.92927 3.70262 9.00555 14 12 13 
-0.939694 3.85798 9.10771 81 82 86 
-0.728615 3.86879 8.94846 116 117 137 
-0.864861 3.91965 9.05828 80 81 101 
4.79104 5.86367 13.6758 64 64 56 
-0.912515 4.2019 9.09081 81 81 83 
-0.993744 4.27955 9.09893 141 102 35 
4.7188 6.12463 12.363 147 165 167 
-0.727824 4.59796 8.94473 7 6 14 
-0.922278 4.70334 9.11739 82 82 82 
-0.00404989 -6.00241 10.7449 187 193 209 
0.252972 -5.71169 10.6867 42 41 59 
0.476524 -2.51226 9.69011 29 25 22 
1.1266 -2.28574 10.0951 52 49 56 
-0.059177 -1.77941 9.33424 99 95 94 
0.571483 -1.60315 9.37979 35 32 27 
-0.282997 -1.53899 9.20891 36 32 29 
0.166426 -1.53161 9.2896 67 66 64 
0.00774638 -1.48929 9.24044 113 109 106 
0.546081 -0.168446 8.88016 74 68 68 
-0.955439 0.00321818 9.15364 84 80 81 
0.106615 0.0444292 8.79436 67 65 66 
0.10976 0.0642446 8.78706 76 74 75 
0.694769 0.366232 9.01117 57 55 56 
-0.813356 0.390786 9.06671 52 52 54 
-1.52946 0.486004 10.393 28 30 29 
-0.0655668 0.589803 8.85904 88 86 87 
0.971337 0.679091 9.12437 71 71 71 
-0.925421 3.71787 9.03617 13 11 12 
-0.743419 3.68601 8.85102 18 14 13 
-0.695587 3.81544 8.91583 65 63 76 
-0.928622 3.91377 9.08068 123 121 135 
-0.647978 3.88185 8.904 9 10 15 
-0.361913 3.83332 8.69117 91 90 88 
-0.891772 4.22103 9.0687 115 113 114 
-0.97393 4.27919 9.06851 114 70 9 
1.06233 -2.43086 10.0138 68 69 61 
-0.365589 -1.94561 9.35095 14 13 11 
0.115179 0.0567087 8.79365 81 79 80 
-0.843322 0.305673 9.0624 75 75 75 
-0.635851 3.90317 8.92578 12 11 16 
4.72897 6.12293 12.3558 148 168 179 
-0.0748852 -5.54881 10.4559 96 92 89 
0.741869 -3.38016 10.4792 191 193 205 
-0.214414 -2.91101 9.74029 99 95 94 
-0.355239 -1.94023 9.34952 11 11 9 
-0.995765 3.82209 9.11315 13 11 12 
-0.63184 3.89441 8.86688 12 10 13 
-0.681507 5.11488 8.29987 74 71 62 
-0.145734 -6.01858 10.9054 187 196 211 
-0.30778 -5.58825 10.7902 185 191 207 
-0.0481655 -6.31287 10.7479 27 23 50 
-0.334703 -4.89366 10.7552 183 193 205 
1.10542 -2.11872 10.1394 33 33 35 
1.28248 -1.46968 10.316 74 73 69 
-0.0799994 -6.18711 10.326 146 155 170 
-0.13548 -6.1211 10.3107 165 173 196 
-0.115944 -6.06568 10.3224 198 203 222 
0.132355 -2.50136 9.22306 103 102 98 
0.448208 -2.45912 9.25995 48 45 40 
0.436428 -2.43493 9.24224 119 115 112 
0.34761 -2.40108 9.21857 92 88 85 
0.48588 -2.16093 9.14084 109 106 101 
0.691678 -1.80629 9.12619 102 100 101 
-0.0505452 -1.76517 8.91084 120 116 115 
0.256881 -1.70408 8.94229 118 114 113 
0.191914 -1.58987 8.88609 105 102 97 
0.20119 -1.36153 8.80553 81 77 74 
0.517377 -1.21382 8.81045 105 102 95 
0.516618 -0.99268 8.7477 92 88 87 
0.647009 -0.748438 8.66777 113 112 108 
0.275475 -0.665301 8.5572 64 61 56 
0.53739 -0.631967 8.58902 34 30 21 
0.412834 -0.590425 8.54217 114 111 102 
0.333318 -0.463491 8.46599 106 103 94 
0.251816 -0.437208 8.4242 40 37 28 
-0.95069 4.11126 8.61625 125 114 84 
0.381524 4.40247 8.06913 101 97 96 
0.7448 4.62376 8.15247 138 134 135 
1.10815 4.80149 8.14369 128 127 123 
-0.0708247 -6.21598 10.3284 186 196 208 
-0.0395563 -6.15864 10.3216 0 1 36 
-0.0517335 -4.04791 9.75003 30 26 25 
0.609658 -2.68812 9.55151 48 43 40 
-0.855421 -2.15663 9.28136 66 64 75 
0.765358 -1.89157 9.11472 28 28 18 
0.505649 -1.84958 9.03678 36 32 29 
-0.173687 -1.82106 8.91438 88 84 81 
-0.188219 -1.70224 8.87176 89 85 82 
0.333629 -1.33075 8.81753 41 37 34 
0.95828 -1.21227 9.18789 87 86 84 
0.389583 -0.609272 8.54397 51 48 39 
0.272791 -0.366278 8.38967 50 47 40 
0.341322 -0.169129 8.38547 57 55 56 
-0.841133 0.178911 8.65727 65 63 64 
-0.910589 3.55906 8.57557 69 67 68 
-0.68255 3.68571 8.47239 130 132 153 
2.54503 5.70424 12.1982 88 89 73 
0.410393 4.86752 7.85356 112 111 109 
0.0115414 -6.0938 10.2817 191 201 213 
-0.00507225 -6.05564 10.3539 193 198 218 
-0.821021 -2.19067 9.24307 171 181 193 
0.572562 -2.00708 9.11022 84 81 76 
0.586697 -1.91169 9.0645 86 83 78 
0.0141704 -1.565 8.84235 69 65 66 
0.339745 -0.583971 8.52679 106 103 94 
0.639166 0.344552 8.48492 64 64 64 
0.67235 0.344318 8.50469 58 58 58 
0.979775 1.44276 8.57759 85 84 82 
-0.912457 4.04573 8.64174 17 7 8 
1.60239 4.84768 8.79681 104 101 94 
1.04501 4.76411 8.29401 104 101 96 
-0.552609 4.95211 7.68765 76 75 71 
-0.376536 5.19492 7.04633 91 89 76 
-0.347911 -1.5891 8.89177 25 25 15 
0.66208 0.252567 8.47071 63 63 61 
0.12916 -5.68407 10.4433 188 195 211 
-0.0636873 -5.3603 10.0663 94 90 89 
0.179205 -5.29418 10.1056 25 23 24 
1.06589 -2.04931 9.58517 29 29 29 
-0.155377 -5.33521 10.2502 27 25 28 
-0.896829 -1.73308 9.51601 55 51 48 
11.1088 -1.483 -104.004 80 86 98 
11.2928 -1.73074 -103.992 64 72 83 
9.54327 -2.0344 -104.316 172 182 192 
9.78416 -2.07546 -104.647 78 88 98 
5.05691 -2.36936 -105 195 203 214 
3.69328 -2.47571 -105.384 170 178 191 
-0.474758 -2.59459 -105.211 98 107 116 
-0.277302 -2.72534 -105 162 171 180 
-0.670963 -2.74626 -104.752 164 173 182 
3.2947 -7.8926 -127.262 146 154 165 
0.963202 -7.91298 -124.889 61 65 76 
1.35008 149.738 949.346 132 134 146 
10.8989 -1.31408 -104.456 80 86 98 
10.3078 -1.36286 -104.608 76 82 96 
5.91806 -2.35745 -106.268 125 138 146 
4.27838 -2.44239 -106.742 162 170 181 
1.40392 -2.58093 -105.748 183 192 201 
-2.87524 -2.539 -104.276 87 95 106 
0.715849 -7.75174 -124.445 86 90 101 
2.93985 -8.00028 -127.155 125 131 145 
2.34002 -7.9779 -126.531 136 135 149 
1.26737 -7.86656 -125.14 117 121 132 
-19.5276 -60.1362 -428.242 96 100 111 
-3.18751 177.556 1106.93 48 50 62 
14.4365 202.036 1227.78 124 124 132 
10.9318 -1.35571 -104.664 81 89 100 
10.3281 -1.40287 -104.683 82 88 102 
5.69674 -1.91348 -106.577 82 92 102 
9.33886 -1.97617 -103.543 176 185 194 
1.3835 -2.55472 -105.13 165 174 183 
2.97536 -8.10158 -127.563 120 128 141 
2.26161 -7.99833 -126.482 120 119 133 
0.144795 -7.88834 -124.946 117 121 132 
2.2685 138.927 867.827 37 40 49 
-2.56699 181.227 1125.66 47 49 61 
20.1802 205.724 1273.11 122 122 132 
5.12499 -2.24266 -105.903 135 145 155 
-1.39567 226.867 1403.32 49 52 59 
1.23921 -2.2374 -104.829 164 172 183 
-0.180911 -4.53071 -110.631 247 254 255 
0.230646 -8.03999 -125.696 131 133 145 
1.35942 -1.88893 -105.327 176 180 192 
-9.78553 -131.546 -895.815 79 81 93 
-0.0247666 -6.17145 10.2551 21 26 56 
0.0205873 -6.13129 10.2597 151 160 175 
-0.112418 -6.07202 10.2208 156 164 187 
0.097674 -6.07439 10.2894 189 196 212 
0.121509 -6.04764 10.2794 57 63 87 
-0.145513 -6.0642 10.2432 197 205 224 
0.0349233 -6.04642 10.2679 16 17 45 
-0.0955496 -6.02194 10.2428 203 206 221 
-0.0391991 -5.91968 10.2564 210 212 233 
-0.0793784 -5.61373 10.2438 46 52 68 
0.215503 -5.41504 10.4158 198 201 216 
-0.228991 -4.77612 10.151 35 32 39 
-0.404108 -4.11434 10.0107 197 200 215 
0.168892 -3.9553 9.76357 105 101 98 
-0.498572 -3.73844 9.94075 188 190 203 
0.341494 -3.57457 9.6789 104 103 99 
-0.106984 -3.56277 9.59262 50 47 42 
0.238287 -3.52864 9.61981 104 101 92 
0.370207 -3.53904 9.71947 103 102 100 
0.259827 -3.51404 9.6218 56 53 48 
0.41569 -3.54509 9.79377 109 108 106 
-0.487214 -3.61609 9.8803 48 47 53 
0.381838 -3.44365 9.66266 113 109 108 
0.434377 -3.394 9.74812 108 104 101 
0.394804 -3.35316 9.66517 102 101 97 
0.499676 -3.37844 9.78775 118 114 111 
-0.106068 -3.06189 9.41932 22 18 15 
0.628804 -3.05723 9.81506 112 108 107 
0.50303 -2.89163 9.55266 114 111 106 
0.443984 -2.82589 9.42356 68 67 62 
0.434239 -2.80228 9.40178 32 28 25 
0.531576 -2.8272 9.54302 143 139 136 
0.478921 -2.771 9.43234 123 119 116 
0.499745 -2.7584 9.43813 39 36 31 
0.519755 -2.75424 9.48482 111 106 103 
0.485956 -2.73932 9.4186 92 89 84 
0.641338 -2.77489 9.69185 98 94 93 
0.585303 -2.745 9.56426 8 7 5 
0.727859 -2.78008 9.8003 115 114 112 
0.499235 -2.6675 9.39569 123 119 116 
0.547272 -2.67235 9.46322 120 116 113 
0.626406 -2.69031 9.60126 107 103 102 
0.587027 -2.61955 9.4831 112 108 105 
0.718438 -2.62311 9.67812 87 86 84 
0.590848 -2.57464 9.46381 112 111 109 
0.125401 -2.50763 9.25044 129 125 122 
0.23942 -2.48696 9.28064 117 114 105 
0.29214 -2.46584 9.27787 59 56 51 
0.330949 -2.46492 9.28433 39 38 33 
0.650878 -2.48618 9.50526 99 98 96 
0.104665 -2.4534 9.2514 110 110 108 
0.314414 -2.43628 9.28624 41 40 35 
0.286234 -2.42848 9.25083 53 50 45 
0.314854 -2.39971 9.25951 39 35 34 
-0.0763555 -2.40025 9.19784 116 111 107 
0.288552 -2.38179 9.25499 112 108 105 
0.445332 -2.31652 9.24256 116 111 105 
-0.717176 -2.36626 9.25553 56 54 59 
0.890374 -1.89413 9.3279 87 82 78 
0.988817 -1.90096 9.4801 91 82 83 
0.681044 -1.81657 9.17841 100 100 98 
-0.146521 -1.80396 8.98992 21 17 14 
-0.0735107 -1.7796 8.99226 110 109 105 
0.240748 -1.71547 9.00678 130 129 125 
0.172298 -1.60193 8.96215 108 105 100 
0.897395 -1.63409 9.36624 104 92 92 
0.496292 -1.54475 8.97647 30 27 22 
0.510221 -1.53223 8.9907 107 104 99 
0.633206 -1.52957 9.01038 104 101 96 
0.385817 -1.52341 8.97044 103 100 95 
-0.00862441 -1.44266 8.89438 128 127 125 
0.625068 -1.39326 8.95822 32 27 24 
0.418463 -1.2464 8.8973 87 86 84 
0.500635 -1.22335 8.88426 123 119 116 
0.675046 -1.20997 8.91332 42 39 34 
0.624628 -1.18413 8.87962 112 108 105 
0.609561 -1.1698 8.86391 46 43 36 
0.539628 -1.10652 8.86459 13 10 3 
1.00117 -1.08859 9.26359 131 127 126 
0.915235 -1.02629 9.07796 104 102 103 
0.899328 -0.911264 9.01688 108 107 105 
-0.0553671 -0.89618 8.71359 116 110 112 
0.558606 -0.878396 8.78731 45 44 40 
0.760497 -0.816444 8.80231 128 126 127 
-0.095463 -0.81468 8.68586 29 24 21 
-0.0237486 -0.789526 8.66798 113 110 101 
-0.00648356 -0.768452 8.66481 51 48 43 
0.632058 -0.754318 8.7367 99 94 91 
-0.0211112 -0.753052 8.65936 126 123 118 
0.105987 -0.74359 8.67196 122 121 117 
0.384498 -0.743182 8.71316 111 107 106 
-1.26944 -0.771188 9.43325 196 199 214 
0.926607 -0.700437 8.86741 104 101 96 
0.254522 -0.671027 8.63838 50 49 45 
0.939634 -0.66411 8.85008 108 107 105 
1.09175 -0.638165 9.06166 121 120 116 
0.337562 -0.606048 8.62141 41 38 33 
0.393226 -0.595178 8.62258 104 104 94 
1.19686 -0.53998 9.10576 113 113 111 
0.311143 -0.467501 8.55316 100 100 88 
0.225277 -0.441371 8.52482 36 36 26 
1.46931 -0.472882 9.48535 85 84 80 
0.357364 -0.438703 8.52564 52 48 36 
0.217267 -0.42042 8.50994 100 100 92 
0.391145 -0.366881 8.51669 56 52 43 
1.30708 -0.349454 9.06457 107 107 97 
0.0542673 0.0157734 8.46875 0 0 0 
-0.270055 0.0210621 8.49465 1 0 0 
0.00166043 0.0686391 8.46262 120 116 115 
1.52351 0.338887 9.50934 25 24 22 
-0.745091 0.403994 8.81526 88 87 85 
1.21766 0.517346 8.93448 110 110 110 
-0.0849938 0.572481 8.53305 101 99 100 
1.50206 0.707658 9.44323 70 66 67 
1.39823 1.38053 9.12512 92 91 89 
1.22254 1.61396 8.84272 78 74 73 
114.735 -289.295 -1386.18 157 159 154 
75.5993 -189.204 -898.508 66 68 63 
92.7359 -239.917 -1136.2 173 175 170 
-22.3036 -112.488 -539.162 125 124 120 
136995 -623167 -2.75826e+06 88 89 84 
-0.0118656 162.742 686.881 156 157 152 
2.32992 136.713 575.631 160 159 154 
12.8584 136.567 567.795 149 152 145 
-7.78038 7.49142 20.735 125 129 115 
1.66464 24.7875 75.5537 13 18 0 
1.27118 3.3355 8.77743 104 102 90 
-0.935243 3.60236 8.72184 16 15 13 
-0.91388 3.7756 8.77865 13 12 30 
-0.856584 3.83386 8.7249 37 39 51 
0.651694 3.58259 8.39356 73 71 72 
-0.849708 3.8755 8.74455 0 4 15 
-0.827747 3.9054 8.71355 11 12 17 
-1.02765 4.19978 8.817 156 138 100 
0.365482 4.43401 8.12972 112 106 106 
0.7318 4.65483 8.21067 133 132 130 
0.581446 4.81593 8.05657 163 160 151 
1.09978 4.82604 8.18908 137 136 132 
0.670056 4.82599 7.96784 104 100 99 
1.34643 5.18165 8.15554 111 111 101 
0.00935655 -6.1006 10.2532 188 201 210 
-0.0382233 -6.0741 10.199 195 198 213 
-0.0205526 -6.04576 10.2602 28 27 59 
-0.0504171 -5.9837 10.2633 190 193 210 
0.0865567 -5.57651 10.1924 37 44 62 
-0.0643651 -5.48734 9.9877 66 69 88 
0.208576 -5.33786 10.162 43 45 42 
-0.182754 -5.30648 10.1233 55 54 60 
-0.0856306 -5.18263 10.4235 33 31 42 
-0.0942051 -4.99269 10.0394 28 24 23 
0.246563 -4.88079 10.2141 34 31 40 
-0.208543 -4.83125 10.1298 41 35 45 
-0.058814 -4.05815 9.7771 25 23 24 
0.439877 -3.54951 9.81089 106 105 103 
0.223362 -3.47516 9.58904 45 41 38 
0.540077 -2.43512 9.31575 107 104 99 
-0.043111 -2.41382 9.22006 113 110 105 
0.559546 -2.01514 9.15945 78 75 70 
0.923587 -1.91503 9.36646 97 89 86 
0.499299 -1.85618 9.06475 45 42 37 
-0.198131 -1.83531 8.99764 84 80 77 
-0.948761 -1.89729 9.43927 54 55 59 
0.580497 -1.72288 9.06221 82 77 73 
0.536502 -1.54596 8.99777 31 28 23 
0.149973 -1.4764 8.91892 90 86 83 
-0.0951816 -1.40012 8.86824 40 35 32 
0.332215 -1.08359 8.82842 96 97 91 
0.144781 -1.07417 8.79774 119 118 116 
0.531266 -0.649316 8.69426 99 96 87 
0.36958 -0.615677 8.62509 44 41 34 
0.320571 -0.590819 8.6082 106 101 95 
0.245907 -0.370467 8.49198 48 41 33 
0.373078 -0.354663 8.50209 110 108 96 
1.29053 -0.357352 9.07385 102 103 89 
1.64078 -0.198728 10.4397 31 32 37 
0.31729 -0.170164 8.47959 64 60 61 
1.53203 -0.0848225 9.56799 82 78 77 
-0.134409 0.358561 8.57103 68 68 66 
0.609514 0.34753 8.60168 69 67 68 
0.658091 0.344776 8.5905 65 63 64 
0.868343 0.485602 8.74072 84 80 81 
1.38162 0.577332 9.17858 79 79 79 
1.45299 0.875708 9.27353 79 75 74 
0.955726 0.920834 8.67903 91 91 91 
1.16626 0.935832 8.8305 80 78 79 
0.965059 1.45573 8.6652 90 89 85 
1.01862 1.47068 8.66419 79 78 74 
70.524 -168.737 -807.157 147 149 146 
-25.2912 -107.596 -510.248 132 130 115 
-28.4466 -113.382 -537.08 96 98 77 
167656 -735361 -3.22361e+06 27 26 21 
-0.749818 3.57634 8.55525 21 17 16 
-0.745579 3.75801 8.64639 60 61 81 
-0.900417 3.86702 8.76988 18 18 26 
-0.882343 3.94071 8.76668 130 129 134 
-0.777849 3.97931 8.67283 25 23 26 
-0.981343 4.1734 8.81131 119 85 22 
1.26245 4.32798 8.69705 87 85 86 
2.47523 5.95037 12.9174 106 107 91 
1.03022 4.80996 8.37691 103 100 95 
1.65398 4.95741 8.81283 87 86 82 
0.529329 4.79818 8.12947 99 99 91 
1.71364 5.10396 8.86044 93 90 85 
1.62502 5.1066 8.72914 81 78 73 
0.396826 4.8972 7.90367 114 111 106 
0.0185284 -6.07941 10.2518 188 201 210 
0.00193072 -6.03857 10.3269 192 200 213 
0.0151759 -5.85696 10.287 188 196 207 
-0.0348256 -5.63019 10.2287 187 193 205 
0.0845032 -5.58016 10.2027 50 57 73 
-0.073809 -5.50114 10.0199 66 69 88 
0.220293 -5.39978 10.2184 99 98 96 
0.229854 -5.41624 10.4008 193 196 211 
0.172829 -5.2963 10.1129 26 26 26 
-0.085784 -5.17963 10.3999 24 24 34 
-0.179194 -5.054 10.1556 49 44 51 
0.273572 -4.83668 10.1046 25 23 28 
0.475365 -2.81008 9.4529 33 32 28 
0.596948 -2.69675 9.58841 51 47 44 
0.546728 -2.43302 9.30205 107 104 99 
0.452822 -2.41698 9.29715 33 32 28 
-0.305691 -2.26393 9.19029 94 90 87 
0.236043 -2.08695 9.12109 46 43 36 
0.372385 -1.99892 9.1305 107 104 95 
0.756689 -1.89525 9.13902 28 29 23 
-0.955564 -2.01815 9.4615 54 56 55 
0.221668 -1.71769 9.01704 84 83 79 
-0.215325 -1.72187 8.96943 95 94 89 
-0.385074 -1.60466 9.005 18 17 13 
-0.363948 -1.56445 9.0056 77 78 73 
-1.06646 -1.57633 9.56485 170 178 189 
-0.0884243 -1.40372 8.87064 33 29 26 
0.549272 -1.11218 8.88993 38 35 26 
-1.14813 -1.12739 9.46208 51 50 56 
0.530707 -0.706293 8.6965 127 126 124 
1.3151 -0.384149 9.10038 37 38 33 
0.509452 -0.164566 8.53134 69 68 66 
1.58893 -0.0900659 10.3664 49 47 50 
1.36286 0.0539188 9.15269 86 84 85 
0.62428 0.274388 8.57915 66 64 65 
0.610492 0.349854 8.61465 67 65 66 
0.886716 0.534062 8.75316 0 0 0 
0.920177 0.649593 8.7338 74 74 74 
0.933714 0.735752 8.70445 76 76 76 
1.19688 0.7991 8.88392 70 69 67 
1.44419 0.879299 9.3035 87 83 82 
1.10756 0.866689 8.76184 73 67 69 
1.19135 0.942143 8.88521 77 75 76 
-0.907989 1.45829 8.93221 76 72 71 
1.4261 1.37785 9.0792 98 97 95 
0.96573 1.45359 8.65451 90 89 85 
66.375 -158.935 -759.409 133 135 132 
-25.9658 -110.625 -523.982 132 130 115 
-1.04521 3.71743 8.8692 16 18 17 
-0.404095 3.52246 8.39305 23 22 20 
-0.368511 3.69472 8.33692 99 98 96 
-1.02063 4.25557 8.88424 16 15 13 
1.82098 5.03572 9.98257 70 69 65 
1.79016 5.02114 9.91025 16 15 11 
1.7191 5.10571 8.86915 88 85 80 
-0.0111813 -6.11114 10.2108 10 15 47 
-0.0731541 -5.99436 10.2584 191 198 214 
-0.225413 -5.48096 10.1388 68 64 78 
0.235928 -5.4689 10.3673 32 28 43 
-0.0452613 -5.33839 10.0065 89 88 86 
0.182521 -5.30245 10.1066 23 23 23 
0.0228024 -5.2459 10.1568 23 19 20 
-0.100757 -5.20012 10.4062 30 29 35 
-0.211367 -4.90233 10.1565 51 48 55 
-0.248055 -4.80324 10.139 186 192 206 
0.208455 -4.80628 10.2914 41 36 40 
-0.225916 -4.60635 10.1 57 52 49 
-0.399731 -4.06066 10.009 51 51 61 
-0.636327 -2.97467 9.78996 61 58 51 
0.569689 -1.92922 9.14101 95 91 88 
0.741115 -1.89399 9.14581 32 31 27 
-0.951468 -2.00439 9.46665 64 63 61 
-0.365041 -1.88252 9.00031 20 16 15 
0.177681 -1.75435 9.01896 90 89 85 
-0.209425 -1.72758 8.96292 59 58 53 
-1.11448 -1.32723 9.53866 42 41 46 
-1.11809 -1.21817 9.53038 60 59 57 
0.0915807 0.0542867 8.45637 81 81 81 
1.422 0.244959 9.29015 50 49 47 
0.0278517 0.263074 8.485 52 51 49 
-0.87375 0.298191 8.83351 77 77 77 
0.633874 0.348874 8.59833 65 63 64 
0.929553 0.657292 8.74145 57 57 57 
1.02798 0.944883 8.70285 81 81 79 
-0.703524 1.2331 8.7531 72 69 64 
82.438 -200.457 -958.584 133 135 132 
-25.4889 -106.227 -502.89 97 96 78 
-1.0272 3.72545 8.87184 9 9 9 
-0.907577 3.93316 8.79878 140 139 144 
-0.982936 4.11697 8.81933 13 12 7 
1.58435 4.89424 8.88077 104 101 94 
0.0628567 -5.68275 10.2812 188 195 211 
-0.0694724 -5.65538 10.2031 189 196 212 
-0.0165073 -5.62299 10.2979 65 67 80 
-0.0858623 -5.51636 10.0757 72 74 87 
0.230675 -5.48726 10.2348 36 34 37 
0.150378 -5.33526 10.0241 99 98 96 
-0.0110417 -5.3078 10.2647 22 18 17 
-0.244933 -4.79742 10.1233 186 192 206 
-0.347542 -4.36141 10.0487 188 196 207 
-0.35868 -4.24847 9.99233 184 187 202 
-0.315145 -4.18647 10.0126 69 67 70 
-0.393791 -4.13865 9.98823 189 195 209 
-0.540671 -3.55025 9.88196 188 192 204 
-0.526804 -3.51897 9.89262 76 75 83 
-0.20307 -2.79886 9.32518 100 99 95 
-0.364102 -1.88234 9.03534 22 21 19 
1.61677 -0.196457 10.4089 50 50 50 
-0.805895 0.263168 8.84203 14 14 12 
16.5707 134.199 554.998 146 147 141 
-0.386339 3.49217 8.39981 29 29 29 
-0.868587 3.94025 8.78136 134 135 139 
-0.999221 4.10951 8.83128 23 22 18 
-0.6999 4.95662 8.03192 82 82 70 
-0.100855 -5.67574 10.1895 188 198 208 
0.237962 -5.3887 10.4342 189 199 209 
-0.267785 -4.68426 10.089 184 193 208 
0.311228 -4.41262 10.4531 62 59 66 
-0.467541 -3.70026 9.92237 58 56 61 
-0.530371 -3.62003 9.8877 178 184 196 
-0.116668 -5.31098 10.237 62 59 50 
-0.265179 -4.71003 10.0823 184 196 210 
-0.263962 -4.5133 10.0773 94 89 95 
-0.353718 -4.35148 10.0249 181 189 200 
-0.337716 -4.21617 10.0201 79 76 83 
0.428789 -4.14082 10.5102 180 187 203 
-0.467744 -3.88407 9.93311 179 187 200 
-0.540483 -3.40364 9.86611 82 78 79 
-0.601998 -3.17736 9.83075 99 97 100 
-0.661934 -2.95264 9.79378 69 63 63 
-0.736271 -2.85359 9.75148 174 182 195 
-1.0224 -1.6843 9.50155 163 173 185 
-1.05792 -1.57566 9.50729 164 174 186 
-1.09794 -1.465 9.50878 162 170 183 
-0.925374 -2.48474 10.0683 73 72 67 
-0.834944 -2.12982 9.41751 66 67 62 
1.34317 -1.14975 10.4148 161 170 187 
1.79075 -0.120643 10.6239 169 173 184 
-0.0447624 -6.23752 10.3125 52 59 77 
-0.0601848 -6.21816 10.3073 198 206 217 
0.052261 -6.12172 10.3389 176 185 200 
-0.13463 -6.10683 10.2868 156 164 187 
-0.020682 -6.02821 10.2242 32 32 60 
-0.0967164 -3.05512 9.39333 22 18 15 
0.292555 -2.42391 9.2318 53 50 45 
-0.0466414 -2.41526 9.16108 59 58 54 
-0.0603422 -2.39077 9.15417 116 111 107 
-0.0512197 -1.76956 8.93274 110 109 105 
0.256865 -1.70821 8.95975 130 129 125 
0.508241 -1.53887 8.93909 30 27 22 
0.570414 -1.51341 8.94159 112 111 106 
0.517896 -1.21749 8.8305 123 119 116 
-0.0262512 -0.890249 8.6376 116 110 112 
0.575097 -0.873835 8.73558 45 44 40 
-0.0647794 -0.808722 8.60689 29 24 21 
0.00407172 -0.784443 8.59507 113 110 101 
0.647767 -0.750552 8.68647 99 94 91 
0.360041 -0.602635 8.55655 41 38 33 
0.233363 -0.455718 8.44874 124 124 114 
0.251797 -0.43933 8.45145 36 36 26 
-0.337992 -0.0526959 8.44321 94 93 91 
0.0853249 0.014552 8.38729 0 0 0 
0.0323073 0.0670432 8.38341 120 116 115 
-0.0494178 0.565606 8.4425 101 99 100 
1.23375 1.60607 8.79796 78 74 73 
-0.878546 3.75503 8.67228 129 128 144 
0.381778 4.41174 8.0842 112 106 106 
0.74561 4.63338 8.1662 133 132 130 
4.43989 5.72369 11.4234 123 125 120 
1.10917 4.80969 8.1535 137 136 132 
-0.0388732 -6.14471 10.2932 8 13 45 
0.0187745 -5.65248 10.2899 192 197 216 
0.142497 -3.18382 9.47183 88 88 86 
0.505848 -1.85124 9.04432 45 42 37 
0.595603 -1.71496 9.01311 82 77 73 
-0.0663956 -1.38975 8.79273 40 35 32 
0.333798 -1.33509 8.83994 39 35 34 
0.355977 -1.07644 8.75849 96 97 91 
0.170623 -1.06743 8.72584 119 118 116 
0.272844 -0.36815 8.41733 48 41 33 
0.395386 -0.353276 8.43777 110 108 96 
0.341555 -0.170054 8.41094 64 60 61 
1.03323 1.46168 8.61123 79 78 74 
0.400374 2.71557 8.336 74 73 71 
0.550379 4.76585 8.06736 99 99 91 
0.410656 4.8764 7.86524 114 111 106 
0.0117274 -6.08901 10.2739 188 201 210 
-0.00489361 -6.05079 10.347 192 200 213 
0.467273 -2.40899 9.25025 33 32 28 
-0.824104 -2.19614 9.27276 173 176 193 
-0.854705 -2.15901 9.3183 67 67 75 
0.572976 -2.01047 9.12387 75 72 67 
0.241416 -1.70839 8.95973 84 83 79 
-0.0597732 -1.39388 8.79527 33 29 26 
0.366458 -0.380403 8.44299 54 51 42 
0.53348 -0.164781 8.45888 69 68 66 
1.21357 0.792404 8.8176 70 69 67 
0.98138 1.44495 8.59884 90 89 85 
1.11672 2.35555 8.6143 75 74 72 
-0.925089 4.10754 8.66731 125 85 15 
-0.13481 -6.06897 10.2926 28 29 57 
0.120907 0.0523625 8.37874 81 81 81 
4.44135 5.72867 11.4969 143 146 161 
0.0552076 -5.69299 10.3061 188 195 211 
-0.0908816 -5.68426 10.2691 189 196 212 
-0.788044 3.86927 8.60727 134 135 139 
-0.0195947 -5.62404 10.3125 75 75 85 
-0.0150122 -5.61319 10.2902 75 75 85 
0.310415 -4.70385 10.3177 185 192 208 
-1.1022 -0.993243 9.37059 67 63 62 
-0.0394842 -2.52132 9.3791 28 27 25 
0.37877 -2.47864 9.43665 112 111 106 
0.459837 -1.01074 8.94693 105 104 100 
-0.0910358 -0.90351 8.80691 116 110 112 
0.517323 -0.887789 8.91753 45 44 40 
0.0215389 0.0162135 8.55464 0 0 0 
-0.116587 0.576569 8.61345 101 99 100 
152.559 -152.814 -1056.78 44 49 53 
145.442 -148.613 -1014.37 143 148 152 
150.274 -154.686 -1041.6 59 64 68 
-24.3738 38.5152 185.522 26 26 26 
0.295506 -1.09404 8.9368 96 97 91 
77.3844 -129.369 -900.688 40 44 56 
81.9211 -154.907 -1081.15 131 134 143 
90.3448 -120.323 -810.595 43 44 49 
111.975 -136.581 -887.253 53 54 59 
106.782 -136.503 -884.544 49 50 55 
-17.8002 -495.136 -3100.4 44 51 59 
45896.6 -330506 -2.04314e+06 101 106 109 
0.410917 -2.44903 9.43083 33 32 28 
0.476111 -0.164723 8.63215 69 68 66 
0.885709 0.659195 8.85594 74 74 74 
144.632 -140.32 -987.414 42 46 55 
89.3631 -155.754 -1124.67 128 130 143 
89.369 -119.651 -804.627 46 47 52 
71.2824 -118.916 -798.306 111 118 126 
106.393 -136.154 -879.496 54 55 60 
178.582 -1302.26 -8052.91 101 106 109 
0.0567328 0.0551679 8.54866 81 81 81 
-1.41721 0.443722 10.0109 64 64 64 
80.3863 -125.424 -857.808 46 49 54 
89.4721 -121.217 -811.965 45 46 51 
71.6772 -119.802 -808.8 113 117 128 
0.00744608 -5.63788 10.3902 57 58 60 
91.1432 -118.843 -838.557 117 120 129 
111.108 -140.64 -900.426 51 52 56 
88.0221 -110.742 -781.56 118 121 130 
