ply                 
format ascii 1.0    
element vertex 124
property float x    
property float y    
property float z    
property uchar red  
property uchar green
property uchar blue 
end_header          
-0.120844 -2.45631 4.64656 40 48 67 
-0.157701 -2.40272 4.63313 168 179 199 
-0.101938 -2.35019 4.64572 145 152 168 
-0.154532 -1.37203 4.32709 35 30 24 
-0.0177355 -1.36036 4.35254 104 100 97 
-0.15565 -1.16979 4.25194 22 19 14 
-0.021245 -1.09778 4.2548 126 122 119 
0.0640674 -1.07435 4.26324 102 97 93 
0.210705 -1.13215 4.50502 205 203 214 
-0.0176444 -0.937363 4.19629 124 121 116 
-0.0719991 -0.924665 4.18349 112 108 105 
-0.0428695 -0.910244 4.18197 93 89 86 
-0.143952 -0.902702 4.15441 115 111 110 
0.00585637 -0.910418 4.19263 78 75 70 
0.0587753 -0.886005 4.19216 99 96 91 
-0.214181 -0.562089 4.01704 70 67 62 
0.0819063 -0.5581 4.07215 33 29 28 
-0.136802 -0.299036 3.93928 104 103 101 
0.105995 -0.290105 3.98833 44 43 41 
-0.125029 -0.257033 3.92109 110 107 102 
-0.0739393 -0.237756 3.92332 117 113 110 
0.0177408 -0.181945 3.90902 37 34 25 
0.0703663 -0.13528 3.89637 42 37 33 
-0.034055 -0.12443 3.86632 116 113 108 
-0.225401 0.065268 3.8402 1 0 0 
-0.0957734 0.0645901 3.83264 1 0 0 
-0.11732 0.0853328 3.82879 118 114 113 
-0.15251 0.285986 3.85304 96 94 95 
-0.42791 0.989756 3.92448 109 108 103 
1.19711 2.32941 5.93541 94 95 81 
-0.502594 1.55616 3.91658 5 5 17 
-0.460543 1.54955 3.88755 8 9 27 
-0.411323 1.54765 3.84854 9 10 30 
-0.405607 1.55854 3.84371 121 120 134 
-0.491363 1.60246 3.91085 164 165 170 
-0.43892 1.58425 3.86306 3 7 18 
-0.44487 1.59237 3.87879 17 17 27 
-0.440664 1.60847 3.87071 127 128 132 
-0.448929 1.61269 3.87432 4 5 7 
-0.441498 1.61989 3.87013 134 134 136 
-0.45377 1.67392 3.88007 75 75 77 
1.23967 2.4786 5.62038 130 134 120 
-0.532034 1.71436 3.91149 151 134 90 
1.68594 2.44528 5.13847 84 84 76 
0.00442348 1.84099 3.70161 73 72 70 
-0.131239 -2.44148 4.6421 176 186 196 
-0.147278 -2.39688 4.63386 183 191 210 
-0.106295 -2.33627 4.6405 194 194 218 
-0.110687 -2.2555 4.64957 19 18 49 
-0.0423447 -1.37121 4.35114 36 32 31 
0.288115 -0.890986 4.29951 187 195 206 
0.0347523 -0.742171 4.1313 101 98 91 
-0.141687 -0.62849 4.05442 99 95 94 
0.118256 -0.629798 4.10929 93 89 86 
-0.256038 -0.565337 4.04117 93 89 86 
0.0996524 -0.557642 4.07224 36 33 28 
-0.228068 -0.538114 4.0103 29 25 24 
-0.150549 -0.498962 3.99621 30 29 24 
-0.158942 -0.489453 3.99791 78 77 72 
-0.0566406 -0.369884 3.97774 102 101 99 
0.0182625 -0.372826 3.99586 84 83 79 
-0.0556662 -0.337187 3.96863 93 92 90 
-0.144966 -0.261893 3.92963 101 98 89 
-0.115505 -0.250608 3.91811 43 40 33 
0.182865 -0.22395 3.96907 103 101 102 
-0.103285 -0.172023 3.87034 86 82 79 
0.0309113 -0.0820887 3.86165 108 104 95 
-0.440255 0.205666 3.93571 44 44 46 
0.281187 0.656252 3.93108 83 82 80 
-0.49868 1.47977 3.88351 14 12 13 
-0.503323 1.53998 3.92165 81 82 86 
-0.42208 1.54392 3.86023 116 117 137 
-0.474738 1.56359 3.90212 80 81 101 
1.70027 2.36346 5.66837 64 64 56 
-0.494146 1.67178 3.91237 81 81 83 
-0.525684 1.70124 3.91483 141 102 35 
1.66744 2.45269 5.15512 147 165 167 
-0.424555 1.82319 3.85294 7 6 14 
-0.499792 1.86392 3.91852 82 82 82 
-0.102492 -2.27011 4.64195 187 193 209 
-0.00365441 -2.15552 4.61665 42 41 59 
0.0691974 -0.909809 4.20029 29 25 22 
0.320393 -0.817981 4.35575 52 49 56 
-0.141449 -0.628655 4.05584 99 95 94 
0.101948 -0.557829 4.0721 35 32 27 
-0.22904 -0.536783 4.00517 36 32 29 
-0.0551582 -0.531956 4.03651 67 66 64 
-0.116744 -0.516338 4.01706 113 109 106 
0.0857596 -0.00489616 3.86666 74 68 68 
-0.494963 0.0570022 3.97072 84 80 81 
-0.0848937 0.0752416 3.83178 67 65 66 
-0.083762 0.0828686 3.8288 76 74 75 
0.14091 0.202744 3.91293 57 55 56 
-0.441531 0.206733 3.93402 52 52 54 
-0.719263 0.247309 4.44642 28 30 29 
-0.15361 0.285344 3.85236 88 86 87 
0.246369 0.325086 3.95406 71 71 71 
-0.497272 1.48585 3.89523 13 11 12 
-0.427041 1.47317 3.82419 18 14 13 
-0.409157 1.5234 3.84813 65 63 76 
-0.499259 1.56123 3.91079 123 121 135 
-0.391091 1.54897 3.84304 9 10 15 
-0.280797 1.53012 3.76147 91 90 88 
-0.486229 1.67904 3.9037 115 113 114 
-0.518045 1.70096 3.90309 114 70 9 
0.296081 -0.874893 4.32536 68 69 61 
-0.259396 -0.694141 4.06359 14 13 11 
-0.0816377 0.0800113 3.83141 81 79 80 
-0.452773 0.173752 3.93301 75 75 75 
-0.386515 1.55733 3.85124 12 11 16 
1.67133 2.452 5.15231 148 168 179 
-0.131968 -2.09331 4.5249 96 92 89 
0.176222 -1.24391 4.51495 191 193 205 
-0.19698 -1.06707 4.22301 99 95 94 
-0.25541 -0.692026 4.063 11 11 9 
-0.524767 1.52602 3.92401 13 11 12 
-0.384918 1.55361 3.82865 12 10 13 
-0.408487 2.01644 3.60082 74 71 62 
-0.157602 -2.27664 4.70481 187 196 211 
-0.222456 -2.10886 4.65571 185 191 207 
-0.118377 -2.39187 4.64589 27 23 50 
-0.235747 -1.83742 4.6358 183 193 205 
0.311438 -0.753011 4.37148 33 33 35 
0.377215 -0.499704 4.43452 74 73 69 
