ply                 
format ascii 1.0    
element vertex 1248
property float x    
property float y    
property float z    
property uchar red  
property uchar green
property uchar blue 
end_header          
-0.316141 0.168944 1.26657 93 50 67 
0.0341296 0.159567 1.13957 78 37 53 
-0.316497 0.178236 1.26522 94 51 68 
-0.206979 0.236442 0.952315 104 56 78 
0.461713 0.301457 1.05906 145 173 238 
0.467565 0.327809 1.05294 83 75 152 
0.46487 0.330189 1.05549 122 143 196 
0.492882 0.298331 1.04784 153 183 245 
0.461721 0.301407 1.05883 144 176 237 
-0.0869942 0.233128 0.909226 105 53 66 
0.3289 -0.180499 1.18198 72 58 83 
0.122378 0.157143 1.10746 86 40 51 
0.0339546 0.159378 1.13973 85 41 54 
0.0368311 0.155237 1.1386 102 55 65 
0.122346 0.139425 1.10828 74 41 48 
0.067591 0.138216 1.12878 134 86 100 
-0.0525868 0.143583 1.1727 86 50 64 
-0.019002 0.140612 1.16105 131 85 96 
-0.0314485 0.141213 1.16492 120 80 89 
0.383947 0.000695556 1.14264 45 32 50 
-0.368053 0.147783 1.28884 78 42 52 
0.413806 0.0419059 1.12583 104 77 92 
0.15543 0.0443945 1.18037 67 24 31 
-0.116638 0.132664 1.19619 79 67 105 
-0.122815 0.0488775 1.20624 130 121 114 
-0.547975 0.158946 1.46764 32 36 63 
-0.433436 0.061514 1.43791 117 86 94 
-0.0271949 0.0613341 1.21585 64 21 31 
-0.171242 0.0654461 1.26979 70 27 36 
-0.542062 0.151233 1.46638 14 28 73 
-0.545188 0.14987 1.4675 129 154 220 
-0.310474 0.0896393 1.34774 68 27 31 
-0.243388 0.0725234 1.32584 65 25 33 
0.32109 -0.339773 1.19903 90 67 87 
-0.0858492 0.145151 1.18471 92 53 72 
0.180305 -0.273807 1.24632 88 65 83 
-0.207003 0.236366 0.952431 104 56 78 
-0.0870303 0.215029 0.910076 91 48 58 
0.503899 0.324674 1.04057 12 16 27 
0.457454 0.307547 1.06024 118 126 172 
0.48685 0.300938 1.0502 14 28 73 
0.492303 0.298658 1.04769 161 189 252 
0.494565 0.296821 1.04683 33 23 47 
0.0959093 0.157929 1.11522 116 64 76 
0.0338612 0.15977 1.13947 81 38 55 
0.0363953 0.155253 1.13827 111 61 73 
0.0690806 0.136759 1.12773 96 53 70 
-0.378215 0.155202 1.28937 98 67 65 
-0.016809 0.138806 1.16051 82 41 55 
0.0326923 0.133426 1.14255 73 40 51 
-0.560682 0.135753 1.47366 30 26 61 
-0.547532 0.113045 1.47332 23 28 48 
-0.545155 0.110505 1.47258 48 39 58 
-0.178557 0.0895731 1.26904 121 74 84 
-0.185066 0.0869075 1.27208 63 21 33 
-0.0394515 -0.0484629 1.22957 59 22 30 
-0.195281 0.0661164 1.27676 74 31 38 
0.443109 0.0385138 1.11522 114 99 118 
-0.324668 0.169416 1.26802 70 33 40 
-0.104887 0.1335 1.19293 132 146 193 
0.205316 -0.140051 1.22401 77 63 80 
-0.0911058 -0.155361 1.25807 60 29 37 
0.48778 0.301078 1.05079 18 31 84 
-0.10486 0.134675 1.19129 133 145 193 
-0.547686 0.112767 1.47229 29 34 54 
-0.17176 0.0864794 1.26678 71 31 40 
-0.185138 0.086947 1.27259 63 21 33 
0.065881 0.0637251 1.21196 64 29 36 
-0.125194 -0.189011 1.27355 58 27 35 
-0.348455 -0.254622 1.4401 63 40 50 
-0.118778 0.0677137 1.22525 88 65 51 
-0.184852 0.0116305 1.27952 61 21 30 
0.104179 0.153785 1.11265 86 41 48 
0.17746 0.138008 1.08888 77 43 57 
0.498389 0.295636 1.04565 23 19 33 
0.459328 0.299901 1.06135 14 21 40 
-0.0425513 -0.231927 1.21571 66 28 41 
-0.178845 0.0883774 1.26932 129 75 88 
-0.18519 0.0875713 1.27285 63 21 33 
-0.0271942 0.0823071 1.21382 74 24 33 
-0.171086 0.0661246 1.26991 57 24 31 
0.44531 0.0385859 1.11792 133 114 133 
0.0690795 -0.02938 1.21879 84 41 50 
0.281449 -0.146239 1.1964 64 56 71 
0.0638115 -0.0226814 1.21895 56 29 38 
0.353874 -0.0986767 1.16677 70 54 64 
0.110512 0.0291446 1.19801 60 23 31 
-0.121088 0.136319 1.19893 128 139 184 
0.268925 -0.227667 1.20834 72 46 57 
-0.0216589 0.0830633 1.2121 133 75 89 
-0.0515525 0.142351 1.1714 71 43 55 
0.123556 0.138937 1.10793 62 42 44 
0.408272 0.26963 1.10357 123 107 120 
0.0685227 -0.0288374 1.21831 80 39 47 
0.35143 -0.0985088 1.16538 57 41 52 
0.0309894 0.167793 1.13894 69 43 54 
-0.125494 -0.33616 1.25501 100 45 64 
-0.469389 -0.300259 1.48907 100 84 95 
0.358114 -0.228167 1.17596 68 50 74 
-0.597453 -0.284138 1.5321 68 43 62 
0.1756 -0.2096 1.24153 103 78 97 
-0.574329 -0.247617 1.52015 45 31 46 
0.21729 -0.174681 1.22219 130 122 143 
-0.389856 -0.202205 1.44855 53 32 51 
-0.355839 -0.153487 1.43124 78 60 76 
-0.476499 -0.156686 1.47499 120 111 140 
-0.133705 -0.0387141 1.26375 159 140 125 
-0.613951 -0.039906 1.51236 71 65 91 
-0.10638 -0.0165586 1.23246 160 139 118 
-0.109112 0.0475018 1.20128 65 62 73 
-0.571646 0.119445 1.48242 43 45 93 
0.341961 0.128711 1.14061 72 114 212 
-0.209756 0.144205 1.22988 77 35 49 
0.154884 0.138135 1.09702 73 32 40 
0.302945 0.221144 1.153 125 123 147 
0.476518 0.314217 1.05263 146 165 231 
0.490529 0.326549 1.04534 36 65 135 
-0.0240433 -0.333225 1.19546 75 32 51 
-0.0890289 -0.337129 1.2423 82 35 51 
-0.140834 -0.336676 1.26229 83 39 54 
0.135956 -0.317989 1.26688 112 99 116 
0.29576 -0.300785 1.20711 113 104 121 
-0.469483 -0.354304 1.49585 78 54 67 
-0.313846 -0.319088 1.43327 99 66 83 
0.17109 -0.273712 1.25074 80 59 74 
0.294797 -0.227243 1.19756 132 115 134 
-0.316141 -0.262919 1.42911 96 67 87 
-0.380441 -0.256355 1.45218 67 54 64 
0.407308 -0.186713 1.15381 132 115 133 
0.0483933 -0.109012 1.23386 57 25 28 
-0.115257 -0.0649532 1.26559 122 97 93 
-0.523909 -0.0729938 1.48468 117 95 116 
0.0278045 -0.0444223 1.23483 75 32 41 
-0.15873 -0.0456291 1.2748 56 21 27 
-0.148943 -0.0350936 0.969667 64 27 35 
0.305072 -0.0180896 1.17603 70 46 68 
-0.275921 -0.0135455 1.34766 58 25 34 
-0.0948423 -0.0114382 1.23201 104 86 72 
-0.194532 -0.00906602 1.28482 65 24 30 
-0.0266298 0.00732705 1.2203 74 27 37 
-0.197593 0.0279879 1.28205 60 17 27 
0.383985 0.0490461 1.13611 105 84 103 
-0.0969415 0.0525993 1.20387 118 105 86 
0.377469 0.0581981 1.13723 140 119 136 
0.169059 0.0771828 1.14329 68 32 44 
0.133877 0.526461 4.16051 89 53 63 
0.0890453 0.140706 1.12138 87 53 69 
0.347146 0.152014 1.14352 85 63 84 
0.470137 0.146256 1.0953 123 96 103 
-0.261788 0.167612 1.24675 94 51 68 
0.177408 0.155898 1.0867 90 48 60 
0.371529 0.269111 1.12152 111 104 135 
0.452664 0.324688 1.06138 60 44 57 
0.152015 -0.363002 1.26654 72 54 76 
0.168421 -0.337081 1.25471 99 68 86 
0.16258 -0.32448 1.25666 95 69 82 
0.35416 -0.26678 1.17948 117 95 108 
0.320968 -0.269549 1.19331 96 77 97 
-0.500059 -0.303821 1.49973 80 62 86 
0.404363 -0.230231 1.15624 61 47 62 
-0.0310467 -0.233527 1.20884 138 87 96 
-0.189883 -0.222266 1.26961 109 69 78 
0.230188 -0.210038 1.22019 98 73 95 
-0.458847 -0.251618 1.47714 48 31 47 
0.430218 -0.194608 1.14459 87 68 90 
0.304735 -0.180232 1.19105 69 53 80 
0.283269 -0.177181 1.20004 72 56 82 
-0.367471 -0.207627 1.44099 67 58 79 
-0.585619 -0.156684 1.51426 112 97 118 
-0.505412 -0.151989 1.48445 52 44 68 
0.306009 -0.0422064 1.17705 82 61 80 
0.432613 -0.0134473 1.12517 69 46 64 
-0.0131473 -0.013537 1.21732 74 34 42 
-0.0967083 0.0395298 1.20534 200 192 181 
-0.51462 0.110838 1.45859 124 108 121 
0.43188 0.105841 1.11154 116 107 124 
-0.414134 0.154769 1.30342 103 93 104 
-0.228943 0.148906 1.23725 94 51 71 
-0.0527407 0.161589 1.17201 97 54 73 
0.0426672 0.195441 1.39344 78 37 53 
0.195077 0.249084 1.74725 105 53 65 
0.404567 0.212706 1.11642 72 53 72 
0.150195 0.214023 1.08762 79 37 47 
0.417979 0.271589 1.1017 77 55 68 
0.363834 0.29732 1.09924 91 76 97 
-0.323051 -0.302618 1.43365 82 59 75 
0.27358 -0.239618 1.20825 88 63 82 
-0.55797 -0.278383 1.5175 126 103 113 
0.304316 -0.190446 1.18985 136 113 129 
0.205201 -0.17013 1.22473 85 72 92 
-0.270176 -0.177722 1.32994 53 28 32 
0.0215171 0.134441 0.964407 80 39 47 
-0.0883949 -0.0845721 1.25607 50 26 26 
-0.451505 -0.0766421 1.45957 118 103 122 
0.05511 0.138553 1.13321 121 78 88 
-0.171146 -0.0548533 1.27687 65 34 40 
0.19394 0.131069 1.08234 110 75 82 
0.0795859 -0.0233562 1.21553 66 24 36 
-0.350973 0.151445 1.27933 68 38 48 
0.0316582 0.0335883 1.22675 121 70 77 
0.330065 0.0373462 1.16093 85 61 77 
-0.013422 0.0609468 1.21148 56 16 25 
0.318087 0.0591683 1.16232 62 48 65 
0.0802139 0.0627109 1.20625 72 27 32 
0.315123 0.0699868 1.16225 75 61 87 
-0.294998 0.0894485 1.34291 62 25 33 
0.294947 0.109754 1.16604 136 128 151 
0.144999 -0.349093 1.26518 94 63 81 
0.141387 0.268622 1.08501 71 45 54 
0.212451 -0.322307 1.23887 83 63 90 
0.291623 -0.0547981 1.18538 65 44 53 
-0.44686 -0.0680493 1.45627 78 60 82 
0.468168 0.257932 1.08571 73 52 69 
0.186952 -0.121146 1.22604 145 124 143 
-0.0559509 -0.237933 1.22095 54 28 41 
-0.145951 -0.195018 1.28228 66 31 38 
-0.0222127 -0.209867 1.21311 75 37 48 
-0.404737 0.1707 1.29794 68 35 46 
0.445372 0.0669974 1.11324 66 44 65 
0.133834 0.587637 4.13671 81 38 55 
-0.201792 -0.228102 1.27872 63 27 39 
-0.408085 -0.20253 1.45462 67 53 68 
0.132753 0.0771753 1.18688 65 25 33 
-0.127558 -0.0567864 1.26226 151 125 112 
0.0797091 -0.0450536 1.2171 65 30 37 
-0.258769 -0.0140049 1.33913 58 25 32 
0.367462 0.0430142 1.14275 83 62 77 
0.033426 -0.00342675 1.23002 79 37 41 
-0.0517537 -0.125316 1.24021 64 29 36 
0.377437 -0.0603968 1.15217 68 51 67 
0.141936 0.134381 1.10244 95 54 62 
-0.0757733 -0.143243 1.25236 114 67 73 
0.142088 0.193913 1.36263 89 50 55 
-0.0136868 -0.0591436 1.21829 61 24 31 
0.376009 -0.294905 1.17611 68 50 72 
-0.158583 0.0685549 1.26187 67 37 47 
0.37718 0.176224 1.13042 120 116 139 
0.315803 0.279652 1.14136 122 106 119 
0.269468 -0.0746605 1.19345 75 53 66 
0.300996 0.146563 1.15866 75 54 73 
0.384067 -0.229044 1.16287 56 44 58 
-0.165143 -0.2225 1.26022 61 29 34 
0.285245 0.153445 1.16575 58 49 68 
0.00995288 0.160541 1.14843 74 34 43 
-0.511456 0.0399078 1.4691 63 58 80 
-0.159955 0.0277681 1.26985 73 38 45 
0.276959 -0.326146 1.21549 89 68 87 
-0.0598553 -0.131145 1.24705 58 26 27 
-0.244166 -0.0140067 1.33392 61 28 39 
-0.329458 -0.308628 1.43914 64 43 50 
0.087741 0.0348528 1.20556 65 29 33 
0.308161 0.267203 1.14394 123 115 136 
0.343973 0.14193 1.14321 57 42 61 
0.43411 -0.104264 1.13252 72 49 67 
-0.0379637 -0.0119305 1.22568 64 28 38 
-0.552184 -0.0220166 1.49136 51 39 59 
-0.54072 0.0196917 1.48345 108 93 112 
-0.495854 0.0521747 1.46102 91 69 90 
-0.562987 0.157553 1.47363 145 136 189 
-0.419708 0.145047 1.30585 48 31 39 
-0.541856 0.180539 1.46806 53 36 52 
-0.0859738 0.163033 1.18319 86 44 58 
0.339114 -0.348053 1.19451 84 68 95 
0.310783 -0.336889 1.2004 104 71 92 
-0.248694 -0.295076 1.40597 107 93 110 
-0.431511 -0.251099 1.46705 84 59 81 
-0.42215 -0.207947 1.46231 66 55 72 
-0.0709407 -0.19035 1.25339 71 30 36 
-0.387356 -0.175642 1.44388 58 44 59 
-0.316835 -0.159633 1.41851 109 92 111 
0.301567 -0.00519759 1.17608 86 64 87 
0.121274 0.0139557 1.19693 80 40 49 
-0.597862 0.0727331 1.49828 108 99 120 
0.11699 0.0772091 1.19188 77 34 43 
-0.173637 0.147731 1.21641 96 53 73 
0.379013 0.185858 1.12752 65 53 77 
-0.522971 0.24319 1.45486 43 33 44 
-0.47336 0.243034 1.43651 47 31 44 
0.201221 -0.367991 1.24806 130 116 141 
0.375174 -0.312019 1.17506 85 60 81 
0.168132 -0.300294 1.25436 84 56 68 
0.376213 -0.278094 1.17156 125 117 138 
-0.353433 -0.236885 1.43967 78 57 66 
-0.0318434 -0.223081 1.21078 64 31 42 
0.200059 -0.227655 1.23463 97 74 100 
-0.405434 -0.163718 1.44905 115 103 115 
-0.442199 -0.157128 1.46366 131 122 141 
-0.548193 -0.1525 1.49744 117 105 129 
-0.367974 -0.0764058 1.42883 77 63 88 
-0.510628 0.018365 1.46912 116 95 114 
-0.256037 0.0285876 1.31631 124 77 87 
-0.2157 0.0388367 1.31657 54 21 30 
-0.103988 0.0472681 1.22053 68 60 71 
-0.418547 0.0617856 1.43094 111 88 98 
-0.499041 0.133538 1.45552 64 45 64 
-0.531389 0.172434 1.46257 83 61 74 
-0.141604 0.163985 1.20387 105 52 68 
0.0531921 0.163193 1.13256 99 60 79 
0.14178 0.161271 1.09927 98 60 75 
-0.466807 0.215694 1.43346 55 41 56 
-0.495769 0.241187 1.44508 65 51 66 
0.381593 -0.374245 1.18184 65 47 73 
-0.464505 -0.251867 1.48222 64 56 71 
-0.182611 -0.206361 1.27079 76 38 51 
0.443657 -0.231989 1.14473 62 49 67 
0.443446 -0.21159 1.14337 141 122 141 
-0.530693 -0.15751 1.49298 102 88 114 
-0.385923 -0.162496 1.4438 58 45 65 
0.230046 -0.180454 1.21852 137 124 144 
-0.429308 -0.123629 1.45717 61 43 57 
-0.367123 -0.123561 1.43349 57 39 51 
-0.334108 -0.0850994 1.41742 134 105 123 
-0.169155 -0.0430627 1.27697 57 21 33 
-0.52463 -0.0339304 1.48311 42 35 53 
-0.243562 -0.0362683 1.33638 60 28 33 
0.0988166 -0.0211517 1.20634 107 67 75 
0.321336 -0.00653182 1.16868 91 67 81 
-0.260305 0.0704097 1.33266 109 57 61 
-0.563118 0.115357 1.47875 131 126 182 
-0.229845 0.132892 1.26183 81 43 56 
-0.385441 0.148697 1.29287 58 29 31 
0.00157108 0.142256 1.1519 83 46 63 
-0.284006 0.149452 1.25722 92 48 63 
-0.264794 0.223561 0.974921 68 39 44 
-0.328805 -0.256443 1.43307 78 65 95 
-0.185532 0.0660265 1.2741 60 22 33 
-0.225415 -0.0966036 1.33233 49 23 32 
0.267612 -0.0955349 1.19667 61 39 52 
-0.188008 -0.0542889 1.28043 55 24 30 
-0.207444 0.248374 0.951083 79 42 59 
0.27301 -0.345969 1.21963 83 65 91 
0.153597 -0.337789 1.2595 84 65 84 
0.0625804 0.0192591 1.19808 145 101 116 
0.0650653 -0.0446544 1.22017 60 28 39 
0.442402 -0.0574902 1.12623 42 30 44 
0.377688 0.033867 1.14268 125 105 117 
0.187794 0.151337 1.0808 103 55 67 
-0.372248 -0.231201 1.4438 132 108 130 
-0.274397 -0.118359 1.3246 78 46 57 
-0.443843 0.134277 1.43533 44 37 53 
-0.391905 -0.0231987 1.32783 88 37 46 
-0.0516499 0.171752 1.17021 92 55 72 
0.447257 -0.27955 1.14802 71 60 77 
-0.268663 0.20411 0.978161 74 38 52 
0.396983 -0.227976 1.16107 134 107 122 
0.177483 -0.175719 1.23921 87 60 77 
-0.104725 -0.153825 1.26558 54 21 28 
-0.120008 -0.149828 1.26971 64 29 36 
0.0189239 0.1568 1.14509 76 36 44 
0.377507 0.153132 1.13283 122 107 126 
0.46022 0.181323 1.09822 83 60 76 
0.405004 0.187868 1.11687 138 120 134 
-0.131566 -0.131263 1.27047 117 67 76 
0.320827 -0.102256 1.17881 72 54 68 
0.234617 -0.134337 1.21285 75 51 65 
0.339278 0.0722423 1.15169 143 122 141 
0.000128579 0.160794 1.15184 77 43 59 
0.311897 -0.372508 1.20901 65 50 73 
0.126052 -0.384682 1.27625 67 44 70 
-0.244411 -0.405965 1.41498 124 109 132 
0.303937 -0.342547 1.20708 97 75 96 
-0.31739 -0.384564 1.44203 82 65 84 
-0.530001 -0.391559 1.52149 86 61 82 
0.177304 -0.264198 1.24468 69 49 74 
-0.385292 -0.28294 1.45563 95 72 92 
-0.561893 -0.248038 1.51471 74 50 64 
-0.443846 -0.121625 1.46203 129 108 123 
-0.105766 -0.0540758 1.24678 211 200 180 
-0.0773456 -0.0153375 1.23839 149 126 108 
-0.0903147 0.00745037 1.25037 125 103 80 
-0.333326 0.0574558 1.36031 71 25 28 
-0.0729193 0.0522067 1.21388 184 171 165 
-0.0370829 0.0616163 1.22072 60 18 30 
-0.667162 0.246108 1.50022 51 48 69 
-0.672283 0.279776 1.50059 53 49 66 
0.278401 0.230387 1.16017 78 67 97 
-0.569465 0.330215 1.23673 107 119 109 
0.164813 -0.351291 1.26006 100 70 94 
0.272081 -0.336265 1.22101 70 47 67 
-0.348153 -0.397213 1.45528 107 85 98 
-0.344376 -0.388925 1.44987 80 56 80 
-0.422963 -0.394232 1.4809 65 47 59 
0.190952 -0.320852 1.24872 81 61 86 
0.145022 -0.319142 1.25983 75 58 77 
-0.682165 -0.389373 1.5707 119 122 157 
-0.501718 -0.332438 1.50292 62 50 70 
-0.500597 -0.319671 1.50143 77 59 81 
-0.359962 -0.304731 1.44874 75 53 65 
-0.388893 -0.254679 1.45794 76 53 69 
-0.571498 -0.206838 1.51266 138 126 140 
-0.645614 -0.1981 1.54086 99 75 99 
-0.122898 -0.0856588 1.27123 49 23 22 
-0.00104857 -0.0493578 1.21647 57 22 28 
-0.0953317 -0.0481632 1.25578 133 107 80 
-0.0859723 -0.0420597 1.25433 179 162 134 
0.304253 -0.0319076 1.17474 129 107 120 
-0.0827406 -0.0243159 1.24592 197 183 156 
-0.689101 -0.0301611 1.53864 64 76 114 
-0.029293 0.0269708 1.22261 71 29 41 
-0.2307 0.0314064 1.32578 69 27 37 
-0.0858499 0.0528233 1.21015 77 63 76 
0.299689 0.130121 1.16176 74 59 80 
0.274103 0.161148 1.16694 51 38 56 
-0.693596 0.218528 1.51362 113 135 176 
-0.694258 0.250555 1.51058 136 147 177 
-0.256743 0.23379 0.973192 69 38 53 
-0.0298496 0.228147 0.924755 113 62 81 
-0.275228 0.308385 0.954575 118 119 139 
0.246345 -0.374981 1.23313 128 111 130 
0.0671723 -0.366088 1.2967 96 58 81 
0.18539 -0.341437 1.24703 99 72 91 
0.254162 -0.318998 1.2216 77 63 89 
-0.442265 -0.339598 1.48144 72 50 73 
-0.685682 -0.34723 1.57139 96 103 145 
-0.570729 -0.285954 1.51948 128 108 119 
0.314955 -0.18448 1.18975 92 60 73 
0.27815 -0.0582909 1.1895 78 52 65 
0.432146 -0.04828 1.12998 136 119 135 
0.249962 -0.00757442 1.19734 55 40 59 
0.085208 0.00456978 1.20857 92 42 51 
-0.014453 0.00667166 1.21767 73 26 36 
-0.0826008 0.0341753 1.22054 174 157 147 
-0.118346 0.0476958 1.22159 56 52 66 
0.390273 0.0586516 1.13198 135 118 136 
-0.0482987 0.068797 1.22064 58 26 31 
0.0546676 0.0756351 1.2176 67 30 38 
0.0253649 0.11235 0.827324 111 61 73 
-0.700868 0.292787 1.50572 100 122 159 
-0.0170817 0.198914 0.933491 96 53 73 
-0.695653 0.345004 1.47268 116 134 148 
-0.0248204 0.250914 0.924794 114 61 77 
-0.211527 0.30412 0.911783 137 171 242 
-0.316048 -0.396237 1.43939 76 59 77 
-0.0406949 0.232441 0.917319 134 87 103 
0.12499 0.248851 1.09418 115 70 77 
0.353397 -0.183477 1.17258 124 107 125 
-0.578768 -0.231642 1.51952 52 39 56 
0.274201 0.184606 1.16514 66 48 64 
0.437392 -0.139222 1.13519 59 42 58 
-0.0590827 -0.138529 1.25569 54 23 29 
-0.576558 0.153824 1.47982 42 44 67 
-0.664429 0.074336 1.5229 85 72 98 
-0.0867821 0.248403 0.906752 81 48 65 
-0.234771 0.0427618 1.32486 58 23 27 
-0.145805 0.230216 0.929847 76 45 61 
-0.177913 0.230432 0.943309 104 57 75 
0.115679 -0.324466 1.27371 103 74 94 
-0.028787 -0.0463969 1.22777 59 27 38 
-0.58355 -0.199083 1.52694 48 36 58 
0.163767 -0.227992 1.24686 91 61 73 
0.28582 0.221371 1.15919 129 124 144 
0.151631 0.267187 1.08518 82 35 51 
0.26984 0.255427 1.1624 96 83 101 
0.289043 0.270424 1.1534 55 46 67 
-0.685998 0.332942 1.48015 119 109 120 
-0.287794 -0.222336 1.31267 85 35 44 
-0.583426 -0.243783 1.51987 76 62 79 
-0.0087174 -0.189599 1.21214 86 38 52 
-0.116267 0.0562256 1.20062 130 118 94 
-0.0787635 0.00160208 1.25295 87 66 47 
-0.113994 0.0389021 1.21561 145 135 143 
-0.615071 -0.0681172 1.51267 123 109 134 
-0.4756 -0.253571 1.48545 58 46 66 
0.183292 -0.369994 1.25954 74 55 75 
0.00229728 -0.220902 1.22057 111 69 79 
-0.225118 0.231957 0.958241 73 39 53 
-0.229086 0.304756 0.895074 43 39 66 
-0.695243 0.315755 1.50713 63 71 94 
-0.0811545 0.00847629 1.2611 71 44 33 
-0.00254472 -0.178024 1.21504 63 27 31 
0.35859 -0.326899 1.18494 49 46 55 
-0.582996 -0.232471 1.52888 61 52 69 
-0.0302378 -0.05922 1.22246 66 27 32 
0.349207 0.257331 1.126 127 106 121 
0.439273 -0.324715 1.15031 57 45 67 
0.154217 0.249339 1.75511 87 40 50 
-0.0715569 0.273614 0.889063 145 94 109 
0.353118 -0.0891157 1.1609 68 55 72 
-0.144144 -0.122882 1.27807 71 31 39 
0.193792 0.12972 1.09328 88 46 58 
-0.0848995 0.0207527 1.2554 188 178 151 
-0.406887 0.144199 1.29576 47 31 34 
-0.513175 -0.152632 1.49389 119 107 131 
0.116712 0.229762 1.10333 108 63 70 
-0.409632 -0.20482 1.46411 56 40 51 
-0.0788471 0.0481654 1.22244 113 98 93 
-0.124887 0.0312055 1.22337 143 123 114 
-0.0526792 -0.233442 1.21311 59 36 42 
-0.103553 -0.075592 1.25644 57 27 27 
-0.126047 -0.140444 1.27126 54 23 28 
-0.167215 -0.219716 1.27207 99 57 69 
0.137814 0.122492 1.12959 83 52 57 
-0.0507982 0.201134 0.916168 86 53 74 
0.24372 -0.386167 1.23441 100 74 99 
-0.468706 -0.369891 1.49571 76 58 72 
-0.414394 -0.350364 1.4726 94 73 90 
0.366363 -0.314551 1.17839 102 72 98 
-0.458662 -0.301244 1.48414 98 92 106 
0.294773 -0.279289 1.20403 120 118 132 
-0.371048 -0.21751 1.44232 84 62 83 
-0.488872 -0.157793 1.47829 126 102 126 
-0.112327 -0.0434329 1.24174 203 195 176 
-0.112814 -0.0284877 1.23631 218 207 187 
-0.115009 0.0394518 1.19746 182 177 174 
-0.617761 0.106375 1.49655 109 98 115 
-0.555903 0.181244 1.46765 105 98 114 
0.459891 0.264687 1.08872 116 118 143 
0.478724 0.331315 1.04597 108 119 137 
0.339321 -0.369865 1.19762 127 119 143 
-0.577164 -0.33441 1.52986 125 106 125 
0.310429 -0.269926 1.19364 89 66 86 
0.0351371 -0.238711 1.21766 51 25 36 
-0.588045 -0.207697 1.5205 117 114 133 
-0.614194 -0.111666 1.51781 73 63 88 
-0.622378 -0.0423341 1.51761 76 54 75 
0.322349 0.0772566 1.15543 151 131 143 
0.1426 0.251908 1.08899 95 49 62 
-0.0424473 0.221215 0.919525 112 67 88 
-0.324714 0.27465 0.977908 115 75 99 
0.162608 -0.368035 1.26051 102 82 109 
-0.328906 -0.276369 1.43231 68 52 78 
-0.448821 -0.25349 1.47426 75 58 76 
-0.421301 -0.251411 1.46456 79 56 72 
-0.36674 -0.186642 1.43691 97 69 83 
0.156396 -0.175411 1.24764 69 52 71 
-0.238881 -0.0903056 1.33825 71 35 45 
-0.096162 -0.0615677 1.24954 187 176 154 
0.36775 -0.168363 3.34115 75 33 43 
-0.235405 -0.0148284 1.32724 70 30 39 
0.351212 -0.0374628 3.36833 60 25 32 
-0.493673 0.104067 1.45697 65 52 72 
0.282869 0.122846 1.17031 92 67 88 
-0.192593 0.144094 1.22601 75 43 58 
0.123703 0.166812 1.10586 92 55 72 
-0.283319 0.201231 0.982905 68 34 48 
0.34086 0.271406 1.13046 93 73 98 
-0.252689 0.250913 0.966615 86 44 56 
-0.205301 0.304268 0.895493 66 45 114 
-0.00426499 0.0606837 1.2076 73 27 37 
0.356892 -0.0579517 1.15868 113 102 116 
-0.000680146 -0.0110195 1.21121 69 32 40 
-0.209521 -0.327936 1.26395 92 46 59 
-0.0106267 0.026934 1.21538 87 41 52 
-0.287419 0.0425676 1.34492 112 61 66 
-0.297134 0.233615 0.98607 79 41 56 
-0.049488 0.211753 0.917702 99 52 72 
0.315402 0.193082 1.15266 118 112 138 
-0.572626 0.133826 1.47902 84 76 113 
0.205628 -0.256108 1.23451 122 104 120 
-0.41788 0.167452 1.302 50 25 28 
0.305492 0.110534 1.16579 125 120 140 
-0.117865 0.145661 1.19752 104 56 70 
-0.257491 -0.0361144 1.3412 64 28 32 
-0.180097 -0.0121319 1.28022 79 36 43 
-0.0382274 -0.2091 1.21584 87 47 58 
0.00512939 0.255511 1.81857 77 43 60 
0.0224799 0.121362 1.18415 104 54 65 
-0.447303 -0.0428055 1.45097 52 41 58 
-0.0235108 -0.0154054 1.21701 83 40 47 
-0.172298 0.0112749 1.27424 63 26 33 
0.0523264 0.0263445 1.21813 75 32 39 
-0.190339 0.340942 0.982865 189 180 243 
-0.297563 -0.332799 1.42878 62 36 47 
0.0829691 -0.226311 1.1778 141 91 103 
-0.201252 -0.0330824 0.800359 56 27 31 
0.122074 0.0539283 1.18908 75 34 42 
0.375162 0.0426726 1.15003 75 58 77 
-0.20952 0.00695173 0.80106 68 25 34 
-0.203155 -0.246073 1.28434 116 64 76 
0.281488 -0.234143 1.20398 130 107 123 
0.282791 0.0322906 1.17822 92 71 86 
-0.483569 -0.116583 1.47518 127 105 126 
-0.12571 0.0602573 1.23747 29 24 20 
-0.384248 -0.302412 1.45145 79 66 76 
0.0924274 0.0257896 1.20398 69 30 35 
-0.127995 -0.187662 1.26124 66 36 44 
0.381359 0.268559 1.11523 65 53 73 
1.05878 0.48866 3.75037 73 44 48 
-0.590411 -0.158355 1.50523 116 102 119 
-0.0440958 -0.190932 1.20691 150 96 109 
-0.174031 -0.189119 1.25881 133 80 96 
-0.0789362 0.0627825 1.21026 133 120 137 
0.178374 -0.0321674 1.13085 71 31 39 
0.0721593 0.00352777 1.21087 152 95 110 
0.296697 -0.0146875 1.17207 141 122 141 
0.321555 0.190206 1.14527 133 130 159 
-0.0507666 -0.229782 1.22403 106 63 70 
0.493771 -0.288889 1.12924 148 124 140 
-0.227712 0.288468 0.857095 155 170 229 
0.189763 0.0850599 1.13526 91 53 68 
0.0165101 0.0307984 1.5399 63 21 33 
0.457266 -0.376402 1.1529 68 54 79 
0.439325 -0.257192 1.14508 93 66 81 
-0.550246 -0.258859 1.51377 62 49 69 
0.393309 0.201785 1.11856 132 115 131 
-0.454037 -0.0104637 1.45034 73 58 81 
0.353414 0.000225639 1.15381 73 48 69 
-0.0495555 -0.197189 1.24595 65 30 36 
0.467018 -0.061441 1.11697 72 53 75 
1.49374 -0.198194 3.79774 69 45 59 
0.120064 -0.074559 1.78228 56 23 30 
0.480223 0.0742433 1.09828 106 74 89 
-0.179484 0.131659 1.23484 90 49 67 
-0.605526 0.244338 1.48269 121 110 127 
0.351589 0.271951 1.1268 65 57 81 
0.356494 0.203051 1.13333 151 130 147 
-0.150632 0.249194 0.929874 106 55 70 
-0.228422 -0.230995 1.31411 40 20 29 
0.497253 0.30627 1.04376 158 163 229 
-0.303193 -0.276828 1.42347 93 64 82 
-0.399763 -0.241155 1.4557 83 72 88 
0.503325 -0.185563 1.11693 85 71 97 
-0.383743 0.333535 1.24232 75 77 92 
-0.248425 -0.306228 1.4083 108 93 116 
-0.00306497 -0.240317 1.19856 138 90 106 
-0.0796529 -0.0335787 1.24857 209 195 168 
-0.128389 0.0516319 1.21883 125 108 90 
-0.502739 0.109481 1.45597 100 92 105 
0.40124 0.257269 1.10866 110 86 108 
0.151328 -0.328222 1.26196 81 56 75 
-0.459257 0.0258471 1.45525 51 39 53 
0.0542686 0.0135673 1.21871 86 36 47 
-0.313571 0.0191114 0.83571 60 20 29 
0.164136 0.0948084 1.14209 144 100 117 
0.151342 0.104531 1.13284 137 89 103 
0.403258 0.157006 1.11622 100 69 84 
0.32517 0.200102 1.14213 129 115 132 
0.431458 -0.359419 1.16214 140 118 131 
-0.174068 -0.227835 1.26091 65 32 41 
0.234352 -0.0968455 1.21063 127 119 140 
-0.130999 -0.027254 1.26459 140 117 99 
0.174285 -0.034722 1.12146 140 90 102 
-0.11804 -0.0194641 1.23479 154 138 113 
0.338158 -0.00843723 1.16357 86 65 84 
0.0601976 0.00763998 1.21257 90 48 62 
-0.289793 0.0186417 0.829029 64 22 32 
0.168738 0.0655742 1.14791 103 64 83 
0.278309 0.0774503 1.17921 92 72 99 
0.446689 0.146154 1.10289 126 100 113 
-0.433038 0.190365 1.30921 73 46 55 
-0.139124 0.24376 0.925159 107 58 79 
-0.268962 0.253164 0.975218 86 42 57 
-0.356877 0.275579 1.04273 73 43 55 
0.00655273 -0.318476 1.18289 111 68 75 
-0.293512 -0.21528 1.30847 136 77 83 
-0.539467 0.142978 1.47854 50 37 57 
0.326366 -0.377093 1.22 66 55 72 
0.468469 0.303151 1.05678 15 17 56 
0.187848 0.254825 1.06901 85 44 52 
-0.0300508 -0.192445 1.20793 157 104 122 
0.0417215 0.163413 0.955713 158 123 145 
-0.0894827 -0.0915253 1.24795 59 28 26 
-0.305756 0.00922101 0.833414 57 20 27 
-0.121499 0.0362043 1.23263 86 76 74 
0.167425 0.0863874 1.14728 137 90 106 
0.477706 0.299481 1.04521 25 20 60 
-0.0647147 0.0488403 1.21899 103 75 63 
-0.0111966 0.0851879 1.20858 66 30 42 
-0.148154 0.0607531 1.25826 116 95 112 
0.984361 0.0111772 3.4384 60 25 32 
0.37447 -0.229655 1.16002 68 50 64 
0.0666117 -0.0743924 1.20841 141 89 102 
0.504251 -0.419365 1.13892 79 68 102 
-0.28085 -0.255854 1.41273 70 45 67 
-0.0743704 -0.106492 1.26309 127 107 108 
-0.120398 -0.0360992 1.24004 151 130 113 
-0.418122 -0.0101574 1.44272 62 49 69 
0.386219 -0.307863 1.17185 106 83 109 
-0.382774 -0.19286 1.44519 134 116 132 
-0.406526 -0.189872 1.45368 72 58 75 
0.183951 -0.204935 1.23883 114 84 108 
-0.371305 -0.159302 1.43839 128 114 137 
-0.466491 -0.119417 1.46805 100 70 94 
-0.335078 -0.118136 1.42217 130 112 126 
-0.0944094 -0.103505 1.24881 132 100 103 
-0.119071 0.0283774 1.21576 182 175 159 
0.000405134 0.0899693 1.20504 100 52 68 
-0.104388 0.22044 0.91609 81 48 65 
-0.423437 -0.229279 1.46286 131 118 136 
-0.180163 -0.230982 1.26791 90 47 66 
0.326361 -0.277422 1.19701 134 116 132 
-0.337428 -0.200485 1.43025 76 50 63 
-0.0472262 -0.180166 1.22513 118 74 87 
-0.246057 -0.122109 1.33596 69 35 49 
-0.338581 -0.0964445 1.41878 76 52 74 
-0.430356 -0.0603196 1.44982 104 74 86 
-0.301745 -0.0525701 1.34894 70 36 52 
-0.169436 0.0305964 1.27148 66 26 37 
0.400201 0.0576019 1.13354 155 135 147 
0.0628916 0.0870528 1.21288 92 49 69 
-0.1761 0.122239 1.23968 127 68 88 
0.109762 0.140877 1.11062 120 98 111 
0.414134 0.18337 1.11234 124 110 123 
-0.164017 0.254522 0.934567 100 66 90 
-0.367286 0.336128 1.24642 125 130 159 
-0.122651 0.0276984 1.25048 145 134 132 
-0.0983512 -0.0926754 1.25754 144 120 110 
-0.589319 -0.193732 1.51773 69 60 87 
-0.482053 0.204728 1.44421 58 53 73 
-0.462493 -0.137479 1.47104 64 52 76 
-0.315382 0.238817 0.992264 97 50 68 
0.0425749 -0.254422 1.21425 77 46 61 
-0.25538 -0.0573648 1.33331 66 27 32 
-0.111084 -0.0544812 1.25694 97 70 75 
-0.408977 -0.00368656 1.43593 46 33 50 
0.285147 0.021977 1.17875 76 49 64 
0.375796 -0.00341013 1.14873 126 107 126 
-0.0418135 -0.220509 1.21313 73 37 49 
0.3352 -0.327401 1.18821 117 104 122 
0.478803 0.329075 1.05787 28 22 82 
0.437864 0.106381 1.11959 67 54 74 
-0.136215 0.059612 1.23036 70 52 48 
-0.101983 0.037693 1.2242 214 213 219 
0.493822 0.305981 1.05841 20 31 51 
0.464943 0.311255 1.04975 184 201 255 
-0.159246 -0.0100295 1.27698 53 23 31 
0.161858 -0.44221 1.2702 81 56 85 
0.2767 -0.41238 1.22152 83 63 88 
0.0649074 -0.457948 1.30648 82 67 90 
0.240326 -0.406479 1.23676 76 52 76 
-0.0260566 -0.407181 1.23449 91 36 55 
0.577985 -0.312323 1.21631 45 57 97 
-0.679149 -0.512437 1.58157 90 97 139 
-0.573245 -0.462511 1.54189 70 47 67 
-0.42166 -0.422217 1.48324 130 113 131 
0.580255 -0.204547 1.2056 126 145 178 
-0.794726 -0.351372 1.58187 99 134 174 
-0.681631 -0.301892 1.56591 92 77 108 
-0.047097 -0.107739 1.23623 58 18 26 
-0.773135 -0.135123 1.57174 54 55 99 
-0.0877056 -0.0437264 1.27556 201 187 158 
-0.776877 0.127382 1.5465 48 50 89 
-0.780037 0.158198 1.54372 40 45 83 
-0.779902 0.180069 1.54175 34 53 95 
0.233282 -0.411184 1.24253 122 103 125 
0.0957862 -0.442838 1.2981 140 117 143 
0.100704 -0.43407 1.29208 91 67 91 
-0.252611 -0.495729 1.42648 138 125 145 
-0.242863 -0.470217 1.42106 122 110 134 
-0.543769 -0.523655 1.53641 86 73 93 
0.00476143 -0.372177 1.22712 148 94 107 
-0.414668 -0.475965 1.48301 85 64 83 
-0.010788 -0.368769 1.24158 96 44 56 
-0.504034 -0.489452 1.51758 69 57 81 
-0.633731 -0.476116 1.56492 131 124 142 
-0.780438 0.0421652 1.55631 49 72 113 
-0.785599 0.12152 1.54854 88 93 122 
-0.776742 0.29587 1.53017 31 28 59 
-0.804021 0.301562 1.51966 90 116 139 
-0.786318 0.306848 1.5317 32 33 53 
-0.661813 0.321219 1.48639 98 83 106 
-0.704177 0.344214 1.48422 36 42 64 
-0.640192 0.33806 1.34119 108 118 117 
0.201043 -0.424428 1.25074 68 53 74 
0.0799554 -0.444439 1.29812 95 67 89 
0.160014 -0.410441 1.26443 99 66 87 
0.113522 -0.408767 1.28383 84 66 90 
0.0196156 -0.428211 1.31656 110 82 105 
0.13714 -0.393671 1.26881 111 80 98 
0.42311 -0.328583 1.16101 38 30 45 
0.0237513 -0.416395 1.31819 93 61 84 
-0.296366 -0.473635 1.44053 74 62 84 
-0.471196 -0.430839 1.50057 76 55 74 
-0.333513 -0.397258 1.44491 50 34 47 
0.157343 -0.206133 1.24767 112 74 89 
-0.774143 -0.303569 1.58795 34 40 90 
0.595915 -0.0363188 1.20463 88 94 146 
0.48601 0.0260176 1.09999 130 113 132 
-0.107866 0.0463681 1.18921 83 80 91 
0.0897727 0.131875 1.12222 97 53 70 
0.269198 0.244618 1.15812 87 73 96 
-0.663351 0.327707 1.47768 86 78 101 
-0.777142 0.336315 1.5152 117 100 118 
0.260129 0.30356 1.13507 65 58 76 
0.193921 -0.411728 1.25362 67 48 67 
-0.575224 -0.511628 1.54488 82 61 78 
-0.706484 0.343735 1.4627 160 185 225 
0.575202 0.245501 1.15345 82 106 130 
-0.791492 0.280773 1.53455 38 35 52 
0.100011 -0.318669 1.27715 80 62 88 
-0.677558 -0.431028 1.57021 77 81 116 
0.064075 -0.10514 1.22501 64 33 41 
0.129704 -0.406111 1.27722 67 49 71 
0.0442821 -0.411261 1.3099 135 107 121 
-0.276568 -0.46834 1.43107 84 64 89 
-0.66452 -0.27567 1.5499 87 69 93 
0.086038 -0.186379 1.19963 65 26 29 
-0.361111 0.0997879 1.33542 140 93 109 
-0.547861 -0.311332 1.51851 81 59 72 
0.107029 -0.383071 1.28339 91 64 83 
0.111253 0.237503 1.09942 105 65 73 
-0.0734348 -0.339166 1.23457 64 33 41 
-0.553287 0.156885 1.47641 136 157 212 
-0.621215 -0.420606 1.54638 70 62 86 
-0.056268 0.0641384 1.21235 49 28 35 
0.15744 -0.0916361 1.23356 79 48 63 
-0.187139 0.0301992 1.27918 77 37 48 
0.18111 -0.415769 1.26358 123 106 124 
0.285087 0.1816 1.16138 75 61 78 
0.186145 -0.304542 1.24682 89 62 69 
0.176319 -0.403903 1.25678 145 130 151 
0.302835 -0.368288 1.20388 89 70 89 
-0.50569 -0.462134 1.51017 81 70 86 
0.579921 0.223726 1.15366 102 121 164 
-0.786492 0.0810045 1.55551 43 49 73 
-0.165356 -0.232403 1.26543 52 22 34 
-0.549932 -0.0313133 1.48352 54 43 60 
-0.102194 -0.0155465 1.25461 117 109 107 
0.302701 0.274395 1.1498 67 49 61 
0.0987135 0.286775 1.08847 139 106 125 
-0.787537 0.167164 1.54838 96 109 143 
-0.572107 -0.347356 1.52759 53 40 57 
-0.318899 -0.399747 1.44842 76 59 75 
0.302728 -0.194721 1.19846 59 41 55 
-0.00565998 -0.207385 1.21155 69 29 37 
0.0849081 0.283695 1.09481 148 103 126 
0.0186167 0.219946 0.946311 123 67 80 
0.0901511 -0.308719 1.27199 41 21 23 
-0.00330206 0.236134 0.937895 106 57 76 
-0.692695 0.296233 1.49847 135 153 189 
0.575557 0.235541 1.1504 93 117 155 
-0.0148541 -0.192133 1.19944 150 96 112 
-0.77643 -0.303935 1.58993 36 49 94 
0.569854 0.235433 1.16616 90 107 135 
0.576213 0.222593 1.16368 98 116 152 
-0.164088 -0.17258 1.27266 60 28 29 
0.0266127 -0.089146 1.23769 32 16 17 
-0.786274 0.154735 1.54616 91 97 131 
-0.0917524 0.0172202 1.24875 190 180 145 
0.0939524 0.193585 1.37069 90 43 59 
0.465667 0.0251547 1.1078 135 112 130 
-0.5675 -0.0126222 1.49507 66 55 72 
0.0710576 0.13111 0.95426 67 31 43 
-0.00183832 0.218166 1.77047 83 50 61 
-0.0136372 -0.0486036 1.21677 60 30 40 
0.440614 -0.314901 1.14754 90 74 100 
0.18374 -0.353524 1.25093 98 76 97 
0.122203 -0.332748 1.27127 112 74 97 
-0.38065 0.0910706 1.345 69 37 50 
0.00415047 0.12949 1.03149 138 91 107 
0.0954201 0.180411 1.27262 78 39 44 
0.0527223 0.145145 1.0375 85 41 54 
-0.0998131 -0.498205 1.34952 214 202 190 
-0.0633577 -0.487987 1.33421 17 43 58 
-0.0888182 -0.489655 1.34577 65 81 78 
-0.107421 -0.49461 1.35509 59 34 40 
-0.0777548 -0.486296 1.34045 24 38 47 
-0.0288377 -0.478872 1.3416 117 101 127 
-0.0717949 -0.473462 1.33879 147 138 123 
-0.204959 -0.499971 1.40767 63 46 62 
-0.0749605 -0.421056 1.26076 112 58 72 
-0.999602 -0.616758 1.60652 107 107 161 
-0.525713 -0.467199 1.52351 93 76 92 
-0.00469993 -0.228682 1.19981 78 36 48 
0.579005 -0.0649795 1.19312 161 186 226 
0.559981 0.279074 1.13345 30 27 54 
-0.182768 0.303373 0.90083 152 184 245 
-0.772039 -0.627026 1.6156 47 61 106 
-0.403477 -0.531967 1.49152 81 60 79 
-0.509258 -0.51793 1.52116 80 54 67 
-0.0380275 -0.379202 1.24633 86 40 53 
-0.0230397 -0.368872 1.24584 94 46 58 
0.0945523 -0.361857 1.2835 84 59 80 
0.336271 -0.291946 1.1872 76 57 79 
-0.452596 -0.157702 1.46913 64 41 57 
-0.303899 0.0572839 1.34118 93 45 57 
-0.228189 0.166642 1.23485 96 51 71 
0.162187 -0.432463 1.26591 99 81 107 
-0.421671 -0.530655 1.49257 78 57 72 
-0.0571264 -0.388536 1.25791 89 41 57 
0.023112 -0.361987 1.22704 127 71 80 
-0.946453 -0.521572 1.62024 162 166 213 
0.0957007 -0.330584 1.27935 85 69 96 
0.136198 -0.225992 1.2352 111 64 82 
-0.1736 -0.206143 1.26481 66 34 45 
-0.671898 -0.278394 1.56248 89 71 93 
-0.578297 -0.249668 1.5283 60 47 64 
0.288508 -0.025583 1.18248 81 60 77 
-0.0916157 -0.0239672 1.2525 46 23 17 
0.405077 0.0419669 1.12968 102 78 100 
-0.0613076 0.0468604 1.20823 179 172 164 
-0.173339 0.0495112 1.2705 71 31 40 
0.608394 0.0832965 1.19031 159 173 210 
-0.334096 0.165772 1.2725 79 44 50 
0.074464 0.228158 1.07181 76 39 56 
-0.312888 0.252291 0.988158 80 47 66 
-0.170164 0.304142 0.900456 98 104 126 
-0.804634 0.318737 1.51842 79 81 104 
-0.296725 -0.509054 1.4264 60 56 83 
-0.179641 -0.395588 1.28893 74 32 42 
-0.629215 -0.424862 1.56067 68 56 78 
-0.68692 -0.389957 1.58065 79 77 116 
-0.0912756 0.0390172 1.21335 196 192 180 
-0.551517 -0.283659 1.50882 63 50 60 
-0.0729292 -0.0251524 1.24803 164 149 126 
-0.627765 -0.155067 1.53383 115 102 119 
-0.0143209 0.251377 0.928127 95 51 66 
-0.284065 -0.00883125 1.35045 93 46 54 
-0.0134864 -0.209374 1.20644 78 38 47 
-0.466222 -0.390645 1.49385 75 55 66 
-0.618846 0.180334 1.49102 128 119 146 
-0.301128 -0.496299 1.44517 74 59 80 
-0.353344 0.144005 1.28947 83 50 61 
-0.135037 0.21971 0.92532 80 47 64 
0.560979 0.298016 1.11373 137 135 149 
0.560172 -0.353601 1.21729 96 105 134 
-0.988271 -0.560066 1.59607 177 196 238 
-0.108392 0.0148679 1.24168 99 86 93 
-0.0675444 -0.141918 1.24502 52 20 21 
-0.316641 -0.303682 1.42471 129 105 118 
0.00485955 -0.447158 1.31875 88 64 86 
-0.113613 -0.371337 1.22964 75 44 52 
-0.70558 0.341091 1.45107 149 165 198 
-0.551668 0.131039 1.47678 17 29 77 
-0.0565559 0.0503858 1.23892 49 37 39 
-0.177319 -0.408346 1.29216 57 33 46 
0.571559 0.273889 1.16309 87 94 123 
-0.798228 0.309832 1.50472 126 129 160 
-0.303904 0.146831 1.26771 96 53 60 
0.572692 -0.251654 1.20406 91 107 133 
-0.686893 -0.436092 1.58807 101 92 119 
-0.24072 -0.321494 1.27892 65 30 34 
0.0112762 -0.238453 1.22547 58 29 34 
-0.0401134 -0.0126204 1.23494 71 26 31 
0.552513 -0.132287 1.18662 104 120 154 
0.182381 -0.040924 1.12021 167 119 133 
0.0892847 0.0120072 1.19966 134 80 94 
-0.108196 -0.349973 1.2436 124 80 103 
-0.729794 0.340691 1.44444 113 125 137 
-0.812041 0.320306 1.52633 86 87 108 
-0.782546 -0.344047 1.5954 59 65 89 
-0.802238 -0.350575 1.59897 38 49 71 
0.585967 -0.268733 1.2139 62 63 107 
-0.937807 -0.52514 1.61283 114 116 165 
0.594293 -0.27784 1.22311 145 168 202 
0.589958 -0.340465 1.22119 120 138 178 
0.544006 -0.2007 1.18947 34 22 34 
-0.20356 0.237798 1.93821 134 83 100 
0.308701 0.142755 1.1589 76 58 72 
0.236732 -0.0534787 1.20087 75 46 66 
-0.297861 -0.513807 1.43923 125 112 132 
0.386993 0.0370663 1.14224 54 38 49 
-0.554717 0.123522 1.48383 157 176 244 
-0.0702195 0.0652362 1.22308 94 76 90 
0.588214 -0.316186 1.2171 108 117 148 
-0.952569 -0.513627 1.61776 101 113 163 
-0.377916 -0.0301363 1.34309 138 87 102 
-0.788821 0.340156 1.53379 119 106 124 
-0.289257 -0.213984 1.32046 69 29 30 
-0.0044203 -0.16642 1.21391 28 14 14 
-0.0430847 0.0637483 1.24395 122 71 78 
-0.13013 -0.140367 1.27959 54 25 30 
-0.31592 0.141846 1.26035 79 44 51 
0.335818 0.105113 1.14998 60 46 59 
0.187382 0.0088237 1.13977 52 29 37 
0.200754 -0.433963 1.25287 124 106 130 
-0.222743 -0.475586 1.41571 123 102 117 
-0.259208 -0.473529 1.4299 88 74 99 
-0.0880533 -0.0105758 1.25215 165 149 124 
0.131184 0.0956668 0.808897 86 48 59 
0.0816505 0.134535 0.952129 74 38 50 
-0.0301111 0.174758 1.40849 134 83 100 
-0.0378493 0.0631169 1.23019 122 71 78 
0.416133 0.101824 1.12032 81 57 70 
-0.416608 0.371033 3.03468 71 41 51 
0.0717733 0.180993 1.28594 106 56 67 
0.0986989 0.105426 0.896656 86 48 59 
0.064591 0.145121 1.03239 85 42 52 
0.0579603 0.175485 1.24417 103 53 62 
-0.301553 0.155236 1.37282 83 42 58 
-0.0604159 -0.552549 1.34069 57 37 49 
-0.0705874 -0.548397 1.3447 94 89 129 
0.0915296 -0.499516 1.30055 71 43 65 
-0.762486 -0.773469 1.62646 45 47 98 
-0.046981 -0.53257 1.33166 78 67 65 
-0.0821906 -0.543376 1.34772 75 50 45 
0.133167 -0.475249 1.28277 130 111 130 
-0.984344 -0.802248 1.61703 127 129 186 
-0.0524165 -0.52178 1.3357 105 97 110 
-0.0910002 -0.530874 1.35159 152 149 134 
0.212792 -0.432937 1.24832 95 66 84 
-0.0378383 -0.505312 1.3302 84 64 55 
-0.0994595 -0.518711 1.35592 150 144 144 
-0.0903438 -0.514083 1.35209 145 146 177 
-0.0819964 -0.510592 1.34635 150 147 174 
-0.307366 -0.587174 1.45776 71 52 74 
-0.0562971 -0.501047 1.33709 79 68 62 
-0.0459154 -0.495233 1.32708 173 168 148 
-0.05374 -0.491815 1.33279 121 107 96 
-0.0865378 -0.480989 1.34682 90 84 70 
-0.444664 -0.591802 1.50881 104 87 105 
-1.04364 -0.624167 1.51619 137 144 198 
-1.04835 -0.572796 1.51398 141 152 208 
-1.03534 -0.564803 1.52612 106 123 177 
-0.991836 -0.553364 1.60237 157 163 199 
-0.646589 -0.152778 1.53055 69 51 65 
-0.906971 0.329113 1.38217 87 110 104 
0.177728 -0.476897 1.268 81 62 82 
-0.0432415 -0.544429 1.3354 95 42 50 
0.29255 -0.436544 1.22119 160 149 179 
-0.00466214 -0.527991 1.34262 71 55 81 
-0.209226 -0.583206 1.41927 59 45 62 
-0.985314 -0.790146 1.62183 171 180 223 
-0.0757776 -0.524274 1.34661 152 130 116 
-0.0610693 -0.510519 1.33694 119 137 183 
0.0169361 -0.478938 1.32649 58 41 59 
-1.01269 -0.73537 1.58278 123 146 196 
0.00144538 -0.364814 1.23875 71 33 46 
-0.296609 0.0252902 1.34776 77 33 46 
-0.247143 0.164137 1.24254 76 34 54 
0.324929 0.321678 1.00809 108 117 132 
0.646215 0.352979 1.18507 102 103 133 
0.0476594 -0.489793 1.31436 69 54 77 
-0.332779 -0.601812 1.46534 75 52 72 
-0.40427 -0.596393 1.49159 84 70 87 
-1.00498 -0.729863 1.56687 120 131 187 
-0.765071 -0.478912 1.5959 31 37 87 
-0.0751435 -0.275429 1.23885 71 38 47 
0.0396882 0.0708079 1.21799 111 62 66 
-0.784022 0.129021 1.54769 75 89 118 
-0.45057 0.196118 1.65537 76 40 54 
0.536912 0.148156 1.15998 35 33 54 
-0.351786 0.179485 1.27992 60 32 44 
-0.036514 -0.518379 1.3279 52 35 28 
0.578046 -0.325861 1.22115 37 40 71 
-0.775977 -0.346191 1.58212 28 36 57 
-0.0831336 -0.499265 1.3466 42 48 60 
0.315357 -0.369432 1.20409 60 41 61 
-0.185185 -0.0417916 1.2838 52 26 37 
0.508015 -0.0171771 1.10903 67 43 56 
0.239815 0.137624 1.18063 59 35 49 
-0.160836 -0.176312 1.26453 109 67 77 
-0.000885434 -0.19583 1.22341 59 23 27 
0.145319 -0.221884 1.25057 99 60 81 
-0.106613 -0.27443 1.25181 72 34 47 
-0.0993048 -0.544635 1.35544 97 55 59 
-0.0673799 -0.522639 1.33524 46 39 46 
-0.19565 -0.504166 1.40337 44 41 58 
-0.565687 -0.344484 1.5185 56 48 63 
-0.0229202 -0.228894 1.20448 113 69 82 
0.530675 -0.193306 1.1796 55 35 47 
-0.566173 -0.459284 1.52913 54 40 53 
-0.130159 -0.40693 1.28411 61 28 39 
-0.0573173 0.136012 1.17779 83 42 58 
-0.414976 -0.527284 1.48357 78 55 73 
0.132585 -0.22247 1.22432 96 42 55 
-1.0372 -0.621933 1.53891 108 130 187 
-0.774108 -0.482793 1.60434 57 76 118 
0.535569 -0.192215 1.18913 23 22 27 
-0.0548241 0.0536543 1.21863 164 154 142 
-0.552109 0.11312 1.4803 40 35 55 
0.0682584 -0.472718 1.30222 55 41 58 
-0.564637 -0.287161 1.52625 58 40 52 
-0.203963 -0.51164 1.41709 40 29 46 
0.589408 -0.297288 1.22292 38 39 60 
-0.294709 0.0680101 1.33616 58 22 24 
0.311278 0.217636 1.14713 73 59 76 
-0.135576 -0.182183 1.27236 55 25 33 
-0.997656 -0.565314 1.59765 124 134 193 
-0.947818 -0.52977 1.61382 48 39 60 
-0.776755 -0.134383 1.57648 78 77 119 
-0.257254 0.140781 1.24642 86 47 68 
-0.399447 -0.529504 1.48308 90 67 87 
-0.633312 -0.347568 1.55431 73 58 77 
-0.510825 -0.465281 1.52051 76 55 74 
0.203707 -0.09185 1.21877 140 113 130 
-0.0265775 -0.332102 1.18604 45 19 30 
0.0393628 0.178123 1.26986 92 49 66 
-0.0675816 0.126676 1.09813 80 42 57 
0.0409496 0.107928 0.876746 79 43 57 
-0.399277 0.162253 1.37188 73 45 59 
-0.211671 0.157936 1.30877 76 40 54 
0.0262654 0.118428 1.01577 82 48 65 
0.385025 -0.00477552 0.96639 84 86 137 
0.47465 0.0148869 1.00015 100 107 159 
-0.560402 -0.0697491 1.49591 99 94 124 
-0.435414 -0.0389334 1.44683 107 89 101 
0.500297 0.0421072 1.09295 163 173 208 
-0.141526 0.0654524 1.24671 122 100 79 
0.462255 -0.416956 1.15981 134 119 138 
0.352161 -0.308304 1.18769 133 112 129 
-0.369627 -0.17447 1.43542 100 65 85 
-0.361213 -0.138022 1.43167 86 66 91 
-0.102018 0.0166849 1.25199 108 82 57 
0.356946 -0.279491 1.18364 78 56 77 
-0.40973 -0.121033 1.44524 125 102 120 
-0.392626 -0.031827 1.43141 77 64 84 
-0.272826 0.0323209 1.33857 64 25 30 
-0.126689 0.0385956 1.21557 137 125 111 
-0.0346335 0.165084 1.16306 109 67 91 
-0.121758 0.168257 1.19523 110 67 87 
-0.317185 0.218803 0.993144 98 44 58 
-0.126836 0.0451143 1.24217 139 124 105 
-0.284564 0.256674 0.978274 85 52 69 
-0.19746 0.0955987 1.27625 95 47 63 
-0.357058 0.332999 1.24328 94 105 135 
0.0542609 -0.0225768 1.2209 84 37 53 
0.369074 -0.00802245 1.14985 82 56 67 
0.443066 -0.378656 1.16278 76 52 78 
0.144237 0.112287 1.12911 170 122 138 
-0.16206 0.108714 1.24804 112 52 64 
2.89868 -1.23847 1.16229 84 70 121 
3.11793 -1.23354 1.02221 107 114 160 
2.95369 -1.12025 1.1075 159 183 227 
2.97302 -1.12486 1.11663 166 179 221 
3.00477 -1.10246 1.09007 109 102 135 
3.22236 -1.14532 0.935152 167 162 158 
2.54903 -0.999195 1.40209 170 169 213 
3.23943 -1.14235 0.940439 83 73 108 
3.04332 -0.970516 1.103 39 46 72 
3.19671 -0.984234 0.935834 69 47 60 
2.53586 -0.798292 1.39688 78 107 147 
3.05037 -0.607597 1.07865 129 145 204 
3.10383 -0.567834 0.947041 91 66 98 
2.50868 -0.47181 1.32603 139 142 193 
2.65315 -0.46512 1.24395 125 107 107 
2.63804 -0.458022 1.23316 156 145 141 
2.64315 -0.444946 1.24693 184 167 173 
2.65917 -0.439896 1.24531 203 203 215 
2.98313 -0.474367 1.03476 128 124 161 
2.60282 -0.41988 1.24056 169 170 201 
2.57901 -0.415756 1.27159 157 174 217 
2.48462 -0.333118 1.33154 162 190 230 
3.09116 -0.380963 0.905815 110 114 91 
2.97324 -0.363921 1.01894 118 130 178 
2.98623 -0.36325 1.01513 105 123 173 
2.86887 -0.343235 1.09474 109 113 161 
2.88059 -0.340184 1.10039 168 175 217 
2.54035 -0.297493 1.29297 112 121 164 
3.1191 -0.358751 0.920672 108 109 139 
3.09917 -0.357924 0.889241 53 53 43 
3.11425 -0.357813 0.894575 47 34 26 
2.86343 -0.323652 1.07986 163 185 222 
2.85548 -0.315029 1.07498 149 171 210 
2.94417 -0.318865 1.03943 165 184 227 
2.92871 -0.311279 1.04117 119 129 180 
2.92332 -0.3085 1.02877 107 111 159 
2.52604 -0.23816 1.30143 104 90 116 
2.55152 -0.238402 1.28232 121 123 171 
2.52017 -0.213483 1.32079 81 63 79 
2.86883 -0.238069 1.06362 105 85 110 
2.53267 -0.167548 1.273 137 140 191 
2.88705 -0.184987 1.08744 129 147 193 
3.09169 -0.201597 0.922479 100 94 140 
2.65309 -0.117973 1.21872 163 177 212 
2.81286 -0.10916 1.09225 127 137 186 
3.03079 -0.000982226 0.99712 153 167 228 
2.5589 0.0258802 1.23409 180 197 240 
2.53173 0.143909 1.25131 117 120 161 
2.50245 0.156988 1.30702 112 134 184 
2.54722 0.191226 1.25847 100 86 111 
2.61106 0.211475 1.1785 176 193 236 
2.74215 0.208485 1.10366 121 129 178 
2.49869 0.222265 1.2691 122 129 175 
2.92526 0.25793 0.970552 82 82 118 
2.93336 0.283923 0.967644 55 54 96 
2.96769 0.285051 0.960243 53 67 104 
2.837 0.374047 0.993408 40 22 34 
2.47845 -1.02387 1.41474 112 124 174 
2.54556 -1.02004 1.37977 138 154 206 
2.9862 -1.1065 1.09747 159 178 218 
2.96055 -1.0429 1.10658 177 183 217 
3.07765 -1.05464 1.04435 125 127 175 
2.88049 -1.00912 1.12976 119 120 176 
3.05544 -1.03562 1.03718 127 136 175 
3.09481 -1.02058 1.02569 169 186 214 
3.18998 -1.02025 0.935489 189 186 177 
3.18027 -1.01609 0.950634 170 176 176 
3.1928 -1.01073 0.932036 172 177 155 
3.21357 -1.0148 0.946179 105 106 92 
3.18152 -1.00474 0.949868 153 154 159 
3.1015 -0.983489 1.01912 107 111 138 
3.00085 -0.962976 1.09698 52 72 96 
3.09637 -0.976336 1.02551 83 80 99 
3.18423 -0.972044 0.949059 84 87 96 
3.19345 -0.968954 0.934832 124 115 108 
2.52253 -0.822826 1.39959 98 101 154 
3.19028 -0.928033 0.943302 181 187 183 
3.06404 -0.898787 1.06405 97 109 161 
3.19949 -0.917996 0.929989 80 82 105 
3.19601 -0.906457 0.936239 173 170 177 
3.19443 -0.896137 0.939751 168 177 172 
3.20166 -0.895796 0.928493 195 188 178 
3.16582 -0.885257 0.939163 119 131 129 
3.07461 -0.85489 1.05439 123 117 177 
3.09559 -0.842554 1.03176 190 201 246 
3.16956 -0.847233 0.936606 161 165 166 
3.02915 -0.821216 1.07172 97 96 156 
3.05159 -0.820872 1.04881 104 115 160 
2.94839 -0.643223 1.09673 89 120 167 
2.96096 -0.595752 1.08581 136 146 199 
2.99947 -0.600243 1.07649 106 118 178 
3.0216 -0.59997 1.05518 125 122 179 
3.06285 -0.603287 1.04268 127 140 195 
3.12072 -0.596191 1.01281 182 186 224 
2.48009 -0.47159 1.36484 129 135 187 
2.52387 -0.474095 1.32782 130 133 184 
2.89036 -0.498855 1.09952 177 194 238 
2.64592 -0.456288 1.25003 166 149 139 
2.64408 -0.44692 1.23365 188 188 188 
2.66828 -0.446988 1.24263 138 125 134 
2.64765 -0.429295 1.24831 131 111 112 
2.6586 -0.426383 1.24824 181 193 233 
2.59067 -0.416675 1.27272 172 194 235 
2.62212 -0.418869 1.25372 182 180 220 
2.99416 -0.460314 1.02864 121 129 166 
3.11281 -0.430552 0.946953 101 80 111 
2.87985 -0.335943 1.08535 136 158 195 
2.46706 -0.289727 1.33666 149 159 210 
3.08531 -0.356457 0.88926 54 51 42 
2.87383 -0.324064 1.08109 163 185 222 
2.74016 -0.292301 1.15344 165 174 217 
2.94095 -0.310043 1.02934 103 107 155 
2.99866 -0.314659 0.998563 89 109 159 
2.86027 -0.29692 1.08351 132 143 189 
2.51097 -0.237818 1.29729 109 99 124 
2.86886 -0.255894 1.07148 115 90 122 
2.83254 -0.243052 1.10229 176 193 236 
3.08976 -0.259636 0.92773 101 98 143 
2.5703 -0.177735 1.262 157 173 209 
2.85242 -0.182844 1.0858 123 140 186 
3.08032 -0.200002 0.92153 101 95 141 
3.15021 -0.194796 0.904688 127 130 165 
3.03285 -0.16688 0.996058 65 67 106 
3.07106 -0.138522 0.922293 123 122 164 
2.50981 -0.0650656 1.32079 167 187 222 
2.98512 -0.0918091 1.0171 179 194 237 
2.97157 -0.0875376 1.02999 75 97 138 
3.03174 -0.0899563 0.999048 72 94 131 
3.01339 -0.0899095 0.989117 82 82 116 
3.05243 -0.0919454 0.977694 68 92 130 
3.0728 -0.0749491 0.916403 96 94 133 
2.51914 -0.00734235 1.32243 119 143 187 
2.99572 -0.0323909 1.00793 99 92 143 
2.98318 -0.032465 0.992738 58 78 115 
3.0124 -0.0255591 0.991551 85 89 153 
2.5319 0.0179726 1.2626 125 126 170 
3.01312 -0.00143096 0.991297 64 74 143 
2.57284 0.0303898 1.23888 118 124 172 
2.97241 0.0111362 0.998725 168 187 253 
2.9584 0.0259577 1.01787 87 112 153 
2.9761 0.0252385 1.00084 93 86 137 
2.98939 0.0241793 0.987699 62 80 118 
3.04422 0.0238388 0.988897 85 104 144 
2.64662 0.0849844 1.19256 180 199 242 
2.54315 0.144199 1.25241 110 111 155 
2.92776 0.132079 1.02186 79 71 118 
2.97188 0.136097 1.00675 192 207 248 
