ply                 
format ascii 1.0    
element vertex 1019
property float x    
property float y    
property float z    
property uchar red  
property uchar green
property uchar blue 
end_header          
-0.148834 -0.42031 1.90252 80 38 50 
0.104715 -0.404285 1.93467 109 96 113 
0.340341 -0.3585 1.75191 57 43 58 
-0.162682 -0.269776 1.93521 72 28 41 
-0.205886 -0.177953 2.01341 73 30 40 
-0.0221583 -0.0972105 1.91387 63 26 33 
-0.786879 -0.118135 2.57008 117 103 126 
-0.110121 -0.0110281 0.962219 120 100 93 
-0.336804 0.0116271 2.09115 66 29 36 
0.414112 0.0380278 1.64294 52 38 55 
-0.138471 0.0472285 1.93653 71 26 31 
-0.216761 0.0526111 1.96848 104 86 72 
-0.913068 0.0721415 2.63973 66 78 120 
0.34764 0.0962455 1.6923 79 57 78 
-0.228732 0.126077 1.92884 194 191 176 
-0.109236 0.152517 1.90195 66 19 29 
-0.303317 0.170632 2.04826 62 19 29 
-0.880307 0.22072 2.59636 84 71 97 
-0.729415 0.277251 2.47527 20 35 92 
0.30761 0.203038 1.70429 79 61 83 
-0.730739 0.300133 2.47371 49 53 91 
-0.727439 0.309319 2.47157 65 51 74 
-0.735796 0.321025 2.47405 111 136 202 
-0.765153 0.323706 2.49215 133 135 186 
-0.738605 0.330103 2.47014 109 126 178 
-0.478865 0.294743 2.08446 73 30 40 
-0.611809 0.312864 2.18327 57 40 50 
-0.139949 0.527993 3.55392 83 47 57 
0.0447715 0.275639 1.69285 73 32 46 
0.293908 0.366433 1.69645 126 123 144 
0.501038 0.467396 1.48184 39 43 78 
0.501871 0.469325 1.47954 134 172 234 
0.541965 0.46036 1.44827 32 30 70 
0.492191 0.473313 1.48746 50 39 56 
0.506729 0.470092 1.475 55 55 129 
0.5415 0.462372 1.4482 106 125 184 
0.535478 0.465383 1.45394 56 70 141 
0.496578 0.47548 1.48311 18 36 76 
0.544173 0.469901 1.4455 97 111 186 
0.521894 0.485292 1.46135 40 63 139 
0.495587 0.498165 1.48147 52 34 48 
0.491611 0.503968 1.48537 47 30 46 
0.506542 0.511879 1.47293 104 121 167 
0.503826 0.512544 1.4728 18 34 57 
0.537558 0.503673 1.44643 36 65 135 
0.54408 0.506768 1.44261 43 25 63 
0.374283 -0.350657 1.7217 64 51 69 
0.146746 -0.342385 1.89617 68 45 63 
0.416473 -0.297137 1.68135 103 87 98 
0.469619 -0.248093 1.6362 87 68 90 
-0.115371 -0.269672 1.89908 78 36 48 
-0.162885 -0.270327 1.93591 74 32 44 
0.344678 -0.219637 1.7305 71 57 80 
0.333716 -0.218871 1.7359 55 36 55 
-0.279243 -0.141905 2.06329 75 35 44 
-0.0218977 -0.0977066 1.91495 74 33 41 
-0.153155 -0.089997 1.96057 79 38 46 
-0.224427 -0.0622092 2.00493 66 37 39 
0.316632 -0.0180771 1.72503 73 54 74 
-0.251511 -0.00987633 2.02679 143 115 104 
-0.189218 0.0472432 1.97266 182 168 141 
-0.221298 0.0534792 1.9689 166 151 128 
-0.30478 0.0613805 2.06028 65 25 34 
0.347394 0.0963689 1.68868 76 54 75 
0.407587 0.0976026 1.64546 79 62 81 
0.112886 0.117367 1.78935 67 25 29 
-0.230961 0.128647 1.92901 115 103 103 
-0.238666 0.140354 1.92668 127 126 131 
-0.182272 0.151447 1.91779 105 81 81 
-0.138638 0.15439 1.92294 78 31 39 
0.120071 0.153467 1.73465 70 41 59 
-0.0109523 0.170093 1.87929 67 35 48 
0.337588 0.154402 1.68418 146 122 136 
-0.444169 0.21544 2.2014 59 24 31 
-0.761633 0.273205 2.50249 53 47 85 
-0.734544 0.280827 2.47802 157 181 243 
-0.741464 0.331346 2.47134 130 133 186 
-0.73573 0.33817 2.47001 33 35 60 
-0.478948 0.294747 2.08405 73 30 40 
-0.612007 0.313195 2.1851 57 40 50 
0.127238 0.235278 1.63371 72 36 46 
0.360159 0.240784 1.65042 72 112 207 
-0.0681004 0.264567 1.78106 78 47 55 
0.101739 0.67572 4.51066 71 41 51 
0.374084 0.261019 1.64921 75 61 84 
-0.0680235 0.290713 1.77868 81 43 56 
0.28147 0.377418 1.70336 130 122 145 
0.457457 0.430236 1.55841 78 62 75 
0.382209 0.470729 1.5759 83 66 85 
0.507745 0.470713 1.47574 34 31 110 
0.545069 0.471113 1.44332 123 145 205 
0.521819 0.485185 1.46136 40 63 139 
0.521182 0.487014 1.46314 149 164 229 
0.523626 0.487293 1.45927 146 166 229 
0.495545 0.49799 1.48149 52 34 48 
0.504626 0.509932 1.47443 28 44 96 
0.537173 0.503562 1.44639 36 65 135 
0.543606 0.506649 1.44204 43 25 63 
0.31265 -0.493024 1.78918 89 70 89 
0.12116 -0.469676 1.92569 88 70 92 
0.114123 -0.449774 1.92552 100 69 87 
0.126677 -0.434981 1.91833 82 64 86 
0.374933 -0.337344 1.71635 63 50 68 
0.437296 -0.297841 1.66483 63 51 63 
0.154691 -0.331026 1.88294 72 52 77 
0.284096 -0.293301 1.78527 118 96 109 
0.468609 -0.247599 1.6351 84 65 87 
-0.467757 -0.355278 2.36136 65 45 54 
-0.463597 -0.347205 2.35914 85 66 86 
-0.171148 -0.27372 1.93807 71 33 44 
-0.162673 -0.270102 1.93451 72 28 41 
0.344726 -0.219744 1.73077 71 57 80 
-0.307607 -0.252089 2.04782 105 64 72 
0.205814 -0.204276 1.83278 110 100 124 
-0.167072 -0.131866 1.98397 58 25 36 
-0.0218856 -0.0972413 1.91456 63 26 33 
0.515582 -0.0574106 1.57583 73 56 75 
-0.244465 -0.0515835 2.03557 41 17 15 
-0.250957 -0.0102774 2.02815 145 118 107 
-0.306875 -0.00382408 2.06386 71 40 48 
0.33516 0.0331313 1.70524 85 67 81 
-0.71019 0.0534799 2.49713 60 48 68 
-0.189632 0.0468581 1.97181 175 160 137 
0.409159 0.039184 1.64944 65 47 63 
-0.911951 0.0728091 2.63786 66 78 120 
-0.211762 0.054502 1.96765 164 149 130 
-0.322402 0.0625785 2.07377 67 27 36 
-0.76226 0.0885672 2.5278 76 63 81 
0.0563505 0.0977901 1.8334 89 40 46 
0.362126 0.0956672 1.67811 90 71 91 
0.440068 0.0971289 1.61482 102 78 100 
-0.239805 0.119388 1.9384 96 93 102 
-0.231488 0.128431 1.92787 129 120 115 
-0.250479 0.136796 1.92753 72 66 80 
0.421344 0.122712 1.62363 139 119 131 
-0.109629 0.152085 1.89977 75 29 39 
0.0192624 0.149501 1.85633 77 32 39 
-0.44375 0.215004 2.19924 65 28 36 
-0.304314 0.201114 2.04617 79 34 41 
-0.767892 0.277991 2.50734 36 44 90 
0.304478 0.20376 1.70745 131 124 142 
-0.739246 0.334141 2.47248 39 44 76 
-0.735476 0.336391 2.46843 25 27 50 
-0.241268 0.260994 1.90892 123 137 184 
-0.612897 0.299591 2.18289 64 35 40 
-0.261991 0.265048 1.92345 129 125 162 
-0.24129 0.26715 1.91003 130 138 184 
-0.178097 0.261401 1.86224 83 47 61 
-0.0693365 0.251911 1.78115 89 47 61 
0.126857 0.234751 1.63385 82 42 51 
-0.131141 0.264345 1.8288 85 44 60 
-0.0244269 0.254656 1.74901 97 50 68 
-0.176153 0.273297 1.86011 86 50 64 
0.08257 0.248059 1.66689 114 71 81 
0.292994 0.266726 1.70789 69 52 70 
0.373059 0.260914 1.64936 71 57 80 
0.277295 0.279176 1.71513 54 37 55 
-0.00163773 0.285585 1.72686 95 51 68 
0.293588 0.365964 1.69598 126 123 144 
0.284835 0.379739 1.70155 76 65 95 
-0.224163 0.344283 1.5099 96 53 73 
-0.392656 0.397127 1.55138 85 50 70 
0.328303 0.448192 1.65317 105 91 104 
0.492431 0.419834 1.53709 90 91 109 
-0.236665 0.420236 1.49787 100 51 70 
-0.222633 0.42055 1.49957 94 51 70 
0.495247 0.464625 1.48549 54 37 45 
0.501572 0.469048 1.4793 113 149 211 
0.542743 0.460231 1.44894 49 36 56 
0.538303 0.463384 1.45316 141 169 232 
0.496161 0.474904 1.48333 12 23 53 
0.534336 0.465713 1.45478 36 41 107 
0.521454 0.484529 1.46114 14 30 105 
0.520674 0.487032 1.46314 149 167 233 
0.52392 0.487041 1.45955 145 173 238 
0.496136 0.498482 1.48301 52 34 48 
0.491586 0.503807 1.486 47 30 46 
0.502658 0.511948 1.47362 11 26 47 
0.506676 0.511658 1.47311 104 121 167 
0.544225 0.506285 1.44177 43 25 63 
0.545045 0.506706 1.44258 28 17 51 
0.54302 0.504923 1.444 139 147 209 
0.540921 0.503972 1.44459 140 160 221 
0.512048 0.508375 1.4696 30 24 94 
0.550758 0.496279 1.43815 40 22 46 
0.491845 0.503443 1.48517 53 32 49 
0.495688 0.498686 1.48185 42 29 47 
0.524087 0.486449 1.45957 137 168 232 
0.521172 0.486794 1.46413 149 169 238 
0.544849 0.469772 1.44688 60 63 142 
0.497829 0.477873 1.48177 128 149 204 
0.496755 0.474895 1.48346 11 27 63 
0.542203 0.46294 1.45113 96 116 175 
0.538095 0.463247 1.45302 127 153 214 
0.543189 0.460628 1.44929 36 26 53 
0.505146 0.469422 1.47879 137 155 217 
0.499849 0.467127 1.48191 22 21 39 
0.382445 0.470556 1.57545 79 64 83 
0.325164 0.361812 1.67515 70 58 80 
0.0464467 0.32409 1.96318 106 56 67 
-0.0688467 0.256145 1.56734 85 42 52 
-0.0358448 0.265251 1.75592 128 82 92 
-0.576798 0.311521 2.15569 106 74 77 
0.126869 0.235537 1.63403 49 24 30 
-0.0696838 0.251828 1.78059 89 47 61 
-0.241608 0.266791 1.90936 129 142 187 
-0.261739 0.266553 1.92597 128 133 173 
-0.504056 0.290899 2.1047 73 35 50 
-0.764288 0.335581 2.49443 29 25 60 
-0.770582 0.325402 2.49581 51 44 75 
0.308497 0.203178 1.70413 78 59 79 
0.304692 0.203624 1.70782 124 116 137 
-0.735619 0.281059 2.48285 149 175 236 
-0.740298 0.272667 2.48818 107 135 198 
0.114555 -0.408479 1.92895 67 50 66 
-0.735164 0.265175 2.48134 41 30 47 
-0.125078 0.183857 1.9122 75 24 33 
-0.161997 0.162367 1.9258 113 100 107 
0.0194563 0.149341 1.85589 72 27 32 
-0.230373 0.144942 1.92521 130 120 108 
-0.468169 -0.35464 2.35981 61 40 49 
-0.227422 0.126193 1.93076 210 207 192 
-0.312747 -0.261684 2.04836 59 28 43 
-0.306587 -0.25846 2.04955 103 63 72 
0.0574324 0.0984479 1.83466 63 22 28 
-0.211294 0.0548947 1.96878 167 155 133 
-0.249739 -0.201567 2.04448 63 27 39 
0.413361 0.0388912 1.64294 45 34 51 
0.374618 -0.0947254 1.69022 129 123 137 
-0.0224953 -0.0969424 1.91521 63 26 33 
-0.201031 -0.0527344 2.00352 54 32 34 
-0.250962 -0.0100548 2.02853 136 115 98 
-0.710189 0.0531834 2.49718 63 51 71 
0.409376 0.0391213 1.64755 63 45 61 
-0.784147 -0.245259 2.58735 83 60 80 
0.457706 0.430102 1.5594 84 62 75 
0.478761 -0.168303 1.61768 62 46 59 
-0.322105 0.0627771 2.07457 67 27 36 
0.329385 0.448778 1.65423 122 104 118 
0.201605 -0.203652 1.83446 66 49 67 
0.332283 0.0968967 1.70053 123 106 122 
0.450179 0.0962105 1.60525 104 77 92 
0.314256 -0.233056 1.75383 134 114 126 
0.31658 0.364469 1.67943 128 128 152 
0.294422 0.366391 1.69684 120 121 142 
0.469147 -0.247927 1.63701 84 65 87 
0.279194 0.283193 1.71368 109 102 120 
0.277294 0.279086 1.71514 55 37 53 
0.320895 -0.348983 1.76005 82 61 76 
-0.44365 0.215561 2.20214 59 24 31 
0.0783026 -0.412962 1.95561 101 74 93 
-0.0247902 0.25454 1.74956 108 60 76 
-0.262851 0.276343 1.92525 75 41 55 
0.0396415 0.243202 1.70127 82 44 57 
0.0014209 0.246119 1.73039 100 52 64 
-0.0821903 0.199736 1.41475 86 48 59 
-0.729237 0.309423 2.47167 55 46 77 
0.0426324 0.294869 1.69394 92 55 72 
-0.247628 -0.141361 2.03737 71 33 44 
0.108214 0.248748 1.64533 85 52 69 
0.114629 -0.451031 1.93027 99 70 90 
0.541352 0.504446 1.44234 133 140 195 
0.54983 0.496344 1.437 32 16 42 
0.52152 0.484186 1.46145 11 24 92 
0.496402 0.474615 1.48484 13 18 40 
0.507344 0.470256 1.47354 32 20 94 
0.542786 0.460456 1.44911 36 26 53 
0.499669 0.469825 1.47926 83 127 192 
0.498942 0.467529 1.4834 12 19 35 
-0.742739 0.330272 2.47356 153 164 218 
-0.736909 0.321843 2.47258 144 167 234 
-0.746438 0.302242 2.48589 17 28 74 
-0.741774 0.272211 2.48275 156 177 242 
-0.232222 0.129807 1.92666 109 103 107 
0.491978 0.503979 1.48592 34 20 37 
0.546681 0.45784 1.44498 36 24 38 
0.439436 0.428706 1.57366 121 99 112 
0.283856 0.378537 1.70082 92 82 107 
0.0307663 0.281561 1.70356 80 39 45 
0.291403 0.267299 1.70749 58 44 59 
0.310304 0.257307 1.69193 72 55 73 
-0.0352648 0.264296 1.7502 124 78 88 
0.0543505 0.344961 2.30898 81 44 52 
0.361266 0.241333 1.65149 80 116 210 
-0.480308 0.295416 2.08935 67 27 36 
-0.262265 0.267659 1.92459 133 128 168 
-0.25599 0.262712 1.9208 55 57 105 
-0.764175 0.335404 2.49518 29 25 60 
0.40961 -0.431807 1.70388 44 22 43 
0.469803 0.188201 1.57668 55 43 57 
-0.235054 0.138257 1.9249 42 33 36 
0.341969 -0.341145 1.74972 72 49 67 
-0.912289 0.0736466 2.63789 66 78 120 
-0.13921 0.0477557 1.93653 63 22 28 
-0.172684 -0.273095 1.93904 48 21 28 
0.469027 0.0171019 1.60176 132 114 126 
0.476054 0.0131466 1.59719 104 90 107 
-0.306743 -0.257457 2.049 110 66 79 
0.313461 -0.00331121 1.72394 134 111 129 
-0.201037 -0.0526255 2.0035 54 32 34 
-0.22501 -0.0623632 2.00382 61 30 35 
-0.204413 -0.145616 2.00762 105 68 75 
0.382151 0.470678 1.57502 83 66 85 
0.49228 0.419857 1.5359 98 95 112 
-0.0982401 0.293091 1.79862 74 38 50 
-0.695495 -0.116861 2.49729 115 100 119 
0.0194011 0.150324 1.85647 73 30 39 
-0.464276 -0.348917 2.35766 92 71 86 
-0.0956572 -0.00887071 1.90685 76 33 42 
0.313744 -0.233183 1.75328 134 114 126 
0.0383406 0.243292 1.69981 68 38 50 
-0.153238 0.16655 1.93032 65 36 40 
0.398859 0.100564 1.64918 69 50 69 
-0.11052 -0.00669962 1.91753 59 28 34 
0.117847 0.274714 1.63644 103 53 65 
-0.273984 -0.138309 2.05592 68 35 44 
0.153518 -0.330768 1.88195 91 67 91 
0.320065 -0.348656 1.75914 83 62 77 
0.276102 0.278844 1.71573 52 34 48 
0.535876 0.502872 1.44921 14 22 69 
0.551769 0.497729 1.43948 18 11 29 
0.496769 0.499816 1.48441 20 16 33 
0.52521 0.487026 1.45932 149 174 240 
0.520882 0.487136 1.46409 159 178 247 
0.547713 0.469311 1.44604 21 27 59 
0.497216 0.475307 1.48562 11 27 63 
0.5411 0.462483 1.4492 126 150 212 
0.498714 0.466528 1.48217 20 18 31 
-0.735605 0.280453 2.48323 148 176 239 
-0.743353 0.272754 2.48676 130 144 207 
0.497094 0.478311 1.48152 120 136 188 
0.548006 0.457705 1.44571 48 34 49 
0.495679 0.465861 1.48501 27 15 27 
-0.738749 0.292889 2.47882 17 29 77 
-0.224352 0.147533 1.92592 76 54 40 
0.411078 -0.432744 1.70468 41 28 46 
0.0417711 0.280426 1.69483 83 41 53 
0.0356287 0.325672 1.96953 91 48 55 
-0.068065 0.290399 1.77759 74 37 54 
0.32264 0.249485 1.69158 81 58 68 
0.36128 0.240398 1.65081 75 114 209 
0.127076 0.235466 1.6352 62 29 38 
-0.256365 0.262118 1.91924 67 60 104 
0.343089 -0.340714 1.74903 66 42 58 
-0.412921 -0.385106 2.1024 65 30 34 
-0.171925 -0.273616 1.9406 64 27 35 
-0.161152 -0.271134 1.93713 59 21 32 
0.0304514 0.0965366 1.85102 40 15 21 
0.0337251 0.0930888 1.8479 61 20 24 
-0.310761 -0.263005 2.05142 56 26 38 
-0.138692 0.0473845 1.93757 71 26 31 
0.313281 -0.00407617 1.72293 121 102 121 
-0.537509 0.507998 1.53889 56 52 77 
0.480755 -0.437984 1.64925 54 42 64 
-0.553399 0.408899 1.66607 72 39 56 
-0.56695 -0.199383 2.4208 60 44 57 
0.290477 0.0921854 1.73549 72 59 77 
0.448444 0.307422 1.58266 125 112 129 
0.315619 -0.234368 1.75355 138 114 127 
-0.157453 -0.256787 1.9345 62 29 38 
0.367296 0.193921 1.6596 73 56 75 
0.307963 0.202177 1.7028 92 73 93 
0.33298 -0.219523 1.73713 67 46 61 
-0.0665498 0.263835 1.77976 62 34 46 
0.279427 -0.427531 1.80472 87 68 87 
-0.262172 0.274847 1.92385 98 57 63 
0.489457 -0.372414 1.63891 64 53 69 
0.525905 0.486743 1.45892 153 173 242 
0.532289 0.467767 1.45745 16 22 48 
0.510938 0.471624 1.47405 15 17 56 
0.543576 0.46001 1.44703 29 20 37 
-0.311248 -0.261792 2.05207 51 23 37 
0.472741 0.0151764 1.59821 72 49 65 
0.45611 0.42956 1.55923 76 52 65 
0.0264379 0.108435 1.84978 46 17 22 
0.489708 0.0896844 1.5807 132 115 131 
0.415458 -0.295333 1.68781 68 50 66 
-0.0883983 0.287567 1.79422 93 46 52 
0.310598 0.256288 1.69213 77 60 76 
0.438909 0.429015 1.57604 128 110 122 
-0.125157 0.184623 1.91109 68 21 29 
0.140721 0.169063 1.7098 65 33 36 
-0.250214 -0.13062 2.04085 54 23 29 
-0.263061 -0.111865 2.05502 61 26 30 
0.413096 0.427685 1.59468 58 49 68 
0.483163 -0.424494 1.64543 67 53 76 
-0.255139 -0.119418 2.04527 108 62 72 
0.476748 -0.167705 1.61758 61 45 56 
0.287761 0.273487 1.70832 108 103 126 
-0.181371 -0.277143 1.94102 70 43 52 
0.382354 0.470974 1.57389 73 61 81 
-0.911447 0.0724158 2.63808 66 78 120 
0.482261 0.0896584 1.58425 83 67 78 
0.0316099 0.0953381 1.84827 44 15 20 
0.328687 -0.350744 1.76122 134 120 135 
0.372175 -0.338781 1.72014 65 51 68 
-0.193008 0.00462576 1.99492 170 156 130 
-0.309523 -0.254924 2.04938 123 73 84 
0.48925 0.089665 1.58032 131 117 134 
-0.0577027 0.256011 1.56117 67 41 54 
0.288272 0.275849 1.71135 118 113 135 
0.454513 0.43117 1.55949 92 75 91 
0.317559 0.00401906 1.72594 60 46 63 
0.024482 0.0759358 1.85184 134 82 95 
0.478642 0.0101454 1.59973 122 105 124 
0.195977 -0.202542 1.84253 67 49 65 
0.27971 -0.554975 1.82692 74 50 76 
-0.197196 -0.64892 2.15887 214 202 190 
-0.152451 -0.637023 2.12212 17 43 58 
-0.60479 -0.750199 2.51195 61 46 65 
-0.18309 -0.637367 2.14872 65 81 78 
-0.205272 -0.643 2.16956 59 34 40 
0.238075 -0.547927 1.85204 137 118 137 
-0.10093 -0.625548 2.11748 117 101 127 
0.684562 -0.496504 1.69509 50 53 86 
-1.33724 -0.839618 2.897 134 144 195 
-0.161595 -0.615239 2.13123 147 138 123 
-0.331452 -0.648561 2.29467 97 88 105 
0.715222 -0.476302 1.68665 127 146 179 
-0.318932 -0.642367 2.28244 63 46 62 
0.159494 -0.536038 1.91238 81 64 96 
-1.02038 -0.780718 2.8044 42 50 99 
-0.136445 -0.532315 1.95999 80 41 59 
-0.196309 -0.542572 2.02237 112 58 72 
-1.32982 -0.757252 2.86756 123 124 180 
-1.33686 -0.752167 2.88264 107 107 161 
-0.3648 -0.59711 2.31714 122 110 134 
0.091819 -0.501686 1.95761 62 44 66 
-0.184558 -0.517411 2.03855 75 24 33 
-0.32555 -0.512725 2.10751 80 41 60 
-0.119436 -0.474633 1.9708 80 36 51 
-1.33905 -0.680344 2.87597 124 120 179 
0.198077 -0.420905 1.86623 63 46 62 
-0.712863 -0.569981 2.57107 93 76 92 
-1.25501 -0.619581 2.87839 155 157 206 
-0.842193 -0.571432 2.66023 134 122 142 
-1.26134 -0.604826 2.88343 123 124 178 
-0.641565 -0.523505 2.51697 83 56 73 
-0.716276 -0.458798 2.55673 80 59 78 
-0.906676 -0.384247 2.68618 98 109 154 
-1.03142 -0.378665 2.76324 38 42 69 
0.314815 -0.217718 1.75433 72 56 82 
0.288481 -0.211632 1.77573 68 53 72 
0.290559 -0.156332 1.7729 118 117 133 
-0.777961 -0.226804 2.58053 57 43 60 
0.703694 -0.0666554 1.63582 161 186 226 
-0.612718 -0.0780739 2.44138 122 99 115 
-1.02085 -0.0763885 2.72421 119 127 166 
-1.02615 -0.0736554 2.74619 89 88 132 
0.744099 -0.0231445 1.64185 103 113 162 
-0.234144 -0.0222366 2.02615 120 100 93 
-0.228699 -0.00808943 2.00426 189 176 159 
-0.238703 0.0191273 1.99116 190 183 164 
-0.195311 0.033156 1.981 177 161 136 
-0.817435 0.0525763 2.56386 76 70 96 
-0.0983116 0.0431548 1.90396 72 29 39 
-0.229949 0.0459509 1.97163 207 191 165 
-0.201806 0.0945867 1.9884 193 182 152 
-0.0946247 0.097363 1.89842 69 21 33 
-0.142046 0.101578 1.93726 78 28 40 
-0.289393 0.114604 2.04407 71 28 38 
-0.237813 0.109038 1.9429 175 165 155 
-0.336833 0.118017 2.07719 80 33 43 
0.704309 0.0953232 1.61694 106 125 168 
-0.251004 0.116194 1.94725 184 179 173 
-0.219117 0.121019 1.93265 135 119 119 
-0.248012 0.12566 1.92955 190 180 171 
-1.02549 0.182121 2.6974 34 41 83 
-0.196531 0.135859 1.94362 102 83 85 
-0.264465 0.142084 1.95314 137 126 120 
-0.17449 0.143073 1.9175 130 113 106 
-0.211799 0.144777 1.9232 69 58 66 
0.332773 0.128574 1.69755 63 46 62 
-0.167606 0.150496 1.91786 177 168 163 
-0.292495 0.16944 2.03986 74 28 38 
-0.333233 0.173859 2.07333 71 24 32 
-0.543669 0.211366 2.22371 102 57 77 
-0.543736 0.220891 2.21744 71 37 51 
-1.03621 0.297666 2.68721 89 90 120 
0.690976 0.174394 1.56908 83 90 134 
-1.02525 0.301105 2.6814 43 39 74 
-0.762825 0.291656 2.49692 60 62 113 
-0.763377 0.315402 2.49282 38 40 97 
0.361101 0.214039 1.65306 71 114 209 
-0.730718 0.322862 2.46758 23 34 80 
-1.03874 0.356869 2.69124 27 36 65 
-0.630935 0.302571 2.20331 50 28 40 
-1.02306 0.372368 2.6655 28 32 67 
-1.02762 0.382011 2.66988 38 53 92 
-1.0295 0.553111 2.66711 46 43 74 
-1.0353 0.56462 2.65232 32 33 53 
-1.0645 0.561755 2.63456 66 89 123 
-0.985596 0.605402 2.49496 114 126 138 
-0.962561 0.611344 2.51472 161 161 189 
-0.857764 0.575044 2.14759 100 112 102 
-0.400768 0.417535 1.55494 93 46 62 
0.668804 0.433332 1.54281 30 27 54 
-0.49885 0.508164 1.55395 155 189 252 
-0.466105 0.506644 1.533 152 184 245 
-0.498514 0.50726 1.52877 99 80 172 
0.291386 0.506492 1.46779 109 116 134 
0.184673 -0.565819 1.89693 67 49 71 
0.136199 -0.573548 1.93299 88 70 96 
-0.169848 -0.625982 2.13869 109 86 80 
-0.179023 -0.624439 2.1479 80 76 65 
-0.321408 -0.652651 2.28736 121 112 131 
-0.560245 -0.672564 2.48057 81 60 79 
0.0767996 -0.535985 1.97752 78 63 86 
0.0889439 -0.530761 1.96296 78 64 90 
-0.383778 -0.599699 2.33503 88 74 99 
-0.693406 -0.644383 2.56367 80 54 67 
0.689306 -0.418216 1.69736 21 21 45 
-0.776871 -0.633627 2.63614 87 62 84 
-0.0706369 -0.464964 1.93601 140 84 93 
-0.127849 -0.470573 1.97752 94 46 58 
-0.687738 -0.605508 2.56313 83 65 91 
0.0519826 -0.465778 1.98006 84 59 80 
0.165117 -0.443056 1.89018 93 68 90 
-1.33051 -0.670466 2.87552 109 112 163 
-0.689998 -0.566957 2.55513 82 63 82 
0.409637 -0.365595 1.70115 102 93 112 
-0.201931 -0.426591 1.99085 66 26 37 
-0.772814 -0.561215 2.62223 74 53 68 
-0.647264 -0.524345 2.52656 77 56 73 
-0.584877 -0.512885 2.47096 133 119 136 
0.30144 -0.360988 1.78076 117 108 125 
-0.489502 -0.471528 2.39188 90 67 87 
-0.903912 -0.507798 2.70526 83 88 128 
-0.718728 -0.460737 2.56673 80 59 78 
-0.909041 -0.445052 2.71013 71 74 115 
-0.0524648 -0.286209 1.90893 46 20 29 
-0.681976 -0.377682 2.52531 62 49 67 
-0.112843 -0.281651 1.89864 125 87 100 
-0.681866 -0.360888 2.52886 76 61 80 
-0.135628 -0.272918 1.91816 67 25 37 
-1.03543 -0.380755 2.77505 38 42 69 
-0.7387 -0.343316 2.56639 76 53 63 
-0.901595 -0.319636 2.68088 88 76 112 
-0.749637 -0.305702 2.56964 62 45 55 
-1.02197 -0.316111 2.75487 34 40 90 
-0.542535 -0.273374 2.41074 76 57 76 
-0.887337 -0.285734 2.66585 89 71 93 
-0.772622 -0.251482 2.58318 46 29 47 
-0.225243 -0.177789 2.02818 80 40 51 
-0.546371 -0.199602 2.40465 60 38 59 
-0.224609 -0.142141 2.03011 93 59 60 
-0.620793 -0.12923 2.45174 64 41 57 
-0.429601 -0.0877913 2.18695 93 70 80 
-0.819734 -0.0515054 2.58343 79 64 87 
-0.23815 0.0251332 1.98179 211 203 184 
-0.180319 0.0331984 1.98749 171 157 131 
-0.217989 0.0432455 1.97796 163 157 143 
-0.400099 0.0625797 2.18583 77 34 41 
-0.188093 0.0762367 1.98761 110 94 78 
-0.12614 0.075919 1.92321 73 24 30 
-0.0383348 0.10757 1.90522 68 25 32 
-1.03063 0.183798 2.71142 32 41 82 
-0.491849 0.171678 2.24135 79 30 36 
-0.458953 0.168877 2.20463 93 45 57 
0.329731 0.14441 1.69641 83 70 98 
0.322231 0.14589 1.70741 89 67 88 
0.117486 0.162802 1.72965 70 36 52 
0.135064 0.16161 1.71472 54 27 36 
-1.03306 0.296167 2.67806 89 90 120 
-0.734773 0.287696 2.47408 33 44 100 
-0.734885 0.312346 2.49254 58 48 75 
-0.773359 0.326751 2.50884 48 40 77 
-1.03695 0.351833 2.67911 80 85 114 
-1.03174 0.361538 2.67759 59 82 114 
-0.624408 0.316388 2.19543 85 74 80 
-0.000888773 0.258823 1.73079 88 54 71 
-0.611516 0.338099 2.17994 78 44 60 
-0.501563 0.330521 2.10307 85 50 70 
-0.393624 0.319815 2.02139 96 51 71 
-1.02811 0.606851 2.6238 115 97 113 
-1.19669 0.613598 2.5709 130 142 140 
-0.95058 0.610816 2.5177 167 183 217 
-0.958105 0.608596 2.50313 161 161 189 
0.704533 0.382291 1.56322 121 153 191 
-0.00731667 0.472956 1.66309 80 51 69 
0.521841 0.511797 1.45254 98 106 125 
0.410395 -0.503511 1.70781 45 32 50 
0.176032 -0.546405 1.90135 76 60 73 
0.322858 -0.498252 1.7889 67 50 69 
0.72042 -0.462751 1.6883 70 81 113 
-0.665968 -0.692957 2.54704 92 72 83 
-0.558387 -0.670282 2.46947 82 63 82 
-0.584941 -0.669515 2.48946 78 57 72 
0.241725 -0.495013 1.84466 125 111 134 
0.104255 -0.516078 1.94634 113 86 103 
-0.00953084 -0.53303 2.03837 133 107 120 
-0.734789 -0.650314 2.59846 82 67 88 
-0.171171 -0.496547 2.00938 89 41 57 
0.546824 -0.389699 1.59509 145 118 137 
-0.773779 -0.629793 2.6209 82 61 78 
0.139506 -0.455584 1.91665 99 73 98 
0.403789 -0.393131 1.70631 101 92 113 
0.0533073 -0.420608 1.97227 85 69 96 
0.0593256 -0.404268 1.9678 77 63 88 
-0.585142 -0.466855 2.4576 71 52 74 
-0.8321 -0.496428 2.64158 80 68 90 
0.158364 -0.342455 1.88022 92 69 89 
0.302764 -0.293405 1.76949 69 47 59 
-0.61124 -0.393069 2.47528 78 54 76 
0.00306817 -0.280506 1.8323 105 44 59 
-0.0453223 -0.287056 1.90063 85 39 49 
0.185312 -0.278972 1.85621 99 76 96 
-0.459448 -0.35131 2.35018 129 105 118 
-0.142358 -0.26545 1.91731 55 23 34 
-1.0256 -0.376425 2.74065 35 41 65 
0.218047 -0.251503 1.83127 99 77 98 
-0.627119 -0.332328 2.47186 72 55 74 
0.154621 -0.251952 1.88272 105 76 96 
-0.111119 -0.239676 1.91129 67 29 40 
-0.531532 -0.277257 2.40539 62 51 65 
-0.111243 -0.212414 1.91263 82 35 45 
-0.322039 -0.22433 2.05846 66 34 45 
-0.631084 -0.265412 2.47229 53 36 52 
-0.340483 -0.222528 2.07306 80 42 55 
-0.756138 -0.250413 2.55173 54 36 50 
-0.540158 -0.159076 2.39364 63 49 64 
-0.560654 -0.139178 2.40163 51 42 59 
0.14221 -0.0788864 1.86645 75 52 62 
-1.02353 -0.0722822 2.73471 55 58 101 
-0.201234 -0.00183375 2.0054 141 126 107 
-0.821514 0.0103882 2.57352 124 112 134 
0.296113 0.00755304 1.74173 81 60 77 
0.317607 0.0161323 1.72551 73 52 71 
-0.184109 0.0312985 1.97839 111 91 80 
-0.204649 0.0350919 1.99816 46 23 17 
-0.830948 0.0504904 2.57372 68 51 69 
-0.236656 0.0432866 1.97927 185 173 151 
-0.743949 0.060596 2.51477 63 46 64 
-0.196621 0.0533075 1.96977 165 149 124 
-0.372958 0.0600568 2.16682 71 31 40 
-0.420217 0.0641717 2.19599 77 36 42 
-0.11113 0.0737229 1.90896 81 36 43 
-0.192601 0.0916734 1.99141 181 167 140 
-0.128293 0.104527 1.92785 61 24 32 
-0.405487 0.118799 2.15413 86 36 47 
-0.694123 0.160535 2.47211 60 55 77 
-0.307524 0.147418 2.05349 71 31 40 
-0.210964 0.140723 1.9325 160 148 136 
-0.097451 0.150815 1.89349 85 33 45 
-0.126315 0.154207 1.91303 64 20 33 
0.000934136 0.150806 1.86958 85 42 49 
0.1361 0.151322 1.72042 66 39 48 
0.75045 0.147285 1.61179 159 173 210 
-0.118588 0.188066 1.90074 117 71 81 
-1.03329 0.307837 2.68225 76 86 113 
-0.752587 0.301283 2.47839 32 34 72 
-0.75512 0.332411 2.48246 125 118 169 
-0.285364 0.27157 1.94629 97 53 68 
-0.565702 0.301593 2.15018 78 44 58 
0.0640568 0.246895 1.68202 69 32 39 
-0.525171 0.325981 2.1174 79 44 50 
-0.416035 0.316239 2.03597 83 40 57 
-1.19899 0.438753 2.80924 95 109 156 
-0.284584 0.308845 1.93412 96 52 67 
-0.543607 0.345275 2.12498 74 42 53 
-0.108927 0.294243 1.8074 83 46 63 
-0.0786207 0.290794 1.78148 85 42 52 
-0.309295 0.240354 1.46311 98 53 73 
0.0681759 0.484813 2.93839 93 47 60 
0.10876 0.274685 1.64329 90 46 59 
0.281842 0.312311 1.71033 83 71 91 
-1.0309 0.608505 2.63315 118 101 119 
-0.0370074 0.386333 1.66545 76 39 56 
-0.541157 0.395088 1.66533 68 39 57 
-0.12393 0.368469 1.55243 97 55 79 
-1.18498 0.609939 2.55525 111 137 134 
-0.909386 0.591123 2.31345 81 98 92 
-0.197291 0.394113 1.50861 138 91 107 
-1.00783 0.571441 2.16071 99 115 112 
-0.571515 0.519528 1.64288 113 114 134 
-0.448549 0.507002 1.52709 98 104 126 
-1.06519 0.58219 2.63942 79 81 104 
-1.02718 0.545447 2.65618 74 73 105 
-1.03593 0.535323 2.65744 73 83 108 
0.405439 0.288731 1.62373 61 53 74 
0.407447 0.267151 1.62359 70 56 79 
0.677439 -0.485971 1.69941 114 125 153 
-0.310143 -0.651237 2.28267 46 38 59 
-0.0540814 0.203828 1.24382 85 42 52 
-0.438789 -0.649023 2.34641 60 56 83 
-0.434712 -0.648702 2.356 117 111 139 
-0.14312 0.274033 1.83833 133 87 100 
-0.139806 -0.5286 1.97111 78 34 51 
-0.0447511 0.255843 1.76182 98 55 65 
0.703983 -0.433601 1.68942 58 76 116 
-0.746268 0.332644 2.48734 153 164 218 
-0.0844814 -0.476053 1.94411 105 52 62 
-0.771825 -0.627063 2.61135 74 60 77 
-0.328961 -0.497994 2.10348 74 32 42 
-1.02762 0.305975 2.66181 74 78 105 
-0.735409 0.271243 2.47174 107 135 198 
0.113033 -0.399396 1.9241 63 49 66 
-0.320167 0.201801 2.05371 79 32 42 
-0.286605 -0.41779 2.04477 72 36 50 
-1.03274 0.237239 2.68378 29 34 56 
0.0478851 -0.387771 1.95802 52 31 40 
-0.838085 -0.500806 2.66164 68 56 78 
-0.906454 -0.510386 2.71705 79 72 106 
-0.159061 0.155259 1.93379 156 140 124 
0.702123 -0.276942 1.66002 54 68 105 
-0.255601 0.151965 1.93435 119 107 85 
-0.174134 0.145252 1.92726 107 87 89 
-0.000730205 -0.268132 1.83985 52 21 29 
-0.251677 0.125628 1.96002 212 207 201 
-0.393555 -0.277482 2.16925 65 33 48 
-0.746504 -0.303854 2.55252 63 50 60 
-0.192139 0.0862605 2.00159 147 137 112 
-0.127608 0.0470399 1.93292 59 23 27 
-0.173641 -0.125301 1.99095 102 63 68 
-0.000984249 0.0260219 1.88952 75 35 46 
-0.18521 0.0188375 1.98147 191 180 152 
-0.259018 0.0115435 2.02695 147 125 112 
-0.23246 0.00359499 1.99449 145 132 113 
-0.612871 -0.0131014 2.42644 55 42 59 
0.553676 0.507715 1.43463 78 79 83 
-0.142837 -0.00501871 1.94337 75 33 45 
-0.24243 -0.0486079 2.04689 82 61 44 
0.00257322 -0.0553994 1.88463 87 40 50 
-0.835439 -0.112451 2.6114 115 102 119 
0.252958 0.488295 1.67414 61 58 75 
0.286987 -0.167038 1.76772 65 54 71 
-0.761037 -0.252061 2.56909 56 33 49 
-0.104762 -0.189904 1.91382 56 23 32 
-0.294106 0.0605433 2.05991 67 27 35 
-0.430467 0.0720573 2.21231 93 46 54 
-0.329743 -0.222613 2.07454 66 28 41 
-0.321666 0.0926163 2.07175 73 28 33 
-0.541927 0.410453 1.66441 80 45 67 
-0.0439506 0.115641 1.91083 66 24 36 
0.438273 -0.229676 1.65539 71 57 74 
-0.271417 -0.656079 2.24476 122 103 122 
-0.508327 -0.34829 2.39078 78 58 70 
-0.0828171 -0.283665 1.93289 58 29 34 
0.160052 -0.548189 1.91183 119 101 115 
-0.426442 0.323501 2.0534 85 44 62 
-0.639688 -0.464303 2.50241 75 55 66 
-0.374632 -0.399366 2.07284 86 44 54 
0.145269 -0.382602 1.90617 77 51 60 
0.0846099 0.165394 1.80392 84 35 39 
-0.826365 0.370543 2.53315 128 119 146 
-0.43638 -0.629398 2.37325 74 59 80 
-0.394849 0.293707 2.02931 94 56 71 
-0.694218 -0.569459 2.56525 77 60 78 
0.0524045 -0.468832 1.99145 82 57 78 
-0.105728 0.255069 1.80741 86 48 59 
-0.545723 0.296017 2.14982 83 50 61 
0.0702272 0.221678 1.72373 106 53 69 
0.402497 -0.415243 1.70968 85 61 77 
-0.106637 -0.236625 1.92636 60 24 28 
-0.547288 0.221474 2.22712 67 35 50 
0.122111 0.14596 1.74339 94 62 77 
0.480188 0.130293 1.58258 76 60 87 
0.141608 0.0607236 1.72838 65 30 36 
-0.403888 0.396495 1.55727 98 55 72 
0.515829 0.484078 1.45255 155 173 239 
-1.0182 -0.570929 2.77623 34 46 96 
0.662985 0.46024 1.51388 137 135 149 
0.0686764 0.487947 2.95799 93 47 60 
0.320193 -0.49481 1.7742 71 56 75 
0.0409515 0.255206 1.70306 81 44 52 
0.379458 -0.434162 1.72928 46 38 53 
0.473224 0.186842 1.56791 129 115 130 
-0.0924125 -0.484162 1.96158 119 69 81 
-1.32335 -0.671812 2.86124 177 196 238 
-0.109663 0.183445 1.90151 72 27 34 
0.40417 -0.389408 1.69705 59 48 65 
-0.174395 0.15838 1.92481 44 30 43 
-0.256907 0.16138 1.96066 29 25 26 
-1.24879 -0.623304 2.84236 52 39 57 
-1.25616 -0.624762 2.88871 116 118 169 
-0.899248 -0.505657 2.69356 77 77 115 
-0.898939 -0.441169 2.68055 71 74 115 
-0.193211 0.102376 1.98444 196 184 160 
-0.230786 0.0921732 1.98837 99 86 93 
-0.235016 0.092366 1.97417 109 84 88 
0.0235849 0.0653856 1.85501 90 42 54 
-0.0113519 0.02709 1.88937 74 34 42 
-0.311059 -0.260443 2.03725 59 28 43 
-0.457134 -0.238714 2.17319 86 38 50 
-0.223342 -0.142842 2.01593 110 68 72 
0.518616 0.406457 1.51193 65 48 66 
0.443912 0.347138 1.59373 60 46 71 
-1.04293 0.528074 2.65319 27 30 45 
-0.692458 -0.117525 2.48612 115 100 119 
0.131687 -0.0791769 1.87233 79 48 64 
0.124313 -0.420933 1.93078 82 59 75 
0.166389 -0.388799 1.88393 89 62 69 
0.334205 0.100353 1.69083 74 57 75 
0.275809 -0.294224 1.79717 71 50 59 
-0.152083 -0.272386 1.9183 88 42 55 
0.475231 -0.118134 1.61875 79 55 69 
-0.469645 0.301503 2.07678 130 84 94 
-1.32388 -0.661912 2.86219 176 188 226 
0.00281451 -0.0417387 1.87146 58 26 29 
-0.202351 0.116419 1.94426 166 152 143 
-0.142553 0.1011 1.92306 92 42 54 
0.00700391 0.0114246 1.87863 134 86 102 
-0.260924 -0.469419 1.99305 75 44 52 
0.381519 -0.301035 1.71539 119 98 113 
-0.761938 0.303611 2.50377 26 32 68 
0.701675 -0.423065 1.68631 36 43 69 
-0.754683 0.272913 2.49471 134 140 198 
-1.06161 -0.381562 2.78332 31 54 88 
0.696854 0.426038 1.57949 87 94 123 
0.697617 0.379271 1.58763 35 40 70 
-1.02249 0.602212 2.61211 112 97 116 
-1.06268 0.568583 2.61869 126 129 160 
-1.07298 0.566406 2.65595 64 90 125 
0.0740802 0.254796 1.67358 134 88 101 
-1.02964 0.36038 2.66113 88 95 124 
-1.02824 0.343596 2.65749 84 87 118 
0.357722 0.194001 1.67069 60 47 64 
-0.185096 0.142217 1.93125 167 160 142 
-0.201252 0.14076 1.93648 99 81 77 
-0.218911 0.13668 1.92373 120 109 117 
-0.47333 -0.357679 2.37674 64 47 55 
-0.189815 0.0753053 1.99865 98 80 66 
-0.139727 0.0478914 1.95182 71 26 31 
0.116863 -0.00111038 1.7007 75 32 41 
-0.23853 -0.021323 2.06308 117 100 92 
-0.213204 -0.149967 2.01699 56 24 27 
0.271531 -0.0931088 1.77442 65 42 48 
-0.17984 -0.13735 1.98862 50 20 20 
-0.769834 -0.392805 2.5917 50 37 55 
-0.0611237 -0.586229 2.08077 81 62 81 
-0.168345 -0.12254 1.97944 58 23 27 
-0.689146 0.158321 2.45292 60 52 75 
-0.371713 0.132103 2.15791 40 15 21 
-0.199993 0.400628 1.52005 77 39 54 
0.448099 0.348482 1.58151 80 62 74 
-0.128588 -0.00163004 1.94265 56 26 36 
-0.382079 0.0605896 2.17286 74 37 45 
-0.246523 -0.438096 2.00902 124 80 103 
-0.238401 0.271763 1.89977 94 54 65 
-0.225173 -0.154616 2.02667 66 31 37 
-0.992758 0.607739 2.50726 113 125 137 
-1.07499 0.576055 2.65367 123 137 166 
-0.75728 0.331901 2.49284 149 162 217 
-1.03193 0.343465 2.66828 91 97 131 
-0.750781 0.270877 2.48035 134 140 198 
-0.216391 0.149104 1.93502 153 144 135 
-0.221054 -0.0413506 1.99621 49 23 22 
-0.0546079 -0.283117 1.89967 40 21 25 
0.682038 -0.415835 1.68629 38 34 57 
-1.24521 -0.6239 2.86195 114 116 165 
-0.19833 0.0889014 2.02672 161 147 120 
-1.01809 -0.314029 2.74001 36 49 94 
0.657505 -0.313845 1.66545 84 84 96 
0.647033 -0.262208 1.65251 34 22 34 
0.277182 -0.282943 1.79453 51 38 47 
-0.210326 0.0849939 1.99579 85 64 45 
-0.151213 -0.241625 1.9307 128 82 93 
0.726508 -0.198937 1.66359 150 174 212 
0.572945 0.451217 1.43436 135 126 143 
0.0187353 0.0251869 1.87144 61 30 38 
-0.107884 -0.192761 1.90067 51 22 27 
-0.499229 0.301417 2.09763 53 31 44 
-0.321329 -0.00115646 2.07352 104 72 87 
-0.232739 -0.142773 2.02281 52 21 26 
-0.242324 -0.137636 2.0485 105 60 67 
0.359423 0.195091 1.6816 58 44 59 
-0.252282 -0.131211 2.05783 54 23 29 
0.314038 -0.0266757 1.73106 133 110 130 
-0.272561 -0.0985169 2.05997 59 27 32 
0.474353 0.189045 1.58649 65 57 72 
-0.222743 -0.430065 1.99374 53 27 40 
0.190201 -0.0829251 1.83287 137 115 136 
0.230197 -0.0292829 1.79046 75 46 66 
-0.435166 -0.655234 2.36471 125 112 132 
-0.317663 -0.172375 2.06466 61 29 32 
-0.103416 -0.181808 1.9302 40 17 23 
-0.307474 0.0947083 2.07027 55 22 29 
0.154238 0.432123 2.94802 68 33 39 
-0.038684 0.168624 1.91124 82 31 36 
-0.0949982 -0.250213 1.92881 52 23 25 
0.419819 0.0914482 1.64096 54 38 49 
0.545882 0.505296 1.51622 151 174 242 
-0.740843 0.268945 2.45979 127 138 200 
-0.158345 0.155862 1.91905 165 149 133 
-0.0738294 0.25575 1.7974 64 32 43 
0.7145 -0.431642 1.67818 108 117 148 
-0.203894 0.133479 1.95103 167 155 143 
-1.26285 -0.606185 2.874 101 113 163 
-0.173842 0.273338 1.87218 55 38 46 
-0.21208 0.0918144 1.98021 124 102 78 
-0.564978 0.0464236 2.24212 138 87 102 
0.69357 -0.265233 1.65409 41 36 56 
0.12354 -0.00643314 1.69476 157 106 123 
0.6996 0.385984 1.57163 93 117 143 
-0.272541 -0.0982093 2.04998 65 30 37 
-1.03577 0.612689 2.65283 119 106 124 
-0.459768 -0.226518 2.1835 69 29 30 
-1.03286 0.613657 2.6024 30 29 35 
-0.318108 -0.212614 2.05354 121 72 91 
0.0126644 -0.213769 1.8553 62 26 30 
-0.10591 -0.17875 1.91553 28 14 14 
-0.136555 0.15948 1.96168 122 71 78 
-0.180863 -0.135119 1.97634 53 23 25 
-0.549066 0.30554 2.13486 63 48 53 
0.186356 -0.0820158 1.81822 137 114 134 
-0.15612 -0.419445 1.8952 51 25 34 
-0.506123 0.289729 2.09428 79 44 51 
-0.541948 0.295609 2.13943 67 40 49 
0.149734 0.42919 2.92175 69 32 40 
0.261286 -0.0872644 1.76818 136 114 137 
-0.205708 -0.157193 2.01859 66 31 38 
-0.0492322 -0.0671524 1.925 39 17 19 
0.294688 0.311339 1.71019 74 57 76 
-0.0982671 -0.269602 1.91287 118 66 78 
0.409164 -0.50352 1.71758 61 42 64 
0.272651 -0.440621 1.81408 80 54 79 
-0.581929 -0.471581 2.46972 113 100 117 
0.156677 -0.240988 1.87338 102 73 95 
-0.768098 -0.306139 2.57765 127 110 120 
-0.800972 -0.301534 2.60566 78 54 70 
-0.228921 -0.00781589 1.99272 194 181 164 
-0.191245 0.00725027 2.00815 201 187 158 
-0.333482 0.0641333 2.08149 65 24 30 
-0.20227 0.0806812 1.98987 129 104 82 
0.359387 0.227331 1.65184 66 108 208 
-0.886015 0.469442 2.56792 47 39 63 
-0.921799 0.568276 2.57667 134 158 192 
-0.880675 0.576284 2.53495 98 83 106 
0.3311 -0.336133 1.75236 85 67 89 
-0.907364 -0.447494 2.70177 123 135 175 
-0.680076 -0.337785 2.52194 84 65 84 
-0.275696 -0.209054 2.06853 74 34 45 
-0.159017 -0.14835 1.97033 59 27 38 
-0.686396 -0.118049 2.49231 61 51 76 
-0.039316 0.0578377 1.91029 69 27 37 
-0.0457936 0.0652717 1.91647 69 29 38 
-0.00325201 0.0847326 1.84482 109 54 73 
-0.305921 0.0913366 2.05769 76 33 40 
-0.365436 0.126146 2.14876 65 22 29 
-0.17545 0.299796 1.85675 97 54 73 
-0.100978 0.245181 1.50541 82 41 57 
-0.88603 0.584548 2.52749 87 73 96 
0.0813129 -0.497283 1.96032 105 83 106 
0.30975 -0.451832 1.78048 101 78 104 
0.389525 -0.417557 1.71717 98 69 89 
0.250073 -0.414999 1.82304 84 70 95 
-0.456517 -0.452312 2.36401 80 65 84 
0.138763 -0.276655 1.89222 97 65 80 
-0.909258 -0.385612 2.6967 106 108 147 
0.327175 -0.224665 1.74601 84 53 69 
-0.622486 -0.271093 2.47019 128 115 132 
0.474467 -0.0361258 1.60923 136 117 136 
0.298645 -0.0352534 1.74084 65 44 53 
-0.620294 -0.0124027 2.43623 104 91 111 
0.309562 0.0364041 1.72367 78 56 77 
-0.589668 0.0566593 2.22657 103 49 63 
0.51457 0.0681403 1.55978 135 112 130 
-0.463485 0.21658 2.21188 69 29 38 
-0.698005 0.262593 2.45191 125 111 124 
0.309954 0.232567 1.69863 79 64 83 
-0.457719 0.292873 2.07236 90 46 61 
-0.182404 0.196698 1.35633 108 74 88 
0.520222 0.24344 1.53397 130 100 108 
-0.534094 0.332286 2.12331 66 36 44 
-0.513749 0.330145 2.10579 67 29 40 
-0.918219 0.476055 2.59081 130 146 179 
0.27147 0.401373 1.70146 87 73 96 
0.398958 0.428505 1.60443 113 109 136 
0.0434327 0.413173 1.67099 115 70 77 
-0.928557 0.537157 2.58707 89 107 143 
0.0088905 0.283291 1.71757 96 46 57 
-0.10852 0.246135 1.51307 95 52 62 
-0.35625 -0.253046 2.08647 55 25 37 
-0.420759 0.0646505 2.2035 77 34 41 
-0.817387 0.0566936 2.57075 111 106 136 
-0.823049 0.0107143 2.58043 108 98 123 
0.271577 -0.0630595 1.76499 87 63 77 
-0.201038 -0.155208 2.00726 69 32 39 
0.374291 0.434629 1.621 66 52 78 
-0.123549 -0.241229 1.91269 79 41 54 
0.374393 -0.226337 1.70686 124 107 125 
-0.644843 -0.416169 2.50368 122 96 107 
-0.0685751 0.304067 1.77751 96 53 70 
0.0754758 0.3613 1.6536 83 40 47 
0.332569 -0.449661 1.76413 87 60 79 
0.137649 -0.478909 1.91732 100 80 105 
-0.234525 0.344157 1.5083 111 60 79 
0.272457 0.415853 1.70344 96 81 100 
0.0746445 0.436717 1.64279 86 40 50 
0.532926 0.138344 1.5377 105 73 86 
-0.502879 0.342514 2.10046 101 58 75 
0.025691 0.397763 1.68394 105 65 73 
-0.10866 0.267658 1.80947 97 59 74 
0.389805 0.851449 5.65846 68 36 47 
-0.717975 -0.000470702 2.49286 124 111 131 
0.0533009 0.106602 1.8384 61 24 32 
0.272845 -0.455099 1.81149 89 74 97 
0.370779 0.415315 1.62291 128 107 122 
-0.11962 0.145848 1.90781 153 99 113 
0.478848 -0.441882 1.65951 105 83 106 
-0.187488 -0.139367 1.99834 113 68 73 
-0.134288 -0.0197572 1.92997 56 24 29 
0.146338 0.397588 2.65636 83 50 61 
0.017657 -0.00753098 1.87466 70 30 38 
0.0993215 0.345377 2.07498 78 39 44 
-0.501384 0.302574 2.10543 59 33 44 
-0.17487 0.156261 1.90973 40 21 25 
-0.159058 0.139017 1.944 94 75 77 
0.338929 -0.109096 1.72506 57 49 64 
0.405039 -0.0488612 1.66078 63 47 60 
-0.565138 0.303683 2.15936 58 32 41 
-0.784833 -0.2453 2.57698 78 65 83 
-0.241198 -0.0193768 2.01815 146 127 110 
0.322395 0.431208 1.66408 122 114 135 
-0.119905 0.0420901 1.92411 95 45 54 
-0.164282 0.14759 1.93738 185 173 161 
0.439158 0.43897 1.56976 96 75 94 
0.313005 0.44022 1.67009 59 43 54 
-0.169175 0.192606 1.34214 82 41 57 
