ply                 
format ascii 1.0    
element vertex 1264
property float x    
property float y    
property float z    
property uchar red  
property uchar green
property uchar blue 
end_header          
-0.138708 0.154469 1.92153 78 31 39 
0.120235 0.153518 1.73292 70 41 59 
-0.0108763 0.170214 1.87783 67 35 48 
0.33793 0.154507 1.68245 146 122 136 
-0.444702 0.215482 2.20003 59 24 31 
-0.763264 0.273747 2.50313 53 47 85 
-0.735798 0.280716 2.47721 157 181 243 
-0.743026 0.332014 2.47185 130 133 186 
-0.737282 0.338857 2.47051 33 35 60 
-0.479553 0.295021 2.0829 73 30 40 
-0.612908 0.313547 2.18425 57 40 50 
0.127371 0.235385 1.63177 72 36 46 
0.360456 0.240947 1.64859 72 112 207 
-0.0681185 0.264777 1.77935 78 47 55 
0.103301 0.682214 4.53626 71 41 51 
0.374306 0.261173 1.64706 75 61 84 
-0.0681928 0.290772 1.77702 81 43 56 
0.281777 0.377579 1.70181 130 122 145 
0.457687 0.430472 1.55636 78 62 75 
0.382352 0.470979 1.57382 83 66 85 
0.507825 0.470875 1.47356 34 31 110 
0.545458 0.471429 1.44148 123 145 205 
0.521877 0.485337 1.45916 40 63 139 
0.520378 0.48675 1.4607 149 164 229 
0.52384 0.487142 1.45717 145 173 238 
0.495615 0.498164 1.4793 52 34 48 
0.504685 0.509967 1.472 28 44 96 
0.537205 0.503704 1.44417 36 65 135 
0.543877 0.506756 1.43977 43 25 63 
0.313344 -0.493894 1.78808 89 70 89 
0.121895 -0.470471 1.92428 88 70 92 
0.114561 -0.450435 1.92454 100 69 87 
0.127125 -0.435617 1.91734 82 64 86 
0.375526 -0.337716 1.715 63 50 68 
0.437891 -0.298141 1.6634 63 51 63 
0.155127 -0.331499 1.88182 72 52 77 
0.284625 -0.293667 1.78397 118 96 109 
0.469182 -0.247836 1.6336 84 65 87 
-0.468397 -0.356113 2.36145 65 45 54 
-0.464231 -0.348022 2.35922 85 66 86 
-0.171145 -0.274176 1.93677 71 33 44 
-0.162684 -0.270498 1.93318 72 28 41 
0.345254 -0.22 1.72936 71 57 80 
-0.307811 -0.252576 2.04673 105 64 72 
0.206249 -0.204563 1.8315 110 100 124 
-0.167108 -0.132155 1.98279 58 25 36 
-0.021745 -0.0974512 1.91328 63 26 33 
0.516044 -0.057469 1.57414 73 56 75 
-0.244637 -0.0517774 2.03447 41 17 15 
-0.251146 -0.0104149 2.02702 145 118 107 
-0.307156 -0.00395947 2.0628 71 40 48 
0.335411 0.033269 1.70407 85 67 81 
-0.711615 0.053484 2.49773 60 48 68 
-0.189743 0.0468014 1.97053 175 160 137 
0.409575 0.0391921 1.64775 65 47 63 
-0.91397 0.0730953 2.63916 66 78 120 
-0.211789 0.0544534 1.9662 164 149 130 
-0.322728 0.0625433 2.07273 67 27 36 
-0.763855 0.0886549 2.52854 76 63 81 
0.0565476 0.097897 1.83189 89 40 46 
0.362507 0.095723 1.67641 90 71 91 
0.44045 0.0971806 1.61305 102 78 100 
-0.239975 0.119554 1.93708 96 93 102 
-0.231658 0.128442 1.9264 129 120 115 
-0.250869 0.136973 1.92705 72 66 80 
0.421709 0.122782 1.62185 139 119 131 
-0.109404 0.1525 1.89994 75 29 39 
0.0194164 0.149521 1.85491 77 32 39 
-0.444502 0.215137 2.19864 65 28 36 
-0.30464 0.201285 2.04503 79 34 41 
-0.769546 0.278548 2.50801 36 44 90 
0.304727 0.203998 1.7059 131 124 142 
-0.740807 0.334819 2.47299 39 44 76 
-0.737024 0.337071 2.46893 25 27 50 
-0.241413 0.261221 1.90744 123 137 184 
-0.613791 0.299915 2.18202 64 35 40 
-0.262149 0.26517 1.92188 129 125 162 
-0.241502 0.267316 1.90848 130 138 184 
-0.178231 0.261543 1.86059 83 47 61 
-0.0693617 0.252014 1.77936 89 47 61 
0.126885 0.234994 1.63176 82 42 51 
-0.131295 0.26451 1.82715 85 44 60 
-0.0244019 0.25486 1.74664 97 50 68 
-0.176028 0.273562 1.8587 86 50 64 
0.0827308 0.24814 1.66541 114 71 81 
0.293279 0.266938 1.70613 69 52 70 
0.37336 0.261098 1.64752 71 57 80 
0.277566 0.2794 1.71337 54 37 55 
-0.00162359 0.285697 1.72498 95 51 68 
0.293829 0.366256 1.69414 126 123 144 
0.285136 0.38003 1.69987 76 65 95 
-0.224259 0.34407 1.50755 96 53 73 
-0.392785 0.396884 1.54897 85 50 70 
0.328502 0.448515 1.65121 105 91 104 
0.492618 0.420053 1.53501 90 91 109 
-0.236693 0.420159 1.49555 100 51 70 
-0.222745 0.420342 1.4972 94 51 70 
0.495289 0.464786 1.48339 54 37 45 
0.501624 0.469288 1.4771 113 149 211 
0.542801 0.460367 1.44675 49 36 56 
0.538136 0.463425 1.45076 127 153 214 
0.496358 0.475341 1.48111 12 23 53 
0.534347 0.465874 1.45249 36 41 107 
0.521511 0.484681 1.45895 14 30 105 
0.520733 0.487186 1.46094 149 167 233 
0.523975 0.487191 1.45735 145 173 238 
0.495803 0.498502 1.47979 52 34 48 
0.491614 0.503879 1.48367 47 30 46 
0.50267 0.512056 1.47127 11 26 47 
0.506395 0.511783 1.4708 104 121 167 
0.544207 0.506307 1.43928 43 25 63 
0.545073 0.506847 1.44036 28 17 51 
0.543045 0.505032 1.44167 139 147 209 
0.540917 0.504054 1.44215 140 160 221 
0.512103 0.508543 1.46739 30 24 94 
0.550508 0.496255 1.43526 40 22 46 
0.491926 0.503546 1.48306 53 32 49 
0.496321 0.499318 1.4811 42 29 47 
0.524116 0.486602 1.45718 137 168 232 
0.521147 0.486728 1.46173 149 169 238 
0.544415 0.469073 1.44331 60 63 142 
0.49732 0.47814 1.47957 128 149 204 
0.49715 0.47504 1.48183 11 27 63 
0.542555 0.463006 1.44901 96 116 175 
0.538158 0.463388 1.45083 127 153 214 
0.543325 0.460852 1.44734 36 26 53 
0.505112 0.469597 1.47699 137 155 217 
0.500194 0.467249 1.47993 22 21 39 
0.382672 0.470891 1.57375 79 64 83 
0.325506 0.36212 1.67296 70 58 80 
0.0465869 0.324533 1.96197 106 56 67 
-0.0688962 0.256045 1.56517 85 42 52 
-0.0358478 0.265358 1.7541 128 82 92 
-0.577613 0.311854 2.15474 106 74 77 
0.126955 0.235579 1.63207 49 24 30 
-0.0697093 0.25193 1.7788 89 47 61 
-0.24182 0.266956 1.9078 129 142 187 
-0.261978 0.266724 1.92444 128 133 173 
-0.504712 0.291177 2.10361 73 35 50 
-0.765898 0.336322 2.4953 29 25 60 
-0.772163 0.326302 2.49643 51 44 75 
0.308814 0.203331 1.7024 78 59 79 
0.305057 0.203742 1.70639 124 116 137 
-0.736684 0.280865 2.48027 149 175 236 
-0.741861 0.273203 2.48876 107 135 198 
0.114983 -0.409087 1.92796 67 50 66 
-0.736211 0.264947 2.47935 41 30 47 
-0.125139 0.183971 1.91075 75 24 33 
-0.162097 0.162449 1.92438 113 100 107 
0.0195101 0.149297 1.85396 72 27 32 
-0.230545 0.144972 1.92373 130 120 108 
-0.468847 -0.355456 2.35979 61 40 49 
-0.227588 0.126204 1.9293 210 207 192 
-0.312954 -0.262185 2.04727 59 28 43 
-0.306788 -0.258957 2.04847 103 63 72 
0.0574851 0.0983909 1.83177 63 22 28 
-0.211401 0.0548934 1.96752 167 155 133 
-0.24988 -0.201976 2.04343 63 27 39 
0.413773 0.038898 1.64124 45 34 51 
0.375094 -0.0948431 1.68867 129 123 137 
-0.0224552 -0.0971694 1.91404 63 26 33 
-0.201094 -0.0529663 2.00233 54 32 34 
-0.251131 -0.0101454 2.02743 136 115 98 
-0.711613 0.0531867 2.49779 63 51 71 
0.40979 0.0391287 1.64586 63 45 61 
-0.785741 -0.245994 2.58829 83 60 80 
0.457938 0.43034 1.55735 84 62 75 
0.479122 -0.16842 1.61571 62 46 59 
-0.322431 0.0627428 2.07354 67 27 36 
0.329586 0.449103 1.65228 122 104 118 
0.202035 -0.20394 1.83318 66 49 67 
0.332657 0.0969548 1.69886 123 106 122 
0.4506 0.0962735 1.60362 104 77 92 
0.314774 -0.233338 1.75246 134 114 126 
0.316826 0.36475 1.67757 128 128 152 
0.294664 0.366685 1.69501 120 121 142 
0.469723 -0.248164 1.63552 84 65 87 
0.279464 0.28342 1.71191 109 102 120 
0.277565 0.279309 1.71338 55 37 53 
0.321468 -0.349397 1.75876 82 61 76 
-0.44429 0.215829 2.20151 59 24 31 
0.0784969 -0.413079 1.95337 101 74 93 
-0.0248133 0.254823 1.74752 108 60 76 
-0.263072 0.276504 1.92461 75 41 55 
0.0396905 0.243187 1.69939 82 44 57 
0.00127814 0.246365 1.72839 100 52 64 
-0.0822434 0.199482 1.41248 86 48 59 
-0.730766 0.310042 2.47219 55 46 77 
0.0426686 0.294976 1.69202 92 55 72 
-0.247781 -0.141684 2.03629 71 33 44 
0.10829 0.248801 1.64337 85 52 69 
0.115071 -0.451697 1.9293 99 70 90 
0.541518 0.504763 1.44062 133 140 195 
0.549984 0.49661 1.43522 32 16 42 
0.521499 0.484544 1.45892 11 24 92 
0.496513 0.474692 1.48244 13 18 40 
0.507817 0.470705 1.47214 32 20 94 
0.543454 0.460599 1.44747 36 26 53 
0.499779 0.469985 1.47709 83 127 192 
0.499031 0.467697 1.48124 12 19 35 
-0.744318 0.330741 2.47416 153 164 218 
-0.73846 0.322491 2.47309 144 167 234 
-0.748168 0.303049 2.48639 17 28 74 
-0.743331 0.272739 2.4833 156 177 242 
-0.232235 0.129663 1.9251 109 103 107 
0.492051 0.504161 1.48373 34 20 37 
0.546579 0.457776 1.44247 36 24 38 
0.439709 0.428927 1.57182 121 99 112 
0.284088 0.378841 1.69898 92 82 107 
0.0308006 0.281661 1.70165 80 39 45 
0.291685 0.26751 1.70572 58 44 59 
0.310593 0.257501 1.69015 72 55 73 
-0.0351094 0.264498 1.7495 124 78 88 
0.054645 0.345861 2.30929 81 44 52 
0.361608 0.241518 1.64968 80 116 210 
-0.48092 0.295696 2.08821 67 27 36 
-0.262398 0.26774 1.92288 133 128 168 
-0.25622 0.262877 1.91926 55 57 105 
-0.765826 0.3361 2.4958 29 25 60 
0.41027 -0.43227 1.70259 44 22 43 
0.470151 0.18833 1.57481 55 43 57 
-0.235185 0.138342 1.92347 42 33 36 
0.342557 -0.341542 1.74842 72 49 67 
-0.914149 0.0734911 2.63902 66 78 120 
-0.139254 0.0477028 1.93518 63 22 28 
-0.172684 -0.273551 1.93774 48 21 28 
0.46945 0.017094 1.60004 132 114 126 
0.476479 0.0131364 1.59546 104 90 107 
-0.306944 -0.257952 2.04791 110 66 79 
0.313898 -0.00316887 1.72232 134 111 129 
-0.201143 -0.0528139 2.00234 54 32 34 
-0.225145 -0.0625716 2.00264 61 30 35 
-0.204499 -0.145933 2.00649 105 68 75 
0.382324 0.470675 1.57298 83 66 85 
0.492439 0.420255 1.53385 98 95 112 
-0.0983007 0.29324 1.79685 74 38 50 
-0.696591 -0.117812 2.49899 115 100 119 
0.0195119 0.150416 1.85497 73 30 39 
-0.464909 -0.349736 2.35773 92 71 86 
-0.0953786 -0.00923585 1.90526 76 33 42 
0.314261 -0.233465 1.75191 134 114 126 
0.0383894 0.24336 1.69792 68 38 50 
-0.153329 0.166644 1.92891 65 36 40 
0.399243 0.100622 1.64745 69 50 69 
-0.110515 -0.00681927 1.91616 59 28 34 
0.117918 0.274781 1.63446 103 53 65 
-0.27418 -0.138635 2.05489 68 35 44 
0.154042 -0.331296 1.88112 91 67 91 
0.320636 -0.349069 1.75785 83 62 77 
0.276373 0.279067 1.71397 52 34 48 
0.535913 0.503017 1.44699 14 22 69 
0.551174 0.497182 1.43587 18 11 29 
0.496874 0.499987 1.48222 20 16 33 
0.525079 0.487149 1.45725 149 174 240 
0.520909 0.487175 1.46162 159 178 247 
0.547766 0.469447 1.44385 21 27 59 
0.497303 0.47548 1.48345 11 27 63 
0.541679 0.463359 1.44808 126 150 212 
0.498958 0.467051 1.48071 20 18 31 
-0.737153 0.281006 2.48379 148 176 239 
-0.744919 0.273287 2.48734 130 144 207 
0.497203 0.478475 1.47935 120 136 188 
0.548082 0.457833 1.44353 48 34 49 
0.495762 0.465994 1.4831 27 15 27 
-0.740301 0.293468 2.47936 17 29 77 
-0.224519 0.147569 1.92444 76 54 40 
0.411742 -0.433209 1.7034 41 28 46 
0.0418979 0.280773 1.69276 83 41 53 
0.0357547 0.326119 1.96834 91 48 55 
-0.0680992 0.290537 1.77578 74 37 54 
0.322944 0.249678 1.68981 81 58 68 
0.36162 0.240582 1.64899 75 114 209 
0.127163 0.235509 1.63324 62 29 38 
-0.256594 0.26228 1.9177 67 60 104 
0.343678 -0.34111 1.74773 66 42 58 
-0.413248 -0.385805 2.1014 65 30 34 
-0.171923 -0.274073 1.93931 64 27 35 
-0.161164 -0.271139 1.93492 59 21 32 
0.0305876 0.0965644 1.84953 40 15 21 
0.0338649 0.093112 1.84641 61 20 24 
-0.310967 -0.263509 2.05034 56 26 38 
-0.138735 0.0473318 1.93623 71 26 31 
0.313716 -0.00408926 1.72137 121 102 121 
-0.537635 0.507673 1.53636 56 52 77 
0.48144 -0.438562 1.64782 54 42 64 
-0.553639 0.408722 1.6637 72 39 56 
-0.567892 -0.199931 2.42109 60 44 57 
0.290842 0.0922421 1.73388 72 59 77 
0.448709 0.307607 1.5807 125 112 129 
0.316097 -0.234673 1.75229 138 114 127 
-0.157438 -0.25722 1.9332 62 29 38 
0.367627 0.194055 1.65782 73 56 75 
0.308279 0.202328 1.70107 92 73 93 
0.3335 -0.219783 1.73572 67 46 61 
-0.0664952 0.263922 1.77863 62 34 46 
0.280145 -0.428059 1.80395 87 68 87 
-0.262413 0.275027 1.92231 98 57 63 
0.490126 -0.372739 1.63743 64 53 69 
0.525985 0.486886 1.45673 153 173 242 
0.531868 0.467522 1.45423 16 22 48 
0.511361 0.471924 1.4723 15 17 56 
0.544503 0.460678 1.44633 29 20 37 
-0.311455 -0.262294 2.051 51 23 37 
0.473163 0.0151671 1.59648 72 49 65 
0.456299 0.429798 1.55717 76 52 65 
0.0270242 0.108387 1.84934 46 17 22 
0.489426 0.0894325 1.5774 132 115 131 
0.415975 -0.29584 1.68669 68 50 66 
-0.0884491 0.28771 1.79244 93 46 52 
0.310888 0.256481 1.69035 77 60 76 
0.439182 0.4291 1.57363 128 110 122 
-0.125228 0.18483 1.9095 68 21 29 
0.140884 0.16912 1.70802 65 33 36 
-0.250375 -0.130929 2.03978 54 23 29 
-0.263249 -0.11215 2.05399 61 26 30 
0.413301 0.42795 1.59266 58 49 68 
0.483842 -0.424905 1.64408 67 53 76 
-0.255311 -0.119712 2.04421 108 62 72 
0.477274 -0.167863 1.616 61 45 56 
0.288039 0.273702 1.70655 108 103 126 
-0.181379 -0.277605 1.93972 70 43 52 
0.382494 0.471222 1.5718 73 61 81 
-0.913581 0.0726974 2.6387 66 78 120 
0.482643 0.0897036 1.58246 83 67 78 
0.0316476 0.0953123 1.8469 44 15 20 
0.329272 -0.351159 1.75994 134 120 135 
0.37277 -0.339157 1.71879 65 51 68 
-0.193117 0.00451798 1.99372 170 156 130 
-0.309729 -0.255416 2.04829 123 73 84 
0.489633 0.0897107 1.57852 131 117 134 
-0.0577488 0.255911 1.559 67 41 54 
0.288573 0.276001 1.70955 118 113 135 
0.454701 0.431408 1.55743 92 75 91 
0.318047 0.00374358 1.72419 60 46 63 
0.0246169 0.0759373 1.85036 134 82 95 
0.479099 0.0102491 1.59805 122 105 124 
0.196406 -0.202831 1.84127 67 49 65 
0.280409 -0.555857 1.82624 74 50 76 
-0.19731 -0.650637 2.1599 214 202 190 
-0.152449 -0.638635 2.12292 17 43 58 
-0.606476 -0.753076 2.5157 61 46 65 
-0.183166 -0.639025 2.14965 65 81 78 
-0.205408 -0.644708 2.1706 59 34 40 
0.238728 -0.548833 1.85143 137 118 137 
-0.100804 -0.627101 2.11818 117 101 127 
0.685547 -0.497049 1.69378 50 53 86 
-1.34342 -0.844143 2.90543 134 144 195 
-0.161617 -0.616792 2.13201 147 138 123 
-0.331979 -0.650515 2.29643 97 88 105 
0.716212 -0.476806 1.68529 127 146 179 
-0.319417 -0.644281 2.28413 63 46 62 
0.160057 -0.537006 1.91197 81 64 96 
-1.02441 -0.784465 2.81096 42 50 99 
-0.136405 -0.533386 1.95994 80 41 59 
-0.196396 -0.543762 2.0226 112 58 72 
-1.33568 -0.761168 2.87527 123 124 180 
-1.34277 -0.756067 2.89041 107 107 161 
-0.365425 -0.598911 2.31887 122 110 134 
0.0922736 -0.502631 1.95728 62 44 66 
-0.184624 -0.518558 2.0388 75 24 33 
-0.325948 -0.513957 2.10807 80 41 60 
-0.119369 -0.475562 1.97062 80 36 51 
-1.34473 -0.683748 2.88316 124 120 179 
0.198623 -0.421563 1.86543 63 46 62 
-0.714871 -0.572109 2.57449 93 76 92 
-1.26009 -0.622579 2.88503 155 157 206 
-0.844841 -0.573726 2.6644 134 122 142 
-1.26644 -0.607751 2.89006 123 124 178 
-0.643205 -0.525338 2.51976 83 56 73 
-0.718165 -0.460421 2.55955 80 59 78 
-0.909348 -0.385716 2.68959 98 109 154 
-1.03469 -0.380195 2.76721 38 42 69 
0.315325 -0.217948 1.7529 72 56 82 
0.288973 -0.211864 1.77432 68 53 72 
0.291021 -0.15649 1.77138 118 117 133 
-0.77981 -0.22757 2.58235 57 43 60 
0.704365 -0.0666705 1.63404 161 186 226 
-0.6138 -0.0783391 2.44168 122 99 115 
-1.02392 -0.0772817 2.72942 126 134 173 
-1.02875 -0.0740029 2.74812 89 88 132 
0.744792 -0.0231227 1.64003 103 113 162 
-0.234268 -0.0222997 2.02472 120 100 93 
-0.228811 -0.00813147 2.00275 189 176 159 
-0.238819 0.0191179 1.9895 190 183 164 
-0.195378 0.0331639 1.97928 177 161 136 
-0.818969 0.0525887 2.56403 76 70 96 
-0.0982776 0.0431781 1.9021 72 29 39 
-0.230049 0.04597 1.96983 207 191 165 
-0.20188 0.0946542 1.98652 193 182 152 
-0.0945961 0.0974285 1.89638 69 21 33 
-0.142019 0.101498 1.93311 78 28 40 
-0.289563 0.114688 2.04218 71 28 38 
-0.237907 0.109105 1.94081 175 165 155 
-0.337064 0.118107 2.07535 80 33 43 
0.704863 0.0954279 1.615 106 125 168 
-0.251108 0.116265 1.94513 184 179 173 
-0.21934 0.121272 1.93305 135 119 119 
-0.248107 0.125734 1.92737 190 180 171 
-1.02749 0.182402 2.69749 34 41 83 
-0.196591 0.13595 1.9415 102 83 85 
-0.264578 0.142171 1.95095 137 126 120 
-0.174529 0.143164 1.91532 130 113 106 
-0.211866 0.144865 1.92098 69 58 66 
0.333054 0.128671 1.69545 63 46 62 
-0.16764 0.150591 1.91565 177 168 163 
-0.292656 0.169564 2.03776 74 28 38 
-0.333443 0.173993 2.07127 71 24 32 
-0.544164 0.211553 2.22179 102 57 77 
-0.544213 0.22108 2.21543 71 37 51 
-1.03796 0.298114 2.6865 89 90 120 
0.691398 0.17453 1.56705 83 90 134 
-1.02694 0.301547 2.68057 43 39 74 
-0.763837 0.292021 2.49552 60 62 113 
-0.764352 0.315785 2.49127 38 40 97 
0.361314 0.21416 1.6508 71 114 209 
-0.732905 0.323614 2.47079 23 34 80 
-1.04037 0.357379 2.69014 27 36 65 
-0.631373 0.302764 2.20073 50 28 40 
-1.0246 0.372881 2.66424 28 32 67 
-1.02913 0.382526 2.66851 38 53 92 
-1.03068 0.553694 2.66472 46 43 74 
-1.03642 0.56518 2.64978 32 33 53 
-1.06558 0.562268 2.63186 66 89 123 
-0.986199 0.605701 2.49138 114 126 138 
-0.963221 0.611698 2.5113 161 161 189 
-0.857661 0.574869 2.14303 100 112 102 
-0.400542 0.417146 1.55104 93 46 62 
0.669034 0.433522 1.54055 30 27 54 
-0.498398 0.50749 1.54951 155 189 252 
-0.465701 0.505981 1.52867 152 184 245 
-0.498035 0.506552 1.52433 99 80 172 
0.291242 0.5064 1.46503 109 116 134 
0.185282 -0.566836 1.89653 67 49 71 
0.136747 -0.574635 1.93272 88 70 96 
-0.169891 -0.627588 2.13956 109 86 80 
-0.179088 -0.626046 2.14878 80 76 65 
-0.321905 -0.654618 2.28912 121 112 131 
-0.561673 -0.67499 2.48371 81 60 79 
0.0772493 -0.537049 1.97736 78 63 86 
0.0894049 -0.531784 1.96271 78 64 90 
-0.384471 -0.601544 2.3369 88 74 99 
-0.695401 -0.646844 2.56735 80 54 67 
0.690272 -0.418662 1.69601 21 21 45 
-0.779298 -0.636185 2.6404 87 62 84 
-0.0704843 -0.465822 1.93566 140 84 93 
-0.127798 -0.4715 1.97735 94 46 58 
-0.689671 -0.607779 2.56662 83 65 91 
0.0523642 -0.466669 1.97974 84 59 80 
0.165637 -0.443786 1.8895 93 68 90 
-1.33613 -0.67381 2.88265 109 112 163 
-0.691897 -0.569045 2.55841 82 63 82 
0.41028 -0.365992 1.69986 102 93 112 
-0.202023 -0.427437 1.99068 66 26 37 
-0.775118 -0.563393 2.62603 74 53 68 
-0.64894 -0.5262 2.52945 77 56 73 
-0.586269 -0.514606 2.4734 133 119 136 
0.302033 -0.361451 1.77964 117 108 125 
-0.490497 -0.472977 2.39365 90 67 87 
-0.906795 -0.509854 2.70946 83 88 128 
-0.720638 -0.462377 2.5696 80 59 78 
-0.911869 -0.446824 2.71407 71 74 115 
-0.0521802 -0.286923 1.90925 46 20 29 
-0.68363 -0.378943 2.52753 62 49 67 
-0.112785 -0.28208 1.89772 125 87 100 
-0.683503 -0.362086 2.531 76 61 80 
-0.135605 -0.273344 1.91726 67 25 37 
-1.03875 -0.382306 2.77911 38 42 69 
-0.740538 -0.344481 2.56866 76 53 63 
-0.904146 -0.320833 2.68391 88 76 112 
-0.751477 -0.306734 2.57178 62 45 55 
-1.0245 -0.317431 2.75665 34 40 90 
-0.543565 -0.274161 2.41174 76 57 76 
-0.889753 -0.286781 2.66857 89 71 93 
-0.774484 -0.252332 2.58512 46 29 47 
-0.225368 -0.178102 2.02729 80 40 51 
-0.547357 -0.20017 2.40533 60 38 59 
-0.22473 -0.142389 2.02909 93 59 60 
-0.62195 -0.12963 2.45234 64 41 57 
-0.430099 -0.0879991 2.18622 93 70 80 
-0.821454 -0.0517433 2.5843 79 64 87 
-0.238263 0.0251305 1.98008 211 203 184 
-0.180371 0.0332072 1.98581 171 157 131 
-0.218079 0.0432627 1.9762 163 157 143 
-0.400485 0.0626153 2.18449 77 34 41 
-0.188154 0.0762883 1.98579 110 94 78 
-0.126134 0.0757765 1.92085 73 24 30 
-0.0382563 0.10765 1.90321 68 25 32 
-1.03265 0.184083 2.71152 32 41 82 
-0.492332 0.171843 2.23969 79 30 36 
-0.45937 0.169031 2.20288 93 45 57 
0.329997 0.144514 1.69427 83 70 98 
0.322498 0.145994 1.70526 89 67 88 
0.117605 0.162891 1.72735 70 36 52 
0.135423 0.161836 1.71408 54 27 36 
-1.03476 0.2966 2.67723 89 90 120 
-0.7373 0.28841 2.4788 33 44 100 
-0.735849 0.312742 2.49111 58 48 75 
-0.77436 0.327154 2.5073 48 40 77 
-1.03855 0.352322 2.67793 80 85 114 
-1.03333 0.362045 2.67642 59 82 114 
-0.624822 0.316581 2.19278 85 74 80 
-0.000867127 0.2589 1.72814 88 54 71 
-0.61189 0.338289 2.17718 78 44 60 
-0.501819 0.330684 2.10026 85 50 70 
-0.393789 0.319955 2.01858 96 51 71 
-1.02904 0.607339 2.62077 115 97 113 
-1.19736 0.613852 2.56705 130 142 140 
-0.951237 0.611174 2.51428 167 183 217 
-0.958733 0.608928 2.49965 161 161 189 
0.704849 0.382495 1.56102 121 153 191 
-0.0073718 0.472883 1.6599 80 51 69 
0.521792 0.511835 1.45009 98 106 125 
0.411123 -0.504132 1.70673 45 32 50 
0.176194 -0.546434 1.89801 76 60 73 
0.323559 -0.49897 1.78802 67 50 69 
0.721421 -0.463244 1.68695 70 81 113 
-0.667877 -0.695617 2.55079 92 72 83 
-0.559794 -0.672678 2.47254 82 63 82 
-0.586461 -0.671941 2.49265 78 57 72 
0.242353 -0.495793 1.84393 125 111 134 
0.104733 -0.517047 1.94602 113 86 103 
-0.009231 -0.534174 2.03845 133 107 120 
-0.736996 -0.652869 2.60244 82 67 88 
-0.171205 -0.497587 2.00942 89 41 57 
0.547495 -0.390034 1.59367 145 118 137 
-0.77616 -0.6323 2.62501 82 61 78 
0.140005 -0.456371 1.91607 99 73 98 
0.403837 -0.393039 1.70303 101 92 113 
0.0536743 -0.421381 1.97183 85 69 96 
0.0596965 -0.405 1.9673 77 63 88 
-0.586485 -0.468374 2.45975 71 52 74 
-0.834574 -0.498334 2.64521 80 68 90 
0.158825 -0.342973 1.87931 92 69 89 
0.303316 -0.293753 1.76823 69 47 59 
-0.612625 -0.394329 2.47722 78 54 76 
0.00327376 -0.280884 1.8312 105 44 59 
-0.0451671 -0.287494 1.8997 85 39 49 
0.185771 -0.279359 1.85511 99 76 96 
-0.46026 -0.352291 2.35121 129 105 118 
-0.142345 -0.265864 1.9164 55 23 34 
-1.02882 -0.377935 2.74453 35 41 65 
0.218519 -0.251827 1.83006 99 77 98 
-0.628493 -0.333365 2.47351 72 55 74 
0.155039 -0.252308 1.88161 105 76 96 
-0.111064 -0.240038 1.9103 67 29 40 
-0.532532 -0.278053 2.40639 62 51 65 
-0.111192 -0.212726 1.91153 82 35 45 
-0.322336 -0.224751 2.05781 66 34 45 
-0.632414 -0.266226 2.47365 53 36 52 
-0.340817 -0.222956 2.07248 80 42 55 
-0.757903 -0.251237 2.55347 54 36 50 
-0.541088 -0.159526 2.39407 63 49 64 
-0.56163 -0.139583 2.40204 51 42 59 
0.142531 -0.0789825 1.86493 75 52 62 
-1.02612 -0.0726237 2.73663 55 58 101 
-0.201313 -0.00186721 2.00386 141 126 107 
-0.823128 0.0103058 2.57396 124 112 134 
0.296464 0.00757033 1.73986 81 60 77 
0.317536 0.0160441 1.72192 73 52 71 
-0.184164 0.0313052 1.97669 111 91 80 
-0.20473 0.0351017 1.99651 46 23 17 
-0.832524 0.0504977 2.57394 68 51 69 
-0.236764 0.0433024 1.97748 185 173 151 
-0.745262 0.0606281 2.51473 63 46 64 
-0.196686 0.0533351 1.96795 165 149 124 
-0.373299 0.0600902 2.16546 71 31 40 
-0.420638 0.0642091 2.19469 77 36 42 
-0.111112 0.0737711 1.907 81 36 43 
-0.192666 0.0917395 1.98955 181 167 140 
-0.128294 0.1046 1.92583 61 24 32 
-0.405834 0.118897 2.15247 86 36 47 
-0.69516 0.160738 2.47134 60 55 77 
-0.307708 0.147529 2.05149 71 31 40 
-0.211032 0.14081 1.9303 160 148 136 
-0.0974322 0.150913 1.89129 85 33 45 
-0.126319 0.154308 1.91082 64 20 33 
0.00107436 0.151043 1.86811 85 42 49 
0.136231 0.151408 1.71815 66 39 48 
0.751011 0.147425 1.60982 159 173 210 
-0.118589 0.188181 1.89843 117 71 81 
-1.035 0.308292 2.68144 76 86 113 
-0.753548 0.301648 2.47687 32 34 72 
-0.756046 0.3328 2.48078 125 118 169 
-0.285464 0.271693 1.94363 97 53 68 
-0.566051 0.301768 2.14753 78 44 58 
0.0640915 0.246966 1.67944 69 32 39 
-0.525456 0.326151 2.11464 79 44 50 
-0.416215 0.316378 2.03315 83 40 57 
-1.20093 0.439402 2.80809 95 109 156 
-0.284671 0.308957 1.9313 96 52 67 
-0.543883 0.345437 2.12208 74 42 53 
-0.108938 0.294328 1.80463 83 46 63 
-0.0786241 0.290872 1.77872 85 42 52 
-0.309188 0.240211 1.45995 98 53 73 
0.0686908 0.486083 2.93962 93 47 60 
0.108785 0.274747 1.64068 90 46 59 
0.281992 0.312456 1.70787 83 71 91 
-1.03187 0.609021 2.63022 118 101 119 
-0.037042 0.386307 1.6624 76 39 56 
-0.540853 0.394763 1.66126 68 39 57 
-0.123958 0.368323 1.54924 97 55 79 
-1.18563 0.610177 2.55137 111 137 134 
-0.909596 0.591172 2.30929 81 98 92 
-0.197273 0.393854 1.5052 138 91 107 
-1.00753 0.571154 2.15575 99 115 112 
-0.571015 0.518887 1.63825 113 114 134 
-0.448171 0.506344 1.52279 98 104 126 
-1.06625 0.58271 2.63664 79 81 104 
-1.02833 0.546009 2.65375 74 73 105 
-1.03709 0.535872 2.65501 73 83 108 
0.405614 0.288864 1.62138 61 53 74 
0.407632 0.267279 1.62127 70 56 79 
0.678418 -0.486507 1.6981 114 125 153 
-0.310605 -0.653189 2.28439 46 38 59 
-0.0541556 0.203711 1.24126 85 42 52 
-0.439681 -0.651106 2.34861 60 56 83 
-0.435598 -0.650797 2.35824 117 111 139 
-0.143141 0.274131 1.83563 133 87 100 
-0.139773 -0.529676 1.97109 78 34 51 
-0.0447385 0.255924 1.75917 98 55 65 
0.704943 -0.434051 1.68804 58 76 116 
-0.747195 0.333042 2.4857 153 164 218 
-0.0843499 -0.476957 1.94385 105 52 62 
-0.774173 -0.629532 2.61534 74 60 77 
-0.329363 -0.499181 2.10399 74 32 42 
-1.03122 0.306927 2.66646 74 78 105 
-0.736388 0.271584 2.47041 107 135 198 
0.113471 -0.40007 1.92344 63 49 66 
-0.320347 0.201943 2.05148 79 32 42 
-0.286875 -0.418673 2.04478 72 36 50 
-1.0346 0.237604 2.68344 29 34 56 
0.0482296 -0.388461 1.95748 52 31 40 
-0.840634 -0.502768 2.66548 68 56 78 
-0.909357 -0.51246 2.7213 79 72 106 
-0.15909 0.155361 1.93159 156 140 124 
0.702953 -0.277176 1.65846 54 68 105 
-0.2557 0.152053 1.93209 119 107 85 
-0.174174 0.145345 1.92507 107 87 89 
-0.000529399 -0.268497 1.83875 52 21 29 
-0.251784 0.125708 1.9579 212 207 201 
-0.394058 -0.278102 2.16919 65 33 48 
-0.748316 -0.304871 2.55459 63 50 60 
-0.192206 0.0863228 1.99977 147 137 112 
-0.127602 0.0470653 1.93109 59 23 27 
-0.173684 -0.125506 1.98979 102 63 68 
-0.000852064 0.0260344 1.88773 75 35 46 
-0.185267 0.0188307 1.97984 191 180 152 
-0.259169 0.0115224 2.02542 147 125 112 
-0.232572 0.0035679 1.99288 145 132 113 
-0.613891 -0.0132151 2.42643 55 42 59 
0.553637 0.507763 1.43224 78 79 83 
-0.142843 -0.0050477 1.94171 75 33 45 
-0.242572 -0.0487115 2.0456 82 61 44 
0.00272901 -0.0554732 1.88303 87 40 50 
-0.837347 -0.112871 2.6128 115 102 119 
0.252971 0.488375 1.67132 61 58 75 
0.287452 -0.16721 1.76624 65 54 71 
-0.762839 -0.252901 2.57092 56 33 49 
-0.104704 -0.190179 1.91265 56 23 32 
-0.2943 0.060577 2.05828 67 27 35 
-0.430915 0.0721071 2.21107 93 46 54 
-0.330059 -0.22304 2.07394 66 28 41 
-0.321885 0.0926811 2.06998 73 28 33 
-0.541612 0.410104 1.6603 80 45 67 
-0.0438775 0.115727 1.90882 66 24 36 
0.438824 -0.229867 1.65386 71 57 74 
-0.271752 -0.657974 2.24626 122 103 122 
-0.509309 -0.34931 2.39208 78 58 70 
-0.0827121 -0.284128 1.93209 58 29 34 
0.160618 -0.549181 1.91143 119 101 115 
-0.426636 0.32365 2.05059 85 44 62 
-0.641267 -0.465884 2.50492 75 55 66 
-0.375087 -0.40023 2.07291 86 44 54 
0.145742 -0.383221 1.90541 77 51 60 
0.0847417 0.1655 1.80168 84 35 39 
-0.827408 0.370987 2.53144 128 119 146 
-0.437279 -0.631447 2.37554 74 59 80 
-0.395032 0.293853 2.02662 94 56 71 
-0.696146 -0.57157 2.5686 77 60 78 
0.0527939 -0.469747 1.99119 82 57 78 
-0.105733 0.255162 1.80478 86 48 59 
-0.546072 0.2962 2.14725 83 50 61 
0.0702935 0.221771 1.72126 106 53 69 
0.403176 -0.415727 1.7085 85 61 77 
-0.106575 -0.236989 1.92537 60 24 28 
-0.547774 0.221665 2.22511 67 35 50 
0.12225 0.146049 1.74116 94 62 77 
0.480468 0.130387 1.58048 76 60 87 
0.14179 0.0607705 1.72634 65 30 36 
-0.403669 0.396144 1.55344 98 55 72 
0.515791 0.484123 1.45012 155 173 239 
-1.02181 -0.573428 2.78143 34 46 96 
0.663154 0.460407 1.51159 137 135 149 
0.0691992 0.489242 2.95931 93 47 60 
0.320871 -0.495501 1.77327 71 56 75 
0.0409828 0.255281 1.70046 81 44 52 
0.380138 -0.434695 1.72816 46 38 53 
0.473449 0.186949 1.56574 129 115 130 
-0.0922941 -0.4851 1.96137 119 69 81 
-1.32889 -0.67514 2.86826 177 196 238 
-0.109658 0.183558 1.8992 72 27 34 
0.404818 -0.389838 1.6958 59 48 65 
-0.174435 0.158479 1.92257 44 30 43 
-0.257013 0.16148 1.95841 29 25 26 
-1.25373 -0.626257 2.8487 52 39 57 
-1.26127 -0.627796 2.89543 116 118 169 
-0.902085 -0.507684 2.69766 77 77 115 
-0.901651 -0.442878 2.6842 71 74 115 
-0.193274 0.102449 1.9825 196 184 160 
-0.230886 0.0922346 1.98645 99 86 93 
-0.235119 0.0924279 1.97225 109 84 88 
0.0237185 0.0654332 1.85305 90 42 54 
-0.0112312 0.027103 1.88757 74 34 42 
-0.311337 -0.260929 2.03668 59 28 43 
-0.45775 -0.239244 2.17303 86 38 50 
-0.22346 -0.143087 2.0149 110 68 72 
0.518686 0.406561 1.50954 65 48 66 
0.444047 0.347266 1.59132 60 46 71 
-1.04501 0.529078 2.65273 23 28 47 
-0.693806 -0.117906 2.48679 115 100 119 
0.132001 -0.0792755 1.87083 79 48 64 
0.124785 -0.421666 1.93021 82 59 75 
0.167257 -0.389871 1.88564 89 62 69 
0.334496 0.100434 1.68877 74 57 75 
0.276346 -0.29459 1.79595 71 50 59 
-0.152084 -0.272813 1.91741 88 42 55 
0.475705 -0.118196 1.61703 79 55 69 
-0.469886 0.301657 2.07407 130 84 94 
-1.32937 -0.66516 2.86907 176 188 226 
0.00296405 -0.0417946 1.86982 58 26 29 
-0.202415 0.116495 1.94218 166 152 143 
-0.142565 0.101168 1.92105 92 42 54 
0.00714457 0.0114237 1.87686 134 86 102 
-0.261132 -0.470382 1.99304 75 44 52 
0.382114 -0.301354 1.71404 119 98 113 
-0.762959 0.303998 2.50239 26 32 68 
0.702629 -0.423501 1.68492 36 43 69 
-0.755707 0.27326 2.49341 134 140 198 
-1.06508 -0.383143 2.78757 31 54 88 
0.697166 0.426261 1.57725 87 94 123 
0.697955 0.379484 1.58541 35 40 70 
-1.02342 0.602699 2.60912 112 97 116 
-1.0637 0.569065 2.61584 126 129 160 
-1.07409 0.56693 2.65324 64 90 125 
0.0741965 0.254929 1.67168 134 88 101 
-1.03118 0.360871 2.65986 88 95 124 
-1.02981 0.344075 2.65635 84 87 118 
0.357962 0.194122 1.66848 60 47 64 
-0.185144 0.142308 1.92907 167 160 142 
-0.201313 0.140849 1.9343 99 81 77 
-0.218984 0.136763 1.92153 120 109 117 
-0.47421 -0.358714 2.37798 64 47 55 
-0.189629 0.0755457 1.99104 98 80 66 
-0.139733 0.0479176 1.95004 71 26 31 
0.117036 -0.00110363 1.69875 75 32 41 
-0.238671 -0.0213908 2.0618 117 100 92 
-0.213308 -0.150225 2.01598 56 24 27 
0.271254 -0.0927741 1.76954 65 42 48 
-0.179891 -0.137573 1.98748 50 20 20 
-0.771883 -0.394202 2.59445 50 37 55 
-0.0609158 -0.587589 2.08117 81 62 81 
-0.168379 -0.122736 1.97823 58 23 27 
-0.690149 0.158515 2.45206 60 52 75 
-0.372024 0.132221 2.15626 40 15 21 
-0.199975 0.400372 1.51664 77 39 54 
0.44823 0.348609 1.57912 80 62 74 
-0.128579 -0.00165473 1.94099 56 26 36 
-0.382435 0.0606233 2.17152 74 37 45 
-0.246703 -0.438987 2.00894 124 80 103 
-0.238468 0.271872 1.89708 94 54 65 
-0.225295 -0.154885 2.02568 66 31 37 
-0.993405 0.608066 2.50377 113 125 137 
-1.0761 0.576594 2.65099 123 137 166 
-0.758244 0.332307 2.49127 149 162 217 
-1.03778 0.345625 2.67932 91 97 131 
-0.751778 0.271214 2.47898 134 140 198 
-0.216464 0.149196 1.9328 153 144 135 
-0.221158 -0.0414344 1.9948 49 23 22 
-0.0544664 -0.283549 1.89874 40 21 25 
0.682976 -0.416268 1.68492 38 34 57 
-1.25023 -0.626904 2.86852 114 116 165 
-0.198406 0.0889688 2.02496 161 147 120 
-1.02116 -0.315261 2.74347 36 49 94 
0.658332 -0.314133 1.66397 84 84 96 
0.647789 -0.262422 1.65095 34 22 34 
0.277713 -0.28329 1.79328 51 38 47 
-0.210409 0.085052 1.99393 85 64 45 
-0.151215 -0.242005 1.92977 128 82 93 
0.727328 -0.199087 1.66196 150 174 212 
0.572947 0.45129 1.43204 135 126 143 
0.0184957 0.0252067 1.86937 61 30 38 
-0.10783 -0.193038 1.89953 51 22 27 
-0.499496 0.301574 2.09491 53 31 44 
-0.321572 -0.00119971 2.0721 104 72 87 
-0.23287 -0.143019 2.02176 52 21 26 
-0.242476 -0.137885 2.04753 105 60 67 
0.359672 0.195215 1.67939 58 44 59 
-0.252453 -0.131455 2.0569 54 23 29 
0.314419 -0.0266857 1.72926 133 110 130 
-0.272756 -0.0987027 2.0589 59 27 32 
0.474595 0.189158 1.58431 65 57 72 
-0.222875 -0.430923 1.99359 53 27 40 
0.190565 -0.0830178 1.83133 137 115 136 
0.230545 -0.0293066 1.78873 75 46 66 
-0.436061 -0.657367 2.36701 125 112 132 
-0.317941 -0.172694 2.06384 61 29 32 
-0.103357 -0.182078 1.92905 40 17 23 
-0.307677 0.0947763 2.0685 55 22 29 
0.155024 0.433289 2.94949 68 33 39 
-0.038616 0.168747 1.90911 82 31 36 
-0.0949182 -0.250602 1.92786 52 23 25 
0.420139 0.0915272 1.63892 54 38 49 
0.545923 0.505399 1.51376 151 174 242 
-0.741792 0.269266 2.45833 127 138 200 
-0.158373 0.155962 1.91683 165 149 133 
-0.0738214 0.255846 1.79479 64 32 43 
0.715454 -0.432079 1.67678 108 117 148 
-0.203962 0.133568 1.94893 167 155 143 
-1.26794 -0.609104 2.88057 101 113 163 
-0.173878 0.273448 1.86951 55 38 46 
-0.212162 0.0918771 1.9783 124 102 78 
-0.565654 0.0464307 2.24102 138 87 102 
0.694374 -0.26545 1.65251 41 36 56 
0.12372 -0.00642931 1.69283 157 106 123 
0.699921 0.386193 1.56942 93 117 143 
-0.272733 -0.0983924 2.0489 65 30 37 
-1.03679 0.613239 2.65 119 106 124 
-0.460387 -0.227022 2.18331 69 29 30 
-1.03371 0.614098 2.59919 30 29 35 
-0.318394 -0.213011 2.05287 121 72 91 
0.0128702 -0.214051 1.85408 62 26 30 
-0.105855 -0.179008 1.91434 28 14 14 
-0.136568 0.159598 1.95958 122 71 78 
-0.180915 -0.135338 1.97521 53 23 25 
-0.549389 0.30571 2.13218 63 48 53 
0.186704 -0.0821034 1.81665 137 114 134 
-0.156118 -0.420166 1.89469 51 25 34 
-0.506409 0.28989 2.09166 79 44 51 
-0.542288 0.295788 2.13685 67 40 49 
0.150499 0.430336 2.92314 69 32 40 
0.261675 -0.0873417 1.76652 136 114 137 
-0.2058 -0.157462 2.01759 66 31 38 
-0.0491226 -0.0672521 1.92355 39 17 19 
0.293716 0.310483 1.70294 74 57 76 
-0.0981894 -0.270021 1.91196 118 66 78 
0.409816 -0.504057 1.71631 61 42 64 
0.273178 -0.441156 1.81286 80 54 79 
-0.582959 -0.472608 2.46961 113 100 117 
0.157075 -0.241318 1.87217 102 73 95 
-0.769648 -0.306938 2.57808 127 110 120 
-0.802634 -0.30234 2.6062 78 54 70 
-0.228903 -0.00797728 1.99164 194 181 164 
-0.191294 0.00720064 2.00713 201 187 158 
-0.333832 0.0640071 2.08064 65 24 30 
-0.202318 0.0807369 1.98883 129 104 82 
0.359831 0.227526 1.65016 66 108 208 
-0.888103 0.470769 2.57001 47 39 63 
-0.924053 0.569984 2.57906 134 158 192 
-0.882871 0.577884 2.53675 98 83 106 
0.331652 -0.336504 1.75103 85 67 89 
-0.909338 -0.448631 2.70232 123 135 175 
-0.681371 -0.338615 2.52217 84 65 84 
-0.275915 -0.209419 2.06745 74 34 45 
-0.158822 -0.148675 1.97032 59 27 38 
-0.687702 -0.118426 2.4928 61 51 76 
-0.0391451 0.057871 1.9091 69 27 37 
-0.0456264 0.0653154 1.91529 69 29 38 
-0.00305194 0.0847929 1.84345 109 54 73 
-0.306138 0.0914082 2.05683 76 33 40 
-0.365792 0.126299 2.14827 65 22 29 
-0.175348 0.300181 1.85591 97 54 73 
-0.100912 0.245182 1.50332 82 41 57 
-0.888088 0.586251 2.52961 87 73 96 
0.0817723 -0.497873 1.95921 105 83 106 
0.310302 -0.452351 1.77922 101 78 104 
0.389762 -0.417812 1.71514 98 69 89 
0.250568 -0.415505 1.82181 84 70 95 
-0.457221 -0.453232 2.36365 80 65 84 
0.139142 -0.277038 1.89105 97 65 80 
-0.911091 -0.386696 2.69784 106 108 147 
0.327712 -0.224913 1.74464 84 53 69 
-0.623615 -0.271771 2.47037 128 115 132 
0.47492 -0.0360771 1.60772 136 117 136 
0.299075 -0.0353183 1.73945 65 44 53 
-0.621406 -0.0125306 2.4367 104 91 111 
0.310049 0.0364349 1.72217 78 56 77 
-0.59046 0.0566567 2.22609 103 49 63 
0.515024 0.0682029 1.55803 135 112 130 
-0.464053 0.216931 2.21172 69 29 38 
-0.699351 0.263172 2.45293 125 111 124 
0.310415 0.232788 1.69704 79 64 83 
-0.458149 0.293279 2.07166 90 46 61 
-0.182339 0.196578 1.3541 108 74 88 
0.519229 0.24341 1.53034 130 100 108 
-0.53469 0.332798 2.12284 66 36 44 
-0.514294 0.330641 2.10525 67 29 40 
-0.920447 0.477428 2.59307 130 146 179 
0.2719 0.40176 1.69984 87 73 96 
0.399344 0.428822 1.60258 113 109 136 
0.0435172 0.413671 1.66926 115 70 77 
-0.930836 0.538755 2.58944 89 107 143 
0.00928964 0.283543 1.7166 96 46 57 
-0.108453 0.24614 1.51098 95 52 62 
-0.356595 -0.253466 2.08529 55 25 37 
-0.421254 0.0646895 2.20312 77 34 41 
-0.819144 0.056724 2.5719 111 106 136 
-0.82482 0.0106239 2.58152 108 98 123 
0.272091 -0.0628656 1.76353 87 63 77 
-0.201128 -0.155479 2.0061 69 32 39 
0.374689 0.434968 1.61919 66 52 78 
-0.123547 -0.241549 1.91125 79 41 54 
0.374959 -0.226472 1.70542 124 107 125 
-0.646034 -0.417123 2.50371 122 96 107 
-0.0688268 0.304272 1.77438 96 53 70 
0.0756941 0.361549 1.65182 83 40 47 
0.333143 -0.450168 1.76285 87 60 79 
0.138024 -0.479559 1.91621 100 80 105 
-0.234449 0.34416 1.50621 111 60 79 
0.272892 0.416258 1.70183 96 81 100 
0.0751734 0.43726 1.64082 86 40 50 
0.533337 0.138447 1.53588 105 73 86 
-0.503403 0.343035 2.09992 101 58 75 
0.0258314 0.39811 1.68224 105 65 73 
-0.108452 0.268034 1.80848 97 59 74 
0.396957 0.862643 5.7151 68 36 47 
-0.71937 -0.000580956 2.49354 124 111 131 
0.0535749 0.106698 1.83707 61 24 32 
0.273369 -0.455646 1.81027 89 74 97 
0.371178 0.415641 1.62111 128 107 122 
-0.119541 0.145988 1.90659 153 99 113 
0.47911 -0.442086 1.65746 105 83 106 
-0.187555 -0.139614 1.99718 113 68 73 
-0.134258 -0.0198371 1.92871 56 24 29 
0.147507 0.39907 2.65985 83 50 61 
0.0178802 -0.00757776 1.87337 70 30 38 
0.0998697 0.346045 2.07467 78 39 44 
-0.501911 0.303014 2.10485 59 33 44 
-0.174282 0.157016 1.91173 40 21 25 
-0.159031 0.139154 1.94288 94 75 77 
0.339454 -0.109213 1.72362 57 49 64 
0.405605 -0.0488744 1.65916 63 47 60 
-0.565824 0.304157 2.15899 58 32 41 
-0.786432 -0.245977 2.57751 78 65 83 
-0.241324 -0.0194711 2.01709 146 127 110 
0.322819 0.431588 1.66237 122 114 135 
-0.119844 0.042092 1.92289 95 45 54 
-0.16426 0.147735 1.93624 185 173 161 
0.439507 0.439257 1.56785 96 75 94 
0.31343 0.440615 1.66839 59 43 54 
-0.169114 0.192483 1.33991 82 41 57 
0.135144 -0.586618 1.93146 80 59 90 
0.317011 -0.509057 1.7868 75 64 81 
-0.905142 -0.626575 2.7211 93 98 140 
-0.846996 -0.575607 2.67103 134 122 142 
-1.0579 -0.382223 2.75991 50 82 131 
-1.02616 0.354975 2.6759 71 69 109 
0.674037 -0.565328 1.70332 119 125 151 
0.358652 -0.559234 1.76117 76 71 94 
0.503865 -0.51484 1.64597 75 61 86 
0.184274 -0.578745 1.89471 124 106 130 
-0.339374 -0.607038 2.29919 123 102 117 
-0.239779 0.139807 1.9298 127 126 131 
-1.02943 0.392967 2.6693 34 50 86 
0.224275 -0.546873 1.86107 126 104 125 
0.0348362 -0.584802 2.01008 93 68 89 
0.321083 -0.446032 1.76933 97 66 82 
0.479757 -0.339946 1.6347 92 63 83 
0.247553 0.0365595 1.77184 56 44 58 
-0.199132 0.0542684 1.99224 165 149 124 
-0.249321 0.125126 1.93888 203 194 185 
-0.423594 0.244374 1.77239 87 43 56 
-1.02599 0.549567 2.64772 31 30 61 
1.06715 -0.551195 2.00881 36 41 71 
-0.279926 0.16145 1.16875 73 35 50 
-0.635804 -0.267466 2.4827 51 37 54 
-0.289661 0.0085336 2.0529 65 25 34 
0.229208 -0.0916382 1.80397 123 112 129 
-0.244264 0.387833 1.50003 104 55 74 
-0.21973 0.0534552 1.21231 125 74 81 
0.0503927 0.351041 2.12062 93 47 60 
-1.03848 0.23963 2.69873 44 50 76 
0.485057 -0.0499002 1.59597 35 28 36 
0.11144 0.23724 1.64729 69 37 52 
-0.238717 0.113715 1.95552 99 90 83 
-1.02489 -0.576169 2.79297 32 35 88 
0.152713 -0.541348 1.91736 131 118 144 
-0.387688 -0.331951 2.16947 105 83 96 
-0.304643 -0.175953 2.05679 59 24 28 
-0.168446 -0.253811 1.93563 101 68 77 
-0.0444496 0.325627 2.17469 134 83 100 
0.313519 0.248728 1.67496 127 124 145 
-0.112917 -0.0217296 1.91303 73 37 41 
-0.266034 -0.192458 2.05875 61 29 34 
-0.134967 0.157712 1.93696 122 71 78 
0.45469 0.183403 1.59249 81 57 70 
0.0156366 -0.602842 2.02559 82 67 90 
0.0584501 -0.580346 1.99297 99 76 105 
-0.434395 -0.618315 2.36605 73 57 84 
-0.46608 -0.576599 2.38823 72 64 87 
-0.465635 -0.232485 2.16426 76 22 38 
0.432885 -0.160872 1.64809 73 46 65 
-0.190602 0.00692682 2.02518 201 187 158 
-0.26027 0.117363 1.96381 154 138 125 
-0.894259 0.520274 2.57092 55 46 63 
-1.05154 0.612049 2.56874 89 93 102 
0.0605887 -0.57092 1.9895 91 67 91 
-0.377472 -0.633602 2.32622 138 125 145 
-0.310903 -0.618021 2.27504 58 45 71 
0.355197 -0.463479 1.75047 85 71 97 
-0.0973537 -0.47795 1.93626 148 94 107 
0.697272 -0.424277 1.67551 39 47 84 
-0.687344 -0.581975 2.55651 75 57 71 
0.17165 -0.413097 1.88198 83 66 85 
-0.783977 -0.550649 2.62927 93 71 94 
-0.493572 -0.48314 2.39726 101 85 96 
-0.451346 -0.373723 2.3546 97 66 82 
-0.368025 -0.257057 2.08994 91 39 52 
-0.214575 -0.0195919 1.99009 182 165 147 
-0.247214 0.137459 1.91361 81 78 85 
0.359786 0.204379 1.64879 77 120 215 
-0.152238 0.266556 1.84313 73 39 53 
-1.02883 0.375663 2.68915 69 69 105 
0.123557 0.268364 1.629 82 42 53 
-0.544192 0.333181 2.12953 91 50 64 
0.215408 0.43428 2.60067 90 43 59 
-0.914023 0.596505 2.32717 108 118 117 
0.13278 -0.541324 1.92521 99 66 87 
0.460798 -0.442528 1.66785 38 30 45 
-0.431349 -0.598356 2.3628 74 62 84 
0.118286 -0.467873 1.91389 86 72 97 
0.123448 -0.442507 1.92534 87 65 86 
0.144581 -0.436221 1.90679 99 68 86 
-0.275807 -0.418101 2.03853 93 45 61 
-0.477602 -0.485169 2.38044 50 34 47 
-0.456235 -0.470293 2.36795 75 60 83 
-0.610201 -0.392233 2.46384 74 55 75 
0.13161 -0.244839 1.89268 112 74 89 
-0.650841 -0.266183 2.48622 67 52 71 
-0.545701 -0.19885 2.39177 61 40 59 
-0.242258 0.0349246 1.97845 185 172 153 
-0.709777 0.0537379 2.48417 56 48 71 
0.54045 0.067946 1.53888 130 113 132 
0.412986 0.10828 1.62944 115 91 107 
-0.313312 0.206025 2.04695 129 77 89 
-0.757988 0.331146 2.47325 101 91 143 
-0.393948 0.28074 2.02172 100 53 69 
-0.217628 0.277672 1.88492 101 59 79 
-0.119612 0.210568 1.31815 91 47 62 
0.064024 0.361548 1.65608 70 32 43 
0.359361 0.433984 1.62532 104 78 103 
-0.934513 0.612854 2.52819 117 129 143 
-0.940833 0.613293 2.55147 33 36 53 
-0.918897 0.59641 2.53996 122 108 123 
-1.03605 0.56357 2.64478 23 24 44 
0.703981 0.353193 1.5652 83 105 152 
-0.927149 0.483568 2.60158 89 107 143 
-1.03412 0.373139 2.67582 44 70 105 
-0.00174953 0.0258607 1.87901 62 30 41 
-0.00316832 -0.0932778 1.89492 64 33 41 
0.167711 -0.124065 1.84574 145 127 141 
-0.439853 0.142719 2.19927 64 24 33 
0.0637884 0.441418 1.64938 71 45 54 
-0.181079 -0.207896 1.99294 66 29 37 
0.133027 -0.20038 1.89583 85 66 86 
0.133842 -0.201204 1.88392 120 99 114 
-0.752842 -0.296397 2.56079 133 107 120 
-0.503327 0.406232 1.63179 85 42 61 
0.0652574 0.168175 1.82001 80 37 46 
-0.643939 -0.331359 2.4908 79 58 77 
-0.63035 -0.335146 2.48562 69 50 70 
-0.0978361 -0.258898 1.91896 106 66 74 
0.191865 -0.32139 1.85658 119 96 112 
0.192741 -0.482113 1.87908 79 64 83 
0.0681449 -0.497564 1.97221 91 64 83 
0.720687 -0.485588 1.67553 154 176 217 
-0.196562 -0.53716 2.01097 149 95 111 
-0.00350792 0.471774 1.67285 147 108 127 
-0.180155 -0.488427 2.01091 99 45 61 
-0.919495 0.541178 2.56476 129 152 186 
-0.20163 -0.424981 1.97759 64 33 41 
-0.783141 -0.562465 2.62725 73 62 78 
-0.455996 -0.485276 2.36099 75 58 74 
0.438818 0.344415 1.58032 73 55 77 
-0.180733 -0.536037 2.0176 141 88 104 
0.649597 0.429848 1.54924 75 81 97 
-0.342793 0.16143 1.03632 94 51 68 
0.442336 -0.236344 1.66061 132 117 138 
-0.68718 -0.604246 2.55039 71 62 89 
0.138886 0.0605337 1.71471 59 29 37 
-0.0207988 0.396078 1.68254 78 35 45 
-0.0334568 0.11383 1.89366 65 33 44 
0.275151 -0.0403597 1.75387 106 82 95 
-0.454734 0.427632 2.93202 90 51 69 
-0.12079 0.0373382 1.91188 147 95 107 
-0.92437 0.566984 2.56571 150 164 199 
0.213547 0.432067 2.58671 83 41 53 
-0.546692 0.303925 2.12291 66 43 51 
0.130451 0.239416 1.62286 72 37 43 
-0.759577 0.303361 2.49588 35 31 68 
-0.254702 0.105347 1.95846 103 70 77 
-0.218276 0.0479791 2.00071 117 109 107 
-0.327922 -0.00230226 2.08254 61 26 33 
0.0174539 0.276827 1.70788 104 57 65 
-0.157028 0.0635889 0.766765 67 24 33 
-0.921986 0.599264 2.5543 121 108 126 
-0.617761 0.302093 2.19508 71 42 47 
0.313671 0.204205 1.71356 74 52 73 
-0.248743 0.169557 1.968 86 63 47 
0.292608 0.308289 1.69832 85 61 77 
0.300846 0.437458 1.68357 48 34 49 
-0.399054 -0.00517112 2.19058 81 36 43 
0.298314 -0.392078 1.78733 127 115 137 
0.0405976 0.0224589 1.85565 66 33 42 
-0.316616 0.453785 1.46223 141 93 109 
0.378388 -0.299695 1.70278 118 100 114 
0.00625704 0.470402 1.67054 139 106 125 
-0.967827 0.621984 2.56203 145 168 209 
0.433918 0.3061 1.59474 104 103 121 
-0.753958 0.311814 2.49355 162 180 246 
-1.05381 -0.376879 2.74984 42 77 119 
-0.186534 0.150099 1.90715 105 81 77 
-0.152705 0.143765 1.94941 56 29 38 
-1.02364 0.182043 2.68104 33 52 94 
0.068849 0.130387 1.80849 76 31 36 
-0.261429 0.114896 1.95386 122 88 86 
0.188797 -0.195734 1.83715 92 75 94 
0.731877 -0.0260232 1.64119 111 108 161 
-0.220874 -0.041103 2.00583 69 40 36 
-0.698272 -0.117572 2.50929 116 104 126 
0.314503 -0.238905 1.76327 59 41 55 
0.40565 -0.296764 1.68484 50 38 52 
-0.0105107 0.466925 1.68528 148 103 126 
-0.108104 0.253674 1.79585 84 47 64 
-0.0891633 0.187551 1.29535 103 55 67 
-0.40005 -0.552535 2.33378 63 49 64 
-0.312527 -0.243667 2.04829 119 73 84 
-0.168497 0.372959 1.50906 123 67 80 
-0.185496 -0.149963 1.99495 66 33 40 
-0.742353 0.306773 2.47243 13 31 81 
-0.237888 0.143256 1.91312 149 141 130 
0.00108388 0.470965 1.69159 68 46 58 
0.274441 -0.2957 1.78924 77 54 64 
0.701615 -0.267953 1.66428 53 56 75 
-0.969503 0.625052 2.57314 159 182 223 
0.0385964 0.405189 1.67502 117 77 88 
0.693237 0.376789 1.56589 28 45 75 
-0.127939 -0.216082 1.89679 150 96 112 
0.702667 0.351619 1.58056 98 116 152 
-0.226436 -0.0708107 2.01518 33 18 23 
0.743481 0.80846 5.34102 69 38 43 
0.306231 0.0233603 1.71909 139 120 140 
-0.142617 0.0483078 1.92488 93 52 58 
-0.321407 0.205188 2.06269 66 26 34 
-0.36672 -0.504551 2.30267 124 109 132 
-0.2197 -0.42173 1.99745 82 35 51 
-0.539722 -0.316112 2.41184 95 72 92 
0.381151 -0.291642 1.71093 68 50 74 
-0.342528 -0.24721 2.07361 118 78 89 
-0.771116 -0.192272 2.5666 138 126 140 
-0.608819 -0.130141 2.44675 126 113 131 
-0.502931 -0.130874 2.36209 78 60 76 
-0.26037 0.0223697 2.02503 157 135 121 
-0.257355 0.0335849 2.02453 146 125 108 
-0.216159 0.304597 1.88821 96 49 65 
0.127257 -0.473836 1.93333 80 65 86 
0.0189299 -0.469898 2.00623 93 61 85 
-0.532034 -0.420579 2.43313 87 65 88 
0.334218 -0.351936 1.75016 124 107 123 
-0.773914 -0.250422 2.57341 65 42 60 
-0.861564 -0.174482 2.63532 99 75 99 
-0.710494 -0.00208533 2.50151 117 95 116 
-0.615244 -0.000329122 2.43014 78 60 82 
-0.0465546 -0.00238766 1.92105 75 32 41 
-0.109782 0.044466 1.9095 61 26 32 
-0.00933411 0.0931872 1.84925 143 93 102 
-0.22817 0.115019 1.93052 200 192 173 
0.404955 0.122613 1.63354 140 119 136 
-0.501821 0.292371 2.11355 86 43 60 
-0.920541 0.431917 2.59578 113 135 176 
-0.843713 0.454846 2.53516 120 107 135 
-0.707935 0.455851 2.441 45 36 55 
0.488683 0.343331 1.54908 80 62 74 
-0.236544 0.396974 1.4991 108 55 73 
0.613108 0.517735 1.43805 66 72 86 
0.351604 -0.473882 1.75413 80 68 92 
-0.266168 -0.416967 2.02807 98 43 62 
0.136415 -0.416443 1.90736 95 69 82 
-0.00307494 -0.275468 1.82474 109 49 61 
-0.453738 -0.291874 2.34416 99 68 86 
-0.252019 -0.203867 2.05465 78 38 47 
-0.517836 -0.208285 2.37666 67 58 79 
-0.427606 -0.175513 2.18685 53 28 34 
0.282431 -0.177518 1.76706 93 71 92 
0.192393 -0.152217 1.83783 77 63 80 
-0.25179 0.139643 1.9581 56 52 66 
-0.372257 0.284956 2.00031 75 34 50 
-0.21444 0.211406 1.34485 111 61 73 
-0.552474 0.394824 1.66696 69 38 53 
-0.330536 0.397863 1.50342 105 53 66 
-0.613829 0.442624 1.71068 73 39 56 
-0.263186 0.393494 1.49217 134 87 103 
-0.222389 0.217277 1.35497 80 39 47 
-0.257101 0.00306848 2.03147 145 126 112 
0.0476706 0.0288528 1.84362 65 30 37 
-0.598179 0.186499 2.40077 117 86 94 
-0.331297 0.419122 1.49584 81 48 65 
-0.370575 0.143023 2.15045 58 23 27 
-0.443927 0.399528 1.58597 104 57 75 
0.35292 0.426018 1.64022 117 114 133 
-0.78123 -0.180065 2.5898 48 36 58 
-0.809949 0.46214 2.51107 110 103 121 
0.158303 -0.200317 1.86992 98 69 87 
0.185061 -0.200199 1.84849 129 111 127 
-0.828584 -0.305869 2.6206 127 103 117 
-0.325956 0.314169 1.9706 87 44 63 
-0.480453 0.409767 1.60968 104 56 78 
0.439344 0.308947 1.58471 133 115 127 
0.222833 -0.21423 1.82208 131 116 139 
-0.568259 -0.198097 2.41092 67 53 68 
-0.740555 0.275238 2.5032 86 120 184 
0.0474692 0.106411 1.82804 73 31 33 
-0.389905 0.271851 2.0501 89 57 72 
-0.159134 -0.114868 1.9653 64 29 36 
-0.599314 0.184154 2.38317 105 73 84 
-0.14833 -0.258587 1.92338 70 34 44 
0.115829 0.417794 1.61492 119 73 84 
0.164952 -0.483912 1.90637 74 55 75 
0.560573 0.502539 1.43782 27 31 42 
-0.921726 0.54536 2.5819 119 143 179 
-0.765733 0.281545 2.49246 152 154 213 
-0.13958 -0.258452 1.92905 114 70 85 
-0.781182 -0.228477 2.59402 61 52 69 
0.426743 0.435579 2.57358 84 38 48 
-0.231783 -0.0221443 2.03698 127 102 97 
0.33963 0.320688 1.6671 136 127 156 
-0.290229 0.173107 2.02798 67 37 47 
-0.32847 0.176476 2.05903 124 71 79 
0.359284 0.434311 2.57286 87 40 50 
-0.579952 0.310228 2.14299 101 67 68 
0.133521 0.236054 1.64524 88 46 58 
-0.168885 -0.259313 1.91829 133 79 93 
-0.276142 0.176061 2.03149 58 31 40 
-0.453642 -0.231182 2.22173 70 30 30 
-0.15884 0.142401 1.92598 133 115 115 
0.47679 0.00398608 1.60209 89 66 84 
-0.185852 0.0133 1.99926 197 186 158 
-0.125844 -0.0149054 1.92407 119 77 91 
-0.62217 -0.0104195 2.41582 121 99 120 
-0.611549 0.30979 2.17256 45 32 39 
0.38004 -0.103584 1.69716 70 54 64 
0.270653 0.390748 2.64132 74 37 45 
0.0347693 0.386559 1.68623 108 63 70 
-0.400876 -0.00395813 2.17314 71 30 34 
0.333783 0.318836 1.65863 133 127 155 
-0.921066 0.573488 2.58694 64 70 94 
-0.614365 -0.0122752 2.39207 49 38 54 
-0.352619 -0.209799 2.0812 121 74 84 
-0.114427 0.182702 1.88745 87 41 44 
0.381176 -0.342346 1.72744 57 43 56 
1.80618 0.893666 5.72392 62 42 44 
-0.310949 -0.244254 2.06247 99 57 69 
-0.495417 -0.277173 2.36727 70 51 55 
0.00795466 0.0214428 1.87888 78 35 42 
-0.279247 0.348416 1.49638 86 53 74 
