ply                 
format ascii 1.0    
element vertex 1263
property float x    
property float y    
property float z    
property uchar red  
property uchar green
property uchar blue 
end_header          
0.115117 -0.409318 1.92779 67 50 66 
-0.736762 0.265274 2.47966 48 39 58 
-0.125141 0.184116 1.91058 75 24 33 
-0.162121 0.162581 1.92421 113 100 107 
0.0195802 0.14942 1.85374 72 27 32 
-0.230607 0.145093 1.92354 130 120 108 
-0.46915 -0.355782 2.36 61 40 49 
-0.227649 0.126314 1.92911 210 207 192 
-0.313086 -0.26232 2.04712 59 28 43 
-0.306917 -0.259092 2.04832 103 63 72 
0.0575757 0.0984859 1.83154 63 22 28 
-0.21146 0.0549591 1.96736 167 155 133 
-0.249972 -0.202082 2.04331 63 27 39 
0.413963 0.0389786 1.64086 45 34 51 
0.375291 -0.094828 1.68832 129 123 137 
-0.0224037 -0.0971922 1.91386 63 26 33 
-0.201149 -0.0529703 2.00221 54 32 34 
-0.251218 -0.0101269 2.02732 136 115 98 
-0.712157 0.0532024 2.49816 63 51 71 
0.409981 0.0392089 1.64548 63 45 61 
-0.786383 -0.246266 2.58869 83 60 80 
0.458085 0.430548 1.55693 84 62 75 
0.479187 -0.168465 1.61521 67 54 64 
-0.322565 0.0628045 2.07347 67 27 36 
0.329751 0.449353 1.65194 122 104 118 
0.2022 -0.204015 1.83294 66 49 67 
0.332843 0.0970573 1.69854 123 106 122 
0.450771 0.0963731 1.60319 104 77 92 
0.314971 -0.233407 1.75215 134 114 126 
0.316998 0.36497 1.67724 128 128 152 
0.294834 0.36691 1.69469 120 121 142 
0.469931 -0.248204 1.63512 84 65 87 
0.279634 0.28361 1.71161 109 102 120 
0.277735 0.279497 1.71308 55 37 53 
0.32167 -0.349529 1.75845 82 61 76 
-0.444528 0.215996 2.2016 59 24 31 
0.0786153 -0.413336 1.95325 101 74 93 
-0.0247783 0.254992 1.74721 108 60 76 
-0.263148 0.276691 1.92439 75 41 55 
0.0397497 0.243353 1.69909 82 44 57 
0.00131211 0.246527 1.72806 100 52 64 
-0.082256 0.199618 1.41208 86 48 59 
-0.731313 0.310295 2.47258 55 46 77 
0.0427297 0.295164 1.69171 92 55 72 
-0.24787 -0.14175 2.03617 71 33 44 
0.108364 0.248968 1.64303 85 52 69 
0.115204 -0.451956 1.92912 99 70 90 
0.542783 0.505314 1.44148 133 142 199 
0.550052 0.496786 1.43471 32 16 42 
0.521582 0.484727 1.45843 11 24 92 
0.49596 0.47471 1.48134 27 25 49 
0.507921 0.470903 1.47168 32 20 94 
0.543262 0.46071 1.44666 33 23 47 
0.49988 0.470177 1.47663 83 127 192 
0.499143 0.467897 1.48078 12 19 35 
-0.744865 0.33101 2.47448 153 164 218 
-0.739013 0.322755 2.47349 144 167 234 
-0.74873 0.303304 2.4868 17 28 74 
-0.743893 0.272958 2.48369 156 177 242 
-0.2323 0.129776 1.92492 109 103 107 
0.491834 0.504309 1.48294 41 31 42 
0.546674 0.457969 1.442 36 24 38 
0.439857 0.429137 1.57139 121 99 112 
0.284256 0.379073 1.69867 92 82 107 
0.0308581 0.281844 1.70135 80 39 45 
0.291858 0.267691 1.70541 58 44 59 
0.310767 0.257677 1.68983 72 55 73 
-0.0350785 0.264671 1.74919 124 78 88 
0.0548387 0.346186 2.30975 81 44 52 
0.361777 0.241679 1.64932 80 116 210 
-0.481144 0.295906 2.08814 67 27 36 
-0.262479 0.267922 1.92266 133 128 168 
-0.256291 0.263063 1.91908 55 57 105 
-0.766412 0.336378 2.49622 29 25 60 
0.41049 -0.432422 1.70224 44 22 43 
0.471126 0.188619 1.57547 62 53 70 
-0.235448 0.13836 1.92254 39 34 40 
0.342765 -0.341667 1.7481 72 49 67 
-0.915001 0.073582 2.64049 72 72 108 
-0.139268 0.0477668 1.93501 63 22 28 
-0.172726 -0.273667 1.93752 48 21 28 
0.469636 0.0171698 1.59963 132 114 126 
0.476665 0.0132112 1.59505 104 90 107 
-0.307072 -0.258086 2.04776 110 66 79 
0.31408 -0.00311909 1.72199 134 111 129 
-0.201198 -0.0528194 2.00221 54 32 34 
-0.225215 -0.0625818 2.0025 61 30 35 
-0.204559 -0.145997 2.00635 105 68 75 
0.382465 0.470914 1.57259 83 66 85 
0.492588 0.420456 1.5334 98 95 112 
-0.0982895 0.293436 1.7966 74 38 50 
-0.69712 -0.117953 2.49934 115 100 119 
0.0195863 0.150543 1.85477 73 30 39 
-0.465213 -0.350052 2.35793 92 71 86 
-0.0953701 -0.00920182 1.90507 76 33 42 
0.314457 -0.233534 1.7516 134 114 126 
0.0384481 0.243527 1.69761 68 38 50 
-0.153347 0.166779 1.92876 65 36 40 
0.39943 0.100728 1.64708 69 50 69 
-0.110514 -0.00678516 1.91597 59 28 34 
0.117994 0.274956 1.63412 103 53 65 
-0.274286 -0.138703 2.05478 68 35 44 
0.154202 -0.331476 1.88093 91 67 91 
0.320836 -0.3492 1.75754 83 62 77 
0.276543 0.279255 1.71367 52 34 48 
0.536005 0.50321 1.44652 14 22 69 
0.551258 0.497372 1.43539 18 11 29 
0.496977 0.500188 1.48177 20 16 33 
0.525176 0.487346 1.45678 149 174 240 
0.5206 0.487236 1.46067 149 168 234 
0.547858 0.469633 1.44337 21 27 59 
0.497416 0.475682 1.483 11 27 63 
0.541411 0.463516 1.44721 152 176 240 
0.499083 0.46726 1.48026 20 18 31 
-0.737711 0.281233 2.48419 148 176 239 
-0.745485 0.273506 2.48773 130 144 207 
0.497305 0.47867 1.4789 120 136 188 
0.548165 0.45801 1.44305 48 34 49 
0.495877 0.466191 1.48264 27 15 27 
-0.740859 0.293706 2.47975 17 29 77 
-0.224577 0.147691 1.92426 76 54 40 
0.411963 -0.433362 1.70304 41 28 46 
0.0419578 0.280954 1.69245 83 41 53 
0.0358651 0.326366 1.96828 91 48 55 
-0.0680754 0.290731 1.77552 74 37 54 
0.323123 0.249849 1.68948 81 58 68 
0.361789 0.240742 1.64863 75 114 209 
0.127242 0.23567 1.63289 62 29 38 
-0.256665 0.262465 1.91752 67 60 104 
0.343886 -0.341234 1.74741 66 42 58 
-0.413449 -0.38602 2.10124 65 30 34 
-0.171966 -0.27419 1.93909 64 27 35 
-0.1612 -0.271257 1.9347 59 21 32 
0.0306655 0.0966617 1.84932 40 15 21 
0.0339441 0.0932075 1.84619 61 20 24 
-0.311098 -0.263647 2.05019 56 26 38 
-0.138749 0.0473954 1.93606 71 26 31 
0.313898 -0.00403751 1.72105 121 102 121 
-0.53768 0.507816 1.53592 56 52 77 
0.481664 -0.438698 1.64741 54 42 64 
-0.553733 0.408885 1.66327 72 39 56 
-0.568295 -0.200132 2.42136 60 44 57 
0.291023 0.092341 1.73358 72 59 77 
0.448876 0.307787 1.5803 125 112 129 
0.316297 -0.234748 1.75197 138 114 127 
-0.157472 -0.257327 1.93298 62 29 38 
0.367809 0.1942 1.65747 73 56 75 
0.308456 0.20248 1.70075 92 73 93 
0.333699 -0.21984 1.7354 67 46 61 
-0.0664754 0.264096 1.77834 62 34 46 
0.28035 -0.428274 1.80371 87 68 87 
-0.262487 0.27522 1.92214 98 57 63 
0.490346 -0.372842 1.63701 64 53 69 
0.525606 0.486922 1.4557 147 170 237 
0.531964 0.467713 1.45376 16 22 48 
0.511467 0.472123 1.47184 15 17 56 
0.544595 0.460864 1.44585 29 20 37 
-0.311586 -0.262431 2.05085 51 23 37 
0.473348 0.0152425 1.59607 72 49 65 
0.456452 0.430011 1.55675 76 52 65 
0.0271003 0.108488 1.84912 46 17 22 
0.489613 0.0895309 1.577 132 115 131 
0.416192 -0.295925 1.68631 68 50 66 
-0.0884337 0.287903 1.79219 93 46 52 
0.311062 0.256656 1.69003 77 60 76 
0.439343 0.429317 1.57321 128 110 122 
-0.125232 0.184971 1.9093 68 21 29 
0.140988 0.169256 1.70771 65 33 36 
-0.250465 -0.130989 2.03967 54 23 29 
-0.263349 -0.112201 2.05389 61 26 30 
0.413464 0.428174 1.59227 58 49 68 
0.484062 -0.425026 1.64369 67 53 76 
-0.255404 -0.119766 2.0441 108 62 72 
0.477473 -0.167863 1.61559 61 45 56 
0.28821 0.273887 1.70624 108 103 126 
-0.181427 -0.277723 1.9395 70 43 52 
0.382636 0.471454 1.57141 73 61 81 
-0.914295 0.0725602 2.63862 73 81 117 
0.482822 0.0898073 1.58204 83 67 78 
0.0317275 0.0954083 1.84668 44 15 20 
0.329479 -0.351293 1.75963 134 120 135 
0.372979 -0.339269 1.71846 65 51 68 
-0.193165 0.00454937 1.9936 170 156 130 
-0.309859 -0.255549 2.04814 123 73 84 
0.489812 0.0898145 1.5781 131 117 134 
-0.0577421 0.256067 1.55862 67 41 54 
0.28875 0.276185 1.70924 118 113 135 
0.454854 0.431623 1.55701 92 75 91 
0.31824 0.00379629 1.72386 60 46 63 
0.0246909 0.076023 1.85014 134 82 95 
0.479277 0.010317 1.59761 122 105 124 
0.19657 -0.202908 1.84104 67 49 65 
0.280617 -0.556149 1.826 74 50 76 
-0.197381 -0.651132 2.15983 214 202 190 
-0.152487 -0.639105 2.12284 17 43 58 
-0.606912 -0.753796 2.51583 61 46 65 
-0.183226 -0.639507 2.14959 65 81 78 
-0.205484 -0.645203 2.17054 59 34 40 
0.238919 -0.549131 1.85121 137 118 137 
-0.100803 -0.627567 2.11811 117 101 127 
0.685892 -0.49724 1.69337 50 53 86 
-1.34444 -0.844937 2.90537 134 144 195 
-0.16166 -0.617249 2.13194 147 138 123 
-0.332158 -0.651068 2.29645 97 88 105 
0.716562 -0.476981 1.68487 127 146 179 
-0.319585 -0.644824 2.28414 63 46 62 
0.160214 -0.537323 1.91177 81 64 96 
-1.02526 -0.785288 2.81118 42 50 99 
-0.136437 -0.533692 1.95975 80 41 59 
-0.196464 -0.544099 2.02244 112 58 72 
-1.33668 -0.761872 2.87518 123 124 180 
-1.34379 -0.756776 2.89034 107 107 161 
-0.365631 -0.599427 2.31891 122 110 134 
0.0923954 -0.502942 1.95712 62 44 66 
-0.184684 -0.518889 2.03866 75 24 33 
-0.326103 -0.514297 2.10794 80 41 60 
-0.119387 -0.475838 1.97045 80 36 51 
-1.34575 -0.684392 2.88309 124 120 179 
0.198794 -0.421784 1.86522 63 46 62 
-0.715402 -0.572675 2.57466 93 76 92 
-1.2611 -0.623212 2.88513 155 157 206 
-0.845501 -0.574314 2.6646 134 122 142 
-1.26746 -0.608373 2.89016 123 124 178 
-0.643664 -0.525848 2.51991 83 56 73 
-0.718693 -0.460878 2.55972 80 59 78 
-0.910066 -0.38613 2.68982 98 109 154 
-1.03553 -0.380615 2.76745 38 42 69 
0.315529 -0.218013 1.75264 72 56 82 
0.289172 -0.211931 1.77406 68 53 72 
0.29122 -0.156526 1.77112 118 117 133 
-0.779411 -0.227553 2.57844 58 47 63 
0.704657 -0.0666405 1.6336 161 186 226 
-0.614213 -0.0784302 2.44186 122 99 115 
-1.02478 -0.0773939 2.72986 126 134 173 
-1.0296 -0.0741286 2.74847 89 88 132 
0.745092 -0.0230775 1.63956 103 113 162 
-0.234346 -0.0222864 2.02463 120 100 93 
-0.228884 -0.00810534 2.00264 189 176 159 
-0.238898 0.019164 1.98939 190 183 164 
-0.195429 0.0332192 1.97917 177 161 136 
-0.81958 0.0526045 2.5643 76 70 96 
-0.0982715 0.0432465 1.90196 72 29 39 
-0.230121 0.0460356 1.96971 207 191 165 
-0.201933 0.094749 1.98642 193 182 152 
-0.0945865 0.0975303 1.89624 69 21 33 
-0.142035 0.101597 1.93295 78 28 40 
-0.289674 0.114794 2.04211 71 28 38 
-0.237982 0.109214 1.94069 175 165 155 
-0.337208 0.118213 2.0753 80 33 43 
0.705133 0.0955215 1.61455 106 125 168 
-0.25119 0.116378 1.94501 184 179 173 
-0.219401 0.121384 1.93288 135 119 119 
-0.248187 0.125853 1.92724 190 180 171 
-1.02832 0.182533 2.69786 34 41 83 
-0.19664 0.136074 1.94138 102 83 85 
-0.264667 0.1423 1.95083 137 126 120 
-0.174565 0.143294 1.91519 130 113 106 
-0.211954 0.145162 1.92266 48 38 47 
0.333249 0.12879 1.69517 63 46 62 
-0.167672 0.150725 1.91552 177 168 163 
-0.292767 0.169707 2.0377 74 28 38 
-0.333583 0.174138 2.07123 71 24 32 
-0.544467 0.211723 2.22182 102 57 77 
-0.544514 0.221257 2.21546 71 37 51 
-1.0388 0.298361 2.68691 89 90 120 
0.691632 0.174653 1.5666 83 90 134 
-1.02777 0.301798 2.68098 43 39 74 
-0.764389 0.292265 2.49582 60 62 113 
-0.764903 0.316051 2.49157 38 40 97 
0.361503 0.214318 1.65051 71 114 209 
-0.733447 0.323889 2.47119 23 34 80 
-1.04122 0.357688 2.69058 27 36 65 
-0.631723 0.302999 2.20073 50 28 40 
-1.02542 0.373203 2.66465 28 32 67 
-1.02996 0.382858 2.66894 38 53 92 
-1.03153 0.554208 2.66523 46 43 74 
-1.03727 0.565701 2.65026 32 33 53 
-1.06643 0.562773 2.63229 66 89 123 
-0.986912 0.606219 2.49167 114 126 138 
-0.963935 0.612233 2.51163 161 161 189 
-0.858101 0.575264 2.14296 100 112 102 
-0.400644 0.417375 1.55083 93 46 62 
0.669232 0.433715 1.54009 30 27 54 
-0.498518 0.507737 1.5493 155 189 252 
-0.465811 0.506228 1.52846 152 184 245 
-0.498149 0.506792 1.52411 99 80 172 
0.291343 0.506647 1.46478 109 116 134 
0.18545 -0.567166 1.89632 67 49 71 
0.136892 -0.574986 1.93254 88 70 96 
-0.169941 -0.628057 2.13948 109 86 80 
-0.179145 -0.626518 2.14871 80 76 65 
-0.322076 -0.655172 2.28913 121 112 131 
-0.562064 -0.675631 2.48384 81 60 79 
0.077364 -0.537392 1.9772 78 63 86 
0.0895251 -0.532117 1.96255 78 64 90 
-0.384695 -0.602069 2.33695 88 74 99 
-0.695916 -0.647478 2.56751 80 54 67 
0.690616 -0.418813 1.6956 21 21 45 
-0.779903 -0.636834 2.6406 87 62 84 
-0.0704738 -0.466081 1.93548 140 84 93 
-0.127821 -0.471775 1.97718 94 46 58 
-0.690182 -0.60838 2.56678 83 65 91 
0.0524636 -0.466962 1.97959 84 59 80 
0.165793 -0.44403 1.8893 93 68 90 
-1.33714 -0.67445 2.8826 109 112 163 
-0.692406 -0.569605 2.55857 82 63 82 
0.410512 -0.36612 1.69956 102 93 112 
-0.202092 -0.42768 1.99051 66 26 37 
-0.775713 -0.563967 2.62623 74 53 68 
-0.649408 -0.526715 2.52961 77 56 73 
-0.586672 -0.515094 2.47353 133 119 136 
0.302239 -0.361605 1.77938 117 108 125 
-0.490808 -0.473405 2.39373 90 67 87 
-0.90752 -0.510393 2.7097 83 88 128 
-0.721171 -0.462841 2.56979 80 59 78 
-0.912601 -0.447306 2.71432 71 74 115 
-0.0521556 -0.28706 1.90907 46 20 29 
-0.684121 -0.379319 2.5277 62 49 67 
-0.112799 -0.282205 1.89753 125 87 100 
-0.683995 -0.362449 2.53118 76 61 80 
-0.135631 -0.273469 1.91708 67 25 37 
-1.03959 -0.382732 2.77937 38 42 69 
-0.741086 -0.344835 2.56885 76 53 63 
-0.90486 -0.321186 2.68416 88 76 112 
-0.752034 -0.307054 2.57198 62 45 55 
-1.02546 -0.317748 2.75743 36 40 85 
-0.543918 -0.27442 2.41187 76 57 76 
-0.890451 -0.287099 2.66882 89 71 93 
-0.775064 -0.252605 2.58535 46 29 47 
-0.225444 -0.178194 2.02717 80 40 51 
-0.54771 -0.200362 2.40546 60 38 59 
-0.224805 -0.142457 2.02898 93 59 60 
-0.622372 -0.129768 2.45251 64 41 57 
-0.430322 -0.0880537 2.18619 93 70 80 
-0.822072 -0.0518274 2.58455 79 64 87 
-0.238341 0.0251818 1.97996 211 203 184 
-0.180412 0.0332613 1.9857 171 157 131 
-0.218144 0.0433255 1.97609 163 157 143 
-0.400685 0.0626727 2.18451 77 34 41 
-0.188198 0.0763709 1.98569 110 94 78 
-0.126142 0.0758611 1.92067 73 24 30 
-0.038211 0.107756 1.90307 68 25 32 
-1.03349 0.184216 2.71192 32 41 82 
-0.492605 0.171982 2.23976 79 30 36 
-0.459612 0.169169 2.20292 93 45 57 
0.330191 0.144641 1.694 83 70 98 
0.322692 0.146122 1.70499 89 67 88 
0.117708 0.163034 1.72714 70 36 52 
0.135516 0.161966 1.71376 54 27 36 
-1.03559 0.296845 2.67762 89 90 120 
-0.737835 0.288657 2.47913 33 44 100 
-0.736379 0.313007 2.49143 58 48 75 
-0.774926 0.327433 2.50763 48 40 77 
-1.03939 0.352624 2.67835 80 85 114 
-1.03417 0.362357 2.67684 59 82 114 
-0.625166 0.316827 2.19279 85 74 80 
-0.000819872 0.259094 1.72796 88 54 71 
-0.612222 0.33855 2.17719 78 44 60 
-0.501588 0.330286 2.09721 78 44 61 
-0.393957 0.320198 2.01852 96 51 71 
-1.02986 0.607897 2.62124 115 97 113 
-1.19823 0.614355 2.56727 130 142 140 
-0.951945 0.611713 2.51463 167 183 217 
-0.959436 0.609457 2.49997 161 161 189 
0.705065 0.382673 1.56054 121 153 191 
-0.00733072 0.473172 1.65973 80 51 69 
0.521925 0.512051 1.44973 98 106 125 
0.411359 -0.504338 1.70643 45 32 50 
0.176349 -0.546737 1.89775 76 60 73 
0.323779 -0.49921 1.78776 67 50 69 
0.721772 -0.463412 1.68653 70 81 113 
-0.668367 -0.696292 2.55093 92 72 83 
-0.560181 -0.67331 2.47265 82 63 82 
-0.586873 -0.672579 2.49277 78 57 72 
0.242543 -0.496054 1.8437 125 111 134 
0.104861 -0.517362 1.94585 113 86 103 
-0.00916783 -0.534538 2.03834 133 107 120 
-0.737555 -0.65352 2.60261 82 67 88 
-0.171256 -0.497889 2.00926 89 41 57 
0.547735 -0.390132 1.59332 145 118 137 
-0.776755 -0.632936 2.62519 82 61 78 
0.140151 -0.456634 1.91589 99 73 98 
0.404027 -0.39316 1.7026 101 92 113 
0.0537742 -0.421639 1.97167 85 69 96 
0.0598696 -0.405485 1.96772 78 61 80 
-0.586884 -0.468814 2.45987 71 52 74 
-0.835218 -0.498845 2.64541 80 68 90 
0.158976 -0.343148 1.87911 92 69 89 
0.30352 -0.293864 1.76797 69 47 59 
-0.613048 -0.394708 2.47736 78 54 76 
0.00332166 -0.280994 1.83099 105 44 59 
-0.0451393 -0.287629 1.89952 85 39 49 
0.185934 -0.279487 1.8549 99 76 96 
-0.460538 -0.352602 2.35128 129 105 118 
-0.142374 -0.265983 1.91622 55 23 34 
-1.02964 -0.378342 2.74474 35 41 65 
0.218695 -0.251932 1.82984 99 77 98 
-0.628926 -0.333687 2.47365 72 55 74 
0.15519 -0.252427 1.88141 105 76 96 
-0.111074 -0.240142 1.91012 67 29 40 
-0.532875 -0.278314 2.40651 62 51 65 
-0.111201 -0.212814 1.91136 82 35 45 
-0.322476 -0.224875 2.05768 66 34 45 
-0.63285 -0.26649 2.47381 53 36 52 
-0.34097 -0.223081 2.07235 80 42 55 
-0.758458 -0.251499 2.55366 54 36 50 
-0.541433 -0.159681 2.3942 63 49 64 
-0.561993 -0.139722 2.40218 51 42 59 
0.142675 -0.0789902 1.86474 75 52 62 
-1.0264 -0.0726327 2.73519 78 77 119 
-0.201368 -0.00183809 2.00375 141 126 107 
-0.823744 0.0102811 2.57422 124 112 134 
0.296657 0.00762767 1.7396 81 60 77 
0.317705 0.0161034 1.72153 73 52 71 
-0.184208 0.0313593 1.97658 111 91 80 
-0.204786 0.0351564 1.99641 46 23 17 
-0.833149 0.0505107 2.57421 68 51 69 
-0.23684 0.0433656 1.97736 185 173 151 
-0.7458 0.0606555 2.51498 63 46 64 
-0.196737 0.0534048 1.96783 165 149 124 
-0.373478 0.0601472 2.16547 71 31 40 
-0.420853 0.064267 2.19471 77 36 42 
-0.111113 0.073858 1.90686 81 36 43 
-0.192713 0.091832 1.98946 181 167 140 
-0.128302 0.104705 1.92571 61 24 32 
-0.406033 0.119 2.15246 86 36 47 
-0.695648 0.160861 2.4716 60 55 77 
-0.30783 0.147656 2.05143 71 31 40 
-0.211051 0.14079 1.92778 151 141 131 
-0.0974229 0.151048 1.89115 85 33 45 
-0.126325 0.154444 1.9107 64 20 33 
0.00113505 0.151166 1.86791 85 42 49 
0.136341 0.151545 1.71793 66 39 48 
0.751281 0.147533 1.60933 159 173 210 
-0.118591 0.188338 1.8983 117 71 81 
-1.03191 0.307162 2.66957 63 69 95 
-0.754085 0.3019 2.47715 32 34 72 
-0.756588 0.333083 2.48108 125 118 169 
-0.285563 0.271902 1.94354 97 53 68 
-0.566348 0.302002 2.14752 78 44 58 
0.0641616 0.247152 1.67924 69 32 39 
-0.525721 0.326401 2.11462 79 44 50 
-0.416399 0.31662 2.0331 83 40 57 
-1.20198 0.439799 2.80865 95 109 156 
-0.284768 0.309189 1.9312 96 52 67 
-0.544161 0.345701 2.12207 74 42 53 
-0.108938 0.294545 1.80449 83 46 63 
-0.0786096 0.291085 1.77856 85 42 52 
-0.309264 0.240385 1.45973 98 53 73 
0.0690215 0.486622 2.94078 93 47 60 
0.108868 0.274943 1.64047 90 46 59 
0.282171 0.312664 1.70762 83 71 91 
-1.03271 0.609583 2.6307 118 101 119 
-0.0370168 0.386557 1.66222 76 39 56 
-0.541004 0.394987 1.66101 68 39 57 
-0.12398 0.368552 1.54906 97 55 79 
-1.18648 0.610674 2.55158 111 137 134 
-0.910154 0.591627 2.30938 81 98 92 
-0.19732 0.394084 1.50503 138 91 107 
-1.00801 0.571514 2.15556 99 115 112 
-0.571169 0.51915 1.63802 113 114 134 
-0.448278 0.506592 1.52259 98 104 126 
-1.06711 0.583239 2.63709 79 81 104 
-1.02917 0.546511 2.65424 74 73 105 
-1.03794 0.536363 2.65549 73 83 108 
0.405807 0.289049 1.62107 61 53 74 
0.407826 0.267456 1.62096 70 56 79 
0.678763 -0.486695 1.69769 114 125 153 
-0.310767 -0.653741 2.28441 46 38 59 
-0.0541927 0.203882 1.24113 85 42 52 
-0.43995 -0.651669 2.34864 60 56 83 
-0.435865 -0.651367 2.35829 117 111 139 
-0.143158 0.274338 1.83549 133 87 100 
-0.139806 -0.529985 1.97091 78 34 51 
-0.0447095 0.256118 1.759 98 55 65 
0.705288 -0.434205 1.68762 58 76 116 
-0.747733 0.333326 2.48601 153 164 218 
-0.0843479 -0.477225 1.94367 105 52 62 
-0.774762 -0.63016 2.61551 74 60 77 
-0.329519 -0.499508 2.10385 74 32 42 
-1.03205 0.307186 2.66687 74 78 105 
-0.736908 0.271809 2.47068 107 135 198 
0.113602 -0.400297 1.92326 63 49 66 
-0.320476 0.202109 2.05144 79 32 42 
-0.286998 -0.418924 2.04462 72 36 50 
-1.03544 0.23779 2.68381 29 34 56 
0.0483241 -0.38869 1.95732 52 31 40 
-0.841292 -0.503293 2.66571 68 56 78 
-0.908502 -0.511922 2.71575 77 73 108 
-0.159116 0.155498 1.93148 156 140 124 
0.703271 -0.277243 1.65803 54 68 105 
-0.255784 0.152189 1.93196 119 107 85 
-0.174209 0.145476 1.92495 107 87 89 
-0.000482211 -0.268602 1.83855 52 21 29 
-0.251867 0.125825 1.95779 212 207 201 
-0.394257 -0.278292 2.16912 65 33 48 
-0.748863 -0.305182 2.55477 63 50 60 
-0.192253 0.0864108 1.99969 147 137 112 
-0.127612 0.0471335 1.93096 59 23 27 
-0.173726 -0.125557 1.98966 102 63 68 
-0.00078845 0.0260913 1.88758 75 35 46 
-0.185311 0.0188763 1.97973 191 180 152 
-0.259262 0.0115592 2.02532 147 125 112 
-0.232578 0.00373546 1.99017 126 114 100 
-0.6143 -0.013246 2.4266 55 42 59 
0.554085 0.50801 1.43247 75 76 81 
-0.142863 -0.00501313 1.94157 75 33 45 
-0.242657 -0.0487194 2.04552 82 61 44 
0.00279149 -0.0554651 1.88287 87 40 50 
-0.837987 -0.113017 2.61307 115 102 119 
0.253128 0.488658 1.67108 61 58 75 
0.287648 -0.16725 1.76598 65 54 71 
-0.763405 -0.25317 2.57113 56 33 49 
-0.104709 -0.190254 1.91248 56 23 32 
-0.294416 0.060644 2.05821 67 27 35 
-0.43114 0.0721697 2.2111 93 46 54 
-0.330205 -0.223167 2.07382 66 28 41 
-0.322019 0.0927698 2.06992 73 28 33 
-0.541764 0.410333 1.66005 80 45 67 
-0.0438347 0.115838 1.90869 66 24 36 
0.439047 -0.229911 1.65354 71 57 74 
-0.271882 -0.658513 2.24625 122 103 122 
-0.509632 -0.34963 2.39218 78 58 70 
-0.0827042 -0.284269 1.93192 58 29 34 
0.160774 -0.549505 1.91123 119 101 115 
-0.426829 0.323898 2.05055 85 44 62 
-0.64172 -0.466334 2.50506 75 55 66 
-0.375265 -0.400467 2.07274 86 44 54 
0.14589 -0.383432 1.90522 77 51 60 
0.0848445 0.165643 1.8015 84 35 39 
-0.828026 0.371307 2.53179 128 119 146 
-0.43755 -0.632011 2.3756 74 59 80 
-0.395203 0.294079 2.02656 94 56 71 
-0.696662 -0.572137 2.56877 77 60 78 
0.0528956 -0.470047 1.99105 82 57 78 
-0.105732 0.255357 1.80463 86 48 59 
-0.546357 0.296431 2.14724 83 50 61 
0.070374 0.221944 1.72107 106 53 69 
0.403407 -0.415886 1.7082 85 61 77 
-0.106581 -0.237096 1.9252 60 24 28 
-0.548081 0.221843 2.22516 67 35 50 
0.122359 0.146182 1.74095 94 62 77 
0.480668 0.130508 1.58014 76 60 87 
0.141903 0.0608617 1.72612 65 30 36 
-0.403773 0.396366 1.55323 98 55 72 
0.515924 0.484334 1.44976 155 173 239 
-1.02265 -0.574035 2.78165 34 46 96 
0.663332 0.460601 1.51114 137 135 149 
0.0695346 0.489789 2.96052 93 47 60 
0.321085 -0.495731 1.77301 71 56 75 
0.0406159 0.254994 1.69707 67 37 45 
0.380367 -0.434872 1.72787 46 38 53 
0.473639 0.187091 1.5654 129 115 130 
-0.092296 -0.485381 1.9612 119 69 81 
-1.32989 -0.675773 2.86819 177 196 238 
-0.109654 0.183712 1.89908 72 27 34 
0.406732 -0.391111 1.70023 58 49 66 
-0.174471 0.158618 1.92245 44 30 43 
-0.257098 0.16162 1.9583 29 25 26 
-1.2547 -0.626869 2.84872 52 39 57 
-1.25967 -0.626974 2.88866 110 112 163 
-0.90528 -0.510093 2.70694 77 73 108 
-0.902359 -0.443343 2.68441 71 74 115 
-0.193322 0.102549 1.98241 196 184 160 
-0.230958 0.0923284 1.98635 99 86 93 
-0.235193 0.092523 1.97214 109 84 88 
0.0237927 0.0655169 1.85289 90 42 54 
-0.0111739 0.0271609 1.88742 74 34 42 
-0.31147 -0.26107 2.03653 59 28 43 
-0.457989 -0.239401 2.17294 86 38 50 
-0.223534 -0.143153 2.01478 110 68 72 
0.518852 0.406763 1.50918 65 48 66 
0.444239 0.347467 1.59099 60 46 71 
-1.04585 0.529548 2.65317 23 28 47 
-0.694292 -0.118037 2.48697 115 100 119 
0.13214 -0.0792843 1.87064 79 48 64 
0.124925 -0.421911 1.93003 82 59 75 
0.167405 -0.39007 1.88538 89 62 69 
0.334689 0.100542 1.6885 74 57 75 
0.276544 -0.29471 1.7957 71 50 59 
-0.15212 -0.272936 1.91722 88 42 55 
0.475924 -0.11818 1.61669 79 55 69 
-0.470109 0.30189 2.07402 130 84 94 
-1.33036 -0.665786 2.869 176 188 226 
0.00302507 -0.0417758 1.86965 58 26 29 
-0.202469 0.116607 1.94206 166 152 143 
-0.142583 0.101271 1.92092 92 42 54 
0.00721095 0.011473 1.87669 134 86 102 
-0.261239 -0.470645 1.99285 75 44 52 
0.382337 -0.301452 1.71375 119 98 113 
-0.763514 0.304255 2.50271 26 32 68 
0.702971 -0.423649 1.6845 36 43 69 
-0.756252 0.273486 2.4937 134 140 198 
-1.06594 -0.383568 2.78782 31 54 88 
0.697389 0.426453 1.57677 87 94 123 
0.698187 0.379665 1.58494 35 40 70 
-1.02423 0.603248 2.60957 112 97 116 
-1.06454 0.569573 2.61625 126 129 160 
-1.07496 0.567446 2.65371 64 90 125 
0.0742549 0.255096 1.67135 134 88 101 
-1.03201 0.36118 2.66026 88 95 124 
-1.03064 0.344366 2.65673 84 87 118 
0.358157 0.194271 1.66819 60 47 64 
-0.185186 0.142436 1.92895 167 160 142 
-0.201365 0.140977 1.93418 99 81 77 
-0.219047 0.136889 1.92141 120 109 117 
-0.474504 -0.359041 2.37808 64 47 55 
-0.189674 0.0756265 1.99092 98 80 66 
-0.13975 0.0479845 1.94992 71 26 31 
0.117129 -0.00103854 1.69852 75 32 41 
-0.238752 -0.0213828 2.06173 117 100 92 
-0.213375 -0.150295 2.01586 56 24 27 
0.271422 -0.0927728 1.7692 65 42 48 
-0.179937 -0.137631 1.98735 50 20 20 
-0.772463 -0.394606 2.59465 50 37 55 
-0.060887 -0.58801 2.08107 81 62 81 
-0.168417 -0.122782 1.9781 58 23 27 
-0.690625 0.158636 2.45229 60 52 75 
-0.3722 0.132333 2.15627 40 15 21 
-0.200022 0.400605 1.51646 77 39 54 
0.448562 0.34888 1.57914 75 53 66 
-0.12859 -0.0016184 1.94085 56 26 36 
-0.382621 0.0606802 2.17152 74 37 45 
-0.246801 -0.43924 2.00876 124 80 103 
-0.238538 0.27208 1.89696 94 54 65 
-0.225371 -0.15496 2.02557 66 31 37 
-0.99413 0.608589 2.50407 113 125 137 
-1.07698 0.577119 2.65145 123 137 166 
-0.758792 0.33259 2.49158 149 162 217 
-1.03863 0.345923 2.67975 91 97 131 
-0.752313 0.271438 2.47926 134 140 198 
-0.216524 0.149329 1.93268 153 144 135 
-0.221227 -0.041429 1.99468 49 23 22 
-0.0544443 -0.28368 1.89856 40 21 25 
0.683311 -0.416413 1.68451 38 34 57 
-1.25121 -0.627534 2.86859 114 116 165 
-0.198457 0.0890565 2.02489 161 147 120 
-1.02197 -0.315613 2.74371 36 49 94 
0.658642 -0.31422 1.66356 84 84 96 
0.648086 -0.262481 1.65054 34 22 34 
0.277911 -0.283403 1.79304 51 38 47 
-0.210468 0.08514 1.99383 85 64 45 
-0.151249 -0.242114 1.9296 128 82 93 
0.727649 -0.199119 1.66152 150 174 212 
0.573076 0.451483 1.43166 135 126 143 
0.0185655 0.0252582 1.86916 61 30 38 
-0.107663 -0.19383 1.9038 49 20 25 
-0.499741 0.301807 2.09488 53 31 44 
-0.321708 -0.00117636 2.07202 104 72 87 
-0.23295 -0.143085 2.02164 52 21 26 
-0.242563 -0.137954 2.04743 105 60 67 
0.359872 0.195365 1.6791 58 44 59 
-0.252546 -0.131521 2.0568 54 23 29 
0.314616 -0.0266447 1.72899 133 110 130 
-0.272862 -0.0987458 2.0588 59 27 32 
0.474795 0.1893 1.58397 65 57 72 
-0.222957 -0.431166 1.99342 53 27 40 
0.190728 -0.0830227 1.83112 137 115 136 
0.230719 -0.0292744 1.7885 75 46 66 
-0.436331 -0.657947 2.36706 125 112 132 
-0.318078 -0.172786 2.06372 61 29 32 
-0.103359 -0.182153 1.92889 40 17 23 
-0.307801 0.0948663 2.06845 55 22 29 
0.15547 0.433753 2.95063 68 33 39 
-0.0385682 0.168891 1.90898 82 31 36 
-0.0949174 -0.25072 1.9277 52 23 25 
0.420346 0.0916311 1.6386 54 38 49 
0.546092 0.505622 1.51337 151 174 242 
-0.742311 0.269487 2.45858 127 138 200 
-0.158399 0.156099 1.91671 165 149 133 
-0.073804 0.256041 1.79463 64 32 43 
0.715795 -0.432227 1.67635 108 117 148 
-0.204015 0.133691 1.94881 167 155 143 
-1.26895 -0.60972 2.88065 101 113 163 
-0.173911 0.273656 1.86938 55 38 46 
-0.212221 0.091971 1.9782 124 102 78 
-0.565974 0.0464728 2.24102 138 87 102 
0.694685 -0.26551 1.65208 41 36 56 
0.123814 -0.00636611 1.69259 157 106 123 
0.700142 0.386374 1.56895 93 117 143 
-0.272838 -0.098433 2.0488 65 30 37 
-1.03764 0.613812 2.65051 119 106 124 
-0.46063 -0.227174 2.18323 69 29 30 
-1.03453 0.614655 2.59962 30 29 35 
-0.318532 -0.213126 2.05274 121 72 91 
0.0129294 -0.214131 1.85389 62 26 30 
-0.10586 -0.179076 1.91417 28 14 14 
-0.136578 0.159736 1.95948 122 71 78 
-0.180961 -0.13539 1.97507 53 23 25 
-0.549672 0.305947 2.13216 63 48 53 
0.186861 -0.0821046 1.81644 137 114 134 
-0.156162 -0.420367 1.89448 51 25 34 
-0.506656 0.290114 2.09161 79 44 51 
-0.542568 0.296018 2.13683 67 40 49 
0.150932 0.430791 2.92423 69 32 40 
0.261858 -0.0873378 1.76627 136 114 137 
-0.205863 -0.157539 2.01747 66 31 38 
-0.0488924 -0.0674766 1.92618 32 16 17 
0.293871 0.310669 1.70257 74 57 76 
-0.0981925 -0.270145 1.91178 118 66 78 
0.410026 -0.504247 1.71594 61 42 64 
0.273366 -0.441359 1.81258 80 54 79 
-0.583383 -0.47307 2.46995 113 100 117 
0.157221 -0.241427 1.87196 102 73 95 
-0.770267 -0.30727 2.57851 127 110 120 
-0.803293 -0.302674 2.60667 78 54 70 
-0.228978 -0.00795261 1.99149 194 181 164 
-0.191344 0.0072277 2.00701 201 187 158 
-0.333975 0.0640692 2.08058 65 24 30 
-0.202373 0.0808118 1.9887 129 104 82 
0.359985 0.227678 1.64978 66 108 208 
-0.888824 0.471177 2.57056 47 39 63 
-0.924808 0.57049 2.57963 134 158 192 
-0.883564 0.578402 2.53727 98 83 106 
0.331843 -0.336626 1.7507 85 67 89 
-0.91013 -0.449124 2.70284 123 135 175 
-0.681895 -0.338966 2.52256 84 65 84 
-0.276026 -0.209536 2.06734 74 34 45 
-0.158859 -0.148735 1.97015 59 27 38 
-0.688219 -0.11857 2.49318 61 51 76 
-0.0391066 0.0579371 1.90892 69 27 37 
-0.0455906 0.0653854 1.91512 69 29 38 
-0.00300565 0.0848789 1.84321 109 54 73 
-0.30626 0.0914854 2.05675 76 33 40 
-0.365964 0.126396 2.14831 65 22 29 
-0.175396 0.30037 1.85563 97 54 73 
-0.100962 0.245312 1.50287 82 41 57 
-0.888784 0.58676 2.5301 87 73 96 
0.0818929 -0.498176 1.95905 105 83 106 
0.310494 -0.452544 1.7789 101 78 104 
0.389986 -0.417986 1.71483 98 69 89 
0.250747 -0.415697 1.82153 84 70 95 
-0.457512 -0.453644 2.36388 80 65 84 
0.139282 -0.277175 1.89084 97 65 80 
-0.911883 -0.387116 2.69837 106 108 147 
0.3279 -0.224977 1.74431 84 53 69 
-0.624072 -0.272051 2.47072 128 115 132 
0.475096 -0.0360313 1.60728 136 117 136 
0.299255 -0.0352895 1.73912 65 44 53 
-0.621849 -0.0125722 2.43705 104 91 111 
0.31022 0.0365023 1.72184 78 56 77 
-0.590795 0.0566983 2.22609 103 49 63 
0.515168 0.0682947 1.55757 135 112 130 
-0.464304 0.217094 2.21182 69 29 38 
-0.699862 0.263379 2.45333 125 111 124 
0.310575 0.232946 1.6967 79 64 83 
-0.45836 0.293478 2.07157 90 46 61 
-0.182409 0.196692 1.35364 108 74 88 
0.519395 0.24356 1.52991 130 100 108 
-0.534956 0.333024 2.12278 66 36 44 
-0.514544 0.330865 2.10518 67 29 40 
-0.921207 0.477844 2.59364 130 146 179 
0.272047 0.401994 1.69952 87 73 96 
0.399485 0.429042 1.60218 113 109 136 
0.0435518 0.413888 1.66891 115 70 77 
-0.931602 0.539231 2.59002 89 107 143 
0.00930856 0.283713 1.71625 96 46 57 
-0.108504 0.246271 1.51053 95 52 62 
-0.356759 -0.253604 2.08516 55 25 37 
-0.421475 0.0647372 2.2032 77 34 41 
-0.819804 0.0567332 2.57238 111 106 136 
-0.825488 0.0105885 2.582 108 98 123 
0.272268 -0.0628541 1.76323 87 63 77 
-0.201189 -0.15555 2.00596 69 32 39 
0.374832 0.435195 1.6188 66 52 78 
-0.123569 -0.241641 1.91101 79 41 54 
0.375155 -0.226529 1.70505 124 107 125 
-0.646521 -0.417542 2.50408 122 96 107 
-0.0688308 0.304456 1.77405 96 53 70 
0.0757313 0.361743 1.65146 83 40 47 
0.333339 -0.450352 1.76253 87 60 79 
0.138167 -0.479829 1.91602 100 80 105 
-0.234513 0.344293 1.50575 111 60 79 
0.273042 0.4165 1.70151 96 81 100 
0.075212 0.437479 1.64045 86 40 50 
0.533468 0.138562 1.53541 105 73 86 
-0.503645 0.343266 2.09985 101 58 75 
0.0258619 0.398324 1.6819 105 65 73 
-0.10847 0.268204 1.80817 97 59 74 
0.400091 0.866437 5.73688 68 36 47 
-0.719913 -0.00061696 2.49393 124 111 131 
0.0536535 0.106795 1.83683 61 24 32 
0.273555 -0.455856 1.80998 89 74 97 
0.371321 0.415861 1.62072 128 107 122 
-0.11955 0.146104 1.9064 153 99 113 
0.479346 -0.44225 1.65711 105 83 106 
-0.187607 -0.139674 1.99703 113 68 73 
-0.134278 -0.019815 1.92852 56 24 29 
0.148005 0.399573 2.66133 83 50 61 
0.0179438 -0.00754559 1.87315 70 30 38 
0.100073 0.346331 2.07478 78 39 44 
-0.502154 0.303221 2.10478 59 33 44 
-0.174327 0.157135 1.9115 40 21 25 
-0.15906 0.139266 1.94271 94 75 77 
0.339638 -0.109216 1.72328 57 49 64 
0.405789 -0.0488409 1.65876 63 47 60 
-0.566119 0.304367 2.15897 58 32 41 
-0.787063 -0.246251 2.57795 78 65 83 
-0.241406 -0.01946 2.01697 146 127 110 
0.322969 0.431827 1.66201 122 114 135 
-0.119854 0.0421492 1.9227 95 45 54 
-0.164292 0.147852 1.93607 185 173 161 
0.439636 0.439471 1.56742 96 75 94 
0.313579 0.440859 1.66805 59 43 54 
-0.169186 0.192596 1.33945 82 41 57 
0.135285 -0.586967 1.93124 80 59 90 
0.317208 -0.509284 1.78644 75 64 81 
-0.90593 -0.627227 2.72152 93 98 140 
-0.847714 -0.576196 2.67142 134 122 142 
-1.0588 -0.382616 2.76027 50 82 131 
-1.027 0.355289 2.67635 71 69 109 
0.674322 -0.56553 1.70276 119 125 151 
0.358858 -0.559475 1.76079 76 71 94 
0.504066 -0.51499 1.64547 75 61 86 
0.184435 -0.57907 1.89445 124 106 130 
-0.33957 -0.60756 2.29931 123 102 117 
-0.239852 0.139921 1.92958 127 126 131 
-1.03027 0.393316 2.66974 34 50 86 
0.22445 -0.547161 1.86078 126 104 125 
0.0349256 -0.585188 2.00994 93 68 89 
0.321276 -0.446216 1.76897 97 66 82 
0.479943 -0.340018 1.63421 92 63 83 
0.247731 0.0366251 1.77156 56 44 58 
-0.199182 0.0543384 1.99212 165 149 124 
-0.249397 0.125243 1.93871 203 194 185 
-0.423722 0.244542 1.7721 87 43 56 
-1.02681 0.550065 2.64817 31 30 61 
1.06782 -0.551549 2.00822 36 41 71 
-0.279955 0.161581 1.1685 73 35 50 
-0.636275 -0.267724 2.48298 51 37 54 
-0.289774 0.00856985 2.05281 65 25 34 
0.229375 -0.0916424 1.80366 123 112 129 
-0.244303 0.388017 1.49972 104 55 74 
-0.21977 0.0535916 1.21202 125 74 81 
0.0505417 0.351328 2.12065 93 47 60 
-1.03934 0.239833 2.69917 44 50 76 
0.48522 -0.049853 1.59547 35 28 36 
0.111516 0.237401 1.64695 69 37 52 
-0.238788 0.113825 1.95537 99 90 83 
-1.0258 -0.576791 2.79342 32 35 88 
0.152861 -0.54166 1.91712 131 118 144 
-0.387892 -0.332176 2.16944 105 83 96 
-0.304772 -0.176039 2.05668 59 24 28 
-0.168487 -0.253921 1.93543 101 68 77 
-0.044369 0.325902 2.1748 134 83 100 
0.313676 0.248888 1.67457 127 124 145 
-0.112919 -0.0217001 1.91284 73 37 41 
-0.266138 -0.192559 2.05865 61 29 34 
-0.134974 0.157848 1.9368 122 71 78 
0.454843 0.183527 1.59201 81 57 70 
0.0157144 -0.603244 2.02546 82 67 90 
0.0585498 -0.580714 1.9928 99 76 105 
-0.434673 -0.618882 2.3663 73 57 84 
-0.466389 -0.577135 2.3885 72 64 87 
-0.465883 -0.232628 2.16422 76 22 38 
0.432991 -0.160868 1.64753 73 46 65 
-0.190651 0.00695739 2.02508 201 187 158 
-0.260359 0.117468 1.96364 154 138 125 
-0.894951 0.520734 2.57134 55 46 63 
-1.05231 0.612544 2.569 89 93 102 
0.0606889 -0.571279 1.98933 91 67 91 
-0.377695 -0.634169 2.32643 138 125 145 
-0.311064 -0.618553 2.2752 58 45 71 
0.355348 -0.463639 1.75 85 71 97 
-0.0973636 -0.478194 1.93604 148 94 107 
0.697432 -0.424369 1.67481 39 47 84 
-0.687891 -0.582566 2.55694 75 57 71 
0.171785 -0.4133 1.88169 83 66 85 
-0.784635 -0.551227 2.62976 93 71 94 
-0.493904 -0.483591 2.39754 101 85 96 
-0.451631 -0.374062 2.35485 97 66 82 
-0.368198 -0.257201 2.08984 91 39 52 
-0.214641 -0.0195721 1.98994 182 165 147 
-0.247294 0.137575 1.91339 81 78 85 
0.359882 0.204502 1.64827 77 120 215 
-0.152267 0.266735 1.84287 73 39 53 
-1.02969 0.375991 2.68964 69 69 105 
0.123589 0.268514 1.62856 82 42 53 
-0.544465 0.333423 2.12948 91 50 64 
0.215912 0.434778 2.60162 90 43 59 
-0.914557 0.596916 2.32716 108 118 117 
0.132907 -0.541627 1.92496 99 66 87 
0.460923 -0.442628 1.66728 38 30 45 
-0.431624 -0.598903 2.36305 74 62 84 
0.118401 -0.468123 1.91363 86 72 97 
0.123572 -0.44275 1.9251 87 65 86 
0.14471 -0.436451 1.90652 99 68 86 
-0.275922 -0.41834 2.03839 93 45 61 
-0.477917 -0.485615 2.3807 50 34 47 
-0.456529 -0.470724 2.36821 75 60 83 
-0.610646 -0.392612 2.46417 74 55 75 
0.13173 -0.244949 1.89241 112 74 89 
-0.651326 -0.266448 2.48657 67 52 71 
-0.546068 -0.199035 2.39204 61 40 59 
-0.242339 0.0349799 1.97829 185 172 153 
-0.7103 0.053772 2.48452 56 48 71 
0.540474 0.0680247 1.53821 130 113 132 
0.413077 0.10837 1.62888 115 91 107 
-0.313435 0.206187 2.04686 129 77 89 
-0.758536 0.331428 2.47358 101 91 143 
-0.394114 0.280942 2.02159 100 53 69 
-0.217688 0.277861 1.88469 101 59 79 
-0.119683 0.210682 1.31774 91 47 62 
0.0640491 0.361734 1.65568 70 32 43 
0.359443 0.434171 1.62479 104 78 103 
-0.935199 0.613369 2.52851 117 129 143 
-0.941539 0.613817 2.55182 33 36 53 
-0.919582 0.59692 2.5403 122 108 123 
-1.03687 0.564062 2.6452 23 24 44 
0.704007 0.353307 1.56444 83 105 152 
-0.927882 0.483997 2.60202 89 107 143 
-1.03496 0.373461 2.67627 44 70 105 
-0.00169276 0.0259122 1.8788 62 30 41 
-0.00312059 -0.0932938 1.89468 64 33 41 
0.167835 -0.124095 1.84542 145 127 141 
-0.440084 0.142839 2.19933 64 24 33 
0.0638153 0.441636 1.649 71 45 54 
-0.181128 -0.207995 1.99279 66 29 37 
0.133151 -0.200465 1.89556 85 66 86 
0.133962 -0.201285 1.88364 120 99 114 
-0.753438 -0.296703 2.5612 133 107 120 
-0.503438 0.406394 1.63138 85 42 61 
0.0653277 0.168303 1.81971 80 37 46 
-0.644421 -0.331688 2.49117 79 58 77 
-0.630819 -0.335478 2.48599 69 50 70 
-0.0978429 -0.259008 1.91874 106 66 74 
0.192002 -0.32153 1.85626 119 96 112 
0.192885 -0.482356 1.87877 79 64 83 
0.0682469 -0.497864 1.97202 91 64 83 
0.720848 -0.485698 1.67481 154 176 217 
-0.196629 -0.537471 2.01081 149 95 111 
-0.00349722 0.472002 1.67248 147 108 127 
-0.18021 -0.488711 2.01076 99 45 61 
-0.920198 0.541649 2.56515 129 152 186 
-0.201698 -0.425202 1.9774 64 33 41 
-0.783797 -0.563053 2.62773 73 62 78 
-0.456288 -0.485716 2.36123 75 58 74 
0.438876 0.344559 1.57972 73 55 77 
-0.18079 -0.536355 2.01745 141 88 104 
0.649614 0.429975 1.5485 75 81 97 
-0.342818 0.161539 1.03609 94 51 68 
0.442453 -0.23637 1.66005 132 117 138 
-0.687725 -0.604854 2.5508 71 62 89 
0.13895 0.0606137 1.71431 59 29 37 
-0.0207933 0.396283 1.68217 78 35 45 
-0.0334213 0.113932 1.89343 65 33 44 
0.275281 -0.0403316 1.75345 106 82 95 
-0.455136 0.428179 2.93368 90 51 69 
-0.120803 0.037398 1.91167 147 95 107 
-0.925077 0.567478 2.5661 150 164 199 
0.214043 0.432557 2.58763 83 41 53 
-0.546965 0.304145 2.12284 66 43 51 
0.130481 0.239557 1.62242 72 37 43 
-0.760138 0.303622 2.49625 35 31 68 
-0.254787 0.105445 1.95829 103 70 77 
-0.218342 0.0480396 2.00058 117 109 107 
-0.328063 -0.00228003 2.08247 61 26 33 
0.0174759 0.276993 1.70752 104 57 65 
-0.157139 0.0637496 0.76679 67 24 33 
-0.922683 0.599783 2.55467 121 108 126 
-0.618097 0.302318 2.19506 71 42 47 
0.313795 0.204335 1.7131 74 52 73 
-0.248824 0.169692 1.96784 86 63 47 
0.292717 0.308457 1.69786 85 61 77 
0.300952 0.437669 1.68311 48 34 49 
-0.399258 -0.00516308 2.19063 81 36 43 
0.298466 -0.392225 1.78691 127 115 137 
0.0406624 0.0225112 1.85537 66 33 42 
-0.316682 0.453926 1.46183 141 93 109 
0.378519 -0.299761 1.70228 118 100 114 
0.00627044 0.470628 1.67016 139 106 125 
-0.968554 0.622513 2.56237 145 168 209 
0.433987 0.306239 1.59416 104 103 121 
-0.754514 0.312083 2.49392 162 180 246 
-1.05472 -0.377274 2.75028 42 77 119 
-0.186581 0.150223 1.90693 105 81 77 
-0.152731 0.143885 1.94924 56 29 38 
-1.02448 0.182186 2.68148 33 52 94 
0.0689167 0.130496 1.80817 76 31 36 
-0.261518 0.115 1.95368 122 88 86 
0.188927 -0.1958 1.83682 92 75 94 
0.731994 -0.025984 1.64045 111 108 161 
-0.220944 -0.0410988 2.0057 69 40 36 
-0.6988 -0.1177 2.50967 116 104 126 
0.31465 -0.238969 1.76283 59 41 55 
0.405775 -0.296821 1.68431 50 38 52 
-0.0104995 0.467155 1.68491 148 103 126 
-0.108118 0.253842 1.79555 84 47 64 
-0.0892393 0.187664 1.29493 103 55 67 
-0.400292 -0.55303 2.334 63 49 64 
-0.312661 -0.243794 2.04817 119 73 84 
-0.168551 0.373112 1.50865 123 67 80 
-0.185547 -0.150027 1.9948 66 33 40 
-0.74289 0.307035 2.47277 13 31 81 
-0.237962 0.143375 1.9129 149 141 130 
0.00110035 0.471199 1.69122 68 46 58 
0.274627 -0.295818 1.78894 77 54 64 
0.701762 -0.267989 1.66357 53 56 75 
-0.970239 0.625589 2.5735 159 182 223 
0.0386304 0.405405 1.67467 117 77 88 
0.693265 0.376908 1.56513 28 45 75 
-0.127964 -0.216157 1.89654 150 96 112 
0.702711 0.351737 1.5798 98 116 152 
-0.22651 -0.0708267 2.01505 33 18 23 
0.747435 0.811353 5.35641 69 38 43 
0.306354 0.0234191 1.71863 139 120 140 
-0.142641 0.0483731 1.92468 93 52 58 
-0.321537 0.205349 2.06262 66 26 34 
-0.366933 -0.504966 2.30282 124 109 132 
-0.219791 -0.42193 1.99722 82 35 51 
-0.540094 -0.3164 2.41211 95 72 92 
0.381457 -0.291764 1.71068 68 50 74 
-0.342693 -0.247329 2.07344 118 78 89 
-0.771731 -0.192479 2.56705 138 126 140 
-0.609254 -0.130277 2.44711 126 113 131 
-0.503254 -0.130998 2.36236 78 60 76 
-0.260464 0.0224093 2.02492 157 135 121 
-0.257447 0.0336314 2.02442 146 125 108 
-0.21624 0.304785 1.88792 96 49 65 
0.127438 -0.474133 1.93322 80 65 86 
0.0190348 -0.470208 2.00615 93 61 85 
-0.532408 -0.420965 2.43342 87 65 88 
0.334504 -0.352102 1.74993 124 107 123 
-0.774533 -0.250682 2.57384 65 42 60 
-0.862286 -0.174684 2.63585 99 75 99 
-0.711031 -0.00211212 2.50195 117 95 116 
-0.615675 -0.000347934 2.43051 78 60 82 
-0.0465148 -0.00236027 1.92088 75 32 41 
-0.10978 0.0445273 1.90931 61 26 32 
-0.0092703 0.0932791 1.84905 143 93 102 
-0.228242 0.115119 1.93032 200 192 173 
0.405241 0.12273 1.63326 140 119 136 
-0.502067 0.292574 2.11349 86 43 60 
-0.9213 0.432316 2.59647 113 135 176 
-0.844374 0.455262 2.53578 120 107 135 
-0.70844 0.45626 2.44151 45 36 55 
0.488976 0.343552 1.54876 80 62 74 
-0.236631 0.397092 1.49861 108 55 73 
0.613392 0.518008 1.43768 66 72 86 
0.351904 -0.474125 1.7539 80 68 92 
-0.266289 -0.417171 2.02786 98 43 62 
0.136596 -0.41669 1.90723 95 69 82 
-0.00303599 -0.275558 1.82446 109 49 61 
-0.454023 -0.292129 2.34437 99 68 86 
-0.252119 -0.203972 2.05452 78 38 47 
-0.518177 -0.208475 2.37692 67 58 79 
-0.427838 -0.175621 2.18682 53 28 34 
0.282685 -0.177591 1.76685 93 71 92 
0.192608 -0.152279 1.83766 77 63 80 
-0.251874 0.139756 1.95792 56 52 66 
-0.372409 0.285147 2.00016 75 34 50 
-0.214542 0.2115 1.34434 111 61 73 
-0.552606 0.394935 1.66641 69 38 53 
-0.330633 0.397965 1.50291 105 53 66 
-0.613973 0.442743 1.71013 73 39 56 
-0.263277 0.393605 1.49167 134 87 103 
-0.222492 0.21737 1.35445 80 39 47 
-0.257194 0.00309531 2.03136 145 126 112 
0.0477731 0.0289081 1.84343 65 30 37 
-0.598583 0.186651 2.40116 117 86 94 
-0.331392 0.419222 1.49533 81 48 65 
-0.370746 0.143138 2.1505 58 23 27 
-0.444038 0.399634 1.58543 104 57 75 
0.353181 0.426291 1.63996 117 114 133 
-0.781866 -0.180269 2.59031 48 36 58 
-0.81057 0.462562 2.51166 110 103 121 
0.158499 -0.200415 1.86977 98 69 87 
0.185271 -0.200293 1.84833 129 111 127 
-0.82927 -0.306187 2.62107 127 103 117 
-0.326077 0.314378 1.97044 87 44 63 
-0.480569 0.409875 1.60914 104 56 78 
0.439626 0.309154 1.58441 133 115 127 
0.223064 -0.214328 1.82191 131 116 139 
-0.568651 -0.198283 2.41121 67 53 68 
-0.741117 0.275476 2.50374 86 120 184 
0.0475704 0.106512 1.82784 73 31 33 
-0.390074 0.272042 2.05 89 57 72 
-0.159168 -0.114905 1.96513 64 29 36 
-0.599712 0.184302 2.38352 105 73 84 
-0.148371 -0.258685 1.92313 70 34 44 
0.115906 0.418017 1.61458 119 73 84 
0.165157 -0.484209 1.90623 74 55 75 
0.560819 0.502797 1.43745 27 31 42 
-0.92248 0.545879 2.58261 119 143 179 
-0.766307 0.281784 2.49296 152 154 213 
-0.139614 -0.258554 1.92882 114 70 85 
-0.78182 -0.228726 2.59451 61 52 69 
0.427884 0.436225 2.5753 84 38 48 
-0.231858 -0.0221354 2.03689 127 102 97 
0.339895 0.32091 1.66685 136 127 156 
-0.290336 0.17324 2.02789 67 37 47 
-0.328604 0.176611 2.05896 124 71 79 
0.36029 0.434945 2.57453 87 40 50 
-0.580249 0.310439 2.14293 101 67 68 
0.133613 0.236212 1.64491 88 46 58 
-0.168941 -0.259405 1.91802 133 79 93 
-0.276239 0.176197 2.03141 58 31 40 
-0.4539 -0.231336 2.22173 70 30 30 
-0.158864 0.142517 1.92581 133 115 115 
0.476962 0.00404785 1.60165 89 66 84 
-0.185894 0.0133347 1.99915 197 186 158 
-0.125855 -0.0148788 1.92388 119 77 91 
-0.622601 -0.0104445 2.41615 121 99 120 
-0.611873 0.310003 2.17252 45 32 39 
0.380342 -0.103597 1.69692 70 54 64 
0.271532 0.391319 2.64314 74 37 45 
0.034825 0.386779 1.68593 108 63 70 
-0.401079 -0.00395055 2.17316 71 30 34 
0.334036 0.319054 1.65837 133 127 155 
-0.921825 0.574042 2.58769 64 70 94 
-0.614781 -0.0122982 2.39235 49 38 54 
-0.352789 -0.2099 2.08105 121 74 84 
-0.114425 0.182842 1.88726 87 41 44 
0.381491 -0.342506 1.72721 57 43 56 
1.81938 0.898678 5.75155 62 42 44 
-0.311092 -0.244374 2.06231 99 57 69 
-0.49574 -0.277418 2.3675 70 51 55 
0.0080255 0.0214875 1.87868 78 35 42 
-0.279342 0.348523 1.49587 86 53 74 
-0.0606155 0.261249 1.6068 121 76 83 
0.280807 0.226227 1.72084 70 62 86 
-0.351223 0.224921 1.5871 87 44 63 
-0.0711706 0.264599 1.61476 85 42 52 
-0.0890506 0.267143 1.63104 74 38 50 
-0.19565 0.210398 1.49967 91 48 67 
0.163705 -0.460854 1.89368 95 72 92 
-0.679239 0.2951 2.4366 67 52 73 
-0.0897553 0.256594 1.58143 121 75 85 
0.0866424 -0.425988 1.94607 112 74 97 
-0.563221 0.222862 2.23751 69 37 50 
-0.223011 0.248252 1.68716 101 59 79 
-0.306216 0.210092 1.32831 95 52 72 
-0.0995727 0.259656 1.59061 95 52 62 
-0.469415 0.225213 1.57733 77 46 54 
0.165912 0.315034 1.87495 97 49 61 
-0.42257 0.192217 1.24082 84 46 59 
-0.283368 0.242876 1.73945 93 48 68 
0.0746503 0.322367 1.93574 78 39 44 
-0.381529 0.236845 1.5062 94 51 68 
-0.156324 0.243577 1.63814 138 91 111 
-0.389796 0.187278 1.30049 132 83 102 
-0.652939 -0.126731 2.47004 120 111 140 
-0.508743 -0.120731 2.36313 114 97 116 
0.192604 0.334765 2.02604 69 31 42 
0.0996184 -0.494942 1.94572 102 70 83 
-0.404269 0.012331 1.62711 64 27 35 
-0.368878 0.0900252 1.58952 65 24 32 
-0.242452 0.139701 1.96241 84 84 92 
-0.292494 0.205921 1.41656 84 53 69 
-0.151853 0.246148 1.52958 129 82 90 
-0.268448 0.135694 1.90373 87 75 85 
0.354167 0.206036 1.65969 56 96 194 
4.55963 2.55436 15.0341 64 32 45 
-0.130171 0.367571 2.25842 87 43 58 
0.411042 0.430296 2.54039 105 53 65 
0.123612 -0.420899 1.91965 81 60 75 
-0.160199 0.249421 1.53904 80 39 47 
-0.261656 0.138158 1.93651 107 100 107 
-0.535874 0.436777 1.65411 80 39 55 
-0.13304 -0.240986 1.92042 75 37 48 
0.489835 0.130646 1.57006 66 44 65 
-0.446649 0.18864 1.22256 87 44 63 
-0.228043 -0.0603285 2.0136 155 142 125 
0.176732 0.341617 2.0372 89 50 55 
-0.537048 0.166157 1.18282 133 82 99 
-0.214224 0.233818 1.58375 134 89 110 
0.237082 -0.511833 1.84555 100 74 99 
-0.372843 -0.342943 2.28414 97 86 102 
-0.522899 -0.222543 2.38409 84 62 83 
-0.791312 -0.191861 2.58068 117 114 133 
-0.669026 -0.127412 2.47908 126 102 126 
-0.243246 0.00564048 1.99168 169 152 136 
-0.797159 0.213405 2.53313 53 44 65 
0.411498 0.30856 1.61358 67 55 79 
0.304666 0.366124 1.69164 126 117 138 
0.508052 0.416545 1.51933 116 118 143 
0.354921 -0.494982 1.75283 127 119 143 
-0.586862 -0.244333 2.43909 55 42 59 
-0.431335 -0.0886434 2.17684 67 35 46 
-0.493765 -0.0236723 2.32951 80 67 87 
1.24392 -0.122144 4.59245 65 25 34 
-0.832782 0.0493972 2.5812 76 54 75 
1.33191 0.349741 4.48337 74 27 37 
-0.774229 0.129706 1.01277 70 32 45 
0.505521 0.306701 1.53786 85 64 81 
0.344133 0.33501 1.65148 93 69 82 
0.0675769 0.417639 1.65602 95 49 62 
0.478229 -0.301198 1.62473 66 52 75 
-0.502887 -0.250398 2.3681 72 52 63 
-0.517754 -0.178173 2.37322 97 69 83 
-0.150438 -0.154527 1.96461 54 24 26 
-0.540677 -0.141837 2.38983 61 48 68 
-0.823094 -0.0517049 2.58885 63 50 76 
-0.376485 -0.0495035 2.17927 71 35 45 
1.23869 -0.122156 4.58412 75 33 43 
-0.188459 0.0406044 1.9827 168 161 143 
-0.301831 0.119393 2.0516 75 32 42 
-0.346525 0.136239 2.13392 61 25 35 
0.28943 0.223581 1.71503 92 67 88 
0.068018 0.230462 1.71122 69 39 49 
-0.589143 0.30487 2.1646 58 29 31 
-0.347912 0.285004 1.9932 75 43 58 
-0.291105 0.222794 1.41411 136 86 97 
-0.0436162 0.295215 1.75845 102 63 81 
0.0665078 0.286084 1.67525 93 61 74 
-0.574069 0.366418 1.69255 68 34 48 
-0.401472 0.384951 1.56178 77 43 60 
-0.463722 0.506205 1.52081 50 60 111 
0.378428 -0.0442224 1.67616 113 102 116 
-0.49715 -0.0258365 2.34446 66 51 70 
-0.104165 0.103143 1.90744 87 41 52 
-0.324127 0.121215 2.06917 77 35 47 
-0.59059 0.414689 1.70109 79 41 56 
0.330679 0.323235 1.67323 118 112 138 
-0.327457 0.265808 1.99802 90 49 67 
-0.0742661 0.246319 1.83662 103 70 89 
-0.683484 0.176356 1.19397 94 50 67 
-0.594877 -0.0812834 2.41889 69 51 65 
-0.401429 0.128895 2.15954 81 35 46 
-0.629336 0.334713 2.19084 50 25 28 
-0.212575 0.381141 1.50867 115 64 83 
-0.538543 0.230263 2.2223 87 36 43 
-0.398691 0.0305122 2.18829 64 28 32 
-0.397248 0.504744 1.52065 62 48 63 
0.381886 0.334669 1.63005 151 130 147 
0.0612776 0.39517 1.65977 87 41 51 
-0.173577 0.314091 1.85392 98 56 68 
-0.323194 0.0144838 2.08387 61 30 36 
0.14719 -0.480197 1.91127 94 71 91 
-0.271878 0.165794 2.01553 84 59 62 
-0.317377 0.229369 1.44479 78 41 59 
0.174001 0.451993 2.71154 77 43 60 
-0.097194 0.286184 1.77981 91 46 53 
0.620314 0.375498 2.3718 140 92 106 
-0.16568 0.408554 1.51043 104 53 68 
-0.175779 0.40559 1.50645 138 90 104 
-0.78664 -0.11921 2.57555 118 106 126 
-0.0665628 0.237634 1.84544 104 54 65 
-0.617389 0.0359715 2.41823 52 41 58 
-0.189924 0.0327996 1.99045 207 195 169 
0.0925769 0.203864 1.722 135 84 101 
-0.295521 0.0599196 2.04829 67 27 35 
-0.232353 0.0557968 1.96945 142 122 98 
-0.0155123 0.0986152 1.88441 75 32 39 
1.2884 0.451834 4.52657 134 81 91 
-0.380251 0.187434 2.15628 61 21 29 
0.159568 -0.260181 1.87659 142 130 154 
-0.437266 0.565079 1.64592 189 180 243 
0.450003 0.429678 1.56934 123 109 122 
-0.30138 -0.269711 2.04684 62 41 50 
-0.310501 0.22796 1.43661 98 46 58 
-0.356314 -0.280414 2.09838 116 64 76 
-0.661072 -0.068044 2.47033 127 105 126 
-0.281476 0.175972 2.01913 71 40 46 
-0.253764 0.159298 1.98504 29 24 20 
0.110206 -0.0072367 1.70485 145 95 106 
-0.258528 -0.200693 2.03162 66 36 44 
-0.798919 -0.121128 2.55783 116 102 119 
-0.673946 0.290109 1.25497 76 35 49 
0.526034 0.499415 1.44521 18 23 42 
-0.164375 -0.212526 1.92119 150 96 109 
-0.198208 -0.147366 1.99681 51 23 22 
-0.263166 -0.133593 1.93125 120 71 77 
