ply                 
format ascii 1.0    
element vertex 1263
property float x    
property float y    
property float z    
property uchar red  
property uchar green
property uchar blue 
end_header          
0.543315 0.463703 1.44716 96 116 175 
0.538966 0.464103 1.44908 127 153 214 
0.544199 0.461508 1.44562 33 23 47 
0.505506 0.470219 1.47492 137 155 217 
0.50113 0.468114 1.4783 25 26 56 
0.383597 0.471812 1.57234 79 64 83 
0.326745 0.362938 1.67218 67 57 82 
0.0474104 0.325633 1.96255 106 56 67 
-0.0688193 0.256479 1.5637 85 42 52 
-0.0355294 0.266009 1.75337 128 82 92 
-0.578944 0.312992 2.15618 106 74 77 
0.127471 0.236075 1.6309 49 24 30 
-0.0694515 0.252566 1.77818 89 47 61 
-0.241953 0.267731 1.90778 129 142 187 
-0.262228 0.267233 1.92378 128 133 173 
-0.505738 0.292191 2.10471 73 35 50 
-0.768723 0.337993 2.5 29 25 60 
-0.775141 0.327594 2.5021 51 44 75 
0.309937 0.203832 1.70159 78 59 79 
0.306059 0.204208 1.70526 124 116 137 
-0.73936 0.282313 2.48499 149 175 236 
-0.744555 0.274532 2.49339 107 135 198 
0.115968 -0.410579 1.92842 67 50 66 
-0.739224 0.26653 2.48579 48 39 58 
-0.124944 0.184512 1.91085 75 24 33 
-0.162008 0.162925 1.92452 113 100 107 
0.0200704 0.149705 1.85376 72 27 32 
-0.230656 0.145388 1.9238 130 120 108 
-0.470073 -0.357326 2.36313 61 40 49 
-0.227692 0.126565 1.92941 210 207 192 
-0.313358 -0.26315 2.04803 59 28 43 
-0.307173 -0.259916 2.04925 103 63 72 
0.0583369 0.0985731 1.83208 63 22 28 
-0.211468 0.0550299 1.96787 167 155 133 
-0.250075 -0.202758 2.04427 63 27 39 
0.415017 0.0389767 1.64024 45 34 51 
0.376381 -0.0951142 1.6879 129 123 137 
-0.0219594 -0.0975311 1.91425 63 26 33 
-0.201135 -0.0531997 2.00296 54 32 34 
-0.251323 -0.0102382 2.02817 136 115 98 
-0.714177 0.0533266 2.50242 63 51 71 
0.411038 0.0392077 1.64488 63 45 61 
-0.788855 -0.247538 2.59366 83 60 80 
0.458988 0.431185 1.55591 84 62 75 
0.480367 -0.168905 1.61478 67 54 64 
-0.322858 0.0629128 2.07456 67 27 36 
0.330616 0.450133 1.65118 122 104 118 
0.203146 -0.204626 1.83308 66 49 67 
0.333842 0.0971825 1.69807 123 106 122 
0.451822 0.0964757 1.60242 104 77 92 
0.316062 -0.234043 1.752 134 114 126 
0.317898 0.365624 1.6766 128 128 152 
0.295724 0.367585 1.69412 120 121 142 
0.471136 -0.248796 1.63462 84 65 87 
0.280529 0.28413 1.71112 109 102 120 
0.278629 0.280011 1.71259 55 37 53 
0.3228 -0.350453 1.75838 82 61 76 
-0.445235 0.216656 2.20353 59 24 31 
0.0793993 -0.414701 1.95407 101 74 93 
-0.0245145 0.255448 1.74655 108 60 76 
-0.26327 0.27731 1.92441 75 41 55 
0.0401109 0.243741 1.69847 82 44 57 
0.00158984 0.246923 1.72738 100 52 64 
-0.0823126 0.199724 1.41071 86 48 59 
-0.73337 0.311554 2.47666 55 46 77 
0.0430975 0.295644 1.69105 92 55 72 
-0.247964 -0.142245 2.03708 71 33 44 
0.108786 0.249332 1.64224 85 52 69 
0.116057 -0.453341 1.92977 99 70 90 
0.543527 0.505893 1.4402 133 142 199 
0.550866 0.497338 1.43354 32 16 42 
0.522299 0.485282 1.45714 11 24 92 
0.497303 0.475322 1.48078 27 25 49 
0.508744 0.471426 1.47057 32 20 94 
0.544377 0.461237 1.44566 33 23 47 
0.500619 0.47075 1.4754 83 127 192 
0.499761 0.468045 1.47928 12 19 35 
-0.747016 0.332473 2.47881 153 164 218 
-0.741101 0.324069 2.47758 144 167 234 
-0.750906 0.304535 2.49099 17 28 74 
-0.745964 0.273238 2.48751 156 177 242 
-0.232373 0.130031 1.92519 109 103 107 
0.492464 0.504753 1.48126 41 31 42 
0.547662 0.4587 1.44119 36 24 38 
0.440763 0.42978 1.5704 121 99 112 
0.285129 0.379776 1.6981 92 82 107 
0.0312149 0.282308 1.70072 80 39 45 
0.292768 0.268175 1.70491 58 44 59 
0.311687 0.258128 1.68927 72 55 73 
-0.0348212 0.265126 1.74857 124 78 88 
0.0560103 0.347556 2.313 81 44 52 
0.362735 0.242075 1.64865 80 116 210 
-0.481854 0.296715 2.08922 67 27 36 
-0.262459 0.268576 1.92359 133 128 168 
-0.256393 0.263648 1.9193 55 57 105 
-0.768651 0.337778 2.50052 29 25 60 
0.411737 -0.433493 1.70202 44 22 43 
0.472138 0.188879 1.5746 62 53 70 
-0.235483 0.138646 1.92292 39 34 40 
0.34393 -0.342566 1.74799 72 49 67 
-0.918193 0.0738281 2.64621 72 72 108 
-0.139099 0.0478155 1.93541 63 22 28 
-0.172652 -0.274443 1.93793 48 21 28 
0.47071 0.0171247 1.5989 132 114 126 
0.477743 0.0131586 1.59431 104 90 107 
-0.307329 -0.258906 2.04869 110 66 79 
0.31511 -0.00320785 1.72164 134 111 129 
-0.201169 -0.0530502 2.00295 54 32 34 
-0.225249 -0.0628365 2.00323 61 30 35 
-0.204542 -0.146492 2.00712 105 68 75 
0.383114 0.471519 1.57136 83 66 85 
0.493475 0.421035 1.5323 98 95 112 
-0.0980966 0.293996 1.7963 74 38 50 
-0.699076 -0.118592 2.50356 115 100 119 
0.0200899 0.150834 1.85484 73 30 39 
-0.466125 -0.351566 2.36104 92 71 86 
-0.0951225 -0.0093001 1.90534 76 33 42 
0.315545 -0.234169 1.75145 134 114 126 
0.0388138 0.243918 1.69698 68 38 50 
-0.153211 0.167137 1.9291 65 36 40 
0.400462 0.100849 1.64645 69 50 69 
-0.110286 -0.00687887 1.91629 59 28 34 
0.11842 0.275357 1.63329 103 53 65 
-0.274453 -0.139196 2.05578 68 35 44 
0.155131 -0.332509 1.88143 91 67 91 
0.321962 -0.350122 1.75746 83 62 77 
0.277435 0.279768 1.71319 52 34 48 
0.536694 0.503777 1.44521 14 22 69 
0.551826 0.497857 1.43389 18 11 29 
0.497723 0.500806 1.48054 20 16 33 
0.525719 0.48778 1.45524 149 174 240 
0.520732 0.487635 1.459 149 168 234 
0.548563 0.470159 1.44207 21 27 59 
0.498155 0.476268 1.48177 11 27 63 
0.542079 0.463951 1.44578 152 176 240 
0.500342 0.468075 1.47981 20 18 31 
-0.739615 0.282689 2.48664 148 176 239 
-0.747623 0.274613 2.49194 130 144 207 
0.498045 0.479256 1.47767 120 136 188 
0.548886 0.458527 1.44175 48 34 49 
0.496616 0.466753 1.4814 27 15 27 
-0.742965 0.294897 2.48389 17 29 77 
-0.224612 0.147994 1.92452 76 54 40 
0.413217 -0.434438 1.70283 41 28 46 
0.0423156 0.281404 1.69181 83 41 53 
0.0365482 0.327231 1.96895 91 48 55 
-0.0678372 0.291269 1.77515 74 37 54 
0.324071 0.250287 1.68893 81 58 68 
0.362745 0.241136 1.64795 75 114 209 
0.127682 0.236006 1.63208 62 29 38 
-0.256768 0.263047 1.91773 67 60 104 
0.345052 -0.342131 1.7473 66 42 58 
-0.414006 -0.387237 2.10238 65 30 34 
-0.171889 -0.27497 1.93951 64 27 35 
-0.161116 -0.272071 1.93497 59 21 32 
0.0311888 0.0968194 1.84937 40 15 21 
0.0344717 0.0933561 1.84623 61 20 24 
-0.311366 -0.264485 2.05113 56 26 38 
-0.138578 0.0474432 1.93646 71 26 31 
0.314925 -0.00412787 1.72072 121 102 121 
-0.537885 0.50813 1.53452 56 52 77 
0.482967 -0.439708 1.64698 54 42 64 
-0.554094 0.409333 1.66218 72 39 56 
-0.569648 -0.201086 2.42496 60 44 57 
0.291999 0.0924637 1.73324 72 59 77 
0.44982 0.308248 1.57939 125 112 129 
0.317401 -0.235382 1.75181 138 114 127 
-0.157361 -0.258062 1.93337 62 29 38 
0.368786 0.194507 1.65683 73 56 75 
0.309397 0.202826 1.70025 92 73 93 
0.334802 -0.220432 1.73519 67 46 61 
-0.0662533 0.264573 1.77781 62 34 46 
0.28151 -0.429518 1.804 87 68 87 
-0.262603 0.275837 1.92237 98 57 63 
0.491633 -0.373696 1.63653 64 53 69 
0.526369 0.487508 1.45447 147 170 237 
0.532793 0.468315 1.45264 16 22 48 
0.511662 0.47234 1.46959 15 17 56 
0.54443 0.460895 1.44309 29 20 37 
-0.311855 -0.263266 2.05179 51 23 37 
0.474422 0.0151939 1.59534 72 49 65 
0.457332 0.430642 1.55573 76 52 65 
0.0275978 0.108668 1.84912 46 17 22 
0.490756 0.0896223 1.5764 132 115 131 
0.417409 -0.296654 1.68595 68 50 66 
-0.0882586 0.288387 1.79167 93 46 52 
0.311983 0.257106 1.68947 77 60 76 
0.440238 0.429957 1.57221 128 110 122 
-0.125046 0.185364 1.90944 68 21 29 
0.14157 0.169524 1.70718 65 33 36 
-0.250566 -0.131454 2.0406 54 23 29 
-0.263484 -0.112618 2.05491 61 26 30 
0.414355 0.428845 1.59134 58 49 68 
0.485351 -0.426016 1.64329 67 53 76 
-0.255518 -0.120201 2.04506 108 62 72 
0.478633 -0.168274 1.615 61 45 56 
0.289114 0.274383 1.70574 108 103 126 
-0.181373 -0.278508 1.93991 70 43 52 
0.38341 0.472151 1.5704 73 61 81 
-0.917479 0.0728009 2.64431 73 81 117 
0.483869 0.0898938 1.58123 83 67 78 
0.0322459 0.0955615 1.84673 44 15 20 
0.330633 -0.352227 1.75957 134 120 135 
0.374155 -0.340131 1.71824 65 51 68 
-0.193115 0.00448136 1.99429 170 156 130 
-0.310123 -0.256361 2.04906 123 73 84 
0.490862 0.0899002 1.57728 131 117 134 
-0.0576615 0.25634 1.55752 67 41 54 
0.289664 0.276684 1.70873 118 113 135 
0.455732 0.432256 1.55599 92 75 91 
0.319272 0.00372107 1.72351 60 46 63 
0.0251997 0.0761305 1.8502 134 82 95 
0.480387 0.0102598 1.59686 122 105 124 
0.197515 -0.203522 1.84122 67 49 65 
0.281743 -0.557637 1.82599 74 50 76 
-0.197308 -0.653447 2.16149 214 202 190 
-0.152282 -0.641313 2.12429 17 43 58 
-0.608481 -0.757236 2.51994 61 46 65 
-0.183109 -0.641764 2.15118 65 81 78 
-0.205434 -0.647518 2.17226 59 34 40 
0.239978 -0.550635 1.8513 137 118 137 
-0.100432 -0.629743 2.11952 117 101 127 
0.687681 -0.498417 1.69265 50 53 86 
-1.35011 -0.849556 2.91279 134 144 195 
-0.16148 -0.619401 2.13343 147 138 123 
-0.332534 -0.653646 2.29895 97 88 105 
0.718387 -0.478099 1.68409 127 146 179 
-0.319915 -0.647355 2.28657 63 46 62 
0.161155 -0.538884 1.91212 81 64 96 
-1.02919 -0.789509 2.81787 42 50 99 
-0.136274 -0.535251 1.9604 80 41 59 
-0.19644 -0.545786 2.02337 112 58 72 
-1.34222 -0.765988 2.88234 123 124 180 
-1.34942 -0.760906 2.89767 107 107 161 
-0.366132 -0.601847 2.32156 122 110 134 
0.0932054 -0.504466 1.95766 62 44 66 
-0.184617 -0.520536 2.03967 75 24 33 
-0.326446 -0.516011 2.10931 80 41 60 
-0.119169 -0.477256 1.97112 80 36 51 
-1.35138 -0.688133 2.89039 124 120 179 
0.199764 -0.422959 1.86533 63 46 62 
-0.717502 -0.575417 2.57929 93 76 92 
-1.26639 -0.626694 2.89259 155 157 206 
-0.848318 -0.577213 2.67002 134 122 142 
-1.27281 -0.611789 2.8977 123 124 178 
-0.645394 -0.528294 2.5241 83 56 73 
-0.720794 -0.463092 2.56427 80 59 78 
-0.913252 -0.388163 2.6956 98 109 154 
-1.03948 -0.382708 2.77398 38 42 69 
0.316578 -0.218575 1.75224 72 56 82 
0.290199 -0.212492 1.77374 68 53 72 
0.292244 -0.156958 1.77077 118 117 133 
-0.781982 -0.228789 2.58394 58 47 63 
0.706182 -0.0668428 1.63246 161 186 226 
-0.615758 -0.0788779 2.4456 122 99 115 
-1.02882 -0.0779284 2.73671 126 134 173 
-1.03355 -0.0746459 2.75508 89 88 132 
0.746693 -0.0232014 1.63835 103 113 162 
-0.23441 -0.0224342 2.02557 120 100 93 
-0.228938 -0.00820848 2.00347 189 176 159 
-0.238983 0.0191403 1.99017 190 183 164 
-0.195397 0.0332336 1.97988 177 161 136 
-0.822183 0.0527281 2.56921 76 70 96 
-0.0980241 0.043284 1.90229 72 29 39 
-0.230187 0.0460868 1.9704 207 191 165 
-0.201914 0.0949376 1.98717 193 182 152 
-0.0943318 0.0977062 1.89653 69 21 33 
-0.141879 0.101793 1.93346 78 28 40 
-0.289891 0.115055 2.04318 71 28 38 
-0.238074 0.109432 1.94125 175 165 155 
-0.337566 0.118495 2.07656 80 33 43 
0.706556 0.0956111 1.61327 106 125 168 
-0.251316 0.116617 1.9456 184 179 173 
-0.219445 0.12163 1.93337 135 119 119 
-0.248309 0.126113 1.92776 190 180 171 
-1.03221 0.183336 2.7042 34 41 83 
-0.196623 0.136364 1.94193 102 83 85 
-0.264827 0.142611 1.95146 137 126 120 
-0.174501 0.143595 1.91562 130 113 106 
-0.211989 0.145498 1.92346 48 38 47 
0.334198 0.128977 1.69447 63 46 62 
-0.16759 0.151045 1.91594 177 168 163 
-0.292992 0.170132 2.03875 74 28 38 
-0.333929 0.174592 2.07248 71 24 32 
-0.545556 0.212382 2.22407 102 57 77 
-0.545599 0.221947 2.21767 71 37 51 
-1.04274 0.299756 2.69324 89 90 120 
0.692868 0.174858 1.56523 83 90 134 
-1.03165 0.303206 2.68726 43 39 74 
-0.766668 0.293459 2.50026 60 62 113 
-0.767181 0.317349 2.496 38 40 97 
0.362408 0.214645 1.64966 71 114 209 
-0.735447 0.324744 2.47491 23 34 80 
-1.0452 0.359397 2.69701 27 36 65 
-0.633088 0.303964 2.20292 50 28 40 
-1.02926 0.374962 2.67083 28 32 67 
-1.03384 0.384673 2.67517 38 53 92 
-1.03546 0.556916 2.67157 46 43 74 
-1.04118 0.568439 2.65647 32 33 53 
-1.07043 0.565459 2.63833 66 89 123 
-0.990193 0.608843 2.49641 114 126 138 
-0.967167 0.614929 2.51654 161 161 189 
-0.860112 0.577064 2.145 100 112 102 
-0.401026 0.417893 1.55029 93 46 62 
0.670285 0.434253 1.53856 30 27 54 
-0.499003 0.508351 1.54879 155 189 252 
-0.466251 0.506813 1.52791 152 184 245 
-0.498615 0.507361 1.52356 99 80 172 
0.29175 0.507213 1.46363 109 116 134 
0.186439 -0.56879 1.89662 67 49 71 
0.137797 -0.576688 1.93299 88 70 96 
-0.169784 -0.630259 2.14102 109 86 80 
-0.179015 -0.62873 2.1503 80 76 65 
-0.322416 -0.657754 2.29159 121 112 131 
-0.563418 -0.678669 2.48771 81 60 79 
0.0781562 -0.539051 1.97785 78 63 86 
0.0903338 -0.533736 1.96313 78 64 90 
-0.385271 -0.604533 2.33973 88 74 99 
-0.69792 -0.650544 2.57205 80 54 67 
0.6924 -0.419807 1.69483 21 21 45 
-0.782383 -0.639996 2.6458 87 62 84 
-0.0701455 -0.467427 1.93599 140 84 93 
-0.127622 -0.473191 1.97788 94 46 58 
-0.692162 -0.611272 2.57134 83 65 91 
0.0531853 -0.468408 1.98024 84 59 80 
0.166713 -0.445294 1.88953 93 68 90 
-1.34274 -0.678146 2.88992 109 112 163 
-0.694387 -0.572306 2.56307 82 63 82 
0.411678 -0.366974 1.69903 102 93 112 
-0.202092 -0.428973 1.99129 66 26 37 
-0.778156 -0.566761 2.63132 74 53 68 
-0.651173 -0.529183 2.53388 77 56 73 
-0.588119 -0.517421 2.47735 133 119 136 
0.303317 -0.36253 1.77913 117 108 125 
-0.491812 -0.475441 2.39695 90 67 87 
-0.910717 -0.513061 2.71558 83 88 128 
-0.723297 -0.46508 2.57442 80 59 78 
-0.915843 -0.449676 2.7203 71 74 115 
-0.0517947 -0.287891 1.90943 46 20 29 
-0.686038 -0.381131 2.53202 62 49 67 
-0.112604 -0.283001 1.89787 125 87 100 
-0.685917 -0.364191 2.53553 76 61 80 
-0.135482 -0.274259 1.91751 67 25 37 
-1.0436 -0.384853 2.78602 38 42 69 
-0.743305 -0.346539 2.57354 76 53 63 
-0.908023 -0.3229 2.68993 88 76 112 
-0.75431 -0.308589 2.57672 62 45 55 
-1.0296 -0.319598 2.76469 36 40 85 
-0.545144 -0.275666 2.41527 76 57 76 
-0.893521 -0.288632 2.67446 89 71 93 
-0.777467 -0.253903 2.59023 46 29 47 
-0.225488 -0.178802 2.02811 80 40 51 
-0.548949 -0.2013 2.40885 60 38 59 
-0.224845 -0.142961 2.02993 93 59 60 
-0.623958 -0.130437 2.45631 64 41 57 
-0.431002 -0.0884467 2.18808 93 70 80 
-0.824708 -0.0521926 2.58957 79 64 87 
-0.238427 0.0251754 1.98069 211 203 184 
-0.180336 0.0332752 1.98643 171 157 131 
-0.218175 0.043369 1.97679 163 157 143 
-0.401266 0.0627942 2.18641 77 34 41 
-0.188142 0.076507 1.98642 110 94 78 
-0.125953 0.0759856 1.92112 73 24 30 
-0.0378055 0.107959 1.90336 68 25 32 
-1.03745 0.185035 2.7184 32 41 82 
-0.493527 0.172508 2.24208 79 30 36 
-0.4604 0.169668 2.20499 93 45 57 
0.331131 0.144858 1.6933 83 70 98 
0.323639 0.146346 1.70432 89 67 88 
0.118274 0.163306 1.72672 70 36 52 
0.136098 0.162225 1.71328 54 27 36 
-1.03949 0.298223 2.68386 89 90 120 
-0.740021 0.289841 2.4836 33 44 100 
-0.738533 0.314292 2.49583 58 48 75 
-0.777276 0.328799 2.5122 48 40 77 
-1.04333 0.354292 2.68465 80 85 114 
-1.03808 0.364074 2.68314 59 82 114 
-0.626501 0.317832 2.19493 85 74 80 
-0.000494568 0.259561 1.72762 88 54 71 
-0.613499 0.339616 2.17923 78 44 60 
-0.502499 0.331309 2.09904 78 44 61 
-0.394468 0.321053 2.01956 96 51 71 
-1.03368 0.610798 2.6272 115 97 113 
-1.20265 0.617154 2.5728 130 142 140 
-0.955133 0.614415 2.51956 167 183 217 
-0.962621 0.612117 2.50477 161 161 189 
0.706238 0.383165 1.55901 121 153 191 
-0.00708159 0.473969 1.65919 80 51 69 
0.522551 0.512581 1.44828 98 106 125 
0.412561 -0.50552 1.70599 45 32 50 
0.177338 -0.548338 1.89819 76 60 73 
0.324939 -0.500493 1.78759 67 50 69 
0.723611 -0.464501 1.68574 70 81 113 
-0.670231 -0.699543 2.55533 92 72 83 
-0.561518 -0.676311 2.47643 82 63 82 
-0.588335 -0.675614 2.4967 78 57 72 
0.243596 -0.497402 1.84374 125 111 134 
0.105692 -0.518913 1.94634 113 86 103 
-0.00856879 -0.536278 2.03929 133 107 120 
-0.739786 -0.65668 2.60746 82 67 88 
-0.171163 -0.499423 2.01012 89 41 57 
0.548942 -0.390927 1.5925 145 118 137 
-0.779194 -0.636043 2.63024 82 61 78 
0.14104 -0.457968 1.91623 99 73 98 
0.405205 -0.394087 1.70215 101 92 113 
0.0544909 -0.422941 1.97227 85 69 96 
0.0606306 -0.40679 1.96854 78 61 80 
-0.588319 -0.470921 2.46359 71 52 74 
-0.837961 -0.501355 2.6507 80 68 90 
0.15986 -0.344125 1.87926 92 69 89 
0.304575 -0.294615 1.76766 69 47 59 
-0.614609 -0.396526 2.48125 78 54 76 
0.00374813 -0.281738 1.83105 105 44 59 
-0.0447686 -0.288452 1.89984 85 39 49 
0.18685 -0.280275 1.85494 99 76 96 
-0.461401 -0.354102 2.3542 129 105 118 
-0.142243 -0.266751 1.91665 55 23 34 
-1.03351 -0.380392 2.75105 35 41 65 
0.219653 -0.25263 1.82975 99 77 98 
-0.630551 -0.335238 2.47753 72 55 74 
0.156067 -0.253166 1.88155 105 76 96 
-0.110865 -0.240842 1.91051 67 29 40 
-0.534054 -0.279572 2.40987 62 51 65 
-0.11099 -0.213443 1.91175 82 35 45 
-0.322798 -0.225632 2.0588 66 34 45 
-0.634495 -0.267755 2.47772 53 36 52 
-0.341347 -0.223844 2.07355 80 42 55 
-0.760737 -0.252763 2.55827 54 36 50 
-0.542639 -0.160446 2.39751 63 49 64 
-0.563287 -0.140408 2.40557 51 42 59 
0.143494 -0.0792699 1.86478 75 52 62 
-1.03049 -0.0731476 2.74225 78 77 119 
-0.201344 -0.00192473 2.00458 141 126 107 
-0.826377 0.0102077 2.57919 124 112 134 
0.297625 0.00757112 1.73909 81 60 77 
0.318712 0.0160623 1.72108 73 52 71 
-0.184146 0.0313681 1.97727 111 91 80 
-0.204774 0.0351766 1.9972 46 23 17 
-0.83583 0.0506255 2.5792 68 51 69 
-0.236922 0.0434098 1.97809 185 173 151 
-0.748001 0.0608099 2.51944 63 46 64 
-0.196713 0.0534752 1.96849 165 149 124 
-0.373965 0.0602576 2.16724 71 31 40 
-0.421506 0.0643957 2.19668 77 36 42 
-0.110894 0.0739751 1.90721 81 36 43 
-0.192667 0.0920126 1.99021 181 167 140 
-0.128114 0.104906 1.92614 61 24 32 
-0.406622 0.119306 2.15419 86 36 47 
-0.697584 0.16145 2.47573 60 55 77 
-0.308099 0.14802 2.05256 71 31 40 
-0.211081 0.141116 1.92861 151 141 131 
-0.0971771 0.151358 1.89143 85 33 45 
-0.12614 0.154771 1.91107 64 20 33 
0.00160047 0.151463 1.86798 85 42 49 
0.136932 0.151789 1.71747 66 39 48 
0.752743 0.147706 1.60795 159 173 210 
-0.118392 0.188747 1.89862 117 71 81 
-1.03586 0.308634 2.67599 63 69 95 
-0.756291 0.30312 2.48144 32 34 72 
-0.758815 0.334447 2.48542 125 118 169 
-0.285774 0.272558 1.94416 97 53 68 
-0.567447 0.302916 2.14935 78 44 58 
0.0645588 0.247562 1.67872 69 32 39 
-0.526668 0.327365 2.11624 79 44 50 
-0.416978 0.317477 2.03423 83 40 57 
-1.20716 0.442109 2.81647 95 109 156 
-0.284977 0.309934 1.93177 96 52 67 
-0.545171 0.346736 2.12375 74 42 53 
-0.108775 0.295146 1.80445 83 46 63 
-0.0784 0.291658 1.77842 85 42 52 
-0.309544 0.240614 1.45899 98 53 73 
0.0710284 0.489306 2.94841 93 47 60 
0.109297 0.275376 1.63982 90 46 59 
0.283034 0.313215 1.70694 83 71 91 
-1.03656 0.612512 2.63675 118 101 119 
-0.0368212 0.387204 1.66172 76 39 56 
-0.541619 0.395588 1.66073 68 39 57 
-0.124013 0.36904 1.5484 97 55 79 
-1.19079 0.613422 2.55695 111 137 134 
-0.912697 0.593818 2.3126 81 98 92 
-0.19747 0.394548 1.50434 138 91 107 
-1.01048 0.573293 2.15771 99 115 112 
-0.571809 0.519916 1.63773 113 114 134 
-0.448698 0.507173 1.52203 98 104 126 
-1.07113 0.58604 2.6432 79 81 104 
-1.03305 0.549158 2.66046 74 73 105 
-1.04186 0.538959 2.66173 73 83 108 
0.406719 0.289482 1.62008 61 53 74 
0.408743 0.267854 1.61997 70 56 79 
0.680545 -0.487851 1.69698 114 125 153 
-0.311066 -0.656311 2.28684 46 38 59 
-0.0544023 0.203977 1.24027 85 42 52 
-0.440739 -0.654333 2.35151 60 56 83 
-0.436643 -0.654054 2.36122 117 111 139 
-0.143054 0.274917 1.83559 133 87 100 
-0.139646 -0.531552 1.9716 78 34 51 
-0.0444452 0.256601 1.75878 98 55 65 
0.707083 -0.435225 1.68682 58 76 116 
-0.74993 0.334697 2.49039 153 164 218 
-0.0840511 -0.478613 1.94423 105 52 62 
-0.777174 -0.63323 2.62047 74 60 77 
-0.329873 -0.501168 2.10521 74 32 42 
-1.03595 0.308619 2.6731 74 78 105 
-0.739028 0.272889 2.47489 107 135 198 
0.114427 -0.401479 1.92362 63 49 66 
-0.320782 0.202638 2.05258 79 32 42 
-0.287224 -0.420251 2.04567 72 36 50 
-1.03934 0.238869 2.69006 29 34 56 
0.0490087 -0.389876 1.95786 52 31 40 
-0.844103 -0.505863 2.67119 68 56 78 
-0.91196 -0.514784 2.72258 77 73 108 
-0.159004 0.155836 1.93196 156 140 124 
0.704928 -0.277881 1.65708 54 68 105 
-0.255923 0.152519 1.9325 119 107 85 
-0.17414 0.145786 1.92541 107 87 89 
-5.66537e-05 -0.269323 1.83863 52 21 29 
-0.251991 0.126094 1.95843 212 207 201 
-0.394816 -0.279316 2.17085 65 33 48 
-0.751099 -0.306689 2.55936 63 50 60 
-0.192201 0.0865778 2.00049 147 137 112 
-0.127421 0.0471829 1.93142 59 23 27 
-0.173635 -0.125995 1.9904 102 63 68 
-0.00030451 0.0260812 1.88778 75 35 46 
-0.185252 0.0188501 1.98043 191 180 152 
-0.259397 0.0115119 2.02628 147 125 112 
-0.232655 0.00366684 1.99131 126 114 100 
-0.615834 -0.0134149 2.43026 55 42 59 
0.554837 0.508606 1.43123 75 76 81 
-0.142709 -0.00510321 1.94209 75 33 45 
-0.242741 -0.0489502 2.04656 82 61 44 
0.00327706 -0.0556825 1.88307 87 40 50 
-0.840739 -0.11368 2.61831 115 102 119 
0.253861 0.48949 1.67028 61 58 75 
0.288655 -0.167703 1.76563 65 54 71 
-0.765733 -0.254458 2.57589 56 33 49 
-0.10448 -0.190825 1.91287 56 23 32 
-0.294648 0.0607447 2.05935 67 27 35 
-0.431834 0.0723282 2.21319 93 46 54 
-0.33055 -0.223933 2.07502 66 28 41 
-0.322332 0.0929711 2.07114 73 28 33 
-0.542379 0.410959 1.65977 80 45 67 
-0.0434384 0.116063 1.909 66 24 36 
0.440154 -0.230432 1.65282 71 57 74 
-0.272043 -0.661026 2.24843 122 103 122 
-0.510709 -0.351164 2.39541 78 58 70 
-0.0824055 -0.285112 1.9324 58 29 34 
0.161716 -0.551099 1.91158 119 101 115 
-0.427444 0.324794 2.05177 85 44 62 
-0.643429 -0.468498 2.50916 75 55 66 
-0.375746 -0.401758 2.07393 86 44 54 
0.146778 -0.384548 1.90549 77 51 60 
0.085439 0.16595 1.80132 84 35 39 
-0.830658 0.372903 2.53663 128 119 146 
-0.438342 -0.634663 2.37867 74 59 80 
-0.395719 0.294865 2.02764 94 56 71 
-0.698674 -0.57487 2.57336 77 60 78 
0.0536326 -0.471522 1.99175 82 57 78 
-0.105564 0.25587 1.80459 86 48 59 
-0.547394 0.297327 2.14906 83 50 61 
0.0708352 0.222332 1.72065 106 53 69 
0.404584 -0.416863 1.70773 85 61 77 
-0.10635 -0.237802 1.92565 60 24 28 
-0.549185 0.222541 2.22743 67 35 50 
0.122954 0.146424 1.74057 94 62 77 
0.481628 0.13066 1.57908 76 60 87 
0.142517 0.0609234 1.7257 65 30 36 
-0.404159 0.396858 1.55268 98 55 72 
0.51655 0.484839 1.44834 155 173 239 
-1.02653 -0.577126 2.78818 34 46 96 
0.664285 0.461138 1.50957 137 135 149 
0.0715698 0.492521 2.96836 93 47 60 
0.322208 -0.496981 1.77279 71 56 75 
0.0410249 0.255476 1.69688 67 37 45 
0.381534 -0.435917 1.72747 46 38 53 
0.474544 0.187327 1.56429 129 115 130 
-0.0920083 -0.486818 1.96183 119 69 81 
-1.3354 -0.67944 2.87535 177 196 238 
-0.109432 0.18411 1.89939 72 27 34 
0.407888 -0.392021 1.69969 58 49 66 
-0.174403 0.158961 1.92291 44 30 43 
-0.257235 0.161986 1.95896 29 25 26 
-1.25983 -0.630278 2.85577 52 39 57 
-1.2654 -0.630745 2.8973 110 112 163 
-0.908704 -0.51293 2.71369 77 73 108 
-0.905487 -0.445643 2.69009 71 74 115 
-0.19328 0.102758 1.98313 196 184 160 
-0.231019 0.0925107 1.98711 99 86 93 
-0.23527 0.0927033 1.97285 109 84 88 
0.024302 0.0656033 1.85294 90 42 54 
-0.0107167 0.0271539 1.88763 74 34 42 
-0.311761 -0.261916 2.03754 59 28 43 
-0.458753 -0.240289 2.17472 86 38 50 
-0.223574 -0.14365 2.01566 110 68 72 
0.519646 0.407254 1.50784 65 48 66 
0.445136 0.347966 1.58988 60 46 71 
-1.04977 0.532089 2.6593 23 28 47 
-0.696216 -0.118669 2.49107 115 100 119 
0.132941 -0.0795662 1.87071 79 48 64 
0.125792 -0.423167 1.93043 82 59 75 
0.168346 -0.391211 1.88573 89 62 69 
0.33563 0.100671 1.6878 74 57 75 
0.277586 -0.295487 1.79549 71 50 59 
-0.152014 -0.273722 1.91766 88 42 55 
0.477001 -0.118463 1.61581 79 55 69 
-0.470862 0.302739 2.07539 130 84 94 
-1.33588 -0.669402 2.87616 176 188 226 
0.00349785 -0.041955 1.8698 58 26 29 
-0.202467 0.116845 1.94261 166 152 143 
-0.142435 0.101463 1.92135 92 42 54 
0.00770331 0.0114261 1.87686 134 86 102 
-0.261403 -0.472046 1.99365 75 44 52 
0.383464 -0.302174 1.71324 119 98 113 
-0.765803 0.30551 2.50722 26 32 68 
0.704749 -0.424641 1.6837 36 43 69 
-0.75849 0.274593 2.49811 134 140 198 
-1.0701 -0.385701 2.79456 31 54 88 
0.698588 0.427019 1.57524 87 94 123 
0.699426 0.380178 1.58345 35 40 70 
-1.02798 0.606101 2.6154 112 97 116 
-1.06849 0.572263 2.62214 126 129 160 
-1.07907 0.570199 2.65998 64 90 125 
0.0751009 0.255979 1.6725 134 88 101 
-1.03587 0.362871 2.66639 88 95 124 
-1.03447 0.345967 2.6628 84 87 118 
0.359094 0.19457 1.66739 60 47 64 
-0.185144 0.142739 1.92944 167 160 142 
-0.201363 0.141278 1.9347 99 81 77 
-0.219095 0.137175 1.92188 120 109 117 
-0.475437 -0.3606 2.38121 64 47 55 
-0.189622 0.0757628 1.99175 98 80 66 
-0.13958 0.0480373 1.95047 71 26 31 
0.117652 -0.00110025 1.69807 75 32 41 
-0.238819 -0.0215349 2.06286 117 100 92 
-0.213387 -0.150815 2.01674 56 24 27 
0.272421 -0.0930656 1.76896 65 42 48 
-0.179865 -0.1381 1.98809 50 20 20 
-0.774855 -0.396567 2.59954 50 37 55 
-0.0604131 -0.589988 2.08226 81 62 81 
-0.168317 -0.123206 1.97879 58 23 27 
-0.692513 0.159206 2.45626 60 52 75 
-0.372679 0.132685 2.15801 40 15 21 
-0.200171 0.401091 1.51579 77 39 54 
0.449537 0.349422 1.57824 75 53 66 
-0.128398 -0.00169994 1.94136 56 26 36 
-0.383139 0.0607932 2.17334 74 37 45 
-0.24692 -0.440581 2.00963 124 80 103 
-0.238638 0.2727 1.89736 94 54 65 
-0.225414 -0.155499 2.0265 66 31 37 
-0.997473 0.611248 2.50892 113 125 137 
-1.08109 0.579917 2.6577 123 137 166 
-0.761045 0.333963 2.49601 149 162 217 
-1.04259 0.34757 2.68614 91 97 131 
-0.754511 0.272523 2.48354 134 140 198 
-0.216562 0.149652 1.9332 153 144 135 
-0.221264 -0.041626 1.99547 49 23 22 
-0.0540985 -0.284491 1.89889 40 21 25 
0.685046 -0.417387 1.68372 38 34 57 
-1.2564 -0.631002 2.87588 114 116 165 
-0.198413 0.0892357 2.02582 161 147 120 
-1.02582 -0.317351 2.75006 36 49 94 
0.660237 -0.314941 1.66269 84 84 96 
0.649609 -0.263079 1.64963 34 22 34 
0.278951 -0.28415 1.79281 51 38 47 
-0.21047 0.0853028 1.99462 85 64 45 
-0.151132 -0.242831 1.93009 128 82 93 
0.72934 -0.199598 1.66049 150 174 212 
0.57372 0.451928 1.43017 135 126 143 
0.0190709 0.0252319 1.86929 61 30 38 
-0.107435 -0.194446 1.90447 49 20 25 
-0.500595 0.302673 2.09637 53 31 44 
-0.322022 -0.00126387 2.07324 104 72 87 
-0.233016 -0.143585 2.02256 52 21 26 
-0.242649 -0.138453 2.04848 105 60 67 
0.360835 0.195672 1.67832 58 44 59 
-0.25266 -0.132005 2.0579 54 23 29 
0.315604 -0.0267735 1.72846 133 110 130 
-0.273035 -0.0991303 2.05992 59 27 32 
0.475746 0.189548 1.58289 65 57 72 
-0.223014 -0.432468 1.99422 53 27 40 
0.191616 -0.0833029 1.83101 137 115 136 
0.23163 -0.0294171 1.7882 75 46 66 
-0.437114 -0.66068 2.37006 125 112 132 
-0.318386 -0.173392 2.06488 61 29 32 
-0.103114 -0.182715 1.92934 40 17 23 
-0.308072 0.0950736 2.06966 55 22 29 
0.157995 0.436121 2.9582 68 33 39 
-0.0381559 0.169254 1.90929 82 31 36 
-0.0946536 -0.251465 1.92815 52 23 25 
0.421343 0.0917319 1.63772 54 38 49 
0.546908 0.506229 1.51195 151 174 242 
-0.744435 0.270546 2.46269 127 138 200 
-0.158292 0.156433 1.91713 165 149 133 
-0.0735723 0.256549 1.79455 64 32 43 
0.717579 -0.433228 1.67552 108 117 148 
-0.204015 0.133977 1.9494 167 155 143 
-1.27427 -0.613119 2.88808 101 113 163 
-0.173862 0.27426 1.86963 55 38 46 
-0.212234 0.0921504 1.97892 124 102 78 
-0.567146 0.0465461 2.24334 138 87 102 
0.696304 -0.266118 1.65112 41 36 56 
0.124342 -0.0064379 1.69212 157 106 123 
0.701333 0.386879 1.56743 93 117 143 
-0.273012 -0.0988121 2.04987 65 30 37 
-1.04157 0.616804 2.65676 119 106 124 
-0.461407 -0.22803 2.18507 69 29 30 
-1.0383 0.617545 2.60539 30 29 35 
-0.318842 -0.213845 2.05383 121 72 91 
0.0134055 -0.214732 1.85401 62 26 30 
-0.105632 -0.17962 1.91457 28 14 14 
-0.136389 0.160097 1.96007 122 71 78 
-0.180898 -0.135847 1.97576 53 23 25 
-0.550706 0.30686 2.1339 63 48 53 
0.187716 -0.0823768 1.81628 137 114 134 
-0.156084 -0.421506 1.89485 51 25 34 
-0.507528 0.29094 2.09309 79 44 51 
-0.543584 0.296903 2.13859 67 40 49 
0.153389 0.433109 2.93153 69 32 40 
0.262803 -0.0876075 1.76591 136 114 137 
-0.205853 -0.158081 2.01835 66 31 38 
-0.0484778 -0.067751 1.9269 32 16 17 
0.294779 0.31123 1.70199 74 57 76 
-0.0979497 -0.270927 1.91218 118 66 78 
0.411406 -0.505541 1.7159 61 42 64 
0.274553 -0.442603 1.81283 80 54 79 
-0.584842 -0.47525 2.47397 113 100 117 
0.158159 -0.242178 1.87235 102 73 95 
-0.772647 -0.308821 2.58339 127 110 120 
-0.805866 -0.304233 2.61179 78 54 70 
-0.229055 -0.00805163 1.99209 194 181 164 
-0.191292 0.00716141 2.00778 201 187 158 
-0.334339 0.0641779 2.08165 65 24 30 
-0.202359 0.0809527 1.98933 129 104 82 
0.360982 0.228048 1.64916 66 108 208 
-0.89173 0.473283 2.57547 47 39 63 
-0.927892 0.573085 2.58464 134 158 192 
-0.886388 0.580922 2.54183 98 83 106 
0.333058 -0.337532 1.75068 85 67 89 
-0.91336 -0.451494 2.70881 123 135 175 
-0.68382 -0.340613 2.52698 84 65 84 
-0.276209 -0.210246 2.06841 74 34 45 
-0.158814 -0.14919 1.97047 59 27 38 
-0.69013 -0.119214 2.49735 61 51 76 
-0.0386981 0.0580027 1.90924 69 27 37 
-0.0451933 0.0654714 1.91548 69 29 38 
-0.00257859 0.0850022 1.8432 109 54 73 
-0.306522 0.091671 2.0577 76 33 40 
-0.366416 0.126718 2.14986 65 22 29 
-0.175439 0.300952 1.85524 97 54 73 
-0.10108 0.245487 1.50147 82 41 57 
-0.891594 0.589328 2.53461 87 73 96 
0.0827374 -0.499754 1.95993 105 83 106 
0.311719 -0.453773 1.77903 101 78 104 
0.391418 -0.419145 1.71498 98 69 89 
0.251881 -0.416878 1.8218 84 70 95 
-0.458388 -0.455593 2.36709 80 65 84 
0.140199 -0.278039 1.89133 97 65 80 
-0.915145 -0.38915 2.70423 106 108 147 
0.329081 -0.225605 1.74422 84 53 69 
-0.625695 -0.273355 2.47472 128 115 132 
0.476307 -0.0361865 1.60666 136 117 136 
0.300335 -0.0354601 1.73892 65 44 53 
-0.623425 -0.0127444 2.44079 104 91 111 
0.31128 0.0364943 1.72155 78 56 77 
-0.591976 0.0568053 2.22792 103 49 63 
0.516306 0.0683356 1.55678 135 112 130 
-0.465094 0.217754 2.21376 69 29 38 
-0.701767 0.264404 2.45719 125 111 124 
0.311565 0.233357 1.69623 79 64 83 
-0.45905 0.294319 2.07211 90 46 61 
-0.182673 0.196714 1.35199 108 74 88 
0.520551 0.244013 1.52912 130 100 108 
-0.535867 0.333953 2.12393 66 36 44 
-0.515385 0.33177 2.10623 67 29 40 
-0.924303 0.480015 2.59876 130 146 179 
0.272936 0.402756 1.69899 87 73 96 
0.400434 0.429747 1.60134 113 109 136 
0.0438396 0.414521 1.66809 115 70 77 
-0.934738 0.541693 2.59511 89 107 143 
0.00994995 0.284532 1.71636 96 46 57 
-0.108622 0.246451 1.50915 95 52 62 
-0.357174 -0.254429 2.08623 55 25 37 
-0.422125 0.0648634 2.20511 77 34 41 
-0.822398 0.0568759 2.57724 111 106 136 
-0.828123 0.0105153 2.58694 108 98 123 
0.273328 -0.0630938 1.76312 87 63 77 
-0.201172 -0.156072 2.00671 69 32 39 
0.375768 0.435929 1.618 66 52 78 
-0.1234 -0.242314 1.91128 79 41 54 
0.376383 -0.227131 1.70482 124 107 125 
-0.648275 -0.419516 2.50834 122 96 107 
-0.0685568 0.305093 1.77375 96 53 70 
0.0760619 0.362283 1.6506 83 40 47 
0.334596 -0.451558 1.7626 87 60 79 
0.139127 -0.481302 1.9167 100 80 105 
-0.234727 0.344498 1.50425 111 60 79 
0.273938 0.417296 1.70099 96 81 100 
0.0755177 0.438115 1.63954 86 40 50 
0.534254 0.138706 1.53409 105 73 86 
-0.504454 0.344205 2.10088 101 58 75 
0.026133 0.398944 1.68112 105 65 73 
-0.108378 0.268694 1.80765 97 59 74 
0.414606 0.883983 5.83245 68 36 47 
-0.721951 -0.000737842 2.49809 124 111 131 
0.0542257 0.106971 1.83685 61 24 32 
0.274737 -0.457132 1.81023 89 74 97 
0.372254 0.416561 1.61993 128 107 122 
-0.119361 0.146394 1.90661 153 99 113 
0.480947 -0.443431 1.65717 105 83 106 
-0.187555 -0.140149 1.99774 113 68 73 
-0.134117 -0.0199445 1.92886 56 24 29 
0.150534 0.401855 2.66912 83 50 61 
0.0184667 -0.00765022 1.87335 70 30 38 
0.101209 0.347437 2.07636 78 39 44 
-0.502964 0.304046 2.10583 59 33 44 
-0.174308 0.157438 1.9115 40 21 25 
-0.15895 0.139552 1.9431 94 75 77 
0.340794 -0.109559 1.72307 57 49 64 
0.406961 -0.0490294 1.65829 63 47 60 
-0.567153 0.305244 2.16035 58 32 41 
-0.789513 -0.247516 2.5828 78 65 83 
-0.241495 -0.0195979 2.01773 146 127 110 
0.323893 0.432607 1.66135 122 114 135 
-0.119657 0.0421781 1.92302 95 45 54 
-0.1642 0.148157 1.9364 185 173 161 
0.440576 0.44015 1.56647 96 75 94 
0.314495 0.441664 1.6674 59 43 54 
-0.169457 0.192611 1.3378 82 41 57 
0.136196 -0.588738 1.93185 80 59 90 
0.318363 -0.510605 1.78635 75 64 81 
-0.909366 -0.630628 2.72817 93 98 140 
-0.850763 -0.57924 2.67757 134 122 142 
-1.06305 -0.384759 2.76728 50 82 131 
-1.03091 0.356983 2.6827 71 69 109 
0.676196 -0.566943 1.70229 119 125 151 
0.360068 -0.560882 1.7606 76 71 94 
0.505337 -0.516111 1.64485 75 61 86 
0.185432 -0.580755 1.89488 124 106 130 
-0.340032 -0.610073 2.30225 123 102 117 
-0.239963 0.140185 1.92964 127 126 131 
-1.03417 0.395196 2.67604 34 50 86 
0.225502 -0.5487 1.86104 126 104 125 
0.0356334 -0.587094 2.01097 93 68 89 
0.322402 -0.44735 1.76879 97 66 82 
0.481112 -0.340753 1.6335 92 63 83 
0.248683 0.0366254 1.77137 56 44 58 
-0.199161 0.0544161 1.99295 165 149 124 
-0.249513 0.125502 1.93923 203 194 185 
-0.424136 0.244941 1.77176 87 43 56 
-1.03065 0.552707 2.65429 31 30 61 
1.07222 -0.553679 2.00903 36 41 71 
-0.28013 0.161528 1.16721 73 35 50 
-0.638057 -0.26904 2.48742 51 37 54 
-0.290004 0.00851669 2.05399 65 25 34 
0.230327 -0.0919418 1.80357 123 112 129 
-0.24444 0.388334 1.49862 104 55 74 
-0.219972 0.0536007 1.21073 125 74 81 
0.0514577 0.352455 2.12232 93 47 60 
-1.04336 0.240954 2.70573 44 50 76 
0.48627 -0.0500091 1.59457 35 28 36 
0.111953 0.237754 1.64624 69 37 52 
-0.238876 0.114059 1.95598 99 90 83 
-1.03 -0.580077 2.80088 32 35 88 
0.153803 -0.543277 1.91765 131 118 144 
-0.388462 -0.333393 2.17134 105 83 96 
-0.305051 -0.176649 2.05787 59 24 28 
-0.168414 -0.254663 1.93595 101 68 77 
-0.0437366 0.326992 2.17685 134 83 100 
0.314557 0.2493 1.6739 127 124 145 
-0.112706 -0.0218287 1.91325 73 37 41 
-0.266307 -0.193229 2.05986 61 29 34 
-0.134798 0.158196 1.93733 122 71 78 
0.455808 0.183773 1.59105 81 57 70 
0.0164345 -0.605279 2.02675 82 67 90 
0.0593672 -0.582616 1.99388 99 76 105 
-0.435506 -0.621653 2.37008 73 57 84 
-0.467366 -0.57977 2.39247 72 64 87 
-0.466683 -0.23349 2.16613 76 22 38 
0.434109 -0.16126 1.64687 73 46 65 
-0.19058 0.00689072 2.02619 201 187 158 
-0.260505 0.11771 1.96427 154 138 125 
-0.898001 0.523119 2.57672 55 46 63 
-1.05596 0.615263 2.57408 89 93 102 
0.0615086 -0.573145 1.99039 91 67 91 
-0.378279 -0.636926 2.32989 138 125 145 
-0.311374 -0.621142 2.27824 58 45 71 
0.356549 -0.4648 1.7498 85 71 97 
-0.0970984 -0.479559 1.93664 148 94 107 
0.699369 -0.425444 1.67432 39 47 84 
-0.690022 -0.585544 2.56243 75 57 71 
0.172772 -0.414521 1.88212 83 66 85 
-0.787344 -0.554184 2.63597 93 71 94 
-0.494999 -0.485826 2.40156 101 85 96 
-0.45252 -0.375762 2.35849 97 66 82 
-0.368664 -0.258082 2.09127 91 39 52 
-0.214658 -0.0197075 1.99079 182 165 147 
-0.247417 0.137849 1.91373 81 78 85 
0.360844 0.204819 1.64757 77 120 215 
-0.15219 0.267274 1.84287 73 39 53 
-1.03366 0.377818 2.69622 69 69 105 
0.123987 0.268891 1.62772 82 42 53 
-0.545457 0.33439 2.13101 91 50 64 
0.218774 0.437212 2.60882 90 43 59 
-0.91698 0.599004 2.32991 108 118 117 
0.133851 -0.54328 1.92564 99 66 87 
0.462159 -0.443619 1.66673 38 30 45 
-0.432442 -0.601583 2.3668 74 62 84 
0.119281 -0.469534 1.91423 86 72 97 
0.124491 -0.444117 1.92577 87 65 86 
0.145662 -0.437772 1.90709 99 68 86 
-0.276116 -0.41966 2.03953 93 45 61 
-0.478933 -0.487828 2.38457 50 34 47 
-0.457449 -0.472858 2.37198 75 60 83 
-0.612298 -0.394523 2.46874 74 55 75 
0.132623 -0.245713 1.89288 112 74 89 
-0.653181 -0.267803 2.49133 67 52 71 
-0.547365 -0.20001 2.39595 61 40 59 
-0.242436 0.0350004 1.97904 185 172 153 
-0.712393 0.0538997 2.48918 56 48 71 
0.541492 0.0680628 1.53716 130 113 132 
0.414105 0.108498 1.62813 115 91 107 
-0.313721 0.206724 2.04802 129 77 89 
-0.760801 0.332803 2.47806 101 91 143 
-0.394616 0.281658 2.02249 100 53 69 
-0.217744 0.278457 1.88488 101 59 79 
-0.119957 0.210686 1.31617 91 47 62 
0.0643831 0.362282 1.65491 70 32 43 
0.360351 0.434891 1.62399 104 78 103 
-0.938284 0.61606 2.53333 117 129 143 
-0.944717 0.61657 2.5569 33 36 53 
-0.922642 0.599576 2.54528 122 108 123 
-1.04073 0.566758 2.65123 23 24 44 
0.705545 0.353876 1.56345 83 105 152 
-0.931154 0.486252 2.60771 89 107 143 
-1.03891 0.375251 2.68267 44 70 105 
-0.00122398 0.0258949 1.879 62 30 41 
-0.00261772 -0.0936209 1.89507 64 33 41 
0.16875 -0.124503 1.84563 145 127 141 
-0.440819 0.143252 2.20156 64 24 33 
0.0640481 0.442273 1.64794 71 45 54 
-0.181053 -0.208675 1.99369 66 29 37 
0.134057 -0.201112 1.89605 85 66 86 
0.134847 -0.201922 1.88406 120 99 114 
-0.755862 -0.298269 2.56665 133 107 120 
-0.503852 0.406746 1.6302 85 42 61 
0.0659214 0.168627 1.81971 80 37 46 
-0.646254 -0.333354 2.49599 79 58 77 
-0.632588 -0.337159 2.49077 69 50 70 
-0.0975867 -0.259765 1.91922 106 66 74 
0.193001 -0.32247 1.85655 119 96 112 
0.193927 -0.483767 1.8792 79 64 83 
0.0690669 -0.499468 1.97297 91 64 83 
0.722851 -0.486923 1.67432 154 176 217 
-0.196602 -0.539121 2.01183 149 95 111 
-0.0032641 0.47274 1.67175 147 108 127 
-0.180132 -0.490231 2.01179 99 45 61 
-0.923331 0.544105 2.57041 129 152 186 
-0.201697 -0.426456 1.97819 64 33 41 
-0.786497 -0.566065 2.63391 73 62 78 
-0.457202 -0.487896 2.36493 75 58 74 
0.439825 0.345073 1.57878 73 55 77 
-0.180711 -0.53803 2.01853 141 88 104 
0.650953 0.430645 1.54745 75 81 97 
-0.34301 0.161356 1.03469 94 51 68 
0.443631 -0.236927 1.65945 132 117 138 
-0.689845 -0.607922 2.55622 71 62 89 
0.139533 0.060668 1.71384 59 29 37 
-0.0205846 0.396903 1.68148 78 35 45 
-0.0329962 0.114148 1.89379 65 33 44 
0.276294 -0.040506 1.75321 106 82 95 
-0.456438 0.430959 2.94471 90 51 69 
-0.120604 0.0374193 1.91208 147 95 107 
-0.928233 0.570058 2.57137 150 164 199 
0.216859 0.434952 2.59465 83 41 53 
-0.547956 0.305011 2.12432 66 43 51 
0.130879 0.239883 1.62156 72 37 43 
-0.762458 0.3049 2.50097 35 31 68 
-0.25492 0.105653 1.95889 103 70 77 
-0.218363 0.0480966 2.0015 117 109 107 
-0.328401 -0.00237255 2.08388 61 26 33 
0.0177893 0.277446 1.70695 104 57 65 
-0.157757 0.0636997 0.766309 67 24 33 
-0.925797 0.602489 2.55981 121 108 126 
-0.619383 0.303248 2.19704 71 42 47 
0.314822 0.204695 1.71267 74 52 73 
-0.248937 0.170078 1.96851 86 63 47 
0.293655 0.30902 1.69735 85 61 77 
0.30188 0.438479 1.68253 48 34 49 
-0.399855 -0.00527827 2.19282 81 36 43 
0.29961 -0.393266 1.78687 127 115 137 
0.0412379 0.0224877 1.85556 66 33 42 
-0.316933 0.454092 1.46034 141 93 109 
0.379654 -0.300483 1.70185 118 100 114 
0.0065193 0.471364 1.66943 139 106 125 
-0.971868 0.625317 2.56752 145 168 209 
0.434968 0.306704 1.59326 104 103 121 
-0.756806 0.313398 2.49863 162 180 246 
-1.05899 -0.379436 2.75754 42 77 119 
-0.186555 0.150529 1.90727 105 81 77 
-0.152588 0.144199 1.94987 56 29 38 
-1.0284 0.182999 2.68795 33 52 94 
0.0694989 0.130725 1.80811 76 31 36 
-0.261669 0.115231 1.95425 122 88 86 
0.189882 -0.196388 1.83699 92 75 94 
0.733914 -0.0261417 1.63978 111 108 161 
-0.220974 -0.0412999 2.00665 69 40 36 
-0.700894 -0.118376 2.51462 116 104 126 
0.315786 -0.239617 1.76267 59 41 55 
0.406929 -0.29752 1.68381 50 38 52 
-0.0102637 0.467906 1.68423 148 103 126 
-0.107977 0.254313 1.79533 84 47 64 
-0.0895303 0.187659 1.29336 103 55 67 
-0.400968 -0.555458 2.3375 63 49 64 
-0.312957 -0.2446 2.04934 119 73 84 
-0.168708 0.373378 1.50733 123 67 80 
-0.185482 -0.150542 1.99571 66 33 40 
-0.745092 0.308303 2.47726 13 31 81 
-0.238063 0.143663 1.91324 149 141 130 
0.00136745 0.471974 1.69057 68 46 58 
0.275764 -0.296649 1.78902 77 54 64 
0.703675 -0.268695 1.66301 53 56 75 
-0.973596 0.628439 2.57879 159 182 223 
0.0389168 0.406031 1.67387 117 77 88 
0.69478 0.377519 1.56415 28 45 75 
-0.127806 -0.216767 1.89687 150 96 112 
0.704312 0.352324 1.57887 98 116 152 
-0.226554 -0.0711174 2.01606 33 18 23 
0.767471 0.826413 5.43647 69 38 43 
0.307364 0.02339 1.71824 139 120 140 
-0.142491 0.0484243 1.92516 93 52 58 
-0.321847 0.205896 2.06388 66 26 34 
-0.36756 -0.506915 2.30522 124 109 132 
-0.219924 -0.423081 1.9977 82 35 51 
-0.541424 -0.317742 2.41513 95 72 92 
0.382881 -0.292568 1.71068 68 50 74 
-0.343166 -0.24807 2.07416 118 78 89 
-0.77415 -0.193413 2.57115 138 126 140 
-0.610875 -0.130908 2.4504 126 113 131 
-0.504397 -0.131601 2.36508 78 60 76 
-0.260694 0.0223947 2.02548 157 135 121 
-0.257668 0.0336467 2.02499 146 125 108 
-0.216812 0.305263 1.88662 96 49 65 
0.128415 -0.475623 1.93402 80 65 86 
0.0197052 -0.47174 2.00719 93 61 85 
-0.533736 -0.422749 2.43662 87 65 88 
0.335868 -0.353084 1.75007 124 107 123 
-0.776974 -0.251865 2.57796 65 42 60 
-0.8652 -0.175576 2.6405 99 75 99 
-0.713108 -0.00222686 2.50565 117 95 116 
-0.617294 -0.000454125 2.4337 78 60 82 
-0.0461961 -0.00246756 1.92113 75 32 41 
-0.109641 0.0445613 1.90942 61 26 32 
-0.0089085 0.0934188 1.84898 143 93 102 
-0.228404 0.115324 1.93035 200 192 173 
0.406417 0.122889 1.63274 140 119 136 
-0.50296 0.293328 2.1143 86 43 60 
-0.924399 0.434178 2.60112 113 135 176 
-0.847033 0.457151 2.53992 120 107 135 
-0.71041 0.458032 2.4449 45 36 55 
0.490079 0.344068 1.5479 80 62 74 
-0.236921 0.397263 1.49697 108 55 73 
0.61438 0.518655 1.43649 66 72 86 
0.353376 -0.475447 1.75415 80 68 92 
-0.266549 -0.41833 2.02843 98 43 62 
0.137557 -0.417967 1.90787 95 69 82 
-0.00267238 -0.276235 1.82437 109 49 61 
-0.45498 -0.293329 2.34699 99 68 86 
-0.252329 -0.204621 2.0553 78 38 47 
-0.519389 -0.209375 2.37971 67 58 79 
-0.429128 -0.175679 2.185 53 28 34 
0.28399 -0.178173 1.76709 93 71 92 
0.193616 -0.152774 1.83792 77 63 80 
-0.252088 0.140029 1.95809 56 52 66 
-0.372916 0.28579 2.0004 75 34 50 
-0.214861 0.211486 1.3426 111 61 73 
-0.5531 0.395227 1.66489 69 38 53 
-0.330959 0.398098 1.5012 105 53 66 
-0.614544 0.443123 1.70869 73 39 56 
-0.263581 0.39375 1.48999 134 87 103 
-0.222808 0.21736 1.35271 80 39 47 
-0.257415 0.0030274 2.03197 145 126 112 
0.048298 0.0288949 1.84342 65 30 37 
-0.6001 0.187285 2.4042 117 86 94 
-0.331717 0.419347 1.4936 81 48 65 
-0.371306 0.143498 2.15177 58 23 27 
-0.444428 0.399848 1.58379 104 57 75 
0.354134 0.427027 1.63924 117 114 133 
-0.784374 -0.181171 2.59465 48 36 58 
-0.81305 0.464452 2.51561 110 103 121 
0.159452 -0.201053 1.87016 98 69 87 
0.186279 -0.200922 1.84865 129 111 127 
-0.832012 -0.307641 2.62552 127 103 117 
-0.326467 0.315072 1.97057 87 44 63 
-0.480986 0.410116 1.60753 104 56 78 
0.440706 0.309637 1.58363 133 115 127 
0.224156 -0.214984 1.82215 131 116 139 
-0.57008 -0.19916 2.41421 67 53 68 
-0.743318 0.276547 2.50759 86 120 184 
0.048068 0.106678 1.82774 73 31 33 
-0.390644 0.2727 2.05054 89 57 72 
-0.159134 -0.115275 1.96551 64 29 36 
-0.601208 0.184915 2.38638 105 73 84 
-0.148333 -0.259369 1.9233 70 34 44 
0.1162 0.418574 1.61354 119 73 84 
0.166233 -0.485705 1.90695 74 55 75 
0.556631 0.501137 1.4316 27 31 42 
-0.92556 0.548257 2.58721 119 143 179 
-0.768575 0.282863 2.49665 152 154 213 
-0.139547 -0.25925 1.92903 114 70 85 
-0.784334 -0.22984 2.59886 61 52 69 
0.432116 0.438702 2.58248 84 38 48 
-0.232004 -0.0222775 2.03758 127 102 97 
0.340909 0.321477 1.66629 136 127 156 
-0.290643 0.173633 2.02843 67 37 47 
-0.329018 0.177027 2.05965 124 71 79 
0.364032 0.437379 2.58156 87 40 50 
-0.581365 0.311256 2.14383 101 67 68 
0.134026 0.236539 1.64407 88 46 58 
-0.168961 -0.260071 1.91812 133 79 93 
-0.276506 0.176601 2.032 58 31 40 
-0.454766 -0.232159 2.2233 70 30 30 
-0.158846 0.142792 1.92593 133 115 115 
0.478156 0.00397156 1.60099 89 66 84 
-0.185917 0.0132907 1.99968 197 186 158 
-0.125751 -0.0149888 1.92406 119 77 91 
-0.624223 -0.0105862 2.41917 121 99 120 
-0.613107 0.310846 2.1736 45 32 39 
0.381674 -0.103935 1.69675 70 54 64 
0.274836 0.393554 2.65087 74 37 45 
0.0350645 0.387365 1.68508 108 63 70 
-0.401746 -0.00404689 2.17452 71 30 34 
0.335009 0.319605 1.65776 133 127 155 
-0.924922 0.57657 2.59238 64 70 94 
-0.616341 -0.0124424 2.39516 49 38 54 
-0.35329 -0.210545 2.0818 121 74 84 
-0.114315 0.183196 1.88722 87 41 44 
0.382974 -0.343461 1.72731 57 43 56 
1.86828 0.918555 5.85675 62 42 44 
-0.311474 -0.245111 2.06302 99 57 69 
-0.496865 -0.278573 2.37023 70 51 55 
0.00798646 0.0215836 1.87789 78 35 42 
-0.279651 0.348653 1.4942 86 53 74 
-0.0604866 0.261523 1.60549 121 76 83 
0.281749 0.226676 1.72055 70 62 86 
-0.351284 0.225033 1.58536 87 44 63 
-0.0710473 0.264883 1.61347 85 42 52 
-0.0889359 0.267444 1.62978 74 38 50 
-0.195871 0.210429 1.49771 91 48 67 
0.164734 -0.462347 1.89441 95 72 92 
-0.681083 0.296364 2.44057 67 52 73 
-0.0898343 0.256793 1.57987 121 75 85 
0.0874906 -0.42743 1.94696 112 74 97 
-0.564333 0.223577 2.23947 69 37 50 
-0.223168 0.248513 1.68579 101 59 79 
-0.306445 0.209918 1.32594 95 52 72 
-0.0996537 0.259865 1.58906 95 52 62 
-0.469657 0.225242 1.5752 77 46 54 
0.166922 0.31587 1.87537 97 49 61 
-0.422613 0.191938 1.23834 84 46 59 
-0.283585 0.243168 1.73822 93 48 68 
0.0754646 0.323272 1.93639 78 39 44 
-0.38175 0.236829 1.50399 94 51 68 
-0.15643 0.2438 1.63667 138 91 111 
-0.389923 0.187065 1.29802 132 83 102 
-0.654772 -0.127489 2.47407 120 111 140 
-0.509896 -0.121399 2.36622 114 97 116 
0.194173 0.335931 2.02776 69 31 42 
0.100555 -0.496611 1.94669 102 70 83 
-0.404774 0.0122707 1.62498 64 27 35 
-0.369363 0.0899948 1.58732 65 24 32 
-0.242678 0.139962 1.96245 84 84 92 
-0.292995 0.205792 1.41409 84 53 69 
-0.152248 0.246206 1.52758 129 82 90 
-0.268766 0.135902 1.90328 87 75 85 
0.35538 0.206415 1.65938 56 96 194 
5.00348 2.78437 16.3022 64 32 45 
-0.129709 0.369094 2.26151 87 43 58 
0.415875 0.433163 2.549 105 53 65 
0.124598 -0.422307 1.92049 81 60 75 
-0.160593 0.249489 1.53704 80 39 47 
-0.261944 0.138394 1.93631 107 100 107 
-0.536389 0.436959 1.65185 80 39 55 
-0.133012 -0.241696 1.92044 75 37 48 
0.491372 0.130838 1.56974 66 44 65 
-0.446931 0.188289 1.21984 87 44 63 
-0.228211 -0.0606143 2.01405 155 142 125 
0.17825 0.342818 2.03897 89 50 55 
-0.53708 0.165787 1.18006 133 82 99 
-0.21463 0.233905 1.5818 134 89 110 
0.238591 -0.513531 1.84643 100 74 99 
-0.37337 -0.344489 2.28681 97 86 102 
-0.523999 -0.22371 2.38765 84 62 83 
-0.793738 -0.193116 2.5866 117 114 133 
-0.670775 -0.128228 2.48371 126 102 126 
-0.243543 0.00555199 1.99182 169 152 136 
-0.799523 0.2144 2.53875 53 44 65 
0.412066 0.309031 1.61251 67 55 79 
0.305924 0.366933 1.69143 126 117 138 
0.509793 0.417372 1.51889 116 118 143 
0.356844 -0.496586 1.75356 127 119 143 
-0.588249 -0.245668 2.44323 55 42 59 
-0.432088 -0.0890718 2.1782 67 35 46 
-0.494715 -0.0239277 2.33257 80 67 87 
1.28236 -0.1257 4.67355 65 25 34 
-0.835397 0.0494814 2.58738 76 54 75 
1.37188 0.356961 4.56093 74 27 37 
-0.773629 0.12922 1.00984 70 32 45 
0.507369 0.307305 1.53756 85 64 81 
0.345458 0.335708 1.65118 93 69 82 
0.0675973 0.418217 1.65477 95 49 62 
0.480446 -0.302162 1.62511 66 52 75 
-0.503906 -0.251667 2.37149 72 52 63 
-0.518825 -0.179133 2.37669 97 69 83 
-0.150475 -0.155047 1.96482 54 24 26 
-0.54184 -0.14265 2.39349 61 48 68 
-0.825678 -0.0521973 2.59504 63 50 76 
-0.377048 -0.0498091 2.18084 71 35 45 
1.27688 -0.125701 4.66477 75 33 43 
-0.188578 0.04061 1.98295 168 161 143 
-0.30223 0.119639 2.05212 75 32 42 
-0.346943 0.136592 2.13527 61 25 35 
0.290712 0.224043 1.71496 92 67 88 
0.0682145 0.230805 1.71034 69 39 49 
-0.590308 0.30577 2.16565 58 29 31 
-0.348484 0.285647 1.99308 75 43 58 
-0.292149 0.222583 1.41117 136 86 97 
-0.0436954 0.295677 1.75747 102 63 81 
0.0665905 0.286478 1.67414 93 61 74 
-0.574918 0.366493 1.68991 68 34 48 
-0.403378 0.384578 1.55719 77 43 60 
-0.464611 0.5059 1.51768 50 60 111 
0.380128 -0.0444671 1.67631 113 102 116 
-0.498115 -0.0261063 2.34771 66 51 70 
-0.104122 0.103303 1.90734 87 41 52 
-0.32458 0.121473 2.0698 77 35 47 
-0.591439 0.4148 1.69846 79 41 56 
0.332016 0.323927 1.67302 118 112 138 
-0.327971 0.266415 1.998 90 49 67 
-0.0742628 0.246775 1.83607 103 70 89 
-0.683615 0.175856 1.19051 94 50 67 
-0.596267 -0.0818353 2.42286 69 51 65 
-0.402066 0.12922 2.16089 81 35 46 
-0.630623 0.335757 2.19213 50 25 28 
-0.213492 0.381069 1.50606 115 64 83 
-0.539601 0.230993 2.22407 87 36 43 
-0.399316 0.0304929 2.18993 64 28 32 
-0.398182 0.504501 1.51764 62 48 63 
0.383347 0.335367 1.62977 151 130 147 
0.0612891 0.395713 1.65853 87 41 51 
-0.174825 0.314431 1.8516 98 56 68 
-0.32364 0.0144138 2.08463 61 30 36 
0.148212 -0.481732 1.91204 94 71 91 
-0.27222 0.166158 2.01581 84 59 62 
-0.318384 0.229178 1.44184 78 41 59 
0.178473 0.455527 2.72354 77 43 60 
-0.0973943 0.286627 1.77879 91 46 53 
0.627798 0.378064 2.38034 140 92 106 
-0.166554 0.408531 1.50793 104 53 68 
-0.17667 0.405547 1.50392 138 90 104 
-0.789035 -0.120067 2.58149 118 106 126 
-0.0665158 0.238085 1.84498 104 54 65 
-0.618859 0.0359781 2.42224 52 41 58 
-0.190036 0.0327835 1.99076 207 195 169 
0.0929076 0.20418 1.72128 135 84 101 
