ply                 
format ascii 1.0    
element vertex 1257
property float x    
property float y    
property float z    
property uchar red  
property uchar green
property uchar blue 
end_header          
-1.03183 -0.79231 2.82284 42 50 99 
-0.136146 -0.536339 1.96142 80 41 59 
-0.196415 -0.546956 2.02459 112 58 72 
-1.34595 -0.76874 2.88766 123 124 180 
-1.35319 -0.763657 2.90306 107 107 161 
-0.366476 -0.603461 2.32386 122 110 134 
0.0937818 -0.505489 1.95853 62 44 66 
-0.184564 -0.521669 2.04092 75 24 33 
-0.326685 -0.517187 2.1108 80 41 60 
-0.119005 -0.47823 1.97212 80 36 51 
-1.3551 -0.690591 2.89561 124 120 179 
0.200458 -0.42374 1.86588 63 46 62 
-0.718894 -0.577204 2.58275 93 76 92 
-1.26983 -0.628944 2.89778 155 157 206 
-0.850167 -0.579093 2.67395 134 122 142 
-1.27626 -0.613991 2.9029 123 124 178 
-0.646538 -0.529881 2.52724 83 56 73 
-0.722161 -0.46451 2.56754 80 59 78 
-0.91526 -0.389436 2.69944 98 109 154 
-1.04194 -0.384009 2.77821 38 42 69 
0.317325 -0.218926 1.75239 72 56 82 
0.290926 -0.212842 1.77394 68 53 72 
0.292961 -0.157216 1.77092 118 117 133 
-0.783519 -0.229541 2.58723 58 47 63 
0.707261 -0.0669287 1.63208 161 186 226 
-0.6167 -0.0791431 2.44792 122 99 115 
-1.03094 -0.0782267 2.73995 126 134 173 
-1.03585 -0.0749562 2.75881 89 88 132 
0.747814 -0.0232305 1.63792 103 113 162 
-0.234455 -0.0225115 2.02636 120 100 93 
-0.228977 -0.00825768 2.0042 189 176 159 
-0.239041 0.0191408 1.99084 190 183 164 
-0.195381 0.0332599 1.98051 177 161 136 
-0.823686 0.0527947 2.5719 76 70 96 
-0.097867 0.0433286 1.90271 72 29 39 
-0.230233 0.0461346 1.971 207 191 165 
-0.201908 0.0950716 1.98777 193 182 152 
-0.0941735 0.0978379 1.8969 69 21 33 
-0.141783 0.101931 1.93379 78 28 40 
-0.290031 0.115228 2.04391 71 28 38 
-0.238136 0.109583 1.94173 175 165 155 
-0.337791 0.118676 2.07739 80 33 43 
0.707561 0.0957273 1.6128 106 125 168 
-0.251399 0.116779 1.94608 184 179 173 
-0.21947 0.121797 1.93366 135 119 119 
-0.248389 0.126287 1.92819 190 180 171 
-1.03434 0.183764 2.70736 34 41 83 
-0.196618 0.136561 1.94239 102 83 85 
-0.26493 0.142815 1.95193 137 126 120 
-0.174467 0.143798 1.91601 130 113 106 
-0.212013 0.145681 1.92396 48 38 47 
0.334844 0.129139 1.69432 63 46 62 
-0.167545 0.15126 1.91633 177 168 163 
-0.293135 0.170399 2.03942 74 28 38 
-0.334144 0.174873 2.07325 71 24 32 
-0.546188 0.212764 2.22526 102 57 77 
-0.546226 0.222344 2.21882 71 37 51 
-1.04484 0.300484 2.69619 89 90 120 
0.69376 0.175055 1.56469 83 90 134 
-1.0337 0.303939 2.69016 43 39 74 
-0.767916 0.294106 2.50239 60 62 113 
-0.76842 0.318049 2.49808 38 40 97 
0.363025 0.214903 1.64939 71 114 209 
-0.736521 0.325528 2.47633 23 34 80 
-1.04728 0.360277 2.69989 27 36 65 
-0.633844 0.304494 2.20391 50 28 40 
-1.03127 0.375869 2.67359 28 32 67 
-1.03585 0.385603 2.67792 38 53 92 
-1.03741 0.558255 2.67411 46 43 74 
-1.04312 0.569788 2.65891 32 33 53 
-1.0724 0.566771 2.64066 66 89 123 
-0.991775 0.610102 2.49805 114 126 138 
-0.968738 0.616235 2.51829 161 161 189 
-0.861056 0.577901 2.14539 100 112 102 
-0.401242 0.418176 1.54984 93 46 62 
0.671043 0.43469 1.5379 30 27 54 
-0.499245 0.508633 1.54822 155 189 252 
-0.466477 0.50709 1.52735 152 184 245 
-0.498847 0.507618 1.52297 99 80 172 
0.292039 0.507637 1.4631 109 116 134 
0.187157 -0.569894 1.89734 67 49 71 
0.138451 -0.577843 1.93383 88 70 96 
-0.169672 -0.63176 2.14264 109 86 80 
-0.178921 -0.630233 2.15194 80 76 65 
-0.322652 -0.659495 2.29381 121 112 131 
-0.564341 -0.680694 2.49082 81 60 79 
0.0787209 -0.54017 1.97881 78 63 86 
0.0909111 -0.534827 1.96403 78 64 90 
-0.385667 -0.606174 2.34211 88 74 99 
-0.699266 -0.652567 2.57555 80 54 67 
0.693658 -0.420434 1.69472 21 21 45 
-0.784034 -0.642069 2.64968 87 62 84 
-0.0699008 -0.468351 1.93687 140 84 93 
-0.127472 -0.474161 1.9789 94 46 58 
-0.693482 -0.613167 2.57479 83 65 91 
0.0536943 -0.469373 1.98116 84 59 80 
0.16737 -0.446138 1.89016 93 68 90 
-1.34643 -0.68057 2.89513 109 112 163 
-0.695702 -0.574068 2.56645 82 63 82 
0.412536 -0.367536 1.69913 102 93 112 
-0.202086 -0.429859 1.99235 66 26 37 
-0.779764 -0.568572 2.63504 74 53 68 
-0.652341 -0.530784 2.53708 77 56 73 
-0.589081 -0.518934 2.48026 133 119 136 
0.304097 -0.363139 1.77942 117 108 125 
-0.492483 -0.476764 2.39946 90 67 87 
-0.912778 -0.514765 2.71968 83 88 128 
-0.724678 -0.466512 2.57774 80 59 78 
-0.917909 -0.451173 2.72436 71 74 115 
-0.0515377 -0.288438 1.91012 46 20 29 
-0.687271 -0.382276 2.53505 62 49 67 
-0.112461 -0.28353 1.89855 125 87 100 
-0.687147 -0.365287 2.53856 76 61 80 
-0.135373 -0.274781 1.91822 67 25 37 
-1.04609 -0.386171 2.79032 38 42 69 
-0.744711 -0.347603 2.57671 76 53 63 
-0.909992 -0.323961 2.69368 88 76 112 
-0.75574 -0.309543 2.57987 62 45 55 
-1.03189 -0.320664 2.76857 36 40 85 
-0.545928 -0.276442 2.41766 76 57 76 
-0.89542 -0.289576 2.67808 89 71 93 
-0.778957 -0.2547 2.59339 46 29 47 
-0.225518 -0.179183 2.02905 80 40 51 
-0.54973 -0.201875 2.41114 60 38 59 
-0.224873 -0.143271 2.03084 93 59 60 
-0.624935 -0.13084 2.45873 64 41 57 
-0.431436 -0.0886824 2.18943 93 70 80 
-0.826266 -0.0524104 2.59248 79 64 87 
-0.238485 0.0251867 1.98134 211 203 184 
-0.180292 0.0333019 1.98708 171 157 131 
-0.218199 0.0434125 1.97741 163 157 143 
-0.401626 0.0628777 2.18762 77 34 41 
-0.188112 0.0766095 1.98704 110 94 78 
-0.125835 0.0760829 1.92143 73 24 30 
-0.0375521 0.10811 1.90372 68 25 32 
-1.03961 0.185469 2.72161 32 41 82 
-0.494071 0.17282 2.24337 79 30 36 
-0.460868 0.169966 2.20616 93 45 57 
0.331769 0.14504 1.69313 83 70 98 
0.324277 0.146532 1.70417 89 67 88 
0.118648 0.163512 1.72668 70 36 52 
0.13647 0.162418 1.7131 54 27 36 
-1.04156 0.29894 2.68675 89 90 120 
-0.741156 0.290447 2.48551 33 44 100 
-0.739716 0.314991 2.49795 58 48 75 
-0.778549 0.329533 2.51435 48 40 77 
-1.04538 0.355151 2.68747 80 85 114 
-1.04013 0.36496 2.68595 59 82 114 
-0.62724 0.318384 2.19588 85 74 80 
-0.000290083 0.259879 1.72755 88 54 71 
-0.614204 0.340199 2.18012 78 44 60 
-0.502943 0.33178 2.09944 78 44 61 
-0.394768 0.321548 2.02005 96 51 71 
-1.03553 0.612204 2.62943 115 97 113 
-1.20469 0.618438 2.57458 130 142 140 
-0.956683 0.615725 2.52132 167 183 217 
-0.964166 0.613403 2.50647 161 161 189 
0.707076 0.383566 1.55836 121 153 191 
-0.0069397 0.474472 1.65889 80 51 69 
0.523026 0.513015 1.44764 98 106 125 
0.413458 -0.50632 1.70618 45 32 50 
0.177997 -0.549335 1.89866 76 60 73 
0.325787 -0.501358 1.78796 67 50 69 
0.724905 -0.465189 1.6856 70 81 113 
-0.671495 -0.701708 2.55879 92 72 83 
-0.56243 -0.678314 2.47949 82 63 82 
-0.58933 -0.677636 2.49985 78 57 72 
0.244359 -0.49831 1.84427 125 111 134 
0.106287 -0.519958 1.9472 113 86 103 
-0.00814594 -0.537447 2.04045 133 107 120 
-0.741279 -0.658762 2.61114 82 67 88 
-0.171089 -0.500478 2.01126 89 41 57 
0.54986 -0.391454 1.59238 145 118 137 
-0.780819 -0.638082 2.63403 82 61 78 
0.141672 -0.458858 1.91694 99 73 98 
0.405991 -0.394649 1.70204 101 92 113 
0.0549931 -0.423802 1.97314 85 69 96 
0.0612106 -0.407715 1.96994 78 61 80 
-0.589267 -0.472283 2.46639 71 52 74 
-0.839739 -0.502963 2.65443 80 68 90 
0.160483 -0.344763 1.87981 92 69 89 
0.305333 -0.2951 1.76789 69 47 59 
-0.615623 -0.397682 2.48406 78 54 76 
0.00406119 -0.282233 1.83155 105 44 59 
-0.0445037 -0.288994 1.9005 85 39 49 
0.187493 -0.280781 1.85538 99 76 96 
-0.461968 -0.355056 2.35641 129 105 118 
-0.142147 -0.267259 1.91736 55 23 34 
-1.03593 -0.381673 2.75518 35 41 65 
0.220325 -0.253074 1.83012 99 77 98 
-0.631593 -0.336213 2.48026 72 55 74 
0.156674 -0.253634 1.88204 105 76 96 
-0.110715 -0.241299 1.91118 67 29 40 
-0.534809 -0.280356 2.41224 62 51 65 
-0.110842 -0.213848 1.91239 82 35 45 
-0.323013 -0.226119 2.05987 66 34 45 
-0.635536 -0.268541 2.48038 53 36 52 
-0.341599 -0.224333 2.07467 80 42 55 
-0.762155 -0.25354 2.56127 54 36 50 
-0.543394 -0.16091 2.39971 63 49 64 
-0.564094 -0.140823 2.4078 51 42 59 
0.144044 -0.0794242 1.86513 75 52 62 
-1.03267 -0.0734618 2.74561 78 77 119 
-0.201333 -0.00196219 2.0053 141 126 107 
-0.82791 0.010161 2.58197 124 112 134 
0.298288 0.00756944 1.73909 81 60 77 
0.319358 0.0160685 1.72093 73 52 71 
-0.184111 0.0313915 1.9779 111 91 80 
-0.204771 0.0352064 1.99788 46 23 17 
-0.837375 0.0506865 2.58194 68 51 69 
-0.236978 0.0434529 1.9787 185 173 151 
-0.749284 0.0608977 2.52193 63 46 64 
-0.196702 0.0535363 1.96907 165 149 124 
-0.374268 0.0603359 2.1684 71 31 40 
-0.421907 0.0644826 2.19792 77 36 42 
-0.110757 0.0740695 1.90763 81 36 43 
-0.192644 0.0921422 1.99082 181 167 140 
-0.128 0.105052 1.92658 61 24 32 
-0.406981 0.119499 2.15524 86 36 47 
-0.698689 0.161783 2.47792 60 55 77 
-0.308269 0.148252 2.05329 71 31 40 
-0.211103 0.141293 1.92912 151 141 131 
-0.0970275 0.151573 1.89175 85 33 45 
-0.126029 0.154993 1.91143 64 20 33 
0.00188375 0.151649 1.86807 85 42 49 
0.137326 0.151979 1.71742 66 39 48 
0.753773 0.147882 1.60741 159 173 210 
-0.118275 0.189019 1.89893 117 71 81 
-1.03758 0.309253 2.67784 63 69 95 
-0.757499 0.303782 2.48348 32 34 72 
-0.760022 0.335181 2.48744 125 118 169 
-0.285907 0.272958 1.94451 97 53 68 
-0.568066 0.303426 2.15018 78 44 58 
0.0648184 0.247854 1.67858 69 32 39 
-0.527203 0.327906 2.11697 79 44 50 
-0.417315 0.317971 2.03475 83 40 57 
-1.20977 0.443259 2.8198 95 109 156 
-0.285108 0.310381 1.93207 96 52 67 
-0.545734 0.347307 2.12447 74 42 53 
-0.108682 0.295531 1.8045 83 46 63 
-0.0782761 0.292029 1.77842 85 42 52 
-0.309717 0.240773 1.45864 98 53 73 
0.0721387 0.490853 2.95244 93 47 60 
0.109582 0.275686 1.63961 90 46 59 
0.283591 0.313606 1.70671 83 71 91 
-1.03844 0.613936 2.63904 118 101 119 
-0.0367056 0.387622 1.66149 76 39 56 
-0.541946 0.395899 1.66035 68 39 57 
-0.124034 0.36936 1.54806 97 55 79 
-1.19278 0.614683 2.55867 111 137 134 
-0.913911 0.594857 2.31353 81 98 92 
-0.197562 0.394841 1.50394 138 91 107 
-1.01157 0.574071 2.15799 99 115 112 
-0.572114 0.520261 1.63721 113 114 134 
-0.448917 0.507451 1.52147 98 104 126 
-1.0731 0.587404 2.64553 79 81 104 
-1.03498 0.550467 2.66294 74 73 105 
-1.04381 0.54024 2.66421 73 83 108 
0.407341 0.289815 1.61972 61 53 74 
0.409371 0.268163 1.61962 70 56 79 
0.681803 -0.488589 1.69691 114 125 153 
-0.311273 -0.658044 2.28904 46 38 59 
-0.0544953 0.204081 1.23995 85 42 52 
-0.441286 -0.656129 2.354 60 56 83 
-0.437181 -0.655861 2.36375 117 111 139 
-0.142998 0.275287 1.83571 133 87 100 
-0.139521 -0.532644 1.97265 78 34 51 
-0.0442826 0.256924 1.75877 98 55 65 
0.708347 -0.435867 1.68668 58 76 116 
-0.751123 0.335436 2.49244 153 164 218 
-0.0838287 -0.47957 1.94515 105 52 62 
-0.778781 -0.635244 2.62419 74 60 77 
-0.330119 -0.502306 2.10668 74 32 42 
-1.03788 0.309313 2.6756 74 78 105 
-0.740203 0.273482 2.47696 107 135 198 
0.115008 -0.40226 1.92433 63 49 66 
-0.320971 0.202963 2.05326 79 32 42 
-0.28738 -0.421154 2.04688 72 36 50 
-1.04144 0.239438 2.69307 29 34 56 
0.0494887 -0.390659 1.95868 52 31 40 
-0.845925 -0.507509 2.67506 68 56 78 
-0.914192 -0.516622 2.72729 77 73 108 
-0.15894 0.156063 1.93237 156 140 124 
0.706101 -0.278266 1.65683 54 68 105 
-0.256014 0.152735 1.93293 119 107 85 
-0.174102 0.145994 1.92582 107 87 89 
0.00025368 -0.269801 1.83914 52 21 29 
-0.252073 0.126273 1.95894 212 207 201 
-0.395189 -0.279973 2.17233 65 33 48 
-0.752509 -0.307628 2.56244 63 50 60 
-0.192175 0.0866989 2.00113 147 137 112 
-0.127302 0.047234 1.93191 59 23 27 
-0.173576 -0.126262 1.99119 102 63 68 
8.75386e-06 0.0260994 1.88816 75 35 46 
-0.185218 0.0188513 1.98108 191 180 152 
-0.259487 0.0114973 2.02706 147 125 112 
-0.232708 0.00361167 1.99221 126 114 100 
-0.616759 -0.0135117 2.43247 55 42 59 
0.55532 0.509028 1.43058 75 76 81 
-0.142611 -0.00514178 1.94265 75 33 45 
-0.242799 -0.0490805 2.04744 82 61 44 
0.0035998 -0.0558004 1.88349 87 40 50 
-0.842387 -0.114078 2.62145 115 102 119 
0.254316 0.490049 1.66992 61 58 75 
0.289364 -0.167978 1.76579 65 54 71 
-0.767178 -0.255249 2.57897 56 33 49 
-0.10432 -0.191189 1.9135 56 23 32 
-0.294798 0.0608206 2.06018 67 27 35 
-0.43226 0.0724327 2.21449 93 46 54 
-0.330781 -0.224423 2.07614 66 28 41 
-0.322529 0.093106 2.07197 73 28 33 
-0.542705 0.411279 1.65939 80 45 67 
-0.0431919 0.116228 1.90937 66 24 36 
0.44097 -0.230759 1.65276 71 57 74 
-0.272155 -0.662726 2.25047 122 103 122 
-0.511414 -0.352138 2.39781 78 58 70 
-0.0821938 -0.285667 1.93315 58 29 34 
0.162395 -0.552179 1.91234 119 101 115 
-0.4278 0.325308 2.05234 85 44 62 
-0.644552 -0.469893 2.51219 75 55 66 
-0.376078 -0.402632 2.07522 86 44 54 
0.147404 -0.385282 1.90613 77 51 60 
0.0858199 0.166175 1.80141 84 35 39 
-0.832061 0.373747 2.53882 128 119 146 
-0.438887 -0.636437 2.38126 74 59 80 
-0.396025 0.295324 2.02818 94 56 71 
-0.700007 -0.576649 2.57678 77 60 78 
0.0541507 -0.472505 1.99271 82 57 78 
-0.105464 0.256206 1.80467 86 48 59 
-0.547981 0.297831 2.14991 83 50 61 
0.0711341 0.222609 1.72059 106 53 69 
0.405454 -0.417516 1.70787 85 61 77 
-0.106187 -0.238259 1.92634 60 24 28 
-0.549822 0.222941 2.2286 67 35 50 
0.123348 0.146612 1.74057 94 62 77 
0.482321 0.13081 1.57872 76 60 87 
0.142939 0.0609942 1.72572 65 30 36 
-0.404378 0.397131 1.55225 98 55 72 
0.517026 0.485253 1.44772 155 173 239 
-1.02905 -0.579114 2.79274 34 46 96 
0.664985 0.461578 1.50888 137 135 149 
0.0726949 0.494093 2.97249 93 47 60 
0.323034 -0.497826 1.77314 71 56 75 
0.0412771 0.255765 1.69685 67 37 45 
0.382395 -0.436616 1.72767 46 38 53 
0.475198 0.187535 1.5639 129 115 130 
-0.0917942 -0.487805 1.9628 119 69 81 
-1.33904 -0.681851 2.88048 177 196 238 
-0.109301 0.184375 1.8997 72 27 34 
0.408879 -0.392681 1.70017 58 49 66 
-0.174366 0.159189 1.92329 44 30 43 
-0.257325 0.162223 1.95944 29 25 26 
-1.26317 -0.632492 2.86072 52 39 57 
-1.26908 -0.633187 2.90314 110 112 163 
-0.910918 -0.514756 2.71836 77 73 108 
-0.907482 -0.447097 2.69396 71 74 115 
-0.19326 0.102905 1.98371 196 184 160 
-0.231063 0.092639 1.98771 99 86 93 
-0.235324 0.0928309 1.97343 109 84 88 
0.0246317 0.0656844 1.85322 90 42 54 
-0.0104211 0.0271737 1.88801 74 34 42 
-0.311957 -0.262469 2.03859 59 28 43 
-0.459257 -0.240856 2.17618 86 38 50 
-0.223603 -0.143958 2.01653 110 68 72 
0.520222 0.407647 1.50727 65 48 66 
0.445752 0.348346 1.58943 60 46 71 
-1.05165 0.533276 2.66152 23 28 47 
-0.697387 -0.119047 2.49362 115 100 119 
0.133478 -0.0797224 1.87108 79 48 64 
0.126404 -0.423999 1.93117 82 59 75 
0.168965 -0.391907 1.88611 89 62 69 
0.336276 0.100796 1.68765 74 57 75 
0.278328 -0.295987 1.79578 71 50 59 
-0.151934 -0.274243 1.91838 88 42 55 
0.477794 -0.11862 1.61563 79 55 69 
-0.471296 0.303224 2.07603 130 84 94 
-1.3395 -0.671769 2.88126 176 188 226 
0.00381268 -0.0420481 1.87019 58 26 29 
-0.202471 0.117009 1.94308 166 152 143 
-0.142346 0.101602 1.92178 92 42 54 
0.00802465 0.0114207 1.87722 134 86 102 
-0.261512 -0.473021 1.99475 75 44 52 
0.384286 -0.302642 1.71334 119 98 113 
-0.767056 0.306191 2.50938 26 32 68 
0.706005 -0.425265 1.68356 36 43 69 
-0.759724 0.275197 2.50026 134 140 198 
-1.07269 -0.38703 2.79894 31 54 88 
0.699432 0.427471 1.57458 87 94 123 
0.700295 0.380588 1.58282 35 40 70 
-1.02982 0.607487 2.6176 112 97 116 
-1.07042 0.573571 2.62437 126 129 160 
-1.08108 0.571538 2.66238 64 90 125 
0.0753364 0.256239 1.67214 134 88 101 
-1.03788 0.363742 2.66912 88 95 124 
-1.03649 0.346795 2.66555 84 87 118 
0.359731 0.19481 1.66715 60 47 64 
-0.185123 0.142944 1.92986 167 160 142 
-0.201367 0.14148 1.93513 99 81 77 
-0.21913 0.137367 1.92229 120 109 117 
-0.476049 -0.361593 2.38355 64 47 55 
-0.189588 0.0758626 1.99224 98 80 66 
-0.139475 0.0480902 1.95101 71 26 31 
0.118025 -0.00111475 1.69811 75 32 41 
-0.238868 -0.0216144 2.06377 117 100 92 
-0.213396 -0.151138 2.01763 56 24 27 
0.273066 -0.0932193 1.76895 65 42 48 
-0.179818 -0.13839 1.98887 50 20 20 
-0.776385 -0.397804 2.60292 50 37 55 
-0.0600775 -0.591325 2.08361 81 62 81 
-0.168252 -0.123464 1.97953 58 23 27 
-0.693593 0.15953 2.45837 60 52 75 
-0.372974 0.132906 2.15907 40 15 21 
-0.200263 0.401395 1.5154 77 39 54 
0.450163 0.349808 1.57783 75 53 66 
-0.128276 -0.00173241 1.94191 56 26 36 
-0.383461 0.0608726 2.17451 74 37 45 
-0.246998 -0.441501 2.01074 124 80 103 
-0.238705 0.273084 1.89761 94 54 65 
-0.225444 -0.155833 2.02741 66 31 37 
-0.999089 0.612528 2.51062 113 125 137 
-1.0831 0.58128 2.66011 123 137 166 
-0.762272 0.334705 2.4981 149 162 217 
-1.04455 0.348363 2.68868 91 97 131 
-0.755723 0.273115 2.48563 134 140 198 
-0.21659 0.149866 1.93363 153 144 135 
-0.221291 -0.0417357 1.99621 49 23 22 
-0.0538508 -0.285026 1.89955 40 21 25 
0.686276 -0.418003 1.6836 38 34 57 
-1.25978 -0.633252 2.88099 114 116 165 
-0.198393 0.0893639 2.02653 161 147 120 
-1.02819 -0.318424 2.75409 36 49 94 
0.661377 -0.315388 1.66252 84 84 96 
0.650698 -0.263443 1.64941 34 22 34 
0.279691 -0.28463 1.79308 51 38 47 
-0.210477 0.0854203 1.99524 85 64 45 
-0.151048 -0.2433 1.93082 128 82 93 
0.73053 -0.199871 1.66019 150 174 212 
0.574229 0.452311 1.42953 135 126 143 
0.0193845 0.0252326 1.86942 61 30 38 
-0.107267 -0.194885 1.90552 49 20 25 
-0.501082 0.303165 2.09706 53 31 44 
-0.322225 -0.00130555 2.07416 104 72 87 
-0.233061 -0.143894 2.02345 52 21 26 
-0.242708 -0.13876 2.04944 105 60 67 
0.361486 0.195915 1.67809 58 44 59 
-0.252737 -0.132303 2.0589 54 23 29 
0.31629 -0.026824 1.72845 133 110 130 
-0.27315 -0.0993613 2.06089 59 27 32 
0.476423 0.189762 1.58251 65 57 72 
-0.223048 -0.433361 1.99528 53 27 40 
0.19222 -0.0834576 1.83129 137 115 136 
0.23225 -0.0294785 1.78834 75 46 66 
-0.437655 -0.662517 2.37262 125 112 132 
-0.31859 -0.173773 2.06592 61 29 32 
-0.102946 -0.18307 1.93 40 17 23 
-0.308244 0.0952127 2.07048 55 22 29 
0.159404 0.437502 2.96225 68 33 39 
-0.0379036 0.169504 1.90963 82 31 36 
-0.094468 -0.25195 1.92886 52 23 25 
0.422046 0.0918421 1.63747 54 38 49 
0.547491 0.506704 1.51131 151 174 242 
-0.745606 0.271125 2.46468 127 138 200 
-0.158232 0.156658 1.91751 165 149 133 
-0.0734326 0.256885 1.79461 64 32 43 
0.718838 -0.433859 1.67536 108 117 148 
-0.20402 0.134171 1.94988 167 155 143 
-1.27771 -0.615313 2.89322 101 113 163 
-0.17384 0.27464 1.86982 55 38 46 
-0.212247 0.0922781 1.9795 124 102 78 
-0.567857 0.0465939 2.24476 138 87 102 
0.697454 -0.266483 1.65087 41 36 56 
0.124721 -0.00645928 1.69216 157 106 123 
0.702178 0.387288 1.56678 93 117 143 
-0.273129 -0.0990404 2.05081 65 30 37 
-1.04349 0.618261 2.65914 119 106 124 
-0.461917 -0.228574 2.18655 69 29 30 
-1.04013 0.618936 2.60749 30 29 35 
-0.31905 -0.214306 2.05489 121 72 91 
0.0137423 -0.215119 1.85449 62 26 30 
-0.105474 -0.179964 1.91519 28 14 14 
-0.136279 0.160338 1.96054 122 71 78 
-0.180856 -0.13613 1.97653 53 23 25 
-0.55129 0.307371 2.13469 63 48 53 
0.188301 -0.0825271 1.81653 137 114 134 
-0.156016 -0.422301 1.89564 51 25 34 
-0.50803 0.291412 2.0938 79 44 51 
-0.544161 0.297402 2.13941 67 40 49 
0.154764 0.434465 2.93545 69 32 40 
0.263457 -0.0877552 1.76602 136 114 137 
-0.205847 -0.158418 2.01924 66 31 38 
-0.0481989 -0.0679248 1.92775 32 16 17 
0.29534 0.311605 1.70173 74 57 76 
-0.0977752 -0.271442 1.91287 118 66 78 
0.41216 -0.506267 1.71575 61 42 64 
0.275215 -0.443308 1.81289 80 54 79 
-0.585647 -0.476397 2.47581 113 100 117 
0.158687 -0.242595 1.87251 102 73 95 
-0.773902 -0.309603 2.58546 127 110 120 
-0.807213 -0.305013 2.61395 78 54 70 
-0.229111 -0.00807964 1.99239 194 181 164 
-0.191276 0.00714585 2.00815 201 187 158 
-0.334556 0.0642604 2.08214 65 24 30 
-0.202364 0.0810553 1.98963 129 104 82 
0.361554 0.228293 1.64879 66 108 208 
-0.89316 0.474255 2.57725 47 39 63 
-0.929388 0.574266 2.58639 134 158 192 
-0.887767 0.582083 2.54344 98 83 106 
0.333735 -0.338038 1.75058 85 67 89 
-0.915027 -0.452668 2.7113 123 135 175 
-0.684855 -0.341458 2.52891 84 65 84 
-0.276329 -0.210621 2.06893 74 34 45 
-0.158776 -0.149473 1.97074 59 27 38 
-0.691146 -0.119539 2.49911 61 51 76 
-0.0384712 0.0580631 1.90941 69 27 37 
-0.0449737 0.0655429 1.91566 69 29 38 
-0.00233517 0.0851019 1.84321 109 54 73 
-0.306685 0.0917949 2.05813 76 33 40 
-0.366681 0.126905 2.15055 65 22 29 
-0.175449 0.301326 1.85511 97 54 73 
-0.101129 0.245689 1.50089 82 41 57 
-0.892967 0.590506 2.53618 87 73 96 
0.0832017 -0.500657 1.96035 105 83 106 
0.312401 -0.454469 1.77901 101 78 104 
0.392198 -0.419829 1.71494 98 69 89 
0.252515 -0.417546 1.82188 84 70 95 
-0.458888 -0.456638 2.3686 80 65 84 
0.140713 -0.278522 1.89155 97 65 80 
-0.916833 -0.390159 2.70661 106 108 147 
0.329742 -0.225949 1.74409 84 53 69 
-0.626576 -0.274029 2.47649 128 115 132 
0.476975 -0.0362487 1.60622 136 117 136 
0.300946 -0.0355365 1.73875 65 44 53 
-0.624271 -0.0128319 2.44238 104 91 111 
0.311883 0.036513 1.72134 78 56 77 
-0.592628 0.0568831 2.22865 103 49 63 
0.516933 0.0683887 1.55625 135 112 130 
-0.465537 0.21811 2.21458 69 29 38 
-0.702759 0.264907 2.45872 125 111 124 
0.312134 0.233622 1.69595 79 64 83 
-0.459443 0.294739 2.0723 90 46 61 
-0.182814 0.196855 1.35133 108 74 88 
0.521255 0.244242 1.52869 130 100 108 
-0.536401 0.334227 2.12363 66 36 44 
-0.515858 0.332265 2.10661 67 29 40 
-0.925815 0.481009 2.6006 130 146 179 
0.273452 0.403225 1.69869 87 73 96 
0.400985 0.43019 1.60085 113 109 136 
0.0440269 0.414951 1.66772 115 70 77 
-0.93626 0.542814 2.59691 89 107 143 
0.0101643 0.28492 1.71611 96 46 57 
-0.108673 0.246656 1.50857 95 52 62 
-0.357426 -0.254861 2.08674 55 25 37 
-0.422497 0.0649435 2.20595 77 34 41 
-0.823726 0.0569423 2.57917 111 106 136 
-0.829473 0.0104768 2.58891 108 98 123 
0.273927 -0.0632115 1.76301 87 63 77 
-0.201176 -0.156343 2.00709 69 32 39 
0.376312 0.436389 1.61755 66 52 78 
-0.123311 -0.242677 1.91145 79 41 54 
0.377066 -0.227459 1.7046 124 107 125 
-0.649228 -0.42054 2.51025 122 96 107 
-0.0686028 0.305496 1.77321 96 53 70 
0.0762725 0.362657 1.65021 83 40 47 
0.335293 -0.452239 1.76255 87 60 79 
0.139662 -0.48214 1.91701 100 80 105 
-0.234853 0.344736 1.50362 111 60 79 
0.274458 0.417784 1.70069 96 81 100 
0.0757194 0.438552 1.63912 86 40 50 
0.534996 0.138829 1.53371 105 73 86 
-0.505114 0.344175 2.09756 101 58 75 
0.0263087 0.399366 1.68076 105 65 73 
-0.108314 0.269012 1.80746 97 59 74 
0.422052 0.892443 5.87937 68 36 47 
-0.723023 -0.000797816 2.4998 124 111 131 
0.0545524 0.107097 1.83685 61 24 32 
0.275396 -0.457856 1.81028 89 74 97 
0.372797 0.417001 1.61949 128 107 122 
-0.119261 0.146587 1.90672 153 99 113 
0.481792 -0.444122 1.65704 105 83 106 
-0.187538 -0.140394 1.9981 113 68 73 
-0.134035 -0.0199914 1.92904 56 24 29 
0.151855 0.402968 2.67276 83 50 61 
0.0187624 -0.00768682 1.87345 70 30 38 
0.101826 0.348035 2.07708 78 39 44 
-0.50342 0.304501 2.10623 59 33 44 
-0.174295 0.15764 1.91156 40 21 25 
-0.158898 0.139739 1.94329 94 75 77 
0.341445 -0.109737 1.72288 57 49 64 
0.407617 -0.0491132 1.65797 63 47 60 
-0.567723 0.305715 2.16085 58 32 41 
-0.790797 -0.248149 2.58483 78 65 83 
-0.241559 -0.019651 2.0181 146 127 110 
0.324431 0.433091 1.66098 122 114 135 
-0.119553 0.042221 1.92318 95 45 54 
-0.164158 0.148356 1.93657 185 173 161 
0.441121 0.440581 1.56593 96 75 94 
0.315028 0.442161 1.66703 59 43 54 
-0.169598 0.192749 1.33714 82 41 57 
0.136828 -0.589853 1.93244 80 59 90 
0.319154 -0.511429 1.78648 75 64 81 
-0.91133 -0.632632 2.73205 93 98 140 
-0.852501 -0.58103 2.68115 134 122 142 
-1.06539 -0.385969 2.771 50 82 131 
-1.03284 0.357801 2.68527 71 69 109 
0.677382 -0.567775 1.70203 119 125 151 
0.360898 -0.561764 1.76067 76 71 94 
0.506204 -0.516802 1.6446 75 61 86 
0.186121 -0.581816 1.89535 124 106 130 
-0.340271 -0.611617 2.30421 123 102 117 
-0.240017 0.140368 1.92976 127 126 131 
-1.03609 0.396096 2.67852 34 50 86 
0.226224 -0.549665 1.86139 126 104 125 
0.0361307 -0.588288 2.01182 93 68 89 
0.323171 -0.448054 1.76886 97 66 82 
0.481911 -0.341195 1.63321 92 63 83 
0.249282 0.0366464 1.77131 56 44 58 
-0.199135 0.0544796 1.99346 165 149 124 
-0.249574 0.125673 1.93954 203 194 185 
-0.424384 0.245201 1.77154 87 43 56 
-1.03248 0.553941 2.65652 31 30 61 
1.0747 -0.554839 2.00922 36 41 71 
-0.280259 0.161589 1.16666 73 35 50 
-0.63905 -0.269798 2.48987 51 37 54 
-0.290124 0.00850083 2.05468 65 25 34 
0.230951 -0.0921031 1.80364 123 112 129 
-0.24454 0.388576 1.49806 104 55 74 
-0.220091 0.0536738 1.21021 125 74 81 
0.0519819 0.3531 2.12314 93 47 60 
-1.04538 0.2415 2.70851 44 50 76 
0.486981 -0.0500753 1.59417 35 28 36 
0.112242 0.23801 1.64594 69 37 52 
-0.23892 0.114216 1.95634 99 90 83 
-1.03237 -0.58196 2.80498 32 35 88 
0.154451 -0.544288 1.91818 131 118 144 
-0.388776 -0.33412 2.1726 105 83 96 
-0.305196 -0.177002 2.05867 59 24 28 
-0.168337 -0.255109 1.93646 101 68 77 
-0.0433741 0.32761 2.17787 134 83 100 
0.315122 0.249589 1.6736 127 124 145 
-0.112557 -0.0218855 1.91359 73 37 41 
-0.266383 -0.193619 2.06069 61 29 34 
-0.134686 0.158421 1.93765 122 71 78 
0.456449 0.183966 1.5906 81 57 70 
0.0168434 -0.606476 2.02749 82 67 90 
0.0598335 -0.583733 1.9945 99 76 105 
-0.436002 -0.623242 2.37212 73 57 84 
-0.467941 -0.58127 2.39457 72 64 87 
-0.467152 -0.233953 2.16708 76 22 38 
0.434753 -0.16146 1.64646 73 46 65 
-0.190553 0.0068746 2.02673 201 187 158 
-0.260602 0.117877 1.96455 154 138 125 
-0.899482 0.524232 2.57865 55 46 63 
-1.05764 0.616468 2.57562 89 93 102 
0.061977 -0.57424 1.991 91 67 91 
-0.378635 -0.638514 2.33177 138 125 145 
-0.311572 -0.622641 2.27992 58 45 71 
0.35724 -0.465465 1.74965 85 71 97 
-0.0969495 -0.480357 1.93704 148 94 107 
0.700384 -0.426021 1.67383 39 47 84 
-0.691228 -0.587205 2.56524 75 57 71 
0.173341 -0.415225 1.88236 83 66 85 
-0.788851 -0.555814 2.63908 93 71 94 
-0.495636 -0.487084 2.40365 101 85 96 
-0.453038 -0.376713 2.36036 97 66 82 
-0.368947 -0.258562 2.09201 91 39 52 
-0.214681 -0.0197577 1.99121 182 165 147 
-0.2475 0.138039 1.91385 81 78 85 
0.361406 0.205043 1.64718 77 120 215 
-0.152156 0.267618 1.84283 73 39 53 
-1.03558 0.378662 2.69866 69 69 105 
0.124232 0.26917 1.62731 82 42 53 
-0.545992 0.33491 2.13152 91 50 64 
0.220284 0.438434 2.61224 90 43 59 
-0.918115 0.599953 2.33054 108 118 117 
0.134394 -0.544248 1.92603 99 66 87 
0.462859 -0.444175 1.66634 38 30 45 
-0.432929 -0.603115 2.36881 74 62 84 
0.119788 -0.470354 1.91457 86 72 97 
0.125018 -0.444909 1.92614 87 65 86 
0.146208 -0.438537 1.90741 99 68 86 
-0.276243 -0.420415 2.0402 93 45 61 
-0.479526 -0.489077 2.38659 50 34 47 
-0.457988 -0.474061 2.37394 75 60 83 
-0.61323 -0.395579 2.47102 74 55 75 
0.133133 -0.246141 1.89313 112 74 89 
-0.654207 -0.268541 2.49362 67 52 71 
-0.548093 -0.20054 2.39783 61 40 59 
-0.242504 0.0350414 1.97939 185 172 153 
-0.713505 0.0539598 2.49121 56 48 71 
0.542078 0.0681247 1.53653 130 113 132 
0.414703 0.10861 1.62769 115 91 107 
-0.313894 0.207041 2.0485 129 77 89 
-0.761955 0.333477 2.4798 101 91 143 
-0.394904 0.282071 2.0228 100 53 69 
-0.217788 0.278826 1.88491 101 59 79 
-0.120096 0.210817 1.31547 91 47 62 
0.0645834 0.362659 1.65453 70 32 43 
0.360886 0.435352 1.62355 104 78 103 
-0.939744 0.617286 2.53489 117 129 143 
-0.946223 0.617825 2.55857 33 36 53 
-0.924102 0.600796 2.54695 122 108 123 
-1.04254 0.567973 2.65326 23 24 44 
0.706392 0.354222 1.56281 83 105 152 
-0.93274 0.487303 2.60977 89 107 143 
-1.04082 0.376077 2.68502 44 70 105 
-0.000959413 0.0259107 1.8791 62 30 41 
-0.00233431 -0.0937848 1.89529 64 33 41 
0.169274 -0.124718 1.84573 145 127 141 
-0.441234 0.143485 2.20252 64 24 33 
0.0642218 0.442703 1.64748 71 45 54 
-0.181022 -0.209046 1.99418 66 29 37 
0.134573 -0.20147 1.8963 85 66 86 
0.135353 -0.202274 1.88428 120 99 114 
-0.757186 -0.299116 2.56924 133 107 120 
-0.504098 0.40701 1.62949 85 42 61 
0.0662583 0.168846 1.8197 80 37 46 
-0.647276 -0.334267 2.49834 79 58 77 
-0.633576 -0.338082 2.49311 69 50 70 
-0.0974458 -0.260184 1.91952 106 66 74 
0.193576 -0.323003 1.8567 119 96 112 
0.194527 -0.484587 1.87943 79 64 83 
0.0695351 -0.500403 1.9735 91 64 83 
0.723889 -0.48758 1.67381 154 176 217 
-0.196598 -0.540088 2.01246 149 95 111 
-0.003128 0.473222 1.67136 147 108 127 
-0.180099 -0.491115 2.01241 99 45 61 
-0.924839 0.545243 2.57225 129 152 186 
-0.201707 -0.427178 1.97868 64 33 41 
-0.788001 -0.567726 2.63702 73 62 78 
-0.457739 -0.489128 2.36687 75 58 74 
0.440384 0.345417 1.57825 73 55 77 
-0.180677 -0.539013 2.0192 141 88 104 
0.65171 0.43106 1.54681 75 81 97 
-0.343152 0.161427 1.03413 94 51 68 
0.444305 -0.237225 1.65906 132 117 138 
-0.691047 -0.609637 2.55901 71 62 89 
0.139879 0.0607408 1.7136 59 29 37 
-0.0204631 0.397317 1.68111 78 35 45 
-0.0327621 0.114301 1.89396 65 33 44 
0.27688 -0.0405798 1.75307 106 82 95 
-0.457119 0.432305 2.94979 90 51 69 
-0.120501 0.0374624 1.91229 147 95 107 
-0.929745 0.571247 2.57318 150 164 199 
0.218346 0.436155 2.59798 83 41 53 
-0.548494 0.305483 2.12482 66 43 51 
0.131126 0.240132 1.62114 72 37 43 
-0.763644 0.305527 2.50285 35 31 68 
-0.255009 0.105802 1.95915 103 70 77 
-0.218389 0.0481542 2.00193 117 109 107 
-0.328606 -0.00240199 2.08454 61 26 33 
0.0179727 0.27776 1.70666 104 57 65 
-0.158077 0.0638467 0.76627 67 24 33 
-0.927283 0.603732 2.56155 121 108 126 
-0.620066 0.303742 2.19773 71 42 47 
0.315413 0.204936 1.71241 74 52 73 
-0.249013 0.170323 1.96879 86 63 47 
0.294199 0.309382 1.69706 85 61 77 
0.302417 0.438983 1.6822 48 34 49 
-0.4002 -0.00532811 2.19385 81 36 43 
0.300268 -0.39386 1.78682 127 115 137 
0.0415637 0.0225033 1.85566 66 33 42 
-0.31709 0.454298 1.45959 141 93 109 
0.380309 -0.300883 1.70157 118 100 114 
0.0066647 0.471844 1.66904 139 106 125 
-0.973427 0.626587 2.5692 145 168 209 
0.435544 0.307016 1.59276 104 103 121 
-0.757978 0.314045 2.5005 162 180 246 
-1.06124 -0.380572 2.76087 42 77 119 
-0.186551 0.150736 1.90741 105 81 77 
-0.152519 0.144403 1.95015 56 29 38 
-1.03034 0.183379 2.69049 33 52 94 
0.0698315 0.130891 1.80808 76 31 36 
-0.261768 0.115394 1.9545 122 88 86 
0.190431 -0.196711 1.83708 92 75 94 
0.734932 -0.0262113 1.63923 111 108 161 
-0.221005 -0.0413887 2.00712 69 40 36 
-0.702026 -0.11874 2.5169 116 104 126 
0.31644 -0.239973 1.76255 59 41 55 
0.407592 -0.297905 1.68348 50 38 52 
-0.0101278 0.468391 1.68386 148 103 126 
-0.107903 0.254627 1.79519 84 47 64 
-0.0896716 0.187784 1.29267 103 55 67 
-0.401373 -0.556844 2.33938 63 49 64 
-0.313143 -0.245039 2.04996 119 73 84 
-0.168797 0.373633 1.50669 123 67 80 
-0.185457 -0.150814 1.99619 66 33 40 
-0.746221 0.308929 2.47904 13 31 81 
-0.238132 0.143862 1.91337 149 141 130 
0.00152168 0.472471 1.69022 68 46 58 
0.2764 -0.297114 1.78901 77 54 64 
0.704686 -0.269068 1.66251 53 56 75 
-0.975174 0.629728 2.58051 159 182 223 
0.0391026 0.406456 1.6735 117 77 88 
0.695618 0.377892 1.56351 28 45 75 
-0.127722 -0.217097 1.89709 150 96 112 
0.705191 0.352678 1.57825 98 116 152 
-0.226592 -0.0712582 2.01657 33 18 23 
0.777961 0.833852 5.47679 69 38 43 
0.307949 0.0234041 1.71801 139 120 140 
-0.142416 0.048484 1.9254 93 52 58 
-0.322034 0.206215 2.06441 66 26 34 
-0.367961 -0.507948 2.30623 124 109 132 
-0.220031 -0.423703 1.99791 82 35 51 
-0.542183 -0.318424 2.41634 95 72 92 
0.38363 -0.293014 1.71054 68 50 74 
-0.343459 -0.248445 2.07446 118 78 89 
-0.775428 -0.193861 2.57263 138 126 140 
-0.611764 -0.131224 2.45168 126 113 131 
-0.505043 -0.131909 2.36619 78 60 76 
-0.260829 0.0224136 2.02575 157 135 121 
-0.257797 0.0336818 2.02526 146 125 108 
-0.217062 0.305541 1.88617 96 49 65 
0.128921 -0.476465 1.93434 80 65 86 
0.0200391 -0.4726 2.00764 93 61 85 
-0.534501 -0.423661 2.43791 87 65 88 
0.336588 -0.353635 1.75001 124 107 123 
-0.778267 -0.252431 2.57944 65 42 60 
-0.8667 -0.175994 2.6421 99 75 99 
-0.714208 -0.00228552 2.50703 117 95 116 
-0.618171 -0.00050867 2.43494 78 60 82 
-0.0459864 -0.00251619 1.92133 75 32 41 
-0.109557 0.0446112 1.9095 61 26 32 
-0.00869143 0.0935295 1.84896 143 93 102 
-0.228488 0.115479 1.93041 200 192 173 
0.407055 0.123003 1.63237 140 119 136 
-0.503441 0.293756 2.11464 86 43 60 
-0.925916 0.435019 2.60275 113 135 176 
-0.848354 0.458025 2.54142 120 107 135 
-0.711414 0.458885 2.44622 45 36 55 
0.490667 0.344388 1.54734 80 62 74 
-0.237028 0.397534 1.49636 108 55 73 
0.614857 0.519038 1.43571 66 72 86 
0.354144 -0.476194 1.75413 80 68 92 
-0.266731 -0.41895 2.02868 98 43 62 
0.13806 -0.418689 1.90812 95 69 82 
-0.00247431 -0.2766 1.82433 109 49 61 
-0.455543 -0.293951 2.34806 99 68 86 
-0.25247 -0.204957 2.05564 78 38 47 
-0.520078 -0.209834 2.38083 67 58 79 
-0.429575 -0.17602 2.18557 53 28 34 
0.28471 -0.17852 1.76716 93 71 92 
0.194163 -0.153046 1.83798 77 63 80 
-0.252202 0.140219 1.95819 56 52 66 
-0.373186 0.286181 2.00053 75 34 50 
-0.214987 0.211657 1.34196 111 61 73 
-0.553373 0.39553 1.66429 69 38 53 
-0.331104 0.398355 1.50057 105 53 66 
-0.614858 0.443461 1.7081 73 39 56 
-0.2637 0.394011 1.48938 134 87 103 
-0.222934 0.217534 1.35207 80 39 47 
-0.257546 0.00301566 2.03226 145 126 112 
0.0486004 0.0289124 1.84343 65 30 37 
-0.600909 0.187597 2.40542 117 86 94 
-0.331859 0.419606 1.49297 81 48 65 
-0.371618 0.143707 2.15234 58 23 27 
-0.444629 0.400131 1.58318 104 57 75 
0.35468 0.427477 1.63882 117 114 133 
-0.785693 -0.181606 2.59622 48 36 58 
-0.81429 0.465336 2.51707 110 103 121 
0.159966 -0.201408 1.8703 98 69 87 
0.186823 -0.20127 1.84874 129 111 127 
-0.83345 -0.308327 2.62708 127 103 117 
-0.326668 0.315496 1.97067 87 44 63 
-0.481207 0.41041 1.60692 104 56 78 
0.441296 0.30994 1.58314 133 115 127 
0.224745 -0.215348 1.8222 131 116 139 
-0.570878 -0.199601 2.41539 67 53 68 
-0.744449 0.277052 2.50905 86 120 184 
0.0483621 0.106802 1.8277 73 31 33 
-0.39095 0.273088 2.0508 89 57 72 
-0.159125 -0.115458 1.96569 64 29 36 
-0.602007 0.18522 2.38752 105 73 84 
-0.148327 -0.259729 1.92339 70 34 44 
0.116425 0.418977 1.61309 119 73 84 
0.166793 -0.486553 1.90722 74 55 75 
0.556434 0.50146 1.43041 27 31 42 
-0.927057 0.549333 2.58884 119 143 179 
-0.769736 0.283374 2.49802 152 154 213 
-0.139526 -0.259618 1.92914 114 70 85 
-0.785661 -0.230375 2.60043 61 52 69 
0.43428 0.439841 2.58571 84 38 48 
-0.232096 -0.0223336 2.03791 127 102 97 
0.341482 0.321827 1.66594 136 127 156 
-0.29081 0.173876 2.0287 67 37 47 
-0.329246 0.177279 2.05997 124 71 79 
0.365951 0.438504 2.58474 87 40 50 
-0.581962 0.31171 2.14417 101 67 68 
0.1343 0.236789 1.64369 88 46 58 
-0.168989 -0.260419 1.91818 133 79 93 
-0.276651 0.176849 2.03229 58 31 40 
-0.455275 -0.232573 2.22394 70 30 30 
-0.158826 0.142979 1.92602 133 115 115 
0.478816 0.00395543 1.60054 89 66 84 
-0.185935 0.0132897 1.99994 197 186 158 
-0.125692 -0.0150216 1.92416 119 77 91 
-0.625103 -0.010655 2.42034 121 99 120 
-0.613763 0.311307 2.17399 45 32 39 
0.382386 -0.104112 1.69654 70 54 64 
0.276524 0.394573 2.6544 74 37 45 
0.0352521 0.387775 1.68473 108 63 70 
-0.40213 -0.00408022 2.1751 71 30 34 
0.335563 0.319949 1.6574 133 127 155 
-0.926424 0.577713 2.59405 64 70 94 
-0.61719 -0.0125094 2.39625 49 38 54 
-0.353596 -0.210868 2.08212 121 74 84 
-0.114236 0.183433 1.88724 87 41 44 
0.383751 -0.343995 1.72721 57 43 56 
1.89281 0.927716 5.90752 62 42 44 
-0.311715 -0.245488 2.06333 99 57 69 
-0.497514 -0.279165 2.37133 70 51 55 
0.00826792 0.0215581 1.87801 78 35 42 
-0.27978 0.348898 1.49358 86 53 74 
-0.0604044 0.261736 1.60495 121 76 83 
0.282333 0.226929 1.72039 70 62 86 
-0.351388 0.225192 1.58465 87 44 63 
-0.0709711 0.265101 1.61293 85 42 52 
-0.0888688 0.267672 1.62926 74 38 50 
-0.19599 0.210573 1.49691 91 48 67 
0.165313 -0.463236 1.89479 95 72 92 
-0.682056 0.297004 2.44223 67 52 73 
-0.0898558 0.257 1.57922 121 75 85 
0.0879692 -0.428282 1.94744 112 74 97 
-0.564953 0.22398 2.24033 69 37 50 
-0.223261 0.248749 1.68523 101 59 79 
-0.306601 0.210006 1.32501 95 52 72 
-0.0996784 0.260077 1.58842 95 52 62 
-0.469858 0.225411 1.57432 77 46 54 
0.167492 0.31632 1.87556 97 49 61 
-0.422718 0.192003 1.23738 84 46 59 
-0.283722 0.243418 1.73773 93 48 68 
0.0759218 0.323759 1.93671 78 39 44 
-0.38192 0.236979 1.50309 94 51 68 
-0.156482 0.244016 1.63607 138 91 111 
-0.390056 0.187148 1.29706 132 83 102 
-0.655767 -0.127843 2.47593 120 111 140 
-0.510535 -0.12173 2.36773 114 97 116 
0.195029 0.3365 2.02857 69 31 42 
0.101077 -0.497611 1.94721 102 70 83 
-0.405043 0.0123759 1.62415 64 27 35 
-0.369609 0.0901296 1.58647 65 24 32 
-0.242779 0.140148 1.96256 84 84 92 
-0.29322 0.205921 1.41312 84 53 69 
-0.152395 0.246384 1.52678 129 82 90 
-0.268917 0.136077 1.90318 87 75 85 
0.356054 0.206619 1.65917 56 96 194 
5.24702 2.90668 16.9915 64 32 45 
-0.129457 0.36984 2.26298 87 43 58 
0.418356 0.434434 2.55301 105 53 65 
0.125149 -0.423151 1.92093 81 60 75 
-0.160741 0.249672 1.53625 80 39 47 
-0.262079 0.138576 1.93632 107 100 107 
-0.536663 0.437234 1.65094 80 39 55 
-0.132974 -0.242089 1.92058 75 37 48 
0.492172 0.130929 1.56944 66 44 65 
-0.447079 0.188376 1.21884 87 44 63 
-0.22829 -0.0607476 2.01438 155 142 125 
0.17908 0.343406 2.0398 89 50 55 
-0.53713 0.165885 1.17907 133 82 99 
-0.214796 0.234094 1.58103 134 89 110 
0.23946 -0.514573 1.84688 100 74 99 
-0.373582 -0.34536 2.28841 97 86 102 
-0.52454 -0.224327 2.38962 84 62 83 
-0.79498 -0.193719 2.58955 117 114 133 
-0.671668 -0.128622 2.48608 126 102 126 
-0.24363 0.00553264 1.99207 169 152 136 
-0.800722 0.214911 2.54125 53 44 65 
0.412847 0.30937 1.61225 67 55 79 
0.306636 0.367369 1.69129 126 117 138 
0.510697 0.417807 1.51855 116 118 143 
0.357882 -0.497559 1.75384 127 119 143 
-0.588946 -0.246364 2.44546 55 42 59 
-0.432439 -0.089274 2.17908 67 35 46 
-0.495184 -0.0240453 2.3342 80 67 87 
1.30224 -0.128359 4.71412 65 25 34 
-0.836723 0.0495628 2.59023 76 54 75 
1.39236 0.35986 4.59929 74 27 37 
-0.773373 0.129335 1.00891 70 32 45 
0.508321 0.307614 1.53728 85 64 81 
0.346197 0.336084 1.65099 93 69 82 
0.0676933 0.4186 1.65424 95 49 62 
0.481571 -0.302743 1.62512 66 52 75 
-0.50325 -0.253156 2.37732 72 52 63 
-0.519352 -0.179633 2.37858 97 69 83 
-0.150406 -0.155337 1.96512 54 24 26 
-0.54242 -0.143066 2.39544 61 48 68 
-0.826995 -0.0524015 2.59798 63 50 76 
-0.377295 -0.0499551 2.1818 71 35 45 
1.29665 -0.128352 4.70512 75 33 43 
-0.18857 0.0406351 1.98323 168 161 143 
-0.302388 0.119805 2.05253 75 32 42 
-0.347898 0.136686 2.1345 61 25 35 
0.29144 0.224286 1.7149 92 67 88 
0.0684031 0.231036 1.70998 69 39 49 
-0.590736 0.306601 2.16675 58 29 31 
-0.348745 0.286044 1.99315 75 43 58 
-0.292611 0.222672 1.41 136 86 97 
-0.0436559 0.295988 1.7571 102 63 81 
0.0667201 0.28675 1.67368 93 61 74 
-0.575343 0.366708 1.68884 68 34 48 
-0.404284 0.384634 1.55542 77 43 60 
-0.465031 0.505959 1.51642 50 60 111 
0.381047 -0.0446344 1.6763 113 102 116 
-0.498593 -0.0262336 2.34942 66 51 70 
-0.104021 0.103415 1.90743 87 41 52 
-0.32477 0.121646 2.07025 77 35 47 
-0.591867 0.415028 1.69738 79 41 56 
0.332765 0.324297 1.67287 118 112 138 
-0.3282 0.26679 1.99811 90 49 67 
-0.0741861 0.247066 1.83592 103 70 89 
-0.683698 0.175915 1.18925 94 50 67 
-0.596971 -0.082101 2.42491 69 51 65 
-0.402367 0.129424 2.16167 81 35 46 
-0.631284 0.336334 2.19273 50 25 28 
-0.213883 0.381211 1.505 115 64 83 
-0.540139 0.231409 2.22496 87 36 43 
-0.399605 0.0305069 2.19088 64 28 32 
-0.398613 0.504586 1.51642 62 48 63 
0.384146 0.335738 1.62957 151 130 147 
0.0613802 0.396077 1.65801 87 41 51 
-0.174909 0.314799 1.85136 98 56 68 
-0.323821 0.0144044 2.08517 61 30 36 
0.148982 -0.482767 1.91267 94 71 91 
-0.272346 0.166391 2.01609 84 59 62 
-0.318832 0.229275 1.44067 78 41 59 
0.180753 0.457122 2.72924 77 43 60 
-0.0974212 0.286932 1.77842 91 46 53 
0.631639 0.379172 2.38431 140 92 106 
-0.166917 0.408693 1.50691 104 53 68 
-0.177043 0.405701 1.50288 138 90 104 
-0.79026 -0.120464 2.58439 118 106 126 
-0.0664141 0.238369 1.84487 104 54 65 
-0.619608 0.0360069 2.42423 52 41 58 
-0.190025 0.0327951 1.99107 207 195 169 
0.0931647 0.204386 1.72099 135 84 101 
-0.296059 0.0600535 2.0492 67 27 35 
-0.232725 0.0558992 1.9696 142 122 98 
-0.0149122 0.0988629 1.88456 75 32 39 
1.34776 0.465582 4.64474 134 81 91 
-0.381772 0.187974 2.15678 61 21 29 
0.16142 -0.261658 1.87771 142 130 154 
-0.438562 0.565448 1.64219 189 180 243 
0.452442 0.431035 1.56864 123 109 122 
-0.30199 -0.271039 2.0477 62 41 50 
-0.31197 0.227857 1.43249 98 46 58 
-0.35713 -0.281877 2.09972 116 64 76 
-0.663643 -0.068799 2.47723 127 105 126 
-0.281982 0.176616 2.0197 71 40 46 
-0.254199 0.159839 1.98529 29 24 20 
0.110843 -0.00738783 1.70388 145 95 106 
-0.258936 -0.201732 2.03248 66 36 44 
-0.802564 -0.122364 2.56622 116 102 119 
-0.674334 0.289291 1.25006 76 35 49 
0.528275 0.500735 1.44401 18 23 42 
-0.164543 -0.213456 1.92112 150 96 109 
-0.198356 -0.148161 1.9975 51 23 22 
-0.263774 -0.13416 1.93083 120 71 77 
-0.610377 -0.0131557 2.4405 116 93 111 
0.109414 0.177574 1.72571 126 83 93 
-0.210668 0.00510467 2.00007 148 127 98 
-0.200038 0.159761 1.92736 133 120 137 
-0.190276 0.0133 1.98868 209 198 170 
-0.199057 0.150434 1.89967 91 69 71 
0.121763 0.0026927 1.71204 71 31 39 
-0.102999 -0.251468 1.91863 52 20 25 
0.00869959 0.0640635 1.86719 152 95 110 
-0.316801 -0.242874 2.0478 107 65 77 
-0.316748 0.0950007 2.06036 118 67 76 
0.272638 -0.0890626 1.75674 118 101 120 
-0.192185 0.348687 1.51279 94 47 63 
-0.168504 -0.269259 1.94989 106 63 70 
-0.148371 -0.737852 2.13897 57 37 49 
-0.160756 -0.731012 2.14867 94 89 129 
0.0503555 -0.670397 2.01486 71 43 65 
-0.182447 -0.729839 2.15601 76 55 50 
-1.02615 -1.01196 2.85609 45 47 98 
-0.132399 -0.709652 2.11936 78 67 65 
-0.18899 -0.721677 2.16802 139 108 103 
-0.173454 -0.716336 2.15502 188 182 156 
-0.144645 -0.706024 2.1296 147 141 127 
0.102354 -0.63791 1.97078 130 111 130 
-0.127469 -0.698043 2.11408 165 152 143 
-0.111809 -0.694462 2.10838 157 147 137 
-0.127517 -0.700107 2.12511 110 107 102 
-1.34499 -1.04227 2.94062 127 129 186 
-0.325548 -0.771213 2.31465 59 45 62 
-0.155883 -0.70037 2.13508 172 164 141 
-0.136852 -0.694873 2.12619 117 112 116 
-0.132574 -0.685424 2.11701 119 115 129 
-0.185676 -0.703854 2.16598 152 149 134 
-0.163375 -0.696954 2.15199 83 55 51 
0.201382 -0.581847 1.88622 95 66 84 
-0.137003 -0.678917 2.12834 121 129 175 
-0.11891 -0.670246 2.11178 84 64 55 
-0.169442 -0.681745 2.15145 189 177 177 
-0.19515 -0.685357 2.17493 150 144 144 
-0.125123 -0.661163 2.11302 156 151 145 
-0.183757 -0.679239 2.16539 145 146 177 
-0.447393 -0.770064 2.41104 71 52 74 
-0.141704 -0.662664 2.12908 79 68 62 
-0.205395 -0.676436 2.17462 171 173 185 
-0.176145 -0.663469 2.15299 150 129 134 
-0.139499 -0.649421 2.12136 121 107 96 
-0.188295 -0.666038 2.16864 152 132 144 
-0.619092 -0.767056 2.54189 104 87 105 
-1.46625 -0.866709 2.82944 132 141 196 
-1.46364 -0.787407 2.81133 131 146 205 
-1.46659 -0.704166 2.80712 141 152 208 
-1.44264 -0.692693 2.81809 106 123 177 
-1.27301 -0.640299 2.88933 48 39 60 
-0.843304 -0.505103 2.66871 74 54 79 
-0.87184 -0.110137 2.6301 69 51 65 
0.0426903 0.162868 1.10369 78 37 51 
-0.0944887 0.408306 2.47718 75 39 53 
-1.27404 0.60376 2.4993 87 110 104 
-0.490164 0.500569 1.48975 164 170 228 
0.289209 0.507073 1.47298 119 126 142 
0.158532 -0.643493 1.93128 81 62 82 
-0.126116 -0.727123 2.12372 95 42 50 
-0.156917 -0.730091 2.13471 124 119 149 
0.286239 -0.596922 1.82779 79 55 81 
0.130451 -0.641177 1.95204 69 45 69 
-0.167772 -0.724732 2.15448 131 121 145 
-0.0681442 -0.705004 2.11656 71 55 81 
-0.149474 -0.715176 2.13457 86 73 65 
-0.145625 -0.694889 2.13245 116 121 163 
-0.0366405 -0.673124 2.08703 79 55 71 
-0.176921 -0.700365 2.16048 141 139 126 
-0.00419651 -0.654406 2.05497 79 61 87 
-1.34365 -1.02416 2.94695 171 180 223 
-0.160446 -0.68752 2.14414 58 64 78 
-0.199775 -0.696805 2.17546 177 161 148 
0.145167 -0.597746 1.93308 131 112 132 
-0.148905 -0.676271 2.13141 119 137 183 
-0.484415 -0.794176 2.44623 75 52 72 
-0.752115 -0.862422 2.65479 79 66 92 
-0.0423805 -0.634903 2.08175 58 41 59 
-1.39594 -0.943256 2.89994 123 146 196 
-0.16905 -0.629354 2.16035 70 62 59 
-1.44097 -0.862842 2.84673 121 144 194 
-0.19513 -0.537527 2.03174 71 24 34 
-0.095911 -0.469904 1.95803 71 33 46 
-1.45816 -0.694348 2.80659 116 117 174 
0.0509795 -0.394724 1.9782 59 41 55 
-0.185014 0.104451 1.98691 105 93 79 
-0.449206 0.122784 2.21328 77 33 46 
-1.04222 0.31093 2.69205 75 89 118 
-0.146143 0.353154 2.48989 78 41 59 
0.818129 0.54046 1.5724 102 103 133 
0.0324581 -0.67918 2.03807 81 58 84 
0.0642612 -0.637913 2.00013 129 108 125 
-1.33232 -1.02464 2.92548 161 179 219 
-0.151474 -0.689354 2.12077 79 77 116 
-0.480614 -0.789819 2.43347 75 52 72 
0.0068735 -0.63627 2.04543 63 38 59 
-0.21232 -0.68497 2.1874 140 123 129 
-0.130695 -0.65424 2.1073 173 168 148 
-0.166591 -0.665788 2.14652 23 41 55 
0.236519 -0.544323 1.85347 74 53 72 
-0.569784 -0.776767 2.50065 84 70 87 
-1.39149 -0.936162 2.87379 120 131 187 
0.70687 -0.447235 1.68811 46 44 81 
0.63151 -0.392597 1.49169 121 135 170 
-0.334501 -0.657097 2.29037 56 48 72 
-0.587118 -0.677233 2.49623 77 56 75 
-1.39663 -0.695825 2.85027 121 138 194 
-1.28061 -0.641984 2.90283 51 42 63 
-0.199082 -0.334434 1.98516 71 38 47 
0.0720657 -0.272394 1.85672 92 41 56 
0.736056 -0.191766 1.65655 91 98 142 
-0.63196 -0.267154 2.46642 56 43 60 
-0.884933 -0.111658 2.64033 82 68 85 
-0.193813 0.136225 1.94981 151 140 134 
-0.0308756 0.164463 1.88675 111 62 66 
-0.0870165 0.177957 1.22521 80 41 59 
-0.831695 0.373371 2.53772 118 109 136 
0.644693 0.246106 1.59347 35 33 54 
-0.547527 0.348651 2.13142 60 32 44 
-0.214497 0.316559 1.87649 96 53 72 
-0.107568 0.307884 1.80165 104 56 70 
-1.40285 -0.941768 2.89223 120 131 187 
-0.213306 0.124918 1.91989 192 190 177 
-0.160503 -0.632249 2.13692 91 50 66 
-0.196571 -0.64304 2.1739 85 55 57 
-0.585779 0.0458353 2.23411 71 30 36 
0.104447 -0.646044 1.98196 62 45 61 
-1.44745 -0.695388 2.83013 107 117 176 
-0.22408 -0.4358 2.00877 51 25 36 
0.770771 0.482402 1.60037 81 77 92 
-0.18876 -0.700725 2.1786 154 126 123 
-0.779529 -0.229684 2.57922 55 42 59 
-0.148425 -0.49014 1.99223 80 36 51 
0.121756 -0.0117894 1.70144 162 114 128 
-0.163265 -0.655859 2.14524 18 45 62 
-0.209878 -0.655186 2.19323 64 41 51 
0.575068 0.00403241 1.54296 67 43 56 
0.00143175 0.163699 1.14436 82 48 65 
0.236589 0.248878 1.74673 59 35 49 
0.16732 0.23749 1.65069 58 36 38 
0.155847 0.236739 1.63897 63 36 43 
-0.241633 0.275629 1.91632 79 43 57 
-0.528024 0.392954 2.70341 76 40 54 
-0.0977903 -0.222852 1.9273 59 23 27 
-0.324836 -0.261813 2.0552 67 35 48 
0.0133695 0.40383 2.42678 80 40 48 
0.117387 -0.268636 1.90545 99 60 81 
0.0982593 -0.274878 1.89385 96 58 73 
-0.237682 -0.330629 2.0166 72 34 47 
-0.594403 -0.476532 2.48684 75 54 73 
-0.196357 -0.723425 2.17575 97 55 59 
-0.127034 -0.685628 2.10241 99 95 92 
-0.524648 0.504648 1.51901 153 156 207 
-1.43868 -0.942876 2.85457 111 139 189 
-0.190871 -0.637397 2.1576 83 46 53 
-0.309469 -0.656668 2.28174 44 41 58 
-0.122532 -0.474718 1.96747 134 87 103 
-1.26784 -0.626042 2.89114 128 131 174 
-1.27005 -0.613674 2.88526 100 108 157 
-0.903952 -0.51322 2.70303 86 86 120 
-0.772926 -0.39643 2.59128 56 48 63 
0.704658 -0.176143 1.65411 52 51 82 
-0.187097 -0.660436 2.15918 145 134 130 
-0.607558 -0.760475 2.51853 62 49 66 
0.628844 -0.252378 1.64243 55 35 47 
0.605045 -0.254231 1.60927 70 48 61 
-0.774832 -0.564526 2.61384 54 40 53 
-0.162208 -0.519701 2.01134 94 46 62 
-0.263327 -0.522222 2.08006 61 28 39 
-0.117864 0.184504 1.25302 74 41 60 
-0.22381 -0.154017 2.01276 55 24 32 
-0.161614 -0.65083 2.13204 22 50 62 
-0.196815 -0.654455 2.15872 180 163 155 
-0.186132 -0.644625 2.14797 189 189 161 
0.330331 -0.504874 1.80324 57 42 61 
-0.202957 -0.644086 2.1895 145 130 123 
-1.44298 -0.776262 2.84085 108 130 187 
-1.45056 -0.691684 2.79115 111 111 173 
0.639793 -0.250713 1.65368 23 22 27 
0.267592 -0.0896594 1.77815 114 97 116 
0.91473 0.519721 1.71999 78 69 98 
-0.240513 -0.137833 2.03084 97 56 62 
-0.553015 0.307177 2.13956 61 40 47 
-0.256113 0.13644 1.88764 63 28 35 
0.726689 0.439994 1.59381 139 161 200 
-0.219851 0.138116 1.93281 107 99 112 
0.0065643 -0.297825 1.85844 88 36 48 
-0.209425 -0.678677 2.19771 161 156 179 
0.0432978 0.253459 1.68722 57 30 37 
-0.765299 -0.312107 2.59796 58 40 52 
0.0489905 0.193253 1.31723 100 57 67 
-0.46708 -0.244917 2.21102 68 25 35 
-1.46225 -0.787003 2.87876 104 123 179 
-0.315694 -0.666643 2.30502 40 29 46 
0.727619 -0.364775 1.68231 130 149 181 
-0.389414 0.614301 4.18364 62 35 40 
-0.17145 0.271016 1.84411 64 43 52 
-0.205024 0.0327595 1.98473 72 46 31 
-0.304489 0.205305 2.02709 77 44 53 
