ply                 
format ascii 1.0    
element vertex 1162
property float x    
property float y    
property float z    
property uchar red  
property uchar green
property uchar blue 
end_header          
-0.00106238 0.0234708 1.2107 70 24 35 
-0.0396301 0.0244284 1.22508 66 23 32 
-0.0644155 0.058856 1.21061 101 76 79 
-0.0655095 0.0609456 1.21021 151 141 140 
-0.541652 0.121064 1.47222 24 31 77 
-0.544855 0.12246 1.47239 149 177 242 
-0.545974 0.150831 1.46862 135 164 224 
-0.313909 0.166425 1.26737 67 36 52 
-0.350013 0.170526 1.27903 76 38 51 
-0.17402 0.165853 1.21605 87 44 63 
0.446885 0.265877 1.09443 89 90 108 
-0.159648 -0.235652 1.2598 77 45 60 
0.402781 -0.137038 1.15094 63 38 57 
-0.171275 -0.0096827 1.27627 54 17 25 
-0.00097583 0.0235259 1.21121 70 24 35 
-0.10846 0.0288525 1.21114 177 173 164 
0.343114 0.0376104 1.15714 87 66 85 
0.31984 0.0417931 1.16586 126 119 135 
-0.171117 0.0661498 1.27056 57 20 27 
0.18435 0.0771544 1.13937 55 33 46 
-0.366272 0.0914584 1.33821 74 31 41 
-0.545167 0.122286 1.47244 143 168 232 
-0.548521 0.157075 1.46847 85 103 153 
-0.549561 0.159921 1.46888 32 33 63 
-0.405601 0.153982 1.30028 61 43 55 
-0.0853408 0.145918 1.18607 106 61 81 
-0.0203249 0.142846 1.16187 78 40 55 
-0.313584 0.166393 1.26772 66 35 51 
0.46571 0.330582 1.05599 92 111 154 
0.381165 -0.326287 1.17766 100 76 100 
0.329625 -0.180988 1.18316 67 51 77 
-0.124559 -0.190065 1.27459 73 38 44 
-0.0898868 -0.171249 1.26074 75 32 41 
-0.104434 -0.171489 1.26555 77 35 45 
-0.0515065 -0.14913 1.2442 58 25 32 
-0.144242 -0.146441 1.27802 73 31 41 
-0.10864 -0.0904433 1.25933 156 140 124 
-0.19734 -0.0455499 1.28959 64 27 35 
0.319352 0.0415808 1.16588 131 125 139 
0.155864 0.0443452 1.18161 69 24 27 
-0.120601 0.0468113 1.20535 87 75 85 
-0.171354 0.0656925 1.27068 59 22 29 
0.346128 0.105815 1.14767 68 55 73 
-0.542091 0.142464 1.46986 44 41 72 
0.344096 0.113006 1.14295 86 125 218 
-0.570219 0.147702 1.47739 43 49 107 
-0.546536 0.150728 1.46897 143 169 230 
-0.543129 0.151982 1.46813 16 24 70 
-0.540357 0.153541 1.46838 31 23 38 
-0.550186 0.15769 1.46859 126 136 189 
-0.121812 0.134806 1.19906 117 113 150 
-0.104185 0.137191 1.19298 130 137 179 
-0.36951 0.148816 1.28888 75 45 57 
-0.297916 0.14706 1.2625 58 29 34 
-0.373079 0.152451 1.28979 73 41 54 
-0.104324 0.141635 1.19344 81 43 54 
-0.3171 0.151974 1.26963 72 42 54 
-0.0205303 0.142706 1.16196 89 48 64 
0.0340401 0.141764 1.14186 86 50 60 
0.177649 0.138207 1.08848 73 41 56 
-0.313191 0.166303 1.26754 63 32 47 
-0.316573 0.169611 1.26776 93 50 67 
0.0345785 0.159796 1.14062 78 37 53 
-0.316919 0.178924 1.26641 94 51 68 
-0.206945 0.237067 0.9528 104 56 78 
0.463371 0.301537 1.06005 145 173 238 
0.469267 0.327942 1.05391 83 75 152 
0.466569 0.330332 1.05646 122 143 196 
0.494613 0.298365 1.04882 153 183 245 
0.46338 0.301485 1.05982 144 176 237 
-0.0866628 0.233604 0.909663 105 53 66 
0.329671 -0.181405 1.18333 72 58 83 
0.123048 0.157261 1.10847 86 40 51 
0.0344046 0.159607 1.14078 85 41 54 
0.0372822 0.155452 1.13965 102 55 65 
0.122996 0.1395 1.10929 74 41 48 
0.068101 0.138354 1.12983 134 86 100 
-0.0523671 0.143879 1.17381 86 50 64 
-0.0187099 0.140859 1.16213 131 85 96 
-0.0311872 0.141476 1.166 120 80 89 
0.385064 0.000157043 1.14388 45 32 50 
-0.368641 0.148462 1.29007 78 42 52 
0.415046 0.0414301 1.12703 104 77 92 
0.15603 0.0442234 1.1816 67 24 31 
-0.116598 0.133009 1.19733 79 67 105 
-0.122891 0.0490304 1.2074 130 121 114 
-0.549049 0.159897 1.46926 32 36 63 
-0.434341 0.0620952 1.43949 117 86 94 
-0.0270311 0.0614137 1.21708 64 21 31 
-0.171443 0.0657082 1.27109 70 27 36 
-0.543145 0.152156 1.46795 14 28 73 
-0.546274 0.150791 1.46907 129 154 220 
-0.311015 0.0901307 1.34915 68 27 31 
-0.243779 0.0728938 1.32724 65 25 33 
0.321661 -0.341053 1.20046 90 67 87 
-0.0857189 0.145491 1.18583 92 53 72 
0.180591 -0.274761 1.24779 88 65 83 
-0.206969 0.236991 0.952916 104 56 78 
-0.0867192 0.215462 0.910519 91 48 58 
0.505686 0.324758 1.04153 12 16 27 
0.459107 0.307646 1.06123 118 126 172 
0.488568 0.300988 1.05117 14 28 73 
0.494035 0.298693 1.04867 161 189 252 
0.496297 0.296852 1.0478 33 23 47 
0.0965138 0.158079 1.11624 116 64 76 
0.0343098 0.16 1.14052 81 38 55 
0.0368454 0.155469 1.13932 111 61 73 
0.069593 0.136892 1.12877 96 53 70 
-0.378819 0.155909 1.29059 98 67 65 
-0.0165134 0.139047 1.1616 82 41 55 
0.0331099 0.133594 1.14361 73 40 51 
-0.561825 0.136657 1.47524 30 26 61 
-0.548827 0.114017 1.4749 23 28 48 
-0.546316 0.111326 1.47477 48 39 58 
-0.178728 0.0899025 1.27036 121 74 84 
-0.185277 0.087236 1.27337 63 21 33 
-0.0394433 -0.0486307 1.23086 59 22 30 
-0.195541 0.0664075 1.27806 74 31 38 
0.444417 0.0379953 1.1164 114 99 118 
-0.325121 0.170094 1.26921 70 33 40 
-0.104815 0.133833 1.19407 132 146 193 
0.205818 -0.140714 1.22541 77 63 80 
-0.0913508 -0.155722 1.25943 60 29 37 
0.489503 0.301125 1.05177 18 31 84 
-0.104787 0.13501 1.19242 133 145 193 
-0.54882 0.113604 1.47388 29 34 54 
-0.171937 0.086791 1.26806 71 31 40 
-0.18535 0.0872758 1.27388 63 21 33 
0.0662734 0.0637071 1.21322 64 29 36 
-0.125565 -0.189411 1.27494 58 27 35 
-0.349506 -0.254895 1.44181 63 40 50 
-0.118831 0.0679119 1.22646 88 65 51 
-0.185148 0.01178 1.28085 61 21 30 
0.1048 0.153916 1.11367 86 41 48 
0.178248 0.138015 1.08987 77 43 57 
0.500131 0.295658 1.04662 23 19 33 
0.460976 0.29998 1.06235 14 21 40 
-0.0427464 -0.232536 1.21701 66 28 41 
-0.179038 0.0887019 1.27061 129 75 88 
-0.185402 0.0879027 1.27414 63 21 33 
-0.0270065 0.0824366 1.21504 74 24 33 
-0.171286 0.0663882 1.27121 57 24 31 
0.446623 0.0380658 1.11912 133 114 133 
0.0693751 -0.0296247 1.22009 84 41 50 
0.282138 -0.147006 1.19776 64 56 71 
0.0641016 -0.0229041 1.22025 56 29 38 
0.354801 -0.099416 1.16808 70 54 64 
0.11098 0.0289904 1.19926 60 23 31 
-0.121061 0.136678 1.20006 128 139 184 
0.26949 -0.228615 1.20974 72 46 57 
-0.0214564 0.0831881 1.21332 133 75 89 
-0.0513408 0.14264 1.17249 71 43 55 
0.124209 0.13901 1.10894 62 42 44 
0.409754 0.269703 1.10465 123 107 120 
0.0688177 -0.0290803 1.2196 80 39 47 
0.352351 -0.0992454 1.16668 57 41 52 
0.0314406 0.168045 1.13998 69 43 54 
-0.126019 -0.336921 1.25639 100 45 64 
-0.470805 -0.300503 1.49085 100 84 95 
0.358904 -0.229219 1.17732 68 50 74 
-0.599177 -0.284189 1.53392 68 43 62 
0.175953 -0.210397 1.24299 103 78 97 
-0.575952 -0.24761 1.52195 45 31 46 
0.217783 -0.17544 1.22359 130 122 143 
-0.390955 -0.20231 1.45025 53 32 51 
-0.356795 -0.153515 1.4329 78 60 76 
-0.477768 -0.156579 1.4767 120 111 140 
-0.133927 -0.0387478 1.26508 159 140 125 
-0.615436 -0.0393557 1.51406 71 65 91 
-0.106499 -0.0165758 1.23372 160 139 118 
-0.109155 0.0476343 1.20245 65 62 73 
-0.572841 0.120326 1.48404 43 45 93 
0.343117 0.128528 1.14179 72 114 212 
-0.209946 0.144688 1.23104 77 35 49 
0.155616 0.138169 1.09803 73 32 40 
0.304104 0.22123 1.15418 125 123 147 
0.478226 0.314309 1.0536 146 165 231 
0.492283 0.326651 1.04629 36 65 135 
-0.0242972 -0.334104 1.19674 75 32 51 
-0.0894625 -0.337936 1.24367 82 35 51 
-0.1414 -0.33742 1.26368 83 39 54 
0.136079 -0.318996 1.26839 112 99 116 
0.296309 -0.301938 1.20854 113 104 121 
-0.470961 -0.354678 1.49766 78 54 67 
-0.314883 -0.319564 1.435 99 66 83 
0.171353 -0.274654 1.25222 80 59 74 
0.295428 -0.228219 1.19895 132 115 134 
-0.31712 -0.263257 1.43081 96 67 87 
-0.381578 -0.256601 1.45391 67 54 64 
0.408269 -0.187724 1.15512 132 115 133 
0.0485457 -0.109423 1.23521 57 25 28 
-0.115464 -0.0650701 1.26694 122 97 93 
-0.525204 -0.0726292 1.48637 117 95 116 
0.0279778 -0.0446542 1.23616 75 32 41 
-0.159025 -0.0456493 1.27615 56 21 27 
-0.149077 -0.0351689 0.97028 64 27 35 
0.305968 -0.0185778 1.17733 70 46 68 
-0.276495 -0.0133423 1.34913 58 25 34 
-0.0949166 -0.0114562 1.2333 104 86 72 
-0.19487 -0.00895638 1.28621 65 24 30 
-0.0265206 0.00727679 1.22157 74 27 37 
-0.197903 0.0281896 1.28337 60 17 27 
0.385155 0.048624 1.13732 105 84 103 
-0.0969504 0.0527312 1.20505 118 105 86 
0.378633 0.0578054 1.13843 140 119 136 
0.169741 0.0770667 1.14443 68 32 44 
0.133873 0.528468 4.17055 89 53 63 
0.089613 0.140825 1.12241 87 53 69 
0.348338 0.151883 1.14471 85 63 84 
0.471633 0.145962 1.09641 123 96 103 
-0.262084 0.168213 1.24793 94 51 68 
0.178214 0.155946 1.08767 90 48 60 
0.372916 0.269229 1.12263 111 104 135 
0.454325 0.324836 1.06236 60 44 57 
0.152127 -0.364136 1.26808 72 54 76 
0.168612 -0.338178 1.25623 99 68 86 
0.162764 -0.325535 1.25817 95 69 82 
0.354897 -0.267921 1.18085 117 95 108 
0.321618 -0.270657 1.19471 96 77 97 
-0.501557 -0.304038 1.50153 80 62 86 
0.405268 -0.231343 1.15757 61 47 62 
-0.0312134 -0.234156 1.21013 138 87 96 
-0.190445 -0.222678 1.27097 109 69 78 
0.230675 -0.210897 1.2216 98 73 95 
-0.460178 -0.251759 1.47889 48 31 47 
0.431233 -0.19567 1.1459 87 68 90 
0.305444 -0.181107 1.19242 69 53 80 
0.283927 -0.178023 1.20142 72 56 82 
-0.368519 -0.207771 1.44269 67 58 79 
-0.587166 -0.156446 1.51601 112 97 118 
-0.506755 -0.151836 1.4862 52 44 68 
0.306882 -0.0427536 1.17835 82 61 80 
0.433834 -0.0140755 1.12638 69 46 64 
-0.0130324 -0.0136531 1.21858 74 34 42 
-0.0967319 0.0396301 1.20652 200 192 181 
-0.515679 0.111629 1.46018 124 108 121 
0.433234 0.105497 1.11269 116 107 124 
-0.414833 0.155517 1.30467 103 93 104 
-0.229177 0.149421 1.23842 94 51 71 
-0.0525069 0.161927 1.17311 97 54 73 
0.0430797 0.195815 1.39511 78 37 53 
0.195798 0.249523 1.74989 105 53 65 
0.405972 0.21265 1.11754 72 53 72 
0.151002 0.214242 1.08858 79 37 47 
0.419486 0.271656 1.10279 77 55 68 
0.365239 0.297508 1.10029 91 76 97 
-0.324093 -0.303044 1.43537 82 59 75 
0.274143 -0.240599 1.20966 88 63 82 
-0.559586 -0.278469 1.5193 126 103 113 
0.305013 -0.191346 1.19121 136 113 129 
0.205669 -0.170864 1.22614 85 72 92 
-0.270908 -0.177924 1.3314 53 28 32 
0.0219754 0.134577 0.965041 80 39 47 
-0.0885552 -0.0847678 1.25741 50 26 26 
-0.452619 -0.0763722 1.46124 118 103 122 
0.0555888 0.138707 1.13426 121 78 88 
-0.171481 -0.0548815 1.27822 65 34 40 
0.194762 0.131039 1.08332 110 75 82 
0.079915 -0.0235988 1.21683 66 24 36 
-0.351514 0.15211 1.28055 68 38 48 
0.0319353 0.0335388 1.22806 121 70 77 
0.331085 0.0369616 1.16218 85 61 77 
-0.0132236 0.0610093 1.21271 56 16 25 
0.319103 0.0588497 1.16357 62 48 65 
0.0806518 0.062674 1.20753 72 27 32 
0.316142 0.0696976 1.16349 75 61 87 
-0.295503 0.0899225 1.34433 62 25 33 
0.295962 0.109584 1.16728 136 128 151 
0.14511 -0.350186 1.26671 94 63 81 
0.142232 0.268978 1.08594 71 45 54 
0.212764 -0.323414 1.24035 83 63 90 
0.292444 -0.0553582 1.1867 65 44 53 
-0.447952 -0.0677645 1.45793 78 60 82 
0.469784 0.257905 1.08677 73 52 69 
0.187429 -0.121741 1.22743 145 124 143 
-0.056187 -0.238543 1.22225 54 28 41 
-0.146382 -0.195411 1.28369 66 31 38 
-0.0223337 -0.210448 1.2144 75 37 48 
-0.405393 0.171475 1.29917 68 35 46 
0.446715 0.0665457 1.11441 66 44 65 
0.133906 0.589817 4.14665 81 38 55 
-0.202393 -0.228513 1.2801 63 27 39 
-0.409231 -0.202614 1.45633 67 53 68 
0.133332 0.07711 1.1881 65 25 33 
-0.127784 -0.0568707 1.26359 151 125 112 
0.080014 -0.0453484 1.21841 65 30 37 
-0.259298 -0.0138238 1.34058 58 25 32 
0.368584 0.0425973 1.14397 83 62 77 
0.0336596 -0.00356712 1.23132 79 37 41 
-0.0518639 -0.125654 1.24154 64 29 36 
0.378466 -0.0610711 1.15344 68 51 67 
0.14263 0.134422 1.10345 95 54 62 
-0.0759659 -0.143595 1.25372 114 67 73 
0.142754 0.194166 1.36427 89 50 55 
-0.0136236 -0.059369 1.21956 61 24 31 
0.376769 -0.296138 1.17749 68 50 72 
-0.158746 0.0688067 1.26316 67 37 47 
0.378475 0.176114 1.13158 120 116 139 
0.317061 0.279862 1.1425 122 106 119 
0.270207 -0.0752412 1.19478 75 53 66 
0.302066 0.146473 1.15986 75 54 73 
0.384922 -0.23013 1.16421 56 44 58 
-0.165642 -0.222943 1.26156 61 29 34 
0.286284 0.153391 1.16697 58 49 68 
0.010342 0.160801 1.14949 74 34 43 
-0.51259 0.0405275 1.47073 63 58 80 
-0.160171 0.027925 1.27116 73 38 45 
0.277433 -0.327339 1.21694 89 68 87 
-0.0599942 -0.131487 1.24839 58 26 27 
-0.244657 -0.0138428 1.33537 61 28 39 
-0.330524 -0.30906 1.44088 64 43 50 
0.0881576 0.0347393 1.20683 65 29 33 
0.309387 0.267392 1.14509 123 115 136 
0.345147 0.141778 1.14439 57 42 61 
0.435232 -0.10511 1.13377 72 49 67 
-0.0379101 -0.0120136 1.22695 64 28 38 
-0.553491 -0.0214911 1.493 51 39 59 
-0.541951 0.0203011 1.48507 108 93 112 
-0.496933 0.052806 1.46261 91 69 90 
-0.564121 0.158511 1.47517 145 136 189 
-0.420433 0.145777 1.30709 48 31 39 
-0.542905 0.181525 1.46961 53 36 52 
-0.0858267 0.163413 1.18429 86 44 58 
0.339725 -0.349376 1.19594 84 68 95 
0.311334 -0.338153 1.20184 104 71 92 
-0.249538 -0.295564 1.40765 107 93 110 
-0.432772 -0.251259 1.46876 84 59 81 
-0.423339 -0.208016 1.46401 66 55 72 
-0.0711755 -0.190818 1.25475 71 30 36 
-0.388419 -0.175677 1.44554 58 44 59 
-0.3177 -0.159715 1.42015 109 92 111 
0.302469 -0.0056515 1.17737 86 64 87 
0.121757 0.0137523 1.1982 80 40 49 
-0.599175 0.0735337 1.49989 108 99 120 
0.117528 0.0771618 1.19311 77 34 43 
-0.173733 0.148179 1.21755 96 53 73 
0.380329 0.185769 1.12867 65 53 77 
-0.523901 0.244299 1.45636 43 33 44 
-0.474166 0.244086 1.438 47 31 44 
0.201455 -0.369197 1.24957 130 116 141 
0.375919 -0.313299 1.17645 85 60 81 
0.168355 -0.301298 1.25586 84 56 68 
0.376999 -0.279293 1.17293 125 117 138 
-0.35448 -0.237106 1.44136 78 57 66 
-0.0320022 -0.22368 1.21206 64 31 42 
0.200449 -0.228522 1.23607 97 74 100 
-0.406536 -0.163702 1.45071 115 103 115 
-0.443381 -0.157053 1.46534 131 122 141 
-0.549637 -0.152286 1.49914 117 105 129 
-0.368875 -0.0762296 1.43044 77 63 88 
-0.511783 0.0189345 1.47073 116 95 114 
-0.256505 0.0288644 1.31768 124 77 87 
-0.216062 0.0390945 1.31796 54 21 30 
-0.104029 0.0473993 1.22174 68 60 71 
-0.419425 0.0623492 1.43249 111 88 98 
-0.500036 0.134363 1.45708 64 45 64 
-0.53242 0.173388 1.46411 83 61 74 
-0.1416 0.164432 1.20499 105 52 68 
0.0536924 0.163407 1.13359 99 60 79 
0.142505 0.161376 1.10027 98 60 75 
-0.467625 0.216673 1.43496 55 41 56 
-0.496633 0.24226 1.44659 65 51 66 
0.382282 -0.375682 1.18326 65 47 73 
-0.465853 -0.251988 1.48395 64 56 71 
-0.18314 -0.206737 1.27214 76 38 51 
0.444666 -0.233157 1.14606 62 49 67 
0.444477 -0.21271 1.14469 141 122 141 
-0.532099 -0.157329 1.49467 102 88 114 
-0.386968 -0.162502 1.44546 58 45 65 
0.230567 -0.181244 1.21992 137 124 144 
-0.43042 -0.12349 1.45883 61 43 57 
-0.368076 -0.123497 1.43512 57 39 51 
-0.334932 -0.0849845 1.41903 134 105 123 
-0.169477 -0.0430622 1.27831 57 21 33 
-0.525881 -0.0334657 1.48476 42 35 53 
-0.24408 -0.0361557 1.33782 60 28 33 
0.0991969 -0.0214126 1.20763 107 67 75 
0.322287 -0.00701252 1.16996 91 67 81 
-0.260745 0.0707949 1.33406 109 57 61 
-0.564336 0.116222 1.48017 131 126 182 
-0.230112 0.133375 1.26306 81 43 56 
-0.386073 0.149396 1.29409 58 29 31 
0.00191863 0.142482 1.15296 83 46 63 
-0.284382 0.150033 1.25841 92 48 63 
-0.264917 0.224224 0.975438 68 39 44 
-0.329818 -0.256741 1.43475 78 65 95 
-0.185771 0.066305 1.2754 60 22 33 
-0.225953 -0.0966566 1.33378 49 23 32 
0.268325 -0.0961654 1.19802 61 39 52 
-0.188389 -0.0542936 1.28177 55 24 30 
-0.207395 0.249027 0.951564 79 42 59 
0.273454 -0.347209 1.22109 83 65 91 
0.153744 -0.338867 1.26101 84 65 84 
0.0629203 0.0191338 1.19931 145 101 116 
0.065332 -0.0449313 1.22148 60 28 39 
0.443601 -0.0582387 1.12747 42 30 44 
0.378829 0.0334158 1.14391 125 105 117 
0.188625 0.151363 1.08177 103 55 67 
-0.373336 -0.231387 1.44549 132 108 130 
-0.275073 -0.11841 1.32602 78 46 57 
-0.444697 0.13504 1.43687 44 37 53 
-0.392759 -0.0228914 1.32917 88 37 46 
-0.0514076 0.172111 1.17129 92 55 72 
0.448221 -0.280836 1.14937 71 60 77 
-0.268818 0.204732 0.978688 74 38 52 
0.397878 -0.229079 1.16241 134 107 122 
0.177872 -0.176434 1.24064 87 60 77 
-0.105007 -0.154165 1.26695 54 21 28 
-0.120326 -0.15014 1.27107 64 29 36 
0.0193297 0.15704 1.14615 76 36 44 
0.378782 0.152967 1.13401 122 107 126 
0.461738 0.181127 1.09934 83 60 76 
0.406389 0.187753 1.11801 138 120 134 
-0.131889 -0.131517 1.27183 117 67 76 
0.321669 -0.102966 1.18013 72 54 68 
0.235202 -0.135021 1.21423 75 51 65 
0.340365 0.0719285 1.15291 143 122 141 
0.000490893 0.161066 1.1529 77 43 59 
0.312408 -0.373853 1.21047 65 50 73 
0.126075 -0.385841 1.27781 67 44 70 
-0.24537 -0.406738 1.41673 124 109 132 
0.304462 -0.343811 1.20853 97 75 96 
-0.318515 -0.385198 1.44381 82 65 84 
-0.531685 -0.391957 1.52337 86 61 82 
0.177601 -0.265131 1.24618 69 49 74 
-0.386475 -0.283247 1.45739 95 72 92 
-0.563491 -0.24805 1.51652 74 50 64 
-0.444996 -0.121472 1.46373 129 108 123 
-0.105931 -0.0541807 1.24809 211 200 180 
-0.077396 -0.0153823 1.23967 149 126 108 
-0.0903762 0.00747777 1.25167 125 103 80 
-0.333965 0.057898 1.36177 71 25 28 
-0.0728749 0.0523139 1.21509 184 171 165 
-0.0369445 0.0617085 1.22196 60 18 30 
-0.668458 0.247407 1.50181 51 48 69 
-0.673554 0.281162 1.50217 53 49 66 
0.279506 0.230522 1.16135 78 67 97 
-0.570302 0.331532 1.23769 107 119 109 
0.164973 -0.352414 1.26158 100 70 94 
0.272532 -0.337477 1.22248 70 47 67 
-0.349372 -0.397841 1.45708 107 85 98 
-0.345574 -0.389538 1.45166 80 56 80 
-0.424372 -0.394764 1.48273 65 47 59 
0.191213 -0.321931 1.25022 81 61 86 
0.145169 -0.320164 1.26134 75 58 77 
-0.684234 -0.389584 1.57262 119 122 157 
-0.503259 -0.332726 1.50475 62 50 70 
-0.502121 -0.319929 1.50326 77 59 81 
-0.361105 -0.305121 1.45049 75 53 65 
-0.390055 -0.254912 1.45969 76 53 69 
-0.573073 -0.206739 1.51445 138 126 140 
-0.647369 -0.197891 1.54267 99 75 99 
-0.123149 -0.0858156 1.27259 49 23 22 
-0.000943553 -0.0495738 1.21774 57 22 28 
-0.0954687 -0.0482632 1.25711 133 107 80 
-0.0860793 -0.0421557 1.25565 179 162 134 
0.305129 -0.0324276 1.17602 129 107 120 
-0.0828168 -0.0243746 1.24723 197 183 156 
-0.690773 -0.0294967 1.54039 64 76 114 
-0.0291746 0.0269714 1.22386 71 29 41 
-0.231105 0.0316644 1.3272 69 27 37 
-0.0858344 0.0529453 1.21134 77 63 76 
0.300735 0.129993 1.16297 74 59 80 
0.27512 0.161123 1.16815 51 38 56 
-0.694992 0.219793 1.51524 113 135 176 
-0.695618 0.251897 1.51219 136 147 177 
-0.256834 0.234465 0.973692 69 38 53 
-0.0293944 0.228548 0.925241 113 62 81 
-0.275271 0.309249 0.955004 118 119 139 
0.246687 -0.376256 1.23463 128 111 130 
0.0670644 -0.367132 1.29828 96 58 81 
0.185616 -0.342561 1.24853 99 72 91 
0.254588 -0.320148 1.22306 77 63 89 
-0.443661 -0.339974 1.48324 72 50 73 
-0.687714 -0.347334 1.57331 96 103 145 
-0.572393 -0.286048 1.5213 128 108 119 
0.315685 -0.185377 1.19112 92 60 73 
0.27893 -0.0588425 1.19082 78 52 65 
0.433325 -0.0489906 1.13121 136 119 135 
0.250726 -0.00797069 1.19865 55 40 59 
0.0855836 0.00438694 1.20984 92 42 51 
-0.0143192 0.00660582 1.21892 73 26 36 
-0.0826022 0.0342514 1.22177 174 157 147 
-0.118419 0.047844 1.2228 56 52 66 
0.391468 0.0582442 1.13317 135 118 136 
-0.0481794 0.0689188 1.22187 58 26 31 
0.0550439 0.0756595 1.21887 67 30 38 
0.0258603 0.112394 0.827637 111 61 73 
-0.702195 0.294237 1.5073 100 122 159 
-0.0166321 0.199235 0.93401 96 53 73 
-0.696892 0.346565 1.47416 116 134 148 
-0.0243284 0.251364 0.925277 114 61 77 
-0.211408 0.304893 0.912141 137 171 242 
-0.317181 -0.396901 1.44117 76 59 77 
-0.0402576 0.232862 0.917783 134 87 103 
0.12577 0.24918 1.09512 115 70 77 
0.354229 -0.184421 1.17393 124 107 125 
-0.580391 -0.231594 1.52133 52 39 56 
0.275244 0.184637 1.16634 66 48 64 
0.438483 -0.140156 1.13645 59 42 58 
-0.0592314 -0.138888 1.25706 54 23 29 
-0.57773 0.154797 1.48143 42 44 67 
-0.66592 0.0752228 1.5246 85 72 98 
-0.0864312 0.248909 0.907167 81 48 65 
-0.235174 0.0430515 1.32627 58 23 27 
-0.145622 0.230751 0.930295 76 45 61 
-0.17781 0.231005 0.943774 104 57 75 
0.115744 -0.325467 1.27525 103 74 94 
-0.0287458 -0.046574 1.22909 59 27 38 
-0.585152 -0.198949 1.52876 48 36 58 
0.164064 -0.228816 1.24833 91 61 73 
0.286933 0.221476 1.16036 129 124 144 
0.1525 0.267528 1.08611 82 35 51 
0.270952 0.255633 1.16356 96 83 101 
0.290225 0.270644 1.15456 55 46 67 
-0.687232 0.334465 1.48166 119 109 120 
-0.288611 -0.222632 1.31409 85 35 44 
-0.585073 -0.24376 1.52168 76 62 79 
-0.00878327 -0.190146 1.21343 86 38 52 
-0.116317 0.0563869 1.20177 130 118 94 
-0.0788045 0.00160325 1.25427 87 66 47 
-0.114064 0.0390229 1.21681 145 135 143 
-0.616597 -0.0676328 1.5144 123 109 134 
-0.476983 -0.253699 1.48723 58 46 66 
0.183476 -0.371183 1.26108 74 55 75 
0.00222039 -0.221535 1.22189 111 69 79 
-0.225132 0.232591 0.958731 73 39 53 
-0.229001 0.305544 0.895385 43 39 66 
-0.696532 0.317255 1.5087 63 71 94 
-0.081197 0.00849864 1.26243 71 44 33 
-0.00258409 -0.178549 1.21634 63 27 31 
0.359272 -0.32819 1.18635 49 46 55 
-0.584634 -0.232419 1.53071 61 52 69 
-0.0302164 -0.0594263 1.22374 66 27 32 
0.350523 0.257443 1.12711 127 106 121 
0.440162 -0.326095 1.15166 57 45 67 
0.154832 0.249825 1.75774 87 40 50 
-0.0711355 0.274157 0.889437 145 94 109 
0.354054 -0.0898306 1.16218 68 55 72 
-0.14449 -0.123104 1.27945 71 31 39 
0.194608 0.12969 1.09428 88 46 58 
-0.0849353 0.0208075 1.25672 188 178 151 
-0.407577 0.144915 1.29699 47 31 34 
-0.51454 -0.15247 1.49564 119 107 131 
0.117449 0.230057 1.1043 108 63 70 
-0.410792 -0.204907 1.46586 56 40 51 
-0.0788248 0.0482715 1.22367 113 98 93 
-0.124995 0.0313217 1.22458 143 123 114 
-0.0528998 -0.234046 1.2144 59 36 42 
-0.103741 -0.0757491 1.25777 57 27 27 
-0.126366 -0.140729 1.27264 54 23 28 
-0.167721 -0.220147 1.27345 99 57 69 
0.138475 0.122515 1.13066 83 52 57 
-0.0504186 0.201493 0.916632 86 53 74 
0.244036 -0.387462 1.2359 100 74 99 
-0.4702 -0.370297 1.49751 76 58 72 
-0.415727 -0.35079 1.47437 94 73 90 
0.367073 -0.31582 1.17978 102 72 98 
-0.460051 -0.301499 1.48591 98 92 106 
0.295342 -0.280389 1.20544 120 118 132 
-0.372117 -0.217671 1.44401 84 62 83 
-0.490173 -0.157671 1.47999 126 102 126 
-0.112494 -0.043506 1.24303 203 195 176 
-0.112963 -0.0285256 1.23757 218 207 187 
-0.115072 0.0395706 1.19862 182 177 174 
-0.619086 0.107277 1.49817 109 98 115 
-0.556987 0.182252 1.46921 105 98 114 
0.461503 0.264689 1.0898 116 118 143 
0.480468 0.331445 1.04693 108 119 137 
0.339898 -0.371233 1.19905 127 119 143 
-0.578892 -0.3346 1.53168 125 106 125 
0.31105 -0.271022 1.19503 89 66 86 
0.0351231 -0.239425 1.21901 51 25 36 
-0.589666 -0.207582 1.52233 117 114 133 
-0.615759 -0.111284 1.51953 73 63 88 
-0.623887 -0.0417777 1.51931 76 54 75 
0.323399 0.0769752 1.15666 151 131 143 
0.143436 0.252228 1.08995 95 49 62 
-0.0420228 0.221618 0.920014 112 67 88 
-0.324922 0.275499 0.978397 115 75 99 
0.162739 -0.369192 1.26202 102 82 109 
-0.329934 -0.276721 1.43401 68 52 78 
-0.45013 -0.253644 1.476 75 58 76 
-0.422537 -0.251592 1.46629 79 56 72 
-0.367762 -0.186735 1.43858 97 69 83 
0.156731 -0.176099 1.24908 69 52 71 
-0.239446 -0.09033 1.33972 71 35 45 
-0.096313 -0.0617006 1.25086 187 176 154 
0.367926 -0.168847 3.34862 75 33 43 
-0.235873 -0.0146773 1.32867 70 30 39 
0.351478 -0.0375555 3.37586 60 25 32 
-0.494689 0.104819 1.45856 65 52 72 
0.28387 0.122722 1.17155 92 67 88 
-0.19274 0.144556 1.22718 75 43 58 
0.124387 0.166951 1.10686 92 55 72 
-0.283513 0.201864 0.983441 68 34 48 
0.342181 0.271568 1.13159 93 73 98 
-0.252749 0.251626 0.967116 86 44 56 
-0.205159 0.305036 0.895838 66 45 114 
-0.00404157 0.0607343 1.20883 73 27 37 
0.357873 -0.0585967 1.15996 113 102 116 
-0.000528971 -0.0111448 1.21246 69 32 40 
-0.210244 -0.328578 1.26531 92 46 59 
-0.0104591 0.0269121 1.21664 87 41 52 
-0.287957 0.0429185 1.34635 112 61 66 
-0.297325 0.234341 0.9866 79 41 56 
-0.04909 0.21214 0.918186 99 52 72 
0.316567 0.193088 1.15385 118 112 138 
-0.573806 0.13474 1.48062 84 76 113 
0.205998 -0.257048 1.23595 122 104 120 
-0.418573 0.168234 1.30323 50 25 28 
0.306535 0.110354 1.16703 125 120 140 
-0.117818 0.146038 1.19865 104 56 70 
-0.258042 -0.0359869 1.34266 64 28 32 
-0.180409 -0.0120461 1.28156 79 36 43 
-0.0383882 -0.209659 1.21713 87 47 58 
0.00535202 0.256191 1.82132 77 43 60 
0.0228445 0.121524 1.18532 104 54 65 
-0.448366 -0.0424593 1.45261 52 41 58 
-0.023422 -0.0155148 1.21826 83 40 47 
-0.172562 0.0114071 1.27556 63 26 33 
0.0526446 0.0262525 1.21942 75 32 39 
-0.190159 0.341806 0.983413 189 180 243 
-0.298576 -0.333323 1.4305 62 36 47 
0.0830961 -0.227054 1.17906 141 91 103 
-0.201433 -0.033132 0.800564 56 27 31 
0.122602 0.0538192 1.19031 75 34 42 
0.376303 0.0422481 1.15127 75 58 77 
-0.209676 0.00700446 0.801254 68 25 34 
-0.203782 -0.246523 1.28573 116 64 76 
0.282076 -0.23512 1.20537 130 107 123 
0.283689 0.0319496 1.1795 92 71 86 
-0.484811 -0.116368 1.47687 127 105 126 
-0.125793 0.0604475 1.23871 29 24 20 
-0.385446 -0.302761 1.45317 79 66 76 
0.0928476 0.0256487 1.20524 69 30 35 
-0.128367 -0.18806 1.2626 66 36 44 
0.382779 0.268665 1.11634 65 53 73 
1.06159 0.489408 3.75944 73 44 48 
-0.591966 -0.158114 1.50695 116 102 119 
-0.044247 -0.191442 1.20817 150 96 109 
-0.174514 -0.189469 1.26014 133 80 96 
-0.078892 0.0629208 1.21146 133 120 137 
0.178964 -0.0325596 1.13198 71 31 39 
0.0725031 0.00335708 1.21215 152 95 110 
0.297577 -0.0151588 1.17335 141 122 141 
0.322734 0.190196 1.14644 133 130 159 
-0.0509837 -0.230375 1.22534 106 63 70 
0.494837 -0.290252 1.13056 148 124 140 
-0.227625 0.289213 0.857342 155 170 229 
0.190508 0.0849378 1.13639 91 53 68 
0.0166189 0.0308318 1.54196 63 21 33 
0.458149 -0.377935 1.1543 68 54 79 
0.440296 -0.258416 1.14642 93 66 81 
-0.551832 -0.258911 1.5156 62 49 69 
0.394683 0.201717 1.1197 132 115 131 
-0.455085 -0.0100285 1.45199 73 58 81 
0.35446 -0.000277362 1.15507 73 48 69 
-0.049741 -0.197703 1.24731 65 30 36 
0.468287 -0.062228 1.11821 72 53 75 
1.49746 -0.199955 3.80818 69 45 59 
0.120242 -0.0748453 1.78513 56 23 30 
0.481677 0.073766 1.09944 106 74 89 
-0.179616 0.132082 1.23603 90 49 67 
-0.606675 0.245571 1.4843 121 110 127 
0.352935 0.2721 1.12793 65 57 81 
0.357775 0.20303 1.13449 151 130 147 
-0.15044 0.249776 0.930304 106 55 70 
-0.229106 -0.231377 1.31558 40 20 29 
0.499014 0.306318 1.04473 158 163 229 
-0.304147 -0.277225 1.42522 93 64 82 
-0.400928 -0.241351 1.45749 83 72 88 
0.504585 -0.186699 1.11824 85 71 97 
-0.384146 0.334663 1.24338 75 77 92 
-0.24927 -0.306762 1.41004 108 93 116 
-0.00316197 -0.240998 1.19985 138 90 106 
-0.0797314 -0.0336625 1.24989 209 195 168 
-0.128483 0.0518002 1.22003 125 108 90 
-0.50377 0.110265 1.45762 100 92 105 
0.402695 0.257324 1.10976 110 86 108 
0.151503 -0.329285 1.26351 81 56 75 
-0.460274 0.0263766 1.45694 51 39 53 
0.0545737 0.0134426 1.22 86 36 47 
-0.313981 0.0193127 0.835891 60 20 29 
0.164823 0.0947394 1.14321 144 100 117 
0.15201 0.104497 1.13392 137 89 103 
0.404613 0.15682 1.11737 100 69 84 
0.326368 0.200112 1.1433 129 115 132 
0.432343 -0.360898 1.16359 140 118 131 
-0.17459 -0.228283 1.26228 65 32 41 
0.234994 -0.0974409 1.21202 127 119 140 
-0.1312 -0.027262 1.26592 140 117 99 
0.174866 -0.0351187 1.12257 140 90 102 
-0.118191 -0.0194744 1.23605 154 138 113 
0.339166 -0.00894207 1.16487 86 65 84 
0.0605163 0.00749291 1.21385 90 48 62 
-0.290147 0.0188141 0.829204 64 22 32 
0.169404 0.0654314 1.14906 103 64 83 
0.279252 0.0772243 1.18049 92 72 99 
0.448146 0.14589 1.10404 126 100 113 
-0.433744 0.191226 1.31048 73 46 55 
-0.138931 0.244306 0.92556 107 58 79 
-0.269074 0.253889 0.975683 86 42 57 
-0.357194 0.276473 1.04331 73 43 55 
0.00640064 -0.31936 1.18416 111 68 75 
-0.294327 -0.215555 1.3099 136 77 83 
-0.540562 0.143891 1.48023 50 37 57 
0.326946 -0.378486 1.22155 66 55 72 
0.470143 0.303226 1.05776 15 17 56 
0.188781 0.25509 1.06991 85 44 52 
-0.0301656 -0.192978 1.20921 157 104 122 
0.0422394 0.163588 0.956292 158 123 145 
-0.0896472 -0.0917387 1.24928 59 28 26 
-0.306158 0.00939078 0.833595 57 20 27 
-0.121598 0.0363314 1.23386 86 76 74 
0.16811 0.086296 1.14842 137 90 106 
0.47941 0.299535 1.04617 25 20 60 
-0.0646582 0.0489319 1.22021 103 75 63 
-0.010968 0.0853054 1.20979 66 30 42 
-0.1483 0.0609751 1.25954 116 95 112 
0.987034 0.0105529 3.44772 60 25 32 
0.375342 -0.230745 1.16139 68 50 64 
0.0668601 -0.0747463 1.20971 141 89 102 
0.505117 -0.421032 1.14026 79 68 102 
-0.281763 -0.256195 1.41435 70 45 67 
-0.0745381 -0.10675 1.26444 127 107 108 
-0.120583 -0.0361436 1.2413 151 130 113 
-0.419108 -0.00975943 1.44426 62 49 69 
0.386942 -0.309134 1.1732 106 83 109 
-0.383878 -0.192927 1.4468 134 116 132 
-0.407688 -0.189902 1.45529 72 58 75 
0.184296 -0.205723 1.24025 114 84 108 
-0.372342 -0.159305 1.43998 128 114 137 
-0.467725 -0.119211 1.46963 100 70 94 
-0.335974 -0.118088 1.42374 130 112 126 
-0.0946136 -0.103737 1.25012 132 100 103 
-0.119168 0.0284801 1.21696 182 175 159 
0.000671104 0.0900854 1.20625 100 52 68 
-0.104066 0.220918 0.916567 81 48 65 
-0.424688 -0.229378 1.46449 131 118 136 
-0.180726 -0.231416 1.26925 90 47 66 
0.326971 -0.27855 1.19839 134 116 132 
-0.338424 -0.200626 1.43186 76 50 63 
-0.0473914 -0.18064 1.22642 118 74 87 
-0.246694 -0.122194 1.3374 69 35 49 
-0.339459 -0.0963435 1.42034 76 52 74 
-0.43143 -0.0600226 1.45137 104 74 86 
-0.302446 -0.0524244 1.35036 70 36 52 
-0.169682 0.0307734 1.27278 66 26 37 
0.401405 0.0571793 1.13474 155 135 147 
0.0632994 0.0870946 1.21414 92 49 69 
-0.176241 0.122635 1.24088 127 68 88 
0.110397 0.140973 1.11165 120 98 111 
0.415528 0.183231 1.11347 124 110 123 
-0.163809 0.255153 0.935055 100 66 90 
-0.367654 0.337241 1.24749 125 130 159 
-0.122776 0.0278116 1.25175 145 134 132 
-0.0985576 -0.0928755 1.25886 144 120 110 
-0.590947 -0.193538 1.51934 69 60 87 
-0.482953 0.205693 1.44566 58 53 73 
-0.463739 -0.137318 1.47264 64 52 76 
-0.315587 0.239587 0.992821 97 50 68 
0.0425435 -0.255177 1.21557 77 46 61 
-0.255966 -0.0572864 1.33472 66 27 32 
-0.111278 -0.0545759 1.25825 97 70 75 
-0.40993 -0.00328535 1.43745 46 33 50 
0.286021 0.021607 1.18002 76 49 64 
0.376865 -0.00394888 1.14997 126 107 126 
-0.042005 -0.221088 1.21441 73 37 49 
0.335776 -0.328658 1.18959 117 104 122 
0.480543 0.329204 1.05886 28 22 82 
0.439218 0.106031 1.12075 67 54 74 
-0.136325 0.059812 1.23158 70 52 48 
-0.102033 0.0378011 1.22542 214 213 219 
0.495568 0.306037 1.05942 20 31 51 
0.466633 0.311354 1.05072 184 201 255 
-0.159516 -0.00995951 1.27831 53 23 31 
0.161913 -0.443568 1.27183 81 56 85 
0.277084 -0.413793 1.22303 83 63 88 
0.0646936 -0.459241 1.30818 82 67 90 
0.240623 -0.407837 1.2383 76 52 76 
-0.0264134 -0.408249 1.23595 91 36 55 
0.579232 -0.313841 1.21793 45 57 97 
-0.681627 -0.51315 1.58419 90 97 139 
-0.575316 -0.463182 1.54434 70 47 67 
-0.423207 -0.422924 1.48547 130 113 131 
0.581634 -0.205799 1.20718 126 145 178 
-0.797402 -0.351521 1.58451 99 134 174 
-0.68388 -0.302011 1.56844 92 77 108 
-0.0471779 -0.108048 1.23763 58 18 26 
-0.775502 -0.134674 1.57429 54 55 99 
-0.087835 -0.0438239 1.27705 201 187 158 
-0.778975 0.128585 1.54895 48 50 89 
-0.782092 0.159493 1.54612 40 45 83 
-0.781931 0.181427 1.54414 34 53 95 
0.233555 -0.412545 1.24408 122 103 125 
0.0956688 -0.444127 1.29979 140 117 143 
0.10061 -0.435343 1.29375 91 67 91 
-0.253738 -0.496795 1.42853 138 125 145 
-0.243937 -0.47123 1.42311 122 110 134 
-0.545814 -0.524521 1.53885 86 73 93 
0.00452197 -0.373192 1.22855 148 94 107 
-0.416253 -0.476822 1.48524 85 64 83 
-0.0110676 -0.36976 1.24305 96 44 56 
-0.505913 -0.490261 1.51994 69 57 81 
-0.636017 -0.476769 1.56747 131 124 142 
-0.782629 0.0431297 1.55878 49 72 113 
-0.787715 0.122718 1.55097 88 93 122 
-0.778628 0.297553 1.5325 31 28 59 
-0.805982 0.303292 1.52196 90 116 139 
-0.788247 0.308578 1.53408 32 33 53 
-0.663272 0.322815 1.48853 98 83 106 
-0.705742 0.345927 1.48636 36 42 64 
-0.641461 0.339616 1.34283 108 118 117 
0.20122 -0.425786 1.25231 68 53 74 
0.0797969 -0.445714 1.2998 95 67 89 
0.160101 -0.411719 1.26603 99 66 87 
0.113491 -0.40999 1.28547 84 66 90 
0.0193176 -0.429382 1.31828 110 82 105 
0.137188 -0.394883 1.27041 111 80 98 
0.423956 -0.329961 1.16239 38 30 45 
0.023476 -0.417541 1.31992 93 61 84 
-0.297595 -0.4746 1.44262 74 62 84 
-0.472904 -0.43152 1.50287 76 55 74 
-0.334763 -0.397986 1.44699 50 34 47 
0.157655 -0.206906 1.24917 112 74 89 
-0.776714 -0.303599 1.5906 34 40 90 
0.597521 -0.0371683 1.20619 88 94 146 
0.487413 0.0254181 1.10115 130 113 132 
-0.107909 0.046496 1.19042 83 80 91 
0.0903319 0.131972 1.12325 97 53 70 
0.270303 0.244803 1.1593 87 73 96 
-0.664801 0.32932 1.47979 86 78 101 
-0.778973 0.33811 1.51746 117 100 118 
0.261283 0.303887 1.13617 65 58 76 
0.194094 -0.413047 1.25519 67 48 67 
-0.57736 -0.512431 1.54737 82 61 78 
-0.708041 0.34544 1.46476 160 185 225 
0.577071 0.24536 1.15478 82 106 130 
-0.793446 0.282432 1.5369 38 35 52 
0.100048 -0.319655 1.27875 80 62 88 
-0.679935 -0.431514 1.57278 77 81 116 
0.0642758 -0.105565 1.2264 64 33 41 
0.129718 -0.407345 1.27885 67 49 71 
0.044067 -0.412416 1.31161 135 107 121 
-0.277732 -0.469311 1.43313 84 64 89 
-0.666676 -0.275733 1.55237 87 69 93 
0.0862116 -0.187031 1.20096 65 26 29 
-0.361833 0.100376 1.33706 140 93 109 
-0.549677 -0.311613 1.52085 81 59 72 
0.10701 -0.384223 1.28502 91 64 83 
0.111987 0.237821 1.10038 105 65 73 
-0.0738344 -0.340018 1.236 64 33 41 
-0.554586 0.15789 1.47852 136 157 212 
-0.62339 -0.421116 1.54885 70 62 86 
-0.0561765 0.0642603 1.21367 49 28 35 
0.157882 -0.0921298 1.235 79 48 63 
-0.187443 0.0303983 1.28066 77 37 48 
0.181244 -0.417084 1.26519 123 106 124 
0.28616 0.181615 1.16259 75 61 78 
0.18642 -0.305594 1.24837 89 62 69 
0.176456 -0.405183 1.25836 145 130 151 
0.303334 -0.369623 1.20534 89 70 89 
-0.507539 -0.462867 1.5125 81 70 86 
0.581777 0.223526 1.15499 102 121 164 
-0.788677 0.0820872 1.55801 43 49 73 
-0.165884 -0.23289 1.26692 52 22 34 
-0.551429 -0.0308279 1.48569 54 43 60 
-0.102319 -0.0155622 1.25603 117 109 107 
0.303922 0.274612 1.15097 67 49 61 
0.0994754 0.28722 1.08938 139 106 125 
-0.78961 0.168496 1.55079 96 109 143 
-0.574041 -0.347711 1.52997 53 40 57 
-0.320113 -0.400496 1.45052 76 59 75 
0.303421 -0.195634 1.19987 59 41 55 
-0.00573968 -0.207992 1.21293 69 29 37 
0.0856316 0.284151 1.09574 148 103 126 
0.0191675 0.220268 0.946817 123 67 80 
0.0901764 -0.309675 1.27359 41 21 23 
-0.00278065 0.236515 0.938369 106 57 76 
-0.694287 0.297801 1.50066 135 153 189 
0.577415 0.235374 1.15172 93 117 155 
-0.0149331 -0.192689 1.20075 150 96 112 
-0.77901 -0.303964 1.59259 36 49 94 
0.571697 0.235277 1.16752 90 107 135 
0.578058 0.222398 1.16504 98 116 152 
-0.164551 -0.172918 1.27416 60 28 29 
0.026727 -0.0894961 1.2392 32 16 17 
-0.788374 0.156028 1.54861 91 97 131 
-0.0918134 0.0172734 1.25015 190 180 145 
0.0945169 0.193902 1.3724 90 43 59 
0.467016 0.0245766 1.10897 135 112 130 
-0.568901 -0.0120609 1.49703 66 55 72 
0.0716223 0.131177 0.954852 67 31 43 
-0.00161835 0.21878 1.77336 83 50 61 
-0.0135555 -0.0488051 1.21807 60 30 40 
0.441521 -0.316267 1.14889 90 74 100 
0.183955 -0.35468 1.25245 98 76 97 
0.122286 -0.333782 1.27282 112 74 97 
-0.381349 0.0916461 1.34648 69 37 50 
0.00453106 0.12965 1.03226 138 91 107 
0.0960038 0.180661 1.27404 78 39 44 
0.0532334 0.145289 1.0383 85 41 54 
-0.100518 -0.499444 1.35139 214 202 190 
-0.0639504 -0.489239 1.33604 17 43 58 
-0.0894835 -0.490885 1.34763 65 81 78 
-0.108144 -0.495833 1.35698 59 34 40 
-0.0783855 -0.487528 1.34229 24 38 47 
-0.0293335 -0.480137 1.34345 117 101 127 
-0.0723954 -0.474668 1.34063 147 138 123 
-0.20597 -0.501107 1.40971 63 46 62 
-0.0754827 -0.422128 1.26235 112 58 72 
-1.00327 -0.617468 1.60936 107 107 161 
-0.527655 -0.467928 1.52593 93 76 92 
-0.00481015 -0.229352 1.2012 78 36 48 
0.580524 -0.0658863 1.19459 161 186 226 
0.561838 0.279017 1.13467 30 27 54 
-0.182644 0.304144 0.901306 152 184 245 
-0.774958 -0.627962 1.61839 47 61 106 
-0.405112 -0.532988 1.49383 81 60 79 
-0.511202 -0.518811 1.52358 80 54 67 
-0.0384038 -0.380209 1.24788 86 40 53 
-0.0233661 -0.369869 1.24739 94 46 58 
0.0945203 -0.362959 1.28518 84 59 80 
0.336942 -0.293146 1.18864 76 57 79 
-0.45397 -0.157673 1.47133 64 41 57 
-0.304555 0.0577005 1.34295 93 45 57 
-0.22847 0.167229 1.23627 96 51 71 
0.162253 -0.433816 1.26756 99 81 107 
-0.423358 -0.531655 1.49488 78 57 72 
-0.0575661 -0.389545 1.2595 89 41 57 
0.022917 -0.363017 1.22854 127 71 80 
-0.949855 -0.522057 1.6231 162 166 213 
0.0957073 -0.331608 1.281 85 69 96 
0.136435 -0.226803 1.23671 111 64 82 
-0.174149 -0.206567 1.26638 66 34 45 
-0.674119 -0.278457 1.56504 89 71 93 
-0.580176 -0.24975 1.53073 60 47 64 
0.289357 -0.0260728 1.18383 81 60 77 
-0.0917455 -0.0240182 1.254 46 23 17 
0.406295 0.0415016 1.13089 102 78 100 
-0.0612649 0.0469452 1.20959 179 172 164 
-0.173613 0.0497434 1.27205 71 31 40 
0.61015 0.0827235 1.19175 159 173 210 
-0.334689 0.166491 1.27404 79 44 50 
0.0750954 0.228502 1.07277 76 39 56 
-0.313204 0.253122 0.988884 80 47 66 
-0.170006 0.3049 0.900931 98 104 126 
-0.806661 0.320525 1.52084 79 81 104 
-0.298004 -0.510121 1.4285 60 56 83 
-0.18042 -0.396486 1.2906 74 32 42 
-0.631449 -0.425373 1.56323 68 56 78 
-0.689311 -0.390315 1.58329 79 77 116 
-0.0913215 0.0391169 1.21473 196 192 180 
-0.553339 -0.283864 1.51118 63 50 60 
-0.0730098 -0.025228 1.24952 164 149 126 
-0.629705 -0.154835 1.53628 115 102 119 
-0.0138373 0.251832 0.928689 95 51 66 
-0.284739 -0.00860903 1.35225 93 46 54 
-0.0136002 -0.209985 1.20785 78 38 47 
-0.467892 -0.391227 1.49616 75 55 66 
-0.620387 0.18149 1.4933 128 119 146 
-0.302414 -0.497328 1.44733 74 59 80 
-0.354023 0.144693 1.29107 83 50 61 
-0.13489 0.220228 0.925876 80 47 64 
0.562861 0.297998 1.11488 137 135 149 
0.561326 -0.355203 1.21891 96 105 134 
-0.991837 -0.560625 1.59887 177 196 238 
-0.10852 0.014932 1.24315 99 86 93 
-0.0677373 -0.142296 1.24652 52 20 21 
-0.317756 -0.304191 1.42678 129 105 118 
0.0044934 -0.448378 1.32054 88 64 86 
-0.114169 -0.372246 1.23114 75 44 52 
-0.707213 0.342797 1.45323 149 165 198 
-0.553043 0.131974 1.479 17 29 77 
-0.0565081 0.0504819 1.24038 49 37 39 
-0.178107 -0.409279 1.29384 57 33 46 
0.573436 0.273817 1.16439 87 94 123 
-0.800235 0.311582 1.50709 126 129 160 
-0.30443 0.147464 1.26924 96 53 60 
0.57399 -0.253016 1.20561 91 107 133 
-0.689335 -0.436577 1.59073 101 92 119 
-0.241578 -0.322141 1.28055 65 30 34 
0.0111872 -0.239162 1.22695 58 29 34 
-0.0400903 -0.0127032 1.23639 71 26 31 
0.553893 -0.133333 1.18809 104 120 154 
0.182968 -0.0413476 1.12137 167 119 133 
0.0896764 0.011835 1.20102 134 80 94 
-0.10872 -0.350833 1.24513 124 80 103 
-0.731504 0.342424 1.44658 113 125 137 
-0.814095 0.32211 1.52877 86 87 108 
-0.785209 -0.344181 1.59811 59 65 89 
-0.804976 -0.350709 1.6017 38 49 71 
0.587278 -0.270152 1.21549 62 63 107 
-0.941178 -0.525642 1.61566 114 116 165 
0.595614 -0.27929 1.22473 145 168 202 
0.5912 -0.342068 1.22282 120 138 178 
0.54529 -0.201906 1.19096 34 22 34 
-0.203988 0.238769 1.94186 134 83 100 
0.309796 0.142653 1.16017 76 58 72 
0.237418 -0.0539764 1.20227 75 46 66 
-0.299154 -0.514885 1.44137 125 112 132 
0.388161 0.0366122 1.14348 54 38 49 
-0.556112 0.124441 1.48607 157 176 244 
-0.0701854 0.0653812 1.22448 94 76 90 
0.589478 -0.317726 1.21871 108 117 148 
-0.955983 -0.514084 1.62061 101 113 163 
-0.378876 -0.0298688 1.34488 138 87 102 
-0.790779 0.341992 1.53624 119 106 124 
-0.290152 -0.214299 1.3222 69 29 30 
-0.00446647 -0.166933 1.21533 28 14 14 
-0.042989 0.0638645 1.24542 122 71 78 
-0.130498 -0.140667 1.28119 54 25 30 
-0.316482 0.142477 1.26186 79 44 51 
0.336935 0.104884 1.15122 60 46 59 
0.188031 0.00852094 1.14098 52 29 37 
0.200922 -0.435352 1.25447 124 106 130 
-0.223766 -0.476635 1.41774 123 102 117 
-0.260334 -0.474537 1.43197 88 74 99 
-0.0881394 -0.0105959 1.2536 165 149 124 
0.131905 0.0955443 0.809146 86 48 59 
0.0822537 0.134599 0.952729 74 38 50 
-0.0299095 0.175191 1.41039 134 83 100 
-0.0377181 0.0632207 1.23157 122 71 78 
0.417447 0.10149 1.12149 81 57 70 
-0.417976 0.373014 3.04231 71 41 51 
0.072302 0.181279 1.28744 106 56 67 
0.0993222 0.105389 0.897136 86 48 59 
0.0651386 0.145253 1.0332 85 42 52 
0.0584668 0.175758 1.24553 103 53 62 
-0.301992 0.155895 1.37444 83 42 58 
-0.0611322 -0.554033 1.3427 57 37 49 
-0.0713304 -0.549862 1.34673 94 89 129 
0.091305 -0.501004 1.30241 71 43 65 
-0.765872 -0.775033 1.62976 45 47 98 
-0.0476345 -0.534014 1.33364 78 67 65 
-0.0829628 -0.544817 1.34976 75 50 45 
0.133086 -0.476715 1.28456 130 111 130 
-0.988613 -0.803748 1.62044 127 129 186 
-0.0530758 -0.52319 1.33769 105 97 110 
-0.0917867 -0.532275 1.35365 152 149 134 
0.212976 -0.434372 1.24999 95 66 84 
-0.0384372 -0.506694 1.33217 84 64 55 
-0.10026 -0.520073 1.358 150 144 144 
-0.0911112 -0.51544 1.35415 145 146 177 
-0.0827333 -0.511947 1.34839 150 147 174 
-0.308913 -0.588544 1.46025 71 52 74 
-0.0569465 -0.502401 1.3391 79 68 62 
-0.0465255 -0.49658 1.32905 173 168 148 
-0.054371 -0.493147 1.33478 121 107 96 
-0.0872573 -0.482262 1.34886 90 84 70 
-0.446688 -0.593073 1.51153 104 87 105 
-1.04795 -0.625076 1.51931 137 144 198 
-1.05265 -0.573542 1.51711 141 152 208 
-1.03958 -0.565534 1.52929 106 123 177 
-0.995936 -0.554093 1.60578 157 163 199 
-0.648932 -0.152575 1.53349 69 51 65 
-0.909869 0.331135 1.38482 87 110 104 
0.177767 -0.47841 1.26975 81 62 82 
-0.0438987 -0.545908 1.3374 95 42 50 
0.292943 -0.438068 1.22278 160 149 179 
-0.00519653 -0.529464 1.34463 71 55 81 
-0.210447 -0.584646 1.42159 59 45 62 
-0.989583 -0.791609 1.62527 171 180 223 
-0.0765114 -0.525671 1.34865 152 130 116 
-0.0617427 -0.511893 1.33894 119 137 183 
0.0165196 -0.480303 1.32844 58 41 59 
-1.01701 -0.736645 1.5861 123 146 196 
0.00113948 -0.365865 1.24042 71 33 46 
-0.297462 0.0256145 1.34989 77 33 46 
-0.247651 0.164774 1.2443 76 34 54 
0.32628 0.321963 1.00897 108 117 132 
0.648365 0.353032 1.18647 102 103 133 
0.0473205 -0.491215 1.31627 69 54 77 
-0.334424 -0.603201 1.46787 75 52 72 
-0.406155 -0.597709 1.49423 84 70 87 
-1.00924 -0.731125 1.57013 120 131 187 
-0.768195 -0.479591 1.59913 31 37 87 
-0.075573 -0.276173 1.24054 71 38 47 
0.039954 0.0708498 1.21957 111 62 66 
-0.786435 0.130257 1.55056 75 89 118 
-0.451932 0.197205 1.65865 76 40 54 
0.538568 0.147815 1.16132 35 33 54 
-0.352637 0.180301 1.28185 60 32 44 
-0.0371221 -0.519795 1.32987 52 35 28 
0.579272 -0.327418 1.22276 37 40 71 
-0.779018 -0.346454 1.58532 28 36 57 
-0.083863 -0.50059 1.34864 42 48 60 
0.315884 -0.370812 1.20562 60 41 61 
-0.185724 -0.0417901 1.28566 52 26 37 
0.509422 -0.0179039 1.11024 67 43 56 
0.240707 0.137602 1.18205 59 35 49 
-0.161428 -0.176705 1.26632 109 67 77 
-0.00101568 -0.196443 1.22503 59 23 27 
0.145552 -0.222715 1.25224 99 60 81 
-0.107139 -0.27514 1.25355 72 34 47 
-0.100131 -0.546065 1.35751 97 55 59 
-0.0680829 -0.524038 1.33724 46 39 46 
-0.196742 -0.505404 1.40564 44 41 58 
-0.567902 -0.344937 1.52134 56 48 63 
-0.0231403 -0.229572 1.20605 113 69 82 
0.531935 -0.194482 1.18105 55 35 47 
-0.568504 -0.460074 1.532 54 40 53 
-0.130903 -0.407965 1.28596 61 28 39 
-0.057246 0.13633 1.17927 83 42 58 
-0.416826 -0.528397 1.48619 78 55 73 
0.132792 -0.22329 1.22592 96 42 55 
-1.0415 -0.62284 1.54211 108 130 187 
-0.777274 -0.483477 1.6076 57 76 118 
0.536841 -0.193394 1.19061 23 22 27 
-0.0548468 0.0537577 1.22024 164 154 142 
-0.553824 0.114027 1.48301 40 35 55 
0.0679992 -0.474114 1.30408 55 41 58 
-0.566801 -0.287446 1.52911 58 40 52 
-0.205094 -0.512892 1.4194 40 29 46 
0.590693 -0.298786 1.22453 38 39 60 
-0.295508 0.0684518 1.33824 58 22 24 
0.31245 0.217725 1.14843 73 59 76 
-0.136101 -0.182617 1.27417 55 25 33 
-1.00154 -0.566003 1.60081 124 134 193 
-0.951491 -0.530392 1.61701 48 39 60 
-0.779403 -0.133964 1.57946 78 77 119 
-0.257721 0.141353 1.24806 86 47 68 
-0.401148 -0.530591 1.48556 90 67 87 
-0.635636 -0.347927 1.55712 73 58 77 
-0.512835 -0.466091 1.52315 76 55 74 
0.204263 -0.0924077 1.22028 140 113 130 
-0.0268697 -0.333025 1.1875 45 19 30 
0.0398025 0.178448 1.27144 92 49 66 
-0.0673745 0.12694 1.09916 80 42 57 
0.0414666 0.107968 0.877205 79 43 57 
-0.39994 0.163051 1.37362 73 45 59 
-0.211834 0.158492 1.31034 76 40 54 
0.0267248 0.118543 1.01657 82 48 65 
0.386157 -0.00537458 0.967181 84 86 137 
0.475988 0.0142436 1.00104 100 107 159 
-0.561743 -0.0693243 1.4977 99 94 124 
-0.43639 -0.0385861 1.44856 107 89 101 
0.501667 0.0415236 1.09406 163 173 208 
-0.14159 0.0656814 1.24802 122 100 79 
0.463093 -0.418604 1.16122 134 119 138 
0.352859 -0.30956 1.18911 133 112 129 
-0.37058 -0.174539 1.43719 100 65 85 
-0.362106 -0.13801 1.43343 86 66 91 
-0.102042 0.0167501 1.25334 108 82 57 
0.357684 -0.280682 1.18504 78 56 77 
-0.41073 -0.12092 1.447 125 102 120 
-0.393483 -0.0315139 1.43311 77 64 84 
-0.273277 0.0326369 1.34008 64 25 30 
-0.126733 0.0387337 1.21682 137 125 111 
-0.0343164 0.165417 1.16417 109 67 91 
-0.121649 0.168703 1.19638 110 67 87 
-0.317388 0.21954 0.993734 98 44 58 
-0.126884 0.0452753 1.24348 139 124 105 
-0.284648 0.257462 0.978826 85 52 69 
-0.197637 0.0959722 1.27761 95 47 63 
-0.357345 0.334127 1.24444 94 105 135 
0.054568 -0.0227904 1.22223 84 37 53 
0.370112 -0.00856675 1.15108 82 56 67 
0.443899 -0.380188 1.16418 76 52 78 
0.14491 0.11228 1.1302 170 122 138 
-0.162127 0.109073 1.24933 112 52 64 
