ply                 
format ascii 1.0    
element vertex 406
property float x    
property float y    
property float z    
property uchar red  
property uchar green
property uchar blue 
end_header          
-0.149266 -0.424788 1.9013 80 38 50 
0.107225 -0.409557 1.93576 109 96 113 
0.344509 -0.3626 1.75025 57 43 58 
-0.163165 -0.272915 1.93463 72 28 41 
-0.20661 -0.180347 2.01489 73 30 40 
-0.0210967 -0.0986383 1.91348 63 26 33 
-0.799227 -0.120643 2.58926 117 103 126 
-0.111375 -0.010926 0.955432 120 100 93 
-0.339212 0.0115717 2.09396 66 29 36 
0.418125 0.037777 1.63913 52 38 55 
-0.138535 0.0474612 1.93603 71 26 31 
-0.217658 0.0532424 1.96834 104 86 72 
-0.928603 0.0736742 2.6622 66 78 120 
0.351435 0.0965562 1.6889 79 57 78 
-0.22939 0.127262 1.92806 194 191 176 
-0.108981 0.153828 1.90071 66 19 29 
-0.305158 0.172547 2.05 62 19 29 
-0.8947 0.225369 2.61719 84 71 97 
-0.739767 0.282538 2.49114 20 35 92 
0.31112 0.204312 1.70077 79 61 83 
-0.741097 0.305866 2.48954 49 53 91 
-0.737721 0.315222 2.48734 65 51 74 
-0.746072 0.32717 2.49096 111 136 202 
-0.776229 0.329875 2.50913 133 135 186 
-0.749055 0.336406 2.48583 109 126 178 
-0.48261 0.298322 2.08671 73 30 40 
-0.61776 0.317209 2.18795 57 40 50 
-0.138585 0.549844 3.64796 83 47 57 
0.045886 0.277351 1.68796 73 32 46 
0.297258 0.369072 1.69251 126 123 144 
0.504122 0.469486 1.47555 39 43 78 
0.50494 0.47138 1.47323 134 172 234 
0.544992 0.462088 1.44164 41 32 63 
0.495275 0.475454 1.48119 50 39 56 
0.50978 0.472152 1.46866 55 55 129 
0.544525 0.464088 1.44176 106 125 184 
0.538265 0.467306 1.44746 56 70 141 
0.499688 0.477677 1.47681 18 36 76 
0.547174 0.471788 1.439 97 111 186 
0.52526 0.4873 1.45523 39 65 140 
0.498577 0.500232 1.47512 52 34 48 
0.494521 0.506193 1.479 47 30 46 
0.509563 0.514136 1.46649 104 121 167 
0.506821 0.514804 1.46635 18 34 57 
0.540846 0.505932 1.44033 35 64 134 
0.547074 0.508697 1.43605 43 25 63 
0.378584 -0.354573 1.71966 64 51 69 
0.149602 -0.346772 1.8965 68 45 63 
0.420968 -0.300486 1.67877 103 87 98 
0.474513 -0.250777 1.63317 87 68 90 
-0.115409 -0.272713 1.89791 78 36 48 
-0.16337 -0.273476 1.93535 74 32 44 
0.348725 -0.222273 1.72824 71 57 80 
0.337685 -0.221503 1.73369 55 36 55 
-0.281003 -0.143928 2.06552 75 35 44 
-0.0208304 -0.0991425 1.91459 74 33 41 
-0.153432 -0.0912957 1.96064 79 38 46 
-0.225461 -0.0631947 2.0058 66 37 39 
0.320356 -0.0187689 1.72223 73 54 74 
-0.252836 -0.0102371 2.02813 143 115 104 
-0.189802 0.0475192 1.97284 182 168 141 
-0.222156 0.0540193 1.96889 166 151 128 
-0.30672 0.0619371 2.06234 65 25 34 
0.351021 0.0966913 1.68515 76 54 75 
0.411563 0.0978473 1.64155 79 62 81 
0.115005 0.118131 1.7867 67 25 29 
-0.231898 0.129776 1.92785 115 103 103 
-0.239263 0.141581 1.92602 127 126 131 
-0.182726 0.152788 1.91659 105 81 81 
-0.138655 0.155774 1.92208 78 31 39 
0.121956 0.154374 1.73093 70 41 59 
-0.00972952 0.171533 1.87797 67 35 48 
0.341218 0.155202 1.68051 146 122 136 
-0.448116 0.218333 2.20775 59 24 31 
-0.772818 0.278542 2.51945 53 47 85 
-0.744832 0.286445 2.49594 149 175 236 
-0.751974 0.337681 2.48708 130 133 186 
-0.746133 0.344634 2.48573 33 35 60 
-0.482766 0.298353 2.08608 73 30 40 
-0.617975 0.317556 2.18985 57 40 50 
0.128862 0.236528 1.62841 72 36 46 
0.363726 0.242198 1.64617 72 112 207 
-0.0676166 0.266539 1.7773 78 47 55 
0.11886 0.717321 4.71511 71 41 51 
0.377872 0.26263 1.64499 75 61 84 
-0.0675298 0.292899 1.77487 81 43 56 
0.284842 0.380385 1.69949 130 122 145 
0.461225 0.432667 1.55295 78 62 75 
0.385305 0.473405 1.57029 83 66 85 
0.510813 0.472783 1.46941 34 31 110 
0.548496 0.473336 1.43705 138 157 216 
0.524828 0.487239 1.45491 40 63 139 
0.524207 0.489091 1.4567 149 164 229 
0.526589 0.489279 1.4528 146 166 229 
0.498577 0.500232 1.47512 52 34 48 
0.507757 0.512187 1.46803 28 44 96 
0.540121 0.50561 1.43982 36 65 135 
0.546606 0.508729 1.43544 43 25 63 
0.316786 -0.498713 1.78831 89 70 89 
0.12381 -0.475694 1.92672 88 70 92 
0.116689 -0.455535 1.92648 100 69 87 
0.12937 -0.440547 1.91917 82 64 86 
0.379193 -0.3411 1.71419 63 50 68 
0.44178 -0.301081 1.66205 63 51 63 
0.157573 -0.335219 1.88298 72 52 77 
0.287881 -0.296809 1.78385 118 96 109 
0.473135 -0.250315 1.63193 84 65 87 
-0.47319 -0.361641 2.37282 65 45 54 
-0.468952 -0.353425 2.37054 85 66 86 
-0.171719 -0.276898 1.93751 71 33 44 
-0.163249 -0.273176 1.9338 72 28 41 
0.348776 -0.222382 1.72852 71 57 80 
-0.309705 -0.255341 2.0494 105 64 72 
0.209043 -0.20693 1.83182 110 100 124 
-0.167513 -0.133681 1.9846 58 25 36 
-0.020819 -0.0986713 1.91418 63 26 33 
0.519941 -0.0584662 1.57168 73 56 75 
-0.245744 -0.0524669 2.0372 41 17 15 
-0.252277 -0.0106442 2.02954 145 118 107 
-0.308879 -0.00408915 2.06599 71 40 48 
0.338925 0.0328975 1.7021 85 67 81 
-0.720451 0.0544129 2.51366 60 48 68 
-0.19022 0.0471295 1.97197 175 160 137 
0.413184 0.0389476 1.64569 65 47 63 
-0.92744 0.0743539 2.66024 66 78 120 
-0.212548 0.0550363 1.96761 164 149 130 
-0.324573 0.0631687 2.07614 67 27 36 
-0.773724 0.0902514 2.54557 76 63 81 
0.0579652 0.0983339 1.83133 89 40 46 
0.365943 0.0959503 1.67453 90 71 91 
0.444064 0.0973209 1.6106 102 78 100 
-0.240841 0.120438 1.93743 96 93 102 
-0.232429 0.129555 1.92667 129 120 115 
-0.251593 0.13801 1.92624 72 66 80 
0.425243 0.123122 1.6194 139 119 131 
-0.109381 0.153386 1.89847 75 29 39 
0.0207311 0.15082 1.85463 77 32 39 
-0.447795 0.218029 2.20521 65 28 36 
-0.306147 0.203408 2.04785 79 34 41 
-0.779237 0.283448 2.52452 36 44 90 
0.307982 0.205049 1.70397 131 124 142 
-0.749732 0.340539 2.48828 39 44 76 
-0.745857 0.342809 2.48407 25 27 50 
-0.242106 0.263543 1.90735 123 137 184 
-0.61886 0.303742 2.18754 64 35 40 
-0.263139 0.267594 1.922 129 125 162 
-0.242232 0.269665 1.90835 130 138 184 
-0.178457 0.263664 1.85971 83 47 61 
-0.0688696 0.253773 1.77739 89 47 61 
0.128293 0.235961 1.62842 82 42 51 
-0.131112 0.266504 1.82575 85 44 60 
-0.0236558 0.25657 1.74483 97 50 68 
-0.176328 0.275622 1.85776 86 50 64 
0.0838462 0.249475 1.66177 114 71 81 
0.296403 0.268566 1.70428 69 52 70 
0.376746 0.262491 1.6451 71 57 80 
0.280608 0.281149 1.71157 54 37 55 
-0.000753935 0.28751 1.72235 95 51 68 
0.296932 0.368595 1.69202 126 123 144 
0.288115 0.3824 1.69764 76 65 95 
-0.224643 0.345185 1.50157 96 53 73 
-0.393471 0.398289 1.54281 85 50 70 
0.33163 0.451235 1.64852 105 91 104 
0.496073 0.422033 1.53146 90 91 109 
-0.236904 0.421285 1.48957 100 51 70 
-0.223059 0.421613 1.49112 94 51 70 
0.498429 0.466785 1.47924 54 37 45 
0.504811 0.471155 1.47301 113 149 211 
0.545775 0.462094 1.44249 49 36 56 
0.541351 0.465288 1.44673 141 169 232 
0.499221 0.477039 1.47703 12 23 53 
0.53737 0.467635 1.44834 36 41 107 
0.524458 0.486578 1.45469 14 30 105 
0.523694 0.489107 1.4567 149 167 233 
0.526924 0.489093 1.45308 145 173 238 
0.499098 0.500785 1.47663 52 34 48 
0.494724 0.50614 1.47967 47 30 46 
0.505904 0.514403 1.46718 11 26 47 
0.509583 0.51399 1.46663 104 121 167 
0.546759 0.508314 1.43511 43 25 63 
0.548007 0.508751 1.436 28 17 51 
0.545809 0.506843 1.43742 139 147 209 
0.54434 0.50619 1.4383 140 160 221 
0.515071 0.510599 1.46315 30 24 94 
0.553501 0.498214 1.43153 40 22 46 
0.494559 0.505497 1.47879 53 32 49 
0.499062 0.5007 1.4756 42 29 47 
0.527114 0.488415 1.45313 137 168 232 
0.524208 0.488878 1.4577 149 169 238 
0.547882 0.471515 1.44043 60 63 142 
0.500885 0.480014 1.47545 128 149 204 
0.499577 0.477011 1.47711 11 27 63 
0.544956 0.464695 1.44467 96 116 175 
0.541139 0.465149 1.44658 127 153 214 
0.546071 0.462386 1.44284 36 26 53 
0.508228 0.471506 1.47248 137 155 217 
0.50283 0.468821 1.47567 22 21 39 
0.385772 0.473316 1.56991 79 64 83 
0.328637 0.36431 1.67097 70 58 80 
0.0487104 0.327684 1.96415 106 56 67 
-0.0688219 0.257116 1.56025 85 42 52 
-0.0351577 0.26713 1.75182 128 82 92 
-0.582137 0.315705 2.15959 106 74 77 
0.128306 0.236753 1.62861 49 24 30 
-0.069221 0.253687 1.77682 89 47 61 
-0.242551 0.269299 1.90766 129 142 187 
-0.262887 0.269127 1.92458 128 133 173 
-0.508261 0.294554 2.10726 73 35 50 
-0.775328 0.341838 2.51192 29 25 60 
-0.781844 0.331757 2.51252 51 44 75 
0.312014 0.204452 1.70061 78 59 79 
0.308432 0.20493 1.70447 124 116 137 
-0.746155 0.286459 2.49905 149 175 236 
-0.750969 0.277926 2.50458 107 135 198 
0.117161 -0.413783 1.92996 67 50 66 
-0.745675 0.270251 2.49744 41 30 47 
-0.124952 0.18553 1.91112 75 24 33 
-0.162243 0.163846 1.9249 113 100 107 
0.0213153 0.150244 1.8546 72 27 32 
-0.231293 0.146234 1.92396 130 120 108 
-0.473469 -0.361215 2.37157 61 40 49 
-0.228329 0.127299 1.92965 210 207 192 
-0.314905 -0.265043 2.04993 59 28 43 
-0.308681 -0.261799 2.05119 103 63 72 
0.0591631 0.0990477 1.8327 63 22 28 
-0.211888 0.0553326 1.96906 167 155 133 
-0.251166 -0.204299 2.04632 63 27 39 
0.417365 0.0386478 1.63912 45 34 51 
0.378652 -0.0961254 1.6872 129 123 137 
-0.0214334 -0.0983699 1.91485 63 26 33 
-0.201804 -0.0536282 2.00448 54 32 34 
-0.251787 -0.0106676 2.03074 136 115 98 
-0.720449 0.0541104 2.51372 63 51 71 
0.413385 0.0388834 1.64378 63 45 61 
-0.796635 -0.250412 2.60709 83 60 80 
0.461107 0.432387 1.55386 84 62 75 
0.483204 -0.170296 1.61415 62 46 59 
-0.324275 0.0633705 2.07697 67 27 36 
0.332731 0.451836 1.6496 122 104 118 
0.204795 -0.206299 1.83351 66 49 67 
0.335991 0.0972281 1.6972 123 106 122 
0.453966 0.0965334 1.60084 104 77 92 
0.31815 -0.235866 1.75187 134 114 126 
0.320007 0.367007 1.67529 128 128 152 
0.29778 0.369032 1.69291 120 121 142 
0.473699 -0.250655 1.63387 84 65 87 
0.282515 0.285196 1.71009 109 102 120 
0.280607 0.281058 1.71158 55 37 53 
0.324901 -0.352992 1.75843 82 61 76 
-0.447707 0.218606 2.20821 59 24 31 
0.0805719 -0.418427 1.95708 101 74 93 
-0.0240373 0.256308 1.7454 108 60 76 
-0.264003 0.279017 1.92384 75 41 55 
0.0407339 0.244705 1.69653 82 44 57 
0.00231989 0.247749 1.72599 100 52 64 
-0.0825468 0.199945 1.40637 86 48 59 
-0.739549 0.315329 2.48744 55 46 77 
0.0437445 0.296729 1.68905 92 55 72 
-0.248992 -0.143339 2.03902 71 33 44 
0.109578 0.250092 1.63999 85 52 69 
0.117226 -0.456848 1.93135 99 70 90 
0.544298 0.506455 1.43575 133 140 195 
0.553086 0.498199 1.43047 32 16 42 
0.524115 0.485993 1.45497 11 24 92 
0.499096 0.477006 1.47842 13 18 40 
0.510861 0.472178 1.46731 32 20 94 
0.545821 0.462321 1.44266 36 26 53 
0.503565 0.472624 1.47517 83 127 192 
0.502027 0.469629 1.47712 12 19 35 
-0.753293 0.336599 2.48939 153 164 218 
-0.747357 0.327998 2.48838 144 167 234 
-0.757187 0.30808 2.50221 17 28 74 
-0.752409 0.277433 2.49889 156 177 242 
-0.233169 0.130943 1.92543 109 103 107 
0.495031 0.506285 1.47958 34 20 37 
0.549698 0.459668 1.43852 36 24 38 
0.443112 0.431173 1.56832 121 99 112 
0.287147 0.381297 1.69689 92 82 107 
0.031818 0.28336 1.69879 80 39 45 
0.294793 0.26914 1.70386 58 44 59 
0.313751 0.259004 1.68813 72 55 73 
-0.034589 0.266142 1.74599 124 78 88 
0.0582191 0.350946 2.32169 81 44 52 
0.364614 0.242811 1.64714 80 116 210 
-0.48417 0.299058 2.09154 67 27 36 
-0.263415 0.270239 1.92317 133 128 168 
-0.25708 0.265225 1.91931 55 57 105 
-0.775325 0.34196 2.51192 29 25 60 
0.414166 -0.436481 1.70186 44 22 43 
0.473836 0.18907 1.57192 55 43 57 
-0.235882 0.139575 1.92381 42 33 36 
0.34614 -0.345062 1.748 72 49 67 
-0.9278 0.074967 2.66004 66 78 120 
-0.139281 0.0479945 1.93603 63 22 28 
-0.17327 -0.276269 1.9385 48 21 28 
0.473181 0.0166457 1.59761 132 114 126 
0.480231 0.0126554 1.59301 104 90 107 
-0.308836 -0.260781 2.05062 110 66 79 
0.317345 -0.0038523 1.72119 134 111 129 
-0.20181 -0.0535179 2.00446 54 32 34 
-0.22605 -0.0633483 2.00466 61 30 35 
-0.205274 -0.147612 2.00869 105 68 75 
0.385237 0.473346 1.5694 83 66 85 
0.495906 0.422048 1.53026 98 95 112 
-0.0979572 0.295381 1.79507 74 38 50 
-0.705518 -0.119246 2.51357 115 100 119 
0.0208524 0.151498 1.85478 73 30 39 
-0.469634 -0.355154 2.36899 92 71 86 
-0.0953467 -0.00926917 1.90586 76 33 42 
0.317628 -0.235991 1.75131 134 114 126 
0.0394171 0.244789 1.69504 68 38 50 
-0.153391 0.168087 1.92957 65 36 40 
0.402782 0.10084 1.64529 69 50 69 
-0.110345 -0.00706953 1.91672 59 28 34 
0.119248 0.2762 1.63097 103 53 65 
-0.275669 -0.140272 2.05797 68 35 44 
0.156379 -0.334948 1.88196 91 67 91 
0.324053 -0.352653 1.75749 83 62 77 
0.279408 0.280816 1.71217 52 34 48 
0.538847 0.504937 1.44266 14 22 69 
0.554677 0.499941 1.43284 18 11 29 
0.499864 0.50242 1.47801 20 16 33 
0.528152 0.489076 1.45284 149 174 240 
0.523288 0.489115 1.45756 159 178 247 
0.550747 0.471204 1.43957 21 27 59 
0.500311 0.477463 1.47934 11 27 63 
0.544123 0.464357 1.44275 126 150 212 
0.501783 0.468612 1.47588 20 18 31 
-0.746144 0.285843 2.49944 148 176 239 
-0.754058 0.278006 2.50309 130 144 207 
0.500221 0.480425 1.47522 120 136 188 
0.550586 0.459533 1.43919 48 34 49 
0.498756 0.467959 1.47874 27 15 27 
-0.749293 0.298503 2.49483 17 29 77 
-0.225214 0.148854 1.92471 76 54 40 
0.41566 -0.437437 1.70268 41 28 46 
0.042873 0.282181 1.68996 83 41 53 
0.0377849 0.329315 1.97063 91 48 55 
-0.0675741 0.292576 1.77375 74 37 54 
0.326206 0.25112 1.68783 81 58 68 
0.364433 0.242049 1.64634 75 114 209 
0.128522 0.236686 1.62979 62 29 38 
-0.257456 0.264617 1.91772 67 60 104 
0.347266 -0.344625 1.7473 66 42 58 
-0.41639 -0.390069 2.10491 65 30 34 
-0.172503 -0.276805 1.9401 64 27 35 
-0.16162 -0.274301 1.93661 59 21 32 
0.0319683 0.0971472 1.84929 40 15 21 
0.0352621 0.0936591 1.84612 61 20 24 
-0.312906 -0.266401 2.05309 56 26 38 
-0.138756 0.0476196 1.9371 71 26 31 
0.316865 -0.00463513 1.72001 121 102 121 
-0.538284 0.509183 1.52966 56 52 77 
0.485607 -0.442517 1.64672 54 42 64 
-0.555057 0.410769 1.65831 72 39 56 
-0.574256 -0.203195 2.43431 60 44 57 
0.294035 0.092531 1.7326 72 59 77 
0.452189 0.309089 1.57765 125 112 129 
0.319526 -0.237192 1.7516 138 114 127 
-0.157877 -0.259796 1.93393 62 29 38 
0.371011 0.194989 1.65559 73 56 75 
0.311464 0.203439 1.69925 92 73 93 
0.336951 -0.222165 1.73493 67 46 61 
-0.0660563 0.265796 1.77599 62 34 46 
0.283282 -0.432553 1.80388 87 68 87 
-0.263317 0.277499 1.92241 98 57 63 
0.494283 -0.376301 1.63613 64 53 69 
0.529127 0.488861 1.45248 153 173 242 
0.534854 0.469743 1.45095 16 22 48 
0.513917 0.473546 1.46771 15 17 56 
0.546661 0.461936 1.44056 29 20 37 
-0.313399 -0.265175 2.05376 51 23 37 
0.476895 0.0147031 1.59404 72 49 65 
0.459673 0.431934 1.55373 76 52 65 
0.0279147 0.109166 1.848 46 17 22 
0.493838 0.0897637 1.57622 132 115 131 
0.419918 -0.298624 1.68529 68 50 66 
-0.0880441 0.289791 1.79062 93 46 52 
0.314049 0.257977 1.68834 77 60 76 
0.442497 0.431484 1.57069 128 110 122 
-0.125032 0.186302 1.90999 68 21 29 
0.142662 0.170037 1.70571 65 33 36 
-0.251605 -0.132475 2.04259 54 23 29 
-0.264608 -0.113511 2.05711 61 26 30 
0.416643 0.430246 1.58949 58 49 68 
0.487998 -0.428882 1.64283 67 53 76 
-0.256585 -0.121142 2.04711 108 62 72 
0.481168 -0.169689 1.61403 61 45 56 
0.291123 0.275384 1.70469 108 103 126 
-0.182045 -0.280352 1.94048 70 43 52 
0.385432 0.473636 1.56825 73 61 81 
-0.927034 0.0741493 2.65874 66 78 120 
0.486355 0.0897436 1.57978 83 67 78 
0.0331278 0.0959323 1.84649 44 15 20 
0.332797 -0.354797 1.75967 134 120 135 
0.376436 -0.342567 1.71803 65 51 68 
-0.193659 0.00441099 1.99568 170 156 130 
-0.311646 -0.258215 2.05099 123 73 84 
0.493371 0.0897438 1.57583 131 117 134 
-0.0576411 0.256961 1.55406 67 41 54 
0.291663 0.277781 1.70777 118 113 135 
0.458065 0.433554 1.55398 92 75 91 
0.321307 0.00353065 1.72313 60 46 63 
0.0259292 0.0763391 1.85011 134 82 95 
0.48293 0.00974707 1.59561 122 105 124 
0.199155 -0.2052 1.84174 67 49 65 
