ply                 
format ascii 1.0    
element vertex 157
property float x    
property float y    
property float z    
property uchar red  
property uchar green
property uchar blue 
end_header          
-0.00278692 0.0234901 1.20815 70 24 35 
-0.040689 0.0244935 1.2223 66 23 32 
-0.0646948 0.0581042 1.20909 109 83 84 
-0.0659466 0.0598904 1.20844 155 143 143 
-0.532775 0.118403 1.46394 24 31 77 
-0.536059 0.119736 1.46437 149 177 242 
-0.53686 0.147413 1.46085 135 164 224 
-0.310039 0.163528 1.26603 67 36 52 
-0.345694 0.167511 1.27763 76 38 51 
-0.172288 0.162946 1.21506 87 44 63 
0.434994 0.259922 1.09203 89 90 108 
-0.158495 -0.230221 1.25692 77 45 60 
0.391 -0.13281 1.14637 63 38 57 
-0.169903 -0.00899856 1.27297 54 17 25 
-0.00270669 0.0235433 1.20864 70 24 35 
-0.108007 0.0287729 1.20971 177 173 164 
0.333008 0.0372857 1.15314 87 66 85 
0.31026 0.0413734 1.16181 126 119 135 
-0.169719 0.0651798 1.26752 57 20 27 
0.179147 0.0760028 1.1376 57 35 48 
-0.36141 0.0898334 1.33449 74 31 41 
-0.536002 0.119877 1.46452 143 168 232 
-0.539596 0.15364 1.46062 66 87 140 
-0.540443 0.156276 1.4612 32 33 63 
-0.400517 0.151328 1.29864 61 43 55 
-0.0850114 0.14353 1.18541 106 61 81 
-0.0212023 0.140553 1.16137 78 40 55 
-0.309773 0.163551 1.2664 66 35 51 
0.454192 0.323394 1.05478 92 111 154 
0.369327 -0.316835 1.17206 100 76 100 
0.319482 -0.175652 1.17804 67 51 77 
-0.12409 -0.185426 1.27073 73 38 44 
-0.0898566 -0.167116 1.25712 75 32 41 
-0.104445 -0.167187 1.26197 77 35 45 
-0.0524218 -0.145298 1.24078 58 25 32 
-0.143364 -0.142749 1.27419 73 31 41 
-0.108448 -0.087955 1.25597 156 140 124 
-0.195511 -0.0440857 1.28601 64 27 35 
0.309863 0.0411521 1.1618 131 125 139 
0.150555 0.0437963 1.17826 74 27 33 
-0.119866 0.0463161 1.2045 87 75 85 
-0.169951 0.0647325 1.26764 59 22 29 
0.336194 0.103788 1.14408 68 55 73 
-0.533218 0.139276 1.46171 44 41 72 
0.334327 0.110824 1.13957 86 125 218 
-0.560877 0.144355 1.46918 43 49 107 
-0.537412 0.14738 1.4608 129 154 220 
-0.534216 0.148441 1.4603 24 29 69 
-0.531807 0.150092 1.45984 31 23 38 
-0.541396 0.154071 1.45939 153 168 225 
-0.121098 0.132657 1.19834 119 123 160 
-0.103941 0.134868 1.1921 130 137 179 
-0.364833 0.146299 1.28731 75 45 57 
-0.294608 0.144805 1.26137 63 26 33 
-0.368333 0.149762 1.28797 73 41 54 
-0.103993 0.139393 1.19257 79 41 54 
-0.313193 0.149504 1.26838 72 42 54 
-0.0214045 0.140415 1.16146 89 48 64 
0.0322605 0.139505 1.1415 86 50 60 
0.173608 0.136177 1.08847 73 41 56 
-0.309407 0.163436 1.26623 63 32 47 
-0.312717 0.166711 1.26647 93 50 67 
0.0328008 0.15718 1.14031 78 37 53 
-0.313058 0.17585 1.26517 94 51 68 
-0.204329 0.235654 0.958984 104 56 78 
0.451445 0.294906 1.05829 138 174 236 
0.457719 0.320739 1.05273 64 55 134 
0.455012 0.323139 1.05523 122 143 196 
0.482594 0.292104 1.04777 122 148 207 
0.451841 0.294966 1.05847 144 176 237 
-0.0846881 0.232202 0.915542 105 53 66 
0.319524 -0.176057 1.17821 72 58 83 
0.119758 0.154601 1.10839 86 40 51 
0.0327018 0.156847 1.14038 81 38 55 
0.0354587 0.152924 1.13934 102 55 65 
0.119835 0.137147 1.10919 75 42 49 
0.0657417 0.136168 1.12953 134 86 100 
-0.0523414 0.141561 1.17352 68 46 59 
-0.0196214 0.138601 1.16161 131 85 96 
-0.0318873 0.139207 1.16547 120 80 89 
0.374399 0.00092256 1.14025 44 32 52 
-0.36397 0.145943 1.28844 78 42 52 
0.403429 0.0411283 1.12358 101 74 89 
0.150726 0.0437078 1.1787 67 24 31 
-0.115982 0.130792 1.19645 58 59 105 
-0.122153 0.0485554 1.20627 130 121 114 
-0.540103 0.156325 1.46117 25 27 50 
-0.427673 0.0609355 1.43165 117 86 94 
-0.0282457 0.0605956 1.21459 64 21 31 
-0.169998 0.0647757 1.26797 70 27 36 
-0.534285 0.14851 1.4601 14 28 73 
-0.537338 0.147404 1.461 129 154 220 
-0.307032 0.0884811 1.34428 68 27 31 
-0.240977 0.0715852 1.32261 65 25 33 
0.311422 -0.331436 1.19456 90 67 87 
-0.0856833 0.143031 1.18487 92 53 72 
0.17361 -0.266916 1.2415 88 65 83 
-0.204353 0.235577 0.959099 104 56 78 
-0.0847513 0.214216 0.916364 91 48 58 
0.493048 0.317908 1.0402 15 17 29 
0.447818 0.301121 1.05998 115 122 166 
0.476957 0.294435 1.0503 18 31 84 
0.481806 0.292229 1.04741 161 189 252 
0.483687 0.290487 1.04648 42 35 66 
0.0936852 0.155469 1.11611 112 60 73 
0.0325385 0.157381 1.14022 81 38 55 
0.0350347 0.152944 1.13903 111 61 73 
0.0672147 0.134739 1.12849 96 53 70 
-0.374004 0.153258 1.28906 98 67 65 
-0.0174635 0.136824 1.16107 82 41 55 
0.0317909 0.131446 1.14367 85 45 56 
-0.552819 0.133585 1.46676 30 26 61 
-0.539598 0.11125 1.4662 23 28 48 
-0.537259 0.108546 1.46577 37 28 47 
-0.177508 0.088372 1.26704 121 71 80 
-0.183614 0.0858075 1.27038 63 21 33 
-0.0405089 -0.047038 1.2279 59 22 30 
-0.193702 0.0654285 1.27498 74 31 38 
0.432085 0.0377078 1.11293 114 99 118 
-0.320984 0.167353 1.26809 70 33 40 
-0.104355 0.131642 1.19325 128 142 191 
0.198636 -0.136448 1.21986 77 63 80 
-0.0915232 -0.151762 1.25584 60 29 37 
0.477338 0.294587 1.05045 18 31 84 
-0.104381 0.13271 1.19141 129 143 192 
-0.539813 0.111134 1.4656 29 34 54 
-0.170511 0.0853781 1.26514 71 31 40 
-0.183687 0.0858446 1.27087 63 21 33 
0.0629946 0.0628595 1.20968 64 29 36 
-0.125118 -0.18471 1.27109 58 27 35 
-0.344619 -0.247935 1.4328 63 40 50 
-0.118255 0.0669964 1.22459 88 65 51 
-0.18352 0.0119891 1.27752 61 21 30 
0.10185 0.151439 1.11355 86 41 48 
0.173978 0.135853 1.0898 77 43 57 
0.488275 0.289416 1.04574 29 27 41 
0.449066 0.293062 1.06034 14 18 30 
-0.0436552 -0.227087 1.21448 66 28 41 
-0.177793 0.087328 1.26743 129 75 88 
-0.183729 0.086263 1.27112 63 21 33 
-0.028204 0.0811629 1.21265 74 24 33 
-0.169785 0.0655383 1.26802 57 24 31 
0.434149 0.0377696 1.11553 133 114 133 
0.0659093 -0.0283814 1.2164 84 41 50 
0.273169 -0.1426 1.19259 64 56 71 
0.0607627 -0.0218211 1.21661 56 29 38 
0.344176 -0.0961989 1.16339 70 54 64 
0.106741 0.0288811 1.19599 60 23 31 
-0.120306 0.134475 1.19924 128 139 184 
0.260685 -0.22207 1.20415 72 46 57 
-0.0227586 0.0818983 1.21093 133 75 89 
-0.0517036 0.140348 1.17193 71 43 55 
0.120893 0.136824 1.10878 62 42 44 
0.398797 0.263697 1.10223 123 107 120 
0.0653714 -0.0278505 1.21594 80 39 47 
0.341834 -0.0960414 1.16207 57 41 52 
0.0297528 0.165353 1.13967 69 43 54 
