ply                 
format ascii 1.0    
element vertex 1292
property float x    
property float y    
property float z    
property uchar red  
property uchar green
property uchar blue 
end_header          
2.03086 -1.5643 6.43458 136 148 172 
2.02143 -1.54896 6.41223 64 63 97 
-0.71557 0.0541846 4.74469 79 85 143 
-0.703741 0.0709121 4.71083 145 161 223 
2.0033 -1.48167 6.339 126 146 171 
-0.700374 0.0917607 4.70939 26 33 85 
-0.625604 0.13992 4.71164 23 30 82 
-0.724441 -0.271031 3.48488 25 31 53 
1.17027 -0.160795 5.49929 62 57 80 
-0.733155 -0.296266 3.48524 110 116 138 
1.01791 0.339549 5.07478 62 66 95 
0.41986 -0.252076 4.48149 105 96 115 
-0.703549 0.306669 4.68901 108 102 104 
-0.590434 0.931523 3.31027 29 24 65 
1.53957 -0.285432 6.46904 109 108 126 
1.72116 -1.32281 6.04055 28 21 39 
1.48543 -0.293985 6.37339 99 96 115 
-0.482208 0.908113 3.32122 157 178 221 
-0.526066 0.865325 3.3075 199 216 255 
1.6314 1.18722 5.05012 65 71 107 
0.62788 0.536114 4.71869 49 42 76 
-0.470914 0.814314 3.3151 217 231 255 
0.664073 0.534692 4.66668 173 186 241 
1.49433 -1.20312 5.75289 117 112 135 
0.140797 -1.12963 4.32782 134 134 146 
1.46466 -1.19497 5.75722 147 149 174 
1.30261 -0.407676 6.30208 36 37 67 
-0.47147 -0.974713 3.52115 21 13 24 
-0.5403 -0.470657 3.42428 110 102 117 
-0.59476 -0.479095 3.34181 115 99 112 
0.680717 0.604203 4.68285 207 226 255 
1.27486 0.915595 5.46091 72 76 114 
-0.466859 -0.530925 3.52135 48 46 70 
0.977421 -0.720197 5.25102 138 151 186 
0.622695 0.655848 4.70045 68 60 107 
1.04408 0.742792 5.07577 128 144 178 
1.15014 -0.535784 5.35249 79 66 94 
1.49521 -0.380385 6.46005 106 110 135 
1.70731 -0.261473 6.67999 102 99 118 
0.422188 -1.34052 4.62257 116 116 152 
1.54878 -0.414284 6.81232 50 62 104 
2.02102 -1.85233 6.52053 81 86 105 
-0.648166 0.133402 4.63735 21 32 78 
1.02785 0.168608 5.10309 71 81 116 
1.04747 0.598909 5.09375 125 136 166 
2.00807 -1.86514 6.59798 39 32 65 
-0.558387 0.902209 3.28041 224 227 255 
-0.533492 0.8849 3.24586 91 76 117 
-0.488888 0.899928 3.33777 75 75 125 
-0.554504 0.89957 3.3797 35 62 139 
-0.476335 0.798124 3.30714 194 217 255 
1.95071 -1.61949 6.40908 133 145 171 
1.96037 -1.62733 6.43875 62 61 93 
2.01289 -1.6516 6.60367 75 71 96 
2.00609 -1.58594 6.54192 75 78 111 
0.434539 -0.246285 4.48424 35 33 47 
-0.694009 -0.271953 3.45417 30 35 54 
1.12425 -0.158324 5.72606 168 170 182 
0.705904 0.663985 4.70258 34 38 86 
0.685124 0.605837 4.67083 222 234 255 
0.69083 0.59611 4.67762 48 54 128 
0.672003 0.595369 4.67596 45 49 110 
0.681415 0.585778 4.68325 229 234 254 
0.679101 0.583157 4.75359 88 90 151 
1.32139 0.0965684 6.42359 181 196 253 
0.710823 0.560211 4.70198 225 229 254 
1.31103 0.16175 6.25364 48 60 112 
1.30222 0.193723 6.2406 164 185 242 
1.33591 0.213751 6.32416 203 216 255 
-0.657918 0.0969473 4.65445 20 29 72 
1.60841 -1.30971 6.07885 71 70 88 
1.66101 -1.33794 6.23166 88 84 101 
1.59652 -1.42966 5.86511 55 64 81 
0.552648 0.273564 4.70008 113 104 131 
1.55285 -0.412982 6.79265 46 55 96 
1.44354 -0.306387 6.56077 103 104 125 
1.65323 -1.56247 6.04176 103 107 136 
-0.53988 0.933748 3.37398 23 20 63 
1.63423 1.18507 5.03927 54 64 99 
0.985819 0.574358 5.09356 91 101 136 
1.5772 -0.286944 6.48278 50 48 72 
0.985612 -0.816229 5.31142 148 162 197 
0.629287 0.659737 4.72721 207 211 255 
0.665633 0.595296 4.68883 48 54 106 
0.703735 0.580745 4.70175 51 53 114 
-0.716095 0.296372 4.77705 132 141 140 
1.03269 0.340642 5.04813 45 50 72 
-0.684273 0.163803 4.78923 137 162 229 
-0.716794 0.157493 4.71547 150 161 223 
1.69069 -1.58214 6.19531 45 46 67 
-0.607186 0.114904 4.6588 22 36 85 
-0.463855 0.794393 3.29433 170 193 247 
-0.737979 0.0705941 4.7535 143 154 216 
-0.537611 0.798419 3.2886 164 179 234 
1.35403 0.198485 6.27791 201 216 255 
-0.541964 0.81331 3.278 209 219 255 
1.31665 0.0951292 6.44239 144 159 228 
1.17751 -0.138399 5.59305 74 63 77 
-0.532281 0.87818 3.2676 20 38 102 
-0.610831 0.915434 3.33101 210 218 255 
1.34291 -0.741202 6.58305 32 36 61 
1.19154 -0.86997 5.50331 60 47 73 
1.46313 -1.26689 5.85868 61 56 78 
1.54335 -1.27498 5.82221 62 53 82 
-1.00731 -0.197481 4.14007 23 30 46 
1.51747 -0.295953 6.58284 107 108 129 
1.26039 -0.338686 6.39603 93 91 115 
1.00665 0.166759 5.17041 67 78 108 
1.05792 0.596621 5.06648 129 140 170 
0.675476 0.534836 4.6454 192 209 255 
2.03052 -1.61358 6.47165 54 43 73 
1.96646 -1.6161 6.39854 62 61 93 
1.27585 1.11938 4.46755 57 62 92 
2.03271 -1.80484 6.40754 21 19 40 
-0.579853 0.834917 3.41249 227 233 255 
-0.454771 0.793296 3.28627 170 193 247 
1.62821 -1.66883 5.89778 65 64 95 
1.25219 1.08515 4.83671 54 59 88 
0.614625 0.665965 4.75725 182 179 232 
0.598118 0.665359 4.75546 57 55 95 
1.97229 -1.62721 6.3282 156 168 194 
1.68485 -1.58824 6.21874 44 42 63 
1.65747 -1.54401 6.07498 141 156 185 
1.08625 0.606379 5.31297 44 42 55 
-0.680327 0.300929 4.72355 125 129 130 
-0.748695 0.299435 4.74945 121 115 115 
1.33688 0.151244 6.16756 47 60 105 
1.34149 0.133244 6.24355 205 219 254 
1.1923 -0.156924 5.42678 59 51 75 
0.988149 0.584501 5.14635 35 41 63 
0.374828 -0.303336 4.54354 35 31 45 
0.991742 -0.722318 5.20929 148 158 194 
0.13723 -1.12576 4.31376 30 24 34 
1.97743 -1.59128 6.31297 71 74 105 
2.03843 -1.58751 6.36978 61 55 83 
1.05675 0.163767 5.13022 111 117 151 
0.588255 -0.33183 4.7294 36 34 45 
0.603893 -0.122781 4.58538 145 154 185 
1.14976 0.668223 5.53244 25 31 67 
-0.633851 0.155682 4.61504 146 167 234 
-0.730857 0.30045 4.72745 120 118 119 
1.67244 -1.60221 6.25837 36 31 54 
0.984285 0.571154 5.10865 88 96 132 
1.34065 -1.06664 5.52031 46 37 56 
0.0920845 -1.15691 4.37687 26 24 25 
1.46871 -1.24373 5.7935 47 32 55 
-0.56463 0.893259 3.38192 21 46 103 
-1.18815 0.571133 3.6544 38 49 77 
0.156284 -1.17031 4.3457 40 38 59 
2.01896 -1.6265 6.50797 116 114 138 
-0.776927 0.374813 3.41389 133 140 169 
1.0187 0.14302 5.06902 75 88 123 
1.18549 -1.21319 5.42581 102 114 152 
2.02264 -1.63337 6.41778 139 148 179 
1.6506 -0.361493 6.63219 43 41 62 
0.213371 -1.23711 4.30933 160 163 194 
0.441628 -1.93645 4.7183 115 116 136 
-1.56446 0.363247 3.20605 81 95 134 
-1.70053 0.33769 3.08069 159 175 174 
-1.87653 -0.679549 3.15438 108 124 150 
-1.95577 -0.634903 2.80199 150 173 205 
-1.93402 -1.51392 3.16905 94 94 122 
-1.86509 -1.31502 3.23748 88 101 143 
-2.05884 -0.933048 2.80522 119 121 144 
-1.73134 -1.83501 3.43766 100 113 157 
0.445979 -1.9385 4.73286 105 103 124 
-1.86374 -1.08737 2.94479 49 47 71 
-1.9778 0.046067 2.7192 44 60 137 
-1.94476 -1.0335 2.91251 169 187 227 
-1.97336 -0.975378 2.88697 154 163 196 
-1.99079 -0.96204 2.85685 131 136 166 
-1.95129 -0.995141 2.90299 139 144 176 
-1.4487 0.326234 3.32043 188 206 255 
-1.97905 0.00874242 2.7225 28 25 46 
-1.58743 0.275487 3.18149 118 136 172 
-1.98657 -0.980579 2.85565 126 129 164 
1.63397 -1.60965 6.02502 104 124 148 
1.82882 -1.45261 6.17517 112 138 161 
-1.82127 -1.37455 3.29013 116 135 168 
-1.94343 -1.26402 2.94126 72 80 119 
-1.93877 -1.24141 2.94137 64 83 115 
-1.9419 -1.21734 2.9611 88 88 126 
-1.97174 -1.20098 2.94355 79 77 117 
-1.92447 -0.979389 2.99947 129 151 174 
-1.94979 -0.869653 2.97864 81 104 135 
-1.94689 -0.816499 2.95331 59 74 105 
-1.94167 -0.819638 2.98714 131 134 165 
-2.00264 -0.706895 2.79626 165 169 204 
1.65037 -0.3509 6.68604 61 67 103 
1.49523 -0.294056 6.53248 92 87 109 
-1.97384 0.0171816 2.73303 163 167 231 
0.666615 0.794426 4.65233 120 131 151 
-1.72987 0.488707 3.02711 31 48 91 
-1.96207 -1.52452 3.16094 30 41 63 
-1.55095 0.39326 3.24412 135 142 171 
-1.95821 -1.22249 2.9905 84 103 136 
-2.00657 -1.08172 2.89714 144 145 193 
-1.96185 -1.05835 2.90291 92 112 162 
-2.03752 -1.04064 2.84746 62 84 121 
-1.89469 -1.04009 3.02662 123 127 154 
-1.92502 0.14278 2.75575 24 37 82 
-1.89824 -0.969999 2.92127 47 64 107 
-1.99248 0.1239 2.70766 39 36 79 
-1.95019 -0.954294 2.91247 66 81 112 
-1.926 -0.94816 2.9774 65 75 102 
-1.98623 -0.878305 2.8751 84 109 140 
-1.94254 -0.86864 2.9697 91 114 146 
-1.98724 -0.837699 2.847 49 59 86 
-1.98555 0.0237572 2.7192 47 41 113 
-1.90419 -0.721108 2.91051 66 84 122 
-1.85927 -0.69117 2.90356 137 140 173 
-1.9384 -0.645798 2.85216 86 102 138 
-1.99481 -0.642579 2.79481 123 120 141 
-0.474983 -0.455664 3.30206 95 92 109 
1.53231 -2.00734 5.94333 56 60 107 
0.946942 -0.354726 5.16367 137 152 185 
-0.053027 -1.63712 4.18198 100 95 118 
-1.91948 -0.640713 2.87543 158 169 199 
1.63284 -1.65386 6.0363 70 84 119 
-1.71994 0.477506 3.02338 110 122 160 
1.80645 -1.45623 6.12854 105 130 152 
2.03471 -1.45543 6.45224 113 130 156 
1.79336 -2.03588 6.25769 103 123 150 
1.94952 -2.0734 6.48407 80 85 107 
-1.91792 -0.95786 2.97348 150 159 188 
-1.92598 -0.643017 2.84602 80 96 132 
-1.81988 -1.43512 3.32276 86 88 126 
-1.91591 -1.51858 3.22083 42 45 76 
-1.91701 -0.682698 2.8676 94 99 129 
-2.0208 -0.956376 2.83698 71 81 91 
-1.91892 -0.637433 2.83544 160 175 208 
-1.94144 -1.34399 3.16806 92 102 138 
0.00182832 -1.58274 4.23514 38 28 52 
2.01045 -1.63141 6.46375 88 109 140 
1.62319 -1.49034 5.97627 146 170 194 
2.02248 -1.51315 6.45611 99 117 141 
-1.55132 0.390541 3.20051 163 168 198 
-1.60841 0.276505 3.1916 82 85 102 
-1.93512 -0.981948 3.00617 139 157 181 
-1.62236 0.223531 3.15463 119 126 170 
-1.92944 -0.953183 2.93887 145 153 189 
-1.93048 -0.9528 2.96968 137 142 164 
-1.92579 -0.948492 2.9901 131 148 166 
-1.92545 -0.912457 3.00658 94 99 128 
-1.93157 0.107597 2.7657 42 54 138 
-1.88932 -0.69614 2.905 25 24 42 
-1.93118 -0.669899 2.85879 153 157 182 
1.35146 0.110032 6.34761 178 180 237 
-0.446864 -0.439861 3.34069 39 37 50 
-1.20513 -0.237357 3.7876 30 34 59 
1.15291 -0.331873 5.38463 48 34 51 
-1.88565 -0.66825 3.15663 113 130 160 
-1.86749 -0.678082 3.14658 103 120 148 
-1.98507 -1.08736 2.9011 62 83 128 
-1.58156 0.317338 3.22124 76 116 167 
2.02434 -1.63115 6.45446 128 138 163 
-1.93969 -1.25383 2.96547 147 163 196 
1.68879 -1.54456 6.04808 91 92 122 
-1.98781 -0.753985 2.85171 90 90 100 
-1.97825 -0.79654 2.87824 105 110 142 
-1.97335 -0.962274 2.88902 157 164 190 
-1.9629 -0.960586 2.90251 142 143 174 
1.52294 -0.291111 6.55486 109 108 126 
-1.94959 -1.19585 3.08028 62 67 99 
-1.99128 -1.1649 2.91165 63 61 111 
-2.02258 -1.00695 2.84124 166 193 223 
-1.98347 -0.655823 2.79215 147 150 169 
-2.00798 -1.09003 2.89147 62 96 141 
-1.94682 -0.821283 2.96635 157 169 195 
-1.97388 -0.720079 2.85672 131 135 162 
0.908353 -1.14089 5.18535 112 124 172 
1.61511 -0.280707 6.62515 48 45 72 
-1.21283 0.673033 3.58675 92 113 156 
-1.82556 -1.43707 3.30619 56 74 112 
0.170735 -1.16297 4.32063 44 36 57 
-1.95637 -0.968127 2.88809 56 68 110 
-2.00656 -0.714108 2.84732 67 86 119 
-1.87417 -0.694265 2.89132 26 27 47 
-1.97549 -0.837747 2.85311 170 178 201 
-1.97942 -0.852861 2.86866 79 99 126 
-1.94055 -0.95611 2.91623 150 161 191 
1.32137 0.138215 6.32416 208 223 254 
-1.97804 0.132957 2.72254 186 187 252 
-1.95298 -0.754757 2.87023 36 43 71 
0.982178 -0.651002 5.21049 139 151 189 
-1.95151 -0.97059 2.91487 81 97 130 
-1.94469 -0.699 2.84818 167 181 226 
1.69195 -0.267026 6.76283 79 83 108 
-2.00267 -0.802091 2.87505 50 71 98 
-1.90486 -0.932426 2.97886 32 33 51 
-0.658732 0.309291 4.70331 128 129 133 
-1.98816 0.117435 2.71671 182 191 255 
-0.669953 0.125487 4.6705 24 35 67 
1.32846 0.168597 6.27211 204 219 255 
0.99628 0.143864 5.13445 92 97 137 
1.03752 0.174035 5.17092 138 152 191 
0.133664 -1.70386 4.35767 22 21 27 
1.4105 -1.20045 5.76022 46 28 52 
-1.94402 -0.816843 2.99929 67 76 107 
0.999627 0.334536 5.12123 88 94 128 
1.96578 -1.64007 6.37568 156 168 194 
-1.87357 -1.09446 2.94492 37 36 50 
1.69871 -1.63383 6.06874 48 67 97 
-1.87509 -1.07502 2.94479 118 128 155 
-1.99294 -1.0767 2.89081 163 178 221 
0.589883 -0.317638 4.69409 32 39 49 
-1.97248 -0.970745 2.87124 147 152 182 
-1.91066 0.0245583 2.77729 27 27 55 
1.00445 0.144916 5.10485 72 80 119 
-1.97191 -1.17896 2.92386 93 103 156 
1.26863 -1.38886 5.70247 158 170 208 
0.154553 -1.12695 4.32592 127 124 151 
-1.98502 -0.843375 2.86173 155 159 188 
1.31218 0.151336 6.26083 41 54 107 
2.02562 -1.57633 6.43453 139 142 173 
-1.97163 -0.978845 2.89843 58 73 102 
1.30339 0.188445 6.24979 194 219 255 
-2.0419 -0.804361 2.82444 106 112 146 
2.0267 -1.46096 6.42019 125 140 169 
-1.98052 -0.969682 2.88864 148 162 191 
0.645738 0.582398 4.69323 53 58 113 
-2.0087 -0.735708 2.84116 143 160 186 
1.41634 -1.19302 5.71896 38 26 46 
-1.98872 0.0140719 2.71648 19 29 54 
0.140181 -1.10642 4.3149 137 141 168 
-1.94319 0.0205208 2.77268 132 149 219 
-1.8947 -1.06654 2.95155 12 25 42 
-1.98798 0.132534 2.72836 175 176 243 
-1.96811 0.0328878 2.71419 195 209 255 
-1.92489 0.0390664 2.76692 203 219 255 
-1.95876 0.0763246 2.72942 22 31 72 
-1.91659 -0.808032 2.97409 67 71 100 
-0.551446 0.875402 3.28795 27 38 84 
-1.95589 0.0625955 2.74355 192 210 255 
-1.46253 0.321128 3.29226 27 44 87 
-1.47723 0.334904 3.32401 29 42 74 
-1.48544 0.373632 3.30443 184 204 255 
-1.43164 0.395003 3.32554 184 199 255 
1.45436 -1.23011 5.86113 113 112 144 
-1.67475 0.336937 3.06023 157 179 177 
1.25487 -1.40063 5.7481 168 180 220 
-1.97454 -0.863449 2.86105 174 189 218 
-2.00426 -1.30053 2.94246 128 133 175 
-1.99972 -0.979512 2.85718 124 131 160 
-1.96177 -1.30277 3.02278 97 98 128 
-1.96602 -1.20348 2.95757 92 97 135 
0.592197 -0.330669 4.70613 31 34 39 
-1.89416 -1.10699 2.93715 22 35 44 
-1.88464 -1.09559 2.94848 29 35 51 
-1.93139 -0.807689 2.98107 63 65 88 
-0.647082 0.29124 4.69146 107 117 119 
-0.648895 0.116577 4.70569 27 39 91 
1.83095 -2.11955 6.27968 79 86 114 
1.6921 -2.08693 6.12318 138 153 174 
3.35538 -2.38245 8.025 97 92 115 
3.32864 -2.33621 7.99529 101 99 123 
3.34269 -2.3357 8.00908 112 99 117 
1.80305 -1.80663 6.20092 154 171 201 
2.23908 -1.11357 6.63407 74 67 98 
3.01164 0.265615 7.32143 165 169 204 
1.31852 0.152081 6.29704 82 100 166 
2.34962 0.319005 6.69307 118 125 144 
2.58644 0.734971 6.7698 181 178 207 
3.01127 0.874226 7.24678 113 97 133 
3.03638 0.94576 7.27968 190 212 249 
3.05374 0.997461 7.29237 189 203 248 
3.06124 1.00877 7.29396 101 102 169 
2.1078 1.05199 6.43873 41 61 98 
2.39532 1.13336 6.498 122 135 167 
2.86728 1.06396 7.08753 173 184 206 
3.08031 1.05719 7.30905 201 195 223 
3.07849 0.963203 7.31566 215 212 233 
1.59063 -1.44576 5.92231 59 64 84 
2.58325 0.626331 6.78581 91 93 144 
3.48104 -2.31422 8.15263 106 93 110 
2.40295 0.95742 6.57866 141 140 154 
1.40351 -1.23329 5.73539 116 106 133 
3.10338 -2.35968 7.71709 178 173 213 
1.29272 -1.36804 5.61692 146 155 188 
3.0049 -1.77475 7.54939 172 170 209 
1.75415 -1.48334 6.09425 146 158 184 
3.37706 -2.3283 8.04496 95 92 111 
3.03575 0.945706 7.27435 190 212 249 
1.69676 -1.56534 6.08722 38 56 76 
2.58486 0.746568 6.78024 93 85 145 
2.5723 0.745992 6.77096 192 186 232 
2.58373 0.648739 6.78289 230 229 245 
2.53057 0.634828 6.74164 186 208 247 
2.59395 0.584055 6.80829 121 140 173 
3.03529 0.0707176 7.37565 90 106 131 
1.85262 -1.34021 6.24363 65 59 87 
2.14226 -0.00449458 6.75222 80 77 98 
3.46794 -2.35475 8.14325 111 105 117 
1.87059 -1.96361 6.34814 116 125 156 
2.47074 -0.386529 6.82728 54 52 66 
0.00657949 -1.71819 4.23382 70 56 79 
2.57592 0.672126 6.75864 109 110 175 
2.54505 0.622319 6.72988 211 231 255 
3.03115 0.64476 7.31002 173 177 206 
1.32386 0.140595 6.30845 209 225 255 
2.74452 1.01767 6.78188 74 87 129 
1.66173 -0.358783 6.69981 125 125 149 
1.0603 -0.980251 5.31976 68 78 113 
2.51315 -0.0964116 6.8064 30 37 53 
3.1908 -0.512397 7.61234 95 94 128 
0.0388509 -1.63993 4.25476 125 118 134 
1.99783 -1.99086 6.47496 113 117 142 
2.54296 0.623752 6.74517 190 217 255 
1.83179 -1.72911 6.2322 105 103 142 
2.5663 0.687282 6.77175 106 114 176 
1.45153 -0.304803 6.50666 105 105 129 
1.11255 0.598242 5.23119 45 43 57 
3.16557 -1.57674 7.74223 76 71 103 
2.99884 0.0768879 7.3595 92 97 139 
2.39203 1.13667 6.51818 134 150 184 
2.58491 1.24951 6.49851 110 113 154 
2.55052 0.187113 6.84043 140 159 191 
2.54803 0.415504 6.78605 159 174 205 
2.55294 0.187815 6.82141 157 173 206 
0.563924 -0.121717 4.66441 132 138 170 
2.55728 0.664209 6.75782 244 247 252 
2.56884 0.624134 6.74276 205 210 252 
2.55595 0.0220438 6.83182 127 143 176 
1.34297 0.1568 6.29799 48 59 115 
2.55323 0.0343797 6.84607 158 179 208 
2.53771 0.672015 6.73022 102 116 165 
2.57174 0.726588 6.74672 243 246 251 
1.5825 -1.47385 5.95012 138 133 156 
2.64142 -0.162467 6.95929 76 89 121 
1.66044 -1.53688 6.03838 139 156 184 
2.38192 -0.769169 6.77503 39 38 56 
2.26656 0.00156317 6.74133 122 135 167 
2.01585 -1.51982 6.42499 146 165 195 
1.96734 -2.00376 6.475 28 26 39 
-0.035463 -1.57657 4.17709 89 78 94 
0.0277334 -1.57626 4.23557 74 56 80 
1.83312 -1.76568 6.207 148 158 185 
1.87336 -1.77448 6.26228 130 136 170 
1.64287 -1.66415 6.05703 151 153 176 
1.95176 -1.62338 6.36287 58 72 101 
1.72383 -1.53605 6.08058 80 83 118 
1.61966 -1.51108 5.9852 126 143 169 
-0.404809 -1.3138 3.75633 123 129 165 
0.184746 -1.20056 4.33574 129 126 145 
-0.308863 -1.09778 3.84919 82 66 92 
1.10533 -1.14077 5.39292 162 170 207 
3.40178 -0.706321 7.85733 108 105 150 
3.39664 -0.697385 7.85637 164 168 203 
1.17126 -0.564668 5.89119 188 189 217 
0.404904 -0.503726 4.55088 90 84 112 
1.35534 -0.315667 6.37325 78 75 94 
3.11919 -0.00958782 7.42664 96 112 128 
2.58658 0.01333 6.87922 51 49 73 
3.07316 0.0669375 7.39389 98 106 127 
2.48545 0.190136 6.76989 113 113 137 
2.60215 0.209367 6.82565 109 125 159 
1.30559 0.213942 6.28178 96 109 162 
2.57886 0.391189 6.83979 61 65 90 
2.46836 0.556876 6.68235 64 65 85 
3.03625 0.650177 7.30013 162 157 189 
3.01552 0.655326 7.27431 123 115 152 
2.50671 0.658847 6.68947 57 74 94 
2.58724 0.734217 6.76222 178 177 209 
2.57361 0.74658 6.76063 202 201 245 
2.53029 0.741527 6.70875 55 62 104 
2.57055 0.818794 6.78539 68 75 104 
2.51086 0.800457 6.54102 99 116 146 
3.02721 0.939849 7.25537 99 100 144 
3.0693 0.949644 7.30722 195 200 242 
3.03775 0.944708 7.26452 192 214 253 
3.03197 0.983987 7.25504 99 110 164 
3.03877 1.06573 7.2668 146 155 196 
3.02694 1.07079 7.25641 63 62 96 
2.71493 1.01866 6.76617 145 141 166 
2.95706 1.14399 7.11304 111 120 129 
2.8572 1.19667 6.9891 94 104 129 
2.94321 1.28887 7.07165 59 65 91 
3.16001 1.41218 7.30298 53 65 91 
2.9174 1.40155 7.02327 117 129 151 
3.03968 1.50235 7.16096 57 52 75 
1.62526 1.14401 5.08895 73 77 115 
1.67198 -1.87987 6.13581 115 115 149 
1.84257 -1.82716 6.23126 146 163 189 
1.97518 -1.64541 6.41966 82 82 110 
-0.0230667 -1.38452 4.14641 105 93 113 
-0.184262 -1.35566 3.94907 127 122 144 
1.71621 -1.46481 6.05954 116 134 156 
3.5483 -1.65663 8.28581 33 21 45 
3.17627 -1.55948 7.65835 54 58 83 
1.64936 -1.37882 6.01579 73 64 93 
3.35058 -1.50435 7.83997 77 83 95 
3.44369 -1.49119 7.94953 79 86 104 
3.55056 -1.47954 8.07093 105 96 113 
3.5972 -1.47629 8.13451 83 85 98 
3.64148 -1.46582 8.17817 88 92 104 
2.12079 -1.22569 6.50936 113 108 131 
1.23243 -0.879517 5.51139 85 75 102 
3.39198 -0.715452 7.87083 164 172 208 
3.34606 -0.651183 7.79545 135 150 181 
3.52793 -0.618524 7.91842 92 98 112 
3.14786 -0.356805 7.54227 113 124 156 
2.65337 -0.348378 6.981 178 192 221 
3.21873 -0.0834653 7.5762 122 119 140 
1.16131 -0.181312 5.44276 67 53 76 
2.98686 -0.020458 7.33535 102 104 143 
2.28548 -0.00049759 6.74134 85 83 107 
3.07242 0.0682185 7.3645 101 106 126 
2.48312 0.189315 6.75661 111 113 136 
2.59965 0.209962 6.8395 101 116 149 
2.58646 0.626122 6.76739 76 75 132 
2.5311 0.623276 6.71116 69 81 139 
2.57413 0.628569 6.77106 219 225 255 
2.54966 0.690205 6.82494 82 104 164 
3.01166 0.874402 7.24224 111 94 128 
3.00132 0.881203 7.24361 164 163 194 
3.08025 0.961676 7.29542 210 206 231 
3.08073 0.971829 7.31223 193 187 225 
3.03169 0.986835 7.26606 99 110 164 
3.05303 1.01406 7.28494 193 223 255 
3.07575 1.0256 7.30167 93 97 160 
3.08366 1.05194 7.27094 168 160 199 
3.07208 1.0665 7.29398 166 153 207 
1.34938 -1.27523 5.63802 51 56 76 
1.99515 -1.32454 6.37698 62 57 80 
3.1427 -1.96939 7.71275 171 162 193 
2.50254 0.659575 6.71223 38 49 69 
2.52858 0.621793 6.74123 76 80 128 
1.66943 -1.5448 6.05698 126 129 160 
3.0781 0.943712 7.32704 90 72 120 
1.59844 -1.45585 5.91237 134 136 157 
3.06801 0.94923 7.31724 153 157 205 
3.5508 -1.65943 8.2979 33 21 45 
3.54931 -1.48605 8.09541 104 103 117 
3.02547 0.962081 7.27705 186 209 250 
1.62378 1.19438 5.08477 65 71 107 
3.07033 1.06824 7.31295 228 229 255 
2.58729 1.24529 6.48575 85 87 128 
3.03834 1.06425 7.27766 174 189 230 
3.40458 -0.726867 7.87212 162 177 208 
2.7925 1.06396 6.82867 119 133 160 
3.19735 -0.523988 7.6425 155 170 199 
2.74379 1.04555 6.78044 39 41 66 
1.83813 -1.83126 6.23978 121 141 168 
3.15225 1.42175 7.31437 107 124 144 
2.5953 0.583633 6.80249 121 137 171 
2.47754 0.565335 6.73088 113 113 137 
1.47005 -0.312701 6.47201 55 51 76 
1.92111 -1.32178 6.3203 75 71 96 
1.52373 -1.31512 5.86242 122 112 137 
3.55031 0.26978 8.96743 41 46 66 
3.54966 0.270166 9.02745 36 37 57 
1.0444 -0.142486 5.24157 165 179 208 
2.03202 -1.96176 6.49226 64 71 100 
3.49077 -1.49052 8.01981 73 81 94 
3.50254 -1.49296 8.04009 86 85 101 
2.44403 -0.579815 6.80772 46 44 65 
-0.0635239 -1.65842 4.17355 59 46 72 
2.51671 -0.0940286 6.78711 28 35 54 
0.434071 -0.504487 4.57421 122 114 129 
1.13939 -0.783353 5.40782 156 152 177 
1.58098 -1.3466 5.95471 119 101 125 
0.426128 -0.564832 4.57738 110 106 131 
1.63389 -0.29566 6.95058 65 57 80 
1.67772 -1.87273 6.10761 108 108 144 
1.6678 -1.67266 6.07522 25 36 54 
1.83688 -1.81464 6.22478 74 79 117 
3.22889 -0.570415 7.67476 167 179 217 
1.59454 -1.44049 5.89929 62 70 89 
1.83693 -1.7553 6.2203 155 167 191 
1.358 0.115801 6.31204 177 187 240 
3.07188 0.0703013 7.35377 107 119 141 
3.17523 -1.55387 7.63634 55 61 85 
3.03331 0.645731 7.28406 160 159 190 
2.53281 0.6364 6.72124 196 218 255 
2.61542 -0.156086 6.90214 134 141 169 
2.57309 0.74394 6.7322 207 206 248 
3.07875 0.941657 7.2942 72 61 104 
3.03882 0.941582 7.23298 199 219 254 
3.05271 1.0215 7.41526 76 98 156 
3.0277 1.04239 7.23701 212 229 255 
3.03744 1.06009 7.24382 193 207 242 
3.00224 -1.76964 7.54162 180 186 222 
3.18761 1.32678 7.34401 47 54 73 
2.41512 0.830832 6.58961 67 74 92 
3.34684 -0.643413 7.72487 114 118 153 
1.34906 -1.17857 5.67682 117 113 138 
1.95052 -1.27488 6.34154 114 110 133 
1.56778 -1.28579 5.91704 131 119 143 
2.44121 -0.794253 6.80414 109 105 128 
1.03516 0.164286 5.19308 119 128 161 
0.0305272 -1.51188 4.2448 48 39 58 
1.93736 -1.63062 6.38297 59 55 88 
3.38515 -0.693116 7.83795 163 182 214 
3.1421 0.0417947 7.47616 28 34 46 
3.06841 1.06889 7.32626 216 216 254 
3.07268 1.02279 7.33532 80 81 145 
3.51773 -1.61312 8.28819 65 57 78 
3.06532 0.952894 7.33639 199 213 250 
3.03806 0.949163 7.31189 143 160 212 
2.59233 0.211509 6.87519 92 98 130 
3.07944 0.949844 7.34961 85 70 125 
2.58461 0.634268 6.81207 84 84 138 
1.46487 -1.26071 5.82206 74 61 87 
2.54034 -0.836193 6.91977 86 107 138 
0.697788 0.710971 4.74998 154 161 189 
3.17269 -1.56219 7.67131 53 55 78 
2.57794 0.0117245 6.89593 39 35 58 
1.98787 -1.61216 6.45472 127 142 165 
3.02262 0.943563 7.26795 122 118 155 
2.25581 -0.119038 6.72768 82 90 109 
2.4119 0.832094 6.60468 60 65 84 
3.34389 -0.6551 7.81448 126 145 178 
1.71604 -1.51999 6.07793 153 160 189 
1.70628 -1.49263 6.07312 67 84 114 
3.07602 1.04765 7.28096 239 239 251 
3.05679 1.0188 7.26675 230 238 255 
3.05699 0.987787 7.30674 234 240 254 
2.54806 0.737521 6.70089 223 229 255 
2.56121 0.697073 6.71663 232 237 255 
1.45179 -1.18883 5.74689 58 55 76 
1.78514 -1.34861 6.17328 51 43 67 
1.53456 -1.28704 5.8669 62 53 82 
3.19708 -0.524151 7.61472 155 170 201 
2.55814 0.0209667 6.82069 97 106 137 
2.00876 -1.46468 6.38071 159 170 192 
3.02536 1.06397 7.23345 58 60 101 
3.03764 0.0727608 7.34644 93 104 126 
1.97478 -1.57334 6.38803 146 144 168 
1.7205 -1.53867 6.06671 59 64 93 
3.45066 -0.760516 7.89994 105 111 147 
0.990988 -0.702263 5.19537 85 98 132 
1.98371 -1.63901 6.39991 58 67 96 
1.62141 -1.60635 6.0189 65 71 105 
3.22486 -0.568107 7.65312 171 183 221 
1.46786 -1.27323 5.79513 122 108 133 
2.86862 1.05396 7.0415 155 160 189 
3.07249 1.04402 7.2709 243 243 253 
1.94488 -1.61487 6.33867 48 49 80 
3.03714 1.00065 7.2437 66 78 138 
3.052 0.981505 7.25932 237 241 253 
3.07339 0.96319 7.28075 239 239 249 
2.12025 0.733702 6.65942 110 128 152 
2.58325 0.748219 6.74903 73 64 127 
2.5481 0.736535 6.71437 235 240 255 
2.57292 0.726287 6.74005 240 243 250 
2.53731 0.721406 6.70436 231 240 255 
2.55538 0.700878 6.73683 242 246 255 
2.57582 0.689468 6.74529 68 87 143 
2.54018 0.684685 6.70945 65 77 127 
2.54123 0.671159 6.71133 78 89 145 
1.33241 0.21247 6.32116 192 208 255 
3.17039 -1.55526 7.70267 43 46 61 
3.5304 -1.61625 8.29351 34 29 52 
2.01055 -1.43267 6.3444 76 97 128 
1.27011 -1.36609 5.60831 174 184 220 
2.08287 -1.17117 6.51504 105 106 134 
2.50654 0.821933 6.56245 22 33 61 
1.72343 -1.5603 6.09418 147 161 187 
1.72692 -1.46323 6.03074 131 143 169 
0.0342366 -1.51514 4.23234 27 29 41 
2.52445 0.733259 6.69059 55 57 96 
1.04461 0.316391 5.14701 157 166 197 
2.38327 -0.767906 6.7686 34 33 47 
0.976615 -0.656343 5.22023 140 150 186 
2.1331 0.00400088 6.75467 118 123 152 
-0.546784 0.119637 4.5789 22 30 67 
2.55137 0.66176 6.77914 236 242 255 
2.49394 0.660222 6.70388 33 38 57 
2.47513 0.830814 6.56395 146 148 171 
2.01143 -1.52454 6.43986 135 154 186 
3.16652 -1.55186 7.68558 44 45 63 
2.63811 -0.1641 6.97952 65 72 98 
2.11787 0.00259758 6.75431 111 120 151 
2.58648 0.210625 6.88478 95 96 127 
2.0209 -1.62063 6.48794 116 114 138 
3.03608 0.0916683 7.37975 90 115 146 
1.99852 -1.66392 6.51638 141 154 186 
3.14723 -0.37064 7.60074 130 142 182 
3.12634 -0.344291 7.54909 96 92 129 
0.518351 -0.112947 4.6929 26 25 31 
0.437147 -1.96323 4.71354 77 74 83 
0.662529 0.617692 4.70817 194 208 255 
1.73384 -1.97671 6.21222 70 70 104 
1.33017 0.153042 6.30821 72 79 149 
-0.0472352 -1.72595 4.18136 29 28 44 
2.01932 -1.83715 6.50926 20 17 34 
0.130803 -1.70716 4.36632 34 32 43 
1.33415 0.212839 6.32295 172 187 246 
1.98547 -1.4188 6.32312 130 141 171 
0.676904 0.562982 4.75401 198 213 255 
1.83786 -1.87499 6.2452 73 88 119 
1.62301 -1.6886 6.04322 117 119 144 
0.992175 -0.436735 8.55371 74 70 84 
1.70873 -0.260985 6.73164 83 82 96 
1.28663 0.153168 6.40932 54 62 134 
-0.672859 0.0885443 4.67183 26 37 83 
0.628501 0.544816 4.69876 33 34 82 
0.0699416 -1.92576 4.35862 48 44 79 
1.85688 -1.94386 6.32244 81 80 112 
1.83506 -1.75739 6.17808 117 132 151 
2.02901 -1.6297 6.47171 108 120 142 
2.03605 -1.55974 6.44442 113 128 151 
1.59446 -1.44442 5.91457 45 48 65 
1.98032 -1.41291 6.35681 109 126 146 
-0.33329 -1.07898 3.82146 67 59 83 
1.6669 -0.268644 6.72905 82 78 95 
1.08024 -0.120616 6.07421 19 20 40 
1.34119 0.135665 6.34433 39 44 108 
1.23593 1.05659 5.05417 46 62 96 
0.436649 -1.94077 4.72645 104 95 116 
1.64905 -2.06758 6.09751 134 129 151 
1.84054 -2.07263 6.29512 71 71 95 
1.93465 -2.05717 6.43848 67 67 93 
1.66648 -1.99103 6.12293 42 46 75 
2.03687 -2.00097 6.49142 125 122 141 
2.00643 -1.99499 6.46334 60 59 73 
1.99228 -1.85952 6.44759 61 69 105 
1.61009 -1.65173 6.03787 72 78 104 
1.68817 -1.54451 6.06933 101 107 131 
1.71897 -1.52456 6.0663 108 114 140 
1.99258 -1.49839 6.4167 112 130 154 
1.56734 -1.46331 5.91432 118 118 142 
1.29425 -1.36626 5.61654 124 135 167 
0.16397 -1.18289 4.32489 118 111 127 
1.29064 0.201129 6.27707 95 106 160 
1.14199 -0.537488 5.37676 64 50 75 
1.29064 -0.327091 6.3049 68 69 90 
1.2467 1.04187 4.87164 51 49 73 
0.425219 -1.95999 4.69011 72 71 79 
0.477334 -1.92693 4.7988 42 36 48 
1.67102 -1.98486 6.10645 54 55 85 
2.0244 -2.00592 6.48512 91 92 112 
1.98752 -1.92927 6.44219 88 105 133 
0.0174177 -1.62917 4.27762 110 92 104 
1.83848 -1.74906 6.20449 140 151 171 
1.64021 -1.69771 6.06106 133 145 169 
1.62338 -1.67227 6.04984 146 154 175 
1.71001 -1.65199 6.07489 135 149 176 
2.01207 -1.6273 6.45178 69 83 112 
2.00163 -1.48903 6.43058 126 122 145 
1.2491 -0.887957 5.62209 113 115 136 
1.57809 -1.31041 5.96236 31 25 39 
0.398053 -1.94307 4.6693 104 95 116 
0.145813 -1.85773 4.3806 91 86 109 
1.12727 0.209498 5.27809 56 44 64 
1.65617 -2.05328 6.0677 113 115 136 
0.680876 0.662333 4.7311 218 227 255 
1.9954 -1.63522 6.44682 125 136 164 
1.81195 -2.00571 6.289 87 99 121 
2.0202 -1.60788 6.46054 125 130 162 
0.671645 0.547721 4.76127 155 181 242 
1.62222 -1.61994 6.05209 126 141 160 
1.63237 -1.58068 6.00922 118 122 149 
1.63534 -1.58477 6.04581 29 31 56 
1.28962 0.193793 6.28783 160 180 239 
1.33796 0.170901 6.33581 31 39 101 
1.36378 0.154107 6.18063 38 48 99 
1.12667 0.0748776 5.2632 95 96 117 
1.29219 0.0923038 6.32553 135 158 225 
1.61214 -1.49225 5.98398 153 168 187 
2.00682 -1.47798 6.39362 126 126 150 
1.82443 -2.00693 6.30497 72 84 108 
1.52285 -1.29821 5.88874 50 45 67 
1.4344 -1.20161 5.79617 42 38 53 
1.38644 -1.15117 5.73637 46 38 53 
0.146759 -1.11958 4.3185 37 29 44 
1.36846 -1.14643 5.66442 36 27 44 
1.30955 0.149471 6.30867 38 48 99 
1.31933 -1.0895 5.60242 62 52 77 
0.622339 0.641454 4.70859 188 203 255 
1.48345 -1.24678 5.77992 49 41 62 
1.62468 -1.62095 6.04003 128 138 163 
1.99372 -1.47964 6.38179 72 75 106 
1.06905 -0.976056 5.30735 52 66 95 
1.35874 -1.16249 5.68649 64 56 77 
0.510417 -1.95996 4.79572 30 29 34 
2.0031 -1.47102 6.39976 137 147 172 
0.486289 -1.91967 4.78066 30 28 39 
1.99554 -1.50854 6.41723 119 133 160 
1.61564 -1.61134 6.03348 50 50 78 
0.105255 -1.809 4.32984 38 38 46 
1.57754 -1.45348 5.88851 110 116 140 
0.476184 -1.9637 4.82509 34 26 39 
0.467578 -1.92928 4.79935 28 26 37 
0.0972584 -1.81184 4.33635 31 30 36 
1.9933 -1.98014 6.47001 119 125 149 
-0.663368 0.296585 4.64503 90 88 91 
1.66032 -1.55518 6.02421 99 103 132 
2.03421 -1.45418 6.42843 112 123 151 
1.99931 -1.5998 6.41947 124 132 155 
0.619784 0.537738 4.7126 37 35 59 
1.72071 -1.53459 6.02403 25 26 44 
1.66738 -1.60775 6.11321 113 123 148 
1.65265 -1.60677 6.03516 110 119 148 
2.01262 -1.65067 6.47971 124 135 165 
1.9522 -1.60076 6.38168 145 154 183 
2.01785 -1.59138 6.48882 132 143 171 
1.68089 -1.52642 6.10031 125 140 163 
0.981536 0.144659 5.16311 59 70 102 
0.0776655 -1.82361 4.35513 31 30 36 
0.569605 -0.102472 4.71311 103 94 115 
1.32192 0.153643 6.32659 66 90 152 
1.5456 -0.29697 6.57486 84 88 113 
-1.0875 -0.221612 3.96698 147 157 182 
2.12088 0.698956 6.65364 114 127 159 
0.560765 -0.119452 4.68127 110 121 151 
1.73249 -0.27408 6.78902 55 49 75 
1.72907 -0.2596 6.79244 86 79 97 
-1.11449 -0.294746 3.94365 132 147 170 
2.71465 1.02269 6.79072 153 147 173 
2.58814 0.635666 6.79228 97 101 149 
2.44891 0.317699 6.70704 122 117 139 
2.46685 0.32925 6.72551 49 36 54 
-0.627672 0.0753378 4.73879 81 108 175 
1.33743 0.152748 6.25294 66 67 134 
-0.49752 -0.698357 3.59216 76 69 100 
-0.473387 -0.809554 3.62717 72 63 90 
2.53083 0.615045 6.72869 88 90 129 
-0.0341965 -1.75333 4.19793 86 80 108 
1.63068 -1.38801 6.27623 77 59 83 
1.70564 -1.33836 6.11405 70 54 80 
1.65872 -0.273683 6.72868 94 92 113 
1.46916 -0.304583 6.39174 68 58 83 
1.4861 -0.298427 6.53197 97 99 122 
0.575842 -0.302219 4.68128 119 133 162 
2.55705 0.0239517 6.84541 127 143 176 
-0.67765 0.0691522 4.68242 154 172 236 
1.58991 -1.31283 5.94046 43 31 53 
2.45092 -0.484862 6.80436 40 38 52 
-0.64827 0.298685 4.68233 134 138 137 
1.01516 -0.0301112 5.14906 46 52 74 
1.85385 -1.85214 6.26386 126 137 169 
-0.229619 -1.14199 3.9266 74 55 75 
2.34904 -0.4618 6.78852 102 103 133 
3.04696 0.0303181 7.33158 79 91 105 
2.53032 0.636452 6.73328 172 196 244 
0.633402 0.543154 4.69134 34 30 81 
0.68771 0.57881 4.74613 92 96 160 
0.661905 0.601446 4.70832 80 84 155 
0.687252 0.632229 4.7399 50 63 133 
1.63857 -1.67973 6.04275 74 71 102 
1.63012 -1.58644 6.02226 139 139 163 
1.16527 -1.21122 5.46803 159 170 200 
2.12004 -1.22778 6.51877 113 108 131 
1.01163 -0.805408 5.24835 138 152 187 
1.14355 -0.782403 5.40013 153 147 173 
0.991333 -0.708032 5.22131 115 128 160 
2.98743 -0.0208217 7.34586 102 104 143 
1.30318 0.153464 6.36276 57 68 134 
1.34448 0.153845 6.24447 71 78 146 
0.690696 0.54214 4.75263 59 60 114 
0.64128 0.624812 4.68651 49 60 126 
0.692554 0.648579 4.73828 218 219 237 
-0.21807 0.958802 3.87258 146 160 187 
2.48304 -0.479282 6.82769 108 100 123 
0.410538 -1.34854 4.64458 110 108 145 
0.644302 0.573663 4.69061 54 64 125 
2.25836 -0.125086 6.71737 86 88 109 
0.671368 -1.59795 4.96568 173 188 221 
1.3492 -1.17746 5.66867 107 103 128 
1.66779 -0.28275 6.7216 65 57 80 
1.68442 -1.63607 6.0673 109 123 150 
2.57526 0.627786 6.75832 173 176 227 
2.55034 0.679446 6.72233 91 111 172 
1.41293 -1.21276 5.74347 83 70 96 
1.63571 -0.273198 6.67209 101 98 117 
1.71991 -1.46307 6.05133 118 134 157 
1.44773 1.086 5.26554 77 81 116 
0.667334 0.611376 4.71096 222 234 255 
0.564551 -0.307768 4.69182 110 114 141 
1.70764 -1.49019 6.06433 67 84 114 
2.54742 0.681197 6.73736 65 85 138 
2.59455 -0.653536 6.92797 163 182 214 
0.689861 0.586355 4.73106 48 53 108 
1.59819 -1.45671 5.90132 135 133 157 
1.30505 0.195218 6.26722 202 221 254 
0.153614 -1.1279 4.31717 123 120 139 
2.59223 0.0141389 6.8464 75 82 110 
2.45332 0.557517 6.71501 39 33 47 
-0.556648 0.904915 3.28444 212 223 255 
0.997705 0.144731 5.1314 75 88 123 
2.09449 1.0476 6.46293 55 53 74 
0.0806292 -1.91774 4.35031 70 60 95 
1.69753 -2.08405 6.11266 137 144 162 
1.85479 -2.10085 6.28744 76 73 100 
1.84415 -2.04417 6.31308 97 97 123 
0.150999 -1.81992 4.33685 49 45 62 
2.00475 -2.003 6.48331 76 75 89 
2.03285 -1.98602 6.45358 109 121 143 
2.04429 -1.97162 6.49483 105 102 121 
-0.143987 -1.73602 4.1026 50 34 44 
1.84913 -1.85649 6.27528 102 111 144 
0.302327 -1.65472 4.53544 118 124 158 
1.84363 -1.76285 6.20728 88 95 124 
1.61086 -1.7001 6.03323 100 98 119 
1.62131 -1.66398 6.06806 71 75 102 
1.99442 -1.6191 6.44822 95 101 127 
2.24736 -1.31888 6.65091 121 140 172 
1.08534 -1.24328 5.37046 108 116 153 
1.48422 -1.22022 5.83392 103 99 116 
0.499837 -1.00738 4.70641 104 105 135 
1.14381 -0.783718 5.39976 135 131 154 
2.57555 -0.671819 6.98592 118 137 169 
1.35451 -0.706022 6.41641 36 33 64 
0.958057 -0.547511 5.17233 93 103 128 
1.5151 -0.585355 6.65591 36 40 67 
2.64858 -0.350002 7.01175 155 170 199 
2.67927 -0.242506 6.99669 148 159 191 
2.62429 -0.153541 6.85835 125 137 161 
0.422168 -0.249234 4.51334 27 24 35 
3.01565 0.653473 7.27054 108 101 134 
-0.611061 0.291954 4.66508 56 73 80 
2.58873 0.727275 6.74621 190 194 241 
1.12294 0.596332 5.21946 64 62 76 
0.708427 0.551295 4.74223 40 44 107 
0.694804 0.563487 4.74774 189 207 255 
2.50964 0.831663 6.56115 89 102 121 
0.691902 0.634102 4.73584 52 68 143 
0.644187 0.644725 4.66896 155 150 204 
0.701453 0.667279 4.73911 41 40 74 
2.73978 1.02044 6.80707 50 49 89 
1.04729 0.753575 4.91435 103 112 141 
1.86006 -2.09512 6.27415 76 73 100 
0.141032 -1.90001 4.38209 121 120 152 
1.68255 -2.09136 6.15354 72 77 99 
1.68288 -2.07023 6.11591 49 46 65 
1.66304 -2.11047 6.21789 135 134 150 
1.6623 -2.05904 6.10499 113 110 129 
1.84653 -2.05659 6.28613 121 126 145 
1.83603 -2.00336 6.2651 147 159 185 
1.8636 -2.00731 6.3791 81 85 112 
1.98995 -1.98266 6.45406 85 83 105 
3.0068 -2.0875 7.58751 118 122 160 
2.0506 -1.96356 6.47305 105 102 121 
2.00846 -1.92499 6.48525 87 92 122 
1.84058 -1.8648 6.29561 101 108 137 
3.14233 -1.97272 7.72548 154 148 174 
0.0359391 -1.65003 4.23056 100 88 102 
0.293185 -1.65981 4.54535 118 124 158 
1.84194 -1.79051 6.26589 93 102 133 
0.0385353 -1.5699 4.22611 49 40 57 
1.59507 -1.71318 6.06737 99 98 116 
1.65263 -1.68683 6.0513 53 63 88 
0.665026 -1.6016 4.97836 151 166 199 
-0.109598 -1.47306 4.06611 47 36 52 
2.03591 -1.61094 6.44442 62 59 88 
1.68717 -1.57161 6.0694 97 114 134 
3.18755 -1.65477 7.83253 61 42 70 
1.68784 -1.48999 6.03659 46 56 83 
2.01235 -1.50611 6.4371 38 53 82 
1.45388 -1.45189 5.78306 104 116 140 
2.00291 -1.41229 6.32001 122 128 154 
1.58814 -1.35604 5.92792 57 47 74 
1.52426 -1.32665 5.86016 52 46 74 
1.52752 -1.31279 5.85596 111 106 129 
1.09176 -1.24063 5.35938 108 116 153 
0.16656 -1.18398 4.32443 114 107 123 
1.1843 -1.2155 5.44963 83 93 128 
1.51669 -1.22922 5.84574 96 88 111 
-0.234107 -1.14326 3.92962 54 39 60 
0.160958 -1.12295 4.30969 110 106 121 
-0.281738 -1.1149 3.8715 64 50 73 
0.133478 -1.11337 4.3217 149 145 160 
1.3641 -1.14284 5.66873 39 30 51 
2.27931 -1.03817 6.70657 94 89 111 
2.58175 -0.682419 6.93024 112 132 156 
0.993439 -0.711651 5.21542 118 131 163 
2.60297 -0.592435 6.94127 110 130 155 
2.61002 -0.572686 6.94642 126 141 172 
2.67757 -0.248689 7.05339 122 132 167 
1.15496 -0.36044 6.13774 40 37 58 
1.21997 -0.310083 5.57578 83 69 82 
1.21799 -0.304627 5.54447 80 76 90 
1.69762 -0.276831 6.7553 46 41 63 
1.15627 -0.181561 5.44823 59 44 63 
1.13599 -0.162569 5.32296 61 48 66 
1.35836 0.195755 6.30373 168 187 246 
1.30459 0.196062 6.25639 179 200 255 
-0.611276 0.0942358 4.71195 19 34 91 
2.5899 0.637707 6.78184 63 68 124 
1.09338 0.533517 6.01236 69 95 110 
2.55871 0.677165 6.74622 192 204 254 
2.54771 0.738207 6.69292 172 180 229 
0.646974 0.551076 4.67643 148 145 200 
0.65249 0.570165 4.68036 53 58 124 
0.676359 0.599963 4.69201 42 43 107 
0.687141 0.649039 4.74489 193 211 255 
0.638131 0.648865 4.67906 171 166 224 
0.694581 0.667883 4.7468 61 71 120 
2.86276 1.06928 7.12386 155 157 182 
1.0396 0.755373 4.92301 95 102 131 
0.607406 0.73144 4.61713 111 123 123 
1.61748 1.19842 5.09962 49 55 89 
2.47285 1.20216 6.53824 54 58 95 
1.61817 -2.1049 5.98422 36 38 61 
1.21042 0.915 5.39262 130 127 156 
0.440503 -1.93875 4.72212 104 95 116 
1.67277 -2.09895 6.17095 59 70 92 
0.480629 -1.92331 4.79473 42 34 45 
1.91472 -2.08317 6.50296 67 67 93 
0.695609 0.662022 4.71277 164 169 227 
0.653583 0.641861 4.66025 177 179 236 
0.00216713 -1.71861 4.2229 109 105 122 
1.90896 -1.89668 6.46752 162 169 197 
0.703166 0.575521 4.72774 52 52 124 
0.0384971 -1.64235 4.26328 104 100 114 
1.86067 -1.76182 6.28054 104 108 135 
3.01518 -1.86748 7.59688 102 96 130 
1.62856 -1.68082 6.0309 124 128 155 
1.64191 -1.67696 6.03589 62 59 88 
3.00069 -1.78666 7.59464 156 158 196 
1.63426 -1.66252 6.0209 146 154 175 
1.61924 -1.64305 6.0147 72 78 104 
1.70548 -1.63246 6.07071 51 58 84 
1.60526 -1.61645 6.04874 60 55 85 
1.59151 -1.44458 5.85678 118 118 142 
1.60433 -1.45264 5.89988 133 131 153 
2.56791 0.748477 6.78488 191 194 245 
2.57702 0.748426 6.81521 58 47 105 
2.55224 0.693765 6.77571 198 222 255 
2.59655 0.670157 6.5709 107 106 172 
2.53243 0.659051 6.74625 60 71 127 
2.57487 0.652109 6.81884 204 211 255 
-0.705502 0.306681 4.67692 73 67 69 
2.57146 0.628512 6.78633 144 157 212 
1.78825 -1.32534 6.13637 36 28 43 
0.588011 0.271054 4.64515 104 97 128 
2.56908 0.390805 6.89027 57 48 67 
1.31087 -1.11616 5.56432 85 75 100 
1.35367 0.177225 6.30464 19 30 96 
1.06776 -0.976949 5.30835 55 68 100 
1.29282 0.169989 6.29379 39 50 106 
1.25762 -0.883926 5.58983 145 150 170 
1.01189 -0.805413 5.24776 123 138 169 
1.15884 -0.779754 5.45546 61 52 73 
2.57679 -0.686151 6.95034 112 132 156 
1.13871 0.0757743 5.2474 110 108 130 
0.556437 -0.108506 4.65149 29 26 33 
1.50865 -0.576228 6.64336 40 41 69 
1.05601 -0.14117 5.21932 145 160 189 
2.6622 -0.251703 6.99268 124 143 173 
2.6693 -0.244428 7.01647 121 138 166 
1.30281 -0.339722 6.28039 41 36 59 
1.17588 -0.343847 6.19159 79 76 97 
1.15649 -0.188666 5.55154 128 116 130 
2.24586 -0.127942 6.75709 78 81 98 
1.48742 -0.310508 6.54599 52 44 67 
1.21825 -0.293621 5.71445 93 81 95 
1.65339 -0.273065 6.75951 83 79 96 
1.15393 -0.347664 6.13972 69 71 86 
1.14958 -0.347405 5.33463 47 48 68 
2.61668 -0.46727 6.93776 93 110 136 
2.5998 -0.569894 7.00568 83 102 132 
1.41137 1.12075 5.04565 55 61 97 
1.18873 -0.822238 5.45916 60 51 78 
2.29075 -1.02909 6.65838 94 89 111 
2.1122 -1.23444 6.5412 98 93 116 
2.04912 -1.42092 6.43141 112 122 149 
-0.117661 -1.47667 4.07191 51 44 60 
0.421519 -0.507059 4.58852 97 89 104 
1.62515 1.14551 5.09151 47 51 86 
0.688421 0.667707 4.73787 29 36 80 
0.661436 0.656694 4.65648 35 26 71 
0.708952 0.661079 4.72538 34 28 72 
0.703335 0.659622 4.70455 182 191 248 
1.67263 -2.11109 6.11239 20 30 40 
0.704264 0.644517 4.72379 181 197 255 
1.65209 -2.06302 6.0865 134 129 151 
0.682266 0.597449 4.68212 42 37 95 
0.690028 0.563173 4.75122 200 217 255 
2.01314 -2.01927 6.51813 91 92 112 
1.98874 -2.0203 6.522 70 72 85 
2.13289 0.709414 6.65329 84 85 115 
2.54196 0.695608 6.70142 47 65 131 
2.51395 0.656067 6.65364 41 50 67 
2.54098 0.657196 6.71196 52 62 123 
1.68434 -1.86533 6.10299 84 87 120 
1.98295 -1.8925 6.46817 37 48 70 
3.08937 -1.84329 7.58096 146 167 194 
1.65164 -1.68764 6.03161 133 145 169 
1.35544 0.137184 6.30757 28 34 94 
1.64721 -1.67352 6.02128 57 54 83 
1.71076 -1.65186 6.07306 135 149 176 
2.13309 -0.00514199 6.78767 69 68 86 
1.9428 -1.62422 6.40808 135 141 167 
1.97216 -1.60456 6.36079 47 42 72 
1.64872 -1.56492 6.02062 42 42 68 
1.12865 -0.137209 5.82555 149 149 157 
2.01654 -1.55912 6.44204 53 54 84 
1.16585 -0.169819 5.51765 117 120 137 
1.63282 -1.48081 5.94234 149 160 178 
2.27532 -0.167481 6.60918 89 84 104 
2.59991 -0.162495 6.96872 98 109 137 
0.592909 -0.321022 4.72275 25 22 31 
2.66837 -0.247851 6.95384 124 143 173 
1.17166 -0.619279 6.40271 36 52 86 
2.58175 -0.674527 6.94367 80 97 125 
1.99327 -1.40109 6.31732 109 126 146 
0.160138 -1.10243 4.29838 142 139 156 
1.3597 -1.16158 5.68271 64 56 77 
1.47205 -1.18852 5.75771 129 127 149 
1.48669 -1.21437 5.8112 111 108 129 
1.17765 -1.21992 5.46067 83 93 128 
1.65692 -1.34173 6.01453 48 43 65 
0.188784 -1.17302 4.30249 116 109 127 
1.58591 -1.30469 5.94303 31 25 39 
2.01357 -1.60499 6.41748 138 140 165 
1.5352 -1.30564 5.83807 115 111 138 
1.79569 -1.32124 6.12096 26 22 36 
1.44778 1.08618 5.26543 49 53 82 
1.65058 -1.62322 5.97593 139 144 166 
1.70005 -1.50017 6.09212 62 78 104 
1.0163 0.757262 4.96114 98 111 143 
1.37188 -1.16532 5.62979 100 94 120 
0.405569 -1.96332 4.7628 104 95 116 
1.5425 -0.299602 6.62204 48 43 63 
1.43023 -0.314524 6.47966 48 45 66 
1.23166 -0.879426 5.51291 70 61 82 
1.14415 -0.363682 6.16004 40 37 58 
0.421526 -1.34326 4.63379 88 89 120 
2.0309 -1.9445 6.48856 72 76 103 
1.36841 -0.701943 6.3858 40 36 63 
2.45645 -0.485785 6.84022 42 38 55 
1.54235 -0.575692 6.58564 36 40 67 
2.00336 -1.84742 6.41654 68 77 110 
1.12968 -0.314412 5.42469 50 37 55 
0.14655 -1.12015 4.317 37 29 44 
0.692665 0.712862 4.75651 140 140 168 
1.67813 -2.10404 6.09214 17 26 35 
1.86154 -2.08798 6.20329 69 83 110 
1.95566 -1.44783 6.42963 131 142 170 
1.82122 -2.15105 6.38727 74 74 98 
1.87507 -1.93326 6.5583 164 174 201 
2.49131 1.18955 6.48608 54 59 88 
1.95022 -1.4863 6.34992 152 164 188 
0.498035 -1.91075 4.76961 36 30 40 
2.73079 1.02928 6.85783 61 65 103 
1.03884 0.162619 5.18587 78 89 119 
0.640052 0.576867 4.69682 96 102 160 
1.99147 -1.9751 6.44828 91 101 128 
2.49303 0.841128 6.62401 73 90 118 
0.666975 0.539013 4.67792 153 168 233 
2.51081 0.727749 6.81259 169 194 248 
2.52989 0.697877 6.74766 59 66 118 
2.99877 -1.77929 7.57601 168 179 211 
1.69564 -1.6647 6.10558 120 134 163 
1.63807 -1.64842 6.03194 63 68 97 
-0.669961 0.0722086 4.66938 122 132 193 
1.99132 -1.62321 6.36056 75 76 104 
2.01918 -1.64489 6.5027 125 132 158 
1.95046 -1.61239 6.38456 150 156 180 
1.61634 -1.59522 6.04936 118 122 149 
1.65106 -1.5692 6.0054 29 31 56 
1.32361 0.151622 6.27361 38 48 99 
1.3533 0.0984091 6.30457 129 149 218 
2.00079 -1.57558 6.49622 53 54 84 
3.19343 -1.64025 7.77692 40 26 52 
2.00635 -1.53315 6.50842 114 129 152 
1.15806 -0.171978 5.67119 121 110 127 
2.11142 0.719466 6.58712 83 99 122 
1.16805 -0.179987 5.43042 56 43 60 
1.59879 -1.43707 5.8386 117 121 146 
2.00706 -1.50353 6.49722 122 128 152 
1.97184 -1.99267 6.45681 29 27 41 
1.84126 -1.98657 6.2555 72 84 108 
2.53606 1.01583 6.71342 140 144 173 
1.85548 -2.05109 6.23422 59 65 91 
2.6782 -0.238727 6.95704 109 126 154 
1.24518 -0.890429 5.61126 147 148 169 
0.431147 -0.887668 4.63673 78 79 109 
1.62827 -1.33998 6.06208 34 27 43 
0.175052 -1.11795 4.29896 111 109 130 
2.57144 -0.674168 7.03163 128 148 183 
1.44581 -1.27014 5.86206 38 34 51 
1.21183 -0.883519 5.53741 63 51 73 
1.20371 -0.958459 5.56434 42 39 58 
1.60749 -1.29902 6.03755 73 69 84 
2.11317 0.793985 6.68599 89 81 102 
2.01834 -1.86103 6.542 73 80 96 
1.80735 -1.7966 6.21255 72 83 115 
1.71803 -1.48322 6.04215 62 78 104 
1.02535 -0.798778 5.2267 116 133 161 
2.49359 -0.947484 6.92193 66 87 118 
0.590894 -0.101613 4.6921 108 104 131 
2.3751 -0.776821 6.81974 34 33 47 
1.51029 -2.02595 5.99226 67 79 117 
1.93141 -1.49195 6.35351 55 60 92 
0.712256 0.559537 4.72305 198 217 255 
2.5439 0.67302 6.8224 213 229 255 
2.75348 1.01206 6.68468 28 35 63 
-0.65207 0.154875 4.6456 116 125 192 
-0.618341 0.114442 4.65351 26 24 63 
1.29029 -1.10569 5.66103 62 52 77 
1.33679 0.136044 6.2883 179 198 255 
1.30934 0.107851 6.26555 180 201 255 
2.60001 0.0147547 6.83272 51 56 76 
2.73582 1.0252 6.83622 50 49 89 
1.97768 -0.00412016 6.79466 92 99 127 
1.50604 -0.592107 6.73011 97 117 150 
2.01825 -1.60994 6.47828 127 131 160 
2.11382 0.736931 6.6956 103 107 132 
1.12445 0.0743371 5.27614 109 110 130 
2.05518 -1.96921 6.45531 23 18 38 
1.82651 -1.99062 6.34239 141 144 163 
1.36718 -1.15744 5.66899 64 56 77 
1.65693 -1.54426 6.07677 110 124 151 
2.00698 -1.49611 6.37937 119 133 160 
2.5237 -0.86274 6.89643 117 140 171 
1.96054 -1.48695 6.32254 143 150 176 
1.05933 0.164592 5.15358 90 101 131 
0.481265 -0.135442 4.50821 94 87 103 
0.169875 -1.68616 4.32807 34 32 43 
1.66532 -2.11823 6.1193 19 29 38 
2.01464 -1.25769 6.28581 51 49 63 
1.96647 -1.47371 6.31719 147 159 185 
2.36328 -0.784498 6.86637 29 28 42 
1.94068 -1.29616 6.24874 52 47 69 
1.98582 -1.87006 6.47046 60 70 105 
1.58533 -1.27446 5.88099 124 106 132 
1.62317 1.18962 5.08678 47 50 81 
2.44864 -0.486659 6.84626 35 32 43 
2.59489 -0.61786 6.96513 61 78 106 
2.1247 0.78995 6.65259 91 86 108 
0.53962 0.258322 4.64375 124 124 152 
1.36231 -0.702113 6.57837 22 30 66 
2.45837 -0.391463 6.85285 36 34 45 
1.49581 -0.300254 6.6227 86 82 105 
1.0407 0.17904 5.16694 153 163 199 
1.66542 -2.04498 6.05825 153 158 180 
1.35626 0.212861 6.27124 172 187 246 
1.25704 1.13333 4.68041 51 51 75 
2.53434 -0.842139 6.9535 75 92 120 
-1.13102 0.105078 5.09072 17 23 47 
0.128055 -1.79351 4.30672 31 30 36 
1.32695 0.194512 6.35996 179 198 255 
1.958 -2.01331 6.50523 27 25 38 
-0.705682 0.173468 4.70262 91 87 137 
1.34449 0.156277 6.29517 34 40 90 
-0.609839 0.30003 4.65402 92 97 100 
0.584752 -0.301754 4.67201 101 111 136 
2.58109 0.626142 6.71223 205 223 255 
0.126049 -1.707 4.36279 19 18 23 
2.57585 0.649207 6.79626 207 216 255 
1.63749 -1.8201 6.10578 55 71 104 
0.180013 -1.16016 4.31606 33 32 46 
1.0288 0.735675 5.10771 135 150 181 
1.65806 -1.67493 6.05623 34 45 67 
1.99146 -1.63033 6.37391 72 78 104 
1.6855 -1.54061 6.0861 113 122 151 
1.98978 -1.27661 6.35332 37 35 49 
1.01901 -0.0320865 5.14977 47 53 77 
2.24736 0.740024 6.7233 98 108 135 
2.03119 -1.47934 6.3656 29 30 58 
1.9809 -0.0020512 6.77902 95 102 130 
1.6122 -1.30209 5.89928 36 32 47 
2.11295 -0.00324244 6.79959 97 109 135 
2.56641 0.18917 6.74775 123 134 164 
1.28423 -1.35673 5.58057 151 160 191 
0.58289 -0.102261 4.70278 105 99 125 
2.01504 -1.47488 6.49445 112 123 151 
0.460735 -0.876247 4.59794 72 74 99 
2.4441 0.560187 6.74755 29 28 42 
2.01494 -1.59566 6.41052 134 143 172 
2.20984 -0.00192611 6.82424 62 73 93 
-0.619961 0.0753617 4.71264 118 135 205 
0.663022 0.534682 4.65834 37 35 59 
1.47101 -1.24618 5.80463 29 22 38 
-0.629281 0.114902 4.70182 14 25 57 
2.0034 -1.49689 6.50465 123 130 156 
2.51424 0.621545 6.76946 80 80 108 
2.60484 -0.156973 6.94808 127 141 167 
2.24138 -0.00228047 6.84795 103 117 144 
2.56516 0.0114576 6.95416 37 35 56 
0.703276 0.649024 4.71067 201 215 254 
2.63989 -0.266892 7.03108 136 159 190 
2.56335 0.698784 6.69036 212 229 255 
0.596896 -0.322301 4.71006 19 18 23 
2.6404 -0.23215 7.09468 32 43 61 
1.58896 -1.71426 6.04034 57 52 74 
1.67463 -1.64831 6.1244 52 58 82 
2.00975 -1.65249 6.48346 124 135 165 
2.00184 -1.86145 6.56984 20 17 34 
2.5436 -0.832257 6.89535 71 88 118 
1.26748 -1.02525 5.57848 44 38 52 
1.97834 -1.57225 6.29694 145 154 183 
2.63792 -0.163148 6.98022 53 59 81 
2.49772 0.659745 6.68425 30 33 48 
2.028 -1.57846 6.45336 132 143 171 
1.72127 -1.49222 5.9942 125 140 163 
2.24657 -0.000883815 6.76237 94 105 133 
3.06534 -2.0333 7.77803 164 173 212 
1.98523 -1.55373 6.52892 136 148 174 
