ply                 
format ascii 1.0    
element vertex 1305
property float x    
property float y    
property float z    
property uchar red  
property uchar green
property uchar blue 
end_header          
2.13342 -0.00520862 6.7847 69 68 86 
1.94202 -1.62452 6.40873 135 141 167 
1.97134 -1.60491 6.36157 47 42 72 
1.64762 -1.56548 6.02197 42 42 68 
1.12817 -0.137382 5.82562 149 149 157 
2.01586 -1.55928 6.44243 53 54 84 
1.16493 -0.170061 5.51849 117 120 137 
1.6317 -1.48138 5.94374 149 160 178 
2.27535 -0.167515 6.60715 89 84 104 
2.60007 -0.162441 6.96515 98 109 137 
0.590873 -0.321462 4.72467 25 22 31 
2.66842 -0.247769 6.95062 124 143 173 
1.17176 -0.619221 6.40151 36 52 86 
2.58164 -0.674331 6.94141 80 97 125 
1.99091 -1.40285 6.32267 109 126 146 
0.157792 -1.10326 4.30019 142 139 156 
1.3646 -1.15882 5.67236 64 56 77 
1.47088 -1.18905 5.75911 129 127 149 
1.48558 -1.21487 5.8125 111 108 129 
1.17622 -1.22055 5.46232 83 93 128 
1.65634 -1.34189 6.01467 48 43 65 
0.186471 -1.17387 4.30428 116 109 127 
1.58492 -1.30512 5.94411 31 25 39 
2.01275 -1.60534 6.41828 138 140 165 
1.53411 -1.30614 5.83935 115 111 138 
1.79479 -1.32163 6.12193 26 22 36 
1.44708 1.08605 5.26596 49 53 82 
1.64938 -1.62388 5.97751 139 144 166 
1.69905 -1.50064 6.09327 62 78 104 
1.01494 0.757232 4.96252 98 111 143 
1.37061 -1.16589 5.63131 100 94 120 
0.403482 -1.96445 4.76469 104 95 116 
1.54279 -0.299577 6.62007 48 43 63 
1.43045 -0.314519 6.47802 48 45 66 
1.23038 -0.879908 5.51436 70 61 82 
1.14404 -0.363753 6.15934 40 37 58 
0.419429 -1.34414 4.63564 88 89 120 
2.02998 -1.94498 6.48964 72 76 103 
1.36826 -0.701941 6.38504 40 36 63 
2.45644 -0.485655 6.83785 42 38 55 
1.54242 -0.575625 6.5842 36 40 67 
2.00247 -1.84786 6.41753 68 77 110 
1.12859 -0.314707 5.42579 50 37 55 
0.141434 -1.12206 4.32124 37 29 44 
0.690864 0.712876 4.75824 140 140 168 
1.67685 -2.10489 6.09392 17 26 35 
1.86032 -2.08882 6.20508 69 83 110 
1.95496 -1.44805 6.43008 131 142 170 
1.82018 -2.15165 6.38856 74 74 98 
1.87423 -1.93362 6.55909 164 174 201 
2.49189 1.18853 6.48169 54 59 88 
1.9494 -1.48664 6.35069 152 164 188 
0.495919 -1.9119 4.77158 36 30 40 
2.73136 1.02822 6.85192 61 65 103 
1.03762 0.162412 5.18711 78 89 119 
0.639944 0.576204 4.69693 96 102 160 
1.98998 -1.97651 6.45104 91 101 128 
2.49352 0.840433 6.6198 73 90 118 
0.664987 0.538972 4.67982 153 168 233 
2.51136 0.727108 6.80784 169 194 248 
2.53036 0.697289 6.74327 59 66 118 
2.99837 -1.77869 7.57381 168 179 211 
1.69457 -1.66526 6.10689 120 134 163 
1.63693 -1.64903 6.03338 63 68 97 
-0.671101 0.0721193 4.67007 122 132 193 
1.99049 -1.62357 6.36136 75 76 104 
2.01842 -1.64517 6.50331 125 132 158 
1.94967 -1.6127 6.38526 150 156 180 
1.61532 -1.59571 6.05052 118 122 149 
1.64993 -1.56979 6.00683 29 31 56 
1.32388 0.151456 6.27205 38 48 99 
1.35354 0.0982609 6.30304 129 149 218 
2.00007 -1.57582 6.4967 53 54 84 
3.19304 -1.63942 7.77357 40 26 52 
2.00568 -1.53334 6.50875 114 129 152 
1.15736 -0.172185 5.67165 121 110 127 
2.11202 0.718921 6.58353 83 99 122 
1.16703 -0.180247 5.43142 56 43 60 
1.59759 -1.43769 5.84013 117 121 146 
2.00641 -1.50371 6.4975 122 128 152 
1.9709 -1.99317 6.45792 29 27 41 
1.84014 -1.98727 6.25705 72 84 108 
2.53499 1.01594 6.71594 140 144 173 
1.85429 -2.05188 6.23592 59 65 91 
2.67826 -0.238643 6.95373 109 126 154 
1.24405 -0.890844 5.61247 147 148 169 
0.429095 -0.88834 4.63854 78 79 109 
1.62736 -1.34036 6.063 34 27 43 
0.172723 -1.11879 4.30076 111 109 130 
2.57142 -0.673899 7.02885 128 148 183 
1.4448 -1.27056 5.86312 38 34 51 
1.21057 -0.88399 5.53883 63 51 73 
1.20247 -0.958936 5.56572 42 39 58 
1.60655 -1.29942 6.03855 73 69 84 
2.1139 0.793342 6.68189 89 81 102 
2.01751 -1.86139 6.5428 73 80 96 
1.80632 -1.79716 6.21382 72 83 115 
1.717 -1.48372 6.04337 62 78 104 
1.02382 -0.799318 5.22839 116 133 161 
2.49339 -0.947271 6.92021 66 87 118 
0.588793 -0.10196 4.69408 108 104 131 
2.37497 -0.776652 6.81796 34 33 47 
1.50896 -2.02679 5.99402 67 79 117 
1.93062 -1.49227 6.35422 55 60 92 
0.702176 0.560379 4.73487 198 217 255 
2.54441 0.672427 6.81763 213 229 255 
2.75395 1.0111 6.67947 28 35 63 
-0.653121 0.154703 4.64624 116 125 192 
-0.61937 0.114266 4.65414 26 24 63 
1.28909 -1.1062 5.6624 62 52 77 
1.33704 0.135883 6.28676 179 198 255 
1.30954 0.107697 6.26415 180 201 255 
2.60017 0.0146875 6.82935 51 56 76 
2.73636 1.02418 6.8305 50 49 89 
1.97814 -0.00418067 6.79155 92 99 127 
1.50637 -0.591941 6.72799 97 117 150 
2.01747 -1.61025 6.47896 127 131 160 
2.11451 0.736342 6.6916 103 107 132 
1.12326 0.0741098 5.27737 109 110 130 
2.05425 -1.96971 6.45643 23 18 38 
1.82548 -1.99121 6.34369 141 144 163 
1.36597 -1.15796 5.6704 64 56 77 
1.65588 -1.54478 6.07803 110 124 151 
2.00617 -1.49644 6.38013 119 133 160 
2.52349 -0.862562 6.89474 117 140 171 
1.9597 -1.48731 6.32338 143 150 176 
1.05803 0.164383 5.15494 90 101 131 
0.478886 -0.135829 4.51034 94 87 103 
0.16766 -1.68719 4.32977 34 32 43 
1.66401 -2.11911 6.12115 19 29 38 
2.01388 -1.25798 6.28648 51 49 63 
1.96563 -1.47407 6.31805 147 159 185 
2.36319 -0.784298 6.86441 29 28 42 
1.93988 -1.29648 6.24948 52 47 69 
1.9849 -1.87053 6.47151 60 70 105 
1.5843 -1.27492 5.88215 124 106 132 
1.62234 1.18958 5.08759 47 50 81 
2.4486 -0.486544 6.84402 35 32 43 
2.59481 -0.617662 6.96267 61 78 106 
2.12536 0.789329 6.64869 91 86 108 
0.537561 0.258151 4.64564 124 124 152 
1.36241 -0.70201 6.57699 22 30 66 
2.45841 -0.391356 6.85029 36 34 45 
1.49616 -0.30022 6.62064 86 82 105 
1.04069 0.178883 5.16638 153 163 199 
1.66412 -2.04584 6.06007 153 158 180 
1.35654 0.212673 6.26962 172 187 246 
1.25538 1.13357 4.68226 51 51 75 
2.5334 -0.842617 6.9552 75 92 120 
-1.12994 0.104969 5.08964 17 23 47 
0.125794 -1.79461 4.30844 31 30 36 
1.32735 0.194332 6.35808 179 198 255 
1.95705 -2.01381 6.50634 27 25 38 
-0.706421 0.173303 4.70301 91 87 137 
1.34477 0.15611 6.29355 34 40 90 
-0.610823 0.299872 4.65462 92 97 100 
0.58262 -0.302201 4.67401 101 111 136 
2.58146 0.625631 6.70811 205 223 255 
0.124003 -1.70794 4.36434 19 18 23 
2.57632 0.648645 6.79165 207 216 255 
1.63634 -1.82075 6.10726 55 71 104 
0.177731 -1.16099 4.31783 33 32 46 
1.0277 0.735591 5.10877 135 150 181 
1.65693 -1.67555 6.05768 34 45 67 
1.99066 -1.63067 6.37464 72 78 104 
1.68451 -1.54109 6.08725 113 122 151 
1.98913 -1.2768 6.35364 37 35 49 
1.01762 -0.0323548 5.15123 47 53 77 
2.24799 0.739419 6.71913 98 108 135 
2.03045 -1.47961 6.36618 29 30 58 
1.9813 -0.0021201 6.7761 95 102 130 
1.61114 -1.30259 5.90054 36 32 47 
2.11332 -0.00330622 6.79651 97 109 135 
2.56661 0.188993 6.74438 123 134 164 
1.28283 -1.3574 5.58226 151 160 191 
0.592358 -0.100211 4.68828 105 99 125 
2.01438 -1.47508 6.49478 112 123 151 
0.458531 -0.876971 4.5999 72 74 99 
2.44455 0.559731 6.74347 29 28 42 
2.01416 -1.59597 6.4112 134 143 172 
2.21021 -0.00198316 6.82095 62 73 93 
-0.621188 0.0752407 4.71342 118 135 205 
0.66101 0.534641 4.66025 37 35 59 
1.46995 -1.24665 5.80582 29 22 38 
-0.630531 0.114785 4.70262 14 25 57 
2.00274 -1.49707 6.50496 123 130 156 
2.51472 0.621018 6.76502 80 80 108 
2.6017 -0.158912 6.96208 127 141 167 
2.2417 -0.00234093 6.84473 103 117 144 
2.56541 0.011408 6.9503 37 35 56 
0.701415 0.64902 4.71246 201 215 254 
2.64 -0.266775 7.02754 136 159 190 
2.56375 0.69821 6.68618 212 229 255 
0.594776 -0.322756 4.71208 19 18 23 
2.64058 -0.232031 7.09078 32 43 61 
1.58789 -1.71481 6.04159 57 52 74 
1.67361 -1.64882 6.1256 52 58 82 
2.00896 -1.6528 6.48414 124 135 165 
2.00107 -1.86174 6.57046 20 17 34 
2.54341 -0.832068 6.89354 71 88 118 
1.26622 -1.02577 5.57993 44 38 52 
1.97747 -1.57265 6.29787 145 154 183 
2.63803 -0.163102 6.97676 53 59 81 
2.49813 0.659215 6.68026 30 33 48 
2.02723 -1.57876 6.45401 132 143 171 
1.72022 -1.49274 5.99548 125 140 163 
2.24684 -0.000954542 6.75944 94 105 133 
3.0649 -2.03255 7.77563 164 173 212 
1.98456 -1.55392 6.52924 136 148 174 
0.0885006 -1.12642 4.36414 130 123 139 
1.01965 0.146907 5.10146 59 70 102 
2.05513 -1.3802 6.45209 98 114 137 
1.00342 0.702035 5.15907 147 160 192 
1.48139 -0.590019 6.77478 99 119 154 
1.99393 -1.05643 5.13516 31 24 40 
1.5347 -0.61471 6.686 58 55 76 
1.98877 -1.27051 6.33744 30 28 42 
0.48295 -0.128882 4.76194 95 95 119 
1.69157 -1.30434 6.07955 91 78 98 
1.82875 -1.34243 6.28146 42 35 53 
1.97183 -1.88467 6.49665 55 64 95 
2.36627 -0.771204 6.80829 22 20 33 
-0.257762 -1.75861 3.9681 135 147 189 
0.656893 0.791196 4.65158 72 81 88 
1.62516 -1.34395 6.22843 85 83 105 
1.64 -1.38087 6.25484 61 47 72 
1.03553 0.179301 5.17374 146 161 200 
1.7779 -1.29714 5.95456 35 27 51 
1.3319 0.192556 6.32717 175 193 255 
-0.48605 -2.10035 3.72136 84 85 105 
0.101634 -2.01697 4.34724 83 75 90 
-0.335652 -1.8955 3.90571 137 146 179 
0.0242662 -1.65592 4.23974 105 93 113 
0.0761438 -1.38594 4.25748 119 106 126 
-0.320373 -1.08245 3.81598 132 124 145 
0.501076 -1.00735 4.70489 122 126 163 
1.01951 -0.801473 5.24382 108 123 152 
-0.446457 -0.8795 3.65735 85 70 101 
0.949524 -0.401703 5.15306 111 122 150 
1.13703 -0.163094 5.31903 60 51 80 
1.35361 0.200632 6.32887 133 128 194 
-0.670817 0.288263 4.65107 123 132 137 
1.10785 0.442949 5.19259 68 72 107 
-0.546078 -2.12003 3.64476 75 62 79 
-0.267346 -2.07164 3.9461 85 77 90 
-0.298162 -2.05769 3.92981 95 87 102 
0.00896457 -2.02727 4.24497 78 76 89 
0.236011 -1.99479 4.49935 59 56 67 
0.426875 -1.95718 4.68497 82 82 94 
0.396497 -1.94437 4.67137 110 110 138 
-0.511145 -1.95235 3.70545 163 158 190 
1.25366 1.13996 4.6923 41 60 102 
1.61198 -1.6488 6.02965 68 85 113 
2.03201 -1.56461 6.46821 100 115 138 
1.42457 -1.17961 5.77608 116 116 140 
1.24348 1.05368 5.03896 47 72 113 
1.17527 -0.774581 5.4284 59 41 67 
0.954551 -0.400295 5.14331 107 116 145 
1.25803 -0.330942 6.28142 67 62 82 
-0.538581 -2.11239 3.64174 94 85 106 
-0.527091 -2.11004 3.66542 90 88 109 
0.0733681 -1.92276 4.35378 69 71 112 
1.70023 -1.6503 6.10348 78 99 126 
0.19852 -1.99715 4.444 86 80 92 
1.93023 -1.87545 6.41221 151 160 191 
1.12934 0.207596 5.26922 58 48 72 
-0.485215 -1.79647 3.7234 124 131 173 
-0.550397 -0.471219 3.49789 83 82 96 
1.98493 -1.60845 6.44424 100 128 150 
0.955115 -0.354835 5.14317 114 125 157 
-0.252181 -2.0689 3.96986 81 77 94 
1.98958 -1.86321 6.46191 66 83 126 
1.80888 -1.76653 6.21007 52 60 99 
1.67837 -2.07659 6.13411 41 56 77 
0.117194 -2.01122 4.36516 89 86 103 
-0.514035 -1.66027 3.6655 169 171 209 
1.57963 -1.30922 5.95462 38 20 42 
-0.490379 -0.463127 3.51384 94 93 107 
0.448697 -1.93577 4.72768 111 109 131 
-0.976917 0.614849 4.064 122 117 137 
0.194733 -2.14539 4.70479 41 29 51 
0.457296 -0.136914 4.53116 101 99 123 
1.61247 -1.52084 5.99489 116 136 160 
2.01827 -1.61123 6.47126 127 136 169 
0.0528053 -1.51094 4.25193 37 34 53 
-0.11061 -1.85251 4.0882 50 50 60 
1.64943 -1.60438 6.06084 120 145 175 
1.35548 0.153513 6.21123 59 61 138 
1.27602 0.152163 6.42013 37 54 100 
1.29465 0.0918249 6.31492 104 134 198 
1.14532 -0.335233 5.40455 45 32 49 
1.63949 -0.356629 6.70923 38 44 78 
1.82682 -2.00044 6.28853 71 87 110 
1.70734 -1.33984 6.10627 36 24 48 
0.121286 -2.01856 4.37794 28 25 34 
0.0949589 -2.0169 4.35493 89 87 101 
1.55275 -0.293278 6.59503 40 32 56 
-0.522123 -1.66467 3.67017 156 156 192 
1.11802 0.0755318 5.2847 111 118 146 
-0.491493 0.922215 3.33341 42 31 73 
1.03566 0.599526 5.132 110 121 153 
0.150799 -1.11866 4.31264 71 72 100 
1.01713 0.165946 5.14051 67 78 108 
-0.541896 0.916973 3.27997 178 176 239 
-0.555696 0.802829 3.28255 44 37 70 
-0.0214329 -1.62723 4.18363 108 96 120 
1.27886 -1.01732 5.55262 39 32 48 
1.95721 -1.81471 6.42976 68 82 121 
0.577498 0.0758786 4.67879 107 98 127 
-0.529274 0.858481 3.29736 29 33 78 
1.2398 1.09188 4.87073 45 58 90 
0.103958 -1.80665 4.32659 40 44 56 
-0.656012 0.0986943 4.70023 146 170 244 
0.0192021 -1.64429 4.29529 40 36 50 
1.62276 -1.60059 6.01426 52 50 89 
1.62949 -1.61818 6.01871 127 144 170 
1.63852 -1.70997 6.05007 146 163 189 
0.574767 -0.100899 4.70299 111 101 126 
-0.575148 0.894788 3.26993 72 58 83 
1.67355 -1.59517 6.08045 100 119 149 
0.584151 -0.300464 4.6739 108 123 152 
1.31332 0.131172 6.31698 173 193 254 
-0.52048 0.907114 3.3404 207 220 255 
1.99757 -1.64956 6.45473 129 150 179 
0.696905 0.535583 4.64253 57 62 120 
2.13029 0.729469 6.65417 116 121 143 
2.21556 0.697173 6.45957 117 128 156 
3.01307 0.654326 7.28716 140 132 169 
3.02573 1.04581 7.26439 210 225 254 
1.8317 -2.00617 6.2746 148 164 189 
2.55254 0.0202561 6.86037 104 117 149 
3.01241 0.874119 7.26203 124 107 143 
3.46484 -2.34894 8.12868 111 105 117 
2.46978 -0.386217 6.81599 54 52 66 
0.149196 -1.6974 4.34498 55 52 69 
1.8221 -1.8599 6.23138 100 105 143 
2.59006 0.211863 6.85146 100 103 136 
2.23703 -0.000171082 6.7564 86 94 117 
3.14154 1.49402 7.26592 36 40 67 
3.55079 -1.66225 8.31117 33 21 45 
1.7173 -1.37495 6.08988 110 105 135 
3.45828 -1.49303 7.96659 96 92 109 
3.5654 0.239316 9.00786 113 119 135 
3.02161 1.06098 7.25733 86 71 110 
3.46114 -1.28929 8.01165 157 170 202 
2.444 -0.578013 6.79443 46 44 65 
2.0175 -1.64237 6.48224 131 147 173 
1.14853 -0.335724 5.39551 54 43 59 
2.70396 1.02102 6.79858 171 168 197 
2.57259 0.674804 6.7816 94 88 150 
3.03672 1.00243 7.25887 66 78 138 
3.05256 0.981697 7.27388 237 241 253 
2.53961 0.685378 6.72227 65 77 127 
-0.650197 0.100884 4.73427 34 60 121 
1.05124 -0.204883 5.22181 114 125 157 
0.563636 -0.127737 4.67244 145 154 185 
3.21721 -0.0980892 7.59284 117 121 150 
2.27162 0.00840882 6.71602 123 136 171 
1.02419 -0.220682 5.18325 36 39 54 
1.43365 -1.2005 5.77062 55 52 69 
0.134559 -1.13252 4.30778 26 24 25 
3.20686 -0.514028 7.63638 70 70 106 
3.31564 -2.3935 7.93342 94 87 103 
3.48841 -2.36551 8.11922 80 79 95 
3.45538 -2.35015 8.1215 85 84 98 
1.83252 -2.07839 6.30955 68 66 88 
1.84996 -2.06295 6.27692 92 94 117 
3.87373 -2.28352 8.55709 79 77 90 
4.00432 -2.28552 8.71896 69 67 81 
4.051 -2.27585 8.76076 70 68 82 
4.02552 -2.23153 8.73876 77 76 90 
4.03978 -2.23501 8.76267 90 79 93 
1.87312 -1.98907 6.35731 89 86 115 
3.65355 -2.00618 8.33153 88 73 92 
3.89048 -1.9702 8.59667 93 82 99 
2.00479 -1.61905 6.44819 131 131 155 
3.40728 -0.717233 7.86149 86 89 122 
1.1589 -0.526595 5.8892 150 148 170 
1.17865 -0.344386 6.18919 74 71 90 
1.47044 -0.299032 6.47806 88 85 104 
3.23226 -0.107653 7.6081 38 26 50 
3.04103 0.0298921 7.36059 58 72 81 
3.56385 0.236801 9.02731 100 107 123 
3.57114 0.237754 8.97853 109 108 124 
3.81882 0.476059 9.19771 142 171 201 
3.63308 0.499881 9.06422 79 89 114 
-0.641369 0.117794 4.68008 32 29 82 
-0.618078 0.160248 4.71684 87 118 183 
2.53351 0.701794 6.72469 54 73 131 
3.07939 0.971153 7.33203 190 188 237 
3.07464 0.987478 7.32274 92 89 160 
3.03062 1.0248 7.27424 63 82 138 
3.08041 1.05894 7.32745 193 194 240 
3.08548 1.06551 7.32548 67 51 113 
2.87198 1.06236 7.07707 145 143 167 
2.95391 1.14961 7.15054 102 113 119 
2.91356 1.40396 7.04534 98 110 136 
3.33949 -2.39867 7.96945 46 44 66 
1.85592 -2.11459 6.29547 87 93 119 
3.52826 -2.30614 8.20286 89 78 92 
1.84343 -2.05956 6.29358 121 126 145 
3.95957 -2.29427 8.67365 69 67 81 
3.89026 -2.2522 8.58557 84 78 92 
4.03968 -2.23211 8.7501 90 79 93 
2.02126 -1.97082 6.46619 99 104 126 
1.6063 -1.87765 5.97777 85 76 103 
3.59224 -2.06278 8.27462 91 102 124 
1.87226 -1.74989 6.25025 99 106 134 
3.08612 -1.86282 7.64594 152 167 196 
3.8862 -1.94727 8.60848 96 89 105 
1.64854 -1.68965 6.06034 53 63 88 
1.65803 -1.59458 6.05447 104 124 148 
2.02585 -1.6206 6.47661 62 59 88 
2.01458 -1.61848 6.47849 124 125 153 
1.61274 -1.50404 5.97403 54 61 89 
3.2068 -1.55186 7.69832 103 110 129 
3.22819 -1.52369 7.71412 64 62 73 
1.98503 -1.40779 6.33541 136 157 176 
3.53774 -1.4768 8.04547 84 91 101 
3.76542 -1.43858 8.28993 48 61 70 
3.82425 -1.43513 8.36412 71 73 85 
1.56801 -1.26309 5.9231 81 77 92 
2.28702 -1.03007 6.6712 94 89 111 
3.90131 -0.962808 8.42696 153 170 198 
3.39016 -0.682703 7.82634 121 130 159 
0.963984 -0.54575 5.16538 93 103 128 
1.52048 -0.583833 6.64276 36 40 67 
0.421902 -0.426529 4.55686 112 108 125 
2.61148 -0.154916 6.9306 140 154 180 
3.23007 -0.108459 7.62523 70 61 88 
1.12279 -0.144041 5.74483 62 58 72 
1.13882 -0.137012 5.81072 132 132 140 
1.34974 0.135898 6.32292 39 44 108 
3.75067 0.642204 9.17532 29 27 51 
2.58015 0.711756 6.7645 76 92 152 
2.52705 0.730392 6.70524 49 51 92 
0.695932 0.541583 4.74502 31 37 95 
3.08251 0.954668 7.33857 47 50 103 
3.04614 1.00452 7.28688 58 78 137 
3.08066 1.07482 7.32088 60 48 94 
3.13801 1.49576 7.28065 41 39 61 
0.275626 1.0621 4.22613 133 142 171 
1.61518 -2.10757 5.99022 36 38 61 
1.8439 -2.1204 6.3135 91 93 114 
1.87152 -2.10982 6.33154 86 91 111 
2.86232 1.06456 7.10591 161 167 193 
3.08303 1.06815 7.33193 68 52 115 
3.07528 1.06432 7.32375 186 186 236 
1.99508 -1.85569 6.4364 61 69 105 
3.0248 0.942793 7.27519 71 69 116 
2.56312 0.81977 6.8014 54 52 76 
3.00888 0.875441 7.27308 93 78 111 
1.6069 -1.50829 5.9836 45 55 80 
2.21922 0.746808 6.63825 58 66 89 
2.272 0.738448 6.65652 86 91 121 
3.58851 -1.61271 8.24464 92 93 113 
2.55789 0.691838 6.74283 198 222 255 
2.49308 0.660173 6.72403 28 34 50 
1.51583 -1.3206 5.87957 107 103 128 
3.00938 0.654317 7.30115 115 114 148 
3.76029 -1.3899 8.33192 91 90 122 
2.48387 0.565829 6.70128 104 102 123 
3.74823 0.642514 9.19548 36 32 59 
-0.665144 0.0914169 4.66747 14 26 68 
1.24186 -1.10148 5.49156 44 41 60 
3.52715 -0.620354 7.93391 86 88 103 
1.37413 -0.737375 6.47298 40 41 61 
3.22178 0.0820497 7.56671 47 42 64 
1.14685 -0.442848 5.34774 56 45 62 
1.66474 -0.358739 6.69362 104 105 126 
1.14449 -0.31093 5.3961 50 37 55 
1.1856 -0.34305 6.17031 79 76 97 
3.21669 -0.086397 7.60493 109 110 131 
3.20202 -2.36004 7.86772 111 93 117 
2.47671 -0.382778 6.79752 47 43 57 
2.61246 -0.469033 6.95894 93 110 136 
3.64039 0.453104 9.09579 120 124 149 
4.03717 -2.24002 8.77678 82 78 92 
3.88909 -2.25623 8.59595 76 72 87 
0.647263 0.622136 4.68176 20 30 99 
1.85628 -2.09162 6.29343 108 108 132 
3.02581 0.960925 7.26945 182 209 254 
2.26838 0.76034 6.66293 80 90 115 
1.8353 -1.98727 6.32289 139 137 151 
3.59509 -2.07041 8.29192 103 111 132 
1.84758 -1.8244 6.2181 136 148 172 
3.64853 -2.01346 8.34936 93 81 103 
1.60865 -1.70708 6.01935 47 46 62 
1.70281 -1.65964 6.09278 135 149 176 
2.59837 0.208889 6.8571 90 99 130 
1.32618 0.0966396 6.37462 117 136 202 
1.71354 -1.53007 6.08322 113 117 142 
3.55458 -1.65318 8.26608 23 16 32 
3.1445 -0.360698 7.58153 99 108 139 
3.22726 -0.572661 7.69328 144 159 190 
1.2508 -0.888406 5.60371 145 150 170 
1.46801 -1.22725 5.85242 111 108 129 
3.7844 0.116248 9.23498 80 84 93 
1.06538 -0.141043 5.20636 153 168 197 
3.59196 -1.63138 8.22263 89 81 102 
1.03019 0.755422 4.93842 98 111 143 
1.26703 -0.953216 5.5488 51 43 58 
3.90201 -0.963947 8.43724 153 170 198 
1.29934 -1.36443 5.60673 121 134 166 
1.16657 -0.77831 5.44405 61 52 73 
3.55483 0.972236 8.93966 104 117 134 
1.00327 -0.645307 5.18565 105 118 150 
2.46533 -0.480157 6.79348 42 38 55 
3.62578 0.871659 9.01623 93 97 122 
3.15962 -0.35344 7.51897 72 76 103 
3.46808 -2.3429 8.11048 99 82 98 
2.53626 -0.838582 6.93595 75 92 120 
1.84359 -2.11068 6.25475 69 83 110 
0.160505 -1.16765 4.33396 33 32 46 
3.08398 1.069 7.31086 59 46 102 
3.07822 1.05035 7.30705 216 222 255 
3.06492 0.998757 7.33556 105 94 160 
3.02918 0.991066 7.27928 70 73 126 
2.25926 0.740904 6.6915 95 100 129 
3.64639 -2.01198 8.33771 97 85 107 
1.70063 -1.55876 6.0675 29 37 58 
2.5417 0.659714 6.7033 58 64 122 
3.02778 0.647903 7.34117 146 151 183 
2.26592 -0.115129 6.68257 92 99 118 
3.03645 0.0712355 7.3666 75 87 109 
1.14236 -0.175958 5.70088 121 110 127 
2.8887 0.874251 7.10127 113 106 137 
1.82706 -2.01423 6.28619 137 149 175 
1.66127 -2.01937 6.11147 132 138 162 
2.67562 -0.239657 6.96759 109 126 154 
1.67538 -2.11395 6.16547 128 133 153 
0.144354 -1.10927 4.31325 142 139 156 
1.40759 -1.13585 5.68952 46 38 53 
0.963053 -0.716133 5.23433 81 94 129 
3.44187 -0.760326 7.88911 113 123 158 
1.16274 -0.620503 6.41959 45 63 99 
1.9595 -1.51867 6.35636 89 93 120 
1.62882 -1.52201 6.01366 106 122 148 
2.45954 0.808492 6.66408 92 103 133 
3.54872 -0.693314 7.9879 46 35 49 
1.51692 -2.01869 5.97537 67 79 117 
0.702439 0.560243 4.73462 198 217 255 
1.66733 -2.10196 6.17553 59 70 92 
2.58043 0.641268 6.77265 211 221 255 
2.53272 0.618851 6.72152 42 53 99 
0.130527 -1.13594 4.33999 109 106 125 
3.03513 1.01152 7.26218 50 63 118 
3.05004 1.02256 7.30653 195 221 255 
3.02637 1.06062 7.24699 38 34 71 
3.03186 1.04324 7.25822 192 215 255 
3.08287 1.04674 7.2939 211 215 252 
0.640778 0.654818 4.66922 40 31 74 
1.16934 -0.647647 6.31459 73 89 125 
3.16877 -1.56557 7.69064 41 42 62 
2.05127 -1.97211 6.46667 23 18 38 
1.65278 -2.03559 6.14194 140 147 166 
1.70667 -1.50295 6.03786 131 146 169 
3.41935 -1.60513 7.99755 32 30 51 
1.03566 0.601659 5.12641 108 119 149 
1.86105 -1.94565 6.31058 83 89 121 
1.66815 -1.60289 6.08791 91 103 127 
1.62076 -1.52092 5.98765 120 127 153 
3.53373 -0.617704 7.88511 99 88 104 
1.64638 -1.64134 6.01789 68 73 103 
1.99024 -1.28043 6.36453 51 49 63 
3.08696 -1.99584 7.66402 138 140 179 
3.55999 -1.65627 8.25495 19 17 30 
3.55472 0.258444 8.97243 39 41 54 
2.01019 -1.57813 6.40827 68 82 111 
1.21934 -0.879949 5.52039 57 50 66 
2.59121 -0.620974 6.98342 61 78 106 
2.09036 -1.16443 6.48618 90 94 119 
1.15653 -0.773923 5.37559 139 139 163 
0.589685 0.0803116 4.67103 99 96 127 
3.62545 0.86996 8.98196 87 91 118 
2.57484 0.389211 6.81585 57 49 64 
2.52559 -0.857797 6.87682 113 134 163 
1.66467 -2.02799 6.11747 140 146 170 
1.59861 -1.70769 6.03094 44 40 54 
2.60758 -0.158287 6.94967 125 137 161 
-0.682814 0.29713 4.66166 90 88 91 
2.53591 0.61634 6.705 43 51 90 
1.17749 -0.64397 6.30186 80 100 137 
2.54393 0.63633 6.7138 211 226 255 
1.31605 0.153605 6.28143 34 48 87 
1.03414 -0.197249 5.25048 121 136 169 
2.56118 0.663924 6.73249 219 231 255 
3.04136 1.06035 7.25583 196 203 247 
3.07234 1.05056 7.32516 219 229 254 
1.98037 -1.64075 6.40846 72 78 104 
3.06395 1.01457 7.32713 52 52 116 
3.05878 0.983714 7.28522 210 223 255 
1.69044 -1.53463 6.07147 113 122 151 
2.57438 0.729163 6.78852 210 223 255 
0.677356 0.585897 4.70734 201 214 255 
2.59235 0.0112701 6.86935 55 56 76 
2.01287 -1.52438 6.45356 124 136 162 
2.26382 0.732205 6.6549 98 108 135 
3.56456 1.09628 8.82783 72 87 108 
1.99796 -1.47365 6.42445 134 148 175 
3.63476 -1.40048 8.1708 134 145 173 
2.38648 -0.764869 6.75104 33 31 45 
2.54018 0.189042 6.88704 123 134 164 
2.8824 0.880188 7.14498 112 103 134 
2.02528 -1.46333 6.45733 112 123 151 
3.54613 0.255428 9.03207 29 27 40 
1.99701 -1.58792 6.44124 64 69 98 
2.59521 -0.619039 6.97212 64 83 115 
2.56373 0.191155 6.82348 137 150 184 
-0.645167 0.0991661 4.69063 118 135 205 
-0.660802 0.0567103 4.68124 88 100 158 
-0.623379 0.0746653 4.71541 118 135 205 
-0.653371 0.156781 4.65302 123 137 208 
-0.691812 0.297654 4.71983 99 105 105 
2.56317 0.626333 6.77077 156 177 234 
3.05167 1.02979 7.28237 202 220 255 
3.65857 -2.06719 8.37369 129 131 154 
2.53539 0.686422 6.73299 45 54 97 
2.65267 -0.261373 6.95097 136 159 190 
2.55166 0.703891 6.75049 212 229 255 
1.64186 -1.61643 6.06131 110 119 148 
2.5673 0.728851 6.7672 215 226 255 
3.06971 1.04764 7.29634 222 233 255 
2.97246 -0.0246225 7.39634 101 107 141 
2.65432 -0.224267 7.0046 32 43 61 
2.26273 0.723538 6.63662 102 109 137 
1.97051 -1.63739 6.35932 139 150 180 
2.51299 -0.863695 6.91033 81 101 128 
1.61301 -1.58595 6.01125 114 120 146 
3.17695 -1.60532 7.71045 128 130 155 
3.38288 -0.702502 7.87086 153 172 202 
1.13211 -1.13617 5.47017 134 143 182 
1.99747 -1.53855 6.48525 136 148 174 
1.95843 -1.48722 6.32931 147 158 180 
1.00597 0.145801 5.12359 59 70 102 
2.58394 -0.65855 6.98043 132 152 185 
2.02848 -1.45996 6.43823 107 121 150 
2.59221 0.389747 6.82583 84 85 113 
1.16091 -1.23348 5.49011 100 115 146 
1.8357 -1.96668 6.29566 134 138 165 
3.12844 -0.34157 7.51588 75 72 103 
1.96332 -1.58162 6.41106 118 120 143 
-0.365677 -2.08925 3.85058 70 59 63 
0.0757874 -2.01887 4.31715 70 70 78 
0.467742 -1.956 4.74418 71 69 80 
1.32971 -0.346766 7.25948 78 75 92 
1.62345 -1.28806 6.00038 75 73 87 
-0.318133 -2.08363 3.9011 74 57 65 
2.03849 -0.147439 4.77642 78 77 95 
0.0621293 -2.02245 4.32255 86 86 96 
1.3013 0.13386 6.2861 34 43 100 
0.461871 -1.92533 4.70389 102 95 113 
1.93237 -1.872 6.39909 150 157 185 
1.64691 -1.5741 6.02169 27 32 52 
1.6702 -1.53129 6.03892 108 122 148 
0.0634186 -2.01768 4.29483 90 80 91 
-0.701171 -0.732254 3.85141 20 27 43 
1.29914 0.152124 6.30827 34 42 81 
0.0867623 -1.81644 4.34187 33 33 43 
1.34438 0.112004 6.31873 178 197 255 
-0.269385 -2.25439 4.13987 52 49 68 
0.905012 -2.17167 5.27619 95 98 131 
-0.0611183 -2.19692 4.4658 22 25 44 
1.67401 -2.04925 6.06516 65 56 75 
-0.01238 -2.03947 4.26095 69 64 70 
0.115741 -2.02699 4.42543 73 63 71 
1.66594 -2.00427 6.12086 68 84 109 
2.01668 -1.97809 6.48165 98 99 120 
1.87213 -1.96259 6.35277 105 109 136 
0.110007 -1.90233 4.32594 55 51 88 
1.6025 -1.87905 5.98218 69 60 89 
1.86553 -1.84 6.23512 97 106 137 
0.955733 -1.75518 5.2949 125 129 167 
-0.0181253 -1.73713 4.24037 39 35 52 
1.59454 -1.71581 6.04787 43 42 60 
0.0589868 -1.6503 4.1409 46 32 49 
1.69619 -1.65569 6.11439 109 121 147 
1.97844 -1.62978 6.39122 78 78 104 
2.03964 -1.62054 6.4482 117 129 151 
1.64076 -1.60399 6.0109 126 138 160 
0.685243 -1.59041 4.95446 145 160 191 
0.0923528 -1.54635 4.18311 49 42 58 
-0.0039193 -1.58835 4.25957 59 48 64 
2.04091 -1.5023 6.42226 116 124 145 
2.06295 -1.40963 6.39266 104 114 141 
1.57252 -1.36556 5.95797 50 41 68 
0.962966 -0.504326 5.12523 61 74 106 
1.13956 -0.442806 5.36404 66 53 73 
1.53556 -0.287275 6.55022 80 77 94 
1.13602 -0.174291 5.71308 116 105 119 
1.36476 0.123278 6.30906 142 160 222 
1.36649 0.197442 6.29224 165 186 251 
2.52216 0.637955 6.75358 177 203 254 
2.51205 0.658595 6.68071 44 51 70 
2.5179 0.691563 6.87094 79 79 149 
2.58495 0.71043 6.75114 49 59 128 
0.625437 0.626806 4.7015 28 47 115 
0.657588 0.659862 4.67818 130 116 167 
0.621937 0.729397 4.6028 113 128 125 
0.622224 0.640268 4.69398 168 173 231 
-0.661858 0.0747199 4.66358 122 124 183 
-0.662816 0.0763605 4.76012 91 121 181 
1.35462 0.123194 6.32802 129 140 204 
1.64495 -1.69374 6.06635 50 62 88 
1.80233 -2.0187 6.36567 68 73 93 
0.11505 -2.19565 4.77613 15 18 35 
0.244609 -2.12239 4.62438 118 120 141 
1.68284 -2.07624 6.1377 126 125 141 
-0.0498039 -1.97547 4.17081 91 96 128 
1.59762 -1.88346 5.992 69 60 89 
3.08586 -1.86364 7.64702 151 166 195 
1.94735 -1.85746 6.36879 152 159 187 
1.86433 -1.73665 6.13072 112 125 141 
-0.51491 -1.80926 3.74118 112 112 148 
0.904583 -2.17597 5.29247 97 100 133 
1.66492 -1.66551 6.0813 35 33 55 
1.6902 -1.6658 6.11424 141 153 179 
2.01982 -1.61085 6.43744 73 73 99 
1.99705 -1.62226 6.46439 133 138 160 
0.0793422 -1.61953 4.24327 32 34 46 
0.652882 0.797432 4.66579 103 105 117 
2.71986 1.01937 6.75226 134 132 154 
1.14233 -1.22183 5.50245 107 123 149 
1.509 -0.588007 6.66353 31 32 50 
1.14531 -0.532132 5.90897 146 144 165 
1.23286 -0.31038 5.56799 87 73 86 
0.375653 -0.301288 4.526 41 30 46 
1.12689 -0.14561 5.84857 64 50 65 
2.53498 0.74004 6.69581 32 38 72 
-0.674986 0.307032 4.65282 83 77 81 
-0.275253 -1.11158 3.86746 67 54 72 
1.14656 -0.349662 6.15186 66 67 87 
1.30001 -0.323975 6.29281 67 66 80 
2.05655 -1.41456 6.40988 106 116 143 
2.53666 0.697146 6.71794 41 50 109 
2.55248 0.619996 6.71154 101 116 171 
1.8231 -2.13209 6.30398 74 88 114 
2.61552 -0.155141 6.89134 90 97 125 
2.58665 -0.663832 6.94794 129 148 178 
2.0423 -1.47799 6.40823 113 115 136 
2.04385 -1.99183 6.47162 119 116 135 
1.71809 -1.54135 6.09029 65 69 98 
2.01035 -1.97251 6.42887 32 27 47 
1.68253 -1.97483 6.08858 48 53 85 
1.68476 -1.57689 5.98432 117 132 155 
1.96451 -1.60475 6.3509 138 142 167 
1.60692 -1.68438 6.07632 132 138 162 
2.00765 -1.84228 6.51728 37 38 58 
3.02361 -1.84894 7.53816 101 103 141 
1.86421 -1.82114 6.1637 62 71 102 
1.72128 -1.64575 6.05719 127 139 163 
1.62337 -1.6502 6.03847 135 140 160 
0.481308 -1.94832 4.73013 66 65 73 
2.5888 0.388419 6.8089 55 46 63 
1.99286 -1.60224 6.42358 110 120 147 
1.6134 -2.10963 5.99311 35 40 60 
2.01379 -1.98251 6.46788 55 53 75 
0.245916 -2.00755 4.58108 76 65 73 
1.20642 -0.296022 5.73357 84 74 83 
2.01481 -1.44694 6.36705 113 133 158 
1.2424 -0.317486 5.54212 45 33 45 
1.65973 -1.34041 6.00856 61 53 76 
1.1725 -1.20801 5.45889 129 143 170 
0.566741 -0.10708 4.64105 27 22 28 
2.32802 -1.22535 6.79983 81 96 127 
1.88391 -1.73957 6.22371 100 106 132 
2.60682 -0.471425 6.97513 99 116 144 
1.95893 -1.84691 6.33929 154 161 189 
1.67478 -0.356107 6.67218 96 98 119 
1.48467 -0.294843 6.4527 84 82 96 
1.56889 -0.293409 6.56195 47 44 63 
-0.240132 -2.02735 3.89207 93 83 91 
2.34818 -1.20815 6.73241 67 82 113 
2.73766 1.015 6.77443 119 120 150 
0.119619 -2.15172 4.59229 12 12 22 
-0.63971 -2.32971 4.01669 16 28 42 
1.60579 -2.11364 6.01166 25 28 47 
1.82331 -2.12843 6.29249 64 76 102 
2.53914 0.683057 6.76233 42 55 108 
1.66999 -2.08369 6.15171 117 116 132 
1.64022 -2.07148 6.10555 132 125 143 
1.6738 -2.04327 6.10011 39 38 54 
0.390567 -0.283554 6.71797 104 99 121 
2.0019 -1.87238 6.41693 36 49 68 
0.0745037 -2.02996 4.37248 89 83 93 
2.01076 -2.0176 6.51137 116 115 133 
2.01936 -2.01513 6.52177 101 93 114 
-0.655081 0.059346 4.67712 109 121 181 
2.02825 -1.9952 6.51702 29 28 46 
1.28752 0.107904 6.297 159 178 237 
1.11186 -0.138331 5.85191 144 147 152 
0.451518 -1.93832 4.81824 41 33 48 
1.99321 -1.64079 6.45458 130 140 165 
2.03053 -1.48317 6.43293 121 126 146 
1.61707 -1.68453 6.05322 132 133 161 
1.65626 -1.67588 6.10191 31 32 53 
1.97305 -1.59677 6.32955 139 143 168 
1.42655 -1.2039 5.80565 41 37 52 
1.42373 -1.21553 5.84545 126 125 141 
1.18844 -1.19974 5.43493 131 145 174 
1.94895 -1.53686 6.36763 119 133 159 
2.595 0.209218 6.86383 84 89 119 
1.97886 -1.58531 6.4597 117 125 146 
1.59076 -1.66162 6.06048 80 86 112 
0.410113 -1.93658 4.66071 97 92 114 
1.19558 -0.300134 5.75797 91 81 92 
0.486782 -0.869628 4.58118 68 72 97 
1.07874 -0.972273 5.29695 57 70 102 
2.61118 -0.506985 6.9724 104 123 155 
-0.282391 -2.08159 3.95908 70 57 67 
1.95344 -1.85421 6.35781 150 157 185 
0.193254 -1.09052 4.27594 126 122 139 
1.39057 -1.13521 5.6352 34 27 45 
1.72823 -2.01987 6.00717 23 25 38 
1.11718 -0.149296 5.75326 44 40 57 
2.5751 0.0261581 6.79276 93 108 137 
2.29344 0.00458956 6.7243 81 88 114 
1.33757 0.0944187 6.23679 86 102 164 
2.02494 -1.46482 6.36414 132 134 155 
2.03635 -1.47818 6.41736 121 126 146 
1.3503 0.167307 6.30389 26 36 95 
2.13644 0.729818 6.64003 84 95 117 
2.29102 0.732901 6.59658 96 101 130 
1.32054 0.208538 6.25081 159 171 231 
1.71126 -1.5368 6.00206 41 45 70 
2.03215 -1.54709 6.41118 56 60 87 
2.54988 0.71491 6.66239 164 189 246 
1.66101 -1.56561 5.9991 27 32 52 
-0.641819 0.295022 4.68257 102 114 114 
2.58983 0.671416 6.7262 50 50 112 
2.56992 0.669266 6.71594 209 225 255 
2.04875 -1.55825 6.41349 125 137 163 
1.64505 -1.5732 5.98931 124 129 151 
0.105327 -1.80566 4.32649 22 22 30 
2.05199 -1.61562 6.41123 123 135 161 
-0.731738 0.153685 4.7066 124 135 199 
-0.139153 -1.73255 4.09473 32 21 29 
0.564687 0.271889 4.66611 85 75 102 
3.02837 -1.84205 7.52535 93 89 124 
2.00463 -1.59667 6.40293 128 135 161 
0.502471 -1.90956 4.76497 30 28 39 
1.48324 -1.21694 5.82048 108 111 130 
1.52256 -0.569644 6.60371 25 23 44 
1.79922 -1.33243 6.13346 37 32 52 
1.62056 -1.42367 5.85404 38 40 53 
-0.841647 0.389766 4.01498 24 26 51 
-0.642542 0.13553 4.65036 13 22 65 
1.21325 -0.314582 5.5985 95 81 96 
1.71353 -1.48742 6.05087 64 81 107 
1.0156 -0.643543 5.16515 117 127 162 
2.10071 -1.15703 6.46407 89 96 122 
1.87042 -1.32081 6.1972 43 40 57 
1.70057 -2.08118 6.04348 16 25 34 
1.72776 -1.51283 6.06042 140 144 171 
2.23277 0.726601 6.6173 69 80 108 
1.02301 0.578192 5.07712 21 27 43 
1.12477 -0.154801 5.71631 115 112 129 
1.32493 0.152799 6.2656 33 41 78 
1.03526 0.165927 5.11624 48 60 86 
-0.598619 0.0781114 4.70445 106 131 197 
1.692 -2.05578 6.08465 30 36 50 
-0.646879 0.158792 4.64556 119 127 190 
1.36443 -0.749624 6.50279 13 15 27 
2.58691 -0.621981 6.99507 62 78 103 
2.56217 0.665894 6.75011 210 220 255 
-0.654958 0.297156 4.64289 94 93 91 
-0.713153 0.299572 4.73413 99 109 110 
1.84485 -1.97229 6.29734 133 136 155 
2.57827 0.695797 6.75754 41 52 98 
2.54353 0.715909 6.68803 158 182 244 
2.5363 0.737479 6.68364 32 35 70 
0.0822649 -1.91932 4.3433 59 69 104 
2.56923 0.743457 6.76593 187 194 246 
1.18141 -1.1137 5.40581 117 133 166 
3.02551 -1.85084 7.55151 95 89 123 
0.725843 0.543722 4.72334 50 47 94 
1.95953 -1.29993 6.43009 47 43 57 
-0.0428344 -1.69277 4.02494 23 18 22 
1.55603 -1.33788 6.01033 41 37 52 
2.71151 1.03478 6.86521 28 33 65 
2.71659 1.03597 6.91775 121 128 156 
1.79102 -1.33671 6.15167 26 24 38 
1.99046 -1.64984 6.46827 126 135 164 
2.05618 -1.38129 6.4535 104 115 137 
0.677694 0.652611 4.63386 43 37 71 
1.6177 -1.6258 6.0429 127 133 155 
1.97421 -1.42004 6.35847 123 136 155 
2.02188 -1.57784 6.47904 116 128 152 
1.95675 -1.52214 6.36586 84 84 112 
1.97196 -1.47662 6.29241 120 126 150 
0.592854 -0.101259 4.69077 105 99 125 
1.80042 -1.7986 6.23239 75 88 120 
2.53756 0.564652 6.79242 125 130 159 
2.47276 0.55348 6.64352 28 25 32 
1.95308 -1.82094 6.44135 73 77 112 
0.555815 0.258142 4.62609 156 159 192 
1.51846 -0.571507 6.613 25 23 44 
1.45938 -0.39161 6.53152 35 37 58 
1.0818 -0.200077 5.18628 82 97 126 
-0.0034321 -1.17618 4.42548 26 23 32 
1.14264 -0.128093 5.80369 160 159 165 
2.5926 -0.161495 6.99176 134 143 172 
1.45327 -1.25888 5.83676 33 29 44 
1.30439 0.130274 6.33135 173 193 254 
1.05129 0.164404 5.16431 87 96 127 
2.01892 -1.48298 6.46165 128 135 161 
1.69429 -1.55612 6.10851 45 48 67 
2.7302 1.03856 6.82129 20 25 47 
-0.585981 0.299052 4.59027 90 86 85 
0.612419 0.641888 4.71573 187 203 255 
0.659526 0.621155 4.75977 22 31 90 
2.52165 0.723721 6.76025 196 215 255 
0.61318 0.584881 4.72786 28 37 80 
2.57311 -0.665314 7.01159 133 149 183 
0.483699 -1.97104 4.8195 24 25 29 
1.57112 -1.32626 5.97717 37 30 46 
1.38123 -0.748215 6.47553 15 15 25 
3.0772 -2.00644 7.69074 138 140 178 
1.04167 0.580546 5.04906 37 49 75 
1.98335 -1.48387 6.45407 134 145 173 
2.55663 -0.823551 6.84267 52 66 92 
2.73076 1.01026 6.69175 140 141 171 
-0.870396 0.38764 4.02747 22 28 50 
2.64292 -0.144845 6.94635 73 82 111 
2.54891 0.189714 6.86387 129 138 169 
1.35277 -0.430753 6.65455 38 53 84 
0.376699 -0.514256 4.55801 125 118 136 
1.03612 -0.230951 5.12127 68 81 115 
0.552021 -0.327067 4.75671 26 30 39 
0.0837577 -1.21353 4.40132 20 24 35 
2.6691 -0.256302 6.9036 74 93 123 
1.35757 0.11186 6.29846 178 197 255 
-0.746494 0.0700869 4.73282 115 130 195 
2.04875 -1.45816 6.38199 117 127 154 
-0.661358 0.159306 4.73237 112 135 205 
2.53674 0.706129 6.78973 206 220 255 
2.53726 0.736187 6.66605 57 55 77 
-0.140916 -1.72065 4.05975 22 19 26 
0.627265 0.620416 4.75071 185 202 255 
1.97481 -1.99551 6.45128 31 29 42 
0.577786 -1.91302 4.71993 22 23 28 
2.53559 0.866851 6.73136 118 123 155 
2.56926 0.0108022 6.93563 44 49 71 
1.13008 -0.12873 5.8213 163 162 170 
-0.111965 -1.84397 4.09535 24 28 37 
0.163945 -1.77173 4.27426 20 20 20 
1.33769 -1.16466 5.71933 32 25 41 
1.03796 0.15539 5.10831 32 43 63 
0.207126 -1.24293 4.3457 84 76 97 
1.71118 -1.6192 6.04517 58 69 87 
1.14603 0.0800617 5.25276 113 111 132 
0.207713 -1.25858 4.35498 137 132 162 
1.54683 -1.24423 5.85506 77 72 94 
1.95931 -1.46764 6.27196 89 98 127 
-0.625309 0.170742 4.71719 88 111 178 
-1.12139 0.045355 3.90328 142 156 185 
2.21696 0.724501 6.467 115 121 147 
2.64902 -0.350541 6.99852 175 190 219 
3.164 -1.54419 7.66228 35 36 57 
2.56607 0.686772 6.7579 96 100 164 
3.04697 1.00425 7.28221 82 106 168 
2.44486 -0.475171 6.81702 37 32 54 
-0.72005 -0.504166 3.46585 111 103 118 
2.73934 1.02869 6.78811 33 43 78 
2.65078 -0.266544 6.9636 170 193 225 
2.26792 0.762823 6.63813 114 119 148 
2.54302 0.560717 6.77771 156 170 197 
-0.551081 0.84011 3.29345 31 33 90 
0.552365 -0.128753 4.68223 122 122 150 
3.48814 -2.37168 8.13411 80 79 95 
3.45537 -2.35109 8.12263 85 84 98 
2.03936 -1.99636 6.48173 126 123 140 
2.01401 -1.61569 6.45247 82 82 110 
3.88183 -1.55209 8.55356 111 112 132 
2.99301 0.00337165 7.33818 101 106 146 
3.01692 0.267078 7.32751 139 144 176 
1.99454 -1.87778 6.43974 49 56 84 
1.82216 -1.85973 6.25691 52 57 89 
3.40675 -0.719785 7.87853 86 89 122 
1.96908 -0.201307 5.7284 44 34 58 
0.692933 0.576483 4.74087 52 52 124 
3.02384 1.04525 7.26912 156 179 229 
3.35759 -2.08146 8.02801 84 87 104 
0.635553 0.54386 4.68819 27 26 70 
2.99553 0.88018 7.25333 151 158 187 
1.96255 -1.61399 6.37908 70 70 98 
3.58851 -1.61316 8.2462 92 93 113 
2.12232 0.731858 6.6725 95 101 125 
1.402 -1.14077 5.70755 48 41 57 
2.46453 -0.482253 6.80617 45 38 56 
2.68399 -0.24419 7.03323 97 106 139 
0.413918 -0.294733 4.49362 50 37 54 
0.670557 0.608812 4.70941 191 213 255 
1.15172 -0.173489 5.68397 121 110 127 
0.323264 -1.98239 4.60342 70 58 68 
2.6878 -0.243785 7.02403 102 115 150 
1.52673 -0.582707 6.62681 36 40 67 
0.178837 -1.68449 4.32206 36 36 48 
1.29723 -0.341122 6.29497 40 36 59 
1.90849 -1.89304 6.44987 164 174 201 
3.01902 1.06497 7.2605 55 42 70 
3.07242 1.02569 7.30739 49 58 125 
3.03359 0.946905 7.28592 156 187 241 
2.58285 0.729177 6.75384 213 223 255 
2.58197 0.62921 6.74665 193 203 254 
0.694754 0.534103 4.76061 111 102 131 
1.99355 -1.99514 6.48731 73 74 95 
0.435838 -0.885678 4.63079 78 79 109 
1.15384 -1.21713 5.48091 139 150 180 
1.30252 -1.09625 5.63138 54 42 66 
2.26741 0.795991 6.65052 86 81 101 
2.52414 0.740275 6.72636 34 38 73 
2.54217 0.665857 6.7233 54 63 118 
-0.127794 -1.7298 4.08677 37 24 33 
0.149687 -1.10511 4.30888 138 135 152 
2.09913 0.722673 6.61515 65 85 109 
1.70209 -1.50849 6.05019 131 146 169 
1.028 -0.0291526 5.13733 38 43 63 
1.04322 0.600127 5.11749 108 119 149 
0.588319 0.274469 4.64079 95 84 114 
1.68364 -2.09651 6.06956 19 29 38 
2.21969 0.752925 6.65816 72 85 104 
1.57528 -1.28062 5.90386 124 106 132 
0.11869 -1.79818 4.31498 31 30 36 
0.127329 -1.12693 4.33689 37 29 44 
1.14569 -0.169874 5.53156 162 167 186 
2.55107 0.669565 6.6889 53 65 115 
2.57673 0.686707 6.73319 48 61 103 
3.0439 0.996093 7.23387 45 55 104 
3.0685 0.965334 7.33693 219 229 254 
2.5461 0.0199015 6.88296 83 100 126 
3.63486 -1.40204 8.17297 134 145 173 
2.08567 0.694509 6.63675 73 85 109 
1.45615 -1.22706 5.85363 116 116 144 
1.98097 -1.62037 6.47957 124 132 155 
0.677815 0.617822 4.70736 196 210 255 
0.695696 0.590423 4.72615 30 39 72 
-0.638084 0.114587 4.709 14 25 57 
3.1685 -1.54113 7.64715 38 37 53 
1.68587 -1.59156 6.06372 113 123 148 
3.04797 0.986679 7.2981 208 225 255 
2.57563 0.751469 6.78935 62 54 103 
0.981033 -0.238898 5.191 73 86 118 
3.6698 -2.7447 8.50705 230 234 255 
3.71675 -2.76274 8.62113 76 83 163 
2.65082 -2.59987 7.13074 84 98 109 
3.07283 -2.64503 7.68632 123 140 166 
3.76691 -3.02177 9.4551 145 159 222 
3.91662 -2.69293 8.73414 211 223 255 
3.92826 -2.708 8.78395 65 86 167 
3.91218 -2.70894 8.80533 179 183 231 
3.85834 -2.67832 8.77914 177 219 255 
3.12207 -2.32903 7.64968 135 133 170 
3.45475 -2.35203 8.1252 84 80 94 
-0.0446204 -2.22255 4.40598 71 53 77 
1.67838 -2.10067 6.14144 114 122 141 
-0.0700749 -2.03627 4.13711 68 66 71 
1.65251 -2.06841 6.11485 89 82 100 
1.6601 -2.04519 6.12035 54 51 72 
3.66824 -2.0391 8.37047 85 77 92 
1.7594 -1.98288 6.20564 81 87 113 
2.02926 -1.96631 6.45561 98 99 120 
1.74288 -1.96773 6.19359 79 78 109 
1.81985 -1.85895 6.24771 62 71 102 
1.96661 -1.64016 6.415 78 78 104 
1.99237 -1.656 6.54568 117 129 151 
2.0026 -1.62974 6.46969 60 65 95 
3.54935 -1.4788 8.0698 77 75 88 
2.04408 -1.48806 6.39304 113 127 153 
1.70846 -1.38135 6.10527 102 98 125 
1.59636 -1.35106 5.91946 50 41 68 
0.0950914 -1.14449 4.36376 111 105 119 
-0.256185 -1.10624 3.85712 69 56 74 
3.3939 -0.72896 7.93051 86 91 123 
3.40298 -0.704767 7.85116 85 85 119 
1.04367 -0.793675 5.21546 108 123 152 
2.57982 -0.668951 6.95659 109 129 156 
1.33014 -0.701432 6.44427 34 40 64 
1.16 -0.348783 6.21532 73 74 92 
1.69338 -0.266105 6.76691 77 74 91 
0.422922 -0.247843 4.5116 24 18 28 
0.564441 -0.10694 4.64605 29 24 31 
1.33886 0.120506 6.3511 142 160 222 
1.32808 0.161251 6.29357 167 193 254 
1.35909 0.200802 6.3202 82 99 153 
2.54472 0.636123 6.69393 177 203 254 
2.58092 0.665416 6.7736 61 66 132 
2.45993 0.691749 6.98425 54 69 134 
1.25191 0.617688 5.24833 92 84 99 
0.633577 0.541341 4.71202 171 187 247 
0.640301 0.556012 4.68878 173 174 230 
3.03586 0.945818 7.27927 140 164 226 
0.695661 0.577381 4.73828 35 43 108 
3.07887 0.960095 7.33158 156 163 215 
2.54618 0.902498 6.71048 127 138 168 
3.07739 1.03406 7.31309 69 85 147 
0.711246 0.665927 4.73045 41 40 74 
3.02478 1.05846 7.25152 41 37 74 
0.904657 0.80924 4.91307 70 74 85 
3.03504 1.0638 7.27309 184 198 245 
3.77836 -2.9923 9.38113 145 160 227 
3.33685 -2.72504 8.20928 25 27 75 
3.09531 1.05448 7.27204 144 137 191 
3.0174 1.04611 7.28873 147 170 224 
0.649587 0.638694 4.66835 168 173 231 
0.697032 0.631746 4.72973 43 64 143 
3.86212 -2.66933 8.75581 177 219 255 
3.06101 1.00043 7.23795 69 94 158 
3.03733 0.960634 7.2274 185 206 253 
0.648198 0.574004 4.68858 33 41 106 
3.07407 0.961375 7.34648 156 163 215 
3.02474 0.943056 7.27512 52 53 107 
0.662506 0.535346 4.67566 32 24 63 
2.5674 0.6903 6.72391 187 209 255 
1.31793 0.186032 6.23649 92 108 170 
3.24608 -0.102933 7.55498 24 15 42 
3.38986 -0.704603 7.89363 137 142 174 
1.62414 -1.49754 5.95544 47 51 78 
1.66379 -1.58948 6.04299 100 118 140 
0.0952675 -1.9113 4.33844 50 48 87 
3.59439 -2.06039 8.26195 77 90 107 
3.13909 -1.97451 7.72559 147 143 168 
0.388437 -1.94833 4.67825 94 91 110 
3.02668 -1.84608 7.53433 93 89 124 
1.66268 -1.87513 6.14095 93 96 127 
1.60036 -1.70515 6.05047 99 98 116 
1.63685 -1.66211 6.01717 141 147 171 
1.70711 -1.642 6.08273 85 95 122 
1.62254 -1.64004 6.00954 68 69 97 
1.96891 -1.62164 6.47448 125 135 162 
1.54257 1.21896 4.81521 42 52 77 
-0.0314466 -2.21605 4.39567 71 53 77 
3.21359 -1.52858 7.70511 62 66 77 
1.75824 -1.5156 6.01741 65 66 94 
3.53652 -1.47958 8.05294 76 80 91 
1.24429 1.05263 5.03872 51 57 93 
3.67968 -1.44612 8.16614 59 69 79 
2.85648 1.06824 7.12348 136 138 163 
2.09512 -1.34892 6.36773 80 97 117 
1.52738 -1.32493 5.85864 55 49 75 
3.29998 -1.1988 7.81488 96 101 133 
1.41767 -1.19253 5.73454 32 23 42 
0.921761 -1.13324 5.16218 99 113 152 
1.24889 -1.09738 5.48643 41 38 55 
1.06157 0.714675 5.08487 110 123 155 
3.40263 -0.728247 7.89009 139 150 180 
1.02574 -0.800095 5.23421 112 127 156 
3.91019 -2.71363 8.81808 179 183 231 
1.55502 -0.605404 6.64068 17 19 34 
1.48905 -0.376833 6.47921 45 50 80 
0.206382 -2.50707 4.64181 94 81 99 
1.11565 -0.368907 6.11997 46 41 64 
1.14969 -0.34976 6.22801 76 77 95 
1.45124 -0.317189 6.51299 43 38 60 
1.50711 -0.294629 6.59721 86 83 100 
2.98069 -0.022307 7.34974 75 81 115 
1.13815 -0.181053 5.56861 60 48 68 
0.426814 -0.246881 4.50881 24 18 28 
3.02506 -2.38117 7.64199 113 111 151 
3.44576 -2.36726 8.16391 75 75 87 
1.34447 -0.319384 6.38811 74 73 89 
1.61688 -1.64927 6.00478 103 109 133 
3.50902 -1.47857 7.99079 71 69 82 
0.518644 0.953761 4.38935 85 94 111 
3.64206 -1.46269 8.16443 66 69 78 
0.0478528 -1.5664 4.22026 54 46 61 
0.97023 -1.74774 5.27847 126 129 170 
3.01971 1.06138 7.26507 49 40 69 
3.0584 1.06924 7.34985 197 205 252 
3.10924 1.05384 7.19274 172 172 226 
3.72057 -2.99171 9.48624 168 210 250 
3.86056 -2.68605 8.79004 217 240 255 
3.08138 1.05753 7.3159 182 184 233 
3.02225 1.04705 7.27563 165 190 244 
3.87801 -2.66479 8.8651 49 52 107 
0.675543 0.608509 4.7053 182 205 255 
3.08789 0.98481 7.26698 70 65 132 
3.03226 0.981362 7.26049 90 93 146 
3.03514 -2.36601 7.60306 109 109 147 
3.05988 0.963543 7.39136 176 186 235 
0.721481 0.544326 4.70993 126 146 215 
2.53371 0.739975 6.73654 159 172 224 
2.57325 0.707834 6.77752 42 51 120 
2.57306 0.667274 6.78413 84 82 147 
2.59897 0.646121 6.73902 195 203 252 
2.55356 0.619582 6.66474 42 54 96 
1.28836 0.127632 6.30005 33 46 101 
1.87463 -2.08671 6.20809 74 88 114 
1.37794 0.10386 6.29046 72 90 154 
2.5033 0.0128474 6.97165 86 97 127 
3.23139 -0.101184 7.58046 111 112 133 
2.67083 -0.251214 6.91755 121 142 169 
1.68523 -2.07436 6.12821 116 115 133 
3.23817 -0.582306 7.71044 99 108 141 
3.38881 -0.684781 7.83144 125 139 168 
1.37549 -1.1535 5.65823 52 44 67 
1.54382 -1.28679 5.8546 48 43 63 
1.99711 -1.51165 6.50112 113 115 136 
1.99315 -1.98857 6.46383 32 27 47 
1.69203 -1.56882 6.05715 87 104 124 
1.63704 -1.60823 6.083 108 126 148 
2.01079 -1.95764 6.41017 109 115 139 
1.99838 -1.62732 6.50509 125 129 156 
2.00845 -1.63242 6.50918 63 64 92 
3.39979 -1.64296 8.05122 122 121 139 
2.99235 -1.78477 7.58678 163 169 203 
1.79859 -2.29382 6.29234 51 53 74 
3.01943 -1.85576 7.55449 101 103 141 
1.67886 -1.86452 6.11668 86 87 118 
1.805 -1.86925 6.27275 62 71 102 
1.22823 0.616664 5.27709 85 80 100 
1.68621 -1.67101 6.05521 41 53 75 
1.2324 0.631325 5.20391 30 35 64 
3.5875 -1.61442 8.25095 90 88 109 
0.445797 -1.96785 4.76295 66 65 73 
1.95992 -1.62804 6.49025 110 120 147 
0.586297 0.0795602 4.67454 93 84 113 
1.98576 -1.58087 6.43851 117 125 146 
3.89604 -2.01551 8.6623 92 79 96 
1.73615 -1.53209 6.02934 33 38 57 
0.166289 -2.12661 4.55896 20 12 25 
3.44878 -1.48588 7.92386 75 79 91 
3.41165 -2.03085 8.09961 91 78 98 
1.74654 -2.4448 6.2505 87 103 139 
1.21893 -0.304452 5.71287 53 40 50 
1.18845 -0.32933 5.61444 45 33 45 
3.7592 -1.39019 8.33901 78 79 109 
1.14011 -2.53028 5.548 148 152 187 
2.07659 -1.36325 6.40109 98 110 134 
2.68168 1.02913 6.86217 132 138 162 
1.17993 -0.664748 6.29702 22 23 43 
1.8481 -2.05884 6.25347 63 69 93 
1.44921 -1.24933 5.83069 45 37 58 
3.34485 -0.652342 7.80871 119 130 160 
1.42837 -1.12867 5.67382 49 38 55 
2.48732 -0.876015 6.98178 95 115 142 
2.72573 1.35992 6.7554 41 55 90 
3.45352 -1.49475 7.97075 84 80 95 
1.14243 -0.782245 5.40034 132 133 153 
1.38461 -1.25047 5.74304 66 60 86 
2.3982 -1.17704 6.62782 81 96 127 
2.59129 -0.51572 7.02332 95 111 144 
1.83877 -1.77443 6.30851 100 106 132 
3.13903 0.0417521 7.47987 24 27 32 
1.86455 -1.9263 6.52498 154 161 189 
1.54592 -0.29771 6.60311 47 44 63 
1.16576 -0.347437 6.20017 74 75 93 
1.75076 -1.96219 6.17941 79 78 109 
1.69155 -1.63559 6.05852 94 104 129 
0.415661 -0.512854 4.52433 119 110 129 
3.20461 -1.55273 7.69856 97 104 122 
2.46445 0.920494 6.57395 110 108 122 
-0.0119483 -2.20673 4.38128 65 50 71 
1.14084 -0.619031 6.2595 28 30 53 
1.89371 -2.4479 6.46204 158 167 200 
3.00987 -2.50276 7.67755 121 120 154 
3.02455 -2.38665 7.65071 103 101 141 
2.75385 1.0172 6.76015 50 53 94 
3.06533 1.06797 7.32802 197 205 252 
1.64807 -2.32877 6.10448 70 90 127 
0.69469 0.667599 4.73048 31 37 85 
0.694018 0.659488 4.718 183 192 251 
3.07602 1.05102 7.32569 208 217 255 
0.696948 0.647123 4.73034 190 211 254 
3.06881 1.02885 7.33635 42 51 116 
0.698717 0.626225 4.72606 18 34 109 
0.649373 0.619529 4.68158 17 34 90 
3.06332 1.00547 7.29444 65 59 123 
3.02284 0.961976 7.27999 173 196 246 
3.05547 0.934832 7.15467 65 59 105 
0.656265 0.554307 4.67676 183 188 244 
0.707435 0.560325 4.73357 191 211 255 
0.707149 0.54385 4.72147 156 181 245 
1.22599 0.616141 5.29045 109 100 117 
2.02189 -1.98499 6.44021 72 74 87 
1.18779 0.610802 5.3689 123 125 146 
2.26852 0.740812 6.6693 75 80 112 
2.58945 0.388353 6.84577 88 88 114 
2.56003 0.746315 6.792 162 163 217 
0.492348 -1.96709 4.81398 26 25 30 
2.56663 0.667949 6.80337 58 59 126 
2.53498 0.621425 6.764 104 121 177 
3.4226 -2.0772 8.11521 88 79 96 
0.0811104 -2.01187 4.30836 86 86 96 
2.04121 -1.98949 6.44846 116 115 133 
1.31665 0.214087 6.34587 151 165 226 
3.2017 -0.111482 7.68503 118 123 143 
1.08829 0.131015 6.65158 35 42 88 
1.32585 0.137256 6.35407 35 39 110 
0.538485 -1.88896 4.73765 41 33 48 
3.25768 -0.570241 7.64006 72 78 110 
3.17774 -1.67001 7.85395 32 18 43 
3.39662 -0.6976 7.85977 111 114 145 
2.56151 -0.828117 6.88343 72 91 123 
1.63774 -1.8137 6.09761 56 66 101 
2.63739 -0.15018 6.86004 128 140 166 
1.75203 -1.51942 6.03104 65 69 98 
-0.102792 -1.71708 4.07309 35 23 33 
2.02 -1.49375 6.41247 33 37 62 
1.57066 -0.601265 6.60972 17 19 34 
2.01101 -1.5274 6.48042 121 129 150 
1.60675 -1.45027 5.89649 122 120 141 
1.60298 -1.43839 5.89293 51 54 71 
3.42817 -1.603 7.98314 27 18 39 
1.66123 -1.56131 6.11678 101 107 133 
