ply                 
format ascii 1.0    
element vertex 1301
property float x    
property float y    
property float z    
property uchar red  
property uchar green
property uchar blue 
end_header          
1.9789 -1.64087 6.40909 72 78 104 
3.06658 1.01074 7.29833 52 52 116 
3.05826 0.982462 7.27975 210 223 255 
1.68893 -1.5348 6.07232 113 122 151 
2.57397 0.728347 6.78513 210 223 255 
0.667752 0.585167 4.71659 201 214 255 
2.59162 0.0109908 6.86696 55 56 76 
2.01149 -1.52443 6.45394 124 136 162 
2.26359 0.731399 6.65185 98 108 135 
3.56365 1.09426 8.81682 72 87 108 
1.99656 -1.47373 6.42489 134 148 175 
3.6332 -1.40018 8.16858 134 145 173 
2.38543 -0.764886 6.75013 33 31 45 
2.53957 0.188646 6.88434 123 134 164 
2.88524 0.877697 7.1209 112 103 134 
2.0239 -1.46341 6.45771 112 123 151 
3.54503 0.25475 9.02295 29 27 40 
1.99558 -1.58802 6.44177 64 69 98 
2.59422 -0.61905 6.97056 64 83 115 
2.56306 0.190765 6.82096 137 150 184 
-0.648573 0.0979815 4.69316 118 135 205 
-0.6621 0.056412 4.68265 88 100 158 
-0.624758 0.0738693 4.71694 118 135 205 
-0.652846 0.156513 4.65289 123 137 208 
-0.692929 0.297317 4.72112 99 105 105 
2.56271 0.625617 6.76761 156 177 234 
3.05117 1.02848 7.27682 202 220 255 
3.65686 -2.067 8.37282 129 131 154 
2.53497 0.685659 6.7298 45 54 97 
2.65182 -0.261508 6.94881 136 159 190 
2.55124 0.703108 6.74725 212 229 255 
1.64035 -1.61659 6.06217 110 119 148 
2.56688 0.728043 6.76389 215 226 255 
3.0692 1.0463 7.29073 222 233 255 
2.97162 -0.0248878 7.39278 101 107 141 
2.65348 -0.224423 7.00233 32 43 61 
2.26248 0.722747 6.63365 102 109 137 
1.96904 -1.6375 6.35994 139 150 180 
2.51192 -0.863659 6.90922 81 101 128 
1.61147 -1.58614 6.01219 114 120 146 
3.17548 -1.60515 7.70947 128 130 155 
3.38161 -0.702358 7.86754 153 172 202 
1.13055 -1.13641 5.47127 134 143 182 
1.99606 -1.53864 6.48572 136 148 174 
1.95703 -1.48731 6.32979 147 158 180 
1.00442 0.145494 5.12476 59 70 102 
2.58295 -0.658546 6.97889 132 152 185 
2.02711 -1.46003 6.43859 107 121 150 
2.59162 0.389218 6.82295 84 85 113 
1.15935 -1.23371 5.49119 100 115 146 
1.83406 -1.9669 6.2967 134 138 165 
3.12741 -0.341628 7.5126 75 72 103 
1.96187 -1.58173 6.41165 118 120 143 
-0.365296 -2.08832 3.85054 70 59 63 
0.0757511 -2.01813 4.31714 70 70 78 
0.467396 -1.95542 4.74421 71 69 80 
1.32906 -0.347039 7.25829 78 75 92 
1.62265 -1.28785 6.0001 75 73 87 
-0.317821 -2.08273 3.90108 74 57 65 
2.03825 -0.147419 4.77552 78 77 95 
0.0620909 -2.02172 4.32255 86 86 96 
1.30104 0.13349 6.2849 34 43 100 
0.461563 -1.92474 4.70389 102 95 113 
1.93122 -1.87179 6.39911 150 157 185 
1.64429 -1.57675 6.02782 27 32 52 
1.66931 -1.53104 6.03871 108 122 148 
0.0634024 -2.01693 4.29481 90 80 91 
-0.700948 -0.732031 3.85184 20 27 43 
1.29888 0.151741 6.30705 34 42 81 
0.0867227 -1.8158 4.34189 33 33 43 
1.34409 0.111643 6.31752 178 197 255 
-0.270738 -2.25453 4.14086 52 49 68 
0.903079 -2.17215 5.27775 95 98 131 
-0.0632281 -2.19749 4.46741 22 25 44 
1.67158 -2.05013 6.06764 65 56 75 
-0.0131834 -2.03928 4.26153 69 64 70 
0.114631 -2.02697 4.42622 73 63 71 
1.66344 -2.00519 6.12345 68 84 109 
2.014 -1.97922 6.48481 98 99 120 
1.86948 -1.96366 6.35576 105 109 136 
0.10917 -1.90217 4.32653 55 51 88 
1.60023 -1.87975 5.98433 69 60 89 
1.8631 -1.84084 6.23763 97 106 137 
0.954043 -1.75547 5.29618 125 129 167 
-0.019288 -1.73716 4.24126 39 35 52 
1.59224 -1.71651 6.05006 43 42 60 
0.0586109 -1.64994 4.1412 46 32 49 
1.69398 -1.65631 6.11643 109 121 147 
1.97603 -1.63057 6.39372 78 78 104 
2.03723 -1.62132 6.45072 117 129 151 
1.63859 -1.60456 6.01286 126 138 160 
0.683564 -1.59071 4.95577 145 160 191 
0.0919855 -1.54601 4.18339 49 42 58 
-0.00528081 -1.58847 4.26062 59 48 64 
2.0386 -1.50298 6.42454 116 124 145 
2.06071 -1.41025 6.3948 104 114 141 
1.57046 -1.36604 5.95973 50 41 68 
0.961685 -0.504493 5.12609 61 74 106 
1.13817 -0.443025 5.36495 66 53 73 
1.53335 -0.287876 6.55207 80 77 94 
1.13442 -0.174668 5.71421 116 105 119 
1.35485 0.122529 6.32566 129 140 204 
1.36467 0.196881 6.29346 165 186 251 
2.52046 0.637351 6.75376 177 203 254 
2.51039 0.658001 6.68083 44 51 70 
2.51617 0.690903 6.87108 79 79 149 
2.58329 0.709803 6.75114 49 59 128 
0.624053 0.626517 4.70268 28 47 115 
0.656292 0.659575 4.67927 130 116 167 
0.620643 0.729118 4.60391 113 128 125 
0.620873 0.639976 4.69512 168 173 231 
-0.671399 0.073779 4.67099 122 124 183 
-0.666224 0.0757721 4.763 91 121 181 
1.35498 0.122663 6.32537 129 140 204 
1.64267 -1.69442 6.06854 50 62 88 
1.79956 -2.01988 6.36886 68 73 93 
0.112531 -2.19648 4.77817 15 18 35 
0.243223 -2.12252 4.62539 118 120 141 
1.68027 -2.07725 6.14043 126 125 141 
-0.0505219 -1.97525 4.17134 91 96 128 
1.59534 -1.88417 5.99418 69 60 89 
3.08287 -1.86548 7.65255 151 166 195 
1.9448 -1.85842 6.37161 152 159 187 
1.86217 -1.73724 6.1327 112 125 141 
-0.516185 -1.80934 3.74215 112 112 148 
0.902888 -2.17626 5.29372 97 100 133 
1.66282 -1.6673 6.08336 35 33 55 
1.68793 -1.66647 6.11641 141 153 179 
2.01744 -1.61161 6.43988 73 73 99 
1.99456 -1.62311 6.46705 133 138 160 
0.0784856 -1.61941 4.24391 32 34 46 
0.651665 0.797116 4.66681 103 105 117 
2.71825 1.01861 6.7519 134 132 154 
1.14058 -1.22214 5.5038 107 123 149 
1.50643 -0.588741 6.66604 31 32 50 
1.14324 -0.532623 5.91072 146 144 165 
1.23141 -0.310658 5.56891 87 73 86 
0.3735 -0.301597 4.52784 41 30 46 
1.12509 -0.146052 5.84993 64 50 65 
2.53335 0.739408 6.6958 32 38 72 
-0.678915 0.306684 4.65492 97 95 100 
-0.278919 -1.11242 3.87 67 54 72 
1.14441 -0.350224 6.1537 66 67 87 
1.29848 -0.324393 6.29348 67 66 80 
2.05426 -1.41521 6.41211 106 116 143 
2.535 0.696531 6.71804 41 50 109 
2.54364 0.620541 6.73614 101 116 171 
1.82035 -2.13331 6.30715 74 88 114 
2.61347 -0.155602 6.89259 90 97 125 
2.58438 -0.664389 6.94997 129 148 178 
2.03999 -1.47866 6.41052 113 115 136 
2.03802 -1.99583 6.4822 119 116 135 
1.71719 -1.54101 6.08981 65 69 98 
2.00774 -1.97357 6.43185 32 27 47 
1.68011 -1.97568 6.09103 48 53 85 
1.68268 -1.5774 5.98615 117 132 155 
1.96275 -1.60493 6.35184 138 142 167 
1.60461 -1.68508 6.07854 132 138 162 
2.00495 -1.84338 6.52044 37 38 58 
3.02066 -1.85066 7.54334 101 103 141 
1.86196 -1.82182 6.16588 62 71 102 
1.71918 -1.64629 6.05904 127 139 163 
1.62114 -1.65083 6.04054 135 140 160 
0.480053 -1.94836 4.731 66 65 73 
2.58697 0.387898 6.80942 55 46 63 
1.99044 -1.60302 6.42608 110 120 147 
1.61094 -2.11055 5.99561 35 40 60 
2.01204 -1.98262 6.4687 55 53 75 
0.244565 -2.00766 4.58207 76 65 73 
1.20482 -0.296373 5.73466 84 74 83 
2.01251 -1.44761 6.36933 113 133 158 
1.24096 -0.317754 5.54303 45 33 45 
1.65774 -1.34084 6.0102 61 53 76 
1.16371 -1.21197 5.46848 139 150 178 
0.546217 -0.109506 4.66103 27 22 28 
2.32554 -1.22612 6.80252 81 96 127 
1.88157 -1.74032 6.22606 100 106 132 
2.60459 -0.471957 6.977 99 116 144 
1.95648 -1.84778 6.3419 154 161 189 
1.67248 -0.356729 6.67416 96 98 119 
1.48247 -0.295427 6.45455 84 82 96 
1.56666 -0.294009 6.56381 47 44 63 
-0.239803 -2.02658 3.89198 93 83 91 
2.34636 -1.20835 6.73311 67 82 113 
2.73606 1.01423 6.774 119 120 150 
0.118053 -2.15197 4.59346 12 12 22 
-0.642594 -2.33069 4.01864 16 28 42 
1.60333 -2.11456 6.01416 25 28 47 
1.82061 -2.12961 6.29557 64 76 102 
2.53746 0.682433 6.76242 42 55 108 
1.6674 -2.08471 6.15448 117 116 132 
1.63767 -2.07247 6.10823 132 125 143 
1.67128 -2.04422 6.10274 39 38 54 
0.387027 -0.284599 6.72171 104 99 121 
1.99938 -1.87332 6.41971 36 49 68 
0.073351 -2.02996 4.37332 89 83 93 
2.00798 -2.01883 6.51473 116 115 133 
2.01665 -2.01631 6.52499 101 93 114 
-0.665636 0.0580607 4.68563 109 121 181 
2.0265 -1.99529 6.51779 29 28 46 
1.28567 0.10734 6.29828 159 178 237 
1.11006 -0.138779 5.85328 144 147 152 
0.449881 -1.93859 4.81948 41 33 48 
1.99071 -1.64165 6.45728 130 140 165 
2.02815 -1.4839 6.43535 121 126 146 
1.61477 -1.68522 6.05543 132 133 161 
1.65395 -1.67657 6.10412 31 32 53 
1.9707 -1.5975 6.33193 139 143 168 
1.42475 -1.20423 5.807 41 37 52 
1.42187 -1.21591 5.8469 126 125 141 
1.18699 -1.19989 5.43587 131 145 174 
1.94657 -1.5376 6.37006 119 133 159 
2.59309 0.208725 6.86458 84 89 119 
1.9764 -1.58612 6.46228 117 125 146 
1.58853 -1.66225 6.06252 80 86 112 
0.409157 -1.93645 4.66131 97 92 114 
1.19386 -0.300514 5.75922 91 81 92 
0.485173 -0.869837 4.58247 68 72 97 
1.07738 -0.972407 5.29781 57 70 102 
2.60895 -0.507514 6.97425 104 123 155 
-0.282607 -2.08112 3.95933 70 57 67 
1.95097 -1.8551 6.36045 150 157 185 
0.191674 -1.09071 4.27719 126 122 139 
1.38892 -1.13545 5.63635 34 27 45 
1.72599 -2.02058 6.00931 23 25 38 
1.11553 -0.149696 5.75444 44 40 57 
2.57318 0.0257129 6.79367 93 108 137 
2.29164 0.00412677 6.72497 81 88 114 
1.33578 0.0938865 6.23798 86 102 164 
2.02265 -1.46547 6.36637 132 134 155 
2.034 -1.47888 6.41973 121 126 146 
1.3484 0.166741 6.30525 26 36 95 
2.13486 0.72914 6.64022 84 95 117 
2.28948 0.732256 6.59663 96 101 130 
1.31902 0.207999 6.2515 159 171 231 
1.70925 -1.53726 6.00376 41 45 70 
2.0298 -1.54781 6.41356 56 60 87 
2.54826 0.714302 6.6624 164 189 246 
1.65929 -1.56585 6.00022 27 32 52 
-0.654569 0.294093 4.69239 98 109 105 
2.58814 0.670819 6.72634 50 50 112 
2.56823 0.66867 6.71608 209 225 255 
2.0464 -1.55897 6.41587 125 137 163 
1.64291 -1.57375 5.99122 124 129 151 
0.104629 -1.80544 4.32698 22 22 30 
2.04965 -1.61634 6.4136 123 135 161 
-0.734939 0.153127 4.70931 124 135 199 
-0.140471 -1.73271 4.09573 32 21 29 
0.580441 0.273185 4.64965 95 84 114 
3.02545 -1.84372 7.53039 93 89 124 
2.00227 -1.59741 6.40531 128 135 161 
0.500772 -1.90989 4.76627 30 28 39 
1.48136 -1.21731 5.82196 108 111 130 
1.52003 -0.570351 6.60616 25 23 44 
1.79714 -1.33292 6.13525 37 32 52 
1.61869 -1.42403 5.85551 38 40 53 
-0.845105 0.38945 4.01759 24 26 51 
-0.645945 0.134993 4.65321 13 22 65 
1.2118 -0.314869 5.59941 95 81 96 
1.71149 -1.48789 6.0526 64 81 107 
1.01429 -0.643694 5.16602 117 127 162 
2.09851 -1.15758 6.46607 89 96 122 
1.86835 -1.32129 6.19896 43 40 57 
1.69815 -2.08207 6.04595 16 25 34 
1.72602 -1.51307 6.06153 140 144 171 
2.23122 0.725941 6.61736 69 80 108 
1.02199 0.577839 5.07772 21 27 43 
1.12316 -0.155184 5.71743 115 112 129 
1.30863 0.151173 6.2935 33 41 78 
1.03403 0.165666 5.11706 48 60 86 
-0.601958 0.077554 4.70727 106 131 197 
1.68959 -2.05666 6.0871 30 36 50 
-0.650593 0.15825 4.64864 119 127 190 
1.36183 -0.750375 6.50536 13 15 27 
2.58462 -0.62255 6.99712 62 78 103 
2.56049 0.665285 6.75022 210 220 255 
-0.667051 0.296035 4.65195 94 93 91 
-0.71585 0.299046 4.73649 99 109 110 
1.84229 -1.97328 6.30014 133 136 155 
2.57661 0.695175 6.75758 41 52 98 
2.54192 0.715288 6.68799 158 182 244 
2.53471 0.736845 6.68354 32 35 70 
0.0806642 -1.91962 4.34451 59 69 104 
2.56754 0.742815 6.76601 187 194 246 
1.17971 -1.114 5.40712 117 133 166 
3.02255 -1.85258 7.55674 95 89 123 
0.724582 0.54345 4.72436 50 47 94 
1.95721 -1.30058 6.43235 47 43 57 
-0.043289 -1.69245 4.02533 23 18 22 
1.55393 -1.33839 6.01216 41 37 52 
2.70984 1.03398 6.86494 28 33 65 
2.7149 1.03516 6.91748 121 128 156 
1.78889 -1.33723 6.15355 26 24 38 
1.98797 -1.6507 6.47095 126 135 164 
2.05388 -1.38194 6.45574 104 115 137 
0.676321 0.65235 4.63503 43 37 71 
1.61542 -1.62646 6.04506 127 133 155 
1.97193 -1.42069 6.36069 123 136 155 
2.01941 -1.57866 6.48168 116 128 152 
1.95439 -1.52286 6.36823 84 84 112 
1.96977 -1.4772 6.29444 120 126 150 
0.590735 -0.101615 4.69259 105 99 125 
1.79799 -1.79943 6.23489 75 88 120 
2.53579 0.564072 6.79279 125 130 159 
2.47112 0.552928 6.64369 28 25 32 
1.95045 -1.82196 6.44432 73 77 112 
0.554438 0.257733 4.62803 156 159 192 
1.51595 -0.572214 6.61543 25 23 44 
1.45701 -0.392256 6.53367 35 37 58 
1.0805 -0.200287 5.18713 82 97 126 
-0.00631807 -1.17687 4.42779 26 23 32 
1.141 -0.128501 5.80484 160 159 165 
2.59045 -0.162009 6.99327 134 143 172 
1.45144 -1.25922 5.83815 33 29 44 
1.30287 0.129736 6.33199 173 193 254 
1.05012 0.164135 5.16504 87 96 127 
2.01651 -1.48374 6.46415 128 135 161 
1.69209 -1.55672 6.11054 45 48 67 
2.72859 1.03777 6.82085 20 25 47 
-0.588763 0.298593 4.59266 90 86 85 
0.6109 0.641601 4.71704 187 203 255 
0.658247 0.620847 4.76082 22 31 90 
2.51998 0.723079 6.76034 196 215 255 
0.61171 0.584593 4.72912 28 37 80 
2.57076 -0.665924 7.01384 133 149 183 
0.507978 -1.95493 4.79452 24 25 29 
1.56915 -1.32669 5.97877 37 30 46 
1.3787 -0.748935 6.47798 15 15 25 
3.07413 -2.00849 7.69664 138 140 178 
1.04055 0.580212 5.04978 37 49 75 
1.98091 -1.48465 6.45661 134 145 173 
2.55441 -0.824079 6.84461 52 66 92 
2.7292 1.00951 6.69132 140 141 171 
-0.873882 0.387314 4.0301 22 28 50 
2.64082 -0.145329 6.94773 73 82 111 
2.54696 0.189213 6.86477 129 138 169 
1.35027 -0.431473 6.6569 38 53 84 
0.374692 -0.514565 4.55971 125 118 136 
1.03471 -0.231169 5.12229 68 81 115 
0.55015 -0.327357 4.75831 26 30 39 
0.081224 -1.2141 4.40335 20 24 35 
2.66703 -0.256755 6.90494 74 93 123 
1.35566 0.111303 6.29983 178 197 255 
-0.749928 0.0694889 4.7357 115 130 195 
2.0465 -1.45879 6.38415 117 127 154 
-0.664559 0.158755 4.73509 112 135 205 
2.53504 0.705488 6.78984 206 220 255 
2.53565 0.735565 6.66604 57 55 77 
-0.141708 -1.7205 4.06039 22 19 26 
0.625914 0.62011 4.75185 185 202 255 
1.97211 -1.99666 6.45445 31 29 42 
0.577093 -1.91271 4.72022 22 23 28 
2.53376 0.866201 6.73205 118 123 155 
2.56723 0.0103065 6.93676 44 49 71 
1.12834 -0.12916 5.82259 163 162 170 
-0.112519 -1.84369 4.0958 24 28 37 
0.163389 -1.77142 4.27464 20 20 20 
1.33585 -1.16501 5.72078 32 25 41 
1.03678 0.155136 5.10907 32 43 63 
0.205489 -1.24315 4.34699 84 76 97 
1.70906 -1.61974 6.04705 58 69 87 
1.14481 0.0798028 5.2535 113 111 132 
0.206306 -1.25872 4.35608 137 132 162 
1.54503 -1.24455 5.85638 77 72 94 
1.95711 -1.46822 6.27401 89 98 127 
-0.623917 0.170624 4.71627 88 111 178 
-1.11987 0.0453643 3.90276 142 156 185 
2.21684 0.72375 6.46489 115 121 147 
2.64892 -0.349966 6.9953 175 190 219 
3.16263 -1.54313 7.6588 35 36 57 
2.56581 0.686013 6.75511 96 100 164 
3.04603 1.00354 7.28166 82 106 168 
2.44414 -0.475132 6.81511 37 32 54 
-0.719288 -0.503999 3.46583 111 103 118 
2.73879 1.02777 6.78192 33 43 78 
2.64996 -0.266641 6.96142 170 193 225 
2.26747 0.762051 6.63628 114 119 148 
2.54239 0.560059 6.77572 156 170 197 
-0.550595 0.839755 3.29364 31 33 90 
0.552258 -0.128898 4.68237 122 122 150 
3.48649 -2.36939 8.12884 80 79 95 
3.45376 -2.34883 8.1174 85 84 98 
2.03663 -1.99806 6.48622 126 123 140 
2.0128 -1.61542 6.45217 82 82 110 
3.87994 -1.55022 8.54598 111 112 132 
2.99231 0.00338795 7.33335 101 106 146 
3.0161 0.266605 7.32397 139 144 176 
1.99327 -1.87743 6.43955 49 56 84 
1.82083 -1.85951 6.25706 52 57 89 
3.40551 -0.719253 7.87342 86 89 122 
1.96754 -0.201742 5.72964 44 34 58 
0.690831 0.576815 4.74262 52 52 124 
3.02429 1.04311 7.25869 156 179 229 
3.35611 -2.07955 8.02302 84 87 104 
0.633486 0.543119 4.6901 27 26 70 
2.99488 0.879184 7.24963 151 158 187 
1.96131 -1.61376 6.37895 70 70 98 
3.58693 -1.61149 8.24006 92 93 113 
2.12187 0.731148 6.67069 95 101 125 
1.40049 -1.141 5.70852 48 41 57 
2.46338 -0.482338 6.805 45 38 56 
2.68313 -0.244313 7.03097 97 106 139 
0.411094 -0.295662 4.49484 50 37 54 
0.667216 0.608649 4.7128 191 213 255 
1.15063 -0.17378 5.68448 121 110 127 
0.321228 -1.98285 4.60502 70 58 68 
2.68693 -0.243912 7.02181 102 115 150 
1.52638 -0.582569 6.62514 36 40 67 
0.176589 -1.68506 4.32379 36 36 48 
1.29456 -0.341032 6.2983 40 36 59 
1.90729 -1.89262 6.44955 164 174 201 
3.01841 1.0638 7.25663 55 42 70 
3.07136 1.02493 7.30611 49 58 125 
3.03341 0.945129 7.27949 156 187 241 
2.58195 0.728142 6.75322 213 223 255 
2.58126 0.628542 6.74487 193 203 254 
0.692732 0.533785 4.76238 111 102 131 
1.9923 -1.9947 6.48701 73 74 95 
0.433766 -0.886146 4.63246 78 79 109 
1.15697 -1.21483 5.47429 139 150 180 
1.30101 -1.09649 5.63239 54 42 66 
2.26704 0.795223 6.64822 86 81 101 
2.52348 0.739544 6.72456 34 38 73 
2.54148 0.665173 6.72156 54 63 118 
-0.129702 -1.73015 4.08815 37 24 33 
0.143924 -1.10741 4.31459 138 135 152 
2.09864 0.721982 6.61353 65 85 109 
1.70071 -1.5085 6.05068 131 146 169 
1.02619 -0.0295614 5.13892 38 43 63 
1.03864 0.601437 5.12258 108 119 149 
0.580567 0.273843 4.64938 95 84 114 
1.6768 -2.10128 6.08226 19 29 38 
2.21917 0.752205 6.65645 72 85 104 
1.57194 -1.2817 5.90855 124 106 132 
0.116549 -1.7987 4.31661 31 30 36 
0.125277 -1.12737 4.33844 37 29 44 
1.14437 -0.170209 5.53245 162 167 186 
2.55035 0.668885 6.68728 53 65 115 
2.57604 0.686007 6.73142 48 61 103 
3.04068 0.997528 7.24589 45 55 104 
3.06785 0.964228 7.33285 219 229 254 
2.54531 0.0195964 6.88104 83 100 126 
3.63328 -1.40066 8.16701 134 145 173 
2.0852 0.69383 6.63506 73 85 109 
1.45477 -1.22718 5.8543 116 116 144 
1.9798 -1.62005 6.47917 124 132 155 
0.675728 0.617528 4.70918 196 210 255 
0.69362 0.590121 4.72797 30 39 72 
-0.637048 0.114445 4.7083 14 25 57 
3.16723 -1.54004 7.64339 38 37 53 
1.6845 -1.59154 6.06419 113 123 148 
3.04732 0.985566 7.29415 208 225 255 
2.57499 0.750715 6.78735 62 54 103 
0.985393 -0.237834 5.18199 73 86 118 
3.67208 -2.73261 8.47885 230 234 255 
3.71904 -2.74995 8.59096 76 83 163 
2.65282 -2.59463 7.12073 84 98 109 
3.07538 -2.63721 7.66984 123 140 166 
3.77031 -3.00306 9.40937 145 159 222 
3.91826 -2.6798 8.70197 211 223 255 
3.92987 -2.69466 8.7512 65 86 167 
3.9139 -2.69545 8.77211 179 183 231 
3.86022 -2.66521 8.74664 177 219 255 
3.12415 -2.32258 7.63458 135 133 170 
3.45678 -2.34376 8.10438 84 80 94 
-0.0457789 -2.22264 4.40683 71 53 77 
1.67836 -2.09954 6.13974 114 122 141 
-0.072011 -2.03675 4.13849 68 66 71 
1.6525 -2.06731 6.11319 89 82 100 
1.66011 -2.04407 6.11863 54 51 72 
3.6676 -2.0346 8.35942 85 77 92 
1.75941 -1.98175 6.20377 81 87 113 
2.02972 -1.96462 6.4523 98 99 120 
1.74283 -1.96666 6.19183 79 78 109 
1.81974 -1.85794 6.24591 62 71 102 
1.96649 -1.63922 6.41291 78 78 104 
1.99293 -1.65453 6.54208 117 129 151 
2.00269 -1.62863 6.4671 60 65 95 
3.55021 -1.47448 8.0536 77 75 88 
2.04382 -1.48727 6.39115 113 127 153 
1.70757 -1.38114 6.105 102 98 125 
1.59509 -1.3511 5.91995 50 41 68 
0.0940774 -1.14458 4.3646 111 105 119 
-0.256325 -1.10605 3.85749 69 56 74 
3.39415 -0.727344 7.91924 86 91 123 
3.40304 -0.703329 7.84092 85 85 119 
1.04108 -0.794287 5.2178 108 123 152 
2.57933 -0.668606 6.95367 109 129 156 
1.33095 -0.701057 6.44129 34 40 64 
1.16037 -0.348836 6.21343 73 74 92 
1.69376 -0.266148 6.76374 77 74 91 
0.421336 -0.248109 4.51293 24 18 28 
0.562405 -0.107285 4.64777 29 24 31 
1.35161 0.121309 6.32984 142 160 222 
1.32477 0.160695 6.29697 167 193 254 
1.35757 0.200255 6.32084 82 99 153 
2.54217 0.63557 6.69639 177 203 254 
2.57843 0.664842 6.77587 61 66 132 
2.45822 0.691014 6.98436 54 69 134 
1.2483 0.617375 5.25202 92 84 99 
0.631517 0.541019 4.71382 171 187 247 
0.642073 0.556002 4.68866 183 188 244 
3.03432 0.944299 7.27735 134 159 215 
0.693224 0.577072 4.74044 35 43 108 
3.08146 0.95843 7.31639 156 163 215 
2.5435 0.901967 6.71323 127 138 168 
3.07512 1.03329 7.31411 69 85 147 
0.699199 0.666451 4.74146 41 40 74 
3.02245 1.05746 7.2519 51 44 85 
0.901623 0.808991 4.91589 70 74 85 
3.03767 1.0631 7.25949 168 176 223 
3.78159 -2.97416 9.33682 145 160 227 
3.33977 -2.71454 8.18566 25 27 75 
3.09293 1.05376 7.27351 144 137 191 
3.01525 1.04531 7.28943 147 170 224 
0.635243 0.638288 4.68081 170 178 227 
0.688495 0.631072 4.73714 25 37 113 
3.86397 -2.65632 8.72358 177 219 255 
3.05863 0.999726 7.23948 69 94 158 
3.03501 0.959927 7.22876 185 206 253 
0.645713 0.573702 4.69077 33 41 106 
3.072 0.960563 7.34681 156 163 215 
3.02256 0.942297 7.27594 52 53 107 
0.660193 0.535043 4.67769 32 24 63 
2.56474 0.689753 6.72662 187 209 255 
1.31736 0.185538 6.23583 92 108 170 
3.24533 -0.102941 7.54985 24 15 42 
3.39002 -0.703108 7.88292 137 142 174 
1.62299 -1.49747 5.95572 47 51 78 
1.66319 -1.58903 6.04234 100 118 140 
0.0932378 -1.91181 4.33994 50 48 87 
3.5959 -2.0531 8.24086 77 90 107 
3.14073 -1.96943 7.71164 147 143 168 
0.386721 -1.94868 4.67957 94 91 110 
3.02803 -1.84203 7.52295 93 89 124 
1.66258 -1.8742 6.1394 93 96 127 
1.59986 -1.70461 6.04968 99 98 116 
1.6363 -1.66161 6.01647 141 147 171 
1.7065 -1.64152 6.08203 85 95 122 
1.62181 -1.63967 6.00913 68 69 97 
1.96901 -1.62054 6.4719 125 135 162 
1.53672 1.21964 4.82159 42 52 77 
-0.032747 -2.21622 4.39662 71 53 77 
3.21207 -1.52783 7.703 62 66 77 
1.75695 -1.51559 6.01784 65 66 94 
3.53739 -1.4753 8.03694 76 80 91 
1.23989 1.05269 5.04326 51 57 93 
3.68039 -1.44158 8.14858 59 69 79 
2.8541 1.06753 7.12513 136 138 163 
2.09424 -1.34859 6.36702 80 97 117 
1.52211 -1.32752 5.86515 55 49 75 
3.30069 -1.19604 7.80286 96 101 133 
1.41615 -1.19274 5.7355 32 23 42 
0.919649 -1.13373 5.16396 99 113 152 
1.24691 -1.09781 5.48807 41 38 55 
1.05809 0.714405 5.08826 110 123 155 
3.40281 -0.726673 7.87919 139 150 180 
1.02338 -0.800635 5.23629 112 127 156 
3.91192 -2.70011 8.78476 179 183 231 
1.55567 -0.605099 6.63741 17 19 34 
1.48923 -0.376854 6.47701 45 50 80 
0.204817 -2.50738 4.64293 94 81 99 
1.11605 -0.368936 6.11817 46 41 64 
1.15018 -0.349791 6.22594 76 77 95 
1.4516 -0.317231 6.5105 43 38 60 
1.50759 -0.294659 6.59434 86 83 100 
2.9798 -0.0225198 7.34637 75 81 115 
1.13642 -0.181466 5.56995 60 48 68 
0.424921 -0.247201 4.51039 24 18 28 
3.02729 -2.37472 7.62719 113 111 151 
3.44789 -2.3588 8.14257 75 75 87 
1.3447 -0.319465 6.38607 74 73 89 
1.61612 -1.64891 6.0044 103 109 133 
3.50989 -1.4744 7.97538 71 69 82 
0.516926 0.953502 4.39088 85 94 111 
3.64284 -1.45814 8.14697 66 69 78 
0.046023 -1.56678 4.22163 54 46 61 
0.968464 -1.7481 5.27983 126 129 170 
3.02473 1.05817 7.24192 49 40 69 
3.05619 1.06843 7.35063 197 205 252 
3.10684 1.05316 7.19439 172 172 226 
3.72413 -2.97339 9.44082 168 210 250 
3.86249 -2.67273 8.75705 217 240 255 
3.07921 1.05623 7.31376 204 209 251 
3.02252 1.04535 7.26826 165 190 244 
3.87991 -2.65133 8.83114 49 52 107 
0.673175 0.608208 4.70739 182 205 255 
3.08562 0.984077 7.26809 70 65 132 
3.03006 0.980607 7.26142 90 93 146 
3.03722 -2.3598 7.58884 109 109 147 
3.05796 0.96267 7.39108 176 186 235 
0.718904 0.544029 4.71222 126 146 215 
2.53114 0.73941 6.739 159 172 224 
2.57079 0.707253 6.7797 42 51 120 
2.57071 0.666684 6.78604 84 82 147 
2.59641 0.645566 6.74151 195 203 252 
2.55096 0.619044 6.66737 42 54 96 
1.28823 0.12719 6.2987 33 46 101 
1.87445 -2.08561 6.20643 74 88 114 
1.37747 0.103419 6.28958 72 90 154 
2.50209 0.0124651 6.97057 86 97 127 
3.23067 -0.101192 7.57519 111 112 133 
2.66969 -0.251376 6.91621 121 142 169 
1.68509 -2.07334 6.12672 116 115 133 
3.2382 -0.581304 7.70186 99 108 141 
3.38892 -0.683366 7.82117 125 139 168 
1.37359 -1.1539 5.65972 52 44 67 
1.54234 -1.28695 5.85543 48 43 63 
1.99708 -1.5107 6.49871 113 115 136 
1.99362 -1.98689 6.46054 32 27 47 
1.69029 -1.56906 6.05826 87 104 124 
1.63654 -1.60772 6.08216 108 126 148 
2.01098 -1.9562 6.40745 109 115 139 
1.99862 -1.6261 6.50215 125 129 156 
2.0087 -1.63118 6.5062 63 64 92 
3.40113 -1.6381 8.0346 122 121 139 
2.99346 -1.78082 7.576 163 169 203 
1.79911 -2.29202 6.28946 51 53 74 
3.02086 -1.8516 7.5428 101 103 141 
1.67868 -1.86365 6.11527 86 87 118 
1.80503 -1.86814 6.27072 62 71 102 
1.22477 0.61633 5.28058 85 80 100 
1.68552 -1.67058 6.05467 41 53 75 
1.22879 0.631028 5.20758 30 35 64 
3.58866 -1.60907 8.2318 90 88 109 
0.443729 -1.9684 4.76456 66 65 73 
1.96013 -1.62687 6.48745 110 120 147 
0.586269 0.0792207 4.67466 93 84 113 
1.98569 -1.57991 6.43627 117 125 146 
3.89715 -2.00676 8.63491 92 79 96 
1.73509 -1.53193 6.0294 33 38 57 
0.164628 -2.12696 4.56019 20 12 25 
3.44968 -1.48188 7.90931 75 79 91 
3.41083 -2.02812 8.09275 91 78 98 
1.74222 -2.44778 6.25602 87 103 139 
1.21721 -0.304864 5.71413 53 40 50 
1.18663 -0.329749 5.61586 45 33 45 
3.75987 -1.38542 8.3194 78 79 109 
1.13945 -2.52975 5.54791 148 152 187 
2.07613 -1.36265 6.39953 98 110 134 
2.67908 1.02856 6.86466 132 138 162 
1.18078 -0.664433 6.29433 22 23 43 
1.84815 -2.05756 6.25137 63 69 93 
1.44778 -1.24949 5.83147 45 37 58 
3.34491 -0.65108 7.79905 119 130 160 
1.42663 -1.12898 5.6751 49 38 55 
2.48729 -0.875297 6.97783 95 115 142 
2.72237 1.3597 6.76 41 55 90 
3.45449 -1.49059 7.95554 84 80 95 
1.14022 -0.782746 5.40226 132 133 153 
1.38327 -1.2506 5.74374 66 60 86 
2.39759 -1.17648 6.62595 81 96 127 
2.59075 -0.515518 7.02037 95 111 144 
1.83867 -1.77346 6.30663 100 106 132 
3.14232 0.0423651 7.46044 24 27 32 
1.86536 -1.92449 6.52115 154 161 189 
1.54638 -0.297729 6.60023 47 44 63 
1.16621 -0.34747 6.19819 74 75 93 
1.75066 -1.96116 6.17775 79 78 109 
1.69087 -1.63516 6.05796 94 104 129 
0.413649 -0.513216 4.52599 119 110 129 
3.20572 -1.54905 7.68615 97 104 122 
2.46147 0.920049 6.57743 110 108 122 
-0.013189 -2.20686 4.38219 65 50 71 
1.14165 -0.618774 6.25695 28 30 53 
1.89505 -2.44508 6.45729 158 167 200 
3.01237 -2.49566 7.66183 121 120 154 
3.0268 -2.38016 7.63584 103 101 141 
2.75085 1.01678 6.76385 50 53 94 
3.06316 1.06715 7.3287 197 205 252 
1.64313 -2.33172 6.11072 70 90 127 
0.692328 0.6673 4.73258 31 37 85 
0.691628 0.659193 4.72012 183 192 251 
3.07669 1.04933 7.31698 208 217 255 
0.69024 0.646599 4.73464 234 237 255 
3.06663 1.02804 7.33706 42 51 116 
0.691635 0.625781 4.73251 18 34 109 
0.647131 0.619228 4.68355 17 34 90 
3.06208 1.00475 7.29184 65 59 123 
3.02067 0.961209 7.28079 173 196 246 
3.05318 0.934157 7.15603 65 59 105 
0.653784 0.554007 4.67895 183 188 244 
0.703474 0.560367 4.7371 191 211 255 
0.704371 0.543548 4.72393 156 181 245 
1.22244 0.615806 5.29406 109 100 117 
2.02222 -1.98339 6.43716 72 74 87 
1.18478 0.610414 5.37186 123 125 146 
2.26621 0.74019 6.67112 75 80 112 
2.58747 0.387782 6.8467 88 88 114 
2.55748 0.745735 6.79438 162 163 217 
0.490311 -1.96762 4.81557 26 25 30 
2.56428 0.667351 6.80527 58 59 126 
2.53269 0.620833 6.76576 104 121 177 
3.42446 -2.07025 8.09567 88 79 96 
0.0790307 -2.01242 4.30988 86 86 96 
2.04158 -1.98785 6.4453 116 115 133 
1.31649 0.213581 6.34451 151 165 226 
3.20125 -0.111414 7.67853 118 123 143 
1.09019 0.130623 6.64701 35 42 88 
1.32574 0.136805 6.3526 35 39 110 
0.535977 -1.88974 4.73966 41 33 48 
3.24697 -0.575645 7.67481 72 78 110 
3.1792 -1.66569 7.83983 32 18 43 
3.39708 -0.696346 7.84803 111 114 145 
2.56105 -0.82764 6.8806 72 91 123 
1.63746 -1.81294 6.09641 56 66 101 
2.63603 -0.150463 6.85941 128 140 166 
1.75085 -1.51933 6.03128 65 69 98 
-0.104416 -1.71739 4.07428 35 23 33 
2.0197 -1.49299 6.41066 33 37 62 
1.57114 -0.601008 6.60676 17 19 34 
2.01103 -1.52641 6.47792 121 129 150 
1.60551 -1.45027 5.89693 122 120 141 
1.60174 -1.4384 5.89339 51 54 71 
3.42925 -1.59851 7.96766 27 18 39 
1.66079 -1.56077 6.11579 101 107 133 
1.62708 -1.57785 6.08274 86 88 111 
2.01028 -1.61685 6.4838 125 131 157 
1.60556 -1.62633 6.06612 134 145 165 
1.61195 -1.58741 6.07814 53 53 79 
1.50952 -1.28673 5.89773 30 28 42 
0.996003 -0.712634 5.21152 110 123 155 
0.55504 0.257449 4.62535 121 118 145 
1.21873 -0.315662 5.59447 95 81 98 
3.39732 -1.49866 7.89871 80 84 96 
1.2004 -0.766678 5.39961 54 46 67 
1.22488 -0.304245 5.70485 56 43 53 
0.99311 -0.705185 5.19853 73 87 122 
3.60834 -2.03686 8.19609 104 112 131 
1.56136 -0.551105 6.52936 30 28 52 
0.534117 -0.316467 4.7237 85 93 116 
0.206214 -1.67095 4.30372 32 29 38 
3.47582 -1.2701 7.92237 128 137 168 
1.72419 -1.34481 6.08431 47 44 63 
2.4242 -0.586125 6.84148 32 30 41 
-0.089683 -1.84278 4.07489 38 41 48 
1.55498 -1.98723 5.91327 55 63 99 
0.38292 -0.901024 4.67236 68 72 97 
1.67317 -1.86845 6.12607 86 87 118 
1.99476 -1.91958 6.42147 92 109 135 
1.93718 -1.82355 6.46143 73 77 112 
0.0386629 -2.01238 4.22756 75 70 76 
2.60384 -0.510197 6.98898 104 123 155 
1.89554 -1.90255 6.46956 150 157 185 
0.0972282 -1.13846 4.34499 20 17 26 
3.07104 1.07081 7.35393 51 40 96 
1.15788 -0.166159 5.52155 154 161 180 
3.04743 -2.34377 7.54851 109 109 147 
1.62762 -2.34515 6.13306 89 107 143 
1.20165 -1.20811 5.42974 83 100 128 
1.58077 -2.13987 6.25734 23 25 38 
0.676402 0.656471 4.66139 153 142 198 
1.62398 -1.30155 5.89221 37 30 46 
3.06165 0.950923 7.32964 190 211 254 
1.32669 0.0923778 6.25292 86 102 164 
1.37048 0.0976847 6.28297 83 104 171 
1.56379 -0.603746 6.6185 30 31 49 
0.690033 0.546853 4.7363 178 201 255 
3.64125 -1.38429 8.09357 114 130 156 
1.98734 -1.47057 6.41258 123 137 163 
1.32117 0.164755 6.24765 30 42 84 
1.32049 0.166141 6.34899 26 36 95 
2.24749 0.737615 6.6945 96 101 130 
2.0278 -1.48188 6.34077 120 132 156 
1.37081 0.199868 6.28063 174 194 255 
2.55653 0.746424 6.78352 165 168 221 
1.64971 -1.57576 6.10483 41 45 70 
3.07514 1.00558 7.24533 50 53 122 
1.98785 -2.01028 6.49794 66 68 83 
2.59367 0.388315 6.82738 83 87 116 
3.07157 1.02467 7.30377 40 48 113 
1.97406 -1.58834 6.32387 140 146 172 
-0.638296 0.0751339 4.6516 117 127 189 
3.40562 -1.62527 8.06134 50 35 54 
3.22292 -0.0903106 7.62615 33 19 36 
1.95426 -1.64191 6.40207 139 151 177 
1.6578 -1.68841 6.01615 148 160 184 
1.01121 -0.997138 5.37589 60 71 103 
3.19303 -1.64181 7.76664 40 24 50 
2.27219 -0.113661 6.66436 79 84 104 
3.40663 -1.6248 7.99013 124 125 145 
2.66184 1.03016 6.89082 139 143 170 
1.74224 -1.80899 6.30714 83 94 124 
3.03413 -2.45517 7.5728 121 120 154 
3.01283 -1.8629 7.57931 93 89 124 
3.16161 -1.56731 7.69243 55 51 74 
1.17886 -0.170262 5.65102 111 102 119 
-0.0859661 -2.42038 4.51967 21 32 52 
3.42494 -2.00006 8.01 96 87 106 
1.62098 1.19407 5.08815 46 50 85 
3.01216 0.0666431 7.45088 69 84 103 
0.0855859 -2.00453 4.27839 90 80 91 
3.40659 -2.09967 8.17122 91 82 103 
2.05265 0.722666 6.69854 72 83 103 
2.22495 0.749402 6.62565 68 75 94 
2.28429 0.766571 6.62179 75 81 105 
2.01456 0.00087066 6.70027 70 74 99 
2.35302 -0.165048 6.70668 75 74 90 
1.0358 -0.0260508 5.12874 37 43 65 
1.76457 -1.35268 6.19361 37 32 52 
2.4721 0.823185 6.59722 37 38 58 
1.56903 -1.45366 5.93505 38 40 53 
1.73075 -1.33628 6.07206 34 31 48 
0.442546 0.0236563 4.52724 109 102 120 
2.51829 1.02009 6.74635 121 117 142 
3.18466 -1.51944 7.60264 19 19 31 
2.55965 1.20684 6.52626 100 115 146 
1.91049 -1.84362 6.5076 81 86 118 
0.638957 -2.39794 5.03596 109 94 123 
1.67808 -1.50929 6.10993 64 81 107 
0.628695 -2.22171 4.88284 138 139 169 
1.64843 -1.61121 6.1047 94 101 127 
1.21973 -0.443786 6.39174 30 45 76 
3.0149 0.452125 7.29385 117 112 142 
1.72085 -1.51582 6.0697 140 144 171 
2.22682 0.726815 6.62832 69 80 108 
-0.577664 0.1076 4.68201 9 21 69 
2.01537 -1.47066 6.4754 112 124 150 
3.032 -2.37309 7.61736 98 98 136 
2.02453 -1.96671 6.404 19 17 31 
2.56708 0.0322742 6.80726 120 139 171 
3.02189 0.0701317 7.42043 71 88 108 
3.16298 0.0495008 7.377 24 27 36 
1.13332 -0.185786 5.47748 48 34 47 
1.32456 0.105292 6.25193 177 197 255 
1.35918 0.156225 6.27476 28 37 92 
-0.0603654 -2.16194 4.29086 16 15 29 
1.31437 0.192674 6.25077 169 189 252 
3.24581 -0.080837 7.55675 19 13 23 
2.64643 -0.150072 6.94981 61 70 99 
1.26708 0.205884 6.33331 130 141 197 
1.65123 -2.07547 5.93881 20 22 37 
1.30607 0.210559 6.35944 151 165 226 
0.965901 0.161574 5.19526 48 60 86 
1.03578 0.176353 5.17544 130 143 178 
1.65468 -2.08538 6.14668 30 36 50 
1.62652 -2.07594 6.12364 148 149 169 
1.64883 -2.06735 6.14149 37 35 49 
2.55641 0.618182 6.7163 105 119 180 
3.34015 -0.657793 7.80688 132 145 179 
1.20335 1.1405 4.7359 37 42 62 
2.55744 0.677251 6.70728 42 55 108 
1.64919 -2.0052 6.13996 51 60 91 
3.07587 -2.00815 7.70254 139 143 180 
2.02197 -1.94267 6.39138 122 129 155 
0.0680271 -1.14717 4.37712 37 34 45 
0.0735697 -1.149 4.36109 20 18 21 
2.49745 0.740571 6.78299 32 35 70 
1.23057 0.566516 5.54294 131 138 156 
2.07631 0.722519 6.65582 75 86 106 
3.01492 -1.75423 7.49667 156 161 193 
2.3091 0.758694 6.56995 77 83 107 
1.8159 -1.7583 6.18509 55 66 94 
1.19693 0.616026 5.33878 120 117 136 
1.99824 -1.27405 6.35022 47 43 57 
-0.187058 -1.75611 4.12205 23 18 22 
2.72412 1.03117 6.8215 28 33 65 
1.6665 -1.67415 6.03881 39 51 77 
1.69766 -1.31431 5.9526 42 39 58 
2.65221 1.03311 6.91837 140 140 168 
3.20862 -1.63006 7.72922 21 16 38 
2.73132 1.0208 6.82097 74 74 112 
3.01983 1.06669 7.32661 194 207 252 
1.97766 -1.62967 6.36272 147 157 184 
1.97974 -1.65806 6.48775 126 135 164 
1.98477 -1.59548 6.46366 68 71 102 
3.75357 -1.39524 8.35944 81 86 116 
3.03441 1.0111 7.25727 46 52 104 
0.656028 0.579033 4.6871 37 37 91 
3.05887 1.00699 7.31645 59 53 115 
0.658559 0.619723 4.76082 22 31 90 
2.54234 0.818684 6.83797 59 56 73 
2.5486 0.563525 6.75731 125 130 159 
1.68736 -1.58776 6.05339 94 101 129 
1.95528 -0.00598258 6.72416 67 78 98 
2.24716 -1.0185 6.68857 27 25 38 
2.65213 -0.344418 7.00826 154 167 199 
2.56069 1.01087 6.65227 139 140 168 
1.6183 -1.61917 5.99763 100 105 127 
1.02303 -0.209747 5.25494 82 97 126 
0.106071 -1.13993 4.32816 17 17 19 
2.52673 0.0156295 6.9237 86 100 129 
1.16032 -0.124858 5.77863 160 159 165 
3.26122 -0.11292 7.53055 14 14 22 
1.32635 0.112119 6.351 177 193 253 
1.27345 0.190823 6.31308 177 195 255 
1.967 -1.42497 6.36593 124 136 158 
-0.633244 0.134328 4.68048 115 134 202 
3.01548 0.939266 7.28765 103 93 120 
2.0381 -1.50586 6.3995 113 123 150 
1.69369 -1.5243 6.06292 114 124 151 
2.57487 0.631702 6.81572 53 57 105 
2.55868 0.64368 6.81734 203 219 255 
2.52624 0.667737 6.82035 207 221 255 
-0.741621 0.294754 4.70159 90 86 85 
2.58325 0.68508 6.71546 45 46 102 
3.0745 1.047 7.31108 209 224 255 
0.703593 0.642523 4.71506 188 209 255 
1.63445 -2.07957 6.1595 50 48 62 
3.08863 1.005 7.2254 40 43 98 
3.07447 0.988609 7.13525 39 50 95 
2.57151 0.716796 6.62417 196 215 255 
0.703015 0.616204 4.68631 188 210 255 
2.5589 0.728213 6.804 204 220 254 
3.0676 0.980953 7.24399 202 217 255 
0.706413 0.59998 4.70056 27 37 73 
1.99788 -2.02308 6.53828 104 112 131 
0.672842 0.537851 4.68307 131 142 208 
2.56133 0.414006 6.76241 121 138 166 
0.649849 0.555011 4.68802 192 204 254 
0.641153 0.561654 4.78345 194 208 255 
0.653729 -0.289919 4.62126 94 108 135 
0.0907398 -1.19178 4.38602 30 29 43 
3.41688 -0.784395 8.04971 101 111 146 
0.535791 -1.93973 4.77034 24 25 29 
1.19328 -1.21888 5.44719 106 123 149 
-0.0668406 -2.17864 4.31415 118 115 136 
1.65395 -1.65116 6.03466 138 144 170 
2.26027 0.762882 6.6505 92 102 127 
2.51938 0.388148 6.96198 37 34 45 
1.21226 1.13574 4.72367 36 38 59 
3.6341 -1.39875 8.16278 118 134 160 
1.58079 -2.23423 6.10306 112 126 163 
1.69159 -1.64688 6.06433 107 113 139 
1.94044 -1.49571 6.35844 150 157 183 
1.00959 0.335229 5.10615 63 68 97 
1.21178 -0.663751 6.2664 13 16 25 
2.57886 0.586261 6.82195 85 90 122 
2.48133 0.659297 6.73726 27 33 47 
3.67477 -1.54877 8.17676 23 14 35 
2.68928 1.02012 6.8061 140 141 171 
2.55705 0.560685 6.73899 131 140 169 
2.65636 -0.161468 6.93012 49 57 78 
0.59768 -0.0993899 4.68623 102 92 119 
2.99492 -1.88552 7.64947 96 98 136 
2.91714 0.871373 7.02303 106 93 123 
2.57193 0.192817 6.79595 129 138 169 
1.6467 -2.21385 6.01254 70 86 122 
2.07553 0.69128 6.6585 78 86 107 
1.05231 -0.791922 5.20024 112 127 156 
0.923503 -0.249958 5.24968 68 81 115 
2.63682 -0.269802 6.9933 74 93 123 
3.03017 0.649462 8.66125 138 170 231 
2.52965 0.684272 6.74461 38 47 90 
2.55383 0.751153 6.83645 63 55 112 
0.590181 0.552347 4.74395 194 208 255 
0.758388 0.662144 4.67754 21 22 68 
3.06705 1.0483 7.29758 208 223 255 
3.00932 1.04937 7.33437 173 199 250 
0.666818 0.642195 4.66289 186 202 254 
0.677471 0.582884 4.70606 194 208 255 
3.66433 -2.05151 8.32284 125 127 150 
1.85816 -1.95734 6.2206 38 37 53 
0.673694 0.618275 4.70621 185 202 255 
0.672835 0.601642 4.68004 30 39 68 
1.69373 -1.59466 6.09704 116 126 153 
3.21052 -0.512851 7.61303 60 64 93 
2.54611 0.91883 6.7033 135 146 176 
1.42269 -0.735699 6.40783 16 16 26 
1.98856 -1.964 6.45226 118 130 156 
2.54181 0.865474 6.71244 118 123 155 
0.99016 0.729945 5.14444 122 138 172 
3.0182 0.0950058 7.34573 43 49 73 
0.161874 -1.10239 4.31028 132 133 153 
1.1591 -1.14819 5.42986 62 78 104 
1.12278 0.630015 5.57883 125 127 142 
3.2416 -0.120212 7.60022 18 12 22 
1.22294 0.615137 5.31537 127 125 139 
2.54778 0.820857 6.82668 46 51 73 
2.60543 0.214283 6.80414 78 75 104 
1.60446 -1.70078 6.01183 53 56 75 
1.63347 -1.28704 5.87628 22 18 32 
2.85411 1.05788 7.099 137 148 178 
1.94217 -1.65861 6.41319 135 146 176 
-0.228565 -2.18763 4.01052 98 88 112 
1.62723 -2.1991 6.02413 117 129 167 
2.75541 1.02644 6.73269 25 27 52 
1.1004 0.563389 5.74967 150 156 180 
-0.284257 -2.19237 4.01324 10 16 28 
1.92522 -1.53746 6.39856 95 107 133 
1.93054 -1.60744 6.40501 128 135 163 
3.20632 -1.49664 7.5091 19 21 34 
2.514 0.653428 6.64287 27 31 43 
3.02222 0.640189 7.32068 139 147 183 
1.42399 -0.402826 6.57203 35 40 60 
-0.112261 -1.83106 4.079 112 104 117 
0.52138 -2.29833 4.98795 142 143 173 
2.48084 0.846179 6.618 105 112 140 
0.155428 -1.27681 4.39572 137 132 162 
1.26238 -1.36555 5.59712 153 162 195 
3.04693 0.0992523 7.32976 80 103 135 
0.638297 0.0795526 4.62017 95 82 102 
-0.5215 -0.465093 3.37826 95 92 109 
1.8336 -2.0662 6.27428 57 58 89 
1.30242 0.152059 6.34562 43 64 129 
1.74565 -1.99236 6.22526 88 101 135 
0.331981 -1.97538 4.59243 78 72 84 
0.41661 -1.9631 4.69892 76 78 93 
1.64809 -1.34257 6.02812 67 57 84 
0.391531 -1.94653 4.67863 110 110 138 
-0.547187 0.900233 3.27677 210 220 255 
0.443779 0.0230539 4.5263 126 131 151 
1.99631 -1.60716 6.44765 126 146 171 
1.44254 -1.19373 5.7644 42 43 61 
1.4619 -0.307252 6.64887 86 82 109 
-0.105012 -1.84508 4.09117 36 39 46 
-0.234712 -1.76649 3.99257 146 158 196 
1.95307 -1.66071 6.44374 141 160 190 
2.02354 -1.482 6.44439 135 147 173 
0.988591 0.14281 5.14454 98 103 141 
1.66331 -2.05819 6.08514 69 55 88 
1.67493 -1.98002 6.09959 60 61 107 
1.73024 -1.52997 6.07336 88 93 131 
2.02607 -1.49817 6.42248 132 154 177 
1.16522 -0.356465 6.64166 83 84 112 
1.51841 -0.299423 6.97228 90 81 102 
3.04936 -0.0674865 7.38356 121 129 166 
-0.489607 -0.448259 3.61744 89 88 102 
2.99581 0.00444515 7.3244 122 127 167 
1.34647 0.0961343 6.32636 125 135 197 
-1.07061 -0.220421 3.95654 126 143 169 
1.35724 0.111458 6.33443 106 111 169 
-0.682048 0.165285 4.66289 100 100 154 
2.53314 0.621859 6.75689 117 148 213 
-0.711475 0.286992 4.68263 94 97 104 
-0.628634 0.293116 4.6783 102 121 128 
0.695314 0.541134 4.74703 52 48 107 
2.87749 1.05999 7.05721 126 127 158 
2.95562 1.14711 7.13457 102 119 127 
-0.501626 0.818033 3.34927 163 192 248 
-0.531771 0.856698 3.31675 183 194 255 
-0.555334 0.889746 3.28541 57 75 149 
0.907453 -2.16988 5.27166 110 111 155 
1.15888 -2.16634 5.5808 129 142 187 
1.84564 -2.10815 6.30417 91 88 117 
1.87249 -2.10921 6.35083 90 94 123 
1.66973 -2.04902 6.08568 120 116 141 
-0.281361 -2.04818 3.91863 104 93 101 
-0.0136147 -1.73923 4.1829 66 62 89 
-0.0496205 -1.73271 4.17398 100 97 118 
0.0147724 -1.72059 4.21889 47 37 62 
2.02472 -1.6086 6.45283 147 153 179 
2.03371 -1.5609 6.45948 122 136 162 
0.0227189 -1.57129 4.21369 42 32 59 
0.0489161 -1.49549 4.27029 64 50 75 
2.24208 -1.32091 6.66054 127 149 186 
1.43222 -1.17342 5.76023 122 123 144 
-0.462079 -0.975234 3.53468 33 27 39 
0.96717 -0.627805 5.18059 154 168 203 
2.63853 -0.260083 7.00098 93 116 150 
-0.471725 -0.573494 3.54968 67 67 103 
-0.499411 -0.538295 3.55809 56 51 81 
1.50126 -0.293696 6.52105 94 88 116 
0.565842 -0.107484 4.64531 39 37 51 
-1.0905 -0.291593 3.93106 114 136 160 
-1.05533 -0.218603 3.94913 118 135 161 
-0.664188 0.175249 4.66949 109 110 167 
2.48869 0.56322 6.72176 44 41 70 
1.0972 0.531871 6.00361 72 100 121 
2.52755 0.688156 6.82641 49 73 143 
0.681812 0.664296 4.72876 159 156 209 
-0.623189 0.528195 3.29861 86 99 107 
-0.492703 0.887735 3.34524 70 76 124 
-0.507615 0.913564 3.34446 153 178 235 
1.68401 -2.0963 6.13253 123 135 159 
2.1152 -2.02196 6.50292 37 45 66 
-0.257279 -2.06672 3.94036 81 67 80 
1.54257 -1.99636 5.9304 70 83 128 
-0.161862 -2.05078 4.03929 82 71 77 
2.00666 -1.9863 6.47935 58 63 95 
-0.13267 -2.05152 4.09972 67 65 70 
-0.0318409 -2.03231 4.19388 80 77 86 
0.0214314 -2.02021 4.23746 85 79 89 
0.10647 -2.01027 4.34581 99 92 108 
0.146895 -2.00835 4.40147 86 76 87 
0.253757 -1.98637 4.51497 83 81 95 
0.455648 -1.93179 4.72012 120 118 142 
1.61038 -1.88864 6.00284 42 43 74 
1.60988 -1.65391 6.0135 124 135 163 
-0.0481555 -1.70112 4.16572 102 93 114 
1.97317 -1.59109 6.38281 82 88 122 
0.0602296 -1.64352 4.26639 114 98 111 
0.0565473 -1.63414 4.24858 104 95 116 
-0.590788 0.799034 3.30934 49 39 76 
-0.501709 -1.67071 3.71151 113 107 153 
1.99061 -1.52393 6.48939 46 72 105 
1.99362 -1.49197 6.39825 113 139 166 
-0.0203768 -1.57401 4.17586 58 44 69 
1.99213 -1.22932 6.44294 75 71 88 
0.0177177 -1.34502 4.14484 40 35 57 
-0.501182 -1.37186 3.67193 80 92 134 
2.06782 -1.17641 6.47354 86 81 103 
1.16091 -1.21258 5.4718 115 131 157 
1.34899 -1.15059 5.69337 40 30 54 
2.50529 -0.936636 6.89162 88 110 149 
-0.29678 -1.11879 3.87924 79 65 91 
0.563638 0.732909 4.65139 129 141 141 
-0.482275 -0.980569 3.54399 27 21 31 
2.26262 0.97887 6.57285 111 107 142 
1.15274 -0.440878 5.34115 67 56 88 
1.6183 -0.283946 6.63396 50 45 68 
1.53753 1.21825 4.82088 47 55 91 
-0.587829 -0.478561 3.36101 92 91 107 
-0.547463 -0.471856 3.48898 86 82 97 
-0.458932 -0.45562 3.55599 85 89 101 
-0.46274 -0.452151 3.58924 76 74 85 
2.98924 -0.0201427 7.31814 73 82 125 
-0.564205 -0.440468 3.68198 92 90 104 
2.98632 4.2085e-06 7.34913 115 127 167 
1.12629 -0.167639 5.60478 42 34 49 
2.47666 0.0901784 6.74131 63 58 88 
-0.622491 -0.254908 3.61242 60 47 67 
1.34979 0.116418 6.33171 206 218 255 
-0.562813 -0.671132 3.67859 136 128 149 
1.83784 -2.11527 6.26565 76 97 128 
-0.492951 0.883177 3.33131 34 47 126 
1.45887 1.08158 5.24583 54 60 96 
-0.0840167 -2.21216 4.48278 20 28 49 
-0.512796 -2.10255 3.65723 86 91 111 
-0.485907 -2.09853 3.6885 85 68 84 
1.79374 -2.01826 6.2097 123 124 154 
2.02829 -1.9999 6.47173 106 102 119 
1.82756 -1.98502 6.24319 107 123 148 
2.00126 -1.97779 6.46576 114 119 151 
2.13924 0.791156 6.6246 103 91 115 
2.27644 0.795121 6.63837 101 91 116 
2.28417 0.740564 6.65969 38 36 73 
1.10959 0.44011 5.19274 56 59 92 
1.71897 -1.63509 6.06452 100 115 148 
2.03471 -1.62582 6.4623 126 130 159 
1.60853 -1.62349 6.00472 120 127 153 
1.62622 -1.58926 6.05883 44 47 78 
-0.416545 -0.449609 3.53087 92 91 105 
0.059223 -1.62435 4.26398 36 30 42 
-0.515468 -0.46723 3.52669 85 82 91 
1.99701 -1.4622 6.39258 127 150 182 
1.2212 -0.322253 5.57485 61 52 73 
0.0607618 -1.50411 4.24845 34 31 48 
0.0322604 -1.50871 4.28228 38 30 53 
1.18508 -0.772276 5.41704 64 55 76 
1.53243 -1.27532 5.86072 33 25 48 
2.03405 -1.93794 6.4746 85 94 125 
1.40075 -1.24116 5.72133 69 59 94 
-0.649269 -0.456122 3.38334 43 50 79 
0.166628 -2.00065 4.41374 77 75 89 
1.6305 -1.28356 5.98883 87 85 109 
0.313441 -1.97381 4.55146 86 79 95 
-1.06003 -0.0436123 3.92718 129 149 174 
1.00145 0.571181 5.06778 86 95 136 
2.10669 -2.02729 6.51878 30 37 56 
1.54295 -0.302598 6.53118 67 61 89 
1.41268 1.11853 5.04254 68 75 117 
0.206205 -2.17987 4.65314 66 48 74 
0.470117 -0.427419 4.59292 110 112 137 
1.8386 -1.98015 6.31566 126 130 155 
2.41921 0.81212 6.61192 20 23 38 
0.41039 -2.09109 4.79973 34 38 65 
-0.492294 -0.61615 3.56898 74 78 115 
0.55335 0.260093 4.62662 142 145 178 
2.04948 -1.37375 6.38902 83 101 125 
2.35988 -0.851947 6.72504 51 53 78 
-0.213159 -1.90398 4.0206 105 115 150 
1.67075 -1.59756 6.06925 112 127 158 
-0.506768 0.838962 3.3404 24 32 104 
1.7643 -2.04474 6.26243 150 157 185 
-0.568418 -2.12618 3.65833 88 75 92 
2.5907 0.388118 6.83742 88 88 114 
1.80794 -2.0056 6.33645 40 41 61 
1.95193 -1.17036 5.5748 36 31 51 
0.440442 -1.94051 4.73521 120 114 140 
1.96437 -1.52238 6.32491 130 151 180 
1.60754 -1.59575 6.01136 124 131 160 
1.62839 -1.71273 6.06356 161 177 203 
-0.0972946 -1.84638 4.07951 50 54 63 
1.62122 -1.69332 6.0632 65 60 100 
1.6291 -1.68361 6.099 68 61 94 
-0.653583 0.076132 4.74828 140 166 241 
-0.68051 -0.274369 3.45617 26 31 60 
0.386053 -0.300523 4.51043 38 29 48 
2.05735 -1.37453 6.43654 109 129 154 
-0.555074 -0.473669 3.44279 95 94 110 
-0.450272 0.881415 3.32933 74 68 102 
1.18432 -0.869805 5.48745 66 58 82 
1.33815 -0.707236 6.61725 63 77 122 
1.48152 -1.24943 5.79319 59 54 76 
1.39629 -1.20492 5.76677 45 29 56 
2.64678 -0.257663 6.97263 105 129 163 
2.49722 -0.943174 6.89906 69 93 129 
1.19394 -0.305111 5.73186 46 34 46 
1.14277 -0.174843 5.69372 125 118 136 
1.49541 -0.309675 6.67824 92 92 118 
-1.04205 -0.216806 3.93879 129 146 172 
-0.536038 -1.22128 3.61782 120 125 145 
-1.09111 -0.0469436 3.9429 134 151 177 
0.400975 -2.09587 4.80687 31 42 70 
-0.500954 -1.65616 3.65833 151 151 187 
-1.04989 -0.0345903 3.89005 83 92 125 
1.2095 -0.321448 5.58017 51 43 58 
1.84224 -2.06391 6.26796 67 82 115 
1.61875 -1.721 6.00943 125 139 168 
1.65739 -2.06162 6.12852 47 42 64 
0.157174 -2.16933 4.73982 23 23 49 
0.422175 -2.07723 4.78228 29 35 61 
-0.612812 0.103276 4.70643 19 26 81 
-1.01312 -0.196894 4.15618 16 18 31 
-0.605975 0.896802 3.29138 71 57 93 
-0.588399 0.841162 3.30919 31 45 120 
-0.535653 0.843962 3.35238 23 34 100 
1.65595 -1.80171 6.06474 73 92 135 
1.34897 -0.704896 6.60134 38 51 95 
1.33143 0.093841 6.24602 175 198 252 
1.6525 -1.69322 6.02388 165 179 205 
2.58297 0.643891 6.76379 212 222 255 
2.4123 -0.672346 6.78033 32 30 44 
1.62939 -1.63825 6.02155 150 159 188 
1.12081 0.442315 5.17991 56 59 90 
1.20946 -0.862685 5.45189 69 63 91 
2.40325 -0.757919 6.71924 52 50 72 
1.69602 -1.56533 6.04734 128 150 174 
1.72884 -1.5331 6.06144 58 68 103 
1.71363 -1.52648 6.05693 85 89 126 
2.15048 0.000682927 6.72635 82 81 112 
1.96559 -1.47876 6.30482 149 163 192 
0.170482 -1.09894 4.29493 138 138 164 
2.31845 -0.930947 6.66757 42 39 58 
1.86094 -1.32592 6.21638 43 39 62 
0.174148 -1.11168 4.29319 45 43 57 
2.27708 0.73603 6.63535 115 121 155 
2.22476 -1.07215 6.58184 36 37 57 
1.37533 -1.14261 5.65983 38 33 53 
2.09485 -1.17569 6.48172 88 88 122 
0.997122 -0.718768 5.21036 153 166 201 
1.6608 -2.1091 6.1833 66 76 103 
1.37437 -0.746654 6.48013 32 29 48 
2.44889 -0.484429 6.8229 35 33 46 
1.19966 -0.643159 6.26701 87 109 148 
-0.614913 -1.00716 3.45918 17 20 37 
1.20026 -0.865639 5.47287 55 50 72 
0.144589 -2.13712 4.56718 18 21 38 
-0.503098 0.87375 3.33279 21 29 78 
-0.528403 0.870397 3.31143 200 218 255 
-0.514298 0.857506 3.31956 19 38 107 
-0.543191 0.838845 3.29093 24 28 99 
-0.540841 0.81447 3.28594 192 201 255 
-0.486287 0.802113 3.3274 177 204 255 
1.34333 -1.15782 5.7071 39 30 51 
2.08322 -1.18444 6.50897 85 84 115 
0.551967 -0.306733 4.70583 108 118 145 
1.05592 -0.205371 5.22202 100 112 150 
0.650139 0.613015 4.68324 21 39 89 
3.088 -1.86187 7.62377 165 178 220 
1.1509 -0.16598 5.52453 159 165 189 
1.12647 -0.152435 5.70948 145 144 158 
1.14523 -0.1266 5.79715 157 159 172 
0.0468529 -1.50426 4.2679 33 28 48 
1.98862 0.782748 6.62791 102 98 125 
1.98535 -1.65308 6.47786 151 168 198 
2.57536 0.725585 6.7669 213 223 255 
1.01274 0.154488 5.14137 38 48 73 
2.00722 -1.56747 6.47639 68 76 112 
-1.0761 -0.0370294 3.90257 88 98 133 
1.81043 -1.78774 6.20632 93 105 143 
1.99516 -1.64435 6.40705 68 83 116 
-0.182191 -1.58947 3.94927 124 138 175 
2.09641 -1.20284 6.51372 33 32 50 
2.6556 -0.342994 6.99977 158 176 212 
3.02088 -1.85386 7.56644 105 100 140 
-0.512088 0.92073 3.32507 176 182 244 
-0.519234 0.872655 3.30729 201 219 255 
-0.496222 0.869796 3.32512 20 34 79 
-0.502208 0.857201 3.31695 23 36 89 
1.79768 -2.0215 6.2993 103 124 153 
1.0218 0.568395 5.04695 79 87 126 
0.141662 -1.26951 4.40162 135 134 165 
2.52235 -0.845863 6.96874 75 95 130 
0.631237 0.618974 4.74651 219 229 254 
0.122956 -1.13283 4.31941 20 15 22 
1.01239 0.604338 5.15219 124 136 174 
1.99944 -1.64624 6.44574 148 165 195 
1.31827 0.212338 6.33094 187 201 250 
0.562112 -0.326542 4.74627 27 27 37 
-0.598733 -0.445904 3.37064 35 33 46 
0.410698 -2.0822 4.78722 25 33 56 
-0.3045 -1.63697 4.01836 140 152 190 
1.79317 -1.9928 6.30053 69 69 97 
2.4402 -0.394626 6.86286 31 29 42 
2.42371 -0.802267 6.81852 120 124 153 
1.534 -0.302487 6.58854 55 45 70 
1.31955 -0.351946 6.7378 53 48 78 
1.43359 -0.338912 6.94836 56 48 72 
1.66345 -0.27412 6.79649 102 94 115 
2.25517 -1.01201 6.66565 34 34 46 
1.2625 -0.362391 6.80799 48 45 74 
1.36251 -0.352416 7.04192 51 45 73 
-0.687267 0.0708392 4.67921 104 107 158 
3.23175 -0.0867143 7.5967 37 24 54 
1.60401 -0.286162 6.87382 101 98 117 
3.22715 -0.0872579 7.60917 94 79 100 
0.642191 0.639827 4.68589 222 229 255 
2.5912 0.0122483 6.85404 75 82 110 
2.0677 -1.36529 6.42117 92 108 134 
