ply                 
format ascii 1.0    
element vertex 1283
property float x    
property float y    
property float z    
property uchar red  
property uchar green
property uchar blue 
end_header          
-0.517456 -0.670303 3.5891 182 176 202 
0.661991 0.585265 4.74077 240 242 255 
1.97052 0.774363 6.62 114 123 152 
-0.600254 -0.46882 3.40423 39 36 45 
-0.675844 0.116453 4.70801 26 33 59 
-0.663904 0.100136 4.7122 153 173 242 
2.12681 -0.00293937 6.73843 110 120 147 
1.58057 -0.628921 6.62401 43 41 62 
0.53795 -0.111479 4.6627 31 30 36 
0.435954 0.0221641 4.54734 136 138 159 
-1.47757 0.422601 3.2933 80 164 228 
0.992595 -0.233244 5.16573 89 97 136 
1.00141 -0.813918 5.27233 158 166 202 
-0.479726 -1.52018 3.68643 185 184 216 
0.0169047 -1.57315 4.21447 41 28 48 
1.8331 -1.85071 6.23244 67 80 114 
1.93985 -1.62218 6.35347 56 50 86 
1.65072 -0.353004 6.71427 77 76 108 
-1.54203 0.279163 3.23825 128 153 184 
1.82595 -1.75611 6.20107 94 115 144 
1.74126 -1.34315 6.32044 81 80 96 
1.583 -1.35352 5.93156 67 54 84 
1.82729 -1.81417 6.21134 96 99 134 
1.80946 -1.75947 6.1894 64 70 106 
1.71575 -1.54442 6.0872 70 74 101 
1.39324 -1.14743 5.71337 61 53 77 
2.14136 -0.00371535 6.74436 80 77 98 
0.81568 0.732598 4.87585 177 191 220 
1.98888 -0.00809275 6.71267 92 96 123 
0.0547058 -1.50885 4.25348 31 28 45 
-0.66895 0.116118 4.74454 23 36 91 
1.63276 -0.275851 6.68103 94 89 111 
1.47271 -1.25504 5.80972 69 59 83 
-0.555903 0.831589 3.29202 51 53 128 
0.424412 0.917128 4.36794 124 132 153 
1.77077 -2.01925 6.24627 86 87 115 
-0.663213 0.116177 4.68518 24 35 65 
1.70088 -1.53546 6.06151 88 85 114 
-0.501479 0.923029 3.34014 39 32 66 
0.133467 -1.12211 4.31158 45 34 48 
0.0541085 -1.5027 4.26212 39 26 46 
1.9418 -1.62409 6.36085 56 60 97 
-1.47935 0.301017 3.28301 67 68 88 
-0.172849 -1.20681 3.94791 121 103 115 
-0.199804 -1.24698 3.93267 33 33 43 
0.171856 -1.17951 4.30037 152 134 150 
0.17531 -1.18447 4.32304 51 44 62 
-0.636506 0.077167 4.71875 149 167 239 
-0.574557 0.896612 3.2777 88 74 99 
-0.658025 0.137375 4.70405 150 169 245 
-0.470273 -0.436334 3.56441 140 136 153 
1.47286 -1.24332 5.80365 42 34 49 
-1.46838 0.421491 3.33379 165 185 236 
-1.58125 0.39077 3.18581 138 165 195 
-1.56927 0.316274 3.20813 92 133 179 
-1.59951 0.284313 3.18428 160 165 195 
-1.41434 0.511803 3.377 53 87 135 
-1.6151 0.250615 3.14652 174 170 207 
0.129375 -1.12924 4.32045 38 26 40 
-0.51085 0.888157 3.33856 43 57 122 
1.98381 6.85228e-05 6.71763 121 131 158 
-1.57949 0.362506 3.19169 95 118 159 
-1.56162 0.365533 3.19466 74 92 128 
1.9428 -1.47594 6.32689 74 70 105 
2.28827 -0.720746 6.74383 96 108 134 
1.66778 -0.267465 6.70966 92 90 104 
1.32748 0.154376 6.38032 66 90 152 
1.45739 0.392241 6.39697 72 111 128 
-1.47246 0.376102 3.27602 139 153 228 
-0.673477 0.872119 3.17255 122 119 130 
1.57823 -1.05371 6.22599 111 109 130 
0.930983 -0.429407 5.12118 89 97 133 
0.953433 -0.348724 5.11553 142 151 182 
1.56181 -0.368662 6.58119 136 140 165 
1.67096 -0.280892 6.70367 55 49 75 
1.62455 -0.271953 6.65681 78 83 103 
0.997435 0.0853676 5.12977 106 115 144 
1.35368 0.114436 6.32672 163 164 220 
1.34451 0.172128 6.31031 77 75 148 
-0.620603 0.0847752 4.71337 107 128 191 
-1.43585 0.247403 3.29844 164 199 241 
-1.51768 0.291687 3.21989 158 182 208 
1.99257 0.833599 6.57976 60 42 64 
1.03339 0.66616 5.10916 187 188 218 
-1.53341 0.388621 3.18002 178 178 204 
-1.56381 0.393075 3.21061 138 129 160 
-0.499332 0.916745 3.3292 117 114 167 
-1.22379 0.757703 3.61785 125 143 191 
1.47286 -1.21906 5.82529 127 123 146 
-1.49658 0.385677 3.30245 29 63 137 
0.685577 0.629041 4.73817 60 66 128 
-1.52817 0.291902 3.23138 157 187 215 
-1.4275 0.308817 3.35507 71 88 158 
0.68349 0.544452 4.74411 201 213 253 
-1.56588 0.286261 3.2749 127 143 179 
-1.42876 0.288935 3.37585 30 56 130 
-1.48328 0.280354 3.31126 62 45 125 
-1.50646 0.27373 3.31901 180 205 245 
-1.48023 0.274739 3.35491 114 134 195 
-1.44655 0.247247 3.31188 135 169 214 
-0.683086 0.164626 4.66322 103 109 161 
-0.632086 0.144933 4.7225 17 25 87 
1.31633 0.152079 6.28952 59 79 138 
1.45895 -0.301211 6.48721 102 99 120 
1.42291 -0.307184 6.43146 75 77 98 
1.69909 -0.264619 6.74947 96 91 111 
-1.10608 -0.294102 3.9338 130 142 168 
1.48328 -0.385179 6.51815 110 116 142 
-1.08571 -0.206432 3.96422 137 151 177 
0.552223 -0.112993 4.65727 55 53 74 
-1.08849 -0.0437425 3.94349 143 155 181 
-0.709354 0.174007 4.75469 48 50 101 
-1.17372 0.820232 3.59057 83 106 148 
1.45696 -1.20705 5.79899 142 153 175 
-1.3945 0.509676 3.35257 53 77 125 
1.99162 0.832047 6.56034 44 29 48 
-1.57911 0.307838 3.31013 97 122 162 
0.460592 -0.430043 4.6043 110 108 132 
1.00134 -0.468517 5.14334 79 91 105 
0.417968 -0.55884 4.57577 65 52 80 
1.58712 -1.05796 6.25025 112 104 127 
-0.187712 1.00252 3.74224 101 109 145 
0.594472 0.729247 4.62506 125 143 147 
-1.44118 0.496928 3.28496 167 178 224 
0.695028 0.662063 4.7339 54 56 113 
0.680499 0.662221 4.72914 220 223 255 
-1.40767 0.39253 3.33274 32 31 89 
0.692721 0.563728 4.74296 217 217 241 
-1.41004 0.307416 3.33339 52 66 141 
-1.48234 0.249299 3.35198 158 189 235 
0.467092 0.950914 4.39135 127 132 152 
1.01338 0.154623 5.14582 47 49 72 
1.62813 -0.271662 6.64228 95 96 116 
-1.40282 0.510492 3.36364 53 75 122 
-1.49657 0.408086 3.32187 50 115 171 
-0.455672 -0.803295 3.59429 151 139 161 
0.988402 -0.647031 5.20042 126 134 171 
1.04204 0.259937 5.1538 178 184 220 
-0.464591 -0.767317 3.58046 147 133 156 
-0.509795 0.835765 3.3447 76 76 126 
-1.37871 0.261625 3.17365 150 185 227 
-1.58239 0.297033 3.2913 164 190 217 
-1.5138 0.406274 3.37036 58 46 94 
1.46889 -1.25316 5.7961 73 64 91 
-1.23533 0.445034 3.67214 143 157 204 
0.986815 0.755907 4.8961 30 34 69 
-0.465675 -0.464352 3.58089 34 30 44 
-1.20602 0.568723 3.66605 51 71 108 
-1.20413 0.806537 3.57177 101 109 146 
1.00474 -0.030244 5.1695 78 78 112 
-1.22051 0.748313 3.6041 42 47 87 
-1.0984 -0.231483 3.92253 77 92 121 
-0.565899 0.87992 3.28028 120 97 123 
1.59327 -0.284243 6.65384 118 123 145 
-1.56883 -0.703965 3.51737 63 60 87 
1.77165 -1.33262 6.16138 67 57 81 
-1.53122 0.415829 3.2399 93 152 208 
1.01603 0.34316 5.11407 51 56 75 
0.549563 0.258568 4.62961 134 140 174 
1.64055 -0.3599 6.68444 37 33 60 
1.32671 0.167916 6.29797 205 221 255 
1.30018 0.193223 6.26902 177 208 255 
-0.565865 0.923642 3.30723 214 211 255 
-1.46178 0.335527 3.32211 32 39 83 
-1.47266 0.401887 3.32424 64 54 91 
-1.42468 0.395596 3.35171 27 27 77 
-1.19112 0.43994 3.63759 250 255 255 
-1.41919 0.364188 3.33588 42 49 121 
1.45407 -0.312772 6.5968 41 36 56 
1.58855 -1.28609 5.98678 97 87 111 
0.644607 0.612555 4.6789 59 70 126 
0.578175 0.269478 4.63365 126 129 162 
-0.613524 0.97191 3.19081 121 118 149 
-0.502047 0.801275 3.33722 71 55 102 
1.52842 -0.296843 6.51166 51 49 73 
-1.55431 -0.700761 3.50046 65 61 86 
1.55707 -0.291804 6.55245 53 57 82 
-0.664787 0.303708 4.62667 124 124 124 
1.52883 -1.28751 5.88274 54 42 66 
-1.21519 0.684023 3.59311 34 34 60 
-0.641423 0.291103 4.67296 117 126 125 
-0.68517 0.288344 4.67342 91 96 99 
1.84259 -1.32625 6.24794 50 36 59 
1.98056 -1.28259 6.37909 48 46 60 
-1.4496 0.266052 3.27464 35 31 90 
-1.40299 0.274503 3.33726 20 37 89 
-0.679834 0.173356 4.69439 124 134 195 
-1.4994 0.270726 3.30544 193 215 255 
2.07403 -1.17895 6.49431 98 99 120 
-0.688517 0.0703498 4.69716 135 147 207 
-0.533394 0.852439 3.31646 238 239 255 
-1.45728 0.37218 3.26825 199 214 255 
-1.45043 0.298308 3.38432 215 226 254 
0.54284 -0.11134 4.65945 34 32 43 
-1.40739 0.360294 3.31895 36 44 107 
-1.07995 -0.230856 3.89361 81 87 113 
-1.456 0.34613 3.32682 207 220 255 
-1.21159 0.859291 3.59118 108 135 182 
-1.5042 0.330739 3.38259 204 213 255 
-1.44998 0.299837 3.24825 62 65 80 
1.04552 -0.191933 5.22877 160 175 208 
-1.50445 0.311426 3.33597 48 80 139 
-1.45127 0.314882 3.37862 44 64 133 
1.51877 -1.27102 5.94229 97 103 127 
1.43955 -1.2089 5.81333 53 50 67 
-1.44819 0.399548 3.37679 21 29 78 
-1.46404 0.268169 3.28723 17 40 90 
-1.46682 0.240796 3.3394 27 32 51 
-0.678413 0.116502 4.7153 26 33 59 
-0.670028 0.100298 4.7282 153 173 242 
1.3197 0.175379 6.30212 206 225 255 
1.32328 0.12741 6.31255 210 225 255 
0.534105 -0.112479 4.70158 31 30 36 
0.975188 -0.660529 5.23438 146 158 196 
-0.531977 -1.6747 3.69228 194 190 223 
-0.0642691 -1.70694 4.18089 127 118 139 
-0.0198971 -1.68995 4.20204 64 49 72 
-1.35225 -1.8153 3.85644 62 68 104 
1.74968 -1.96601 6.15434 101 106 136 
1.67433 -1.92867 6.12175 94 91 122 
2.00857 -1.98805 6.49832 79 76 103 
2.01613 -1.97118 6.4572 123 123 147 
1.83573 -1.86716 6.2167 86 102 136 
1.83536 -1.86285 6.27025 92 113 142 
1.83825 -1.80515 6.18938 87 100 134 
1.82931 -1.79464 6.29943 160 172 198 
1.87328 -1.78265 6.28001 140 151 181 
1.86994 -1.75872 6.26399 132 143 173 
-0.484309 -1.36491 3.6564 99 107 144 
1.63401 -1.60146 5.99629 130 143 162 
0.0189651 -1.34976 4.17618 123 116 134 
1.96634 -1.61539 6.32837 144 164 188 
1.63825 -1.57962 6.02807 56 53 82 
2.02666 -1.62377 6.44706 119 119 145 
1.68553 -1.56643 6.04797 106 126 150 
1.64129 -1.57143 6.04372 71 64 95 
2.02371 -1.60969 6.43206 74 69 101 
2.0177 -1.55945 6.45442 71 74 105 
1.6272 -1.48101 5.93852 176 180 205 
1.6224 -1.49306 5.99561 178 196 218 
2.02807 -1.49869 6.40496 104 104 128 
2.01367 -1.50023 6.41793 63 77 112 
1.80531 -1.44951 6.09963 119 135 158 
2.02081 -1.48398 6.40276 128 123 145 
1.94678 -1.4506 6.26677 94 105 137 
1.99527 -1.41536 6.3317 132 138 164 
1.98513 -1.42218 6.39902 120 138 158 
1.51637 -1.33733 5.89868 74 67 101 
2.06664 -1.37492 6.42863 128 141 160 
1.0786 -1.2508 5.39543 137 145 182 
1.86895 -1.25845 6.1749 75 74 90 
1.87209 -1.28062 6.28119 92 91 109 
1.47563 -1.22684 5.86023 129 125 148 
-0.52534 -0.997182 3.59128 48 42 54 
1.33891 -1.10629 5.73043 66 62 87 
1.57848 -1.05088 6.20769 116 111 133 
1.58668 -1.06421 6.29062 110 98 122 
1.15545 -0.77209 5.40329 97 86 120 
0.98512 -0.717926 5.24286 140 154 189 
2.28295 -0.713191 6.68331 105 117 143 
-0.726275 -0.62036 3.48315 33 34 55 
1.14327 -0.538341 5.39946 97 86 116 
-0.954215 -0.568449 4.18475 123 117 129 
-0.58124 -0.46619 3.4725 59 48 62 
1.29461 -0.411735 6.36615 49 50 80 
1.14538 -0.332433 5.43101 56 43 61 
1.15114 -0.308978 5.3803 69 52 71 
1.29068 -0.325099 6.28007 90 87 106 
0.411288 -0.294647 4.47499 48 39 60 
1.33908 -0.316827 6.36135 78 83 105 
1.57308 -0.158202 3.85401 93 92 110 
1.19632 -0.276854 5.60143 66 49 68 
1.49394 -0.296212 6.56399 90 85 107 
1.52383 -0.293604 6.61602 100 91 110 
1.69953 -0.20281 5.18778 57 44 70 
1.61341 -0.284564 6.65057 60 50 75 
1.70196 -0.276178 6.75352 59 49 76 
1.60501 -0.278048 6.66625 80 75 97 
0.419745 -0.250728 4.52153 55 46 65 
1.13389 -0.16313 5.35062 85 72 100 
1.15163 -0.15323 5.78011 127 124 141 
1.34715 0.0959491 6.3101 125 135 197 
1.35476 0.114433 6.30723 184 188 236 
1.30494 0.13333 6.26821 55 72 126 
1.3443 0.138258 6.33278 62 67 133 
1.90126 0.246912 6.64267 117 114 131 
1.3446 0.21351 6.31829 142 145 200 
-0.651598 0.287829 4.60541 115 113 114 
-0.999055 0.440764 4.217 90 93 112 
0.625325 0.544581 4.72439 41 41 93 
0.683501 0.580939 4.76395 92 96 160 
0.638471 0.574077 4.70832 72 78 140 
-1.48807 0.378652 3.29307 148 158 230 
0.632691 0.662515 4.70728 60 59 103 
1.25922 0.929071 5.53902 58 73 116 
-1.18591 0.747899 3.56878 128 146 192 
0.490681 0.954594 4.40296 112 124 140 
1.62223 1.1493 5.12157 89 91 130 
-0.517531 0.823858 3.37 204 212 233 
-0.517796 0.837582 3.35977 81 82 138 
-0.560377 0.890404 3.29189 35 55 126 
-0.513403 0.90679 3.35229 218 230 255 
-0.521098 0.927834 3.3379 159 150 207 
1.25797 1.06602 3.42548 91 92 136 
1.58941 1.06517 3.30853 95 103 142 
1.61826 1.01793 2.84842 164 178 207 
1.25466 1.1402 4.68981 61 79 119 
-0.0536833 -1.69801 4.15487 139 124 143 
-0.5088 0.804884 3.35006 75 71 132 
-1.15782 0.783431 3.54436 108 140 189 
-1.19973 0.752604 3.58453 122 136 181 
-1.1856 0.75041 3.58716 123 156 197 
-1.46361 0.501304 3.30076 83 82 116 
1.839 -1.99836 6.33082 70 69 103 
2.02446 -2.00595 6.4808 102 99 120 
2.00314 -1.99889 6.47798 93 96 115 
1.99796 -1.99976 6.50947 125 131 155 
0.63633 0.648345 4.6792 176 187 232 
1.67431 -1.9193 6.09287 118 115 144 
2.03904 -1.96452 6.44048 50 44 70 
2.04425 -1.96367 6.47061 104 99 119 
1.82653 -1.76997 6.21466 144 159 180 
1.82522 -1.76957 6.24911 94 115 144 
-1.41287 0.367482 3.32946 76 104 178 
1.83616 -1.69078 6.12153 107 109 147 
0.642857 0.572682 4.69037 72 78 140 
0.636609 0.556215 4.69189 199 204 244 
0.687601 0.56269 4.78033 180 184 209 
1.63419 -1.59473 5.96982 128 145 163 
2.0242 -1.61775 6.42097 128 132 157 
1.68497 -1.57458 6.07876 106 126 150 
1.69975 -1.5548 6.14107 86 83 112 
2.01703 -1.55611 6.43994 71 74 105 
-1.53795 0.285327 3.24475 121 152 183 
1.97237 -1.523 6.36677 89 90 118 
2.10275 0.713651 6.5323 91 103 127 
1.6006 -1.46024 5.92988 133 131 153 
2.00741 -1.48867 6.39704 65 66 96 
-0.642731 0.145324 4.74396 20 33 103 
-0.650863 0.0952506 4.76495 17 28 92 
-0.679821 0.0689162 4.66528 102 112 165 
0.148043 -1.13944 4.31227 59 48 64 
1.34331 0.173528 6.33104 58 67 134 
1.34493 0.13862 6.31145 54 57 124 
1.45603 -1.20222 5.78762 164 170 192 
1.15714 -0.163042 5.5479 77 62 91 
1.15116 -1.13931 5.50618 123 129 163 
1.52495 -0.290364 6.56684 107 100 118 
1.49458 -0.294346 6.50539 97 92 114 
1.46409 -0.297437 6.4539 103 100 121 
1.46967 -0.379609 6.49528 56 59 94 
-0.203836 -0.393438 3.02773 118 118 130 
-0.0279844 -0.348859 2.58794 130 122 133 
-0.49463 -0.696299 3.64626 50 47 76 
0.44442 0.0223817 4.51208 149 146 163 
1.93444 -1.92502 6.58812 157 156 187 
1.15301 -0.630483 5.38361 90 71 103 
1.23258 -0.876151 5.48561 93 84 113 
-0.490326 -0.73442 3.60242 86 73 103 
1.2642 -0.9537 5.53507 78 69 96 
1.92926 -2.06742 6.46808 63 64 94 
1.05353 -0.986333 5.34578 79 87 124 
1.65696 -0.363361 6.76552 122 124 147 
1.26507 -0.339622 6.27121 65 61 88 
1.34889 -0.331903 6.40407 53 48 78 
1.6705 -0.279287 6.68362 59 50 77 
1.60527 -0.27661 6.6417 80 75 97 
1.63766 -0.269811 6.62261 100 92 113 
1.65959 -0.266916 6.66412 98 97 115 
1.69905 -0.262909 6.74791 98 94 111 
1.15659 -1.11488 5.39957 155 169 204 
1.14676 -0.154283 5.83269 112 109 126 
1.74898 -1.99132 6.23539 101 108 137 
1.49027 1.12235 3.86263 94 90 127 
1.8089 -1.27939 6.12936 73 75 88 
-1.23333 0.688208 3.61707 34 38 73 
-0.481359 -1.521 3.68868 189 189 223 
0.299021 0.267565 4.61954 93 102 131 
-0.0289407 -1.58031 4.18887 60 47 67 
1.64871 -1.37243 5.98815 73 62 92 
-0.0195671 -1.54656 4.16521 114 92 113 
1.57584 -1.46585 5.93502 143 150 176 
1.71506 -1.52804 6.09677 150 159 188 
1.44605 1.10184 5.34088 72 82 118 
1.65355 -1.80971 6.09872 80 96 132 
2.01329 -1.6479 6.52926 88 105 133 
1.83726 -1.81492 6.22243 87 100 134 
0.0165328 -1.3417 4.15906 55 46 65 
1.99868 -1.91563 6.64281 88 106 144 
1.92472 -1.86229 6.44282 184 185 213 
-1.19618 0.805909 3.56061 104 106 144 
1.75506 -1.47167 6.04953 146 158 184 
1.09639 0.258338 5.25398 90 71 101 
1.20793 1.16969 4.40243 73 77 112 
1.61252 -0.137496 3.56831 80 79 93 
1.85296 -1.85815 6.28577 132 146 175 
0.689802 0.540695 4.71344 169 178 233 
1.70101 -1.53847 6.0735 81 76 106 
1.227 1.02038 5.14863 54 65 97 
1.83159 -2.01642 6.34156 67 85 109 
-0.571255 0.916656 3.28964 48 30 80 
-0.558964 0.901196 3.28139 207 209 250 
1.98654 -1.86536 6.38784 44 60 85 
-0.511803 0.825485 3.35792 241 245 255 
-0.574071 0.810236 3.30283 44 41 88 
0.146571 -1.11475 4.28288 45 34 48 
-1.17419 0.786314 3.56598 95 129 177 
2.0008 -1.98463 6.43537 98 103 123 
1.3611 -1.15326 5.64358 92 79 107 
-1.45319 0.498344 3.29938 159 161 210 
2.03983 -1.98632 6.50603 50 44 70 
1.55075 -0.592075 6.59418 104 101 122 
0.118453 -1.13499 4.3639 52 43 60 
0.68976 0.667249 4.73506 60 62 111 
1.99527 -0.00513738 6.6917 93 90 117 
0.694876 0.642662 4.71707 239 243 254 
-1.47651 0.38969 3.29535 71 46 127 
0.658575 0.609754 4.73572 212 229 255 
1.65301 -1.6644 6.04153 36 37 65 
-0.504997 -0.619425 3.57406 74 80 112 
0.647692 0.571229 4.66808 90 99 158 
0.689071 0.550351 4.7761 55 62 117 
-0.509685 -0.538493 3.56635 52 46 74 
1.9485 -1.62644 6.3733 58 75 105 
-0.635611 -0.48775 3.38674 127 115 127 
1.95637 -1.61783 6.39462 148 154 180 
1.68834 -1.52493 5.97524 113 117 142 
-2.72791 -0.963183 6.62303 122 124 137 
1.38829 -1.15724 5.76604 61 53 77 
1.15353 -1.13466 5.48206 133 137 174 
-0.660551 0.285904 4.62317 105 105 107 
-0.519874 -0.992418 3.57685 27 20 28 
2.01975 -1.49256 6.44226 137 135 157 
-0.621475 0.178199 4.68725 124 143 202 
-0.673447 0.137081 4.66361 32 44 102 
1.33918 0.211837 6.28837 187 197 246 
1.30172 0.210293 6.32233 127 143 202 
0.908363 -1.13837 5.17463 131 143 185 
1.28291 0.159322 6.84154 66 67 134 
1.35655 0.146122 5.85455 51 62 124 
1.32384 0.142493 6.30319 209 225 255 
1.29787 -0.407683 6.2957 36 36 64 
1.52278 -0.290351 6.54039 110 102 125 
1.35283 0.1084 6.3359 170 171 227 
0.158276 -1.1316 4.28335 49 38 52 
1.14584 -0.153881 5.65213 176 174 187 
-0.263125 -1.10477 3.83546 86 71 94 
1.66608 -0.270228 6.71788 102 94 115 
1.63364 -0.273752 6.65652 94 89 111 
1.489 -0.298721 6.57613 104 101 122 
2.00609 -1.97607 6.45225 82 79 106 
1.2862 -0.328235 6.32201 88 83 105 
1.29 -0.342699 6.32741 48 41 72 
1.4725 -1.22365 5.84236 125 119 145 
1.14763 -0.311567 5.41759 63 48 67 
1.13416 0.207949 5.22407 68 55 81 
1.9966 -1.51176 6.4584 130 150 177 
2.00766 -1.61844 6.41419 97 114 142 
1.73506 1.11438 3.7246 74 71 114 
1.70719 -1.66999 6.13746 173 189 214 
-0.0520646 -1.42408 4.09533 45 43 57 
-0.476576 -0.810629 3.63247 72 63 90 
1.26096 -0.959922 5.56076 78 69 96 
0.305061 0.267059 4.59845 105 116 144 
1.94302 -1.45644 6.29118 99 105 137 
-1.46639 0.423658 3.28637 81 160 216 
1.9291 -1.88249 6.44395 178 182 211 
1.63526 -1.67405 6.00912 74 69 99 
0.450578 0.0217273 4.48924 128 127 141 
-1.19387 0.854976 3.56159 103 120 163 
1.07305 -0.437025 5.21154 33 36 51 
-0.411479 0.622124 3.4918 49 52 83 
0.994514 0.335322 5.1493 99 102 133 
1.19932 -0.275073 5.57566 69 52 71 
1.81965 -1.83433 6.1444 130 136 172 
0.828172 0.725447 4.82032 177 191 220 
0.418518 -0.354026 4.57609 59 53 79 
-1.17169 0.667462 3.56474 122 139 183 
-0.482094 -1.66246 3.6955 139 131 172 
1.07666 -1.25445 5.41228 137 145 182 
1.45124 1.07475 5.21019 90 93 126 
1.04881 -0.993885 5.38663 71 79 115 
1.33451 -0.319885 6.40683 78 83 105 
0.578779 0.0789736 4.67965 114 110 143 
2.0835 -1.17178 6.52122 105 113 136 
1.8068 -1.47105 6.18976 115 133 155 
1.99932 -1.62838 6.43266 142 164 188 
1.98814 -1.8479 6.40509 73 87 124 
1.5346 -1.24301 5.84563 95 83 105 
1.78365 -0.990413 4.75689 80 79 97 
1.53268 -1.99943 5.92021 63 70 112 
-0.666404 0.963988 3.13774 62 78 112 
0.824923 0.727518 4.83948 177 191 220 
1.24208 1.00452 5.15772 81 100 132 
1.13262 0.64828 5.68656 132 120 144 
-1.61198 -0.700139 5.1332 47 41 53 
-1.43495 0.276808 3.3718 26 52 111 
-0.029701 -1.62087 4.18304 42 39 60 
2.03684 -1.9979 6.4947 137 140 157 
1.99901 -1.97464 6.41606 107 111 138 
1.78727 1.07863 3.41745 60 63 94 
2.04639 -1.97943 6.52835 109 108 124 
1.98826 -1.88361 6.4448 46 62 88 
1.83563 -1.83131 6.27534 84 90 126 
0.997993 0.347556 5.18365 50 52 75 
0.590639 0.269203 4.59743 110 104 132 
0.62987 0.558128 4.72312 223 230 255 
1.12476 0.302382 5.26502 77 62 91 
1.82574 -1.78549 6.26561 144 159 180 
1.83574 -1.75586 6.22332 160 175 196 
-0.638162 0.117703 4.6878 23 36 91 
1.35002 0.194224 6.30546 192 200 249 
1.66732 -1.62508 6.10291 67 70 103 
1.34584 0.168737 6.29016 49 54 122 
1.65675 -1.58973 6.00526 153 171 195 
1.33777 0.152489 6.26821 57 58 122 
1.31249 0.152037 6.3388 57 72 137 
2.02519 -1.6364 6.4831 133 133 159 
2.01025 -1.6293 6.46057 84 95 127 
1.95496 -1.6053 6.35338 138 148 173 
2.02202 -1.59449 6.37316 77 78 108 
1.65366 -1.55195 6.00588 114 119 148 
1.34557 0.14169 6.27286 62 61 127 
1.67237 -1.57782 6.14077 36 41 70 
2.01858 -1.54624 6.40496 65 70 102 
1.99648 -0.00502154 6.72348 99 98 129 
1.99736 -1.49962 6.40186 130 150 177 
2.01167 -1.49985 6.42851 60 68 104 
2.02984 -1.50308 6.45757 51 49 71 
2.02195 -1.4927 6.45359 135 133 155 
1.98353 -1.40407 6.31783 137 155 175 
1.14773 -0.154358 5.63378 177 177 189 
0.680927 0.649118 4.78143 200 204 231 
0.642058 0.658834 4.71018 192 193 241 
1.6432 -1.32564 6.02565 54 36 60 
0.137078 -1.1468 4.3396 59 48 64 
1.69578 -0.264399 6.72551 103 101 122 
1.6634 -0.274053 6.77844 107 102 122 
1.68992 -1.31248 6.12618 117 114 133 
1.51962 -1.2905 5.93982 38 23 42 
0.157568 -1.10781 4.24874 33 27 37 
1.16615 -1.23387 5.50963 115 124 163 
1.39641 -1.25439 5.77155 82 68 101 
-0.506772 0.924819 3.35174 40 30 67 
0.572537 -0.321909 4.76785 55 58 73 
1.64623 -0.354407 6.67074 49 54 84 
-0.507977 -0.987349 3.55791 22 19 26 
-1.22425 0.572468 3.69123 47 60 95 
2.08125 -1.16298 6.4706 105 113 136 
-0.475008 -0.449024 3.56412 58 46 58 
-0.213168 -0.386745 3.03236 49 43 55 
-0.434376 -0.456463 3.52703 40 37 54 
-0.405688 0.620136 3.4817 45 49 78 
1.19883 -0.864861 5.48159 63 50 76 
0.465145 1.02022 4.41694 141 146 168 
-0.496016 -0.681567 3.63883 50 54 81 
-0.519227 -0.665102 3.61245 78 77 109 
-1.21753 0.809147 3.58761 115 123 162 
1.55932 -0.295644 6.56563 70 65 95 
0.128243 -1.7215 4.40273 65 62 83 
-0.484437 0.948348 3.47276 60 69 102 
1.14473 -0.312634 5.44616 64 47 66 
1.99893 -1.62576 6.41777 145 165 190 
1.526 -0.305641 6.61974 59 50 77 
1.53163 -1.25551 5.89603 95 83 105 
-1.24232 0.44691 3.70594 226 241 255 
0.685313 0.623456 4.72607 69 74 130 
-1.45425 0.391038 3.28186 167 158 225 
0.622288 0.660268 4.71349 74 70 107 
-2.67249 -0.935827 6.66576 43 42 48 
0.672174 0.599393 4.71073 87 91 162 
1.00944 -0.0285894 5.13172 79 79 113 
0.61925 -0.330942 4.66876 59 61 76 
1.99803 -2.01196 6.54554 113 117 142 
0.667257 0.587545 4.70395 236 239 254 
0.973542 0.766042 4.95785 40 46 80 
2.04167 -1.99567 6.52975 53 48 71 
-0.65668 0.172742 4.64274 109 115 167 
-0.652065 0.174792 4.75612 130 151 216 
-0.663966 0.304121 4.62486 97 95 100 
-0.64451 0.308946 4.67707 121 122 126 
-0.668002 0.156118 4.64122 149 160 224 
0.674518 0.589021 4.77825 66 66 126 
-0.667937 0.118496 4.7423 23 36 91 
-0.662157 0.116393 4.68312 24 35 65 
-1.44859 0.365411 3.36555 47 59 141 
2.01611 -1.82098 6.45234 65 56 87 
-0.663152 0.0557143 4.66792 103 118 177 
1.32897 0.211972 6.37626 203 216 255 
1.30131 0.208979 6.3338 175 195 246 
1.03052 0.16662 5.22333 125 133 169 
1.65034 -1.67707 6.07885 45 46 74 
1.69118 -1.65491 6.15624 49 63 90 
1.66578 -1.60584 6.02362 62 56 90 
1.45901 -0.298479 6.39885 105 105 129 
1.64824 -1.62084 6.11711 120 140 167 
1.63018 -1.56936 5.94764 127 129 154 
0.436807 0.91019 4.32801 116 123 142 
1.93715 -1.60583 6.2846 70 64 100 
0.6243 0.561646 4.74559 217 223 255 
1.68396 -1.56409 6.02556 118 138 162 
2.02294 -1.61656 6.46198 74 69 101 
1.68366 -1.55324 6.08837 113 117 142 
1.7112 -1.53023 6.01867 47 51 76 
1.26987 -1.01659 5.54585 70 52 76 
2.02295 -1.5532 6.37713 140 152 176 
1.31714 -1.07841 5.5594 67 49 73 
2.13273 -0.00070574 6.70846 119 125 149 
2.01958 -1.56968 6.49321 65 70 102 
-1.39788 0.293779 3.32681 207 223 255 
1.59126 -1.47467 5.98399 138 138 162 
1.3794 -1.17396 5.83887 59 49 73 
1.14793 -1.12772 5.45502 155 169 204 
2.01963 -1.50659 6.40727 138 155 181 
-0.533705 0.811735 3.37001 213 228 255 
-1.5069 0.304958 3.31026 58 63 101 
1.9399 -1.46176 6.24244 63 63 101 
-0.535062 0.911503 3.2589 195 177 235 
1.43368 -1.22069 5.87598 62 60 81 
2.00191 -1.4449 6.39491 90 100 135 
-0.521258 0.91847 3.36389 222 227 246 
1.98312 -1.42132 6.3781 147 165 187 
-0.579963 0.896732 3.29279 94 77 109 
1.17395 -1.21324 5.43036 123 128 166 
1.46985 -1.25113 5.78202 78 64 89 
2.05896 -1.34892 6.31646 109 130 151 
1.65011 -1.34068 6.03718 50 40 64 
1.587 -1.3197 5.94751 62 46 72 
0.642066 0.532389 4.67207 76 65 99 
1.52834 -1.28574 5.85672 61 51 76 
0.651466 0.536931 4.67764 171 188 244 
1.07174 -0.440159 5.23038 43 46 63 
1.03559 0.758569 5.08291 160 175 204 
1.19201 -0.873926 5.53262 65 55 79 
1.65353 -1.56294 6.03656 104 108 137 
0.477894 1.01062 4.36884 138 143 165 
1.45626 -1.21043 5.81231 166 172 194 
-1.21783 0.0201018 3.76119 83 99 135 
1.54691 -0.597306 6.63293 108 106 130 
1.03907 0.322429 5.13052 162 168 202 
0.567125 0.273014 4.68107 110 104 132 
1.66194 -0.266546 6.6267 94 92 113 
1.28603 -0.325145 6.23219 95 95 119 
-1.22903 -0.242435 3.81851 35 41 67 
1.46807 -0.307341 6.40723 68 58 83 
1.49229 -0.309486 6.58409 64 54 79 
1.9891 -1.877 6.49778 66 84 120 
0.990768 -0.696833 5.14644 113 121 157 
1.5673 -1.27375 5.94039 105 100 120 
1.34751 -0.317825 6.33777 100 102 127 
1.63983 -0.281136 6.63758 59 46 74 
1.69152 -0.264631 6.69623 89 90 110 
1.02802 0.180492 5.23325 164 174 210 
0.556661 0.25719 4.60383 140 147 176 
-0.501251 0.884002 3.51486 128 142 169 
0.127959 -1.7108 4.37568 37 35 46 
-0.514505 0.928951 3.35941 43 35 74 
1.67472 -2.01782 6.26068 159 169 196 
1.25543 1.13712 4.54334 60 64 101 
-0.534921 0.851917 3.31904 232 234 255 
0.0378674 -1.63736 4.27454 41 32 51 
1.23729 1.05475 4.93169 65 68 103 
1.23238 1.00438 5.18402 58 76 112 
1.02552 0.610009 5.1892 139 150 182 
0.978797 0.764798 4.94572 33 42 81 
1.65306 -1.69694 6.15373 32 38 62 
1.6846 -1.64401 6.08071 120 134 161 
-1.45478 0.400487 3.30075 56 54 78 
0.689899 0.61896 4.71202 48 57 116 
-1.26052 0.449573 3.72721 226 241 255 
1.96936 -1.665 6.48343 148 155 183 
0.649525 0.611948 4.81965 61 65 126 
1.68619 -1.56815 6.13906 104 104 128 
1.70984 -1.53851 6.04117 47 51 76 
-1.45783 0.352122 3.27812 29 59 123 
2.02426 -1.54857 6.3512 140 150 175 
2.01807 -1.53342 6.35151 65 70 102 
0.6377 0.541961 4.74286 160 170 229 
0.647334 0.528976 4.65865 78 64 99 
-1.46428 0.326047 3.33811 201 216 255 
1.58351 -1.4479 5.86355 146 146 170 
2.02097 -1.50215 6.38119 148 160 186 
1.98592 -1.43506 6.18259 90 93 126 
-1.45975 0.288671 3.28347 199 202 255 
-1.44378 0.277551 3.38367 29 39 98 
1.98253 -1.38921 6.21077 154 169 192 
0.172276 -1.18981 4.33343 48 45 62 
1.00136 0.346422 5.16542 50 52 75 
0.575227 0.272438 4.65185 119 119 147 
-0.660411 0.17272 4.65424 120 127 182 
1.65377 -1.34463 6.06526 47 43 66 
-0.627683 0.163091 4.71227 141 164 234 
1.53014 -1.29324 5.8961 48 43 66 
0.134012 -1.13888 4.35033 134 132 145 
-0.56823 -0.475656 3.45863 127 119 130 
1.52651 -1.26094 5.91277 97 87 112 
1.46757 -1.24308 5.82085 43 30 48 
1.33515 0.198978 6.37887 211 222 254 
-0.519708 -0.581324 3.59138 71 70 102 
-0.48866 -0.977123 3.52489 18 17 22 
1.30105 0.10151 6.30066 186 208 255 
0.431776 0.0207223 4.56044 141 140 158 
2.07815 -1.15322 6.41474 106 114 137 
1.2771 -0.429603 6.52427 33 33 59 
0.99739 -0.713964 5.17975 154 160 194 
-0.525681 -0.675618 3.60211 181 176 198 
1.13577 -0.146965 5.82181 71 54 73 
1.46048 -0.302539 6.4173 101 96 119 
1.48918 -0.296682 6.46728 98 94 117 
0.414341 -0.250359 4.53051 56 47 66 
1.51566 -0.297694 6.65173 112 107 129 
1.34344 0.111984 6.32983 215 226 255 
1.33518 0.160605 6.38409 48 59 115 
1.32102 0.170156 6.29855 211 226 255 
1.30742 0.187121 6.17612 184 212 255 
1.34571 0.197745 6.23729 213 224 255 
-0.515615 0.911164 3.37544 92 78 113 
1.25404 1.14062 4.55848 60 64 101 
-0.609864 -0.473015 3.41698 41 39 52 
-0.629932 0.0739278 4.72046 149 169 238 
-0.649807 0.0999533 4.68592 151 170 239 
1.25813 1.11923 4.61389 53 57 86 
-0.580373 0.824261 3.32649 229 234 255 
1.24673 1.09299 4.71893 52 55 86 
-0.658755 0.129349 4.69904 151 170 239 
0.0418739 -1.5149 4.28092 30 25 45 
1.64195 -0.357525 6.57272 44 42 64 
-0.700008 0.156024 4.71216 154 171 240 
2.02287 -1.85555 6.56761 33 27 53 
1.95152 -1.81274 6.40559 71 74 109 
1.25181 1.0282 4.79473 49 48 79 
-0.62292 0.171322 4.69841 143 166 234 
-0.640304 0.291849 4.66943 137 147 146 
1.65441 -1.67837 6.09176 34 38 63 
0.557051 -0.128405 4.70191 156 171 202 
-0.480437 -0.698581 3.62513 58 54 77 
2.02705 -1.64482 6.49557 127 122 152 
2.02532 -1.62379 6.49499 84 77 110 
1.71245 -1.51098 5.93284 39 47 70 
0.989915 0.755772 4.87747 33 46 81 
0.662808 0.549933 4.80938 196 209 253 
2.01903 -1.53095 6.36178 88 79 110 
1.62441 -1.60869 6.09921 130 134 161 
1.32033 -1.08222 5.58603 46 38 61 
1.3925 -1.13691 5.66103 61 53 74 
1.36687 -1.14063 5.62922 51 36 57 
0.669985 0.567332 4.81968 242 244 255 
2.00812 -1.3783 6.05991 158 165 193 
0.680707 0.650221 4.75435 240 243 250 
0.627786 0.645661 4.7295 230 236 255 
-1.51377 0.408446 3.36308 64 60 87 
0.154304 -1.19329 4.34347 152 134 150 
0.19666 -1.16894 4.26572 51 44 62 
-1.45449 0.395997 3.35153 206 220 255 
-1.44333 0.387369 3.27232 189 191 250 
1.65529 -1.31598 5.95089 42 34 57 
0.666698 0.582696 4.72139 243 243 251 
1.58526 -1.33012 6.01836 43 31 53 
1.46415 -1.25768 5.86977 43 30 47 
0.13738 -1.10931 4.32064 168 166 187 
-1.40679 0.379012 3.32223 212 229 255 
0.641863 0.586105 4.71213 59 71 123 
1.69686 -1.29853 6.05934 115 110 132 
1.58221 -1.30214 6.03347 88 78 103 
1.56474 -1.29436 6.0138 99 91 115 
1.78038 -1.33967 6.1631 48 36 58 
1.71729 -1.33463 6.06556 36 31 51 
1.66066 -1.53074 6.02189 139 156 184 
1.00831 0.14546 5.0733 81 89 126 
0.556733 -0.110043 4.60599 36 35 43 
1.30676 -1.36591 5.57384 116 125 158 
0.160971 -1.26943 4.40548 176 179 212 
1.94481 1.06945 6.67302 63 61 74 
0.654448 0.605054 4.84924 54 65 111 
-1.48865 0.335158 3.3378 31 41 76 
-1.49336 0.271739 3.31843 27 31 95 
-0.63348 0.297993 4.65619 134 138 137 
-0.647721 0.172605 4.73961 145 169 233 
1.31071 0.0997615 6.19129 171 197 248 
1.42861 -1.20286 5.78548 49 46 63 
-0.548284 0.879365 3.33292 241 244 251 
-0.535538 0.910961 3.24005 34 44 71 
1.38872 -1.1168 5.56269 43 39 53 
0.0806864 -1.16402 4.43548 32 27 34 
0.553766 -0.326641 4.8135 56 59 78 
1.65837 -1.67701 6.06878 51 66 89 
0.684133 0.672253 4.76493 38 40 91 
1.02735 -0.0294403 5.07893 46 52 74 
0.656563 0.623219 4.73318 235 239 251 
0.698077 0.541036 4.71944 108 114 174 
-1.45294 0.322665 3.32405 201 216 255 
1.94156 -1.64352 6.42606 56 60 97 
-1.27465 0.450096 3.7438 208 224 255 
1.94633 -1.79346 6.31433 89 81 118 
1.68945 -1.65074 6.13455 101 113 137 
0.569274 -0.125762 4.64439 140 151 179 
1.25299 1.13422 4.51808 56 62 88 
0.44279 -0.239305 4.43325 34 28 42 
1.57878 -1.28801 5.96601 99 86 112 
-0.601734 -0.477392 3.42603 124 118 130 
-1.19238 0.571537 3.65497 44 53 82 
1.04203 -0.999782 5.41973 71 79 115 
1.14631 -1.15075 5.45347 79 88 127 
2.01864 -1.56563 6.39443 141 155 181 
1.67696 -1.66124 6.1079 96 110 137 
-1.20446 -0.102952 3.71656 143 162 205 
1.14009 0.573112 5.00704 48 41 57 
1.93355 1.02409 6.36781 56 52 67 
1.00152 -0.232023 5.11586 96 109 143 
-2.04397 -1.63057 3.07191 115 114 146 
-2.01502 -1.61335 3.09779 116 135 165 
-1.68635 -1.68486 3.46063 83 81 120 
-1.9298 -1.5203 3.1839 41 44 77 
-1.88727 -1.50943 3.22368 70 76 112 
-1.81677 -1.43358 3.29927 59 72 106 
-1.73602 -1.44238 3.3904 82 92 128 
-1.87794 -1.40198 3.22752 64 77 109 
-1.67387 -1.42916 3.44358 97 102 142 
-1.92835 -1.33988 3.15839 96 101 139 
-1.94397 -1.25759 2.91999 73 78 116 
-1.86266 -1.33487 3.2335 85 93 132 
-1.90752 -1.30386 3.18213 88 102 137 
-1.87901 -1.3079 3.21685 79 94 135 
-1.89156 -1.29578 3.19813 81 95 134 
-1.85615 -1.29272 3.2347 137 153 187 
-2.00752 -1.16823 2.89771 110 133 175 
-1.96389 -1.1549 2.89714 98 98 150 
-1.94356 -1.05123 2.88472 93 103 152 
-1.90033 -1.10268 3.16608 88 93 125 
-2.00215 -0.97038 2.81672 117 137 162 
-1.97727 -0.971194 2.85578 87 101 130 
-1.9589 -0.957182 2.88165 123 135 159 
-2.54376 -1.06233 3.11821 94 100 132 
0.987311 -0.635332 5.20811 75 78 113 
-1.97181 -0.630673 2.7764 55 57 82 
1.56162 -0.370589 6.59079 129 136 162 
-1.88349 -0.15024 3.07826 83 87 116 
1.90389 0.247732 6.72324 103 104 125 
-1.92796 0.0174149 2.77148 37 45 92 
-1.96394 0.0175446 2.72578 182 192 253 
-1.91947 0.0303397 2.77949 20 38 100 
-1.97492 0.0248292 2.71174 38 37 105 
-1.92375 0.0499366 2.76894 61 67 145 
-1.94947 0.0822165 2.73783 193 209 255 
-1.92244 0.119401 2.76507 175 199 255 
-1.98046 0.122383 2.69931 51 45 83 
-1.92146 0.132736 2.76684 17 26 85 
-1.55671 0.316039 3.21513 70 82 124 
-1.64403 0.345027 3.13176 153 186 201 
-1.8291 0.814154 2.97456 89 92 109 
-1.64012 0.357634 3.1369 47 79 118 
-1.81253 -1.42703 3.29252 72 76 113 
-1.96618 0.134882 2.71479 181 177 238 
-1.93225 0.139278 2.75594 148 149 213 
-1.98584 -1.17128 2.89686 41 63 110 
-2.00178 -1.15608 2.89768 95 110 153 
-0.679418 0.304273 4.64918 70 76 88 
-1.92393 0.0402043 2.77574 193 214 255 
-1.98797 -1.07481 2.88084 162 174 216 
-2.01342 -1.05113 2.8653 37 50 103 
-1.92834 -1.02654 2.90495 147 168 199 
-1.96384 -0.962348 2.87029 119 128 157 
-1.95592 -0.957025 2.89384 113 118 147 
-1.93316 -0.953625 2.90605 155 161 195 
-1.98344 -0.636432 2.78076 31 31 43 
-1.96631 -0.647125 2.80091 77 75 115 
-1.91317 -0.66635 2.84326 152 158 184 
-1.9028 -0.696457 2.89752 34 45 63 
-1.91643 -0.69129 2.85346 160 174 209 
-1.95762 -0.689346 2.83995 151 166 195 
-1.91129 -0.670575 2.85467 94 108 137 
-1.84324 0.691479 2.96985 103 110 129 
-1.92728 -0.640665 2.82944 83 92 133 
-1.93919 -0.963439 2.90504 76 86 122 
1.93015 -2.0577 6.4432 59 54 86 
-1.93336 -1.51275 3.17828 115 120 149 
-1.85598 -0.141553 3.1151 75 79 116 
-1.95538 -1.00747 2.8862 118 140 181 
-1.57464 0.372551 3.18712 54 79 120 
-1.8786 -1.47296 3.23717 77 86 127 
-1.9511 -1.06335 2.89783 168 188 223 
-1.62544 0.346316 3.14898 125 150 207 
-1.8554 -1.08459 2.93557 49 47 71 
-1.80266 -1.42955 3.3072 87 91 129 
-2.01378 -1.63236 3.097 63 59 94 
-1.63977 0.429221 3.13075 69 88 156 
-1.37306 0.826743 3.47327 53 49 82 
-1.87049 -1.02186 3.18631 88 99 131 
-1.56062 0.382259 3.19782 111 129 167 
2.11178 0.720379 6.60477 102 116 142 
-1.97523 0.10548 2.70981 58 76 152 
-1.94834 0.0715098 2.74015 190 206 255 
1.3524 0.107999 6.33664 146 146 208 
1.46 -0.303007 6.51468 90 91 109 
-1.97133 -0.63151 2.78695 119 126 152 
-1.99655 -1.08606 2.88602 55 71 122 
1.68987 -1.30226 6.08276 97 100 115 
-1.89515 -0.711236 2.90099 149 170 201 
-2.02755 -1.02796 2.85912 31 38 84 
-1.68027 0.327014 3.09844 113 70 149 
-1.92013 0.150507 2.76275 30 34 61 
0.816738 0.734052 4.88103 158 168 203 
-1.94522 -0.672357 2.8347 66 86 119 
-1.88734 -1.11571 2.92563 96 104 125 
-1.93459 -1.26635 2.92064 147 154 182 
-1.9182 0.45053 2.69866 114 110 133 
-1.97907 0.132909 2.68896 28 34 58 
-1.67133 0.419136 3.09078 53 48 102 
-1.97351 -0.65384 2.78512 143 143 167 
-1.94804 -0.95828 2.90226 152 166 195 
-1.6863 0.476851 3.00989 153 164 196 
-1.9561 -1.17257 2.91315 89 97 146 
-1.93367 -0.679975 2.83919 147 163 197 
-1.93178 -0.818472 2.98078 136 142 174 
-1.9042 -0.979112 3.00263 120 124 149 
1.59375 -0.28329 6.6302 115 113 134 
-1.59877 0.27577 3.1846 96 105 134 
-2.04033 -0.857991 2.82137 113 116 147 
-1.93745 -0.641281 2.82611 164 183 215 
-1.95858 -1.18352 2.91795 175 183 220 
1.03479 0.173668 5.18579 121 135 172 
0.605499 -0.332697 4.73033 36 42 64 
-0.680849 0.287844 4.66458 72 81 90 
-1.9769 0.115711 2.70869 180 188 251 
-1.97409 0.133897 2.70845 20 21 51 
0.995132 0.572169 5.09119 78 78 116 
-1.47204 0.269438 3.27513 142 169 212 
1.10231 -1.01263 5.39189 145 157 199 
-1.95132 -0.989263 2.88974 47 59 97 
-1.9772 -1.16068 2.90095 54 56 104 
-2.03667 -1.04394 2.87178 13 22 39 
0.013821 -1.57289 4.20533 23 19 36 
1.98159 0.785242 6.65791 109 106 133 
1.02807 0.60294 5.12716 119 137 173 
-1.97215 -1.08342 2.89138 66 85 128 
-2.00977 -0.987643 2.83637 110 133 164 
-1.10724 -0.0378724 3.91711 89 95 127 
-1.9703 -0.829153 2.90628 131 135 160 
-1.60434 0.223661 3.13749 168 189 234 
-1.95479 -0.957403 2.9287 60 67 96 
-1.92299 0.103608 2.75663 28 35 103 
-0.504825 0.818302 3.3379 214 224 255 
-1.54935 0.300432 3.24348 69 84 117 
-1.9823 -0.795015 2.85729 47 56 89 
-1.943 -0.80238 2.92959 157 173 206 
-1.9723 -0.776768 2.85409 172 183 215 
-1.94227 0.0763773 2.74818 27 43 102 
-1.9556 -1.19854 2.92035 49 59 94 
-1.96537 0.0172915 2.698 17 21 48 
1.01879 -0.217864 5.17338 33 38 58 
-1.95726 -0.995399 2.88421 145 158 192 
-1.93349 -1.02077 2.89841 40 64 102 
-1.87738 -0.731299 3.15985 100 111 139 
0.172447 -1.15246 4.31144 47 36 53 
-1.96819 0.0954747 2.71103 23 36 81 
-0.554371 0.845464 3.29742 30 36 86 
-1.97427 -0.780466 2.88221 157 171 208 
-1.40099 0.520256 3.35547 151 166 199 
-1.59165 0.384174 3.18521 155 171 205 
-1.97459 0.0322971 2.71893 201 214 255 
-1.96732 0.0550516 2.71309 28 46 96 
-1.93066 0.0608498 2.7659 32 46 95 
-1.93152 0.0971627 2.76406 26 39 83 
-1.97055 -0.986366 2.86105 33 39 53 
-2.01667 -1.00352 2.85095 59 83 111 
2.28427 -0.0024794 6.74808 87 84 113 
-0.643847 0.115583 4.66894 32 48 107 
2.5838 0.629037 6.77264 119 123 168 
1.68765 -1.2992 6.07396 101 103 118 
0.144035 -1.1313 4.32613 128 124 141 
2.64441 -0.25917 6.92559 171 191 224 
2.27047 0.00694072 6.72557 126 135 166 
1.05485 -0.986392 5.32191 107 119 159 
2.26883 0.00799599 6.75499 123 138 169 
2.41572 -0.470362 6.79019 94 98 125 
2.34861 -0.460992 6.77522 99 111 135 
1.59851 -1.32331 6.15128 95 96 116 
-0.506029 -0.607036 3.57276 95 102 131 
1.37613 -0.311922 6.39523 69 71 84 
-1.21355 -0.0953589 3.7523 216 230 255 
1.09987 0.258492 5.23066 91 71 98 
1.1217 0.594145 5.21783 55 55 79 
-1.23132 0.435474 3.66753 118 131 176 
-0.451241 -0.881722 3.66098 72 59 87 
-0.464176 -0.847222 3.64355 85 76 103 
2.13327 0.72775 6.66188 96 98 121 
1.04359 0.26063 5.16552 176 182 218 
-0.580287 -0.455248 3.44461 126 117 136 
1.4533 -1.00526 6.03881 133 124 141 
1.94892 1.05085 6.50804 46 44 66 
1.05086 -0.140463 5.21889 171 184 216 
1.2989 0.106656 6.27728 155 186 241 
-0.582682 -0.261973 3.58518 138 134 151 
-0.391953 -1.00404 3.74446 57 47 74 
0.469874 1.00916 4.40161 118 123 143 
1.33939 0.0980848 6.33447 206 214 255 
-0.504706 -0.629582 3.58004 183 181 205 
-0.677485 0.132672 4.67623 19 28 67 
1.33778 0.155055 6.30836 60 59 125 
2.1236 0.726827 6.6416 106 116 141 
0.691012 0.561683 4.74523 232 234 247 
1.91743 -1.31133 6.30424 60 55 75 
2.08599 -1.16731 6.49464 93 88 110 
-1.2076 0.0224436 3.75309 83 94 126 
-0.640356 -0.490987 3.40671 137 129 140 
-0.501886 -0.453374 3.51496 41 38 45 
1.00695 -0.807951 5.25898 152 162 197 
0.633928 0.642609 4.70377 177 187 236 
1.97343 0.777992 6.63508 114 123 152 
2.26606 -0.116411 6.71361 100 116 132 
-0.0159019 -1.68633 4.19357 64 49 72 
-0.0173146 -1.68044 4.20334 145 126 145 
-0.0257502 -1.66779 4.2043 96 72 98 
-0.0245387 -1.65905 4.21148 131 127 142 
0.0247146 -1.65791 4.24103 127 108 127 
-0.068692 -1.64654 4.17811 142 130 144 
-0.0286951 -1.61799 4.16517 106 103 120 
0.0281371 -1.63299 4.28208 66 45 62 
0.0251382 -1.62447 4.27126 144 120 134 
2.03945 -1.97553 6.48641 56 48 72 
-0.327935 -1.50776 3.8545 181 190 221 
1.83507 -1.87542 6.246 86 102 136 
3.00858 -2.09186 7.60396 150 150 188 
0.0512409 -1.52639 4.2456 71 64 82 
1.80247 -1.80652 6.20589 154 171 201 
0.0388673 -1.50497 4.24523 73 51 74 
0.0479873 -1.50558 4.2513 70 60 84 
0.0537522 -1.50351 4.2732 58 36 59 
1.85334 -1.78042 6.24098 121 131 166 
0.669856 -1.59812 4.96987 174 190 224 
1.95155 -1.80536 6.42071 82 82 120 
3.14168 -1.97055 7.71623 172 167 197 
1.83931 -1.71232 6.20217 123 127 162 
-0.490373 -1.36866 3.66544 99 107 144 
1.64415 -1.6945 6.03783 144 164 188 
0.0791304 -1.45263 4.31277 73 63 88 
-0.433766 -1.37101 3.73624 133 138 167 
1.63257 -1.65664 6.04746 78 91 123 
-0.0346055 -1.38965 4.12857 110 104 118 
1.70837 -1.65098 6.07986 171 187 212 
1.7048 -1.64952 6.10601 112 128 153 
2.02058 -1.6276 6.46511 141 153 179 
1.68677 -1.56857 6.06662 87 108 129 
1.68352 -1.55068 6.06512 98 102 129 
1.99863 -1.5844 6.42952 78 87 116 
1.69706 -1.50983 6.0638 144 166 190 
2.01734 -1.55279 6.42455 71 74 105 
-0.411518 -1.23154 3.72501 129 138 169 
-0.524441 -1.21866 3.61219 159 165 189 
1.71814 -1.49043 6.0642 86 109 140 
1.59433 -1.44381 5.93708 104 109 128 
-0.424946 -1.19556 3.71438 150 167 193 
1.99081 -1.47334 6.38339 104 110 144 
1.44343 -1.35759 5.74595 55 50 72 
1.42914 -1.33558 5.69441 50 52 75 
1.98329 -1.40899 6.34184 120 138 158 
1.64743 -1.38025 6.01878 73 62 92 
-0.178754 -1.16194 3.97966 76 56 81 
-0.204569 -1.15333 3.95598 72 59 85 
-0.233003 -1.1432 3.93075 76 56 81 
1.39207 -1.30333 5.64861 58 60 83 
-0.255172 -1.12965 3.89795 75 53 76 
1.45891 -1.29286 5.78661 86 73 103 
0.935091 -1.23251 5.19713 150 154 189 
-0.301715 -1.09533 3.84052 93 77 103 
1.82284 -1.31212 6.20068 120 111 138 
1.86784 -1.28855 6.31526 75 74 90 
1.9495 -1.27251 6.34232 113 109 132 
3.298 -1.19477 7.80023 134 138 175 
-0.51643 -0.723095 3.57243 153 155 178 
1.14834 -0.534404 5.36388 97 86 116 
3.14523 -0.3559 7.52239 110 115 147 
1.30016 -0.407927 6.30894 49 50 80 
-0.595018 -0.353894 3.45551 97 93 120 
1.65285 -0.348844 6.65831 77 76 108 
-0.56226 -0.346138 3.49443 91 78 106 
1.63783 -0.286402 6.6944 57 44 70 
2.66442 -0.201928 6.9529 53 70 96 
2.61445 -0.1509 6.911 148 159 187 
3.04515 -0.0710372 7.43623 148 154 188 
2.98828 -0.0111534 7.37492 163 167 205 
3.07094 0.0665309 7.37709 103 116 133 
2.99977 0.0776741 7.31724 75 79 117 
2.48439 0.190298 6.76785 119 119 145 
2.50243 0.191782 6.78629 101 105 134 
2.57837 0.389792 6.83229 61 65 90 
2.46661 0.558466 6.71168 67 68 89 
2.58963 0.638986 6.7981 112 114 162 
2.58481 0.648236 6.77836 213 211 233 
2.55947 0.677483 6.75166 202 209 253 
2.52783 0.718661 6.71731 199 219 255 
2.58456 0.728315 6.77459 209 207 228 
2.52868 0.741118 6.71166 62 71 112 
3.07483 0.995355 7.33489 122 118 179 
3.0313 0.982688 7.10696 101 102 169 
3.08081 1.05132 7.3082 210 205 225 
2.40222 1.06225 6.51722 122 130 151 
1.24904 1.14385 4.70955 47 60 95 
3.03596 1.06331 7.26086 159 164 204 
3.08049 1.05746 7.31699 201 195 223 
1.83439 -1.85427 6.24459 75 91 124 
2.0189 -1.82615 6.48037 42 29 59 
3.02454 0.963018 7.2832 202 218 252 
1.83228 -1.75507 6.21379 159 174 197 
2.52238 0.815196 6.52452 142 167 197 
1.65694 -1.59943 6.03961 159 173 199 
1.67413 -1.56215 6.07826 44 47 78 
2.0283 -1.57145 6.46914 129 142 161 
2.54144 0.741085 6.72876 156 165 208 
2.58474 0.743376 6.74865 96 98 155 
1.58998 -1.447 5.92754 59 64 84 
2.00155 -1.47822 6.3941 159 165 189 
2.57676 0.70384 6.76052 110 121 175 
2.56386 0.682959 6.73892 101 102 167 
2.57701 0.669675 6.76196 118 122 183 
2.58104 0.642884 6.73514 214 212 233 
2.54434 0.623157 6.74324 203 227 255 
2.57153 0.390856 6.8425 43 45 70 
0.15138 -1.13614 4.30381 59 48 64 
1.68147 -1.30482 6.10242 82 81 97 
1.40046 -1.2436 5.72342 85 70 103 
1.16179 -1.12164 5.4291 123 129 163 
3.22451 -0.129284 7.61865 131 121 146 
1.26992 -1.01857 5.56314 57 42 65 
-0.498525 -0.461219 3.5281 127 125 136 
-0.527048 -0.465512 3.48829 118 118 130 
3.30579 -1.69461 8.04297 55 37 63 
2.98926 -0.0115121 7.39339 169 177 213 
2.5897 -0.658466 6.89871 172 191 223 
1.93402 -1.86299 6.38189 157 156 187 
-0.483178 -0.772841 3.61405 81 70 102 
-0.495109 -0.511263 3.57973 135 132 143 
3.1927 -0.519409 7.59915 155 169 196 
2.45971 -0.482301 6.82801 48 46 68 
1.30336 -1.02925 5.6048 71 66 89 
2.66729 -0.220483 6.99107 44 56 82 
2.66689 -0.217907 6.94125 50 67 93 
2.61443 -0.149998 6.89473 150 157 186 
1.32938 -1.13604 5.66924 120 112 135 
1.39324 -1.17386 5.69967 94 78 114 
3.03185 0.0697937 7.33904 92 100 123 
2.99977 0.0776741 7.31724 75 79 117 
1.16426 -1.21118 5.46925 164 173 204 
1.56472 -1.26648 5.93062 95 94 110 
0.0451104 -1.64962 4.27776 132 115 133 
1.80704 -1.30214 6.23306 73 75 88 
-0.327337 -1.07686 3.81661 88 83 106 
1.7459 -1.30336 6.14773 81 80 96 
0.0430314 -1.63165 4.27002 57 40 58 
2.51014 0.28052 6.76155 31 39 58 
1.08504 -1.23968 5.37392 144 148 186 
3.3522 -1.51057 7.86838 80 88 101 
3.22653 -1.5269 7.72168 77 80 95 
-0.0282175 -1.55391 4.18371 114 92 113 
1.80669 -1.45969 6.14123 123 140 160 
1.71745 -1.46379 6.05614 121 137 162 
1.44686 1.08603 5.25797 91 97 131 
0.408241 -1.3492 4.65011 126 126 162 
1.63904 -1.51839 5.99819 145 163 187 
1.83987 -1.83269 6.24701 144 164 189 
1.65337 -1.80163 6.07564 76 92 128 
3.00582 -1.77704 7.55651 172 170 209 
1.63442 -1.68504 6.0626 83 78 108 
1.81735 -1.7525 6.2123 62 60 99 
1.82709 -1.78229 6.22274 98 109 141 
-0.446887 -1.37267 3.71535 119 125 161 
-0.40255 -1.31287 3.74538 139 149 184 
0.00111141 -1.29824 4.1623 127 100 119 
3.3679 -1.51283 7.89559 88 88 100 
1.84318 -1.76363 6.2224 123 132 165 
0.0859371 -1.44823 4.30197 69 60 87 
1.85328 -1.8462 6.24841 132 146 175 
1.25242 1.08599 4.70155 75 77 115 
0.0420219 -1.51171 4.26501 71 66 86 
-0.606151 -0.251152 3.58711 141 160 190 
-0.502879 -0.667156 3.59016 155 153 177 
1.85431 -1.94307 6.32515 110 110 144 
3.02908 1.04978 7.28312 209 224 253 
1.99598 -0.00583139 6.74908 93 90 117 
3.05552 1.01801 7.3187 207 233 255 
1.23014 -0.941755 5.50577 64 50 75 
2.52864 0.718681 6.73029 170 192 239 
2.00828 -1.5043 6.45615 65 66 96 
1.98877 -1.48135 6.39232 101 101 135 
3.2831 -1.66416 8.06036 78 58 93 
1.98415 -1.41511 6.35754 150 166 189 
2.66279 -0.202632 6.96564 50 66 89 
3.07448 0.0693166 7.41134 97 116 133 
1.49762 -0.308598 6.50821 56 50 76 
2.59459 0.583801 6.81699 121 140 173 
1.61602 -1.51709 5.99646 133 149 172 
2.00863 -1.63588 6.47972 97 114 142 
1.82532 -1.77881 6.2095 95 104 137 
1.24992 1.04419 4.86262 69 77 113 
2.49524 0.657941 6.70142 35 40 60 
-0.600823 0.967711 3.17411 121 122 152 
1.58429 -1.43799 5.9102 34 41 59 
0.550054 0.259216 4.62891 140 147 176 
-0.0230493 -1.56313 4.19444 57 46 62 
1.16524 -0.729586 5.42226 83 69 102 
1.65203 -1.80329 6.07924 76 92 128 
3.03423 0.0705283 7.37355 90 106 131 
3.19553 -0.523362 7.63423 163 177 206 
1.85199 -1.34038 6.25271 65 59 87 
1.77031 -1.34128 6.19876 58 43 66 
1.9841 -1.2932 6.39621 86 74 98 
1.3793 -1.19281 5.71258 127 122 145 
1.28966 -1.36903 5.62768 148 158 193 
3.27102 -1.52301 7.77567 90 89 103 
1.50637 -1.24049 5.87042 93 91 115 
1.23712 -1.10429 5.4972 60 52 76 
3.15873 -1.56695 7.70108 84 81 112 
1.29532 -1.0529 5.58739 83 69 102 
-0.192582 -1.24428 3.92298 41 43 56 
0.00332851 -1.36079 4.17347 134 121 139 
3.33266 -1.46122 7.88954 123 125 164 
0.151854 -1.30704 4.3223 72 70 94 
1.05158 -0.190901 5.20482 154 167 202 
1.04294 0.163279 5.1668 115 121 153 
0.994365 0.339959 5.10015 145 156 188 
-0.0641988 -1.64833 4.16513 141 123 145 
2.58398 0.746318 6.77228 83 82 140 
2.5444 0.739349 6.74512 224 236 255 
2.53464 0.732089 6.71254 210 230 255 
2.52887 0.716833 6.71353 188 210 251 
1.8352 -1.84214 6.21087 86 102 135 
3.02991 0.646592 7.30691 173 177 206 
2.50004 0.801307 6.62577 102 111 142 
1.83636 -1.81615 6.22685 84 90 126 
2.46152 0.55497 6.69157 58 56 77 
1.82733 -1.77465 6.19467 89 105 138 
3.42239 -2.06617 8.08279 112 103 120 
1.95107 -1.81328 6.43627 76 69 110 
3.40772 -2.02499 8.08616 113 104 125 
1.6975 -1.63916 6.09119 58 73 102 
1.94151 -1.61759 6.3382 56 60 97 
1.68283 -1.5796 6.08613 118 138 162 
1.95491 -1.60898 6.36855 138 148 173 
1.65172 -1.56557 6.05424 114 119 148 
1.67603 -1.55484 6.05036 36 41 70 
2.60004 0.208247 6.86952 109 123 158 
-0.754697 0.392837 3.37808 60 81 108 
1.58043 -1.45699 5.90207 139 149 174 
2.5529 0.0221723 6.86982 113 130 160 
1.992 -1.4244 6.35838 154 160 186 
2.36464 -0.166497 6.73241 122 120 141 
1.51694 -1.33447 5.88669 74 67 101 
3.02378 1.04184 7.22879 233 242 255 
1.71259 -1.16761 5.49836 117 114 133 
0.115315 -1.13655 4.35125 33 27 37 
1.95251 -1.27117 6.3177 129 125 150 
1.47421 -1.21298 5.79851 136 132 157 
0.91395 -1.13416 5.16342 128 136 182 
1.36226 -1.15038 5.66817 62 48 71 
2.64762 -0.343472 6.96964 182 199 229 
1.34248 -1.09448 5.65627 68 64 89 
1.20205 -0.859775 5.45587 63 50 76 
2.43949 -0.797744 6.83018 119 117 141 
-0.502003 -0.514606 3.58713 137 129 142 
1.35613 -1.16885 5.64307 129 127 151 
3.35495 -2.07537 8.01168 99 107 128 
2.45877 -0.484349 6.81183 55 52 71 
1.58058 -1.36238 5.95066 74 67 98 
-0.46582 -0.463565 3.53856 34 31 42 
1.53237 -1.25044 5.87654 95 83 105 
1.38226 -1.19057 5.69981 132 122 146 
2.54985 0.0322242 6.85414 139 159 186 
1.46345 -0.387558 6.54622 46 46 80 
2.75245 1.02108 6.79045 110 135 166 
3.189 -0.511895 7.60562 95 94 128 
3.19805 -0.524781 7.65534 165 179 208 
1.81431 -1.87545 6.27691 136 140 175 
2.56697 0.629356 6.78243 217 227 255 
2.64546 -0.260817 6.98743 144 174 202 
2.53276 0.638469 6.74374 213 230 255 
2.57918 0.646044 6.78995 242 242 250 
1.63207 -1.68831 6.04331 58 57 89 
1.31964 0.166588 6.31491 206 225 255 
1.65009 -1.60976 6.07406 120 140 167 
0.683551 0.565758 4.76373 238 240 253 
0.637912 0.554879 4.69227 217 223 255 
1.0076 -0.0354127 5.18845 65 70 100 
2.65385 -0.202465 6.98355 44 50 66 
