ply                 
format ascii 1.0    
element vertex 755
property float x    
property float y    
property float z    
property uchar red  
property uchar green
property uchar blue 
end_header          
-0.555136 0.920679 3.28404 160 143 198 
-0.558717 0.921806 3.29134 164 146 206 
-0.506632 0.905279 3.34243 206 219 254 
-0.533918 0.867283 3.31526 203 223 255 
-0.536817 0.861751 3.31038 78 72 142 
-0.564339 0.809844 3.28859 47 45 94 
-0.689815 0.165733 4.67502 84 88 136 
-1.48259 0.265028 3.30019 104 137 190 
-1.43276 0.27909 3.36319 81 117 179 
-1.42762 0.278572 3.35682 44 78 142 
-1.4175 0.285623 3.36751 53 54 110 
-1.42289 0.289278 3.36583 29 57 130 
-1.45619 0.339513 3.32478 183 191 253 
0.66896 0.603845 4.72859 76 84 149 
-1.43244 0.373169 3.35113 87 103 178 
-1.22594 0.45011 3.68518 203 206 237 
-1.56365 0.392375 3.21096 152 145 179 
-1.22244 0.446492 3.68673 220 233 250 
-1.42908 0.403128 3.34046 23 49 106 
0.693547 0.552271 4.76805 85 93 142 
-1.42543 0.39396 3.35184 40 43 110 
-1.43709 0.398147 3.33936 181 205 253 
-0.557844 0.925047 3.28613 56 41 80 
-0.502411 0.902295 3.34622 93 94 150 
-1.43418 0.404476 3.34671 55 88 142 
-1.22091 0.45053 3.69833 97 116 156 
-0.562547 0.819948 3.29197 207 204 249 
0.632795 0.656276 4.68935 68 65 112 
0.636 0.659951 4.68776 59 57 106 
-0.502605 -0.66022 3.58155 66 69 102 
-1.21061 -0.106185 3.74831 160 183 215 
-1.55152 0.326455 3.25393 154 185 216 
-1.1991 0.754597 3.601 107 141 186 
-1.23135 0.538969 3.6696 200 210 245 
-1.47896 0.300335 3.30013 98 106 171 
-1.48136 0.291293 3.30014 186 181 239 
1.00164 0.342234 5.12602 66 67 97 
-0.424191 -0.948877 3.70048 67 58 87 
-1.55802 0.279516 3.25513 123 149 184 
-1.57649 0.296606 3.2133 101 130 170 
-1.21558 0.754883 3.5996 119 140 185 
1.2411 1.05845 5.05645 51 66 107 
0.63729 0.536739 4.71086 80 73 115 
-0.589412 -0.496616 3.61161 114 110 125 
2.27636 0.745051 6.68258 94 93 125 
1.25403 1.14406 4.70543 49 62 96 
2.12471 1.06542 6.49933 47 68 113 
2.26695 -0.124047 6.73034 102 110 129 
0.633598 0.550901 4.70366 155 161 211 
0.681776 0.547829 4.76808 203 217 255 
-0.642056 0.0593064 4.74205 64 78 139 
-0.686069 0.0696731 4.67638 124 133 190 
-0.638257 0.0616402 4.7444 74 94 157 
-0.636541 0.0946512 4.73277 14 26 84 
-0.690103 0.161192 4.67668 110 117 172 
-0.642128 0.178074 4.72836 121 139 201 
-1.21496 -0.10528 3.75339 197 216 246 
-1.47869 0.266441 3.30216 28 43 100 
-1.48523 0.272097 3.29118 137 156 196 
-1.47826 0.279921 3.30253 72 61 140 
-1.42103 0.288722 3.36317 30 53 123 
-1.48176 0.284444 3.29942 127 126 183 
-1.48287 0.291674 3.30191 168 158 218 
-1.55096 0.295063 3.2546 150 176 201 
-1.45805 0.337014 3.32076 52 46 120 
2.12094 0.709479 6.6534 104 109 138 
-1.20417 0.797444 3.59593 131 163 214 
-1.22995 0.441736 3.68194 102 110 173 
-0.505824 -0.619355 3.5745 68 71 102 
0.137842 -1.12978 4.32284 116 115 131 
-1.22791 0.546645 3.6712 239 242 255 
1.93574 -1.47109 6.30831 59 63 98 
-0.686963 0.154563 4.6692 126 138 198 
-1.23295 -0.107237 3.74859 148 163 206 
1.22954 1.00679 5.16365 110 109 141 
-1.20042 0.857926 3.58018 90 124 169 
-1.21524 0.860048 3.58253 107 124 170 
2.2745 0.744093 6.67854 94 93 125 
-1.48791 0.267319 3.29711 180 209 253 
1.25484 1.1437 4.70241 56 71 110 
-1.42616 0.388043 3.34508 195 214 254 
-1.46052 0.337046 3.32375 46 43 112 
-1.45124 0.33576 3.33037 64 88 158 
-1.48663 0.28952 3.30833 164 156 215 
-1.4227 0.288845 3.36572 29 57 130 
-1.4791 0.279863 3.3031 52 40 116 
-1.429 0.277723 3.35983 48 80 141 
-1.42681 0.274177 3.36715 43 60 114 
-1.47606 0.269269 3.3079 50 40 103 
-0.515424 0.805272 3.34556 148 148 208 
-0.556291 0.801705 3.29708 189 200 246 
-1.22715 0.446778 3.68223 230 232 253 
-0.661338 0.124209 4.71225 149 170 235 
-0.667436 0.116308 4.7069 24 27 70 
-0.564597 0.90878 3.28568 147 139 186 
0.66261 0.595785 4.7377 217 230 255 
-0.511712 0.896246 3.34489 62 77 144 
-0.678234 0.175752 4.69363 90 94 142 
-0.687055 0.154018 4.66957 119 131 191 
-0.582606 0.393891 3.4808 30 41 73 
-1.47741 0.301168 3.29937 76 86 155 
-1.55094 0.294299 3.25431 150 176 201 
-1.21731 -0.105837 3.75776 198 214 247 
-1.23126 0.441234 3.68298 101 109 171 
-1.20477 0.755726 3.60974 134 165 209 
0.634182 0.551443 4.71097 141 148 200 
-1.55094 0.326135 3.25113 161 192 223 
2.27267 0.722579 6.69896 121 130 161 
-1.2043 0.795912 3.5919 125 158 211 
-0.506178 0.820857 3.35368 202 207 227 
0.637198 0.537325 4.71776 97 87 122 
-0.500857 0.899114 3.34246 116 110 156 
2.28289 -0.000252303 6.77393 113 120 149 
-0.504613 -0.617953 3.5706 62 63 94 
0.581368 -0.318366 4.73234 48 51 68 
-1.21544 0.755148 3.60172 124 145 190 
-1.21711 0.860318 3.58532 102 119 165 
0.40145 -0.298086 4.51615 45 42 61 
-1.42823 0.309993 3.3513 56 70 141 
-0.555088 0.919021 3.28485 203 199 250 
-0.562512 0.906562 3.27774 190 187 230 
-1.48079 0.266273 3.30378 35 57 114 
0.670742 0.604492 4.74358 93 97 161 
-0.532867 0.868607 3.311 230 241 255 
-1.43217 0.394987 3.34036 125 145 208 
-1.47093 0.392343 3.30038 197 200 253 
-0.514318 0.803861 3.33813 176 185 244 
-1.23539 0.441223 3.69192 101 109 171 
-0.676483 0.175751 4.6807 113 120 174 
-0.505104 0.819198 3.34697 190 196 222 
0.678513 0.661747 4.73072 215 219 254 
-0.642688 0.0593801 4.73365 70 86 148 
-0.561639 0.924962 3.28474 29 28 59 
-1.20194 0.795849 3.59233 115 148 201 
0.682618 0.586197 4.73913 71 76 134 
1.15708 -1.13389 5.47302 124 126 165 
-0.633684 0.0797376 4.73326 128 151 219 
-1.2036 0.754465 3.60422 127 161 209 
-1.46422 0.247506 3.32731 129 159 209 
-1.23198 0.451084 3.68169 105 107 164 
1.98878 -1.42366 6.36313 153 167 193 
0.634647 0.534175 4.69283 97 87 122 
-0.558622 0.797189 3.2909 69 50 80 
0.606866 -0.335357 4.71513 63 70 96 
2.26905 0.744694 6.67382 112 116 145 
-1.23202 0.530577 3.66823 93 115 165 
1.24232 1.0073 5.07988 73 77 115 
1.95313 -1.28139 6.35058 118 116 140 
1.00178 0.343655 5.10883 50 54 81 
-1.18556 0.826095 3.60434 109 132 176 
-1.21523 0.754705 3.60014 113 130 174 
-0.554813 0.801765 3.3073 150 151 207 
-0.509168 0.918734 3.35192 237 240 255 
-0.506367 0.820097 3.34967 227 230 247 
0.602847 -0.328176 4.7103 73 78 116 
2.29541 0.00169153 6.82962 121 135 164 
-1.47938 0.27052 3.3099 32 33 89 
-1.48128 0.285017 3.29748 127 126 183 
-1.47811 0.304835 3.30153 70 89 155 
-1.45604 0.335034 3.31231 46 43 112 
-0.589699 0.385959 3.48285 158 172 199 
-1.43278 0.384722 3.35256 213 227 255 
0.64672 0.541086 4.712 174 189 246 
0.663521 0.613512 4.72993 222 237 255 
-1.484 0.385164 3.28716 21 38 110 
-1.44468 0.399527 3.34511 196 213 255 
1.01208 0.168368 5.16548 88 94 128 
-1.20373 0.755357 3.60443 137 168 212 
-1.23811 0.535583 3.65766 147 168 211 
1.46503 -1.23484 5.81138 44 30 55 
0.689799 0.670489 4.7535 54 51 104 
-0.677119 0.0580759 4.70253 125 143 207 
-1.22694 0.537732 3.66703 227 243 255 
-1.49015 0.272387 3.29624 178 200 241 
-0.660045 0.129137 4.71033 149 169 238 
-0.505672 0.915082 3.34212 201 205 230 
-0.509682 0.909344 3.34829 226 231 250 
-0.556565 0.88526 3.28605 32 48 108 
-1.43437 0.383667 3.35393 211 224 255 
-0.534382 0.871467 3.31392 239 243 255 
0.647237 0.539316 4.69531 199 214 253 
-0.508148 0.823133 3.35843 227 230 247 
-0.686899 0.159248 4.68295 146 162 224 
-0.56096 0.798493 3.29414 55 41 76 
-1.471 0.3078 3.29337 45 56 122 
-1.4393 0.396396 3.33726 201 221 255 
1.00024 0.334136 5.11222 101 104 137 
1.02463 0.602218 5.1169 133 147 182 
0.683961 0.623692 4.74297 59 69 130 
0.579126 -0.323752 4.73601 36 36 48 
-1.24261 0.537128 3.66442 142 156 201 
-0.57395 -0.46581 3.45451 34 35 40 
1.05407 -0.979017 5.29716 78 92 131 
1.97065 0.777307 6.63322 121 126 155 
2.26651 0.74533 6.67521 117 123 149 
-0.683911 0.28854 4.66344 84 85 89 
-1.22909 0.447206 3.68729 230 232 253 
-1.47057 0.401998 3.31267 65 59 85 
-1.47974 0.502399 3.31726 81 77 110 
0.682266 0.56131 4.74968 241 244 251 
0.680716 0.54029 4.70385 75 77 134 
0.607264 -0.335106 4.69906 74 83 112 
0.633971 0.533444 4.69759 104 93 127 
-1.43718 0.363276 3.35197 38 62 126 
-1.47769 0.356139 3.29643 26 47 110 
1.13286 -1.14969 5.43764 104 116 156 
-0.502091 0.905765 3.34827 90 93 146 
0.682316 0.651733 4.74968 241 244 251 
0.648935 0.538639 4.6953 180 191 245 
1.12291 0.616423 5.21658 149 149 175 
-0.644504 0.164325 4.73791 148 166 240 
0.632181 0.660228 4.68286 70 67 112 
1.14224 -1.12309 5.42768 154 163 202 
-0.527549 0.862281 3.31988 46 54 119 
-0.65191 0.118299 4.71703 18 32 77 
-0.643152 0.108107 4.72787 18 27 60 
-0.682051 0.071235 4.67809 153 171 235 
2.12791 -0.00127095 6.75526 113 123 148 
0.578434 -0.325412 4.75163 37 37 49 
-0.513794 0.843509 3.34717 56 57 113 
-0.510863 0.824538 3.35261 244 244 252 
-0.504417 0.912573 3.33362 201 205 230 
-0.555377 0.801244 3.29225 189 200 246 
-0.548938 0.798614 3.29639 155 161 221 
-0.516323 0.806264 3.34026 195 209 254 
-0.509504 0.908822 3.34387 238 240 252 
-1.23217 -0.105168 3.74405 138 151 195 
-0.476805 -0.449568 3.54911 36 34 45 
-1.2071 0.571237 3.66913 49 58 91 
0.718495 0.731103 4.81801 164 177 209 
2.27305 -0.175628 6.68756 106 107 128 
-1.47864 0.355691 3.29857 30 54 114 
-1.47894 0.315044 3.30877 39 64 120 
-1.48192 0.504942 3.31573 88 92 119 
-0.676428 0.117141 4.70302 20 28 49 
-1.47013 0.251963 3.32772 175 199 245 
-0.568135 0.8086 3.29195 92 80 104 
-0.490037 -0.517403 3.59018 27 30 47 
-1.22263 0.44561 3.67743 240 249 255 
-1.22901 -0.105342 3.73922 148 163 206 
-0.553838 0.88406 3.26317 48 65 134 
-0.52914 0.850925 3.28618 221 225 255 
-0.559194 0.833416 3.30165 55 60 128 
-0.514222 0.805028 3.34059 173 183 244 
-0.504845 -0.709605 3.7848 51 42 71 
-0.688237 0.165003 4.66486 84 88 136 
-1.59384 0.248008 3.09723 157 151 187 
0.67646 0.621793 4.68509 94 106 154 
-1.44588 0.374223 3.20021 20 49 117 
1.6322 -1.49355 5.98776 164 170 196 
-0.572118 0.928454 3.32822 47 27 78 
-1.55771 0.376966 3.10132 155 158 191 
-0.564141 0.822867 3.30271 207 204 249 
-0.58459 0.388145 3.46411 135 142 171 
2.10154 0.702274 6.59123 121 127 153 
1.3642 -1.13796 5.6948 59 39 66 
-0.629759 0.0937078 4.68525 20 36 96 
-1.1807 0.782235 3.52567 131 163 214 
-1.39795 0.246891 3.39728 42 41 72 
1.85767 -2.01156 6.3681 52 58 92 
1.23912 1.05644 5.04775 51 66 107 
-0.682102 0.0902537 4.68273 24 31 86 
1.9489 -1.27526 6.33193 127 125 147 
-0.500611 0.890344 3.34587 110 111 155 
1.63756 -0.355722 6.69546 47 42 74 
-1.21901 0.871702 3.63664 90 124 169 
0.638937 0.53795 4.72281 80 73 115 
1.46443 -0.302137 6.54077 94 95 115 
-1.16354 -0.242726 4.12859 71 86 119 
0.628209 0.545919 4.66386 155 161 211 
-1.447 0.49531 3.24755 94 101 147 
-0.724996 0.188243 4.98819 65 68 109 
-0.691298 0.161617 4.6834 110 117 172 
-1.19305 -0.103752 3.6854 197 216 246 
-1.4562 0.262695 3.2518 28 43 100 
-1.48916 0.272247 3.33861 68 56 120 
-0.554758 0.920104 3.28389 160 143 198 
-0.561287 0.906322 3.26905 178 172 218 
-1.40495 0.281997 3.33533 38 39 95 
-1.43323 0.271263 3.2004 72 61 140 
-1.38032 0.270956 3.07294 168 158 218 
-1.55296 0.295224 3.25887 150 176 201 
-1.42369 0.30797 3.34201 68 78 150 
-0.507855 0.906608 3.34842 206 219 254 
-1.20688 -0.238605 3.79092 36 39 72 
-0.560499 0.818338 3.28291 207 204 249 
-0.597246 0.404054 3.56845 20 29 60 
0.684988 0.54159 4.73301 83 83 135 
-1.45726 0.376839 3.22613 32 60 134 
-1.4457 0.400543 3.401 37 35 98 
-1.47531 0.394485 3.30139 111 94 146 
-1.38637 0.389575 3.26417 46 49 102 
-1.54215 0.383749 3.15815 65 68 113 
-1.58224 0.389734 3.14781 124 116 139 
0.682016 0.585271 4.74025 71 76 134 
-1.42949 0.547451 3.44352 34 31 60 
0.677562 0.623314 4.69538 94 106 154 
0.633366 0.647243 4.69989 154 156 204 
0.675544 0.65741 4.6526 60 62 111 
0.635834 0.649674 4.6144 148 142 190 
0.633497 0.659633 4.67247 68 67 109 
0.663127 0.648487 4.62228 195 196 244 
-0.718771 0.162672 4.88548 126 138 198 
1.84093 -1.9962 6.31501 52 58 92 
-0.566276 0.894341 3.28345 102 89 132 
-1.17935 0.829057 3.56381 96 118 159 
1.64172 -0.35617 6.71482 47 42 74 
1.94431 -1.27312 6.31593 129 125 148 
-1.19567 0.743791 3.54228 117 136 179 
-0.504656 0.90381 3.32782 229 235 251 
-1.22398 0.874818 3.65058 90 124 169 
1.96756 -1.64231 6.43823 60 64 101 
-1.4475 0.259643 3.20736 180 209 253 
-1.36425 0.494963 3.24845 60 90 140 
0.397253 -0.293701 4.45771 55 52 73 
0.643469 0.540605 4.70708 167 182 239 
-1.39755 0.361428 3.26935 73 84 163 
0.676609 0.658817 4.66265 60 62 111 
-1.38514 0.383224 3.25696 37 35 98 
0.668736 0.655464 4.67548 199 200 248 
-1.41335 0.274083 3.14487 164 156 215 
0.642971 0.657317 4.68409 183 185 236 
-1.41472 0.28629 3.34676 29 57 130 
-1.49465 0.394591 3.33823 104 83 158 
-1.50201 0.274099 3.33488 120 154 199 
-1.64776 0.226726 3.21129 141 152 198 
-0.695499 0.162588 4.70932 110 117 172 
0.669837 0.603994 4.73666 93 97 161 
0.652014 0.598278 4.69723 62 77 134 
0.667882 0.599656 4.77447 217 230 255 
-0.516466 0.91924 3.39836 194 207 242 
0.600894 -0.328719 4.68965 54 58 93 
-1.54595 0.382127 3.108 138 165 195 
0.672079 0.539315 4.70051 177 187 238 
-1.41216 0.480576 3.16728 84 87 132 
1.68944 -2.01267 6.19391 45 41 78 
-1.43002 0.292493 3.19336 76 86 155 
-1.56213 0.296486 3.2782 150 176 201 
-0.57583 0.93175 3.34207 52 35 77 
0.138938 -1.14428 4.37981 116 115 131 
-1.23676 -0.107359 3.81957 198 214 247 
1.85989 -1.90585 6.34396 80 99 139 
-1.19855 0.42724 3.60154 178 196 232 
-1.18352 0.743488 3.54786 134 165 209 
-0.513807 0.940409 3.40406 57 48 101 
1.39385 -1.15398 5.74769 55 45 72 
-1.22556 0.810159 3.65574 125 158 211 
1.35444 -1.13185 5.6566 48 30 56 
0.599001 -0.325223 4.79021 92 100 123 
-0.555863 0.919859 3.26139 42 35 66 
-1.50138 0.195531 3.12639 63 66 107 
-1.38964 0.503633 3.31231 51 81 133 
-1.18942 -0.235651 3.7324 40 43 76 
1.95954 -1.49346 6.38807 53 53 89 
0.62927 0.529685 4.65688 97 87 122 
1.01481 -0.0367167 5.18661 58 64 90 
1.23762 1.00447 5.06088 57 65 102 
1.48834 -1.25227 5.90999 63 47 76 
1.87704 -2.03519 6.44905 57 51 79 
-1.2385 0.882854 3.68794 95 129 175 
0.574113 -0.316216 4.67348 48 51 68 
0.632095 0.657318 4.69501 89 82 124 
-1.1888 0.827987 3.61729 99 128 172 
-1.23437 0.766677 3.65808 124 145 190 
1.71883 -1.54782 6.10333 59 60 91 
0.398247 -0.295405 4.47974 45 42 61 
-1.47001 0.358185 3.27512 42 69 140 
-0.556883 0.886674 3.27954 41 59 125 
-0.506036 0.884648 3.31046 31 41 112 
0.657447 0.606058 4.68681 214 231 255 
-1.38429 0.38744 3.23267 21 48 103 
-0.564098 0.888067 3.26242 108 94 129 
-1.14191 0.407409 3.43058 185 199 234 
-1.34205 0.359136 3.14322 207 223 255 
-0.64779 0.161986 4.81661 128 151 221 
0.663464 0.531574 4.60698 201 210 251 
-1.56606 0.39336 3.22363 175 179 208 
-1.4725 0.502854 3.30452 84 87 132 
-1.44644 0.296829 3.23154 63 71 143 
-1.45425 0.383302 3.2445 78 57 132 
-0.571137 0.940722 3.33981 29 28 59 
1.01467 -0.0364846 5.18052 55 61 87 
1.63521 -1.57259 6.00603 43 42 73 
-1.41622 0.543088 3.41398 34 31 60 
-0.642454 0.0617961 4.77579 74 94 157 
-0.639314 0.080974 4.77799 128 151 219 
1.82593 -1.87172 6.23512 80 92 130 
1.92486 -1.61231 6.31155 69 73 110 
-0.676617 0.132824 4.64059 16 24 70 
0.641057 0.651821 4.65337 220 227 255 
0.381724 0.736567 4.32899 112 137 168 
-0.555008 0.791172 3.26638 69 50 80 
1.21124 0.985793 5.08319 128 131 164 
1.32518 -1.09431 5.67572 55 36 55 
-1.32076 0.477552 3.14414 55 87 136 
-1.54238 0.310531 3.14611 92 133 179 
-1.58037 0.280244 3.13928 160 165 195 
-1.53858 0.385003 3.14241 47 61 98 
1.98923 -0.00616359 6.73632 90 92 115 
-1.17796 0.731845 3.48914 113 130 174 
-1.18871 0.834342 3.59115 105 126 169 
-0.519725 0.937933 3.42113 237 240 255 
1.69044 -2.01788 6.20506 61 55 89 
0.598352 -0.326398 4.67664 73 78 116 
-0.689763 0.122483 4.96302 47 63 125 
1.04087 0.165101 5.21299 122 133 163 
1.37981 -1.14614 5.69383 65 62 83 
-1.49499 0.184813 3.1285 142 140 164 
-1.36737 0.52382 3.29193 31 28 55 
-1.59581 0.246384 3.10494 185 188 231 
-1.42903 0.260309 3.15967 178 200 241 
-1.38476 0.268922 3.26279 21 42 99 
-1.47703 0.296569 3.49945 28 35 89 
-1.39137 0.302711 3.26097 45 57 131 
-1.49436 0.344031 3.40078 46 43 112 
-1.41836 0.329513 3.25547 50 80 152 
-1.3689 0.350469 3.19731 44 64 137 
0.681675 0.664331 4.70786 77 73 124 
0.672561 0.661964 4.71821 217 222 254 
0.636251 0.6498 4.63494 207 212 252 
-0.59331 0.388651 3.50411 158 172 199 
-0.624635 0.421224 3.72436 30 41 73 
0.629134 0.642311 4.65931 180 187 233 
-1.36921 0.366957 3.20301 213 227 255 
-1.50231 0.390434 3.32822 21 38 110 
0.634981 0.549559 4.70359 169 181 231 
0.662848 0.595804 4.67533 76 80 144 
0.645902 0.597242 4.68052 69 82 127 
0.620746 0.544293 4.59885 196 204 243 
-1.33007 0.372136 3.10579 21 48 103 
-1.43975 0.392096 3.24327 66 56 90 
1.41713 -1.19838 5.77745 63 47 73 
0.576213 -0.321239 4.72231 40 38 52 
-0.503645 0.892236 3.36675 97 93 143 
-1.16741 0.732559 3.49501 137 168 212 
1.34719 -1.10683 5.71685 58 55 74 
1.68103 -1.61139 6.16834 43 40 69 
0.384835 0.747861 4.39296 111 133 170 
-0.57196 0.929929 3.31867 33 29 62 
0.147935 -1.14198 4.31612 36 30 40 
-1.60177 0.207492 3.33669 65 65 103 
0.997902 0.342052 5.09249 56 57 85 
-1.40334 0.477225 3.16135 168 175 227 
0.982373 0.568601 5.03094 78 82 120 
1.94658 -1.28219 6.33993 109 107 131 
-1.22849 0.823261 3.63895 109 122 164 
1.87111 -2.0602 6.52781 84 75 104 
-0.520466 0.927511 3.33073 164 149 206 
1.4236 -1.20852 5.78559 57 47 71 
1.97842 -1.6576 6.49039 59 61 99 
-1.16553 0.549791 3.53716 49 61 99 
0.45258 -0.136141 4.5501 103 101 123 
1.4624 -1.23401 5.8019 44 30 55 
-0.580503 -0.487783 3.55097 103 99 114 
-1.19731 0.840101 3.61757 109 128 171 
1.22216 0.99498 5.00259 49 59 94 
-0.64663 0.0592404 4.73075 75 93 159 
-0.500053 -0.709365 3.76359 26 23 42 
-1.49612 0.310227 3.5209 202 220 255 
-1.2126 0.531674 3.62342 227 243 255 
0.686754 0.655222 4.76224 242 245 252 
-1.43806 0.28791 3.40569 25 35 84 
-1.47856 0.377128 3.45792 46 49 118 
-1.51972 0.277322 3.36183 178 200 241 
-0.563779 0.910354 3.29168 215 215 251 
-1.61135 0.222394 3.13796 160 167 213 
0.662777 0.593384 4.65485 70 76 134 
0.686423 0.597542 4.78971 78 79 133 
0.658612 0.584128 4.68472 236 242 255 
-0.5591 0.806339 3.3153 183 193 246 
-0.510739 0.799639 3.31264 195 209 254 
-1.53672 0.321452 3.44083 45 56 122 
0.645915 0.558056 4.77895 197 210 254 
-1.49973 0.179417 3.11748 61 70 111 
-1.4383 0.314857 3.37015 45 53 126 
-1.47252 0.405919 3.41477 201 221 255 
-1.11089 -0.0976673 3.42818 185 204 236 
-1.32401 0.475377 3.93791 119 140 193 
1.8425 -2.00405 6.33172 50 62 88 
-1.58992 0.280543 3.15734 145 146 176 
-1.44262 0.244333 3.27601 162 193 239 
-0.563664 0.884293 3.2407 95 80 113 
1.83131 -1.87647 6.25219 83 98 137 
-1.5573 0.382939 3.12649 142 167 197 
0.694452 0.549052 4.78577 67 74 129 
1.70166 -1.575 6.13098 39 46 75 
1.04405 -0.969921 5.24827 78 92 131 
-1.1464 0.541934 3.48072 49 58 91 
1.68565 -1.58915 6.09575 121 136 159 
-1.25581 0.457005 3.76705 230 232 253 
-1.50388 0.411006 3.38794 65 59 85 
-1.47621 0.501346 3.30898 81 77 110 
-1.22591 0.34054 2.86531 16 37 94 
-1.4691 0.404352 3.4003 197 212 255 
-0.646833 0.129606 4.75655 17 26 59 
0.692811 0.56905 4.82299 241 244 251 
-1.44114 0.376509 3.19158 11 29 69 
-1.34154 0.48177 3.20171 30 57 104 
1.00755 -0.211562 5.12401 48 55 74 
-1.50253 0.380089 3.34387 198 213 255 
-1.49919 0.347352 3.06248 78 96 134 
-1.37588 0.347169 3.20865 38 62 126 
-1.39016 0.312338 3.17748 201 214 255 
-1.50533 0.302689 3.0819 57 88 135 
-1.36517 0.28751 3.05225 40 65 122 
-1.61674 0.284511 3.21071 143 144 175 
-1.45264 0.299697 3.41401 207 222 255 
-1.54852 0.304101 3.46314 206 218 255 
-1.27375 0.24673 3.00012 29 58 114 
-1.44979 0.263306 3.20291 189 212 254 
-1.39042 0.234702 3.15471 163 191 238 
-1.55848 0.216653 3.03585 168 175 219 
-0.569258 0.89168 3.26987 95 78 110 
-0.51178 0.922295 3.41025 90 93 146 
0.681229 0.650554 4.74116 241 244 251 
0.129304 -1.15271 4.41148 38 26 40 
1.73251 -1.57542 6.18798 49 47 71 
-0.646353 0.164467 4.75113 148 166 240 
0.700132 0.679519 4.83565 126 118 175 
0.619462 0.643952 4.58853 70 67 112 
-0.558589 0.842006 3.31081 47 53 111 
-0.675385 0.122312 4.88838 18 32 77 
-0.720511 0.121011 5.02049 22 26 53 
-0.669169 0.111937 4.91944 18 27 60 
0.651341 0.596156 4.74936 74 84 135 
-0.66676 0.0583825 4.86343 49 59 121 
-1.23582 -0.103337 3.8164 190 209 242 
-0.516823 0.833325 3.39493 244 244 252 
0.628859 0.633334 4.62088 229 236 255 
-0.563796 0.799973 3.30269 69 55 81 
-1.57215 0.384535 3.14249 116 130 169 
-1.56582 0.365801 3.19619 74 92 128 
-1.42218 0.358164 3.31682 34 56 116 
-1.33405 0.320143 2.97487 30 54 114 
-1.36056 0.311698 3.079 33 48 79 
-1.58619 0.320899 3.24646 61 93 142 
-1.3039 0.289903 2.97691 200 213 255 
0.603494 -0.326972 4.82212 118 132 159 
0.637686 0.591841 4.6498 74 87 131 
-1.34496 0.264843 3.17484 24 37 89 
-1.48957 0.270533 3.29417 188 211 253 
-1.4488 0.183362 3.00472 69 90 121 
1.23199 1.0944 4.86793 48 55 81 
-0.652619 0.166614 4.53748 150 168 232 
-1.16471 0.770228 3.46278 149 172 222 
-0.655839 0.0775758 4.82414 147 165 239 
0.985361 -0.03332 5.03921 55 59 84 
-0.543347 0.824497 3.22151 37 53 104 
0.567984 -0.3238 4.68519 39 38 52 
0.124015 -1.13276 4.315 26 23 30 
-0.513923 0.843922 3.33169 54 57 110 
1.0319 0.618109 5.16867 162 171 204 
1.40586 -1.18152 5.8664 50 35 56 
1.16246 -1.17393 5.57763 110 112 153 
-1.57293 0.30054 3.21072 83 109 146 
1.32958 -1.40916 5.76854 109 115 151 
0.670406 0.528539 4.62597 83 83 133 
1.55686 -0.613602 6.56256 23 21 34 
0.960957 -0.546357 5.1723 117 129 155 
0.929004 -0.428207 5.12269 89 97 133 
1.47722 -0.384163 6.58186 53 56 89 
1.56774 -0.372519 6.64851 136 140 165 
1.56452 -0.297113 6.64121 55 56 84 
0.551985 -0.113325 4.67422 60 58 80 
1.36047 0.200477 6.40053 139 142 197 
-0.566476 0.893734 3.28526 99 92 136 
-0.666218 0.868648 3.15806 122 119 130 
1.80793 -1.46515 6.16512 106 132 157 
1.95126 -1.47979 6.34052 70 93 125 
1.93865 -1.47327 6.31932 63 59 96 
0.135195 -1.10664 4.30571 159 154 174 
1.51776 -1.32845 5.86862 71 65 103 
1.07963 -1.24237 5.36888 131 140 181 
1.80839 -1.29854 6.22935 82 81 95 
1.29331 -1.12386 5.59472 99 88 120 
1.21121 -0.970782 5.4846 87 78 107 
1.57754 -1.05487 6.23644 111 109 130 
1.58717 -1.05849 6.25997 108 103 126 
1.56014 -1.04796 6.23753 116 107 124 
1.64609 -1.04834 6.3306 89 86 103 
-0.528152 -0.470088 3.47688 120 113 129 
0.94944 -0.35059 5.1379 149 163 192 
0.95427 -0.352879 5.16978 142 151 182 
1.55144 -0.367541 6.62546 67 70 103 
1.65601 -0.360742 6.71693 96 108 130 
1.66247 -0.356949 6.79613 65 68 101 
1.5033 -0.309057 6.57783 51 43 67 
1.46327 -0.301367 6.53469 100 102 117 
1.56116 -0.296565 6.62451 56 53 82 
1.35205 0.199949 6.35463 186 192 242 
1.34275 0.215849 6.35924 178 190 242 
1.46613 0.399443 6.49626 68 109 127 
0.432776 0.24912 4.50451 123 134 156 
0.685076 0.583707 4.76009 82 81 147 
1.0354 0.674916 5.16692 187 188 218 
0.513075 1.02238 4.44935 99 111 135 
0.460534 1.02436 4.40495 92 90 114 
0.797474 1.1388 4.76051 56 59 90 
0.00368845 1.07416 3.9473 93 102 119 
1.15206 -1.12536 5.44223 137 142 184 
1.39603 -1.15398 5.74287 76 74 98 
0.991051 0.762429 4.94463 48 56 102 
0.633186 0.636918 4.6891 166 177 231 
0.684445 0.580329 4.73967 115 114 172 
0.691363 0.561535 4.76806 213 214 232 
-0.559235 -0.471875 3.44799 141 139 150 
2.10236 0.7276 6.67709 32 29 58 
-0.634665 0.170277 4.74013 88 111 178 
1.35178 0.0995777 6.36314 108 108 170 
-1.11163 -0.232053 3.94254 70 83 115 
1.47086 -0.383294 6.55113 55 54 88 
1.51516 -0.290078 6.57205 84 92 113 
1.49926 -0.298784 6.59701 98 93 115 
1.45846 -0.301019 6.50724 102 99 120 
-0.505789 -0.989293 3.56226 47 45 59 
1.4652 -0.31335 6.5106 51 43 67 
1.53359 -0.305102 6.60391 60 51 78 
1.63887 -0.285656 6.69253 59 49 73 
1.60405 -0.282097 6.68356 101 98 117 
1.67547 -0.28169 6.75299 55 49 75 
1.64714 -0.275265 6.77566 92 89 106 
1.98914 -0.180235 6.67312 100 101 129 
1.57449 -1.34897 5.90832 70 63 97 
1.16724 -1.21982 5.45746 115 122 164 
1.70127 -1.30792 6.11564 117 115 136 
0.459589 1.03463 4.38786 157 156 172 
1.24979 1.10601 4.89742 52 71 104 
0.999989 1.10203 4.91118 52 58 94 
1.44174 -1.23418 5.79455 78 62 98 
0.468993 0.947318 4.40962 72 76 103 
-1.22225 0.674911 3.59766 88 110 151 
1.33913 -1.12917 5.68195 81 66 99 
-0.568528 0.927505 3.27634 118 110 134 
-1.53646 0.303573 3.25865 97 122 162 
1.80459 0.794222 6.69709 108 109 130 
1.54628 -1.04075 6.19611 101 102 120 
1.46141 0.397523 6.46467 61 100 117 
1.53015 -0.29567 6.64144 104 105 125 
1.25196 1.059 4.93731 45 54 87 
0.421799 0.919937 4.38607 114 128 154 
0.465835 1.03022 4.39813 66 68 93 
0.47739 1.03912 4.42589 128 133 152 
1.24925 1.01514 5.11968 87 96 137 
1.52776 -1.29337 5.88447 63 53 80 
1.40212 -1.24669 5.74563 78 75 106 
0.693093 0.669443 4.77536 54 56 113 
0.678402 0.666925 4.7661 220 223 255 
1.34251 -1.18183 5.64012 85 78 112 
1.44758 -1.20453 5.80983 64 66 91 
0.633921 0.646453 4.70335 195 207 247 
1.97679 -1.2838 6.42012 39 32 50 
0.68531 0.632304 4.76856 57 66 135 
0.663305 0.59607 4.72804 223 235 255 
0.63406 0.557932 4.70129 191 200 243 
2.11541 0.733817 6.72434 25 28 59 
0.607649 -0.336061 4.72868 60 66 90 
-0.495984 -0.449193 3.30841 125 119 133 
1.34704 0.144961 6.3874 70 71 138 
-0.493913 -0.465794 3.51403 107 103 117 
1.50227 -0.300752 6.6297 101 104 123 
1.46467 -0.305232 6.56422 102 99 120 
0.419839 -0.248459 4.51895 43 40 61 
1.6569 -0.360203 6.7861 52 57 87 
0.400804 -0.298148 4.52167 50 48 70 
0.594309 -0.322172 4.73152 105 116 144 
0.953477 -0.352121 5.15829 142 151 182 
0.485414 0.963289 4.4448 109 126 146 
1.49058 -0.388967 6.57746 114 120 144 
1.67086 -0.366231 6.78694 119 121 144 
-1.20446 0.674402 3.60074 124 146 193 
0.415184 -0.425846 4.55078 147 145 166 
1.43375 -0.313854 6.55023 94 96 117 
1.60251 -0.287088 6.71292 121 123 144 
1.64 -0.276609 6.7424 95 96 116 
1.67518 -0.273682 6.80117 105 104 122 
1.39365 -0.268036 6.44373 24 30 54 
1.83202 -1.33024 6.25187 118 114 141 
1.56437 -1.26716 5.92485 96 97 118 
0.817449 0.739588 4.91311 175 186 218 
-0.739882 -0.551985 3.9545 124 122 135 
1.057 -0.986826 5.3443 76 90 127 
0.57283 0.272644 4.67491 113 110 139 
1.62193 -0.369327 6.7248 131 123 144 
1.01727 -0.139598 5.19656 94 106 144 
-1.49265 0.272168 3.30581 150 185 227 
-0.656422 0.310232 4.70403 124 125 129 
-0.660478 0.106912 4.70663 150 169 238 
-0.623628 -0.500565 3.57559 127 119 134 
1.64806 -1.33371 6.00311 53 47 73 
1.82682 -1.32695 6.2271 118 112 138 
0.985565 -0.717402 5.21012 149 162 196 
0.987508 0.763973 4.93378 30 34 69 
1.44278 -1.20002 5.78877 58 56 80 
-0.709474 -0.552435 3.96931 27 24 31 
1.68682 -1.32025 6.05204 108 100 124 
1.99747 -0.00436674 6.7695 115 121 147 
2.1394 -0.00208608 6.75589 108 112 137 
1.00877 -0.0381189 5.14811 96 107 139 
1.54555 -0.369516 6.61084 63 66 99 
1.66817 -0.364417 6.77649 115 121 143 
1.43287 -0.304104 6.45478 54 47 65 
1.38765 -0.264451 6.41532 21 28 47 
1.51179 -0.290172 6.53283 89 95 119 
1.58637 -0.282914 6.62142 118 123 145 
1.60905 -0.287764 6.72984 122 119 138 
1.48133 -0.385382 6.53203 98 105 131 
2.01249 -0.00621039 6.86861 109 119 144 
0.418635 -0.248481 4.50236 55 50 70 
1.64997 -0.364934 6.77072 37 33 60 
1.46692 -0.385853 6.534 28 30 53 
1.03894 0.164846 5.19505 128 138 173 
-0.691194 0.157212 4.69305 158 173 240 
1.00819 0.344547 5.15738 56 58 83 
0.423538 0.924705 4.39497 131 139 162 
-0.55724 -0.489641 3.65706 125 121 135 
0.652935 0.6058 4.75181 57 70 123 
0.670517 0.606628 4.75923 68 70 131 
-1.48347 0.374589 3.29355 196 209 255 
-1.49059 0.303751 3.29748 63 63 91 
1.09998 -1.00559 5.36972 122 136 173 
2.01149 0.80148 6.79624 116 120 145 
1.58587 -1.28367 5.9815 97 87 111 
0.575656 0.271212 4.66162 126 129 162 
0.720384 0.731324 4.8148 171 182 212 
0.984115 -0.717042 5.19696 155 165 201 
-1.19477 0.836941 3.60716 98 119 166 
1.56296 -0.379861 6.73337 52 61 94 
-1.12022 0.0287701 3.89995 151 158 186 
0.545267 -0.11319 4.65505 43 41 55 
1.99792 -0.17934 6.70747 114 112 136 
1.41976 -0.311652 6.48301 112 118 142 
-0.683763 0.307365 4.67311 124 124 124 
-0.65716 0.292711 4.712 117 126 125 
1.4163 -1.20298 5.74919 59 51 74 
1.31644 -1.08681 5.64401 46 28 52 
1.05391 -0.980453 5.31055 81 93 131 
-0.647214 0.11505 4.70421 28 39 85 
-0.519282 0.923132 3.32537 218 218 255 
-0.642806 0.0657309 4.75834 107 128 195 
-0.559544 0.836162 3.30008 46 47 111 
-1.23297 0.448067 3.69715 250 255 255 
-0.538251 -0.458838 3.48367 36 33 40 
0.451867 -0.137145 4.53527 115 113 137 
0.602354 -0.32942 4.72287 41 42 63 
1.54319 -0.376491 6.62155 56 62 94 
1.64402 -0.364174 6.73427 37 33 60 
0.984914 -0.647248 5.19984 126 134 173 
0.687246 0.662469 4.7147 99 88 144 
0.633801 0.638578 4.66903 177 187 236 
0.682685 0.559292 4.72828 241 244 253 
-0.599295 -0.485142 3.60909 37 36 41 
-0.55856 0.921245 3.27229 26 32 58 
1.9921 -0.0039714 6.78701 109 119 146 
0.451521 -0.135345 4.51807 99 100 121 
1.06419 -0.438304 5.20679 32 39 47 
