ply                 
format ascii 1.0    
element vertex 1087
property float x    
property float y    
property float z    
property uchar red  
property uchar green
property uchar blue 
end_header          
-0.554523 0.920116 3.28168 160 143 198 
-0.558097 0.92124 3.28896 164 146 206 
-0.506027 0.904725 3.34 206 219 254 
-0.533313 0.866757 3.31288 203 223 255 
-0.536214 0.86123 3.30801 78 72 142 
-0.563896 0.809557 3.28681 47 45 94 
-0.687809 0.165442 4.6676 84 88 136 
-1.48103 0.264771 3.29736 104 137 190 
-1.43124 0.27882 3.36031 81 117 179 
-1.42612 0.278304 3.35396 44 78 142 
-1.416 0.285349 3.36464 53 54 110 
-1.42139 0.289001 3.36296 29 57 130 
-1.45465 0.339196 3.32192 183 191 253 
0.669467 0.603211 4.72319 76 84 149 
-1.4309 0.372824 3.34824 87 103 178 
-1.2245 0.449691 3.68193 203 206 237 
-1.56197 0.392009 3.20815 152 145 179 
-1.22101 0.446076 3.68349 220 233 250 
-1.42755 0.40276 3.33759 23 49 106 
0.693905 0.551482 4.76053 85 93 142 
-1.4239 0.393599 3.34895 40 43 110 
-1.43555 0.397782 3.33648 181 205 253 
-0.556755 0.923967 3.28203 56 41 80 
-0.501714 0.901666 3.34358 93 94 150 
-1.43264 0.404105 3.34382 55 88 142 
-1.21947 0.450109 3.69507 97 116 156 
-0.561942 0.819454 3.28963 207 204 249 
0.633313 0.655608 4.68405 68 65 112 
0.636515 0.659279 4.68246 59 57 106 
-0.502058 -0.660054 3.57933 66 69 102 
-1.20926 -0.106213 3.74517 160 183 215 
-1.54986 0.326143 3.25109 154 185 216 
-1.19767 0.753941 3.59779 107 141 186 
-1.22989 0.538479 3.66634 200 210 245 
-1.47754 0.300495 3.2975 98 106 171 
-1.47979 0.291015 3.2973 186 181 239 
1.00265 0.343129 5.12021 61 60 91 
-0.423643 -0.948654 3.69822 67 58 87 
-1.55636 0.279244 3.25229 123 149 184 
-1.57481 0.296321 3.2105 101 130 170 
-1.21413 0.754223 3.59638 119 140 185 
1.24098 1.05704 5.04868 51 66 107 
0.63771 0.535788 4.70139 80 73 115 
-0.588776 -0.49649 3.60925 114 110 125 
2.27398 0.743183 6.66556 94 93 125 
1.25379 1.14265 4.69854 49 62 96 
2.12269 1.06296 6.48333 47 68 113 
2.2652 -0.124113 6.71513 102 110 129 
0.634128 0.550324 4.69841 155 161 211 
0.682291 0.547236 4.76261 203 217 255 
-0.640631 0.0590668 4.73745 64 78 139 
-0.684646 0.0694332 4.67188 124 133 190 
-0.636833 0.0613988 4.7398 74 94 157 
-0.635121 0.0943891 4.72817 14 26 84 
-0.687987 0.160753 4.66816 110 117 172 
-0.640693 0.177754 4.72372 121 139 201 
-1.21361 -0.105309 3.75024 197 216 246 
-1.47714 0.266184 3.29934 28 43 100 
-1.48456 0.27201 3.29003 137 156 196 
-1.47693 0.279914 3.29997 72 61 140 
-1.41953 0.288446 3.3603 30 53 123 
-1.48019 0.284172 3.29659 127 126 183 
-1.4813 0.291396 3.29907 168 158 218 
-1.54987 0.294911 3.25268 150 176 201 
-1.45595 0.336583 3.31684 52 46 120 
2.11913 0.707783 6.63741 104 109 138 
-1.20272 0.79675 3.59271 131 163 214 
-1.2285 0.441323 3.6787 102 110 173 
-0.505275 -0.6192 3.57228 68 71 102 
0.138475 -1.12959 4.31992 116 115 131 
-1.22645 0.546149 3.66794 239 242 255 
1.93576 -1.47002 6.2994 59 63 98 
-0.68553 0.154265 4.66468 126 138 198 
-1.23157 -0.107264 3.74542 148 163 206 
1.22947 1.00542 5.15565 110 109 141 
-1.19897 0.857181 3.57696 90 124 169 
-1.21377 0.859296 3.57929 107 124 170 
2.27213 0.74223 6.66155 94 93 125 
-1.48634 0.26706 3.29428 180 209 253 
1.25459 1.14229 4.69553 56 71 110 
-1.42464 0.387688 3.34221 195 214 254 
-1.45896 0.33673 3.32089 46 43 112 
-1.44998 0.335568 3.32803 64 88 158 
-1.48505 0.289242 3.30548 164 156 215 
-1.42119 0.288568 3.36284 29 57 130 
-1.47799 0.279966 3.30106 52 40 116 
-1.42771 0.277469 3.35741 48 80 141 
-1.42531 0.273912 3.36427 43 60 114 
-1.47321 0.26921 3.30277 50 40 103 
-0.514827 0.804788 3.34316 148 148 208 
-0.55569 0.801224 3.29475 189 200 246 
-1.22571 0.446361 3.67898 230 232 253 
-0.659903 0.123998 4.70764 149 170 235 
-0.665603 0.11604 4.70024 24 27 70 
-0.563978 0.908223 3.28331 147 139 186 
0.663127 0.595157 4.73229 217 230 255 
-0.511103 0.895698 3.34245 62 77 144 
-0.67679 0.175437 4.68905 90 94 142 
-0.685622 0.153721 4.66504 119 131 191 
-0.581899 0.393592 3.47825 30 41 73 
-1.47585 0.300883 3.29654 76 86 155 
-1.54949 0.294049 3.25171 150 176 201 
-1.21595 -0.105867 3.75459 198 214 247 
-1.22981 0.440821 3.67974 101 109 171 
-1.20333 0.755066 3.60651 134 165 209 
0.634714 0.550864 4.7057 141 148 200 
-1.54928 0.325824 3.24829 161 192 223 
2.27032 0.720763 6.68194 121 130 161 
-1.20292 0.795286 3.58878 125 158 211 
-0.505617 0.82015 3.34882 202 207 227 
0.637753 0.536715 4.71218 97 87 122 
-0.500257 0.898566 3.34004 116 110 156 
2.281 -0.000546056 6.75816 113 120 149 
-0.504067 -0.617798 3.56838 62 63 94 
0.581993 -0.318353 4.72787 48 51 68 
-1.21405 0.754553 3.5986 124 145 190 
-1.21563 0.859564 3.58208 102 119 165 
0.40208 -0.298086 4.51224 45 42 61 
-1.42687 0.309732 3.34863 56 70 141 
-0.554387 0.918386 3.28231 203 199 250 
-0.561811 0.905936 3.27521 190 187 230 
-1.47923 0.266015 3.30095 35 57 114 
0.671275 0.603807 4.73782 93 97 161 
-0.532266 0.868082 3.30863 230 241 255 
-1.43064 0.394625 3.33748 125 145 208 
-1.46935 0.391982 3.29753 197 200 253 
-0.513726 0.803379 3.33575 176 185 244 
-1.23394 0.440809 3.68865 101 109 171 
-0.675654 0.175388 4.67898 113 120 174 
-0.505604 0.819916 3.34881 190 196 222 
0.679009 0.661058 4.72526 215 219 254 
-0.641268 0.0591414 4.72907 70 86 148 
-0.56102 0.924394 3.28237 29 28 59 
-1.2005 0.795157 3.58911 115 148 201 
0.683119 0.585576 4.7337 71 76 134 
1.15767 -1.13343 5.46719 124 126 165 
-0.632268 0.0794855 4.72867 128 151 219 
-1.20216 0.753808 3.601 127 161 209 
-1.46268 0.247262 3.32446 129 159 209 
-1.23053 0.450664 3.67844 105 107 164 
1.98868 -1.42256 6.3538 153 167 193 
0.635173 0.533615 4.68762 97 87 122 
-0.558024 0.796712 3.28858 69 50 80 
0.607471 -0.335333 4.71069 63 70 96 
2.2667 0.742833 6.65687 112 116 145 
-1.23056 0.530095 3.66497 93 115 165 
1.24221 1.00596 5.07209 73 77 115 
1.95299 -1.28036 6.341 118 116 140 
1.00343 0.343416 5.11231 50 54 81 
-1.18413 0.825379 3.6011 109 132 176 
-1.21384 0.754112 3.59703 113 130 174 
-0.554208 0.801283 3.30495 150 151 207 
-0.508553 0.918168 3.34947 237 240 255 
-0.505772 0.819603 3.34727 227 230 247 
0.603452 -0.328155 4.70587 73 78 116 
2.29348 0.00138839 6.81358 121 135 164 
-1.47782 0.270259 3.30706 32 33 89 
-1.47972 0.284745 3.29465 127 126 183 
-1.47655 0.304546 3.2987 70 89 155 
-1.45466 0.334756 3.30967 46 43 112 
-0.58903 0.385701 3.48039 158 172 199 
-1.43124 0.384367 3.34967 213 227 255 
0.647243 0.540515 4.70673 174 189 246 
0.664032 0.612869 4.72453 222 237 255 
-1.48184 0.384571 3.28325 21 38 110 
-1.44171 0.398466 3.33952 196 213 255 
1.01245 0.168028 5.15887 88 94 128 
-1.20229 0.754699 3.60121 137 168 212 
-1.23665 0.535097 3.65441 147 168 211 
1.46546 -1.23418 5.80437 44 30 55 
0.690293 0.669783 4.74795 54 51 104 
-0.675689 0.0578408 4.698 125 143 207 
-1.22548 0.537244 3.66378 227 243 255 
-1.48857 0.272124 3.29341 178 200 241 
-0.657845 0.128785 4.70173 149 169 238 
-0.505067 0.914521 3.33969 201 205 230 
-0.508976 0.908708 3.34564 226 231 250 
-0.555957 0.884722 3.2837 32 48 108 
-1.43283 0.383313 3.35103 211 224 255 
-0.533778 0.870938 3.31154 239 243 255 
0.647753 0.53875 4.69007 199 214 253 
-0.507546 0.822635 3.35601 227 230 247 
-0.685457 0.158946 4.67839 146 162 224 
-0.560358 0.798014 3.29181 55 41 76 
-1.46945 0.30751 3.29056 45 56 122 
-1.43845 0.396403 3.33525 201 221 255 
1.00059 0.333646 5.10558 101 104 137 
1.02491 0.60144 5.10991 133 147 182 
0.68446 0.623034 4.7375 59 69 130 
0.579755 -0.323736 4.73153 36 36 48 
-1.24114 0.536638 3.66116 142 156 201 
-0.573412 -0.465689 3.45238 34 35 40 
1.05466 -0.978644 5.29166 78 92 131 
1.96928 0.775548 6.61796 121 126 155 
2.26417 0.743469 6.65827 117 123 149 
-0.682464 0.288148 4.65885 84 85 89 
-1.22765 0.446788 3.68404 230 232 253 
-1.46899 0.401627 3.3098 65 59 85 
-1.47812 0.501939 3.31434 81 77 110 
0.682773 0.560709 4.74425 241 244 251 
0.681208 0.539719 4.69855 75 77 134 
0.607862 -0.335081 4.69466 74 83 112 
0.634499 0.532884 4.69237 104 93 127 
-1.43564 0.362938 3.34908 38 62 126 
-1.47611 0.355808 3.29359 26 47 110 
1.13347 -1.14924 5.43196 104 116 156 
-0.501393 0.905134 3.34563 90 93 146 
0.682839 0.650997 4.74383 241 244 251 
0.64945 0.538073 4.69006 180 191 245 
1.12309 0.615584 5.20909 149 149 175 
-0.643058 0.164085 4.73322 148 166 240 
0.632698 0.659558 4.67758 70 67 112 
1.14284 -1.12264 5.42196 154 163 202 
-0.526948 0.861759 3.3175 46 54 119 
-0.651844 0.118424 4.71888 18 32 77 
-0.641728 0.107836 4.72327 18 27 60 
-0.68063 0.0709939 4.6736 153 171 235 
2.12651 -0.00157201 6.74034 113 123 148 
0.57907 -0.325396 4.74712 37 37 49 
-0.513191 0.842997 3.34475 56 57 113 
-0.510262 0.824039 3.3502 244 244 252 
-0.503817 0.912016 3.3312 201 205 230 
-0.55478 0.800766 3.28992 189 200 246 
-0.548344 0.798137 3.29407 155 161 221 
-0.516233 0.806428 3.33974 195 209 254 
-0.508896 0.908264 3.34143 238 240 252 
-1.2308 -0.105196 3.74089 138 151 195 
-0.476273 -0.449467 3.54689 36 34 45 
-1.20518 0.570357 3.66476 49 58 91 
0.718983 0.730317 4.81221 164 177 209 
2.27131 -0.1756 6.6726 106 107 128 
-1.47707 0.35536 3.29573 30 54 114 
-1.47737 0.314745 3.30592 39 64 120 
-1.48029 0.504479 3.31281 88 92 119 
-0.67499 0.116866 4.69845 20 28 49 
-1.46858 0.251715 3.32487 175 199 245 
-0.567526 0.808113 3.28962 92 80 104 
-0.48948 -0.517281 3.58791 27 30 47 
-1.22119 0.445195 3.67421 240 249 255 
-1.22764 -0.105369 3.73607 148 163 206 
-0.55354 0.883979 3.26283 48 65 134 
-0.528853 0.850869 3.28593 221 225 255 
-0.558904 0.833365 3.30141 55 60 128 
-0.513827 0.804843 3.33976 173 183 244 
-0.504481 -0.709745 3.78414 51 42 71 
-0.686203 0.16466 4.65637 84 88 136 
-1.59805 0.248748 3.10601 157 151 187 
0.677538 0.621635 4.6839 94 106 154 
-1.45008 0.3754 3.21015 20 49 117 
1.62901 -1.48964 5.96678 164 170 196 
-0.571895 0.928551 3.32848 47 27 78 
-1.56224 0.378151 3.11096 155 158 191 
-0.563855 0.822819 3.30248 207 204 249 
-0.584466 0.388194 3.46488 135 142 171 
2.10118 0.701081 6.57994 121 127 153 
1.36239 -1.13564 5.67813 59 39 66 
-0.627426 0.0933982 4.67394 20 36 96 
-1.18293 0.783953 3.53332 131 163 214 
-1.40442 0.248145 3.41381 42 41 72 
1.85271 -2.0048 6.34118 52 58 92 
1.24049 1.05625 5.04606 51 66 107 
-0.679472 0.089929 4.67019 24 31 86 
1.94486 -1.27192 6.30917 127 125 147 
-0.500466 0.890582 3.34671 110 111 155 
1.63577 -0.355265 6.67598 47 42 74 
-1.22218 0.874271 3.64726 90 124 169 
0.639966 0.537736 4.72116 80 73 115 
1.46319 -0.301829 6.52284 94 95 115 
-1.15951 -0.242122 4.11574 71 86 119 
0.629218 0.545713 4.66233 155 161 211 
-1.45045 0.496598 3.25595 94 101 147 
-0.722069 0.187697 4.97455 65 68 109 
-0.688558 0.160785 4.66893 110 117 172 
-1.1923 -0.103749 3.68387 197 216 246 
-1.45987 0.263439 3.26062 28 43 100 
-1.49421 0.273275 3.35066 68 56 120 
-0.55453 0.920157 3.28403 160 143 198 
-0.560949 0.906191 3.26851 178 172 218 
-1.41023 0.283156 3.34859 38 39 95 
-1.43915 0.272472 3.21426 72 61 140 
-1.38556 0.27205 3.08515 168 158 218 
-1.55825 0.296335 3.27068 150 176 201 
-1.42698 0.308774 3.35041 68 78 150 
-0.507571 0.906625 3.34839 206 219 254 
-1.20569 -0.238495 3.78805 36 39 72 
-0.560201 0.81826 3.28257 207 204 249 
-0.596847 0.403966 3.5679 20 29 60 
0.686004 0.541353 4.73119 83 83 135 
-1.46118 0.377946 3.23545 32 60 134 
-1.45019 0.401912 3.41236 37 35 98 
-1.4794 0.395684 3.31122 111 94 146 
-1.39057 0.390849 3.27473 46 49 102 
-1.54653 0.384933 3.16775 65 68 113 
-1.58631 0.390835 3.15656 124 116 139 
0.683095 0.585086 4.73884 71 76 134 
-1.43493 0.549692 3.45752 34 31 60 
0.678622 0.623132 4.694 94 106 154 
0.634514 0.64717 4.69926 154 156 204 
0.676646 0.657296 4.65171 60 62 111 
0.636937 0.649596 4.61378 148 142 190 
0.634555 0.65947 4.67119 68 67 109 
0.664239 0.648404 4.62164 195 196 244 
-0.716086 0.162224 4.87327 126 138 198 
1.83613 -1.98963 6.28876 52 58 92 
-0.566008 0.894324 3.28333 102 89 132 
-1.18181 0.831056 3.57231 96 118 159 
1.63994 -0.355714 6.6953 47 42 74 
1.94027 -1.26978 6.29318 129 125 148 
-1.19822 0.745609 3.55085 117 136 179 
-0.504373 0.903812 3.32774 229 235 251 
-1.2273 0.877497 3.66166 90 124 169 
1.9627 -1.63723 6.41238 60 64 101 
-1.45275 0.260671 3.21962 180 209 253 
-1.36774 0.496333 3.25744 60 90 140 
0.39783 -0.293767 4.45352 55 52 73 
0.644474 0.540373 4.70531 167 182 239 
-1.40363 0.3631 3.28428 73 84 163 
0.677717 0.658704 4.66176 60 62 111 
-1.38809 0.384126 3.26451 37 35 98 
0.669863 0.655367 4.6747 199 200 248 
-1.41791 0.275042 3.1556 164 156 215 
0.64408 0.657205 4.68317 183 185 236 
-1.42161 0.287797 3.36386 29 57 130 
-1.499 0.395857 3.34869 104 83 158 
-1.50618 0.27496 3.34483 120 154 199 
-1.65262 0.227497 3.22142 141 152 198 
-0.693321 0.162223 4.7 110 117 172 
0.670867 0.603763 4.73487 93 97 161 
0.65306 0.598087 4.69578 62 77 134 
0.669001 0.5995 4.77324 217 230 255 
-0.516241 0.919401 3.39885 194 207 242 
0.601314 -0.3287 4.68371 54 58 93 
-1.54931 0.383041 3.11533 138 165 195 
0.673095 0.539093 4.69884 177 187 238 
-1.41644 0.482124 3.17753 84 87 132 
1.68524 -2.00617 6.16871 45 41 78 
-1.4331 0.293195 3.20079 76 86 155 
-1.56699 0.297513 3.28909 150 176 201 
-0.575626 0.931888 3.34247 52 35 77 
0.139473 -1.14325 4.37341 116 115 131 
-1.23478 -0.107271 3.81438 198 214 247 
1.85509 -1.89965 6.31774 80 99 139 
-1.20624 0.430133 3.6257 178 196 232 
-1.18608 0.745331 3.55657 134 165 209 
-0.513588 0.940596 3.40462 57 48 101 
1.39194 -1.15159 5.73061 55 45 72 
-1.22912 0.812794 3.66753 125 158 211 
1.35267 -1.12957 5.64018 48 30 56 
0.599409 -0.325168 4.78354 92 100 123 
-0.555452 0.919612 3.26043 42 35 66 
-1.50653 0.196283 3.13769 63 66 107 
-1.39325 0.50506 3.32164 51 81 133 
-1.1887 -0.235619 3.73095 40 43 76 
1.95507 -1.48917 6.3637 53 53 89 
0.630264 0.529469 4.65527 97 87 122 
1.01512 -0.0369829 5.17953 58 64 90 
1.23888 1.00419 5.05873 57 65 102 
1.48601 -1.24943 5.89126 63 47 76 
1.87189 -2.02817 6.4212 57 51 79 
-1.24217 0.885789 3.7001 95 129 175 
0.574592 -0.316229 4.66798 48 51 68 
0.633171 0.657163 4.69378 89 82 124 
-1.19158 0.830209 3.62689 99 128 172 
-1.23817 0.769301 3.67049 124 145 190 
1.71528 -1.54361 6.0813 59 60 91 
0.398812 -0.295451 4.47521 45 42 61 
-1.47494 0.359488 3.2868 42 69 140 
-0.556526 0.88652 3.2789 41 59 125 
-0.50572 0.884575 3.31012 31 41 112 
0.658502 0.60588 4.68547 214 231 255 
-1.38957 0.389011 3.24568 21 48 103 
-0.563747 0.88791 3.26178 108 94 129 
-1.14364 0.408124 3.43653 185 199 234 
-1.34603 0.360269 3.15312 207 223 255 
-0.645604 0.16161 4.8068 128 151 221 
0.664457 0.531372 4.60558 201 210 251 
-1.57038 0.394553 3.23321 175 179 208 
-1.47614 0.504217 3.31339 84 87 132 
-1.45089 0.297829 3.24212 63 71 143 
-1.45876 0.384587 3.25522 78 57 132 
-0.570892 0.9408 3.33998 29 28 59 
1.01509 -0.0366614 5.17417 55 61 87 
1.63193 -1.56837 5.98465 43 42 73 
-1.42012 0.544727 3.42418 34 31 60 
-0.640092 0.0615599 4.76453 74 94 157 
-0.636662 0.0806562 4.76462 128 151 219 
1.82145 -1.8659 6.21029 80 92 130 
1.9203 -1.60751 6.28696 69 73 110 
-0.674436 0.132488 4.63094 16 24 70 
0.642114 0.651666 4.65217 220 227 255 
0.382686 0.736655 4.32929 112 137 168 
-0.554491 0.790784 3.26475 69 50 80 
1.21252 0.985534 5.08112 128 131 164 
1.32351 -1.09214 5.65937 55 36 55 
-1.32318 0.478499 3.15043 55 87 136 
-1.54691 0.311532 3.15597 92 133 179 
-1.58519 0.281191 3.1495 160 165 195 
-1.54285 0.386164 3.15176 47 61 98 
1.98737 -0.00655285 6.71902 90 92 115 
-1.18002 0.733339 3.49619 113 130 174 
-1.1913 0.83644 3.60008 105 126 169 
-0.519532 0.938175 3.42189 237 240 255 
1.68619 -2.01131 6.17962 61 55 89 
0.598805 -0.326402 4.67107 73 78 116 
-0.686925 0.122083 4.94933 47 63 125 
1.04142 0.164696 5.20706 122 133 163 
1.37797 -1.14382 5.67717 65 62 83 
-1.49968 0.185469 3.13887 142 140 164 
-1.37088 0.525282 3.3011 31 28 55 
-1.60065 0.247221 3.11497 185 188 231 
-1.43355 0.261208 3.17026 178 200 241 
-1.38961 0.26995 3.27489 21 42 99 
-1.48336 0.297971 3.51531 28 35 89 
-1.39726 0.304087 3.27548 45 57 131 
-1.50101 0.34569 3.41674 46 43 112 
-1.42304 0.330693 3.26688 50 80 152 
-1.37165 0.351243 3.20429 44 64 137 
0.682747 0.664153 4.70647 77 73 124 
0.673652 0.661803 4.71693 217 222 254 
0.637326 0.649678 4.63399 207 212 252 
-0.593008 0.388601 3.50395 158 172 199 
-0.624559 0.421404 3.72605 30 41 73 
0.630234 0.642206 4.65848 180 187 233 
-1.37446 0.368449 3.21595 213 227 255 
-1.50583 0.39146 3.33672 21 38 110 
0.636019 0.549363 4.70212 169 181 231 
0.663888 0.595615 4.67392 76 80 144 
0.646915 0.597026 4.67888 69 82 127 
0.621739 0.544104 4.59752 196 204 243 
-1.33401 0.3733 3.11553 21 48 103 
-1.44332 0.393163 3.25196 66 56 90 
1.41511 -1.19582 5.76 63 47 73 
0.576646 -0.321207 4.7161 40 38 52 
-0.503444 0.8924 3.36729 97 93 143 
-1.16934 0.733989 3.50175 137 168 212 
1.34541 -1.10457 5.70001 58 55 74 
1.67735 -1.60673 6.14507 43 40 69 
0.385859 0.748019 4.39361 111 133 170 
-0.571641 0.929873 3.31837 33 29 62 
0.14844 -1.14111 4.31042 36 30 40 
-1.60691 0.208267 3.34812 65 65 103 
0.998643 0.341612 5.08789 56 57 85 
-1.40581 0.478147 3.16747 168 175 227 
0.98338 0.568228 5.02789 78 82 120 
1.94256 -1.27884 6.31718 109 107 131 
-1.23194 0.825853 3.65031 109 122 164 
1.86588 -2.05294 6.49911 84 75 104 
-0.520313 0.927736 3.33147 164 149 206 
1.42154 -1.20591 5.76797 57 47 71 
1.97344 -1.65238 6.46397 59 61 99 
-1.16816 0.551194 3.54608 49 61 99 
0.453199 -0.136239 4.54597 103 101 123 
1.46021 -1.23131 5.78405 44 30 55 
-0.580668 -0.488228 3.55305 103 99 114 
-1.20022 0.842426 3.62749 109 128 171 
1.22343 0.994729 5.00063 49 59 94 
-0.64394 0.0589694 4.71719 75 93 159 
-0.49977 -0.709594 3.76344 26 23 42 
-1.50213 0.311609 3.53593 202 220 255 
-1.21772 0.534097 3.63979 227 243 255 
0.687856 0.655047 4.76084 242 245 252 
-1.44244 0.288891 3.41679 25 35 84 
-1.48233 0.378214 3.46752 46 49 118 
-1.52603 0.27859 3.37655 178 200 241 
-0.563437 0.910236 3.29117 215 215 251 
-1.61606 0.223137 3.14776 160 167 213 
0.66383 0.593218 4.65364 70 76 134 
0.687531 0.597363 4.7883 78 79 133 
0.659689 0.583973 4.68359 236 242 255 
-0.55864 0.806062 3.3141 183 193 246 
-0.510321 0.799399 3.3116 195 209 254 
-1.54304 0.322905 3.45581 45 56 122 
0.646968 0.557837 4.77722 197 210 254 
-1.50312 0.179889 3.12505 61 70 111 
-1.44391 0.316196 3.38406 45 53 126 
-1.47705 0.407295 3.42606 201 221 255 
-1.11261 -0.0978353 3.43404 185 204 236 
-1.34263 0.48231 3.99485 119 140 193 
1.83765 -1.9974 6.30522 50 62 88 
-1.59481 0.281503 3.16771 145 146 176 
-1.44662 0.245092 3.28571 162 193 239 
-0.563296 0.884092 3.23992 95 80 113 
1.82673 -1.87053 6.22691 83 98 137 
-1.56083 0.383897 3.13418 142 167 197 
0.695538 0.548853 4.78425 67 74 129 
1.69805 -1.57059 6.10839 39 46 75 
1.04332 -0.968479 5.23597 78 92 131 
-1.14785 0.542773 3.486 49 58 91 
1.68215 -1.58478 6.07363 121 136 159 
-1.26944 0.462162 3.80924 230 232 253 
-1.509 0.412533 3.40025 65 59 85 
-1.48092 0.503072 3.3203 81 77 110 
-1.22699 0.340841 2.86809 16 37 94 
-1.47609 0.406411 3.41734 197 212 255 
-0.644369 0.129215 4.74467 17 26 59 
0.693845 0.568784 4.82086 241 244 251 
-1.44503 0.377611 3.20081 11 29 69 
-1.34386 0.482688 3.20782 30 57 104 
1.00761 -0.211634 5.11589 48 55 74 
-1.50775 0.381526 3.35623 198 213 255 
-1.50366 0.348463 3.07218 78 96 134 
-1.37982 0.348243 3.21845 38 62 126 
-1.39534 0.313582 3.18994 201 214 255 
-1.51033 0.303775 3.09274 57 88 135 
-1.36791 0.288134 3.05883 40 65 122 
-1.62219 0.285576 3.22222 143 144 175 
-1.45724 0.300754 3.42556 207 222 255 
-1.55365 0.305237 3.47545 206 218 255 
-1.27616 0.247223 3.00616 29 58 114 
-1.4544 0.264226 3.21371 189 212 254 
-1.39641 0.235795 3.16893 163 191 238 
-1.56288 0.21734 3.04497 168 175 219 
-0.56893 0.891565 3.26938 95 78 110 
-0.511669 0.92266 3.41151 90 93 146 
0.682362 0.650424 4.74012 241 244 251 
0.129861 -1.15164 4.40489 38 26 40 
1.72872 -1.5709 6.16472 49 47 71 
-0.644321 0.164117 4.74231 148 166 240 
0.701312 0.679388 4.83449 126 118 175 
0.620559 0.643888 4.58802 70 67 112 
-0.55824 0.84188 3.31026 47 53 111 
-0.672664 0.121918 4.87523 18 32 77 
-0.717014 0.120517 5.0029 22 26 53 
-0.666571 0.111588 4.90706 18 27 60 
0.652393 0.595946 4.74771 74 84 135 
-0.663988 0.0581229 4.84971 49 59 121 
-1.23338 -0.103224 3.80979 190 209 242 
-0.516716 0.833619 3.39608 244 244 252 
0.629969 0.63326 4.62032 229 236 255 
-0.563579 0.800013 3.30284 69 55 81 
-1.57625 0.385633 3.15132 116 130 169 
-1.57067 0.367037 3.20677 74 92 128 
-1.42733 0.359567 3.32957 34 56 116 
-1.33836 0.321224 2.98497 30 54 114 
-1.36537 0.312865 3.09046 33 48 79 
-1.59152 0.322088 3.25809 61 93 142 
-1.30755 0.290751 2.98565 200 213 255 
0.603961 -0.326942 4.81583 118 132 159 
0.638737 0.591683 4.64863 74 87 131 
-1.34779 0.265457 3.18203 24 37 89 
-1.49391 0.271416 3.30443 188 211 253 
-1.45356 0.184029 3.0151 69 90 121 
1.23329 1.09423 4.86645 48 55 81 
-0.65059 0.166232 4.5285 150 168 232 
-1.16643 0.771588 3.46882 149 172 222 
-0.652969 0.0772476 4.80954 147 165 239 
0.985692 -0.0335905 5.03275 55 59 84 
-0.542969 0.82426 3.22057 37 53 104 
0.568474 -0.323807 4.6797 39 38 52 
0.124541 -1.13185 4.30913 26 23 30 
-0.51372 0.844027 3.33206 54 57 110 
1.03293 0.617697 5.16526 162 171 204 
1.40378 -1.17889 5.84807 50 35 56 
1.16111 -1.17156 5.56166 110 112 153 
-1.57823 0.301655 3.22222 83 109 146 
1.32749 -1.4058 5.74995 109 115 151 
0.671397 0.528327 4.62445 83 83 133 
1.55486 -0.612424 6.54213 23 21 34 
0.96155 -0.546262 5.1678 117 129 155 
0.929576 -0.428139 5.11798 89 97 133 
1.47756 -0.383888 6.5719 53 56 89 
1.56797 -0.372244 6.63818 136 140 165 
1.56467 -0.296899 6.63045 55 56 84 
0.552593 -0.113402 4.6698 60 58 80 
1.36061 0.200074 6.38887 139 142 197 
-0.565633 0.893048 3.28244 99 92 136 
-0.665401 0.868008 3.15551 122 119 130 
1.80881 -1.46505 6.16104 106 132 157 
1.95213 -1.47964 6.33606 70 93 125 
1.93953 -1.47313 6.31492 63 59 96 
0.135688 -1.10664 4.30352 159 154 174 
1.51858 -1.32835 5.8647 71 65 103 
1.08037 -1.24233 5.36563 131 140 181 
1.80916 -1.29832 6.22452 82 81 95 
1.29404 -1.12374 5.59082 99 88 120 
1.21191 -0.970671 5.48063 87 78 107 
1.5782 -1.05451 6.2305 111 109 130 
1.58783 -1.05812 6.25394 108 103 126 
1.5608 -1.04759 6.23154 116 107 124 
1.64671 -1.04794 6.3243 89 86 103 
-0.527714 -0.47009 3.47496 120 113 129 
0.949992 -0.350547 5.13297 149 163 192 
0.954827 -0.35283 5.16474 142 151 182 
1.55168 -0.367274 6.61523 67 70 103 
1.6561 -0.360461 6.70611 96 108 130 
1.66255 -0.35666 6.78498 65 68 101 
1.50356 -0.308847 6.56756 51 43 67 
1.46357 -0.301168 6.52457 100 102 117 
1.56132 -0.296353 6.61381 56 53 82 
1.3522 0.199551 6.34322 186 192 242 
1.34292 0.215429 6.34778 178 190 242 
1.46599 0.39869 6.48319 68 109 127 
0.433421 0.248802 4.49964 123 134 156 
0.685428 0.582507 4.74967 82 81 147 
1.03558 0.673894 5.1582 187 188 218 
0.513684 1.0211 4.4429 99 111 135 
0.461184 1.02311 4.3987 92 90 114 
0.797822 1.13712 4.75242 56 59 90 
0.00455687 1.07309 3.94269 93 102 119 
1.15279 -1.12528 5.43868 137 142 184 
1.39678 -1.15384 5.73876 76 74 98 
0.991205 0.76129 4.93634 48 56 102 
0.633743 0.636131 4.68264 166 177 231 
0.684966 0.579601 4.73313 115 114 172 
0.691886 0.560825 4.76146 213 214 232 
-0.558797 -0.471874 3.44609 141 139 150 
2.09992 0.725701 6.65803 32 29 58 
-0.633217 0.170071 4.7354 88 111 178 
1.35083 0.0994004 6.34399 108 108 170 
-1.1105 -0.232046 3.93955 70 83 115 
1.47121 -0.383026 6.54132 55 54 88 
1.51537 -0.289881 6.56161 84 92 113 
1.4995 -0.298575 6.58653 98 93 115 
1.45875 -0.300819 6.49713 102 99 120 
-0.505445 -0.989256 3.56056 47 45 59 
1.4655 -0.313144 6.50061 51 43 67 
1.53379 -0.304886 6.59337 60 51 78 
1.63891 -0.285445 6.68143 59 49 73 
1.60415 -0.281892 6.67254 101 98 117 
1.67547 -0.281478 6.74163 55 49 75 
1.64715 -0.275052 6.76411 92 89 106 
1.98848 -0.180128 6.66082 100 101 129 
1.57532 -1.34887 5.9044 70 63 97 
1.168 -1.21977 5.45407 115 122 164 
1.70207 -1.30774 6.11112 117 115 136 
0.460233 1.03336 4.38161 157 156 172 
1.2493 1.10396 4.8873 52 71 104 
1.00004 1.10024 4.90206 52 58 94 
1.44252 -1.23406 5.79054 78 62 98 
0.46963 0.946172 4.40345 72 76 103 
-1.22097 0.67443 3.59472 88 110 151 
1.33988 -1.12905 5.67794 81 66 99 
-0.567684 0.926795 3.27353 118 110 134 
-1.53531 0.30333 3.25638 97 122 162 
1.80327 0.792398 6.67987 108 109 130 
1.54695 -1.04041 6.19031 101 102 120 
1.46126 0.396768 6.45162 61 100 117 
1.53036 -0.295459 6.63075 104 105 125 
1.2515 1.05706 4.9272 45 54 87 
0.422473 0.918855 4.3801 114 128 154 
0.466477 1.02895 4.39184 66 68 93 
0.478031 1.03784 4.41952 128 133 152 
1.24887 1.0133 5.10924 87 96 137 
1.52857 -1.29325 5.88044 63 53 80 
1.4029 -1.24658 5.7417 78 75 106 
0.693613 0.668583 4.76847 54 56 113 
0.678937 0.666078 4.75931 220 223 255 
1.34327 -1.18173 5.63631 85 78 112 
1.44835 -1.20439 5.8057 64 66 91 
0.634482 0.645653 4.69683 195 207 247 
1.97751 -1.28352 6.4148 39 32 50 
0.685838 0.6315 4.76181 57 66 135 
0.663844 0.595323 4.7215 223 235 255 
0.634621 0.55725 4.695 191 200 243 
2.11295 0.731901 6.7051 25 28 59 
0.608244 -0.336053 4.72468 60 66 90 
-0.495652 -0.449215 3.30673 125 119 133 
1.34724 0.144641 6.37605 70 71 138 
-0.493469 -0.465797 3.51208 107 103 117 
1.50252 -0.30054 6.61913 101 104 123 
1.46496 -0.305021 6.55391 102 99 120 
0.420445 -0.248488 4.5152 43 40 61 
1.65698 -0.359907 6.77493 52 57 87 
0.401416 -0.29816 4.51801 50 48 70 
0.594911 -0.322165 4.72746 105 116 144 
0.954029 -0.352071 5.15326 142 151 182 
0.486049 0.962106 4.43848 109 126 146 
1.49089 -0.388687 6.5675 114 120 144 
1.67092 -0.365929 6.77577 119 121 144 
-1.20319 0.673921 3.59779 124 146 193 
0.415788 -0.425828 4.54733 147 145 166 
1.43408 -0.313638 6.54006 94 96 117 
1.60261 -0.286872 6.70175 121 123 144 
1.64005 -0.276404 6.73111 95 96 116 
1.67517 -0.27347 6.78952 105 104 122 
1.394 -0.267874 6.43382 24 30 54 
1.83283 -1.33004 6.24716 118 114 141 
1.56517 -1.26704 5.92074 96 97 118 
0.817856 0.738571 4.90546 175 186 218 
-0.739063 -0.551898 3.9518 124 122 135 
1.05769 -0.986724 5.34056 76 90 127 
0.573436 0.27229 4.6695 113 110 139 
1.62207 -0.369037 6.71402 131 123 144 
1.01774 -0.139644 5.19068 94 106 144 
-1.49151 0.27194 3.30348 150 185 227 
-0.65494 0.309929 4.69925 124 125 129 
-0.659867 0.107059 4.70548 150 169 238 
-0.62309 -0.500542 3.5735 127 119 134 
1.64888 -1.33359 5.99895 53 47 73 
1.82761 -1.32676 6.2224 118 112 138 
0.986199 -0.717304 5.20607 149 162 196 
0.987659 0.762826 4.92548 30 34 69 
1.44355 -1.1999 5.78471 58 56 80 
-0.708661 -0.552349 3.9666 27 24 31 
1.68764 -1.32011 6.04776 108 100 124 
1.99655 -0.00449751 6.75572 115 121 147 
2.13812 -0.00222427 6.7416 108 112 137 
1.00919 -0.0382353 5.14201 96 107 139 
1.54579 -0.369248 6.60064 63 66 99 
1.66825 -0.364124 6.76544 115 121 143 
1.43321 -0.303914 6.44503 54 47 65 
1.38802 -0.264302 6.40565 21 28 47 
1.51201 -0.28998 6.52257 89 95 119 
1.5865 -0.28272 6.61076 118 123 145 
1.60914 -0.287548 6.71865 122 119 138 
1.48167 -0.385117 6.52231 98 105 131 
2.01152 -0.00633574 6.85431 109 119 144 
0.419234 -0.248512 4.49867 55 50 70 
1.65005 -0.364635 6.75961 37 33 60 
1.46725 -0.385579 6.52415 28 30 53 
1.03929 0.164547 5.18809 128 138 173 
-0.689738 0.157016 4.68843 158 173 240 
1.0085 0.344036 5.14983 56 58 83 
0.424215 0.923614 4.38897 131 139 162 
-0.556682 -0.489618 3.65486 125 121 135 
0.653494 0.605041 4.74521 57 70 123 
0.671059 0.605867 4.75261 68 70 131 
-1.48178 0.374289 3.29023 196 209 255 
-1.48945 0.303506 3.29516 63 63 91 
1.10068 -1.00549 5.36597 122 136 173 
2.00938 0.799436 6.77705 116 120 145 
1.58666 -1.28352 5.97721 97 87 111 
0.576254 0.27086 4.65623 126 129 162 
0.720881 0.730357 4.80759 171 182 212 
0.984743 -0.716942 5.19291 155 165 201 
-1.19345 0.836346 3.60412 98 119 166 
1.56318 -0.379559 6.72262 52 61 94 
-1.11903 0.0286565 3.89687 151 158 186 
0.545873 -0.113268 4.65068 43 41 55 
1.99723 -0.179229 6.69497 114 112 136 
1.42011 -0.31145 6.47316 112 118 142 
-0.682278 0.307066 4.66838 124 124 124 
-0.655675 0.29242 4.7072 117 126 125 
1.41707 -1.20286 5.74519 59 51 74 
1.31716 -1.08667 5.63993 46 28 52 
1.0546 -0.980364 5.3069 81 93 131 
-0.645798 0.114881 4.69962 28 39 85 
-0.518435 0.92241 3.32245 218 218 255 
-0.641371 0.0655928 4.75368 107 128 195 
-0.558716 0.835522 3.29728 46 47 111 
-1.2317 0.447725 3.69416 250 255 255 
-0.537802 -0.458841 3.48173 36 33 40 
0.452475 -0.137216 4.53125 115 113 137 
0.60295 -0.329416 4.71888 41 42 63 
1.54345 -0.376217 6.61137 56 62 94 
1.64412 -0.363884 6.72338 37 33 60 
0.985527 -0.647144 5.19558 126 134 173 
0.687751 0.661628 4.70801 99 88 144 
0.634349 0.637791 4.66262 177 187 236 
0.683204 0.558596 4.72185 241 244 253 
-0.598748 -0.485121 3.60696 37 36 41 
-0.558435 0.921192 3.27181 26 32 58 
1.99115 -0.00410163 6.77298 109 119 146 
0.452122 -0.135417 4.51408 99 100 121 
1.06472 -0.438233 5.20194 32 39 47 
-1.193 0.678057 3.61517 107 138 182 
-0.281857 -1.115 3.87134 77 61 88 
-0.625406 -0.484394 3.3803 125 121 135 
2.58734 0.753272 6.78482 117 121 169 
2.27998 0.000588033 6.77364 121 135 164 
2.56452 0.729619 6.74048 242 242 250 
0.995075 0.573865 5.08709 78 82 120 
1.99784 -1.43572 6.3764 148 158 185 
1.71048 -1.54806 6.07434 52 59 87 
-0.50626 -0.9852 3.54823 27 26 34 
-0.676927 0.297256 4.6496 105 107 106 
2.26891 0.00415806 6.72879 126 135 166 
-0.57425 -0.467094 3.4434 35 33 44 
0.678433 0.598389 4.75629 115 117 168 
-1.47659 0.406372 3.32376 64 63 77 
0.645692 0.598155 4.70623 74 87 131 
1.48423 -1.38646 5.79949 45 46 67 
1.52009 -1.33462 5.88144 78 72 110 
1.08092 -1.24924 5.38917 134 143 184 
1.86012 -1.38345 6.2579 73 72 106 
1.52277 -1.31813 5.88203 124 118 144 
2.0707 -1.37659 6.4438 109 128 145 
1.4254 -1.03796 6.05893 93 84 113 
1.42558 -1.0036 6.07723 87 76 106 
0.962659 -0.547974 5.18155 117 129 155 
0.505837 -0.433803 4.60964 120 123 142 
0.42101 -0.352401 4.55926 70 56 82 
0.402387 -0.295865 4.50037 42 37 60 
1.53045 -0.305034 6.56913 60 51 78 
1.55942 -0.294316 6.58955 55 56 84 
2.36471 -0.165449 6.70793 125 128 147 
1.30893 0.0937167 6.30166 148 169 224 
1.30524 0.168193 6.28435 56 77 132 
1.3539 0.198921 6.32347 139 142 197 
1.30857 0.212138 6.2855 124 146 203 
-0.631897 0.158481 4.7264 123 146 214 
-1.46215 0.274165 3.32976 121 141 204 
0.688794 0.544455 4.7618 70 66 125 
0.641222 0.574148 4.69804 87 98 160 
0.659269 0.601022 4.71181 85 103 169 
0.63993 0.625328 4.68966 77 92 157 
0.692693 0.664152 4.7506 76 75 132 
0.686165 0.67053 4.74372 85 76 123 
2.24845 0.99489 6.5508 102 103 121 
-1.20946 0.572474 3.64622 195 215 252 
0.462529 1.02063 4.38847 92 90 114 
-0.224513 0.959891 3.877 173 183 208 
0.132211 -1.11321 4.32282 159 154 174 
0.931419 -1.23973 5.22143 147 153 187 
-0.422875 -0.947915 3.6963 62 53 84 
-0.439114 -0.91736 3.67957 60 49 81 
1.5093 -1.239 5.85829 93 95 116 
1.80953 -1.29928 6.22522 82 81 95 
1.34685 -1.19278 5.67336 89 78 112 
1.25008 -1.05281 5.54656 95 74 105 
1.49173 -1.03902 6.14457 136 123 143 
1.51394 -1.04059 6.18573 109 100 117 
1.42946 -1.02202 6.07159 95 88 119 
1.46744 -1.02359 6.14329 132 125 141 
1.69376 -1.03806 6.37946 80 82 95 
-0.495648 -0.703541 3.59813 141 133 156 
-0.496993 -0.676871 3.58405 141 126 147 
-0.504184 -0.647619 3.58192 98 99 129 
0.987669 -0.715394 5.22593 126 141 174 
-0.509908 -0.58039 3.57098 46 49 82 
-0.507483 -0.538858 3.55883 43 34 61 
-0.592793 -0.474274 3.41478 131 129 143 
-0.566338 -0.462422 3.44925 61 54 62 
-0.464117 -0.454488 3.55985 131 129 142 
0.415764 -0.426024 4.56318 149 146 167 
-0.591044 -0.352596 3.44772 94 85 114 
-0.55835 -0.344489 3.48661 90 77 105 
1.66082 -0.361535 6.73868 96 108 130 
1.65321 -0.351481 6.72207 65 68 101 
-0.654146 -0.263974 3.45628 116 122 156 
1.499 -0.306235 6.53256 51 43 67 
1.49498 -0.295535 6.54193 100 99 117 
1.70146 -0.263079 6.76291 91 84 102 
2.32608 -0.194135 6.72483 109 93 119 
-1.22242 -0.242083 3.8124 38 37 68 
-1.12068 -0.231987 3.95288 101 116 147 
-1.23976 -0.108421 3.75817 149 167 207 
0.437386 0.0212942 4.53293 143 144 162 
1.34538 0.0978851 6.33437 159 160 224 
1.35406 0.115193 6.34058 163 164 220 
1.90415 0.250772 6.74281 107 108 128 
1.34049 0.215324 6.32439 178 190 242 
-0.683075 0.14253 4.67649 24 34 96 
1.45999 0.396394 6.43358 68 109 127 
-1.4038 0.230312 3.42294 61 61 97 
-1.42184 0.300405 3.35231 194 213 255 
0.633973 0.550373 4.6906 161 173 225 
-1.56615 0.30002 3.21139 136 141 171 
-1.55653 0.313792 3.25453 156 156 182 
-1.54629 0.318762 3.21554 102 115 160 
-1.24769 0.446907 3.67903 124 135 180 
-1.44397 0.403691 3.35297 50 82 133 
-1.23425 0.531781 3.67136 99 116 168 
-0.633687 0.530129 3.30384 113 125 137 
0.468804 0.943974 4.40084 86 90 115 
0.486473 0.957512 4.41524 116 129 148 
1.62333 1.19616 5.08474 65 77 115 
-0.670275 0.74844 3.18308 117 112 132 
-0.508629 0.83372 3.34474 77 75 140 
-0.512198 0.929972 3.33429 44 40 77 
-0.376834 -1.02952 3.7678 51 43 67 
1.9501 -1.47955 6.33273 57 76 109 
1.98751 -1.41394 6.35851 125 146 165 
-1.54197 0.393822 3.23315 139 150 170 
0.644229 0.660121 4.69778 179 187 234 
0.633167 0.645394 4.68289 176 184 231 
-1.45792 0.340645 3.32577 197 211 255 
-1.54892 0.320207 3.25055 115 112 139 
-1.55598 0.317229 3.23301 175 186 214 
-1.42787 0.288693 3.3708 30 56 130 
-0.62949 -0.488069 3.37466 122 105 121 
-0.640012 0.0942335 4.74262 28 43 110 
1.33917 0.213907 6.31074 200 213 255 
2.36759 -0.166006 6.72537 113 118 138 
1.43891 -0.311479 6.48395 50 46 71 
1.46581 -0.313314 6.50323 51 43 67 
1.64114 -0.286477 6.69639 59 49 73 
1.61525 -0.284198 6.67156 60 51 78 
2.31964 -0.165737 6.72352 103 89 115 
2.26573 -0.123364 6.7173 100 116 132 
0.580133 0.0793842 4.67567 121 121 157 
2.03065 -1.51364 6.46081 91 96 118 
1.45967 -1.2948 5.80948 73 57 86 
1.16995 -1.22594 5.48101 115 122 164 
0.42924 -0.50856 4.58613 121 109 129 
0.480574 1.03244 4.39547 133 136 153 
0.994677 0.572499 5.07288 76 77 108 
-0.513737 -0.527709 3.55622 159 154 174 
2.44423 -0.798254 6.83476 115 112 141 
-0.50815 -0.597469 3.56669 99 102 133 
-1.21597 0.678513 3.61379 125 143 189 
1.36042 -1.1638 5.68211 90 83 114 
-0.647304 0.468286 3.29468 36 35 49 
1.29453 -1.12645 5.6016 107 94 124 
1.491 -1.04097 6.15527 137 125 147 
1.47402 -1.04499 6.11731 81 69 105 
-0.575846 -0.396039 3.46641 145 141 164 
0.979641 -0.712434 5.21637 113 122 163 
0.505449 -0.463902 4.61463 127 132 152 
1.93147 -1.36299 6.34437 74 71 100 
-0.410367 -0.978234 3.72227 61 52 83 
0.423925 0.915537 4.36269 114 128 154 
-1.18467 0.628564 3.61531 108 134 171 
-1.47235 0.503635 3.31789 167 178 224 
-1.53446 0.392642 3.22474 139 150 170 
1.4138 -1.18173 5.73806 66 46 74 
0.690196 0.645903 4.73541 225 226 244 
0.665425 0.610277 4.71767 220 234 255 
-1.55369 0.318458 3.22301 102 111 154 
-1.49023 0.306199 3.29626 50 58 104 
0.695452 0.54941 4.75135 78 87 142 
-0.49263 -0.735229 3.60105 67 57 91 
-1.5507 0.287136 3.25379 135 164 196 
-1.48153 0.280521 3.3049 43 31 107 
-1.50522 0.267739 3.32628 103 138 192 
-0.66714 0.173911 4.66213 143 161 223 
-0.629008 0.0951328 4.71443 13 24 86 
1.2964 0.196412 6.27937 119 155 215 
1.33397 0.153014 6.31253 66 63 130 
1.30907 0.0937 6.28864 160 180 233 
1.01351 -0.0378009 5.16349 69 78 109 
0.411188 -0.251866 4.51369 108 104 121 
1.66319 -0.361389 6.72187 119 121 144 
1.01207 0.1549 5.13615 47 49 72 
0.475 1.02646 4.40227 165 166 184 
-1.22674 0.686541 3.60673 42 47 79 
-0.480027 0.947694 3.46327 49 58 89 
1.43953 -0.312391 6.46939 60 60 88 
1.85395 -1.33615 6.24753 56 51 81 
1.56823 -1.29238 5.93921 118 110 134 
0.956859 0.785829 4.8414 99 117 155 
1.84256 -1.32719 6.25436 44 32 54 
-1.48916 0.40659 3.30937 50 115 171 
-1.47655 0.401658 3.2865 12 38 95 
1.01437 0.170937 5.1464 78 91 125 
-0.581077 -0.526093 3.42212 41 39 50 
-0.5077 -0.671104 3.57652 186 178 202 
-1.45916 0.263124 3.2991 163 179 231 
-0.570426 -0.377618 3.47123 84 74 101 
1.35398 -1.17323 5.66124 125 120 142 
-1.43677 0.369473 3.35129 55 82 163 
-1.45248 0.268008 3.25745 150 185 227 
-0.689766 0.136455 4.69623 23 31 78 
-0.661575 0.107154 4.7092 150 169 238 
-0.68619 0.0922567 4.69481 13 23 72 
-0.690377 0.0723547 4.69124 121 134 189 
1.34205 0.0988316 6.37131 206 214 255 
1.03477 0.322825 5.16147 165 174 207 
1.6141 -1.34995 6.24809 86 84 106 
1.45944 -1.29756 5.81965 82 63 93 
-1.48034 0.393262 3.27443 4 36 83 
1.98492 -1.28564 6.38985 51 50 64 
-0.494364 -0.468508 3.5341 31 30 38 
1.03351 0.593487 5.12432 106 116 143 
-0.57083 -0.362851 3.46642 75 62 90 
-1.21641 0.57247 3.65451 188 206 246 
1.00383 -0.0288713 5.16718 78 78 112 
-0.617468 0.974469 3.19257 114 107 138 
-1.19521 0.629924 3.62777 123 146 187 
-1.21581 -0.237904 3.79937 31 33 58 
1.34563 -0.319069 6.38417 103 108 128 
1.45439 -0.301698 6.49684 95 100 120 
-0.567942 0.880852 3.28184 120 97 123 
1.66151 -0.271547 6.72427 80 85 105 
1.69278 -0.265769 6.74689 86 87 107 
1.4662 -0.314121 6.52364 64 54 79 
1.62609 -1.2909 6.00269 82 79 100 
2.2781 0.789335 6.65046 52 43 72 
-1.21536 0.84791 3.58787 86 105 148 
1.64055 -0.282402 6.68565 53 43 67 
-0.674241 0.286499 4.64289 104 109 112 
1.02027 -0.0322594 5.13356 44 51 70 
0.408665 -0.252879 4.50273 113 108 128 
1.53268 -1.29148 5.88654 61 53 77 
1.30433 0.103496 6.28072 207 228 255 
1.34795 0.194376 6.30386 179 184 239 
1.34142 0.19972 6.33258 210 223 255 
-0.672487 0.0569183 4.68225 120 136 196 
-0.641708 0.138458 4.73056 22 33 79 
1.9713 -1.27882 6.3891 39 32 50 
-0.636886 0.177027 4.70882 145 166 229 
-0.649682 0.310009 4.68402 124 125 129 
-1.47926 0.268414 3.30632 35 31 90 
1.00729 0.583211 5.09236 57 60 91 
-0.498648 -0.657346 3.57398 58 57 91 
-1.48464 0.386038 3.28507 7 40 94 
1.17023 -1.22305 5.46792 106 115 156 
-1.46941 0.30167 3.27147 63 63 91 
-1.49438 0.395324 3.28772 6 55 113 
0.472645 1.01483 4.38367 147 153 177 
1.59011 -1.31938 5.96158 46 38 61 
1.04727 -0.985768 5.32224 108 116 155 
1.34822 -1.18637 5.65839 74 62 98 
-0.561988 0.806476 3.28435 32 31 73 
1.65736 -1.33932 6.03709 45 42 63 
-0.590572 -0.528834 3.43581 37 37 47 
0.999231 0.146341 5.12871 73 77 112 
1.46625 -0.308166 6.46709 53 53 79 
-1.49447 0.427381 3.3122 85 161 219 
-1.55493 0.307276 3.28228 87 153 214 
2.13438 0.705004 6.68229 118 121 152 
-1.46755 0.250666 3.32758 180 207 252 
1.00616 0.346186 5.1368 49 49 75 
2.278 -0.14017 6.70159 83 80 101 
-1.45307 0.267116 3.31796 107 137 189 
-1.39377 0.536269 3.3643 42 44 56 
2.04579 -1.25296 6.47432 36 35 53 
-1.4293 0.27651 3.36631 20 37 89 
-0.572614 -0.482164 3.43866 33 36 43 
-0.65559 0.115708 4.7276 28 39 85 
-0.642106 0.102512 4.734 22 31 74 
-0.677804 0.0988852 4.6822 19 28 61 
-0.63624 0.0792886 4.73586 149 169 238 
1.34313 0.146685 6.33115 56 59 126 
1.3258 0.133039 6.31773 208 225 255 
-0.549811 -0.474857 3.44946 27 27 29 
-0.516361 -0.470499 3.4837 28 27 33 
-1.22653 -0.106987 3.76763 188 202 237 
-1.43434 0.296534 3.36048 215 226 254 
-0.546312 0.798559 3.29104 189 203 250 
0.651855 0.603233 4.72456 59 72 117 
-1.22241 0.526371 3.65073 99 115 166 
-1.48755 0.309317 3.31207 48 80 139 
1.44081 -0.308636 6.49891 47 39 62 
1.52313 -0.294831 6.5749 99 97 118 
1.59186 -0.286173 6.62276 123 119 142 
1.00577 -0.808637 5.25469 152 162 197 
-1.24336 0.529715 3.67493 97 118 165 
1.91958 -1.31705 6.34805 39 35 52 
1.43211 -1.19803 5.76419 53 50 67 
1.41842 -1.18999 5.75111 42 31 48 
1.9469 1.05328 6.54225 52 50 61 
1.10033 -1.01337 5.38341 128 141 183 
0.63956 0.614038 4.71366 83 89 137 
-0.517967 -0.67043 3.58742 182 176 202 
0.660924 0.586915 4.74289 240 242 255 
1.9737 0.778594 6.63967 114 123 152 
-0.600325 -0.468765 3.40184 39 36 45 
-0.68053 0.117066 4.71409 26 33 59 
-0.669375 0.100887 4.71915 153 173 242 
2.13091 -0.00196467 6.76006 110 120 147 
1.58236 -0.630736 6.64434 43 41 62 
0.534295 -0.111926 4.6822 31 30 36 
0.4348 0.0226356 4.55002 136 138 159 
-1.48224 0.423312 3.29498 80 164 228 
0.992162 -0.233214 5.17269 89 97 136 
1.00103 -0.815428 5.28037 158 166 202 
-0.480147 -1.52095 3.68359 185 184 216 
0.0159359 -1.57516 4.21538 41 28 48 
1.83438 -1.8546 6.24389 67 80 114 
1.94238 -1.62537 6.36499 56 50 86 
1.65273 -0.35368 6.73813 77 76 108 
-1.54612 0.279537 3.2393 128 153 184 
1.82855 -1.76193 6.21853 94 115 144 
1.74356 -1.34763 6.33926 81 80 96 
1.58449 -1.35737 5.94591 67 54 84 
1.82991 -1.82022 6.22888 96 99 134 
1.8118 -1.76479 6.20581 64 70 106 
1.71782 -1.54922 6.10333 70 74 101 
1.39401 -1.1503 5.72537 61 53 77 
2.14583 -0.00358077 6.76802 80 77 98 
0.814721 0.73473 4.88112 177 191 220 
1.99241 -0.00711288 6.73789 92 96 123 
0.0537257 -1.5108 4.25455 31 28 45 
-0.673152 0.11665 4.74987 23 36 91 
1.63465 -0.276166 6.70449 94 89 111 
1.47377 -1.25837 5.82271 69 59 83 
-0.556494 0.832101 3.29009 51 53 128 
0.423159 0.918972 4.36986 124 132 153 
1.77325 -2.02612 6.26388 86 87 115 
-0.667239 0.116328 4.69005 24 35 65 
1.70288 -1.54018 6.07734 88 85 114 
-0.503403 0.925449 3.33919 34 27 68 
0.132427 -1.12351 4.31292 45 34 48 
0.0532111 -1.50324 4.26155 39 26 46 
1.94489 -1.63054 6.37961 56 60 97 
-1.48323 0.301438 3.28396 67 68 88 
-0.173817 -1.20814 3.9479 121 103 115 
-0.200783 -1.24837 3.93264 33 33 43 
0.170911 -1.18095 4.3016 152 134 150 
0.174028 -1.18511 4.32085 51 44 62 
-0.638778 0.0769399 4.71779 149 167 239 
-0.575547 0.897415 3.27612 88 74 99 
-0.663007 0.136484 4.71279 150 169 245 
-0.471293 -0.436717 3.56351 140 136 153 
1.47391 -1.2466 5.81658 42 34 49 
-1.47234 0.422161 3.33482 165 185 236 
