ply                 
format ascii 1.0    
element vertex 1283
property float x    
property float y    
property float z    
property uchar red  
property uchar green
property uchar blue 
end_header          
-0.500655 0.917667 3.32994 117 114 167 
-1.22669 0.758786 3.61933 125 143 191 
1.47302 -1.22163 5.83569 127 123 146 
-1.49929 0.386232 3.3032 29 63 137 
0.683714 0.630229 4.74743 60 66 128 
-1.53008 0.292281 3.23122 157 187 215 
-1.43024 0.309304 3.35599 71 88 158 
0.682315 0.545583 4.74897 201 213 253 
-1.56858 0.286699 3.27551 127 143 179 
-1.43148 0.289397 3.37673 30 56 130 
-1.48595 0.280795 3.31199 62 45 125 
-1.50927 0.274173 3.31986 180 205 245 
-1.48299 0.275182 3.35574 114 134 195 
-1.44902 0.247643 3.31246 135 169 214 
-0.689381 0.165072 4.67565 103 109 161 
-0.633824 0.145053 4.72282 17 25 87 
1.31529 0.15232 6.2842 59 79 138 
1.45894 -0.301697 6.49973 102 99 120 
1.42282 -0.30768 6.44373 75 77 98 
1.69965 -0.265014 6.76302 96 91 111 
-1.11023 -0.294521 3.9377 130 142 168 
1.48334 -0.385889 6.53091 110 116 142 
-1.08988 -0.206692 3.96823 137 151 177 
0.550874 -0.112916 4.66238 55 53 74 
-1.0926 -0.043694 3.94736 143 155 181 
-0.713855 0.174541 4.7616 48 50 101 
-1.17641 0.821341 3.59187 83 106 148 
1.45707 -1.20957 5.80928 142 153 175 
-1.39697 0.51034 3.3532 53 77 125 
1.99248 0.834206 6.57108 44 29 48 
-1.58201 0.308316 3.31093 97 122 162 
0.459112 -0.430516 4.60946 110 108 132 
1.00058 -0.469131 5.15041 79 91 105 
0.41643 -0.55954 4.58091 65 52 80 
1.58751 -1.06034 6.26238 112 104 127 
-0.189244 1.00377 3.74395 101 109 145 
0.593227 0.730599 4.6294 125 143 147 
-1.44312 0.497478 3.28491 167 178 224 
0.693877 0.663359 4.73862 54 56 113 
0.67917 0.663012 4.7349 220 223 255 
-1.41022 0.393088 3.33347 32 31 89 
0.692049 0.564571 4.74031 217 217 241 
-1.41254 0.30788 3.33406 52 66 141 
-1.4853 0.249729 3.35306 158 189 235 
0.465812 0.952434 4.39482 127 132 152 
1.0126 0.155195 5.15234 47 49 72 
1.62851 -0.272068 6.65536 95 96 116 
-1.40536 0.511167 3.36433 53 75 122 
-1.49928 0.408665 3.32261 50 115 171 
-0.457429 -0.803952 3.59608 151 139 161 
0.987607 -0.648038 5.20786 126 134 171 
1.0413 0.260697 5.16024 178 184 220 
-0.466316 -0.767913 3.58216 147 133 156 
-0.508555 0.835733 3.34122 53 48 115 
-1.37985 0.261935 3.17289 150 185 227 
-1.58489 0.297461 3.29165 164 190 217 
-1.51698 0.406909 3.37159 58 46 94 
1.46904 -1.25579 5.80641 73 64 91 
-1.23388 0.445004 3.66727 143 157 204 
0.986032 0.757375 4.9012 30 34 69 
-0.46731 -0.464589 3.58235 34 30 44 
-1.21051 0.57 3.66992 51 71 108 
-1.20681 0.807614 3.57299 101 109 146 
1.00395 -0.0300104 5.17627 78 78 112 
-1.22335 0.749366 3.6055 42 47 87 
-1.10249 -0.231778 3.92634 77 92 121 
-0.56597 0.879786 3.27872 120 97 123 
1.59357 -0.284692 6.66704 118 123 145 
-1.57319 -0.705045 3.51999 63 60 87 
1.7725 -1.33562 6.17331 67 57 81 
-1.53303 0.416286 3.2396 93 152 208 
1.01527 0.344114 5.12201 51 56 75 
0.546844 0.259689 4.64401 134 140 174 
1.64098 -0.36055 6.69785 37 33 60 
1.32635 0.168599 6.30908 205 221 255 
1.29966 0.194787 6.28643 177 208 255 
-0.567229 0.924565 3.30793 214 211 255 
-1.46427 0.33601 3.32267 32 39 83 
-1.47942 0.40273 3.32982 64 54 91 
-1.43167 0.39665 3.35778 27 27 77 
-1.1943 0.440691 3.63958 250 255 255 
-1.42159 0.364695 3.33641 42 49 121 
1.45405 -0.313312 6.6099 41 36 56 
1.58896 -1.2889 5.99794 97 87 111 
0.643406 0.613764 4.6835 59 70 126 
0.576888 0.270172 4.63839 126 129 162 
-0.614761 0.972792 3.19128 121 118 149 
-0.503355 0.802102 3.33794 71 55 102 
1.52857 -0.297308 6.52422 51 49 73 
-1.55852 -0.701797 3.50293 65 61 86 
1.55729 -0.292259 6.56518 53 57 82 
-0.66884 0.304499 4.63265 124 124 124 
1.52912 -1.29027 5.89346 54 42 66 
-1.21809 0.685021 3.59462 34 34 60 
-0.645306 0.291836 4.67864 117 126 125 
-0.68939 0.289116 4.67972 91 96 99 
1.84361 -1.32927 6.26023 50 36 59 
1.98191 -1.28553 6.39189 48 46 60 
-1.45192 0.266455 3.27505 35 31 90 
-1.40558 0.274942 3.33805 20 37 89 
-0.684115 0.173881 4.7009 124 134 195 
-1.5021 0.271157 3.30618 193 215 255 
2.0756 -1.18164 6.50749 98 99 120 
-0.692865 0.0706447 4.7038 135 147 207 
-0.534708 0.853297 3.31713 238 239 255 
-1.45951 0.372669 3.26854 199 214 255 
-1.45341 0.298802 3.38547 215 226 254 
0.541677 -0.11112 4.66888 34 32 43 
-1.40976 0.360796 3.31947 36 44 107 
-1.08387 -0.231133 3.89722 81 87 113 
-1.45855 0.346631 3.32746 207 220 255 
-1.21436 0.860454 3.59249 108 135 182 
-1.50724 0.331268 3.38369 204 213 255 
-1.45212 0.300255 3.24847 62 65 80 
1.0448 -0.19201 5.2359 160 175 208 
-1.50728 0.311912 3.33683 48 80 139 
-1.45418 0.315388 3.37967 44 64 133 
1.51903 -1.27379 5.95326 97 103 127 
1.43963 -1.21144 5.82369 53 50 67 
-1.45105 0.400146 3.37779 21 29 78 
-1.46622 0.268559 3.28744 17 40 90 
-1.46945 0.241195 3.34012 27 32 51 
-0.682747 0.116902 4.72197 26 33 59 
-0.674357 0.100663 4.73492 153 173 242 
1.31932 0.17608 6.31323 206 225 255 
1.32292 0.127998 6.32379 210 225 255 
0.532699 -0.112408 4.70686 31 30 36 
0.974359 -0.661583 5.24198 146 158 196 
-0.535075 -1.67747 3.69638 194 190 223 
-0.0660512 -1.70925 4.1845 127 118 139 
-0.0216119 -1.69222 4.20567 64 49 72 
-1.35675 -1.8185 3.86014 62 68 104 
1.75053 -1.96689 6.15492 101 106 136 
1.67514 -1.92954 6.12228 94 91 122 
2.00954 -1.98869 6.49816 79 76 103 
2.01711 -1.97185 6.45721 123 123 147 
1.83661 -1.86796 6.2173 86 102 136 
1.83624 -1.86365 6.27082 92 113 142 
1.83912 -1.80598 6.19025 87 100 134 
1.83018 -1.79543 6.30011 160 172 198 
1.87417 -1.78343 6.28072 140 151 181 
1.87082 -1.7595 6.26479 132 143 173 
-0.487474 -1.36718 3.66071 99 107 144 
1.6347 -1.60237 5.99785 130 143 162 
0.0171615 -1.35158 4.18008 123 116 134 
1.96726 -1.61612 6.32949 144 164 188 
1.63939 -1.58188 6.03196 56 53 82 
2.02762 -1.62446 6.448 119 119 145 
1.68626 -1.5673 6.04956 106 126 150 
1.642 -1.57228 6.04514 71 64 95 
2.02467 -1.61038 6.43301 74 69 101 
2.01865 -1.56014 6.45551 71 74 105 
1.62786 -1.48191 5.94047 176 180 205 
1.62306 -1.49392 5.99732 178 196 218 
2.02902 -1.49939 6.40633 104 104 128 
2.01461 -1.50091 6.41918 63 77 112 
1.8061 -1.45034 6.10155 119 135 158 
2.02175 -1.48468 6.40413 128 123 145 
1.94767 -1.45135 6.26844 94 105 137 
1.99619 -1.41607 6.33336 132 138 164 
1.98604 -1.42285 6.40044 120 138 158 
1.51691 -1.3382 5.90093 74 67 101 
2.06842 -1.37873 6.44786 128 141 160 
1.07865 -1.25181 5.39826 137 145 182 
1.86976 -1.25916 6.17712 75 74 90 
1.87306 -1.28346 6.29295 92 91 109 
1.47611 -1.22764 5.86262 129 125 148 
-0.528845 -0.998877 3.59589 48 42 54 
1.33922 -1.10708 5.7332 66 62 87 
1.57905 -1.05147 6.20982 116 111 133 
1.58726 -1.06477 6.29255 110 98 122 
1.15487 -0.773492 5.4117 97 86 120 
0.984818 -0.718518 5.24677 140 154 189 
2.28407 -0.713502 6.68676 105 117 143 
-0.730485 -0.621431 3.48798 33 34 55 
1.14311 -0.538706 5.40368 97 86 116 
-0.957998 -0.569303 4.18882 123 117 129 
-0.585234 -0.466936 3.47749 59 48 62 
1.29482 -0.411835 6.36878 49 50 80 
1.14515 -0.332556 5.43564 56 43 61 
1.15089 -0.309077 5.38509 69 52 71 
1.29083 -0.325133 6.28316 90 87 106 
0.40972 -0.294847 4.48001 48 39 60 
1.33929 -0.316843 6.36434 78 83 105 
1.57306 -0.158095 3.86152 93 92 110 
1.19617 -0.276891 5.60591 66 49 68 
1.49431 -0.296188 6.56687 90 85 107 
1.52423 -0.293576 6.61889 100 91 110 
1.69991 -0.202739 5.1942 57 44 70 
1.61388 -0.28452 6.65356 60 50 75 
1.70252 -0.276119 6.75654 59 49 76 
1.60547 -0.277998 6.66919 80 75 97 
0.418182 -0.250858 4.52659 55 46 65 
1.13356 -0.163033 5.35564 85 72 100 
1.15145 -0.153112 5.78441 127 124 141 
1.34722 0.0963778 6.31429 125 135 197 
1.35482 0.114886 6.31151 184 188 236 
1.30494 0.133804 6.27253 55 72 126 
1.34435 0.138737 6.337 62 67 133 
1.90192 0.247592 6.64802 117 114 131 
1.34463 0.214087 6.3227 142 145 200 
-0.654902 0.288454 4.60991 115 113 114 
-1.00345 0.441697 4.2218 90 93 112 
0.62374 0.545864 4.73071 41 41 93 
0.681995 0.582301 4.77042 92 96 160 
0.636889 0.575423 4.7147 72 78 140 
-1.49476 0.379603 3.29819 148 158 230 
0.631057 0.664038 4.71379 60 59 103 
1.25869 0.931068 5.54641 58 73 116 
-1.19173 0.749656 3.57421 128 146 192 
0.488495 0.95683 4.40999 112 124 140 
1.62216 1.15224 5.13122 89 91 130 
-0.522262 0.825962 3.3761 204 212 233 
-0.522555 0.839725 3.36589 81 82 138 
-0.56531 0.892694 3.29801 35 55 126 
-0.518185 0.909103 3.35845 218 230 255 
-0.525933 0.930208 3.34409 159 150 207 
1.25678 1.06933 3.43452 91 92 136 
1.58902 1.06875 3.31839 95 103 142 
1.61789 1.02159 2.85802 164 178 207 
1.25364 1.1434 4.70015 61 79 119 
-0.0554786 -1.70032 4.15854 139 124 143 
-0.514014 0.807175 3.35648 75 71 132 
-1.16363 0.785281 3.54983 108 140 189 
-1.20557 0.754366 3.58996 122 136 181 
-1.19138 0.752163 3.59256 123 156 197 
-1.47031 0.502546 3.30599 83 82 116 
1.8399 -1.99909 6.33087 70 69 103 
2.02545 -2.0066 6.48066 102 99 120 
2.00412 -1.99959 6.478 93 96 115 
1.99894 -2.00042 6.50934 125 131 155 
0.636711 0.648931 4.67723 151 151 201 
1.67511 -1.92017 6.09347 118 115 144 
2.04003 -1.96524 6.44071 50 44 70 
2.04524 -1.96433 6.47065 104 99 119 
1.82739 -1.77079 6.21554 144 159 180 
1.82608 -1.77037 6.24991 94 115 144 
-1.41933 0.368409 3.33461 76 104 178 
1.83701 -1.69166 6.12291 107 109 147 
0.640215 0.574912 4.70086 72 78 140 
0.629614 0.559947 4.71872 199 204 244 
0.686136 0.564004 4.78668 180 184 209 
1.63488 -1.59564 5.97142 128 145 163 
2.02515 -1.61845 6.42197 128 132 157 
1.68559 -1.57758 6.08809 106 126 150 
1.7005 -1.55562 6.14246 86 83 112 
2.01798 -1.55681 6.44109 71 74 105 
-1.54479 0.286066 3.24982 121 152 183 
1.97329 -1.52373 6.36811 89 90 118 
2.10367 0.715214 6.54019 91 103 127 
1.60124 -1.46111 5.93178 133 131 153 
2.00834 -1.48936 6.39838 65 66 96 
-0.645769 0.145694 4.74809 20 33 103 
-0.653867 0.0955383 4.769 17 28 92 
-0.682939 0.0691656 4.66939 102 112 165 
0.146428 -1.1409 4.31628 59 48 64 
1.34336 0.174051 6.33529 58 67 134 
1.34498 0.139101 6.31566 54 57 124 
1.45647 -1.20304 5.79019 164 170 192 
1.1569 -0.162941 5.55266 77 62 91 
1.15127 -1.1402 5.50907 123 129 163 
1.52533 -0.290334 6.56982 107 100 118 
1.49493 -0.29433 6.50852 97 92 114 
1.46441 -0.297426 6.45704 103 100 121 
1.47003 -0.379663 6.49805 56 59 94 
-0.207541 -0.394044 3.03318 118 118 130 
-0.0317169 -0.349396 2.59354 130 122 133 
-0.498139 -0.697423 3.65101 50 47 76 
0.44274 0.022704 4.51756 149 146 163 
1.93538 -1.92564 6.58787 157 156 187 
1.15289 -0.630945 5.38765 90 71 103 
1.23265 -0.876828 5.48912 93 84 113 
-0.493846 -0.735621 3.60717 86 73 103 
1.26434 -0.954439 5.53844 78 69 96 
1.93022 -2.06808 6.46776 63 64 94 
1.05344 -0.987149 5.3491 79 87 124 
1.6575 -0.363371 6.76808 122 124 147 
1.2652 -0.339672 6.27425 65 61 88 
1.34912 -0.331931 6.40697 53 48 78 
1.67102 -0.279231 6.68662 59 50 77 
1.60573 -0.276558 6.64469 80 75 97 
1.63815 -0.269754 6.62579 100 92 113 
1.6601 -0.266855 6.66729 98 97 115 
1.6996 -0.262835 6.75089 98 94 111 
1.15666 -1.11578 5.40271 155 169 204 
1.1466 -0.154164 5.83681 112 109 126 
1.74984 -1.99212 6.2356 101 108 137 
1.48972 1.12575 3.87239 94 90 127 
1.80966 -1.28012 6.13154 73 75 88 
-1.23915 0.689807 3.62241 34 38 73 
-0.484076 -1.52317 3.69227 189 189 223 
0.297085 0.268285 4.62501 93 102 131 
-0.0307112 -1.58244 4.19256 60 47 67 
1.64936 -1.37326 5.99023 73 62 92 
-0.0213617 -1.54866 4.16898 114 92 113 
1.57646 -1.46677 5.93702 143 150 176 
1.71581 -1.52888 6.09834 150 159 188 
1.44571 1.10442 5.34948 72 82 118 
1.65432 -1.81058 6.09953 80 96 132 
2.01424 -1.64856 6.52993 88 105 133 
1.83822 -1.81827 6.23155 87 100 134 
0.0146932 -1.34352 4.16303 55 46 65 
1.99964 -1.91617 6.64236 88 106 144 
1.92565 -1.86303 6.44321 184 185 213 
-1.20207 0.807803 3.56608 104 106 144 
1.75582 -1.4725 6.05136 146 158 184 
1.09581 0.259084 5.25998 90 71 101 
1.20689 1.17278 4.41136 73 77 112 
1.61253 -0.137348 3.57603 80 79 93 
1.85385 -1.85894 6.28631 132 146 175 
0.688294 0.541993 4.71993 169 178 233 
1.70164 -1.54146 6.08303 81 76 106 
1.22627 1.02276 5.15676 54 65 97 
1.8325 -2.01717 6.34159 67 85 109 
-0.576221 0.919008 3.29575 48 30 80 
-0.575667 0.906844 3.30251 207 209 250 
1.9875 -1.86609 6.38829 44 60 85 
-0.516534 0.827597 3.36402 241 245 255 
-0.578977 0.812321 3.30888 44 41 88 
0.144907 -1.1162 4.28698 45 34 48 
-1.18003 0.788166 3.57147 95 129 177 
2.00178 -1.98533 6.43542 98 103 123 
1.36142 -1.15412 5.64651 92 79 107 
-1.45985 0.499578 3.30459 159 161 210 
2.04082 -1.98701 6.50605 50 44 70 
1.55124 -0.592279 6.59636 104 101 122 
0.116835 -1.13643 4.36781 52 43 60 
0.689781 0.667814 4.73138 57 53 103 
1.99607 -0.0047765 6.69653 93 90 117 
0.693343 0.64416 4.72367 239 243 254 
-1.4832 0.39067 3.30052 71 46 127 
0.657004 0.611175 4.74222 212 229 255 
1.65374 -1.6653 6.04288 36 37 65 
-0.508659 -0.620433 3.57894 74 80 112 
0.646094 0.572586 4.67455 90 99 158 
0.687613 0.551642 4.78244 55 62 117 
-0.513394 -0.539348 3.57128 52 46 74 
1.94967 -1.62983 6.38418 58 75 105 
-0.639815 -0.488565 3.39176 127 115 127 
1.95729 -1.61856 6.39562 148 154 180 
1.68905 -1.52581 5.97701 113 117 142 
-2.72955 -0.964042 6.62035 122 124 137 
1.38866 -1.15805 5.7687 61 53 77 
1.15363 -1.13555 5.48504 133 137 174 
-0.663836 0.28652 4.62761 105 105 107 
-0.523374 -0.994103 3.58147 27 20 28 
2.02069 -1.49322 6.44345 137 135 157 
-0.624585 0.178633 4.69155 124 143 202 
-0.676589 0.137441 4.66778 32 44 102 
1.3392 0.212414 6.2928 187 197 246 
1.30171 0.210857 6.32655 127 143 202 
0.908115 -1.1394 5.17796 131 143 185 
1.28303 0.159767 6.84449 66 67 134 
1.3565 0.146661 5.85987 51 62 124 
1.32367 0.143107 6.31001 209 225 255 
1.29806 -0.407788 6.29853 36 36 64 
1.52316 -0.290328 6.54352 110 102 125 
1.35254 0.10826 6.34696 170 171 227 
0.156659 -1.13305 4.28738 49 38 52 
1.14561 -0.153767 5.65667 176 174 187 
-0.265823 -1.10648 3.83987 86 71 94 
1.6666 -0.270171 6.721 102 94 115 
1.63413 -0.273701 6.65966 94 89 111 
1.48936 -0.298703 6.57904 104 101 122 
2.00707 -1.97676 6.45229 82 79 106 
1.28635 -0.328273 6.32504 88 83 105 
1.29018 -0.342741 6.33028 48 41 72 
1.47296 -1.22448 5.8449 125 119 145 
1.14739 -0.311667 5.42231 63 48 67 
1.13364 0.208619 5.23008 68 55 81 
1.99753 -1.51245 6.45957 130 150 177 
2.00861 -1.61915 6.41519 97 114 142 
1.7351 1.11803 3.73512 74 71 114 
1.70796 -1.67085 6.13863 173 189 214 
-0.0540283 -1.42607 4.09929 45 43 57 
-0.480016 -0.811961 3.63717 72 63 90 
1.26112 -0.960646 5.564 78 69 96 
0.303126 0.267782 4.60393 105 116 144 
1.94391 -1.45718 6.29281 99 105 137 
-1.47309 0.424721 3.29156 81 160 216 
1.93004 -1.88319 6.44414 178 182 211 
1.63598 -1.67496 6.01046 74 69 99 
0.448882 0.02205 4.4948 128 127 141 
-1.1998 0.856987 3.5671 103 120 163 
1.07271 -0.437304 5.21622 33 36 51 
-0.415744 0.623717 3.49778 49 52 83 
0.993727 0.3362 5.15542 99 102 133 
1.19917 -0.275106 5.58014 69 52 71 
1.82052 -1.83521 6.14538 130 136 172 
0.826833 0.727128 4.82725 177 191 220 
0.417057 -0.354304 4.58089 59 53 79 
-1.17742 0.669034 3.57009 122 139 183 
-0.48509 -1.66519 3.69961 139 131 172 
1.07671 -1.25545 5.41507 137 145 182 
1.45089 1.07732 5.21888 90 93 126 
1.04874 -0.994693 5.38985 71 79 115 
1.33473 -0.319902 6.40971 78 83 105 
0.576287 0.0794026 4.6892 114 110 143 
2.08502 -1.17465 6.53509 105 113 136 
1.8076 -1.47183 6.19137 115 133 155 
2.00026 -1.62907 6.43354 142 164 188 
1.9891 -1.84862 6.40553 73 87 124 
1.53512 -1.24385 5.84819 95 83 105 
1.78425 -0.99144 4.76227 80 79 97 
1.5334 -2.00046 5.92102 63 70 112 
-0.671784 0.966518 3.14384 62 78 112 
0.823582 0.7292 4.84641 177 191 220 
1.24139 1.00684 5.16573 81 100 132 
1.13206 0.649636 5.69287 132 120 144 
-1.61528 -0.701047 5.13519 47 41 53 
-1.44136 0.277519 3.3769 26 52 111 
-0.0314602 -1.62305 4.18671 42 39 60 
2.03783 -1.99855 6.49456 137 140 157 
1.99998 -1.97535 6.4162 107 111 138 
1.78743 1.08236 3.42801 60 63 94 
2.04738 -1.98005 6.52818 109 108 124 
1.98923 -1.88434 6.44514 46 62 88 
1.83651 -1.83212 6.27601 84 90 126 
0.997224 0.348448 5.18971 50 52 75 
0.589098 0.269976 4.60333 110 104 132 
0.628291 0.559437 4.72945 223 230 255 
1.1242 0.303205 5.27111 77 62 91 
1.82661 -1.78627 6.26628 144 159 180 
1.83669 -1.75919 6.23275 160 175 196 
-0.641246 0.118035 4.692 23 36 91 
1.35005 0.194781 6.30998 192 200 249 
1.66806 -1.62592 6.10415 67 70 103 
1.34588 0.169259 6.29448 49 54 122 
1.65746 -1.5906 6.00674 153 171 195 
1.3378 0.15299 6.27252 57 58 122 
1.31252 0.152527 6.34287 57 72 137 
2.02614 -1.63707 6.48388 133 133 159 
2.01119 -1.62997 6.46135 84 95 127 
1.95587 -1.60602 6.35444 138 148 173 
2.02298 -1.59525 6.37447 77 78 108 
1.65436 -1.55284 6.00757 114 119 148 
1.34562 0.142178 6.27717 62 61 127 
1.67311 -1.57864 6.14205 36 41 70 
2.01952 -1.54696 6.40624 65 70 102 
1.99779 -0.00479262 6.74417 99 98 129 
1.99829 -1.50031 6.40314 130 150 177 
2.01261 -1.50054 6.42979 60 68 104 
2.03121 -1.50639 6.46947 51 49 71 
2.02289 -1.49338 6.45485 135 133 155 
1.98445 -1.40479 6.31961 137 155 175 
1.14749 -0.154248 5.63845 177 177 189 
0.679394 0.650611 4.78798 200 204 231 
0.640446 0.660348 4.71667 192 193 241 
1.64385 -1.32645 6.02779 54 36 60 
0.135464 -1.14827 4.34358 59 48 64 
1.69632 -0.264331 6.72862 103 101 122 
1.66393 -0.273991 6.78126 107 102 122 
1.6906 -1.31323 6.12813 117 114 133 
1.52016 -1.29134 5.9421 38 23 42 
0.155878 -1.10927 4.25293 33 27 37 
1.16631 -1.23481 5.51231 115 124 163 
1.39682 -1.25525 5.77399 82 68 101 
-0.511557 0.92718 3.35793 40 30 67 
0.571357 -0.322113 4.77266 55 58 73 
1.6464 -0.355569 6.69092 49 54 84 
-0.513548 -0.990031 3.56565 22 19 26 
-1.22986 0.573783 3.69643 47 60 95 
2.08221 -1.16357 6.47284 105 113 136 
-0.478695 -0.449704 3.56912 58 46 58 
-0.216904 -0.387341 3.03782 49 43 55 
-0.43804 -0.457162 3.5321 40 37 54 
-0.409943 0.621726 3.48768 45 49 78 
1.19888 -0.865528 5.48507 63 50 76 
0.462885 1.0226 4.42402 141 146 168 
-0.499541 -0.682665 3.6436 50 54 81 
-0.522825 -0.666179 3.61722 78 77 109 
-1.22344 0.811038 3.59307 115 123 162 
1.55974 -0.295621 6.56874 70 65 95 
0.126924 -1.72362 4.40608 65 62 83 
-0.489062 0.950717 3.47896 60 69 102 
1.1445 -0.312729 5.45077 64 47 66 
1.99988 -1.62649 6.41882 145 165 190 
1.52641 -0.305622 6.62257 59 50 77 
1.53216 -1.25632 5.89835 95 83 105 
-1.24787 0.447947 3.71103 226 241 255 
0.683773 0.624913 4.73264 69 74 130 
-1.46089 0.392025 3.28703 167 158 225 
0.620631 0.661788 4.72001 74 70 107 
-2.67401 -0.936639 6.66297 43 42 48 
0.670622 0.600801 4.71724 87 91 162 
1.00884 -0.0283078 5.13711 79 79 113 
0.618075 -0.331165 4.67378 59 61 76 
1.99901 -2.01261 6.5453 113 117 142 
0.665702 0.588928 4.71044 236 239 254 
0.972463 0.767804 4.96498 40 46 80 
2.04266 -1.99629 6.52954 53 48 71 
-0.659852 0.173166 4.64701 109 115 167 
-0.655115 0.175207 4.76023 130 151 216 
-0.667252 0.304767 4.62928 97 95 100 
-0.647719 0.309595 4.68145 121 122 126 
-0.671173 0.156512 4.64545 149 160 224 
0.67301 0.59039 4.78467 66 66 126 
-0.67101 0.118821 4.74641 23 36 91 
-0.665282 0.11672 4.68731 24 35 65 
-1.45505 0.36632 3.37065 47 59 141 
2.01708 -1.82166 6.45271 65 56 87 
-0.666236 0.0559445 4.67203 103 118 177 
1.329 0.212537 6.3805 203 216 255 
1.30131 0.20954 6.33803 175 195 246 
1.02987 0.167208 5.22914 125 133 169 
1.65107 -1.67794 6.08004 45 46 74 
1.69194 -1.65577 6.15742 49 63 90 
1.6665 -1.60673 6.0251 62 56 90 
1.45933 -0.298466 6.40199 105 105 129 
1.64896 -1.62167 6.11828 120 140 167 
1.63087 -1.57026 5.94928 127 129 154 
0.434529 0.912328 4.33489 116 123 142 
1.93805 -1.6066 6.28588 70 64 100 
0.622722 0.562955 4.75189 217 223 255 
1.68469 -1.56495 6.0271 118 138 162 
2.02389 -1.61725 6.46291 74 69 101 
1.68439 -1.55408 6.08985 113 117 142 
1.71193 -1.53111 6.02044 47 51 76 
1.27004 -1.01738 5.54907 70 52 76 
2.02389 -1.55392 6.37839 140 152 176 
1.31738 -1.07925 5.56262 67 49 73 
2.13369 -0.000326286 6.71376 119 125 149 
2.02053 -1.57034 6.49411 65 70 102 
-1.40426 0.294538 3.33193 207 223 255 
1.59191 -1.47552 5.9857 138 138 162 
1.37979 -1.17474 5.84126 59 49 73 
1.14802 -1.12861 5.45801 155 169 204 
2.02057 -1.50727 6.40851 138 155 181 
-0.538457 0.813804 3.37608 213 228 255 
-1.51359 0.305736 3.31536 58 63 101 
1.94079 -1.46255 6.24427 63 63 101 
-0.540003 0.913868 3.26508 195 177 235 
1.43412 -1.2215 5.87838 62 60 81 
2.00284 -1.44561 6.39644 90 100 135 
-0.526051 0.920806 3.37005 222 227 246 
1.98403 -1.42201 6.37963 147 165 187 
-0.584942 0.899034 3.29889 94 77 109 
1.17407 -1.21421 5.43331 123 128 166 
1.4703 -1.25201 5.78467 78 64 89 
2.05992 -1.34966 6.31859 109 130 151 
1.65077 -1.34147 6.0392 50 40 64 
1.58737 -1.32228 5.95705 62 46 72 
0.640492 0.533662 4.67843 76 65 99 
1.52887 -1.2866 5.85917 61 51 76 
0.649905 0.538214 4.68402 171 188 244 
1.07139 -0.440446 5.23507 43 46 63 
1.03466 0.760294 5.09003 160 175 204 
1.19205 -0.8746 5.53606 65 55 79 
1.65424 -1.56379 6.03804 104 108 137 
0.475638 1.013 4.37594 138 143 165 
1.45671 -1.21122 5.81475 166 172 194 
-1.223 0.0202472 3.76596 83 99 135 
1.5474 -0.597506 6.63498 108 106 130 
1.03833 0.323299 5.13679 162 168 202 
0.565591 0.273778 4.68686 110 104 132 
1.66244 -0.266494 6.6301 94 92 113 
1.28615 -0.325189 6.23546 95 95 119 
-1.23402 -0.242806 3.82307 35 41 67 
1.46839 -0.307337 6.41036 68 58 83 
1.49266 -0.309472 6.58688 64 54 79 
1.99006 -1.87765 6.49783 66 84 120 
0.990424 -0.697428 5.15059 113 121 157 
1.56787 -1.27455 5.94265 105 100 120 
1.34772 -0.317844 6.34084 100 102 127 
1.64032 -0.281085 6.64062 59 46 74 
1.69205 -0.264563 6.69936 89 90 110 
1.02738 0.181098 5.23895 164 174 210 
0.555082 0.257934 4.60966 140 147 176 
-0.505818 0.886191 3.52096 128 142 169 
0.126607 -1.71293 4.3791 37 35 46 
-0.519316 0.931324 3.36562 43 35 74 
1.67555 -2.01859 6.26067 159 169 196 
1.25453 1.14009 4.55228 60 64 101 
-0.539742 0.854101 3.32513 232 234 255 
0.0362778 -1.6395 4.27813 41 32 51 
1.23649 1.05731 4.94015 65 68 103 
1.23167 1.0067 5.19207 58 76 112 
1.02467 0.611398 5.19587 139 150 182 
0.977719 0.766567 4.9529 33 42 81 
1.65381 -1.69777 6.15467 32 38 62 
1.68535 -1.64488 6.08203 120 134 161 
-1.46139 0.401492 3.30591 56 54 78 
0.688353 0.620417 4.71864 48 57 116 
-1.2661 0.450609 3.73228 226 241 255 
1.97029 -1.66566 6.48404 148 155 183 
0.647995 0.613342 4.826 61 65 126 
1.68693 -1.56897 6.14037 104 104 128 
1.71058 -1.53937 6.04283 47 51 76 
-1.46445 0.353018 3.28324 29 59 123 
2.02521 -1.54931 6.35258 140 150 175 
2.01902 -1.53414 6.35289 65 70 102 
0.636142 0.543238 4.74919 160 170 229 
0.645753 0.530251 4.66507 78 64 99 
-1.47084 0.326873 3.34323 201 216 255 
1.58412 -1.44884 5.86575 146 146 170 
2.02191 -1.50286 6.38255 148 160 186 
1.98684 -1.43586 6.18467 90 93 126 
-1.46632 0.289418 3.28855 199 202 255 
-1.45019 0.27826 3.38876 29 39 98 
1.98344 -1.38998 6.21285 154 169 192 
0.17073 -1.19132 4.33739 48 45 62 
1.00058 0.347316 5.17151 50 52 75 
0.563864 0.273221 4.69817 119 119 147 
-0.663584 0.173142 4.6585 120 127 182 
1.65444 -1.34542 6.06723 47 43 66 
-0.630744 0.163495 4.71647 141 164 234 
1.53069 -1.29406 5.89832 48 43 66 
0.132398 -1.14033 4.3543 134 132 145 
-0.572213 -0.476422 3.46365 127 119 130 
1.52704 -1.26173 5.91501 97 87 112 
1.46804 -1.24392 5.82332 43 30 48 
1.33519 0.199527 6.38305 211 222 254 
-0.523405 -0.582261 3.59627 71 70 102 
-0.492158 -0.978792 3.52956 18 17 22 
1.30014 0.102118 6.31706 186 208 255 
0.43012 0.0210381 4.56581 141 140 158 
2.07911 -1.15383 6.41713 106 114 137 
1.27735 -0.429694 6.52635 33 33 59 
0.997065 -0.714576 5.18387 154 160 194 
-0.529315 -0.676723 3.60691 181 176 198 
1.13558 -0.146841 5.82604 71 54 73 
1.46079 -0.302536 6.42051 101 96 119 
1.48952 -0.296671 6.47048 98 94 117 
0.412763 -0.250491 4.5356 56 47 66 
1.51605 -0.297673 6.65459 112 107 129 
1.34054 0.114253 6.36609 215 226 255 
1.33523 0.161106 6.38822 48 59 115 
1.31655 0.172803 6.36806 210 225 254 
1.30739 0.187674 6.18068 184 212 255 
1.34572 0.198312 6.24186 213 224 255 
-0.520391 0.913482 3.38161 92 78 113 
1.25314 1.14359 4.56741 60 64 101 
-0.613967 -0.473787 3.42197 41 39 52 
-0.654268 0.0738154 4.76672 149 167 239 
-0.652884 0.100255 4.69007 151 170 239 
1.25726 1.12212 4.62275 53 57 86 
-0.585268 0.826368 3.33253 229 234 255 
1.24589 1.09574 4.72762 52 55 86 
-0.659704 0.129134 4.69909 151 170 239 
0.0402463 -1.51687 4.2846 30 25 45 
1.64245 -0.357551 6.5758 44 42 64 
-0.703176 0.156408 4.71632 154 171 240 
2.02384 -1.85618 6.56765 33 27 53 
1.95246 -1.81345 6.40606 71 74 109 
1.25102 1.03076 4.80323 49 48 79 
-0.626018 0.171742 4.70269 143 166 234 
-0.643499 0.29247 4.6738 137 147 146 
1.65515 -1.67926 6.09298 34 38 63 
0.555718 -0.128322 4.70707 156 171 202 
-0.483954 -0.699717 3.62993 58 54 77 
2.028 -1.64548 6.49626 127 122 152 
2.02628 -1.62447 6.49582 84 77 110 
1.71317 -1.51191 5.93489 39 47 70 
0.988843 0.757539 4.88465 33 46 81 
0.661324 0.551211 4.81565 196 209 253 
2.01997 -1.53166 6.36309 88 79 110 
1.62512 -1.60953 6.10042 130 134 161 
1.32057 -1.08306 5.58921 46 38 61 
1.39285 -1.13774 5.66396 61 53 74 
1.36718 -1.14147 5.63213 51 36 57 
0.668506 0.568644 4.82599 242 244 255 
2.00905 -1.37914 6.06246 158 165 193 
0.679161 0.651723 4.76092 240 243 250 
0.626155 0.647146 4.73599 230 236 255 
-1.52042 0.409448 3.36817 64 60 87 
0.152731 -1.19482 4.34743 152 134 150 
0.19508 -1.17046 4.26982 51 44 62 
-1.46104 0.396982 3.35668 206 220 255 
-1.44999 0.388353 3.27752 189 191 250 
1.65593 -1.31683 5.9533 42 34 57 
0.665155 0.584065 4.72783 243 243 251 
1.58587 -1.33092 6.02036 43 31 53 
1.46462 -1.2585 5.87207 43 30 47 
0.148041 -1.10055 4.29221 168 166 187 
-1.41324 0.379966 3.32738 212 229 255 
0.640279 0.587476 4.71854 59 71 123 
1.69755 -1.29928 6.06141 115 110 132 
1.58282 -1.30291 6.03548 88 78 103 
1.56533 -1.29513 6.0158 99 91 115 
1.78114 -1.34044 6.16518 48 36 58 
1.718 -1.33542 6.06763 36 31 51 
1.66136 -1.5316 6.02353 139 156 184 
1.0076 0.146024 5.07921 81 89 126 
0.555329 -0.109932 4.61133 36 35 43 
1.30708 -1.36692 5.5764 116 125 158 
0.159487 -1.27102 4.40928 176 179 212 
1.94544 1.0716 6.68108 63 61 74 
0.652947 0.606426 4.85553 54 65 111 
-1.49527 0.336002 3.34291 31 41 76 
-1.49997 0.272438 3.32349 27 31 95 
-0.636684 0.298627 4.66059 134 138 137 
-0.650772 0.173018 4.74374 145 169 233 
1.3107 0.1002 6.19579 171 197 248 
1.42903 -1.20367 5.78798 49 46 63 
-0.55316 0.881618 3.33906 241 244 251 
-0.540487 0.913328 3.24621 34 44 71 
1.38903 -1.11766 5.56591 43 39 53 
0.0790973 -1.16545 4.43921 32 27 34 
0.552596 -0.326847 4.81818 56 59 78 
1.65911 -1.6779 6.07001 51 66 89 
0.682591 0.673795 4.77151 38 40 91 
1.02675 -0.0291569 5.08446 46 52 74 
0.654995 0.624661 4.73965 235 239 251 
0.696608 0.542325 4.72585 108 114 174 
-1.45946 0.323485 3.32915 201 216 255 
1.94247 -1.64421 6.42682 56 60 97 
-1.28025 0.451131 3.74889 208 224 255 
1.94726 -1.79426 6.31517 89 81 118 
1.69021 -1.6516 6.13578 101 113 137 
0.567919 -0.125675 4.64967 140 151 179 
1.25208 1.13718 4.52698 56 62 88 
0.441191 -0.23942 4.43849 34 28 42 
1.57936 -1.2888 5.96817 99 86 112 
-0.605808 -0.478169 3.43103 124 118 130 
-1.19797 0.572863 3.66019 44 53 82 
1.04195 -1.00061 5.42297 71 79 115 
1.1464 -1.15165 5.45641 79 88 127 
2.01959 -1.56636 6.39572 141 155 181 
1.67771 -1.66211 6.10913 96 110 137 
-1.2096 -0.103049 3.72129 143 162 205 
1.13935 0.57451 5.01413 48 41 57 
1.93417 1.02629 6.37633 56 52 67 
1.00099 -0.23204 5.1209 96 109 143 
-2.04949 -1.63341 3.07425 115 114 146 
-2.02051 -1.61617 3.1002 116 135 165 
-1.69161 -1.68792 3.46394 83 81 120 
-1.93519 -1.52295 3.18649 41 44 77 
-1.89261 -1.51207 3.22635 70 76 112 
-1.82203 -1.4361 3.30209 59 72 106 
-1.74122 -1.44493 3.39344 82 92 128 
-1.88324 -1.40442 3.23018 64 77 109 
-1.67899 -1.43169 3.44675 97 102 142 
-1.93365 -1.34219 3.16087 96 101 139 
-1.94899 -1.25969 2.92198 73 78 116 
-1.86791 -1.33718 3.23614 85 93 132 
-1.9128 -1.30611 3.18466 88 102 137 
-1.88428 -1.31016 3.21945 79 94 135 
-1.89682 -1.29801 3.20068 81 95 134 
-1.86137 -1.29495 3.23732 137 153 187 
-2.01264 -1.17018 2.89964 110 133 175 
-1.9689 -1.15682 2.89907 98 98 150 
-1.9485 -1.05297 2.88662 93 103 152 
-1.90552 -1.10454 3.16851 88 93 125 
-2.00712 -0.971974 2.81848 117 137 162 
-1.98223 -0.972792 2.85761 87 101 130 
-1.96385 -0.958754 2.88353 123 135 159 
-2.55044 -1.0642 3.12048 94 100 132 
0.986548 -0.63632 5.21541 75 78 113 
-1.9766 -0.631692 2.77806 55 57 82 
1.5619 -0.370985 6.60205 129 136 162 
-1.8883 -0.150412 3.0803 83 87 116 
1.90469 0.248693 6.73333 103 104 125 
-1.93254 0.0174655 2.77305 37 45 92 
-1.96856 0.017589 2.7273 182 192 253 
-1.92403 0.0304121 2.78106 20 38 100 
-1.97956 0.0248837 2.71324 38 37 105 
-1.92899 0.0496301 2.77141 61 67 145 
-1.95406 0.0823679 2.73934 193 209 255 
-1.92698 0.119616 2.76662 175 199 255 
-1.98509 0.122596 2.70078 51 45 83 
-1.926 0.132974 2.76839 17 26 85 
-1.56075 0.31663 3.21717 70 82 124 
-1.64819 0.345658 3.13369 153 186 201 
-1.83341 0.815527 2.97616 89 92 109 
-1.64427 0.358285 3.13883 47 79 118 
-1.81777 -1.42953 3.29533 72 76 113 
-1.97105 0.135554 2.71608 150 140 201 
-1.93681 0.139525 2.75747 148 149 213 
-1.9909 -1.17323 2.89879 41 63 110 
-2.00688 -1.15801 2.89961 95 110 153 
-0.682779 0.305106 4.65369 70 76 88 
-1.92851 0.0402929 2.77732 193 214 255 
-1.993 -1.07659 2.88272 162 174 216 
-2.01848 -1.05287 2.86716 37 50 103 
-1.93326 -1.02824 2.90688 147 168 199 
-1.96879 -0.963931 2.87215 119 128 157 
-1.96087 -0.958599 2.89574 113 118 147 
-1.93808 -0.955191 2.90796 155 161 195 
-1.98828 -0.637462 2.78244 31 31 43 
-1.97113 -0.648172 2.80261 77 75 115 
-1.91792 -0.667424 2.84504 152 158 184 
-1.90759 -0.697582 2.89938 34 45 63 
-1.92121 -0.692408 2.85526 160 174 209 
-1.96247 -0.690463 2.84172 151 166 195 
-1.91604 -0.671656 2.85647 94 108 137 
-1.84762 0.692661 2.97148 103 110 129 
-1.93034 -0.641182 2.82891 83 92 133 
-1.94412 -0.965025 2.90697 76 86 122 
1.93167 -2.06311 6.45833 59 54 86 
-1.93875 -1.51539 3.18084 115 120 149 
-1.86076 -0.141704 3.11719 75 79 116 
-1.96034 -1.00913 2.8881 118 140 181 
-1.57868 0.373228 3.1891 54 79 120 
-1.88394 -1.47554 3.23986 77 86 127 
-1.95582 -1.06505 2.89942 168 188 223 
-1.62957 0.346949 3.15092 125 150 207 
-1.86021 -1.08637 2.93758 49 47 71 
-1.8079 -1.43205 3.31005 87 91 129 
-2.01926 -1.6352 3.0994 63 59 94 
-1.64389 0.429984 3.13263 69 88 156 
-1.37671 0.828151 3.47535 53 49 82 
-1.87562 -1.02358 3.18876 88 99 131 
-1.56464 0.382951 3.19981 111 129 167 
2.11273 0.722094 6.61312 102 116 142 
-1.97986 0.105596 2.71129 58 76 152 
-1.95293 0.0716441 2.74167 190 206 255 
1.3522 0.108644 6.34583 146 146 208 
1.46005 -0.303241 6.52547 90 91 109 
-1.97614 -0.63253 2.78863 119 126 152 
-2.00161 -1.08786 2.88792 55 71 122 
1.69054 -1.30507 6.09448 97 100 115 
-1.89994 -0.712386 2.90287 149 170 201 
-2.03264 -1.02966 2.86096 31 38 84 
-1.68449 0.327613 3.10032 113 70 149 
-1.92466 0.150773 2.76429 30 34 61 
0.816068 0.735718 4.88974 158 168 203 
-1.95004 -0.673445 2.83647 66 86 119 
-1.89222 -1.11756 2.92762 96 104 125 
-1.93959 -1.26846 2.92264 147 154 182 
-1.92262 0.451263 2.70008 114 110 133 
-1.98368 0.133135 2.69041 28 34 58 
-1.67549 0.419878 3.09262 53 48 102 
-1.97833 -0.654899 2.7868 143 143 167 
-1.953 -0.959858 2.90418 152 166 195 
-1.69042 0.477662 3.01162 153 164 196 
-1.96112 -1.17452 2.91511 89 97 146 
-1.93846 -0.681074 2.84096 147 163 197 
-1.93676 -0.81981 2.9828 136 142 174 
-1.90917 -0.98073 3.00472 120 124 149 
1.59407 -0.283475 6.64139 115 113 134 
-1.60014 0.275589 3.18195 96 105 134 
-2.04537 -0.859398 2.82312 113 116 147 
-1.94323 -0.64282 2.8292 164 183 215 
-1.9636 -1.18549 2.91992 175 183 220 
1.03415 0.174206 5.19154 121 135 172 
0.604221 -0.333082 4.73577 36 42 64 
-0.684233 0.288654 4.66915 72 81 90 
-1.98103 0.116509 2.71069 186 196 255 
-1.97766 0.134133 2.7086 20 21 51 
0.99447 0.573269 5.09596 78 78 116 
-1.47597 0.269957 3.27726 142 169 212 
1.10172 -1.0145 5.40046 145 157 199 
-1.95627 -0.990891 2.89164 47 59 97 
-1.98225 -1.16261 2.90289 54 56 104 
-2.0418 -1.04567 2.87364 13 22 39 
0.0113886 -1.57583 4.21096 23 19 36 
1.98234 0.787102 6.66628 109 106 133 
1.02745 0.60409 5.13198 119 137 173 
-1.97716 -1.08522 2.89329 66 85 128 
-2.01478 -0.98927 2.83817 110 133 164 
-1.10999 -0.0376406 3.91787 89 95 127 
-1.97528 -0.830508 2.90817 131 135 160 
-1.60845 0.224091 3.13946 168 189 234 
-1.95979 -0.958983 2.93066 60 67 96 
-1.92754 0.103796 2.75818 28 35 103 
-0.506806 0.819337 3.3396 214 224 255 
-1.5534 0.301005 3.24555 69 84 117 
-1.98724 -0.796313 2.8591 47 56 89 
-1.94794 -0.803689 2.93152 157 173 206 
-1.97722 -0.778034 2.8559 172 183 215 
-1.94686 0.0765212 2.74972 27 43 102 
-1.96063 -1.20053 2.92232 49 59 94 
-1.96997 0.017329 2.69948 17 21 48 
1.01811 -0.218011 5.1798 33 38 58 
-1.96222 -0.99704 2.88611 145 158 192 
-1.93841 -1.02245 2.90033 40 64 102 
-1.88242 -0.732488 3.16219 100 111 139 
0.170383 -1.15446 4.31689 47 36 53 
-1.97281 0.0956444 2.71253 23 36 81 
-0.556394 0.846528 3.29907 30 36 86 
-1.97923 -0.78174 2.88406 157 171 208 
-1.40474 0.521176 3.35759 151 166 199 
-1.59572 0.384871 3.18718 155 171 205 
-1.98233 0.0325544 2.72437 201 214 255 
-1.97195 0.0551553 2.71459 28 46 96 
-1.93524 0.0609709 2.76746 32 46 95 
-1.93609 0.0973429 2.76562 26 39 83 
-1.97551 -0.987988 2.86289 33 39 53 
-2.02172 -1.00518 2.85278 59 83 111 
2.28703 -0.00215448 6.76316 87 84 113 
-0.647569 0.116267 4.67485 32 48 107 
2.58774 0.631241 6.78852 119 123 168 
1.68821 -1.30208 6.0847 101 103 118 
0.141516 -1.13348 4.33141 128 124 141 
2.64819 -0.25968 6.94168 171 191 224 
2.27318 0.00728955 6.74053 126 135 166 
1.05419 -0.988289 5.32958 107 119 159 
2.27155 0.00836016 6.77012 123 138 169 
2.41864 -0.471533 6.80638 94 98 125 
2.35132 -0.462119 6.79128 99 111 135 
1.59884 -1.32626 6.16251 95 96 116 
-0.508343 -0.607789 3.57569 95 102 131 
1.37608 -0.312417 6.40871 69 71 84 
-1.21814 -0.0953168 3.75644 216 230 255 
1.09935 0.259256 5.23917 91 71 98 
1.12106 0.596397 5.23085 55 55 79 
-1.23588 0.436552 3.67146 118 131 176 
-0.453527 -0.882855 3.66405 72 59 87 
-0.466471 -0.848306 3.64659 85 76 103 
2.13572 0.730441 6.67879 96 98 121 
1.04296 0.261385 5.17373 176 182 218 
-0.5826 -0.455785 3.4473 126 117 136 
1.45335 -1.00744 6.0498 133 124 141 
1.95084 1.0546 6.52435 46 44 66 
1.05021 -0.140594 5.22702 171 184 216 
1.29908 0.106694 6.29597 155 186 241 
-0.585191 -0.262244 3.58819 138 134 151 
-0.39419 -1.00531 3.74763 57 47 74 
0.468438 1.01125 4.40717 118 123 143 
1.33929 0.0987562 6.34812 206 214 255 
-0.507031 -0.630369 3.58299 183 181 205 
-0.681823 0.133256 4.68288 19 28 67 
1.33814 0.155362 6.32751 60 59 125 
2.12601 0.729501 6.65837 106 116 141 
0.690986 0.563352 4.75083 232 234 247 
1.91853 -1.3144 6.31642 60 55 75 
2.08761 -1.17017 6.50804 93 88 110 
-1.2122 0.0227182 3.75724 83 94 126 
-0.64275 -0.491575 3.40937 137 129 140 
-0.50413 -0.453911 3.51776 41 38 45 
1.00616 -0.809433 5.26673 152 162 197 
0.632536 0.64406 4.71006 177 187 236 
1.97538 0.780869 6.65174 114 123 152 
2.26864 -0.116495 6.72974 100 116 132 
-0.0175886 -1.68845 4.19712 64 49 72 
-0.0190465 -1.68259 4.20698 145 126 145 
-0.0298022 -1.67188 4.21224 96 72 98 
-0.0263172 -1.6612 4.21519 131 127 142 
0.0230359 -1.66004 4.24472 127 108 127 
-0.0705194 -1.64865 4.18176 142 130 144 
-0.0304087 -1.62003 4.16872 106 103 120 
0.0263981 -1.63513 4.28593 66 45 62 
0.0234135 -1.62658 4.27506 144 120 134 
2.04069 -1.98012 6.4986 56 48 72 
-0.330141 -1.5097 3.85785 181 190 221 
1.83583 -1.87955 6.25699 86 102 136 
3.01314 -2.09884 7.62563 150 150 188 
0.049609 -1.52834 4.2493 71 64 82 
1.80316 -1.8105 6.21685 154 171 201 
0.0371775 -1.50693 4.24899 73 51 74 
0.0463128 -1.50753 4.25507 70 60 84 
0.0520765 -1.50547 4.277 58 36 59 
1.85413 -1.78446 6.25234 121 131 166 
0.668787 -1.60055 4.97538 174 190 224 
1.95257 -1.80967 6.43319 82 82 120 
3.14697 -1.97763 7.74013 172 167 197 
1.84005 -1.71623 6.21357 123 127 162 
-0.492857 -1.37044 3.66869 99 107 144 
1.64449 -1.69814 6.04813 144 164 188 
0.0774272 -1.45456 4.31675 73 63 88 
-0.436139 -1.37278 3.7395 133 138 167 
1.63287 -1.66025 6.05802 78 91 123 
-0.0363619 -1.39142 4.13216 110 104 118 
1.70883 -1.65463 6.09064 171 187 212 
1.70523 -1.65324 6.1171 112 128 153 
2.02176 -1.6318 6.47889 141 153 179 
1.68715 -1.57215 6.0778 87 108 129 
1.68389 -1.55422 6.07629 98 102 129 
1.99976 -1.58846 6.44311 78 87 116 
1.69745 -1.51332 6.07515 144 166 190 
2.0185 -1.55685 6.43842 71 74 105 
-0.413835 -1.23311 3.72824 129 138 169 
-0.526955 -1.22024 3.61535 159 165 189 
1.71859 -1.49387 6.07554 86 109 140 
1.5945 -1.44704 5.94777 104 109 128 
-0.427268 -1.19708 3.71758 150 167 193 
1.99191 -1.47718 6.39715 104 110 144 
1.44329 -1.36049 5.75575 55 50 72 
1.429 -1.33837 5.70384 50 52 75 
1.98518 -1.40933 6.34404 120 138 158 
1.64767 -1.38351 6.03037 73 62 92 
-0.180779 -1.16344 3.9832 76 56 81 
-0.20662 -1.15481 3.95948 72 59 85 
-0.235087 -1.14467 3.93421 76 56 81 
1.39185 -1.30606 5.658 58 60 83 
-0.257291 -1.1311 3.90138 75 53 76 
1.45876 -1.29573 5.79694 86 73 103 
0.934171 -1.23471 5.20427 150 154 189 
-0.303863 -1.09672 3.84384 93 77 103 
1.82348 -1.3155 6.21389 120 111 138 
1.86858 -1.292 6.32939 75 74 90 
1.95046 -1.276 6.35686 113 109 132 
3.30495 -1.20017 7.8313 134 138 175 
-0.518813 -0.723966 3.57541 153 155 178 
1.14736 -0.535576 5.3739 97 86 116 
3.15203 -0.357699 7.55636 110 115 147 
1.29893 -0.409049 6.32631 49 50 80 
-0.597384 -0.35425 3.45822 97 93 120 
1.65266 -0.349929 6.67941 77 76 108 
-0.564614 -0.346486 3.49721 91 78 106 
1.63756 -0.287258 6.71604 57 44 70 
2.6684 -0.202796 6.98015 53 70 96 
2.6182 -0.151537 6.93816 148 159 187 
3.05161 -0.071384 7.47103 148 154 188 
2.99441 -0.0111796 7.40925 163 167 205 
3.07763 0.0668996 7.41246 103 116 133 
3.00522 0.0781964 7.33788 66 70 108 
2.4876 0.191237 6.79515 119 119 145 
2.50573 0.192732 6.81383 101 105 134 
2.58238 0.392295 6.88015 61 65 90 
2.46983 0.561269 6.74056 67 68 89 
2.59357 0.642317 6.82892 112 114 162 
2.58871 0.651606 6.80903 213 211 233 
2.56324 0.681005 6.78221 202 209 253 
2.53068 0.720708 6.73117 199 219 255 
2.5885 0.73215 6.8057 209 207 228 
2.53267 0.745577 6.74915 62 71 112 
3.08247 1.00171 7.37695 122 118 179 
3.0384 0.988689 7.14606 101 102 169 
3.08853 1.05806 7.35037 210 205 225 
2.40518 1.06779 6.54683 122 130 151 
1.24789 1.14713 4.72035 47 60 95 
3.04332 1.07006 7.30224 159 164 204 
3.09048 1.06657 7.37043 201 195 223 
1.83535 -1.85769 6.25373 75 91 124 
2.02008 -1.83066 6.49345 42 29 59 
3.03174 0.969033 7.32393 202 218 252 
1.83382 -1.75537 6.21209 159 174 197 
2.52589 0.819301 6.55331 142 167 197 
1.65727 -1.60298 6.05036 159 173 199 
1.67447 -1.56574 6.08955 44 47 78 
2.0295 -1.5756 6.48329 129 142 161 
2.54513 0.744955 6.75936 156 165 208 
2.58867 0.747273 6.77953 96 98 155 
1.59013 -1.45025 5.93829 59 64 84 
2.00267 -1.48213 6.40807 159 165 189 
2.58063 0.707515 6.79128 110 121 175 
2.56765 0.686492 6.76926 101 102 167 
2.58088 0.673149 6.79248 118 122 183 
2.5849 0.64619 6.76532 214 212 233 
2.54801 0.626354 6.77322 203 227 255 
2.57529 0.392838 6.87217 43 45 70 
0.149742 -1.13766 4.3079 59 48 64 
1.68177 -1.30805 6.11488 82 81 97 
1.40019 -1.24632 5.7335 85 70 103 
1.16112 -1.12389 5.43772 123 129 163 
3.23216 -0.129982 7.65593 131 121 146 
1.26935 -1.02078 5.57291 57 42 65 
-0.500774 -0.461722 3.5309 127 125 136 
-0.529292 -0.466015 3.49101 118 118 130 
3.31245 -1.70171 8.0726 55 37 63 
2.99542 -0.011537 7.42793 169 177 213 
2.59309 -0.661048 6.92239 172 191 223 
1.935 -1.86732 6.39389 157 156 187 
-0.485515 -0.773776 3.61707 81 70 102 
-0.497443 -0.511843 3.58268 135 132 143 
3.19969 -0.522013 7.63308 155 169 196 
2.46261 -0.484183 6.85172 48 46 68 
1.30284 -1.03151 5.61481 71 66 89 
2.6713 -0.221435 7.01865 44 56 82 
2.67086 -0.218847 6.96836 50 67 93 
2.61817 -0.150633 6.92176 150 157 186 
1.32893 -1.13854 5.67933 120 112 135 
1.39296 -1.17643 5.70972 94 78 114 
3.03828 0.0701799 7.37384 92 100 123 
3.00599 0.078105 7.35158 75 79 117 
1.16361 -1.21359 5.47785 164 173 204 
1.56465 -1.26985 5.94332 95 94 110 
0.0434282 -1.65176 4.28155 132 115 133 
1.80763 -1.30552 6.24648 73 75 88 
-0.326778 -1.07713 3.816 88 83 106 
1.74634 -1.30666 6.16057 81 80 96 
0.0413882 -1.63373 4.27373 57 40 58 
2.5135 0.281894 6.78938 31 39 58 
1.0843 -1.24204 5.38193 144 148 186 
3.35907 -1.51699 7.89772 80 88 101 
3.23265 -1.53312 7.74913 77 80 95 
-0.0299945 -1.55592 4.18739 114 92 113 
1.80733 -1.46319 6.15324 123 140 160 
1.71788 -1.46721 6.06762 121 137 162 
1.44595 1.08984 5.27296 91 97 131 
0.406819 -1.35117 4.655 126 126 162 
1.6393 -1.52182 6.00912 145 163 187 
1.84064 -1.83678 6.2582 144 164 189 
1.65517 -1.80115 6.07362 80 96 132 
3.0106 -1.78342 7.57991 172 170 209 
1.63472 -1.68872 6.07321 83 78 108 
1.81805 -1.75647 6.22362 62 60 99 
1.82782 -1.78629 6.23395 98 109 141 
-0.449289 -1.37444 3.71861 119 125 161 
-0.40486 -1.31456 3.74864 139 149 184 
-0.000638902 -1.29992 4.16601 127 100 119 
3.3749 -1.51934 7.92541 88 88 100 
1.84394 -1.76761 6.23369 123 132 165 
0.0842572 -1.45015 4.30591 69 60 87 
1.85408 -1.85029 6.25952 132 146 175 
1.25132 1.08905 4.71214 75 77 115 
0.0403254 -1.51367 4.26882 71 66 86 
-0.608749 -0.251365 3.59016 141 160 190 
-0.505223 -0.667945 3.59313 155 153 177 
1.85512 -1.94739 6.3364 110 110 144 
3.0364 1.05644 7.32455 209 224 253 
1.99703 -0.00567819 6.77342 93 90 117 
3.06302 1.02449 7.36046 207 233 255 
1.22948 -0.943778 5.51539 64 50 75 
2.53225 0.722413 6.76064 170 192 239 
2.00942 -1.50833 6.4705 65 66 96 
1.98985 -1.48525 6.40626 101 101 135 
3.28972 -1.67119 8.09035 78 58 93 
1.98522 -1.41885 6.37144 150 166 189 
2.66677 -0.203504 6.99304 50 66 89 
3.08123 0.0697084 7.44711 97 116 133 
1.49691 -0.309475 6.52786 56 50 76 
2.59854 0.586831 6.84768 121 140 173 
1.61624 -1.52049 6.00731 133 149 172 
2.00978 -1.64011 6.49353 97 114 142 
1.82604 -1.78281 6.22069 95 104 137 
1.24873 1.0473 4.8741 69 77 113 
2.49864 0.66129 6.73091 35 40 60 
-0.602403 0.968867 3.17572 121 122 152 
1.58445 -1.44117 5.9207 34 41 59 
0.550144 0.259898 4.62877 140 147 176 
-0.0248035 -1.56514 4.19811 57 46 62 
1.16437 -0.731179 5.43208 83 69 102 
1.65187 -1.80778 6.09354 76 92 128 
3.03983 0.0711056 7.4013 90 106 131 
3.20256 -0.525988 7.66841 163 177 206 
1.85271 -1.34384 6.26608 65 59 87 
1.77082 -1.34469 6.21179 58 43 66 
1.98516 -1.29677 6.411 86 74 98 
1.37897 -1.19544 5.72276 127 122 145 
1.28926 -1.3718 5.63672 148 158 193 
3.2774 -1.5293 7.80376 90 89 103 
1.50629 -1.24334 5.88139 93 91 115 
1.23655 -1.10659 5.50635 60 52 76 
3.16449 -1.57319 7.72784 84 81 112 
1.2948 -1.05519 5.59722 83 69 102 
-0.194489 -1.24582 3.92625 41 43 56 
0.00162091 -1.36253 4.17711 134 121 139 
3.33957 -1.46757 7.9197 123 125 164 
0.150268 -1.30877 4.32629 72 70 94 
1.05033 -0.19125 5.21469 154 167 202 
1.04152 0.163829 5.17737 115 121 153 
0.990177 0.341058 5.12174 145 156 188 
-0.0660383 -1.65046 4.16881 141 123 145 
2.58961 0.751635 6.80698 83 82 140 
2.54812 0.743215 6.7758 224 236 255 
2.53829 0.735883 6.7428 210 230 255 
2.53248 0.720537 6.74367 188 210 251 
1.83597 -1.84617 6.22171 86 102 135 
3.03685 0.650428 7.34554 173 177 206 
2.50348 0.80543 6.65547 102 111 142 
1.83712 -1.82017 6.23789 84 90 126 
2.46471 0.557743 6.72025 58 56 77 
1.82806 -1.7786 6.20573 89 105 138 
3.42911 -2.0742 8.11014 112 103 120 
1.95239 -1.81768 6.44737 76 69 110 
3.41446 -2.03298 8.11399 113 104 125 
1.69792 -1.64282 6.10214 58 73 102 
1.94249 -1.62157 6.35097 56 60 97 
1.68321 -1.58317 6.09722 118 138 162 
1.95591 -1.61302 6.38166 138 148 173 
1.65203 -1.56909 6.06523 114 119 148 
1.67638 -1.55839 6.0615 36 41 70 
2.60388 0.209294 6.89849 109 123 158 
-0.757234 0.393515 3.3806 60 81 108 
1.58058 -1.46021 5.91253 139 149 174 
2.55837 0.0230838 6.8813 112 128 161 
1.99309 -1.42817 6.37232 154 160 186 
2.36719 -0.167122 6.75688 122 120 141 
1.51692 -1.33747 5.89741 74 67 101 
3.031 1.04838 7.26952 233 242 255 
1.71306 -1.17004 5.50726 117 114 133 
0.113549 -1.13812 4.35552 33 27 37 
1.95349 -1.27461 6.33193 129 125 150 
1.47408 -1.21572 5.80912 136 132 157 
0.912943 -1.13622 5.17069 128 136 182 
1.36192 -1.15287 5.67806 62 48 71 
2.65145 -0.344925 6.99607 182 199 229 
1.34208 -1.09687 5.66628 68 64 89 
1.20131 -0.861627 5.46547 63 50 76 
2.44219 -0.800658 6.85195 119 117 141 
-0.504296 -0.515176 3.59002 137 129 142 
1.35578 -1.17138 5.65288 129 127 151 
3.3613 -2.08326 8.03814 99 107 128 
2.46164 -0.486231 6.83535 55 52 71 
1.58069 -1.36551 5.96175 74 67 98 
-0.467998 -0.464069 3.54135 34 31 42 
1.53262 -1.25286 5.88591 95 83 105 
1.38195 -1.19316 5.70985 132 122 146 
2.55335 0.0324268 6.88149 139 159 186 
1.46263 -0.388705 6.56589 46 46 80 
2.75753 1.02685 6.82455 110 135 166 
3.19599 -0.514469 7.6397 95 94 128 
3.20512 -0.527421 7.68976 165 179 208 
1.81502 -1.87961 6.28807 136 140 175 
2.57077 0.632612 6.81286 217 227 255 
2.64935 -0.261933 7.01464 144 174 202 
2.53637 0.641745 6.7737 213 230 255 
2.58307 0.649425 6.82088 242 242 250 
1.63237 -1.69197 6.05379 58 57 89 
1.31818 0.167482 6.33473 206 225 255 
1.65039 -1.6134 6.08512 120 140 167 
0.681462 0.567268 4.77247 238 240 253 
0.641054 0.556079 4.68453 217 223 255 
1.00618 -0.0353734 5.19862 65 70 100 
2.65781 -0.203335 7.01115 44 50 66 
1.30892 -1.09809 5.64464 67 49 73 
2.52875 0.742628 6.72997 65 70 108 
1.619 -1.48839 5.97286 112 132 159 
2.558 0.0228101 6.92386 113 130 160 
1.57557 -1.45592 5.9007 118 134 160 
-0.52349 0.808911 3.35377 213 228 255 
2.00128 -1.4839 6.41864 153 159 185 
-0.565626 0.800524 3.2993 39 32 65 
0.123539 -1.11772 4.34273 156 153 172 
0.168264 -1.18054 4.31975 158 143 162 
0.120657 -1.13247 4.3427 45 34 48 
1.52217 -1.27756 5.88396 53 36 55 
0.68589 0.549281 4.7749 70 74 137 
0.666906 0.550042 4.78974 196 209 253 
1.03033 0.595052 5.14037 102 109 138 
1.00209 0.586571 5.106 66 75 106 
2.41333 0.836811 6.65028 61 67 89 
1.03138 0.322802 5.17891 162 168 202 
-0.568758 -0.52391 3.40772 42 39 50 
2.08124 -1.19583 6.5559 94 85 112 
2.60345 0.390129 6.91314 119 122 153 
3.02955 0.0585682 7.40275 33 29 54 
1.55982 -1.4935 5.8686 44 55 75 
2.44721 0.320897 6.75091 126 124 145 
1.72638 -1.55819 6.10893 146 166 191 
1.43717 -0.308949 6.46115 50 45 67 
0.975639 -0.709514 5.23271 113 121 157 
2.6515 -0.344933 7.01844 172 193 222 
1.99936 -1.64064 6.46496 137 158 185 
1.66218 -0.359689 6.6909 125 125 149 
0.70101 0.710164 4.74515 171 180 209 
1.12455 0.30185 5.2647 71 56 85 
2.55127 0.417633 6.8164 159 174 205 
2.5511 0.187056 6.79664 157 173 206 
2.75256 1.04514 6.81647 24 39 70 
1.63008 -1.28697 5.9824 97 92 114 
-0.491217 0.883213 3.34186 115 99 128 
2.99126 -0.0247451 7.35566 102 107 145 
1.25635 1.13382 4.66863 57 66 99 
2.45939 0.556446 6.70838 47 44 63 
-0.564828 0.81805 3.29996 226 227 255 
0.0517861 -1.50411 4.20642 34 30 47 
2.49254 1.19273 6.50585 41 53 93 
1.0332 0.605378 5.14642 139 150 182 
2.64621 -0.168596 7.01737 63 75 101 
2.6483 -0.197657 6.91492 44 51 67 
1.82088 -1.75041 6.20552 57 59 97 
2.67609 -0.230977 7.00705 65 82 110 
-1.23447 0.539543 3.6772 243 245 255 
2.87343 1.06637 7.11013 162 166 191 
1.69444 -1.63427 6.08975 46 60 87 
1.66974 -1.61071 6.04554 67 66 100 
2.01679 -1.65329 6.50557 154 161 190 
2.39711 1.12745 6.53708 55 69 96 
1.95674 -1.61199 6.40253 155 167 193 
2.51852 0.843964 6.55385 156 173 199 
2.02291 -1.51899 6.44374 148 160 186 
3.13337 -0.346878 7.527 73 73 109 
1.98954 -1.4881 6.39625 90 93 126 
0.175917 -1.18679 4.32304 48 45 62 
1.65623 -1.33769 6.02863 47 43 66 
2.57261 0.391128 6.85642 39 39 63 
1.85119 -1.32737 6.2338 45 42 61 
-0.624162 -0.489328 3.39388 28 26 39 
2.52368 0.373328 6.76156 112 104 119 
2.45631 -0.481341 6.80351 45 42 61 
2.44909 0.318259 6.67841 120 110 134 
-0.51517 -0.457301 3.52911 41 40 46 
1.36037 -1.15362 5.69108 51 32 54 
2.5564 0.0355258 6.84244 171 188 218 
2.13971 0.000148259 6.78939 111 116 138 
0.975982 -0.710926 5.24408 104 114 149 
2.43399 -0.801295 6.82097 123 125 150 
1.23331 -0.946869 5.52412 60 48 72 
1.0459 -0.206873 5.24346 106 119 151 
-0.633525 0.104686 4.71265 23 32 65 
-0.548233 0.814964 3.28336 229 234 255 
2.59676 0.382484 6.85439 122 117 149 
-0.527965 0.810257 3.35803 213 228 255 
2.56087 0.389852 6.80992 41 42 63 
2.02311 -1.84325 6.52535 33 27 53 
2.55086 0.419973 6.85645 150 166 199 
2.5765 0.0125996 6.87287 42 42 68 
1.01161 0.345138 5.10334 50 52 75 
2.58644 0.622177 6.75133 108 121 156 
2.5401 0.641482 6.78933 227 240 255 
