ply                 
format ascii 1.0    
element vertex 1287
property float x    
property float y    
property float z    
property uchar red  
property uchar green
property uchar blue 
end_header          
0.908042 -1.13941 5.17728 131 143 185 
1.28359 0.159595 6.83481 66 67 134 
1.35692 0.146403 5.85377 51 62 124 
1.32414 0.142901 6.3024 209 225 255 
1.29826 -0.407519 6.29342 36 36 64 
1.52322 -0.290107 6.53711 110 102 125 
1.35277 0.108837 6.34397 170 171 227 
0.156805 -1.13302 4.28672 49 38 52 
1.14605 -0.153759 5.65226 176 174 187 
-0.265358 -1.10632 3.83883 86 71 94 
1.66652 -0.26995 6.7139 102 94 115 
1.63408 -0.273488 6.65285 94 89 111 
1.48945 -0.298461 6.57257 104 101 122 
2.0066 -1.9775 6.45422 82 79 106 
1.28662 -0.32803 6.31937 88 83 105 
1.29042 -0.342499 6.32483 48 41 72 
1.47271 -1.22449 5.84416 125 119 145 
1.14772 -0.311629 5.41897 63 48 67 
1.13426 0.208291 5.22553 68 55 81 
1.99709 -1.51261 6.45953 130 150 177 
2.00817 -1.61947 6.41578 97 114 142 
1.73561 1.11637 3.73078 74 71 114 
1.70753 -1.6712 6.13936 173 189 214 
-0.0539268 -1.42601 4.09875 45 43 57 
-0.479156 -0.81175 3.63569 72 63 90 
1.26103 -0.960604 5.56277 78 69 96 
0.304366 0.267512 4.60032 105 116 144 
1.94351 -1.45738 6.29288 99 105 137 
-1.47006 0.424483 3.28832 81 160 216 
1.92955 -1.88374 6.4455 178 182 211 
1.63555 -1.67537 6.01137 74 69 99 
0.449808 0.0219106 4.49191 128 127 141 
-1.19673 0.856322 3.56337 103 120 163 
1.07298 -0.43727 5.21373 33 36 51 
-0.413842 0.623212 3.49494 49 52 83 
0.994556 0.335765 5.15055 99 102 133 
1.19948 -0.275067 5.5765 69 52 71 
1.82006 -1.83584 6.14692 130 136 172 
0.828053 0.72625 4.822 177 191 220 
0.417684 -0.354275 4.57877 59 53 79 
-1.17458 0.668568 3.56661 122 139 183 
-0.484743 -1.66493 3.69877 139 131 172 
1.07653 -1.25552 5.41468 137 145 182 
1.45163 1.07561 5.21117 90 93 126 
1.0487 -0.994648 5.38876 71 79 115 
1.33496 -0.319659 6.40386 78 83 105 
0.576957 0.0792868 4.68686 114 110 143 
2.08451 -1.17429 6.53236 105 113 136 
1.80721 -1.47203 6.19148 115 133 155 
1.99982 -1.6294 6.43415 142 164 188 
1.98864 -1.84921 6.40702 73 87 124 
1.53485 -1.24391 5.84766 95 83 105 
1.78414 -0.992074 4.7635 80 79 97 
1.53287 -2.00122 5.92289 63 70 112 
-0.669452 0.965732 3.14099 62 78 112 
0.824819 0.728312 4.84106 177 191 220 
1.24236 1.00536 5.15859 81 100 132 
1.13302 0.648726 5.68523 132 120 144 
-1.61219 -0.700022 5.12997 47 41 53 
-1.43843 0.277408 3.37366 26 52 111 
-0.0314968 -1.62305 4.18639 42 39 60 
2.03736 -1.99933 6.49661 137 140 157 
1.99951 -1.97611 6.41817 107 111 138 
1.78792 1.08078 3.42433 60 63 94 
2.04691 -1.98078 6.5301 109 108 124 
1.98876 -1.88491 6.44658 46 62 88 
1.83604 -1.83264 6.27729 84 90 126 
0.998053 0.348004 5.18477 50 52 75 
0.590099 0.269654 4.59989 110 104 132 
0.629535 0.558825 4.72494 223 230 255 
1.12489 0.30279 5.26618 77 62 91 
1.82615 -1.78677 6.26752 144 159 180 
1.83622 -1.75916 6.23215 160 175 196 
-0.639061 0.118058 4.68763 23 36 91 
1.35052 0.194505 6.30215 192 200 249 
1.66764 -1.62624 6.10477 67 70 103 
1.34632 0.169018 6.28703 49 54 122 
1.65706 -1.59097 6.0075 153 171 195 
1.33824 0.152769 6.26522 57 58 122 
1.313 0.152318 6.33535 57 72 137 
2.02569 -1.63738 6.48444 133 133 159 
2.01075 -1.63029 6.46196 84 95 127 
1.95544 -1.60635 6.35506 138 148 173 
2.02255 -1.59555 6.37497 77 78 108 
1.65397 -1.55313 6.00803 114 119 148 
1.34605 0.141969 6.26989 62 61 127 
1.6727 -1.57888 6.1424 36 41 70 
2.01909 -1.5472 6.40651 65 70 102 
1.99741 -0.00489934 6.73719 99 98 129 
1.99786 -1.50052 6.40328 130 150 177 
2.01218 -1.50073 6.42984 60 68 104 
2.0307 -1.50615 6.46786 51 49 71 
2.02246 -1.49354 6.45481 135 133 155 
1.98404 -1.40495 6.31945 137 155 175 
1.14793 -0.154239 5.63398 177 177 189 
0.680691 0.649869 4.78303 200 204 231 
0.641741 0.659621 4.71199 192 193 241 
1.64352 -1.32652 6.02733 54 36 60 
0.135649 -1.14819 4.34278 59 48 64 
1.69621 -0.264125 6.7216 103 101 122 
1.66384 -0.273759 6.77413 107 102 122 
1.69027 -1.31327 6.12753 117 114 133 
1.51987 -1.29135 5.94141 38 23 42 
0.156077 -1.10922 4.25216 33 27 37 
1.16611 -1.23487 5.5119 115 124 163 
1.39657 -1.2553 5.77347 82 68 101 
-0.509349 0.926407 3.35489 40 30 67 
0.57196 -0.322084 4.77024 55 58 73 
1.64635 -0.355045 6.68202 49 54 84 
-0.512922 -0.989858 3.56456 22 19 26 
-1.22696 0.573411 3.69277 47 60 95 
2.08177 -1.1635 6.47134 105 113 136 
-0.4776 -0.44959 3.56737 58 46 58 
-0.216113 -0.387429 3.03674 49 43 55 
-0.436976 -0.457062 3.5304 40 37 54 
-0.408066 0.621226 3.48488 45 49 78 
1.19886 -0.865469 5.48362 63 50 76 
0.464613 1.02142 4.41902 141 146 168 
-0.498579 -0.682471 3.64198 50 54 81 
-0.521842 -0.665988 3.6156 78 77 109 
-1.22036 0.810421 3.58931 115 123 162 
1.55976 -0.295401 6.56234 70 65 95 
0.126745 -1.7237 4.406 65 62 83 
-0.486819 0.949912 3.47573 60 69 102 
1.14482 -0.312688 5.44744 64 47 66 
1.99943 -1.62679 6.41932 145 165 190 
1.52645 -0.305375 6.61606 59 50 77 
1.53188 -1.25638 5.89785 95 83 105 
-1.24504 0.447694 3.70744 226 241 255 
0.685031 0.624207 4.72791 69 74 130 
-1.45792 0.391816 3.28385 167 158 225 
0.621976 0.661049 4.71521 74 70 107 
-2.66781 -0.934482 6.65268 43 42 48 
0.671866 0.600129 4.71263 87 91 162 
1.00939 -0.0284416 5.13357 79 79 113 
0.618624 -0.331168 4.67159 59 61 76 
1.99851 -2.01327 6.54704 113 117 142 
0.666938 0.588273 4.70588 236 239 254 
0.973576 0.766829 4.95927 40 46 80 
2.04218 -1.99704 6.5315 53 48 71 
-0.657646 0.17314 4.64269 109 115 167 
-0.652849 0.175189 4.75567 130 151 216 
-0.664919 0.304621 4.62479 97 95 100 
-0.645373 0.309444 4.67684 121 122 126 
-0.668981 0.156504 4.64117 149 160 224 
0.674257 0.589728 4.77992 66 66 126 
-0.668749 0.118854 4.74188 23 36 91 
-0.663065 0.116748 4.68292 24 35 65 
-1.45211 0.366141 3.36742 47 59 141 
2.01662 -1.82221 6.4541 65 56 87 
-0.664115 0.0560221 4.66783 103 118 177 
1.32949 0.21225 6.3725 203 216 255 
1.30183 0.209261 6.33023 175 195 246 
1.03058 0.166933 5.22455 125 133 169 
1.65064 -1.67832 6.08084 45 46 74 
1.69151 -1.65606 6.15796 49 63 90 
1.6661 -1.60709 6.02582 62 56 90 
1.45944 -0.298274 6.39629 105 105 129 
1.64854 -1.62196 6.11883 120 140 167 
1.63047 -1.57062 5.95001 127 129 154 
0.436135 0.911349 4.33045 116 123 142 
1.93763 -1.60696 6.28656 70 64 100 
0.623981 0.562339 4.74732 217 223 255 
1.68429 -1.56529 6.02777 118 138 162 
2.02344 -1.61754 6.46337 74 69 101 
1.68399 -1.55435 6.09025 113 117 142 
1.71155 -1.53142 6.02094 47 51 76 
1.26993 -1.01736 5.54802 70 52 76 
2.02347 -1.55422 6.37887 140 152 176 
1.31723 -1.07925 5.56172 67 49 73 
2.13311 -0.000467551 6.7054 119 125 149 
2.02008 -1.57056 6.49435 65 70 102 
-1.40144 0.294407 3.32882 207 223 255 
1.59154 -1.47574 5.98592 138 138 162 
1.37958 -1.1747 5.84032 59 49 73 
1.14788 -1.12863 5.45732 155 169 204 
2.02014 -1.50751 6.40877 138 155 181 
-0.536308 0.813142 3.37312 213 228 255 
-1.51057 0.305607 3.31213 58 63 101 
1.94039 -1.46276 6.24436 63 63 101 
-0.537796 0.913111 3.26216 195 177 235 
1.43388 -1.22147 5.87749 62 60 81 
2.00241 -1.44575 6.39628 90 100 135 
-0.523837 0.920042 3.36701 222 227 246 
1.98362 -1.42215 6.37945 147 165 187 
-0.582708 0.8983 3.29595 94 77 109 
1.17388 -1.21429 5.43293 123 128 166 
1.47005 -1.25206 5.78411 78 64 89 
2.05952 -1.3498 6.31828 109 130 151 
1.65043 -1.34157 6.03887 50 40 64 
1.58708 -1.3221 5.95564 62 46 72 
0.641691 0.53308 4.67412 76 65 99 
1.52858 -1.28667 5.85873 61 51 76 
0.651102 0.537624 4.67969 171 188 244 
1.07168 -0.440398 5.23247 43 46 63 
1.03572 0.7593 5.08398 160 175 204 
1.19205 -0.874499 5.53441 65 55 79 
1.65384 -1.5641 6.0386 104 108 137 
0.477321 1.01185 4.37111 138 143 165 
1.45646 -1.21128 5.8142 166 172 194 
-1.22052 0.0203467 3.76268 83 99 135 
1.54732 -0.597107 6.6298 108 106 130 
1.03913 0.322864 5.13192 162 168 202 
0.566641 0.273462 4.68319 110 104 132 
1.66237 -0.266294 6.62325 94 92 113 
1.28642 -0.324969 6.23003 95 95 119 
-1.23166 -0.242509 3.81989 35 41 67 
1.46849 -0.307138 6.40466 68 58 83 
1.49274 -0.309228 6.58054 64 54 79 
1.98958 -1.87822 6.49929 66 84 120 
0.990569 -0.697384 5.14897 113 121 157 
1.56758 -1.27461 5.94215 105 100 120 
1.34793 -0.317625 6.33524 100 102 127 
1.64026 -0.280884 6.63411 59 46 74 
1.69194 -0.264366 6.69251 89 90 110 
1.02807 0.180817 5.23446 164 174 210 
0.556103 0.257629 4.60621 140 147 176 
-0.503612 0.885456 3.51776 128 142 169 
0.126439 -1.71301 4.37901 37 35 46 
-0.517065 0.930536 3.36252 43 35 74 
1.67502 -2.01925 6.26235 159 169 196 
1.25555 1.13845 4.54633 60 64 101 
-0.537599 0.85341 3.32224 232 234 255 
0.0362066 -1.63951 4.27785 41 32 51 
1.23751 1.05574 4.93333 65 68 103 
1.23267 1.00519 5.18469 58 76 112 
1.02566 0.610617 5.19 139 150 182 
0.97883 0.765589 4.94719 33 42 81 
1.65337 -1.69812 6.1554 32 38 62 
1.68493 -1.64524 6.08277 120 134 161 
-1.45842 0.401277 3.30271 56 54 78 
0.689613 0.61971 4.7139 48 57 116 
-1.2632 0.450355 3.72862 226 241 255 
1.96983 -1.66596 6.48459 148 155 183 
0.649287 0.612658 4.82112 61 65 126 
1.68652 -1.56922 6.14074 104 104 128 
1.71019 -1.53967 6.04335 47 51 76 
-1.46153 0.352844 3.28012 29 59 123 
2.02479 -1.54962 6.35306 140 150 175 
2.0186 -1.53444 6.35332 65 70 102 
0.637384 0.542638 4.74463 160 170 229 
0.646956 0.529666 4.66074 78 64 99 
-1.46785 0.326722 3.33998 201 216 255 
1.58378 -1.44906 5.86594 146 146 170 
2.02149 -1.5031 6.38281 148 160 186 
1.98646 -1.43613 6.18495 90 93 126 
-1.46345 0.289297 3.28546 199 202 255 
-1.44725 0.278151 3.3855 29 39 98 
1.98306 -1.39019 6.21291 154 169 192 
0.170852 -1.19129 4.33674 48 45 62 
1.00141 0.346872 5.16662 50 52 75 
0.57434 0.271725 4.65738 119 119 147 
-0.661355 0.173118 4.65413 120 127 182 
1.6541 -1.34549 6.06683 47 43 66 
-0.628533 0.16348 4.71202 141 164 234 
1.53039 -1.29415 5.89797 48 43 66 
0.132593 -1.14024 4.35347 134 132 145 
-0.571041 -0.476285 3.46188 127 119 130 
1.52676 -1.26179 5.91451 97 87 112 
1.46778 -1.24397 5.82276 43 30 48 
1.33567 0.199257 6.37514 211 222 254 
-0.522321 -0.582081 3.59452 71 70 102 
-0.491419 -0.978583 3.5283 18 17 22 
1.3005 0.101941 6.31124 186 208 255 
0.431045 0.0209115 4.56289 141 140 158 
2.07868 -1.15378 6.41575 106 114 137 
1.27757 -0.429348 6.52069 33 33 59 
0.99721 -0.714516 5.18219 154 160 194 
-0.52831 -0.676521 3.60526 181 176 198 
1.13605 -0.146802 5.82109 71 54 73 
1.46091 -0.302328 6.41459 101 96 119 
1.48961 -0.296457 6.46434 98 94 117 
0.413506 -0.25049 4.5332 56 47 66 
1.51612 -0.297413 6.64776 112 107 129 
1.34307 0.113377 6.3286 215 226 255 
1.33569 0.160885 6.38037 48 59 115 
1.3209 0.171479 6.30537 210 225 254 
1.30789 0.187409 6.1735 184 212 255 
1.34619 0.19803 6.23438 213 224 255 
-0.518165 0.912718 3.37854 92 78 113 
1.25416 1.14193 4.56141 60 64 101 
-0.612774 -0.473649 3.42022 41 39 52 
-0.636516 0.0734802 4.73139 149 167 239 
-0.650724 0.100295 4.68577 151 170 239 
1.25826 1.12049 4.61668 53 57 86 
-0.583088 0.825704 3.32961 229 234 255 
1.24689 1.09416 4.72137 52 55 86 
-0.657489 0.129152 4.69468 151 170 239 
0.0402453 -1.51685 4.28419 30 25 45 
1.64237 -0.357309 6.56977 44 42 64 
-0.700862 0.156411 4.71178 154 171 240 
2.02335 -1.85667 6.56885 33 27 53 
1.952 -1.81397 6.40732 71 74 109 
1.25198 1.02928 4.797 49 48 79 
-0.623776 0.171715 4.69819 143 166 234 
-0.641187 0.292335 4.66926 137 147 146 
1.65471 -1.67961 6.09369 34 38 63 
0.556467 -0.128376 4.70431 156 171 202 
-0.483004 -0.699522 3.62833 58 54 77 
2.02755 -1.6458 6.49686 127 122 152 
2.02582 -1.62474 6.49624 84 77 110 
1.7128 -1.51225 5.93548 39 47 70 
0.989908 0.756595 4.87927 33 46 81 
0.66255 0.5506 4.81097 196 209 253 
2.01955 -1.53196 6.36355 88 79 110 
1.6247 -1.60981 6.10091 130 134 161 
1.32042 -1.08305 5.58825 46 38 61 
1.39265 -1.13777 5.66325 61 53 74 
1.36699 -1.14152 5.63151 51 36 57 
0.669744 0.56801 4.82123 242 244 255 
2.0087 -1.37946 6.06286 158 165 193 
0.680451 0.650983 4.75605 240 243 250 
0.627482 0.646425 4.7312 230 236 255 
-1.51734 0.409239 3.36486 64 60 87 
0.15288 -1.19476 4.3467 152 134 150 
0.195196 -1.17045 4.26923 51 44 62 
-1.45802 0.396772 3.35339 206 220 255 
-1.44699 0.388141 3.27433 189 191 250 
1.65562 -1.31693 5.95294 42 34 57 
0.666388 0.583416 4.72326 243 243 251 
1.58555 -1.33098 6.0199 43 31 53 
1.46436 -1.25854 5.87148 43 30 47 
0.137354 -1.10929 4.32081 168 166 187 
-1.41036 0.379767 3.32423 212 229 255 
0.641535 0.586829 4.71398 59 71 123 
1.69722 -1.29938 6.06103 115 110 132 
1.5825 -1.30294 6.03489 88 78 103 
1.56502 -1.29517 6.01524 99 91 115 
1.78078 -1.3405 6.16462 48 36 58 
1.71766 -1.33553 6.06734 36 31 51 
1.66097 -1.53188 6.02398 139 156 184 
1.00828 0.14576 5.07512 81 89 126 
0.556082 -0.110009 4.60866 36 35 43 
1.3068 -1.3671 5.57644 116 125 158 
0.159594 -1.27096 4.40861 176 179 212 
1.94519 1.06935 6.66712 63 61 74 
0.65423 0.605751 4.85062 54 65 111 
-1.49224 0.335847 3.33964 31 41 76 
-1.49702 0.272338 3.32032 27 31 95 
-0.63438 0.298484 4.65607 134 138 137 
-0.648535 0.173001 4.73924 145 169 233 
1.31117 0.100036 6.18866 171 197 248 
1.42879 -1.20371 5.78738 49 46 63 
-0.55093 0.880886 3.33604 241 244 251 
-0.538308 0.91258 3.24335 34 44 71 
1.38884 -1.11772 5.56527 43 39 53 
0.0793098 -1.16533 4.43831 32 27 34 
0.553211 -0.326804 4.81571 56 59 78 
1.65868 -1.67828 6.07084 51 66 89 
0.683889 0.673029 4.76659 38 40 91 
1.02729 -0.0293011 5.08103 46 52 74 
0.656266 0.623968 4.73496 235 239 251 
0.697766 0.541725 4.72145 108 114 174 
-1.45655 0.323338 3.32598 201 216 255 
1.94202 -1.64451 6.42738 56 60 97 
-1.27729 0.450873 3.74514 208 224 255 
1.94681 -1.79479 6.31646 89 81 118 
1.68978 -1.65191 6.13637 101 113 137 
0.568655 -0.125742 4.64699 140 151 179 
1.25309 1.13557 4.52119 56 62 88 
0.44189 -0.239452 4.43629 34 28 42 
1.57906 -1.28887 5.96771 99 86 112 
-0.604624 -0.478031 3.42928 124 118 130 
-1.19514 0.572491 3.65663 44 53 82 
1.04193 -1.00052 5.42169 71 79 115 
1.14624 -1.15169 5.45581 79 88 127 
2.01916 -1.56663 6.39607 141 155 181 
1.67728 -1.66245 6.10981 96 110 137 
-1.20725 -0.102871 3.71819 143 162 205 
1.14018 0.573763 5.00886 48 41 57 
1.93399 1.02423 6.36391 56 52 67 
1.00141 -0.232074 5.118 96 109 143 
-2.0494 -1.63296 3.074 115 114 146 
-2.02042 -1.61573 3.09995 116 135 165 
-1.69158 -1.68753 3.4637 83 81 120 
-1.93512 -1.52256 3.18625 41 44 77 
-1.89255 -1.51169 3.22612 70 76 112 
-1.82197 -1.43574 3.30186 59 72 106 
-1.74116 -1.44458 3.39321 82 92 128 
-1.88317 -1.40406 3.22994 64 77 109 
-1.67894 -1.43136 3.44652 97 102 142 
-1.93357 -1.34183 3.16064 96 101 139 
-1.94899 -1.2594 2.92186 73 78 116 
-1.86783 -1.33683 3.23591 85 93 132 
-1.91271 -1.30576 3.18442 88 102 137 
-1.88419 -1.30982 3.21922 79 94 135 
-1.89673 -1.29766 3.20045 81 95 134 
-1.86129 -1.29461 3.2371 137 153 187 
-2.01258 -1.16987 2.89947 110 133 175 
-1.96888 -1.15654 2.89893 98 98 150 
-1.94849 -1.05271 2.8865 93 103 152 
-1.90542 -1.10423 3.16828 88 93 125 
-2.00707 -0.97171 2.81833 117 137 162 
-1.98219 -0.972531 2.85747 87 101 130 
-1.96381 -0.958499 2.88339 123 135 159 
-2.5497 -1.06358 3.11972 94 100 132 
0.986709 -0.636314 5.21378 75 78 113 
-1.97655 -0.631482 2.77792 55 57 82 
1.56186 -0.370876 6.59771 129 136 162 
-1.88813 -0.15022 3.0801 83 87 116 
1.90458 0.248367 6.72867 103 104 125 
-1.93244 0.0176177 2.77292 37 45 92 
-1.96845 0.017743 2.72715 182 192 253 
-1.92393 0.0305632 2.78093 20 38 100 
-1.97943 0.0250377 2.71309 38 37 105 
-1.92822 0.0501813 2.77038 61 67 145 
-1.95394 0.0825173 2.7392 193 209 255 
-1.92687 0.119762 2.76649 175 199 255 
-1.98495 0.122744 2.70062 51 45 83 
-1.92589 0.133119 2.76826 17 26 85 
-1.56067 0.316764 3.21715 70 82 124 
-1.64809 0.345797 3.13364 153 186 201 
-1.83321 0.815676 2.97604 89 92 109 
-1.64417 0.358425 3.13878 47 79 118 
-1.81771 -1.42918 3.2951 72 76 113 
-1.97069 0.135251 2.71616 181 177 238 
-1.93669 0.139671 2.75734 148 149 213 
-1.99087 -1.17293 2.89863 41 63 110 
-2.00683 -1.15771 2.89944 95 110 153 
-0.682319 0.305196 4.65301 70 76 88 
-1.9284 0.0404438 2.77719 193 214 255 
-1.99295 -1.0763 2.88257 162 174 216 
-2.01842 -1.05258 2.86698 37 50 103 
-1.93325 -1.02798 2.90676 147 168 199 
-1.96876 -0.963674 2.87201 119 128 157 
-1.96083 -0.958341 2.89559 113 118 147 
-1.93805 -0.954942 2.90783 155 161 195 
-1.98821 -0.637247 2.78229 31 31 43 
-1.97107 -0.647958 2.80247 77 75 115 
-1.91789 -0.667222 2.84493 152 158 184 
-1.90755 -0.697371 2.89926 34 45 63 
-1.92117 -0.692201 2.85514 160 174 209 
-1.96241 -0.690242 2.84158 151 166 195 
-1.91601 -0.671452 2.85635 94 108 137 
-1.84743 0.692809 2.97135 103 110 129 
-1.93196 -0.64146 2.83102 83 92 133 
-1.94409 -0.964772 2.90683 76 86 122 
1.93091 -2.0618 6.45333 59 54 86 
-1.93867 -1.515 3.1806 115 120 149 
-1.86059 -0.141515 3.11699 75 79 116 
-1.96031 -1.00887 2.88796 118 140 181 
-1.57859 0.373364 3.18908 54 79 120 
-1.88387 -1.47516 3.23963 77 86 127 
-1.95599 -1.06479 2.89954 168 188 223 
-1.62948 0.347088 3.15088 125 150 207 
-1.86024 -1.08614 2.9375 49 47 71 
-1.80784 -1.4317 3.30982 87 91 129 
-2.01918 -1.63477 3.09916 63 59 94 
-1.64378 0.430124 3.13259 69 88 156 
-1.37654 0.828304 3.47535 53 49 82 
-1.87551 -1.02328 3.18855 88 99 131 
-1.56455 0.383086 3.1998 111 129 167 
2.11263 0.721439 6.6087 102 116 142 
-1.97976 0.105805 2.71118 58 76 152 
-1.95281 0.0717941 2.74153 190 206 255 
1.35242 0.10849 6.34231 146 146 208 
1.4601 -0.30317 6.52139 90 91 109 
-1.97609 -0.632319 2.78849 119 126 152 
-2.00156 -1.08757 2.88776 55 71 122 
1.69022 -1.30453 6.09073 97 100 115 
-1.8999 -0.712176 2.90275 149 170 201 
-2.03257 -1.02937 2.86078 31 38 84 
-1.68439 0.327754 3.10027 113 70 149 
-1.92455 0.150917 2.76416 30 34 61 
0.816331 0.735092 4.88417 158 168 203 
-1.94999 -0.673231 2.83633 66 86 119 
-1.89224 -1.11731 2.92753 96 104 125 
-1.9396 -1.26818 2.92252 147 154 182 
-1.92249 0.451393 2.69996 114 110 133 
-1.98355 0.133282 2.69026 28 34 58 
-1.67539 0.420018 3.09257 53 48 102 
-1.97827 -0.654685 2.78666 143 143 167 
-1.95296 -0.959602 2.90403 152 166 195 
-1.69034 0.4778 3.01159 153 164 196 
-1.9611 -1.17423 2.91498 89 97 146 
-1.93842 -0.680864 2.84083 147 163 197 
-1.93668 -0.819559 2.98263 136 142 174 
-1.90913 -0.980469 3.00457 120 124 149 
1.59404 -0.28342 6.63698 115 113 134 
-1.60275 0.276393 3.18649 96 105 134 
-2.04527 -0.859128 2.82293 113 116 147 
-1.94216 -0.642077 2.82768 164 183 215 
-1.96358 -1.1852 2.91978 175 183 220 
1.03448 0.173991 5.19013 121 135 172 
0.604457 -0.333183 4.73499 36 42 64 
-0.683768 0.288747 4.66846 72 81 90 
-1.98143 0.116053 2.71007 180 188 251 
-1.9786 0.134265 2.70982 20 21 51 
0.994882 0.572995 5.09479 78 78 116 
-1.4759 0.270082 3.27727 142 169 212 
1.10177 -1.01432 5.39841 145 157 199 
-1.95624 -0.990634 2.8915 47 59 97 
-1.98221 -1.16232 2.90274 54 56 104 
-2.04171 -1.04537 2.87344 13 22 39 
0.0113386 -1.57578 4.21065 23 19 36 
1.98234 0.786452 6.66189 109 106 133 
1.02786 0.603804 5.13075 119 137 173 
-1.97712 -1.08494 2.89314 66 85 128 
-2.01472 -0.988996 2.83801 110 133 164 
-1.10978 -0.037517 3.91766 89 95 127 
-1.9752 -0.830255 2.908 131 135 160 
-1.60839 0.224224 3.13944 168 189 234 
-1.95973 -0.958718 2.9305 60 67 96 
-1.92743 0.103942 2.75805 28 35 103 
-0.506797 0.819422 3.34008 214 224 255 
-1.55331 0.30114 3.24552 69 84 117 
-1.98717 -0.796068 2.85893 47 56 89 
-1.94787 -0.803445 2.93136 157 173 206 
-1.97715 -0.777796 2.85574 172 183 215 
-1.94675 0.0766706 2.74958 27 43 102 
-1.96061 -1.20024 2.92219 49 59 94 
-1.96986 0.01748 2.69934 17 21 48 
1.01835 -0.218136 5.17832 33 38 58 
-1.96219 -0.99678 2.88597 145 158 192 
-1.9384 -1.0222 2.9002 40 64 102 
-1.88229 -0.73223 3.16196 100 111 139 
0.17042 -1.15448 4.31651 47 36 53 
-1.97268 0.0957932 2.71238 23 36 81 
-0.556399 0.846627 3.29955 30 36 86 
-1.97915 -0.781495 2.8839 157 171 208 
-1.40464 0.521308 3.35761 151 166 199 
-1.59562 0.385009 3.18715 155 171 205 
-1.97914 0.0325133 2.72032 201 214 255 
-1.97183 0.0553063 2.71444 28 46 96 
-1.93513 0.061121 2.76733 32 46 95 
-1.93598 0.0974913 2.76548 26 39 83 
-1.97547 -0.987728 2.86275 33 39 53 
-2.02166 -1.0049 2.8526 59 83 111 
2.28628 -0.00228757 6.75699 87 84 113 
-0.646915 0.116174 4.67301 32 48 107 
2.58655 0.630434 6.78129 119 123 168 
1.6881 -1.30159 6.0817 101 103 118 
0.141294 -1.13367 4.33331 128 124 141 
2.64707 -0.259558 6.93499 171 191 224 
2.27246 0.00714892 6.73442 126 135 166 
1.05428 -0.988087 5.32785 107 119 159 
2.27082 0.00821612 6.76393 123 138 169 
2.41783 -0.471206 6.80014 94 98 125 
2.35059 -0.461804 6.7851 99 111 135 
1.59879 -1.32568 6.15922 95 96 116 
-0.50825 -0.607791 3.57516 95 102 131 
1.37621 -0.312277 6.40374 69 71 84 
-1.21704 -0.0952642 3.75475 216 230 255 
1.09964 0.259031 5.23637 91 71 98 
1.12138 0.595963 5.22779 55 55 79 
-1.23468 0.436365 3.66975 118 131 176 
-0.453492 -0.882857 3.66357 72 59 87 
-0.466428 -0.848307 3.6461 85 76 103 
2.13511 0.729504 6.67148 96 98 121 
1.04328 0.261166 5.17107 176 182 218 
-0.582493 -0.455794 3.44677 126 117 136 
1.45338 -1.007 6.04644 133 124 141 
1.95044 1.05329 6.51717 46 44 66 
1.05047 -0.140623 5.22457 171 184 216 
1.29889 0.107136 6.2851 155 186 241 
-0.584963 -0.262253 3.5875 138 134 151 
-0.394187 -1.00536 3.74726 57 47 74 
0.468941 1.0108 4.40543 118 123 143 
1.33949 0.0985711 6.34285 206 214 255 
-0.506936 -0.630368 3.58245 183 181 205 
-0.680641 0.133218 4.68039 19 28 67 
1.33834 0.155128 6.32222 60 59 125 
2.12542 0.728572 6.65113 106 116 141 
0.690898 0.563457 4.74482 232 234 247 
1.91829 -1.31375 6.31268 60 55 75 
2.08722 -1.1695 6.50363 93 88 110 
-1.21107 0.0227186 3.75553 83 94 126 
-0.642626 -0.491572 3.40882 137 129 140 
-0.504032 -0.453927 3.51724 41 38 45 
1.00635 -0.809251 5.26475 152 162 197 
0.633067 0.643705 4.7081 177 187 236 
1.97495 0.779886 6.64454 114 123 152 
2.26796 -0.116493 6.72332 100 116 132 
-0.01746 -1.68841 4.19647 64 49 72 
-0.0189009 -1.68254 4.20629 145 126 145 
-0.0296573 -1.67183 4.21155 96 72 98 
-0.0261548 -1.66114 4.21447 131 127 142 
0.0231657 -1.65999 4.24405 127 108 127 
-0.0703421 -1.64859 4.18102 142 130 144 
-0.030251 -1.61998 4.16803 106 103 120 
0.0265417 -1.63507 4.28521 66 45 62 
0.0235549 -1.62653 4.27436 144 120 134 
2.04016 -1.98001 6.49787 56 48 72 
-0.329746 -1.50956 3.85691 181 190 221 
1.83539 -1.87944 6.25625 86 102 136 
3.01205 -2.0983 7.62343 150 150 188 
0.0497474 -1.52829 4.24862 71 64 82 
1.80273 -1.81038 6.21603 154 171 201 
0.0373396 -1.50686 4.24827 73 51 74 
0.0464699 -1.50747 4.25435 70 60 84 
0.0522268 -1.50541 4.27629 58 36 59 
1.85369 -1.7843 6.25141 121 131 166 
0.66871 -1.60052 4.97478 174 190 224 
1.95208 -1.80947 6.43209 82 82 120 
3.14572 -1.97694 7.7372 172 167 197 
1.83963 -1.71604 6.21253 123 127 162 
-0.4923 -1.37025 3.66761 99 107 144 
1.64413 -1.69799 6.04722 144 164 188 
0.0775935 -1.45449 4.31598 73 63 88 
-0.435642 -1.37261 3.73848 133 138 167 
1.63252 -1.66008 6.05697 78 91 123 
-0.036137 -1.39134 4.13138 110 104 118 
1.70846 -1.65446 6.0896 171 187 212 
1.70487 -1.65304 6.11594 112 128 153 
2.02126 -1.63148 6.47725 141 153 179 
1.68681 -1.57192 6.07651 87 108 129 
1.68355 -1.55399 6.07499 98 102 129 
1.99927 -1.58815 6.44147 78 87 116 
1.69712 -1.51307 6.07376 144 166 190 
2.01802 -1.5565 6.43665 71 74 105 
-0.413322 -1.23295 3.72721 129 138 169 
-0.526349 -1.22005 3.61425 159 165 189 
1.71825 -1.49363 6.07417 86 109 140 
1.59422 -1.44681 5.94642 104 109 128 
-0.42675 -1.19693 3.71654 150 167 193 
1.99145 -1.47684 6.39532 104 110 144 
1.44309 -1.36028 5.75443 55 50 72 
1.4288 -1.33818 5.70262 50 52 75 
1.98474 -1.40897 6.34206 120 138 158 
1.64738 -1.38323 6.02873 73 62 92 
-0.180399 -1.16332 3.98225 76 56 81 
-0.206229 -1.15469 3.95852 72 59 85 
-0.234682 -1.14454 3.93324 76 56 81 
1.39168 -1.30585 5.6567 58 60 83 
-0.256862 -1.13097 3.90039 75 53 76 
1.45857 -1.29548 5.79542 86 73 103 
0.934152 -1.23457 5.2032 150 154 189 
-0.303411 -1.09659 3.84285 93 77 103 
1.82312 -1.31515 6.21186 120 111 138 
1.8682 -1.29162 6.32713 75 74 90 
1.95004 -1.2756 6.3545 113 109 132 
3.30313 -1.19924 7.82506 134 138 175 
-0.518164 -0.723852 3.57429 153 155 178 
1.14752 -0.53541 5.37161 97 86 116 
3.15006 -0.357324 7.5477 110 115 147 
1.29907 -0.40886 6.32186 49 50 80 
-0.596662 -0.354196 3.4571 97 93 120 
1.65252 -0.349737 6.67395 77 76 108 
-0.5639 -0.346434 3.49608 91 78 106 
1.63744 -0.287112 6.71036 57 44 70 
2.66722 -0.202634 6.97307 53 70 96 
2.61708 -0.151425 6.93098 148 159 187 
3.04968 -0.0713424 7.4616 148 154 188 
2.99257 -0.0112169 7.39984 163 167 205 
3.07562 0.0667614 7.40262 103 116 133 
3.00336 0.0780439 7.32838 66 70 108 
2.48662 0.190962 6.78743 119 119 145 
2.50473 0.192453 6.80605 101 105 134 
2.58122 0.391733 6.87147 61 65 90 
2.46885 0.56047 6.73187 67 68 89 
2.59236 0.641355 6.81953 112 114 162 
2.58752 0.650632 6.79968 213 211 233 
2.56209 0.679984 6.77283 202 209 253 
2.52958 0.719635 6.72191 199 219 255 
2.58729 0.731033 6.7961 209 207 228 
2.53156 0.744459 6.73979 62 71 112 
3.08002 0.999774 7.36353 122 118 179 
3.03614 0.986861 7.13359 101 102 169 
3.08604 1.056 7.33684 210 205 225 
2.4043 1.06613 6.53727 122 130 151 
1.24853 1.1462 4.71668 47 60 95 
3.04095 1.06799 7.28894 159 164 204 
3.08798 1.06449 7.35684 201 195 223 
1.83486 -1.85772 6.25334 75 91 124 
2.01957 -1.83041 6.49222 42 29 59 
3.02944 0.967213 7.31101 202 218 252 
1.8334 -1.75521 6.21113 159 174 197 
2.52484 0.818098 6.54433 142 167 197 
1.65693 -1.60278 6.04922 159 173 199 
1.67414 -1.5655 6.08821 44 47 78 
2.029 -1.57524 6.48147 129 142 161 
2.544 0.743827 6.74989 156 165 208 
2.58747 0.746138 6.77 96 98 155 
1.58986 -1.45001 5.93689 59 64 84 
2.00221 -1.48177 6.40616 159 165 189 
2.57945 0.706448 6.78183 110 121 175 
2.5665 0.68547 6.75997 101 102 167 
2.5797 0.672145 6.78316 118 122 183 
2.58372 0.645235 6.75613 214 212 233 
2.54689 0.625433 6.7641 203 227 255 
2.57414 0.392274 6.86347 43 45 70 
0.149965 -1.13758 4.30704 59 48 64 
1.68147 -1.30773 6.11295 82 81 97 
1.40003 -1.24608 5.73197 85 70 103 
1.16107 -1.12369 5.43632 123 129 163 
3.22989 -0.129855 7.6459 131 121 146 
1.2693 -1.02055 5.57118 57 42 65 
-0.500112 -0.461653 3.52981 127 125 136 
-0.528626 -0.465945 3.48993 118 118 130 
3.3108 -1.70074 8.06775 55 37 63 
2.99356 -0.0115748 7.41846 169 177 213 
2.5921 -0.660569 6.91698 172 191 223 
1.93452 -1.86716 6.39296 157 156 187 
-0.484902 -0.773661 3.61598 81 70 102 
-0.496776 -0.511764 3.58156 135 132 143 
3.19769 -0.521471 7.6247 155 169 196 
2.46173 -0.483824 6.846 48 46 68 
1.30278 -1.03127 5.61304 71 66 89 
2.67011 -0.221253 7.01149 44 56 82 
2.66969 -0.218668 6.96133 50 67 93 
2.61706 -0.15052 6.91462 150 157 186 
1.32883 -1.13829 5.67765 120 112 135 
1.39281 -1.17619 5.70815 94 78 114 
3.03634 0.0700378 7.36416 92 100 123 
3.00412 0.0779516 7.34205 75 79 117 
1.16353 -1.2134 5.47653 164 173 204 
1.56457 -1.26901 5.93973 95 94 110 
0.0435549 -1.65171 4.28087 132 115 133 
1.80728 -1.30516 6.24438 73 75 88 
-0.326308 -1.07701 3.815 88 83 106 
1.74602 -1.30632 6.15857 81 80 96 
0.0415008 -1.63369 4.27308 57 40 58 
2.51248 0.281502 6.7814 31 39 58 
1.08424 -1.24188 5.38075 144 148 186 
3.35737 -1.51604 7.89262 80 88 101 
3.23112 -1.53223 7.74447 77 80 95 
-0.0298065 -1.55585 4.18664 114 92 113 
1.80696 -1.46292 6.15172 123 140 160 
1.71755 -1.46695 6.06616 121 137 162 
1.44643 1.08875 5.26797 91 97 131 
0.406906 -1.35109 4.65421 126 126 162 
1.63899 -1.52159 6.00779 145 163 187 
1.84019 -1.83665 6.25736 144 164 189 
1.65427 -1.80324 6.07731 80 96 132 
3.00941 -1.78271 7.57668 172 170 209 
1.63437 -1.68855 6.07217 83 78 108 
1.81763 -1.7563 6.22263 62 60 99 
1.82739 -1.78614 6.23304 98 109 141 
-0.448774 -1.37427 3.71757 119 125 161 
-0.40437 -1.31439 3.74762 139 149 184 
-0.000400412 -1.29983 4.16519 127 100 119 
3.37315 -1.51836 7.92016 88 88 100 
1.84351 -1.76746 6.23275 123 132 165 
0.0844225 -1.45008 4.30515 69 60 87 
1.85363 -1.85018 6.25873 132 146 175 
1.25193 1.08819 4.70858 75 77 115 
0.0404817 -1.51361 4.26809 71 66 86 
-0.607983 -0.251333 3.58892 141 160 190 
-0.504587 -0.667844 3.59202 155 153 177 
1.85465 -1.94729 6.3357 110 110 144 
3.03405 1.05441 7.31127 209 224 253 
1.99662 -0.00575268 6.76673 93 90 117 
3.06061 1.02251 7.34713 207 233 255 
1.22947 -0.943556 5.51361 64 50 75 
2.53115 0.721329 6.75128 170 192 239 
2.00894 -1.50795 6.46853 65 66 96 
1.98939 -1.48489 6.40436 101 101 135 
3.28805 -1.6702 8.08533 78 58 93 
1.98477 -1.41849 6.36947 150 166 189 
2.66559 -0.20334 6.98591 50 66 89 
3.0792 0.0695638 7.43716 97 116 133 
1.49692 -0.309327 6.52273 56 50 76 
2.59733 0.58596 6.83841 121 140 173 
1.61593 -1.52027 6.00601 133 149 172 
2.00929 -1.63979 6.49189 97 114 142 
1.82562 -1.78265 6.21976 95 104 137 
1.24934 1.04643 4.87028 69 77 113 
2.4976 0.660326 6.7219 35 40 60 
-0.601682 0.96868 3.1748 121 122 152 
1.58417 -1.44095 5.9194 34 41 59 
0.550783 0.259741 4.62656 140 147 176 
-0.0246303 -1.56507 4.19738 57 46 62 
1.16446 -0.730973 5.43001 83 69 102 
1.65148 -1.80768 6.0928 76 92 128 
3.03788 0.0709601 7.39155 90 106 131 
3.20055 -0.525442 7.65999 163 177 206 
1.85233 -1.34349 6.26408 65 59 87 
1.77048 -1.34435 6.20981 58 43 66 
1.98472 -1.29637 6.40864 86 74 98 
1.37883 -1.19519 5.72114 127 122 145 
1.2891 -1.37162 5.63552 148 158 193 
3.27581 -1.52839 7.79896 90 89 103 
1.50609 -1.24307 5.87971 93 91 115 
1.23649 -1.10637 5.50482 60 52 76 
3.16304 -1.57233 7.72341 84 81 112 
1.29474 -1.05495 5.59551 83 69 102 
-0.194157 -1.24572 3.92539 41 43 56 
0.00182562 -1.36246 4.17635 134 121 139 
3.33782 -1.46658 7.91421 123 125 164 
0.150436 -1.3087 4.32552 72 70 94 
1.05064 -0.191208 5.21215 154 167 202 
1.04195 0.163689 5.17437 115 121 153 
0.990712 0.340802 5.11854 145 156 188 
-0.0658455 -1.65038 4.16805 141 123 145 
2.5884 0.750483 6.79733 83 82 140 
2.54698 0.74209 6.76632 224 236 255 
2.53717 0.73478 6.73346 210 230 255 
2.53138 0.719463 6.73439 188 210 251 
1.83553 -1.84607 6.22098 86 102 135 
3.03467 0.649301 7.33378 173 177 206 
2.50244 0.804223 6.6462 102 111 142 
1.83668 -1.82005 6.23708 84 90 126 
2.46374 0.556952 6.71161 58 56 77 
1.82764 -1.77846 6.20484 89 105 138 
3.4276 -2.07338 8.10674 112 103 120 
1.95187 -1.81761 6.44664 76 69 110 
3.41292 -2.03211 8.11033 113 104 125 
1.69756 -1.64263 6.10102 58 73 102 
1.94203 -1.6213 6.34954 56 60 97 
1.68286 -1.58296 6.096 118 138 162 
1.95545 -1.61273 6.38013 138 148 173 
1.6517 -1.56888 6.06399 114 119 148 
1.67605 -1.55815 6.06019 36 41 70 
2.60272 0.208987 6.89025 109 123 158 
-0.75635 0.3934 3.37938 60 81 108 
1.58031 -1.45998 5.91123 139 149 174 
2.55731 0.0230062 6.87387 112 128 161 
1.99263 -1.42781 6.37035 154 160 186 
2.3664 -0.167015 6.75045 122 120 141 
1.51668 -1.33722 5.8959 74 67 101 
3.02869 1.04639 7.25647 233 242 255 
1.71283 -1.16986 5.50618 117 114 133 
0.113789 -1.13802 4.3546 33 27 37 
1.95307 -1.27423 6.32968 129 125 150 
1.4739 -1.21546 5.80747 136 132 157 
0.912973 -1.13606 5.16949 128 136 182 
1.36179 -1.15264 5.67649 62 48 71 
2.65032 -0.34464 6.98944 182 199 229 
1.34197 -1.09663 5.66462 68 64 89 
1.20134 -0.86141 5.4636 63 50 76 
2.44138 -0.800154 6.84724 119 117 141 
-0.503659 -0.515104 3.58893 137 129 142 
1.35565 -1.17114 5.65132 129 127 151 
3.35986 -2.08248 8.03492 99 107 128 
2.46078 -0.485873 6.8297 55 52 71 
1.58043 -1.36525 5.9602 74 67 98 
-0.467359 -0.464002 3.54028 34 31 42 
1.53237 -1.25268 5.88445 95 83 105 
1.38181 -1.19293 5.70827 132 122 146 
2.55229 0.0323385 6.87401 139 159 186 
1.46265 -0.388504 6.56081 46 46 80 
2.75595 1.0251 6.81363 110 135 166 
3.19399 -0.513931 7.63125 95 94 128 
3.20309 -0.526873 7.68127 165 179 208 
1.81457 -1.8795 6.28729 136 140 175 
2.56961 0.631675 6.80362 217 227 255 
2.64819 -0.261717 7.00764 144 174 202 
2.53527 0.640802 6.76459 213 230 255 
2.58188 0.648445 6.81141 242 242 250 
1.63202 -1.69181 6.05279 58 57 89 
1.31849 0.167236 6.32897 206 225 255 
1.65006 -1.61318 6.08387 120 140 167 
0.682197 0.566902 4.76966 238 240 253 
0.641791 0.555738 4.68189 217 223 255 
1.00657 -0.0354042 5.19587 65 70 100 
2.65663 -0.203171 7.00395 44 50 66 
1.30883 -1.09785 5.64293 67 49 73 
2.52766 0.741513 6.72062 65 70 108 
1.6187 -1.48818 5.97162 112 132 159 
2.55693 0.0227303 6.91629 113 130 160 
1.5753 -1.45571 5.89943 118 134 160 
-0.522349 0.808611 3.35232 213 228 255 
2.00081 -1.48354 6.41674 153 159 185 
-0.564487 0.800236 3.29789 39 32 65 
0.123798 -1.11761 4.34178 156 153 172 
0.168466 -1.18045 4.31893 158 143 162 
0.120912 -1.13237 4.34176 45 34 48 
1.52196 -1.27729 5.8823 53 36 55 
0.686755 0.548856 4.77177 70 74 137 
0.667648 0.549684 4.78692 196 209 253 
1.03093 0.594589 5.13676 102 109 138 
1.00271 0.586122 5.10248 66 75 106 
2.41243 0.835561 6.64107 61 67 89 
1.03189 0.322551 5.17558 162 168 202 
-0.568086 -0.52383 3.40666 42 39 50 
2.08073 -1.19537 6.55297 94 85 112 
2.60225 0.389562 6.90429 119 122 153 
3.02762 0.0584396 7.39303 33 29 54 
1.55954 -1.49331 5.86747 44 55 75 
2.44629 0.320457 6.743 126 124 145 
1.72603 -1.55795 6.10757 146 166 191 
1.43723 -0.308804 6.45612 50 45 67 
0.975796 -0.709343 5.23088 113 121 157 
2.65036 -0.344642 7.01167 172 193 222 
1.99887 -1.64033 6.46337 137 158 185 
1.66203 -0.359488 6.68542 125 125 149 
0.701787 0.709695 4.74222 171 180 209 
1.125 0.301608 5.26126 71 56 85 
2.55017 0.417043 6.80788 159 174 205 
2.55005 0.186788 6.78891 157 173 206 
2.75098 1.04335 6.80549 24 39 70 
1.62982 -1.28669 5.98069 97 92 114 
-0.490466 0.883009 3.34083 115 99 128 
2.98945 -0.0247622 7.34648 102 107 145 
1.25697 1.13292 4.6651 57 66 99 
2.45843 0.555661 6.6998 47 44 63 
-0.561102 0.817604 3.29537 226 227 255 
0.0519481 -1.50405 4.20572 34 30 47 
2.4915 1.19078 6.49582 41 53 93 
1.03382 0.6049 5.14274 139 150 182 
2.64504 -0.16847 7.0101 63 75 101 
2.64717 -0.197502 6.90806 44 51 67 
1.82046 -1.75023 6.20453 57 59 97 
2.6749 -0.230784 6.99991 65 82 110 
-1.23307 0.539291 3.67532 243 245 255 
2.8715 1.06442 7.0979 162 166 191 
1.69407 -1.63409 6.08866 46 60 87 
1.66939 -1.61051 6.04442 67 66 100 
2.01628 -1.65296 6.50391 154 161 190 
2.39624 1.12565 6.52729 55 69 96 
1.95628 -1.61169 6.40097 155 167 193 
2.51748 0.842711 6.54476 156 173 199 
2.02242 -1.51862 6.44183 148 160 186 
3.13143 -0.346516 7.51837 73 73 109 
1.98908 -1.48776 6.39442 90 93 126 
0.176078 -1.18672 4.32229 48 45 62 
1.65595 -1.33739 6.0269 47 43 66 
2.57147 0.390569 6.84779 39 39 63 
1.85082 -1.32703 6.23184 45 42 61 
-0.623454 -0.48925 3.39279 28 26 39 
2.52264 0.37281 6.75331 112 104 119 
2.45546 -0.480991 6.79795 45 42 61 
2.44819 0.317833 6.67074 120 110 134 
-0.514513 -0.457234 3.52802 41 40 46 
1.36024 -1.15338 5.68946 51 32 54 
2.55535 0.0354366 6.83507 171 188 218 
2.13915 7.52419e-05 6.78258 111 116 138 
0.976139 -0.710753 5.24224 104 114 149 
2.43318 -0.80079 6.81629 123 125 150 
1.23329 -0.946651 5.52236 60 48 72 
1.0462 -0.206827 5.24092 106 119 151 
-0.632152 0.104545 4.70979 23 32 65 
-0.547473 0.814783 3.28235 229 234 255 
2.5956 0.381941 6.84583 122 117 149 
-0.526808 0.809953 3.35656 213 228 255 
2.55976 0.3893 6.80139 41 42 63 
2.02259 -1.84304 6.52421 33 27 53 
2.54975 0.419372 6.84778 150 166 199 
2.57542 0.0125368 6.86536 42 42 68 
1.01213 0.344883 5.10018 50 52 75 
2.58527 0.621265 6.74224 108 121 156 
2.53898 0.640525 6.78004 227 240 255 
2.54216 0.676773 6.7771 102 116 165 
2.55827 0.703649 6.77503 242 246 255 
1.68418 -1.64694 6.08069 115 129 156 
2.65275 -0.266735 6.99361 176 196 229 
2.39404 1.13534 6.59119 47 57 82 
1.95576 -1.59349 6.33646 151 165 191 
1.58072 -1.48207 5.9825 138 133 156 
1.36022 -1.15616 5.7002 51 36 57 
0.635065 0.554407 4.70689 225 232 255 
0.695219 0.664114 4.73225 54 53 110 
0.652885 0.655135 4.67345 218 220 255 
1.98569 -1.40329 6.27483 160 172 196 
1.01476 -0.218947 5.21401 47 55 76 
0.642673 0.586591 4.7097 59 71 123 
1.69695 -1.29735 6.06039 115 110 132 
2.36259 -0.170789 6.76807 98 99 119 
1.84583 -1.32585 6.223 46 34 54 
0.982819 -0.727048 5.23831 156 166 201 
1.83129 -1.73459 6.24662 96 98 136 
2.10298 -1.20686 6.54291 35 34 52 
1.72139 -1.47663 6.07329 137 153 178 
1.03292 0.317841 5.18554 169 175 211 
0.17062 -1.26237 4.3813 176 179 212 
2.38348 -0.771228 6.79781 39 38 56 
-0.487553 -0.468285 3.55966 40 39 45 
-0.541301 0.876235 3.27435 32 48 97 
-0.558392 0.842059 3.30029 34 49 106 
0.645689 0.641275 4.67179 236 239 255 
0.643446 0.596816 4.71644 56 70 107 
2.55325 0.660847 6.75467 239 246 255 
1.33924 0.202769 6.30752 212 222 255 
2.53693 0.683824 6.75474 112 120 166 
1.14779 -1.12429 5.43303 164 177 212 
0.570883 -0.320348 4.75296 56 59 78 
2.58845 0.0106546 6.99972 42 42 68 
2.58488 0.628228 6.82453 99 99 153 
2.56893 0.645735 6.75427 245 246 251 
2.57265 0.691243 6.82289 96 100 164 
0.68705 0.556314 4.73424 240 242 254 
2.55619 0.714464 6.82307 246 249 255 
1.31751 -1.08905 5.61801 42 32 56 
2.12042 0.690323 6.62121 118 129 159 
1.70046 -1.55267 6.08615 48 42 68 
2.47278 0.850798 6.7497 148 154 178 
2.01556 -1.51517 6.40734 146 165 195 
2.58831 0.209853 6.84277 98 101 134 
2.69132 1.02073 6.79978 176 176 202 
2.5498 0.419496 6.83554 155 172 202 
2.53263 1.01674 6.74035 132 151 183 
2.73341 1.029 6.79579 43 42 73 
2.61616 -0.151546 7.00412 107 121 150 
1.6519 -1.32591 6.00954 32 28 45 
-0.600735 -0.270819 3.59923 149 144 166 
0.136486 -1.14834 4.31864 39 38 46 
1.50712 -1.26764 5.93183 118 112 138 
1.32583 -1.09839 5.67307 44 41 58 
1.82577 -1.73411 6.22576 116 115 149 
1.14904 -1.14557 5.4346 79 88 127 
2.54599 0.562947 6.82988 158 172 199 
-0.60237 -0.530812 3.43887 26 31 35 
2.02065 -1.58728 6.47609 141 155 181 
1.67817 -1.65706 6.0904 96 110 137 
0.38426 -0.26183 4.55305 87 78 99 
2.58797 0.588658 6.82588 114 120 154 
1.6911 -1.52314 6.08367 124 145 172 
2.55285 0.183999 6.91944 124 137 171 
-0.610687 -0.488768 3.49389 109 101 116 
-0.511177 0.805867 3.35263 72 67 123 
1.35214 0.199093 6.35026 131 136 192 
-0.637606 0.115384 4.65052 25 32 60 
2.13578 0.000622835 6.74176 115 121 147 
-0.527341 0.863631 3.3284 26 44 94 
2.01814 -1.98146 6.48788 112 116 141 
2.04144 -1.9766 6.48532 59 55 72 
1.87356 -1.78144 6.27072 125 138 172 
1.82844 -1.78061 6.25024 148 158 185 
2.0286 -1.6345 6.48721 119 119 145 
2.03041 -1.50806 6.44123 128 136 155 
2.02285 -1.50771 6.45176 122 140 164 
1.6868 -1.29855 6.06993 88 84 101 
0.497601 -1.00989 4.71032 125 128 161 
1.29702 -0.409174 6.33566 49 50 80 
1.28842 -0.326815 6.31975 80 78 99 
1.34945 -0.318019 6.40688 78 75 94 
1.49462 -0.295074 6.55186 88 85 102 
1.62287 1.14756 5.10567 73 77 115 
1.83872 -1.7189 6.22251 105 105 141 
1.64179 -1.57022 6.03661 64 59 91 
2.03108 -1.57136 6.46091 131 142 164 
1.94281 -1.46123 6.31203 95 102 131 
-0.70997 -0.50572 3.59374 113 107 121 
-0.540899 -0.459088 3.49687 42 38 52 
1.29236 -0.341183 6.31737 44 41 68 
1.49495 -0.308025 6.53864 58 48 75 
1.61368 -0.283273 6.6534 54 46 70 
1.33707 0.152844 6.211 57 68 134 
1.24881 1.09897 4.86762 67 81 118 
0.589901 0.733829 4.64471 128 139 133 
0.596423 0.729709 4.61609 121 130 127 
-1.20748 0.772841 3.60048 73 103 141 
0.508948 1.10014 4.43553 99 107 126 
1.8351 -1.86491 6.24348 125 139 165 
1.82938 -1.8527 6.23497 70 75 113 
2.02162 -1.8265 6.47238 31 26 56 
1.82487 -1.76814 6.20212 121 139 161 
1.30717 0.154795 6.42456 71 78 146 
1.31313 0.153094 6.32198 57 68 134 
1.34348 0.139729 6.33493 56 59 126 
1.30477 0.0922267 6.30927 111 129 191 
1.99834 -0.00537183 6.74871 84 85 106 
1.58704 -1.32755 5.9655 64 52 74 
1.9293 -1.88207 6.43948 162 169 198 
1.22949 -0.883301 5.52723 85 75 102 
1.78567 -1.35413 6.18377 58 50 74 
1.00539 -0.0292693 5.15342 69 77 114 
1.0383 0.262024 5.18641 174 185 217 
0.432938 0.247753 4.50975 116 117 138 
1.26213 -0.341474 6.29682 55 53 77 
0.430968 -0.563855 4.5688 110 106 131 
1.83518 -1.82325 6.24852 74 79 117 
1.70558 -1.5574 6.09857 38 44 66 
1.9955 -1.50467 6.42639 126 146 171 
1.71703 -1.34533 6.10014 34 31 50 
1.64321 -1.33008 6.04554 35 26 45 
1.41272 -1.1952 5.74163 58 39 61 
1.29507 -0.411582 6.3415 36 37 67 
1.99102 -1.86455 6.4578 70 85 124 
1.66396 -0.272942 6.74983 95 90 113 
2.08504 -1.17308 6.5291 104 106 131 
1.01728 0.342239 5.10865 58 64 86 
1.6752 -1.90529 6.1401 71 70 104 
2.01985 -1.49058 6.44434 131 131 155 
2.01882 -1.83413 6.49872 39 32 65 
1.69136 -1.64242 6.10704 60 74 100 
-0.599905 -0.481851 3.41794 125 117 132 
1.68392 -1.55224 6.08487 113 123 150 
1.29505 0.103001 6.31157 182 208 255 
2.06525 -1.37246 6.42006 118 136 158 
2.11888 0.738267 6.73426 115 127 151 
1.30392 0.208683 6.29536 157 176 234 
-0.645044 0.137842 4.7364 25 33 80 
2.08512 -1.18537 6.50209 90 82 106 
1.46886 -1.21872 5.81971 135 128 159 
-1.23826 0.446066 3.69557 169 192 236 
2.021 -1.84728 6.54028 21 19 40 
0.660238 0.613733 4.732 222 233 253 
-0.656345 0.293621 4.70011 132 141 140 
-0.671558 0.157863 4.65561 150 161 223 
1.34394 0.111744 6.36499 208 217 255 
1.28321 -0.332232 6.29793 93 91 115 
1.11682 0.597671 5.21856 44 42 55 
2.02542 -1.63502 6.45014 139 146 175 
1.68142 -1.65443 6.09884 111 120 149 
1.6608 -1.54082 6.06038 141 156 185 
1.59494 -1.46293 5.92363 135 133 157 
1.31975 0.171422 6.3096 200 220 255 
1.31019 0.150902 6.29555 47 60 105 
1.32155 0.132851 6.34211 205 219 254 
2.00694 -1.44434 6.39049 76 97 128 
1.31545 -1.08958 5.63062 38 29 48 
2.07433 -1.17769 6.49302 95 95 119 
1.65116 -1.80508 6.05893 64 84 119 
0.548559 -0.11146 4.64049 30 29 37 
0.160941 -1.18853 4.32277 138 115 133 
0.567656 -0.126933 4.65819 145 154 185 
1.33776 0.114327 6.348 209 219 255 
1.98641 0.000741227 6.76599 111 124 156 
1.65463 -1.66941 6.06211 42 32 59 
0.664744 0.619287 4.69465 228 234 255 
1.58923 -1.46818 5.93546 132 126 152 
-0.516622 0.919871 3.34558 213 226 255 
-0.554822 0.861054 3.31493 29 34 72 
-0.505676 0.847703 3.32762 28 41 76 
1.99974 -1.43716 6.36275 96 105 138 
0.552947 -0.109258 4.62139 26 25 31 
1.59578 -1.31878 6.13465 95 96 116 
1.06692 -0.902068 5.33056 86 97 119 
1.32038 -0.321628 6.3489 77 78 96 
1.78977 0.781468 6.60863 101 104 123 
1.3539 -0.330562 6.37371 47 44 71 
1.38295 -0.322601 6.39812 49 53 78 
1.46531 -0.314126 6.49725 51 43 67 
-1.48918 0.506174 3.3285 82 85 120 
-1.47589 0.277955 3.29221 20 31 61 
-1.54308 0.418074 3.25071 93 152 208 
1.34149 0.198558 6.33002 210 223 255 
1.52097 -0.296125 6.5712 96 98 121 
-1.56478 -0.70338 3.51046 65 61 86 
-1.40782 0.539139 3.38358 42 44 56 
1.47642 -0.295942 6.42258 87 84 105 
0.640205 0.612135 4.69669 83 89 137 
1.02005 -0.220875 5.19765 35 41 55 
2.03184 -2.01232 6.50819 71 61 86 
1.83528 -1.88202 6.2647 86 102 136 
1.99313 -1.88372 6.45775 61 78 108 
1.99589 -1.42057 6.35411 132 138 164 
1.24789 -1.05517 5.55418 100 81 111 
1.3515 -0.332014 6.3833 51 48 79 
1.52638 -0.29106 6.57697 100 91 110 
1.70056 -0.26308 6.77637 93 86 104 
1.30415 0.132112 6.27992 55 72 126 
-1.2125 0.44471 3.67424 212 232 255 
1.25695 1.08323 4.67464 64 66 104 
1.83339 -1.9946 6.27513 67 85 109 
2.04503 -1.97097 6.49168 104 99 119 
0.689248 0.642969 4.74386 192 200 237 
1.82701 -1.77473 6.22859 144 159 180 
2.02108 -1.49937 6.47241 137 135 157 
-0.681487 0.0899331 4.68249 25 30 86 
1.46875 -0.381784 6.52157 56 59 94 
-0.48595 -0.732996 3.59498 86 73 103 
1.92973 -2.07099 6.47646 63 64 94 
1.29092 -0.340652 6.3027 48 41 72 
1.84483 -1.98742 6.29349 80 91 121 
1.7343 -1.24711 5.64872 71 65 93 
1.82702 -1.82842 6.25913 96 99 134 
1.53014 -2.01178 5.95608 69 73 118 
1.8092 -1.76945 6.2201 64 70 106 
2.02745 -1.51224 6.48734 67 63 86 
1.98793 -1.89033 6.47011 44 60 85 
1.41114 -1.2115 5.75414 85 71 97 
2.024 -2.01132 6.49849 106 108 129 
2.03604 -2.00997 6.52067 144 147 164 
2.02844 -1.51756 6.46719 124 126 151 
1.47924 -0.386489 6.53448 95 100 129 
1.55479 -0.295449 6.60887 60 50 75 
1.2924 -1.12713 5.60938 105 91 117 
2.03656 -1.99305 6.47499 137 140 157 
1.98812 -1.8785 6.42708 46 62 88 
-1.43115 0.363681 3.34455 41 60 137 
1.3086 0.208416 6.25948 175 195 246 
1.95534 -1.608 6.36013 138 148 173 
-0.516087 -0.68774 3.66815 50 54 81 
-0.505123 -0.578287 3.56551 69 74 106 
1.6559 -1.55269 6.03525 127 136 165 
-1.4879 0.393631 3.31295 167 158 225 
-0.594948 -0.478939 3.4099 123 111 125 
1.81502 -2.00162 6.2775 89 107 127 
-0.500929 -0.666428 3.56376 184 182 203 
1.33143 0.21349 6.35013 203 216 255 
1.44889 -0.305638 6.5417 105 105 129 
1.7086 -1.5569 6.11234 47 51 76 
1.65022 -1.34469 6.04994 50 40 64 
1.84082 -1.33518 6.27416 56 39 58 
1.00886 0.156345 5.15687 52 58 84 
0.139589 -1.70073 4.34909 37 35 46 
0.160633 -1.68658 4.31816 60 57 74 
-1.42077 0.539543 3.39309 59 64 60 
2.02027 -1.56102 6.46441 65 70 102 
1.62547 -1.48225 5.95222 178 196 218 
0.149389 -1.19639 4.36635 155 140 159 
-0.651077 0.0588924 4.74624 92 111 179 
1.33778 0.198604 6.34485 211 222 254 
1.30159 0.105971 6.298 206 226 255 
1.28881 -0.420558 6.34091 37 34 53 
0.592932 -0.331799 4.72148 43 44 49 
-0.659953 0.116726 4.67609 25 36 68 
1.95202 -1.81753 6.42429 71 74 109 
-0.667251 0.293829 4.71674 137 147 146 
-0.69308 0.297274 4.68166 127 129 128 
1.96889 -1.60925 6.37506 73 70 101 
1.59738 -1.45104 5.89028 144 142 164 
0.404705 -0.298881 4.49443 74 66 87 
0.640624 0.599664 4.72651 56 70 107 
-1.43037 0.319908 3.34877 41 42 98 
-0.64692 0.0749333 4.73548 149 167 239 
-0.653538 0.114601 4.6567 26 38 64 
0.565471 -0.127079 4.6582 140 151 179 
2.01079 -1.66133 6.50782 150 164 193 
0.178155 -1.25657 4.36249 176 179 212 
0.389627 -0.261454 4.53726 87 78 99 
1.69221 -1.51209 6.04982 124 145 172 
2.04282 -1.9763 6.50815 123 118 138 
1.83157 -1.88913 6.28553 83 95 133 
1.93385 -1.87339 6.41631 152 159 188 
1.88002 -1.76495 6.21882 125 138 172 
1.71139 -1.62245 6.03299 68 84 110 
1.66339 -1.60944 6.07371 62 59 90 
1.6601 -1.59432 6.02962 155 171 197 
1.72253 -1.53931 6.09425 80 83 118 
2.02896 -1.57505 6.50071 111 128 148 
1.58051 -1.45187 5.87564 129 135 161 
0.112459 -1.14434 4.37034 118 112 126 
1.46755 -1.2371 5.89828 125 121 144 
0.489393 -1.01372 4.72745 125 128 161 
1.59719 -1.0475 6.2073 103 95 118 
0.953756 -0.549793 5.19306 101 116 139 
-0.586115 -0.4763 3.4099 121 119 133 
1.28666 -0.342119 6.32314 52 50 74 
1.67047 -0.267793 6.71519 100 95 117 
1.15411 -0.181626 5.54764 64 54 79 
1.16897 -0.152477 5.60282 138 137 145 
1.09237 -0.118734 6.03775 27 29 54 
1.3349 0.154565 6.29645 71 78 146 
-0.630754 0.0608435 4.72499 87 108 171 
-0.653689 0.117966 4.68652 37 40 95 
0.647913 0.540238 4.66231 34 30 81 
-1.16256 0.440585 3.63319 186 215 249 
0.652417 0.656862 4.65599 51 48 95 
-0.486162 0.81625 3.33342 176 198 239 
1.63275 1.18849 5.0542 54 64 99 
-0.505638 0.834819 3.34298 69 69 139 
-0.549114 0.866793 3.33899 56 82 156 
1.71001 1.24691 4.97784 131 141 168 
0.0365209 -1.61803 4.25451 133 110 128 
1.84845 -1.86379 6.29888 122 135 167 
0.0383549 -1.56966 4.21811 72 57 80 
1.64384 -1.63938 5.99036 73 84 114 
1.64544 -1.57107 6.00456 39 36 65 
1.64583 -1.56225 6.01235 64 59 91 
1.67758 -1.53755 6.03171 118 119 150 
1.63405 -1.46841 5.90757 174 189 210 
1.99925 -1.48705 6.3766 115 136 163 
1.58916 -1.45246 5.94126 55 63 82 
1.99042 -1.43018 6.39087 141 146 175 
1.66518 -1.32961 5.96785 59 53 79 
1.5276 -1.32011 5.83187 63 53 88 
0.187531 -1.17181 4.28988 147 136 153 
1.68163 -1.30926 6.11187 96 91 111 
1.46054 -1.19302 5.76885 142 147 167 
-0.317649 -1.07343 3.80462 84 76 100 
1.28471 -1.13487 5.63936 102 86 113 
1.50415 1.10121 3.77995 86 82 115 
-0.492965 -0.983583 3.5453 26 18 29 
-0.558717 0.925059 3.28515 41 31 68 
-0.474396 -0.73075 3.58372 73 67 95 
-0.599832 0.911461 3.31705 195 195 249 
-0.530957 -0.456662 3.41735 51 43 56 
-0.55742 0.868879 3.34624 56 82 156 
1.50363 -0.290982 6.4988 88 85 102 
1.64533 -0.270201 6.65157 97 89 110 
1.16309 -0.171336 5.49583 159 157 178 
0.431956 1.04503 4.43689 139 140 158 
-0.559164 0.798453 3.29424 35 26 73 
1.36865 0.111164 6.27646 134 140 198 
1.36614 0.137913 6.24024 47 55 120 
-1.26412 0.869278 3.62383 89 102 146 
1.36521 0.195212 6.26025 172 183 239 
1.1097 0.306535 5.31509 72 59 85 
-0.651871 0.176085 4.64829 98 101 152 
1.62956 1.14054 5.06956 73 77 115 
0.690399 0.544454 4.73277 177 193 245 
0.706887 0.548973 4.73073 42 48 108 
0.653817 0.539247 4.65003 43 43 95 
-0.752915 0.381558 3.39974 124 135 155 
0.683118 0.600446 4.69632 46 56 128 
0.696408 0.628469 4.71843 41 51 123 
0.643385 0.652557 4.65751 56 50 94 
0.431403 0.75734 4.37102 86 94 81 
-1.21113 0.674253 3.58598 77 90 125 
1.71373 1.24123 4.95515 131 141 168 
0.763954 1.16661 4.52114 80 92 116 
0.712127 0.537949 4.70653 53 51 101 
0.0349918 -1.64955 4.22564 129 110 129 
1.68382 -1.86138 6.0716 110 110 146 
