ply                 
format ascii 1.0    
element vertex 1283
property float x    
property float y    
property float z    
property uchar red  
property uchar green
property uchar blue 
end_header          
0.674854 -0.863075 5.8127 111 94 78 
0.0596311 -0.892914 6.15368 15 75 49 
-1.4885 -0.664983 4.8646 27 6 0 
-1.51441 -0.661945 4.86305 41 9 0 
-1.24802 -0.901015 6.72476 31 10 0 
0.912813 -0.78129 5.87494 107 214 168 
0.658772 -0.764611 5.79223 2 21 0 
-1.16392 -0.807036 6.80687 30 19 1 
1.05379 -0.509382 5.69457 8 66 44 
0.878536 -0.36256 5.56431 44 135 104 
0.889439 -0.35803 5.54507 0 41 27 
0.894719 -0.329275 5.58013 127 201 176 
-0.308115 -0.312239 5.54618 0 69 35 
0.229287 -0.24355 5.18304 20 1 0 
0.239709 -0.23192 5.20848 96 79 51 
1.90067 -0.243329 6.58463 70 43 13 
1.92402 -0.224535 6.51946 107 88 58 
-0.200781 -0.186427 5.44651 0 16 6 
1.06449 -0.154838 5.47471 46 135 105 
1.05125 -0.144388 5.46248 52 152 114 
1.05587 -0.127736 5.46959 57 153 116 
0.208237 -0.111379 5.24584 1 32 17 
1.2048 -0.0709044 5.55043 54 93 75 
-0.198972 -0.0596904 5.47355 39 112 83 
1.20677 -0.0505634 5.55587 56 140 107 
-0.000812418 -0.0386738 5.38399 46 84 69 
-0.819535 -0.0282296 5.69752 103 104 99 
0.306954 0.0397459 5.20507 22 61 43 
0.292257 0.0491564 5.21092 23 98 67 
-0.149518 0.065916 5.36615 8 45 27 
0.919038 0.0937061 5.51152 0 26 8 
-0.759688 0.104779 5.73498 47 46 42 
1.28683 0.117888 5.57414 21 86 62 
-0.130785 0.142645 5.39717 77 97 88 
-1.24214 0.157592 5.61448 178 134 25 
-0.122516 0.200692 5.36615 155 157 154 
-0.201222 0.215051 5.32564 70 54 39 
-0.427502 0.244844 5.91398 43 17 0 
-0.24947 0.233738 5.31301 93 79 66 
-1.04707 0.274728 5.65402 174 142 29 
-0.703158 0.289212 5.69462 162 131 41 
1.06735 0.293848 5.56554 0 21 7 
0.181095 0.286991 5.18977 29 113 77 
-0.79276 0.379459 5.74211 171 146 62 
-0.755955 0.385561 5.77247 162 134 25 
0.22311 0.36448 5.20257 0 41 13 
-0.0924587 0.382452 5.37019 168 169 161 
0.217365 0.371743 5.21453 36 109 79 
-0.0871556 0.391087 5.35787 134 135 129 
-0.0939695 0.394428 5.35854 146 146 138 
-0.0825728 0.399499 5.37701 159 162 153 
0.93194 0.412271 5.26883 63 152 120 
-0.120853 0.419708 5.34684 178 171 163 
0.439418 0.455088 5.10309 109 55 17 
0.432649 0.462656 5.11403 179 139 103 
-1.1204 0.512991 5.68112 115 116 110 
-1.10492 0.517506 5.65559 8 7 2 
-0.752119 0.557434 5.78898 179 147 34 
1.47557 0.564719 5.61525 112 70 32 
-1.11719 0.582462 5.67806 46 44 45 
-0.916539 0.596636 5.7354 109 106 91 
-0.0769936 0.564778 5.37905 137 134 125 
0.717372 0.509533 4.64426 235 213 155 
1.51902 0.891717 5.8666 53 70 64 
0.376713 0.90813 5.23743 28 77 56 
1.30107 1.04086 5.78216 0 31 16 
0.189151 1.02584 5.38125 1 29 14 
0.0693782 1.04474 5.41158 133 124 117 
0.141198 1.08868 5.43019 167 164 159 
0.153743 1.12078 5.43867 140 139 134 
0.639847 1.15639 5.30252 0 7 0 
1.47343 1.32572 6.0138 56 43 37 
1.48261 1.34728 5.994 26 14 2 
-0.832495 1.53279 6.53973 119 80 3 
0.153075 1.29513 5.44544 104 96 93 
0.10177 1.31038 5.42146 72 58 49 
0.156999 1.31628 5.44453 100 91 76 
0.160308 1.38279 5.43158 201 191 182 
0.171619 1.4256 5.43861 137 127 118 
0.162654 1.43535 5.42638 205 195 186 
0.145473 1.43855 5.42592 221 208 199 
0.363866 1.67391 5.52465 152 142 130 
0.397094 1.69841 5.55614 154 146 133 
1.01963 1.50724 4.91706 153 133 96 
0.525247 1.90658 5.73135 108 92 76 
0.101014 1.31013 5.41558 101 88 79 
0.149158 1.29543 5.41977 69 59 49 
0.732728 1.22351 5.24006 149 117 92 
0.699931 0.53022 4.62797 49 36 17 
-0.916951 0.596907 5.73022 104 101 86 
-1.01177 0.577212 5.67007 142 142 140 
1.50708 0.551137 5.63947 71 38 5 
-0.120748 0.440376 5.34984 61 49 27 
-0.120916 0.220612 5.36213 158 160 157 
-0.201833 0.213904 5.31148 74 58 43 
-1.1797 -1.11269 4.73112 162 99 4 
1.03111 -0.346606 5.57516 22 9 0 
1.15015 -0.42108 5.58771 101 50 19 
0.248318 -0.650901 4.86485 67 49 11 
-1.24373 -0.897518 6.71125 20 0 0 
-1.53059 -0.731771 4.93155 217 173 68 
1.26003 -0.951603 6.40507 172 148 110 
0.664646 -0.888463 5.81555 10 0 0 
-1.25281 -0.986028 6.70891 128 113 80 
0.984697 1.53109 4.90341 192 173 140 
-1.52238 -0.707651 4.9143 40 0 0 
-0.794069 -0.887331 6.32554 55 128 85 
-1.513 -0.660879 4.8596 41 9 0 
0.160952 1.38495 5.425 188 178 169 
0.678666 -0.75705 5.78988 59 39 6 
-0.792393 -0.838713 6.41888 71 115 80 
0.599872 -0.749923 5.76354 56 120 85 
0.169652 1.37369 5.44306 117 107 98 
0.918922 1.15462 5.28047 163 134 102 
0.0225861 0.895378 5.40009 90 79 73 
0.695261 0.554277 4.65836 95 84 56 
-0.736045 -1.09393 6.28436 1 50 31 
-0.920648 0.589344 5.70329 77 74 65 
-0.936051 0.563105 5.69318 60 59 57 
0.431306 0.463274 5.10943 167 125 87 
-0.774565 -1.15509 6.26435 0 52 14 
0.0177606 -0.387244 5.44033 2 35 8 
-0.107375 0.361507 5.35008 133 134 128 
-0.76709 0.379983 5.74694 119 88 0 
-1.21769 0.362989 5.66759 203 168 52 
-0.244552 0.272197 5.31088 207 199 188 
-1.04407 0.275255 5.64795 171 147 41 
-0.0598786 0.250805 5.26164 54 114 89 
-0.802132 -1.30034 6.30007 3 97 45 
-0.308909 -0.30902 5.54052 0 62 31 
0.144937 -0.263878 5.20795 111 96 63 
-0.747973 -1.3373 6.32235 65 150 93 
0.229689 -0.244253 5.20094 19 0 0 
0.241687 -0.229253 5.20834 92 75 49 
0.505489 -0.230985 5.28334 7 19 0 
-1.26493 0.159017 5.56451 102 54 0 
-1.23895 0.156789 5.61654 187 143 18 
-1.07467 -1.51797 6.41527 53 157 94 
1.8992 -0.242222 6.57779 77 47 13 
1.26824 -0.175506 5.49898 20 4 0 
-0.883531 -1.45178 6.29366 58 146 95 
0.949591 -0.128044 5.48717 51 117 90 
0.199887 -0.122687 5.23022 31 110 79 
-1.14233 -1.5031 6.47264 57 100 47 
-0.804482 -1.48004 6.3273 62 126 89 
-0.798987 -0.953054 6.32987 60 112 73 
0.994523 1.50357 4.89662 195 173 134 
0.396378 1.69483 5.53862 157 149 136 
0.14812 1.4306 5.41611 156 146 137 
0.127603 1.41714 5.4109 200 187 178 
1.47702 1.34636 5.98568 18 5 0 
0.648032 1.15342 5.30796 98 54 25 
1.2776 -0.17552 5.50722 20 4 0 
-1.26106 0.143301 5.58442 91 41 4 
-1.27556 0.180673 5.59998 187 154 25 
-0.69113 -1.22676 6.30401 38 131 76 
0.354018 0.415915 5.17559 14 16 2 
-0.890862 -1.29214 6.30364 41 155 95 
1.1894 -0.0672669 5.58474 1 24 4 
0.362425 1.67163 5.51753 152 142 130 
0.138941 -0.146724 5.26538 43 92 71 
-0.975624 -1.33864 6.37037 55 145 91 
-1.16805 -0.756613 6.874 20 13 0 
0.828076 0.96023 5.2553 42 126 93 
0.713751 -0.347552 5.49308 0 87 59 
-0.184994 -0.0564597 5.47308 3 65 40 
1.20578 -0.0504204 5.55062 56 140 107 
0.17961 0.284955 5.16716 29 113 77 
-0.985757 -1.34984 6.37872 47 141 89 
0.678515 0.0723178 5.25268 68 163 129 
0.0228485 0.865922 5.3909 132 128 119 
-1.11983 -0.813228 6.79724 5 17 0 
0.308974 0.0390112 5.20635 22 61 43 
0.215333 0.371369 5.2013 37 116 84 
-0.199348 -0.184471 5.44455 0 19 11 
-0.249546 0.261517 5.3292 138 126 114 
0.188589 1.41794 5.42765 104 94 85 
0.222089 0.364119 5.20376 7 65 40 
0.0828593 1.06998 5.4154 145 136 129 
1.05479 -0.127188 5.46763 57 153 116 
-1.44199 -0.0380454 5.18296 22 22 24 
0.10301 1.11676 5.4098 139 130 123 
0.156998 1.33074 5.43638 208 195 186 
0.147173 1.29425 5.42544 100 89 85 
1.42545 1.39949 5.96958 32 16 1 
0.149319 1.11748 5.47564 180 179 175 
0.143944 1.10122 5.4449 118 115 110 
1.38803 1.15352 5.88068 99 161 138 
-0.811331 -1.48869 6.36269 63 132 88 
0.683389 0.536136 4.66161 184 161 119 
-0.076247 0.591022 5.37479 153 149 138 
-0.932455 0.563302 5.69306 2 1 0 
1.49807 0.55177 5.60608 57 28 0 
-0.941617 0.545614 5.71698 89 89 91 
1.51962 0.481808 5.65147 65 28 10 
1.26936 0.456421 5.54631 0 12 2 
-0.115723 0.418216 5.35974 190 185 182 
0.052508 -1.04367 6.27097 93 81 65 
-0.0943289 0.378322 5.38973 133 136 125 
-0.107065 0.362393 5.32357 111 112 106 
-0.760056 0.387917 5.75841 176 148 22 
0.591863 -0.891742 5.82274 66 55 25 
-1.53656 -0.738285 4.95166 217 174 61 
-1.26125 -0.993845 6.72916 133 118 85 
-0.203094 0.212386 5.31951 82 65 45 
1.31692 -0.899211 6.4554 250 213 171 
-1.23152 0.156294 5.60071 196 153 22 
-1.27178 0.155502 5.6008 96 50 0 
-1.48954 -0.664217 4.85328 22 9 3 
0.24104 0.0214224 5.21816 126 182 153 
-0.189668 -0.0411131 5.47492 36 109 80 
-1.41487 -0.109499 5.14191 13 12 8 
-1.96547 -0.373061 5.40613 16 14 17 
1.16171 -0.423506 5.56662 77 54 23 
-1.05196 -0.4574 5.50235 46 27 0 
-0.0593796 0.248689 5.27718 40 109 81 
1.12932 2.10605 6.50702 145 118 37 
0.395298 1.70229 5.57005 164 156 143 
0.161367 1.3862 5.42739 188 178 169 
0.693093 -0.320767 5.44884 0 76 44 
0.139021 1.0857 5.43993 168 165 160 
0.227785 -0.244439 5.1898 33 16 0 
0.503381 -0.233434 5.28678 15 14 0 
-1.07654 -1.5257 6.44408 51 160 93 
0.431654 0.463268 5.10868 167 125 87 
1.24778 -0.177596 5.51941 88 78 53 
1.25626 0.447532 5.56436 0 32 17 
-0.810402 -1.02544 6.33979 64 148 98 
0.945587 -0.133023 5.49073 57 126 98 
-0.502666 0.400888 5.9186 166 132 35 
-0.797857 0.333177 5.78162 12 7 4 
-0.227629 0.282663 5.31662 129 119 109 
-1.82174 -0.105652 5.39622 33 28 25 
-0.795967 -0.9528 6.30339 60 112 73 
-0.0778567 0.247107 5.24868 22 32 23 
-0.801028 0.0605947 5.66649 133 130 125 
0.363162 1.67674 5.53619 146 136 124 
0.146412 1.43267 5.43887 145 132 123 
1.32269 1.12484 5.86918 3 39 25 
-0.974424 -1.33472 6.34777 51 144 89 
-0.874987 0.0511212 5.72664 40 40 40 
0.620294 -0.0971878 5.25966 0 68 43 
0.827852 0.958336 5.25428 37 121 88 
-0.785513 -0.888429 6.40222 71 148 102 
-0.825564 -0.0344703 5.73043 97 98 93 
-0.773771 -1.23599 6.33083 7 84 42 
-1.17725 -0.762325 6.89861 23 13 1 
0.202342 1.10164 5.49057 13 19 19 
-0.586776 -1.46897 6.11941 100 0 7 
-1.21951 -1.32001 6.40727 87 65 26 
-1.20868 -0.989954 6.74367 28 16 0 
-1.17009 -0.808761 6.82549 29 18 0 
0.126628 1.42178 5.4344 214 201 192 
0.111997 1.32709 5.43765 94 82 68 
0.106109 1.31451 5.43369 77 63 50 
-0.876703 1.57688 6.50204 180 134 46 
0.733968 1.22001 5.24152 171 140 112 
1.42805 1.39873 5.99123 36 24 10 
1.40462 1.39904 5.99435 120 99 82 
1.48644 0.557558 5.6304 125 81 42 
-0.12448 0.432766 5.32883 61 47 18 
-0.130997 0.412242 5.35313 86 79 69 
-0.80695 0.356305 5.74804 22 8 7 
-1.03643 0.26275 5.70399 38 23 0 
-0.247447 0.228252 5.31513 80 67 50 
-0.964451 -1.48855 6.36005 0 50 15 
-0.861135 -0.0275871 5.74769 71 73 72 
-1.49888 -1.03015 4.69442 125 41 5 
-0.756822 -1.15867 6.25084 0 37 9 
0.0593753 -1.07566 6.3257 229 225 214 
0.683686 -0.872876 5.82849 112 97 78 
-1.54334 -0.744708 4.97163 215 170 53 
-1.25022 -0.690146 4.88833 104 53 0 
0.272481 -0.646026 4.87313 127 105 64 
0.261648 -0.655563 4.86751 200 180 143 
0.164096 -0.266518 5.22184 24 12 0 
-1.25306 -0.673645 4.88019 180 137 24 
0.245399 -0.619564 4.86755 90 70 33 
1.41075 0.443846 5.63548 43 67 33 
-0.761003 0.387766 5.75899 176 148 22 
-1.21586 0.360633 5.6638 202 165 58 
-0.816697 -1.49099 6.37234 55 131 84 
0.238803 0.021151 5.2092 11 82 48 
-0.900481 0.00253571 5.72571 27 24 9 
-0.199009 -0.0654321 5.4701 40 127 93 
0.893887 -0.361035 5.55396 0 36 22 
-0.310404 -0.306434 5.53004 0 56 27 
0.14694 -0.266431 5.22039 108 95 61 
0.228951 -0.243095 5.19803 20 1 0 
-0.864041 -1.27318 6.26004 3 93 42 
1.27395 -0.175304 5.49585 20 4 0 
0.240436 -0.232318 5.20361 100 83 55 
0.674376 0.563047 4.67927 110 87 53 
0.168436 1.37117 5.4493 167 157 148 
1.18699 -0.0716373 5.57871 10 21 4 
0.57841 -0.382387 5.41162 1 77 49 
-0.799498 -0.957772 6.32104 61 111 73 
-0.128723 -0.732704 5.86891 0 68 40 
-0.321952 -0.690327 5.87158 0 81 51 
0.0234143 -0.584096 5.63331 0 82 54 
0.363821 1.67572 5.52933 155 145 133 
-0.530656 0.362782 5.9112 163 132 39 
-0.873057 1.58009 6.40044 108 55 3 
0.155177 1.33263 5.44311 209 196 187 
0.148429 1.30535 5.43742 80 68 52 
-0.808758 -1.47542 6.32929 65 144 97 
-1.13209 -1.49122 6.4277 24 84 32 
-1.49586 -1.0278 4.68839 126 43 3 
-0.862411 -1.26792 6.25321 4 90 41 
-0.748242 -1.0971 6.27817 2 30 15 
-0.80031 -1.0173 6.32479 79 170 113 
0.0520757 -1.00942 6.29606 199 199 189 
0.65784 -0.884202 5.79848 12 3 0 
0.681541 -0.870861 5.80769 108 96 74 
-1.50584 -0.66373 4.84402 28 5 0 
-0.18306 0.435291 5.33573 71 57 46 
-1.51353 -0.637686 4.83122 191 152 33 
1.26648 0.452412 5.52598 0 14 4 
0.246091 -0.626676 4.90006 102 82 45 
0.469425 0.389467 5.07173 80 33 0 
0.477181 0.372285 5.09572 212 167 128 
-0.758942 0.388631 5.75126 176 148 22 
0.656407 -0.620533 5.67338 79 137 115 
-0.807153 0.35774 5.7314 22 13 14 
-1.02944 0.266257 5.67882 24 15 0 
-1.05144 0.266141 5.67756 184 158 13 
1.12838 -0.550608 5.79486 2 39 31 
1.04225 -0.505094 5.68783 3 39 27 
-1.95823 -0.416714 5.38745 51 51 51 
-1.26703 -0.0174725 5.3509 30 15 10 
-1.40108 -0.103592 5.14743 107 107 107 
-1.57037 -0.142509 5.10228 138 136 137 
0.247629 -0.228721 5.19792 92 75 49 
-0.80425 -0.965013 6.35126 65 113 75 
1.0673 0.291455 5.55444 0 11 0 
-1.03814 -0.717739 6.93433 15 11 0 
0.71122 -0.333707 5.45777 3 76 47 
0.430035 0.466302 5.06792 158 128 92 
-1.05156 -1.58641 6.45076 2 32 4 
0.161768 1.43785 5.43936 205 195 186 
-0.064335 -2.14678 7.07807 34 16 0 
-0.902947 -1.48152 6.40925 56 143 92 
-0.023213 -1.19941 6.75034 202 204 180 
0.178847 -1.13163 6.54911 191 189 176 
0.0489473 -1.06769 6.38596 111 100 82 
0.0509227 -1.05338 6.31737 96 85 67 
0.189585 -1.05174 6.45239 194 198 183 
-1.08161 -0.671983 4.24145 255 209 102 
0.147478 -0.971987 6.35216 29 78 59 
-1.16138 -0.702877 4.58819 189 135 45 
0.666485 -0.860378 6.17222 254 245 230 
-1.14424 -0.622813 4.46093 123 80 0 
0.678101 -0.758188 5.81586 43 38 8 
-0.273152 -0.765971 5.96053 196 212 199 
-0.265892 -0.770295 5.9927 111 143 122 
-0.321133 -0.727688 5.90433 40 114 79 
0.668279 -0.622828 5.72024 107 177 151 
1.30612 -0.672506 6.28476 62 154 117 
-0.207392 -0.593529 5.75367 39 141 102 
1.60501 -0.542346 5.32594 87 67 40 
-0.0917769 -0.550678 5.74675 62 125 98 
-1.05544 -0.495206 5.51595 28 4 0 
0.0221381 -0.390105 5.44591 31 39 15 
-1.00882 -0.321656 5.21656 94 71 37 
1.14152 -0.326804 5.62901 145 103 79 
-1.95905 -0.315603 5.3265 164 152 140 
-0.300478 -0.314248 5.57531 42 143 101 
-0.423205 -0.272746 5.48763 68 121 101 
0.233223 -0.239725 5.19268 33 13 2 
0.50611 -0.236217 5.31127 16 16 0 
-0.379707 -0.225033 5.43318 0 46 21 
0.752047 -0.194129 5.5502 0 40 18 
1.9199 -0.219661 6.49058 137 117 82 
0.74883 -0.189922 5.50992 6 58 35 
-1.05255 -0.191146 5.40303 69 61 42 
1.2473 -0.171602 5.49136 77 61 45 
-0.312129 -0.174352 5.47549 98 94 67 
-1.49618 -0.0987255 5.0557 130 126 125 
-0.202489 -0.0593242 5.50554 47 113 86 
-1.19135 -0.0534534 5.3635 34 12 0 
-1.23604 -0.0518627 5.3461 65 53 29 
-1.18311 -0.0518288 5.38256 59 40 8 
-1.58255 -0.0328597 5.05377 120 117 110 
-1.3863 0.0240049 5.25461 29 13 0 
-0.870173 0.0416105 5.70125 16 15 11 
-0.797574 0.0659927 5.68668 123 120 113 
-0.145047 0.064009 5.40708 49 107 83 
-0.199386 0.184095 5.30344 97 87 78 
-0.202039 0.190484 5.31462 193 183 173 
-0.265948 0.212613 5.31774 218 200 186 
-0.261584 0.211873 5.28584 185 165 154 
-1.0219 0.241419 5.70853 10 1 0 
-0.11474 0.261094 5.35344 80 83 76 
-0.792715 0.365628 5.75725 148 125 71 
1.43584 0.42457 5.66041 255 255 218 
-1.09661 0.415939 5.68764 122 113 58 
-0.0936014 0.395547 5.356 95 95 87 
-0.188506 0.432848 5.32478 57 47 38 
-0.188974 0.437739 5.32951 163 153 143 
-0.175803 0.459058 5.34294 50 36 23 
-0.127767 0.609308 5.35826 68 58 46 
0.0131044 0.698753 5.38267 179 181 170 
0.0232084 0.864305 5.38551 132 128 119 
0.739879 1.21284 5.25112 134 97 68 
-0.0638322 1.38544 5.85918 139 90 0 
1.35546 1.57127 6.17155 177 155 142 
0.162072 1.37987 5.42634 194 184 175 
-0.0162301 -2.1083 6.97914 87 69 45 
-0.778305 -1.51088 6.1863 73 97 65 
-0.985592 -1.5367 6.49397 43 153 92 
-1.21521 -1.57406 6.70921 193 137 90 
-0.991997 -1.52437 6.49937 0 80 29 
-0.880762 -1.32655 6.48398 93 186 133 
-0.125691 -1.07788 6.33454 171 164 154 
0.0767108 -1.06303 6.34942 131 122 115 
0.0498896 -1.05778 6.34317 113 101 85 
0.190128 -1.04862 6.42923 195 199 184 
0.0983562 -1.01193 6.3705 136 136 112 
-1.20011 -0.751895 4.69355 202 150 49 
-1.07601 -0.668 4.21614 255 209 102 
0.240993 -0.977859 6.2692 0 71 38 
-1.14612 -0.71119 4.51984 236 188 62 
0.434538 -0.928615 6.00456 76 33 0 
0.148342 -0.965588 6.31484 21 79 57 
-1.18179 -0.713529 4.65042 213 161 52 
0.581267 -0.869414 5.83821 76 55 36 
0.682706 -0.866123 5.8561 84 63 46 
0.112085 -0.939581 6.3633 75 154 123 
0.454072 -0.89593 6.08943 253 239 200 
0.494228 -0.838953 6.01549 255 238 199 
-1.14735 -0.624751 4.47292 123 80 0 
0.214898 -0.679223 4.932 131 118 74 
-1.16495 -0.63057 4.54524 169 125 26 
0.916685 -0.785855 5.91765 131 234 189 
0.663639 -0.769432 5.82596 38 28 1 
0.683049 -0.772955 5.92389 73 123 86 
-0.199242 -0.761679 5.89381 73 174 140 
-0.275851 -0.76948 5.98842 202 216 203 
0.841359 -0.750335 5.86818 57 178 133 
-0.306616 -0.757117 5.99059 155 193 170 
-0.258672 -0.698543 5.87968 65 150 121 
1.46254 -0.736026 6.39926 62 115 73 
-0.277775 -0.624815 5.8328 128 224 187 
-0.036367 -0.556665 5.7179 68 154 117 
-0.980799 -0.480787 5.09873 74 48 0 
-1.21735 -0.441649 4.71149 253 228 135 
-0.599336 -0.480623 5.65196 205 205 193 
-1.01528 -0.441591 5.43193 45 28 10 
1.1723 -0.431427 5.59745 66 48 10 
1.16566 -0.415547 5.57822 38 10 0 
0.031228 -0.406808 5.46238 126 147 108 
-1.92171 -0.358891 5.28804 13 9 10 
-1.89515 -0.34963 5.2443 100 98 101 
1.15086 -0.34913 5.56384 172 123 90 
-1.00997 -0.333694 5.27368 24 3 0 
-0.308204 -0.312993 5.54563 0 79 41 
-0.298839 -0.310781 5.54793 44 139 99 
-1.02054 -0.29035 5.30322 21 21 21 
-0.425296 -0.27469 5.50813 70 129 107 
-1.8776 -0.244525 5.30182 140 130 121 
-0.38389 -0.228014 5.47189 0 46 22 
-0.382054 -0.220582 5.38371 216 228 214 
-0.435982 -0.204941 5.37557 98 86 62 
-1.05485 -0.192542 5.41796 90 78 66 
1.25389 -0.174472 5.54083 88 76 54 
0.632748 -0.150695 5.31 0 77 48 
-1.42021 -0.146118 5.01854 116 116 118 
1.05687 -0.14541 5.47716 63 165 126 
-1.40945 -0.129269 5.03119 45 45 47 
0.20141 -0.1255 5.21948 44 98 72 
0.949234 -0.126637 5.47761 63 127 101 
1.05956 -0.126326 5.49269 57 153 116 
-1.49174 -0.0978028 5.04072 130 126 125 
-1.77865 -0.0997844 5.28563 29 20 5 
1.20201 -0.0709323 5.53353 54 93 75 
-1.19367 -0.0572668 5.3974 86 75 69 
-1.24147 -0.0527869 5.36621 57 45 23 
-1.17301 -0.0499997 5.34279 67 46 3 
0.545988 -0.0421167 5.2448 29 91 66 
-0.1944 -0.0410307 5.48665 40 104 78 
-0.854659 -0.0376208 5.75494 67 69 68 
-0.711256 -0.036823 6.07502 35 20 0 
-1.24221 -0.0368007 5.32987 62 43 10 
-1.58908 -0.0339278 5.07398 114 111 104 
-0.904386 0.000867636 5.68169 88 79 70 
-0.914078 0.00139885 5.79018 20 14 0 
0.24421 0.0211949 5.20228 178 228 203 
0.305294 0.0411082 5.21851 42 76 59 
0.292581 0.0524313 5.19986 25 96 64 
-0.759926 0.104734 5.73079 55 54 49 
0.568404 0.122273 5.21191 68 168 130 
-1.23499 0.159722 5.56583 177 130 26 
-0.169037 0.169603 5.32824 140 138 126 
-0.191804 0.180434 5.28967 125 116 107 
-0.12126 0.209123 5.3763 49 51 48 
-0.264165 0.207364 5.30794 93 77 64 
-1.02394 0.224679 5.72002 92 72 11 
-0.269575 0.212872 5.3486 231 213 199 
-0.13502 0.215818 5.34672 104 105 99 
-0.122754 0.21695 5.3559 177 179 176 
-0.19825 0.216196 5.30005 95 81 68 
-0.248964 0.23513 5.32168 100 88 76 
-0.182786 0.241079 5.29328 121 114 106 
-1.04633 0.27604 5.67733 157 139 63 
-0.683224 0.282244 5.72448 155 124 31 
-0.230275 0.283861 5.30152 73 63 53 
0.17894 0.280105 5.18254 38 122 86 
-0.786467 0.339893 5.74869 58 39 6 
-0.534428 0.36298 5.9207 161 129 42 
-1.21801 0.36789 5.66024 193 157 35 
-0.801691 0.383625 5.78087 165 143 70 
-0.750312 0.385088 5.7625 152 124 25 
-0.105931 0.368209 5.3573 113 114 108 
-1.09219 0.39734 5.6229 186 163 67 
-0.0843692 0.390599 5.36293 85 88 79 
-1.09469 0.415821 5.67676 122 113 58 
1.26299 0.438148 5.57691 40 102 77 
-1.05636 0.499338 5.66246 74 75 77 
-1.12206 0.513954 5.69403 123 124 118 
-1.07587 0.512792 5.67939 11 12 14 
-1.06231 0.510346 5.62504 61 61 61 
1.50079 0.552425 5.58629 102 78 50 
1.47588 0.561435 5.60816 132 92 56 
-0.999499 0.571595 5.63446 120 119 115 
-0.140373 0.58238 5.33843 120 110 98 
-0.0720691 0.592507 5.36619 56 52 41 
0.696 0.558442 4.64409 79 70 41 
0.70841 0.570128 4.67282 55 41 12 
1.30976 0.734548 5.58564 35 111 81 
1.06463 0.727566 5.50617 23 67 50 
-0.0959417 0.739221 5.36746 189 179 170 
-0.0228765 0.740833 5.37546 52 48 39 
0.0179919 0.874786 5.39378 189 185 174 
0.835375 0.957011 5.27221 45 129 96 
0.193521 1.02829 5.36362 45 105 79 
0.0723446 1.04505 5.41337 100 91 86 
1.3847 1.14603 5.85942 112 177 153 
0.0677842 1.05332 5.39844 204 193 187 
0.855119 1.05001 5.35238 80 59 42 
0.151091 1.12297 5.4104 107 106 101 
0.104403 1.14164 5.40111 125 115 113 
0.640867 1.15409 5.28333 0 3 0 
0.642675 1.16769 5.30159 61 86 64 
0.937188 1.16441 5.26346 112 85 56 
0.948885 1.17161 5.26555 121 91 63 
0.994248 1.18792 5.29378 97 68 38 
-0.247427 1.34792 5.9122 117 65 0 
1.4084 1.39729 5.99938 89 63 48 
1.4287 1.39759 5.95175 72 55 37 
0.152967 1.28869 5.40829 66 57 50 
0.145492 1.42985 5.41687 123 110 101 
0.16105 1.4349 5.42464 205 195 186 
0.474827 1.65668 5.6652 94 96 85 
0.997816 2.01861 6.42161 156 126 38 
1.02101 1.53087 4.89747 63 45 21 
-0.0223247 -2.13827 7.08188 55 40 17 
-0.812881 -1.56589 6.41482 77 123 84 
5758.35 5309.02 -21938 164 126 29 
-1.21531 -1.57365 6.69946 186 134 87 
-0.835046 -1.53676 6.56047 62 126 89 
-0.802451 -1.14919 6.66069 3 74 32 
-0.126335 -1.08046 6.34988 172 165 155 
0.0773059 -1.057 6.316 137 130 122 
-1.36388 -1.20389 7.19204 119 110 95 
-1.40213 -1.20487 7.21873 120 106 80 
0.051722 -1.05032 6.30618 93 81 65 
-1.40711 -1.19411 7.38077 212 207 187 
0.0978663 -1.01841 6.40035 127 125 104 
0.427268 -0.947116 6.03177 128 93 65 
0.0814205 -0.999614 6.40663 163 162 141 
0.241643 -0.973498 6.23822 1 76 45 
-1.09547 -0.678895 4.29602 250 199 92 
0.436109 -0.931501 6.02321 76 33 0 
0.148092 -0.967899 6.32754 21 79 57 
0.589688 -0.890548 5.81523 66 55 25 
0.59889 -0.895435 5.84465 37 26 0 
1.04295 -0.98866 6.53404 48 70 47 
-0.821239 -0.974675 6.49895 59 111 73 
0.582287 -0.87391 5.8595 112 94 72 
0.684362 -0.878034 5.91026 92 74 60 
0.452701 -0.893989 6.07723 253 239 200 
0.496198 -0.845162 6.04657 255 239 199 
-0.951117 -0.662761 4.69068 190 150 39 
-1.16429 -0.643403 4.56103 93 40 0 
0.252784 -0.646569 4.81011 125 107 69 
0.919349 -0.788429 5.92749 107 214 168 
0.601119 -0.768578 5.81643 39 30 0 
0.659784 -0.767558 5.80943 35 28 0 
1.03261 -0.796961 6.07399 51 121 93 
0.665891 -0.758912 5.81091 60 128 89 
0.597144 -0.751893 5.78064 66 126 92 
-0.202473 -0.770785 5.94926 66 166 132 
0.783026 -0.752913 5.88578 46 111 79 
-0.318096 -0.725652 5.88038 33 107 72 
-0.334197 -0.719323 5.9009 58 117 87 
0.711807 -0.657625 5.75441 35 101 74 
0.660112 -0.621395 5.69437 103 165 142 
-0.072558 -0.592184 5.68322 50 170 122 
1.59101 -0.527739 5.31996 235 212 171 
-0.091183 -0.548533 5.72092 62 125 98 
0.599019 -0.488469 5.51318 67 180 136 
-1.79423 -0.4231 5.02108 103 87 61 
-1.96299 -0.440532 5.33844 128 119 114 
-0.106516 -0.43222 5.56487 0 91 57 
-1.88555 -0.413318 5.22845 117 117 115 
-1.92132 -0.413186 5.29631 59 61 60 
1.16436 -0.415232 5.56465 38 8 0 
-0.445404 -0.387702 5.60458 0 78 46 
0.907332 -0.367914 5.55937 0 46 25 
-1.90221 -0.357185 5.26489 17 16 21 
-1.86635 -0.296934 5.25842 92 87 94 
0.422088 -0.279904 5.25955 70 36 11 
-0.192076 -0.285592 5.46232 48 152 115 
0.161638 -0.263878 5.19226 16 4 0 
0.151111 -0.262518 5.27505 113 96 68 
0.230507 -0.244779 5.20329 44 27 9 
0.564507 -0.239617 5.28901 55 141 106 
-1.02451 -0.25495 5.65133 133 126 100 
0.240108 -0.23081 5.22076 82 62 37 
-1.00533 -0.245263 5.52631 65 59 43 
-0.403196 -0.234455 5.41007 223 229 215 
-0.404919 -0.236522 5.52005 202 210 197 
-0.380816 -0.219712 5.37238 216 228 214 
-0.350947 -0.203886 5.65158 0 61 32 
1.91584 -0.218805 6.48117 137 117 82 
1.27698 -0.178942 5.53661 31 16 0 
1.3382 -0.151015 5.59119 40 27 8 
-1.42737 -0.14346 5.05109 126 126 128 
-1.41161 -0.129626 5.00455 16 16 18 
-0.203145 -0.133343 5.51621 34 83 64 
-0.932076 -0.124119 5.93136 10 4 0 
-1.38147 -0.104914 5.0714 116 116 116 
-1.79112 -0.102062 5.32293 26 19 11 
0.369481 -0.0903278 5.22483 38 144 108 
-1.78163 -0.0935971 5.29439 113 97 46 
-1.18546 -0.0531615 5.32514 42 20 0 
0.562549 -0.0449569 5.27913 22 88 61 
-0.706964 -0.0378957 6.04375 29 14 0 
-0.848795 -0.0356115 5.712 60 62 61 
0.816063 -0.0285117 5.48705 28 96 71 
-1.41034 -0.0326908 5.08813 41 41 39 
-0.822645 -0.0298203 5.71457 103 104 99 
-0.94527 -0.0181847 5.83852 34 26 3 
-0.854992 -0.0177596 5.77008 36 38 37 
-1.26388 -0.0180551 5.36758 44 24 0 
-0.908659 -0.000524003 5.70017 89 79 69 
-0.907246 0.00210465 5.75082 20 14 0 
-0.869493 0.0514238 5.69297 58 58 58 
-0.804437 0.0641467 5.72205 128 125 118 
-0.14145 0.0643059 5.37097 41 107 80 
0.435944 0.0817597 5.31629 55 61 61 
-0.700847 0.0892599 5.78444 29 14 0 
-0.491458 0.15459 6.2368 122 92 40 
-1.26761 0.158911 5.57323 101 56 0 
0.443109 0.165801 5.18295 122 214 177 
-0.1098 0.210943 5.39202 53 58 54 
0.326959 0.204047 5.20107 0 65 35 
-1.01307 0.224688 5.671 31 20 0 
-0.581779 0.250002 5.9271 159 128 37 
-1.01917 0.238358 5.66133 242 224 178 
-0.183759 0.241619 5.31244 121 114 106 
-1.04285 0.27596 5.66316 157 139 63 
-0.250529 0.265253 5.36067 117 105 93 
-0.184253 0.268704 5.30129 90 80 71 
0.270756 0.266968 5.19491 0 49 26 
-0.795984 0.341189 5.80426 29 14 0 
-0.499358 0.409243 5.93368 151 115 29 
-0.106259 0.36683 5.3485 122 123 117 
-1.10459 0.394335 5.73782 61 38 0 
-1.08288 0.403003 5.62048 137 116 53 
-0.0746445 0.390926 5.36557 104 108 94 
1.43407 0.423805 5.64761 251 242 201 
-0.126489 0.410881 5.34413 88 84 75 
-1.56823 0.469354 5.88531 184 157 110 
-0.121379 0.439258 5.35599 71 61 36 
1.53326 0.483248 5.60749 65 51 16 
-1.12502 0.514412 5.70862 123 124 118 
-1.06632 0.511102 5.6396 7 8 10 
-0.755485 0.560351 5.82446 177 145 36 
1.50227 0.551838 5.60937 65 36 6 
0.272197 0.500648 5.1442 52 148 111 
-0.934799 0.564174 5.69984 6 5 3 
-0.0753337 0.5633 5.36234 126 123 114 
-0.917558 0.609368 5.7874 36 25 3 
0.685385 0.53598 4.64878 188 166 125 
0.311144 0.625301 5.17568 71 156 127 
0.853699 1.04723 5.33118 89 57 36 
0.152579 1.11274 5.41353 154 153 149 
0.107699 1.11994 5.39621 214 205 200 
0.646614 1.14952 5.29315 74 48 25 
1.4708 1.31865 5.99545 57 42 35 
0.99622 1.19193 5.31844 88 53 23 
0.101481 1.30627 5.41068 78 65 57 
0.687511 1.29883 5.26004 166 137 103 
0.701278 1.29573 5.24613 30 5 0 
0.190556 1.41258 5.41375 104 94 85 
0.145759 1.43807 5.42498 221 208 199 
1.03936 1.52698 4.93189 212 187 156 
0.992985 1.5583 4.90438 63 39 15 
0.527562 1.90659 5.73135 107 91 75 
-0.697119 -2.12188 6.36056 191 32 62 
-0.943067 -2.0492 6.719 156 47 68 
-1.68541 -2.03378 8.23887 156 146 136 
-0.838084 -1.60895 6.58223 74 130 85 
-1.22876 -1.59231 6.77777 186 134 87 
-1.01907 -1.56542 6.68263 0 73 24 
-0.842155 -1.54834 6.61156 62 126 89 
-0.806165 -0.728973 3.11462 255 244 143 
-1.19325 -1.56868 6.76438 38 85 33 
-0.926069 -1.4766 6.48806 29 134 78 
-0.765415 -1.37177 6.50253 66 142 95 
-0.195019 -1.27509 6.08709 52 0 15 
-0.0661931 -1.38342 6.73907 0 60 21 
-0.785439 -1.24988 6.43058 18 86 47 
-0.911449 -1.20443 6.45679 57 136 88 
-0.798263 -1.18894 6.43782 2 73 29 
1.38329 -1.14178 6.53565 254 251 218 
-0.777959 -1.11902 6.4935 0 52 19 
0.0765956 -1.06946 6.38189 131 122 115 
-1.37061 -1.20934 7.22211 119 110 95 
-1.21046 -0.756319 4.73518 216 165 58 
0.0831901 -0.988632 6.34571 162 164 143 
0.435999 -0.930017 6.0139 76 33 0 
-0.831677 -0.986944 6.56613 61 113 75 
0.0657551 -0.913826 6.19748 2 67 43 
-1.29847 -1.054 7.18772 43 30 11 
0.05799 -0.898154 6.19501 15 75 49 
0.877873 -0.849858 6.08424 39 50 18 
-0.941829 -0.640817 4.59304 216 181 51 
0.0555067 -0.81438 6.05926 114 185 155 
1.00356 -0.806396 6.01193 7 62 39 
-0.811825 -0.858404 6.583 72 118 82 
0.788909 -0.756989 5.82457 57 124 91 
1.04235 -0.786639 6.06587 0 57 32 
-0.287107 -0.784872 6.09284 210 212 201 
0.646505 -0.747384 5.82954 93 188 148 
-0.340464 -0.727061 5.96032 124 172 146 
-0.326635 -0.723278 5.91929 110 192 154 
-0.877137 -0.782035 6.71508 45 95 60 
-0.522091 -0.648141 5.95354 197 193 181 
-0.211322 -0.602771 5.81143 37 146 107 
-0.158215 -0.558558 5.68296 41 169 120 
1.6023 -0.492797 5.38738 113 90 49 
-0.278454 -0.487058 5.648 0 95 57 
-1.80655 -0.423236 5.05279 97 81 56 
-1.91214 -0.39949 5.28305 77 77 77 
-1.80668 -0.365948 5.08097 14 15 1 
-0.447348 -0.387611 5.61767 0 77 48 
-0.988319 -0.374419 5.40627 135 136 131 
-1.909 -0.358648 5.24601 15 13 14 
0.906461 -0.366832 5.57214 0 44 25 
-1.01092 -0.330161 5.26586 43 22 0 
1.02803 -0.337712 5.6205 7 25 9 
-0.120006 -0.3123 5.44286 0 68 33 
-0.194279 -0.289775 5.50086 44 156 116 
0.159806 -0.265245 5.22278 28 14 0 
-1.75435 -0.237706 5.04856 106 89 46 
0.241958 -0.234651 5.27415 96 79 51 
-0.407289 -0.237039 5.44503 226 237 223 
1.93736 -0.225082 6.56857 107 88 58 
0.137773 -0.147539 5.26054 50 84 67 
-1.43247 -0.143754 5.06344 126 126 128 
0.201351 -0.127484 5.24395 44 98 72 
0.953217 -0.129928 5.51184 53 122 94 
-1.39098 -0.106993 5.1049 84 84 84 
-1.82723 -0.102031 5.28163 67 50 7 
0.370612 -0.0905607 5.23944 38 144 108 
-1.7892 -0.0922442 5.32593 121 104 50 
-0.9785 -0.0739074 6.00258 36 22 0 
0.554553 -0.0624265 5.27002 23 88 66 
-0.844041 -0.0645709 5.73937 70 69 67 
1.21103 -0.0510803 5.57737 56 140 107 
-1.14839 -0.0504472 5.32515 44 19 0 
-0.814464 -0.0501068 5.70212 75 74 70 
0.545289 -0.043022 5.2751 16 86 58 
-0.916518 -0.04331 5.81154 162 156 144 
-0.713138 -0.039532 6.09037 29 14 0 
-0.828167 -0.0294363 5.75143 103 104 99 
-1.41537 -0.0228378 5.09756 110 110 108 
1.98608 0.000909765 6.54417 27 13 0 
-0.918929 -0.00138961 5.76527 89 79 69 
1.35912 0.0193309 5.63843 74 142 119 
0.243955 0.0204981 5.21419 102 147 126 
-1.38484 0.0225777 5.24571 33 20 4 
0.306795 0.0398739 5.19987 22 61 43 
0.683692 0.0715997 5.29916 43 137 103 
0.433504 0.0808967 5.30458 49 55 55 
1.24972 0.106334 5.55462 21 76 55 
1.29379 0.118148 5.59735 21 86 62 
-0.499713 0.138193 6.26121 50 23 0 
-0.487274 0.155652 6.19498 129 97 36 
-1.26084 0.139918 5.58535 102 55 0 
-0.133976 0.148949 5.39562 104 115 109 
-1.28493 0.156088 5.65918 91 41 0 
-1.26056 0.167785 5.5988 181 137 28 
0.443547 0.164263 5.1983 58 145 111 
-0.201356 0.214833 5.32003 70 54 39 
-0.127177 0.220408 5.36452 185 185 183 
-0.185458 0.241544 5.33289 125 116 109 
1.4301 0.2649 5.63337 39 133 97 
-0.0728769 0.238406 5.19947 8 39 23 
-1.04746 0.263629 5.70794 167 143 55 
1.08109 0.267788 5.53186 22 67 46 
-0.744193 0.280953 5.73703 119 102 48 
-0.707348 0.290907 5.71897 162 131 41 
1.0627 0.292998 5.54485 0 21 7 
1.46619 0.342568 5.7173 41 25 0 
-0.528411 0.361955 5.87664 171 141 45 
-0.805505 0.356862 5.77075 34 11 0 
-1.21542 0.361868 5.66955 202 166 56 
-0.792562 0.378556 5.72812 171 146 62 
-0.756974 0.385925 5.77838 162 134 25 
-0.0918196 0.382226 5.37053 168 169 161 
0.217192 0.371892 5.21656 36 109 79 
-1.09396 0.406099 5.64729 175 155 69 
1.41449 0.443369 5.62619 35 46 12 
1.37012 0.442389 5.57414 40 123 97 
-0.187528 0.433307 5.35231 64 54 45 
-0.176902 0.457078 5.33263 105 91 78 
-0.841442 0.509877 5.74065 178 153 61 
1.51533 0.555158 5.66665 71 38 5 
-0.138344 0.580689 5.31781 130 120 108 
-0.958156 0.63754 5.6353 54 50 38 
0.696026 0.551838 4.65376 95 84 56 
0.311603 0.628796 5.19901 60 146 117 
0.194166 1.02666 5.35179 45 105 79 
1.43155 1.40006 5.97281 28 12 0 
0.156741 1.31373 5.43532 100 91 76 
0.133275 1.38439 5.43759 154 144 135 
0.132166 1.40903 5.41637 134 124 115 
0.189495 1.41692 5.43241 114 104 95 
0.16232 1.43222 5.41588 205 195 186 
0.366433 1.68003 5.54279 155 145 133 
1.55674 2.06792 6.30037 42 25 5 
0.989602 1.5533 4.88818 63 39 15 
0.109676 1.32715 5.42083 80 70 58 
-0.0645602 -2.15856 7.13384 33 18 0 
0.145229 1.08954 5.39233 82 79 74 
0.712983 0.524419 4.6485 67 52 31 
-1.1068 0.51779 5.66605 13 12 7 
-0.176757 0.456595 5.35305 68 55 39 
-0.0860973 0.402554 5.36005 169 172 163 
-1.09771 0.404991 5.66044 198 175 79 
-1.08747 0.387678 5.65171 61 38 0 
-0.801625 0.358705 5.75074 25 6 0 
-1.04214 0.263431 5.65927 177 154 52 
-1.02219 0.25846 5.63411 37 22 0 
-0.247017 0.232115 5.29788 96 82 69 
-1.00322 0.237201 5.62283 6 7 0 
-1.02013 0.223753 5.70193 92 72 11 
-1.00266 0.199724 5.62935 233 220 126 
-1.40142 -0.105101 5.10044 13 11 12 
-0.936842 -0.123429 5.95511 10 4 0 
-1.06554 -0.177317 5.4758 173 144 52 
-1.06823 -0.189177 5.46903 25 13 0 
-0.85246 -0.263656 6.47714 63 59 50 
1.90075 -0.273035 6.52646 68 51 21 
0.161965 -0.265472 5.24336 14 2 0 
-0.993518 -0.320597 5.16978 18 1 0 
1.16217 -0.438298 5.61233 229 203 154 
-0.0115369 -1.1631 6.54017 215 216 198 
0.681908 -0.874467 5.86195 107 92 73 
0.575618 -0.877001 5.87756 114 94 69 
0.149734 -0.962536 6.30254 11 84 57 
0.328432 -0.95235 6.17608 0 69 39 
0.0647832 -0.918786 6.22754 7 71 47 
0.992178 2.00877 6.37364 174 143 35 
0.354122 -0.961782 6.14725 16 65 35 
-0.927851 -0.645188 4.57861 214 176 53 
0.434406 1.6228 5.68571 97 99 85 
-0.937994 -0.638232 4.57761 217 181 41 
0.365781 -0.970301 6.11729 10 65 42 
0.160558 1.37542 5.39073 188 178 169 
-0.176179 -2.166 7.19292 50 46 45 
-0.326254 -0.72136 5.89687 127 201 166 
1.00951 1.19699 5.3393 154 117 88 
0.92951 1.15619 5.26651 143 106 79 
0.918207 1.15112 5.2645 163 134 102 
0.769444 -0.658322 5.75389 35 124 92 
-0.0285312 0.909132 5.36786 78 65 57 
-1.32504 -1.1713 6.99401 132 123 106 
-0.763671 -1.10115 6.38553 0 46 14 
-0.920422 0.588986 5.69906 77 74 65 
-0.935866 0.56287 5.69027 60 59 57 
-1.14696 0.516155 5.73234 16 12 3 
-0.782161 -1.16403 6.31369 0 52 14 
-0.763326 -1.17281 6.31171 0 42 10 
-1.81596 -0.397871 5.03394 118 120 117 
1.25302 0.446614 5.53104 0 19 8 
-0.769384 0.380629 5.76293 119 88 0 
-1.21738 0.363252 5.66698 203 168 52 
0.0131735 -0.376857 5.47093 0 42 14 
-0.828176 -1.59208 6.51083 74 130 85 
-0.243704 0.271053 5.28327 207 199 188 
0.628147 0.244977 5.22744 193 133 109 
-1.01966 -0.29181 5.28077 13 13 13 
-0.581905 0.247708 5.89116 161 132 30 
-0.425081 -0.280705 5.51849 50 137 105 
0.148289 -0.268111 5.28587 111 96 63 
0.15424 -0.253989 5.24598 45 19 0 
-0.784142 -1.39733 6.61265 65 150 93 
0.229977 -0.244703 5.21949 19 0 0 
0.672029 -0.246831 5.31241 0 38 11 
0.241131 -0.229667 5.1987 92 75 49 
-1.23566 0.156219 5.59742 187 143 18 
-0.384679 -0.218599 5.39082 219 227 214 
-0.982062 -1.55616 6.57826 0 69 24 
-0.494961 0.128761 6.27147 28 12 0 
-0.867981 0.0355073 5.67069 17 14 9 
-0.941905 -1.46141 6.40011 0 77 30 
-0.911772 -0.00232002 5.71579 88 78 66 
0.199536 -0.122902 5.22824 31 110 79 
-1.18045 -1.55153 6.68634 57 100 47 
-1.75571 -0.0551936 5.27404 71 52 20 
0.211345 -0.111504 5.23443 0 18 7 
-1.78476 -0.101925 5.29385 35 24 20 
-1.11658 -1.58047 6.74707 52 158 96 
0.622827 -0.0980826 5.26594 0 70 43 
-0.818583 -0.97406 6.47786 60 112 73 
1.53309 2.03007 6.27231 48 35 18 
1.12006 2.07818 6.42587 133 107 33 
0.396268 1.68939 5.52345 157 149 136 
-0.959471 -0.0581998 6.04033 147 136 114 
0.128504 1.41579 5.40686 200 187 178 
-0.202216 -0.129444 5.50511 28 86 64 
0.643785 -0.744727 5.80111 63 160 119 
1.47424 1.33876 5.95967 18 5 0 
0.0411202 1.13579 5.35166 194 184 174 
-0.245877 -1.33568 5.83049 222 63 85 
-0.421309 -1.90597 6.76946 117 0 0 
0.444569 0.706922 5.12991 103 120 101 
-1.24185 0.135352 5.58819 150 110 22 
1.5732 -0.502443 5.31548 155 130 90 
-0.950166 -1.80171 6.66943 122 26 37 
-1.11755 -1.68482 6.84778 2 32 4 
-0.90283 -1.30809 6.38382 41 155 95 
0.918466 -0.864588 6.08142 0 82 43 
1.19409 -0.0666706 5.61197 1 24 4 
0.132504 1.40685 5.40339 141 131 122 
1.12046 -0.833058 6.23193 0 43 24 
-0.79082 -1.25793 6.46427 17 89 49 
-1.57497 -0.0348997 5.03292 122 119 114 
-1.19793 -1.50762 6.78091 177 117 81 
1.2975 0.780535 5.55084 0 39 21 
0.555581 -0.0640427 5.28779 31 94 75 
0.472775 1.65305 5.64595 102 104 93 
1.85036 -0.0187188 6.37375 63 115 76 
-0.231465 -0.388991 5.56858 0 95 57 
0.30959 0.0398126 5.22657 22 61 43 
0.727963 0.201931 5.22051 61 159 121 
-0.273847 -0.620897 5.79679 141 237 200 
0.309601 0.621809 5.12602 47 132 103 
4.99991 2.43776 8.21614 173 156 136 
-0.605059 -0.483997 5.66168 206 206 194 
-1.24378 -0.448677 4.76565 244 218 105 
0.73624 0.514459 4.64648 200 176 132 
0.0143219 1.0309 5.36175 150 140 130 
-0.973799 -0.368625 5.33123 125 125 123 
0.132519 1.38022 5.42207 152 142 133 
0.102618 1.11205 5.39077 139 130 123 
1.53559 2.04697 6.23747 44 27 7 
1.01149 1.53711 4.91218 88 70 46 
0.69113 1.30775 5.29852 146 116 82 
0.706768 1.30493 5.30981 61 28 0 
0.156092 1.32905 5.42996 208 195 186 
0.148104 1.1204 5.48651 180 179 175 
-0.811543 -1.5556 6.36431 74 130 85 
-0.077226 0.76342 5.41401 146 136 126 
-1.02357 -1.58787 6.68526 42 162 91 
0.693771 0.548984 4.63861 96 85 57 
-1.01834 -1.56553 6.68907 0 62 19 
-0.844209 -1.54876 6.61927 63 132 88 
0.703936 0.53119 4.65453 104 88 63 
0.720494 0.511925 4.67455 235 213 155 
-0.995748 -1.53806 6.73233 4 79 36 
-1.01541 0.575679 5.67002 131 131 129 
-0.767591 -1.36786 6.45695 67 152 97 
-0.938654 0.566764 5.72628 2 1 0 
-0.942411 0.545731 5.71861 89 89 91 
-1.04717 0.493739 5.65128 47 47 47 
-0.786492 -1.17432 6.36708 0 56 21 
0.0564152 -1.07492 6.35965 225 219 205 
0.0747267 -1.08483 6.49644 127 118 109 
1.4398 0.423526 5.6829 254 223 192 
0.477315 0.371882 5.09583 211 162 122 
-1.11132 0.40756 5.7046 214 194 73 
0.0901136 -1.01417 6.36143 110 104 72 
0.0731379 -1.01296 6.40227 75 65 38 
-0.760682 0.388146 5.75959 176 148 22 
-1.03661 0.262272 5.71697 37 22 0 
0.452814 -0.914188 6.18201 231 192 163 
-0.206228 0.214518 5.34942 82 65 45 
-1.00357 0.198989 5.64251 255 254 181 
1.31442 -0.89932 6.46428 250 213 171 
-1.34884 -0.976122 7.26986 31 13 0 
-0.151083 0.0557802 5.43799 11 63 41 
-1.42045 0.0184883 5.26094 30 23 13 
0.671039 -0.757397 5.86348 36 131 91 
-0.931499 -0.00424954 5.82724 86 74 62 
1.9719 0.00235598 6.50678 23 9 0 
-0.885396 -0.117764 5.89602 137 138 133 
-1.39375 -0.108281 5.06453 13 12 8 
-1.42529 -0.130516 5.05369 16 16 18 
-1.43026 -0.148014 5.03949 117 116 121 
-1.07792 -0.182892 5.55722 200 175 74 
1.91101 -0.200525 6.53283 175 147 123 
-1.06712 -0.192583 5.55307 63 40 9 
0.663487 -0.632352 5.76172 5 56 37 
1.92472 -0.22281 6.521 107 88 58 
-0.849857 -0.262152 6.45864 63 59 50 
-0.415173 -0.239878 5.47006 223 231 220 
0.673392 -0.248917 5.34021 0 45 15 
-0.408959 -0.263025 5.45123 3 65 42 
0.161996 -0.266589 5.26133 14 2 0 
0.147917 -0.266412 5.25855 111 96 63 
-0.42219 -0.279395 5.49733 50 137 105 
0.809266 -0.507246 5.61532 0 4 3 
1.16062 -0.352924 5.61164 168 115 83 
-1.82305 -0.3717 5.11717 10 11 6 
-1.25847 -0.384564 4.94811 187 151 55 
1.16817 -0.443968 5.64731 202 172 120 
-0.0582311 0.248752 5.29117 40 109 81 
1.53828 2.03183 6.29234 51 38 21 
-0.177832 -2.17396 7.21967 49 45 46 
0.395106 1.6964 5.55324 164 156 143 
0.156473 1.44095 5.43571 206 196 187 
-0.371532 -0.514842 5.70683 2 67 45 
1.44717 1.39119 5.96148 99 88 68 
1.00284 1.18966 5.30842 154 117 88 
-1.14957 -1.72945 7.02496 9 23 0 
-0.0288042 0.913903 5.42875 182 169 161 
-1.06749 -0.710601 7.26495 53 90 57 
1.2748 0.78721 5.56272 71 94 84 
-1.12577 -1.59336 6.73195 51 160 93 
-0.998688 -1.57993 6.67647 0 81 32 
1.9445 0.665318 5.43832 146 126 91 
-1.11367 -1.57539 6.73021 53 159 97 
-1.21746 -1.59671 6.87857 71 98 47 
-0.127613 0.610457 5.38342 105 95 83 
0.741458 0.518154 4.7272 221 198 146 
-0.929092 0.587256 5.72725 96 93 88 
-0.938956 -1.34886 6.49883 52 152 98 
-0.827047 -1.33815 6.47571 11 105 53 
1.25548 -0.177245 5.55247 88 78 53 
-0.921434 -1.33133 6.49637 44 156 97 
-0.498593 0.396005 5.84557 166 132 35 
-0.532815 0.366306 5.94677 155 122 29 
0.58862 -0.102875 5.30391 14 87 60 
-0.228689 0.283401 5.32586 129 119 109 
0.767848 -0.745421 5.85136 61 128 95 
-1.43032 -0.0235481 5.14464 109 109 109 
-1.2564 -0.0222189 5.37213 140 119 64 
1.1657 -0.899158 6.46553 7 48 16 
-1.27541 0.168184 5.66177 162 115 25 
0.609674 -0.763616 5.87103 56 120 85 
-0.815537 0.0623601 5.765 133 130 125 
0.28716 0.049682 5.21422 18 97 65 
0.532468 1.8991 5.71042 95 79 63 
0.580545 -0.390392 5.4768 5 90 57 
0.651545 -0.38158 5.42735 0 88 60 
-1.37083 0.0186104 5.24527 122 98 62 
-0.414927 -1.88822 6.69978 123 0 6 
0.0231473 0.894314 5.39497 90 79 73 
-0.739401 -1.2993 6.66144 34 118 68 
-0.929608 -1.22738 6.58814 57 136 88 
-0.886939 0.0519968 5.80594 40 40 40 
0.854061 -0.733612 5.8401 4 74 48 
-0.11965 -0.30748 5.41193 1 71 35 
-0.127066 -0.739705 5.90345 0 79 48 
0.560966 1.87915 5.74105 90 76 63 
-0.202201 -0.743006 5.97119 0 77 51 
-0.13592 -0.324024 5.52649 8 92 58 
0.556558 0.0380563 5.31818 48 57 56 
-0.108804 -0.571621 5.72064 10 93 63 
-0.714289 0.0951682 5.85471 19 10 3 
0.490282 -0.0880736 5.2096 0 70 41 
-0.0187891 -0.409452 5.50752 4 95 60 
-0.157557 -0.623479 5.83963 3 94 61 
-0.802212 -1.27627 6.5462 7 84 42 
-0.422936 -1.80715 6.3659 158 32 54 
-0.565789 -1.40913 6.18604 60 0 3 
-0.228643 -1.29027 6.19957 53 0 8 
1.02444 -0.191268 5.49921 0 48 33 
0.0844898 1.09244 5.40453 147 137 127 
-0.362162 -0.485571 5.71702 5 102 67 
1.35304 0.0202094 5.6122 78 148 124 
1.51685 0.764757 5.70989 50 28 7 
-1.9197 -0.425468 5.21614 132 126 130 
-1.27159 -0.644145 7.22181 126 109 79 
1.23601 -0.000677754 5.55538 0 36 21 
-0.842461 -0.73244 6.80192 80 147 104 
0.0425482 1.1129 5.43651 180 170 160 
-0.266171 -0.287256 5.5815 6 102 65 
-0.065547 -2.16536 7.16452 33 20 3 
-0.0271312 -2.10214 6.98238 42 29 12 
0.737369 1.2395 5.25354 44 17 0 
0.148665 1.11728 5.45814 171 170 166 
0.722989 0.512664 4.72212 204 181 127 
-1.04775 0.519713 5.68262 139 139 141 
0.478154 0.373882 5.12744 182 127 86 
-0.803159 0.375242 5.83166 160 134 59 
-0.80772 0.356057 5.73724 22 8 7 
-1.05032 0.260122 5.67052 180 153 10 
-0.981226 -1.51479 6.47419 0 50 15 
-0.130207 0.209634 5.38424 164 164 162 
-0.212516 0.188711 5.30734 130 120 108 
-0.988444 0.194307 5.53253 209 192 84 
-0.783946 -0.718547 3.11212 130 52 4 
1.98938 0.0295689 6.57122 40 28 12 
-0.884973 -0.0277716 5.91096 71 73 72 
-1.06607 -0.179794 5.49218 200 175 74 
-0.877013 -0.27292 6.65681 74 67 59 
-1.34572 -1.18169 7.07044 136 127 112 
0.0508553 -1.06762 6.41227 96 85 67 
0.0779207 -1.066 6.40297 110 103 87 
-1.02045 -0.245413 5.55581 55 52 35 
-0.419285 -0.266937 5.55592 5 67 44 
-1.01614 -0.324559 5.27373 54 33 4 
-1.15633 -0.704886 4.5447 220 167 55 
0.664557 -0.893504 5.84851 11 2 0 
0.579345 -0.883757 5.86415 110 95 66 
1.14743 -0.452215 5.75932 255 246 216 
-1.90573 -0.42942 5.28492 148 150 147 
-1.83189 -0.422694 5.12503 61 47 20 
-1.35335 -1.06907 7.22412 127 112 79 
0.499986 -0.854485 6.10355 255 227 189 
-1.14555 -0.634274 4.48282 104 53 0 
0.998598 -0.806135 5.99052 3 48 28 
0.703369 0.506319 4.66362 173 150 106 
0.664811 -0.751895 5.8016 47 135 95 
1.4085 0.441452 5.61849 43 67 33 
-1.25352 -0.809152 7.01109 35 19 0 
-0.107536 0.354996 5.33982 109 111 100 
-1.21932 0.361705 5.68127 202 165 58 
-0.847423 -0.949322 6.746 51 124 81 
1.56995 -0.49646 5.33738 203 180 139 
-0.904689 -1.49227 6.46533 63 153 101 
-1.27462 0.178194 5.60651 192 154 17 
-1.38488 -0.456703 4.92139 185 153 6 
0.809973 -0.508344 5.62639 0 4 3 
-0.825744 0.0596758 5.83279 130 127 122 
-0.954652 -1.48201 6.47895 0 68 25 
-1.22486 -0.371113 4.82366 198 165 34 
-0.197535 -0.0640772 5.38479 40 127 93 
0.59128 -0.895283 5.85921 69 57 31 
0.910055 -0.367779 5.65458 0 36 22 
-1.03867 -0.281179 5.30027 60 60 60 
-0.0657404 -1.39834 6.76122 1 42 12 
-0.833633 -1.35024 6.54392 9 103 51 
-0.195865 -2.26995 7.54447 45 42 37 
-0.931473 1.62987 6.51842 134 77 0 
1.25646 -0.182567 5.57596 82 75 47 
-1.68884 -0.215642 5.11747 20 3 0 
-0.720209 -1.27007 6.51983 37 127 73 
-0.389773 -2.07602 7.12059 143 125 115 
1.28612 -0.176971 5.54935 20 4 0 
1.93723 0.635683 5.43168 219 197 158 
0.250847 -0.232291 5.20898 93 78 49 
-0.811571 -1.03868 6.46025 46 139 84 
0.675488 0.562536 4.67769 110 87 53 
0.682825 -0.757479 5.79791 71 42 12 
0.62414 1.15488 5.27888 11 108 73 
0.594502 -0.104788 5.27643 13 102 70 
0.623047 -0.0993267 5.28054 0 68 41 
0.791541 -0.755495 5.78411 55 133 94 
0.57647 -0.382152 5.40318 1 77 49 
-0.957694 1.68859 6.38002 212 161 34 
-0.815177 -0.974534 6.43612 61 111 73 
0.76907 -0.749422 5.89405 55 116 85 
-0.761655 0.55115 5.80155 176 148 12 
-0.725534 0.091477 5.87959 21 14 4 
1.82819 0.134643 6.33371 0 21 12 
-0.249757 -1.34209 5.84775 215 49 73 
1.8316 0.181778 6.36684 2 17 10 
-1.14464 -1.50925 6.50676 24 84 32 
0.983947 2.05979 6.48222 141 105 21 
-0.591344 0.245905 5.94955 146 117 15 
-0.0921986 0.226142 5.47867 17 34 26 
-0.79203 -0.714561 2.98549 186 127 11 
-0.329221 -0.702028 5.98537 0 81 51 
0.760063 -0.658305 5.73582 27 121 87 
-1.12493 -0.638411 4.47839 90 30 6 
0.718212 -0.652979 5.74155 47 128 96 
-0.536747 0.367378 5.97504 163 132 39 
-0.188195 -2.23289 7.41985 46 42 41 
0.682802 1.29855 5.2375 138 115 81 
-0.876379 1.58053 6.4003 108 55 3 
0.154624 1.31599 5.37285 209 196 187 
0.106484 1.30506 5.38357 76 63 47 
-0.8326 -1.58015 6.46227 61 146 87 
0.147516 1.28586 5.36201 80 68 52 
-1.00551 -1.55342 6.51799 43 163 91 
-0.657571 -0.595124 2.48122 187 128 12 
0.828798 1.06624 5.30725 181 152 134 
-0.972739 -0.873984 3.74217 255 233 126 
-0.899087 -1.30469 6.28289 44 153 98 
-0.765431 -1.1202 6.42103 2 30 15 
-1.20792 -0.738579 4.74001 228 179 60 
0.687114 0.518898 4.63997 210 187 143 
0.86011 -0.925009 6.08604 3 68 44 
0.591201 -0.870848 5.81274 19 5 0 
1.26003 -0.951042 6.37777 173 151 112 
-1.32654 -1.04469 7.05752 141 125 92 
1.27655 -0.919264 6.37898 57 31 0 
0.87014 -0.851013 5.99934 11 45 8 
-1.24018 0.590191 5.87731 55 38 0 
-0.929656 0.561955 5.66609 5 4 2 
-0.935429 0.539443 5.6575 107 107 107 
-0.175621 0.446952 5.31441 80 64 48 
1.51219 0.457906 5.57273 208 185 144 
-0.128075 0.419113 5.30092 72 63 32 
1.0583 -0.762242 6.02863 29 133 96 
-0.793467 0.376511 5.78595 173 147 50 
0.655579 -0.620283 5.679 79 137 115 
-0.81528 0.361572 5.78266 22 13 14 
-1.0342 0.26746 5.6974 24 15 0 
-1.03347 0.260956 5.57892 184 158 13 
-0.0944645 0.22724 5.37272 23 29 25 
-1.02436 0.237865 5.68443 255 241 196 
-1.00888 0.230436 5.68008 13 10 1 
-0.256405 0.210937 5.33148 85 69 44 
-0.381893 -0.527905 5.64373 0 72 45 
-1.90102 -0.428572 5.27049 148 150 147 
-1.7951 -0.408382 5.01795 64 58 42 
1.13664 -0.44675 5.70293 255 247 223 
-1.01905 -0.421784 5.33467 172 160 138 
-1.18318 0.0456606 5.94044 236 202 128 
-1.24685 -0.378874 4.90346 189 155 47 
1.9387 0.0330713 6.47512 48 32 19 
-0.930261 -0.00733826 5.73997 32 22 10 
1.14771 -0.365761 5.54912 96 41 10 
1.15539 -0.351895 5.55202 174 144 110 
-0.813972 -0.0352004 5.63322 100 101 96 
-1.47796 -0.0891526 4.98481 141 137 136 
-0.873972 -0.110272 5.80782 128 129 124 
-1.04093 -0.299497 6.86167 31 32 18 
0.207785 -0.117394 5.20846 0 15 2 
0.187665 -0.117242 5.20468 12 116 81 
-0.861784 -0.261078 6.55438 63 59 50 
1.90254 -0.229286 6.46535 109 89 64 
-0.954953 -0.237239 6.56642 147 146 142 
-1.52118 -0.138978 4.94491 138 136 137 
1.8973 -0.197161 6.47494 184 158 131 
-0.391068 -2.08778 7.13956 137 120 110 
1.34634 -0.139891 5.61356 81 68 52 
0.671056 0.562536 4.65478 115 92 60 
0.605422 -0.74414 5.7442 48 139 96 
0.762638 -0.740134 5.82381 51 130 98 
-0.524299 0.398987 6.07454 181 148 43 
1.05877 0.2869 5.49974 0 11 0 
0.0202762 -0.612335 5.71947 0 83 49 
-0.448103 -0.379114 5.55907 1 66 36 
1.13704 -0.320572 5.49987 73 34 0 
0.428802 0.462828 5.04051 158 128 92 
0.798226 -0.760718 5.81335 41 131 95 
0.182141 0.0223298 5.25489 26 113 81 
-0.251687 -0.269009 5.44823 6 75 46 
0.939744 -0.132291 5.4545 59 128 100 
-0.516408 0.365205 5.81144 171 138 41 
-1.138 -1.71498 6.97691 2 32 4 
-1.02687 -1.60622 6.4979 34 96 55 
0.148224 1.43296 5.39946 205 195 186 
-1.85156 -0.46971 5.14063 190 182 171 
-1.22322 -0.0508753 5.33002 75 60 29 
-0.0204758 -2.11622 7.00979 49 33 8 
-1.45285 -1.18714 4.83211 255 244 147 
-1.36988 -1.14018 4.81297 168 118 0 
-1.64048 -1.11348 4.78611 173 125 0 
-1.48393 -1.06919 4.76821 131 70 0 
-1.52839 -1.05489 4.77879 125 56 0 
-0.970907 -1.49492 6.37334 2 86 37 
-0.888138 -1.45857 6.30796 47 137 83 
-1.1372 -1.43374 6.46445 166 119 89 
-1.53611 -0.678975 4.92027 48 10 0 
0.0836032 -1.04436 6.26725 152 140 124 
0.0756342 -0.974397 6.23897 91 78 59 
0.489001 -0.815713 5.85439 255 242 212 
0.629708 -0.809317 5.84979 204 177 158 
0.651573 -0.816006 5.87347 255 254 233 
-0.321143 -0.724918 5.88567 49 108 80 
0.706378 -0.649018 5.69335 27 97 71 
-0.156036 -0.558003 5.67859 54 180 132 
1.05829 -0.512557 5.70265 0 59 34 
