ply                 
format ascii 1.0    
element vertex 1296
property float x    
property float y    
property float z    
property uchar red  
property uchar green
property uchar blue 
end_header          
1.602 1.07955 6.14042 78 105 86 
0.0225249 1.06294 5.42629 86 76 66 
0.156413 1.10264 5.46187 112 109 100 
0.206636 1.11834 5.49164 73 86 79 
1.42866 1.15648 5.9175 68 108 84 
0.0418548 1.14697 5.42957 229 219 209 
0.107196 1.14841 5.39137 212 203 194 
1.57671 1.2683 6.20084 45 29 13 
1.4825 1.32916 6.06958 63 45 31 
1.41918 1.40582 6.0703 90 69 50 
0.192512 1.41941 5.46197 74 64 54 
0.145221 1.43468 5.4455 108 95 86 
-0.838882 1.53783 6.58039 125 73 0 
1.36561 1.5486 6.24209 51 23 1 
-1.01298 1.70475 6.61779 237 216 133 
1.87608 1.7123 6.04922 220 201 168 
1.4183 2.02425 6.8621 171 147 47 
1.15052 2.05925 6.58789 54 30 2 
1.42876 2.39633 6.54418 166 142 36 
1.41492 2.39999 6.54721 128 94 5 
1.49912 2.461 6.62484 197 163 55 
1.6404 2.55781 6.70019 141 89 3 
1.67426 3.03076 6.59149 65 43 6 
-1.49862 -1.09836 4.77005 147 92 0 
-1.63415 -1.08579 4.79031 152 87 0 
-1.54908 -1.08882 4.80489 156 96 0 
-0.914248 -1.74319 6.44678 100 16 32 
-0.968121 -1.51099 6.36992 49 147 90 
-1.13533 -1.49564 6.44986 70 80 43 
-0.738393 -1.3263 6.29134 52 137 78 
-1.21603 -1.31808 6.40147 95 69 32 
-0.894718 -1.18231 6.34236 40 118 66 
-1.54517 -0.730827 4.98574 42 4 0 
-1.50857 -0.68267 4.92 34 0 0 
0.250662 -0.658799 4.89107 108 84 50 
1.42159 -1.20391 6.75077 255 252 223 
1.40629 -1.18248 6.74215 255 253 218 
0.580265 -0.864202 5.79241 101 86 65 
0.0976418 -0.999714 6.28271 126 117 102 
-1.29098 -1.11352 6.68661 132 116 91 
0.661222 -0.808186 5.83342 183 151 126 
-1.24528 -0.969136 6.70369 46 31 2 
-1.25576 -0.955012 6.67827 54 39 8 
-0.32173 -0.690052 5.83227 2 97 63 
-0.782658 -0.822599 6.35567 64 114 76 
-1.23839 -0.891505 6.69898 57 41 8 
-1.2007 -0.775419 6.73032 34 18 0 
-1.05045 -0.450486 5.48 56 38 0 
0.910885 -0.463838 5.61567 0 78 45 
-1.9784 -0.421176 5.46818 124 124 124 
-1.90828 -0.397594 5.38385 19 15 3 
0.014014 -0.376972 5.46541 3 41 4 
1.16276 -0.371673 5.5303 95 63 25 
0.231429 -0.242168 5.18291 47 30 12 
-0.29604 -0.308659 5.52658 48 144 106 
0.202319 -0.126096 5.2289 44 93 71 
-1.41912 -0.108933 5.16711 15 11 12 
1.05644 -0.122165 5.45738 103 198 164 
0.544626 -0.0434806 5.24827 14 87 60 
-1.19909 -0.0582988 5.41993 94 78 63 
0.177649 0.0167015 5.21409 29 103 76 
-0.900419 -0.0419449 5.71336 171 162 147 
0.560709 0.038169 5.33043 72 81 80 
-0.905647 -0.0281535 5.72396 88 73 50 
-0.150017 0.0457441 5.39456 52 122 94 
-0.933148 -0.016788 5.76872 29 21 0 
-0.912069 -0.00305692 5.72241 84 72 60 
0.43414 0.0817182 5.29073 58 59 63 
-0.866221 0.0575718 5.67311 57 56 51 
-0.705885 0.0885439 5.76911 61 50 32 
-1.25765 0.160704 5.61438 121 70 7 
-0.199254 0.216644 5.30074 70 58 44 
-0.189471 0.241851 5.30669 132 124 111 
-1.00697 0.201462 5.64768 218 189 97 
-0.115421 0.251602 5.35185 143 142 137 
-0.247444 0.262137 5.30248 138 124 111 
0.180103 0.290166 5.17283 37 122 89 
0.893735 0.286131 5.2618 151 225 200 
-1.01694 0.224823 5.68271 42 18 0 
-0.230203 0.283988 5.31634 65 58 40 
1.4371 0.252942 5.71113 0 90 56 
1.42097 0.267169 5.69502 0 89 57 
1.45549 0.274306 5.68613 34 134 98 
-1.039 0.263185 5.66408 174 156 44 
-1.04457 0.273957 5.65537 190 164 41 
-0.73366 0.280849 5.67304 138 113 49 
-1.04215 0.309512 5.66797 82 77 71 
-0.116859 0.406254 5.35453 90 86 77 
-0.119471 0.417278 5.32859 199 195 186 
-0.119916 0.439885 5.33619 55 48 40 
-1.12626 0.511884 5.71039 126 125 123 
-0.125503 0.610143 5.36077 28 18 9 
0.0140007 0.701869 5.42828 170 172 161 
-0.0949046 0.741308 5.38065 204 196 183 
1.66395 1.02054 6.23402 12 48 34 
0.0655279 1.01908 5.43994 141 137 128 
0.858056 1.07396 5.37916 156 115 93 
1.30947 1.09298 5.90112 4 36 23 
0.0878677 1.09581 5.43105 80 69 65 
0.164733 1.09727 5.45488 81 82 77 
1.55845 1.13075 6.12329 87 108 93 
0.0581232 1.15948 5.40597 67 59 48 
0.141486 1.16206 5.44128 191 186 182 
1.48068 1.32856 6.05089 72 55 39 
1.41519 1.40137 6.02796 114 97 81 
1.44006 1.4076 6.02431 41 31 4 
0.133084 1.38421 5.45005 89 76 67 
0.191562 1.42216 5.4735 69 59 47 
-0.877754 1.58889 6.46273 127 73 1 
1.8712 1.70781 6.02823 233 214 181 
1.14769 2.05426 6.56592 60 37 6 
1.29537 2.2496 6.49902 58 34 6 
1.42597 2.39078 6.53103 140 115 33 
1.41278 2.39508 6.53432 113 82 0 
1.50214 2.48443 6.60173 175 142 37 
1.61896 2.52219 6.71798 167 126 47 
1.44804 2.50912 6.51374 137 98 0 
-1.07342 -1.52019 6.41797 56 152 89 
-1.12639 -1.41783 6.37732 178 119 85 
-1.14271 -1.43968 6.47434 166 109 79 
-1.21924 -1.32108 6.41026 95 69 32 
-1.55025 -0.751543 4.99588 199 160 69 
-0.742909 -1.07192 6.23636 7 76 32 
0.07474 -0.985685 6.26422 90 77 58 
-1.27312 -1.11941 6.71929 146 134 110 
-0.793382 -0.943007 6.29772 62 107 66 
-1.25671 -0.958192 6.68992 44 29 0 
0.766814 -0.652377 5.69762 40 121 88 
-0.786567 -0.831128 6.38758 62 114 75 
-1.23375 -0.886827 6.66753 54 38 5 
0.742313 -0.588417 5.65233 18 105 73 
1.05517 -0.510319 5.69096 0 55 32 
-1.21406 -0.772317 6.73209 51 34 6 
-0.277666 -0.48044 5.60768 1 90 58 
-1.96154 -0.437221 5.44129 138 138 136 
-1.96689 -0.424323 5.41706 70 70 70 
-1.97069 -0.417239 5.44682 124 124 124 
-0.011749 -0.400278 5.46106 0 86 52 
-1.97509 -0.377194 5.42792 36 35 33 
0.433658 -0.308799 5.21659 55 31 5 
0.161881 -0.2653 5.21323 26 5 0 
0.724682 -0.306392 5.48289 1 56 33 
-1.80159 -0.249342 5.18724 165 145 84 
-0.307121 -0.310219 5.53362 0 55 27 
0.515378 -0.243316 5.30108 57 101 66 
0.68505 -0.265148 5.52606 0 43 24 
0.716135 -0.243465 5.53068 66 132 104 
-1.96515 -0.266155 5.56197 168 157 153 
1.25028 -0.175362 5.51789 98 83 60 
1.0599 -0.152932 5.50784 24 129 88 
-1.21288 -0.0591368 5.42745 43 27 12 
-1.25114 -0.0531486 5.41169 76 62 33 
-1.16954 -0.0523708 5.41079 34 17 1 
-0.188217 -0.0362239 5.44402 43 112 84 
0.17728 0.0140618 5.22797 29 103 76 
0.306427 0.040066 5.20148 20 63 44 
-0.841708 -0.0339676 5.68275 74 73 68 
-0.81725 -0.0274081 5.68923 104 105 99 
-0.856744 -0.0222516 5.72459 69 68 63 
0.677603 0.0708424 5.26301 52 135 105 
-0.907188 0.000987572 5.69302 88 76 64 
-0.151836 0.0583996 5.41142 9 64 41 
-0.760646 0.10507 5.72829 57 53 50 
-0.179975 0.174667 5.31128 172 167 164 
-1.26865 0.157381 5.58343 76 25 0 
-1.24316 0.156219 5.62188 193 146 30 
-1.27375 0.178426 5.58933 202 163 36 
0.180362 0.28061 5.15544 38 122 89 
0.895239 0.28465 5.2917 147 225 199 
0.354957 0.331757 5.16319 150 248 210 
-0.73159 0.280873 5.66171 133 108 51 
-0.700035 0.291134 5.67174 170 138 35 
-0.105688 0.368129 5.3339 139 139 127 
-0.766093 0.380254 5.74211 133 99 1 
-0.186555 0.433396 5.3381 61 50 32 
1.52197 0.466639 5.64329 226 187 146 
-0.126908 0.610027 5.37604 19 9 0 
-0.922582 0.606537 5.81735 38 26 4 
1.54961 0.786249 5.74623 49 24 4 
1.40099 0.870026 5.76937 1 44 25 
0.0206734 0.867494 5.42026 122 118 107 
1.69707 0.980154 6.25492 50 121 91 
1.66545 1.00747 6.19518 99 125 114 
1.64697 1.08969 6.23639 81 99 85 
1.40423 1.11894 5.91102 18 91 61 
0.156277 1.10425 5.48563 112 109 100 
0.152697 1.1223 5.49033 165 162 153 
1.58377 1.1743 6.23069 71 58 41 
0.10262 1.14513 5.44316 103 94 85 
0.0421493 1.14706 5.42063 225 215 205 
0.0559501 1.16159 5.42747 64 56 45 
0.148542 1.17046 5.44213 133 128 122 
1.49142 1.35269 6.06395 13 2 0 
0.157178 1.31677 5.45646 81 70 50 
-0.063463 1.39961 5.94621 137 86 3 
0.1629 1.43627 5.4407 199 190 175 
1.37101 1.55212 6.28167 70 40 16 
0.480926 1.67908 5.77831 116 119 108 
-1.0602 1.80981 6.53096 255 223 84 
1.39133 1.83971 6.4513 31 17 4 
1.4146 1.8743 6.49667 76 61 42 
1.54875 2.05087 6.37726 67 51 26 
-1.00692 2.14247 6.57962 107 67 0 
1.3039 2.26917 6.57086 43 21 0 
-1.40925 2.49015 7.11019 154 140 129 
-1.44971 2.51063 7.08161 142 130 108 
1.50351 2.49125 6.62183 183 151 40 
-1.24276 2.55492 6.88554 213 170 5 
1.6495 2.5681 6.74307 141 89 3 
1.66179 2.56747 6.7408 116 63 0 
-1.32515 2.59507 6.91166 192 161 53 
-1.37199 2.77059 7.08537 83 64 22 
1.41305 2.39768 6.5591 92 64 0 
1.01302 2.04502 6.54353 184 150 61 
-0.990667 1.68481 6.54016 167 120 2 
1.01578 1.49248 5.04218 255 253 223 
0.109349 1.3372 5.48497 74 61 45 
0.156371 1.31389 5.4489 77 69 50 
0.101813 1.31265 5.43577 79 67 53 
0.145067 1.10132 5.48159 64 61 52 
1.63271 1.08028 6.22698 7 36 18 
1.48446 0.556605 5.60499 189 161 113 
0.0823415 -1.03856 6.249 145 132 115 
0.664958 -0.883536 5.79598 15 1 0 
-0.122826 0.439528 5.31398 69 59 49 
-0.787501 0.372839 5.73852 171 146 43 
0.473196 0.386427 5.11762 108 64 19 
-1.04158 0.263289 5.65636 179 155 31 
-0.267388 0.215712 5.32212 189 175 162 
-1.24146 -0.973634 6.66103 132 119 87 
-0.852444 -0.0211317 5.69924 71 70 65 
-1.24605 -0.945311 6.63342 53 38 7 
0.889751 -0.356184 5.53295 0 50 32 
-1.96566 -0.446421 5.46567 121 122 117 
1.89986 2.9595 6.34767 218 184 61 
1.62989 2.98914 6.55832 76 54 0 
1.52122 2.69469 6.58542 141 101 5 
-1.31733 2.58627 6.88099 197 162 42 
1.64894 2.56873 6.74092 153 103 8 
0.905112 -0.460018 5.60254 0 61 29 
-1.08502 -0.537824 5.61279 54 31 0 
1.61414 2.52177 6.69013 173 137 43 
1.48721 2.4477 6.5718 201 169 50 
-0.108562 -0.43169 5.58369 0 84 50 
0.648315 -0.374872 5.36375 0 78 48 
-0.030769 -0.560441 5.62365 0 95 51 
1.43317 2.40294 6.5604 174 149 33 
-1.47583 2.48837 7.36743 194 178 162 
-1.99375 -0.384602 5.51199 94 90 87 
1.58161 -0.478592 5.28184 108 85 53 
-1.02633 2.33387 6.65878 217 179 32 
0.692798 -0.320272 5.44334 0 58 37 
1.29952 2.2603 6.53462 37 16 0 
0.721736 -0.304908 5.55431 28 92 66 
0.514503 -0.240217 5.285 50 105 73 
1.55435 2.05966 6.40073 52 36 11 
-1.83444 -0.111191 5.4413 33 28 22 
-1.82753 -0.0991345 5.44566 133 104 44 
-0.199004 -0.0618722 5.47459 36 119 89 
-0.897623 -0.0412969 5.68403 175 165 140 
-0.868636 0.0560304 5.69018 54 53 49 
-0.798841 0.0647111 5.66521 132 131 127 
-1.26714 0.13911 5.61107 79 34 0 
0.133456 1.4161 5.45429 156 143 134 
-0.804008 -0.881603 6.33732 35 89 55 
0.160414 1.38796 5.46806 181 171 161 
-1.25596 -0.975175 6.64741 163 147 113 
-1.27953 0.177125 5.62223 204 165 28 
-0.0627261 1.39213 5.91084 115 65 0 
-0.250386 0.262401 5.31867 122 110 96 
-0.803842 -1.48388 6.33872 45 113 72 
-0.187391 0.266835 5.32197 171 162 153 
-0.245884 0.271814 5.31004 214 207 189 
0.681248 -0.755986 5.78305 55 44 14 
0.604146 -0.743438 5.73623 73 137 100 
-0.577687 0.247979 5.86677 168 129 36 
-0.927675 -1.43947 6.31072 13 112 57 
-0.901316 -1.438 6.32054 36 155 91 
-1.02338 0.309183 5.56014 16 4 0 
0.0991308 1.15577 5.44798 226 219 211 
0.037945 1.15099 5.46202 201 191 181 
0.352291 0.414495 5.18477 18 14 3 
0.210335 1.1334 5.51596 15 22 15 
0.429067 0.465257 5.0857 146 93 51 
0.698756 0.543981 4.69755 65 54 32 
0.744598 0.549696 4.67771 108 90 66 
1.56442 1.13117 6.13945 87 105 91 
1.25412 0.526827 5.5695 0 24 11 
-1.15288 0.512778 5.74168 44 29 6 
1.68982 1.04288 6.2554 78 112 95 
1.68772 0.979102 6.22289 36 120 86 
-0.0268922 0.713317 5.38125 111 108 99 
1.32497 0.718432 5.61004 36 116 87 
1.31307 0.735437 5.6196 40 125 94 
-0.755057 -1.16163 6.25105 0 59 18 
-0.765359 -1.22294 6.28773 16 98 52 
0.0210433 0.865382 5.38925 111 109 97 
1.52156 0.894124 5.86565 44 63 59 
-1.15644 -0.797301 6.77107 29 17 1 
1.53642 2.80147 6.64195 117 74 0 
1.50101 2.75876 6.53827 179 140 37 
-0.586971 2.41738 6.42944 217 177 19 
-0.887713 -1.28811 6.28869 45 145 85 
1.28884 2.22987 6.56694 47 23 0 
0.67651 0.553143 4.71324 124 101 60 
-0.0157539 -0.270461 5.36977 9 68 48 
0.675139 0.490294 4.71264 255 253 201 
0.0392425 1.13681 5.41838 122 112 102 
1.42234 0.266155 5.70779 0 89 57 
-0.0240346 -0.160689 5.28491 32 129 94 
-1.05269 1.83774 6.48188 179 134 5 
-0.216619 -0.095757 5.49498 37 106 78 
0.308893 0.0418282 5.18712 23 68 48 
-0.82273 -0.0309062 5.70641 103 104 99 
-0.185266 -0.0572894 5.47444 0 64 35 
0.310975 0.62523 5.21125 55 134 103 
0.730075 0.200907 5.2464 86 171 138 
-1.33921 0.508093 5.84808 122 86 0 
-0.702874 0.288916 5.69246 170 138 35 
0.274113 0.501326 5.16623 53 136 106 
0.103528 1.11707 5.43833 119 115 104 
-0.214605 0.275123 5.35612 76 62 51 
-1.48599 -1.06772 4.74751 128 47 4 
-1.48431 2.62083 6.98521 239 225 212 
1.62509 2.53914 6.74483 183 148 44 
1.48389 2.44228 6.56355 199 167 48 
-1.481 2.49282 7.39496 189 173 157 
-0.96271 -1.48714 6.35378 0 50 15 
-1.00088 1.73441 6.466 191 146 5 
-0.757225 -1.1646 6.26631 0 49 12 
-0.769657 -1.14923 6.23686 0 73 32 
0.577582 -0.869086 5.79902 119 103 80 
0.680977 -0.864808 5.80414 112 101 73 
1.40415 1.40065 5.99443 90 69 50 
1.55423 1.12322 6.09792 77 99 86 
1.57884 -0.527989 5.32519 189 167 120 
1.64141 1.08071 6.19464 87 104 88 
-1.96062 -0.445296 5.44985 140 141 136 
1.17067 -0.45466 5.64387 207 163 116 
1.1399 -0.449078 5.71194 233 205 183 
-1.04027 0.518068 5.63118 142 141 146 
-1.08335 0.508152 5.69034 6 6 4 
1.16226 -0.383836 5.59333 87 43 4 
0.709576 0.566737 4.67309 41 33 10 
-0.450764 -0.381257 5.5989 0 78 44 
0.737543 0.559387 4.716 52 40 24 
0.700613 0.562387 4.67124 50 42 21 
0.690225 0.520673 4.69097 209 187 140 
-0.174202 0.457207 5.32912 69 57 43 
0.2412 -0.234863 5.21115 101 87 60 
-0.183454 0.43285 5.31972 61 49 33 
-0.758682 0.388126 5.75119 183 153 29 
-0.129121 0.412991 5.32104 59 53 41 
-0.0852644 0.403408 5.37464 180 176 173 
-0.0996474 0.379025 5.3639 180 182 171 
-0.109142 0.359566 5.35561 136 136 126 
-1.45454 -0.137891 5.15914 28 28 28 
0.19641 -0.120829 5.23398 29 115 80 
-1.40987 -0.110722 5.17153 101 99 100 
0.624635 -0.103729 5.295 0 66 38 
-1.2663 0.179551 5.57663 203 164 27 
-0.20052 0.216514 5.27814 74 55 41 
-0.127791 0.200086 5.33586 169 170 164 
-0.250805 0.212241 5.2371 108 94 83 
-1.27518 0.153555 5.61407 76 25 0 
-0.20971 0.192374 5.27553 45 30 23 
1.89869 -0.196473 6.48376 182 149 108 
0.239306 0.0232283 5.20579 113 183 157 
1.45206 2.96995 6.66947 123 103 92 
-0.808415 -1.48949 6.36223 56 135 88 
-0.788009 -1.28484 6.23735 12 104 53 
0.60444 -0.743943 5.74499 69 139 102 
-0.792982 0.0669523 5.62056 131 128 123 
-0.803669 -0.881147 6.3285 32 86 50 
0.923283 1.15645 5.33368 163 128 98 
0.639966 1.1548 5.36894 0 25 10 
0.0840404 1.09446 5.42247 130 119 113 
-0.316931 -0.678817 5.82607 12 86 61 
0.0276583 1.05712 5.38747 151 141 131 
-0.927644 0.564141 5.67155 4 3 1 
0.0117357 -0.375468 5.45064 2 42 15 
0.687868 -0.31627 5.41529 11 102 71 
-0.226741 0.283509 5.30518 91 84 66 
-1.55999 2.61207 7.20695 208 193 174 
-0.579073 0.245147 5.88424 168 129 36 
0.247189 -0.635688 4.91923 105 80 50 
0.413155 -0.278127 5.25722 35 14 0 
-0.786422 -0.832214 6.36841 62 113 72 
-0.394356 -0.54042 5.75297 1 80 49 
0.680545 -0.751079 5.75203 84 51 18 
-1.16165 -0.746222 6.82743 25 15 3 
1.5189 2.77957 6.54665 111 68 0 
-0.0275266 0.711989 5.37888 141 138 129 
-1.15909 -0.79874 6.78126 27 18 1 
-0.816527 -1.62603 6.38946 157 34 54 
0.185746 1.41367 5.39754 126 116 104 
1.60885 2.4587 6.74379 104 59 0 
-1.01658 2.32507 6.60451 218 181 30 
1.36542 0.988435 5.83325 6 34 20 
1.64909 1.04533 6.17824 14 50 36 
1.29814 1.04138 5.77673 0 24 12 
-1.13227 -1.42382 6.40924 175 116 82 
-0.696334 0.0980232 5.74365 21 6 0 
-0.756895 0.105196 5.68935 65 61 52 
-0.763801 -1.22 6.27298 12 94 48 
-0.738373 0.280791 5.69862 139 114 57 
1.66435 3.00756 6.55655 65 42 8 
1.63483 2.99188 6.5524 57 38 0 
-1.35214 2.74055 6.97267 89 71 35 
-1.30742 2.57726 6.83088 190 155 39 
1.44075 2.48703 6.43416 133 94 0 
1.47114 2.44789 6.57646 199 170 17 
-0.969216 -1.50189 6.39699 0 71 26 
-0.894549 1.60751 6.39701 210 163 45 
0.165942 1.37787 5.54384 137 127 117 
0.105579 1.31528 5.45048 84 75 58 
-0.308695 -0.782553 6.02817 78 134 107 
0.15089 1.11254 5.42526 171 168 159 
1.58219 1.13133 6.22484 85 106 91 
1.5037 1.12508 6.02628 79 101 88 
0.144922 1.09394 5.41885 151 148 139 
1.61262 1.09038 6.22737 71 88 69 
1.55188 -0.498152 5.27643 212 192 142 
1.5446 0.780865 5.74132 48 22 7 
-1.02192 0.576123 5.70499 144 143 141 
-1.94118 -0.459446 5.44163 55 52 33 
-0.833509 0.518296 5.73245 191 160 52 
-1.12048 0.514034 5.66244 68 67 65 
-1.97991 -0.430314 5.44734 70 70 70 
-1.12878 0.509308 5.63852 65 48 28 
-1.05311 0.494834 5.67228 19 19 19 
0.582997 -0.375358 5.39204 0 61 35 
0.694299 0.539848 4.63763 52 44 23 
1.44266 0.42408 5.72608 130 103 73 
-0.125995 0.432744 5.32373 69 56 47 
-1.78858 -0.247064 5.14883 172 139 60 
0.240146 -0.232003 5.20006 100 83 55 
-0.134431 0.412423 5.34608 61 53 42 
-1.21289 0.36092 5.65552 216 182 56 
-0.0895965 0.393471 5.362 63 62 58 
-0.788695 0.331365 5.73346 11 3 1 
-1.46667 -0.158204 5.15336 82 80 83 
0.211637 -0.116366 5.24388 2 15 6 
-0.247397 0.229624 5.303 84 68 55 
-0.123659 0.211227 5.31132 153 154 148 
-0.258366 0.205603 5.30212 95 82 65 
1.44135 2.94825 6.61394 91 73 61 
0.1848 0.0253008 5.17909 14 111 76 
-0.961998 2.61925 6.55341 231 185 11 
-1.79045 -0.0595844 5.37431 64 41 0 
-1.53186 2.58025 7.09318 204 186 166 
1.47005 2.45189 6.4645 183 154 36 
-1.09246 0.0227928 5.79195 174 133 15 
1.28953 2.24593 6.49109 45 23 0 
-1.13341 -1.496 6.4384 67 109 63 
-0.867226 -1.28077 6.2796 8 95 40 
1.39752 -1.1748 6.65061 248 240 204 
-0.0423696 -0.159069 5.32797 5 81 51 
1.01345 -0.188993 5.45806 3 43 19 
-0.827418 1.53742 6.48055 172 123 28 
0.166621 1.3503 5.41458 173 165 154 
-0.0828872 -0.250173 5.35823 0 76 46 
-0.788201 -0.887129 6.34595 49 131 83 
1.4749 1.31987 6.00103 72 55 39 
-0.188137 -0.288746 5.50695 0 75 43 
-0.19193 -0.724081 5.84072 0 79 49 
-0.497045 0.396035 5.83492 186 152 42 
-0.454467 -0.382947 5.61079 0 79 46 
0.635664 1.14417 5.2915 10 28 14 
0.0826852 1.09209 5.38916 186 175 169 
0.0650833 1.04298 5.37275 173 165 154 
0.85878 1.04548 5.34415 59 37 13 
0.0283908 -0.588606 5.6304 1 75 48 
-0.979385 0.707009 5.81814 39 28 8 
-0.525698 0.366399 5.86938 173 135 60 
0.210437 1.13196 5.45501 1 21 10 
-0.600214 2.40896 6.43387 221 181 8 
-0.812382 -1.62114 6.37046 164 32 55 
1.88907 2.94046 6.31292 242 210 63 
1.64951 2.99281 6.50273 60 41 11 
1.63856 2.99627 6.57792 59 39 0 
1.50408 2.95424 6.64799 44 25 8 
1.43671 2.466 6.45485 211 173 28 
1.4939 2.48388 6.60743 180 151 31 
1.47292 2.44406 6.58696 200 172 29 
1.44359 2.40467 6.56728 158 134 28 
1.40076 2.35936 6.47984 75 47 7 
-0.930617 -1.45662 6.32474 0 77 35 
-1.51213 -0.683031 4.8698 25 0 0 
-1.27026 -0.686271 4.92657 205 162 23 
-0.899176 1.61729 6.46432 213 171 27 
-0.918829 1.60904 6.47167 147 99 0 
-0.899867 1.59766 6.52829 114 59 0 
1.44287 1.40982 6.05995 33 23 0 
0.153817 1.34076 5.53187 196 186 177 
0.69084 1.31281 5.34187 152 122 86 
-0.306933 -0.775228 5.98093 199 222 206 
0.161979 1.28373 5.44764 195 191 190 
0.653096 -0.611445 5.6599 39 94 71 
1.56791 1.11748 6.12997 83 100 84 
1.60391 1.08575 6.17579 74 95 78 
-1.97082 -0.452099 5.47173 141 144 137 
-1.04966 0.496947 5.66138 72 72 72 
-0.112709 -0.425691 5.57066 0 64 34 
1.53661 0.482306 5.67166 55 29 4 
0.893218 -0.349791 5.50219 0 36 25 
-1.03873 -0.307823 5.38438 3 2 0 
-0.247143 0.225179 5.32617 96 78 64 
-0.131248 0.209414 5.34487 178 177 173 
-1.23471 0.144943 5.64978 199 156 17 
0.189527 -0.117708 5.20505 13 115 76 
-1.44304 -0.125425 5.22019 13 9 10 
-0.839632 -0.0204259 5.65166 64 63 58 
-0.900907 -0.0442056 5.70031 178 170 151 
0.231391 0.0233259 5.21426 11 102 69 
1.57331 2.29497 6.67764 168 144 84 
1.69343 1.01217 6.22947 0 32 17 
-1.27328 -0.488012 4.98987 189 155 31 
0.916083 1.15392 5.27245 163 128 98 
0.147844 1.14944 5.40958 118 115 106 
0.201975 1.10048 5.45043 3 8 4 
0.572533 0.304055 5.15303 177 132 99 
-0.160522 -0.515909 5.62701 5 82 50 
-0.124009 0.604666 5.41238 107 97 88 
0.558361 1.87404 5.71371 55 39 24 
-1.13278 -1.49764 6.45902 49 79 43 
-0.91282 -1.45698 6.32606 3 91 41 
-1.4405 -0.022768 5.1609 117 118 113 
0.630021 0.295432 5.16959 169 125 98 
0.0300237 -0.584732 5.6007 4 80 50 
0.345811 0.415141 5.1445 8 24 21 
0.0594044 -1.04809 6.24229 195 186 169 
0.0759466 -1.04572 6.237 131 122 115 
0.187612 -1.03864 6.36628 194 198 183 
-1.51846 -0.662929 4.88112 36 4 0 
-1.52433 -0.649144 4.87305 105 62 0 
-0.0394604 -0.574389 5.69414 76 177 135 
-0.601082 -0.442313 5.59122 204 200 188 
-0.295348 -0.311101 5.49663 42 143 101 
-0.402894 -0.235624 5.45203 220 226 212 
1.20002 -0.0567273 5.53239 37 118 86 
-0.200464 -0.0594029 5.45177 47 113 86 
-1.26726 -0.0161987 5.37784 70 50 15 
-0.79067 0.363418 5.73668 148 125 71 
-0.0831199 0.389086 5.34158 69 72 63 
-0.937316 0.551373 5.70263 43 41 44 
0.932641 1.16752 5.34944 109 70 37 
0.952007 1.18298 5.33867 66 37 7 
-0.209439 -1.81821 6.90632 249 164 143 
-0.79026 -1.53595 6.28806 73 97 65 
-1.07156 -1.50707 6.37746 51 149 92 
-1.13056 -1.42535 6.41045 183 123 87 
-1.25922 -1.11362 6.64925 132 123 106 
0.078033 -0.974711 6.2403 163 162 141 
-1.01358 -0.702935 4.9924 218 180 57 
0.64836 -0.811764 5.84122 187 161 136 
-1.49643 -0.666702 4.89493 30 7 0 
0.201372 -0.664044 4.92745 186 165 120 
-1.28775 -0.463583 4.92921 242 215 98 
-0.592075 -0.43944 5.60604 193 190 175 
-0.449771 -0.198535 5.40598 87 73 47 
0.746806 -0.191454 5.49492 8 53 32 
-1.87381 -0.104181 5.4217 67 50 7 
-0.832515 -0.0642747 5.72341 137 136 132 
0.545723 -0.0419269 5.24271 29 91 66 
-1.25706 -0.0301767 5.37251 109 89 62 
-0.162523 0.171224 5.30631 215 215 203 
-0.19144 0.178735 5.2778 125 116 107 
-0.200447 0.182845 5.27198 97 87 78 
-0.120605 0.199346 5.32955 121 125 124 
-0.230195 0.283258 5.29484 73 63 53 
-0.802565 0.35768 5.7629 31 11 0 
-1.21972 0.359481 5.67565 188 149 54 
-1.21962 0.368281 5.66361 193 157 35 
-1.10093 0.418234 5.70752 122 113 58 
-1.05841 0.500345 5.67297 74 75 77 
-0.848499 0.515033 5.78958 180 156 60 
-1.1268 0.515959 5.71268 123 124 118 
-1.06615 0.512294 5.64799 61 61 61 
-1.113 0.519772 5.67749 24 23 18 
-0.940332 0.553477 5.71393 89 87 90 
-0.920905 0.597385 5.75753 106 102 90 
-0.0292736 0.716163 5.37976 127 123 112 
-0.0226475 0.739897 5.36982 52 48 39 
0.022771 0.86302 5.37752 132 128 119 
0.195038 1.03685 5.4035 45 105 79 
0.055729 1.17199 5.43661 215 205 196 
0.655056 1.1667 5.36534 74 48 25 
0.952697 1.18619 5.34883 112 85 56 
1.01831 1.20792 5.39764 134 94 59 
0.747476 1.25465 5.30893 64 37 18 
0.110234 1.35268 5.50508 131 123 110 
0.165162 1.4071 5.5307 194 184 175 
0.194334 1.43943 5.51239 101 91 82 
0.147242 1.45745 5.5176 136 123 114 
0.48452 1.69734 5.8013 94 96 85 
-0.0604984 -2.10452 6.91896 64 44 20 
-0.062917 -2.08942 6.92547 33 20 3 
-1.07578 -1.2151 4.82185 255 254 185 
-1.57565 -1.18192 4.77886 217 193 155 
-1.18105 -1.12134 4.75383 171 117 0 
-1.04643 -1.48465 6.34328 52 156 95 
-1.2871 -1.08889 6.78248 243 242 222 
0.0963769 -0.998387 6.26385 127 125 104 
0.0803143 -0.978434 6.25876 163 162 141 
0.576206 -0.864149 5.79488 112 94 72 
-1.26075 -0.695594 4.93731 93 40 0 
0.215627 -0.669501 4.91734 116 98 58 
-1.49373 -0.667084 4.88529 39 16 0 
0.281015 -0.6685 4.95222 170 146 108 
0.219173 -0.660215 4.90932 167 149 109 
0.258743 -0.660538 4.91103 125 107 69 
-1.51738 -0.64272 4.84927 171 129 29 
-0.998238 -0.696941 6.82783 62 90 67 
-1.28306 -0.378591 5.03499 177 144 31 
-1.02244 -0.335619 5.33319 24 7 0 
-1.03547 -0.296774 5.37063 12 12 12 
-1.00798 -0.253007 5.43959 95 95 87 
-1.58831 -0.157026 5.14817 36 34 35 
-1.4514 -0.145601 5.13383 126 126 128 
-0.200869 -0.132984 5.46055 34 83 64 
-0.953745 -0.124243 5.93044 84 69 0 
-1.83235 -0.0957426 5.44129 113 97 46 
0.551601 -0.0634521 5.24796 31 94 75 
-1.19829 -0.064984 5.41707 11 1 0 
-0.842266 -0.0648914 5.72873 77 76 74 
0.540942 -0.0528657 5.2499 31 85 62 
-0.817533 -0.0589042 5.67187 125 124 120 
0.558363 -0.0447868 5.2391 22 88 61 
0.241916 0.0231712 5.19538 135 189 163 
-0.702433 0.0889739 5.78986 29 14 0 
-1.26641 0.142166 5.59024 94 45 2 
0.442193 0.166663 5.16703 122 214 177 
-0.122203 0.216036 5.341 177 179 176 
-0.0819342 0.228962 5.33039 2 30 16 
-0.249034 0.231688 5.29171 93 79 66 
-0.248379 0.262431 5.29952 117 105 93 
-0.183603 0.272375 5.28415 223 213 204 
0.181185 0.284932 5.15058 52 133 100 
-1.1057 0.394276 5.74 61 38 0 
-0.0599478 0.370504 5.2881 35 40 33 
-1.09809 0.409318 5.70463 137 116 53 
0.474996 0.384202 5.08162 78 33 0 
0.36101 0.411056 5.16481 23 32 1 
1.27856 0.44881 5.54936 8 63 40 
0.440587 0.452216 5.06879 102 56 22 
-0.0847488 0.728787 5.33887 137 127 117 
0.0722433 1.0532 5.44858 95 86 81 
0.862286 1.05827 5.38526 89 57 36 
-0.831554 1.53161 6.94215 167 120 32 
-0.252409 1.37028 6.00578 117 65 0 
-0.868737 1.59018 6.7574 95 50 0 
0.153795 1.31541 5.51379 76 66 57 
0.102524 1.32624 5.48975 78 65 57 
0.161075 1.32763 5.48401 98 88 78 
-0.906316 1.63977 6.65177 120 71 0 
0.714218 1.31921 5.34109 30 5 0 
0.193293 1.44365 5.52682 104 94 85 
0.147252 1.45956 5.50268 221 208 199 
-1.73377 -1.16575 4.69114 173 124 22 
-1.73983 -1.14101 4.69441 255 255 149 
-0.942887 -1.49321 6.32173 0 59 16 
-1.34319 -1.10301 4.73432 142 78 0 
-0.923776 -1.43206 6.29044 7 110 55 
0.0830922 -0.995001 6.25498 83 73 38 
-1.54075 -0.736464 4.96621 210 168 60 
-1.00995 -0.702929 4.97976 190 150 39 
1.14132 -0.875668 6.31192 3 38 6 
-1.22396 -0.877012 6.66616 130 111 71 
0.765837 -0.653338 5.72866 32 129 94 
-0.519222 -0.643948 5.91384 197 193 181 
-1.21281 -0.723061 6.75983 27 12 0 
-1.44846 -0.448182 4.92931 188 159 31 
-1.2838 -0.392464 5.04213 187 151 55 
1.166 -0.36466 5.56944 66 35 7 
-1.04265 -0.298594 5.4091 12 12 12 
-1.05061 -0.290641 5.37909 41 41 43 
-1.71294 -0.217105 5.16771 22 9 0 
-1.4466 -0.13282 5.1234 68 68 70 
-0.960766 -0.120986 5.96239 78 60 0 
-1.40475 -0.107993 5.1533 84 84 84 
-0.945471 -0.105453 5.88631 138 125 83 
-0.846568 -0.0644828 5.75349 70 69 67 
-1.21065 -0.0545002 5.42506 46 24 1 
-0.846346 -0.0356231 5.70557 66 68 67 
-1.44381 -0.0229324 5.20155 110 110 108 
-0.929405 -0.0192381 5.73603 34 26 3 
0.306772 0.0396807 5.18863 22 61 43 
-0.959061 0.0884513 5.67935 123 118 96 
-0.975137 0.132031 5.62782 39 21 0 
-1.24474 0.158125 5.6175 178 134 25 
-0.600931 0.188204 5.86322 127 93 30 
-1.00414 0.201509 5.63772 253 244 165 
-1.04442 0.262323 5.68214 167 143 55 
-0.793348 0.379012 5.73209 171 146 62 
-0.0914889 0.381984 5.36139 168 169 161 
0.216127 0.369725 5.18352 36 109 79 
-0.0948677 0.393132 5.3392 146 146 138 
-0.081602 0.393325 5.30238 159 162 153 
0.355242 0.411342 5.14336 11 21 0 
1.28126 0.453454 5.57464 0 19 5 
-1.15479 0.52108 5.72724 33 25 6 
-1.1139 0.521188 5.69268 8 7 2 
1.26043 0.535561 5.57458 0 33 17 
-0.937349 0.564843 5.70027 21 20 18 
0.692676 0.545882 4.71026 182 159 118 
-0.0903135 0.734641 5.36561 119 109 99 
0.0568304 1.17862 5.45989 215 205 196 
-0.252109 1.37602 6.02012 122 69 0 
-0.869207 1.57998 6.8164 148 104 33 
0.747145 1.25861 5.31903 39 12 0 
-0.84225 1.56645 6.59245 199 156 41 
0.154377 1.30469 5.47709 104 96 93 
0.695625 1.32206 5.35039 140 111 77 
0.134261 1.43938 5.53001 134 124 115 
0.165482 1.46639 5.53921 205 195 186 
0.487774 1.71548 5.85336 87 89 78 
0.746315 1.24289 5.3207 149 117 92 
-0.0239098 0.735395 5.34174 74 67 59 
-0.925809 0.602183 5.77653 104 101 86 
-1.01553 0.579225 5.68678 142 142 140 
-1.12443 0.515453 5.68508 119 118 113 
-0.0935464 0.390345 5.31933 121 122 117 
0.476692 0.372109 5.09389 211 162 122 
-0.0857394 0.387206 5.32806 85 88 79 
-1.05052 0.265745 5.70442 177 154 52 
-1.41091 -0.10644 5.17564 116 116 116 
-1.03998 -1.09562 4.77781 105 38 0 
0.260028 -0.667269 4.96363 82 64 26 
-1.2594 -0.957726 6.68273 71 52 19 
-1.07188 2.30271 7.01264 92 52 0 
0.147536 -0.946377 6.18733 11 84 57 
-1.25314 -0.69639 4.91621 88 32 0 
0.918208 1.40797 5.1914 255 255 241 
0.164311 1.4162 5.54375 188 178 169 
-1.21419 -0.775177 6.72233 44 27 0 
0.139816 1.09724 5.48638 167 164 159 
-0.745734 -1.07759 6.24218 0 46 14 
0.726245 0.531393 4.68883 38 27 5 
-1.60637 0.416117 5.94586 215 186 154 
-1.22712 0.365616 5.70347 203 168 52 
-1.96307 -0.367377 5.42641 15 15 17 
-1.04948 0.276259 5.67046 171 147 41 
-0.741233 -1.32454 6.26236 65 150 93 
-0.940074 -1.49213 6.30718 0 69 24 
0.289582 0.0506476 5.19664 21 98 64 
-1.51655 -0.0986722 5.1232 134 130 129 
0.131238 1.45072 5.53563 200 187 178 
-1.71886 -0.214738 5.19188 15 8 2 
1.56741 -0.497146 5.29095 155 130 90 
-1.27968 0.181215 5.6108 187 154 25 
-0.834 1.61644 6.75505 200 156 33 
-1.12804 -1.42442 6.39506 177 117 81 
0.564588 -0.235225 5.21726 3 84 52 
-0.246165 0.258499 5.27376 138 126 114 
0.0303337 1.09267 5.42787 143 133 123 
-1.73786 -1.1668 4.70227 162 111 2 
0.134966 1.40494 5.51723 152 142 133 
0.103208 1.1328 5.48299 139 130 123 
-0.0209381 -2.08427 6.88036 76 58 34 
-0.0645516 -2.09708 6.94165 62 45 25 
-0.0270398 -2.07817 6.90037 39 26 10 
-0.908661 1.63465 6.6081 109 56 6 
0.713385 1.31997 5.35902 61 28 0 
0.156798 1.34731 5.50516 208 195 186 
0.107722 1.34063 5.4788 80 70 58 
0.104434 1.33419 5.50772 69 55 44 
0.148815 1.31936 5.52624 100 89 85 
-0.876518 1.60285 6.81535 95 50 0 
0.750681 1.24749 5.35537 161 127 100 
0.732335 0.559851 4.64679 61 49 27 
-0.183021 0.431936 5.30951 71 57 46 
-0.0884024 0.403345 5.34706 171 172 164 
-1.09515 0.385157 5.67524 114 90 30 
-0.760234 0.387398 5.75284 176 148 22 
1.24718 -0.971696 6.37673 56 39 19 
-0.203338 0.210668 5.28133 82 65 45 
-1.25124 -0.696097 4.90344 90 34 0 
-1.23489 -0.895942 6.66009 31 13 0 
1.47297 -0.827412 6.44914 47 24 16 
-0.188444 -0.0412728 5.43364 36 109 80 
-1.45367 -0.150223 5.12155 117 116 121 
0.654931 -0.459945 5.44694 0 76 42 
-1.27711 -0.381312 5.08448 185 147 22 
0.159443 1.47633 5.56051 206 196 187 
-1.01638 1.78106 6.73732 202 148 22 
-0.856543 1.58841 6.65827 208 165 50 
-0.253017 1.38027 6.04117 121 69 0 
-1.31478 -0.463009 4.94422 186 149 34 
0.502854 -0.231969 5.27593 15 14 0 
-1.05019 -1.48822 6.35619 53 159 97 
-0.929196 0.586746 5.72242 96 93 88 
1.26233 0.44986 5.58796 0 32 17 
-0.84255 -0.069929 5.71596 87 89 86 
-0.582292 0.246631 5.8698 160 131 27 
-1.50229 2.64486 7.93841 147 130 112 
0.368109 1.6988 5.60746 146 136 124 
-1.44459 -0.448072 4.91557 188 159 31 
-0.991441 -0.622106 6.83845 68 94 69 
0.561861 -0.227856 5.26947 0 55 30 
-0.814123 -0.0496885 5.68821 75 74 70 
-1.58571 -0.155736 5.13879 70 68 69 
-1.49769 2.60036 7.79116 174 157 141 
-1.72012 -0.60077 4.80996 202 172 26 
0.48759 -0.087866 5.18414 0 70 41 
-0.76462 -1.21919 6.24353 7 84 42 
0.71625 1.08535 5.30535 16 23 5 
0.128858 1.44539 5.52012 214 201 192 
-0.931889 1.65481 6.37767 136 85 2 
0.703477 0.56137 4.66689 36 30 6 
-1.08658 0.514442 5.69545 7 9 8 
-0.174107 0.447899 5.3103 78 62 46 
-0.128598 0.40922 5.31369 86 79 69 
-1.10851 0.405644 5.69342 214 194 73 
-0.254758 0.20243 5.24778 95 82 65 
-1.03432 -0.301094 5.3586 9 8 6 
-1.90292 -0.429316 5.28005 148 150 147 
1.15407 -0.442377 5.55959 184 168 117 
-1.53372 -0.740304 4.93951 215 170 53 
-1.24137 -0.899634 6.67986 62 41 20 
-1.1269 0.681921 5.77751 94 85 78 
-1.06307 2.27528 6.95058 89 48 0 
0.705622 0.508718 4.67327 173 150 106 
0.227209 -0.625638 4.91554 101 81 44 
-0.0239283 0.736567 5.35414 74 67 59 
0.248956 -0.626267 4.92357 90 70 33 
1.2763 0.454834 5.5627 0 14 4 
-0.105755 0.350811 5.28699 109 111 100 
-1.26055 0.165677 5.59421 160 113 21 
-1.22763 -1.46772 6.44016 194 156 119 
-0.939426 1.70884 6.52649 213 168 43 
0.585613 -0.883876 5.7851 69 57 31 
-0.817101 1.49782 7.05011 143 93 8 
-0.982611 1.69682 6.58633 214 174 63 
0.931015 1.17096 5.36692 128 89 56 
-0.934277 1.63572 6.48774 140 85 2 
-0.834144 1.52963 6.86547 110 54 5 
-0.78922 -1.28238 6.20923 9 103 51 
1.02536 1.2165 5.40982 155 124 93 
-0.8539 1.55852 6.73932 174 134 46 
-0.93207 1.6302 6.52012 134 77 0 
-0.74472 -1.08735 6.25879 0 36 15 
-1.70163 -0.217322 5.15153 20 3 0 
0.592827 -0.104166 5.25291 13 102 70 
0.16549 1.40982 5.50812 185 175 166 
1.18393 -0.0708001 5.56442 10 21 4 
-0.962174 1.73421 6.54236 215 165 32 
0.910494 1.39734 5.19369 255 250 220 
-1.00643 -1.57735 6.39227 47 120 74 
-1.11924 -1.4776 6.36654 24 84 32 
-0.583751 0.241949 5.88256 146 117 15 
-0.0784252 0.251776 5.32557 22 32 23 
-1.24249 -0.702523 4.9379 90 30 6 
-1.01129 -0.704049 6.78591 7 14 0 
0.368909 1.69565 5.59597 155 145 133 
0.401963 1.72167 5.63999 159 151 138 
-0.525705 0.3596 5.86054 163 132 39 
-0.501027 0.391132 5.86333 175 142 35 
-1.01431 1.75228 6.7705 221 182 79 
-0.924834 1.66485 6.56712 216 168 58 
0.715351 1.30861 5.33074 56 22 0 
-0.812452 -1.54411 6.31327 61 146 87 
-0.902146 1.66347 7.43239 109 53 4 
-0.747638 -1.33151 6.29292 67 152 95 
0.0731918 -0.999743 6.23539 83 69 34 
-1.52894 -0.742774 4.92096 228 181 63 
-1.24482 -0.902728 6.72607 31 10 0 
0.218999 -0.647718 4.96891 124 110 61 
-0.0940274 0.375614 5.33518 163 165 154 
-0.0524731 0.238073 5.18988 30 117 83 
-1.2589 -0.483339 4.95434 175 140 22 
-0.254335 0.208546 5.28479 85 69 44 
-1.95281 -0.416469 5.37843 51 51 51 
-1.2788 -0.388397 5.02857 189 155 47 
-1.09643 0.0289416 5.80316 172 134 27 
-1.41875 -0.37126 5.04886 184 153 10 
-1.041 -0.323764 5.38223 15 3 3 
0.57018 -0.09595 5.25636 2 43 27 
-0.425344 -0.241717 5.45625 232 231 226 
-0.426638 -0.221521 5.4767 161 147 118 
-1.43736 2.6058 8.00869 223 211 199 
-0.958502 1.63213 6.80913 205 160 15 
-0.0284667 0.746502 5.41395 161 154 146 
0.505485 -0.226265 5.33989 26 16 7 
-0.502274 0.381733 5.83591 181 148 43 
0.153379 1.49703 5.63091 205 195 186 
1.2462 -0.94911 6.38489 84 64 31 
-1.45187 -0.145916 5.13112 108 108 108 
-1.44697 -0.132266 5.12135 28 26 27 
-1.517 -0.100923 5.11731 130 130 128 
-1.2619 -0.0424313 5.39735 28 14 0 
-1.39386 0.0184679 5.31848 109 90 57 
-1.10725 0.411905 5.70146 201 179 93 
1.54 0.48432 5.64591 46 20 0 
1.2817 0.596536 5.59377 39 112 82 
0.650771 1.15671 5.33913 85 61 27 
0.739768 1.22615 5.29511 171 135 99 
0.739742 1.24438 5.26188 94 64 40 
0.689515 1.30414 5.30143 155 119 83 
0.7055 1.30505 5.30842 42 16 0 
-0.838057 1.53569 6.57963 136 85 4 
0.0552852 -1.03956 6.24412 100 88 72 
-1.44145 -0.449746 4.90025 205 174 49 
0.497647 -0.206387 5.29496 34 63 45 
-1.87105 -0.10459 5.4213 50 36 0 
0.43928 0.456011 5.08455 87 46 2 
1.3085 0.601491 5.58133 44 128 95 
0.193186 1.41909 5.45812 74 64 54 
0.165052 1.43977 5.46803 206 197 182 
-0.825209 1.54016 6.50781 201 153 43 
0.400938 1.70499 5.6048 166 156 147 
-0.962582 -1.47886 6.32012 6 94 44 
-0.892218 -1.17432 6.31732 40 118 66 
-1.31271 -0.468563 4.95153 155 114 9 
-1.26664 -0.0180504 5.37087 97 77 26 
-0.824591 -0.0553291 5.70395 160 159 154 
0.604782 0.247241 5.23198 197 153 114 
-0.934535 0.56405 5.69685 34 33 31 
0.650536 1.18104 5.32368 49 34 5 
-0.873296 1.58331 6.40746 127 73 1 
0.581933 -0.869619 5.79016 95 80 59 
-0.303275 -0.685427 5.82258 46 148 111 
1.58859 -0.516188 5.31073 138 116 79 
0.700475 -0.329499 5.42377 42 139 106 
-1.52049 -0.0997173 5.12651 135 135 133 
-1.20847 -0.0562801 5.41124 43 27 12 
-0.268309 0.216642 5.30632 195 181 168 
0.438059 0.454868 5.09561 102 58 13 
1.98166 0.679112 5.47517 177 155 116 
0.644392 1.15911 5.35766 0 11 0 
-0.589091 2.41852 6.42748 220 180 20 
0.150748 1.29813 5.46104 68 60 47 
1.53714 0.486683 5.65758 31 4 0 
-1.40814 -0.372541 4.99298 184 154 22 
0.208455 -0.111627 5.2347 0 13 6 
-1.19452 -0.0569758 5.40371 103 89 78 
-0.803156 -1.47787 6.3221 45 113 72 
0.352681 0.415564 5.1694 18 14 3 
-0.737212 -1.07475 6.20843 2 38 12 
0.250248 -0.626209 4.89853 87 64 33 
0.662699 -0.883655 5.79244 21 8 0 
1.44056 1.40526 6.05183 37 24 5 
-1.30868 -0.48858 4.96375 208 178 30 
0.228693 -0.242301 5.17917 14 0 0 
1.45395 0.422866 5.77438 203 179 153 
-1.45606 -0.150007 5.12205 135 133 136 
-1.04996 0.2635 5.6852 187 166 25 
-1.41366 -0.109223 5.13808 10 6 7 
-0.122927 0.224328 5.34437 183 184 178 
-0.196013 -0.122376 5.46843 36 99 70 
-1.22913 -1.46913 6.46352 185 145 109 
-0.91692 1.60364 6.43346 171 123 0 
-1.46137 -0.155384 5.13609 82 80 83 
-0.0594294 0.249191 5.25635 55 117 94 
0.619117 -0.0984254 5.26101 0 69 40 
-0.126663 0.200606 5.30343 174 173 169 
-1.22889 0.150242 5.61035 196 152 19 
-0.809349 -1.54413 6.31878 81 105 73 
0.923947 1.15499 5.32472 123 87 55 
-1.39098 -0.356697 4.98779 186 157 17 
0.535682 1.91943 5.80271 74 58 43 
0.659194 -0.86749 5.81719 18 3 0 
-0.918693 1.60758 6.45817 147 99 0 
1.16594 -0.365861 5.61313 177 151 114 
0.147912 1.37839 5.43115 90 80 70 
-0.05948 -2.10498 6.94159 54 37 21 
-1.20678 -1.31077 6.37454 86 62 26 
0.189349 -1.03843 6.37855 193 195 181 
-1.51654 -0.715146 4.88925 37 0 0 
-1.00352 -0.704993 4.93681 175 142 29 
0.262194 -0.68872 4.89109 125 98 55 
-1.50213 -0.665362 4.82003 28 0 0 
-1.48048 -0.669116 4.83241 38 13 0 
0.266062 -0.6823 4.9171 100 77 36 
0.643518 -0.816835 5.84868 250 230 206 
0.220925 -0.661046 4.87844 168 148 111 
0.640627 -0.806736 5.83124 255 247 225 
0.274299 -0.652749 4.86446 116 98 52 
-1.24111 -0.889258 6.70669 87 71 37 
1.57174 -0.528523 5.27099 188 163 123 
1.59238 -0.515663 5.29321 213 195 157 
-1.25552 -0.36955 5.01928 179 144 40 
1.16849 -0.430311 5.57537 71 48 16 
0.999919 -0.396469 5.57938 41 135 101 
0.887542 -0.35987 5.52711 0 51 29 
0.498216 -0.206908 5.28957 44 71 56 
-1.44681 -0.148302 5.11047 124 124 124 
-1.44264 -0.134326 5.10392 52 52 52 
-1.60338 -0.0617958 5.16502 53 52 50 
0.546226 -0.0422394 5.23563 26 80 56 
0.243424 0.0218716 5.18308 64 112 96 
1.35845 0.0203979 5.64321 132 197 175 
0.443674 0.165214 5.15 53 151 112 
-0.535393 0.340553 5.91374 143 108 44 
-0.535759 0.363589 5.91837 175 138 67 
-1.10657 0.394319 5.7414 75 57 7 
-1.11213 0.398832 5.70346 184 158 61 
1.52954 0.470683 5.67904 225 180 147 
2.59661 0.808105 6.80251 236 220 186 
2.60699 0.81616 6.84032 232 216 183 
0.187402 1.01475 5.37004 45 88 69 
0.145998 1.43882 5.46866 79 71 60 
-1.36966 2.40893 7.31074 152 140 124 
-0.979817 2.35303 6.57144 253 217 35 
1.42231 2.41233 6.59202 118 87 4 
-1.7082 -1.16191 4.6124 153 111 13 
-1.06476 -1.50518 6.35859 49 139 88 
-0.745084 -1.07258 6.24363 6 73 32 
0.174787 -1.09061 6.40158 226 224 212 
-0.996432 -0.723426 4.95152 210 181 55 
0.673293 -0.866783 5.80554 97 78 72 
0.869624 -0.854391 6.01814 28 31 0 
0.251786 -0.624049 4.88201 115 95 58 
0.706435 -0.647914 5.6783 31 96 66 
0.7481 -0.643477 5.68709 42 151 109 
-1.28227 -0.465569 4.90121 199 161 62 
1.53161 -0.516293 5.29722 251 237 200 
-1.27867 -0.380941 5.0073 171 141 21 
-1.02127 -0.336518 5.32386 15 6 0 
1.16022 -0.368958 5.50617 58 28 2 
0.887438 -0.359021 5.53909 0 63 42 
-1.44071 -0.151481 5.08489 99 101 100 
0.748081 -0.190977 5.49901 0 28 13 
-1.4018 -0.109526 5.14087 96 95 100 
-1.51174 -0.103169 5.09929 123 119 116 
-1.25812 -0.0443861 5.38189 17 3 0 
1.20188 -0.0699847 5.53754 45 73 58 
-0.811405 -0.0492837 5.67596 66 62 59 
-1.38622 0.0146912 5.29133 82 67 46 
-1.39757 0.0203398 5.29289 24 9 0 
-0.701512 0.0878621 5.78486 18 2 0 
-0.176918 0.174289 5.30792 106 106 96 
-1.00863 0.225178 5.64084 60 38 1 
-1.22088 0.361208 5.67872 199 167 68 
-0.507272 0.400206 5.93256 173 140 47 
-1.07016 0.510377 5.6488 27 26 22 
0.725334 0.52114 4.63226 81 61 34 
0.0226882 0.86491 5.38391 112 108 97 
0.0112539 1.0354 5.39664 136 127 118 
1.30611 1.09562 5.87543 0 33 19 
0.952896 1.17593 5.30919 98 62 30 
0.13885 1.40889 5.44214 142 132 122 
-1.04732 1.77949 6.53879 199 160 5 
-1.32477 2.50632 6.96903 199 182 164 
1.4342 2.40589 6.58701 157 129 55 
1.49355 2.45039 6.59215 186 158 48 
1.63209 2.54583 6.8062 162 121 39 
1.65319 2.58013 6.78081 148 99 4 
1.49933 2.74697 6.50954 185 148 42 
-0.0145207 -2.09503 6.94641 42 27 8 
-1.06393 -1.21332 4.75597 255 255 130 
-1.02771 -1.12029 4.70436 102 51 0 
-1.04165 -1.48502 6.34034 56 141 84 
-1.12894 -1.42508 6.40983 170 110 76 
0.0132011 -1.17746 6.49023 87 116 85 
0.0792577 -1.0482 6.26217 177 170 160 
-0.803572 -1.01361 6.29044 64 143 98 
-1.23599 -0.965188 6.68368 44 30 3 
-1.16913 -0.663025 4.86879 185 144 36 
-1.5044 -0.644821 4.79889 168 133 31 
0.28085 -0.669992 4.92191 144 122 81 
-0.782944 -0.881854 6.34388 68 136 95 
-1.20115 -0.778684 6.75536 36 22 0 
-0.994713 -0.616364 6.88816 75 97 76 
-1.21662 -0.617588 6.94727 115 100 71 
-1.43913 -0.136414 5.0932 33 33 33 
1.32984 -0.13789 5.56454 89 69 58 
0.367502 -0.0578364 5.19424 32 130 91 
0.561009 -0.0451656 5.22823 27 85 60 
1.96658 0.0358996 6.62805 44 16 5 
-0.972894 0.0969661 5.74092 138 138 104 
-0.0563136 0.250428 5.22979 58 111 93 
0.181609 0.280626 5.13881 34 118 85 
-1.06936 0.507331 5.70382 72 70 71 
1.53223 0.470153 5.69298 225 180 147 
0.733548 0.50999 4.64672 204 182 141 
1.62715 0.54162 5.66841 233 221 181 
1.49191 0.556581 5.64281 192 158 120 
-0.0780157 0.759229 5.37498 60 48 36 
1.69732 1.04911 6.28532 68 103 81 
0.859065 1.04639 5.34611 83 61 40 
0.0924708 1.31396 5.45183 215 202 194 
0.158015 1.31341 5.43536 74 61 45 
-0.844837 1.54365 6.61654 101 48 0 
-0.883658 1.59477 6.49709 96 50 0 
-0.918118 1.63695 6.40768 226 183 44 
-1.31846 2.49677 6.93706 196 179 159 
1.4375 2.41294 6.60357 168 143 53 
-0.959285 2.62242 6.56876 232 198 28 
1.42938 2.98546 6.71169 69 51 41 
-3.66286 2.99655 6.13817 168 156 142 
1.92415 3.12965 6.42486 142 123 108 
-0.0566229 -2.10491 6.93023 79 60 43 
-1.4457 -1.19581 4.66448 160 113 5 
-1.1613 -1.5082 6.4054 175 114 83 
-0.919982 -1.43021 6.26713 1 88 37 
-0.891952 -1.42718 6.2739 30 130 80 
-1.20459 -1.30772 6.34727 92 68 32 
0.0783706 -1.04385 6.23784 169 161 148 
-1.28908 -1.11339 6.69501 143 132 110 
0.0735077 -0.988591 6.2813 74 66 55 
-1.23913 -0.965254 6.69919 40 26 0 
-1.25876 -0.957238 6.70899 51 37 8 
0.264225 -0.682059 4.93981 104 82 43 
0.215563 -0.672392 4.90242 140 118 77 
0.197694 -0.639065 4.90129 145 125 88 
-1.69782 -0.604296 4.74202 193 162 37 
0.22843 -0.625968 4.88716 104 83 54 
-1.15823 -0.800498 6.79521 19 6 0 
-1.19907 -0.778879 6.74476 43 28 0 
-0.602796 -0.482206 5.63988 205 201 192 
0.904557 -0.460456 5.58524 0 67 41 
-1.0364 -0.299146 5.36257 12 10 13 
-1.20727 -0.422116 7.43172 63 48 29 
0.241569 -0.230574 5.1903 104 83 64 
-0.413193 -0.238962 5.45843 242 243 229 
-1.58539 -0.146853 5.10195 37 32 36 
-0.889948 -0.102041 5.77935 152 152 150 
-0.848161 -0.0282216 5.66669 75 77 76 
0.290229 0.0499564 5.18736 28 95 64 
-0.961635 0.082087 5.70772 78 73 43 
-0.973906 0.0893054 5.75953 88 83 51 
1.83349 0.127964 6.36708 6 34 22 
0.62747 0.24532 5.22838 255 234 204 
1.52615 0.321317 5.83358 14 21 3 
-1.586 0.392469 5.86757 143 107 23 
-1.09295 0.388079 5.67899 78 60 12 
-0.0877382 0.390845 5.35062 92 93 85 
1.26008 0.447092 5.57328 0 32 17 
-1.01235 0.575617 5.66892 134 134 132 
1.65359 0.548038 5.649 254 255 234 
-0.978547 0.64253 5.73053 36 32 29 
-0.0256881 0.711758 5.35909 106 97 88 
1.40121 0.870715 5.77676 7 33 20 
0.478028 1.66927 5.73122 80 88 73 
1.5657 2.07672 6.47168 43 28 5 
-1.47222 2.5011 7.37873 207 191 178 
1.30637 2.27433 6.58891 42 16 0 
-1.49123 2.63949 7.04014 234 220 207 
-1.31212 2.58538 6.86596 192 158 58 
1.58665 2.6058 6.73272 148 108 0 
-0.379624 2.92958 6.69467 55 32 0 
0.906955 2.95255 6.76637 179 161 147 
1.45807 2.9779 6.71306 100 83 73 
1.66948 3.04527 6.58238 105 81 47 
-0.391994 3.09809 6.20653 206 187 172 
-0.895447 -0.0984672 5.79454 166 165 160 
1.52692 2.79573 6.59985 94 48 0 
1.62964 2.54916 6.78805 183 145 48 
-1.4863 2.62929 7.01565 240 226 213 
1.41644 2.40681 6.58149 107 73 2 
-1.43278 2.49955 7.03746 148 134 123 
-0.95142 -1.47286 6.29144 0 54 11 
-0.874395 -1.44453 6.263 57 143 98 
-1.03173 2.34964 6.69767 220 179 29 
-0.921401 -1.43315 6.28367 7 97 45 
-0.740467 -1.07719 6.23281 0 37 7 
0.0575376 -1.05977 6.27653 225 218 208 
-1.51966 -0.739229 4.89072 211 171 76 
-1.24002 -0.977479 6.66141 131 117 88 
-1.25011 -0.68013 4.87914 199 161 24 
-1.24439 -0.962661 6.71285 36 24 0 
-1.51193 -0.657071 4.82312 102 63 0 
0.254934 -0.647351 4.86355 207 188 145 
0.232171 -0.627265 4.87563 93 73 46 
0.366729 1.68612 5.5768 156 146 134 
1.57709 -0.504504 5.29016 135 113 74 
0.155312 1.337 5.48147 212 202 190 
1.14841 -0.451517 5.74178 250 225 221 
0.137216 1.08893 5.4674 167 167 155 
0.503965 -0.232072 5.26156 19 19 0 
0.0686466 1.04214 5.39871 129 120 111 
-1.81845 -0.097763 5.40766 126 103 49 
1.18627 -0.0656897 5.57075 0 33 14 
-0.190886 -0.0373495 5.46561 39 105 77 
-0.80341 0.064917 5.68512 115 118 109 
-1.27521 0.153374 5.62217 89 41 0 
-1.01668 0.576053 5.67811 138 138 136 
-0.0812465 0.257246 5.3593 21 41 30 
-0.842963 0.519869 5.77703 187 160 43 
-0.504673 0.397192 5.89466 175 145 47 
0.472251 0.385875 5.06956 107 70 26 
2.32529 2.9642 6.88999 221 209 197 
-1.72286 -1.18151 4.61941 224 206 170 
1.65196 0.545768 5.66049 252 255 234 
1.30459 0.1444 5.62867 38 79 65 
1.23696 -0.00101117 5.55315 0 45 24 
-1.7997 2.61645 7.39018 210 192 178 
1.26663 -0.0343074 5.61889 46 91 71 
-1.23146 -0.704275 4.89022 86 33 2 
1.37099 0.992942 5.87368 10 33 23 
-0.0937063 -0.260279 5.37066 3 92 62 
0.0992085 1.14547 5.42794 144 134 125 
-0.951812 -1.47518 6.3063 0 58 16 
1.64184 3.00765 6.60105 54 29 0 
-1.108 0.514862 5.69495 2 1 0 
0.488936 0.356237 5.08385 145 98 44 
0.5884 -0.882343 5.78442 46 34 8 
-1.24869 -0.697715 4.87232 97 48 0 
-0.132629 0.222293 5.33038 197 198 193 
0.235524 -0.661216 4.87897 81 61 24 
-0.257004 0.206987 5.27514 68 56 42 
1.49167 -0.853332 6.45798 28 20 0 
1.46942 2.48767 6.61829 139 104 4 
1.16503 -0.444331 5.61693 207 172 134 
-1.27276 -0.391515 5.00824 196 166 44 
-1.90311 -0.429489 5.28031 140 143 136 
-1.21785 2.52849 6.79903 211 167 0 
-1.20945 -0.778974 6.78489 34 20 0 
-1.01999 2.3246 6.63491 217 173 42 
0.593767 -0.103131 5.2534 33 114 82 
0.621898 -0.0981162 5.25873 0 61 37 
-1.24591 -0.0546935 5.40598 58 41 21 
-0.818628 -0.0364485 5.67567 96 95 93 
-1.20506 0.133499 5.65455 228 189 23 
1.57992 2.58439 6.68991 136 98 0 
1.51134 2.78136 6.59817 177 140 33 
0.472101 0.383874 5.05961 89 48 4 
-0.74211 -1.08692 6.25077 0 29 3 
0.430903 0.462959 5.08034 129 86 44 
-0.757046 0.549778 5.7707 187 159 24 
-1.11914 -1.47787 6.37251 53 71 31 
1.8757 3.08435 6.40678 86 61 30 
-0.375282 2.90807 6.64891 60 36 2 
2.3375 2.97737 6.9354 221 207 196 
1.91285 -0.201785 6.5472 182 152 124 
0.161975 1.28201 5.43837 189 185 182 
1.50591 0.538617 5.60816 67 33 0 
-1.0559 0.497685 5.68596 96 96 98 
0.486808 0.358924 5.09892 116 66 13 
0.0718688 -1.00017 6.27805 80 58 37 
1.66141 3.01786 6.57887 60 34 9 
1.02263 -0.346288 5.56577 5 21 11 
0.396061 1.70675 5.62902 167 158 151 
-0.925972 1.56503 6.5941 207 167 10 
-0.812808 1.48842 6.72795 117 61 0 
-1.40772 -0.375426 4.99912 188 152 16 
-0.993797 2.12094 6.5372 92 50 8 
0.645325 -0.73918 5.71184 40 131 98 
-1.05788 -0.285916 5.37546 61 57 56 
-0.809909 -1.54358 6.3105 46 130 81 
-0.791744 -0.886528 6.36692 60 125 85 
-1.51808 -0.641894 4.81441 196 161 35 
1.46707 2.50027 6.66652 147 106 0 
1.89752 2.95325 6.35077 243 214 60 
-1.48012 2.61751 6.9997 242 230 216 
-0.922549 -1.44224 6.27658 0 56 13 
-0.829968 -0.0382829 5.71472 94 94 92 
-0.859574 -0.0249904 5.75134 56 58 57 
-1.57963 0.402827 5.84468 198 167 121 
-0.871961 -1.28524 6.30695 10 102 55 
-1.45976 2.50747 7.03647 201 184 174 
1.43373 2.99965 6.75217 76 57 50 
1.51742 2.77105 6.5454 107 65 0 
1.29946 2.2767 6.61154 57 33 7 
-0.972732 -1.50855 6.34557 38 147 90 
-0.800651 -1.46743 6.29146 54 132 90 
-1.11442 -1.48025 6.38515 26 68 30 
-1.22341 -1.46201 6.42856 195 153 113 
0.396898 1.72179 5.66992 171 161 151 
-0.745805 -1.32964 6.25978 65 148 102 
-0.791031 -1.29184 6.3011 1 86 47 
-1.27483 -0.78738 4.98216 227 172 69 
1.2472 -0.982935 6.44418 37 26 8 
-1.49886 -0.677474 4.83751 15 5 3 
-1.5103 -0.637871 4.78035 144 110 3 
-0.918519 2.42053 6.49435 172 130 12 
-1.26909 -0.481815 4.91898 215 186 24 
1.40866 2.39613 6.57086 89 56 11 
-1.43039 -0.45969 4.87314 187 159 33 
0.206449 1.03642 5.36493 11 116 76 
-1.8986 -0.430365 5.25341 143 148 142 
1.61165 2.47741 6.77064 89 40 0 
1.16974 -0.363916 5.63544 164 142 103 
-0.308606 -0.277007 5.55036 0 32 19 
-0.403832 -0.262149 5.48439 5 56 37 
1.51557 2.97848 6.71908 48 31 13 
-1.03557 0.587089 5.72863 136 136 136 
1.50432 0.535039 5.58491 68 34 0 
1.45921 2.48131 6.62231 152 111 3 
1.53261 0.493961 5.66329 32 12 1 
1.51995 2.7052 6.58552 129 88 0 
-0.525729 -0.118148 5.3715 124 116 95 
-1.42315 0.0119356 5.28347 28 29 15 
1.5864 2.59078 6.72688 127 90 2 
-0.931815 -0.00415975 5.73356 23 22 2 
-0.981974 2.64136 6.64072 234 201 12 
0.22133 0.0240011 5.19975 15 102 70 
1.06461 0.282356 5.54586 6 27 20 
-1.06032 0.264787 5.70146 188 158 28 
-0.932728 -1.29932 6.29251 1 65 28 
-0.0284413 0.910916 5.39112 70 57 49 
0.149185 -0.103402 5.20955 170 252 216 
0.152168 1.13164 5.44879 107 106 101 
1.31218 0.736336 5.59203 43 113 85 
0.0313949 1.09099 5.41597 136 126 116 
