ply                 
format ascii 1.0    
element vertex 1260
property float x    
property float y    
property float z    
property uchar red  
property uchar green
property uchar blue 
end_header          
-2.54506 0.220513 5.74347 178 145 104 
-2.84706 0.427944 5.78644 186 148 111 
-3.09205 -0.417223 5.4269 160 125 85 
1.69819 -1.33202 5.74751 185 151 123 
-2.3643 1.00577 6.04647 133 97 65 
-2.78419 1.01049 5.99149 135 99 65 
2.30354 -1.45769 5.83921 189 171 149 
-0.514058 -0.510208 3.74009 53 89 63 
-3.29936 0.938153 5.89852 67 46 27 
-3.28793 0.788399 5.85555 51 25 12 
1.99239 -1.54862 5.7647 213 200 184 
-2.00384 -0.915053 5.41244 146 115 84 
1.80404 -1.23229 5.79449 175 159 144 
-2.54054 0.33922 5.79572 150 115 77 
-0.567683 -0.636542 3.68777 157 108 68 
-2.34481 0.447503 5.86389 164 131 90 
-2.6448 1.68263 6.26871 183 144 103 
1.1608 -1.8057 5.51083 190 155 125 
-3.4793 2.08137 6.29653 92 70 46 
-2.93878 0.63344 5.8489 169 136 101 
-0.564438 0.373504 3.80534 217 215 218 
-0.765234 -0.291443 3.78141 226 93 146 
-2.71234 1.15705 6.05204 175 139 105 
-0.600726 -0.513583 3.73111 155 32 37 
-0.733481 -0.963845 3.55678 43 0 1 
-0.637752 -0.696728 3.65173 148 38 37 
-3.22047 1.57054 6.14232 195 153 111 
1.76708 -1.07276 5.84797 169 126 83 
-3.47033 1.77966 6.17497 114 88 63 
0.65398 1.09341 4.40183 76 61 64 
0.391064 0.982639 4.3377 71 57 48 
-2.96723 0.867475 5.91574 164 132 94 
1.77373 -1.57852 5.68391 152 111 83 
-2.65312 0.906764 5.9756 135 103 65 
-0.944746 -0.959486 3.52854 227 78 116 
1.96796 -1.37825 5.83325 200 184 168 
0.271482 1.02314 4.29042 148 107 85 
-2.60198 1.36063 6.14986 201 163 126 
-2.62685 1.4238 6.16869 170 137 106 
2.18196 -1.33367 5.85886 179 165 154 
-2.5027 -0.475359 5.49809 174 141 106 
-0.569305 -0.561144 3.71492 152 41 47 
1.82714 -1.18839 5.79646 163 144 127 
-2.89126 1.52797 6.16905 190 147 112 
-3.57641 1.98544 6.20589 104 77 50 
-2.88296 0.0705413 5.63513 208 164 115 
-2.8743 0.0850694 5.64596 166 125 79 
-0.341822 -0.965823 3.59782 181 43 76 
-0.581938 -0.61333 3.69172 140 94 70 
-3.0906 1.43392 6.10574 198 167 123 
-2.41682 1.0935 6.08661 124 90 55 
-0.476027 -0.491007 3.74902 46 53 37 
-2.5459 -1.23241 5.23469 163 126 97 
-0.535385 -0.51872 3.73128 84 62 49 
-0.711692 -0.468844 3.72482 0 13 6 
-0.726236 -0.804337 3.61037 91 132 102 
2.0103 -0.839564 5.99916 164 147 127 
0.476505 1.13108 4.40062 80 69 63 
-0.593387 -0.48679 3.73134 143 36 42 
-3.04571 0.593525 5.81135 145 115 81 
-2.46366 0.176636 5.72339 181 149 110 
-0.686601 -0.8038 3.61353 87 105 83 
-2.51318 0.431753 5.82641 135 102 67 
-2.97517 0.982914 5.96265 154 120 85 
-0.576682 -0.403167 3.76784 80 50 40 
-2.51135 -0.690604 5.42125 150 120 94 
-0.545514 -0.630521 3.69394 161 107 79 
-2.58545 0.869889 5.97 147 118 84 
0.381424 1.07913 4.36408 73 62 56 
-0.234241 -0.735025 3.69829 160 83 75 
3.16773 -1.23058 6.01297 158 143 124 
-0.594343 -0.263915 3.80913 211 96 103 
1.4917 -1.55739 5.63582 156 125 96 
-3.1635 0.0711349 5.60247 147 118 86 
-2.26026 0.919308 6.0241 150 110 75 
-2.81709 0.264573 5.71366 184 146 99 
-1.08636 -0.832417 3.44417 30 16 15 
-0.353848 -0.832722 3.64668 26 25 23 
-2.23569 -0.71368 5.42861 194 148 96 
-0.357826 0.356217 4.03479 196 65 79 
-3.55529 1.63285 6.13376 99 77 54 
-2.5441 -1.23224 5.23078 163 126 97 
-0.838192 -0.680418 3.63927 73 145 97 
-2.73693 0.56996 5.85559 169 137 98 
-2.47829 1.40646 6.19249 202 162 111 
1.84547 -0.966282 5.8981 122 85 59 
1.83422 -0.955968 5.90107 153 119 91 
-2.9644 0.875047 5.92215 164 134 96 
-0.553478 -0.182793 3.75972 235 226 221 
-0.731444 -0.117372 3.84904 231 69 126 
1.74374 -0.984027 5.88604 114 83 55 
-0.702424 -0.441014 3.73429 63 101 76 
-2.44426 0.894092 5.99507 168 130 91 
-3.20772 0.575137 5.78671 118 87 66 
-1.98744 -1.41736 5.23535 144 115 81 
0.279706 1.04751 4.33989 143 108 78 
-0.435364 0.292502 4.00638 232 202 178 
-0.0764924 -0.310647 3.79767 59 30 32 
-0.659529 -0.817699 3.58805 124 80 53 
2.06316 -0.943287 5.97882 191 178 159 
-0.778882 0.026459 3.87845 127 15 11 
-2.25854 0.986911 6.03693 139 103 71 
-0.260619 -1.04111 3.57897 169 38 82 
0.903585 -1.61284 5.58633 147 117 91 
-2.71908 0.0956334 5.66444 204 161 118 
-0.0753765 -0.307926 3.79977 79 45 46 
1.36552 -1.61319 5.61035 147 111 75 
-2.64514 0.720631 5.90301 150 120 84 
-2.53406 -0.347058 5.54363 160 127 92 
-3.19831 1.13774 5.99575 159 121 84 
-1.14258 -0.868463 3.47126 211 49 99 
-0.0173168 1.47308 4.43113 196 175 170 
0.812328 -1.72844 5.51964 151 119 94 
-2.57053 -0.653191 5.4301 168 138 104 
-0.0610473 0.0028378 3.84348 43 102 106 
0.390204 0.129228 3.8612 146 142 141 
-0.492756 0.584234 3.87477 40 39 45 
-2.4053 -0.254673 5.58593 177 133 86 
0.838486 0.505747 3.68857 130 120 108 
-2.92329 0.629661 5.85141 186 152 114 
-2.95477 0.691416 5.85667 211 182 140 
-2.65102 -0.237508 5.56264 175 140 102 
-2.72366 1.11157 6.04814 165 127 88 
-1.01898 -0.983434 3.50006 198 63 121 
-2.47838 -0.145985 5.60312 148 115 80 
2.22344 -1.38602 5.85157 180 164 149 
1.704 -1.61427 5.64194 114 90 66 
-2.9572 1.83868 6.2633 234 194 145 
-2.68509 0.555147 5.83823 145 111 73 
-0.379562 0.606127 3.90957 196 194 197 
-2.02294 -1.28369 5.26674 155 122 87 
-3.12468 2.03308 6.33068 171 139 101 
-0.366869 -0.97418 3.59128 186 40 79 
2.7167 -1.60324 5.81651 195 178 162 
-1.68614 2.13681 6.54157 202 164 128 
-2.50592 0.150441 5.71545 146 110 74 
-3.2439 1.57605 6.12877 151 120 89 
-0.479822 0.296475 3.98961 195 160 140 
1.24996 -1.75915 5.53949 180 145 105 
-3.32122 2.09866 6.29194 115 89 64 
2.05739 -1.15027 5.90511 177 159 135 
-0.345493 -0.785834 3.66322 186 56 56 
0.185763 -0.556991 3.79299 232 229 224 
-0.638802 -0.677348 3.66116 137 70 53 
1.09782 -1.73364 5.5555 150 120 84 
-3.14793 0.0903508 5.62025 176 144 106 
-0.229872 -0.924047 3.62462 37 32 36 
-3.56275 1.9544 6.21421 100 72 51 
-3.07567 0.339404 5.68722 166 134 96 
1.79272 -1.23101 5.76528 156 139 123 
-0.826218 -0.810843 3.58958 59 95 69 
1.98737 -1.60184 5.73518 188 175 158 
-0.50312 -0.631069 3.69856 134 88 65 
2.18964 -1.33141 5.85454 175 161 148 
1.82731 -0.871196 5.90728 149 112 85 
-3.20418 0.656129 5.78915 107 77 51 
2.42851 -1.54028 5.80777 186 164 141 
-2.87064 0.811557 5.92726 164 126 87 
-0.728856 -0.787358 3.60116 71 111 84 
-0.228131 -0.994076 3.59591 165 39 86 
1.59408 -1.46411 5.69634 154 122 81 
-0.327208 0.423743 4.05905 195 182 166 
-3.19516 1.77661 6.2096 148 115 82 
1.34804 -1.74537 5.56082 147 107 71 
-0.489414 0.268202 3.98212 236 202 174 
-0.510843 -0.192241 3.76469 226 197 181 
3.06851 -1.58405 5.86999 158 142 119 
-2.44985 -0.767651 5.40835 159 123 87 
-2.87643 0.650122 5.84463 172 130 88 
-2.78094 -0.404436 5.49268 174 134 98 
1.75221 -1.22395 5.7891 180 139 93 
-3.53964 1.66223 6.13789 136 109 82 
2.22236 -1.33417 5.86871 187 175 159 
2.70218 -1.64486 5.79698 173 148 128 
-3.53025 1.80701 6.17708 122 97 67 
-0.642477 -0.693555 3.6523 163 66 57 
-1.07685 -0.706947 3.58596 193 62 102 
1.81943 -1.23397 5.83455 167 154 137 
-2.5074 0.151115 5.71807 156 118 79 
-0.327048 0.42317 4.05765 195 182 166 
-0.885085 -0.604898 3.65749 235 78 131 
-3.22297 2.11645 6.3313 189 157 118 
2.00461 -0.982546 5.96018 171 153 133 
0.607544 0.858021 4.30683 77 63 60 
2.7286 -1.60568 5.83768 196 179 163 
-0.460344 -0.485723 3.75114 135 132 115 
1.80243 -1.61811 5.66544 136 97 64 
-0.481728 -0.715701 3.66766 118 16 11 
1.80967 -1.60874 5.66924 146 112 84 
1.49443 -1.69472 5.60606 165 135 107 
-0.326152 1.45283 4.40951 148 130 120 
3.1357 -1.37527 5.95546 151 134 118 
-0.341518 -0.783358 3.66141 172 68 69 
-3.11374 0.850819 5.89711 102 76 51 
-2.52131 -1.33289 5.19873 161 135 100 
-0.293641 0.590972 3.93308 218 217 222 
-0.754556 -0.611626 3.67177 171 118 86 
-3.34157 1.9949 6.26466 93 66 45 
-2.77411 -0.15426 5.57992 174 135 92 
-2.10448 -0.720975 5.46711 168 135 102 
1.60218 -1.10187 5.81536 120 89 60 
-1.06842 -0.605193 3.60537 187 123 96 
0.290767 -0.449268 3.85396 200 187 171 
-2.56707 0.223362 5.73324 166 132 87 
2.01096 -0.653623 6.08531 191 175 160 
-0.59172 0.383805 3.80988 221 219 222 
1.53825 -1.50438 5.67016 180 149 118 
-0.491937 -1.12695 3.50648 98 22 50 
-3.15487 1.24409 6.02199 182 153 113 
-0.0666864 -0.986497 3.48148 161 28 83 
-0.893588 -1.06527 3.48609 146 24 75 
-3.52055 1.59093 6.10463 114 88 65 
-2.68945 0.314308 5.76085 159 125 87 
1.79939 -1.39699 5.78026 155 122 91 
2.95379 -1.14585 6.01977 143 121 107 
-0.59636 -0.54868 3.71288 144 40 31 
-1.51483 1.97594 6.5224 165 127 91 
1.84198 -1.01882 5.87854 168 134 99 
-2.56814 -0.420611 5.51115 187 151 117 
1.6234 -1.05934 5.83548 108 78 50 
-0.262709 0.37758 4.05494 194 162 139 
0.608982 0.86024 4.31191 77 65 65 
-0.708504 0.193875 3.81135 162 0 0 
2.10174 -0.94436 5.97251 189 173 150 
2.02387 -0.621661 5.96368 115 99 84 
-2.55438 0.479607 5.83198 149 116 83 
1.41653 -1.27524 5.7329 145 108 82 
-0.205777 0.322884 4.04539 136 167 162 
0.463379 0.450604 4.07002 215 210 216 
-3.14305 1.77196 6.22671 172 137 105 
0.0908172 0.206076 3.82598 40 40 42 
-0.83938 -1.0861 3.49798 151 22 78 
-0.0784064 -0.257725 3.8143 127 59 48 
0.200882 -0.275061 3.90337 229 226 219 
0.197939 0.178736 3.8405 223 223 223 
-2.19339 -1.04657 5.32569 185 147 108 
-2.13676 -1.60733 5.15373 181 141 105 
1.59756 -1.58264 5.65905 185 155 121 
1.47533 -1.56808 5.64774 157 127 99 
3.60911 -1.49443 5.98923 54 44 34 
-0.578121 -0.165555 3.76562 238 230 219 
-2.49071 0.402576 5.81332 136 107 75 
1.43697 -1.81326 5.54316 151 118 87 
-0.473627 -0.73562 3.59632 213 64 68 
-0.965972 -0.434025 3.71483 240 74 136 
0.0313261 0.125928 3.80194 204 202 205 
-2.08937 -1.0527 5.37171 123 90 55 
-0.729911 -0.610623 3.67622 184 144 95 
-0.775627 -0.10216 3.84075 228 31 25 
2.51303 -1.50381 5.85024 170 148 125 
-2.31359 1.18574 6.12273 151 111 75 
-0.32738 -1.13027 3.54144 151 30 75 
-2.95909 0.198324 5.65246 201 161 109 
0.459883 0.444383 4.05349 214 212 213 
0.401737 0.128213 3.86706 199 197 200 
-0.225578 1.40542 4.41576 143 127 114 
-0.605086 -0.475769 3.7311 161 59 45 
-0.573227 -0.570089 3.71929 156 36 38 
-0.80803 -0.114504 3.83479 230 40 50 
-0.564558 -0.601717 3.6965 100 67 48 
-0.601304 -0.372859 3.77562 132 97 77 
-0.538094 -0.389859 3.76806 195 163 124 
0.231006 -0.792399 3.74914 227 216 196 
-0.691225 -0.721995 3.63296 162 31 39 
-2.88792 -0.204127 5.55388 203 165 120 
-0.355621 0.375218 4.03911 234 201 166 
-2.52629 0.984675 6.01889 165 130 92 
2.17727 -1.45402 5.81946 195 181 168 
-2.44083 -1.15715 5.25792 184 155 115 
-2.3307 -1.55212 5.13992 154 118 86 
-0.335575 -0.786796 3.66022 74 89 86 
-2.45149 -0.507942 5.50248 161 130 99 
-0.67839 -0.833699 3.62489 132 87 56 
-1.03826 -0.513102 3.67412 237 73 136 
-0.805534 -0.0117558 3.8617 81 0 0 
-2.97275 1.9715 6.31165 223 188 146 
-0.573355 -0.646857 3.68229 132 88 51 
-2.72738 -0.379449 5.49447 145 107 70 
-0.0280337 1.29854 4.38988 208 189 175 
-3.30864 1.82488 6.1992 112 85 56 
-0.35913 0.378678 4.03838 236 204 166 
2.72251 -1.81772 5.73853 181 159 136 
-1.0788 -0.25152 3.72626 226 34 21 
1.50597 -1.68164 5.62078 174 144 110 
2.33809 -1.00362 5.95386 160 139 120 
-0.230382 0.36638 4.05535 136 158 145 
0.637383 0.854106 4.30503 76 67 62 
-0.669781 -0.545402 3.7027 165 114 83 
2.06938 -0.735908 6.02244 152 136 123 
-2.84364 0.568196 5.83396 186 148 101 
-0.598004 -0.667008 3.67577 148 44 41 
-0.557986 -0.674229 3.67785 150 99 70 
-3.08244 0.822057 5.89372 156 133 92 
-0.578774 -0.597917 3.70046 147 69 56 
-0.534333 0.566485 3.87203 44 43 49 
-2.48486 0.788405 5.9393 144 110 75 
-2.59298 -0.802698 5.36018 169 139 105 
-0.643364 1.3582 4.33645 170 154 139 
-0.479515 -1.13923 3.49359 123 4 62 
-2.27573 0.90898 6.01796 126 87 48 
-0.836747 -0.606594 3.6759 219 137 64 
0.688809 1.28475 4.47243 172 154 142 
-2.40176 -1.09586 5.2855 167 134 99 
-0.522092 -0.529672 3.73034 151 101 74 
-0.262091 0.377942 4.05651 192 162 138 
-0.542272 -0.47077 3.74332 74 109 89 
-0.643767 1.35858 4.33689 168 152 137 
-3.0963 1.73579 6.13323 162 128 93 
3.10631 -1.39948 5.95657 141 124 106 
-0.4328 -1.06157 3.55091 175 46 102 
-0.440966 -1.06047 3.54495 147 29 79 
-1.08731 -0.586794 3.55111 143 21 78 
-0.374112 -0.992683 3.58516 136 21 62 
1.79229 -1.45782 5.73333 159 125 88 
-2.54548 0.000550928 5.64974 156 122 87 
-0.095895 -1.07552 3.44033 158 25 82 
-2.33558 -1.54105 5.1498 182 148 110 
-2.00271 -1.55804 5.18459 179 145 110 
-0.438858 -1.11253 3.53065 155 31 83 
2.06901 -1.13875 5.90944 184 166 146 
-0.117641 -0.898329 3.57254 182 18 69 
0.236848 -0.614815 3.81162 211 198 181 
-2.51169 0.367465 5.81351 166 134 95 
-0.681081 -0.837501 3.61536 129 86 52 
-0.576102 -0.71465 3.66134 156 104 80 
-0.252164 -1.00765 3.59667 155 33 80 
2.83176 -1.68133 5.83041 185 164 143 
-0.836633 -0.607019 3.66987 227 144 74 
-0.557669 -0.462604 3.75368 115 141 112 
0.0799615 -0.613514 3.76858 202 192 182 
-0.0588122 1.43357 4.32431 107 92 73 
-0.745192 -0.592902 3.68133 97 66 46 
-0.383992 -0.401762 3.67561 169 144 122 
-3.45058 1.12084 5.96889 84 58 41 
2.04902 -0.758302 6.02983 154 137 121 
-0.506669 -0.458966 3.75048 82 121 100 
-2.3859 0.490915 5.84906 157 125 87 
-0.80061 -1.0352 3.52824 146 22 72 
-0.442809 -0.878776 3.42425 100 100 98 
-2.30328 1.01949 6.0637 129 94 56 
-3.26591 1.23822 6.024 152 122 84 
-0.12484 -1.05048 3.49688 129 7 58 
-2.70108 0.531141 5.832 177 143 106 
-0.812756 -1.05715 3.50816 147 19 78 
0.429555 0.838067 4.29215 113 99 86 
2.30445 -1.61045 5.77614 183 165 143 
2.56845 -1.36815 5.89152 189 169 145 
0.275658 -0.405721 3.86522 226 221 217 
-2.59661 0.269649 5.75892 179 144 104 
1.40624 -0.247563 4.03489 213 201 187 
2.66328 -1.86774 5.72164 189 164 144 
-0.21396 -0.938432 3.61923 228 50 102 
-3.09586 0.121801 5.60822 171 142 102 
1.98125 -0.904324 5.98001 203 186 166 
-0.488626 -0.555965 3.71097 147 91 64 
-1.02047 -1.01327 3.49256 186 57 114 
1.56661 -1.82851 5.55603 159 125 88 
-0.733594 0.0283306 3.61599 140 37 40 
1.81156 -1.16956 5.82445 162 128 93 
0.809807 0.896598 4.38441 179 132 102 
-0.289035 0.233442 4.00063 225 198 177 
-0.216111 -0.358134 3.70959 132 101 81 
-0.823944 -0.790956 3.59619 50 60 49 
-0.316608 0.244737 4.00064 80 69 67 
-0.348152 0.268866 4.01058 210 91 95 
-0.0239763 -0.0589618 3.84128 2 0 1 
-0.80055 -0.747561 3.60868 31 36 29 
-0.241278 0.403868 4.05429 255 234 210 
-0.215244 0.206276 4.00032 101 89 77 
-0.35507 0.202377 3.98427 239 210 194 
-0.354056 0.335598 4.02265 227 205 182 
-0.320428 0.289284 4.01315 232 207 187 
-0.282255 0.274733 4.01489 236 209 179 
-0.315214 0.220491 3.99356 239 212 195 
-0.279713 0.244399 4.00723 104 83 66 
-0.411392 0.199473 3.9843 148 125 109 
-0.584568 -0.352673 3.78673 57 29 15 
-0.362753 0.240415 3.99573 196 80 89 
-0.362761 0.3087 4.02018 240 203 185 
-0.334358 0.314586 4.02396 242 226 200 
-0.33103 0.24862 4.00073 82 68 57 
-0.800231 -0.770032 3.59307 223 231 220 
-0.373758 0.350248 4.02966 210 65 82 
-0.684353 -0.660797 3.66083 198 164 137 
-0.757055 -0.59871 3.67239 218 176 128 
-0.324471 0.235743 3.9971 87 70 60 
-0.150693 -0.873589 3.61408 116 72 69 
-0.385697 0.230712 3.98929 160 127 110 
-0.664038 -0.344241 3.77748 43 28 21 
-0.530168 -0.425543 3.76126 40 29 23 
-0.429404 -0.752253 3.66251 199 128 74 
-0.314134 0.304687 4.01676 219 66 84 
-0.347305 0.302816 4.01424 207 77 87 
-0.748975 -0.725971 3.63601 195 167 127 
-0.369944 0.294758 4.01632 193 85 85 
-0.321947 0.213785 3.9904 234 207 198 
-0.379047 0.221759 3.98708 241 192 185 
-3.20538 1.56637 5.96431 208 175 134 
-0.206732 0.261842 4.01953 107 79 75 
-0.205338 0.237284 4.01464 245 213 192 
-0.568449 -0.28339 3.81328 70 30 41 
-0.578825 -0.185799 3.76353 157 147 146 
-0.804912 -0.719921 3.6284 211 152 118 
-0.394086 0.212689 3.98314 236 203 186 
-0.70573 -0.363459 3.77366 41 32 25 
-0.75842 -0.308507 3.77763 230 181 203 
-0.348035 0.214662 3.99279 188 92 94 
-0.110306 -0.248433 3.85359 50 99 67 
-0.746997 -0.356728 3.76188 232 126 42 
-0.404702 0.263926 3.99767 91 61 50 
-0.155131 -0.354459 3.82805 28 0 0 
-0.325761 0.350466 4.03082 194 58 68 
-0.58277 -0.313686 3.80177 176 129 101 
-0.603678 0.37811 3.88632 234 230 231 
-0.595193 -0.383959 3.77247 47 25 11 
-3.22011 1.4353 5.93811 205 173 122 
-3.06475 1.36115 5.92509 74 46 22 
-0.201801 0.225503 4.01164 90 86 74 
-0.560195 -0.328873 3.79462 191 141 118 
-0.765209 -0.618722 3.67084 186 139 119 
-0.522026 -0.377836 3.77577 195 166 122 
-0.448316 -0.401863 3.77716 26 54 29 
-0.300635 -0.764972 3.66611 183 137 78 
-0.182482 0.262704 4.02365 218 202 187 
-0.271114 -0.386322 3.69442 231 199 184 
-0.257847 -0.381674 3.69544 221 193 171 
-0.672754 -0.289996 3.79858 50 32 18 
-0.636871 -0.307156 3.79135 198 137 108 
-2.89246 1.64422 6.03919 193 159 122 
-0.217511 0.196473 3.99656 91 72 65 
-0.839601 -0.760639 3.59455 229 222 204 
-0.722405 -0.306097 3.78511 64 22 0 
-0.416925 -0.744928 3.6603 225 121 32 
-0.268719 0.262995 4.01062 225 201 175 
-2.89225 1.35763 5.93981 207 173 135 
-2.30309 1.28439 6.00939 111 83 62 
-0.702062 -0.816753 3.61326 110 132 93 
-0.40619 0.212984 3.98978 234 209 178 
-2.91918 1.67532 6.04383 110 80 56 
-0.35752 0.253131 4.00394 249 216 201 
-2.02888 0.681318 5.86669 92 62 38 
-0.692005 -0.821818 3.61234 37 23 10 
-0.517943 -0.374508 3.74094 189 157 116 
-0.391481 -0.829945 3.62818 116 104 90 
-0.25246 0.237702 4.00733 106 82 70 
-0.794984 -0.717499 3.6332 46 32 19 
-0.704531 -0.547258 3.70332 30 40 29 
-0.224412 0.185375 3.99244 233 215 195 
-0.680994 -0.426901 3.74557 38 38 28 
0.0452574 -0.56887 3.77952 230 227 222 
-2.86975 1.89281 6.1172 100 66 31 
-2.85366 1.6102 6.02579 77 43 16 
-0.29979 0.270688 4.01441 237 202 180 
-0.411561 -0.507815 3.73755 26 29 22 
-0.567203 -0.372168 3.77723 80 52 31 
-0.515575 -0.33408 3.80054 117 70 52 
-2.9084 1.6462 6.03969 233 204 170 
-0.405596 0.235486 3.99633 118 86 75 
-0.562393 -0.344424 3.78993 158 122 96 
0.0208805 -0.424881 3.81639 218 213 209 
-2.6336 1.45485 5.9979 102 70 45 
-2.02957 0.473217 5.81138 66 39 18 
-0.308617 0.279337 4.01091 208 74 75 
-1.58525 1.90711 6.30389 200 161 122 
-0.348683 -0.883399 3.61924 101 97 86 
-0.555142 -0.583024 3.70719 82 37 18 
-0.838595 -0.118981 3.82538 229 76 140 
-0.235742 0.230146 4.00942 107 80 69 
-2.68009 0.844117 5.81646 87 60 31 
-0.78168 -0.606043 3.66662 88 134 105 
-2.61531 1.52191 6.01361 196 162 125 
-0.611226 -0.639356 3.67573 131 47 37 
-2.41158 1.30125 5.99673 109 80 50 
-1.91593 0.962193 5.98658 215 177 140 
-0.302131 -0.329013 3.83197 44 43 49 
-0.292376 0.199873 3.99114 106 75 70 
-0.787565 -0.640435 3.65965 96 130 105 
-2.80726 1.31942 5.94662 116 80 44 
-0.0860476 -0.448723 3.74109 119 68 65 
-3.11211 2.07953 6.1434 206 176 142 
-0.530338 -0.222319 3.75693 219 212 206 
-0.780061 -0.706273 3.6356 133 166 119 
-2.03264 1.02967 5.98462 76 44 23 
-3.10836 1.85607 6.07133 90 59 39 
-0.682424 -0.353816 3.77409 42 13 5 
-0.343466 0.241053 4.00274 192 107 104 
0.0211342 -0.423363 3.80219 218 213 209 
-0.766292 -0.704289 3.6374 116 148 111 
-0.309209 0.192743 3.98712 209 61 77 
-0.24701 -0.877456 3.63239 48 30 26 
-0.780422 -0.621439 3.66564 43 39 36 
-1.86443 0.394127 5.82029 64 37 7 
-2.84202 1.21319 5.91227 105 74 45 
-3.13169 1.58798 5.9753 209 166 113 
-2.66921 0.868859 5.81945 94 63 43 
-0.746678 -0.712791 3.63662 61 58 43 
-0.243429 0.216057 4.0003 233 208 186 
-0.576137 -0.388786 3.77284 80 53 42 
-2.30683 1.20373 5.98898 98 66 41 
-3.00214 1.80244 6.08673 220 190 154 
-0.148953 -0.546121 3.75135 142 96 96 
-0.669267 -0.433438 3.74659 164 117 91 
0.0243596 -0.584496 3.77714 223 218 214 
-3.12638 1.45235 5.95016 109 73 39 
-0.452443 -0.249784 3.75718 230 222 219 
-0.31328 -0.328446 3.82348 162 152 161 
-2.03751 0.567187 5.83204 108 82 59 
-2.01012 0.427626 5.79967 185 156 114 
-2.02696 0.636816 5.85131 78 51 24 
-0.67027 -0.475796 3.72861 24 42 26 
-0.509672 -0.738238 3.65709 43 14 6 
-0.599939 -0.445454 3.75103 150 100 73 
-0.659186 -0.551433 3.7084 166 117 87 
-3.03264 1.57956 5.98659 198 166 128 
-0.58279 -0.693082 3.66649 145 102 86 
-0.222173 0.224802 4.01265 111 88 74 
-0.28097 0.201599 3.99333 98 78 71 
-2.39367 1.26154 5.95514 226 188 152 
-2.30328 1.06881 5.94029 92 62 26 
-2.01389 0.999547 5.97029 203 166 124 
-3.13954 2.06388 6.13627 206 175 144 
-0.752775 -0.375439 3.75324 122 149 108 
-3.00769 1.93694 6.11922 216 186 148 
-2.76728 1.46605 5.99047 229 194 156 
-0.106904 -0.515567 3.73244 57 33 29 
-0.711134 -0.407397 3.7476 33 42 21 
-2.95019 1.71837 6.05018 191 165 128 
-2.9156 1.26433 5.9016 125 95 61 
-3.06834 1.64313 6.01779 111 80 59 
-2.76849 1.36943 5.95799 224 192 153 
-2.58335 1.2573 5.93509 183 150 119 
-1.95969 0.581314 5.86294 163 127 93 
-0.315486 0.665504 3.87521 226 227 231 
-0.301609 0.344134 4.02953 238 215 197 
-0.694219 -0.655185 3.66799 58 24 12 
-0.368963 0.32143 4.03166 244 205 190 
-0.363973 0.270142 4.00663 234 211 195 
-2.59951 1.72521 6.0885 115 82 51 
-0.27362 0.318883 4.03253 91 107 107 
-1.59022 2.11446 6.36359 114 83 55 
-0.193013 0.27172 4.02324 96 80 67 
-3.15418 1.75981 6.03865 205 167 122 
-0.360932 0.215163 3.99735 255 219 210 
-2.01486 0.913221 5.96114 184 154 116 
-2.73816 1.44129 5.97606 104 73 44 
-0.264998 0.0616293 3.89678 7 1 1 
-0.254751 -0.857317 3.64083 39 37 40 
-0.353977 -0.795327 3.64994 47 13 12 
-2.02653 0.968948 5.96493 90 60 34 
-2.90965 1.53 5.99508 127 97 61 
-1.99871 0.85906 5.91573 190 151 110 
-0.427678 -0.772019 3.65554 178 105 37 
-0.294979 -0.823124 3.6539 64 112 116 
-3.05646 1.57136 5.99814 104 74 40 
-0.107112 -0.271776 3.84537 179 132 112 
-2.84035 1.97629 6.1306 205 162 127 
-0.692664 -0.35612 3.77026 59 37 24 
-2.75067 1.34634 5.95653 126 90 58 
-2.92197 1.89671 6.10853 139 110 76 
-0.87211 -0.538204 3.66438 236 101 108 
-0.613503 -0.496293 3.73078 166 110 87 
-2.5804 0.95333 5.86291 104 73 55 
-2.86952 0.934913 5.80063 226 195 149 
-0.988405 -0.272747 3.74943 46 27 31 
-0.473245 0.383719 3.86568 226 227 231 
-0.39351 0.34056 4.03111 232 201 173 
-2.42613 1.45201 6.01251 201 166 134 
-1.98894 0.420543 5.80895 184 151 118 
-0.436015 -0.76105 3.65323 43 39 30 
-2.96985 1.28468 5.90619 128 92 58 
-2.07603 1.06024 5.99484 203 164 123 
-0.812906 -0.597432 3.66654 66 28 0 
-2.8929 1.26803 5.92337 224 187 145 
-2.40375 1.2075 5.95864 107 77 49 
-3.0049 1.15879 5.86761 116 82 57 
-2.77687 1.64514 6.06016 206 172 134 
-2.93185 1.98681 6.1177 204 169 127 
-0.23745 0.186332 3.9909 229 201 179 
-0.768466 -0.58352 3.67982 36 45 40 
-3.03867 1.99261 6.12703 124 100 74 
-1.70183 2.08989 6.37454 203 163 127 
-0.232917 0.253697 4.01033 90 68 57 
-0.37346 -0.394315 3.67941 136 107 89 
-3.15854 2.07641 6.13416 89 61 39 
-2.83937 1.47903 5.98774 145 114 83 
-0.653996 -0.632652 3.67308 126 56 44 
-0.609203 -0.655941 3.6705 148 34 42 
-2.92914 1.71231 6.05197 209 173 137 
-0.369403 0.228809 3.98918 142 78 69 
-0.770587 -0.838374 3.5999 48 25 7 
-0.557826 -0.477009 3.74252 80 98 82 
-0.322913 -0.37518 3.69482 127 96 75 
-2.90556 1.68756 6.05288 208 174 139 
-0.421128 0.278063 4.00823 105 77 56 
-0.380508 0.268782 4.00124 241 199 183 
-0.143452 0.200831 4.00853 208 185 171 
-1.90372 0.702072 5.88716 201 166 128 
-2.52351 1.21407 5.95028 95 64 36 
-0.586862 -0.300464 3.78681 96 69 48 
-2.62564 1.09841 5.91033 185 153 112 
-0.921628 -0.597666 3.6572 53 42 46 
-2.26103 0.825614 5.86868 191 144 100 
-3.11962 1.54508 5.98714 213 178 124 
-0.777211 -0.596664 3.67307 48 45 30 
-0.63022 -0.654892 3.67211 131 41 40 
-0.435924 -0.261671 3.75841 238 231 221 
-2.28352 0.844096 5.85263 192 152 117 
-0.592067 -0.18535 3.76761 239 230 225 
-2.11021 0.875088 5.91379 187 153 115 
-2.83701 1.34296 5.94045 149 111 75 
-3.05092 1.83238 6.05982 91 64 45 
-0.665781 -0.663597 3.65974 142 37 44 
-2.91834 1.44639 5.97676 211 174 132 
-2.17651 0.927411 5.91438 170 137 92 
-2.9277 1.5219 5.98781 203 170 135 
-2.92526 1.3562 5.94305 109 78 50 
-2.91443 1.4027 5.95982 139 105 68 
-0.681798 -0.519889 3.7122 156 109 83 
-3.09527 1.84583 6.08016 193 164 132 
-0.380623 -0.826868 3.63352 41 33 31 
-0.512563 -0.751047 3.64566 54 21 12 
-0.501644 0.466883 3.85055 226 227 231 
-0.572587 -0.657721 3.67911 74 44 33 
-0.588908 -0.661526 3.67091 163 103 93 
-0.249493 -0.306928 3.83501 28 37 32 
-0.703865 -0.612019 3.67736 205 157 117 
-2.25999 0.590306 5.80437 192 155 126 
-3.17462 1.53347 5.95814 106 76 52 
-2.54703 1.50224 6.03258 207 173 135 
-0.667618 -0.644077 3.66741 185 138 96 
0.0338556 -0.393563 3.82785 165 158 150 
-0.77807 -0.307437 3.77795 233 174 202 
-0.525153 -0.347164 3.79471 99 66 47 
-0.46436 -0.261255 3.75669 232 218 217 
-2.13589 0.905522 5.91662 98 72 47 
-0.320489 -0.801041 3.65224 46 51 57 
-2.97828 1.74889 6.05909 111 82 52 
-0.372074 -0.802888 3.64627 191 25 35 
-3.18631 1.53612 5.96416 84 58 33 
-2.53407 1.34127 5.96892 210 176 138 
-0.309883 -0.824623 3.65294 52 113 114 
-2.03813 0.509133 5.81661 94 64 38 
-0.629389 -0.703786 3.65234 149 35 43 
-3.80587 2.06653 6.0647 119 102 76 
-0.137564 -0.396738 3.80498 8 4 0 
-2.36468 1.35827 5.99935 186 144 94 
-0.562258 -0.396051 3.76403 131 108 94 
-0.901692 -0.362674 3.74227 222 157 137 
-1.77234 2.05817 6.33652 127 89 53 
-2.07462 0.992608 5.96446 89 58 30 
-0.694122 -0.53955 3.70873 132 147 118 
-1.8836 0.345412 5.80788 85 55 31 
-3.08875 1.2643 5.87998 199 167 128 
-0.483451 -0.363941 3.79591 166 123 91 
-3.19055 2.1096 6.13532 172 143 113 
-2.5872 1.32104 5.97869 120 88 63 
-0.38818 -0.800384 3.64448 36 20 31 
-0.481241 -0.25447 3.75841 235 231 222 
-2.86436 1.67843 6.05088 140 101 60 
-1.98643 0.957394 5.96975 121 88 55 
-2.75855 1.48544 6.00524 130 100 66 
-2.71608 1.44555 5.97611 121 82 41 
-0.356878 0.286417 4.00588 235 208 191 
-1.95036 0.550933 5.86976 114 83 54 
-2.67339 0.972735 5.866 202 164 125 
-1.61705 1.9075 6.30848 104 71 38 
-0.701871 -0.862731 3.59708 184 123 92 
-0.804779 -0.619717 3.66069 39 39 41 
-0.897304 -0.361201 3.72586 223 162 133 
-2.46579 1.51224 6.04208 119 87 62 
-0.701502 -0.724351 3.62551 151 37 45 
-2.34495 1.11952 5.94341 128 89 58 
-1.90273 -0.337378 5.57615 187 153 125 
-2.05385 1.00982 5.97619 161 130 101 
-1.93889 0.185243 5.73385 84 53 25 
-0.433141 0.235902 3.99209 236 205 187 
-2.97089 1.80102 6.07293 127 96 68 
-2.76701 1.94547 6.13096 138 98 62 
-2.98226 1.39446 5.93625 199 161 124 
-0.727828 -0.661626 3.65883 82 100 88 
-1.94544 0.281012 5.78272 93 63 37 
-0.584774 -0.704599 3.65688 149 104 83 
-2.565 1.32555 5.97231 226 192 155 
-0.402319 -0.801341 3.6432 39 21 21 
-2.10817 0.805357 5.88402 180 149 120 
-3.80336 1.96996 6.02159 104 85 68 
-2.5797 1.53207 6.03106 112 80 55 
-1.97022 0.371018 5.78622 189 152 110 
-2.49496 0.801303 5.81986 106 73 40 
-1.87716 0.757519 5.92924 75 45 11 
-2.05455 0.600028 5.84079 174 147 117 
-0.693141 -0.458474 3.73833 56 86 60 
-3.22647 1.47348 5.94576 78 53 31 
-0.615536 -0.306439 3.79744 167 127 102 
-2.89051 1.47844 5.98225 207 174 139 
-3.07886 1.37911 5.93045 185 153 114 
-0.460095 -0.6699 3.68417 73 124 91 
-2.11927 1.0223 5.98152 176 138 101 
-1.84539 0.296583 5.80237 147 116 85 
-3.05234 1.00511 5.80679 90 66 38 
-0.523305 -0.327276 3.80328 138 90 68 
-2.67142 1.83475 6.11189 180 147 114 
-2.91167 1.44055 5.96205 209 170 127 
-0.488544 -0.420557 3.77117 102 143 103 
-0.715301 -0.805891 3.60133 69 97 59 
-2.50858 1.22728 5.95367 184 152 113 
-3.16395 1.47924 5.94082 127 92 50 
-0.625456 -0.531754 3.71358 147 37 40 
-0.691719 -0.493817 3.72124 29 35 31 
-0.691941 -0.87055 3.59379 63 31 20 
-3.14318 1.8241 6.05771 114 86 64 
-2.32855 1.10883 5.94014 192 157 125 
-0.755143 -0.638715 3.66061 89 133 106 
-2.3368 1.20222 5.96822 177 150 107 
-0.402396 -0.771873 3.65747 189 104 39 
-2.84497 0.931899 5.81239 217 174 132 
-0.790498 -0.682187 3.64768 72 127 96 
-0.125174 -0.565798 3.7306 14 18 17 
-3.06703 1.96789 6.11377 184 157 127 
-3.11086 1.41488 5.94203 221 188 147 
-0.34153 -0.753605 3.6656 203 126 54 
-0.683391 -0.645362 3.66926 142 47 43 
-0.359525 0.543383 3.90039 226 227 231 
-2.70499 1.8568 6.11928 122 86 50 
-2.00027 0.525183 5.82437 175 145 111 
-2.80433 1.55645 6.01302 117 87 51 
-0.246729 -0.384867 3.69459 125 92 87 
-1.91387 0.581705 5.87684 195 153 113 
-0.717021 -0.572689 3.68734 28 42 29 
-2.19659 0.591062 5.81587 106 76 52 
-0.633295 -0.347663 3.76966 169 115 79 
-0.533436 -0.451478 3.75192 113 147 112 
-0.255733 -0.402642 3.69485 145 102 95 
-3.51504 2.06773 6.07958 140 116 92 
-0.652095 -0.452265 3.74209 163 116 98 
-0.715897 -0.653164 3.66087 26 39 32 
-3.10747 1.43265 5.94491 211 179 141 
-0.301996 0.304104 4.01601 250 191 177 
-0.782696 -0.83095 3.5936 37 41 26 
-0.00991188 -0.15569 3.79134 42 15 6 
-1.96299 0.31659 5.78403 144 114 76 
-0.559353 -0.617666 3.69342 69 35 26 
-2.9742 1.24472 5.86731 178 146 107 
-1.69307 1.73158 6.25213 172 140 99 
-0.591107 -0.158027 3.77243 232 227 224 
-3.06756 1.50428 5.97402 111 82 52 
0.742103 0.510666 3.71133 224 215 206 
-0.403139 0.28068 4.00873 232 203 187 
-1.72897 1.84301 6.29835 99 67 46 
-2.53599 1.0541 5.89187 206 172 135 
-0.262975 -0.770812 3.67252 179 117 96 
-2.30293 1.01439 5.90187 168 133 95 
-0.342223 -0.388953 3.68575 134 104 80 
-3.09475 1.97113 6.12015 147 113 86 
-2.62479 1.59309 6.04427 185 154 108 
-3.27701 1.92932 6.06259 110 81 63 
-2.02642 0.77751 5.90166 92 59 28 
-0.594316 -0.282869 3.81381 222 102 103 
-0.11319 -0.613118 3.69111 33 22 18 
-3.08254 1.2618 5.8679 197 164 123 
-2.69592 1.37375 5.97259 129 97 59 
-0.13128 -0.310252 3.84223 166 99 82 
-0.900006 -0.585465 3.66195 43 40 25 
-2.43758 1.47749 6.03621 218 182 146 
-0.508562 -0.480839 3.74874 95 119 105 
-0.319832 -0.882145 3.62982 19 20 22 
-3.12138 1.99763 6.11832 100 75 55 
-0.0843088 -0.209812 3.8528 77 113 85 
-2.01679 0.489071 5.8187 182 151 122 
-2.44921 1.51023 6.04424 126 94 73 
-2.27177 0.961697 5.90863 209 166 123 
-0.32406 -0.789299 3.65509 72 122 131 
-0.752454 -0.84588 3.59286 174 114 86 
-1.87694 0.567946 5.89684 100 70 32 
-0.109121 -0.18582 3.87667 211 183 135 
-0.110179 -0.635328 3.68409 134 72 75 
-3.37621 2.04895 6.08924 120 94 69 
-0.466732 -0.240532 3.76056 238 228 227 
-2.82856 1.31063 5.93038 214 168 132 
-0.240692 -0.868065 3.63509 163 101 88 
-0.222586 -0.37767 3.70586 144 110 98 
-2.24915 1.08546 5.95848 104 71 36 
-1.92108 0.812873 5.92896 92 62 28 
-1.89901 0.958278 5.98312 122 89 58 
-1.88127 0.565635 5.90787 95 65 27 
-0.750034 -0.817593 3.60886 85 128 85 
-2.61973 1.1837 5.91921 95 63 38 
-2.20735 1.10725 5.97643 123 92 61 
-0.101901 -0.320484 3.82167 37 15 18 
-2.03599 0.847619 5.92045 103 77 50 
-2.32253 1.18391 5.98457 198 165 134 
-0.300176 -0.887819 3.63151 53 105 118 
-0.71485 -0.388349 3.76031 40 30 28 
-0.801299 -0.305641 3.68899 225 216 201 
-2.18129 0.992625 5.91841 99 65 37 
-0.141751 -0.386335 3.81596 11 0 0 
-0.824589 -0.67709 3.63874 80 137 104 
-1.70176 1.89108 6.29724 118 84 56 
-2.85959 1.63189 6.02226 201 165 115 
-2.85974 1.35745 5.95076 211 169 129 
-0.676433 -0.413098 3.75143 67 45 34 
-3.15414 1.41569 5.91203 185 150 118 
-3.232 1.38997 5.9137 94 68 45 
-0.369158 -0.825076 3.63893 36 35 33 
-0.462518 0.243915 3.9752 220 191 161 
-0.336624 -0.834299 3.63906 26 29 36 
-2.74051 1.95847 6.1383 131 96 58 
-3.01174 1.28834 5.9032 113 86 56 
-2.96582 1.53709 5.99739 130 103 74 
-0.396671 0.144127 3.84855 222 42 51 
-2.51162 1.31182 5.98458 124 86 49 
-2.51872 1.04499 5.88863 118 88 54 
-0.72384 -0.585141 3.68236 83 122 95 
-2.00332 0.0915884 5.68551 158 129 99 
-0.686543 -0.383783 3.76094 38 14 4 
-3.77175 1.91248 5.99327 120 96 70 
-0.352171 -0.266905 3.84507 167 149 171 
-2.1841 0.865097 5.89868 98 68 34 
-0.218703 0.176169 3.98991 146 157 151 
-0.257028 -0.870194 3.64378 34 27 21 
-0.771266 -0.638507 3.66394 76 122 94 
-2.85061 1.69473 6.04753 202 164 117 
-0.484145 -0.520583 3.73387 29 30 16 
-2.70688 1.72958 6.08959 129 89 53 
-0.294124 -0.374786 3.70033 116 88 77 
-2.56319 1.05357 5.88419 217 185 146 
-0.815235 -0.276458 3.71708 218 200 190 
-0.577818 -0.636757 3.68353 138 88 55 
-1.97413 0.412912 5.82538 119 83 51 
-2.01782 0.808453 5.89328 97 70 43 
-0.353341 -0.346164 3.81431 169 154 159 
-0.296001 0.553303 3.9187 128 124 113 
-2.74957 1.82345 6.1138 116 81 39 
-3.65198 2.06858 6.06261 127 100 73 
-0.769524 -0.659787 3.65731 35 33 34 
-0.637314 -0.683738 3.65732 123 43 34 
-0.207013 0.194259 3.99663 145 171 172 
-2.9342 1.94237 6.12343 150 121 87 
-3.06719 1.2855 5.90535 121 92 62 
-0.562412 -0.631547 3.68918 154 101 85 
-0.520252 -0.657075 3.68564 139 93 67 
-2.14456 0.927581 5.91629 155 123 85 
-2.07718 1.11741 6.00151 197 158 117 
-0.658571 -0.502684 3.72146 162 106 81 
-3.23972 1.57361 5.97601 145 118 91 
-0.732052 -0.649855 3.65614 35 40 33 
-2.80046 1.73689 6.05388 124 85 52 
-2.13017 0.925406 5.93773 76 49 22 
-2.56583 1.4727 6.00767 232 199 158 
-3.01993 1.3134 5.88978 186 152 117 
-0.304586 -0.844548 3.63758 73 132 130 
-2.8708 1.62986 6.03133 210 170 121 
-2.14264 1.06385 5.96422 125 91 63 
-3.10399 1.04577 5.80963 104 75 43 
-2.79647 1.88534 6.12691 203 171 130 
-0.300728 -0.810348 3.65257 33 47 56 
-2.7155 1.83528 6.10947 188 150 113 
-0.60896 -0.377281 3.76668 80 47 38 
-1.93551 0.800964 5.91551 175 141 106 
-0.623443 -0.394074 3.7755 101 68 59 
-2.37424 1.32354 5.99461 179 144 112 
-2.52074 1.49299 6.02301 130 97 64 
-0.484592 0.371608 3.85896 233 233 235 
-1.87415 0.41152 5.81702 143 115 78 
-2.26709 1.07371 5.95392 182 139 94 
-2.58843 1.45255 6.00793 129 97 59 
-0.778585 -0.58489 3.6747 102 121 102 
-0.458665 -0.370403 3.79324 91 58 41 
-3.77042 2.04154 6.04066 67 41 24 
0.0826601 0.15795 3.80402 215 213 218 
-0.245772 0.050693 3.89727 31 23 4 
-2.31984 1.0731 5.93674 183 149 114 
-1.80154 0.183229 5.76566 182 147 107 
-0.26064 0.222611 4.00407 101 76 69 
-0.344499 -0.274597 3.83801 150 138 148 
-3.16771 1.83078 6.05291 78 53 33 
-0.619726 -0.509018 3.72853 143 43 45 
-2.68509 1.11228 5.89837 116 80 46 
-2.01332 0.25643 5.74818 157 127 99 
-1.85986 0.765836 5.93906 181 148 105 
-0.161513 -0.367566 3.82491 112 60 47 
-0.327811 -0.867763 3.63116 63 82 76 
-0.361094 -0.748454 3.67041 224 126 55 
-0.136211 -0.536448 3.76351 14 20 16 
-3.1129 1.29063 5.90553 195 163 122 
-0.793491 -0.571147 3.67888 24 43 37 
-0.743044 -0.683978 3.6545 70 103 82 
-2.82492 1.27388 5.92276 154 112 72 
-0.990761 -0.252257 3.76103 223 39 37 
-0.298972 0.327258 4.02505 233 205 181 
-0.614357 -0.61972 3.68453 181 115 89 
-0.641059 -0.71372 3.64814 141 43 44 
-2.01661 1.05805 5.99543 77 46 18 
-3.03727 1.6168 6.01031 188 157 110 
-0.757379 -0.386998 3.7494 27 72 43 
-1.83542 0.453776 5.87175 122 92 58 
-0.734797 -0.725791 3.63026 122 84 61 
-2.96655 1.63131 6.02227 126 95 67 
-2.95934 1.37283 5.93973 125 95 57 
-0.713909 -0.594527 3.67834 101 69 56 
-2.08155 0.752416 5.89011 126 96 58 
-0.749519 -0.623006 3.66648 179 130 98 
-3.13332 1.86752 6.07293 104 73 45 
-3.81429 1.8618 5.97785 56 33 15 
-2.75898 1.84366 6.11433 219 177 135 
-3.75612 2.04597 6.0472 111 92 75 
-0.309981 0.316559 4.01745 214 73 82 
-2.68468 1.15979 5.91193 133 97 65 
-0.166471 0.25094 4.02268 128 157 152 
-0.238319 -0.810988 3.65462 139 72 64 
-3.60066 2.0694 6.06873 71 48 30 
-1.86101 0.366887 5.80913 161 131 93 
-0.568226 -0.608137 3.69821 132 97 77 
-3.04122 1.53831 5.9744 173 141 116 
-3.03221 1.74087 6.04328 183 149 112 
-2.27371 1.17211 5.98058 183 147 113 
-0.507118 -0.72496 3.66923 38 12 11 
-2.3702 1.04636 5.91606 168 132 96 
-0.442419 -0.74827 3.65575 39 45 31 
-2.9318 1.62648 6.02714 143 110 79 
-0.817243 -0.635501 3.65337 30 41 33 
-2.34165 1.28282 5.99733 146 110 84 
-0.631913 -0.621312 3.68462 198 113 108 
-2.95845 1.75979 6.06595 186 156 118 
-0.647088 -0.211874 3.82377 239 179 204 
-3.07623 1.50252 5.95506 188 158 124 
-0.858247 -0.575914 3.6723 234 127 73 
-2.70559 1.82363 6.11968 132 101 70 
-0.459101 -0.683597 3.68161 75 119 94 
-0.375131 -0.816687 3.64075 35 31 30 
-2.44473 1.29033 5.9687 140 101 72 
-0.606692 -0.530824 3.72298 133 35 36 
-2.872 1.79797 6.10669 141 105 73 
-3.14697 1.65916 6.03517 137 102 64 
-2.98519 1.65155 6.03185 188 155 120 
-2.33754 1.37284 6.01006 186 153 120 
-2.5652 1.30259 5.96892 192 159 124 
-2.56206 1.44484 6.00035 202 164 125 
-2.01196 0.758939 5.90268 172 141 112 
-2.18399 0.903038 5.91099 97 67 39 
-2.64283 1.83975 6.12429 191 153 108 
-3.09413 1.6317 6.00444 135 103 65 
-2.32275 1.13429 5.94971 185 149 117 
-2.05846 0.813968 5.90054 166 132 95 
-0.697392 -0.799106 3.6152 27 48 33 
-0.29481 -0.837312 3.64754 20 31 37 
-2.96082 1.89993 6.09434 190 157 122 
-0.226883 0.39774 4.05349 244 218 191 
-3.07203 1.54904 5.98674 110 84 49 
-0.272188 -0.893453 3.62595 6 34 46 
-0.656813 -0.382491 3.76844 164 115 83 
-0.200023 0.20921 4.00148 143 178 172 
-1.93382 0.725275 5.90645 139 104 72 
-1.70369 1.71877 6.25355 169 141 102 
-0.484786 -0.457768 3.75866 95 136 120 
-2.65384 0.87463 5.82932 176 142 105 
-0.35825 -0.282773 3.83949 164 150 165 
-3.05291 1.43288 5.95418 130 97 64 
-3.07081 1.56112 5.99134 163 136 106 
-2.1982 0.789559 5.86514 118 85 50 
-0.599643 -0.718105 3.65087 79 47 36 
-0.5081 -0.35729 3.79372 152 107 78 
-1.89207 0.318751 5.79761 105 73 48 
-2.35863 0.980073 5.88119 185 144 90 
-0.213688 -0.334607 3.71513 125 92 83 
-0.619496 -0.704235 3.6542 147 34 40 
-1.96767 0.681967 5.88058 184 145 104 
-0.730232 -0.823271 3.60114 69 79 55 
-0.325706 -0.302526 3.83421 176 158 174 
-2.49109 1.33511 5.99641 174 140 105 
-2.91771 0.837199 5.79153 160 126 91 
-2.38755 1.35186 6.00666 124 85 46 
-3.26053 1.0222 5.79447 72 51 32 
-2.99584 1.54652 5.98573 174 141 106 
-2.94514 1.79217 6.07908 184 151 118 
-0.543758 -0.19498 3.76497 247 237 236 
-1.97477 1.00438 5.98565 91 62 32 
-2.68561 1.76644 6.08165 193 158 120 
-2.72722 1.35145 5.95737 179 146 111 
-2.09921 0.30292 5.75263 186 156 118 
-2.88099 1.31256 5.93643 167 134 103 
-2.6699 0.93771 5.84893 192 153 110 
-2.0132 0.51196 5.82432 176 144 119 
-0.288582 -0.368266 3.69554 125 93 82 
-1.65012 1.86237 6.2859 141 98 64 
-2.83836 1.78131 6.095 196 161 133 
-0.653097 -0.676186 3.66346 145 33 45 
-0.531886 -0.564361 3.71291 140 95 76 
-2.35219 1.28866 5.98669 135 99 67 
-1.99344 0.627101 5.85026 118 83 51 
-1.96876 0.983182 5.97844 109 76 43 
-1.90848 -0.314762 5.57725 172 139 108 
-0.626327 -0.441019 3.75439 147 44 48 
-2.43087 1.08927 5.92998 183 146 117 
-0.57473 -0.681642 3.66958 85 41 30 
-1.86891 0.427561 5.84067 107 74 41 
-0.0695646 0.0570114 3.85374 76 136 136 
-0.476254 -0.427787 3.77176 56 105 76 
-0.668888 -0.393838 3.75943 51 17 8 
-3.11884 2.01303 6.10858 152 127 107 
-2.11173 0.668379 5.83812 164 131 96 
-2.33116 1.05771 5.9326 127 89 52 
-3.68288 1.95459 6.02875 112 89 71 
-2.32215 1.11588 5.94622 164 131 98 
-2.09179 0.730435 5.86139 192 161 117 
-2.81762 1.86806 6.10693 155 121 83 
-2.14762 0.224232 5.72056 120 91 61 
-0.105566 -0.601206 3.69467 128 74 74 
-1.84643 0.202606 5.77135 125 87 51 
-2.58958 0.527558 5.74304 123 96 66 
-1.98543 0.997575 5.99729 118 87 58 
-0.576614 -0.482473 3.73876 155 46 52 
-0.0941451 -0.164197 3.87364 194 164 112 
-2.13841 0.716368 5.84224 129 95 67 
-0.736482 -0.802808 3.60179 60 92 71 
-0.746868 -0.647963 3.66196 24 40 29 
-2.56294 0.948514 5.86394 200 169 125 
-2.65849 1.5962 6.0485 174 136 100 
-0.841837 -0.443868 3.70437 243 232 226 
-0.455886 -0.759517 3.65363 0 2 0 
-2.62397 1.25264 5.9384 160 122 86 
-2.10838 0.252961 5.70594 167 138 106 
-0.876267 -0.677427 3.63879 234 114 80 
-2.22841 1.01732 5.93767 156 113 78 
-0.76268 -0.645698 3.66002 32 48 38 
-1.8939 0.244928 5.76363 162 134 97 
-2.6067 1.25283 5.94538 122 83 52 
0.0363373 0.143502 3.81616 229 227 230 
-2.79679 1.76255 6.09319 147 111 79 
-2.50894 1.4467 5.99771 132 103 73 
-0.69223 -0.420608 3.74748 26 25 7 
-3.06217 1.28925 5.91718 134 106 69 
-3.12513 1.07083 5.81428 174 140 103 
-0.692027 -0.827149 3.59872 160 114 81 
-1.86186 0.340159 5.81722 144 116 77 
-2.5242 1.173 5.93737 114 83 52 
-0.611267 -0.723001 3.64632 153 105 85 
-3.1496 1.62045 6.00111 191 150 96 
-1.52334 1.95377 6.31466 151 124 95 
-0.233701 0.0408272 3.89532 37 34 25 
-3.16184 2.07617 6.12664 84 57 36 
-2.31364 0.916829 5.88771 181 149 111 
-2.84354 1.71237 6.06041 183 142 98 
-0.717195 -0.415639 3.74452 96 138 100 
-0.626697 -0.382585 3.77395 97 55 41 
-0.20767 0.1753 3.9939 143 181 182 
-0.772027 -0.39353 3.67995 184 126 125 
-1.93551 -0.14313 5.64553 112 83 51 
-1.99421 0.633424 5.85965 126 93 58 
-2.89523 1.56212 6.00289 144 111 80 
-0.477701 -0.393206 3.78155 142 104 81 
-0.485216 -0.400688 3.7787 124 98 75 
-3.40834 1.86414 6.04816 65 42 26 
-2.80336 0.980423 5.84211 170 135 97 
-1.86752 0.616014 5.91428 178 143 101 
-2.08947 0.930304 5.94362 141 103 67 
-2.4832 1.27266 5.96045 178 131 89 
-1.98419 1.03865 5.99014 193 158 118 
-0.390218 -0.337244 3.81486 188 151 143 
-0.2594 0.251599 4.01516 107 79 68 
-2.06898 1.09691 5.98111 205 162 128 
-3.08979 2.0616 6.13525 124 94 66 
-1.62232 1.77554 6.27046 134 100 62 
-3.49532 1.47207 5.90426 56 36 27 
-2.05094 0.508971 5.81663 134 105 71 
-2.75452 1.49481 5.99371 128 98 64 
-2.01561 0.649087 5.86244 167 134 101 
-1.77799 0.26942 5.81422 164 131 96 
-2.49853 0.675951 5.77997 131 98 63 
-2.33046 1.19904 5.9848 162 126 90 
-3.04119 1.85261 6.07866 170 140 116 
-1.0655 -0.422277 3.67312 219 72 126 
-0.706179 -0.629264 3.6735 163 113 90 
-0.398854 -0.819064 3.63922 4 0 0 
-0.645146 -0.477758 3.72882 146 40 44 
-2.789 1.56208 6.01179 170 140 104 
-0.503443 -0.49334 3.74438 33 33 35 
-2.48417 1.05644 5.9054 180 144 110 
-3.0768 1.30946 5.90195 133 102 73 
-0.599675 -0.746346 3.63999 150 104 81 
-2.16314 1.15264 5.99619 120 87 54 
-0.338348 0.460336 4.07419 173 163 151 
-1.69933 1.57874 6.21736 175 139 105 
-0.696684 -0.395979 3.75541 83 53 43 
-2.87644 1.78837 6.08448 216 174 134 
-3.16057 1.37431 5.90709 149 115 77 
-2.19266 1.00427 5.93484 111 80 49 
-3.29024 1.44407 5.92793 70 44 27 
-2.00392 1.0368 5.97003 169 136 103 
-2.66993 1.059 5.87866 187 143 108 
-2.66692 1.12727 5.90089 181 147 109 
-3.81311 2.01691 6.01873 93 72 55 
-3.14072 1.34804 5.88804 191 154 110 
-0.149643 -0.3236 3.8393 113 56 47 
-0.622417 -0.544926 3.70478 169 118 87 
-2.82587 1.50147 5.99429 170 140 104 
-0.65467 -0.485812 3.73176 65 14 10 
-2.0295 0.937222 5.94223 97 68 38 
-0.989315 -0.575486 3.65398 234 81 137 
-3.16022 1.63194 5.99296 141 103 66 
-0.499131 -0.550939 3.72253 142 92 69 
-2.53836 1.21324 5.93827 204 171 136 
-0.365975 -0.385741 3.68219 141 109 94 
-1.89181 0.242552 5.75388 149 120 86 
-0.17261 -0.824168 3.63847 106 71 75 
-2.6738 1.29097 5.95536 172 138 103 
-3.40704 1.3111 5.86587 111 85 70 
-1.62102 1.94964 6.32227 134 100 63 
-2.80044 1.29787 5.93524 132 93 62 
-2.87168 1.66468 6.04204 211 169 127 
-0.269074 -0.883569 3.62711 76 107 112 
-2.95417 1.63672 6.02739 172 141 110 
-0.370332 -0.764115 3.65937 225 116 57 
-2.04085 0.99008 5.96551 119 88 59 
-0.562972 -0.534996 3.72101 148 39 45 
-1.30703 -0.197596 3.5065 123 96 66 
-2.8652 1.47068 5.9706 161 123 87 
-3.80067 1.85702 5.98844 113 87 64 
-0.318637 -0.84019 3.63769 61 111 122 
-3.29942 1.84885 6.04404 74 47 30 
-2.72695 1.26248 5.92469 148 106 68 
-0.192647 0.184957 4.02779 145 187 185 
-2.72157 1.47072 5.9929 146 103 69 
-1.87082 0.804781 5.94652 114 84 48 
-2.00574 1.07123 5.99731 144 111 80 
-0.0506296 0.0667666 3.85564 60 115 118 
-2.85396 1.20553 5.88958 204 166 121 
-2.71389 1.24742 5.91802 181 139 99 
-0.595264 -0.315388 3.8008 134 99 77 
-3.50741 2.08992 6.09154 109 83 60 
-0.649018 -0.401639 3.75687 166 116 83 
-2.70066 1.35306 5.96283 164 130 93 
-3.4176 1.6013 5.93916 91 66 46 
-0.205375 -0.391704 3.7029 154 94 70 
-0.278822 -0.857475 3.63038 77 127 128 
-0.719417 -0.39434 3.75152 27 28 22 
0.464389 1.16818 4.33208 216 199 192 
-0.285038 -0.886514 3.62661 63 126 131 
-3.18809 1.28173 5.88463 123 93 57 
-0.498241 -0.224082 3.76546 235 225 215 
-2.31044 0.432135 5.74436 130 99 68 
-2.89402 1.93543 6.12756 180 147 112 
-0.71966 -0.6679 3.65383 28 41 32 
-2.68865 0.606408 5.72973 190 152 113 
-3.16147 1.9522 6.10475 97 71 48 
-0.562554 -0.672236 3.67252 139 96 77 
-0.335423 -0.772629 3.66379 186 61 65 
-0.362278 -0.872699 3.62584 178 41 49 
-3.82016 1.97972 6.02154 42 25 5 
-0.483731 -0.446773 3.76695 71 128 95 
-0.670591 -0.857727 3.59411 110 66 41 
-0.192149 0.20004 4.00607 137 177 177 
-0.655103 -0.65736 3.66516 158 100 80 
-2.78159 1.41187 5.97223 142 108 73 
-0.256253 -0.895863 3.6223 54 90 88 
-3.30116 1.99119 6.09148 71 50 31 
-3.14604 1.27716 5.88343 156 123 90 
-0.635678 -0.72487 3.64241 170 116 82 
-3.5664 1.84577 6.02115 54 31 15 
-2.78084 1.64413 6.03732 165 126 85 
-1.94489 0.46864 5.83934 127 89 53 
-0.205949 0.283365 4.02975 148 184 182 
-3.1072 1.10577 5.81805 138 104 67 
-1.83679 0.403911 5.84854 117 84 51 
-1.89159 0.837161 5.94717 117 85 47 
-0.751091 -0.121481 3.83851 155 32 63 
-2.68947 1.21077 5.93617 144 105 72 
-0.693396 -0.443093 3.73704 115 144 98 
-0.0785336 0.0440204 3.8562 41 101 109 
-3.18695 1.33519 5.89141 140 105 83 
-0.339615 -0.849404 3.63571 74 105 110 
-0.618811 -0.479596 3.7365 152 37 42 
-2.83022 0.766456 5.76273 204 168 118 
-0.306707 -0.375742 3.6928 116 89 70 
-0.46568 -0.272439 3.75254 183 172 168 
-3.33496 1.63645 5.97457 60 39 22 
-0.31565 -0.405303 3.67941 188 156 141 
-2.68461 1.21131 5.92809 152 113 80 
-0.56025 -0.439869 3.75778 37 31 31 
-2.47147 1.1756 5.94214 128 89 56 
-2.03838 0.810073 5.88584 166 130 96 
-0.226895 -0.899694 3.63715 103 48 41 
-0.495401 -0.34929 3.79811 153 112 90 
-0.594093 -0.526375 3.71895 148 30 42 
-3.03202 1.53059 5.98195 179 150 110 
-3.73846 2.05181 6.0457 68 41 30 
-2.51877 1.33835 5.97989 151 119 81 
0.631433 0.52156 3.77468 125 60 58 
-0.122748 -0.416455 3.80274 7 0 0 
-0.561389 -0.311252 3.80471 38 12 0 
-2.62741 1.75889 6.10952 165 136 104 
-2.26137 0.706424 5.82521 182 143 104 
-3.54334 2.05154 6.07736 113 89 65 
-0.613965 -0.318253 3.79444 95 60 32 
-2.49954 0.829412 5.81482 146 112 77 
-2.94907 1.04114 5.8218 174 141 110 
-2.21876 1.09864 5.95025 166 136 100 
-0.262568 0.339627 4.03576 151 191 182 
-2.64442 1.12849 5.89606 162 128 93 
-0.690875 -0.80788 3.61205 64 76 56 
-2.76627 1.6239 6.0427 190 157 122 
-0.605482 -0.544022 3.70875 169 113 86 
-0.707803 -0.438112 3.74081 63 96 75 
-0.81502 -0.738287 3.59685 99 118 96 
-0.0625794 -0.395244 3.74456 13 1 1 
-3.72974 1.91782 6.01038 68 46 32 
-0.598658 -0.491738 3.73963 144 41 42 
-2.65654 1.7741 6.09268 160 127 92 
-0.357221 -0.346154 3.81661 174 155 157 
-3.05415 1.61642 6.00577 151 119 81 
-0.226882 0.353333 4.03902 137 163 164 
-1.92072 0.717485 5.91081 205 166 125 
-0.750916 -0.577915 3.68363 68 115 81 
-0.670505 -0.802718 3.61177 140 103 76 
-3.09415 0.868837 5.75763 145 116 86 
-0.186724 0.349478 4.05131 213 197 181 
-0.561464 -0.554269 3.71022 150 67 63 
-0.237842 -0.399692 3.6931 166 115 96 
-0.489213 -0.239039 3.75857 237 227 218 
-0.640209 0.0478586 3.87273 180 55 49 
-0.215426 0.327688 4.03546 148 187 182 
0.0898784 0.112428 3.78288 232 232 234 
-0.799289 -0.819203 3.59816 80 123 78 
-3.19778 1.36227 5.89878 139 108 77 
-3.0315 1.13927 5.85737 133 102 71 
-3.18784 1.99085 6.08675 75 50 28 
-2.84205 1.66067 6.04561 158 120 83 
-0.236324 0.36714 4.04876 143 174 169 
-0.165385 0.296786 4.0241 159 151 148 
-0.179899 0.4312 4.08194 200 187 171 
-0.196314 -0.35876 3.70415 131 98 89 
-0.100885 0.00540759 3.89172 36 101 107 
-3.23119 2.03458 6.09434 83 61 40 
0.288324 0.19286 3.85077 217 213 214 
-0.566113 -0.491243 3.73911 55 11 10 
-0.560747 0.405273 3.78158 167 165 168 
-0.657445 -0.716417 3.6397 140 38 36 
-0.278632 0.295439 4.01981 220 222 209 
-0.208561 0.389511 4.05136 213 198 177 
-0.738165 -0.11627 3.83438 182 58 92 
-0.572997 -0.66961 3.66657 69 33 21 
-1.73153 2.11058 6.36525 166 124 86 
-0.8629 -0.703046 3.63422 123 65 28 
-0.244992 -0.779044 3.67353 142 72 64 
-0.374755 0.208188 3.9865 239 177 166 
-2.10028 0.259337 5.72642 154 124 86 
-0.596219 -0.686991 3.66108 152 94 74 
-1.95752 0.665982 5.87412 137 98 59 
-3.78832 2.00148 6.02596 68 48 37 
-0.25923 0.355212 4.03188 149 186 178 
-2.68136 1.5481 6.02361 141 109 71 
-0.621906 -0.788041 3.62508 79 53 38 
-3.17865 1.79821 6.04699 121 94 77 
-0.642758 -0.632871 3.67295 152 107 68 
-3.16102 1.79951 6.04931 116 90 57 
-0.679893 -0.397756 3.75641 112 87 80 
-0.215324 0.32704 4.02566 151 190 187 
-3.01441 1.74551 6.06406 143 109 81 
-0.223847 0.237249 4.01537 241 214 197 
-0.680383 -0.493546 3.72195 68 86 72 
