ply                 
format ascii 1.0    
element vertex 1258
property float x    
property float y    
property float z    
property uchar red  
property uchar green
property uchar blue 
end_header          
1.98324 -1.02329 5.94709 204 172 134 
-2.73613 -0.794728 5.36523 106 73 42 
3.51444 -1.69769 5.92416 66 52 51 
-2.32621 -1.31777 5.19845 141 105 73 
-2.5697 0.597046 5.92746 126 95 66 
-0.542847 -0.182242 3.68019 246 239 233 
-0.343109 0.545371 3.84887 222 221 226 
-3.47679 1.6882 6.23354 93 67 44 
0.933171 -1.80531 5.52295 131 96 66 
-0.368368 0.726181 3.87998 200 198 203 
-0.639448 -0.385652 3.67486 173 123 96 
-3.0042 -0.481643 5.43757 156 120 84 
-2.45863 -1.02571 5.2906 133 101 63 
-2.54212 0.650778 5.96663 203 173 137 
-0.636755 -0.502675 3.62895 173 113 77 
-3.13195 1.79659 6.33422 161 123 84 
-2.92748 -0.598891 5.41023 168 136 98 
-3.06648 0.658701 5.88776 215 177 132 
-0.438164 -0.917419 3.30303 106 106 104 
-3.35491 2.00503 6.37792 168 136 98 
-0.502604 -0.32371 3.71458 142 97 66 
-3.37156 0.379413 5.71075 154 127 100 
-3.54371 1.8614 6.29423 148 122 95 
-2.70055 0.723628 5.97055 94 67 38 
-2.95245 1.71821 6.33239 233 195 150 
-0.563358 -0.286476 3.72028 233 125 53 
-0.654153 -0.408432 3.66403 50 17 2 
-3.20178 0.0676189 5.65853 139 108 79 
-2.69002 0.220219 5.75774 142 108 71 
-0.528312 -0.585345 3.61591 152 117 87 
-2.73421 -1.0842 5.21726 199 161 122 
-3.45773 2.03725 6.38389 75 57 33 
-3.6341 1.71684 6.22434 127 101 68 
-0.794318 -0.0988374 3.75902 30 4 7 
-2.84752 1.79622 6.38151 130 94 60 
-2.78052 -0.261673 5.55365 124 91 56 
-3.03139 -0.0210945 5.63478 162 131 103 
-3.50364 1.81767 6.29127 79 51 27 
-0.684336 -0.780296 3.52241 80 111 95 
-2.63831 0.796579 6.01515 93 64 34 
-0.5662 0.361521 3.73793 204 203 201 
-2.90284 -0.389906 5.49766 216 175 129 
-2.81909 0.607904 5.89567 196 163 122 
-0.583979 -0.537503 3.61882 189 124 94 
-0.825177 -0.552611 3.59277 87 118 84 
-2.14989 -1.22007 5.27409 145 112 77 
1.57136 -1.42109 5.74412 186 153 120 
-3.24994 1.60764 6.23858 127 94 63 
-2.55387 -1.43379 5.1167 220 186 148 
-3.56513 1.75289 6.25719 141 112 78 
-3.33705 1.65426 6.24114 222 190 152 
-0.483297 -0.500005 3.65653 27 26 22 
-0.417007 0.277484 3.93948 236 204 183 
1.45174 -1.68349 5.64224 198 156 114 
-2.93872 2.03316 6.44309 185 147 110 
-2.54154 1.1315 6.16529 126 92 55 
-3.08968 -0.367349 5.47378 190 160 122 
-3.10211 1.62683 6.25489 225 190 152 
-3.03225 -0.022209 5.66463 228 199 167 
-0.64556 -0.388479 3.66445 35 1 0 
-3.59287 2.22419 6.4261 90 64 37 
-2.82486 1.27341 6.17723 205 166 125 
-2.95465 0.62262 5.90603 205 163 113 
-2.68354 0.651934 5.93356 212 177 145 
-0.682237 -0.484301 3.63484 7 5 6 
-3.62528 2.12403 6.38472 134 109 79 
-2.52506 -0.563749 5.47424 197 167 131 
-3.29861 0.543136 5.80092 112 79 44 
-2.82415 0.116101 5.70789 182 150 109 
-0.561694 0.3335 3.73571 140 138 141 
-1.55592 2.11269 6.68048 121 88 69 
1.62743 -1.79946 5.62282 118 88 62 
-2.89991 0.218112 5.72217 134 100 63 
-2.00768 -1.54942 5.17814 117 87 59 
1.62479 -1.63591 5.67369 198 164 129 
-0.588525 -0.562324 3.61856 186 125 94 
1.10433 -1.80478 5.53666 178 142 116 
-2.87828 -0.0494218 5.65386 197 163 126 
-3.32636 0.132515 5.62419 139 106 71 
-2.80415 0.133687 5.71867 140 107 74 
-0.320855 -0.838602 3.54021 71 110 117 
-2.91851 -0.533332 5.43496 212 175 123 
-2.63892 -1.28275 5.16141 187 150 108 
1.39464 -1.37874 5.72833 192 159 128 
-2.7861 -0.219289 5.58466 150 111 78 
-0.531292 -0.544519 3.63321 157 109 87 
-3.4313 1.15081 6.0276 92 62 38 
-3.1264 0.433029 5.7898 195 165 129 
-2.80264 0.746413 5.95459 108 77 46 
-2.52822 0.128452 5.74727 121 92 60 
-2.8729 0.0785679 5.69058 212 173 134 
-0.325365 -0.306293 3.74536 186 167 186 
-2.36575 0.0739616 5.7601 199 165 127 
-3.02847 -0.255524 5.53533 132 97 65 
-3.26035 0.231349 5.67551 225 181 144 
-0.479329 -0.475037 3.66526 24 35 27 
1.85489 -1.54066 5.73506 122 95 65 
-2.47184 -1.61633 5.07347 228 187 155 
-0.620071 -0.61025 3.58871 160 35 41 
-2.96128 -0.345252 5.51373 227 195 144 
-2.7665 -0.0507604 5.65626 188 154 108 
-0.580873 -0.68763 3.56694 170 108 85 
1.28834 -1.82743 5.55284 151 111 75 
-3.08307 0.0944081 5.65402 132 99 64 
-2.44833 0.415683 5.8887 122 90 51 
1.75851 -1.42184 5.77773 181 147 120 
-3.24958 0.892205 5.96981 108 78 50 
-2.96609 1.66002 6.29919 179 140 107 
-3.34769 0.439131 5.73361 121 95 70 
-2.54805 0.270747 5.80041 144 114 80 
-0.30673 -0.912095 3.51804 31 28 23 
-2.40526 -0.163141 5.64075 195 162 127 
-2.82299 -0.359086 5.51362 158 119 80 
-3.00085 0.521164 5.85855 224 186 139 
1.28369 -1.76935 5.58591 199 168 137 
-0.938873 -0.155553 3.70729 33 5 1 
-3.22275 2.15093 6.45558 204 171 138 
-2.70228 1.32774 6.21611 146 115 84 
-2.69055 -0.43314 5.48781 203 161 119 
-2.79531 1.71235 6.35027 201 167 129 
-2.46871 -1.11267 5.24896 148 108 73 
2.01807 -1.17855 5.91851 195 176 161 
1.87745 -0.988262 5.95192 187 144 109 
-2.00161 -1.19275 5.30675 190 157 124 
-2.44896 -1.1806 5.23738 142 112 76 
-0.367758 0.300628 3.95283 221 182 165 
-0.478514 -0.0263282 3.6391 203 142 85 
-3.61342 1.95801 6.3169 153 124 90 
-2.09176 0.999249 6.14472 151 117 82 
-2.40928 -0.567579 5.50343 148 110 74 
-3.08398 0.166989 5.68268 131 97 69 
1.14998 -1.7235 5.59413 133 97 61 
-2.18852 -1.34997 5.20713 137 104 71 
-2.99314 2.11203 6.47556 159 127 86 
-0.566803 -0.586995 3.6146 163 36 45 
-2.36938 1.15472 6.19488 103 69 34 
-2.62218 -0.899844 5.30336 142 107 77 
-2.81704 -0.0559803 5.63976 208 173 135 
-0.432827 -0.837967 3.33295 93 93 91 
-2.83954 0.159291 5.71947 198 154 115 
2.44966 -1.51067 5.90788 146 127 113 
-0.787177 0.0787483 3.79692 80 32 28 
0.665187 -1.76541 5.50548 123 93 67 
-2.60917 -0.495155 5.49207 134 101 68 
-2.99263 -0.104157 5.59734 149 119 83 
-2.97717 1.89345 6.39779 167 128 87 
1.85869 -1.78944 5.64304 132 97 75 
0.0166048 0.172578 3.73807 224 224 226 
-3.061 0.164731 5.66317 161 128 95 
-0.79703 -0.00279502 3.78878 19 9 10 
-3.58451 2.21642 6.41112 91 66 36 
1.84939 -1.54012 5.72841 135 105 77 
-3.31444 1.77174 6.31008 222 179 137 
-2.7983 1.18219 6.14777 140 105 73 
1.82638 -0.999896 5.95054 105 73 48 
-0.443937 -0.813258 3.34899 104 103 101 
-3.20408 1.26602 6.1221 191 154 110 
1.21774 -1.55418 5.66517 204 169 137 
-2.45577 0.185264 5.79168 146 102 57 
-0.553289 -0.655265 3.58821 75 32 16 
-0.27128 -0.400609 3.59593 206 177 159 
1.86889 -1.80292 5.64183 199 166 133 
-2.60405 -0.470273 5.51139 144 110 83 
-2.70464 0.700224 5.96973 129 98 69 
-2.26074 -0.422553 5.59378 154 115 76 
-2.31345 -1.34296 5.18744 146 108 72 
-2.41086 -0.926817 5.36919 128 93 53 
-2.65807 -1.57159 5.05532 141 108 75 
1.36783 -1.82162 5.56152 132 102 66 
-2.54159 0.0186787 5.69125 111 77 42 
-3.09069 0.778153 5.93774 193 164 130 
-2.64271 -1.09721 5.2353 129 90 59 
-0.445117 -0.95184 3.28394 102 100 101 
-2.97349 1.13225 6.10497 131 94 52 
-3.58048 0.980361 5.94605 99 78 47 
-3.40486 1.23814 6.10376 177 142 104 
-2.41345 -0.318797 5.58354 127 93 65 
-0.532353 -0.57258 3.61986 163 117 94 
-2.31783 -0.970906 5.34487 210 173 128 
-0.124429 -0.312648 3.75687 140 70 62 
-2.2928 0.834472 6.06252 101 71 37 
-2.45405 -0.344569 5.58448 136 100 64 
-0.861436 -0.082121 3.75369 231 30 12 
-2.388 0.538561 5.95401 131 96 64 
-2.38857 1.02097 6.12949 190 151 112 
-3.64464 1.75682 6.2359 144 117 90 
-2.56228 -0.680807 5.42179 127 92 54 
-2.36692 -0.793749 5.42462 149 111 74 
-3.00238 1.43752 6.20231 163 125 86 
-0.581041 -0.692484 3.56781 168 108 82 
-3.01375 0.292149 5.72703 227 195 156 
-2.61517 -0.0955551 5.66684 121 87 59 
-2.85206 1.65221 6.30603 148 113 73 
-0.266429 -0.89107 3.53373 65 136 142 
-3.43388 1.79442 6.28306 109 79 55 
-3.34381 0.501367 5.77746 175 143 102 
-0.331807 -0.437813 3.57783 206 179 150 
-3.12488 -0.122459 5.58903 148 115 84 
1.54966 -1.7917 5.59832 181 148 117 
-0.442873 -0.874001 3.31954 105 103 104 
-2.38725 0.95217 6.09923 157 123 85 
-2.46855 -1.11269 5.2488 148 108 73 
-2.11492 -1.03864 5.34519 167 136 108 
-2.69098 0.250548 5.78723 151 119 81 
-2.63194 0.431465 5.8815 199 167 128 
-0.241574 -0.741228 3.59985 160 78 66 
-0.467874 -0.466808 3.66896 12 29 19 
-2.45459 1.26297 6.23851 190 157 122 
-3.20851 1.41537 6.16473 193 159 121 
-2.66823 0.573242 5.93238 203 169 132 
1.78862 -1.39109 5.79496 128 93 65 
-3.12907 0.074709 5.62251 198 163 123 
-2.65028 -1.27957 5.14808 137 98 57 
-2.69383 -0.0330296 5.66878 156 122 94 
-1.93251 -1.53168 5.2051 234 202 164 
1.44513 -1.85221 5.55696 140 107 76 
-2.28578 0.983601 6.1295 160 121 80 
-0.240052 -0.355641 3.61768 136 101 82 
1.28588 -1.78272 5.5741 131 97 70 
1.90807 -1.62573 5.73138 202 163 132 
-1.62593 1.96024 6.61788 111 79 54 
-2.87599 -0.613993 5.41703 203 165 128 
-0.785054 -0.343701 3.59061 255 236 229 
-2.92967 2.11309 6.47384 160 122 77 
-0.254938 -0.882299 3.53181 11 35 37 
-3.12305 0.572716 5.86443 221 191 153 
-2.66836 -0.828774 5.33062 136 108 84 
-0.260993 -0.848851 3.54396 74 136 135 
-3.28571 -0.0307149 5.5997 128 98 60 
-2.54663 0.597784 5.94169 194 160 125 
-3.08066 0.836063 5.95467 134 101 66 
-2.56219 1.32683 6.23603 143 99 60 
-2.57288 0.604657 5.92994 109 76 41 
-0.668236 -0.799947 3.52146 40 47 29 
-2.5017 0.526212 5.91383 189 159 125 
-2.62143 0.358333 5.83635 128 99 69 
-2.90647 -0.141008 5.59003 215 180 140 
-2.42591 0.597923 5.94886 152 118 81 
-0.476312 -0.453821 3.67524 83 139 110 
-2.85177 -0.732699 5.36148 142 108 70 
-0.610861 -0.681933 3.57115 160 37 40 
-2.2904 -1.22413 5.24581 196 160 126 
1.64323 -1.69487 5.64224 212 173 134 
-0.581159 -0.607066 3.60607 166 114 77 
-0.604207 -0.377839 3.68168 54 13 0 
-2.801 -1.12306 5.20189 134 98 64 
-2.89412 -0.967174 5.2583 151 118 87 
-0.577465 -0.322393 3.70565 135 98 79 
-0.555243 -0.357721 3.69862 150 114 90 
-2.60525 -0.401936 5.52712 197 161 129 
-3.59953 1.39734 6.10742 136 111 89 
-2.52865 -0.443474 5.52099 186 158 119 
-2.98001 1.3415 6.13625 146 107 66 
1.17078 -1.77701 5.56136 119 85 57 
2.03872 -0.867534 6.02418 200 179 160 
-1.48493 1.50719 6.4295 145 115 77 
-1.54681 1.72749 6.54085 105 75 47 
-2.58683 -0.186653 5.63008 118 89 55 
-2.76622 0.0488537 5.67353 194 155 124 
-0.150471 -0.859951 3.5398 9 0 5 
1.81116 -1.69375 5.67089 150 116 89 
-3.0771 0.783139 5.95756 189 156 113 
-2.65518 1.26229 6.18605 133 99 62 
-1.51378 1.56729 6.45858 141 108 75 
3.58325 -1.63952 5.93668 68 55 46 
0.459386 0.526205 4.01568 215 202 186 
-0.295336 -0.411285 3.59136 140 108 87 
-3.59244 1.70086 6.21864 91 67 43 
1.94887 -1.08877 5.9172 126 96 60 
-2.73852 0.120295 5.72281 130 94 60 
-0.749208 -0.0587052 3.76815 228 28 15 
-3.07844 1.29402 6.15753 157 122 80 
-2.71645 0.602459 5.91474 134 97 68 
1.37536 -1.80148 5.58017 118 82 46 
-2.80551 -0.256041 5.56599 208 166 124 
-3.21057 1.41756 6.16894 197 163 125 
1.17153 -1.77745 5.56408 119 85 57 
-0.342239 -0.74033 3.58088 237 132 15 
1.81713 -1.29059 5.83876 216 177 134 
-2.53944 -1.01941 5.27423 152 119 84 
-2.72569 1.33892 6.22279 133 103 69 
-2.53317 0.411717 5.87202 169 139 103 
-2.34644 -0.866715 5.37828 147 107 71 
-2.68452 -0.124949 5.62211 202 168 131 
-2.93322 -0.701334 5.37701 183 141 91 
1.39082 -1.64328 5.64538 182 146 112 
-3.37554 1.26675 6.08562 190 155 113 
-2.57893 1.19649 6.16838 180 150 114 
-0.618337 -0.126804 3.69056 251 241 232 
-2.99557 -0.383201 5.50651 161 131 95 
-0.486648 -1.08448 3.42715 134 43 76 
-2.73989 0.99103 6.07454 149 119 83 
-2.37179 -0.919273 5.38021 139 97 55 
-2.45468 0.0367725 5.73536 147 103 56 
-2.69376 -0.560233 5.4487 162 120 82 
-3.02594 1.1916 6.12504 209 169 120 
0.449634 0.201373 3.80315 221 219 220 
-2.07136 -1.10873 5.33714 127 95 57 
-2.59732 0.595398 5.9253 206 166 115 
0.63379 -1.80672 5.47866 180 140 104 
-2.7351 1.26141 6.19273 145 113 75 
-0.584631 -0.306696 3.71022 168 124 95 
-2.69532 -1.22871 5.16777 132 98 70 
-3.28094 -0.0321262 5.59128 128 98 60 
-2.63037 -1.02784 5.26546 140 106 69 
-0.470807 -0.538896 3.63735 144 97 69 
-2.92806 0.433782 5.81856 140 108 67 
1.34709 -1.80946 5.57026 204 169 137 
-2.82958 1.34108 6.19389 131 93 56 
1.40639 -1.7813 5.59232 116 80 56 
-2.29201 -1.47361 5.1416 127 97 61 
1.8935 -1.6497 5.69966 185 155 127 
-2.88457 0.817942 5.965 193 159 122 
-3.56562 1.26224 6.079 68 49 34 
-2.66909 -0.368193 5.53813 146 113 78 
-3.27256 -0.0357021 5.57748 132 100 61 
-2.76887 -0.842022 5.32424 200 168 130 
-2.89846 -0.192767 5.60338 215 175 126 
-0.753092 -0.789956 3.49539 43 85 61 
-0.562597 -0.462256 3.656 150 45 49 
-0.582448 0.336868 3.72956 225 225 227 
-3.13874 0.841936 5.96661 191 161 125 
-2.28609 -1.47094 5.1543 146 116 80 
-2.53634 0.2286 5.79799 169 136 101 
-2.66843 -0.080448 5.65161 222 184 147 
-0.648172 -0.328096 3.69496 173 118 79 
-0.0762371 -0.43229 3.66695 118 67 63 
-2.92052 -0.3836 5.50188 207 165 117 
-0.501771 -0.341713 3.70954 97 63 36 
-2.94217 -0.0965209 5.60389 233 194 155 
0.95489 -1.80616 5.52612 118 85 54 
-0.581147 -0.522451 3.63013 158 31 38 
-0.304755 -0.961296 3.50416 204 49 91 
-2.3266 -0.70735 5.45836 203 160 117 
1.91512 -1.28872 5.86005 137 110 89 
-0.308236 -0.95157 3.50174 209 60 100 
1.57798 -1.47795 5.73336 179 149 121 
-2.49992 1.11446 6.1589 162 128 93 
-2.8694 0.221674 5.73558 205 166 125 
1.34621 -1.86289 5.5328 182 144 105 
-2.80116 0.0481658 5.65862 185 143 95 
-2.43633 1.18235 6.15681 165 137 100 
-0.280195 -0.263467 3.76476 164 151 161 
-3.42181 1.26732 6.05178 79 55 31 
-2.92811 -0.317982 5.53966 174 141 106 
-2.83477 0.404249 5.83917 192 159 116 
-3.15137 0.110147 5.63245 144 114 80 
-3.04774 1.75523 6.33217 230 191 136 
-0.132283 -0.308485 3.76286 139 64 43 
-3.1165 0.739585 5.91542 202 170 131 
-3.62713 1.32447 6.06049 57 39 17 
-2.42416 -0.813768 5.39258 140 107 72 
-2.72444 0.565352 5.9177 124 96 59 
-0.602543 -0.45509 3.66108 159 25 34 
-0.633307 0.446047 3.75276 221 221 223 
-0.564103 -0.331757 3.70434 119 85 60 
-2.12007 -1.55243 5.15378 207 169 130 
-2.78616 0.47813 5.85981 192 160 122 
-2.8668 -0.150416 5.61487 216 181 141 
-2.66257 0.35743 5.8367 163 125 78 
-0.381371 0.640709 3.85173 206 206 208 
-3.21457 0.56763 5.83557 190 153 111 
-2.87801 -0.441039 5.48304 160 121 82 
-2.36293 -0.959079 5.34503 145 110 72 
0.632843 -1.8059 5.47431 183 144 105 
-3.33928 0.606394 5.82795 132 103 69 
-2.7343 0.0816089 5.6959 146 108 69 
-2.80921 -0.415274 5.50022 213 170 125 
-3.01235 -0.204983 5.57258 137 98 65 
-2.74421 -1.06692 5.24662 125 92 61 
-2.11832 -1.12602 5.29658 184 147 105 
-2.3984 1.24852 6.2261 186 150 114 
-2.1434 -1.1818 5.27712 211 176 136 
1.5789 -1.69096 5.6243 187 158 126 
-2.79835 -0.272021 5.56108 199 165 128 
-3.19537 1.18678 6.08516 196 166 130 
-2.81468 -0.667912 5.39343 179 137 99 
-2.98641 -0.507002 5.42393 141 106 68 
-2.40758 1.09872 6.17099 155 122 89 
-2.8058 0.032035 5.67296 189 149 98 
-3.07542 2.11752 6.45489 137 104 63 
-3.23437 1.43392 6.17468 199 171 132 
-0.712152 -0.717292 3.54379 133 98 70 
-2.42501 0.597226 5.94612 152 118 81 
-2.69664 0.453269 5.85556 194 164 126 
-3.25508 1.38339 6.19861 146 115 84 
-2.74975 0.645539 5.93343 143 109 72 
-1.55484 1.80501 6.57073 101 71 45 
-0.380582 0.637294 3.84446 211 211 213 
-3.28325 0.493918 5.78953 120 85 55 
-0.956373 -0.31383 3.66206 40 7 18 
1.97161 -1.01019 5.95345 142 104 68 
-1.95871 -1.64862 5.14716 158 124 86 
-1.52592 1.28399 6.36872 78 52 29 
-3.30905 1.76693 6.29935 222 180 138 
-3.23496 1.37241 6.15013 133 102 73 
-0.341419 -0.410379 3.5811 246 215 194 
-2.23941 -1.19909 5.25763 206 171 129 
-2.67361 -0.221837 5.5973 134 102 64 
-2.76201 -0.887438 5.30891 187 150 108 
-3.57738 1.20772 6.04445 126 100 73 
-0.603006 -0.41924 3.66783 166 112 84 
-3.07075 2.01675 6.46146 229 196 145 
-2.46958 -0.231804 5.62484 190 156 119 
-2.11006 -1.25456 5.27353 234 196 151 
1.57304 -1.85462 5.5649 135 99 63 
-3.17311 0.568267 5.84318 198 167 136 
-3.28235 2.24134 6.47646 207 175 137 
-3.22739 0.0547745 5.62632 206 172 134 
-3.35276 2.29187 6.48736 146 108 71 
-0.487812 -0.3533 3.70539 167 114 82 
-2.79821 0.841996 6.00618 156 117 76 
-3.14553 0.614484 5.8829 159 129 93 
0.130509 0.0989744 3.74367 225 225 227 
-2.6321 0.288286 5.80758 140 106 71 
-1.08608 -0.811805 3.37959 226 92 143 
-0.251645 1.24594 4.3066 134 114 107 
-3.3064 0.578074 5.81071 164 134 100 
-0.709588 -0.642994 3.57276 28 30 25 
-2.99994 0.779444 5.93391 195 162 129 
-3.19717 1.83093 6.32669 161 128 85 
1.98839 -1.47243 5.802 211 196 173 
-2.49714 -0.60375 5.48435 219 178 134 
-2.68832 -0.515046 5.47741 125 91 53 
-3.09504 1.73585 6.3172 170 135 97 
-2.86211 -0.0198447 5.65324 204 166 129 
-0.652773 -0.366765 3.68488 125 102 96 
1.85393 -1.52272 5.76784 191 157 119 
-2.31934 1.26588 6.2503 114 76 40 
-2.69079 0.0700457 5.71848 142 109 74 
-2.3388 -0.775364 5.41763 198 154 107 
-3.48429 1.54226 6.18546 81 59 35 
1.95899 -1.54466 5.76871 206 189 169 
-3.03468 1.83536 6.34957 239 198 146 
-2.53815 -1.40109 5.11836 165 133 95 
-0.766155 -0.0920749 3.76428 161 71 71 
-2.25834 -1.46786 5.1588 206 171 131 
-1.57689 1.88169 6.60777 171 139 114 
-0.595141 -0.682289 3.57537 175 100 79 
-3.23504 1.42886 6.17535 193 165 125 
-0.734838 -0.859306 3.48118 241 117 29 
-2.52009 0.708158 5.98247 129 96 61 
-0.459325 -0.597264 3.62323 26 27 22 
-3.14075 -0.255877 5.50226 129 94 54 
-2.93143 -0.18163 5.58477 177 146 118 
-0.150498 -0.859969 3.53897 9 0 5 
-2.80489 0.369304 5.81214 153 115 78 
-2.0402 -1.48934 5.17241 220 185 145 
-0.633364 -0.649781 3.57774 172 111 82 
-0.505934 -0.842909 3.32777 99 95 94 
-2.51982 0.624454 5.96784 193 159 121 
1.39899 -1.65866 5.64208 115 80 48 
-3.11723 2.15232 6.46918 163 128 90 
-0.240316 -0.779658 3.57522 168 84 74 
1.0007 -1.69357 5.57528 187 153 118 
-2.5448 1.32578 6.25329 209 171 122 
-3.01307 0.291769 5.72486 228 196 155 
-2.49839 -0.588427 5.47534 211 178 135 
-3.27539 0.447162 5.71271 121 82 53 
-3.59741 1.1323 6.00196 116 90 67 
1.43693 -1.43322 5.72037 177 139 103 
1.65701 -1.43008 5.76991 115 84 56 
-3.02029 1.20542 6.13148 210 169 123 
-1.91592 -1.55433 5.18984 163 127 91 
-3.40214 2.04487 6.38087 143 111 88 
-0.105304 -0.286941 3.76178 164 120 111 
-3.24522 0.0474077 5.61901 135 102 69 
-3.076 1.57006 6.23979 151 112 71 
3.47312 -1.60133 5.90518 72 59 50 
-2.57953 -0.499189 5.49508 177 144 111 
-2.06422 -1.54765 5.16348 148 114 77 
1.20165 -1.77469 5.568 114 88 51 
-3.04327 -0.76909 5.31355 128 92 68 
-0.283378 -0.425354 3.59074 194 165 147 
-2.74216 -0.298189 5.5524 134 97 68 
-3.07474 0.528259 5.83674 182 153 113 
-2.68322 -0.141289 5.6232 192 159 124 
-2.3411 -0.663698 5.49043 226 186 135 
-2.93411 -0.701257 5.37867 183 141 91 
-2.37614 -1.54324 5.0963 185 151 113 
-2.78647 -0.0734714 5.6388 147 109 73 
-2.42663 -0.737656 5.41323 173 140 107 
-0.499116 -0.410847 3.67952 194 165 131 
-2.63736 0.190108 5.76432 154 124 88 
-2.69067 0.761676 5.97552 120 89 68 
-3.05388 1.74829 6.32652 230 189 133 
-2.79176 -0.842978 5.3271 141 106 78 
-2.5607 0.410747 5.86655 147 118 84 
-0.468446 0.455491 3.76985 225 224 229 
-3.24183 -0.136683 5.54582 138 103 73 
-2.36627 -0.793846 5.42366 150 112 73 
-3.64083 1.10465 5.96915 60 37 19 
-2.79592 0.239114 5.77339 205 165 130 
-0.592244 -0.437221 3.66308 155 80 59 
-2.6862 -0.439191 5.50878 139 104 72 
-2.80587 0.620696 5.90482 140 106 71 
-0.746772 -0.797539 3.5017 77 124 90 
1.84214 -1.32861 5.82133 104 80 52 
-0.0665773 -0.230307 3.7577 167 120 104 
1.37015 -1.74562 5.59132 193 155 118 
-2.62019 -0.638308 5.43591 119 86 55 
-3.17078 1.62475 6.26371 214 175 132 
-2.60764 0.679738 5.96769 172 138 100 
-3.35269 1.48641 6.19132 163 122 92 
-0.730122 -0.930782 3.45741 220 36 34 
-2.94975 -1.03458 5.21626 174 135 94 
-3.29442 2.21525 6.46505 175 142 111 
-2.59304 1.58627 6.33424 228 192 158 
-2.54388 -1.28858 5.18565 157 119 83 
0.419237 0.108868 3.79031 198 196 199 
-3.05661 1.73459 6.32775 232 193 136 
1.96341 -1.547 5.77043 213 197 182 
-0.580118 -0.52151 3.63164 160 30 38 
-3.19516 -0.228465 5.48584 149 118 87 
-3.30201 0.573045 5.80691 161 133 96 
-3.5885 1.65451 6.20551 130 103 73 
0.947031 -1.79742 5.53733 160 129 101 
-2.78718 0.723725 5.93343 171 139 101 
-0.301661 -0.831377 3.55146 67 120 126 
-0.570007 0.365693 3.7401 209 207 208 
1.71203 -1.56823 5.71303 227 185 147 
-2.48694 0.260458 5.81317 149 112 70 
2.84382 -1.72999 5.84612 199 181 159 
-2.15813 -1.51838 5.15721 212 175 130 
-3.23236 0.238668 5.67711 147 117 83 
-3.85646 1.95707 6.27764 83 55 33 
-2.56345 0.31601 5.82438 135 102 69 
-0.29305 -0.823132 3.55746 77 129 140 
-2.78104 0.552674 5.88685 139 105 68 
1.48801 -1.74845 5.62126 200 169 138 
-2.94398 1.47671 6.21901 165 126 83 
-1.91495 -1.64145 5.14428 210 178 137 
-2.63113 0.404299 5.85906 137 107 69 
-1.08133 -0.546817 3.46271 14 0 6 
0.485251 0.485555 3.98751 205 200 204 
-2.83916 0.892542 6.01077 183 148 110 
-0.567398 0.347136 3.7336 168 164 161 
0.66653 -1.73772 5.50391 109 80 62 
-0.246579 0.395069 4.00152 240 206 168 
-0.267024 -0.875675 3.53323 68 135 143 
3.33743 -1.44734 6.00545 114 102 90 
-2.79961 0.178132 5.70128 185 148 104 
1.72335 -1.07484 5.89264 96 66 40 
-0.722515 -0.00974396 3.8043 224 26 23 
0.775454 -1.75038 5.51028 116 88 66 
-3.79899 1.81915 6.22499 136 111 81 
-3.16178 0.384078 5.71876 149 119 85 
-3.26407 0.631412 5.85076 99 72 45 
-3.15731 -0.301178 5.48641 145 112 79 
-2.89947 -0.590963 5.42187 156 121 83 
-2.47208 0.263034 5.8223 201 159 111 
-0.659766 -0.503951 3.62959 61 37 13 
-2.74063 0.455458 5.85796 201 167 129 
-2.39274 -0.319602 5.57974 131 97 70 
-2.0365 -1.13366 5.3357 143 109 81 
-3.5587 2.15357 6.39207 106 80 55 
-2.70405 0.988622 6.0849 196 164 125 
-2.57818 -0.68331 5.41097 181 147 101 
-3.18011 1.51342 6.21163 190 157 124 
-2.74076 0.739179 5.9617 178 144 107 
-0.60795 -0.285338 3.72169 235 133 51 
-3.25295 0.519824 5.79781 148 114 87 
-2.9633 0.214956 5.70725 170 132 87 
-3.16952 1.39235 6.15235 176 150 113 
-2.97313 -0.804838 5.32517 168 130 94 
-2.37428 -0.845473 5.37643 152 110 72 
-0.213118 0.275326 3.95848 135 164 160 
-0.457153 -0.825429 3.34131 205 204 199 
-3.15915 1.5628 6.22899 212 180 141 
-2.70261 1.00971 6.09973 197 159 123 
-2.9326 1.03199 6.07166 191 156 116 
-0.750554 -0.0566329 3.77606 227 29 18 
-3.67106 2.0836 6.35162 104 78 53 
-2.27452 1.22409 6.25048 125 97 60 
-2.82906 1.09047 6.10633 131 97 59 
-0.667293 -0.797037 3.51878 96 111 92 
-2.7166 -0.556803 5.49684 198 155 121 
-2.76809 -0.638818 5.40197 217 175 135 
1.88416 -1.70696 5.71154 200 162 125 
-2.732 0.175126 5.73264 210 168 130 
-0.606383 -0.287142 3.71346 187 107 58 
-2.38608 -0.326839 5.58387 122 89 56 
-2.35244 1.29524 6.2543 107 67 42 
-2.31987 1.17572 6.1978 132 98 61 
-2.9408 0.103881 5.67301 177 143 106 
-2.95811 0.261582 5.73052 151 113 77 
-0.348005 -0.716527 3.58972 174 39 33 
0.689766 1.13969 4.39234 120 86 61 
-2.72358 1.33753 6.21976 133 103 69 
-3.334 1.20142 6.0444 122 90 65 
-2.56136 -1.15234 5.21334 168 133 103 
-2.89555 0.192967 5.70215 137 105 67 
1.37881 -1.70546 5.60935 137 101 67 
-0.295442 -0.378883 3.60375 178 147 126 
1.31688 -1.79807 5.57413 140 106 68 
-3.62858 1.48869 6.13097 73 51 30 
-2.68397 1.12606 6.15138 191 159 120 
-2.59782 -0.432352 5.53756 176 138 102 
-3.11483 2.18071 6.49031 233 201 160 
0.245849 -0.222894 3.85551 219 206 187 
0.132616 0.154127 3.76455 226 225 230 
-2.23842 0.816291 6.07827 110 76 49 
-2.07943 -1.07799 5.33568 134 104 70 
-0.277714 -0.741725 3.59141 35 26 27 
-2.25302 0.98418 6.13435 154 113 83 
-2.42051 -0.187571 5.6373 117 84 53 
-2.63408 1.16051 6.16029 119 86 53 
-2.35192 0.552281 5.96229 150 110 74 
-2.84255 0.618156 5.90625 158 119 78 
-0.777387 0.0534895 3.8016 51 27 25 
1.45471 -1.44005 5.72113 143 102 74 
-2.95132 0.593546 5.90261 228 191 146 
-2.8513 0.577453 5.89733 145 110 68 
-2.89101 1.94959 6.46934 193 154 113 
-2.23165 1.15336 6.19863 164 132 109 
-0.266296 -0.29986 3.75317 16 11 15 
-2.83056 -0.122357 5.60437 201 160 114 
-3.2545 0.468853 5.7821 180 147 112 
-2.88512 -0.188388 5.61062 197 155 113 
-0.45775 -0.411532 3.69041 104 145 105 
1.73529 -1.05631 5.90074 158 131 104 
-2.92252 1.22801 6.13143 195 160 120 
1.0979 -1.79433 5.53945 190 153 127 
1.52485 -1.55273 5.68544 132 98 71 
-0.241089 -0.887712 3.53417 65 91 88 
-3.07328 0.0308365 5.6486 143 114 82 
-3.08152 -0.458089 5.43594 191 152 109 
-2.92054 0.850566 6.00966 165 130 92 
-0.654763 -0.581871 3.5995 157 31 35 
0.46883 1.06903 4.33086 159 110 77 
-3.03821 1.54019 6.23386 207 174 131 
-0.354021 0.251098 3.94019 207 67 78 
-2.62611 1.09699 6.123 131 98 63 
-2.66897 0.896147 6.02873 184 155 123 
-2.83305 0.779099 5.95132 185 143 105 
-3.19176 -0.207482 5.51275 183 148 120 
-0.652001 -0.385627 3.67398 41 12 6 
-0.73454 -0.959882 3.44143 214 41 87 
1.59881 -1.19775 5.84812 168 140 116 
1.48023 -1.62851 5.66412 194 165 131 
-2.35998 -0.526712 5.52063 186 146 111 
0.12875 0.173696 3.75742 224 223 228 
1.21919 -1.6443 5.64661 148 116 91 
-2.79961 0.648968 5.93179 147 107 72 
-0.574903 -0.664997 3.58023 141 69 47 
-2.94177 0.104308 5.6759 177 143 106 
-0.615866 -0.716985 3.55886 182 121 90 
-2.20107 -0.50412 5.55285 209 176 135 
-0.714478 -0.588591 3.59164 138 100 77 
-3.14481 1.61029 6.26245 150 119 88 
1.83248 -1.15107 5.89018 207 165 127 
-2.90674 0.927687 6.01684 164 131 100 
0.659907 0.50139 3.60411 236 228 225 
-3.29995 0.572087 5.80362 161 133 96 
-2.52013 0.625993 5.96653 195 161 123 
-2.84842 -0.156684 5.60832 146 111 71 
-3.03163 -0.27474 5.52135 134 105 75 
-1.93414 -1.57247 5.1949 224 185 144 
1.60674 -1.76617 5.63017 195 157 120 
-3.01381 0.590692 5.8646 224 193 149 
-2.34822 -1.30251 5.1872 193 161 122 
1.61413 -1.57048 5.7004 144 114 80 
-2.88935 0.590154 5.90016 181 142 99 
-3.02604 0.651406 5.88954 145 113 75 
-2.49316 -0.0351465 5.68328 143 111 72 
-2.37956 -0.910912 5.38484 156 112 73 
-0.109498 -0.499534 3.6741 15 9 11 
-2.79225 -0.842996 5.32836 141 106 78 
-0.2266 0.425456 4.00273 235 206 164 
-2.51756 -0.193035 5.63057 200 170 132 
1.61624 -1.30897 5.80422 126 92 65 
-2.55826 0.0142026 5.68125 188 145 100 
-2.85661 0.278663 5.76602 141 112 70 
-2.49064 -0.967662 5.31993 150 102 56 
1.67616 -1.24809 5.81899 136 109 80 
-0.60148 -0.457137 3.64539 156 25 31 
-2.75136 -0.438155 5.49815 145 111 74 
-3.076 0.0151841 5.63735 142 109 76 
-0.262264 -0.790624 3.57099 34 26 24 
-2.54985 0.292524 5.81932 174 140 103 
-2.56033 1.15842 6.16362 168 139 99 
1.62554 -1.17721 5.85588 109 77 52 
-0.421079 -0.810598 3.35615 101 99 102 
1.57342 -1.72363 5.61847 183 149 111 
-3.17225 1.69765 6.27395 197 164 129 
1.54755 -1.82199 5.59747 119 87 64 
-2.65729 1.58416 6.32147 200 162 126 
-2.81273 0.735843 5.94116 183 147 111 
-2.72667 0.463878 5.86105 193 151 111 
-3.02915 -0.69668 5.35771 198 160 123 
-2.5407 1.16318 6.15764 137 102 60 
-0.531995 -0.83505 3.33056 100 100 102 
-0.0536131 -1.033 3.35698 166 34 91 
-0.68462 -0.432347 3.64802 70 105 85 
-3.32477 1.51875 6.20147 222 183 142 
-0.0935865 -0.311575 3.7422 139 74 72 
1.61987 -1.42832 5.75658 125 92 59 
1.57627 -1.67547 5.65221 182 152 128 
-3.51518 2.06292 6.37546 158 127 98 
1.66641 -1.59637 5.69725 150 119 88 
-2.58076 0.402533 5.86189 133 103 67 
1.93176 -0.945914 5.97386 174 134 99 
-2.49397 0.0551329 5.7301 133 99 61 
-2.72099 -0.512038 5.46911 177 139 94 
2.30838 -1.40446 5.91079 198 185 168 
-2.5405 0.88355 6.05554 137 104 69 
3.32914 -1.3136 5.95854 56 45 41 
-3.25274 0.922086 5.9685 142 113 81 
1.86493 -1.45105 5.78487 134 99 79 
-2.36384 1.2005 6.19304 128 94 56 
-3.00988 -0.423953 5.49612 215 183 142 
-2.97052 0.050221 5.6567 157 123 86 
-2.48218 0.504728 5.91589 185 151 116 
-2.27684 1.22668 6.25774 122 94 57 
1.47413 -1.48203 5.7024 140 105 73 
-3.41059 2.21594 6.43433 139 109 81 
-2.99104 -0.435935 5.45845 214 186 149 
-2.76342 0.329038 5.79346 179 145 108 
-0.490328 -0.665942 3.59097 153 102 73 
-2.18418 -1.37928 5.21741 184 150 115 
1.54647 -1.82148 5.59532 114 82 59 
-3.25193 0.92175 5.96781 144 115 83 
-2.77242 1.08954 6.10288 127 93 58 
-0.054774 -1.03253 3.35334 165 36 90 
-3.04202 0.492665 5.81485 196 162 116 
-3.67089 1.2331 6.02807 119 98 69 
-0.437088 -0.452615 3.67656 129 123 109 
-0.127904 -0.512195 3.67373 68 47 42 
-2.53315 0.827532 6.03655 124 90 62 
-0.657168 -0.444432 3.64882 121 159 100 
-2.41905 1.08791 6.1627 112 79 44 
-2.89784 0.180472 5.7221 187 157 119 
1.58152 -1.56236 5.69943 138 102 76 
-2.12871 -1.19057 5.28575 151 116 76 
-2.55073 0.141734 5.75583 120 86 59 
-0.804772 -0.662889 3.54868 79 141 100 
-2.65943 -0.584587 5.44686 148 114 87 
-3.3967 2.18446 6.42833 112 78 51 
1.93695 -0.935593 5.98638 185 144 114 
1.65172 -1.89272 5.56547 130 99 70 
-1.5807 1.42095 6.39102 96 68 47 
-2.68175 0.60209 5.92177 185 153 115 
-2.29817 1.05619 6.15509 108 73 41 
-3.19383 1.62031 6.26735 180 143 101 
1.51038 -1.76006 5.61451 178 151 122 
-2.41044 -0.30083 5.5888 185 152 119 
1.84551 -1.84975 5.60495 145 109 73 
0.0621193 -0.616056 3.67376 196 183 174 
-2.65441 -1.37528 5.11938 148 114 79 
-0.865149 -1.12472 3.23535 200 63 117 
-3.3524 2.05071 6.39821 125 91 56 
-0.865482 -1.12477 3.23655 177 43 96 
-0.540861 -0.307575 3.71604 49 21 9 
-2.39499 -0.682453 5.45732 155 116 87 
-0.335649 -0.830939 3.54642 175 59 68 
-2.75688 -0.318109 5.55083 150 110 74 
1.34561 -1.82816 5.55437 184 153 125 
-0.564012 -0.394893 3.68215 95 60 38 
-0.862975 -0.0379941 3.77039 200 30 30 
0.583332 1.12846 4.35628 74 63 57 
-3.40546 0.478115 5.72999 80 54 37 
-3.30665 0.645021 5.83348 83 61 38 
-3.16812 1.55368 6.22159 175 145 107 
-2.5688 0.213168 5.78767 137 101 67 
-2.86081 -1.33088 5.11749 180 137 92 
-2.45718 -0.890777 5.36446 155 117 80 
0.847493 -1.79461 5.51161 158 128 102 
0.479008 -1.82423 5.46867 134 98 74 
-3.15045 1.09297 6.04202 179 144 114 
-2.7325 0.605272 5.9193 189 154 114 
-2.0312 -1.31319 5.25416 151 117 89 
-3.0565 0.294292 5.71324 149 111 62 
-3.03189 -0.719108 5.36078 158 123 93 
-3.72892 1.6182 6.1695 112 88 64 
1.73452 -1.6082 5.70762 111 84 57 
-3.29275 0.619576 5.85068 144 117 87 
-0.0833388 -0.454993 3.66741 80 49 46 
-3.15439 0.441542 5.76964 159 129 95 
-2.32236 -0.877688 5.37979 186 151 113 
-3.75933 1.77906 6.20633 122 98 72 
-2.67006 0.877473 6.02023 132 103 71 
-1.08382 -0.545638 3.47283 19 0 9 
-0.463992 -0.439125 3.67831 75 136 102 
0.861068 -1.78904 5.50948 163 132 103 
-2.52481 -0.430522 5.52897 162 133 99 
-2.86861 1.79282 6.38902 199 162 120 
-2.87801 0.330918 5.76232 202 167 129 
1.43213 -1.52281 5.67993 147 107 72 
-2.99698 0.0436862 5.66038 188 158 122 
-3.0792 -0.636674 5.34638 187 155 114 
-3.14824 1.69988 6.27603 189 157 119 
-0.620995 -0.626255 3.58804 171 110 63 
-0.650089 -0.48034 3.64207 2 26 0 
-2.86797 0.370399 5.79201 201 163 126 
-2.73584 -1.44389 5.07315 186 153 118 
1.85667 -1.89746 5.59643 134 107 80 
-0.573584 -0.66586 3.57176 165 94 76 
-0.594601 -0.134678 3.69109 250 244 232 
1.64297 -1.56726 5.71132 136 106 72 
0.412353 0.10891 3.7906 143 141 146 
-2.76019 -0.45121 5.49741 147 108 69 
-1.93388 -1.57511 5.17658 216 178 142 
-0.110519 -0.493476 3.66871 19 7 9 
-0.297908 0.345474 3.97603 212 61 76 
-3.34597 2.25887 6.47595 176 140 106 
-0.284169 -0.919723 3.51594 148 63 58 
-3.41499 1.69106 6.23255 153 114 81 
-3.13147 -0.252423 5.51411 189 151 114 
-0.463645 -0.441844 3.67743 80 139 107 
-2.87573 -0.275758 5.54448 157 121 85 
-0.674237 -0.615246 3.58648 170 114 77 
-0.531181 -1.09977 3.40545 4 1 10 
-0.26456 -0.78009 3.57658 37 33 24 
-3.20249 1.50379 6.2047 137 106 75 
-2.76462 0.329768 5.79729 178 144 107 
-2.42012 0.404265 5.88291 129 96 63 
-2.68481 0.740432 5.97444 167 136 105 
-2.52456 -1.38216 5.12662 151 117 82 
-0.487389 -0.66269 3.59175 151 104 78 
-0.238743 -0.885529 3.53132 39 64 60 
-0.447938 -0.439311 3.68342 79 143 108 
-3.085 0.717058 5.89285 174 142 104 
-2.9785 0.0227835 5.64234 153 119 82 
-2.39024 -1.3508 5.20179 142 104 59 
-2.88028 0.0166814 5.66399 151 118 85 
1.30793 -1.63226 5.64441 135 99 63 
-3.38749 1.75426 6.26985 161 126 94 
-0.305771 -0.847371 3.54094 47 66 73 
-3.00315 0.56013 5.85037 186 158 110 
-3.30439 0.601631 5.81579 90 62 41 
-2.42687 0.626379 5.95385 135 103 65 
-0.212481 -0.814005 3.56934 167 89 77 
-0.646656 -0.845898 3.49963 127 80 54 
-3.50946 1.2573 6.08892 110 84 59 
-2.34683 0.915375 6.08705 166 124 82 
-1.92371 -1.62328 5.15647 156 124 86 
-0.491137 -0.66761 3.59067 153 102 73 
-2.94639 -0.250391 5.54499 173 139 104 
1.66396 -1.64793 5.66406 134 103 75 
1.94235 -1.47999 5.77638 156 129 102 
-4.70141 -0.583204 9.10687 203 165 126 
-2.69298 0.363089 5.81672 138 109 69 
-2.56426 0.203865 5.79509 140 108 69 
-2.43906 0.975898 6.12465 168 133 101 
-0.109625 -0.500192 3.66927 16 10 12 
-3.08746 -0.577882 5.37719 164 130 95 
-2.83829 0.644839 5.89612 147 108 67 
-0.242431 -0.751931 3.59309 163 83 76 
-0.776334 0.0410853 3.80474 44 18 17 
1.74258 -1.48612 5.70548 139 110 76 
-0.618367 -0.715606 3.55354 181 120 91 
0.448298 1.19316 4.3628 186 167 160 
0.689295 0.90445 4.3043 72 62 61 
-3.24284 1.421 6.16287 163 134 94 
-3.30747 0.603251 5.82189 96 67 49 
-0.0340703 1.46181 4.27421 118 68 67 
-0.305354 -0.847439 3.54492 20 42 53 
1.78852 -1.13898 5.88745 165 133 110 
-0.296334 -0.268214 3.76124 171 154 173 
-2.84847 0.36993 5.81053 161 122 81 
-2.6896 0.76103 5.97356 124 94 70 
-2.54124 0.710994 5.98788 179 147 109 
-2.08814 -1.05744 5.34613 114 84 58 
-3.24935 0.544745 5.80561 148 112 86 
2.66386 0.14052 4.47021 234 230 221 
-2.07839 -1.35185 5.22463 194 153 109 
-0.844866 -0.628284 3.57543 99 39 13 
-0.563822 -0.672409 3.57684 169 123 107 
-2.87715 -0.118891 5.60599 194 164 126 
-2.31238 -1.03849 5.31732 161 119 81 
-3.73083 1.61965 6.17289 114 90 66 
-0.559485 0.370632 3.74024 209 207 208 
-1.58341 2.08817 6.67998 166 133 100 
1.52458 -1.70215 5.61722 114 82 59 
-2.69483 0.955598 6.06946 177 145 107 
-0.589263 -0.124433 3.69502 167 156 152 
-0.473109 -0.719005 3.57749 208 68 69 
-1.76013 2.10628 6.66357 132 95 68 
1.83538 -1.41272 5.78912 199 171 159 
-0.259741 1.23654 4.30639 191 173 161 
-0.342957 -0.412689 3.5868 194 163 143 
1.9664 -1.39615 5.83313 156 129 102 
-2.52276 -0.122829 5.65254 142 109 74 
-2.99268 0.764764 5.93682 151 113 74 
-0.824537 -0.0205699 3.77879 27 0 1 
-0.210229 0.399449 4.00195 242 211 182 
-0.282283 -0.892239 3.53082 6 36 38 
-2.55839 0.0142681 5.6818 188 145 100 
-2.5359 0.296412 5.82538 184 150 112 
-0.553265 -0.584269 3.61479 157 42 39 
1.55691 -1.77669 5.6072 133 102 73 
-2.28269 -0.576808 5.52341 140 99 67 
-2.62897 0.16858 5.78417 185 151 114 
-2.81216 0.247724 5.75659 195 162 127 
-0.855665 -0.693999 3.53091 216 54 43 
-0.375482 0.122687 3.75096 152 2 11 
-2.83169 0.289083 5.77723 143 103 67 
-3.00382 -0.440556 5.4647 214 186 147 
-0.527858 -0.422733 3.6804 103 72 52 
1.06659 -1.67446 5.59383 138 104 69 
-2.78979 -0.365616 5.52868 153 114 71 
-2.32211 -0.877732 5.37953 186 151 113 
-2.8831 0.471071 5.82464 204 172 134 
0.964984 -1.80125 5.56524 108 74 49 
-2.37868 -1.40809 5.15664 142 99 64 
-2.96901 0.201854 5.69223 193 163 125 
-2.37479 0.997903 6.11923 162 122 87 
-3.43513 1.84054 6.29299 162 129 94 
-2.76377 1.33356 6.2109 143 106 64 
-2.97236 0.63479 5.89291 215 172 129 
-2.46296 0.431513 5.88649 192 141 86 
1.93218 -1.36469 5.82305 187 155 117 
-2.73722 0.616831 5.92304 195 157 112 
-0.657679 -0.502562 3.63335 63 31 10 
-0.251763 -0.873318 3.53613 91 127 123 
-2.82633 -0.673129 5.38334 154 111 69 
-0.302138 -0.889671 3.52345 28 27 23 
-2.81754 1.20186 6.1472 183 147 111 
-3.03606 -0.462476 5.44985 192 159 124 
-3.64315 1.5064 6.14195 74 50 26 
-3.14702 0.0961802 5.63624 195 161 124 
-3.21034 1.9437 6.36594 206 172 144 
-3.25997 0.680048 5.85298 89 59 35 
1.55827 -1.37755 5.75342 114 83 62 
-2.96051 1.80613 6.36132 182 143 104 
-0.448943 -0.696062 3.58307 146 61 56 
-3.4074 2.21281 6.42827 139 109 81 
-2.09643 -1.08235 5.33098 115 85 59 
-0.572058 -0.465622 3.64632 147 38 35 
1.08399 -1.84536 5.52823 173 139 104 
-3.25337 0.578173 5.83704 212 182 144 
-0.294124 -0.845548 3.54525 63 124 127 
1.89361 -1.5291 5.79255 135 101 66 
-2.39962 -0.812652 5.38458 155 121 86 
1.36961 -1.3772 5.72794 147 113 85 
-3.25155 0.570979 5.83802 202 173 131 
-0.223085 -0.826804 3.56377 161 84 74 
-3.15627 1.67523 6.27108 167 135 97 
-3.12788 1.55044 6.23092 221 187 150 
-0.241886 0.252018 3.9517 103 75 64 
-3.31628 1.30639 6.11576 210 171 130 
-2.54644 -0.257847 5.59449 133 101 63 
-2.65878 0.805885 6.01931 182 144 105 
-2.80623 -1.46254 5.08731 156 117 84 
-3.33395 0.581703 5.76538 89 57 32 
-3.00521 1.15922 6.10595 220 177 134 
-2.52695 -0.0381326 5.69574 130 100 64 
-2.82889 -0.283033 5.55465 178 138 102 
1.51524 -1.75929 5.62 176 149 119 
1.83168 -1.24695 5.84123 154 112 74 
-2.53155 -0.350957 5.54338 184 151 116 
-0.738575 -0.113483 3.76313 214 40 29 
-0.0720272 -0.456692 3.65563 14 0 0 
-1.04425 -0.880234 3.42385 163 40 86 
-2.42319 -0.184969 5.6216 133 103 67 
-2.85014 0.624117 5.92561 162 123 82 
-0.660888 -0.840058 3.48656 129 83 50 
-1.12634 -0.740731 3.35788 105 23 59 
1.70749 -1.24414 5.81801 142 108 80 
-1.93994 -1.23457 5.30249 131 101 65 
-0.494642 -0.509577 3.65231 91 142 111 
-2.68987 0.361347 5.80889 136 107 67 
-0.426189 0.303074 3.9387 235 206 176 
-0.495665 -0.347077 3.7077 135 90 67 
-0.751018 -0.045102 3.78304 230 28 18 
-2.44701 -0.725978 5.4212 143 109 64 
-2.32342 1.21311 6.22542 138 103 61 
0.895536 -1.82035 5.52407 128 95 64 
-1.76298 2.37235 6.77208 173 139 104 
-2.51138 1.1829 6.16836 196 154 114 
-0.722652 -0.0950865 3.77243 223 29 27 
-2.86404 -0.295276 5.54264 156 118 79 
-3.5771 1.90346 6.30492 135 109 84 
1.58265 -1.28289 5.78843 146 116 92 
-3.11471 0.188999 5.6715 179 145 117 
-2.67102 0.507961 5.91397 213 180 139 
1.3083 -1.43782 5.72132 143 115 78 
-2.71958 0.0241781 5.70811 188 148 112 
-1.58542 2.09127 6.68606 168 134 106 
-2.76228 0.5568 5.89209 185 151 114 
-1.01967 -0.946745 3.38915 167 34 89 
-1.76322 2.37239 6.772 173 139 104 
1.94492 -1.23167 5.8666 140 117 99 
0.133763 0.165856 3.75863 228 227 232 
1.78795 -1.29472 5.82779 142 109 78 
1.78764 -1.29464 5.82719 142 109 78 
-2.55612 0.890589 6.03787 160 131 97 
-2.04815 -1.08373 5.35608 126 87 56 
-0.730885 -0.547935 3.60465 60 102 78 
1.74551 -1.54413 5.72492 166 136 102 
-2.86951 -0.565557 5.41864 188 156 118 
-2.58602 1.12776 6.18378 151 119 81 
-0.890928 0.0930876 3.7896 227 41 29 
-2.29106 -0.233058 5.64235 159 117 77 
1.34145 -1.62941 5.64996 132 97 65 
-2.67697 0.198344 5.76189 130 100 64 
-2.55922 0.106727 5.7412 123 87 53 
-0.330204 -0.31655 3.74156 186 168 184 
-2.46792 0.814684 6.04233 127 94 63 
-3.57642 1.63945 6.19277 138 111 84 
-2.56464 -0.529163 5.49403 138 104 67 
-2.02822 1.08683 6.21776 129 92 63 
-2.56823 -0.620874 5.46378 135 102 69 
-3.06716 1.974 6.41603 172 133 100 
-1.44491 1.9423 6.62226 88 57 36 
1.96326 -1.24884 5.87812 184 152 113 
-2.94698 1.04064 6.05969 166 136 102 
1.44947 -1.79663 5.58031 150 110 75 
-2.73088 0.466118 5.8695 189 147 107 
-2.79926 -0.11815 5.60548 200 162 123 
-3.32835 0.523042 5.7859 113 79 51 
0.33868 -0.0417389 3.92691 134 121 105 
-3.61651 1.07768 5.97789 71 46 24 
1.85595 -1.15633 5.88282 197 158 119 
-3.67534 1.98561 6.32733 102 78 52 
-0.446763 -0.37424 3.70656 136 86 63 
-0.362322 0.127727 3.76923 74 0 1 
-2.06879 -1.52826 5.17266 164 124 88 
-0.652529 -0.805572 3.51545 128 82 56 
-2.86906 0.461187 5.84762 191 156 116 
-3.29676 0.376783 5.70727 169 138 107 
-0.084631 -0.457114 3.6687 85 54 51 
-0.0524813 -1.03354 3.37229 228 96 153 
-0.779588 -0.322955 3.60306 238 192 176 
-2.44887 0.377097 5.8829 176 141 103 
-2.74834 1.13787 6.13457 166 136 98 
1.20789 1.48486 4.47403 226 142 10 
-0.293809 -0.426998 3.58604 208 180 159 
-2.52819 0.463526 5.87745 173 139 102 
-2.74834 0.758861 5.96418 137 103 68 
-2.25508 1.19579 6.22534 117 82 60 
1.92273 -1.1865 5.89513 134 100 65 
-2.6087 1.60381 6.32345 180 145 107 
-0.550565 -0.594474 3.6066 146 98 62 
-2.76136 -0.597315 5.42795 194 150 113 
3.30175 -1.73613 5.91536 174 157 141 
-0.280278 -0.359191 3.61263 133 100 85 
1.02666 -1.68444 5.57786 128 94 67 
1.51258 -1.53436 5.69116 171 136 104 
-0.722094 -0.0961 3.76824 222 27 23 
-3.19083 1.38939 6.15266 138 108 74 
-2.43701 0.502853 5.93993 128 98 60 
-0.285831 -0.881165 3.53907 72 137 139 
-2.81322 0.592386 5.89527 137 108 68 
-0.719717 -0.0843464 3.76947 214 33 24 
-2.34796 0.649528 6.01795 168 132 96 
-3.65966 1.92346 6.29587 98 76 55 
-2.43951 -0.326852 5.58713 175 140 100 
-2.90159 -0.15002 5.62869 195 157 120 
-0.54128 -0.664978 3.58534 150 100 75 
-2.00647 -1.21588 5.29665 200 168 127 
0.715198 0.940509 4.31118 180 131 91 
-0.653273 -0.805337 3.5219 130 84 60 
-3.25264 0.931434 5.96751 141 111 85 
-2.85339 0.669429 5.92509 166 122 83 
-2.4023 -0.342759 5.56747 186 148 109 
-2.96713 1.69415 6.30659 171 133 96 
-3.20704 0.369531 5.71421 201 167 129 
0.994958 -1.80488 5.53865 158 127 99 
-2.86003 -0.322188 5.51832 183 144 105 
-0.644979 -0.854875 3.50284 163 99 71 
-2.39518 -1.21567 5.2347 180 149 118 
-2.80002 0.509612 5.86619 183 151 110 
-2.48605 -0.204278 5.62454 143 110 77 
-2.87108 1.05885 6.06642 179 145 110 
-0.473617 -0.640566 3.60539 39 26 18 
-2.82316 0.728154 5.94326 184 149 109 
-2.52936 0.768242 6.03042 188 150 114 
-2.6035 -0.332891 5.55897 125 94 63 
-2.45108 -0.563196 5.49637 170 128 90 
-0.559292 -0.374761 3.69093 122 86 62 
-2.96481 1.67595 6.30489 198 160 124 
-3.33095 1.36433 6.1414 183 148 108 
-0.351942 -0.975139 3.48881 138 28 67 
1.73465 -1.63183 5.69628 133 102 73 
-3.1103 0.113184 5.63954 181 147 110 
1.92309 -1.48452 5.76273 184 155 125 
-1.12681 -0.72934 3.38392 151 45 91 
1.64676 -1.59019 5.69248 141 111 77 
-2.30694 0.864288 6.07106 163 127 95 
-0.417743 0.292712 3.94105 229 199 175 
-2.79876 1.01197 6.09834 156 119 90 
0.377931 0.162331 3.79962 196 191 195 
-2.86292 -0.723693 5.3496 213 180 139 
1.44213 -1.3581 5.74428 108 71 42 
-0.245476 0.340423 3.97576 146 182 178 
-2.68473 1.02229 6.08876 144 110 75 
-2.22598 1.13602 6.20714 136 100 68 
-0.35233 -0.301667 3.74317 187 168 188 
-0.351672 -0.756775 3.57458 232 132 38 
-2.62541 -0.456264 5.50208 192 153 120 
-0.293561 0.317937 3.96465 208 72 84 
-2.29225 -1.43488 5.17545 183 143 107 
0.0435519 0.134738 3.73542 199 197 202 
-0.342221 -0.979979 3.48896 136 25 67 
-2.62401 -0.588291 5.45825 152 122 88 
-0.953507 -0.0348574 3.74741 40 38 39 
0.120017 0.184829 3.75789 164 164 164 
-2.61519 0.604994 5.93576 162 124 77 
0.391403 0.177042 3.79306 197 192 196 
-2.4176 -0.186865 5.6088 134 104 68 
-2.39623 -1.21582 5.23715 180 149 118 
-0.772201 -0.652146 3.56016 18 31 14 
-2.82963 1.3029 6.18878 195 158 116 
-1.94042 -1.64826 5.13554 229 193 143 
1.32426 -1.59752 5.65789 177 144 113 
-3.50981 2.10227 6.38552 139 110 80 
-2.21986 1.16557 6.20269 141 107 79 
-3.53357 1.38768 6.11543 82 58 32 
-2.69665 -1.24313 5.17163 157 124 93 
-2.54405 -0.24705 5.59361 132 99 58 
-2.0255 -1.49476 5.18197 164 126 89 
-2.79952 -0.93469 5.2508 167 129 92 
-0.442789 -0.841975 3.33822 100 101 93 
-0.274443 -0.963316 3.49979 211 44 96 
-3.10749 -0.0111135 5.62926 159 129 93 
1.9205 -1.01624 5.95492 147 110 84 
-2.53096 0.116812 5.74112 113 86 57 
-2.4386 -0.327102 5.58504 175 140 100 
-2.51892 -1.24661 5.19288 220 181 142 
2.08542 -1.58073 5.80011 211 198 179 
-2.64952 0.0881214 5.72993 213 174 133 
-2.80497 0.233785 5.76106 149 113 77 
-3.14046 0.588963 5.86069 183 155 118 
-2.54441 -0.514538 5.49274 180 146 111 
-2.3966 -0.153138 5.65411 154 122 84 
-0.59458 -0.516185 3.6324 142 40 35 
-0.820995 -0.605042 3.57267 178 102 52 
-3.03745 -0.592093 5.38951 175 142 111 
-2.93399 0.696047 5.91849 185 146 113 
-3.20416 0.326678 5.68562 210 171 130 
-2.45792 -1.57566 5.0862 162 128 93 
-2.28656 -1.14326 5.27535 196 152 103 
1.84966 -1.26101 5.85142 195 158 114 
1.86295 -1.13073 5.90389 197 155 113 
1.96756 -1.3045 5.86336 143 116 87 
-2.82608 -0.843164 5.31278 160 115 82 
-3.12201 0.159581 5.66785 200 167 134 
-3.5231 2.26216 6.44993 101 75 52 
1.81802 -1.53523 5.72337 179 145 110 
-3.12107 -0.542645 5.39903 174 140 103 
-3.49678 1.70433 6.24305 78 52 27 
0.914475 -1.68861 5.59306 119 86 53 
-2.94616 -0.899807 5.27272 151 115 79 
-2.86008 0.914845 6.02516 147 108 69 
-2.33717 0.976553 6.12193 103 65 29 
0.841847 -1.76473 5.52941 120 86 58 
-0.576058 -0.48481 3.64155 148 40 37 
-3.68538 1.93037 6.29191 124 99 68 
-2.2522 -1.40941 5.18131 216 176 140 
-3.02532 1.35237 6.17373 217 175 125 
-0.521646 -0.47846 3.65597 73 101 87 
-2.20692 -1.18536 5.28721 163 119 82 
-1.01939 -0.946711 3.3877 167 34 89 
-2.94595 1.50911 6.23902 161 124 82 
-2.46498 -0.251748 5.60448 155 113 73 
-0.951797 -0.0170908 3.7587 12 7 11 
-3.03446 0.665967 5.8979 147 114 69 
-3.7737 1.64909 6.16961 69 47 26 
-0.338682 -0.777422 3.57065 226 32 43 
-0.310702 -0.436054 3.58314 208 181 160 
-2.76425 0.455138 5.84781 181 147 112 
1.24022 -1.8135 5.54293 134 107 77 
1.64314 -1.75955 5.6259 181 151 117 
-1.94472 -1.53333 5.18346 156 122 85 
1.8636 -1.00725 5.94837 144 101 66 
-2.80555 -0.114812 5.6205 204 164 128 
-2.99417 -0.35037 5.48504 154 116 80 
-2.67545 -0.235878 5.58569 159 129 93 
2.00554 -0.896253 6.00232 128 102 79 
-3.21659 1.92265 6.37391 205 174 145 
0.682952 0.997682 4.33454 78 66 66 
-0.908672 -0.179758 3.71499 229 31 20 
-0.5759 -0.499714 3.63806 156 32 40 
-3.16694 1.81312 6.34478 194 156 119 
-2.82224 -1.32356 5.11729 172 127 94 
-0.441925 -0.822675 3.34751 105 104 102 
-3.73714 1.71741 6.20571 119 93 66 
-0.320848 -0.934027 3.50791 36 25 23 
-3.11026 0.524766 5.83199 156 126 92 
-3.12704 1.90675 6.3858 184 152 111 
-2.95058 2.06108 6.46005 164 130 92 
-0.115401 -1.12553 3.30353 157 32 88 
-0.630853 -0.308835 3.7082 200 141 97 
-2.7143 0.626258 5.91388 146 111 73 
-2.81615 -1.01757 5.24138 175 141 113 
0.400859 0.150396 3.7981 201 196 200 
-0.0316924 -0.202956 3.72602 128 71 52 
1.72426 -1.19183 5.86519 123 91 66 
-3.14311 -0.318185 5.45974 171 140 109 
-3.35914 1.22754 6.07362 121 88 57 
-0.188761 0.284179 3.97256 140 174 175 
-0.269672 1.24418 4.30245 131 111 104 
-0.0679086 -0.250578 3.75348 126 63 48 
1.95489 -0.974945 5.97179 160 115 82 
-0.226177 1.25716 4.31532 133 113 102 
-3.35292 1.98415 6.37023 157 122 90 
-0.298023 -0.982323 3.48918 153 33 81 
-3.00715 2.06013 6.45059 207 168 125 
-0.29623 0.760986 3.91393 214 214 216 
-2.79846 -0.583847 5.42936 177 134 92 
-3.00826 -0.301581 5.52348 165 130 98 
-3.20656 1.2158 6.1073 144 110 72 
-0.74835 -0.103077 3.7614 227 29 16 
1.62369 -1.85283 5.58253 199 161 125 
-3.43813 1.19697 6.04051 116 90 53 
-0.42829 -0.712146 3.58711 137 38 41 
1.56053 -1.6832 5.64066 133 99 72 
-2.61578 -0.0581511 5.67765 164 132 94 
-0.668263 -0.363045 3.68109 30 8 11 
-3.30552 1.04472 5.99116 118 91 64 
-2.63727 0.215059 5.77017 193 155 108 
1.3402 -1.8434 5.5531 136 102 75 
-3.03689 -0.592103 5.38775 175 142 111 
1.66472 -1.4083 5.78932 161 124 95 
-2.0585 -1.10823 5.36687 159 130 98 
-0.46956 -0.643672 3.60521 31 26 20 
-3.21745 0.507715 5.80843 189 159 125 
-0.363125 0.430679 4.00967 135 126 111 
-3.20804 2.00723 6.39381 183 151 110 
-2.82642 1.44062 6.2445 149 105 66 
-0.303347 0.765296 3.92192 218 218 220 
-3.13802 1.75394 6.3123 191 156 116 
-2.84072 1.96517 6.43805 192 158 120 
2.13261 -1.51059 5.85057 174 158 143 
-3.41553 1.19916 6.06153 162 129 96 
-0.617419 -0.44312 3.66187 146 31 28 
0.415863 0.921318 4.27407 72 62 61 
-2.73567 -1.17458 5.17798 158 125 90 
-2.26117 -0.467571 5.57762 181 139 99 
-2.89618 1.05511 6.08179 136 102 65 
-2.8171 0.837431 5.99939 143 108 76 
-3.38408 1.28109 6.08167 124 94 68 
-2.35207 1.07319 6.15528 158 119 78 
-2.34297 -0.563055 5.50044 210 166 119 
-3.32896 1.46974 6.17263 208 165 120 
-3.03451 0.918648 5.99483 132 102 68 
3.71594 2.33479 7.55466 109 90 76 
-2.47853 0.373137 5.86898 171 131 95 
-2.73732 0.139043 5.75623 186 145 99 
-2.60864 -0.119615 5.64932 179 141 104 
-2.35465 0.353346 5.88659 146 112 74 
-0.241186 0.351416 3.98892 149 185 183 
-3.27444 0.62332 5.84502 147 123 89 
-0.359002 -0.987625 3.48446 137 28 67 
2.05763 -1.61699 5.77082 187 173 160 
-2.69963 -0.0596639 5.65415 161 132 92 
-2.91792 0.137371 5.70608 170 131 90 
-3.00494 1.61035 6.2823 196 158 119 
-2.49794 1.18202 6.17574 141 100 56 
-2.49836 -0.0624748 5.69448 149 116 83 
-2.19709 1.14629 6.2102 151 113 77 
1.64225 -1.50171 5.73961 191 155 119 
-2.8003 0.254703 5.76694 163 124 91 
-3.09923 0.933964 5.9652 133 104 74 
-2.66279 0.289823 5.81113 153 118 80 
-0.457738 -0.0452181 3.62834 144 95 52 
-0.484283 -0.712202 3.55778 45 22 14 
