ply                 
format ascii 1.0    
element vertex 652
property float x    
property float y    
property float z    
property uchar red  
property uchar green
property uchar blue 
end_header          
1.33764 0.0725173 5.23378 229 227 212 
1.22796 -0.0896253 5.49592 172 187 104 
-1.24786 0.634304 6.83401 37 19 0 
1.21639 -0.0706891 5.50401 164 175 97 
1.32351 0.065833 5.25248 32 36 19 
-1.26599 0.528592 6.87049 240 194 12 
0.954362 -0.0851473 5.48831 239 235 208 
1.01575 2.39837 6.89438 71 56 37 
-1.24532 0.572607 6.92565 70 56 27 
0.951974 -0.0803912 5.48938 244 236 213 
1.25966 1.65878 6.83092 27 0 0 
1.36413 0.0639488 5.21853 237 230 214 
1.35514 0.0369902 5.24422 237 233 224 
-1.22591 0.870817 6.74045 228 175 19 
1.11398 2.33985 6.87973 238 226 200 
1.24173 -0.0688508 5.46063 167 183 95 
-1.22958 0.586003 6.9089 57 39 3 
0.828231 2.42202 6.85851 81 72 63 
0.940952 2.34646 6.90177 175 159 134 
1.16894 -0.152491 5.62379 77 67 57 
0.219314 0.16282 5.49351 82 63 31 
0.940836 2.34151 6.89227 172 156 133 
1.18406 -0.19072 5.62415 236 229 213 
0.683717 1.60404 6.93103 19 4 1 
-0.49996 -0.0451103 5.91978 193 177 128 
-0.958183 0.750754 6.75023 177 144 15 
1.22958 -0.0510402 5.46902 150 166 77 
-1.1897 0.891971 6.72539 155 87 16 
-1.22877 0.879619 6.74201 230 173 8 
1.36246 0.0361538 5.23873 240 237 220 
0.974638 2.31714 6.89389 230 218 192 
-1.15333 0.874907 6.71841 152 88 1 
1.20166 -0.121198 5.56891 57 7 6 
0.974495 2.32236 6.90921 231 219 193 
-1.22863 0.656782 6.79485 238 200 77 
1.22938 -0.0634525 5.47539 20 30 0 
1.20898 -0.284036 5.80265 31 30 26 
1.2224 -0.0362895 5.4787 150 161 69 
1.19044 0.177197 5.63541 65 29 3 
-1.63733 0.70711 6.56362 248 233 210 
0.968584 2.3898 6.86638 221 208 189 
-1.25209 0.481587 6.89278 111 63 14 
1.25326 -0.0870968 5.46336 179 191 117 
-0.404428 1.78917 7.71959 231 192 9 
0.968627 2.38578 6.85617 224 211 194 
-1.24764 0.813945 6.74397 238 197 47 
1.27732 0.148747 5.5981 206 162 5 
0.754976 2.32237 6.96356 158 144 117 
-0.0642754 0.191183 5.30881 170 168 117 
-1.40201 0.840231 6.63671 235 157 7 
1.29854 0.0102213 5.33164 181 204 87 
0.191727 0.137763 5.52601 6 45 18 
-0.153336 1.49293 7.42282 23 1 0 
1.22136 -0.100239 5.51447 53 5 1 
1.18172 0.344575 5.44275 176 147 9 
-1.40152 0.840466 6.63554 235 157 7 
1.4238 -0.354302 5.65511 235 218 126 
0.432119 -0.0959126 5.66917 161 133 85 
-1.35082 0.438046 6.84586 177 105 0 
0.946757 -0.00456077 5.47013 119 87 12 
1.31624 0.111215 5.23619 22 19 0 
1.24312 0.42971 5.39588 119 118 113 
1.05507 0.00516877 5.49063 108 58 0 
0.119089 0.232995 5.46904 23 41 3 
-1.2284 0.90261 6.7436 225 170 5 
0.242759 0.145321 5.52214 71 56 23 
-0.513444 1.92667 7.70441 216 202 173 
1.21516 -0.114725 5.53194 74 26 16 
-1.19548 0.858716 6.76332 236 193 28 
0.287106 0.145161 5.5222 204 182 125 
1.02644 2.29194 6.9218 146 108 9 
1.34146 0.107499 5.19743 45 42 33 
1.21414 2.14337 6.98478 239 195 12 
1.02914 2.28247 6.93238 146 112 5 
-1.34146 0.467539 6.85483 174 112 13 
-1.0071 0.731852 6.7143 95 55 0 
-0.335106 2.10492 7.62029 77 62 33 
-0.347399 1.89554 7.60934 153 98 8 
1.33396 -0.0639127 5.39449 229 221 198 
1.21186 -0.130075 5.54895 205 102 97 
-1.39381 0.45791 6.86924 182 99 5 
-1.26515 0.525893 6.90032 232 180 9 
0.0234469 0.520465 5.86317 30 0 5 
1.21094 0.412386 5.43537 11 9 12 
1.3255 0.119693 5.21801 71 71 43 
1.35908 0.0889591 5.20077 81 78 59 
-0.274762 0.22869 5.21712 158 137 90 
-0.461206 -0.0735438 5.9443 84 72 32 
0.241901 0.18592 5.47522 214 190 130 
-0.20686 1.32273 7.43297 121 66 1 
1.34863 0.0522345 5.24387 116 122 88 
0.197197 0.169743 5.49371 186 166 116 
-0.800336 0.688333 6.87723 152 128 42 
1.12819 2.48412 6.87671 136 126 117 
0.879251 1.06076 6.19335 55 48 38 
-0.221905 -0.161477 5.63011 5 14 9 
2.04993 2.07714 7.53658 201 191 182 
-1.32185 0.461535 6.85975 241 200 14 
1.54022 -0.0850761 5.29156 85 35 8 
-1.679 0.586811 6.51806 231 207 181 
1.28088 0.0292705 5.3378 152 177 59 
-0.533258 -0.0449134 5.93857 208 185 141 
1.34059 0.0906082 5.22228 39 37 25 
-1.1275 0.851437 6.72967 218 177 9 
1.04856 2.34153 6.90201 226 211 182 
-1.58519 0.73239 6.48873 146 107 28 
1.17166 2.34971 6.88021 227 217 192 
0.756181 0.638938 6.13819 97 89 78 
-0.52995 -0.0453249 5.9261 205 183 134 
1.12807 2.47949 6.86295 136 126 117 
1.19693 0.196643 5.62627 67 31 5 
-0.267018 1.76201 7.63218 114 71 0 
1.18129 0.410226 5.41011 10 10 10 
-0.266 1.76156 7.62697 117 74 0 
-0.493203 1.86179 7.75717 233 212 169 
-1.30768 1.03868 6.60134 138 86 13 
-0.232842 1.7501 7.58028 201 156 15 
-1.09349 0.852766 6.74186 237 192 13 
1.14693 2.39946 6.81856 219 206 189 
0.0677867 -0.78411 5.76226 154 22 36 
-0.257381 0.0680486 5.30379 127 110 58 
-0.131299 1.35422 7.38261 112 67 2 
-0.257989 1.31441 7.41896 150 98 0 
1.27822 0.287743 5.46212 134 74 11 
-1.24001 0.458095 6.90455 118 58 0 
-0.53607 1.8315 7.80098 120 85 4 
-1.3107 0.48077 6.92641 87 38 0 
2.36477 2.48554 6.91858 207 197 195 
1.14386 0.336114 5.46429 152 131 16 
-0.574019 1.91608 7.68249 123 111 89 
-1.33659 2.13207 7.68608 110 96 87 
1.41939 2.44833 7.03572 213 204 195 
1.30562 0.0508729 5.29514 44 65 0 
-1.23879 0.805996 6.76481 233 191 43 
1.34687 0.107226 5.19697 33 31 19 
-1.25563 0.834808 6.73493 242 205 54 
-0.546044 1.91253 7.69215 232 217 194 
-1.26311 0.808013 6.74032 242 203 46 
2.62473 1.72127 8.56681 200 189 183 
1.29785 0.0650634 5.28974 146 175 49 
-1.26159 0.602654 6.81488 171 128 15 
-1.68472 0.582001 6.5188 229 207 186 
-1.46531 0.788629 6.51573 139 80 4 
0.0880556 -0.00780276 5.53127 16 49 30 
0.0837306 -0.00986111 5.53026 6 48 26 
0.0717132 -0.782316 5.76051 164 22 36 
0.00848918 1.71874 7.57863 195 150 7 
0.736129 0.764752 6.14949 33 31 10 
2.18057 2.4751 6.8527 140 130 121 
0.90946 2.50315 6.86133 208 198 197 
-0.258992 1.31498 7.42429 151 98 2 
-1.08137 0.758324 6.75737 237 193 26 
1.49006 -0.190971 5.33029 121 92 26 
1.17923 0.283938 5.437 145 97 12 
-0.944091 0.721665 6.75758 26 17 8 
-0.15799 0.115965 5.33667 186 169 115 
1.258 2.16504 7.01863 138 91 0 
-1.34956 0.987321 6.60276 230 155 10 
-0.613322 2.1783 7.7129 194 183 177 
-0.151972 1.56803 7.48007 61 30 2 
0.00841329 1.72088 7.58086 194 151 10 
-0.189605 1.35231 7.42234 147 93 7 
-0.358495 1.23501 7.50593 215 169 11 
-0.826189 1.79326 8.41593 109 97 83 
1.14184 0.3291 5.4617 161 136 10 
1.14139 0.317094 5.46692 170 140 6 
-0.14422 1.73512 7.56912 210 166 18 
-0.181129 0.112045 5.34025 204 169 111 
-0.3009 1.22898 7.51064 210 169 19 
-1.21563 0.787274 6.75708 233 193 33 
-1.37488 2.09657 7.7385 189 178 176 
0.780208 2.37354 6.89542 159 146 129 
1.53498 -0.202625 5.32209 185 168 142 
1.26571 0.48269 5.37041 127 127 127 
-1.33931 0.687712 6.78256 68 23 0 
1.25694 2.15561 6.99441 144 98 2 
0.218428 0.122553 5.56102 97 96 65 
-0.930358 1.79837 8.34643 197 187 178 
-1.12823 0.86812 6.73034 236 192 25 
-1.11903 0.727863 6.77929 185 136 0 
0.920826 2.34071 6.83569 225 209 186 
0.737574 0.71711 6.15738 24 24 22 
1.18715 0.471185 5.42118 92 89 84 
0.921329 2.34198 6.8328 221 205 182 
0.207761 0.132865 5.56005 2 17 0 
0.850749 2.26796 6.95459 110 78 5 
1.4245 -0.285153 5.4794 159 135 89 
1.27329 -0.0440659 5.40615 184 223 78 
1.2458 2.32358 6.9222 195 160 56 
-1.05471 0.847813 6.74479 227 182 5 
-1.14444 0.626812 6.80798 245 207 34 
-1.14537 0.627293 6.81092 245 207 34 
0.742409 0.692213 6.12943 77 73 70 
-1.45424 0.538454 6.4519 170 140 70 
-1.05687 0.848947 6.75174 228 181 7 
1.30738 0.00502181 5.32797 78 83 27 
-1.01426 2.11639 7.61841 103 93 83 
0.975465 1.51229 6.90072 174 134 12 
-0.0293341 -0.209621 5.55433 31 109 61 
2.36691 1.9951 7.97457 203 193 184 
-0.032206 -0.209745 5.56925 23 112 56 
0.37129 0.802343 6.06867 9 7 8 
-0.446641 2.04351 7.55521 211 195 172 
-1.04207 1.62804 8.68898 200 187 179 
0.729191 0.631402 6.15091 34 33 31 
0.998989 0.472742 5.5569 182 148 14 
1.48175 -0.216797 5.30888 197 185 161 
0.235263 2.30746 7.15031 82 62 3 
1.32956 0.142752 5.20881 19 16 11 
-0.997692 0.936109 6.87696 137 127 115 
1.26274 -0.00482864 5.38479 122 125 68 
-1.11696 0.730817 6.76789 209 161 17 
0.0458348 0.0227876 5.52049 45 10 6 
-0.316556 2.14317 7.63703 199 183 168 
0.727195 2.388 6.8767 164 152 138 
-0.456264 1.62687 7.75536 129 94 2 
1.33411 0.0484859 5.25173 126 134 95 
0.607562 0.67227 6.25797 3 3 3 
1.08683 -0.00676863 5.53916 192 152 5 
-0.135606 0.150521 5.358 199 170 114 
-1.01567 0.781934 6.77803 148 111 0 
1.13669 0.300495 5.47053 179 143 5 
-0.999752 0.939187 6.88469 134 122 108 
-0.371982 -0.524559 6.11594 181 150 106 
1.43078 -0.289249 5.49996 157 133 87 
1.26978 2.2831 7.00694 239 199 16 
-0.118232 1.32283 7.3535 194 153 13 
-0.121331 1.32832 7.37432 193 155 12 
1.08684 -0.00637349 5.5353 193 155 8 
-0.333418 1.97893 7.56318 152 114 5 
-0.225718 1.29926 7.41337 198 154 5 
-0.0734675 1.69979 7.59476 92 57 1 
-1.00765 1.62954 8.6572 199 188 182 
1.12162 2.2541 6.91148 185 139 17 
0.802341 0.312219 6.41615 177 145 10 
2.3658 1.85156 8.25664 190 180 171 
0.0659617 0.112047 5.52159 41 60 41 
-1.07007 0.805648 6.77697 235 188 10 
1.29763 0.603161 5.45663 11 1 0 
0.341735 2.1319 7.00901 139 120 15 
0.10114 0.0652863 5.56483 115 116 98 
-1.668 0.537804 6.54472 183 140 45 
-0.4151 2.13432 7.64797 96 83 75 
0.530202 0.542765 6.15053 4 4 4 
-0.522021 0.0787698 5.30423 217 191 134 
2.36369 1.84834 8.2441 192 182 173 
0.366748 -0.216656 5.80038 0 52 18 
2.13586 2.16739 7.61242 137 128 113 
2.0839 1.51874 9.03206 186 176 167 
-0.297603 1.92683 7.57204 222 172 13 
-1.68897 0.668659 6.63939 132 80 7 
-1.23555 0.53675 6.88093 237 185 39 
-1.34 0.419217 6.865 247 199 31 
0.53074 0.542118 6.14402 5 5 5 
0.184409 0.314353 5.44212 129 107 58 
2.26397 2.08976 7.65004 143 133 123 
-0.934666 1.61018 8.55124 197 187 178 
2.08446 1.51933 9.03717 186 176 167 
1.34239 -0.0328532 5.35797 199 232 91 
0.777135 0.599789 6.14739 9 8 6 
1.25058 -0.109153 5.49145 193 187 171 
-0.296943 1.92552 7.56813 222 172 13 
-1.35252 0.852765 6.69069 123 68 3 
-1.26221 0.418177 6.86237 246 204 21 
-1.35181 0.851997 6.68855 123 68 3 
1.25846 1.62079 6.80735 99 59 0 
0.000188769 0.107608 5.55042 54 126 80 
1.38053 0.160271 5.13653 32 28 29 
-0.208401 1.82753 7.58732 214 172 26 
-0.204397 1.82839 7.59784 203 162 22 
1.00438 2.4792 6.92937 93 84 75 
-0.225067 1.29791 7.40914 199 155 6 
-0.0486291 0.6229 5.78813 39 0 0 
1.26077 -0.0620184 5.43778 225 232 180 
0.0240483 -0.0185446 5.51967 11 43 22 
1.2874 -0.174571 5.57444 209 193 177 
-0.168014 1.88578 7.63433 125 84 2 
-1.45893 2.03742 7.83029 204 193 191 
-0.470584 -0.0904147 5.95915 169 144 103 
0.613707 0.446897 6.19071 68 56 40 
-0.998445 0.788329 6.72226 133 103 5 
-1.29461 0.827504 6.72358 135 98 7 
-0.403259 -0.47853 6.11034 147 123 79 
0.500503 1.01341 6.3817 63 43 10 
0.344251 0.829663 6.06668 58 56 44 
0.0596653 -0.0273164 5.52506 7 41 25 
-1.20204 1.72166 8.53792 199 188 182 
0.0484167 0.107592 5.53056 21 35 20 
1.04162 2.52447 6.90246 189 179 180 
0.744727 0.687463 6.14452 82 77 71 
0.0562039 -0.0275633 5.54407 5 39 23 
-1.48067 0.383259 6.7846 198 84 22 
1.51169 -0.19283 5.24974 153 130 86 
0.977913 1.51937 6.86799 176 142 9 
0.346046 0.81594 6.07195 61 61 53 
-0.0308878 -0.268257 5.55208 95 0 5 
1.30787 -0.0542858 5.38846 170 215 62 
-0.962826 2.20609 7.52174 190 177 171 
2.23214 2.47325 6.80705 201 190 186 
1.21511 1.72502 6.82667 165 128 11 
-0.153701 1.44969 7.4119 163 127 13 
-1.24114 0.435377 6.87973 242 193 12 
2.58611 1.7623 8.63401 200 189 183 
-0.380743 -0.488109 6.12471 149 120 80 
-0.138962 1.92651 7.64812 215 164 10 
-0.291424 1.9451 7.54031 221 176 12 
1.30848 -0.054072 5.3993 170 213 61 
0.50006 1.01418 6.38679 62 41 10 
1.15021 1.61025 6.78441 170 132 21 
1.28799 1.72294 6.85463 170 134 20 
-0.875131 1.7655 8.40645 179 168 164 
-0.967038 0.862797 6.8409 65 63 50 
0.0191633 0.00715662 5.53266 92 95 76 
-0.423899 1.69516 7.75204 118 80 5 
-1.24667 0.431643 6.8842 240 194 10 
-1.29321 0.884291 6.73297 191 145 7 
-1.2712 0.395463 6.92197 242 200 17 
1.06396 2.27575 6.92253 231 189 27 
1.39811 0.00833489 5.28777 183 176 148 
0.034635 0.0190951 5.50734 27 13 4 
1.22048 0.324102 5.39887 143 109 2 
-0.433413 -0.723155 6.16926 154 136 96 
-0.173362 1.86094 7.61884 126 85 6 
1.36464 0.00202658 5.29841 211 232 141 
-0.771451 2.19067 7.53997 157 142 135 
0.0344614 0.556338 5.86116 67 42 38 
-0.658599 2.07499 7.72192 190 179 175 
0.579232 0.598845 6.19776 55 52 47 
-0.0604247 0.633796 5.76356 90 71 56 
1.51243 -0.193309 5.25785 145 123 82 
-1.2215 0.534428 6.91008 217 161 12 
-1.28758 0.506633 6.90636 73 46 16 
0.937795 2.21579 7.17802 138 104 7 
1.2206 0.216887 5.59652 226 180 9 
-1.37467 0.989964 6.6015 145 101 14 
1.12439 1.61613 6.79601 146 107 4 
0.0514918 0.0407164 5.52732 22 15 9 
-0.0233075 0.432801 5.27408 119 99 62 
-0.232906 0.171785 5.22401 89 66 32 
1.30366 0.545054 5.40288 104 101 94 
-0.285205 1.98097 7.56196 139 105 7 
-0.00790673 2.3269 7.2737 177 164 155 
-0.33241 -0.528557 6.19603 123 99 71 
1.29588 0.539973 5.38342 104 101 94 
-0.604358 2.07663 7.74418 193 182 180 
-1.11646 2.18919 7.54281 124 111 102 
0.0700692 0.247288 5.41559 24 45 4 
-0.27993 1.98685 7.56911 140 106 8 
0.328386 0.117354 5.62987 115 110 78 
1.42169 2.26604 7.11131 144 129 106 
1.22672 0.327217 5.40964 143 108 4 
-0.828249 2.08714 7.72441 112 100 88 
1.17152 0.325413 5.45595 97 54 0 
-0.23079 1.8537 7.55492 131 86 3 
1.24099 -0.0264328 5.44495 164 169 113 
0.536581 0.512845 6.13974 48 49 41 
1.15344 -0.152891 5.6524 150 140 130 
-0.196504 1.78546 7.5728 155 118 12 
-0.432753 1.93839 7.65945 235 213 172 
0.0561736 0.273999 5.32755 180 166 105 
0.469231 0.994002 6.35675 64 42 3 
0.37181 -0.197231 5.80682 45 122 68 
1.1596 0.551773 5.44189 7 9 0 
-0.429918 1.31588 7.54049 196 151 6 
0.0926593 0.0872825 5.55852 78 84 72 
-1.67045 1.90601 8.14782 201 190 188 
-1.1884 0.630402 6.86075 187 138 20 
-0.237419 1.85958 7.58588 134 89 0 
-0.209696 1.66361 7.50791 112 74 3 
0.0841348 0.108944 5.54832 7 42 20 
-0.364228 2.07986 7.5979 137 129 110 
-1.14314 0.830369 6.7284 232 191 13 
1.30142 -0.0696824 5.41172 237 245 198 
2.28992 1.86751 8.25513 129 118 112 
0.716 0.664398 6.17098 66 62 59 
0.690981 2.5822 6.65338 209 198 196 
0.244466 0.163899 5.49637 168 146 99 
-1.35185 0.376027 6.8085 164 152 138 
0.0562024 0.0941545 5.52439 114 114 102 
-1.43257 1.96972 7.95135 200 189 187 
0.300127 0.856882 6.08291 61 59 47 
1.18708 1.69435 6.79712 125 85 0 
1.01399 0.258738 5.60713 5 3 4 
1.20889 2.06798 6.94799 175 141 17 
0.0807686 0.141829 5.57156 44 127 71 
0.76455 0.120362 6.21559 151 143 124 
-0.373204 0.164358 5.12014 139 116 75 
0.392288 0.855006 6.11397 38 38 28 
0.768733 2.25373 6.984 158 138 101 
1.03101 0.262764 5.59678 43 36 26 
-0.325503 0.340332 5.2773 96 81 50 
0.391252 0.857294 6.11684 46 46 36 
-1.1292 0.691608 6.80083 235 194 16 
-0.192592 1.44258 7.39463 155 120 18 
0.82318 1.59075 6.81494 141 109 10 
0.945814 0.303226 5.62505 106 105 101 
-1.73686 1.90534 8.15517 132 121 115 
0.901755 1.53611 6.86874 107 75 2 
-1.11697 0.784497 6.75217 240 196 47 
0.0176537 0.0715306 5.54621 50 30 19 
-1.73747 1.90764 8.15692 134 123 117 
0.763821 0.121609 6.23467 149 141 122 
-0.25764 1.34143 7.42382 205 161 13 
0.687514 2.60823 6.71889 209 198 196 
-1.73241 1.94833 8.10931 199 188 184 
2.29868 1.88037 8.31183 127 117 108 
0.397365 -0.0699121 5.6698 139 114 73 
2.3023 2.46883 6.91734 199 188 182 
0.487324 1.06966 6.38436 76 61 28 
1.03294 2.56159 6.91973 210 200 198 
1.35661 0.016675 5.26086 208 230 119 
-1.2226 0.834126 6.7531 155 109 11 
-1.20238 0.812655 6.79142 237 195 49 
0.857876 0.779796 5.86487 185 142 11 
-0.640246 2.17641 7.53868 146 136 127 
0.684802 2.63448 6.55259 152 143 138 
1.31805 -0.0520553 5.38351 178 214 80 
1.50815 2.39368 7.11999 144 131 115 
-0.273845 2.13536 7.60598 200 182 160 
0.00252599 0.116089 5.55533 46 124 74 
-0.777443 2.15903 7.57293 164 154 145 
-0.38976 1.70151 7.76499 165 127 18 
0.680178 0.719159 6.21879 8 8 8 
-1.31843 0.704243 6.74924 122 78 3 
-0.894469 1.79235 8.354 129 119 110 
-1.30871 0.631241 6.75355 153 105 7 
0.933918 2.2343 6.93266 114 86 3 
-0.433206 -0.512576 6.09972 177 150 107 
0.153262 -0.386055 5.59681 144 25 29 
-1.33016 1.03599 6.59671 203 133 12 
-1.01097 0.646414 6.76104 160 124 4 
-0.770919 2.17279 7.54776 143 133 124 
-0.198031 1.70626 7.52925 158 124 16 
-1.55475 0.481923 6.69359 216 99 6 
0.31681 0.842002 6.08591 59 57 45 
-1.22279 1.89571 8.06725 130 117 109 
1.31335 0.535934 5.37516 72 71 67 
0.0115832 0.603206 5.82579 65 44 25 
-1.10226 0.772219 6.76688 246 203 36 
-0.058972 2.39249 7.0531 161 148 140 
-1.23165 1.91274 8.14752 130 117 109 
1.30657 2.42529 7.03511 151 136 113 
-0.0655369 0.259469 5.25177 166 141 87 
-1.22308 0.819725 6.76313 243 201 65 
1.69878 2.95753 5.86684 190 181 174 
0.731385 2.18415 6.95055 107 72 4 
0.959669 1.66333 6.76633 124 93 3 
-0.968895 1.83558 8.24939 117 105 93 
-0.262559 1.28003 7.42954 210 164 8 
-0.126214 0.0796456 5.55392 0 54 15 
-0.137053 1.3142 7.38875 175 130 11 
-0.115573 0.0691498 5.55555 10 74 37 
1.1788 -0.111708 5.5892 100 88 72 
-0.422731 2.0781 7.56451 148 134 123 
-0.0634123 0.259013 5.24193 165 140 86 
1.25723 0.276977 5.47576 229 183 10 
-1.44342 1.94877 7.97864 200 189 187 
0.327826 2.54512 6.75629 207 196 190 
-0.646889 1.81489 7.84914 134 117 87 
1.30693 -0.124824 5.51001 242 233 216 
1.05241 -0.180481 6.62862 1 57 32 
-0.263092 2.10646 7.62422 139 106 13 
-0.37995 1.68849 7.71168 159 123 13 
-0.670327 2.2069 7.49178 179 166 158 
0.698761 1.69921 6.91683 122 92 2 
-0.124886 0.696928 5.71756 92 71 44 
0.771904 0.0875542 6.21544 201 192 175 
0.773256 0.0947384 6.21709 183 174 157 
1.16912 1.61973 6.77736 106 65 1 
0.324258 -0.0599874 5.67217 0 22 6 
0.138633 0.14159 5.52817 31 126 62 
1.20597 0.139629 5.52601 135 90 7 
-1.18085 0.654003 6.78648 241 200 32 
0.0457351 -0.782542 5.76381 168 150 138 
2.16672 1.53903 9.02852 187 177 168 
-0.438164 -0.512013 6.08804 174 147 100 
0.0692311 0.37025 5.41546 125 105 68 
-0.13729 2.42965 7.01936 165 152 144 
-0.285269 -0.136395 5.58324 154 27 38 
1.05266 0.420064 5.51295 3 2 7 
1.37512 0.44223 5.44936 14 9 3 
-0.982702 1.81425 8.27022 123 113 103 
-1.44467 0.602112 6.47052 164 122 14 
-0.400079 2.04059 7.55269 150 138 114 
-0.800154 0.658814 6.91228 83 59 0 
1.25506 -0.205832 5.63694 242 235 219 
-0.923327 0.955115 6.88481 135 123 109 
0.679638 2.36602 6.91312 125 113 89 
1.18619 1.63453 6.80982 107 68 3 
0.244015 0.314193 5.47002 111 89 50 
0.84858 1.58259 6.80662 114 75 6 
0.0672338 0.131849 5.53474 47 128 72 
1.12993 1.6356 6.7681 132 92 5 
1.073 1.52671 6.8291 106 68 3 
1.38652 -0.366004 5.65343 149 117 68 
1.39146 0.0220571 5.23314 242 234 211 
-0.140859 0.724928 5.73659 98 75 44 
1.15619 1.9969 6.83181 139 101 4 
1.26364 0.450129 5.3644 72 73 67 
-0.144639 0.728322 5.75522 95 72 41 
0.531925 2.57101 6.59332 207 196 192 
1.24308 0.457834 5.38892 74 73 69 
0.622686 1.12143 6.58979 139 105 5 
0.8009 1.50018 6.87688 100 70 0 
0.382451 0.826187 6.1008 80 77 68 
0.687794 0.643034 6.18414 73 74 68 
0.0938461 0.241603 5.42176 83 95 47 
1.2417 0.590471 5.43878 68 63 57 
1.12407 2.83979 6.08129 185 175 174 
1.28495 0.0464642 5.31525 137 173 39 
1.27464 1.60534 6.80283 182 148 22 
-0.739517 2.19896 7.55651 174 161 152 
-1.10892 0.699699 6.7848 245 203 41 
1.23094 0.571206 5.40634 87 86 82 
1.76377 2.9369 5.83886 207 193 193 
1.14527 0.553278 5.45636 6 0 0 
1.26358 0.449959 5.36316 72 73 67 
1.12414 1.51101 6.81039 139 104 0 
1.75878 2.96577 5.78816 182 170 170 
-1.22926 0.701196 6.78384 244 203 49 
-1.36244 0.79685 6.70778 139 97 13 
-1.29809 1.01399 6.61907 151 138 121 
0.233826 -0.237395 5.34814 129 8 23 
-1.03678 2.18514 7.52418 181 168 160 
0.152357 0.26871 5.49299 188 168 109 
0.735095 2.48939 6.9352 124 113 109 
1.80414 2.97306 5.74791 191 181 179 
2.35147 1.81745 8.3653 130 120 111 
-1.18185 0.658773 6.79263 240 199 29 
1.21744 2.83368 6.02822 201 191 189 
1.48154 0.250857 5.21147 14 10 9 
1.1844 0.315468 5.4478 191 150 8 
0.915468 2.31281 6.84968 157 141 116 
1.24719 0.443807 5.38646 73 73 65 
1.09695 2.50231 6.88343 193 183 182 
-1.21389 0.605985 6.88559 233 178 13 
0.723412 0.668914 6.16918 46 45 41 
0.342772 0.881656 6.0646 79 76 67 
-0.421435 2.25692 7.35185 161 148 140 
0.0446915 0.517517 5.87417 71 51 40 
1.24009 -0.0262138 5.42167 161 172 93 
0.976886 2.74017 6.35584 199 189 188 
-0.672719 0.274075 5.47589 138 115 74 
0.913972 1.5058 6.86021 134 100 10 
-0.167223 1.66705 7.52792 119 83 7 
-0.13775 2.46984 6.96442 162 151 145 
0.735039 1.65464 6.87459 107 72 4 
0.13139 -0.0272139 5.5485 1 39 16 
0.533758 2.56089 6.56902 206 195 191 
0.706815 0.472624 6.47278 50 31 1 
1.09708 2.50217 6.8801 201 191 190 
-0.822745 2.15284 7.5839 187 176 170 
-1.15988 0.90265 6.70992 199 158 50 
-0.741102 2.20099 7.56316 174 161 152 
-0.0892093 -0.227715 5.59774 25 115 63 
1.28591 -0.16026 5.56853 239 226 210 
0.391448 0.0139154 5.63518 70 29 1 
-1.16885 0.907746 6.73729 197 155 47 
-0.135933 2.46659 6.95424 162 151 145 
0.724994 1.62359 6.87091 126 94 11 
0.682839 1.56529 6.90519 88 56 0 
-1.22684 0.35845 6.87747 165 154 136 
-0.0768682 0.400391 5.25236 127 105 66 
1.15524 0.370735 5.46763 27 24 17 
-1.22778 0.359891 6.88076 165 153 137 
-0.250704 2.39985 7.09175 148 138 129 
0.103451 0.467152 5.75109 126 107 67 
-0.153602 2.167 7.89203 129 102 31 
-0.228692 1.4961 7.42054 164 130 7 
0.0422965 2.43258 6.99322 155 142 133 
1.55746 2.42668 7.03542 204 194 184 
-0.110257 -0.233778 5.60257 24 117 62 
0.33853 -0.152797 5.68626 50 123 68 
0.70306 2.11614 7.00098 117 85 2 
0.925339 2.19983 6.88968 128 97 6 
2.52328 1.82458 8.39136 157 146 140 
0.57799 1.06594 6.48753 98 70 7 
-1.17937 0.51019 6.89209 208 158 7 
0.958637 -0.162453 6.5604 0 55 30 
0.84748 1.54491 6.76143 136 102 5 
1.75984 2.96984 5.79745 179 167 167 
1.53684 -0.0367537 5.38501 168 130 7 
-0.0614481 -0.108578 5.53187 145 47 36 
-0.0676233 0.390726 5.25566 129 110 67 
-0.144598 0.391906 5.19845 120 100 63 
0.448198 0.990189 6.34742 104 89 58 
-1.5043 -1.71901 7.59186 165 155 145 
-0.326247 2.34023 7.24217 184 171 163 
1.22993 0.467858 5.39592 72 72 70 
-0.330159 2.34772 7.26302 181 168 160 
-1.34687 3.24564 5.26204 194 183 181 
0.442427 0.986437 6.34525 105 88 58 
0.480321 1.12396 6.4115 115 98 68 
-0.283142 1.82546 7.63444 219 172 8 
0.692567 -0.316834 5.4647 125 101 63 
0.966858 0.251207 5.66968 96 97 92 
-1.34366 3.24193 5.26712 196 185 181 
-0.233748 1.50633 7.41279 164 130 7 
-0.161357 0.685367 5.7293 76 58 38 
1.15879 2.21578 6.93033 214 169 8 
-1.25394 0.733452 6.77342 138 94 5 
-0.123328 2.4066 7.03984 161 151 142 
1.19788 0.387962 5.41372 13 9 6 
-1.50359 -1.71874 7.58972 165 155 145 
1.1004 2.36732 6.84141 220 204 179 
1.39648 0.445145 5.50541 10 5 1 
-0.747094 2.16508 7.57106 173 163 154 
-0.0883106 0.14986 5.33443 41 125 63 
0.934216 3.16804 5.38206 185 174 170 
1.39554 0.444308 5.49074 7 4 0 
1.19783 0.387889 5.41178 13 9 6 
0.929753 3.16997 5.37525 184 173 171 
0.0120877 0.106278 5.55176 71 125 91 
0.530276 1.01141 6.41532 84 58 9 
0.737449 0.655788 6.15479 99 95 86 
1.22081 1.69104 6.81634 135 100 10 
1.39617 -0.432614 5.61123 238 229 200 
-1.41874 2.15049 7.69596 202 191 187 
0.893278 0.717695 5.88945 190 144 7 
1.98971 2.1001 7.70453 180 170 158 
1.15944 1.61275 6.99785 119 84 3 
-0.279878 0.440882 5.24044 134 114 77 
-0.123049 2.40587 7.03808 161 151 142 
-1.36632 1.03968 6.5301 149 137 123 
-2.05848 2.65757 6.59655 221 216 213 
0.831144 1.49974 6.8835 131 96 2 
-0.19482 1.47781 7.41679 148 109 4 
-0.00928871 0.672397 5.81566 72 55 29 
0.825308 1.4995 6.86882 130 95 5 
1.27803 2.88426 6.06885 202 192 190 
0.569635 1.07166 6.48907 97 72 8 
0.778003 2.66964 6.45186 156 147 140 
0.6028 -0.173609 5.46484 134 112 71 
-1.03577 0.816573 6.74459 202 156 9 
-0.280415 2.36251 7.13353 167 154 145 
1.91325 3.05314 5.65318 203 195 193 
-0.114776 1.90535 7.58708 216 166 15 
-0.111658 0.455238 5.25998 119 103 70 
-0.271281 2.37919 7.10858 173 160 152 
1.04679 1.54385 6.81581 126 90 2 
-1.25998 0.837427 6.8729 242 199 60 
0.841061 2.06711 7.0103 93 57 0 
1.3117 0.626186 5.50183 111 88 8 
0.709473 1.59516 6.92 117 85 0 
-0.28143 2.36432 7.13891 166 153 144 
1.11856 2.83894 6.14866 198 194 185 
0.893605 0.714711 5.87175 189 141 7 
-0.100145 1.39214 7.38023 142 107 7 
1.71863 2.92387 5.84571 183 173 171 
-0.00680684 0.0511654 5.55224 93 109 80 
0.389504 0.793643 6.11709 13 8 2 
1.22571 1.52714 6.77826 152 115 8 
