ply                 
format ascii 1.0    
element vertex 129
property float x    
property float y    
property float z    
property uchar red  
property uchar green
property uchar blue 
end_header          
0.0238811 -0.141157 1.11048 179 164 145 
0.10188 -0.0480845 1.13676 68 22 35 
0.14005 -0.047629 1.1525 68 20 34 
0.0604058 -0.0433672 1.08018 198 191 183 
0.428326 -0.0259514 1.34723 95 71 97 
0.405047 -0.0227036 1.33808 137 128 145 
0.136988 -0.0102577 1.15142 67 21 34 
0.11514 0.00980802 1.14159 76 29 37 
0.386187 0.0444548 1.32659 90 67 93 
0.362159 0.0695486 1.19783 66 39 54 
0.347707 0.0783923 1.19145 81 44 62 
0.437238 0.0891641 1.34913 88 73 102 
0.58286 0.257374 1.37786 46 56 141 
0.464622 -0.38967 1.37019 121 97 123 
0.286199 -0.298892 1.29611 115 90 119 
0.0385657 -0.247141 1.11198 78 37 53 
0.0240435 -0.141053 1.11034 179 164 145 
0.104838 -0.0855701 1.13844 67 27 38 
-0.0161908 -0.0497982 1.08785 57 17 25 
0.404769 -0.0229049 1.33779 137 128 145 
0.091242 -0.0130136 1.11157 103 74 78 
0.0906568 -0.0111638 1.11029 182 178 169 
0.115045 0.00958955 1.14143 76 29 37 
0.321595 0.0132276 1.22894 64 39 58 
0.520342 0.0460515 1.38209 137 124 142 
0.362337 0.0694481 1.19756 81 53 68 
0.0523759 0.0631123 1.06815 127 135 181 
0.225061 0.0720756 1.14056 90 54 68 
0.293075 0.0950553 1.1685 102 56 69 
0.205746 0.0941289 1.13253 87 40 60 
0.0875096 0.0929884 1.08331 102 54 70 
0.000800012 0.092171 1.0462 102 54 66 
-0.139671 0.0909632 0.987517 89 46 65 
0.00554643 -0.311411 1.06723 81 50 68 
-0.000591062 -0.308281 1.06453 72 31 45 
0.463893 -0.389287 1.36972 137 114 140 
0.561367 0.248998 1.37045 26 31 73 
0.491607 0.209717 1.36738 117 110 128 
-0.172082 0.0902803 0.972647 87 40 50 
0.292776 0.0948376 1.16893 118 67 82 
-0.219332 0.00653519 1.00066 74 34 42 
0.151721 0.0748905 1.10985 96 53 72 
-0.0350187 0.0696763 1.03188 81 37 50 
0.237398 0.0758118 1.14601 124 73 90 
0.226233 0.0742027 1.14098 116 80 92 
-0.0543696 -0.124286 1.07374 53 20 29 
0.224498 0.0721642 1.14122 81 45 59 
0.328498 0.0732026 1.18335 98 47 62 
0.0690068 0.0660111 1.07541 147 155 202 
-0.0515758 -0.0879099 1.07387 68 27 35 
-0.0277144 -0.0874772 1.08297 62 25 33 
-0.443439 0.0538608 0.976701 148 171 238 
-0.0661885 -0.062228 1.30724 63 21 33 
0.46992 -0.0618881 1.36449 60 42 64 
0.0861979 -0.0404155 0.960636 68 22 35 
0.229924 -0.0400762 1.22064 86 36 47 
0.0684637 -0.0206815 1.07577 184 177 161 
-0.0282713 -0.0114209 1.08282 54 21 28 
0.603354 0.246969 1.38441 25 22 67 
0.319516 0.0796533 1.17846 144 104 115 
0.139017 0.071459 1.10464 80 46 60 
0.241293 0.0725017 1.1469 92 45 61 
0.328849 0.0732951 1.18283 89 41 55 
-0.44688 0.06054 0.973539 165 183 247 
0.520915 0.0460078 1.3796 147 133 146 
-0.443622 0.0252677 0.978455 170 191 254 
-0.440801 0.0238958 0.980364 20 23 58 
-0.471378 0.0222025 0.967526 25 32 74 
0.183408 -0.00972128 1.20046 122 77 84 
0.136913 -0.0107477 1.15086 67 21 34 
0.114349 -0.0105521 1.14147 59 17 29 
-0.0284979 -0.0118701 1.08272 73 30 40 
0.0541955 -0.0252094 1.06881 106 99 107 
-0.053792 -0.124584 1.0734 61 26 33 
0.0402712 -0.165521 1.10929 159 137 124 
0.530291 -0.021416 1.38604 134 119 138 
0.291897 -0.240487 1.29479 88 76 100 
0.463812 -0.438551 1.37176 67 47 75 
0.00331771 -0.31059 1.06711 113 79 93 
-0.194927 0.0711621 0.963641 84 48 62 
0.0521278 0.0661814 1.0676 136 135 169 
-0.241161 0.0628186 0.943842 44 24 33 
-0.153145 -0.0975047 1.06319 73 33 44 
0.230026 -0.0400696 1.22051 79 32 42 
0.205641 0.0937871 1.1325 96 47 66 
0.00599879 -0.311211 1.06659 80 52 67 
0.0186391 -0.266786 1.10425 71 35 49 
0.0347086 -0.166072 1.10904 170 158 134 
-0.471307 0.0218517 0.967376 19 27 64 
-0.443698 0.025484 0.978615 170 191 254 
-0.446155 0.0606149 0.97276 139 151 209 
0.136371 -0.00994134 1.15121 70 24 37 
0.51719 0.0460208 1.38303 62 47 66 
0.155141 0.0713167 1.11212 102 55 73 
-0.44314 0.0659597 0.975778 27 27 53 
-0.121375 0.0688528 0.994858 57 28 33 
-0.195065 0.0711083 0.963727 84 48 62 
-0.438035 0.0208381 0.980765 39 34 54 
0.0692091 0.0662642 1.07538 145 148 189 
0.101329 -0.0482633 1.13655 74 26 38 
-0.0295801 0.00859831 1.08262 98 48 57 
0.184931 -0.00787343 1.20255 80 37 47 
0.1829 -0.00973462 1.20107 110 67 76 
-0.0287712 -0.0118749 1.08295 66 26 37 
0.198217 0.0941722 1.12899 75 39 51 
-0.0519 -0.0116457 1.07315 63 23 31 
0.530055 -0.0215257 1.38951 113 100 118 
0.601974 0.246696 1.38253 27 18 75 
0.596338 0.243909 1.38102 175 196 251 
-0.0418659 0.00929249 1.07633 66 23 33 
0.102277 -0.0479476 1.13559 66 24 36 
-0.066075 -0.0620669 1.3056 63 21 33 
0.11311 -0.305637 1.1115 52 28 41 
-0.438896 0.020616 0.981039 34 33 51 
-0.447209 0.0162898 0.976413 31 39 62 
-0.447467 0.0187029 0.97466 139 158 217 
-0.438662 0.020791 0.98092 35 32 53 
0.530468 -0.02114 1.38591 138 123 142 
-0.444934 0.0251497 0.978366 177 192 255 
0.114497 0.0105544 1.14107 63 22 30 
-0.0422666 0.00929107 1.07666 78 34 47 
-0.443686 0.0648196 0.975624 22 27 47 
-0.465968 0.05378 0.966224 164 175 241 
-0.445078 0.0140254 0.978214 32 37 57 
-0.44036 0.0570862 0.979023 18 22 34 
0.0521689 0.0651428 1.06842 149 152 193 
-0.0355548 0.0110758 1.07824 141 89 101 
0.121897 0.0736991 1.09661 76 50 61 
-0.0424991 0.00963841 1.07684 65 27 40 
