ply                 
format ascii 1.0    
element vertex 1221
property float x    
property float y    
property float z    
property uchar red  
property uchar green
property uchar blue 
end_header          
-0.09643 -0.0834968 0.875871 53 20 27 
-0.0876317 0.13106 0.81019 66 49 55 
-0.0915283 -0.0262627 0.867709 85 43 45 
-0.0902637 -0.234495 0.864029 81 30 45 
-0.0905396 -0.0952026 0.873949 66 30 40 
-0.0621833 0.190043 0.612742 76 44 49 
-0.0875 -0.0166936 0.866204 137 114 98 
-0.0868963 -0.0373073 0.868073 141 115 100 
-0.0833385 0.0407389 0.843189 27 18 19 
-0.0842801 -0.131829 0.874958 61 30 38 
-0.0596494 0.151885 0.624129 91 45 58 
-0.0828819 -0.0601295 0.871137 40 16 16 
-0.0771271 0.0295209 0.826074 20 15 12 
-0.0801175 -0.232606 0.857027 139 86 102 
-0.0785619 -0.0255347 0.850178 155 132 116 
-0.0568047 0.171763 0.620945 80 46 63 
-0.0785479 -0.188084 0.862482 132 79 95 
-0.0792058 -0.100116 0.87114 114 62 74 
-0.0752946 -0.21551 0.848867 44 22 25 
-0.0711793 0.0996786 0.81955 79 42 59 
-0.0528202 0.18543 0.609914 159 115 140 
-0.0533672 0.122612 0.616682 102 61 67 
-0.0715571 0.0200198 0.83008 107 101 105 
-0.0719463 -0.0138177 0.847252 195 185 160 
-0.0679057 0.130458 0.803828 65 49 59 
-0.0717315 -0.0636183 0.863662 162 150 128 
-0.0707229 -0.0358973 0.85496 198 191 172 
-0.0719709 -0.120081 0.869678 64 37 46 
-0.0662081 0.0350234 0.825253 143 134 129 
-0.067956 -0.236031 0.85644 76 35 43 
-0.0664121 0.0509401 0.840588 60 28 29 
-0.0655446 -0.129389 0.868281 64 29 27 
-0.0614563 0.0270525 0.829475 224 221 206 
-0.0616819 -0.0107084 0.845406 96 77 70 
-0.062218 0.00484163 0.857552 119 99 74 
-0.0625345 -0.0339561 0.863512 137 113 87 
-0.0584221 0.110974 0.813052 93 61 76 
-0.090716 0.154643 1.28032 77 49 64 
-0.0560224 0.0421366 0.827222 56 38 36 
-0.0578224 -0.119952 0.864893 67 30 38 
-0.031171 0.0535749 0.464746 70 36 50 
-0.0535541 0.0972596 0.814067 142 94 116 
-0.040421 0.181941 0.614479 176 128 152 
-0.0562386 -0.0567158 0.861912 41 20 17 
-0.0538891 -0.0183857 0.855959 199 188 160 
-0.0531955 0.00235759 0.862078 111 96 77 
-0.052511 -0.235067 0.848849 80 37 54 
-0.0508108 0.0321826 0.837575 105 87 85 
-0.0495326 -0.191697 0.850735 71 39 52 
-0.0475471 0.047172 0.83217 26 15 19 
-0.0351008 0.122781 0.622306 127 79 95 
-0.0482147 -0.128861 0.86188 61 31 39 
-0.0348312 0.168031 0.622389 116 82 107 
-0.0440468 0.129746 0.794414 52 41 45 
-0.0470961 -0.104564 0.860203 54 23 29 
-0.0301276 0.147002 0.628569 86 49 66 
-0.0392637 0.0348051 0.830411 177 162 155 
-0.0376808 -0.235617 0.842685 63 27 41 
-0.0378406 -0.0898713 0.856615 48 20 19 
-0.0277287 0.158678 0.627958 81 50 65 
-0.0366989 -0.161998 0.836496 38 24 23 
-0.0336303 0.117532 0.805191 81 48 59 
-0.0345428 -0.189134 0.845698 128 75 91 
-0.030186 0.0465695 0.839423 56 24 27 
-0.0305482 -0.104129 0.852451 48 28 30 
-0.0298583 -0.15345 0.834807 102 68 82 
-0.0280921 0.0751415 0.822811 163 110 128 
-0.0210583 0.190862 0.61849 98 54 67 
-0.0259135 0.12914 0.786954 64 49 54 
-0.0241382 0.0160938 0.840464 63 23 32 
-0.0241151 -0.0347389 0.84485 59 22 30 
-0.0168101 0.158143 0.633093 100 49 66 
-0.0210592 0.0962404 0.800687 50 34 45 
-0.0122102 0.0545237 0.453629 50 34 45 
-0.0210632 -0.14474 0.83611 73 30 37 
-0.0141972 0.174103 0.632767 82 53 71 
-0.0142031 0.137286 0.63657 92 53 72 
-0.0180452 -0.0413644 0.839002 56 24 27 
-0.0174082 -0.0795052 0.846866 122 69 77 
-0.0162616 0.0280832 0.835612 68 38 48 
-0.0161762 -0.0226343 0.839981 67 39 51 
-0.0157373 0.0418719 0.835221 58 23 30 
-0.0157974 -0.00993862 0.839307 53 21 32 
-0.0150446 0.0566895 0.833144 62 32 42 
-0.014677 -0.161659 0.827401 135 85 97 
-0.0102421 0.0981686 0.797353 64 36 50 
-0.00793723 0.159347 0.637606 113 62 81 
-0.0103349 -0.145282 0.833113 74 32 34 
-0.00962068 -0.189281 0.83479 133 82 99 
-0.00902774 -0.132652 0.823408 151 97 113 
-0.00563811 0.191614 0.626039 88 55 66 
-0.00615273 -0.0414747 0.835679 57 22 28 
-0.00590827 0.0173186 0.833154 75 45 57 
-0.00592962 -0.01016 0.835831 59 28 36 
-0.00582745 0.0414653 0.831391 51 20 26 
-0.00578403 0.0278705 0.833812 68 30 41 
-0.00578009 -0.0232255 0.83765 66 33 44 
-0.00572914 -0.262096 0.853135 150 95 116 
-0.00214817 -0.161604 0.823301 136 88 104 
0.00220817 0.107748 0.791529 77 43 57 
0.00212911 0.162831 0.641603 78 40 61 
0.0028958 -0.068207 0.822869 109 71 86 
0.00518624 -0.183371 0.840177 51 22 24 
0.00583622 0.0699356 0.814858 160 103 118 
0.00672571 0.094933 0.791739 138 91 107 
0.00740944 -0.259221 0.840969 148 101 111 
0.00835985 -0.224266 0.816294 111 64 70 
0.00847884 0.186291 0.638578 125 87 108 
0.0120115 0.108003 0.787451 134 88 101 
0.012473 0.0881356 0.802253 153 109 126 
0.0105432 0.155145 0.647018 83 50 67 
0.0183938 -0.217213 0.804263 100 55 62 
0.0158987 0.192776 0.635786 94 53 67 
0.0214216 0.0858285 0.818589 69 48 57 
0.0226808 -0.222297 0.821864 103 58 65 
0.0235578 0.000395154 0.845671 62 27 34 
0.0220353 0.093016 0.786436 56 43 50 
0.0239393 -0.0313192 0.847278 63 38 44 
0.0240404 0.0241738 0.843118 57 24 31 
0.0243367 -0.12038 0.854955 59 28 34 
0.0257084 -0.165624 0.838615 39 18 23 
0.0248677 0.115131 0.78195 70 40 48 
0.0268795 0.049658 0.835093 63 33 43 
0.028235 -0.0839528 0.851389 82 43 44 
0.0308469 0.0959826 0.781923 61 44 52 
0.0361315 -0.110308 0.849505 57 30 37 
0.0361798 -0.0760761 0.846501 54 25 30 
0.0295089 0.193286 0.641963 91 53 64 
0.0451588 -0.280884 0.895329 90 69 88 
0.0428168 -0.0169034 0.839798 57 30 39 
0.0440827 0.00299935 0.833566 97 52 59 
0.0442696 0.0236269 0.832836 44 18 19 
0.0475443 -0.266601 0.891556 135 114 133 
0.0447157 0.0397482 0.831417 61 30 36 
0.0424175 0.0970954 0.777413 58 39 45 
0.046411 -0.0705087 0.842648 65 30 36 
0.0462442 0.0121889 0.821282 145 99 110 
0.0485157 -0.032259 0.838521 62 32 42 
0.0523374 -0.0478699 0.835634 44 23 30 
0.0528615 -0.020189 0.836128 82 36 38 
0.053493 -0.129865 0.827011 61 29 30 
0.0539622 0.0018219 0.831056 148 94 110 
0.0532301 0.094371 0.776382 78 52 61 
0.0591644 -0.0325837 0.835371 57 28 33 
0.0596151 0.042602 0.829159 59 26 33 
0.060421 -0.0879673 0.821444 48 24 24 
0.0597173 -0.157868 0.806395 136 86 98 
0.0658506 -0.215335 0.874183 43 21 33 
0.0634135 0.0236023 0.826591 50 21 25 
0.0638932 -0.145652 0.81643 94 51 60 
0.0666173 0.00979069 0.826241 82 45 52 
0.0623931 0.106239 0.76903 85 41 54 
0.0698928 -0.0175008 0.828045 56 33 43 
0.0665712 0.0904601 0.769949 69 35 51 
0.0768694 -0.266923 0.880338 91 63 78 
0.076755 -0.202574 0.874722 135 117 139 
0.077414 0.0229555 0.82383 58 26 31 
0.0697437 0.212178 0.739435 48 43 50 
0.0832944 -0.224615 0.87425 91 68 84 
0.0732149 0.198489 0.744735 145 102 122 
0.0865096 -0.205531 0.871961 98 65 82 
0.0748804 0.127463 0.750063 120 68 80 
0.076681 0.106218 0.763147 59 37 40 
0.0823982 -0.0746278 0.813675 57 31 40 
0.077901 0.0846114 0.763784 153 118 138 
0.0837902 0.0528444 0.81834 61 31 41 
0.0779624 0.16241 0.754808 50 27 33 
0.0904267 -0.26506 0.876045 82 60 81 
0.0867362 0.0400172 0.819364 62 32 34 
0.0794464 0.215526 0.740417 46 39 46 
0.0807043 0.135947 0.7513 94 58 60 
0.0938738 -0.224543 0.870241 133 116 135 
0.0842807 0.178141 0.751267 116 64 77 
0.0973181 -0.210036 0.866395 149 125 141 
0.0981733 -0.275254 0.87278 106 73 90 
0.098446 -0.254584 0.872023 95 67 90 
0.0886993 0.108031 0.759716 74 38 50 
0.0883568 0.166882 0.751021 120 67 83 
0.0960904 0.0524256 0.814544 57 26 34 
0.103724 -0.243549 0.86847 91 59 80 
0.107819 -0.253083 0.868757 73 55 77 
0.0931029 0.131307 0.746683 59 31 30 
0.0969695 0.0814451 0.772484 79 52 61 
0.108745 -0.228543 0.865858 74 60 75 
0.10911 -0.15774 0.860535 96 72 88 
0.112481 -0.20937 0.862688 98 67 82 
0.112571 -0.144037 0.855188 110 74 88 
0.100455 0.0925374 0.755242 46 31 36 
0.0994941 0.163168 0.747376 78 36 50 
0.114307 -0.189278 0.85953 129 117 137 
0.116725 -0.256795 0.865628 92 72 100 
0.115217 -0.124263 0.852118 85 59 72 
0.11493 -0.0942109 0.849567 99 68 83 
0.101047 0.184461 0.744577 62 42 44 
0.101674 0.147845 0.74755 56 33 39 
0.117234 -0.244843 0.863288 99 69 93 
0.102413 0.172963 0.74524 85 38 54 
0.118183 -0.224837 0.862123 96 64 79 
0.117957 -0.159299 0.855691 96 64 75 
0.111731 0.0303758 0.808818 51 24 31 
0.106833 0.0826139 0.770406 84 55 59 
0.117393 -0.0647258 0.845947 70 49 68 
0.119959 -0.235198 0.861009 94 66 88 
0.110268 0.0717749 0.777822 158 104 120 
0.115501 0.0627738 0.787724 95 45 54 
0.126279 -0.210433 0.85729 95 74 83 
0.111237 0.0948036 0.752214 62 32 42 
0.125947 -0.185117 0.854 59 44 65 
0.125759 -0.123717 0.851053 85 58 75 
0.125915 -0.147561 0.851446 101 76 97 
0.111116 0.116887 0.748522 143 88 109 
0.110736 0.163133 0.743031 75 29 40 
0.129952 -0.257103 0.861292 75 54 73 
0.131126 -0.234822 0.857048 91 62 80 
0.113954 0.195446 0.735686 129 85 108 
0.122202 0.044208 0.788951 76 52 68 
0.13472 -0.223881 0.855813 81 61 86 
0.133052 -0.0856129 0.842138 146 125 144 
0.117806 0.172688 0.740044 68 34 48 
0.135641 -0.156351 0.848911 85 57 71 
0.136645 -0.206655 0.852337 144 123 142 
0.12534 -0.0118115 0.7772 109 58 65 
0.127947 -0.00906138 0.79268 41 20 17 
0.124759 -0.0265689 0.770343 135 82 98 
0.139737 -0.175467 0.849441 130 108 129 
0.140907 -0.245089 0.855133 100 73 92 
0.124007 0.104508 0.746226 80 42 55 
0.131165 0.00786729 0.786283 51 21 21 
0.122419 0.215429 0.724297 56 43 50 
0.141426 -0.0670958 0.837055 102 60 74 
0.142543 -0.12155 0.843999 133 117 128 
0.13307 0.0555596 0.779533 69 35 36 
0.146285 -0.25585 0.855316 77 58 78 
0.12858 0.0888653 0.747342 58 30 42 
0.144477 -0.110779 0.841302 88 70 92 
0.147623 -0.205684 0.849494 138 117 136 
0.148515 -0.227581 0.852431 63 41 64 
0.129211 0.195191 0.730589 122 77 98 
0.150991 -0.150149 0.841607 94 63 79 
0.151712 -0.16435 0.843174 101 60 76 
0.133928 0.139089 0.736494 38 24 21 
0.135553 0.104189 0.742346 64 37 44 
0.134007 0.176315 0.732458 52 32 41 
0.153483 -0.122738 0.838355 130 122 143 
0.15493 -0.181151 0.84382 83 61 73 
0.15423 -0.0675205 0.83295 75 49 60 
0.13856 0.0891606 0.74243 128 85 95 
0.161226 -0.209476 0.843463 75 50 69 
0.162808 -0.146669 0.837138 90 66 88 
0.162314 0.063979 0.816497 77 48 66 
0.167156 -0.192096 0.840658 91 67 83 
0.165615 -0.0666408 0.831015 139 120 142 
0.166832 -0.0946246 0.831109 68 47 52 
0.165863 0.0475985 0.817664 71 51 63 
0.171888 -0.269759 0.846896 95 67 90 
0.173682 -0.211404 0.839296 84 60 74 
0.175861 -0.227027 0.841508 80 58 70 
0.171661 0.0274372 0.818751 76 50 59 
0.180329 -0.249117 0.840112 101 72 92 
0.178475 -0.0659014 0.823791 139 117 140 
0.177001 0.0486049 0.815089 75 48 67 
0.180695 -0.0383638 0.823451 57 44 53 
0.179899 -0.00841535 0.817812 117 98 128 
0.183293 -0.157104 0.832992 127 113 136 
0.185425 -0.226851 0.838265 88 61 76 
0.185442 -0.211605 0.83591 85 61 75 
0.186961 -0.265493 0.839057 95 64 79 
0.186532 -0.124881 0.827544 120 111 132 
0.182028 0.152792 0.804143 110 98 118 
0.184553 0.000142974 0.815671 131 116 137 
0.181787 0.193483 0.797291 104 103 119 
0.180813 0.183199 0.793034 111 95 121 
0.186481 -0.0179147 0.815645 90 63 80 
0.184927 0.101299 0.803928 72 44 56 
0.192454 -0.24121 0.836569 71 52 74 
0.189621 -0.0347371 0.818038 144 125 144 
0.190698 -0.067533 0.820906 54 41 51 
0.194834 -0.253326 0.834982 80 59 74 
0.18728 0.173842 0.79724 102 85 104 
0.188848 0.111431 0.802891 120 97 115 
0.190906 0.0499254 0.810123 127 112 133 
0.196247 -0.228677 0.833891 74 54 66 
0.191795 0.0250503 0.81083 97 67 77 
0.190536 0.0857869 0.804916 125 116 135 
0.1977 -0.182848 0.828094 86 59 74 
0.194392 0.000845178 0.812117 134 116 140 
0.191574 0.152342 0.798848 121 116 136 
0.197484 -0.124079 0.824134 126 119 137 
0.199869 -0.212759 0.829365 75 57 71 
0.198053 -0.107602 0.821163 79 60 79 
0.193579 0.126679 0.799882 59 47 67 
0.201401 -0.245433 0.832278 103 74 96 
0.201565 -0.194457 0.827783 89 67 80 
0.196327 0.0715854 0.804881 86 63 81 
0.202163 -0.158105 0.824345 86 59 78 
0.202315 -0.168594 0.824317 107 73 87 
0.197029 0.105145 0.801273 65 50 69 
0.195363 0.195219 0.791432 59 58 76 
0.196678 0.161009 0.795972 124 119 142 
0.20018 0.0202582 0.808205 77 63 80 
0.20614 -0.259537 0.832029 141 114 129 
0.204137 -0.0394473 0.812756 69 43 54 
0.148656 0.212148 0.589213 109 125 141 
0.207867 -0.238018 0.828394 92 63 85 
0.203731 -0.00158384 0.808329 122 104 126 
0.206983 -0.0985215 0.818792 60 44 57 
0.203908 0.0462544 0.804542 78 62 75 
0.202576 0.152121 0.796308 129 126 147 
0.210151 -0.184565 0.822774 80 59 66 
0.204262 0.11266 0.797255 143 124 144 
0.209758 -0.12425 0.81846 133 124 145 
0.212225 -0.214328 0.826005 64 46 58 
0.206383 0.10218 0.798932 82 64 86 
0.207066 0.0785145 0.799339 143 121 133 
0.205152 0.189988 0.791415 108 102 136 
0.21276 -0.136026 0.819095 60 43 59 
0.21544 -0.265185 0.829907 71 54 72 
0.210102 -0.0214714 0.807433 67 47 59 
0.214185 -0.202943 0.823386 91 62 80 
0.211364 -0.0566807 0.810899 83 58 77 
0.212497 -0.0697975 0.814046 66 45 54 
0.208701 0.126948 0.793853 113 103 127 
0.211157 0.0246246 0.802804 83 63 75 
0.211058 0.0887112 0.797482 74 59 80 
0.214656 -0.0106982 0.806138 64 49 72 
0.219315 -0.237452 0.824026 138 120 136 
0.213296 0.0623126 0.798644 128 110 126 
0.210997 0.167496 0.788451 74 55 75 
0.219254 -0.124719 0.814615 131 112 132 
0.221086 -0.193381 0.821278 71 58 68 
0.218614 -0.0412211 0.808995 53 36 42 
0.213854 0.183747 0.789071 121 118 139 
0.216907 0.0461742 0.800392 123 115 136 
0.214829 0.150037 0.790721 75 60 83 
0.218319 0.0979517 0.795663 64 45 51 
0.225626 -0.249102 0.822721 83 60 86 
0.227085 -0.182323 0.81788 137 124 142 
0.225016 -0.0767324 0.807002 121 96 117 
0.223472 0.0275592 0.798139 130 124 138 
0.22391 0.0396055 0.797473 58 45 62 
0.229896 -0.221478 0.819439 81 67 84 
0.222399 0.132844 0.789352 129 125 148 
0.225923 -0.00608837 0.801118 81 63 79 
0.220872 0.193814 0.781933 64 58 68 
0.222373 0.177854 0.78496 117 98 118 
0.224899 0.056996 0.793334 90 67 75 
0.230769 -0.163867 0.814705 78 58 70 
0.231197 -0.201302 0.81525 134 120 146 
0.230502 -0.0979151 0.809673 63 42 47 
0.225352 0.151232 0.788103 76 63 89 
0.231817 -0.132776 0.810022 135 120 139 
0.234895 -0.23535 0.818997 86 63 83 
0.228475 0.0984106 0.788552 73 48 51 
0.23241 0.0465355 0.794901 75 52 68 
0.233123 0.0267716 0.794224 141 123 139 
0.236166 -0.0397323 0.800762 60 41 45 
0.231923 0.143881 0.783685 130 117 135 
0.241036 -0.206192 0.814007 79 54 73 
0.233134 0.130096 0.783825 145 131 154 
0.24229 -0.160468 0.811561 134 120 137 
0.238655 -0.00710916 0.798673 76 59 75 
0.243596 -0.180751 0.810178 136 122 147 
0.235191 0.174156 0.77926 127 108 127 
0.236402 0.153737 0.781664 134 125 154 
0.245265 -0.215532 0.812348 140 114 125 
0.243575 -0.0991721 0.804217 67 46 61 
0.236304 0.183944 0.777492 137 114 134 
0.238436 0.0767248 0.783598 22 62 175 
0.245301 -0.0677331 0.79927 129 110 130 
0.248563 -0.194946 0.809911 69 52 68 
0.242092 0.0595516 0.787377 83 61 82 
0.249812 -0.225813 0.812995 130 109 128 
0.240977 0.0941093 0.781964 82 121 212 
0.24822 -0.128735 0.803313 127 107 119 
0.24999 -0.164917 0.806562 66 55 72 
0.249655 -0.0492726 0.797573 67 58 75 
0.248499 -0.00171496 0.791754 68 45 63 
0.245677 0.14136 0.77814 102 79 99 
0.250718 -0.0397066 0.794001 60 47 57 
0.246871 0.130121 0.779902 130 114 127 
0.246533 0.188355 0.773641 120 109 139 
0.249831 0.102085 0.781941 73 55 71 
0.258605 -0.214779 0.808618 78 52 63 
0.250996 0.0821217 0.782327 109 81 95 
0.255123 -0.0721111 0.795733 96 67 72 
0.259856 -0.189464 0.805833 126 121 144 
0.258888 -0.160847 0.800998 72 60 74 
0.26269 -0.260215 0.811801 82 63 85 
0.261544 -0.23392 0.807207 95 67 82 
0.252002 0.154212 0.774324 130 113 132 
0.257202 -0.00859867 0.790218 140 116 130 
0.259491 -0.0582727 0.793079 77 56 63 
0.260858 -0.0975511 0.796171 71 48 68 
0.25716 0.0683458 0.779677 89 63 76 
0.260262 0.026263 0.785772 125 112 129 
0.264148 -0.128887 0.797887 95 65 77 
0.26757 -0.22328 0.80527 75 62 88 
0.256741 0.181935 0.771243 81 64 83 
0.260337 0.107963 0.776485 127 103 117 
0.260589 0.127168 0.775231 79 61 75 
0.263108 0.0426609 0.782155 139 116 132 
0.266024 -0.04296 0.790103 60 44 55 
0.267994 -0.0717516 0.793031 65 42 58 
0.270947 -0.160536 0.798333 64 46 62 
0.267168 -0.00322391 0.785095 114 93 110 
0.262889 0.14911 0.771988 68 54 69 
0.265573 0.0742519 0.778426 120 101 120 
0.257536 0.205825 0.75328 66 57 76 
0.269428 0.0322986 0.779579 103 80 100 
0.279336 -0.23815 0.801141 143 122 137 
0.270822 0.101956 0.775322 61 41 53 
0.267831 0.188338 0.765912 147 124 140 
0.26809 0.159239 0.766556 134 116 132 
0.280795 -0.261892 0.803665 52 35 51 
0.273832 0.0216565 0.778526 119 92 107 
0.279799 -0.131818 0.793512 119 110 127 
0.274728 0.0470397 0.776207 146 122 136 
0.273088 0.125664 0.770011 64 51 61 
0.281669 -0.161118 0.79514 54 42 54 
0.283302 -0.229048 0.799695 58 43 62 
0.274212 0.0816908 0.772732 90 60 70 
0.284104 -0.150888 0.793 89 65 78 
0.281673 -0.0419185 0.782938 68 39 44 
0.280424 0.0359478 0.775067 140 117 135 
0.277287 0.149122 0.765726 83 65 87 
0.285173 -0.0974954 0.786942 76 56 68 
0.280805 0.101689 0.770629 69 49 61 
0.277968 0.17749 0.762475 111 93 117 
0.291562 -0.262188 0.801078 61 43 67 
0.27896 0.166074 0.762895 135 118 134 
0.284166 0.025824 0.774655 130 113 131 
0.285577 -0.00683261 0.778335 83 62 69 
0.289727 -0.1378 0.789079 87 60 79 
0.282579 0.125765 0.766405 70 57 67 
0.282476 0.186687 0.760535 127 105 118 
0.29573 -0.229706 0.79667 41 29 49 
0.293613 -0.0721625 0.78189 73 50 58 
0.290048 0.0740851 0.770747 125 110 129 
0.287788 0.145674 0.762639 126 104 117 
0.299839 -0.250144 0.7947 137 114 130 
0.297954 -0.159547 0.787098 139 121 143 
0.29065 0.102133 0.766852 85 61 83 
0.300113 -0.136374 0.784442 82 58 82 
0.297284 -0.00883045 0.773654 87 66 73 
0.291442 0.177337 0.757455 138 115 131 
0.305663 -0.2273 0.792873 123 111 135 
0.301492 -0.0953131 0.780508 127 104 120 
0.296399 0.0669947 0.765726 130 103 118 
0.293135 0.187158 0.756144 74 57 73 
0.301193 -0.0335607 0.774922 129 107 120 
0.297438 0.124013 0.760849 77 55 68 
0.309654 -0.265222 0.792963 116 99 118 
0.307809 -0.180236 0.784794 88 64 80 
0.30511 -0.0552865 0.774683 88 61 78 
0.306228 -0.0695317 0.776012 128 111 130 
0.309666 -0.162362 0.784227 60 44 70 
0.304124 0.0298107 0.768827 116 103 123 
0.30567 -0.0165142 0.771615 124 111 128 
0.302302 0.0794007 0.762788 87 63 77 
0.305499 0.0407261 0.767311 122 100 113 
0.300877 0.176594 0.753691 140 122 138 
0.314647 -0.194752 0.785615 54 36 52 
0.316067 -0.229526 0.786702 64 47 63 
0.30974 0.0187531 0.765714 131 107 121 
0.305799 0.145202 0.75521 127 107 118 
0.320279 -0.263132 0.789782 68 58 83 
0.315159 -0.00768207 0.768072 66 49 59 
0.308885 0.187753 0.750575 141 129 153 
0.312741 0.0998044 0.756995 138 112 121 
0.320773 -0.134164 0.776475 94 69 91 
0.314572 0.0644269 0.759644 149 118 134 
0.315733 0.0369176 0.761591 98 74 90 
0.330177 -0.262569 0.785245 74 57 76 
0.323048 0.0174291 0.760123 134 111 129 
0.326399 -0.0432299 0.765813 112 99 117 
0.321438 0.123951 0.752202 66 50 63 
0.320534 0.180546 0.746814 45 31 44 
0.322393 0.145994 0.74899 64 52 66 
0.326439 0.0422872 0.757359 149 129 141 
0.330417 -0.0772745 0.766434 138 114 128 
0.331934 -0.00759513 0.761075 77 54 72 
0.318202 0.226077 0.727983 98 81 91 
0.339442 -0.19605 0.775735 73 50 76 
0.319151 0.211006 0.727834 115 106 123 
0.331924 0.0245308 0.757309 131 108 128 
0.330277 0.180847 0.743308 56 39 55 
0.346417 -0.219447 0.774119 92 68 92 
0.341246 -0.0490436 0.760257 136 111 132 
0.333558 0.191225 0.738463 69 64 87 
0.32787 0.217779 0.725479 154 172 244 
0.33695 0.125672 0.745491 136 113 123 
0.341147 0.0163731 0.753759 134 116 132 
0.339836 0.0640452 0.749738 144 118 127 
0.338865 0.137771 0.742583 93 66 71 
0.34744 -0.0213406 0.755642 129 106 124 
0.341887 0.147757 0.740178 63 42 51 
0.33544 0.210346 0.722012 16 23 41 
0.335281 0.221702 0.719355 14 20 34 
0.343714 0.214928 0.716789 156 174 248 
0.348161 0.201372 0.718857 131 117 130 
0.406166 -0.249322 0.830519 138 151 186 
0.405443 -0.148003 0.827648 68 84 120 
0.353625 0.226302 0.712753 85 80 84 
0.40067 0.164011 0.790337 20 34 63 
0.603804 -0.0591045 1.06336 129 122 155 
-0.383657 0.126171 1.01333 66 58 79 
-0.36246 0.0681414 1.01055 56 43 53 
-0.342762 0.167627 0.995412 111 97 112 
-0.339803 0.0356934 1.0058 87 62 81 
-0.330867 0.0927309 0.998189 115 104 121 
-0.325854 0.121192 0.992703 43 31 41 
-0.317887 0.0928237 0.993073 107 92 111 
-0.314872 0.120629 0.988548 42 32 43 
-0.316479 -0.125359 1.01195 130 106 119 
-0.262992 -0.085925 0.989264 88 57 73 
-0.336329 0.208653 0.61618 124 132 151 
-0.385418 0.215972 0.708337 134 150 163 
-0.541143 0.237011 1.02429 80 83 100 
-0.554804 0.186748 1.05742 36 48 70 
-0.513361 0.238407 0.999143 107 117 119 
-0.553052 0.0560651 1.0724 39 51 77 
-0.54325 0.240277 1.04828 32 31 39 
-0.551042 0.207328 1.06231 17 24 43 
-0.546461 0.196158 1.06013 26 31 51 
-0.549862 0.0873045 1.07367 27 35 54 
-0.54445 0.215704 1.06353 70 75 97 
-0.54524 0.131883 1.07117 98 111 146 
-0.54415 0.109284 1.07152 99 110 142 
-0.548178 -0.240969 1.105 40 50 75 
-0.543541 0.052713 1.0784 99 115 151 
-0.542916 0.0267964 1.08075 100 114 153 
-0.541311 0.121737 1.07291 23 31 67 
-0.540901 0.20426 1.06963 118 130 170 
-0.541448 -0.108261 1.09245 103 115 153 
-0.540968 -0.210274 1.10234 108 120 160 
-0.538873 -0.0964227 1.09384 128 137 178 
-0.543614 0.118649 1.08909 143 157 202 
-0.536048 -0.336586 1.11284 29 40 96 
-0.500254 0.237167 1.02887 68 62 74 
-0.486007 0.217615 1.0461 148 162 199 
-0.477821 0.0690831 1.0608 102 88 111 
-0.475287 0.00946312 1.06425 121 102 121 
-0.475467 -0.341506 1.09139 176 189 241 
-0.473585 -0.0909355 1.07319 111 93 115 
-0.474789 -0.0678937 1.07621 117 96 115 
-0.475699 -0.0259466 1.07577 100 85 118 
-0.474405 -0.204796 1.08737 123 104 126 
-0.474225 -0.329376 1.09695 99 108 149 
-0.472829 -0.359391 1.09964 90 97 139 
-0.46238 0.171739 1.04424 39 34 54 
-0.469463 -0.312961 1.0929 110 95 118 
-0.464399 -0.33058 1.09199 123 99 112 
-0.46576 -0.370126 1.10448 121 93 115 
-0.456982 -0.242599 1.08237 91 72 94 
-0.437217 0.23556 1.01407 47 52 58 
-0.439559 -0.332845 1.08485 131 124 142 
-0.43006 -0.20213 1.0686 133 113 124 
-0.425073 -0.0787276 1.05458 78 60 84 
-0.423745 -0.35962 1.08159 95 66 86 
-0.419042 -0.191667 1.06445 81 59 72 
-0.222796 0.189521 0.682966 105 73 96 
-0.416353 -0.346798 1.08 94 66 80 
-0.405314 -0.356937 1.07275 93 68 89 
-0.406444 -0.331637 1.07341 78 57 74 
-0.403092 -0.318286 1.07099 98 74 98 
-0.389617 -0.331401 1.06665 100 76 98 
-0.38419 -0.359995 1.06665 86 62 88 
-0.380313 -0.326897 1.05859 125 111 126 
-0.375739 -0.0819102 1.03976 57 38 60 
-0.376451 -0.366379 1.06543 83 64 84 
-0.368306 -0.327711 1.0582 128 110 126 
-0.362078 -0.300408 1.05457 78 64 77 
-0.359212 0.094406 1.01657 127 115 137 
-0.361949 -0.280104 1.057 92 80 92 
-0.156436 0.211196 0.61516 50 38 62 
-0.353218 -0.325185 1.05369 76 52 74 
-0.349898 -0.345876 1.0542 83 64 84 
-0.346022 -0.166792 1.03625 80 57 67 
-0.29244 0.104319 0.906877 41 28 37 
-0.336846 -0.346661 1.04983 73 58 77 
-0.330888 -0.383061 1.04994 89 60 82 
-0.326003 0.0227994 1.01283 64 50 65 
-0.324695 -0.302051 1.04036 78 51 68 
-0.321659 0.046533 1.00485 104 88 99 
-0.319802 -0.345454 1.04156 84 63 82 
-0.3147 -0.357323 1.04211 132 119 139 
-0.307756 -0.325058 1.0354 87 59 74 
-0.305523 -0.213815 1.02635 85 62 82 
-0.305097 -0.345398 1.03876 82 61 78 
-0.148282 0.187865 0.655897 113 75 96 
-0.26061 -0.0226007 0.923996 148 95 113 
-0.296291 -0.244107 1.02489 130 116 131 
-0.291378 -0.331675 1.03117 137 119 131 
-0.291357 -0.345445 1.03367 84 61 81 
-0.290668 -0.371019 1.03525 76 58 74 
-0.254996 0.00162654 0.934031 43 19 19 
-0.28243 -0.166142 1.01143 76 56 68 
-0.282101 -0.140355 1.01022 129 112 130 
-0.00313123 0.0995288 0.371595 85 53 74 
-0.276722 -0.370853 1.02992 79 57 78 
-0.27697 -0.327251 1.02667 79 58 77 
-0.115855 0.212583 0.622141 113 115 136 
-0.26628 -0.123647 1.00179 69 51 65 
-0.244217 0.0810266 0.932266 82 39 49 
-0.2623 -0.3631 1.02352 87 60 79 
-0.260514 -0.327033 1.01961 74 56 68 
-0.257731 -0.162707 1.00133 130 108 129 
-0.254653 -0.213617 1.00534 85 59 72 
-0.250686 -0.333492 1.01607 79 65 78 
-0.245381 -0.354612 1.01584 79 61 75 
-0.239119 -0.34401 1.01444 128 111 130 
-0.224271 -0.321094 1.00539 74 60 83 
-0.219931 -0.28047 0.999459 51 35 46 
-0.0863137 0.18638 0.632925 115 76 97 
-0.16603 -0.217759 0.883097 62 32 34 
-0.205323 -0.347665 0.999593 72 57 78 
-0.164444 -0.228984 0.88122 85 41 56 
-0.204809 -0.30004 0.995768 130 112 134 
-0.197092 -0.331549 0.995729 70 55 74 
-0.19483 -0.3086 0.994498 90 66 80 
-0.16627 -0.180984 0.915232 60 29 35 
-0.312087 0.169891 1.26869 95 48 66 
-0.179404 -0.350291 0.993168 81 66 89 
-0.1784 -0.331574 0.988885 86 70 97 
-0.160145 0.0154045 0.917706 50 23 30 
-0.137496 -0.151811 0.883878 57 25 28 
-0.165071 -0.330144 0.985866 78 63 86 
-0.162237 -0.31158 0.981725 76 55 74 
-0.156397 -0.332778 0.980242 76 55 74 
-0.150364 -0.353226 0.980859 75 59 85 
-0.133235 -0.00600001 0.889816 56 25 31 
-0.12251 -0.282066 0.893711 142 91 110 
-0.0470289 0.203647 0.611036 71 55 68 
-0.115277 -0.289341 0.891325 54 31 39 
-0.140941 -0.351983 0.976746 53 35 49 
-0.136838 -0.337575 0.97535 55 41 67 
-0.114016 -0.114242 0.885182 28 13 16 
-0.11569 0.0315106 0.880658 65 32 39 
-0.105306 -0.163444 0.880194 34 18 18 
-0.108387 -0.0805459 0.88493 122 65 72 
-0.124578 -0.333449 0.970583 67 50 69 
-0.0295112 0.186179 0.62642 124 89 113 
-0.0904231 -0.0583315 0.869401 46 20 21 
-0.0766606 -0.259264 0.856309 40 21 23 
-0.105459 -0.333822 0.9633 71 54 72 
-0.0797547 -0.0450304 0.873942 142 127 108 
-0.0911765 -0.334792 0.958515 84 68 94 
-0.0798024 -0.332852 0.952466 83 48 68 
-0.0693506 -0.0240026 0.870403 139 117 80 
-0.0692091 -0.333109 0.948632 59 38 57 
-0.0489322 -0.29048 0.874327 71 24 30 
-0.0542206 0.0219886 0.845532 176 164 152 
-0.0587685 0.0119406 0.872202 174 158 133 
-0.0554907 -0.0688793 0.873218 35 16 18 
-0.0050533 0.171073 0.642104 99 61 84 
-0.0524867 -0.0103175 0.857412 174 159 140 
-0.0449597 0.110392 0.814677 79 45 61 
-0.0550014 -0.337722 0.931931 173 157 132 
-0.0367348 -0.218508 0.841147 47 22 26 
-0.00136467 0.187603 0.639954 120 85 109 
-0.0408525 -0.269783 0.873369 80 32 46 
-0.0383381 -0.280284 0.87717 144 89 108 
-0.0233309 -0.238839 0.84097 48 22 31 
-0.0270997 -0.0765553 0.855151 125 74 83 
-0.0166749 -0.287953 0.852912 66 39 48 
-0.0221543 -0.0680633 0.838002 113 74 93 
-0.0160652 -0.268957 0.862614 153 102 121 
-0.021619 -0.33336 0.930453 68 44 57 
-0.0155168 0.00524569 0.844911 64 31 40 
-0.00140006 -0.178906 0.837883 67 27 36 
-0.00694421 -0.33459 0.926765 77 57 82 
0.00204784 -0.0824572 0.836607 130 74 87 
0.00629385 -0.159142 0.846379 58 23 30 
0.0778209 0.0536648 0.450027 66 39 56 
0.00426466 -0.313108 0.919589 138 123 144 
0.0139872 -0.0721415 0.828359 70 35 33 
0.0127628 -0.333367 0.91897 132 122 146 
0.0152157 -0.0606569 0.853771 47 19 18 
0.0172601 -0.290711 0.913165 65 39 66 
0.0312751 -0.317529 0.910515 94 71 91 
0.0314633 -0.287157 0.907138 90 60 72 
0.0403636 0.052087 0.841803 70 33 40 
0.0479949 -0.321535 0.905215 81 63 87 
0.0533195 -0.223114 0.844426 108 70 81 
0.0553713 0.179366 0.740529 88 49 68 
0.0582301 -0.284153 0.897224 139 121 143 
0.0598323 -0.312869 0.900356 86 62 78 
0.0633764 -0.256181 0.89247 97 68 90 
0.0648991 0.200343 0.744737 152 109 129 
0.0877075 0.211084 0.571471 109 110 131 
0.0681782 -0.237187 0.886842 104 82 103 
0.0712995 -0.290066 0.893757 65 46 65 
0.0718197 -0.310061 0.896514 94 74 102 
0.0679484 0.198437 0.759476 66 49 57 
0.0807453 -0.286646 0.89008 130 120 145 
0.0872443 0.0908313 0.768434 66 38 50 
0.0847933 0.204093 0.746853 70 39 47 
0.0918104 -0.285917 0.883889 93 79 104 
0.0965843 0.216006 0.639666 128 133 153 
0.098812 -0.316604 0.885111 74 52 65 
0.0900729 0.196258 0.75127 154 107 127 
0.109199 -0.289058 0.878521 96 65 83 
0.113621 -0.311147 0.878424 137 117 142 
-0.0327375 0.325208 2.6453 60 33 42 
0.122564 -0.290364 0.875214 94 69 91 
0.1312 -0.284975 0.871127 136 121 142 
0.130948 -0.248355 0.865161 97 70 87 
0.121889 0.148663 0.746295 61 31 41 
0.142389 -0.29883 0.867222 121 104 123 
0.148698 -0.289505 0.863744 98 67 83 
0.151811 -0.304605 0.863429 92 63 83 
0.155802 -0.282833 0.859663 103 78 97 
0.164372 -0.288279 0.858088 135 117 139 
0.159723 0.0263971 0.830874 64 41 59 
0.176231 -0.29693 0.854646 93 62 80 
0.184445 -0.291276 0.85195 83 52 68 
0.169815 0.0768417 0.822621 128 120 144 
0.175568 0.106196 0.815713 134 126 149 
0.17437 0.181871 0.809616 57 41 52 
0.196292 -0.293674 0.847396 75 53 66 
0.180798 0.0706964 0.816347 74 52 65 
0.1813 0.0862706 0.814942 72 54 76 
0.184805 0.209994 0.787973 56 52 66 
0.208093 -0.292624 0.843202 84 61 77 
0.217005 -0.161676 0.827497 69 52 70 
0.222768 -0.278344 0.834801 80 56 78 
0.233646 -0.192845 0.823251 126 103 123 
0.221337 0.0789552 0.801195 132 111 128 
0.214099 0.228419 0.769822 107 119 133 
0.24271 -0.262077 0.827704 129 115 140 
0.262974 -0.276293 0.819774 78 59 79 
0.270345 -0.197851 0.811815 59 46 64 
0.284933 0.0679165 0.779214 90 63 68 
0.33401 -0.16911 0.782095 84 66 82 
0.338943 0.0553776 0.761022 137 114 122 
0.346933 0.0439477 0.758049 77 53 69 
0.418833 -0.187787 0.850059 96 109 161 
0.408041 0.156457 0.80108 61 85 121 
-0.472652 -0.167513 1.07557 117 115 154 
-0.469305 -0.113048 1.06917 102 85 104 
-0.455934 0.223843 1.02603 87 75 95 
-0.386632 -0.151734 1.0446 125 102 120 
-0.250676 0.0577744 0.924779 99 57 77 
-0.253161 0.00985145 0.93617 113 62 69 
-0.267865 -0.165841 1.00394 73 52 67 
-0.120678 0.186445 0.643163 106 73 94 
-0.238203 -0.214689 0.998077 69 48 65 
-0.102902 0.185976 0.63637 111 78 97 
-0.137368 0.0880698 0.733967 81 40 56 
-0.108514 0.120056 1.00011 82 56 69 
-0.045509 -0.221111 0.834562 115 75 86 
-0.0245399 -0.234793 0.82497 50 23 28 
-0.112762 0.153537 1.26289 64 38 51 
0.0538061 0.0669117 0.567998 66 39 56 
0.0417577 -0.153966 0.833583 138 84 100 
0.133141 0.130719 0.734643 41 30 28 
0.151359 -0.0946829 0.842541 79 54 75 
0.191976 -0.0512131 0.822233 63 45 57 
0.212264 -0.228747 0.830931 89 66 82 
0.217325 -0.0309072 0.810044 72 55 74 
0.229332 -0.261531 0.828764 78 60 74 
0.244573 0.0210045 0.794545 82 56 69 
0.247991 0.178355 0.776763 127 106 121 
0.271374 -0.268482 0.8119 78 56 79 
0.286003 -0.195806 0.800906 81 62 81 
0.33099 -0.104314 0.773748 95 71 85 
0.348069 -0.238936 0.779217 90 63 82 
0.344959 0.182318 0.740476 116 103 120 
0.345565 0.228969 0.719575 58 59 63 
0.333513 -0.105121 0.555203 115 130 173 
-0.36073 -0.0248745 1.02464 56 44 66 
-0.108833 -0.165251 0.867574 116 72 89 
0.0429786 0.102401 0.691557 75 45 55 
0.0687624 0.114159 0.76916 93 53 62 
0.0891497 -0.233077 0.875781 110 72 97 
0.177107 -0.125445 0.834177 128 119 140 
0.220749 -0.0204501 0.807106 135 112 128 
0.29483 -0.0412764 0.782186 60 43 53 
0.332695 -0.0339887 0.765604 133 110 130 
0.332509 0.103479 0.753071 134 113 128 
-0.425721 0.215393 1.02077 70 59 76 
-0.424808 0.168644 1.02471 120 112 135 
-0.422864 -0.190807 1.04374 135 114 131 
-0.409332 0.0497527 1.03182 59 51 72 
-0.360455 0.16783 1.00194 39 35 49 
-0.355876 0.0937238 1.00703 121 109 129 
-0.343076 -0.165336 1.02735 73 50 60 
-0.200764 0.0614512 0.924877 53 22 37 
-0.157727 0.0584607 0.908875 60 27 36 
-0.106362 0.229921 0.782743 112 75 93 
-0.0991322 -0.225105 0.898396 43 22 21 
-0.0786849 -0.218043 0.800213 102 43 61 
-0.0117225 0.12297 0.784241 150 108 122 
0.00367856 0.0933379 0.668406 77 40 57 
0.0208754 0.0967858 0.657207 70 40 48 
0.317898 -0.288309 0.794524 73 54 74 
0.343983 -0.264279 0.782227 78 64 89 
0.347276 0.125432 0.742314 123 99 112 
0.4345 0.0541557 0.77402 148 168 201 
-0.453913 -0.241023 1.07549 81 61 86 
-0.427583 0.239248 0.990529 83 93 85 
-0.444916 -0.138292 1.06238 99 75 99 
-0.443359 -0.14864 1.06287 84 67 86 
-0.38374 0.230061 0.865374 43 58 51 
-0.427585 -0.139429 1.05718 90 67 83 
-0.419729 0.0953283 1.03073 76 62 79 
-0.409361 0.095189 1.02812 66 58 81 
-0.411939 -0.195869 1.05656 138 117 132 
-0.406102 -0.13147 1.04644 80 61 83 
-0.405983 -0.146131 1.04959 132 117 136 
-0.387584 0.23212 0.990515 52 50 53 
-0.394654 -0.0831763 1.03786 124 106 130 
-0.393474 -0.0677089 1.03607 79 63 90 
-0.384875 0.199422 1.0085 113 109 132 
-0.381942 0.148611 1.01034 118 114 141 
-0.387895 -0.162983 1.04429 77 54 70 
-0.388465 -0.211845 1.04965 79 55 69 
-0.369239 0.239892 0.983178 37 33 32 
-0.368313 0.216829 0.999999 52 50 63 
-0.361721 0.199765 0.999403 108 92 105 
-0.362896 0.0476679 1.01603 66 53 71 
-0.361268 -0.034539 1.02275 70 54 83 
-0.339127 0.226989 0.97513 91 84 92 
-0.342753 0.1031 1.0028 57 45 59 
-0.335765 0.0700242 1.00368 103 91 111 
-0.333088 0.165749 0.994195 54 41 50 
-0.330984 0.197407 0.98868 48 37 51 
-0.331767 0.0264663 1.00615 65 51 66 
-0.304099 0.209713 0.885876 136 93 113 
-0.324012 -0.0847679 1.01288 78 54 70 
-0.318134 0.199614 0.98461 96 92 107 
-0.32207 -0.256926 1.03062 77 59 73 
-0.313318 -0.196171 1.02104 71 54 73 
-0.309445 0.00894945 1.00291 56 43 61 
-0.310833 -0.223736 1.02204 92 61 76 
-0.308683 -0.177203 1.0183 72 55 73 
-0.303388 0.0933595 0.990989 37 29 40 
-0.304278 -0.0110634 0.999845 62 42 53 
-0.289336 0.101451 0.899669 109 73 83 
-0.302213 -0.143897 1.01059 80 56 69 
-0.295983 0.0802185 0.987083 42 31 39 
-0.284302 0.0385495 0.986862 59 42 50 
-0.273808 0.0774303 0.924205 149 95 111 
-0.280546 -0.161125 1.00439 136 113 133 
-0.25752 0.129385 0.885598 76 56 58 
-0.235303 0.195122 0.682964 54 34 43 
-0.264795 -0.113743 0.996076 62 49 69 
-0.264502 -0.19761 1.00294 91 68 88 
-0.227432 0.214031 0.671683 49 35 48 
-0.254216 -0.151978 0.995231 89 64 86 
-0.240592 -0.0574806 0.981699 60 41 60 
-0.215321 0.152453 0.682955 88 42 53 
-0.234143 -0.064398 0.978208 139 112 129 
-0.214248 -0.222444 0.987067 96 60 72 
-0.19667 0.113347 0.670325 104 57 65 
-0.203887 -0.0283601 0.930687 78 31 39 
-0.203476 -0.0399803 0.930791 119 68 77 
-0.204781 -0.232188 0.984493 57 34 42 
-0.1916 -0.0607759 0.92787 102 55 61 
-0.18778 -0.217369 0.97748 86 62 78 
-0.186873 -0.249523 0.980117 76 59 77 
-0.177998 -0.180675 0.97127 57 43 58 
-0.170961 -0.205338 0.968648 50 38 58 
-0.168009 -0.25166 0.973283 87 61 90 
-0.164965 -0.025514 0.919994 55 28 35 
-0.163049 -0.0633972 0.92156 73 32 38 
-0.153763 -0.265685 0.969032 74 58 85 
-0.147942 0.0298777 0.908454 47 20 27 
-0.14282 -0.0245066 0.909779 48 29 35 
-0.135714 -0.129228 0.871165 146 91 110 
-0.140375 0.210893 0.616983 217 228 255 
-0.124947 -0.00711757 0.882096 49 22 31 
-0.123795 -0.100216 0.874153 65 31 32 
-0.121056 0.0893952 0.852256 93 51 61 
-0.118755 0.100266 0.838876 82 48 64 
-0.129771 0.153252 0.651162 96 48 62 
-0.0926607 0.045085 0.854816 113 87 72 
-0.109352 0.191836 0.630556 79 46 57 
-0.110517 -0.16128 0.64284 46 26 28 
-0.0956152 -0.203754 0.754498 82 30 52 
-0.0972221 0.142506 0.640134 98 48 60 
-0.068777 -0.0262737 0.859796 124 93 62 
-0.0632305 -0.0439827 0.859733 184 171 152 
-0.0616025 -0.072645 0.858792 135 116 101 
-0.0883656 0.173335 0.633856 101 52 71 
-0.0629846 0.122473 0.788841 141 107 121 
-0.0408544 -0.244485 0.947472 49 24 27 
-0.0567619 0.130418 0.800501 63 47 57 
-0.0215723 0.0870301 0.817665 106 60 73 
-0.0234549 0.12111 0.802462 147 94 112 
-0.0564464 0.161617 0.623371 92 44 60 
-0.0563714 0.13855 0.625274 83 47 61 
0.267451 -0.432725 2.37537 140 96 111 
-0.0477079 0.110687 0.616392 116 63 71 
0.313311 -0.416691 2.36727 131 74 91 
0.311411 -0.340974 2.32542 54 23 21 
0.00308377 -0.0351794 0.836904 56 25 33 
0.0299002 -0.133763 0.851911 99 59 67 
0.0412587 0.0860536 0.816873 99 60 65 
0.0873068 0.00741967 0.824789 72 40 55 
0.0859972 0.0332047 0.810309 139 85 101 
0.0938448 -0.00263646 0.81721 110 63 71 
0.129338 -0.272045 0.865133 92 74 98 
0.139534 -0.0942987 0.843672 97 70 89 
0.154408 -0.194579 0.84843 86 71 92 
0.135231 0.0432531 0.783661 81 50 65 
0.12361 0.158477 0.742001 62 34 46 
0.151187 0.198804 0.730386 175 129 157 
0.249873 0.166523 0.776795 84 65 85 
0.252434 0.0324107 0.788164 145 122 132 
0.265882 -0.207098 0.808892 61 49 73 
0.276129 0.138816 0.77141 78 63 82 
0.311843 -0.2129 0.790883 85 73 93 
0.314424 -0.0229047 0.771144 138 117 134 
0.437171 0.237733 0.759501 115 128 144 
-0.407825 0.161653 1.01823 124 116 139 
-0.407626 -0.0775026 1.04041 128 113 136 
-0.400458 0.0510936 1.02663 118 101 119 
-0.368709 -0.0780342 1.02483 125 102 128 
-0.334983 -0.133279 1.01764 81 59 72 
-0.324659 0.140769 0.991058 45 39 51 
-0.323567 0.104114 0.993415 46 32 45 
-0.314409 0.2156 0.977686 41 39 52 
-0.312683 0.0472272 0.993667 71 54 70 
-0.303531 -0.0314364 0.998054 116 92 105 
-0.298596 0.116401 0.982643 100 79 86 
-0.293027 0.00823263 0.991646 56 43 53 
-0.289673 -0.0109661 0.991365 76 62 77 
-0.262568 0.195199 0.878324 25 21 22 
-0.234852 -0.163725 0.986598 94 61 80 
-0.219648 -0.165792 0.980574 82 56 67 
-0.207605 -0.192686 0.978263 97 66 82 
-0.138775 0.136948 0.590187 80 47 64 
-0.170449 0.161997 0.665929 75 51 67 
0.294863 0.026047 0.772646 139 116 132 
-0.426523 -0.200474 1.05972 131 107 121 
-0.25802 0.110373 0.887437 44 38 42 
-0.147194 0.198733 0.578164 44 35 54 
-0.247832 -0.212293 0.996497 75 51 64 
-0.109899 -0.0670878 0.888965 107 69 82 
-0.0578713 0.133309 0.817771 59 47 51 
0.272275 -0.290399 0.810563 71 53 75 
0.284643 0.0454194 0.77329 91 66 88 
0.297921 -0.288579 0.80064 134 116 140 
0.336042 -0.279993 0.785174 88 66 87 
-0.410292 0.0143099 1.03328 66 53 73 
-0.377765 -0.179512 1.04069 62 47 66 
-0.294316 0.126273 0.897807 128 81 97 
-0.286512 0.187746 0.885691 35 25 26 
-0.278657 -0.141685 1.00104 41 29 39 
-0.278334 -0.131495 0.999649 76 59 77 
-0.135265 0.21367 0.621912 227 233 255 
-0.045548 0.122339 0.80729 89 62 67 
0.0799666 -0.053526 1.22987 129 73 86 
0.0474459 -0.0797775 0.83919 126 84 96 
0.140582 -0.190707 0.851163 96 71 92 
0.157986 -0.264318 0.850716 113 82 98 
0.224427 -0.228235 0.824671 89 66 82 
0.22699 0.0718447 0.794289 38 30 41 
0.248971 -0.117517 0.802535 83 71 91 
-0.427821 0.0967685 1.02891 127 119 143 
-0.425752 -0.171723 1.05443 85 62 80 
-0.419995 0.156216 1.01993 114 108 136 
-0.4057 0.197392 1.01108 109 104 124 
-0.400706 0.221977 0.999971 104 94 102 
-0.404873 -0.0482169 1.03592 125 110 131 
-0.400192 0.0709957 1.02223 61 53 68 
-0.376183 -0.0880393 1.02649 70 52 74 
-0.342701 -0.215977 1.03034 66 52 67 
-0.334078 0.186589 0.986718 61 44 54 
-0.317326 0.164425 0.985821 35 26 31 
-0.318076 -0.0958683 1.00866 67 49 71 
-0.313627 0.141074 0.985371 26 20 24 
-0.310036 0.162997 0.978864 42 29 36 
-0.311616 -0.164062 1.01253 71 45 54 
-0.304236 0.104501 0.983298 43 31 35 
-0.297578 0.20487 0.887158 138 95 115 
-0.289805 -0.217419 1.00987 78 63 82 
-0.28141 0.00632184 0.98558 105 94 110 
-0.281361 -0.0280311 0.987296 134 114 126 
-0.277111 0.205942 0.876474 50 39 47 
-0.275662 0.190272 0.88105 40 31 32 
-0.267106 0.20573 0.872111 54 43 49 
-0.256306 0.00966541 0.969549 82 39 46 
-0.259039 0.091776 0.903719 79 53 54 
-0.261996 0.22973 0.851178 90 98 119 
-0.253586 0.172404 0.874166 43 21 23 
-0.24241 0.0239189 0.933179 66 28 27 
-0.26305 0.215624 0.690977 102 103 123 
-0.228593 0.0227971 0.929335 109 60 66 
-0.22026 -0.0285799 0.919717 81 38 55 
-0.206462 -0.140704 0.971793 80 56 70 
-0.240003 0.179725 0.713326 53 32 37 
-0.19682 -0.21776 0.97759 133 116 135 
-0.199353 -0.0510196 0.926736 66 24 28 
-0.234085 0.114285 0.681571 87 45 49 
-0.18583 0.0231614 0.916434 58 23 27 
-0.175616 -0.216413 0.969407 75 51 77 
-0.180689 -0.0961504 0.914097 69 31 42 
-0.170934 -0.135573 0.907978 120 66 79 
-0.158839 -0.155198 0.904954 118 70 86 
-0.153147 -0.0673764 0.914079 46 23 31 
-0.147795 -0.0782839 0.913462 69 33 33 
-0.159761 -0.217304 0.872747 116 60 71 
-0.146289 0.00322757 0.905204 56 29 38 
-0.146688 0.0542917 0.898748 48 25 31 
-0.131027 -0.0716669 0.880942 126 83 102 
-0.125109 0.0182281 0.876561 70 38 53 
-0.181165 0.11263 0.662072 107 56 65 
-0.114088 -0.0412488 0.874596 102 74 97 
-0.106307 0.095039 0.831132 70 42 57 
-0.092165 -0.186384 0.865339 112 80 103 
-0.0849214 0.0204923 0.854446 86 56 46 
-0.0831433 0.0205484 0.837276 180 173 155 
-0.16795 0.205724 0.572433 116 124 143 
-0.0690563 -0.062982 0.875294 106 86 62 
-0.0676537 -0.0772721 0.878585 109 69 80 
-0.0714062 -0.190267 0.856837 76 40 54 
-0.066611 -0.139439 0.861248 138 91 109 
-0.0549219 -0.0310545 0.858807 196 184 160 
-0.130847 0.216065 0.627394 221 231 255 
-0.038184 0.138993 0.846772 60 47 56 
-0.0417578 -0.155172 0.8412 66 31 35 
-0.111023 0.174797 0.639342 93 58 80 
-0.108626 0.139949 0.64179 78 42 54 
0.650635 0.0394642 2.36007 80 42 53 
-0.00773377 0.00496461 0.832502 60 33 40 
-0.00750342 0.0565625 0.828314 63 33 43 
-0.0923116 0.158459 0.633499 87 50 67 
0.00188557 0.0598706 0.825643 85 48 66 
0.0325966 -0.177198 0.833785 69 36 45 
0.045956 -0.100568 0.839306 117 81 95 
0.101109 -0.21627 0.865467 134 119 140 
0.0901269 -0.0538558 0.805361 67 28 33 
0.0117925 0.165651 0.644586 149 105 122 
0.133797 -0.0755026 0.838991 100 71 89 
0.140835 -0.0457863 0.832938 102 64 89 
0.144837 -0.139221 0.840227 99 72 89 
0.100402 0.11025 0.753044 91 57 71 
0.121068 0.0716897 0.770886 156 102 116 
0.146733 0.129967 0.728738 65 35 35 
0.224354 -0.0437983 0.802756 123 104 124 
0.232049 -0.246941 0.818629 86 63 91 
0.228685 -0.0693919 0.804384 78 51 70 
0.243801 0.0457979 0.786905 85 61 74 
0.24247 0.0699397 0.783135 118 101 117 
0.260539 -0.285772 0.812948 122 109 139 
0.263778 0.114343 0.772473 62 44 60 
0.26758 0.0654957 0.774649 149 123 136 
0.306815 -0.134957 0.780248 138 120 142 
0.316938 -0.274769 0.790063 89 71 97 
0.313772 -0.0994136 0.774005 91 67 81 
0.307546 0.164179 0.751844 93 68 90 
0.308599 0.177384 0.751766 134 112 125 
0.319047 0.134637 0.750365 83 62 79 
0.348647 -0.129619 0.766211 120 91 113 
0.351147 0.195938 0.725704 135 128 146 
-0.40419 -0.0372957 1.03566 137 124 144 
-0.40216 -0.06886 1.03769 94 70 94 
-0.387015 0.138082 1.01236 80 76 103 
-0.377513 0.238954 0.984799 46 40 52 
-0.368605 0.142791 1.00547 79 67 87 
-0.367677 -0.126761 1.03056 86 67 95 
-0.364596 0.0220914 1.01628 134 114 126 
-0.356414 0.107888 1.00447 76 62 85 
-0.343234 0.0252311 1.00822 110 95 114 
-0.33829 -0.0723522 1.01519 95 67 92 
-0.337116 -0.00892955 1.00935 137 122 141 
-0.323565 0.066278 0.998292 69 56 76 
-0.293557 0.103486 0.982907 55 42 52 
-0.293219 -0.151195 1.00658 106 75 93 
-0.284176 0.0221422 0.988335 50 34 44 
-0.280757 0.0917623 0.980096 100 91 110 
-0.277781 -0.00659035 0.987128 136 117 136 
-0.292488 0.214533 0.878294 107 84 90 
-0.250634 -0.130275 0.988419 95 62 79 
-0.21309 -0.0580984 0.9691 127 120 138 
-0.208014 -0.164741 0.97615 87 64 74 
-0.204457 -0.183094 0.976785 105 72 89 
-0.199722 -0.113453 0.969964 58 38 49 
-0.15011 -0.16411 0.902262 109 68 82 
-0.129735 -0.071248 0.874456 132 87 107 
-0.320544 0.202218 0.59676 113 118 138 
-0.368567 0.209476 0.686645 120 137 145 
-0.479893 0.217907 0.819534 39 57 43 
-0.587074 0.226864 0.974822 15 44 22 
-0.517045 0.225672 0.908461 107 113 109 
-0.425765 0.218897 0.807154 31 55 41 
-0.640814 -0.354491 1.08666 135 116 136 
-0.637801 -0.404532 1.09472 111 122 168 
-0.63493 -0.356912 1.0948 116 118 169 
-0.615486 0.144218 1.07748 88 102 151 
-0.551933 0.2044 1.02926 127 145 185 
-0.45256 0.227148 0.909772 35 63 40 
-0.520813 0.23037 0.994816 74 82 93 
-0.531855 0.208311 1.02065 20 31 49 
-0.533419 0.181198 1.02604 37 47 74 
-0.485671 0.230952 0.972371 124 130 144 
-0.528845 0.201265 1.02939 15 22 38 
-0.531413 0.0544106 1.04011 33 48 77 
-0.527585 0.174123 1.03275 36 43 69 
-0.517587 0.228028 1.02387 119 107 127 
-0.52313 0.120112 1.03894 93 108 141 
-0.523538 0.106256 1.0404 97 108 138 
-0.5224 0.0812858 1.04242 96 102 134 
-0.524365 0.0312591 1.04687 32 42 69 
-0.519928 0.19821 1.03789 114 126 164 
-0.522239 0.0513513 1.04601 90 98 135 
-0.480662 0.230455 0.998596 65 63 76 
-0.469704 0.234647 0.985154 79 85 117 
-0.522742 -0.24103 1.07151 41 48 77 
-0.517986 -0.424245 1.08914 96 101 139 
-0.45923 -0.0202221 1.03768 69 72 113 
-0.454245 -0.19855 1.05315 118 103 126 
-0.452412 -0.341368 1.06509 118 106 130 
-0.450076 -0.27551 1.05996 105 85 112 
-0.43838 -0.105024 1.03998 66 53 70 
-0.450328 -0.381748 1.0694 104 86 112 
-0.453693 -0.448489 1.07724 116 125 168 
-0.450138 -0.415506 1.07304 118 95 123 
-0.43996 -0.404433 1.06505 112 89 107 
-0.162798 0.148196 0.651904 62 31 46 
-0.121688 0.205165 0.609306 66 74 113 
-0.393412 -0.297938 1.04115 80 65 88 
-0.369792 0.0468534 0.997812 73 59 82 
-0.381883 -0.266779 1.03379 82 64 86 
-0.367402 -0.159416 1.01744 66 46 58 
-0.379328 -0.426586 1.04915 84 69 88 
-0.124948 0.16733 0.637135 81 47 64 
-0.366607 -0.34587 1.03528 128 118 142 
-0.340973 0.0110299 0.990614 71 53 67 
-0.35178 -0.313719 1.02671 64 50 65 
-0.348962 -0.376957 1.03322 130 116 129 
-0.348745 -0.403228 1.03545 82 58 80 
-0.3064 0.0339623 0.968242 109 90 109 
-0.206079 0.131435 0.805397 89 57 68 
-0.323259 -0.403648 1.02492 87 62 81 
-0.229563 0.100843 0.853358 63 46 52 
-0.31512 -0.315715 1.01389 84 57 76 
-0.294372 -0.399989 1.01445 128 113 132 
-0.273089 -0.0563828 0.974311 78 55 71 
-0.203575 0.111508 0.85246 66 32 46 
-0.231755 0.078642 0.904051 79 35 50 
-0.276531 -0.334262 1.00028 84 61 81 
-0.269447 -0.353237 1.00286 78 59 81 
-0.264579 -0.380866 1.0038 80 58 71 
-0.256563 -0.294302 0.990383 78 56 69 
-0.254984 -0.381636 0.999986 75 51 67 
-0.182788 -0.153669 0.889483 136 82 95 
-0.176491 -0.215664 0.88142 67 32 36 
-0.0326794 0.186241 0.598109 79 46 55 
-0.226488 -0.381313 0.988715 76 48 71 
-0.193779 0.0156165 0.910255 70 29 43 
-0.185383 -0.0666308 0.900532 82 43 46 
-0.166168 -0.206384 0.874347 50 31 35 
-0.21138 -0.320161 0.976105 78 56 69 
-0.20513 -0.379588 0.9768 82 58 71 
-0.202911 -0.273554 0.969563 70 47 63 
-0.190962 -0.346519 0.962416 120 106 131 
-0.147939 -0.20626 0.871914 37 18 22 
-0.155576 -0.175218 0.885955 60 29 34 
-0.192037 -0.290865 0.966301 75 57 81 
-0.159209 0.00527125 0.894928 84 42 52 
-0.187421 -0.340249 0.970207 79 63 90 
-0.183812 -0.355736 0.971118 84 59 81 
-0.176603 -0.300293 0.963561 63 46 64 
-0.177295 -0.379122 0.970689 79 57 78 
-0.17283 -0.355657 0.966333 91 68 94 
-0.164111 -0.337992 0.960891 130 116 139 
-0.162502 -0.348938 0.96118 82 58 71 
-0.151 -0.356807 0.958252 78 58 69 
-0.102735 -0.276064 0.86668 75 26 29 
-0.134151 -0.3564 0.951078 84 61 77 
-0.0872426 -0.0669303 0.843908 53 25 24 
0.0101313 0.188276 0.617387 100 59 75 
-0.0704787 -0.260134 0.827824 74 35 38 
-0.0774835 -0.284507 0.854713 148 98 110 
-0.0629864 -0.253312 0.826128 117 66 75 
-0.0699813 0.0113109 0.828461 78 39 40 
-0.107838 -0.341843 0.942435 120 111 132 
-0.108262 -0.358059 0.945018 80 62 76 
-0.100189 -0.356088 0.938606 80 59 74 
-0.0972765 -0.343222 0.935897 76 53 69 
-0.049108 -0.245145 0.829461 46 23 29 
-0.0522667 -0.10631 0.845859 54 23 31 
-0.0801472 -0.342927 0.929846 71 48 68 
-0.047166 -0.0663655 0.840831 21 10 14 
0.0325185 0.122729 0.636769 119 73 84 
-0.0674278 -0.338573 0.914835 52 28 44 
-0.0399785 -0.285537 0.845414 102 51 60 
-0.0409963 -0.0199365 0.836922 176 164 138 
-0.0245311 0.106525 0.787213 70 44 57 
-0.0600521 -0.346587 0.910172 188 191 200 
0.0338869 0.127723 0.646776 66 34 35 
-0.061944 -0.32303 0.919691 56 34 55 
-0.0288355 0.0408842 0.812938 129 115 106 
-0.0233343 -0.16218 0.818286 119 65 81 
0.0352489 0.138215 0.654573 77 44 61 
-0.0459057 -0.342533 0.903866 60 63 68 
-0.025215 -0.273697 0.847468 88 41 47 
0.0362117 0.147624 0.658576 79 47 68 
-0.0117466 -0.212714 0.810231 45 20 23 
-0.0207013 -0.2598 0.841374 80 39 53 
-0.0374936 -0.338196 0.899164 55 97 113 
-0.0381777 -0.324711 0.903088 38 24 24 
-0.00966051 -0.0993518 0.812308 67 31 31 
-0.0032224 -0.189158 0.810592 114 68 78 
-0.0283344 -0.335115 0.896049 130 119 101 
0.000806147 -0.137903 0.807833 128 78 89 
0.00323851 -0.175865 0.807973 110 66 79 
0.0435369 0.164566 0.677313 76 45 61 
0.00233772 -0.113162 0.816284 27 13 12 
0.00420722 -0.141606 0.817279 57 23 24 
-0.0164355 -0.336582 0.897238 44 36 51 
0.00663575 -0.155799 0.819275 53 23 31 
0.0455304 0.171957 0.684352 77 44 63 
0.0054397 0.0404265 0.81222 66 20 30 
-0.0150518 -0.325887 0.901703 117 95 108 
0.0535655 0.203006 0.675379 80 64 75 
0.0156743 0.0729362 0.795359 154 101 117 
0.0495882 0.153726 0.694006 95 48 66 
