ply                 
format ascii 1.0    
element vertex 849
property float x    
property float y    
property float z    
property uchar red  
property uchar green
property uchar blue 
end_header          
-0.414378 0.16786 1.01758 116 109 125 
-0.411804 0.214267 1.01183 67 56 73 
-0.41613 -0.0234867 1.03818 70 63 81 
-0.415409 -0.0496837 1.03994 68 51 67 
-0.406446 0.126238 1.02004 86 76 100 
-0.391806 0.0760506 1.01846 105 97 120 
-0.389359 0.107938 1.01366 15 17 38 
-0.390339 0.079322 1.01796 19 24 43 
-0.381019 0.0840917 1.01342 162 179 248 
-0.384249 -0.051288 1.02954 61 49 73 
-0.376382 0.0932525 1.01015 17 24 43 
-0.376382 0.0932525 1.01015 17 24 43 
-0.37594 0.0722899 1.01313 108 95 113 
-0.380041 -0.0517939 1.0274 56 44 64 
-0.369615 0.194683 1.0002 56 46 55 
-0.371435 0.106401 1.00752 18 22 34 
-0.370631 0.110699 1.00659 100 95 115 
-0.369738 0.072837 1.01161 101 90 107 
-0.376209 -0.108916 1.02965 115 102 130 
-0.372146 -0.0226246 1.02145 74 56 80 
-0.367616 -0.105252 1.02778 127 109 133 
-0.34765 0.229755 0.973028 35 36 40 
-0.34765 0.229755 0.973028 35 36 40 
-0.366275 -0.10791 1.02681 42 33 52 
-0.353787 -0.0106853 1.01429 64 47 65 
-0.352015 -0.0251607 1.01535 45 33 47 
-0.352015 -0.0251607 1.01535 45 33 47 
-0.346016 0.0733834 1.00226 55 52 71 
-0.350236 -0.0559162 1.01646 126 108 132 
-0.343058 -0.0200305 1.01018 116 98 122 
-0.330394 0.0112435 1.00246 67 50 68 
-0.322021 0.034653 0.996702 110 89 108 
-0.322021 0.034653 0.996702 110 89 108 
-0.215642 0.192525 0.667709 67 36 42 
-0.277981 0.0995848 0.893454 52 31 36 
-0.308568 -0.10955 1.00731 55 37 51 
-0.270311 0.103514 0.889928 33 32 37 
-0.303603 -0.0848854 1.00289 133 111 124 
-0.298608 0.0381736 0.988142 45 29 40 
-0.300084 -0.0563176 0.998615 51 34 50 
-0.300781 -0.0858603 1.00209 69 48 63 
-0.294236 0.0404675 0.987293 115 85 97 
-0.29749 -0.163653 1.00809 71 50 59 
-0.291813 -0.0549182 0.994782 130 109 126 
-0.250399 0.101898 0.883202 52 32 41 
-0.266855 -0.140858 0.995118 53 34 53 
-0.263186 -0.0571825 0.984451 77 59 73 
-0.175606 0.186216 0.65953 103 71 94 
-0.169708 0.191871 0.651321 53 33 44 
-0.25503 -0.111553 0.987929 80 61 81 
-0.24298 -0.10685 0.982918 78 60 76 
-0.239562 -0.10755 0.981241 129 106 124 
-0.238998 -0.176285 0.988378 60 43 53 
-0.230744 -0.139141 0.98116 78 52 65 
-0.227807 -0.112153 0.977107 68 54 67 
-0.189607 0.100233 0.861412 71 39 54 
-0.215165 -0.182011 0.979705 97 66 84 
-0.17433 0.0188019 0.903552 120 73 83 
-0.16135 0.115058 0.849363 79 42 59 
-0.0781554 0.0910914 0.820821 52 55 100 
-0.0639492 -0.10448 0.865019 51 21 23 
-0.036767 0.0932954 0.806396 67 41 54 
0.166266 -0.123125 0.834318 126 122 147 
0.191904 -0.163453 0.826792 65 53 65 
-0.48249 0.237037 1.02113 23 30 48 
-0.482348 0.189163 1.03652 143 161 199 
-0.478117 0.22265 1.0294 78 73 103 
-0.471168 0.238684 1.01636 37 37 47 
-0.480601 0.200592 1.03835 79 85 117 
-0.390158 0.227526 0.848674 107 119 109 
-0.47703 0.170858 1.04003 144 163 205 
-0.477317 0.148025 1.04304 137 162 202 
-0.476734 0.0490859 1.04669 158 172 221 
-0.474083 0.125979 1.04649 102 87 110 
-0.468392 0.218963 1.03414 78 69 86 
-0.472876 0.111689 1.04592 101 84 103 
-0.471235 0.0898857 1.04836 97 84 102 
-0.452966 0.230669 1.0117 65 58 76 
-0.461359 0.19285 1.03432 42 35 53 
-0.473645 -0.0490188 1.06254 88 96 135 
-0.469666 -0.0396119 1.06063 99 85 118 
-0.472258 -0.15593 1.07096 107 116 155 
-0.473191 -0.239841 1.07909 170 188 234 
-0.444139 0.223288 1.01479 112 103 120 
-0.456036 0.0509878 1.04572 68 62 88 
-0.470113 -0.268775 1.08261 61 68 112 
-0.467986 -0.292172 1.08379 104 88 115 
-0.465865 -0.248082 1.07953 118 96 119 
-0.463812 -0.213588 1.07491 101 82 114 
-0.458716 -0.192024 1.07034 71 53 75 
-0.440083 0.166906 1.02717 114 104 129 
-0.438158 0.214317 1.02409 72 63 82 
-0.441081 0.125792 1.03356 126 114 138 
-0.439721 0.08767 1.03539 89 71 93 
-0.454624 -0.267933 1.07627 127 109 131 
-0.445123 -0.196187 1.06692 92 65 82 
-0.431504 0.0752223 1.03583 75 58 76 
-0.428525 0.123902 1.02945 130 120 145 
-0.434146 -0.0779452 1.04955 84 60 76 
-0.438988 -0.172208 1.0623 81 62 81 
-0.444576 -0.300538 1.07792 82 59 87 
-0.431339 -0.0259596 1.0458 112 99 125 
-0.434472 -0.199234 1.0641 138 116 128 
-0.428479 -0.106689 1.0504 126 113 133 
-0.43539 -0.271269 1.0699 123 109 134 
-0.431396 -0.239841 1.06554 70 53 71 
-0.415838 0.0729441 1.03082 61 52 69 
-0.426253 -0.190074 1.06032 83 61 73 
-0.429491 -0.293887 1.07033 59 48 65 
-0.413648 -0.102892 1.04461 134 116 138 
-0.400544 0.171845 1.01433 110 101 122 
-0.41822 -0.242328 1.06105 139 115 129 
-0.413325 -0.172258 1.05248 96 65 81 
-0.415614 -0.294377 1.06359 69 55 68 
-0.351622 0.233183 0.90556 20 24 23 
-0.394094 0.122304 1.01603 120 107 127 
-0.403989 -0.108149 1.04174 42 37 57 
-0.396813 -0.0234599 1.03265 118 104 130 
-0.385673 0.215563 1.0045 57 55 69 
-0.394321 0.0137001 1.02853 70 55 78 
-0.401239 -0.170928 1.04822 63 49 62 
-0.401071 -0.197856 1.05004 80 59 74 
-0.387489 0.0937146 1.0162 21 28 47 
-0.399567 -0.210421 1.05169 77 54 72 
-0.390111 0.0484153 1.02748 76 62 87 
-0.397675 -0.161415 1.0479 52 38 53 
-0.388051 -0.0218254 1.02644 65 50 71 
-0.392429 -0.143665 1.04103 133 125 140 
-0.381808 0.102709 1.01301 154 171 240 
-0.386459 -0.0094404 1.02644 63 50 68 
-0.377594 0.166423 1.00512 116 104 126 
-0.392645 -0.187337 1.04705 133 114 134 
-0.393048 -0.243282 1.0511 119 102 118 
-0.378237 0.0125544 1.02153 60 53 69 
-0.37327 0.123959 1.00894 45 37 52 
-0.381449 -0.135852 1.03672 126 108 132 
-0.358881 0.238697 0.976338 35 26 31 
-0.383224 -0.197509 1.04463 53 37 47 
-0.382265 -0.186881 1.04229 137 123 136 
-0.372829 -0.00908777 1.02355 72 53 73 
-0.362549 0.121548 1.00455 54 46 57 
-0.376648 -0.215545 1.0445 70 47 57 
-0.364381 -0.0498122 1.02046 125 106 126 
-0.366261 -0.138207 1.02904 76 58 82 
-0.372836 -0.268046 1.04797 137 118 138 
-0.359932 0.0122866 1.01553 61 47 64 
-0.365657 -0.165042 1.03522 69 47 59 
-0.353885 0.0236756 1.01116 115 102 120 
-0.350291 0.143108 1.00176 40 36 51 
-0.35035 0.0403997 1.00956 77 62 83 
-0.346371 0.122323 1.00031 46 40 54 
-0.350348 -0.105112 1.02055 121 108 128 
-0.352751 -0.21259 1.03439 79 55 68 
-0.340584 0.0885337 1.00211 46 35 51 
-0.346189 -0.0806474 1.0193 129 107 130 
-0.346845 -0.139268 1.02672 82 61 80 
-0.228334 0.193601 0.674078 64 34 44 
-0.33503 0.141009 0.994437 51 37 52 
-0.335118 0.0466577 1.00384 51 44 52 
-0.339556 -0.111046 1.0204 61 48 65 
-0.343064 -0.231056 1.03313 56 42 59 
-0.344536 -0.27577 1.04085 61 40 47 
-0.334251 -0.0552867 1.01126 62 46 72 
-0.340538 -0.244382 1.03294 76 55 64 
-0.330966 -0.0195026 1.00704 122 101 120 
-0.331532 -0.0847997 1.01715 54 38 49 
-0.335357 -0.270528 1.03444 133 108 127 
-0.322912 -0.0558163 1.00986 58 43 64 
-0.321991 -0.0253494 1.00783 65 51 68 
-0.326854 -0.176315 1.02387 52 39 57 
-0.286738 0.117855 0.897452 48 39 42 
-0.323918 -0.10938 1.01517 69 54 75 
-0.316955 -0.0122777 1.0027 67 50 60 
-0.215297 0.164861 0.680622 85 46 64 
-0.214851 0.174953 0.680165 73 42 60 
-0.321154 -0.208546 1.02263 98 85 95 
-0.323414 -0.246334 1.03054 68 40 54 
-0.319852 -0.18343 1.01928 66 47 66 
-0.309392 0.0852624 0.987185 91 71 83 
-0.318023 -0.172226 1.01863 124 104 116 
-0.320271 -0.274042 1.02916 52 41 49 
-0.310641 0.0237867 0.998638 35 24 32 
-0.310883 -0.00230132 0.999549 63 44 63 
-0.31061 -0.0266748 1.00316 48 38 49 
-0.27667 0.11771 0.893153 66 35 50 
-0.309481 -0.0525148 1.00372 118 99 119 
-0.206541 0.187399 0.672447 100 73 88 
-0.280376 0.0871382 0.919288 153 99 115 
-0.204698 0.163758 0.677415 65 39 52 
-0.273604 0.0920683 0.909978 74 53 52 
-0.306537 -0.273769 1.02552 67 44 50 
-0.303027 -0.235851 1.01797 67 48 70 
-0.267981 -0.0166699 0.913767 96 43 53 
-0.289056 -0.174869 1.00773 74 53 70 
-0.193446 0.138807 0.673484 65 39 52 
-0.189389 0.192688 0.660007 71 39 50 
-0.290588 -0.274339 1.01852 58 38 49 
-0.28504 -0.11277 1.00171 58 41 59 
-0.186937 0.212872 0.654703 127 134 152 
-0.289332 -0.292565 1.01939 134 117 135 
-0.25798 0.0643668 0.923763 108 74 88 
-0.276039 -0.0856171 0.994534 73 50 60 
-0.25756 0.0191998 0.930705 47 21 20 
-0.275215 -0.113025 0.996256 51 39 53 
-0.275817 -0.173704 1.00215 125 107 129 
-0.246896 0.0911622 0.896984 70 49 48 
-0.241712 0.114599 0.879751 62 35 44 
-0.183288 0.174249 0.668243 90 47 64 
-0.245784 0.0809007 0.907398 145 93 106 
-0.237577 0.101946 0.879766 125 81 98 
-0.247811 0.0686356 0.918281 142 95 113 
-0.180638 0.154203 0.668968 69 38 53 
-0.268849 -0.272572 1.01055 76 50 63 
-0.26611 -0.209748 1.0017 132 117 136 
-0.265422 -0.24706 1.00618 78 66 86 
-0.228368 0.116601 0.874892 74 51 57 
-0.174352 0.138696 0.668469 77 37 48 
-0.234598 0.0915121 0.903858 61 42 48 
-0.258502 -0.177825 0.997339 58 42 55 
-0.253535 -0.0560119 0.983436 58 44 61 
-0.171548 0.173853 0.663635 80 39 55 
-0.258605 -0.273901 1.00608 81 53 65 
-0.251729 -0.0863721 0.986508 58 40 56 
-0.223247 0.0944965 0.876189 128 83 103 
-0.211167 0.136405 0.840319 92 62 74 
-0.217533 0.121934 0.870605 75 43 56 
-0.244194 -0.161923 0.991175 124 106 120 
-0.213941 0.103138 0.873587 53 38 43 
-0.228081 0.0399314 0.933575 57 25 36 
-0.16064 0.138389 0.663273 66 32 46 
-0.155908 0.192468 0.64706 67 45 57 
-0.238287 -0.251158 0.995553 90 55 75 
-0.203648 0.134987 0.852804 84 52 57 
-0.237423 -0.275335 0.998605 107 86 101 
-0.232271 -0.0845233 0.979753 61 39 51 
-0.203177 0.100893 0.866693 53 26 31 
-0.153017 0.160212 0.656875 71 43 58 
-0.211971 0.0616453 0.926293 62 29 40 
-0.22717 -0.276978 0.996004 46 30 40 
-0.224654 -0.189032 0.985871 73 55 81 
-0.224198 -0.179027 0.985386 63 50 78 
-0.224809 -0.209354 0.9887 127 118 139 
-0.211402 0.0279949 0.931141 49 24 30 
-0.14736 0.112043 0.651918 101 54 64 
-0.222125 -0.247266 0.990614 89 65 81 
-0.207512 0.049435 0.928862 49 21 20 
-0.205118 0.0386726 0.920722 83 33 44 
-0.217007 -0.258891 0.98843 68 51 69 
-0.212054 -0.11207 0.974398 54 40 55 
-0.196677 -0.147525 0.904117 54 22 23 
-0.139874 0.191846 0.641242 73 43 53 
-0.19905 0.0273809 0.92328 51 28 34 
-0.211168 -0.249024 0.98613 76 56 68 
-0.139919 0.163259 0.652866 98 51 71 
-0.18029 0.133729 0.844364 74 53 60 
-0.139936 0.151146 0.654117 83 38 58 
-0.192953 -0.137217 0.911206 99 56 63 
-0.205371 -0.215809 0.981107 74 51 61 
-0.176487 0.120925 0.856952 102 51 70 
-0.130184 0.191548 0.637853 82 46 58 
-0.184364 -0.0824395 0.910882 97 71 82 
-0.186843 -0.00966009 0.926047 50 23 32 
-0.183778 -0.123912 0.913937 51 26 30 
-0.190735 -0.178203 0.972202 67 42 63 
-0.190907 -0.278222 0.981969 78 54 76 
-0.176171 0.0498715 0.914913 64 29 36 
-0.174881 0.00580354 0.914448 93 44 50 
-0.176127 -0.0251207 0.921378 56 30 39 
-0.173842 -0.0409544 0.913261 55 21 22 
-0.123074 0.16183 0.647106 79 48 64 
-0.172801 0.0328562 0.916823 58 22 22 
-0.171504 -0.0136227 0.91995 82 40 42 
-0.15794 0.089603 0.864902 99 57 69 
-0.176968 -0.277803 0.975698 76 54 75 
-0.166541 -0.0938527 0.919702 57 29 41 
-0.165333 -0.0762401 0.919007 67 26 40 
-0.152568 0.111941 0.849233 80 38 50 
-0.162 0.0460015 0.912512 51 24 33 
-0.147038 0.136843 0.831284 86 58 73 
-0.160961 0.0298505 0.910931 43 23 25 
-0.160601 -0.0104916 0.913561 56 27 32 
-0.165589 -0.278142 0.972813 134 122 142 
-0.142768 0.0991651 0.844856 70 40 52 
-0.150874 -0.103048 0.919781 45 22 30 
-0.142684 -0.160141 0.87884 76 30 40 
-0.141077 0.0744539 0.874028 153 100 118 
-0.145081 -0.0779263 0.904749 59 28 26 
-0.137956 -0.225179 0.86393 139 93 104 
-0.138553 -0.176719 0.881916 114 66 80 
-0.140375 -0.255786 0.895301 143 90 106 
-0.135849 -0.21376 0.873359 42 22 24 
-0.129554 0.0988058 0.841114 73 39 55 
-0.134681 -0.137804 0.877832 128 78 90 
-0.0978253 0.15225 0.638699 81 44 62 
-0.097315 0.169164 0.637111 87 43 56 
-0.133115 0.02004 0.881092 62 30 41 
-0.124419 0.126473 0.824347 142 109 130 
-0.133315 -0.0318542 0.885534 51 20 26 
-0.131556 0.0455297 0.877851 63 22 30 
-0.131431 -0.185807 0.880636 121 67 83 
-0.0922768 0.209656 0.621855 63 49 66 
-0.128607 -0.159727 0.872476 136 84 97 
-0.127652 -0.231171 0.872614 53 18 25 
-0.124449 -0.238044 0.86275 119 70 76 
-0.125596 0.0313242 0.877248 65 37 51 
-0.12099 -0.144694 0.869732 133 86 104 
-0.12147 -0.0375112 0.87881 105 80 101 
-0.115162 0.118736 0.833871 88 50 65 
-0.120764 0.0436839 0.875011 98 47 56 
-0.118372 -0.130179 0.865588 143 90 106 
-0.115807 0.0603338 0.870436 56 29 36 
-0.115831 0.0082922 0.874991 53 27 36 
-0.114608 -0.214303 0.866192 43 22 21 
-0.115385 -0.00725812 0.876543 54 21 28 
-0.11495 -0.0202974 0.879561 64 37 46 
-0.1141 -0.18581 0.87558 108 75 96 
-0.11297 -0.233413 0.870336 61 28 37 
-0.110211 0.0758232 0.856896 93 41 53 
-0.11122 -0.154969 0.865244 57 25 30 
-0.111251 -0.133591 0.87334 63 27 31 
-0.108777 -0.12346 0.869898 128 80 92 
-0.108766 0.0447281 0.870177 57 21 33 
-0.107309 0.0193428 0.870884 57 27 35 
-0.107099 -0.0314566 0.874948 55 29 40 
-0.106772 -0.0586277 0.875328 50 21 23 
-0.102772 -0.0680427 0.863255 53 23 25 
-0.100115 -0.232265 0.868787 137 85 98 
-0.0990717 0.0470917 0.866697 40 21 27 
-0.0941654 0.113157 0.827562 83 44 63 
-0.0993802 -0.136088 0.881388 63 31 42 
-0.0977457 -0.156093 0.86752 51 25 28 
-0.098629 -0.102456 0.877854 63 36 45 
-0.0699905 0.158245 0.626784 78 45 62 
-0.0946936 -0.21464 0.858008 43 22 21 
-0.0964723 -0.0831483 0.875999 53 20 27 
-0.087843 0.130976 0.810486 66 49 55 
-0.0916214 -0.0260255 0.86787 85 43 45 
-0.0902108 -0.233815 0.864108 81 30 45 
-0.0905859 -0.0948244 0.874075 66 30 40 
-0.0625008 0.189829 0.613437 76 44 49 
-0.0876083 -0.0164729 0.866371 137 114 98 
-0.0869913 -0.037044 0.868229 141 115 100 
-0.0834959 0.0408499 0.843405 27 18 19 
-0.0843135 -0.131371 0.875068 61 30 38 
-0.0599464 0.151778 0.624781 91 45 58 
-0.0829691 -0.0598175 0.871281 40 16 16 
-0.0772899 0.0296665 0.826308 20 15 12 
-0.0800874 -0.231917 0.857117 139 86 102 
-0.0786827 -0.0252811 0.85036 155 132 116 
-0.0571237 0.171604 0.621613 80 46 63 
-0.078553 -0.187494 0.862583 132 79 95 
-0.0792724 -0.0997179 0.871268 114 62 74 
-0.0752871 -0.214846 0.848973 44 22 25 
-0.0714053 0.0996756 0.819822 79 42 59 
-0.0531606 0.185236 0.610614 159 115 140 
-0.0536611 0.122591 0.617341 102 61 67 
-0.0717255 0.0201887 0.830305 107 101 105 
-0.0720896 -0.0135831 0.847443 195 185 160 
-0.0681612 0.130391 0.804133 65 49 59 
-0.0718397 -0.0632869 0.863813 162 150 128 
-0.0708531 -0.0356187 0.855133 198 191 172 
-0.0720384 -0.119636 0.8698 64 37 46 
-0.066399 0.0351649 0.825491 143 134 129 
-0.0679495 -0.235327 0.856531 76 35 43 
-0.0666135 0.0510422 0.840813 60 28 29 
-0.0656189 -0.128919 0.868402 64 29 27 
-0.0616519 0.0272135 0.829704 224 221 206 
-0.0618496 -0.0104724 0.845601 96 77 70 
-0.0623951 0.0050388 0.857739 119 99 74 
-0.0626832 -0.0336805 0.863677 137 113 87 
-0.0586848 0.110956 0.813338 93 61 76 
-0.0909588 0.154502 1.2806 77 49 64 
-0.0562408 0.0422693 0.827461 56 38 36 
-0.0579198 -0.119494 0.865022 67 30 38 
-0.0314956 0.0538043 0.465813 70 36 50 
-0.0538178 0.0972759 0.814345 142 94 116 
-0.0407929 0.181767 0.615167 176 128 152 
-0.0563845 -0.0563872 0.86207 41 20 17 
-0.0540675 -0.0181329 0.856139 199 188 160 
-0.0533897 0.00256445 0.862261 111 96 77 
-0.0525385 -0.234347 0.848952 80 37 54 
-0.0510329 0.0323373 0.837797 105 87 85 
-0.0495973 -0.191069 0.850853 71 39 52 
-0.0477873 0.0472983 0.832406 26 15 19 
-0.0354446 0.122773 0.622953 127 79 95 
-0.0483261 -0.128376 0.86201 61 31 39 
-0.0352078 0.167899 0.623053 116 82 107 
-0.0443565 0.129699 0.794734 52 41 45 
-0.0472273 -0.104128 0.860344 54 23 29 
-0.0305013 0.146931 0.629211 86 49 66 
-0.0395133 0.0349648 0.830644 177 162 155 
-0.0377402 -0.234881 0.842797 63 27 41 
-0.038002 -0.0894572 0.856767 48 20 19 
-0.0281174 0.158577 0.628605 81 50 65 
-0.0368135 -0.161414 0.836644 38 24 23 
-0.0339538 0.117519 0.805491 81 48 59 
-0.0346417 -0.188499 0.845825 128 75 91 
-0.0304625 0.0467074 0.83965 56 24 27 
-0.0307154 -0.103677 0.852603 48 28 30 
-0.0299939 -0.152879 0.834961 102 68 82 
-0.0283956 0.0752235 0.823071 163 110 128 
-0.0214893 0.190678 0.619172 98 54 67 
-0.0262649 0.129109 0.787285 64 49 54 
-0.0244059 0.0163009 0.840678 63 23 32 
-0.0243461 -0.0344251 0.84504 59 22 30 
-0.0172271 0.158052 0.633729 100 49 66 
-0.0213963 0.0962851 0.800985 50 34 45 
-0.0125967 0.0547673 0.454734 50 34 45 
-0.0212237 -0.144183 0.836267 73 30 37 
-0.0146327 0.173971 0.63341 82 53 71 
-0.0146118 0.137253 0.637189 92 53 72 
-0.0182854 -0.0410292 0.839196 56 24 27 
-0.0176214 -0.0790928 0.847037 122 69 77 
-0.0165554 0.0282721 0.835838 68 38 48 
-0.0164336 -0.0223384 0.840182 67 39 51 
-0.0160422 0.0420316 0.835453 58 23 30 
-0.0160647 -0.0096693 0.839513 53 21 32 
-0.0153618 0.0568185 0.833384 62 32 42 
-0.0148406 -0.161053 0.827563 135 85 97 
-0.0106054 0.0982175 0.797657 64 36 50 
-0.00837819 0.15926 0.638232 113 62 81 
-0.0105186 -0.144714 0.833275 74 32 34 
-0.00977429 -0.188619 0.834933 133 82 99 
-0.00922501 -0.132102 0.823587 151 97 113 
-0.00611032 0.191441 0.626704 88 55 66 
-0.00641884 -0.0411292 0.835878 57 22 28 
-0.00621717 0.0175389 0.833379 75 45 57 
-0.00621844 -0.00988169 0.836042 59 28 36 
-0.00615402 0.0416343 0.831628 51 20 26 
-0.00610058 0.028068 0.83404 68 30 41 
-0.0060596 -0.0229199 0.837854 66 33 44 
-0.00583565 -0.261296 0.85323 150 95 116 
-0.00233971 -0.160987 0.823471 136 88 104 
0.0018089 0.107786 0.791846 77 43 57 
0.00165963 0.162742 0.642222 78 40 61 
0.00262671 -0.0677899 0.823075 109 71 86 
0.00499794 -0.182718 0.840318 51 22 24 
0.00546072 0.0700556 0.815128 160 103 118 
0.00632541 0.0950027 0.792051 138 91 107 
0.00727082 -0.258405 0.841081 148 101 111 
0.00818875 -0.223498 0.816451 111 64 70 
0.00797514 0.186144 0.639212 125 87 108 
0.011589 0.108047 0.787775 134 88 101 
0.0120671 0.0882229 0.802547 153 109 126 
0.0100581 0.155083 0.647622 83 50 67 
0.0181929 -0.216443 0.804441 100 55 62 
0.01537 0.192617 0.63643 94 53 67 
0.0210017 0.0859242 0.818861 69 48 57 
0.0224787 -0.221531 0.822017 103 58 65 
0.0232013 0.000667386 0.845877 62 27 34 
0.0216006 0.0931023 0.786756 56 43 50 
0.023605 -0.0309806 0.84747 63 38 44 
0.0236652 0.0243971 0.843335 57 24 31 
0.024067 -0.11986 0.855105 59 28 34 
0.0254638 -0.164994 0.838768 39 18 23 
0.0244096 0.11517 0.782285 70 40 48 
0.026478 0.0498318 0.83533 63 33 43 
0.0279303 -0.0835031 0.851556 82 43 44 
0.0303889 0.0960694 0.782251 61 44 52 
0.0358288 -0.109797 0.849666 57 30 37 
0.0358516 -0.0756345 0.846678 54 25 30 
0.0289453 0.193137 0.642592 91 53 64 
0.0449741 -0.280065 0.895382 90 69 88 
0.0424305 -0.0165784 0.840006 57 30 39 
0.0436776 0.00328572 0.833789 97 52 59 
0.0438492 0.0238696 0.833067 44 18 19 
0.0473435 -0.265804 0.891618 135 114 133 
0.0442823 0.0399572 0.831656 61 30 36 
0.0419311 0.097189 0.777749 58 39 45 
0.0460564 -0.0700694 0.842833 65 30 36 
0.0458241 0.0124621 0.821524 145 99 110 
0.0481281 -0.0318968 0.838725 62 32 42 
0.051952 -0.0474704 0.835837 44 23 30 
0.0524553 -0.0198482 0.836339 82 36 38 
0.0531607 -0.129283 0.827194 61 29 30 
0.0535362 0.00211885 0.831282 148 94 110 
0.0527209 0.094479 0.776718 78 52 61 
0.0587536 -0.0322118 0.835579 57 28 33 
0.0591473 0.0428163 0.829403 59 26 33 
0.0600421 -0.0874676 0.82165 48 24 24 
0.0593847 -0.157205 0.806597 136 86 98 
0.0655711 -0.21461 0.874282 43 21 33 
0.0629503 0.023861 0.826831 50 21 25 
0.0635464 -0.145022 0.816623 94 51 60 
0.0661571 0.0100815 0.826477 82 45 52 
0.0618519 0.106327 0.769383 85 41 54 
0.069446 -0.0171499 0.828269 56 33 43 
0.0660322 0.0905881 0.770295 69 35 51 
0.0766077 -0.266095 0.880414 91 63 78 
0.0764451 -0.201869 0.874826 135 117 139 
0.0769206 0.0232266 0.824074 58 26 31 
0.0690986 0.212023 0.739875 48 43 50 
0.0829873 -0.223861 0.874348 91 68 84 
0.0725735 0.19837 0.745161 145 102 122 
0.0861815 -0.204811 0.872069 98 65 82 
0.0742881 0.127513 0.750455 120 68 80 
0.0761051 0.106319 0.76351 59 37 40 
0.0819599 -0.0741371 0.813898 57 31 40 
0.077338 0.0847624 0.764138 153 118 138 
0.0832596 0.0530574 0.818602 61 31 41 
0.0773399 0.16238 0.755205 50 27 33 
0.0901355 -0.264223 0.876128 82 60 81 
0.0862088 0.0402597 0.81962 62 32 34 
0.0787765 0.215371 0.740857 46 39 46 
0.080093 0.135982 0.751693 94 58 60 
0.0935442 -0.223779 0.870345 133 116 135 
0.0836308 0.17808 0.751675 116 64 77 
0.0969694 -0.209294 0.866508 149 125 141 
0.0978729 -0.274388 0.872864 106 73 90 
0.0981298 -0.253758 0.872115 95 67 90 
0.0880931 0.108137 0.760085 74 38 50 
0.0877054 0.16685 0.751426 120 67 83 
0.0955321 0.0526495 0.814812 57 26 34 
0.103388 -0.242738 0.868571 91 59 80 
0.107482 -0.252251 0.868854 73 55 77 
0.0924641 0.131363 0.747083 59 31 30 
0.0963694 0.0816156 0.772823 79 52 61 
0.108387 -0.227757 0.865967 74 60 75 
0.108697 -0.157092 0.860674 96 72 88 
0.112101 -0.208617 0.862808 98 67 82 
0.11214 -0.14341 0.855338 110 74 88 
0.0998314 0.0926883 0.755614 46 31 36 
0.0988179 0.163153 0.747786 78 36 50 
0.113906 -0.188561 0.85966 129 117 137 
0.116371 -0.255946 0.865729 92 72 100 
0.114764 -0.123672 0.852279 85 59 72 
0.114455 -0.0936803 0.849741 99 68 83 
0.10035 0.184397 0.744999 62 42 44 
0.101004 0.147868 0.747954 56 33 39 
0.11687 -0.244016 0.863395 99 69 93 
0.101722 0.172927 0.745656 85 38 54 
0.117802 -0.224048 0.862239 96 64 79 
0.117525 -0.158638 0.855836 96 64 75 
0.111153 0.0306608 0.809087 51 24 31 
0.106209 0.0827894 0.77075 84 55 59 
0.11689 -0.0642522 0.846136 70 49 68 
0.119581 -0.234387 0.861122 94 66 88 
0.109647 0.0719758 0.77815 158 104 120 
0.114881 0.0629964 0.788035 95 45 54 
0.12587 -0.209664 0.857417 95 74 83 
0.110585 0.0949576 0.752592 62 32 42 
0.125518 -0.184397 0.854138 59 44 65 
0.125284 -0.12312 0.851216 85 58 75 
0.125457 -0.146915 0.851601 101 76 97 
0.110447 0.11699 0.748914 143 88 109 
0.110032 0.163127 0.743448 75 29 40 
0.129571 -0.256241 0.8614 75 54 73 
0.130725 -0.234 0.857168 91 62 80 
0.113215 0.195365 0.736127 129 85 108 
0.12158 0.0444766 0.789253 76 52 68 
0.134302 -0.223078 0.855938 81 61 86 
0.13253 -0.0850829 0.842325 146 125 144 
0.117077 0.172664 0.74047 68 34 48 
0.135169 -0.155678 0.849067 85 57 71 
0.136209 -0.205882 0.852472 144 123 142 
0.124747 -0.0114103 0.777501 109 58 65 
0.127354 -0.00867167 0.79296 41 20 17 
0.124173 -0.0261314 0.77065 135 82 98 
0.139271 -0.174753 0.84959 130 108 129 
0.140492 -0.244238 0.855253 100 73 92 
0.123316 0.104649 0.746618 80 42 55 
0.130549 0.00822439 0.786578 51 21 21 
0.12164 0.215305 0.724765 56 43 50 
0.140871 -0.0665955 0.837255 102 60 74 
0.142029 -0.120941 0.844173 133 117 128 
0.132412 0.0558134 0.779855 69 35 36 
0.145867 -0.254975 0.855433 77 58 78 
0.12789 0.0890469 0.747727 58 30 42 
0.14395 -0.110189 0.841483 88 70 92 
0.147163 -0.204904 0.849634 138 117 136 
0.148071 -0.226759 0.852561 63 41 64 
0.128434 0.195122 0.731039 122 77 98 
0.150479 -0.149474 0.841775 94 63 79 
0.15121 -0.163646 0.843335 101 60 76 
0.133184 0.139158 0.736915 38 24 21 
0.134834 0.10434 0.742745 64 37 44 
0.133234 0.176295 0.732898 52 32 41 
0.152944 -0.122114 0.838536 130 122 143 
0.154434 -0.180411 0.843975 83 61 73 
0.153647 -0.067008 0.833157 75 49 60 
0.137845 0.0893498 0.742824 128 85 95 
0.160738 -0.208673 0.843611 75 50 69 
0.162268 -0.145989 0.837314 90 66 88 
0.161609 0.0642253 0.816769 77 48 66 
0.166642 -0.191323 0.840815 91 67 83 
0.165006 -0.0661212 0.831225 139 120 142 
0.166242 -0.0940457 0.831309 68 47 52 
0.165163 0.0478823 0.817929 71 51 63 
0.171426 -0.268831 0.847021 95 67 90 
0.173169 -0.210585 0.83945 84 60 74 
0.175356 -0.226178 0.841654 80 58 70 
0.170964 0.0277679 0.819008 76 50 59 
0.17983 -0.248218 0.840253 101 72 92 
0.177836 -0.0653702 0.824011 139 117 140 
0.176276 0.0488953 0.815358 75 48 67 
0.18003 -0.037889 0.823681 57 44 53 
0.17921 -0.00800191 0.818059 117 98 128 
0.182717 -0.156386 0.833171 127 113 136 
0.184898 -0.225993 0.838416 88 61 76 
0.184903 -0.210776 0.836069 85 61 75 
0.18646 -0.264555 0.839196 95 64 79 
0.185921 -0.124223 0.827741 120 111 132 
0.181209 0.152862 0.804461 110 98 118 
0.183848 0.000542373 0.815924 131 116 137 
0.180934 0.193463 0.797632 104 103 119 
0.179967 0.183201 0.793378 111 95 121 
0.185785 -0.0174754 0.815892 90 63 80 
0.184139 0.101483 0.80423 72 44 56 
0.191924 -0.240317 0.836718 71 52 74 
0.188931 -0.0342609 0.818277 144 125 144 
0.190032 -0.0669882 0.821131 54 41 51 
0.194307 -0.252404 0.835131 80 59 74 
0.186429 0.173869 0.797575 102 85 104 
0.188043 0.111596 0.803198 120 97 115 
0.190147 0.0502245 0.810399 127 112 133 
0.195698 -0.227804 0.834048 74 54 66 
0.191053 0.0254034 0.811097 97 67 77 
0.189748 0.0860094 0.805212 125 116 135 
0.19711 -0.182063 0.828273 86 59 74 
0.193663 0.00125155 0.812375 134 116 140 
0.190731 0.15242 0.799174 121 116 136 
0.196848 -0.123413 0.824337 126 119 137 
0.199298 -0.211911 0.829533 75 57 71 
0.197402 -0.106968 0.821375 79 60 79 
0.192751 0.126815 0.800198 59 47 67 
0.200853 -0.244521 0.832432 103 74 96 
0.200975 -0.193645 0.827959 89 67 80 
0.195537 0.071843 0.805172 86 63 81 
0.201544 -0.157365 0.824537 86 59 78 
0.201703 -0.167832 0.824506 107 73 87 
0.19621 0.10533 0.80158 65 50 69 
0.194475 0.195205 0.791782 59 58 76 
0.195815 0.161072 0.796305 124 119 142 
0.199422 0.0206286 0.808475 77 63 80 
0.205593 -0.258593 0.832181 141 114 129 
0.203417 -0.0389483 0.813001 69 43 54 
0.147739 0.212035 0.589978 109 125 141 
0.207297 -0.237113 0.828557 92 63 85 
0.202982 -0.00116402 0.808593 122 104 126 
0.206306 -0.097899 0.81901 60 44 57 
0.203121 0.0465725 0.804826 78 62 75 
0.201708 0.152208 0.796638 129 126 147 
0.209534 -0.183764 0.82296 80 59 66 
0.20342 0.112835 0.79757 143 124 144 
0.209094 -0.123571 0.818671 133 124 145 
0.211628 -0.213467 0.826178 64 46 58 
0.205545 0.102379 0.799241 82 64 86 
0.206244 0.0787661 0.79964 143 121 133 
0.204247 0.189993 0.791763 108 102 136 
0.212099 -0.135321 0.819302 60 43 59 
0.214877 -0.264221 0.83006 71 54 72 
0.209353 -0.0210039 0.807691 67 47 59 
0.213573 -0.202102 0.823567 91 62 80 
0.210641 -0.0561389 0.811142 83 58 77 
0.211784 -0.0692289 0.81428 66 45 54 
0.207836 0.127095 0.794178 113 103 127 
0.210369 0.0249954 0.803084 83 63 75 
0.210218 0.0889438 0.797789 74 59 80 
0.213889 -0.0102501 0.806402 64 49 72 
0.21872 -0.236536 0.824196 138 120 136 
0.212472 0.0626043 0.798942 128 110 126 
0.210093 0.167556 0.788796 74 55 75 
0.218568 -0.12403 0.814832 131 112 132 
0.220452 -0.192553 0.821465 71 58 68 
0.217863 -0.0407062 0.809245 53 36 42 
0.212933 0.183773 0.789421 121 118 139 
0.216089 0.0465032 0.800682 123 115 136 
0.213931 0.150138 0.791057 75 60 83 
0.217456 0.0981697 0.795976 64 45 51 
0.225025 -0.248157 0.82289 83 60 86 
0.226428 -0.181511 0.818076 137 124 142 
0.224277 -0.0761361 0.807244 121 96 117 
0.222652 0.027934 0.798426 130 124 138 
0.22308 0.0399547 0.797766 58 45 62 
0.229264 -0.220584 0.819621 81 67 84 
0.221497 0.132988 0.789685 129 125 148 
0.225125 -0.00564002 0.801391 81 63 79 
0.219922 0.193822 0.782296 64 58 68 
0.221434 0.177899 0.785313 117 98 118 
0.224051 0.0573092 0.793638 90 67 75 
0.230088 -0.163088 0.814911 78 58 70 
0.230544 -0.200445 0.815443 134 120 146 
0.229769 -0.0972718 0.809906 63 42 47 
0.224429 0.151338 0.788444 76 63 89 
0.231108 -0.132058 0.810244 135 120 139 
0.234263 -0.234424 0.819176 86 63 83 
0.227585 0.0986363 0.788876 73 48 51 
0.231555 0.0468765 0.795199 75 52 68 
0.232281 0.0271565 0.794517 141 123 139 
0.235371 -0.039204 0.801025 60 41 45 
0.230988 0.144008 0.78403 130 117 135 
0.240367 -0.205318 0.814202 79 54 73 
0.232207 0.130256 0.784165 145 131 154 
0.241581 -0.159686 0.811773 134 120 137 
0.237829 -0.00664854 0.798949 76 59 75 
0.242899 -0.179925 0.810386 136 122 147 
0.234223 0.174218 0.779621 127 108 127 
0.235448 0.153846 0.782015 134 125 154 
0.244592 -0.214634 0.812543 140 114 125 
0.242813 -0.0985137 0.804458 67 46 61 
0.235325 0.183985 0.777859 137 114 134 
0.237536 0.0770068 0.783923 22 62 175 
0.244507 -0.0671375 0.799527 129 110 130 
0.247866 -0.194086 0.810116 69 52 68 
0.241201 0.0598732 0.78769 83 61 82 
0.249139 -0.224891 0.813187 130 109 128 
0.240058 0.0943549 0.782296 82 121 212 
0.247469 -0.12801 0.803546 127 107 119 
0.249265 -0.164117 0.80678 66 55 72 
0.248837 -0.0487128 0.797839 67 58 75 
0.247643 -0.00125605 0.792042 68 45 63 
0.244709 0.141504 0.778493 102 79 99 
0.249888 -0.0391647 0.794274 60 47 57 
0.245911 0.130291 0.780249 130 114 127 
0.245525 0.188394 0.774015 120 109 139 
0.248887 0.102319 0.782276 73 55 71 
0.257902 -0.21387 0.80882 78 52 63 
0.250065 0.0824012 0.782655 109 81 95 
0.254309 -0.0714973 0.795995 96 67 72 
0.259129 -0.188605 0.806046 126 121 144 
0.258138 -0.160045 0.801226 72 60 74 
0.262016 -0.259213 0.811985 82 63 85 
0.260848 -0.232969 0.807405 95 67 82 
0.251008 0.154332 0.774687 130 113 132 
0.256332 -0.00811795 0.790507 140 116 130 
0.258656 -0.0576841 0.79335 77 56 63 
0.260052 -0.096879 0.796425 71 48 68 
0.256223 0.068661 0.780005 89 63 76 
0.259356 0.0266715 0.786078 125 112 129 
0.263361 -0.128147 0.79813 95 65 77 
0.266853 -0.222345 0.805475 75 62 88 
0.255714 0.181996 0.771619 81 64 83 
0.259362 0.108193 0.77683 127 103 117 
0.259597 0.127355 0.775584 79 61 75 
0.262181 0.0430366 0.782472 139 116 132 
0.265161 -0.0423983 0.790383 60 44 55 
0.267151 -0.0711281 0.793298 65 42 58 
0.270169 -0.159724 0.798567 64 46 62 
0.266269 -0.00274563 0.785394 114 93 110 
0.261874 0.149249 0.772353 68 54 69 
0.264613 0.0745604 0.778758 120 101 120 
0.256473 0.205831 0.753693 66 57 76 
0.268492 0.0327025 0.779897 103 80 100 
0.278603 -0.237173 0.801349 143 122 137 
0.269827 0.102208 0.775668 61 41 53 
0.26677 0.188393 0.766298 147 124 140 
0.26705 0.15936 0.766933 134 116 132 
0.280079 -0.260868 0.803863 52 35 51 
0.272894 0.0220875 0.778843 119 92 107 
0.278978 -0.131058 0.793761 119 110 127 
0.273767 0.0474159 0.776535 146 122 136 
0.272066 0.125864 0.770372 64 51 61 
0.280867 -0.160296 0.795379 54 42 54 
0.282552 -0.228086 0.799908 58 43 62 
0.273223 0.0819903 0.773075 90 60 70 
0.283288 -0.150084 0.793244 89 65 78 
0.280771 -0.0413444 0.78323 68 39 44 
0.279458 0.036353 0.775393 140 117 135 
0.276234 0.149273 0.766101 83 65 87 
0.284309 -0.0968009 0.787211 76 56 68 
0.279785 0.101949 0.770981 69 49 61 
0.27689 0.177576 0.762863 111 93 117 
0.290823 -0.261153 0.801281 61 43 67 
0.277888 0.166188 0.763279 135 118 134 
0.2832 0.0262545 0.774979 130 113 131 
0.284636 -0.00633044 0.778644 83 62 69 
0.288886 -0.137017 0.789334 87 60 79 
0.281533 0.125973 0.766772 70 57 67 
0.281379 0.186755 0.760929 127 105 118 
0.294954 -0.228732 0.796888 41 29 49 
0.292708 -0.0715138 0.782175 73 50 58 
0.289029 0.0744136 0.771091 125 110 129 
0.286713 0.14584 0.763017 126 104 117 
0.299068 -0.249122 0.794916 137 114 130 
0.297111 -0.158711 0.78735 139 121 143 
0.289605 0.102399 0.767211 85 61 83 
0.299245 -0.135584 0.784705 82 58 82 
0.296315 -0.00831353 0.77397 87 66 73 
0.29033 0.177434 0.757851 138 115 131 
0.304862 -0.226321 0.793099 123 111 135 
0.300587 -0.094608 0.780788 127 104 120 
0.295367 0.0673449 0.766077 130 103 118 
0.29201 0.187234 0.756545 74 57 73 
0.300236 -0.0329872 0.775229 129 107 120 
0.296356 0.124236 0.761224 77 55 68 
0.308874 -0.264161 0.793178 116 99 118 
0.306959 -0.179347 0.785045 88 64 80 
0.304161 -0.0546625 0.774985 88 61 78 
0.305289 -0.0688765 0.776307 128 111 130 
0.308798 -0.16151 0.784484 60 44 70 
0.303107 0.0302488 0.769162 116 103 123 
0.304687 -0.0159735 0.771932 124 111 128 
0.301245 0.079728 0.763147 87 63 77 
0.304469 0.0411413 0.767651 122 100 113 
0.299741 0.1767 0.754093 140 122 138 
0.313795 -0.193829 0.785861 54 36 52 
0.315241 -0.22853 0.786937 64 47 63 
0.308716 0.0192209 0.766051 131 107 121 
0.304677 0.145384 0.7556 127 107 118 
0.319473 -0.262066 0.790004 68 58 83 
0.314146 -0.00715259 0.768397 66 49 59 
0.30772 0.187839 0.750985 141 129 153 
0.31164 0.100094 0.757369 138 112 121 
0.319854 -0.133359 0.776752 94 69 91 
0.313497 0.0647977 0.760004 149 118 134 
0.314678 0.0373506 0.76194 98 74 90 
0.329346 -0.261493 0.785475 74 57 76 
0.321991 0.0179115 0.760469 134 111 129 
0.325388 -0.0426128 0.766132 112 99 117 
0.320295 0.124193 0.752591 66 50 63 
0.319345 0.180657 0.747228 45 31 44 
0.321228 0.146187 0.74939 64 52 66 
0.325354 0.0427172 0.757717 149 129 141 
0.329424 -0.07658 0.766743 138 114 128 
0.330879 -0.00705089 0.761413 77 54 72 
0.316964 0.226078 0.728444 98 81 91 
0.338532 -0.1951 0.775998 73 50 76 
0.317922 0.211043 0.728291 115 106 123 
0.33084 0.0250047 0.757661 131 108 128 
0.329062 0.180964 0.743728 56 39 55 
0.345509 -0.218441 0.774379 92 68 92 
0.340202 -0.0484003 0.760585 136 111 132 
0.332323 0.19132 0.738895 69 64 87 
0.326613 0.217806 0.725942 154 172 244 
0.335765 0.125922 0.745892 136 113 123 
0.340046 0.0168733 0.754115 134 116 132 
0.338697 0.0644378 0.750115 144 118 127 
0.337664 0.137995 0.742992 93 66 71 
0.346356 -0.0207523 0.755985 129 106 124 
0.340669 0.147961 0.740595 63 42 51 
0.334168 0.210396 0.722478 16 23 41 
0.333998 0.221725 0.71983 14 20 34 
0.342415 0.214973 0.717267 156 174 248 
0.346865 0.201453 0.719326 131 117 130 
0.405229 -0.248274 0.830695 138 151 186 
0.404424 -0.147154 0.827853 68 84 120 
0.35229 0.226326 0.71324 85 80 84 
0.399371 0.16422 0.790675 20 34 63 
0.602748 -0.058433 1.06344 129 122 155 
-0.382812 0.125535 1.011 66 58 79 
-0.361667 0.0677637 1.00823 56 43 53 
-0.342109 0.166909 0.993108 111 97 112 
-0.339083 0.0354837 1.0035 87 62 81 
-0.330215 0.0923061 0.995888 115 104 121 
-0.32524 0.120666 0.990409 43 31 41 
-0.317288 0.0924174 0.990779 107 92 111 
-0.314301 0.120121 0.986258 42 32 43 
-0.31575 -0.124806 1.00967 130 106 119 
-0.262506 -0.0855035 0.98703 88 57 73 
