ply                 
format ascii 1.0    
element vertex 1104
property float x    
property float y    
property float z    
property uchar red  
property uchar green
property uchar blue 
end_header          
-0.414067 0.167833 1.01642 116 109 125 
-0.411493 0.214203 1.01067 67 56 73 
-0.415829 -0.0233728 1.03702 70 63 81 
-0.415109 -0.0495525 1.03878 68 51 67 
-0.406147 0.126245 1.01889 86 76 100 
-0.391524 0.0760945 1.01733 105 97 120 
-0.389077 0.107958 1.01253 15 17 38 
-0.390058 0.0793635 1.01683 19 24 43 
-0.380747 0.0841297 1.01231 162 179 248 
-0.383982 -0.0511577 1.02842 61 49 73 
-0.376115 0.0932837 1.00903 17 24 43 
-0.376115 0.0932837 1.00903 17 24 43 
-0.375674 0.0723363 1.01202 108 95 113 
-0.379777 -0.0516634 1.02629 56 44 64 
-0.369351 0.194638 0.9991 56 46 55 
-0.371172 0.106422 1.00641 18 22 34 
-0.370368 0.110717 1.00549 100 95 115 
-0.369479 0.0728831 1.01051 101 90 107 
-0.375951 -0.10875 1.02854 115 102 130 
-0.371889 -0.0225134 1.02034 74 56 80 
-0.367367 -0.105089 1.02668 127 109 133 
-0.347398 0.229678 0.971954 35 36 40 
-0.347398 0.229678 0.971954 35 36 40 
-0.366027 -0.107746 1.02572 42 33 52 
-0.353547 -0.0105828 1.01321 64 47 65 
-0.351778 -0.025049 1.01428 45 33 47 
-0.351778 -0.025049 1.01428 45 33 47 
-0.34578 0.073429 1.00119 55 52 71 
-0.350001 -0.0557849 1.01538 126 108 132 
-0.342828 -0.0199223 1.00911 116 98 122 
-0.330175 0.0113308 1.00141 67 50 68 
-0.321809 0.0347246 0.99566 110 89 108 
-0.321809 0.0347246 0.99566 110 89 108 
-0.215472 0.192401 0.666989 67 36 42 
-0.277781 0.0996012 0.89248 52 31 36 
-0.308374 -0.10939 1.00628 55 37 51 
-0.270119 0.103527 0.888964 33 32 37 
-0.303412 -0.0847402 1.00187 133 111 124 
-0.298418 0.0382424 0.987129 45 29 40 
-0.299896 -0.0561896 0.9976 51 34 50 
-0.300593 -0.0857147 1.00107 69 48 63 
-0.294051 0.0405347 0.986285 115 85 97 
-0.297308 -0.163463 1.00708 71 50 59 
-0.291632 -0.0547914 0.993777 130 109 126 
-0.250228 0.101913 0.882264 52 32 41 
-0.266698 -0.140685 0.994144 53 34 53 
-0.26303 -0.0570564 0.983482 77 59 73 
-0.175486 0.186107 0.658854 103 71 94 
-0.169594 0.191755 0.650662 53 33 44 
-0.254882 -0.111397 0.98697 80 61 81 
-0.242842 -0.106698 0.981973 78 60 76 
-0.239426 -0.107398 0.980301 129 106 124 
-0.238864 -0.176097 0.987438 60 43 53 
-0.230616 -0.138973 0.98023 78 52 65 
-0.227681 -0.112 0.976181 68 54 67 
-0.189494 0.10025 0.860552 71 39 54 
-0.21505 -0.181823 0.978793 97 66 84 
-0.174236 0.0188802 0.902696 120 73 83 
-0.161262 0.115065 0.84854 79 42 59 
-0.0781325 0.0911183 0.820101 52 55 100 
-0.0639331 -0.104336 0.864294 51 21 23 
-0.0367719 0.0933222 0.805726 67 41 54 
0.166208 -0.123019 0.833854 126 122 147 
0.191843 -0.16334 0.826354 65 53 65 
-0.482012 0.236908 1.01973 23 30 48 
-0.48188 0.189084 1.03511 143 161 199 
-0.477651 0.222539 1.028 78 73 103 
-0.470697 0.238551 1.01495 37 37 47 
-0.480138 0.200505 1.03695 79 85 117 
-0.389633 0.227297 0.84726 107 119 109 
-0.476568 0.170797 1.03861 144 163 205 
-0.476855 0.147985 1.04162 137 162 202 
-0.476263 0.0491362 1.04524 158 172 221 
-0.473624 0.12596 1.04507 102 87 110 
-0.467938 0.218857 1.03273 78 69 86 
-0.472416 0.111682 1.04449 101 84 103 
-0.470776 0.089899 1.04693 97 84 102 
-0.452507 0.230539 1.01028 65 58 76 
-0.460909 0.192767 1.0329 42 35 53 
-0.47318 -0.0488743 1.06108 88 96 135 
-0.469204 -0.0394764 1.05917 99 85 118 
-0.471789 -0.155681 1.06947 107 116 155 
-0.472718 -0.239508 1.07759 170 188 234 
-0.443691 0.223166 1.01337 112 103 120 
-0.455585 0.051036 1.04427 68 62 88 
-0.469644 -0.268414 1.0811 61 68 112 
-0.467517 -0.291787 1.08228 104 88 115 
-0.4654 -0.247741 1.07802 118 96 119 
-0.463349 -0.213282 1.07342 101 82 114 
-0.458256 -0.191739 1.06885 71 53 75 
-0.439644 0.166842 1.02574 114 104 129 
-0.437723 0.214209 1.02268 72 63 82 
-0.440642 0.125768 1.03213 126 114 138 
-0.439281 0.0876815 1.03395 89 71 93 
-0.454166 -0.26757 1.07477 127 109 131 
-0.444674 -0.195896 1.06543 92 65 82 
-0.431071 0.0752456 1.03439 75 58 76 
-0.428095 0.123878 1.02801 130 120 145 
-0.433706 -0.0777718 1.04807 84 60 76 
-0.438544 -0.171941 1.06081 81 62 81 
-0.444126 -0.300142 1.07641 82 59 87 
-0.430904 -0.0258378 1.04433 112 99 125 
-0.434032 -0.19894 1.0626 138 116 128 
-0.428043 -0.106487 1.04892 126 113 133 
-0.434946 -0.270901 1.06839 123 109 134 
-0.430956 -0.239504 1.06403 70 53 71 
-0.415417 0.0729682 1.02937 61 52 69 
-0.42582 -0.189788 1.05883 83 61 73 
-0.429052 -0.293495 1.06882 59 48 65 
-0.413223 -0.102693 1.04313 134 116 138 
-0.400134 0.17177 1.0129 110 101 122 
-0.417791 -0.241987 1.05955 139 115 129 
-0.412901 -0.171989 1.05099 96 65 81 
-0.415185 -0.293981 1.06208 69 55 68 
-0.351191 0.232983 0.904121 20 24 23 
-0.393687 0.122276 1.01458 120 107 127 
-0.403572 -0.107944 1.04026 42 37 57 
-0.396404 -0.0233412 1.03119 118 104 130 
-0.385274 0.215442 1.00307 57 55 69 
-0.393915 0.0137814 1.02707 70 55 78 
-0.400824 -0.170659 1.04673 63 49 62 
-0.400656 -0.197559 1.04855 80 59 74 
-0.387087 0.0937146 1.01475 21 28 47 
-0.399154 -0.210111 1.05019 77 54 72 
-0.389711 0.0484622 1.02603 76 62 87 
-0.397265 -0.161156 1.04641 52 38 53 
-0.387647 -0.0217085 1.02497 65 50 71 
-0.392021 -0.143423 1.03954 133 125 140 
-0.38141 0.102699 1.01155 154 171 240 
-0.386057 -0.00933616 1.02497 63 50 68 
-0.3772 0.166349 1.00368 116 104 126 
-0.392238 -0.187051 1.04556 133 114 134 
-0.392638 -0.242937 1.0496 119 102 118 
-0.377842 0.012636 1.02006 60 53 69 
-0.37288 0.123927 1.00749 45 37 52 
-0.38105 -0.135618 1.03523 126 108 132 
-0.358491 0.238536 0.974899 35 26 31 
-0.382824 -0.197211 1.04313 53 37 47 
-0.381866 -0.186594 1.0408 137 123 136 
-0.37244 -0.00898418 1.02208 72 53 73 
-0.362167 0.121517 1.0031 54 46 57 
-0.376254 -0.215228 1.043 70 47 57 
-0.363995 -0.0496666 1.01898 125 106 126 
-0.365873 -0.137969 1.02755 76 58 82 
-0.372445 -0.267673 1.04646 137 118 138 
-0.359552 0.0123677 1.01407 61 47 64 
-0.365273 -0.164777 1.03372 69 47 59 
-0.353509 0.0237444 1.00969 115 102 120 
-0.349921 0.143055 1.00031 40 36 51 
-0.349979 0.0404512 1.00809 77 62 83 
-0.346003 0.12229 0.998858 46 40 54 
-0.349974 -0.104908 1.01906 121 108 128 
-0.352377 -0.212273 1.03289 79 55 68 
-0.340221 0.0885346 1.00065 46 35 51 
-0.345821 -0.0804696 1.01782 129 107 130 
-0.346477 -0.139029 1.02523 82 61 80 
-0.227965 0.193321 0.672795 64 34 44 
-0.334671 0.140954 0.992983 51 37 52 
-0.33476 0.0467017 1.00238 51 44 52 
-0.339194 -0.110836 1.01891 61 48 65 
-0.342699 -0.230719 1.03163 56 42 59 
-0.344172 -0.275387 1.03934 61 40 47 
-0.333892 -0.0551354 1.00978 62 46 72 
-0.340175 -0.24403 1.03144 76 55 64 
-0.33061 -0.0193893 1.00556 122 101 120 
-0.331178 -0.0846175 1.01566 54 38 49 
-0.334999 -0.270148 1.03293 133 108 127 
-0.322564 -0.0556645 1.00837 58 43 64 
-0.321645 -0.02523 1.00635 65 51 68 
-0.326504 -0.176035 1.02237 52 39 57 
-0.286378 0.117789 0.895991 48 39 42 
-0.32357 -0.109172 1.01368 69 54 75 
-0.316613 -0.0121723 1.00122 67 50 60 
-0.214955 0.164635 0.679328 85 46 64 
-0.214509 0.174709 0.678872 73 42 60 
-0.320808 -0.20823 1.02112 98 85 95 
-0.323068 -0.24598 1.02903 68 40 54 
-0.319507 -0.183142 1.01779 66 47 66 
-0.309054 0.0852623 0.985718 91 71 83 
-0.317681 -0.17195 1.01713 124 104 116 
-0.319927 -0.273656 1.02765 52 41 49 
-0.310305 0.0238535 0.997166 35 24 32 
-0.310546 -0.0022068 0.998073 63 44 63 
-0.310274 -0.0265542 1.00168 48 38 49 
-0.276321 0.117643 0.891693 66 35 50 
-0.309145 -0.0523665 1.00223 118 99 119 
-0.206212 0.187129 0.671164 100 73 88 
-0.280035 0.087117 0.917819 153 99 115 
-0.204373 0.163532 0.676124 65 39 52 
-0.273267 0.0920384 0.908511 74 53 52 
-0.306206 -0.273383 1.02402 67 44 50 
-0.302698 -0.235504 1.01646 67 48 70 
-0.267649 -0.016563 0.912287 96 43 53 
-0.28874 -0.174587 1.00623 74 53 70 
-0.193141 0.138624 0.672197 65 39 52 
-0.189087 0.192403 0.658739 71 39 50 
-0.290272 -0.273949 1.01702 58 38 49 
-0.284728 -0.112556 1.00022 58 41 59 
-0.186639 0.212547 0.653443 127 134 152 
-0.289018 -0.292155 1.01788 134 117 135 
-0.257669 0.0643742 0.92229 108 74 88 
-0.275734 -0.0854323 0.993046 73 50 60 
-0.257251 0.0192632 0.929226 47 21 20 
-0.274911 -0.11281 0.994764 51 39 53 
-0.275514 -0.173422 1.00065 125 107 129 
-0.246587 0.0911296 0.895518 70 49 48 
-0.241404 0.114531 0.878291 62 35 44 
-0.183 0.174 0.666962 90 47 64 
-0.245481 0.0808838 0.905928 145 93 106 
-0.237274 0.101894 0.878306 125 81 98 
-0.24751 0.0686365 0.916808 142 95 113 
-0.180355 0.153991 0.667686 69 38 53 
-0.268554 -0.272181 1.00904 76 50 63 
-0.265817 -0.209426 1.0002 132 117 136 
-0.26513 -0.246696 1.00468 78 66 86 
-0.228076 0.116528 0.873433 74 51 57 
-0.17408 0.138512 0.667186 77 37 48 
-0.234309 0.091481 0.90239 61 42 48 
-0.258216 -0.177538 0.995842 58 42 55 
-0.253252 -0.0558596 0.981949 58 44 61 
-0.171281 0.173603 0.662359 80 39 55 
-0.25832 -0.273507 1.00457 81 53 65 
-0.251449 -0.086186 0.985019 58 40 56 
-0.222962 0.0944534 0.874728 128 83 103 
-0.210887 0.136293 0.838876 92 62 74 
-0.217254 0.121853 0.869147 75 43 56 
-0.243922 -0.161652 0.989679 124 106 120 
-0.213667 0.103083 0.872127 53 38 43 
-0.22781 0.03997 0.932097 57 25 36 
-0.160393 0.138202 0.661997 66 32 46 
-0.155666 0.192176 0.645806 67 45 57 
-0.238022 -0.250787 0.994051 90 55 75 
-0.203382 0.134882 0.851353 84 52 57 
-0.23716 -0.274937 0.997102 107 86 101 
-0.232011 -0.0843388 0.978264 61 39 51 
-0.202916 0.100839 0.865234 53 26 31 
-0.152782 0.159984 0.655607 71 43 58 
-0.211718 0.0616564 0.924816 62 29 40 
-0.226918 -0.276578 0.994502 46 30 40 
-0.224402 -0.188729 0.984374 73 55 81 
-0.223947 -0.178736 0.983889 63 50 78 
-0.224558 -0.209029 0.987202 127 118 139 
-0.211151 0.0280474 0.929661 49 24 30 
-0.147135 0.1119 0.650657 101 54 64 
-0.221877 -0.246898 0.989114 89 65 81 
-0.207266 0.0494613 0.927384 49 21 20 
-0.204871 0.0387105 0.919244 83 33 44 
-0.216764 -0.258508 0.986929 68 51 69 
-0.211814 -0.111854 0.972906 54 40 55 
-0.196434 -0.147247 0.902631 54 22 23 
-0.139661 0.191552 0.639995 73 43 53 
-0.198812 0.027433 0.9218 51 28 34 
-0.210931 -0.248652 0.98463 76 56 68 
-0.139709 0.163023 0.651602 98 51 71 
-0.180055 0.133623 0.842915 74 53 60 
-0.139725 0.150933 0.652851 83 38 58 
-0.192717 -0.136955 0.909719 99 56 63 
-0.20514 -0.215475 0.97961 74 51 61 
-0.176261 0.12084 0.855496 102 51 70 
-0.129989 0.191253 0.636609 82 46 58 
-0.18414 -0.0822496 0.909399 97 71 82 
-0.186621 -0.00956251 0.924565 50 23 32 
-0.183555 -0.123669 0.91245 51 26 30 
-0.19052 -0.17791 0.970708 67 42 63 
-0.190693 -0.277815 0.98047 78 54 76 
-0.175959 0.0498945 0.913435 64 29 36 
-0.174671 0.00588109 0.912967 93 44 50 
-0.175916 -0.0250043 0.919895 56 30 39 
-0.173632 -0.040818 0.911778 55 21 22 
-0.122894 0.161594 0.645849 79 48 64 
-0.172595 0.0329005 0.915343 58 22 22 
-0.1713 -0.0135207 0.918468 82 40 42 
-0.157741 0.089563 0.86344 99 57 69 
-0.176769 -0.277394 0.9742 76 54 75 
-0.166342 -0.09365 0.918216 57 29 41 
-0.165135 -0.0760597 0.917522 67 26 40 
-0.152374 0.111866 0.847778 80 38 50 
-0.161806 0.0460287 0.911033 51 24 33 
-0.146848 0.136727 0.829839 86 58 73 
-0.160768 0.0298976 0.909452 43 23 25 
-0.160409 -0.0103938 0.91208 56 27 32 
-0.165403 -0.277732 0.971317 134 122 142 
-0.142586 0.0991062 0.843402 70 40 52 
-0.150695 -0.102834 0.918296 45 22 30 
-0.142508 -0.159842 0.877366 76 30 40 
-0.140902 0.0744365 0.872561 153 100 118 
-0.144906 -0.0777425 0.903268 59 28 26 
-0.137784 -0.224783 0.862462 139 93 104 
-0.138383 -0.176398 0.88044 114 66 80 
-0.140205 -0.255363 0.89382 143 90 106 
-0.135682 -0.213384 0.871887 42 22 24 
-0.12939 0.0987462 0.839662 73 39 55 
-0.134516 -0.137536 0.876359 128 78 90 
-0.0976923 0.152029 0.637452 81 44 62 
-0.0971828 0.168911 0.635866 87 43 56 
-0.132953 0.0200956 0.87962 62 30 41 
-0.124261 0.126368 0.822904 142 109 130 
-0.133153 -0.0317298 0.88406 51 20 26 
-0.131395 0.0455512 0.876381 63 22 30 
-0.131271 -0.185474 0.879162 121 67 83 
-0.092153 0.209318 0.620631 63 49 66 
-0.12845 -0.159427 0.871006 136 84 97 
-0.127496 -0.230771 0.871143 53 18 25 
-0.124296 -0.237629 0.861284 119 70 76 
-0.125443 0.0313644 0.875777 65 37 51 
-0.120843 -0.144415 0.868263 133 86 104 
-0.121323 -0.0373794 0.877338 105 80 101 
-0.115019 0.118646 0.832421 88 50 65 
-0.120618 0.0437073 0.873541 98 47 56 
-0.118228 -0.129919 0.864121 143 90 106 
-0.115667 0.0603342 0.868968 56 29 36 
-0.115692 0.0083626 0.873521 53 27 36 
-0.11447 -0.213925 0.864725 43 22 21 
-0.115246 -0.00716686 0.875072 54 21 28 
-0.114812 -0.0201887 0.878088 64 37 46 
-0.113963 -0.185475 0.874109 108 75 96 
-0.112834 -0.23301 0.868868 61 28 37 
-0.110077 0.0757996 0.855433 93 41 53 
-0.111087 -0.154674 0.863777 57 25 30 
-0.111118 -0.133328 0.87187 63 27 31 
-0.108647 -0.123211 0.86843 128 80 92 
-0.108635 0.0447492 0.868709 57 21 33 
-0.107181 0.0193979 0.869415 57 27 35 
-0.106971 -0.0313331 0.873477 55 29 40 
-0.106645 -0.0584676 0.873857 50 21 23 
-0.102649 -0.0678689 0.861789 53 23 25 
-0.0999978 -0.231864 0.867321 137 85 98 
-0.0989539 0.047109 0.865229 40 21 27 
-0.0940515 0.113073 0.826114 83 44 63 
-0.0992641 -0.135824 0.879916 63 31 42 
-0.097631 -0.155798 0.866054 51 25 28 
-0.0985136 -0.102237 0.876383 63 36 45 
-0.0699103 0.158007 0.625553 78 45 62 
-0.0945829 -0.214259 0.856547 43 22 21 
-0.0963595 -0.0829553 0.874528 53 20 27 
-0.0877373 0.13086 0.809048 66 49 55 
-0.0915144 -0.0259095 0.866402 85 43 45 
-0.0901069 -0.23341 0.862645 81 30 45 
-0.0904811 -0.0946156 0.872605 66 30 40 
-0.0624348 0.189525 0.612224 76 44 49 
-0.0875067 -0.01637 0.864904 137 114 98 
-0.0868907 -0.0369131 0.866761 141 115 100 
-0.0833986 0.0408715 0.841949 27 18 19 
-0.0842175 -0.131113 0.873598 61 30 38 
-0.0598856 0.151552 0.623552 91 45 58 
-0.0828744 -0.059656 0.869812 40 16 16 
-0.0772012 0.0297014 0.824861 20 15 12 
-0.0799975 -0.231512 0.855659 139 86 102 
-0.0785929 -0.0251665 0.8489 155 132 116 
-0.0570682 0.171338 0.620387 80 46 63 
-0.078465 -0.187155 0.861121 132 79 95 
-0.079183 -0.0995023 0.8698 114 62 74 
-0.0752037 -0.214462 0.847519 44 22 25 
-0.0713245 0.0996081 0.818377 79 42 59 
-0.053113 0.184939 0.609405 159 115 140 
-0.053613 0.122417 0.616125 102 61 67 
-0.071645 0.0202376 0.828856 107 101 105 
-0.072009 -0.013485 0.845985 195 185 160 
-0.0680848 0.130273 0.802698 65 49 59 
-0.0717601 -0.0631203 0.862348 162 150 128 
-0.0707745 -0.0354899 0.853671 198 191 172 
-0.071959 -0.119393 0.868333 64 37 46 
-0.0663261 0.0351917 0.824044 143 134 129 
-0.0678767 -0.234918 0.855074 76 35 43 
-0.0665401 0.051049 0.839357 60 28 29 
-0.0655484 -0.128663 0.866936 64 29 27 
-0.0615859 0.0272523 0.828255 224 221 206 
-0.0617835 -0.0103789 0.844143 96 77 70 
-0.0623279 0.00511164 0.856275 119 99 74 
-0.0626159 -0.0335545 0.862211 137 113 87 
-0.0586226 0.11087 0.811895 93 61 76 
-0.0908746 0.154559 1.27937 77 49 64 
-0.0561826 0.0422861 0.826012 56 38 36 
-0.0578599 -0.119251 0.863558 67 30 38 
-0.0315048 0.0537334 0.464904 70 36 50 
-0.053763 0.0972102 0.812903 142 94 116 
-0.0407693 0.181479 0.61395 176 128 152 
-0.0563261 -0.0562303 0.860605 41 20 17 
-0.0540121 -0.0180285 0.854676 199 188 160 
-0.0533348 0.00264092 0.860794 111 96 77 
-0.0524876 -0.233937 0.847501 80 37 54 
-0.0509819 0.0323698 0.836342 105 87 85 
-0.0495501 -0.190722 0.849399 71 39 52 
-0.047741 0.0473088 0.830953 26 15 19 
-0.0354315 0.122601 0.621726 127 79 95 
-0.0482795 -0.12812 0.860547 61 31 39 
-0.0351946 0.167641 0.621823 116 82 107 
-0.0443164 0.129579 0.793303 52 41 45 
-0.0471821 -0.103905 0.858882 54 23 29 
-0.0304969 0.146716 0.627972 86 49 66 
-0.0394792 0.0349925 0.829192 177 162 155 
-0.0377107 -0.234469 0.841351 63 27 41 
-0.0379696 -0.0892547 0.855306 48 20 19 
-0.0281174 0.15834 0.627366 81 50 65 
-0.036785 -0.161105 0.835198 38 24 23 
-0.0339287 0.117421 0.804051 81 48 59 
-0.034616 -0.188154 0.844375 128 75 91 
-0.0304405 0.04672 0.838192 56 24 27 
-0.0306936 -0.103455 0.851145 48 28 30 
-0.0299753 -0.152582 0.833516 102 68 82 
-0.0283777 0.0751921 0.821621 163 110 128 
-0.0215027 0.190375 0.617945 98 54 67 
-0.0262531 0.128987 0.785858 64 49 54 
-0.0243927 0.0163562 0.839221 63 23 32 
-0.0243332 -0.0342986 0.843582 59 22 30 
-0.0172474 0.157818 0.632481 100 49 66 
-0.0213907 0.0962169 0.799549 50 34 45 
-0.0126507 0.0546922 0.453851 50 34 45 
-0.0212174 -0.1439 0.834821 73 30 37 
-0.0146577 0.173707 0.63216 82 53 71 
-0.0146368 0.137059 0.635937 92 53 72 
-0.0182817 -0.0408933 0.837743 56 24 27 
-0.0176181 -0.078904 0.845581 122 69 77 
-0.0165538 0.0283099 0.834382 68 38 48 
-0.0164321 -0.0222289 0.838727 67 39 51 
-0.0160411 0.04205 0.833997 58 23 30 
-0.0160637 -0.0095777 0.838057 53 21 32 
-0.0153618 0.0568156 0.831928 62 32 42 
-0.0148447 -0.160743 0.826124 135 85 97 
-0.0106165 0.0981454 0.796222 64 36 50 
-0.00841454 0.159026 0.636976 113 62 81 
-0.0105279 -0.14443 0.831831 74 32 34 
-0.00978496 -0.188272 0.833491 133 82 99 
-0.0092374 -0.131834 0.822149 151 97 113 
-0.00615229 0.19114 0.625463 88 55 66 
-0.00643239 -0.0409933 0.834426 57 22 28 
-0.00623065 0.0175915 0.831925 75 45 57 
-0.00623187 -0.00979006 0.834588 59 28 36 
-0.00616755 0.0416525 0.830173 51 20 26 
-0.006114 0.0281058 0.832585 68 30 41 
-0.00607315 -0.0228098 0.836399 66 33 44 
-0.00584997 -0.260854 0.851783 150 95 116 
-0.00236242 -0.160677 0.822035 136 88 104 
0.0017782 0.107698 0.790414 77 43 57 
0.00160506 0.162503 0.640958 78 40 61 
0.00259785 -0.0676152 0.821633 109 71 86 
0.0049673 -0.182382 0.838873 51 22 24 
0.00542809 0.0700296 0.813681 160 103 118 
0.00628774 0.0949338 0.790619 138 91 107 
0.00723636 -0.257963 0.839643 148 101 111 
0.00814892 -0.223094 0.815026 111 64 70 
0.00790843 0.18586 0.63795 125 87 108 
0.0115426 0.107957 0.786345 134 88 101 
0.0120226 0.088167 0.801108 153 109 126 
0.00998869 0.154861 0.64635 83 50 67 
0.0181362 -0.216045 0.803025 100 55 62 
0.0152889 0.192319 0.63517 94 53 67 
0.0209473 0.0858762 0.81741 69 48 57 
0.0224194 -0.221133 0.820589 103 58 65 
0.0231485 0.000744503 0.844415 62 27 34 
0.0215386 0.0930347 0.785327 56 43 50 
0.0235516 -0.0308596 0.84601 63 38 44 
0.0236115 0.0244411 0.841873 57 24 31 
0.0240137 -0.119617 0.853648 59 28 34 
0.0254044 -0.164684 0.837324 39 18 23 
0.0243426 0.115067 0.780858 70 40 48 
0.026419 0.049839 0.833871 63 33 43 
0.0278713 -0.08331 0.850099 82 43 44 
0.0303125 0.0959959 0.780826 61 44 52 
0.0357582 -0.109567 0.848212 57 30 37 
0.0357807 -0.0754519 0.845222 54 25 30 
0.02884 0.192842 0.641322 91 53 64 
0.0449015 -0.279627 0.893923 90 69 88 
0.0423494 -0.0164778 0.838548 57 30 39 
0.0435934 0.00335809 0.832333 97 52 59 
0.0437647 0.0239129 0.83161 44 18 19 
0.0472671 -0.265383 0.890159 135 114 133 
0.0441971 0.0399776 0.830199 61 30 36 
0.0418358 0.0971125 0.776326 58 39 45 
0.0459705 -0.0698944 0.841378 65 30 36 
0.0457336 0.0125203 0.820075 145 99 110 
0.0480386 -0.0317749 0.83727 62 32 42 
0.0518562 -0.0473266 0.834384 44 23 30 
0.0523592 -0.0197433 0.834884 82 36 38 
0.0530599 -0.129022 0.825755 61 29 30 
0.0534374 0.00219257 0.829828 148 94 110 
0.0526086 0.0944063 0.775296 78 52 61 
0.0586484 -0.0320896 0.834125 57 28 33 
0.0590404 0.0428322 0.827945 59 26 33 
0.0599303 -0.0872659 0.820211 48 24 24 
0.0592687 -0.156899 0.805176 136 86 98 
0.0654668 -0.214248 0.872827 43 21 33 
0.0628371 0.0239034 0.825377 50 21 25 
0.0634276 -0.144736 0.815193 94 51 60 
0.066039 0.0101434 0.825024 82 45 52 
0.0617234 0.106234 0.767965 85 41 54 
0.0693236 -0.0170492 0.826818 56 33 43 
0.0658973 0.0905196 0.768878 69 35 51 
0.076491 -0.26567 0.878963 91 63 78 
0.0763271 -0.201525 0.87337 135 117 139 
0.0767866 0.0232695 0.822621 58 26 31 
0.0689498 0.211748 0.738472 48 43 50 
0.0828606 -0.223489 0.872895 91 68 84 
0.0724207 0.19812 0.743754 145 102 122 
0.08605 -0.204462 0.870615 98 65 82 
0.074134 0.12738 0.749051 120 68 80 
0.0759523 0.106223 0.762096 59 37 40 
0.0818144 -0.0739543 0.812463 57 31 40 
0.0771833 0.0847013 0.762726 153 118 138 
0.0831148 0.0530566 0.817149 61 31 41 
0.0771827 0.162193 0.753792 50 27 33 
0.0900002 -0.2638 0.87468 82 60 81 
0.0860601 0.0402775 0.818168 62 32 34 
0.0786121 0.215091 0.739451 46 39 46 
0.07993 0.135836 0.750286 94 58 60 
0.0934025 -0.223405 0.868894 133 116 135 
0.0834623 0.177866 0.750263 116 64 77 
0.096822 -0.208938 0.865058 149 125 141 
0.0977266 -0.27395 0.87142 106 73 90 
0.0979829 -0.253347 0.870668 95 67 90 
0.0879203 0.108037 0.758673 74 38 50 
0.0875302 0.166655 0.750015 120 67 83 
0.0953683 0.0526485 0.813361 57 26 34 
0.103233 -0.24234 0.867125 91 59 80 
0.107322 -0.251841 0.86741 73 55 77 
0.0922795 0.131222 0.74568 59 31 30 
0.0961883 0.0815616 0.771402 79 52 61 
0.108225 -0.227377 0.86452 74 60 75 
0.108533 -0.156804 0.85922 96 72 88 
0.111932 -0.208262 0.86136 98 67 82 
0.111968 -0.143139 0.853886 110 74 88 
0.0996382 0.0926123 0.754207 46 31 36 
0.0986235 0.162961 0.746377 78 36 50 
0.113734 -0.188231 0.858211 129 117 137 
0.116199 -0.25553 0.864287 92 72 100 
0.114588 -0.123427 0.850826 85 59 72 
0.114278 -0.0934755 0.848286 99 68 83 
0.100152 0.18417 0.74359 62 42 44 
0.100806 0.147701 0.746547 56 33 39 
0.116695 -0.243615 0.861953 99 69 93 
0.101522 0.172718 0.744248 85 38 54 
0.117626 -0.223673 0.860794 96 64 79 
0.117347 -0.158347 0.854386 96 64 75 
0.110964 0.0306907 0.807642 51 24 31 
0.106011 0.0827331 0.769329 84 55 59 
0.116708 -0.0640872 0.844679 70 49 68 
0.119402 -0.233997 0.85968 94 66 88 
0.109448 0.0719381 0.776724 158 104 120 
0.114678 0.0629745 0.786601 95 45 54 
0.125681 -0.209305 0.855974 95 74 83 
0.110374 0.0948771 0.751187 62 32 42 
0.125328 -0.184071 0.852693 59 44 65 
0.125093 -0.122876 0.849764 85 58 75 
0.125266 -0.146639 0.850152 101 76 97 
0.110234 0.116873 0.747509 143 88 109 
0.109817 0.162934 0.742043 75 29 40 
0.12938 -0.255824 0.859961 75 54 73 
0.13053 -0.23361 0.855728 91 62 80 
0.112993 0.195115 0.734725 129 85 108 
0.121368 0.0444829 0.787821 76 52 68 
0.134102 -0.222702 0.854498 81 61 86 
0.132326 -0.0848893 0.840872 146 125 144 
0.11685 0.172454 0.739065 68 34 48 
0.134964 -0.15539 0.84762 85 57 71 
0.136005 -0.205527 0.851031 144 123 142 
0.124524 -0.0113206 0.776086 109 58 65 
0.127134 -0.00858541 0.791531 41 20 17 
0.123948 -0.0260192 0.769243 135 82 98 
0.139061 -0.17444 0.848146 130 108 129 
0.140284 -0.243834 0.853817 100 73 92 
0.123082 0.104552 0.745216 80 42 55 
0.130322 0.00828483 0.785152 51 21 21 
0.121398 0.215015 0.72337 56 43 50 
0.140653 -0.066427 0.835803 102 60 74 
0.141813 -0.120699 0.842725 133 117 128 
0.132179 0.0558007 0.778428 69 35 36 
0.145652 -0.254558 0.853999 77 58 78 
0.127649 0.0889744 0.746326 58 30 42 
0.14373 -0.109961 0.840034 88 70 92 
0.146943 -0.20455 0.848195 138 117 136 
0.147852 -0.226377 0.851124 63 41 64 
0.128184 0.19487 0.72964 122 77 98 
0.150251 -0.149193 0.840333 94 63 79 
0.150982 -0.163346 0.841894 101 60 76 
0.132929 0.139 0.735517 38 24 21 
0.134579 0.104242 0.741346 64 37 44 
0.132976 0.176075 0.731499 52 32 41 
0.152711 -0.12187 0.837091 130 122 143 
0.154202 -0.180089 0.842537 83 61 73 
0.15341 -0.0668389 0.831707 75 49 60 
0.137585 0.0892755 0.741427 128 85 95 
0.160497 -0.208313 0.842177 75 50 69 
0.162021 -0.145712 0.835874 90 66 88 
0.161351 0.0642077 0.815309 77 48 66 
0.166392 -0.190986 0.839381 91 67 83 
0.164753 -0.0659535 0.829776 139 120 142 
0.165986 -0.0938392 0.829865 68 47 52 
0.164901 0.0478884 0.816471 71 51 63 
0.171173 -0.268393 0.845597 95 67 90 
0.17291 -0.210222 0.838019 84 60 74 
0.175096 -0.225794 0.840225 80 58 70 
0.170694 0.027803 0.817553 76 50 59 
0.179563 -0.247805 0.838829 101 72 92 
0.17756 -0.0652032 0.822566 139 117 140 
0.175996 0.0488994 0.813901 75 48 67 
0.179751 -0.0377606 0.822232 57 44 53 
0.178929 -0.007916 0.816609 117 98 128 
0.182441 -0.156095 0.831736 127 113 136 
0.184623 -0.225609 0.83699 88 61 76 
0.184627 -0.210412 0.834641 85 61 75 
0.186184 -0.26412 0.837776 95 64 79 
0.185638 -0.123975 0.826304 120 111 132 
0.180915 0.152711 0.802994 110 98 118 
0.183558 0.00061591 0.814474 131 116 137 
0.180636 0.193249 0.796163 104 103 119 
0.179668 0.182999 0.791915 111 95 121 
0.185493 -0.0173761 0.814445 90 63 80 
0.183841 0.101408 0.802771 72 44 56 
0.191639 -0.239913 0.835296 71 52 74 
0.188637 -0.0341378 0.816831 144 125 144 
0.189738 -0.066819 0.819688 54 41 51 
0.194018 -0.251984 0.833712 80 59 74 
0.186123 0.173684 0.796109 102 85 104 
0.187739 0.111506 0.801738 120 97 115 
0.189845 0.0502258 0.808945 127 112 133 
0.195406 -0.227416 0.832625 74 54 66 
0.19075 0.0254407 0.809646 97 67 77 
0.189443 0.0859572 0.803755 125 116 135 
0.196813 -0.181736 0.826846 86 59 74 
0.193358 0.00132372 0.810927 134 116 140 
0.19042 0.152267 0.79771 121 116 136 
0.196548 -0.123166 0.822902 126 119 137 
0.198998 -0.211544 0.828111 75 57 71 
0.197099 -0.106743 0.81994 79 60 79 
0.192438 0.126701 0.798737 59 47 67 
0.200554 -0.244111 0.831014 103 74 96 
0.200673 -0.193302 0.826535 89 67 80 
0.195224 0.0718116 0.803717 86 63 81 
0.201237 -0.157071 0.823108 86 59 78 
0.201397 -0.167524 0.82308 107 73 87 
0.195893 0.105249 0.800122 65 50 69 
0.194153 0.194985 0.790316 59 58 76 
0.195495 0.160906 0.794841 124 119 142 
0.199106 0.0206724 0.807026 77 63 80 
0.205288 -0.258164 0.830766 141 114 129 
0.203099 -0.0388186 0.811559 69 43 54 
0.147385 0.211675 0.588775 109 125 141 
0.206987 -0.236711 0.827141 92 63 85 
0.202661 -0.00108873 0.807147 122 104 126 
0.205989 -0.0976865 0.817575 60 44 57 
0.202797 0.046578 0.803375 78 62 75 
0.201379 0.152055 0.795174 129 126 147 
0.209217 -0.183433 0.821538 80 59 66 
0.203089 0.112741 0.796113 143 124 144 
0.208773 -0.123323 0.81724 133 124 145 
0.211311 -0.213096 0.82476 64 46 58 
0.205213 0.102301 0.797784 82 64 86 
0.205912 0.0787232 0.798187 143 121 133 
0.20391 0.189781 0.790296 108 102 136 
0.211775 -0.135057 0.817873 60 43 59 
0.214559 -0.263784 0.828649 71 54 72 
0.209023 -0.0209001 0.80625 67 47 59 
0.213251 -0.201746 0.822148 91 62 80 
0.210312 -0.0559848 0.809704 83 58 77 
0.211456 -0.0690564 0.812843 66 45 54 
0.207497 0.126979 0.79272 113 103 127 
0.210034 0.0250321 0.801638 83 63 75 
0.209879 0.0888853 0.796335 74 59 80 
0.213552 -0.010162 0.80496 64 49 72 
0.218392 -0.236134 0.822784 138 120 136 
0.212131 0.062585 0.797492 128 110 126 
0.209747 0.167376 0.787335 74 55 75 
0.218232 -0.12378 0.813404 131 112 132 
0.220119 -0.19221 0.820046 71 58 68 
0.217523 -0.0405742 0.807806 53 36 42 
0.212582 0.183568 0.787956 121 118 139 
0.215744 0.046508 0.799233 123 115 136 
0.213581 0.149985 0.789597 75 60 83 
0.217104 0.0980969 0.794522 64 45 51 
0.224689 -0.247739 0.821481 83 60 86 
0.226085 -0.181183 0.816657 137 124 142 
0.223927 -0.0759534 0.805813 121 96 117 
0.222296 0.0279657 0.796983 130 124 138 
0.222723 0.0399686 0.79632 58 45 62 
0.228919 -0.220203 0.818209 81 67 84 
0.221135 0.132861 0.788229 129 125 148 
0.224768 -0.00555892 0.799951 81 63 79 
0.219556 0.193598 0.780834 64 58 68 
0.221068 0.177702 0.783852 117 98 118 
0.223689 0.0572966 0.792192 90 67 75 
0.229738 -0.162785 0.813491 78 58 70 
0.230194 -0.20009 0.81403 134 120 146 
0.229414 -0.0970595 0.808477 63 42 47 
0.224061 0.151183 0.786985 76 63 89 
0.230752 -0.131797 0.808821 135 120 139 
0.233911 -0.234024 0.817768 86 63 83 
0.227213 0.0985607 0.787426 73 48 51 
0.231184 0.0468797 0.793754 75 52 68 
0.231908 0.0271887 0.793076 141 123 139 
0.235 -0.0390743 0.799591 60 41 45 
0.230607 0.143862 0.782575 130 117 135 
0.240003 -0.204956 0.812792 79 54 73 
0.231825 0.13013 0.782712 145 131 154 
0.241213 -0.159387 0.810355 134 120 137 
0.237453 -0.00656625 0.797511 76 59 75 
0.242528 -0.179597 0.808973 136 122 147 
0.233833 0.174024 0.778163 127 108 127 
0.235058 0.153684 0.780559 134 125 154 
0.244222 -0.214259 0.811136 140 114 125 
0.242436 -0.0982991 0.803033 67 46 61 
0.234932 0.183775 0.7764 137 114 134 
0.237147 0.0769625 0.78248 22 62 175 
0.244123 -0.0669675 0.7981 129 110 130 
0.247489 -0.193739 0.808706 69 52 68 
0.240809 0.0598556 0.786248 83 61 82 
0.248763 -0.224503 0.811782 130 109 128 
0.239664 0.0942838 0.780851 82 121 212 
0.247085 -0.127754 0.802128 127 107 119 
0.248883 -0.16381 0.805367 66 55 72 
0.248445 -0.0485694 0.796409 67 58 75 
0.247248 -0.00118219 0.790608 68 45 63 
0.244304 0.141359 0.777041 102 79 99 
0.249492 -0.0390351 0.792846 60 47 57 
0.245505 0.130164 0.778798 130 114 127 
0.245113 0.188175 0.772557 120 109 139 
0.248479 0.102236 0.780828 73 55 71 
0.257511 -0.213496 0.807416 78 52 63 
0.249656 0.0823483 0.781211 109 81 95 
0.253909 -0.0713209 0.794572 96 67 72 
0.258733 -0.188264 0.804639 126 121 144 
0.257739 -0.159743 0.799817 72 60 74 
0.261624 -0.258778 0.810589 82 63 85 
0.260453 -0.232567 0.806007 95 67 82 
0.25059 0.154166 0.773235 130 113 132 
0.255923 -0.00803415 0.789075 140 116 130 
0.258247 -0.0575276 0.791925 77 56 63 
0.259645 -0.0966661 0.795006 71 48 68 
0.255804 0.0686283 0.778566 89 63 76 
0.258938 0.0267032 0.784642 125 112 129 
0.262951 -0.12789 0.796716 95 65 77 
0.266448 -0.221958 0.804076 75 62 88 
0.255285 0.181785 0.770164 81 64 83 
0.258934 0.108099 0.775385 127 103 117 
0.259167 0.127231 0.774137 79 61 75 
0.261755 0.0430432 0.781035 139 116 132 
0.26474 -0.0422642 0.788957 60 44 55 
0.26673 -0.0709522 0.791876 65 42 58 
0.269752 -0.159422 0.797159 64 46 62 
0.265841 -0.00267019 0.783965 114 93 110 
0.261437 0.14909 0.770903 68 54 69 
0.26418 0.0745184 0.777318 120 101 120 
0.256028 0.205573 0.752249 66 57 76 
0.268056 0.0327242 0.778464 103 80 100 
0.278179 -0.236764 0.799958 143 122 137 
0.269383 0.102122 0.774224 61 41 53 
0.266319 0.188169 0.764845 147 124 140 
0.266601 0.159182 0.765485 134 116 132 
0.279657 -0.260428 0.802475 52 35 51 
0.272451 0.0221251 0.777413 119 92 107 
0.278544 -0.130796 0.792351 119 110 127 
0.27332 0.0474147 0.775102 146 122 136 
0.271613 0.12574 0.768928 64 51 61 
0.280433 -0.159993 0.793975 54 42 54 
0.282122 -0.22769 0.798515 58 43 62 
0.272772 0.0819355 0.771638 90 60 70 
0.282848 -0.149795 0.79184 89 65 78 
0.280322 -0.041212 0.78181 68 39 44 
0.279002 0.0363685 0.773963 140 117 135 
0.27577 0.149111 0.764655 83 65 87 
0.283861 -0.0965874 0.7858 76 56 68 
0.279322 0.101863 0.769541 69 49 61 
0.276421 0.177368 0.761414 111 93 117 
0.290385 -0.260712 0.799896 61 43 67 
0.277419 0.165998 0.761832 135 118 134 
0.282738 0.0262852 0.773551 130 113 131 
0.284176 -0.00625025 0.77722 83 62 69 
0.288434 -0.136746 0.787929 87 60 79 
0.281062 0.125848 0.76533 70 57 67 
0.280901 0.186532 0.759479 127 105 118 
0.294505 -0.228334 0.795499 41 29 49 
0.292242 -0.071337 0.780762 73 50 58 
0.288554 0.07437 0.769656 125 110 129 
0.28623 0.145683 0.761574 126 104 117 
0.298613 -0.248696 0.793533 137 114 130 
0.296648 -0.158409 0.785953 139 121 143 
0.289123 0.102311 0.765773 85 61 83 
0.298776 -0.135314 0.783304 82 58 82 
0.295835 -0.00823074 0.77255 87 66 73 
0.289836 0.177224 0.756405 138 115 131 
0.304397 -0.225926 0.791713 123 111 135 
0.30011 -0.0943973 0.779382 127 104 120 
0.294878 0.067311 0.764647 130 103 118 
0.291512 0.187007 0.755098 74 57 73 
0.299752 -0.0328673 0.773814 129 107 120 
0.295858 0.124112 0.759786 77 55 68 
0.308406 -0.263714 0.791802 116 99 118 
0.306482 -0.179016 0.783655 88 64 80 
0.303672 -0.0545104 0.773574 88 61 78 
0.3048 -0.0687034 0.774898 128 111 130 
0.308317 -0.161204 0.78309 60 44 70 
0.30261 0.0302725 0.767737 116 103 123 
0.304193 -0.0158793 0.770516 124 111 128 
0.300744 0.0796741 0.761717 87 63 77 
0.303969 0.0411481 0.766226 122 100 113 
0.299229 0.176489 0.752649 140 122 138 
0.31331 -0.193477 0.784474 54 36 52 
0.314756 -0.22813 0.785558 64 47 63 
0.308209 0.0192611 0.764631 131 107 121 
0.30416 0.145224 0.754162 127 107 118 
0.318988 -0.261621 0.78863 68 58 83 
0.313635 -0.00707205 0.766982 66 49 59 
0.307192 0.187608 0.749541 141 129 153 
0.311117 0.100007 0.755939 138 112 121 
0.319349 -0.133092 0.775359 94 69 91 
0.312975 0.0647664 0.758579 149 118 134 
0.314158 0.0373623 0.760519 98 74 90 
0.328844 -0.261047 0.784106 74 57 76 
0.32146 0.017953 0.759054 134 111 129 
0.32486 -0.0424788 0.764727 112 99 117 
0.319752 0.124066 0.751159 66 50 63 
0.318795 0.180436 0.745787 45 31 44 
0.32068 0.146023 0.747956 64 52 66 
0.324813 0.0427198 0.756299 149 129 141 
0.328893 -0.0763951 0.765345 138 114 128 
0.330337 -0.00697107 0.760003 77 54 72 
0.316398 0.225771 0.727013 98 81 91 
0.338004 -0.194744 0.774621 73 50 76 
0.317356 0.210762 0.726863 115 106 123 
0.330292 0.0250347 0.756247 131 108 128 
0.328493 0.180741 0.74229 56 39 55 
0.344972 -0.218052 0.77301 92 68 92 
0.339648 -0.0482576 0.759186 136 111 132 
0.331744 0.191078 0.737458 69 64 87 
0.32603 0.217512 0.724514 154 172 244 
0.335192 0.12579 0.744464 136 113 123 
0.339482 0.0169155 0.752706 134 116 132 
0.338128 0.0644048 0.748698 144 118 127 
0.337084 0.137842 0.741564 93 66 71 
0.345787 -0.0206519 0.754583 129 106 124 
0.340081 0.14779 0.739166 63 42 51 
0.33357 0.210113 0.721055 16 23 41 
0.333396 0.221421 0.718406 14 20 34 
0.341797 0.214678 0.715847 156 174 248 
0.346243 0.201183 0.717907 131 117 130 
0.404673 -0.247875 0.829291 138 151 186 
0.403856 -0.146883 0.826423 68 84 120 
0.351651 0.22601 0.711821 85 80 84 
0.398742 0.164045 0.789187 20 34 63 
0.602274 -0.0582992 1.06195 129 122 155 
-0.382495 0.125551 1.00993 66 58 79 
-0.361366 0.0678167 1.00718 56 43 53 
-0.34182 0.166902 0.992085 111 97 112 
-0.338799 0.0355551 1.00248 87 62 81 
-0.329936 0.0923451 0.994884 115 104 121 
-0.324963 0.120688 0.989411 43 31 41 
-0.317017 0.0924567 0.989793 107 92 111 
-0.314031 0.120144 0.985275 42 32 43 
-0.315485 -0.124655 1.00869 130 106 119 
-0.262271 -0.0853771 0.986118 88 57 73 
-0.335141 0.207748 0.615448 124 132 151 
-0.384167 0.215085 0.707326 134 150 163 
-0.540116 0.236267 1.02309 80 83 100 
-0.553802 0.186156 1.05624 36 48 70 
-0.512333 0.237647 0.997893 107 117 119 
-0.551999 0.0558026 1.07118 39 51 77 
-0.542285 0.239548 1.0471 32 31 39 
-0.550075 0.20669 1.06114 17 24 43 
-0.54549 0.195549 1.05895 26 31 51 
-0.548841 0.086968 1.07246 27 35 54 
-0.543507 0.21505 1.06236 70 75 97 
-0.544253 0.13144 1.06997 98 111 146 
-0.54315 0.108897 1.07031 99 110 142 
-0.547002 -0.240551 1.10369 40 50 75 
-0.542519 0.0524645 1.07718 99 115 151 
-0.541883 0.0266105 1.07951 100 114 153 
-0.540329 0.121321 1.0717 23 31 67 
-0.539972 0.203642 1.06845 118 130 170 
-0.540349 -0.10813 1.09117 103 115 153 
-0.53982 -0.209916 1.10103 108 120 160 
-0.537791 -0.0963195 1.09257 128 137 178 
-0.542669 0.118245 1.08791 143 157 202 
-0.534843 -0.335952 1.11148 29 40 96 
-0.49933 0.236447 1.02762 68 62 74 
-0.485142 0.21697 1.04483 148 162 199 
-0.476899 0.0688356 1.05947 102 88 111 
-0.474334 0.00936985 1.06289 121 102 121 
-0.474318 -0.340751 1.08991 176 189 241 
-0.472583 -0.0907772 1.0718 111 93 115 
-0.473809 -0.0677967 1.07484 117 96 115 
-0.474747 -0.025955 1.07442 100 85 118 
-0.473351 -0.20437 1.08595 123 104 126 
-0.473101 -0.328662 1.09548 99 108 149 
-0.471691 -0.358609 1.09816 90 97 139 
-0.461529 0.171227 1.04292 39 34 54 
-0.468351 -0.312274 1.09143 110 95 118 
-0.463282 -0.329843 1.09051 123 99 112 
-0.464639 -0.369323 1.10299 121 93 115 
-0.455923 -0.242056 1.0809 91 72 94 
-0.436406 0.23486 1.01273 47 52 58 
-0.438475 -0.332063 1.08333 131 124 142 
-0.429059 -0.201646 1.0671 133 113 124 
-0.424145 -0.0785487 1.05312 78 60 84 
-0.422668 -0.358745 1.08003 95 66 86 
-0.418065 -0.191194 1.06294 81 59 72 
-0.222226 0.188826 0.681877 105 73 96 
-0.415299 -0.345946 1.07843 94 66 80 
-0.404263 -0.35603 1.07116 93 68 89 
-0.405409 -0.3308 1.07183 78 57 74 
-0.402071 -0.317476 1.06941 98 74 98 
-0.388609 -0.330533 1.06504 100 76 98 
-0.383173 -0.359045 1.06502 86 62 88 
-0.379314 -0.326015 1.05696 125 111 126 
-0.374898 -0.0816734 1.03822 57 38 60 
-0.375445 -0.365401 1.06379 83 64 84 
-0.367335 -0.326814 1.05656 128 110 126 
-0.361135 -0.299573 1.05293 78 64 77 
-0.3585 0.0941574 1.01507 127 115 137 
-0.361026 -0.279329 1.05536 92 80 92 
-0.156162 0.210374 0.614286 50 38 62 
-0.352278 -0.324271 1.05203 76 52 74 
-0.348952 -0.344902 1.05253 83 64 84 
-0.345187 -0.166288 1.03464 80 57 67 
-0.291772 0.104055 0.905334 41 28 37 
-0.335924 -0.345663 1.04813 73 58 77 
-0.329955 -0.381954 1.04822 89 60 82 
-0.325322 0.0227831 1.01125 64 50 65 
-0.323822 -0.301147 1.03866 78 51 68 
-0.320995 0.0464495 1.00328 104 88 99 
-0.318912 -0.344423 1.03984 84 63 82 
-0.313815 -0.356254 1.04037 132 119 139 
-0.306903 -0.324061 1.03367 87 59 74 
-0.304744 -0.213126 1.02466 85 62 82 
-0.304242 -0.344346 1.03702 82 61 78 
-0.148054 0.187201 0.654843 113 75 96 
-0.259978 -0.0223944 0.922352 148 95 113 
-0.295514 -0.243318 1.02317 130 116 131 
-0.290558 -0.330634 1.02942 137 119 131 
-0.29053 -0.344369 1.03191 84 61 81 
-0.289827 -0.36987 1.03348 76 58 74 
-0.25441 0.00174801 0.932383 43 19 19 
-0.28173 -0.165556 1.00972 76 56 68 
-0.281419 -0.139846 1.00853 129 112 130 
-0.00367807 0.0993431 0.371962 85 53 74 
-0.275912 -0.369678 1.02812 79 57 78 
-0.276187 -0.326199 1.0249 79 58 77 
-0.115797 0.211783 0.621206 113 115 136 
-0.265644 -0.123168 1.00008 69 51 65 
-0.243721 0.0808791 0.93064 82 39 49 
-0.261528 -0.361919 1.02171 87 60 79 
-0.259768 -0.325951 1.01781 74 56 68 
-0.257091 -0.162099 0.999601 130 108 129 
-0.25399 -0.212853 1.00358 85 59 72 
-0.249959 -0.332373 1.01425 79 65 78 
-0.244654 -0.353422 1.01401 79 61 75 
-0.238416 -0.342844 1.01261 128 111 130 
-0.223619 -0.319966 1.00355 74 60 83 
-0.219316 -0.279455 0.997631 51 35 46 
-0.0863938 0.185743 0.631912 115 76 97 
-0.165556 -0.216716 0.881312 62 32 34 
-0.204703 -0.346421 0.997718 72 57 78 
-0.163967 -0.227893 0.879432 85 41 56 
-0.204222 -0.298941 0.993913 130 112 134 
-0.196506 -0.33034 0.993851 70 55 74 
-0.194266 -0.307462 0.992628 90 66 80 
-0.16584 -0.180127 0.913426 60 29 35 
-0.311903 0.169603 1.26759 95 48 66 
-0.178856 -0.348999 0.991263 81 66 89 
-0.177866 -0.330333 0.986987 86 70 97 
-0.159876 0.0155465 0.915972 50 23 30 
-0.137175 -0.151001 0.88209 57 25 28 
-0.164578 -0.328888 0.983954 78 63 86 
-0.161764 -0.310374 0.979819 76 55 74 
-0.155926 -0.331493 0.97832 76 55 74 
-0.149899 -0.351869 0.978922 75 59 85 
-0.133035 -0.00575112 0.888076 56 25 31 
-0.122157 -0.280756 0.891842 142 91 110 
-0.0473288 0.202924 0.610093 71 55 68 
-0.114945 -0.287992 0.889447 54 31 39 
-0.140505 -0.350612 0.9748 53 35 49 
-0.136425 -0.336245 0.973407 55 41 67 
-0.11381 -0.11356 0.883384 28 13 16 
-0.11558 0.0316296 0.878926 65 32 39 
-0.105097 -0.162558 0.878373 34 18 18 
-0.108227 -0.0799899 0.88314 122 65 72 
-0.124206 -0.332112 0.968629 67 50 69 
-0.0298902 0.185571 0.625392 124 89 113 
-0.0903439 -0.057838 0.867625 46 20 21 
-0.0764929 -0.257936 0.854457 40 21 23 
-0.105148 -0.332449 0.961328 71 54 72 
-0.0797268 -0.0445847 0.872154 142 127 108 
-0.0909125 -0.333392 0.95653 84 68 94 
-0.079578 -0.331436 0.950473 83 48 68 
-0.0693778 -0.0236308 0.868618 139 117 80 
-0.0690212 -0.331673 0.94663 59 38 57 
-0.0488522 -0.289035 0.872407 71 24 30 
-0.0543408 0.0221934 0.843792 176 164 152 
-0.0588623 0.0121765 0.870418 174 158 133 
-0.0555405 -0.0683209 0.871397 35 16 18 
-0.00554696 0.17057 0.640985 99 61 84 
-0.0525905 -0.00998321 0.855637 174 159 140 
-0.045183 0.110231 0.813026 79 45 61 
-0.0548611 -0.33622 0.929926 173 157 132 
-0.0367586 -0.217288 0.839302 47 22 26 
-0.00189001 0.187014 0.638848 120 85 109 
-0.0408189 -0.268412 0.87145 80 32 46 
-0.0383065 -0.278875 0.875239 144 89 108 
-0.023396 -0.237522 0.839104 48 22 31 
-0.0272597 -0.0759317 0.853328 125 74 83 
-0.0167301 -0.286447 0.850998 66 39 48 
-0.0223444 -0.0674586 0.83621 113 74 93 
-0.0161334 -0.267547 0.860689 153 102 121 
-0.0216033 -0.33184 0.928417 68 44 57 
-0.0157838 0.00554612 0.843129 64 31 40 
-0.00159941 -0.177819 0.836027 67 27 36 
-0.00698273 -0.333044 0.924717 77 57 82 
0.00176627 -0.0817732 0.834789 130 74 87 
0.0060518 -0.158143 0.844507 58 23 30 
0.0768164 0.0538412 0.449811 66 39 56 
0.00416677 -0.311617 0.917546 138 123 144 
0.0136446 -0.0714862 0.826551 70 35 33 
0.0126468 -0.33179 0.916911 132 122 146 
0.0148713 -0.0600666 0.851917 47 19 18 
0.0170947 -0.289281 0.911126 65 39 66 
0.0310734 -0.315978 0.908454 94 71 91 
0.0312379 -0.285717 0.905093 90 60 72 
0.0398298 0.0522303 0.839994 70 33 40 
0.0477282 -0.319943 0.903143 81 63 87 
0.0529238 -0.221806 0.842488 108 70 81 
0.0546182 0.17892 0.739012 88 49 68 
0.057892 -0.282683 0.895168 139 121 143 
0.05951 -0.31129 0.898282 86 62 78 
0.0629953 -0.254808 0.890427 97 68 90 
0.0640889 0.199806 0.743208 152 109 129 
0.0866341 0.210366 0.570624 109 110 131 
0.0677606 -0.235876 0.88481 104 82 103 
0.0709112 -0.288554 0.89169 65 46 65 
0.0714452 -0.308475 0.894435 94 74 102 
0.0671359 0.197921 0.7579 66 49 57 
0.080314 -0.285133 0.888012 130 120 145 
0.0864231 0.0908299 0.766774 66 38 50 
0.0838872 0.203551 0.745302 70 39 47 
0.0913287 -0.284385 0.88182 93 79 104 
0.0955176 0.215323 0.638501 128 133 153 
0.098324 -0.314944 0.88302 74 52 65 
0.0891508 0.19576 0.749699 154 107 127 
0.108643 -0.287488 0.876443 96 65 83 
0.113063 -0.309482 0.876333 137 117 142 
-0.0328286 0.326832 2.65838 60 33 42 
0.121951 -0.288771 0.873129 94 69 91 
0.130543 -0.283389 0.869043 136 121 142 
0.13026 -0.24691 0.863103 97 70 87 
0.120843 0.148406 0.744695 61 31 41 
0.14169 -0.297169 0.865129 121 104 123 
0.147962 -0.28787 0.861656 98 67 83 
0.151072 -0.302904 0.861333 92 63 83 
0.155026 -0.281213 0.857579 103 78 97 
0.163561 -0.286626 0.855997 135 117 139 
0.158683 0.0267304 0.82897 64 41 59 
0.175371 -0.295223 0.852548 93 62 80 
0.183542 -0.289581 0.849852 83 52 68 
0.168684 0.0769629 0.820747 128 120 144 
0.174382 0.106191 0.813863 134 126 149 
0.17313 0.181528 0.807811 57 41 52 
0.195331 -0.29195 0.845296 75 53 66 
0.179614 0.0708512 0.814476 74 52 65 
0.180102 0.0863568 0.813081 72 54 76 
0.183468 0.209515 0.786226 56 52 66 
0.207074 -0.290887 0.841102 84 61 77 
0.215833 -0.160479 0.825477 69 52 70 
0.221661 -0.276641 0.832713 80 56 78 
0.232413 -0.191491 0.821215 126 103 123 
0.21994 0.0790982 0.799332 132 111 128 
0.212586 0.227856 0.76811 107 119 133 
0.24149 -0.260415 0.825622 129 115 140 
0.261658 -0.274537 0.817688 78 59 79 
0.268927 -0.19643 0.809774 59 46 64 
0.283205 0.0681502 0.777356 90 63 68 
0.332212 -0.167733 0.780097 84 66 82 
0.336923 0.0557061 0.759173 137 114 122 
0.344875 0.0443367 0.756199 77 53 69 
0.416811 -0.186347 0.847813 96 109 161 
0.405712 0.156365 0.799104 61 85 121 
-0.471566 -0.167159 1.07409 117 115 154 
-0.468261 -0.112828 1.06771 102 85 104 
-0.455118 0.223187 1.02474 87 75 95 
-0.38573 -0.151323 1.04306 125 102 120 
-0.250198 0.0577089 0.923295 99 57 77 
-0.25265 0.00994237 0.934656 113 62 69 
-0.267242 -0.165254 1.00233 73 52 67 
-0.120671 0.185852 0.642333 106 73 94 
-0.237629 -0.213923 0.99642 69 48 65 
-0.102983 0.185392 0.635559 111 78 97 
-0.137238 0.0879561 0.732796 81 40 56 
-0.108584 0.119899 0.998547 82 56 69 
-0.0455609 -0.21994 0.832995 115 75 86 
-0.0246692 -0.233539 0.823411 50 23 28 
-0.112897 0.153401 1.26169 64 38 51 
0.0529715 0.0670226 0.567395 66 39 56 
0.0413095 -0.153 0.832014 138 84 100 
0.132024 0.130602 0.73338 41 30 28 
0.150444 -0.0938835 0.840937 79 54 75 
0.190844 -0.0505412 0.82067 63 45 57 
0.211186 -0.227372 0.829297 89 66 82 
0.216058 -0.0302922 0.808505 72 55 74 
0.228206 -0.260015 0.827122 78 60 74 
0.243132 0.0214334 0.793047 82 56 69 
0.246397 0.178131 0.775348 127 106 121 
0.270057 -0.266883 0.810285 78 56 79 
0.284556 -0.194473 0.79933 81 62 81 
0.329237 -0.103296 0.772251 95 71 85 
0.346354 -0.237357 0.777674 90 63 82 
0.34287 0.182122 0.739129 116 103 120 
0.343393 0.228552 0.718303 58 59 63 
0.330976 -0.103772 0.553478 115 130 173 
