ply                 
format ascii 1.0    
element vertex 1223
property float x    
property float y    
property float z    
property uchar red  
property uchar green
property uchar blue 
end_header          
-0.334689 0.0467242 1.00154 51 44 52 
-0.339141 -0.110838 1.01805 61 48 65 
-0.34266 -0.230736 1.03074 56 42 59 
-0.34414 -0.275412 1.03845 61 40 47 
-0.333831 -0.0551288 1.00892 62 46 72 
-0.340136 -0.244049 1.03054 76 55 64 
-0.330544 -0.0193777 1.00471 122 101 120 
-0.331121 -0.0846163 1.0148 54 38 49 
-0.334962 -0.270171 1.03204 133 108 127 
-0.322501 -0.0556591 1.00752 58 43 64 
-0.321579 -0.0252203 1.0055 65 51 68 
-0.326456 -0.176046 1.0215 52 39 57 
-0.286232 0.117799 0.895064 48 39 42 
-0.323513 -0.109174 1.01281 69 54 75 
-0.316542 -0.0121609 1.00037 67 50 60 
-0.214713 0.164568 0.678334 85 46 64 
-0.214266 0.174636 0.67788 73 42 60 
-0.32076 -0.208244 1.02024 98 85 95 
-0.323027 -0.246 1.02814 68 40 54 
-0.319455 -0.183152 1.0169 66 47 66 
-0.308967 0.085287 0.984877 91 71 83 
-0.317628 -0.17196 1.01625 124 104 116 
-0.319886 -0.273678 1.02675 52 41 49 
-0.31023 0.0238695 0.996319 35 24 32 
-0.310472 -0.00219444 0.99722 63 44 63 
-0.310204 -0.0265455 1.00082 48 38 49 
-0.276173 0.11765 0.890761 66 35 50 
-0.309076 -0.052361 1.00137 118 99 119 
-0.205969 0.187046 0.670174 100 73 88 
-0.279904 0.0871297 0.916903 153 99 115 
-0.204136 0.163463 0.675129 65 39 52 
-0.273131 0.092049 0.907587 74 53 52 
-0.306163 -0.273405 1.02312 67 44 50 
-0.302647 -0.23552 1.01556 67 48 70 
-0.267522 -0.016548 0.911337 96 43 53 
-0.288678 -0.174597 1.00534 74 53 70 
-0.192911 0.138566 0.671197 65 39 52 
-0.18885 0.19231 0.657752 71 39 50 
-0.290223 -0.27397 1.01611 58 38 49 
-0.284659 -0.112559 0.999343 58 41 59 
-0.186399 0.212441 0.65246 127 134 152 
-0.28897 -0.292176 1.01697 134 117 135 
-0.257543 0.064385 0.921372 108 74 88 
-0.275659 -0.0854322 0.992164 73 50 60 
-0.257132 0.0192744 0.928302 47 21 20 
-0.274839 -0.112813 0.993877 51 39 53 
-0.275449 -0.173431 0.999752 125 107 129 
-0.246446 0.0911355 0.894582 70 49 48 
-0.241252 0.114532 0.877348 62 35 44 
-0.182771 0.17392 0.665969 90 47 64 
-0.245347 0.0808913 0.904999 145 93 106 
-0.237124 0.101896 0.877359 125 81 98 
-0.247381 0.0686457 0.915886 142 95 113 
-0.180129 0.153921 0.666689 69 38 53 
-0.2685 -0.2722 1.00813 76 50 63 
-0.265753 -0.209437 0.999293 132 117 136 
-0.265072 -0.246712 1.00377 78 66 86 
-0.227924 0.116527 0.872485 74 51 57 
-0.17386 0.13845 0.666187 77 37 48 
-0.234172 0.0914866 0.90146 61 42 48 
-0.258148 -0.177547 0.994942 58 42 55 
-0.253167 -0.0558573 0.981065 58 44 61 
-0.171057 0.17352 0.661367 80 39 55 
-0.258263 -0.273525 1.00366 81 53 65 
-0.251368 -0.0861869 0.98413 58 40 56 
-0.222813 0.0944534 0.873776 128 83 103 
-0.210721 0.136279 0.837909 92 62 74 
-0.217101 0.121849 0.868197 75 43 56 
-0.243849 -0.16166 0.988778 124 106 120 
-0.213518 0.10308 0.871175 53 38 43 
-0.227692 0.039978 0.931183 57 25 36 
-0.160179 0.138138 0.660998 66 32 46 
-0.155445 0.192075 0.64482 67 45 57 
-0.237957 -0.250801 0.993134 90 55 75 
-0.203223 0.134871 0.850393 84 52 57 
-0.237099 -0.274954 0.996184 107 86 101 
-0.231925 -0.0843403 0.97737 61 39 51 
-0.202765 0.100834 0.864276 53 26 31 
-0.152569 0.159904 0.654612 71 43 58 
-0.211596 0.0616624 0.9239 62 29 40 
-0.226856 -0.276595 0.993582 46 30 40 
-0.224328 -0.188738 0.983463 73 55 81 
-0.223872 -0.178745 0.98298 63 50 78 
-0.224487 -0.209041 0.98629 127 118 139 
-0.211033 0.0280534 0.928742 49 24 30 
-0.146929 0.111848 0.649656 101 54 64 
-0.221809 -0.246912 0.988196 89 65 81 
-0.207146 0.0494669 0.926467 49 21 20 
-0.204749 0.0387157 0.918317 83 33 44 
-0.216697 -0.258522 0.986007 68 51 69 
-0.211728 -0.111857 0.972002 54 40 55 
-0.196321 -0.147225 0.901649 54 22 23 
-0.139449 0.191447 0.639008 73 43 53 
-0.198692 0.0274377 0.920873 51 28 34 
-0.210862 -0.248666 0.983708 76 56 68 
-0.139502 0.162939 0.650608 98 51 71 
-0.179897 0.133607 0.841948 74 53 60 
-0.139521 0.150857 0.651856 83 38 58 
-0.192607 -0.136938 0.908746 99 56 63 
-0.205066 -0.215485 0.978691 74 51 61 
-0.176109 0.120829 0.854534 102 51 70 
-0.129782 0.191145 0.635623 82 46 58 
-0.184026 -0.0822388 0.908438 97 71 82 
-0.186506 -0.00955843 0.923633 50 23 32 
-0.183446 -0.123655 0.911484 51 26 30 
-0.190438 -0.177917 0.969789 67 42 63 
-0.190624 -0.27783 0.979542 78 54 76 
-0.175836 0.0498961 0.912505 64 29 36 
-0.174551 0.00588413 0.912029 93 44 50 
-0.175802 -0.0250004 0.918956 56 30 39 
-0.173516 -0.0408123 0.910829 55 21 22 
-0.122697 0.161507 0.644855 79 48 64 
-0.172473 0.0329022 0.914412 58 22 22 
-0.171184 -0.0135177 0.91753 82 40 42 
-0.157598 0.0895549 0.862477 99 57 69 
-0.176698 -0.277407 0.973269 76 54 75 
-0.166234 -0.093643 0.917264 57 29 41 
-0.165025 -0.0760539 0.916572 67 26 40 
-0.152225 0.111851 0.846809 80 38 50 
-0.161683 0.0460287 0.910101 51 24 33 
-0.146692 0.136704 0.828863 86 58 73 
-0.160646 0.0298981 0.908515 43 23 25 
-0.160291 -0.0103915 0.911137 56 27 32 
-0.165331 -0.277745 0.970385 134 122 142 
-0.142439 0.0990919 0.842427 70 40 52 
-0.150589 -0.102829 0.917343 45 22 30 
-0.142397 -0.159815 0.87637 76 30 40 
-0.140767 0.0744294 0.871601 153 100 118 
-0.144794 -0.0777356 0.902307 59 28 26 
-0.137677 -0.224735 0.861447 139 93 104 
-0.138276 -0.17637 0.879445 114 66 80 
-0.140109 -0.255328 0.892822 143 90 106 
-0.135577 -0.213345 0.87088 42 22 24 
-0.129245 0.09873 0.838684 73 39 55 
-0.134404 -0.137514 0.875368 128 78 90 
-0.0975118 0.151942 0.636458 81 44 62 
-0.0970005 0.168813 0.634874 87 43 56 
-0.132826 0.0200942 0.878657 62 30 41 
-0.12411 0.126343 0.821922 142 109 130 
-0.133032 -0.0317254 0.883091 51 20 26 
-0.131265 0.0455467 0.875419 63 22 30 
-0.131165 -0.185445 0.878165 121 67 83 
-0.091967 0.209187 0.619649 63 49 66 
-0.12834 -0.1594 0.870008 136 84 97 
-0.127394 -0.230729 0.870135 53 18 25 
-0.124193 -0.23758 0.86027 119 70 76 
-0.125315 0.0313608 0.874813 65 37 51 
-0.120732 -0.14439 0.867267 133 86 104 
-0.121203 -0.0373746 0.876364 105 80 101 
-0.114873 0.118623 0.831442 88 50 65 
-0.120488 0.0437017 0.872577 98 47 56 
-0.118115 -0.129895 0.863124 143 90 106 
-0.115535 0.0603258 0.868003 56 29 36 
-0.115567 0.00836095 0.872552 53 27 36 
-0.114367 -0.213885 0.863718 43 22 21 
-0.115123 -0.00716661 0.874102 54 21 28 
-0.114692 -0.0201871 0.877118 64 37 46 
-0.113859 -0.185446 0.873112 108 75 96 
-0.112735 -0.232969 0.867861 61 28 37 
-0.109942 0.0757872 0.854461 93 41 53 
-0.110978 -0.154647 0.862778 57 25 30 
-0.111009 -0.133308 0.870879 63 27 31 
-0.108537 -0.123192 0.867439 128 80 92 
-0.108506 0.044742 0.867741 57 21 33 
-0.107055 0.019394 0.868445 57 27 35 
-0.106852 -0.0313303 0.872503 55 29 40 
-0.106528 -0.0584609 0.872879 50 21 23 
-0.102532 -0.0678585 0.860802 53 23 25 
-0.0999005 -0.231825 0.866316 137 85 98 
-0.0988259 0.0471003 0.86426 40 21 27 
-0.0939103 0.113047 0.825129 83 44 63 
-0.0991588 -0.135808 0.878932 63 31 42 
-0.0975256 -0.155773 0.865058 51 25 28 
-0.098404 -0.102225 0.875401 63 36 45 
-0.0697467 0.15791 0.624562 78 45 62 
-0.0944829 -0.214218 0.855538 43 22 21 
-0.0962479 -0.0829464 0.873548 53 20 27 
-0.087593 0.130826 0.808057 66 49 55 
-0.0913959 -0.0259084 0.865424 85 43 45 
-0.090011 -0.23337 0.861639 81 30 45 
-0.0903714 -0.0946051 0.871622 66 30 40 
-0.0622715 0.189401 0.611241 76 44 49 
-0.0873875 -0.0163706 0.863926 137 114 98 
-0.0867742 -0.0369108 0.865782 141 115 100 
-0.0832704 0.0408614 0.840964 27 18 19 
-0.0841131 -0.131098 0.872612 61 30 38 
-0.0597296 0.151457 0.622561 91 45 58 
-0.0827616 -0.0596512 0.868832 40 16 16 
-0.0770733 0.0296928 0.823865 20 15 12 
-0.0799024 -0.231469 0.85465 139 86 102 
-0.0784742 -0.0251647 0.847911 155 132 116 
-0.0569117 0.171229 0.619398 80 46 63 
-0.0783661 -0.187125 0.860121 132 79 95 
-0.0790752 -0.0994916 0.868815 114 62 74 
-0.0751067 -0.214419 0.846508 44 22 25 
-0.0711895 0.0995818 0.817385 79 42 59 
-0.0529569 0.184816 0.608422 159 115 140 
-0.0534642 0.122341 0.615135 102 61 67 
-0.0715201 0.0202306 0.827861 107 101 105 
-0.07189 -0.0134859 0.844995 195 185 160 
-0.0679454 0.130236 0.801703 65 49 59 
-0.0716486 -0.0631147 0.861363 162 150 128 
-0.0706591 -0.0354877 0.852684 198 191 172 
-0.0718545 -0.11938 0.867346 64 37 46 
-0.0662003 0.0351807 0.823048 143 134 129 
-0.0677846 -0.234876 0.854067 76 35 43 
-0.0664142 0.051035 0.838371 60 28 29 
-0.065446 -0.128648 0.865948 64 29 27 
-0.0614627 0.0272425 0.82726 224 221 206 
-0.061666 -0.0103813 0.843154 96 77 70 
-0.0622098 0.00510544 0.855294 119 99 74 
-0.0625027 -0.0335549 0.86123 137 113 87 
-0.0584891 0.110839 0.810902 93 61 76 
-0.0908046 0.154655 1.2791 77 49 64 
-0.0560588 0.0422723 0.825018 56 38 36 
-0.0577574 -0.119238 0.862569 67 30 38 
-0.0313764 0.0536954 0.464033 70 36 50 
-0.0536325 0.0971817 0.811908 142 94 116 
-0.0406231 0.181358 0.612962 176 128 152 
-0.0562164 -0.0562274 0.859621 41 20 17 
-0.053898 -0.0180315 0.853692 199 188 160 
-0.0532189 0.00263383 0.859816 111 96 77 
-0.0523979 -0.233894 0.846492 80 37 54 
-0.0508613 0.0323578 0.835352 105 87 85 
-0.0494563 -0.19069 0.848396 71 39 52 
-0.0476191 0.0472931 0.829962 26 15 19 
-0.0352962 0.122523 0.620732 127 79 95 
-0.0481795 -0.128106 0.859557 61 31 39 
-0.0350543 0.167532 0.620831 116 82 107 
-0.0441837 0.129536 0.792302 52 41 45 
-0.0470794 -0.103895 0.857893 54 23 29 
-0.0303626 0.146622 0.626976 86 49 66 
-0.0393606 0.0349786 0.828199 177 162 155 
-0.0376239 -0.234425 0.840342 63 27 41 
-0.0378667 -0.0892469 0.854317 48 20 19 
-0.0279834 0.158238 0.626371 81 50 65 
-0.0366899 -0.161075 0.834191 38 24 23 
-0.0338012 0.117384 0.803053 81 48 59 
-0.0345247 -0.188123 0.843371 128 75 91 
-0.0303229 0.0467027 0.837204 56 24 27 
-0.0305936 -0.103444 0.850153 48 28 30 
-0.0298807 -0.152554 0.83251 102 68 82 
-0.028257 0.0751672 0.820627 163 110 128 
-0.0213697 0.190247 0.616954 98 54 67 
-0.0261262 0.128941 0.784853 64 49 54 
-0.02428 0.0163445 0.838231 63 23 32 
-0.0242263 -0.0343005 0.842591 59 22 30 
-0.0171211 0.157717 0.631482 100 49 66 
-0.0212693 0.0961829 0.798547 50 34 45 
-0.0125426 0.0546505 0.452993 50 34 45 
-0.0211239 -0.143876 0.833817 73 30 37 
-0.0145315 0.173594 0.631162 82 53 71 
-0.0145147 0.136973 0.634936 92 53 72 
-0.0181769 -0.0408937 0.836748 56 24 27 
-0.0175179 -0.0788982 0.844588 122 69 77 
-0.0164414 0.0282949 0.833391 68 38 48 
-0.0163256 -0.0222336 0.837734 67 39 51 
-0.0159273 0.042032 0.833006 58 23 30 
-0.0159558 -0.00958496 0.837065 53 21 32 
-0.0152465 0.0567943 0.830937 62 32 42 
-0.0147547 -0.160712 0.825116 135 85 97 
-0.0104983 0.0981092 0.795218 64 36 50 
-0.00829423 0.158924 0.635975 113 62 81 
-0.0104369 -0.144406 0.830827 74 32 34 
-0.00969911 -0.188239 0.832485 133 82 99 
-0.00914549 -0.13181 0.821141 151 97 113 
-0.00603028 0.191013 0.624467 88 55 66 
-0.00633034 -0.0409945 0.83343 57 22 28 
-0.00612197 0.0175777 0.830932 75 45 57 
-0.00612625 -0.00979807 0.833594 59 28 36 
-0.00605616 0.0416334 0.82918 51 20 26 
-0.00600411 0.0280896 0.831592 68 30 41 
-0.00596901 -0.0228152 0.835406 66 33 44 
-0.00577262 -0.260817 0.850784 150 95 116 
-0.00227556 -0.160646 0.821026 136 88 104 
0.00189327 0.107656 0.789408 77 43 57 
0.00171904 0.162399 0.639954 78 40 61 
0.00269414 -0.0676087 0.82063 109 71 86 
0.00505087 -0.182355 0.837872 51 22 24 
0.00553902 0.0700015 0.812682 160 103 118 
0.00639987 0.0948957 0.789612 138 91 107 
0.00731098 -0.25792 0.83864 148 101 111 
0.00822568 -0.223045 0.814013 111 64 70 
0.00802051 0.185739 0.636947 125 87 108 
0.0116542 0.107914 0.785337 134 88 101 
0.0121329 0.0881318 0.800104 153 109 126 
0.0100965 0.154762 0.645343 83 50 67 
0.0182101 -0.215992 0.802009 100 55 62 
0.0153964 0.192192 0.634168 94 53 67 
0.021056 0.0858427 0.816411 69 48 57 
0.0224932 -0.22109 0.81958 103 58 65 
0.0232497 0.000730212 0.843428 62 27 34 
0.021645 0.0929947 0.784317 56 43 50 
0.0236493 -0.0308682 0.845022 63 38 44 
0.0237151 0.0244223 0.840885 57 24 31 
0.0241019 -0.119611 0.852661 59 28 34 
0.0254856 -0.164664 0.836326 39 18 23 
0.02445 0.115019 0.779847 70 40 48 
0.026524 0.0498146 0.832879 63 33 43 
0.0279626 -0.0833103 0.849111 82 43 44 
0.0304156 0.0959533 0.779813 61 44 52 
0.0358449 -0.109563 0.847222 57 30 37 
0.0358709 -0.0754533 0.844232 54 25 30 
0.0289387 0.192714 0.640315 91 53 64 
0.0449746 -0.279626 0.892962 90 69 88 
0.042444 -0.0164904 0.837557 57 30 39 
0.043689 0.00334177 0.831339 97 52 59 
0.0438625 0.0238921 0.830616 44 18 19 
0.047341 -0.265381 0.889196 135 114 133 
0.0442964 0.0399532 0.829204 61 30 36 
0.0419344 0.0970675 0.775312 58 39 45 
0.0460588 -0.0698972 0.840387 65 30 36 
0.0458279 0.0125023 0.819075 145 99 110 
0.0481301 -0.0317848 0.836277 62 32 42 
0.0519446 -0.0473333 0.833389 44 23 30 
0.0524508 -0.0197559 0.83389 82 36 38 
0.0531377 -0.129009 0.824755 61 29 30 
0.0535303 0.00217557 0.828832 148 94 110 
0.0527027 0.0943609 0.774281 78 52 61 
0.058737 -0.0321003 0.833131 57 28 33 
0.0591362 0.0428055 0.826949 59 26 33 
0.0600101 -0.0872613 0.819209 48 24 24 
0.0593383 -0.156871 0.804166 136 86 98 
0.0655417 -0.214244 0.871854 43 21 33 
0.0629293 0.0238806 0.824379 50 21 25 
0.0634993 -0.144716 0.814188 94 51 60 
0.0661289 0.0101235 0.824026 82 45 52 
0.061814 0.106182 0.766947 85 41 54 
0.0694101 -0.0170635 0.82582 56 33 43 
0.0659848 0.0904731 0.76786 69 35 51 
0.0765608 -0.265665 0.877997 91 63 78 
0.0764024 -0.201524 0.872399 135 117 139 
0.0768748 0.0232453 0.821621 58 26 31 
0.0690426 0.211643 0.737448 48 43 50 
0.0829329 -0.223486 0.871924 91 68 84 
0.0725116 0.198023 0.74273 145 102 122 
0.0861234 -0.204461 0.869643 98 65 82 
0.0742179 0.127315 0.748029 120 68 80 
0.0760361 0.106169 0.761075 59 37 40 
0.0818886 -0.0739537 0.811459 57 31 40 
0.0772645 0.0846549 0.761706 153 118 138 
0.0832032 0.0530243 0.816147 61 31 41 
0.0772699 0.162114 0.752769 50 27 33 
0.0900682 -0.263795 0.873713 82 60 81 
0.0861467 0.0402481 0.817166 62 32 34 
0.0787008 0.214983 0.738425 46 39 46 
0.0800125 0.135766 0.749263 94 58 60 
0.0934728 -0.223402 0.867923 133 116 135 
0.0835475 0.177779 0.749238 116 64 77 
0.0968924 -0.208935 0.864084 149 125 141 
0.097792 -0.273944 0.870451 106 73 90 
0.0980502 -0.253342 0.869699 95 67 90 
0.0879986 0.10798 0.757651 74 38 50 
0.0876125 0.166571 0.74899 120 67 83 
0.0954524 0.0526147 0.812356 57 26 34 
0.1033 -0.242335 0.866153 91 59 80 
0.107388 -0.251836 0.866439 73 55 77 
0.092355 0.131152 0.744655 59 31 30 
0.0962639 0.0815153 0.770382 79 52 61 
0.108292 -0.227373 0.863548 74 60 75 
0.108605 -0.156806 0.858243 96 72 88 
0.112 -0.208259 0.860386 98 67 82 
0.11204 -0.143142 0.852905 110 74 88 
0.0997089 0.0925591 0.753183 46 31 36 
0.0986994 0.162877 0.745351 78 36 50 
0.113803 -0.188229 0.857234 129 117 137 
0.116262 -0.255525 0.863316 92 72 100 
0.11466 -0.123432 0.849843 85 59 72 
0.114353 -0.0934842 0.847301 99 68 83 
0.100229 0.184075 0.742562 62 42 44 
0.100879 0.147623 0.745521 56 33 39 
0.116759 -0.243609 0.86098 99 69 93 
0.101597 0.172629 0.743221 85 38 54 
0.117692 -0.223669 0.85982 96 64 79 
0.117417 -0.158348 0.853406 96 64 75 
0.11104 0.0306609 0.806634 51 24 31 
0.106083 0.082685 0.768308 84 55 59 
0.116785 -0.0641003 0.843691 70 49 68 
0.119466 -0.233992 0.858706 94 66 88 
0.109519 0.0718942 0.775705 158 104 120 
0.114749 0.0629339 0.785585 95 45 54 
0.125745 -0.209302 0.854997 95 74 83 
0.110439 0.0948213 0.750162 62 32 42 
0.125394 -0.184069 0.851714 59 44 65 
0.125164 -0.122881 0.848781 85 58 75 
0.125335 -0.146642 0.849169 101 76 97 
0.1103 0.116807 0.746483 143 88 109 
0.109887 0.162847 0.741014 75 29 40 
0.129441 -0.255818 0.858989 75 54 73 
0.130591 -0.233604 0.854753 91 62 80 
0.113061 0.19501 0.733694 129 85 108 
0.121436 0.0444476 0.786805 76 52 68 
0.134164 -0.222697 0.853522 81 61 86 
0.132396 -0.0848997 0.839883 146 125 144 
0.116916 0.17236 0.738035 68 34 48 
0.13503 -0.155391 0.846638 85 57 71 
0.136067 -0.205523 0.850053 144 123 142 
0.124581 -0.0113374 0.775069 109 58 65 
0.127196 -0.00860487 0.790518 41 20 17 
0.124003 -0.0260301 0.768225 135 82 98 
0.139125 -0.174439 0.847165 130 108 129 
0.140343 -0.243827 0.852842 100 73 92 
0.123141 0.104489 0.744189 80 42 55 
0.130382 0.0082602 0.784136 51 21 21 
0.121461 0.214895 0.722337 56 43 50 
0.140722 -0.0664406 0.834811 102 60 74 
0.141879 -0.120705 0.841738 133 117 128 
0.132241 0.05576 0.777408 69 35 36 
0.145709 -0.25455 0.853026 77 58 78 
0.127705 0.0889185 0.745299 58 30 42 
0.143795 -0.109968 0.839046 88 70 92 
0.147002 -0.204546 0.847216 138 117 136 
0.14791 -0.226372 0.850148 63 41 64 
0.128243 0.194761 0.728606 122 77 98 
0.150312 -0.149194 0.839347 94 63 79 
0.151042 -0.163346 0.84091 101 60 76 
0.132983 0.13892 0.734486 38 24 21 
0.134631 0.104178 0.740318 64 37 44 
0.133032 0.175975 0.730466 52 32 41 
0.152773 -0.121875 0.836102 130 122 143 
0.154261 -0.180087 0.841554 83 61 73 
0.153474 -0.066853 0.830713 75 49 60 
0.137635 0.0892176 0.740399 128 85 95 
0.160552 -0.208307 0.841196 75 50 69 
0.162079 -0.145713 0.834886 90 66 88 
0.161419 0.0641636 0.8143 77 48 66 
0.166447 -0.190982 0.838398 91 67 83 
0.164814 -0.0659687 0.828781 139 120 142 
0.166045 -0.093849 0.828872 68 47 52 
0.164967 0.0478481 0.815463 71 51 63 
0.171224 -0.268383 0.844623 95 67 90 
0.172961 -0.210216 0.837038 84 60 74 
0.175146 -0.225788 0.839246 80 58 70 
0.170757 0.0277672 0.816546 76 50 59 
0.179611 -0.247795 0.837852 101 72 92 
0.177616 -0.0652185 0.821568 139 117 140 
0.176058 0.0488576 0.812892 75 48 67 
0.179809 -0.0377822 0.821232 57 44 53 
0.178986 -0.00794381 0.815604 117 98 128 
0.182492 -0.156096 0.830748 127 113 136 
0.184672 -0.225602 0.83601 88 61 76 
0.184675 -0.210405 0.833659 85 61 75 
0.18623 -0.264109 0.8368 95 64 79 
0.185689 -0.12398 0.825311 120 111 132 
0.180978 0.152636 0.801972 110 98 118 
0.183614 0.000585633 0.813467 131 116 137 
0.180699 0.193159 0.795135 104 103 119 
0.179728 0.182912 0.790886 111 95 121 
0.185547 -0.0174021 0.813439 90 63 80 
0.1839 0.101349 0.801753 72 44 56 
0.191684 -0.239904 0.834317 71 52 74 
0.18869 -0.0341604 0.815828 144 125 144 
0.18979 -0.0668348 0.818689 54 41 51 
0.194062 -0.251973 0.832734 80 59 74 
0.186182 0.1736 0.795082 102 85 104 
0.187796 0.111443 0.800718 120 97 115 
0.1899 0.0501818 0.807932 127 112 133 
0.19545 -0.227408 0.831645 74 54 66 
0.190804 0.0254033 0.808636 97 67 77 
0.189499 0.0859026 0.802737 125 116 135 
0.196858 -0.181732 0.825859 86 59 74 
0.19341 0.0012924 0.809919 134 116 140 
0.190477 0.15219 0.796684 121 116 136 
0.196595 -0.123172 0.821908 126 119 137 
0.199041 -0.211536 0.827127 75 57 71 
0.197146 -0.106751 0.818943 79 60 79 
0.192493 0.126633 0.797714 59 47 67 
0.200596 -0.2441 0.830035 103 74 96 
0.200716 -0.193296 0.825549 89 67 80 
0.195277 0.0717604 0.8027 86 63 81 
0.201281 -0.15707 0.822117 86 59 78 
0.20144 -0.167521 0.82209 107 73 87 
0.195947 0.105187 0.799101 65 50 69 
0.194209 0.19489 0.789284 59 58 76 
0.19555 0.160824 0.793813 124 119 142 
0.199156 0.0206354 0.806014 77 63 80 
0.205328 -0.258152 0.829789 141 114 129 
0.203146 -0.0388409 0.810554 69 43 54 
0.147381 0.211495 0.587776 109 125 141 
0.207027 -0.2367 0.82616 92 63 85 
0.202708 -0.00112019 0.806137 122 104 126 
0.206034 -0.0976969 0.816577 60 44 57 
0.202845 0.0465333 0.80236 78 62 75 
0.201431 0.151976 0.794146 129 126 147 
0.209257 -0.183428 0.82055 80 59 66 
0.203139 0.112676 0.795089 143 124 144 
0.208815 -0.123328 0.816244 133 124 145 
0.21135 -0.213088 0.823776 64 46 58 
0.205262 0.102239 0.796762 82 64 86 
0.205959 0.0786681 0.797167 143 121 133 
0.203962 0.189686 0.789263 108 102 136 
0.211816 -0.13506 0.816878 60 43 59 
0.214596 -0.263772 0.827672 71 54 72 
0.209067 -0.0209269 0.805241 67 47 59 
0.21329 -0.201739 0.821162 91 62 80 
0.210355 -0.0560034 0.808699 83 58 77 
0.211499 -0.0690727 0.81184 66 45 54 
0.207544 0.126907 0.791693 113 103 127 
0.210078 0.0249928 0.800623 83 63 75 
0.209925 0.0888264 0.795313 74 59 80 
0.213594 -0.010192 0.803949 64 49 72 
0.218428 -0.236123 0.821802 138 120 136 
0.212175 0.0625342 0.796472 128 110 126 
0.209793 0.167288 0.786302 74 55 75 
0.21827 -0.123785 0.812407 131 112 132 
0.220156 -0.192205 0.819058 71 58 68 
0.217564 -0.0405972 0.806799 53 36 42 
0.212628 0.183474 0.786921 121 118 139 
0.215786 0.0464617 0.798215 123 115 136 
0.213625 0.149904 0.788566 75 60 83 
0.217147 0.0980339 0.793497 64 45 51 
0.224722 -0.247726 0.820501 83 60 86 
0.226119 -0.181179 0.815667 137 124 142 
0.223963 -0.0759678 0.804808 121 96 117 
0.222334 0.0279243 0.795965 130 124 138 
0.222761 0.0399235 0.795301 58 45 62 
0.228952 -0.220193 0.817225 81 67 84 
0.221175 0.132785 0.787198 129 125 148 
0.224805 -0.00559107 0.798937 81 63 79 
0.219596 0.193497 0.779795 64 58 68 
0.221108 0.177607 0.782815 117 98 118 
0.223726 0.0572458 0.79117 90 67 75 
0.229771 -0.162783 0.812499 78 58 70 
0.230225 -0.200082 0.813042 134 120 146 
0.229448 -0.0970702 0.807475 63 42 47 
0.2241 0.151099 0.785951 76 63 89 
0.230784 -0.1318 0.807824 135 120 139 
0.233942 -0.234012 0.816785 86 63 83 
0.227248 0.0984952 0.786398 73 48 51 
0.231218 0.0468314 0.792733 75 52 68 
0.231941 0.0271464 0.792056 141 123 139 
0.235032 -0.0390983 0.798581 60 41 45 
0.230641 0.143779 0.78154 130 117 135 
0.240031 -0.204947 0.811804 79 54 73 
0.231857 0.130052 0.781679 145 131 154 
0.241242 -0.159386 0.809362 134 120 137 
0.237484 -0.00659934 0.796496 76 59 75 
0.242556 -0.179592 0.807982 136 122 147 
0.233865 0.173927 0.777123 127 108 127 
0.23509 0.153596 0.779522 134 125 154 
0.244248 -0.214248 0.810149 140 114 125 
0.242464 -0.0983096 0.80203 67 46 61 
0.234962 0.183673 0.775358 137 114 134 
0.237175 0.0769027 0.781452 22 62 175 
0.24415 -0.0669848 0.797092 129 110 130 
0.247514 -0.193732 0.807716 69 52 68 
0.240837 0.0598016 0.785222 83 61 82 
0.248788 -0.224491 0.810797 130 109 128 
0.23969 0.0942174 0.779821 82 121 212 
0.24711 -0.127757 0.801128 127 107 119 
0.248907 -0.163807 0.804372 66 55 72 
0.24847 -0.0485918 0.795398 67 58 75 
0.247272 -0.00121742 0.78959 68 45 63 
0.244329 0.141274 0.776003 102 79 99 
0.249515 -0.0390597 0.791832 60 47 57 
0.24553 0.130083 0.777762 130 114 127 
0.245137 0.188069 0.771513 120 109 139 
0.248503 0.102165 0.779795 73 55 71 
0.257533 -0.213485 0.806428 78 52 63 
0.249679 0.0822851 0.780181 109 81 95 
0.25393 -0.0713374 0.793563 96 67 72 
0.258754 -0.188258 0.803647 126 121 144 
0.257759 -0.159739 0.79882 72 60 74 
0.261645 -0.258762 0.809609 82 63 85 
0.260472 -0.232553 0.805022 95 67 82 
0.25061 0.154073 0.772194 130 113 132 
0.255944 -0.00806814 0.788056 140 116 130 
0.258266 -0.0575479 0.790913 77 56 63 
0.259664 -0.0966767 0.794 71 48 68 
0.255822 0.068569 0.777536 89 63 76 
0.258956 0.0266581 0.783618 125 112 129 
0.262969 -0.127894 0.795715 95 65 77 
0.266466 -0.221945 0.803089 75 62 88 
0.255302 0.18168 0.769117 81 64 83 
0.25895 0.108024 0.774349 127 103 117 
0.259184 0.127148 0.773098 79 61 75 
0.261771 0.0429922 0.780008 139 116 132 
0.264756 -0.042289 0.787943 60 44 55 
0.266747 -0.0709697 0.790866 65 42 58 
0.269767 -0.15942 0.796162 64 46 62 
0.265855 -0.00270654 0.782944 114 93 110 
0.261451 0.148998 0.76986 68 54 69 
0.264194 0.0744559 0.776286 120 101 120 
0.256035 0.20545 0.751196 66 57 76 
0.268067 0.0326761 0.777438 103 80 100 
0.278192 -0.236748 0.798972 143 122 137 
0.269394 0.102049 0.773187 61 41 53 
0.266328 0.188058 0.763795 147 124 140 
0.26661 0.159084 0.764439 134 116 132 
0.27967 -0.26041 0.801494 52 35 51 
0.272459 0.0220801 0.776387 119 92 107 
0.278555 -0.1308 0.791349 119 110 127 
0.273328 0.0473608 0.774072 146 122 136 
0.27162 0.125656 0.767886 64 51 61 
0.280444 -0.159991 0.792977 54 42 54 
0.282133 -0.227675 0.797529 58 43 62 
0.272779 0.0818685 0.770602 90 60 70 
0.282857 -0.149794 0.79084 89 65 78 
0.280329 -0.0412376 0.780793 68 39 44 
0.279007 0.0363178 0.772934 140 117 135 
0.275774 0.149015 0.763609 83 65 87 
0.283867 -0.0965984 0.784791 76 56 68 
0.279326 0.101787 0.768502 69 49 61 
0.276423 0.177259 0.760363 111 93 117 
0.290394 -0.260695 0.798915 61 43 67 
0.27742 0.165893 0.760782 135 118 134 
0.282741 0.0262377 0.772523 130 113 131 
0.28418 -0.00628694 0.776197 83 62 69 
0.28844 -0.136748 0.786927 87 60 79 
0.281063 0.125761 0.764286 70 57 67 
0.2809 0.186417 0.758426 127 105 118 
0.294511 -0.22832 0.794513 41 29 49 
0.292244 -0.0713547 0.779748 73 50 58 
0.288553 0.0743039 0.76862 125 110 129 
0.286227 0.145586 0.760526 126 104 117 
0.298617 -0.248677 0.79255 137 114 130 
0.296649 -0.158406 0.784953 139 121 143 
0.28912 0.102234 0.764732 85 61 83 
0.298775 -0.135316 0.782301 82 58 82 
0.295831 -0.00826767 0.771525 87 66 73 
0.289828 0.177111 0.755351 138 115 131 
0.304399 -0.225912 0.790726 123 111 135 
0.300107 -0.094409 0.778371 127 104 120 
0.294871 0.0672465 0.76361 130 103 118 
0.291502 0.186889 0.754042 74 57 73 
0.299747 -0.0328966 0.772793 129 107 120 
0.295848 0.124023 0.758739 77 55 68 
0.308407 -0.263693 0.790821 116 99 118 
0.306479 -0.179007 0.782658 88 64 80 
0.303665 -0.0545331 0.772556 88 61 78 
0.304794 -0.0687221 0.773883 128 111 130 
0.308313 -0.1612 0.78209 60 44 70 
0.302602 0.0302214 0.766706 116 103 123 
0.304185 -0.0159144 0.769492 124 111 128 
0.300732 0.0796037 0.760677 87 63 77 
0.303959 0.0410927 0.765192 122 100 113 
0.299213 0.176373 0.751593 140 122 138 
0.313306 -0.193467 0.78348 54 36 52 
0.314752 -0.228113 0.78457 64 47 63 
0.308196 0.0192135 0.7636 131 107 121 
0.304143 0.145123 0.75311 127 107 118 
0.318985 -0.2616 0.787649 68 58 83 
0.313621 -0.00711088 0.765955 66 49 59 
0.30717 0.187486 0.748481 141 129 153 
0.311097 0.0999259 0.754894 138 112 121 
0.319337 -0.133094 0.774353 94 69 91 
0.312956 0.0647003 0.75754 149 118 134 
0.314139 0.0373071 0.759484 98 74 90 
0.328835 -0.261026 0.783125 74 57 76 
0.321437 0.0179045 0.758022 134 111 129 
0.324839 -0.0425063 0.763704 112 99 117 
0.319725 0.123972 0.750108 66 50 63 
0.318764 0.180314 0.744727 45 31 44 
0.320649 0.145918 0.746901 64 52 66 
0.324787 0.0426611 0.755261 149 129 141 
0.328871 -0.0764119 0.764328 138 114 128 
0.330311 -0.0070112 0.758973 77 54 72 
0.316353 0.225617 0.725943 98 81 91 
0.337986 -0.194732 0.773626 73 50 76 
0.317311 0.210616 0.725796 115 106 123 
0.330263 0.0249826 0.755212 131 108 128 
0.328454 0.180616 0.741227 56 39 55 
0.344952 -0.218035 0.772019 92 68 92 
0.339618 -0.0482838 0.758163 136 111 132 
0.331699 0.190945 0.736393 69 64 87 
0.325978 0.21736 0.723444 154 172 244 
0.335151 0.125692 0.74341 136 113 123 
0.339446 0.0168656 0.751671 134 116 132 
0.338089 0.0643352 0.747655 144 118 127 
0.33704 0.137737 0.740508 93 66 71 
0.34575 -0.0206881 0.753554 129 106 124 
0.340034 0.147679 0.738107 63 42 51 
0.33351 0.209963 0.719985 16 23 41 
0.333334 0.221263 0.717334 14 20 34 
0.341728 0.214522 0.714775 156 174 248 
0.346173 0.201035 0.716837 131 117 130 
0.404691 -0.247895 0.82833 138 151 186 
0.403869 -0.146913 0.825438 68 84 120 
0.351571 0.225843 0.710745 85 80 84 
0.398711 0.163934 0.788125 20 34 63 
0.60257 -0.0584139 1.06118 129 122 155 
-0.382913 0.125865 1.01131 66 58 79 
-0.361741 0.0679818 1.00858 56 43 53 
-0.342134 0.167324 0.993468 111 97 112 
-0.339123 0.035636 1.00388 87 62 81 
-0.33023 0.0925742 0.996278 115 104 121 
-0.32524 0.120991 0.990797 43 31 41 
-0.317279 0.0926863 0.991184 107 92 111 
-0.314282 0.120446 0.986659 42 32 43 
-0.315777 -0.124997 1.01011 130 106 119 
-0.262421 -0.085621 0.987528 88 57 73 
-0.334184 0.207283 0.613383 124 132 151 
-0.383163 0.214644 0.705077 134 150 163 
-0.53913 0.235935 1.0205 80 83 100 
-0.552832 0.185912 1.05363 36 48 70 
-0.511362 0.237298 0.995319 107 117 119 
-0.551044 0.0557532 1.06851 39 51 77 
-0.541325 0.239221 1.04451 32 31 39 
-0.549118 0.206418 1.05853 17 24 43 
-0.544536 0.195292 1.05634 26 31 51 
-0.547894 0.0868721 1.0698 27 35 54 
-0.54256 0.214765 1.05975 70 75 97 
-0.543312 0.131278 1.06733 98 111 146 
-0.54221 0.108768 1.06766 99 110 142 
-0.546082 -0.240156 1.10089 40 50 75 
-0.541586 0.052419 1.0745 99 115 151 
-0.540952 0.0266033 1.07683 100 114 153 
-0.539396 0.121174 1.06906 23 31 67 
-0.539038 0.203375 1.06584 118 130 170 
-0.539429 -0.107936 1.08843 103 115 153 
-0.538909 -0.209569 1.09825 108 120 160 
-0.536877 -0.096144 1.08983 128 137 178 
-0.541751 0.118105 1.08526 143 157 202 
-0.533948 -0.335413 1.10865 29 40 96 
-0.498412 0.236111 1.02503 68 62 74 
-0.484263 0.216668 1.04223 148 162 199 
-0.476045 0.0687569 1.0568 102 88 111 
-0.473488 0.00938158 1.06021 121 102 121 
-0.473495 -0.340194 1.08709 176 189 241 
-0.471747 -0.0906118 1.06907 111 93 115 
-0.472974 -0.0676678 1.07212 117 96 115 
-0.473911 -0.0258904 1.07172 100 85 118 
-0.472527 -0.204031 1.08318 123 104 126 
-0.472286 -0.32813 1.09266 99 108 149 
-0.470881 -0.35803 1.09533 90 97 139 
-0.460683 0.170989 1.0403 39 34 54 
-0.46754 -0.311766 1.08862 110 95 118 
-0.462478 -0.329306 1.08769 123 99 112 
-0.463845 -0.368732 1.10015 121 93 115 
-0.455121 -0.241656 1.07811 91 72 94 
-0.435571 0.234511 1.01014 47 52 58 
-0.437704 -0.331519 1.08051 131 124 142 
-0.428286 -0.201306 1.06433 133 113 124 
-0.423367 -0.0784031 1.0504 78 60 84 
-0.421919 -0.358156 1.0772 95 66 86 
-0.417306 -0.19087 1.06017 81 59 72 
-0.221582 0.188414 0.679658 105 73 96 
-0.41456 -0.345377 1.07561 94 66 80 
-0.403535 -0.35544 1.06833 93 68 89 
-0.40468 -0.330253 1.06901 78 57 74 
-0.401345 -0.316949 1.06659 98 74 98 
-0.387901 -0.329983 1.06222 100 76 98 
-0.382475 -0.358447 1.06219 86 62 88 
-0.378615 -0.325466 1.05415 125 111 126 
-0.374185 -0.0815243 1.0355 57 38 60 
-0.374758 -0.364791 1.06096 83 64 84 
-0.366655 -0.326265 1.05375 128 110 126 
-0.360462 -0.299068 1.05013 78 64 77 
-0.357792 0.0940202 1.01242 127 115 137 
-0.360354 -0.278861 1.05257 92 80 92 
-0.155652 0.209877 0.61221 50 38 62 
-0.35162 -0.323724 1.04922 76 52 74 
-0.3483 -0.344321 1.04971 83 64 84 
-0.344523 -0.166 1.03189 80 57 67 
-0.291105 0.103879 0.902762 41 28 37 
-0.335291 -0.345078 1.04531 73 58 77 
-0.329333 -0.381306 1.04539 89 60 82 
-0.324667 0.0227583 1.00858 64 50 65 
-0.3232 -0.300633 1.03586 78 51 68 
-0.320341 0.0463851 1.00061 104 88 99 
-0.318301 -0.343835 1.03703 84 63 82 
-0.313214 -0.355646 1.03756 132 119 139 
-0.306308 -0.323505 1.03086 87 59 74 
-0.304142 -0.212757 1.0219 85 62 82 
-0.303654 -0.343758 1.03421 82 61 78 
-0.147577 0.186773 0.65267 113 75 96 
-0.259385 -0.0223377 0.919719 148 95 113 
-0.294927 -0.242897 1.02039 130 116 131 
-0.289988 -0.330064 1.02661 137 119 131 
-0.289963 -0.343777 1.0291 84 61 81 
-0.289262 -0.369234 1.03066 76 58 74 
-0.253831 0.00175756 0.929748 43 19 19 
-0.281155 -0.165265 1.00698 76 56 68 
-0.280842 -0.139599 1.0058 129 112 130 
-0.0035734 0.0990763 0.370541 85 53 74 
-0.275368 -0.36904 1.0253 79 57 78 
-0.275638 -0.325635 1.02209 79 58 77 
-0.115389 0.211279 0.619108 113 115 136 
-0.265089 -0.122948 0.997352 69 51 65 
-0.243157 0.0807418 0.928028 82 39 49 
-0.261005 -0.36129 1.01889 87 60 79 
-0.259244 -0.325383 1.01501 74 56 68 
-0.256552 -0.161811 0.996862 130 108 129 
-0.253462 -0.212478 1.00083 85 59 72 
-0.24945 -0.331792 1.01145 79 65 78 
-0.244155 -0.352803 1.0112 79 61 75 
-0.237928 -0.342244 1.0098 128 111 130 
-0.22315 -0.319401 1.00075 74 60 83 
-0.218849 -0.278959 0.994853 51 35 46 
-0.086063 0.185302 0.629779 115 76 97 
-0.165141 -0.216271 0.878656 62 32 34 
-0.204267 -0.345804 0.994918 72 57 78 
-0.163556 -0.227424 0.876774 85 41 56 
-0.203781 -0.298408 0.99113 130 112 134 
-0.196081 -0.329751 0.991058 70 55 74 
-0.193843 -0.306913 0.989842 90 66 80 
-0.165432 -0.179773 0.910743 60 29 35 
-0.311427 0.169405 1.26496 95 48 66 
-0.178464 -0.348374 0.988464 81 66 89 
-0.177472 -0.329739 0.984196 86 70 97 
-0.159465 0.0155198 0.91334 50 23 30 
-0.136812 -0.150694 0.879446 57 25 28 
-0.164207 -0.328296 0.981165 78 63 86 
-0.161395 -0.309814 0.977037 76 55 74 
-0.15557 -0.330892 0.975533 76 55 74 
-0.149555 -0.35123 0.976128 75 59 85 
-0.132669 -0.0057373 0.885463 56 25 31 
-0.121837 -0.28019 0.889149 142 91 110 
-0.047092 0.202426 0.608007 71 55 68 
-0.11464 -0.28741 0.886755 54 31 39 
-0.140176 -0.349973 0.972008 53 35 49 
-0.136102 -0.335632 0.970619 55 41 67 
-0.11349 -0.113332 0.880745 28 13 16 
-0.115242 0.031568 0.876331 65 32 39 
-0.104798 -0.162229 0.875726 34 18 18 
-0.107914 -0.0798299 0.880508 122 65 72 
-0.123904 -0.331504 0.965845 67 50 69 
-0.0296999 0.185118 0.623262 124 89 113 
-0.0900625 -0.057721 0.865015 46 20 21 
-0.0762579 -0.257395 0.851812 40 21 23 
-0.10488 -0.331836 0.958547 71 54 72 
-0.079466 -0.0444968 0.869539 142 127 108 
-0.0906706 -0.332774 0.953751 84 68 94 
-0.0793564 -0.330817 0.947698 83 48 68 
-0.0691352 -0.0235861 0.86601 139 117 80 
-0.0688191 -0.331052 0.943857 59 38 57 
-0.0486793 -0.288443 0.869725 71 24 30 
-0.0541219 0.0221447 0.841226 176 164 152 
-0.0586373 0.012147 0.867814 174 158 133 
-0.0553307 -0.0681872 0.868771 35 16 18 
-0.00541921 0.170155 0.638811 99 61 84 
-0.0523794 -0.00996664 0.853046 174 159 140 
-0.0449719 0.109995 0.810523 79 45 61 
-0.0546851 -0.335576 0.927166 173 157 132 
-0.0366018 -0.216829 0.83668 47 22 26 
-0.00176959 0.186556 0.636681 120 85 109 
-0.0406604 -0.267863 0.868773 80 32 46 
-0.0381545 -0.278308 0.872554 144 89 108 
-0.0232698 -0.237021 0.836475 48 22 31 
-0.0271077 -0.0757805 0.850719 125 74 83 
-0.0166235 -0.285848 0.848339 66 39 48 
-0.0222016 -0.0673213 0.833625 113 74 93 
-0.0160259 -0.266995 0.858022 153 102 121 
-0.0214915 -0.331206 0.925653 68 44 57 
-0.0156466 0.00552727 0.840549 64 31 40 
-0.0015131 -0.177446 0.833412 67 27 36 
-0.00689981 -0.332405 0.921954 77 57 82 
0.00185639 -0.0816074 0.832197 130 74 87 
0.00612454 -0.157817 0.841882 58 23 30 
0.0766811 0.0537051 0.448115 66 39 56 
0.00422983 -0.311017 0.914793 138 123 144 
0.01371 -0.0713415 0.823971 70 35 33 
0.0126906 -0.331149 0.914152 132 122 146 
0.0149374 -0.0599528 0.849302 47 19 18 
0.0171342 -0.288722 0.908383 65 39 66 
0.0310815 -0.315363 0.905704 94 71 91 
0.0312489 -0.285161 0.902354 90 60 72 
0.0398556 0.052106 0.837412 70 33 40 
0.0477014 -0.319316 0.900394 81 63 87 
0.0528886 -0.221346 0.839841 108 70 81 
0.0546116 0.1785 0.73662 88 49 68 
0.0578477 -0.282128 0.892435 139 121 143 
0.0594594 -0.310678 0.895539 86 62 78 
0.062943 -0.254308 0.887705 97 68 90 
0.0640636 0.199337 0.740808 152 109 129 
0.0865176 0.209809 0.568606 109 110 131 
0.0676998 -0.235412 0.882098 104 82 103 
0.0708387 -0.287985 0.888957 65 46 65 
0.0713697 -0.307866 0.891694 94 74 102 
0.067106 0.197461 0.755472 66 49 57 
0.0802216 -0.284568 0.885281 130 120 145 
0.0863374 0.0906106 0.764304 66 38 50 
0.0838167 0.20307 0.742893 70 39 47 
0.091212 -0.283818 0.879095 93 79 104 
0.0953947 0.214775 0.636313 128 133 153 
0.0981891 -0.314314 0.880285 74 52 65 
0.089068 0.195297 0.747278 154 107 127 
0.108488 -0.286912 0.873719 96 65 83 
0.112895 -0.308859 0.873603 137 117 142 
-0.0326644 0.327236 2.66046 60 33 42 
0.121766 -0.28819 0.870405 94 69 91 
0.130339 -0.282817 0.866324 136 121 142 
0.13006 -0.246412 0.860399 97 70 87 
0.120678 0.148044 0.742263 61 31 41 
0.14146 -0.296564 0.86241 121 104 123 
0.147718 -0.287284 0.858941 98 67 83 
0.150819 -0.302285 0.858614 92 63 83 
0.154765 -0.280638 0.854868 103 78 97 
0.16328 -0.286038 0.853285 135 117 139 
0.158444 0.0266446 0.826358 64 41 59 
0.175061 -0.294614 0.849836 93 62 80 
0.183214 -0.288983 0.847143 83 52 68 
0.168426 0.0767653 0.818153 128 120 144 
0.174113 0.105927 0.811282 134 126 149 
0.17287 0.181097 0.805253 57 41 52 
0.194975 -0.291344 0.842589 75 53 66 
0.179328 0.0706651 0.811886 74 52 65 
0.179816 0.0861361 0.810495 72 54 76 
0.183179 0.209012 0.783704 56 52 66 
0.20669 -0.29028 0.838397 84 61 77 
0.215438 -0.160154 0.822816 69 52 70 
0.22124 -0.27606 0.830019 80 56 78 
0.231973 -0.191095 0.81855 126 103 123 
0.219554 0.0788863 0.796751 132 111 128 
0.212221 0.227297 0.76561 107 119 133 
0.241022 -0.259867 0.822935 129 115 140 
0.261136 -0.273951 0.815005 78 59 79 
0.268394 -0.196019 0.807113 59 46 64 
0.282651 0.0679521 0.774784 90 63 68 
0.331506 -0.167376 0.777467 84 66 82 
0.336218 0.0555288 0.756609 137 114 122 
0.344145 0.0441857 0.753635 77 53 69 
0.415947 -0.185982 0.845024 96 109 161 
0.404874 0.155936 0.796439 61 85 121 
-0.471283 -0.167011 1.07226 117 115 154 
-0.467975 -0.11272 1.0659 102 85 104 
-0.454809 0.22306 1.02304 87 75 95 
-0.385491 -0.151187 1.04124 125 102 120 
-0.249995 0.0576655 0.921516 99 57 77 
-0.252454 0.00994482 0.932864 113 62 69 
-0.267081 -0.165106 1.0005 73 52 67 
-0.120519 0.185581 0.640766 106 73 94 
-0.237496 -0.213732 0.994578 69 48 65 
-0.102858 0.185118 0.634 111 78 97 
-0.137094 0.0878493 0.731113 81 40 56 
-0.108532 0.119793 0.996792 82 56 69 
-0.0455922 -0.219678 0.831193 115 75 86 
-0.0247279 -0.233258 0.821615 50 23 28 
-0.112896 0.153337 1.26018 64 38 51 
0.0528162 0.0669126 0.565918 66 39 56 
0.0411802 -0.152833 0.830228 138 84 100 
0.131791 0.130403 0.731686 41 30 28 
0.150194 -0.0938035 0.839151 79 54 75 
0.190541 -0.0505125 0.818895 63 45 57 
0.21084 -0.227138 0.82751 89 66 82 
0.215721 -0.030289 0.806735 72 55 74 
0.227835 -0.259743 0.825336 78 60 74 
0.242757 0.0213698 0.791286 82 56 69 
0.246026 0.17786 0.773601 127 106 121 
0.269624 -0.266598 0.808509 78 56 79 
0.284105 -0.194271 0.797561 81 62 81 
0.328718 -0.103205 0.770497 95 71 85 
0.345803 -0.237098 0.77592 90 63 82 
0.342332 0.181818 0.737393 116 103 120 
0.342842 0.228172 0.716585 58 59 63 
0.330909 -0.103987 0.554112 115 130 173 
-0.359944 -0.024756 1.02177 56 44 66 
-0.108797 -0.164301 0.864708 116 72 89 
0.042054 0.10225 0.689311 75 45 55 
0.0677641 0.114001 0.766647 93 53 62 
0.0883607 -0.231767 0.872917 110 72 97 
0.175819 -0.124478 0.831429 128 119 140 
0.219154 -0.0198941 0.804441 135 112 128 
0.292846 -0.0405695 0.779574 60 43 53 
0.330483 -0.0332838 0.763036 133 110 130 
0.330174 0.10353 0.750552 134 113 128 
-0.424961 0.214897 1.01882 70 59 76 
-0.42402 0.168252 1.02271 120 112 135 
-0.421813 -0.190325 1.04134 135 114 131 
-0.408502 0.0496401 1.02971 59 51 72 
-0.359793 0.167469 0.999936 39 35 49 
-0.355179 0.0935412 1.00496 121 109 129 
-0.342255 -0.164869 1.02504 73 50 60 
-0.200384 0.0614432 0.922807 53 22 37 
-0.157469 0.0584892 0.906821 60 27 36 
-0.106325 0.229328 0.780919 112 75 93 
-0.0988879 -0.224152 0.896208 43 22 21 
-0.0784977 -0.216922 0.798154 102 43 61 
-0.0119947 0.122844 0.782373 150 108 122 
0.00331431 0.0932934 0.666839 77 40 57 
0.0204226 0.0967335 0.655681 70 40 48 
0.316751 -0.2868 0.792652 73 54 74 
0.342703 -0.262812 0.780382 78 64 89 
0.34555 0.125521 0.74051 123 99 112 
0.432619 0.0545805 0.772154 148 168 201 
-0.452808 -0.240476 1.07306 81 61 86 
-0.426763 0.238676 0.988618 83 93 85 
-0.443898 -0.137992 1.06007 99 75 99 
-0.442337 -0.148314 1.06056 84 67 86 
-0.382744 0.229392 0.863511 43 58 51 
-0.426605 -0.139115 1.0549 90 67 83 
-0.41891 0.095107 1.02871 76 62 79 
-0.408565 0.0949753 1.02611 66 58 81 
-0.410955 -0.195403 1.05424 138 117 132 
-0.405166 -0.131155 1.04419 80 61 83 
-0.405043 -0.145782 1.04733 132 117 136 
-0.386874 0.231602 0.988631 52 50 53 
-0.393773 -0.0829687 1.03567 124 106 130 
-0.392605 -0.0675374 1.0339 79 63 90 
-0.384189 0.198996 1.0066 113 109 132 
-0.381225 0.148295 1.00839 118 114 141 
-0.386982 -0.162578 1.04203 77 54 70 
-0.387522 -0.211321 1.04735 79 55 69 
-0.368571 0.239366 0.981312 37 33 32 
-0.367667 0.216373 0.998124 52 50 63 
-0.361078 0.199349 0.997517 108 92 105 
-0.362164 0.0475928 1.014 66 53 71 
-0.360489 -0.034422 1.02064 70 54 83 
-0.338517 0.226508 0.97327 91 84 92 
-0.342093 0.102912 1.00084 57 45 59 
-0.3351 0.0699167 1.0017 103 91 111 
-0.332486 0.165427 0.992297 54 41 50 
-0.330401 0.197014 0.986809 48 37 51 
-0.331085 0.0264624 1.00413 65 51 66 
-0.303412 0.2092 0.884026 136 93 113 
-0.32328 -0.084501 1.01076 78 54 70 
-0.31758 0.199223 0.982748 96 92 107 
-0.321247 -0.256236 1.02836 77 59 73 
-0.312548 -0.195624 1.01884 71 54 73 
-0.308806 0.00900212 1.00089 56 43 61 
-0.310052 -0.223117 1.01982 92 61 76 
-0.307935 -0.1767 1.01613 72 55 73 
-0.302806 0.0932201 0.989049 37 29 40 
-0.303632 -0.0109587 0.997816 62 42 53 
-0.288643 0.101269 0.897734 109 73 83 
-0.301495 -0.143468 1.00845 80 56 69 
-0.295405 0.0801138 0.985135 42 31 39 
-0.283726 0.0385512 0.984889 59 42 50 
-0.273189 0.077335 0.922256 149 95 111 
-0.279866 -0.160635 1.00225 136 113 133 
-0.256931 0.129141 0.883715 76 56 58 
-0.234562 0.194499 0.681533 54 34 43 
-0.26418 -0.11336 0.993999 62 49 69 
-0.26384 -0.197017 1.0008 91 68 88 
-0.226725 0.213323 0.670301 49 35 48 
-0.253602 -0.151491 0.993134 89 64 86 
-0.240061 -0.057215 0.979686 60 41 60 
-0.214644 0.152026 0.681505 88 42 53 
-0.233621 -0.064109 0.976195 139 112 129 
-0.213687 -0.221745 0.984958 96 60 72 
-0.19604 0.113095 0.668903 104 57 65 
-0.203418 -0.028119 0.928717 78 31 39 
-0.203 -0.0397068 0.928813 119 68 77 
-0.204236 -0.231457 0.982387 57 34 42 
-0.191143 -0.0604357 0.925888 102 55 61 
-0.187283 -0.216661 0.975403 86 62 78 
-0.186361 -0.248732 0.97802 76 59 77 
-0.177546 -0.180052 0.969227 57 43 58 
-0.170509 -0.204642 0.966595 50 38 58 
-0.16754 -0.250847 0.971204 87 61 90 
-0.164602 -0.0252525 0.91806 55 28 35 
-0.162669 -0.0630298 0.919602 73 32 38 
-0.15332 -0.264823 0.966959 74 58 85 
-0.147655 0.0300006 0.906569 47 20 27 
-0.142515 -0.0242297 0.907865 48 29 35 
-0.135342 -0.128598 0.86921 146 91 110 
-0.140032 0.210204 0.615808 217 228 255 
-0.12469 -0.00686784 0.880213 49 22 31 
-0.12348 -0.0996774 0.872225 65 31 32 
-0.120853 0.0893596 0.850451 93 51 61 
-0.11856 0.100194 0.837088 82 48 64 
-0.129464 0.152864 0.649834 96 48 62 
-0.092524 0.0452044 0.852997 113 87 72 
-0.109155 0.191273 0.62932 79 46 57 
-0.110107 -0.160203 0.641431 46 26 28 
-0.0952877 -0.202665 0.752723 82 30 52 
-0.0970569 0.142182 0.638845 98 48 60 
-0.068674 -0.0259225 0.857952 124 93 62 
-0.0631342 -0.0435741 0.857885 184 171 152 
-0.0614943 -0.0721462 0.856932 135 116 101 
-0.0882594 0.172875 0.6326 101 52 71 
-0.062981 0.122347 0.787149 141 107 121 
-0.0407048 -0.243615 0.945528 49 24 27 
-0.056786 0.130276 0.798795 63 47 57 
-0.0216884 0.0870631 0.81593 106 60 73 
-0.0235884 0.121025 0.800757 147 94 112 
-0.0564838 0.161225 0.622151 92 44 60 
-0.0563951 0.138265 0.624041 83 47 61 
0.270291 -0.436243 2.38931 140 96 111 
-0.0477563 0.110532 0.615187 116 63 71 
0.316525 -0.420062 2.38121 131 74 91 
0.314467 -0.343627 2.33857 54 23 21 
0.00296607 -0.0347459 0.835113 56 25 33 
0.0297659 -0.133023 0.850087 99 59 67 
0.040939 0.0861341 0.815157 99 60 65 
0.0868971 0.00777684 0.823058 72 40 55 
0.0855606 0.0334826 0.808596 139 85 101 
0.0934128 -0.0022414 0.815485 110 63 71 
0.129021 -0.270881 0.863321 92 74 98 
0.139055 -0.0936157 0.841919 97 70 89 
0.153955 -0.1936 0.846659 86 71 92 
0.134598 0.0435322 0.781998 81 50 65 
0.122888 0.15833 0.740426 62 34 46 
0.150319 0.198518 0.728836 175 129 157 
0.248768 0.16647 0.775159 84 65 85 
0.25144 0.0328015 0.786509 145 122 132 
0.265059 -0.205968 0.807201 61 49 73 
0.274944 0.13887 0.769779 78 63 82 
0.31085 -0.211701 0.789226 85 73 93 
0.313232 -0.0222899 0.769514 138 117 134 
0.435328 0.237553 0.757858 115 128 144 
-0.407054 0.161241 1.01615 124 116 139 
-0.406725 -0.0773422 1.0383 128 113 136 
-0.399646 0.050919 1.02456 118 101 119 
-0.367886 -0.0778476 1.02286 125 102 128 
-0.334187 -0.132923 1.01579 81 59 72 
-0.324056 0.140544 0.98915 45 39 51 
-0.322942 0.103952 0.991523 46 32 45 
-0.313876 0.215273 0.975766 41 39 52 
-0.312043 0.0471864 0.991818 71 54 70 
-0.302861 -0.0313027 0.996254 116 92 105 
-0.298028 0.116255 0.980787 100 79 86 
-0.292404 0.00829648 0.989848 56 43 53 
-0.289041 -0.0108601 0.989585 76 62 77 
-0.261994 0.194865 0.876595 25 21 22 
-0.234208 -0.163245 0.985008 94 61 80 
-0.219026 -0.165299 0.979016 82 56 67 
-0.206978 -0.192131 0.976748 97 66 82 
-0.138896 0.13647 0.588974 80 47 64 
-0.170448 0.161443 0.664391 75 51 67 
0.292935 0.0264793 0.77083 139 116 132 
-0.425698 -0.20007 1.05785 131 107 121 
-0.257596 0.110231 0.885958 44 38 42 
-0.146936 0.198102 0.57743 44 35 54 
-0.247362 -0.211725 0.994841 75 51 64 
-0.109789 -0.0666885 0.887501 107 69 82 
-0.0580097 0.133231 0.81642 59 47 51 
0.271573 -0.289203 0.809438 71 53 75 
0.283528 0.0458276 0.772061 91 66 88 
0.297144 -0.28736 0.799539 134 116 140 
0.335142 -0.278751 0.784106 88 66 87 
-0.409618 0.0142935 1.03193 66 53 73 
-0.377018 -0.17918 1.0392 62 47 66 
-0.293728 0.12612 0.896624 128 81 97 
-0.285966 0.18748 0.884555 35 25 26 
-0.278081 -0.141352 0.999732 41 29 39 
-0.277764 -0.131179 0.998344 76 59 77 
-0.134921 0.213149 0.62123 227 233 255 
-0.0454956 0.122349 0.806265 89 62 67 
0.0801945 -0.0532247 1.22982 129 73 86 
0.0474369 -0.0792689 0.838211 126 84 96 
0.140506 -0.189957 0.850274 96 71 92 
0.157945 -0.263436 0.849865 113 82 98 
0.22422 -0.22735 0.823859 89 66 82 
0.226438 0.0721753 0.793346 38 30 41 
0.248576 -0.116791 0.801688 83 71 91 
-0.427124 0.0967039 1.02838 127 119 143 
-0.424879 -0.171584 1.05358 85 62 80 
-0.419338 0.156137 1.01947 114 108 136 
-0.405076 0.197314 1.01067 109 104 124 
-0.400082 0.221891 0.999572 104 94 102 
-0.404096 -0.0481794 1.03525 125 110 131 
-0.399491 0.0709639 1.02169 61 53 68 
-0.37539 -0.0879493 1.02582 70 52 74 
-0.341858 -0.215754 1.02963 66 52 67 
-0.33347 0.186561 0.986314 61 44 54 
-0.316718 0.164418 0.985409 35 26 31 
-0.317314 -0.0957339 1.00808 67 49 71 
-0.313005 0.141077 0.984947 26 20 24 
-0.309422 0.162992 0.978449 42 29 36 
-0.310816 -0.163869 1.01191 71 45 54 
-0.303592 0.104525 0.982854 43 31 35 
-0.296843 0.204757 0.886693 138 95 115 
-0.288985 -0.217168 1.00926 78 63 82 
-0.280722 0.00641478 0.985102 105 94 110 
-0.28065 -0.0279169 0.986797 134 114 126 
-0.276391 0.205836 0.876011 50 39 47 
-0.27494 0.190184 0.880583 40 31 32 
-0.266395 0.205628 0.871648 54 43 49 
-0.255622 0.00977481 0.96908 82 39 46 
-0.258307 0.0918035 0.903232 79 53 54 
-0.261278 0.229585 0.850717 90 98 119 
-0.252875 0.172345 0.873696 43 21 23 
-0.241696 0.0240253 0.932696 66 28 27 
-0.262067 0.215281 0.690626 102 103 123 
-0.227888 0.0229151 0.928865 109 60 66 
-0.219516 -0.0284127 0.919231 81 38 55 
-0.20572 -0.140461 0.971337 80 56 70 
-0.239089 0.179497 0.712935 53 32 37 
-0.196037 -0.217461 0.977136 133 116 135 
-0.198626 -0.0508203 0.926273 66 24 28 
-0.233093 0.114163 0.681226 87 45 49 
-0.185161 0.0233114 0.915991 58 23 27 
-0.17484 -0.216102 0.968985 75 51 77 
-0.179934 -0.0958946 0.913638 69 31 42 
-0.170156 -0.13527 0.907521 120 66 79 
-0.158056 -0.154868 0.904509 118 70 86 
-0.152443 -0.0671298 0.913656 46 23 31 
-0.147088 -0.0780246 0.913042 69 33 33 
-0.158897 -0.216872 0.872287 116 60 71 
-0.145637 0.00342327 0.904785 56 29 38 
-0.146068 0.0544456 0.898325 48 25 31 
-0.130314 -0.0713895 0.880521 126 83 102 
-0.12447 0.0184254 0.876139 70 38 53 
-0.1803 0.112542 0.661758 107 56 65 
-0.113414 -0.0409875 0.874184 102 74 97 
-0.105726 0.0951575 0.830692 70 42 57 
-0.0913942 -0.18596 0.864964 112 80 103 
-0.0843204 0.0207164 0.854038 86 56 46 
-0.0825375 0.0207717 0.836862 180 173 155 
-0.167129 0.205313 0.572291 116 124 143 
-0.0684135 -0.0626712 0.874925 106 86 62 
-0.0670022 -0.0769493 0.878221 109 69 80 
-0.0706481 -0.189823 0.856484 76 40 54 
-0.0659015 -0.139049 0.860891 138 91 109 
-0.0543157 -0.030758 0.85843 196 184 160 
-0.130201 0.215734 0.627098 221 231 255 
-0.0377454 0.139136 0.846343 60 47 56 
-0.0410516 -0.154737 0.840868 66 31 35 
-0.110406 0.174601 0.639034 93 58 80 
-0.107985 0.139842 0.641491 78 42 54 
0.657317 0.0406478 2.37658 80 42 53 
-0.00721164 0.00526281 0.832128 60 33 40 
-0.00702989 0.0568061 0.827918 63 33 43 
-0.0917346 0.158312 0.633203 87 50 67 
0.00234513 0.0601177 0.825251 85 48 66 
0.0332563 -0.176703 0.833527 69 36 45 
0.0465285 -0.100137 0.83902 117 81 95 
0.101788 -0.215762 0.865315 134 119 140 
0.090588 -0.0534223 0.80506 67 28 33 
0.0120509 0.165584 0.644237 149 105 122 
0.134277 -0.0750359 0.838748 100 71 89 
0.141265 -0.045334 0.832671 102 64 89 
0.145387 -0.138707 0.840037 99 72 89 
0.100607 0.110473 0.752627 91 57 71 
0.121306 0.0719975 0.770499 156 102 116 
0.146792 0.130177 0.72831 65 35 35 
0.224672 -0.0432804 0.802502 123 104 124 
0.232689 -0.246314 0.818579 86 63 91 
0.229041 -0.068851 0.804156 78 51 70 
0.243936 0.0462438 0.786565 85 61 74 
0.242562 0.0703556 0.78277 118 101 117 
0.261226 -0.285116 0.812954 122 109 139 
