ply
format ascii 1.0
comment PCL generated
element vertex 1159
property float x
property float y
property float z
property uchar red
property uchar green
property uchar blue
element face 0
element camera 0
property float view_px
property float view_py
property float view_pz
property float x_axisx
property float x_axisy
property float x_axisz
property float y_axisx
property float y_axisy
property float y_axisz
property float z_axisx
property float z_axisy
property float z_axisz
property float focal
property float scalex
property float scaley
property float centerx
property float centery
property int viewportx
property int viewporty
property float k1
property float k2
end_header
-0.78696698 -0.97078502 5.5569301 28 36 35
-0.77062798 -0.96643901 5.5359201 26 32 32
-0.122421 -1.0103 5.7501798 39 45 40
-0.117804 -1.0029401 5.7500801 43 48 44
-0.1121 -1.01096 5.7526798 50 56 54
-0.107697 -1.0032099 5.7508998 53 58 56
-0.103363 -1.0089999 5.7428002 53 59 57
-0.063240997 -1.0089999 5.7750201 55 62 62
-0.053973 -1.00832 5.7722998 55 62 62
-0.0319198 -1.01053 5.7810898 45 52 53
-0.024576399 -1.01147 5.7824302 49 56 56
0.0057466198 -1.01609 5.7877002 42 46 44
0.0113527 -1.0106699 5.7898402 18 22 21
0.0258596 -1.01744 5.7998099 15 20 18
0.034801599 -1.01272 5.7988701 34 38 37
0.0343506 -1.01774 5.8006701 30 35 33
0.0429026 -1.01368 5.8039498 64 69 68
0.0704199 -1.01552 5.79883 58 64 64
0.0795983 -1.0150599 5.7971501 51 58 57
0.099465802 -1.01946 5.8143301 47 54 55
0.107521 -1.01615 5.8006201 44 52 51
0.112288 -1.02183 5.8305898 40 48 48
0.195774 -1.0228699 5.8387599 49 56 54
0.208481 -1.02184 5.84377 39 46 45
0.23651101 -1.01946 5.8460698 45 52 52
0.24455699 -1.02378 5.8522501 51 58 57
0.32058901 -1.0224299 5.84478 59 67 68
0.334135 -1.02343 5.8594899 73 82 83
0.34045699 -1.02943 5.8663201 73 82 84
-1.07249 -0.93723702 5.4032302 65 71 64
-1.06889 -0.93326497 5.3894401 64 69 63
-0.78302997 -0.95968401 5.5299902 31 38 38
-0.78012699 -0.954202 5.5176702 31 39 39
-0.77702802 -0.95937401 5.5342202 28 35 36
-0.76630402 -0.96065497 5.5301099 27 33 33
-0.123488 -0.994739 5.74649 40 45 40
-0.104436 -0.993756 5.7449498 50 56 54
-0.070557103 -1.00515 5.77775 55 62 62
-0.0273237 -1.0033799 5.78405 49 55 56
-0.020496299 -1.0046901 5.7883501 55 61 61
-0.020633699 -1.00489 5.7880301 55 61 61
0.0041446602 -1.0033799 5.7954102 44 49 46
0.029795401 -1.00567 5.7905402 19 24 22
0.046472199 -1.00665 5.8062301 64 69 68
0.066966198 -1.00585 5.78757 58 63 63
0.077169403 -1.00646 5.8011498 50 57 56
0.086649701 -1.00831 5.7989302 48 54 54
0.102961 -1.00971 5.8134098 44 52 52
0.1116 -1.00947 5.8137999 41 49 49
0.192423 -1.01429 5.8317699 53 60 59
0.204226 -1.01406 5.8413601 39 46 45
0.227256 -1.01947 5.8516002 42 49 48
0.328365 -1.0170799 5.8544698 68 76 79
-1.08392 -0.92741102 5.40134 68 74 69
-1.07885 -0.93238902 5.4089799 62 67 62
-0.118245 -0.98950797 5.7394199 39 44 40
-0.070785299 -0.99443299 5.7707701 55 62 61
-0.064691402 -0.998757 5.7809801 58 65 64
-0.054588299 -0.99359101 5.77356 56 63 62
-0.047478002 -0.99514502 5.7806602 51 58 57
-0.035655301 -0.992966 5.77601 48 54 54
-0.0283967 -0.99393398 5.7817202 52 58 58
-0.0154367 -0.99594003 5.7837 56 62 60
-0.0063315602 -0.99599499 5.7842302 61 66 65
0.0120949 -0.996773 5.7870898 19 23 20
0.025884699 -0.99729002 5.7846799 19 24 21
0.034366801 -0.99474198 5.7929301 29 34 31
0.042942598 -0.99574101 5.7996001 59 63 61
0.048675202 -0.99726701 5.7999601 59 63 62
0.062369499 -0.99968302 5.7975898 55 60 59
0.0615994 -1.00047 5.8020601 55 61 59
0.073417798 -0.99834698 5.79461 52 58 56
0.0864143 -1.0017 5.7995601 46 53 51
0.096940801 -1.00339 5.8113899 47 54 54
0.0963284 -1.0033799 5.8133302 47 54 54
0.104961 -0.99839902 5.8183799 41 48 49
0.197235 -1.0051 5.8350101 50 57 57
0.20998999 -1.00594 5.83845 35 43 42
0.220369 -1.00574 5.8391299 40 48 48
0.229211 -1.00948 5.8473201 40 47 46
0.23812599 -1.00989 5.8445902 46 53 52
0.33090001 -1.00806 5.8682499 69 78 81
0.335437 -1.0106699 5.8515401 72 81 83
-1.08901 -0.92230701 5.3962898 69 75 71
-1.0785 -0.92021 5.4036498 54 59 53
-0.78669399 -0.94682902 5.5282302 32 39 40
-0.118691 -0.97747999 5.7384 39 44 39
-0.106037 -0.98424602 5.74753 52 57 56
-0.073964499 -0.98523802 5.76966 51 58 57
-0.080223396 -0.98354 5.7638998 49 55 54
-0.063808396 -0.990565 5.78193 57 64 63
-0.050604898 -0.98629397 5.77387 54 61 61
-0.0398205 -0.98557597 5.7762499 52 58 57
-0.032432899 -0.98636001 5.7807102 53 59 58
-0.0226992 -0.98615003 5.77879 57 63 62
0.00555073 -0.989052 5.78894 38 43 40
0.030676501 -0.98633599 5.78372 20 26 22
0.0417285 -0.99207503 5.7964401 57 61 60
0.082966998 -0.99339098 5.7944002 43 50 49
0.092809997 -0.99435002 5.80405 44 52 51
0.104881 -0.98745298 5.8037801 39 47 47
0.113183 -0.987315 5.8049998 37 45 45
0.19417401 -0.99584299 5.8236499 53 61 59
0.209457 -0.99623603 5.8316498 36 44 44
0.233511 -0.99984902 5.8391199 40 47 47
0.331613 -1.00128 5.8683701 69 77 80
0.33761799 -1.0024 5.8720002 72 81 84
-1.09323 -0.91385001 5.4154201 62 68 64
-1.08469 -0.916044 5.40414 60 65 60
-1.07275 -0.91403598 5.41643 31 36 31
-0.79146302 -0.94008398 5.5423598 31 39 40
-0.77230603 -0.93560898 5.5155602 29 36 37
-0.35195601 -0.96465898 5.6785002 38 43 40
-0.343059 -0.96369201 5.67694 41 46 44
-0.124828 -0.97304201 5.7373199 41 46 40
-0.114117 -0.97078598 5.7456799 48 53 51
-0.10713 -0.97390503 5.7470002 53 58 57
-0.076779403 -0.97606802 5.7679501 52 59 58
-0.069564998 -0.97706503 5.76964 55 62 62
-0.062079299 -0.981686 5.7740502 60 67 67
-0.044409599 -0.97846901 5.7781501 58 64 63
-0.0281549 -0.97879797 5.7785902 56 62 60
-0.017891301 -0.97857702 5.7783399 57 63 62
-0.00226798 -0.97515899 5.7797999 61 67 65
-0.00595603 -0.98237002 5.7792201 59 65 63
0.0129625 -0.98257899 5.7824898 19 24 19
0.033973299 -0.97607201 5.7831802 25 30 27
0.038758699 -0.98422003 5.7943401 50 55 52
0.038107902 -0.984016 5.79389 47 52 49
0.0460057 -0.98073798 5.7921901 64 68 67
0.046277899 -0.97911298 5.7929502 64 68 66
0.10885 -0.98011601 5.80509 37 45 45
0.19889 -0.98676801 5.8252301 44 51 50
0.20597699 -0.98851502 5.8322601 37 45 44
0.32373801 -0.98901701 5.8601198 67 76 77
0.332102 -0.98969901 5.86765 69 78 80
0.341382 -0.99273598 5.85954 71 80 83
-1.08363 -0.903162 5.3965602 58 64 60
-1.08038 -0.90978497 5.4119802 50 55 50
-0.78452098 -0.92931801 5.5420198 34 41 42
-0.78631598 -0.93147397 5.5433698 33 40 41
-0.77264798 -0.92929298 5.5346999 27 34 35
-0.61927098 -0.93890601 5.5827298 34 39 37
-0.37020999 -0.94706202 5.64644 39 44 39
-0.34620601 -0.955347 5.67031 39 43 41
-0.33795699 -0.954458 5.6673899 41 46 44
-0.15324 -0.959337 5.7306499 39 44 41
-0.108867 -0.963498 5.74506 52 57 56
-0.065849297 -0.96875602 5.76824 58 65 65
-0.057240199 -0.972601 5.76792 59 65 66
-0.0065172198 -0.96658701 5.7793798 62 68 66
0.0059513999 -0.97561699 5.7863798 38 43 40
0.0132824 -0.969657 5.7810602 23 29 23
0.026117601 -0.96967399 5.7785101 24 29 24
0.041670699 -0.97162902 5.7909098 56 60 58
0.041615602 -0.97351998 5.79211 57 61 59
0.076771297 -0.976053 5.8050499 45 51 51
0.089270197 -0.97623301 5.8173099 42 49 49
0.20373499 -0.979173 5.8246102 41 49 48
0.418697 -0.98525399 5.8539 72 81 85
0.42642 -0.98602998 5.8556499 77 87 91
-1.09127 -0.90004802 5.40449 68 74 71
-1.08708 -0.89611202 5.38907 69 75 72
-1.0798301 -0.89732599 5.4064598 42 47 41
-1.07119 -0.900738 5.4130702 21 27 23
-0.81017298 -0.92862803 5.5608702 61 68 72
-0.79255998 -0.91941202 5.5431199 47 54 56
-0.78120202 -0.91845602 5.5348301 36 43 45
-0.615614 -0.92197597 5.55832 38 43 42
-0.611471 -0.928882 5.5692701 36 41 39
-0.37442601 -0.94195497 5.6567302 34 39 34
-0.35151601 -0.94661802 5.66504 37 41 39
-0.34211701 -0.94671398 5.6631498 41 46 44
-0.338247 -0.93936402 5.6645999 42 48 45
-0.324626 -0.94461697 5.67275 41 46 45
-0.188199 -0.95600897 5.7581201 34 40 44
-0.140231 -0.95118898 5.7234802 41 47 42
-0.13111199 -0.95082498 5.7237301 41 47 42
-0.123551 -0.95837402 5.7374802 40 46 41
-0.113539 -0.95990598 5.7429399 49 54 51
-0.104861 -0.95313901 5.7365298 49 56 54
-0.095160797 -0.952075 5.74224 45 52 51
-0.079351999 -0.95978302 5.76615 48 55 54
-0.070508599 -0.96091801 5.7684398 53 60 60
-0.061777301 -0.95897299 5.78123 60 67 66
-0.025921701 -0.95725101 5.7652798 58 64 63
-0.0114232 -0.95908803 5.7793102 58 64 62
-0.0137854 -0.96015102 5.7835302 57 63 61
-0.0020147299 -0.95869702 5.7791901 58 63 61
0.0060386602 -0.95923603 5.78266 43 48 43
0.0151777 -0.95871198 5.7795501 31 37 30
0.030662101 -0.96180999 5.7754402 26 32 26
0.0377157 -0.96329403 5.7768998 36 41 38
0.050121699 -0.96125901 5.7895398 58 62 61
0.077613801 -0.96970201 5.8156199 46 52 52
0.0695756 -0.964329 5.7870498 52 56 56
0.20014399 -0.97153199 5.83253 47 54 53
0.208535 -0.968045 5.8271999 35 43 43
0.321123 -0.97490001 5.8372302 62 71 71
0.329721 -0.97641599 5.84972 65 74 75
0.42070001 -0.97831702 5.8717499 64 74 76
0.429934 -0.97940201 5.8706298 77 87 89
-1.08301 -0.88919801 5.3895702 66 71 68
-1.08182 -0.88762099 5.3882499 65 70 66
-1.07583 -0.89132398 5.4158502 23 29 24
-0.80395901 -0.91773802 5.5503302 67 74 78
-0.78419101 -0.90868503 5.52742 45 52 54
-0.61053002 -0.916067 5.5693498 42 47 46
-0.60794199 -0.914738 5.55899 42 47 46
-0.39178199 -0.92968798 5.6371102 29 33 28
-0.38191199 -0.93317997 5.64817 30 34 29
-0.36594599 -0.93822801 5.6626701 35 40 36
-0.352431 -0.93116403 5.6637201 31 36 32
-0.356435 -0.93828797 5.6621099 35 40 36
-0.347148 -0.93790197 5.6582398 37 42 39
-0.34312999 -0.93013 5.6571298 33 38 35
-0.18847799 -0.95561898 5.8032999 33 39 43
-0.15938801 -0.94862801 5.73946 39 45 46
-0.150226 -0.946356 5.723 39 45 44
-0.13509101 -0.94361502 5.7234702 41 47 43
-0.125829 -0.94446898 5.7295098 34 40 35
-0.119367 -0.949054 5.7350702 39 44 41
-0.111608 -0.94967997 5.73564 45 52 49
-0.083843902 -0.94980597 5.7554498 45 51 51
-0.0755224 -0.95044702 5.75879 47 53 53
-0.063430198 -0.94908899 5.7686601 54 61 60
-0.053569902 -0.94889301 5.7682199 55 62 61
-0.042795699 -0.94945902 5.7746 42 48 46
-0.0300772 -0.94966 5.7634101 49 55 53
-0.0218408 -0.94998699 5.7659101 52 58 56
-0.0141536 -0.95061803 5.7713799 55 61 59
-0.00602757 -0.95095098 5.77496 59 64 62
0.00270805 -0.95109701 5.7793498 45 50 46
0.0101382 -0.95185798 5.78263 32 37 31
0.035458099 -0.954207 5.7741199 31 36 32
0.035470501 -0.95271498 5.7757802 33 38 33
0.0427243 -0.95521599 5.7740002 49 53 51
0.051113199 -0.95392501 5.7797899 56 61 59
0.0586669 -0.95546401 5.79252 53 57 56
0.053094801 -0.95387501 5.7880802 55 59 57
0.065735899 -0.95571202 5.7915401 52 56 55
0.204257 -0.95880598 5.83287 38 46 46
0.315898 -0.96074802 5.80723 55 64 62
0.32464501 -0.96147799 5.8173199 58 67 65
0.42281699 -0.96765101 5.8685899 65 74 76
0.43012401 -0.96810502 5.86479 76 85 88
-1.08713 -0.88285202 5.3818002 75 81 79
-1.07952 -0.88238502 5.3987799 48 53 47
-0.79338002 -0.90444797 5.5264401 61 68 72
-0.78597802 -0.90351999 5.5314898 50 56 59
-0.611772 -0.90760201 5.5489898 40 46 45
-0.37367299 -0.92057002 5.6407599 34 38 34
-0.37230301 -0.92362303 5.6551399 32 37 32
-0.35694799 -0.92312402 5.6607599 33 38 34
-0.212733 -0.941517 5.7652502 25 32 37
-0.201561 -0.94116002 5.7583499 20 27 32
-0.19278499 -0.94293302 5.7564602 21 29 34
-0.117631 -0.94053102 5.7379298 32 38 35
-0.109854 -0.94093198 5.7370601 41 47 45
-0.095222197 -0.94275498 5.73699 44 51 50
-0.050863199 -0.94456601 5.7650199 40 46 45
0.0063338098 -0.94405198 5.7814398 29 34 29
0.033580601 -0.94484699 5.7722301 34 39 33
0.041226201 -0.946073 5.7747698 41 46 41
0.055846799 -0.94670999 5.7831202 52 57 54
0.063129701 -0.948448 5.7972102 50 55 54
0.075077198 -0.95107198 5.80509 45 50 49
0.217557 -0.94949502 5.82198 35 43 44
0.32365 -0.95248401 5.8233099 52 60 59
0.33202299 -0.95261902 5.83425 55 64 63
0.41279599 -0.95844501 5.87363 63 72 75
0.42087099 -0.95752501 5.8706298 69 78 79
0.42811701 -0.95930898 5.8675299 71 80 83
-1.0887901 -0.87147897 5.3825498 78 83 81
-1.08118 -0.874394 5.3775601 67 72 68
-1.07742 -0.87733501 5.4180398 31 37 32
-0.77972901 -0.89474398 5.5230298 47 53 57
-0.77120298 -0.89548302 5.52634 33 39 42
-0.62337899 -0.89706898 5.5447798 39 45 45
-0.61769199 -0.90224701 5.5496302 39 45 44
-0.60882598 -0.90841103 5.6015 45 50 49
-0.384056 -0.91885298 5.64008 37 41 36
-0.352431 -0.91559303 5.6589198 38 43 40
-0.34290001 -0.92268401 5.66327 36 42 39
-0.33618999 -0.91845399 5.6711102 39 44 43
-0.33716899 -0.91764998 5.6668401 38 44 42
-0.32925501 -0.92189199 5.70402 40 45 45
-0.32497799 -0.92931998 5.7149301 36 42 42
-0.21077199 -0.93053102 5.7579799 34 41 47
-0.19892 -0.92938602 5.7456002 32 39 44
-0.192324 -0.93340403 5.7672 31 38 43
-0.130136 -0.92570102 5.7251101 38 45 42
-0.122772 -0.92869902 5.7351198 35 41 38
-0.115079 -0.928702 5.7260098 34 41 37
-0.107716 -0.93129301 5.7329998 34 41 39
-0.100351 -0.93384397 5.7397499 39 45 43
-0.00118991 -0.933882 5.7737098 39 45 40
0.0230266 -0.93522298 5.7845302 36 41 35
0.035904799 -0.93573701 5.7704401 30 35 29
0.046959899 -0.93923301 5.77246 38 42 38
0.20256899 -0.94618702 5.8185 38 45 46
0.208387 -0.94572997 5.8313498 34 42 42
0.227562 -0.93923998 5.8125501 40 47 49
0.31376499 -0.94385099 5.8214898 50 57 56
0.335794 -0.95237303 5.86517 57 66 65
0.34564501 -0.95662898 5.8736401 65 74 75
0.39209899 -0.95069897 5.8588901 71 79 81
0.400722 -0.95016098 5.85747 66 74 77
0.42342901 -0.951729 5.8640299 70 79 82
-1.08047 -0.87014502 5.4015398 53 58 53
-1.0834 -0.86334097 5.38446 67 72 69
-1.072 -0.86875802 5.4166002 25 32 27
-0.77752101 -0.89041299 5.52144 42 48 51
-0.77626503 -0.88793099 5.5269699 38 43 47
-0.61896002 -0.89341497 5.55935 41 46 46
-0.61447299 -0.89909899 5.5722599 42 48 46
-0.60822701 -0.89548099 5.5807199 48 54 53
-0.600761 -0.89628297 5.5898099 52 57 57
-0.36587799 -0.90904599 5.6398101 38 43 40
-0.356713 -0.90681201 5.6494799 41 46 44
-0.34122401 -0.91196901 5.66225 33 39 37
-0.34794 -0.90818501 5.6577902 39 44 42
-0.33461699 -0.90801501 5.6718202 39 45 43
-0.32030901 -0.91447598 5.6998501 43 49 48
-0.311331 -0.91420001 5.6996498 40 47 47
-0.30944201 -0.919379 5.7252202 38 44 46
-0.203528 -0.923262 5.7537398 34 39 44
-0.19325399 -0.92114598 5.7457099 33 39 44
-0.16993301 -0.918944 5.7330899 35 42 47
-0.158547 -0.91635299 5.7234998 35 42 45
-0.14611199 -0.91815698 5.7322402 35 41 41
-0.119777 -0.91779602 5.7216601 39 45 42
-0.079973802 -0.92968202 5.7905598 44 50 48
-0.060465701 -0.92469501 5.7657599 54 60 59
-0.046144798 -0.928657 5.7554898 41 46 46
-0.043719999 -0.927939 5.7603202 42 48 48
-0.033930101 -0.92817903 5.7642498 45 50 49
-0.0233675 -0.92500401 5.7768998 60 65 65
-0.0142674 -0.92453998 5.7733598 62 68 67
-0.0058711199 -0.92501599 5.7723198 56 62 59
0.0025192101 -0.92422497 5.77071 49 56 52
0.0112039 -0.92446601 5.7713699 51 57 53
0.0268765 -0.92678201 5.7824602 40 47 41
0.0200512 -0.92533201 5.7774301 48 55 49
0.0378135 -0.92819101 5.7698102 37 43 37
0.22442301 -0.93048799 5.80897 40 47 49
0.32088199 -0.93751299 5.8373899 50 58 58
0.34501201 -0.94785702 5.87222 66 74 76
0.41881001 -0.94480401 5.8650398 72 81 85
0.43222499 -0.94721401 5.8709002 79 88 92
-1.08708 -0.85701698 5.3730698 77 82 81
-1.07867 -0.86477703 5.4194398 48 53 48
-0.78457302 -0.88336498 5.5240898 54 61 64
-0.772138 -0.87961501 5.52704 34 41 43
-0.76966703 -0.87819099 5.52562 33 40 42
-0.76545203 -0.88682997 5.5562301 36 42 43
-0.73640603 -0.89422297 5.5959702 40 46 44
-0.61797303 -0.88387698 5.5629802 42 48 47
-0.614923 -0.89081901 5.57792 44 50 49
-0.60270298 -0.88657999 5.5735502 59 64 64
-0.59410697 -0.89542699 5.6041398 50 55 55
-0.579404 -0.89379901 5.5950098 40 45 44
-0.36740699 -0.89995199 5.6310401 44 49 46
-0.34807399 -0.89586198 5.6447401 41 46 44
-0.34235099 -0.90157002 5.6581998 29 34 32
-0.32585001 -0.90065998 5.6552 41 48 46
-0.322395 -0.90601301 5.6911502 43 49 48
-0.313824 -0.90595299 5.6923699 41 48 49
-0.30713499 -0.90691102 5.7002902 39 45 47
-0.154209 -0.90915298 5.7281599 36 42 44
-0.140902 -0.91454101 5.7209902 37 43 42
-0.13658699 -0.91597301 5.7238998 40 46 44
-0.13630401 -0.915941 5.7244501 40 46 44
-0.125048 -0.90871203 5.7112799 41 47 45
-0.107385 -0.91319698 5.7540998 38 44 42
-0.080900498 -0.917009 5.76123 41 46 45
-0.073535398 -0.91838402 5.7741399 48 54 52
-0.062412798 -0.91594601 5.7656002 54 60 58
-0.047388501 -0.91948903 5.7524099 58 64 64
-0.037265498 -0.91968697 5.7560802 54 60 60
-0.0271855 -0.91985899 5.7603202 56 62 62
-0.0107416 -0.91638303 5.7600198 61 67 66
-0.00178437 -0.91689301 5.7706399 53 59 57
0.0155572 -0.916789 5.7691102 53 59 56
0.031275101 -0.91950798 5.7818398 40 47 42
0.0409563 -0.921812 5.7749801 42 48 43
0.0493218 -0.92190599 5.7723198 46 52 49
0.15814 -0.92228502 5.7916598 39 45 49
0.166706 -0.92304599 5.81113 51 57 60
0.203962 -0.920093 5.7986498 40 47 49
0.212001 -0.92148203 5.80514 35 42 45
0.22088601 -0.92153901 5.8043699 39 45 48
0.32492 -0.93102199 5.8337898 54 62 62
0.34360501 -0.93950599 5.8726802 67 76 77
0.42837399 -0.94014198 5.8740602 75 85 88
0.43648899 -0.93962502 5.8743601 78 87 90
-1.07875 -0.84636801 5.35778 74 78 77
-1.07252 -0.85587198 5.4152098 35 41 35
-0.79011798 -0.871719 5.52771 66 73 76
-0.77973801 -0.87457502 5.52144 49 56 58
-0.76122999 -0.87643301 5.5464201 37 43 45
-0.74316603 -0.88692802 5.5970402 41 48 46
-0.62360102 -0.87941998 5.5655999 41 47 47
-0.61187297 -0.87785101 5.5685701 47 53 53
-0.59270197 -0.88606399 5.5987 54 59 60
-0.58052498 -0.88516098 5.5903101 49 54 54
-0.35944501 -0.89088899 5.64324 44 49 47
-0.343261 -0.88900298 5.6490102 34 40 38
-0.337578 -0.89480698 5.6631298 30 37 35
-0.32014 -0.89308298 5.6559701 45 52 51
-0.195687 -0.89701498 5.7024002 37 43 46
-0.18986499 -0.904733 5.7045398 33 39 44
-0.18566 -0.89671201 5.6996999 37 43 47
-0.173474 -0.90504998 5.70783 34 40 46
-0.14461499 -0.90534401 5.7183199 39 46 45
-0.13767999 -0.90479702 5.7225199 42 47 46
-0.13719501 -0.90440798 5.7200398 42 47 46
-0.102351 -0.90451801 5.74964 40 46 44
-0.083034799 -0.90818298 5.7631698 40 46 44
-0.052171499 -0.91176802 5.74927 59 65 65
-0.047734398 -0.90438497 5.7495499 59 65 65
-0.0308796 -0.91160601 5.7537098 58 64 64
-0.0297359 -0.911412 5.7599802 59 65 64
-0.00523096 -0.90859199 5.7607002 59 66 64
0.024996201 -0.91390097 5.7774701 49 55 51
0.0295527 -0.90936798 5.7835898 45 51 48
0.0472041 -0.91241598 5.7648001 50 56 53
0.0472553 -0.91376501 5.7754798 51 57 54
0.053031601 -0.91490698 5.7775302 51 57 56
0.16052701 -0.91495001 5.76931 43 49 53
0.188704 -0.91908699 5.7988701 52 59 60
0.196144 -0.919195 5.79459 46 53 54
0.293515 -0.92637599 5.8408899 47 54 55
0.300751 -0.92405599 5.8309302 48 56 56
0.310974 -0.92441899 5.8352299 54 62 61
0.321372 -0.92313898 5.83073 56 64 63
0.338191 -0.92133802 5.8557401 69 79 80
0.33212301 -0.92398101 5.8396401 64 73 73
0.34200701 -0.929048 5.85707 69 78 80
0.427549 -0.92396301 5.8710799 73 82 84
-1.08766 -0.84414601 5.3723302 76 80 80
-1.07556 -0.83986098 5.36834 67 71 68
-1.07315 -0.84709901 5.3882699 56 59 55
-1.06739 -0.84232098 5.3884602 48 52 46
-0.78223598 -0.86216098 5.5162301 56 62 66
-0.74914402 -0.86500198 5.55055 43 50 50
-0.73926699 -0.87589997 5.5728698 42 49 47
-0.61808002 -0.87376499 5.5717502 44 49 50
-0.58933097 -0.87787998 5.5961499 58 63 65
-0.57677001 -0.87669098 5.5860901 42 48 46
-0.49946401 -0.87569398 5.6195698 34 39 33
-0.33546099 -0.88351297 5.6615701 39 45 45
-0.33056399 -0.88980401 5.6674299 42 49 48
-0.32006699 -0.88219601 5.65938 45 52 53
-0.208406 -0.88823402 5.6690502 35 41 43
-0.18092 -0.88865101 5.6945 39 46 48
-0.173507 -0.88944697 5.70541 37 44 46
-0.169985 -0.897524 5.7103601 38 44 48
-0.147874 -0.89580798 5.71349 39 45 45
-0.13346501 -0.88889402 5.6914001 43 49 47
-0.129878 -0.891119 5.7121701 43 50 48
-0.104635 -0.89524901 5.74053 39 45 43
-0.076256402 -0.89990002 5.7533698 41 47 46
-0.067594998 -0.90355802 5.7602301 49 55 54
-0.0591943 -0.90515602 5.7629199 57 63 62
-0.0098644895 -0.90077001 5.75001 63 69 67
0.00028199999 -0.90008497 5.7568102 48 54 52
0.0153479 -0.90716702 5.7719998 55 61 59
0.019453101 -0.89968997 5.7709599 55 60 58
0.026663899 -0.90074098 5.7769198 47 53 51
0.048761401 -0.90211701 5.7726302 52 59 57
0.118358 -0.90949601 5.7897801 40 47 48
0.16152699 -0.91038901 5.7936902 47 53 56
0.17531499 -0.904966 5.8034 57 64 66
0.172631 -0.90816402 5.79597 53 60 62
0.182238 -0.91000098 5.8048301 53 60 62
0.191091 -0.90906298 5.7966299 48 56 57
0.198533 -0.91188997 5.8041201 44 52 54
0.21066201 -0.91364098 5.8169298 36 43 46
0.22285201 -0.911367 5.809 40 48 51
0.25258601 -0.91437 5.8370399 43 52 52
0.302701 -0.908144 5.8245602 51 59 59
0.29427201 -0.90092599 5.7800598 46 55 55
0.30663899 -0.91626602 5.8295999 53 60 61
0.31746101 -0.91572601 5.8304901 58 66 65
0.332351 -0.91450602 5.83424 66 74 75
0.343476 -0.91263098 5.8523698 69 78 80
0.40489799 -0.915555 5.8559599 69 78 81
0.43230599 -0.91797 5.8752198 71 81 83
0.43985799 -0.92281902 5.8807302 80 90 92
-1.07935 -0.83364099 5.3576598 72 76 75
-1.0704401 -0.83562797 5.3771601 60 64 59
-0.78699201 -0.85561502 5.5013599 67 74 78
-0.77734798 -0.85436302 5.5149102 46 52 55
-0.749268 -0.85748702 5.5295701 41 48 49
-0.730847 -0.86142498 5.5342898 42 48 47
-0.62263 -0.86389899 5.5588899 41 46 47
-0.61804497 -0.86117202 5.5665002 42 48 48
-0.61256599 -0.86650699 5.5740499 49 55 55
-0.60114998 -0.85911697 5.5637798 56 61 62
-0.58424902 -0.86868203 5.5876498 54 59 61
-0.57394701 -0.86900097 5.5862799 39 45 44
-0.493644 -0.86765403 5.6156001 34 38 32
-0.48353201 -0.871943 5.60812 34 39 32
-0.34644201 -0.87543303 5.6412601 41 46 45
-0.34143099 -0.87848699 5.6563101 34 39 39
-0.32899001 -0.87753999 5.6616302 44 50 51
-0.31134999 -0.88192803 5.6612902 45 52 54
-0.21234199 -0.88391501 5.6866102 36 42 43
-0.204182 -0.87992001 5.6901302 38 45 46
-0.195492 -0.88592201 5.6901302 38 45 46
-0.18399701 -0.88010502 5.6856699 41 48 50
-0.140971 -0.88492203 5.7316298 41 48 46
-0.089411102 -0.893911 5.7484002 39 45 44
-0.063023798 -0.89537698 5.76052 50 56 54
-0.054730099 -0.89553797 5.75844 58 64 63
-0.0126172 -0.89362901 5.7528701 64 70 68
-0.0035407301 -0.88897198 5.7501402 54 60 58
0.00488406 -0.88893503 5.7541099 46 52 49
0.0130934 -0.88989598 5.7643399 49 55 53
0.018110599 -0.89031202 5.76721 53 59 57
0.031157 -0.89924699 5.7738299 44 51 49
0.042832602 -0.89530301 5.7630401 47 53 52
0.127285 -0.893893 5.7865801 41 48 50
0.120718 -0.89454103 5.75946 43 49 50
0.16085599 -0.90128702 5.7926998 49 55 58
0.189174 -0.89891601 5.8002801 49 57 59
0.196136 -0.90129602 5.79706 45 53 54
0.210685 -0.90465599 5.8200798 37 45 47
0.21828 -0.900877 5.81424 38 46 48
0.226972 -0.90056902 5.8076301 41 49 52
0.242 -0.89985597 5.8256798 41 49 52
0.246942 -0.90747899 5.8333902 41 49 51
0.254935 -0.90244699 5.8401499 48 56 58
0.29752401 -0.90038902 5.8175402 50 58 58
0.307744 -0.89836103 5.8115401 54 62 62
0.32863399 -0.90668797 5.8315001 61 69 70
0.337953 -0.90324801 5.84588 67 77 79
0.409464 -0.90628701 5.8439798 70 79 81
0.42494899 -0.91262901 5.8643298 62 71 72
0.437231 -0.90860999 5.8724198 82 92 95
-1.06933 -0.83453101 5.4063201 48 53 48
-1.06787 -0.833395 5.41186 38 42 37
-0.78656101 -0.85089701 5.51757 66 71 76
-0.62402397 -0.85243601 5.56389 42 48 49
-0.605775 -0.85290998 5.5688801 60 65 66
-0.581927 -0.85858703 5.5822401 55 59 62
-0.57149303 -0.85972297 5.5816598 40 46 46
-0.56712198 -0.86205798 5.5963898 45 50 49
-0.55846798 -0.858459 5.6048498 50 56 53
-0.477377 -0.86317003 5.6015801 35 39 31
-0.35158199 -0.86779898 5.6398602 44 49 48
-0.34285501 -0.86797303 5.6560798 32 38 38
-0.32749701 -0.867733 5.6709199 45 51 53
-0.13292401 -0.88404101 5.7368698 45 51 49
-0.101497 -0.88407302 5.7309499 44 49 48
-0.089557998 -0.88379902 5.7386398 44 50 49
-0.075186901 -0.88686597 5.75214 42 48 47
-0.058287501 -0.88734001 5.7583699 50 56 55
-0.049431998 -0.88713598 5.75419 58 64 63
-0.0296303 -0.88643199 5.7512698 61 67 67
-0.021777401 -0.88622701 5.7516999 61 67 66
-0.0070247701 -0.88115197 5.7476702 55 61 60
0.00140151 -0.880952 5.7505698 47 53 51
0.0098239202 -0.88074899 5.7534299 47 53 50
0.0296726 -0.889983 5.7708001 44 50 48
0.040059999 -0.888219 5.7691898 48 54 52
0.048429899 -0.88687497 5.7751498 52 59 57
0.112522 -0.88415098 5.7616 46 53 54
0.120566 -0.886518 5.7719498 46 52 54
0.136035 -0.89220703 5.7999401 39 46 49
0.149225 -0.88656801 5.7912998 47 54 58
0.162792 -0.88816202 5.7908001 51 58 61
0.175758 -0.89483303 5.7978401 56 63 65
0.17960501 -0.88755101 5.8032498 57 64 67
0.19464 -0.892627 5.8042798 47 54 56
0.20182 -0.896034 5.8076501 41 49 51
0.211474 -0.895428 5.81318 39 47 48
0.23724701 -0.89164799 5.8149199 43 50 54
0.25003099 -0.89487702 5.8337202 45 53 56
0.27386299 -0.89432901 5.8420501 46 54 57
0.30766699 -0.893938 5.8150702 54 62 61
0.320728 -0.89303303 5.82054 58 66 66
0.33731499 -0.89459503 5.84548 67 76 79
0.407341 -0.89782298 5.8508301 71 80 82
0.41621801 -0.897035 5.8432398 66 75 77
0.429856 -0.90496999 5.8722 72 81 84
-1.0780801 -0.82355303 5.39852 68 72 69
-1.0684 -0.82479101 5.4060402 35 40 36
-0.850492 -0.838673 5.51302 92 99 106
-0.61157697 -0.84498799 5.5698199 56 61 63
-0.60230601 -0.84309602 5.55797 61 66 69
-0.580468 -0.84914702 5.58077 58 63 66
-0.56264102 -0.85145599 5.6044998 53 59 58
-0.50350201 -0.85705501 5.6268001 47 52 46
-0.49255201 -0.85773498 5.6206298 40 44 38
-0.48311701 -0.85886699 5.6165099 40 44 38
-0.35341501 -0.85578901 5.6378598 44 50 48
-0.349233 -0.85866398 5.6311798 43 48 47
-0.34299201 -0.86347097 5.6591601 33 39 39
-0.21586099 -0.861498 5.6816702 42 48 52
-0.211669 -0.868828 5.6894202 41 47 50
-0.136333 -0.874246 5.7376399 45 51 50
-0.126647 -0.86999899 5.72751 49 55 54
-0.101639 -0.87450498 5.7288198 50 55 55
-0.089689903 -0.874268 5.7369299 50 56 56
-0.078735098 -0.87441099 5.7420902 48 54 53
-0.071674399 -0.87166101 5.73946 49 55 55
-0.058947701 -0.87741399 5.7452898 46 52 52
-0.052304599 -0.87857503 5.7504802 52 58 58
-0.0427824 -0.87794501 5.7488098 58 64 64
-0.034550101 -0.87866598 5.7516499 58 64 64
-0.026168499 -0.87899297 5.7515702 58 64 64
0.0295309 -0.879807 5.7616301 45 52 49
0.044464301 -0.87914801 5.7692099 47 53 52
0.061889 -0.87496001 5.7727499 51 58 59
0.071216099 -0.87603003 5.7749701 51 57 60
0.101457 -0.87657201 5.78017 48 55 57
0.112689 -0.87670898 5.7781401 50 56 59
0.120658 -0.87809998 5.7823801 47 54 57
0.13349199 -0.882828 5.7909598 41 47 51
0.142885 -0.87988698 5.7959599 50 56 60
0.15774199 -0.88168198 5.7873702 49 57 60
0.171946 -0.88458598 5.79494 55 63 65
0.189215 -0.88010103 5.8004398 53 61 63
0.215692 -0.88689399 5.8088198 41 49 51
0.225701 -0.885894 5.8150301 43 51 54
0.245162 -0.887187 5.82623 44 52 55
0.25823 -0.88910902 5.83743 52 60 63
0.30091801 -0.88750899 5.8171101 52 61 61
0.31621501 -0.884431 5.8203502 56 65 65
0.32681799 -0.888946 5.83886 61 71 72
0.33505601 -0.88761002 5.8538098 68 77 79
0.402859 -0.88967001 5.8489699 73 81 86
0.41133499 -0.88998097 5.8485899 70 79 81
0.420048 -0.88984901 5.84483 63 72 74
0.43787199 -0.88910198 5.8499498 80 90 93
-1.07629 -0.81349301 5.3911099 69 73 70
-1.06822 -0.81255102 5.4051499 24 28 26
-1.0569299 -0.81687099 5.4307899 23 27 24
-0.85066098 -0.82920599 5.5057502 77 81 84
-0.838938 -0.83333302 5.5054898 86 92 98
-0.83725399 -0.832313 5.4986601 85 92 98
-0.59117401 -0.83443499 5.55896 62 67 68
-0.583161 -0.83628702 5.5710702 61 66 67
-0.50357801 -0.84901601 5.6352801 48 53 48
-0.50477201 -0.852992 5.6803699 45 49 43
-0.46154499 -0.85208899 5.66085 46 51 44
-0.44710901 -0.84836298 5.6465402 48 52 47
-0.35692799 -0.85233599 5.6515799 46 51 50
-0.348537 -0.85187203 5.6448202 43 49 48
-0.140654 -0.865444 5.7508202 46 51 50
-0.13076501 -0.866503 5.73456 49 55 54
-0.103795 -0.86529702 5.71874 48 53 53
-0.094425902 -0.86268997 5.7249699 54 59 60
-0.058731299 -0.862831 5.7449799 50 56 55
-0.054536201 -0.869973 5.74437 48 53 53
-0.039303198 -0.87041497 5.7481699 54 60 60
-0.031058 -0.87081498 5.7491102 55 61 61
-0.0220496 -0.870399 5.7449899 53 59 59
-0.0134381 -0.86951202 5.7417898 49 55 54
-0.0052073998 -0.86914802 5.7421198 46 52 51
0.0031071601 -0.86930102 5.7466102 44 50 48
0.0138183 -0.86781901 5.75073 48 54 52
0.022418501 -0.86937898 5.7574902 49 55 53
0.026595401 -0.872913 5.7694101 48 54 52
0.039434999 -0.871975 5.7581 44 50 49
0.045292899 -0.86644298 5.77039 48 54 53
0.046816401 -0.87437999 5.77139 47 54 53
0.053266 -0.86784703 5.7761998 51 57 58
0.0630638 -0.86722898 5.7754002 53 60 62
0.074743301 -0.86671102 5.7665901 54 61 64
0.084081203 -0.87143701 5.7589998 49 56 58
0.1184 -0.872289 5.7827101 50 56 59
0.131152 -0.87386101 5.7846699 44 51 54
0.14059301 -0.87117201 5.7912998 55 61 66
0.16028599 -0.868855 5.7880902 56 62 67
0.15365 -0.87502003 5.7950902 49 56 60
0.174189 -0.87631798 5.7972202 61 67 72
0.181863 -0.878497 5.8029599 59 66 70
0.224636 -0.87632 5.8088899 45 53 56
0.248345 -0.87420303 5.8230901 48 56 59
0.24576201 -0.87434 5.8253999 48 56 58
0.257195 -0.87402701 5.82303 55 62 66
0.26636001 -0.883295 5.8425598 51 59 63
0.30689299 -0.87540603 5.8171601 59 67 70
0.32393399 -0.88005298 5.8335099 58 68 70
0.336523 -0.87523699 5.8301702 70 79 83
0.333653 -0.877671 5.8422899 68 77 81
0.353008 -0.87285602 5.8054099 72 82 85
0.40659401 -0.88366199 5.85712 73 82 85
0.42402399 -0.88412201 5.8557 62 71 73
0.43741 -0.88090801 5.8506899 77 87 89
-1.07366 -0.80764902 5.40207 39 42 39
-1.05269 -0.811234 5.4411402 51 55 52
-0.85719001 -0.82131398 5.5042801 32 33 32
-0.83989698 -0.81879199 5.50282 42 45 46
-0.84160602 -0.82456398 5.5005698 55 58 59
-0.614012 -0.82993799 5.58108 37 40 40
-0.508506 -0.85643399 5.7263098 46 50 44
-0.48750901 -0.853001 5.7351298 46 51 44
-0.461647 -0.84642899 5.67589 48 52 46
-0.44712999 -0.84258002 5.6605501 49 53 48
-0.133938 -0.85683799 5.73949 48 54 53
-0.103613 -0.858603 5.7308402 49 54 55
-0.0951012 -0.855452 5.7256498 54 60 60
-0.063986801 -0.85572702 5.7373199 58 64 63
-0.067437597 -0.86041498 5.7404199 55 61 60
-0.050033201 -0.85560203 5.7488599 52 57 57
-0.042675 -0.85639 5.7565498 52 57 57
-0.0226967 -0.85829502 5.7568498 49 54 53
0.00188493 -0.85882998 5.7561302 46 51 50
0.0141883 -0.85576397 5.7565298 54 60 58
0.020899501 -0.86038202 5.7614498 51 57 55
0.0362208 -0.85833502 5.7692399 48 54 53
0.0462339 -0.86299098 5.7734799 49 55 54
0.058035001 -0.86026901 5.7782798 55 61 63
0.081090197 -0.85907102 5.7627802 54 59 64
0.0903733 -0.86409402 5.7579999 50 56 60
0.104489 -0.86575401 5.7734799 51 57 61
0.128913 -0.86664802 5.7821102 48 54 58
0.128098 -0.862607 5.7790599 50 56 59
0.138734 -0.86355299 5.7867198 60 66 71
0.14721601 -0.86108202 5.7869 62 69 74
0.16784599 -0.863783 5.7992001 61 68 75
0.18338899 -0.86838502 5.8009501 59 65 72
0.25297099 -0.866476 5.82096 54 62 66
0.261812 -0.86633098 5.8210802 58 65 71
0.27066499 -0.86626703 5.82163 54 61 67
0.31848499 -0.86764199 5.7938299 60 68 71
0.32671899 -0.86298698 5.8021302 65 74 78
0.35700399 -0.86852998 5.8092999 73 82 87
0.40240899 -0.87521398 5.8530202 75 83 88
0.41173199 -0.87613398 5.8545098 72 80 84
0.421922 -0.877572 5.85886 62 71 73
0.43255401 -0.87776601 5.8637099 71 80 83
0.44120201 -0.873227 5.84832 80 89 92
-1.07576 -0.80009502 5.38625 52 56 52
-1.06177 -0.79979497 5.42693 24 27 26
-1.05795 -0.80599999 5.4380999 35 39 37
-0.87585503 -0.82161999 5.5317101 22 24 21
-0.84955901 -0.81803697 5.5082598 22 23 22
-0.62777197 -0.83166701 5.6136799 22 25 24
-0.594612 -0.82325 5.5795698 40 44 44
-0.58591199 -0.82302701 5.57868 43 47 48
-0.50091499 -0.84791398 5.7407298 29 32 26
-0.44933301 -0.84196001 5.7109199 39 42 38
-0.146814 -0.85385799 5.7613602 49 55 54
-0.13150901 -0.85110801 5.74895 50 56 55
-0.11428 -0.84968501 5.7285399 52 58 57
-0.101223 -0.84824902 5.7339702 49 55 54
-0.092824697 -0.84573799 5.7246699 57 62 62
-0.057231002 -0.85022998 5.7473798 57 62 62
-0.029735699 -0.84644598 5.7442398 56 61 60
-0.0063126702 -0.853549 5.7509198 48 54 53
0.0051988298 -0.85205501 5.76018 53 59 58
0.035643801 -0.85007203 5.7704101 52 58 58
0.0456562 -0.854765 5.7748699 52 58 58
0.084835097 -0.85023499 5.7712498 53 58 62
0.12502199 -0.85426998 5.7719998 51 57 60
0.132594 -0.854545 5.7774 55 61 65
0.14090499 -0.85120702 5.7716999 67 74 79
0.14904 -0.854684 5.7810001 65 72 78
0.162994 -0.85674 5.7935901 61 68 75
0.24566901 -0.86252099 5.8167801 49 58 60
0.32354799 -0.85894799 5.8204298 68 77 81
0.33624399 -0.86535197 5.8217802 70 79 85
0.362598 -0.86183798 5.8536 81 89 99
0.37281799 -0.85971498 5.8284602 78 87 95
0.402776 -0.86875403 5.8672299 76 85 90
0.41494399 -0.86718601 5.84867 68 77 81
0.42725301 -0.86953902 5.86098 69 78 81
0.425715 -0.86978799 5.86095 68 77 80
-1.07748 -0.788369 5.3926601 44 49 44
-1.0712301 -0.79456103 5.39747 27 31 28
-1.05856 -0.79336601 5.4396901 39 44 41
-1.0532399 -0.79857498 5.44243 64 70 67
-1.0180399 -0.82614499 5.61905 34 34 28
-1.02226 -0.82198501 5.60498 37 36 31
-0.84994602 -0.80742002 5.5152102 15 18 18
-0.83231503 -0.81027597 5.5146699 107 116 123
-0.62501401 -0.82015902 5.6119599 13 15 14
-0.61400098 -0.82012701 5.5978098 17 19 19
-0.60235202 -0.81951803 5.5802898 41 45 45
-0.59435099 -0.81546497 5.5846601 61 67 69
-0.58654302 -0.815992 5.5892501 60 66 68
-0.57927799 -0.82052398 5.5839 58 63 65
-0.56992 -0.820777 5.5829501 59 64 64
-0.51116598 -0.84039003 5.7446699 19 20 15
-0.47177699 -0.844621 5.7814298 20 23 18
-0.17162199 -0.84630001 5.7989001 41 45 45
-0.16390599 -0.85248101 5.7973099 49 54 55
-0.14906301 -0.84047401 5.7596998 43 47 47
-0.140625 -0.84597701 5.7556701 50 55 55
-0.12682401 -0.83652103 5.7367201 43 47 46
-0.119371 -0.84243798 5.72785 52 58 57
-0.109901 -0.839463 5.7308502 48 52 51
-0.100853 -0.839252 5.7294598 48 53 52
-0.092919998 -0.837906 5.7364898 53 57 56
-0.069430597 -0.83824599 5.7479 57 61 60
-0.0548122 -0.84275597 5.7713799 58 63 62
0.0077161798 -0.842112 5.7757001 60 65 63
0.0359088 -0.84286302 5.7782102 52 58 57
0.0915839 -0.84190702 5.7698598 53 58 60
0.091561198 -0.841896 5.7705102 53 58 60
0.15772299 -0.84824699 5.7627902 65 72 79
0.245001 -0.853001 5.8213601 49 57 60
0.25103301 -0.85199797 5.8031402 52 60 64
0.26311499 -0.85027999 5.8140702 62 69 74
0.32896501 -0.85238302 5.8271699 75 84 90
0.37431899 -0.853091 5.8412499 79 88 98
0.38389501 -0.85487598 5.83811 79 87 96
0.393197 -0.85546499 5.84199 77 86 93
0.405092 -0.85863698 5.85673 76 84 89
0.41588601 -0.85721499 5.8461499 70 79 84
0.43838999 -0.85926002 5.85847 76 85 89
-1.08205 -0.78284502 5.3854399 61 68 62
-1.0719399 -0.78184497 5.3969498 28 31 26
-1.06075 -0.787664 5.4301701 27 30 28
-1.02165 -0.816172 5.6184902 52 52 45
-1.01854 -0.81872201 5.6325302 40 39 33
-1.01245 -0.824637 5.6897998 27 28 21
-0.88152999 -0.809403 5.5694599 10 12 9
-0.846012 -0.80239803 5.51336 26 31 31
-0.615381 -0.81096202 5.6125302 26 31 31
-0.60299802 -0.810552 5.5936699 68 73 75
-0.59180301 -0.80799901 5.5900102 71 78 81
-0.58158499 -0.81056201 5.592 69 76 79
-0.57382601 -0.81143099 5.5941 76 82 85
-0.51652801 -0.83001 5.7083702 17 19 13
-0.51313299 -0.83135802 5.7276602 16 17 12
-0.51658797 -0.83392 5.7424102 16 18 12
-0.46265399 -0.84015 5.7805099 17 19 15
-0.14253899 -0.832403 5.7526598 22 25 24
-0.133072 -0.83732897 5.7445002 41 45 45
-0.127351 -0.830401 5.7455401 35 39 37
-0.113705 -0.83094901 5.7389798 32 36 35
-0.106588 -0.83066499 5.7407999 32 36 35
-0.077639602 -0.83661801 5.7527499 52 55 54
-0.064796202 -0.83166599 5.7544398 34 35 33
-0.055010699 -0.83596402 5.7821398 36 38 36
0.0247433 -0.84058201 5.7705598 55 60 59
0.043897498 -0.839481 5.7687001 57 62 62
0.062008601 -0.84075803 5.7789798 58 63 66
0.075558297 -0.83463502 5.75912 52 57 59
0.077475801 -0.83508998 5.7547698 53 58 60
0.082083598 -0.836927 5.7611899 52 57 59
0.091424398 -0.834382 5.77455 45 50 50
0.095279597 -0.83570701 5.76828 50 55 56
0.111171 -0.83324301 5.7405901 54 60 62
0.111196 -0.83342999 5.7418699 54 60 62
0.111196 -0.83342999 5.7418699 54 60 62
0.150511 -0.83696002 5.7599602 62 68 72
0.24448 -0.83923697 5.7951798 49 56 60
0.321913 -0.847803 5.8202 74 83 89
-1.0804501 -0.772847 5.3757 63 70 64
-1.07082 -0.77115899 5.3885798 27 31 27
-1.05514 -0.7827 5.4401698 41 45 42
-1.01785 -0.81089199 5.6434102 41 41 34
-1.01118 -0.81623697 5.6608 33 34 27
-0.8563 -0.79246098 5.50809 11 13 11
-0.84874099 -0.79250503 5.51124 15 18 18
-0.62620199 -0.80669498 5.6329098 11 14 13
-0.60748798 -0.80247003 5.6058602 68 73 75
-0.595698 -0.80064398 5.5879998 77 83 86
-0.57375699 -0.799752 5.59167 82 89 92
-0.54052597 -0.82474798 5.7565999 10 12 7
-0.44849101 -0.82099098 5.7153702 10 13 9
-0.17374 -0.832847 5.79814 16 17 17
-0.150189 -0.82666397 5.7544599 15 17 16
-0.138721 -0.82764697 5.7446499 32 35 34
-0.110488 -0.82251 5.7460599 61 67 70
-0.096615098 -0.827622 5.73771 37 41 41
-0.081522502 -0.82798499 5.7750702 35 37 34
-0.077070497 -0.82999802 5.7655301 27 29 26
-0.064762801 -0.82812399 5.7620802 28 28 25
0.018860299 -0.82632297 5.7796998 27 28 25
0.0235967 -0.83248502 5.7725902 39 40 38
0.0277767 -0.826038 5.7779598 26 27 24
0.0326006 -0.82959503 5.7519302 40 42 40
0.032269999 -0.83267498 5.7740598 39 41 39
0.0405281 -0.833206 5.7789998 41 43 42
0.0408145 -0.83361799 5.7799602 42 44 43
0.036509398 -0.82687002 5.7835302 26 27 25
0.049359899 -0.83375198 5.7802401 43 46 46
0.045244802 -0.826657 5.7818699 26 26 24
0.053690098 -0.82634401 5.7792201 25 26 23
0.070069201 -0.82857102 5.76653 32 34 35
0.081205599 -0.82224202 5.7490501 22 24 22
0.089534603 -0.83334303 5.7723799 44 48 48
0.095221601 -0.82918298 5.7789798 28 31 30
0.103439 -0.83349901 5.7828102 42 46 47
0.16544899 -0.83147901 5.7880602 53 56 56
0.18167 -0.82969397 5.77669 53 57 57
0.189898 -0.833004 5.7730899 60 65 67
0.198176 -0.82888502 5.77597 46 49 48
0.20634399 -0.83087301 5.7606602 51 56 58
0.230445 -0.83372003 5.7814102 49 56 58
0.238965 -0.83332002 5.7920098 49 55 57
0.30219299 -0.83028102 5.7790198 63 68 71
0.31363699 -0.83212203 5.8208399 64 69 70
0.33187199 -0.84016401 5.8495598 79 87 93
0.34085399 -0.837551 5.8559899 66 73 77
-1.07609 -0.766325 5.38234 57 63 58
-1.06555 -0.77053601 5.4288001 31 33 29
-1.0601 -0.77562302 5.4300098 32 35 32
-1.0532399 -0.77143401 5.4386101 65 68 66
-1.02258 -0.79717302 5.6009302 63 64 59
-1.0159 -0.78384799 5.52915 32 33 31
-1.02053 -0.80364197 5.6228499 56 56 50
-1.01614 -0.80264002 5.6502399 43 44 37
-1.01627 -0.80191898 5.6506 43 45 38
-1.01731 -0.81243902 5.69454 36 37 31
-0.84627599 -0.78613502 5.5177898 34 39 40
-0.63799298 -0.80564803 5.6515298 8 11 9
-0.62487 -0.79811502 5.6331902 13 17 16
-0.43812099 -0.81955099 5.7505498 9 11 9
-0.37302399 -0.810251 5.6904998 48 53 52
-0.36182299 -0.810669 5.6728301 55 61 61
-0.16849101 -0.82572901 5.7971501 12 14 13
-0.14462399 -0.81992799 5.7532601 22 25 24
-0.142643 -0.81870002 5.7386198 21 24 23
-0.138258 -0.81509799 5.7469401 44 47 46
-0.129586 -0.82213002 5.7568998 57 60 60
-0.100691 -0.82033098 5.74718 69 76 79
-0.096914701 -0.82261002 5.7674899 64 71 73
0.023210101 -0.81954098 5.7828202 23 24 21
0.049631499 -0.820162 5.7872601 20 21 19
0.0603071 -0.82087302 5.7959099 18 20 18
0.068680502 -0.82570201 5.7953801 18 20 18
0.0835732 -0.82202703 5.7757902 17 19 17
0.095061503 -0.824045 5.7946401 24 26 25
0.10357 -0.819938 5.7877498 50 53 51
0.160969 -0.82863998 5.7982502 36 38 35
0.173908 -0.82851702 5.7992101 41 43 40
0.189932 -0.825625 5.7800002 42 43 40
0.19737899 -0.82077497 5.7911501 36 36 30
0.20634601 -0.82393599 5.7736301 38 39 35
0.219752 -0.82488799 5.7739701 37 39 36
0.228167 -0.82415098 5.7822099 36 37 33
0.24053501 -0.822106 5.79251 34 35 30
0.246021 -0.827941 5.7950401 39 43 40
0.29567701 -0.82459402 5.7855201 44 46 44
0.30042401 -0.82415098 5.7895002 45 47 45
0.34904799 -0.82868099 5.8475199 63 68 69
0.40558401 -0.82932299 5.8525901 69 72 71
0.42909101 -0.837376 5.9154401 64 65 62
0.42902499 -0.837246 5.9145298 64 65 62
0.442009 -0.84069002 5.9078898 86 91 92
-1.0796601 -0.75995702 5.3705702 60 65 61
-1.07075 -0.75914299 5.3828001 28 32 29
-1.05784 -0.76412398 5.4257598 40 43 40
-1.01996 -0.77813703 5.5521998 59 61 59
-1.0216399 -0.79711002 5.6403699 57 58 53
-1.01284 -0.794626 5.6585498 48 51 44
-1.01688 -0.80749702 5.7195101 35 38 32
-0.88155699 -0.78796101 5.5905099 8 13 10
-0.862418 -0.78444999 5.5430999 10 14 12
-0.85272098 -0.78078401 5.53758 29 34 33
-0.62456101 -0.79031402 5.63872 21 25 24
-0.61347997 -0.794599 5.6180501 52 56 57
-0.609788 -0.78722799 5.6183 66 71 71
-0.58967698 -0.78655499 5.5899801 71 77 79
-0.58265102 -0.78650302 5.5953498 73 79 82
-0.37125799 -0.80069703 5.6866202 50 55 55
-0.363552 -0.79769099 5.6919999 52 58 59
-0.186809 -0.82206702 5.8333302 9 12 10
-0.176153 -0.81482202 5.8112102 8 11 10
-0.152091 -0.81359899 5.7550502 12 15 14
-0.14430401 -0.81412703 5.7554202 27 30 29
-0.130078 -0.80322897 5.73318 56 60 62
-0.120243 -0.81203002 5.7480102 68 73 78
-0.106629 -0.80671102 5.7408099 83 90 100
-0.10258 -0.81162 5.7362399 84 92 100
-0.087204203 -0.81679201 5.7817702 60 63 64
0.039112002 -0.81597298 5.8131099 16 17 14
0.049636301 -0.81354898 5.7994399 15 16 14
0.062203899 -0.820135 5.8354201 15 17 15
0.127802 -0.81470603 5.7948899 56 59 60
0.13888299 -0.81256199 5.7902598 73 76 78
0.14978801 -0.82056999 5.7988801 72 75 74
0.16091099 -0.82222199 5.8117499 33 34 30
0.174586 -0.82116997 5.8070002 33 33 28
0.197456 -0.81344199 5.80549 22 23 17
0.208121 -0.81193 5.7890401 25 26 20
0.217282 -0.81529498 5.7857499 32 33 27
0.239815 -0.82102299 5.8238001 32 33 27
0.290923 -0.816019 5.7786198 30 32 26
0.34200799 -0.82248098 5.8485398 34 37 36
0.40532699 -0.821491 5.85637 74 75 75
0.41402301 -0.82508999 5.84863 47 48 44
0.429645 -0.819875 5.8512201 40 39 35
0.43901101 -0.82467097 5.8556499 49 49 44
-1.07542 -0.75275999 5.37604 43 49 45
-1.07016 -0.748227 5.3807001 26 30 26
-1.06478 -0.75392801 5.4180298 29 31 27
-1.06398 -0.75951397 5.4275699 34 37 33
-1.05717 -0.75411999 5.4296298 54 56 53
-1.05957 -0.75884801 5.4247699 42 44 41
-1.0549999 -0.76110601 5.4444299 67 71 69
-1.01797 -0.770298 5.51933 45 46 45
-1.02001 -0.78142899 5.5792098 81 83 79
-1.0215 -0.782767 5.6318102 73 75 71
-1.01758 -0.78895003 5.6459999 60 62 57
-1.01526 -0.79190999 5.6993899 49 52 46
-0.88613701 -0.77914298 5.6059299 10 14 12
-0.85230798 -0.773103 5.5407901 37 40 39
-0.66486198 -0.79398 5.7027998 11 14 11
-0.66509801 -0.78986102 5.68644 12 15 11
-0.64291602 -0.79311198 5.6685901 10 13 10
-0.62428302 -0.78543001 5.6461101 29 33 32
-0.61002201 -0.78071803 5.6289802 58 62 61
-0.57120299 -0.78038102 5.6020398 63 67 69
-0.40080699 -0.79905498 5.7500901 12 15 13
-0.352651 -0.78972298 5.66467 54 60 61
-0.156461 -0.80533999 5.756 11 14 13
-0.143125 -0.80083299 5.7549801 33 36 36
-0.125351 -0.80512297 5.75109 65 70 74
-0.112971 -0.79984701 5.7456899 78 85 92
-0.085530899 -0.80266702 5.7418199 69 74 77
-0.080076598 -0.80495799 5.7604098 36 39 37
-0.072084397 -0.805233 5.76371 17 19 15
0.024464499 -0.81285 5.8140502 14 15 12
0.053929999 -0.81114 5.8477898 13 15 12
0.0964894 -0.80892599 5.79743 38 40 40
0.106642 -0.807827 5.7866902 61 63 62
0.113557 -0.81128699 5.7929702 53 55 54
0.135022 -0.80472702 5.7884598 59 63 65
0.149694 -0.80700499 5.8168998 85 88 90
0.16021401 -0.81586897 5.82517 29 30 27
0.175528 -0.81808698 5.8505101 19 20 15
0.21739601 -0.80798799 5.7929401 20 21 16
0.33664599 -0.81554401 5.8542299 29 31 28
0.34872699 -0.81560701 5.8413301 77 83 84
0.357517 -0.81508899 5.8402901 100 109 114
0.40535301 -0.814246 5.86448 79 81 83
0.41854301 -0.81738597 5.84097 37 37 32
0.437489 -0.80609602 5.79351 34 34 29
0.44817501 -0.80171502 5.7560601 36 36 30
0.46241 -0.797943 5.7214398 38 38 33
-1.07511 -0.74374503 5.3785601 36 42 37
-1.07884 -0.73751903 5.3668399 55 61 56
-1.0608701 -0.748173 5.4271102 41 44 40
-1.04972 -0.74606299 5.4298601 70 75 73
-1.02485 -0.76479399 5.5177798 47 48 46
-1.01683 -0.76652902 5.5672698 83 84 82
-1.01323 -0.78149801 5.6498299 58 60 55
-1.01359 -0.78709799 5.7014098 49 52 46
-1.01011 -0.791906 5.7192502 43 45 40
-0.86570501 -0.77146697 5.5665698 14 17 15
-0.84784102 -0.76829201 5.55651 62 64 62
-0.63785201 -0.78442502 5.6665401 12 16 12
-0.62458497 -0.77893901 5.6571798 37 40 38
-0.60162598 -0.77652597 5.6339302 55 58 58
-0.59587002 -0.77438599 5.6194301 55 58 58
-0.58140999 -0.774369 5.5953398 64 68 68
-0.39719599 -0.79487002 5.7459998 17 20 17
-0.384958 -0.78908002 5.7238798 36 39 38
-0.155295 -0.79080802 5.75666 14 16 14
-0.15813001 -0.79605901 5.7470398 12 15 13
-0.14692099 -0.79092097 5.75704 23 26 24
-0.13265 -0.79307902 5.7539902 55 59 59
-0.116708 -0.79526299 5.7354999 73 80 84
-0.111084 -0.78849101 5.73349 76 82 86
-0.088798396 -0.79470801 5.7368102 71 78 81
-0.095334999 -0.78972203 5.7334499 76 82 86
-0.076062597 -0.79783499 5.76193 20 22 20
0.093033202 -0.80344701 5.7958798 25 27 25
0.10309 -0.80049098 5.78967 64 66 66
0.108687 -0.79597503 5.7930002 62 63 64
0.130449 -0.79783303 5.7802901 54 57 58
0.13778 -0.79797399 5.7946401 62 66 68
0.16028 -0.80871499 5.8333502 29 31 27
0.192955 -0.80247903 5.8068399 16 18 12
0.209868 -0.80245 5.7923298 17 19 13
0.33713201 -0.80781698 5.8489599 28 30 28
0.345936 -0.80690801 5.8477802 58 63 64
0.35242799 -0.80818802 5.8436799 98 106 110
0.39465201 -0.81072301 5.8534198 104 110 117
0.40530801 -0.80628902 5.8726802 73 76 78
0.41537601 -0.80844897 5.87395 21 22 19
0.452162 -0.793621 5.7523198 22 23 18
-1.07732 -0.73506302 5.3804102 40 46 41
-1.0695601 -0.73734301 5.37814 24 29 23
-1.06064 -0.74352998 5.4256501 38 41 37
-1.05562 -0.74122399 5.4296899 55 59 56
-1.02081 -0.76002502 5.5609798 89 90 88
-1.01054 -0.76456398 5.6219501 67 68 64
-1.00235 -0.76904398 5.6170001 58 61 56
-1.00306 -0.769584 5.6209402 58 60 55
-0.88042998 -0.76750201 5.6009698 11 15 13
-0.86186397 -0.76096803 5.5897598 41 45 43
-0.63584101 -0.77756703 5.6740799 15 18 15
-0.62283498 -0.77833098 5.6815701 48 51 48
-0.58356202 -0.76933199 5.61836 57 59 57
-0.56959897 -0.76530498 5.6206598 37 38 35
-0.40024799 -0.78514701 5.7553201 16 19 16
-0.38945299 -0.77983302 5.7333999 29 31 28
-0.34409699 -0.778777 5.7258201 43 46 44
-0.15559401 -0.78378201 5.76618 16 18 16
-0.138568 -0.785748 5.7523499 48 51 50
-0.121774 -0.78480899 5.7339101 66 71 71
-0.117848 -0.78294897 5.73105 67 72 73
-0.088108197 -0.78985101 5.7570901 65 70 70
-0.080649599 -0.79094899 5.7635598 35 38 35
-0.074844703 -0.783306 5.7612801 23 24 20
0.090068497 -0.78941101 5.7779298 22 24 22
0.094520196 -0.79201299 5.7952099 30 32 31
0.102575 -0.78866398 5.7943301 61 62 62
0.13055199 -0.788589 5.7816501 58 62 62
0.137876 -0.788477 5.7960501 58 62 63
0.160456 -0.80136299 5.8404002 29 30 26
0.194686 -0.79335201 5.8178701 17 19 13
0.33471701 -0.79535502 5.8514099 27 29 27
0.349466 -0.79970402 5.85042 92 97 101
0.35746601 -0.80181301 5.8512702 98 105 112
0.390641 -0.80380398 5.8623199 104 111 118
0.39431599 -0.79748303 5.8703198 101 107 113
0.40283701 -0.79824901 5.8769202 88 93 95
0.418347 -0.79896897 5.87327 18 20 17
0.53470701 -0.83666402 6.1314101 35 37 33
-1.07384 -0.72310197 5.3621998 55 61 56
-1.0768501 -0.72612798 5.3588099 62 68 63
-1.07094 -0.72810698 5.3758402 33 38 32
-1.0573 -0.72881299 5.4110498 44 47 42
-1.0502501 -0.73326403 5.42981 69 73 71
-1.04634 -0.73381197 5.44874 76 81 78
-1.0023 -0.75408798 5.5994802 67 70 66
-1.01231 -0.77362198 5.7263398 51 54 49
-1.00923 -0.771819 5.71627 51 53 49
-0.86712801 -0.757788 5.5941801 29 33 31
-0.805713 -0.75016302 5.5556798 50 54 53
-0.79136801 -0.75464499 5.5922098 24 26 22
-0.59625697 -0.76244903 5.6392398 45 45 42
-0.59734201 -0.76318997 5.64429 45 46 42
-0.58208299 -0.763807 5.6262298 49 50 47
-0.57388401 -0.761406 5.6447201 33 34 29
-0.40581101 -0.77514899 5.75458 15 19 15
-0.36014399 -0.76900798 5.71661 35 36 34
-0.15304101 -0.77556401 5.7659402 18 21 18
-0.132707 -0.78010601 5.7525301 55 59 58
0.090374999 -0.78393298 5.7940302 23 24 23
0.119732 -0.78266799 5.7825899 52 55 55
0.12942 -0.78035003 5.79037 60 63 63
0.129649 -0.78007901 5.7878399 60 63 63
0.138733 -0.78059202 5.8041201 57 60 59
0.334084 -0.78956902 5.8699999 26 28 26
0.344091 -0.79384202 5.85953 56 60 61
0.36380899 -0.79380798 5.8589001 93 99 105
0.37979001 -0.78761101 5.8578501 92 97 102
0.39799699 -0.79084098 5.8759398 99 104 106
0.406627 -0.79124302 5.8801899 47 51 50
0.41520399 -0.79140002 5.8775301 21 23 20
0.475108 -0.83443701 6.1905198 23 25 20
0.517784 -0.83580601 6.1900702 43 45 41
0.53303897 -0.822115 6.1153402 54 58 54
0.54905599 -0.817581 6.0290799 50 53 50
-1.07266 -0.71467 5.3460999 63 69 64
-1.07412 -0.71952498 5.38059 46 52 46
