# .PCD v0.7 - Point Cloud Data file format
VERSION 0.7
FIELDS x y z rgb
SIZE 4 4 4 4
TYPE F F F U
COUNT 1 1 1 1
WIDTH 1197
HEIGHT 1
VIEWPOINT 0 0 0 1 0 0 0
POINTS 1197
DATA ascii
-0.128949 0.87082398 2.1803401 13812915
-0.12644801 0.86902398 2.1765299 13483694
-0.125724 0.872253 2.1886301 14010552
-0.127196 0.87150598 2.1833301 13878709
-0.12704501 0.87168199 2.1793001 13813172
-0.12626299 0.87598002 2.1898899 13484715
-0.127204 0.873519 2.1884799 13156515
-0.12537 0.87373698 2.1870999 13287845
-0.122691 0.87444103 2.1872499 13287848
-0.097940199 0.86995602 2.17735 12432787
-0.0979826 0.87130803 2.17958 13550249
-0.097946398 0.86905599 2.1740201 12104587
-0.099762402 0.87019098 2.17978 12432280
-0.095964797 0.87089801 2.1774399 12629655
-0.074866697 0.86616898 2.16699 10854523
-0.12562899 0.87633699 2.18647 13419178
-0.102893 0.87494999 2.1819899 13878710
-0.096317202 0.87047601 2.1734099 12169869
-0.093347199 0.87004 2.17259 11841413
-0.090954103 0.86998802 2.1714101 12629655
-0.077519603 0.867926 2.1675999 11709317
-0.075850502 0.86865199 2.1656499 11972237
-0.073762901 0.86827397 2.1649001 10657655
-0.071736902 0.867962 2.1643801 11512197
-0.125956 0.87839699 2.1853199 13747633
-0.124428 0.87701499 2.1840899 13418923
-0.121139 0.87822002 2.18471 13944502
-0.118913 0.87332499 2.17243 12630171
-0.115523 0.876544 2.17816 12958117
-0.113079 0.87602198 2.17788 13023655
-0.111224 0.87603301 2.1765499 13023656
-0.097800903 0.87432498 2.1761799 13352617
-0.095376998 0.873492 2.1748199 13221284
-0.092671402 0.872684 2.17132 13221541
-0.082319103 0.87007898 2.1661899 12300435
-0.079711601 0.87229598 2.1666701 12958371
-0.077058397 0.87094802 2.16343 12695451
-0.070605002 0.86992502 2.16154 10789492
-0.069074698 0.869187 2.16096 11512449
-0.129511 0.88142699 2.18747 14142137
-0.124187 0.87988502 2.1841099 14076088
-0.116594 0.87597299 2.1743 14076089
-0.111944 0.87916398 2.1777501 13812661
-0.113802 0.87919199 2.17906 13878454
-0.111492 0.87736499 2.17645 13483952
-0.091690898 0.87412 2.1661899 12826780
-0.091310598 0.87301499 2.1634099 12235154
-0.089197598 0.87383199 2.1638401 12432022
-0.069325797 0.87154698 2.15939 10987125
-0.067030102 0.871185 2.1580701 10723954
-0.110285 0.87961698 2.17787 13812662
-0.108171 0.879291 2.1773601 14141883
-0.108606 0.88101101 2.1788001 14339262
-0.104305 0.88242298 2.18259 13878710
-0.101646 0.87890202 2.17349 13549486
-0.098944098 0.87880403 2.17063 13483948
-0.093887702 0.87648302 2.16363 13023649
-0.088312402 0.87507802 2.1595099 12366485
-0.086526603 0.87562299 2.1619899 12892318
-0.0804649 0.874309 2.1645701 11971985
-0.077926703 0.87295699 2.1608701 11774604
-0.075963303 0.87260902 2.16009 12958113
-0.113251 0.88361901 2.1782999 14536898
-0.113375 0.88492697 2.1803999 13024678
-0.1108 0.887788 2.1921899 14273469
-0.10294 0.88077301 2.17519 14141881
-0.10018 0.88085699 2.17203 14010551
-0.097942501 0.88084197 2.1690199 13944502
-0.091224201 0.876674 2.1619799 13089444
-0.085610501 0.876261 2.1616099 13418667
-0.079941399 0.87695199 2.1623499 13024160
-0.072641499 0.87434 2.15815 11841414
-0.070651799 0.87397498 2.1573999 11842180
-0.0683586 0.87361598 2.15608 12367502
-0.065686502 0.87384403 2.1568799 12236174
-0.099016003 0.88140702 2.1633799 13615534
-0.099642597 0.88052797 2.1603899 13352872
-0.097622402 0.88142198 2.1677899 14010294
-0.081817903 0.87907398 2.16032 13221285
-0.089038901 0.88034803 2.15522 13221031
-0.096879698 0.88327301 2.1600699 14076343
-0.091492198 0.88314301 2.1551399 13483950
-0.090577804 0.88166898 2.15677 13418156
-0.061035 0.87527603 2.1259 11644282
-0.059657998 0.87712502 2.1322999 11907205
-0.088484302 0.88553399 2.1502399 13484461
-0.059467301 0.876638 2.1244099 11775616
-0.061226599 0.87757802 2.1266 12038788
-0.0581365 0.87789202 2.1275699 11183991
-0.057990801 0.87556303 2.12216 11381112
-0.058866601 0.87988901 2.1289799 12170121
-0.088514201 0.89357501 2.1597099 14142395
-0.081258103 0.88478899 2.1310401 12170890
-0.078091003 0.88358402 2.1292 11709831
-0.063300602 0.88367701 2.13432 12826780
-0.0604201 0.88263899 2.12971 12695448
-0.060460199 0.88256502 2.12905 12695448
-0.074937403 0.88497502 2.1305599 12761503
-0.0715084 0.88613302 2.13238 13221287
-0.071339898 0.88473898 2.13118 13024161
-0.062666804 0.88606 2.1316199 13286568
-0.079970203 0.88647199 2.1275301 12499094
-0.070253499 0.88979602 2.13292 12629919
-0.061817002 0.88576502 2.1281099 13286568
-0.064376399 0.88923597 2.1315801 13878709
-0.0597868 0.885382 2.1268599 13221029
-0.070801899 0.89238799 2.13357 14076345
-0.068488903 0.89175397 2.13115 14010296
-0.05796 0.88622302 2.11639 13154979
-0.053006399 0.88367403 2.1112001 12629399
-0.084323302 0.89726102 2.1447899 14142395
-0.065901399 0.89069098 2.1245301 13878708
-0.064034097 0.89172101 2.1285701 13615536
-0.055009801 0.88656402 2.1097801 12169359
-0.051854499 0.88496703 2.1066599 12300435
-0.054444101 0.88518298 2.1089001 12694938
-0.058756199 0.88852602 2.1145201 13286568
-0.056790501 0.88703299 2.1104901 13023394
-0.057022799 0.88748401 2.1120601 13154981
-0.053755902 0.88720399 2.1048901 12694939
-0.047320299 0.88521099 2.1040299 12498070
-0.044784501 0.88547301 2.105 12695194
-0.042616598 0.88478303 2.10221 13089444
-0.0425913 0.886002 2.1052301 13286823
-0.042830601 0.88637298 2.10498 12957857
-0.0406093 0.88429803 2.0991001 12103571
-0.040449999 0.88533401 2.10236 12826526
-0.040274099 0.88639599 2.1056299 13287078
-0.038069099 0.88457203 2.10004 12235154
-0.0379957 0.88535798 2.1034701 12827037
-0.038024601 0.88538599 2.10343 12827037
-0.035700101 0.883919 2.0977199 11906444
-0.0690457 0.89955902 2.13556 14142395
-0.058044299 0.89093399 2.1136999 13747121
-0.058110401 0.89090103 2.1134801 13417899
-0.038318701 0.88398302 2.0962999 11511429
-0.036391199 0.88424897 2.0929401 11511683
-0.058565501 0.89349002 2.11151 13549742
-0.0558917 0.89001101 2.1045301 12103823
-0.0516105 0.89128602 2.1038101 13681327
-0.053516898 0.89030498 2.1038499 12957855
-0.037501201 0.88697201 2.09763 12695194
-0.0383671 0.88946998 2.1029799 13353126
-0.0333573 0.88578302 2.08829 11905935
-0.0333675 0.885589 2.08887 11839886
-0.034807499 0.88525498 2.0924001 12366229
-0.035098001 0.88648498 2.0950999 12432278
-0.034834299 0.88424897 2.0869401 11905168
-0.032726798 0.88602698 2.09253 12234644
-0.0322407 0.88457102 2.0866599 10985344
-0.064779699 0.899306 2.12481 14339774
-0.056760699 0.89271301 2.10518 13417898
-0.036922298 0.889359 2.0952201 12694938
-0.037023 0.89037699 2.0982699 13156003
-0.034589101 0.88985997 2.0957899 13024160
-0.0312286 0.88628203 2.0882699 12234391
-0.031755101 0.88835502 2.0894499 12891809
-0.031060601 0.88489997 2.0855501 10985089
-0.063821398 0.90055901 2.1194699 14010809
-0.064231902 0.901815 2.12256 14142395
-0.055321999 0.89401299 2.1034901 13352617
-0.034194499 0.89122599 2.0949199 13286823
-0.030736599 0.88719398 2.0834799 12168595
-0.030079899 0.88800102 2.0866399 12760224
-0.029886199 0.88664699 2.0839 11971472
-0.024956999 0.88624001 2.0777099 10855287
-0.055264 0.899032 2.10953 13878709
-0.051613498 0.89891601 2.1054101 13747379
-0.044162098 0.89603698 2.09851 13878965
-0.041918501 0.89494598 2.0978301 13747378
-0.040957801 0.89577597 2.10006 13483950
-0.039113399 0.89492798 2.0987699 13154983
-0.0406105 0.89488697 2.09587 13747120
-0.040037598 0.894041 2.0956399 13615533
-0.038100801 0.89376497 2.0948 13418411
-0.029926401 0.89072001 2.0834501 13220519
-0.028892901 0.888538 2.08196 12497562
-0.029926401 0.89072001 2.0834501 13220519
-0.026247701 0.88859898 2.0829301 12498074
-0.0257656 0.88785899 2.08002 11906696
-0.024215 0.88942701 2.0834601 13089445
-0.052037101 0.90215701 2.1075201 13156007
-0.041477598 0.89806998 2.0984499 13615537
-0.039766699 0.89741701 2.09759 13549743
-0.0378264 0.89632303 2.09391 13483692
-0.025911899 0.89099902 2.07692 12957855
-0.0225519 0.88932502 2.07584 11841159
-0.020463699 0.88888198 2.0734601 11577990
-0.042031702 0.89997202 2.09547 13681586
-0.039247598 0.89786202 2.08936 13878452
-0.023245901 0.89149803 2.0776401 13089442
-0.017341601 0.88933802 2.07076 12629144
-0.050308999 0.90670598 2.10969 14405312
-0.035005499 0.89604598 2.0834701 13220521
-0.0362777 0.89973098 2.08741 13615538
-0.032990899 0.89802998 2.0861499 13483694
-0.0332046 0.89823997 2.08586 13483695
-0.0332525 0.89834899 2.0859399 13483695
-0.033029299 0.895486 2.0808699 13154983
-0.035099801 0.89742601 2.08619 13417901
-0.0311414 0.89765501 2.0829599 13746866
-0.031479701 0.89778697 2.08322 13352364
-0.031429201 0.89791799 2.08251 13746866
-0.032428999 0.89621401 2.0843 13220778
-0.029583201 0.897026 2.08041 13615281
-0.022558499 0.89218098 2.07251 12103825
-0.022898201 0.89315099 2.0755 13286568
-0.0204647 0.89327598 2.0729699 13220777
-0.019928001 0.89213699 2.0702901 13089189
-0.0107551 0.89335299 2.07216 13286313
-0.045887802 0.90350598 2.0912399 13878966
-0.040846799 0.90056098 2.08866 14141624
-0.041218601 0.90166199 2.09108 13812915
-0.038121 0.90070301 2.08955 13746866
-0.038866598 0.90123701 2.08863 13746867
-0.0396339 0.90145302 2.0887401 13747123
-0.039067902 0.90236998 2.0913799 13878709
-0.040437099 0.90183598 2.09061 13812916
-0.0363754 0.89976501 2.08743 13681074
-0.0357983 0.90105301 2.0899401 14010553
-0.034145601 0.90034199 2.0873899 13944760
-0.0339038 0.90020299 2.0875101 13944760
-0.033705201 0.90178001 2.0896699 14076603
-0.033364099 0.90166801 2.08973 14076603
-0.035545401 0.90098602 2.0899701 14010553
-0.0311264 0.89916003 2.0817699 13483694
-0.031601299 0.89688402 2.07917 13615280
-0.0314897 0.899306 2.0852799 13615280
-0.0314482 0.89926398 2.08531 13549744
-0.028280601 0.89855599 2.0789299 13286314
-0.029261701 0.898485 2.0826099 13418157
-0.0292976 0.89847201 2.0825701 13418157
-0.0262256 0.89875603 2.07989 13352363
-0.0227373 0.89583802 2.0729001 12563867
-0.018151499 0.893462 2.0703299 13286057
-0.0092712501 0.89509898 2.07143 13483692
-0.043302801 0.905258 2.0931599 13090215
-0.042496201 0.905402 2.09235 12958629
-0.027511099 0.901474 2.0796599 13746866
-0.028000601 0.89999998 2.08113 13549743
-0.0298787 0.90102798 2.08178 13746866
-0.026032399 0.89902401 2.0790701 13352363
-0.0200979 0.89614999 2.06972 13483693
-0.0178815 0.896622 2.0698099 13483693
-0.0233882 0.90225399 2.0757201 12892582
-0.019316001 0.89849901 2.06883 13549487
-0.021870799 0.90006602 2.0753 13221030
-0.047763798 0.91194803 2.099 14536898
-0.047007501 0.91075897 2.0963199 14405569
-0.033444598 0.90878803 2.0882499 14273982
-0.0195255 0.90223098 2.0699201 13878964
-0.021687999 0.90247399 2.07411 12760740
-0.0139264 0.900442 2.0668399 13352107
-0.0085794097 0.89941198 2.06252 13549742
-0.0067926398 0.89832699 2.0605299 13418412
-0.045887198 0.91433603 2.0985401 14602948
-0.0201417 0.90559602 2.07479 14010552
-0.019548699 0.90389502 2.07181 12892326
-0.0175007 0.90350598 2.07022 13878708
-0.0168787 0.902206 2.0678 13549743
-0.0140734 0.90132499 2.0609901 13615534
-0.0151667 0.90322101 2.0673299 14010038
-0.013281 0.90259701 2.06443 13549742
-0.0114922 0.899535 2.06161 13483949
0.0088458899 0.89862299 2.05475 11708813
0.0102409 0.89622498 2.0539899 10919808
-0.0362955 0.91462898 2.09044 13616815
-0.035330601 0.91357303 2.0886199 14537154
-0.020060699 0.90624398 2.0698099 13352622
-0.0157809 0.90505499 2.0695601 14207675
-0.0127587 0.90292001 2.06234 13549741
-0.0127749 0.90494603 2.0638399 12957860
-0.0104306 0.90159702 2.0601599 13615536
-0.0042749802 0.901577 2.05934 13747635
-0.0055806702 0.90123701 2.05652 13024418
-0.0024186899 0.90105402 2.05809 13747379
-0.0027837099 0.90033901 2.05427 12629656
-0.0025532399 0.89906001 2.05158 12366484
0.0111902 0.89876699 2.05371 12037780
-0.038817201 0.916682 2.0903201 13945527
-0.0147868 0.90557301 2.0645299 13089446
-0.0113128 0.904365 2.0610399 12760736
-0.0128988 0.90504998 2.0636499 12957860
-0.0099153398 0.90372199 2.05845 12432282
-0.0057911002 0.904073 2.0559199 12300953
-0.0032261 0.90269798 2.0546501 13024418
-0.00190163 0.90252101 2.05215 12564121
0.00899415 0.90146899 2.05463 12958373
0.0250789 0.89428997 2.03321 10394237
-0.035579901 0.91642398 2.08604 13813682
-0.0349002 0.915672 2.0857 13879734
-0.0122431 0.907148 2.0611501 13484462
-0.011892 0.90704602 2.0611801 13484462
-0.01362 0.90796798 2.06359 13813173
-0.0126139 0.90921497 2.0666699 13878709
-0.00996181 0.90596199 2.0594001 13155496
-0.0109096 0.90831798 2.0642099 13747380
-0.0111778 0.90828502 2.0643101 13747380
-0.0042665601 0.90544802 2.0548201 12629663
0.0104525 0.90306598 2.0522101 13549998
0.0205034 0.89991301 2.04127 11511183
0.021914501 0.89765799 2.0369599 11971480
0.023267901 0.89732301 2.03332 11905686
0.0248954 0.89833403 2.0362201 12037529
0.026759701 0.895711 2.0313699 10722180
0.028714901 0.89555198 2.0322499 10919561
-0.0388139 0.91920102 2.08851 14077114
-0.036275301 0.91964102 2.0868101 14011065
-0.0334103 0.91935498 2.08828 14405826
-0.0110563 0.90893799 2.0589399 13747380
-0.0110515 0.90880501 2.0594599 13747380
-0.0110469 0.910698 2.0611899 14207932
-0.0081505096 0.90913099 2.05987 13747636
-0.00155651 0.90586901 2.0515499 12695709
-0.00285714 0.90755802 2.0529799 13353131
-0.00091924297 0.90509099 2.0494399 12169868
-0.0031328599 0.90725201 2.0528901 13221544
0.0089301299 0.902924 2.0445299 12234907
0.023097301 0.89967197 2.0379901 11709070
0.028634001 0.89917099 2.03299 12103068
0.0278224 0.89815003 2.0304 11905689
-0.0139678 0.91305602 2.0625801 14405311
-0.0109094 0.910878 2.06071 14208189
-0.0012556 0.90814799 2.0518999 13418924
-0.00178818 0.90938699 2.05387 13483948
-5.9063401e-05 0.90707499 2.0499799 13155749
0.0060349698 0.90343899 2.0376401 12826019
0.0072611002 0.903027 2.03459 12760227
0.0043821801 0.90772903 2.0515699 13418666
0.0091467202 0.90739202 2.0468299 13747379
0.0094157001 0.90591902 2.0443299 12957348
0.020594001 0.90249598 2.0390899 12497821
0.022879601 0.90274101 2.03704 12695199
0.0269715 0.902551 2.03478 12431773
0.031132599 0.89987999 2.02912 12037016
-0.000250982 0.91011202 2.0522299 13878963
0.00227814 0.91019899 2.05042 14010808
0.0069124801 0.905972 2.0404899 12694945
0.0046935002 0.91047299 2.0495 14142651
0.025233701 0.90382802 2.0366399 12629407
0.028436 0.90215498 2.0325501 11839894
0.0304466 0.90279198 2.0289299 11708817
0.0071427799 0.90832001 2.0364101 12563362
0.0274151 0.90038198 2.0171199 11314060
0.028347099 0.90058798 2.0209899 11511438
0.034023199 0.90255302 2.02334 11840907
0.033622999 0.90111798 2.0220001 11905427
0.032208301 0.90172601 2.01986 11839636
0.032301601 0.90184402 2.0248499 12234393
0.036046401 0.90107 2.01825 10591353
0.0352882 0.90204 2.02068 11445893
0.035237402 0.901779 2.02055 11380100
0.034260798 0.902816 2.0232601 11906700
0.0022929199 0.91348302 2.0492101 14339518
0.0049443198 0.91316402 2.0467801 14339774
0.0166281 0.90968198 2.0357101 14076347
0.028401 0.90198302 2.0157599 11839893
0.0368267 0.90289903 2.01916 11774857
0.037981998 0.90174299 2.01735 11051645
0.0370377 0.90281999 2.01948 11709064
0.0371181 0.90254003 2.0196099 11577734
0.0053014201 0.915748 2.04427 14273724
0.0170455 0.91035599 2.0325 13747123
0.0157053 0.90982801 2.0300701 13155240
0.0190976 0.90940899 2.03175 13549744
0.022232899 0.91195297 2.03474 13615537
0.038670599 0.90369397 2.01806 12038284
0.038687401 0.90364999 2.0181501 12038028
0.037481599 0.904719 2.0202301 12432789
0.0375687 0.90498 2.01986 12498582
0.038449802 0.906555 2.02195 12564377
0.041179001 0.90174401 2.0111599 11117184
0.041249 0.90392101 2.01475 11709319
0.039572101 0.90273303 2.0159099 12037267
0.025152501 0.91265899 2.0314901 13813430
0.0267435 0.911901 2.0297699 14207933
0.033666998 0.913122 2.03248 13615792
0.037414201 0.91128403 2.0302601 14207933
0.043154102 0.90470803 2.01425 12366998
0.026923399 0.914626 2.03249 13747379
0.030030301 0.91459 2.0313799 13747379
0.032374699 0.91467702 2.03038 13681586
0.0344151 0.91445702 2.03069 13616049
0.038039699 0.91440898 2.0306799 13287083
0.039175499 0.91363198 2.03181 13287082
0.043734599 0.90394902 2.0048001 11248260
0.043974299 0.90674198 2.0120299 12629406
0.046913099 0.90548599 2.00664 10393209
0.0457085 0.90472102 2.0079 10327670
0.047613699 0.90446901 2.0034201 10788220
0.047556799 0.90395701 2.00454 11774353
0.0218718 0.91867697 2.03614 14010296
0.028840501 0.91623199 2.02988 13878966
0.0268963 0.91622001 2.03111 13879222
0.0311113 0.916596 2.02965 13747379
0.0348024 0.91506898 2.03037 13681842
0.036217801 0.91558999 2.0288601 13616050
0.040173501 0.91457701 2.0241399 13286572
0.042422801 0.90905797 2.0129001 13550001
0.046733301 0.90587699 2.0052099 10590588
0.046976101 0.90832698 2.0076699 12958117
0.044876602 0.90873402 2.0102999 13220779
0.049210899 0.90578401 2.00302 9998963
0.049721401 0.904742 2.00067 11774861
0.047777802 0.90748101 2.0051301 12234648
0.051118702 0.90666199 2.0032001 11445386
0.049516499 0.908692 2.0082099 12957861
0.054995202 0.90409797 1.9985501 12038287
0.027016601 0.91789401 2.0299599 14076345
0.030106699 0.91840601 2.0310099 13747123
0.032250099 0.91886598 2.02967 13945016
0.0354206 0.917014 2.02665 13747636
0.037650399 0.91797298 2.0279 13813175
0.040683899 0.91690397 2.02526 13615795
0.0394716 0.91778499 2.0281601 13813174
0.0382994 0.91635698 2.0280299 13615794
0.042413101 0.91594398 2.0228801 13549745
0.048633602 0.90780002 2.00545 12629150
0.046804499 0.90971202 2.0101299 13286572
0.0473295 0.90952599 2.0098901 13286572
0.051316001 0.90588599 1.99976 11183235
0.050431401 0.90860403 2.0025799 12629148
0.054009899 0.90702599 1.9984601 11381124
0.058637802 0.90460098 1.99466 10196595
0.032813501 0.920699 2.02826 14076348
0.034857702 0.918926 2.0288401 13944761
0.036601901 0.91974598 2.02671 14142140
0.043262299 0.91777301 2.0207 13812917
0.042169601 0.91811401 2.02407 13747381
0.043427002 0.91571498 2.0193801 13417902
0.0490545 0.908961 2.00172 12432026
0.051390901 0.90815598 2.0000801 12169364
0.051350702 0.90972102 2.00213 13484462
0.053842999 0.90871799 2.00032 13023651
0.0565852 0.90747899 1.99479 11905936
0.059589799 0.90584397 1.98959 10985600
0.035978399 0.92143601 2.0278001 14142139
0.0397618 0.92163098 2.0269301 14076090
0.043736801 0.91479498 2.0060699 13878966
0.043256599 0.91970998 2.0222399 14076346
0.041537602 0.92068499 2.02461 14207933
0.049013 0.91315103 2.0037799 13747381
0.051851999 0.91075498 1.9982001 13220776
0.0542203 0.91119498 1.99771 13549999
0.062101599 0.90550798 1.9869699 10591607
0.0437508 0.91713297 2.00687 13417901
0.043123901 0.91747802 2.0103099 13286572
0.042484 0.92248398 2.02247 14273469
0.041385598 0.92267102 2.0260301 14273725
0.043088101 0.92388701 2.0249 14339262
0.042168401 0.92374599 2.02894 14405312
0.050824098 0.91400599 2.0001199 13418158
0.057234101 0.909751 1.9927 12760737
0.059392601 0.90981799 1.98966 12432027
0.060585499 0.90874898 1.98998 12694942
0.064552501 0.90744698 1.9841599 12235160
0.066959403 0.90757102 1.98218 11511186
0.065529302 0.908557 1.98464 11906194
0.047570199 0.91609901 1.99883 13483952
0.046744801 0.91909599 2.0059199 13352108
0.049745001 0.91629899 1.9987299 13549745
0.055131901 0.91250801 1.99279 13286315
0.057601601 0.91227901 1.99023 12629913
0.061587699 0.910267 1.9866199 12432025
0.064769298 0.90983599 1.9821399 12234650
0.069309399 0.90774798 1.98013 11576980
0.074292697 0.90686703 1.97794 10195328
0.077376097 0.90567601 1.97711 11379085
0.079164103 0.90577602 1.9743 11576718
0.081759103 0.90508199 1.9726599 11379338
0.052932799 0.915362 1.99273 13747123
0.062586702 0.91209602 1.9821301 13352876
0.066763803 0.90990901 1.98066 11510673
0.069543198 0.91010898 1.97816 11642774
0.069014996 0.91070598 1.98068 12234397
0.083144501 0.906156 1.96955 11905936
0.0573962 0.91605997 1.9901299 13813173
0.0580834 0.91408497 1.98487 13089191
0.057851199 0.91484398 1.98777 13352364
0.060373001 0.91464603 1.98546 12366488
0.062560901 0.91535997 1.98576 12761500
0.066904597 0.91303802 1.98061 13220778
0.066868097 0.91429001 1.98312 13681842
0.069388598 0.91406298 1.98236 13681586
0.071858399 0.91032499 1.9761 11642774
0.071324997 0.91091502 1.9786 12103069
0.074218899 0.91048801 1.97411 11642773
0.073802002 0.91098499 1.97676 13287087
0.076947398 0.90928203 1.97349 12694947
0.080312699 0.908921 1.9723099 12760482
0.082829997 0.90866101 1.9707 12826529
0.069419399 0.91229498 1.97602 12760742
0.073945403 0.91551203 1.9812599 12563874
0.075661398 0.914698 1.9790601 13484209
0.077682398 0.91196501 1.9715 13418414
0.0787341 0.91334701 1.9742301 12300445
0.078271903 0.91257203 1.97501 12037274
0.087381698 0.91056103 1.96745 13155239
0.078821398 0.91577798 1.97487 13615792
0.076878801 0.91439497 1.97609 13089706
0.080771796 0.91474098 1.9730999 13089957
0.076622799 0.91689003 1.97659 13879222
0.076724298 0.91701698 1.97647 13879223
0.076838396 0.91827399 1.97886 12825762
0.079530403 0.91406298 1.96907 13483952
0.082928203 0.914334 1.97041 13024673
0.0878755 0.91268498 1.9658099 13418157
0.077838004 0.91887498 1.97471 13945015
0.080287099 0.918782 1.97247 13945013
0.082902104 0.91787302 1.96907 13813682
0.087198898 0.91510898 1.96691 12432283
0.0849794 0.9181 1.96683 13879220
0.084737003 0.91929299 1.96896 13945269
0.097153299 0.91496801 1.95864 11971734
0.099960402 0.91454798 1.95447 12762014
0.099559002 0.915075 1.9569 12564124
0.088403702 0.91860598 1.9595701 13681588
0.088111199 0.91993999 1.9620399 13879478
0.0913537 0.91812199 1.95866 12958118
0.094921999 0.91712302 1.95851 12892835
0.097555697 0.91717303 1.95698 12893345
0.099594899 0.917786 1.95778 12959137
0.087738998 0.92108101 1.96472 14010552
0.089781001 0.920057 1.95917 13878967
0.094990097 0.919819 1.95623 13221799
0.094917201 0.92041898 1.95924 13550766
0.0968628 0.92074502 1.95629 13419175
0.084049098 0.92556399 1.9624 13615793
0.094653703 0.92313701 1.95618 14142139
0.093984798 0.92425901 1.95893 13156009
0.097499102 0.92302799 1.95363 13419430
0.099857397 0.92299998 1.95135 13090977
0.088152699 0.932437 1.9556201 14207932
0.088061199 0.93378597 1.9584 14142139
0.088832803 0.93337202 1.95034 13812917
0.087730601 0.935471 1.96067 13813173
0.0887172 0.93474501 1.9530801 14141882
0.088729396 0.93237901 1.94725 13352877
0.090595402 0.934192 1.9500999 13878709
0.090842798 0.93282199 1.94762 13550253
0.090323098 0.93304402 1.9473 13549998
0.090445802 0.93180698 1.94481 13090212
0.114615 0.92579901 1.9048001 13023141
0.116732 0.92637199 1.90295 12694688
0.1091 0.92862201 1.90169 12957606
0.111736 0.92934197 1.90283 13088935
0.114244 0.92940199 1.90159 13088936
0.111068 0.93105698 1.90452 12957606
0.112918 0.93155098 1.90284 13221035
0.115065 0.93104601 1.89792 12694432
0.077812001 0.95651299 1.95356 14734534
0.076182202 0.95543498 1.95375 14734533
0.0737544 0.95974398 1.9529901 14866120
0.133875 0.93391502 1.88667 13220778
0.136765 0.93115401 1.88481 12957862
0.138653 0.931907 1.88503 13089447
0.13898499 0.931238 1.88272 12957860
0.143546 0.93006301 1.8825099 12761761
0.148523 0.93123198 1.88279 12958626
0.148532 0.92986703 1.88032 12762019
0.146791 0.930161 1.8834 12893347
0.070552103 0.96188498 1.95136 14997706
0.073349603 0.96175498 1.94946 14931913
0.073349603 0.96175498 1.94946 14931913
0.085910998 0.95708501 1.93643 14734533
0.13607199 0.93464601 1.88431 13286571
0.136079 0.934636 1.88719 13286828
0.13549 0.93547702 1.88614 13352621
0.138969 0.93410498 1.88313 13221034
0.138513 0.934901 1.88527 13352364
0.090292796 0.95192701 1.92149 14010809
0.136703 0.93680298 1.8856 12564379
0.071672499 0.96305501 1.94408 14931914
0.082139097 0.96138602 1.93799 14800326
0.081909798 0.962888 1.93973 14866119
0.084121898 0.96094 1.9355299 14734790
0.13968199 0.936454 1.88104 13352620
0.087636702 0.95653403 1.91854 14339775
0.089756198 0.95522398 1.91698 14207932
0.091913998 0.95482397 1.9143 14142140
0.092215799 0.95343798 1.91189 14076345
0.091403499 0.956191 1.91667 14273726
0.091403201 0.95669401 1.91601 14273982
0.0935532 0.95571601 1.9139 14207933
0.093650497 0.95567298 1.91415 14207933
0.105599 0.95114201 1.90209 13813430
0.107466 0.95171797 1.90202 13879221
0.088305697 0.95851499 1.9164799 14471361
0.0898339 0.95955902 1.9158601 14602691
0.091500998 0.95876902 1.91372 14405568
0.094473697 0.95655698 1.9092799 14273725
0.094473504 0.95637703 1.9092 14273468
0.094473504 0.95637703 1.9092 14273468
0.094473504 0.95637703 1.9092 14273468
0.096679002 0.95589799 1.9068 14207931
0.097012497 0.95463598 1.90426 14537154
0.097096398 0.95644599 1.91056 14207931
0.097096398 0.95644599 1.91056 14208188
0.097096398 0.95644599 1.91056 14208188
0.099402599 0.95604599 1.90837 14142395
0.099298999 0.95582098 1.90809 14142394
0.10169 0.95340502 1.90107 13945014
0.10157 0.95564699 1.90624 14142138
0.101848 0.95439202 1.90404 14471361
0.103981 0.954059 1.90213 14010551
0.161209 0.93237299 1.85596 12234906
0.0894299 0.96092898 1.91824 14668485
0.0915097 0.96046102 1.91557 14602948
0.090988003 0.96195602 1.91774 14602948
0.093294904 0.95942998 1.91352 14536897
0.093183704 0.96136498 1.91527 14668484
0.098738402 0.955486 1.90404 14602947
0.102869 0.95496702 1.89994 14536897
0.109842 0.95408899 1.902 14471361
0.111041 0.95472199 1.8992 14471361
0.102627 0.95639998 1.90224 14602948
0.104702 0.955957 1.89964 14602691
0.109044 0.95618099 1.90021 14537411
0.17569099 0.93554002 1.855 13288618
0.098542601 0.96148098 1.90705 14537155
0.100586 0.96081102 1.90442 14471105
0.10268 0.96008998 1.90187 14339775
0.107801 0.95859897 1.90202 14800326
0.110489 0.958574 1.89999 14734790
0.114343 0.95943397 1.9031399 14142138
0.116663 0.959934 1.9031 14142396
0.17622299 0.93755502 1.8532701 13288364
0.178147 0.93829799 1.85342 12761509
0.178323 0.93759501 1.8509901 11906202
0.102228 0.961667 1.90402 14536898
0.10382 0.96256799 1.90353 14537154
0.104342 0.960926 1.9015 14405567
0.10482 0.96231401 1.90421 14471617
0.107113 0.96135098 1.90202 14405567
0.10912 0.96224201 1.90134 14405569
0.112868 0.96204698 1.9028701 14471362
0.115747 0.96279502 1.90372 14405313
0.117706 0.96048301 1.9009399 14273982
0.121711 0.95076102 1.87411 14142397
0.122039 0.96008402 1.89856 14011065
0.176035 0.94141001 1.85585 13616816
0.176158 0.94060498 1.85342 13616560
0.178396 0.94077301 1.85392 13484977
0.178602 0.93928099 1.85163 12498339
0.180619 0.93800199 1.85163 11774618
0.183184 0.93770599 1.8501 11774616
0.106182 0.96338302 1.90337 14471874
0.109327 0.96436602 1.9018199 14537413
0.118136 0.95490003 1.87993 14405826
0.120483 0.95417303 1.87806 14405826
0.121197 0.95324701 1.87456 14274240
0.17236599 0.94320703 1.8556 13813428
0.17201699 0.94406199 1.85785 13682098
0.174633 0.94363397 1.85621 13879221
0.177323 0.94400698 1.85712 13945015
0.17740899 0.942976 1.85498 13879478
0.18008099 0.94336301 1.85542 13681844
0.179883 0.94223201 1.85276 13616306
0.108324 0.96657097 1.90223 14602948
0.11472 0.96578598 1.90016 14537155
0.182346 0.94274902 1.85288 13616053
0.18422499 0.94369 1.85243 13813175
0.110202 0.96656102 1.90019 14537412
0.110483 0.96809399 1.90198 14668741
0.113802 0.96717602 1.8982 14602947
0.113808 0.96714401 1.89812 14602947
0.115573 0.96780097 1.90004 14602947
0.118801 0.957066 1.8777 14405569
0.120906 0.95718002 1.87725 13091239
0.121224 0.95606202 1.87501 14405826
0.123213 0.95693302 1.87529 14340032
0.18310399 0.943681 1.8482 12630428
0.182615 0.94510001 1.85028 13812918
0.18359099 0.942267 1.84611 13550256
0.117255 0.95968002 1.87714 13485739
0.123577 0.95826501 1.87123 14405569
0.127924 0.95714599 1.86884 14339775
0.183893 0.944601 1.84359 12630428
0.114902 0.969365 1.8976099 14668740
0.117791 0.96161902 1.87402 13682862
0.118567 0.96169001 1.87772 14077620
0.123439 0.96017498 1.87288 13617579
0.119567 0.96272302 1.8753099 14077621
0.122663 0.96009803 1.86939 14537155
0.123448 0.96246499 1.87111 14734535
0.124704 0.96000701 1.86911 14471619
0.128013 0.960289 1.86847 14537155
0.13044301 0.95784003 1.86304 14406082
0.118911 0.96673 1.8789901 14932427
0.126458 0.96290702 1.8687299 14800327
0.13053501 0.96080399 1.86315 14471362
0.13196 0.96245003 1.86081 14537413
0.13373999 0.96141899 1.85878 14471363
0.13390499 0.95855099 1.85456 14405569
0.13430201 0.95945799 1.85769 14471619
0.135848 0.96076798 1.8568799 14471876
0.136427 0.958938 1.85539 14406081
0.13828801 0.95992899 1.85509 14471619
0.135671 0.96321201 1.85748 14603204
0.138257 0.96223998 1.8559099 14471618
0.140174 0.96073002 1.8547699 14471876
0.142094 0.95977497 1.85217 14471618
0.13142 0.96502602 1.86115 14800328
0.133396 0.96426803 1.85908 14668742
0.13744099 0.96429902 1.85704 14603461
0.140655 0.96281999 1.85217 14537154
0.143317 0.96084702 1.84828 14471618
0.145059 0.959979 1.84539 14405569
0.140379 0.96474099 1.85403 14603204
0.142463 0.96352702 1.8516901 14537154
0.145303 0.96303397 1.85033 14537154
0.145128 0.96154499 1.84781 14471619
0.1471 0.96208203 1.84759 14471361
0.148986 0.96108299 1.8449399 14340032
0.14104 0.96696001 1.85167 14800582
0.145803 0.965051 1.84776 14603204
0.145657 0.96682799 1.84982 14734790
0.14761899 0.96575999 1.8473001 14668741
0.147213 0.96951097 1.84867 14932170
-0.139696 0.87085998 2.2027299 12893856
-0.14072099 0.87191999 2.2028 12762015
-0.13701101 0.87099302 2.19874 12696221
-0.13541099 0.87114102 2.19679 12498843
-0.133065 0.87090498 2.1938701 12367256
-0.098637201 0.87266099 2.1823399 13286569
-0.138982 0.87241697 2.2014599 12893601
-0.13691901 0.87263101 2.20048 13025188
-0.135989 0.87227702 2.1972699 12827552
-0.135002 0.87354797 2.19576 12827552
-0.133375 0.87371802 2.1938701 13025186
-0.129531 0.87173802 2.1911299 12432791
-0.12756801 0.87202901 2.18999 12630425
-0.12794399 0.87392598 2.1918399 12893344
-0.13199501 0.87530297 2.1919799 13090723
-0.121273 0.87414098 2.18416 12958881
-0.120189 0.87552702 2.1830399 12695200
-0.11938 0.87439901 2.1828201 12300698
-0.118137 0.87595701 2.1819799 12760739
-0.078865498 0.877671 2.1546299 12498837
-0.13238899 0.87746501 2.1930201 13616303
-0.126747 0.877244 2.1898401 13418923
-0.11928 0.87689 2.18167 12958118
-0.119434 0.87831801 2.1830299 13681587
-0.117555 0.878658 2.1816399 13681330
-0.116248 0.87871099 2.1793301 13615536
-0.079193801 0.878833 2.15941 12892830
-0.0604298 0.87499499 2.1177199 10591598
-0.13356601 0.88012999 2.1894701 13879220
-0.130977 0.88112003 2.1895001 14010294
-0.12580501 0.88115698 2.1858001 11906706
-0.11664 0.87996399 2.18015 13681331
-0.118851 0.87943202 2.1809499 13681331
-0.11182 0.88416898 2.1893899 14010296
-0.115289 0.880427 2.1787601 13681331
-0.103555 0.88236099 2.17855 13681331
-0.100168 0.88409698 2.1770599 13681586
-0.061236899 0.88075101 2.1338899 12432531
-0.061460398 0.87897599 2.12816 11972743
-0.060867101 0.87992901 2.1316299 12367249
-0.0593828 0.87651199 2.11534 10788722
-0.138484 0.88203901 2.1909599 14010552
-0.136122 0.8829 2.1904199 14076088
-0.13537399 0.88133103 2.1891201 13945014
-0.133757 0.88362002 2.18993 13156260
-0.131845 0.88237703 2.1865301 14010550
-0.132671 0.882236 2.1893401 12893344
-0.13192999 0.88401598 2.18857 12959138
-0.125278 0.88192803 2.1823499 13944502
-0.126816 0.88274902 2.1831701 11906963
-0.113886 0.885131 2.1908801 12958883
-0.116369 0.88473201 2.1912 12893348
-0.112252 0.88579798 2.1833301 12893347
-0.103544 0.88618797 2.1837599 13090723
-0.104216 0.88729799 2.18416 12827549
-0.102385 0.88474602 2.17962 13813173
-0.101964 0.88630998 2.1817999 13944760
-0.099933803 0.88550103 2.1793001 13813172
-0.098113999 0.886172 2.1746399 13747635
-0.096541598 0.88563699 2.17448 13747122
-0.096270099 0.88582301 2.1702499 12498073
-0.078231104 0.884179 2.1486599 12433808
-0.080948398 0.88413298 2.14852 12564884
-0.058438402 0.88087499 2.12325 12234640
-0.0565346 0.88251001 2.1224899 12826522
-0.058485001 0.87788999 2.11251 11117429
-0.056180101 0.87950301 2.1140599 10262385
-0.0540746 0.88081998 2.1156099 10986612
-0.0546702 0.88007599 2.1122401 10591094
-0.134463 0.88477802 2.1904399 13090724
-0.133303 0.886195 2.1897099 12893341
-0.13262101 0.88510603 2.1891301 13222052
-0.13030399 0.88601398 2.1885099 12959138
-0.100088 0.88719398 2.1764801 13878966
-0.098737903 0.88904798 2.17471 14010552
-0.095886998 0.88805801 2.1751299 13944758
-0.096531197 0.88865101 2.1704199 13878965
-0.094971098 0.88737798 2.1682899 13747378
-0.092255302 0.886756 2.1681099 13681585
-0.081775002 0.886235 2.15044 13024671
-0.057065099 0.88410997 2.1249599 13023392
-0.055823602 0.88208199 2.1189799 12498065
-0.053233601 0.88071501 2.1103001 10722935
-0.047843099 0.88274401 2.1064501 11512192
-0.130978 0.88710201 2.18909 12696219
-0.12946101 0.887528 2.18701 12827553
-0.128749 0.88748598 2.18348 12695969
-0.093046397 0.88938999 2.16745 13878965
-0.086944401 0.89021701 2.1591201 13747378
-0.074854597 0.88614798 2.13218 12695708
-0.0879035 0.89361799 2.1651599 13090980
-0.088077001 0.89046001 2.15115 13681328
-0.086734802 0.892304 2.15488 13813172
-0.080013297 0.88867801 2.14031 12696470
-0.0317894 0.887918 2.0904901 12628636
-0.086515203 0.891164 2.1461301 13615535
-0.086764 0.892483 2.14888 13747379
-0.084754601 0.89194101 2.1447799 12893339
-0.085182697 0.89341998 2.1474199 13747380
-0.063203096 0.89092201 2.1234701 12235668
-0.047049001 0.89907002 2.13975 13484206
-0.0559773 0.889467 2.10992 12957602
-0.029757701 0.89007998 2.0927401 12891554
-0.030123999 0.889126 2.0897901 12825759
-0.097191103 0.89379603 2.15363 13878966
-0.083579801 0.89366198 2.14291 13681586
-0.082510397 0.89516997 2.1405101 13681843
-0.063606903 0.89432299 2.1206501 12432534
-0.063440204 0.89242101 2.11924 12235668
-0.0619906 0.89357603 2.1159201 13286570
-0.057118401 0.89284801 2.11146 13220777
-0.072437398 0.89962 2.13993 14076345
-0.070535198 0.89834899 2.1372001 13879222
-0.053038001 0.90122002 2.13831 13549997
-0.062804103 0.895751 2.1192 12498328
-0.061926398 0.89647502 2.11642 13483950
-0.060291 0.89544702 2.1159799 13418413
-0.060906202 0.894943 2.11921 13418413
-0.060795601 0.89420801 2.11344 13286571
-0.055152498 0.89396501 2.1108999 13352107
-0.048526201 0.89552999 2.10588 12300946
-0.048611298 0.89554799 2.10584 12300946
-0.0470553 0.89593202 2.1038699 13286570
-0.047113501 0.895877 2.1038699 13286570
-0.0456983 0.89378798 2.1026499 13154982
-0.045501798 0.89535201 2.10112 13221033
-0.025290901 0.89476103 2.0815699 12497308
-0.083616801 0.89914697 2.14224 14010810
-0.071965501 0.90332198 2.14536 14405568
-0.0708808 0.90245801 2.1414399 14339519
-0.072180703 0.90110999 2.1431701 14273725
-0.071398199 0.90119201 2.1380301 14142395
-0.069399297 0.90116102 2.1381299 14142395
-0.0614665 0.89984798 2.11901 13813172
-0.063494697 0.89752299 2.1169801 13549743
-0.061540201 0.89916903 2.1178 13681586
-0.062362801 0.89859003 2.1142299 13615536
-0.060174 0.89639997 2.11079 13417901
-0.056205701 0.897183 2.11164 13549487
-0.054447301 0.89662498 2.1092401 13418157
-0.054447301 0.89662498 2.1092401 13418157
-0.053204399 0.89711201 2.1068499 13418157
-0.0484685 0.89794999 2.1049399 12564120
-0.046971601 0.89841098 2.1029999 12564121
-0.0477436 0.896963 2.10444 12432534
-0.047789998 0.89691401 2.1043999 12432534
-0.0442352 0.897304 2.10133 13418156
-0.084773198 0.90248799 2.1424301 14208189
-0.082010202 0.90207797 2.1436999 14273982
-0.085883602 0.89831901 2.11993 12368018
-0.0740389 0.900684 2.1249199 13813174
-0.0615336 0.90170097 2.12042 12959392
-0.059863701 0.90110302 2.11812 12893088
-0.060526501 0.90020198 2.115 13747379
-0.051323101 0.90097702 2.1149001 13287084
-0.0522925 0.90043402 2.1117101 12498077
-0.051065899 0.89977998 2.10847 12761502
-0.050221302 0.901088 2.10588 12958881
-0.0493812 0.90156502 2.10449 12958625
-0.048546299 0.90052801 2.1040499 12827038
-0.047789201 0.89943302 2.1034801 12629914
-0.0446431 0.89931101 2.1024201 12761501
-0.026778899 0.89882803 2.0752499 12628894
-0.066640697 0.90497202 2.12222 13419178
-0.0600105 0.90368098 2.1199701 13419433
-0.051090401 0.90379 2.1113701 13616048
-0.050722301 0.90372902 2.10572 13155751
-0.050209299 0.90259999 2.1049399 13089955
-0.0470744 0.902399 2.10391 13024165
-0.046328299 0.90268999 2.0990901 12827040
-0.037522901 0.90179098 2.0922101 13681330
-0.0314417 0.90223902 2.08992 13681331
-0.0307467 0.901393 2.08463 12958365
-0.0296182 0.90319502 2.08445 12958368
-0.024734501 0.899858 2.0769801 13023653
-0.024088901 0.90195203 2.0766399 13483949
-0.025423201 0.90139103 2.07865 13483694
-0.0232771 0.90006298 2.07144 12629148
0.027615201 0.89986199 2.0349801 10919299
-0.0887376 0.90275198 2.1233399 13682096
-0.0870886 0.90178502 2.1200299 13419689
-0.0484646 0.90437102 2.0992899 13024164
-0.047719602 0.90336102 2.09867 12827040
-0.044290401 0.903597 2.0954001 13747380
-0.033197399 0.90486699 2.0890901 13813174
-0.031246301 0.903974 2.08671 13747124
-0.026753699 0.90468001 2.0877299 13878967
-0.025254801 0.90513498 2.08582 13878967
-0.0252198 0.90503901 2.08021 13352620
-0.0234007 0.90414298 2.0803199 13155242
-0.021039501 0.90357 2.07687 12957863
-0.016481601 0.90279299 2.0717001 13681072
0.0274317 0.904558 2.03299 12299676
0.0298992 0.90417498 2.0308399 12102807
-0.090022102 0.90605402 2.1235199 14010553
-0.089673802 0.90374601 2.1159699 13419432
-0.0499149 0.90833598 2.1057799 13813173
-0.0450924 0.90631199 2.0952301 13352874
-0.044135101 0.90795499 2.0929401 14010554
-0.041722901 0.90742499 2.09009 14010553
-0.036747798 0.90605903 2.08904 12827295
-0.027004 0.90595901 2.0801401 13352620
-0.0237009 0.90578997 2.0785301 13418415
-0.022267399 0.906398 2.07669 13484208
-0.0239847 0.90734398 2.0766499 13484208
-0.0155979 0.905285 2.0690899 13221033
-0.0062316102 0.90632802 2.0569999 12892580
0.042166598 0.90391099 2.0111499 10262385
0.044178601 0.90334201 2.00933 10327667
-0.089444697 0.90828502 2.12079 13222309
-0.053262901 0.91128701 2.1082499 14010552
-0.0505706 0.91072601 2.1064 14405569
-0.048712801 0.910478 2.10448 14405312
-0.047650401 0.91093302 2.1036201 14405312
-0.046367101 0.908755 2.09356 13615791
-0.047749098 0.90977198 2.09356 13747121
-0.0436146 0.90833002 2.09252 14010810
-0.043511 0.90998799 2.0941601 14208189
-0.042263102 0.91035801 2.0918 14208189
-0.0404661 0.91040599 2.0904801 14273726
-0.038548902 0.91087502 2.0894799 13353896
-0.0350319 0.90979701 2.0913701 14273981
-0.026012801 0.90814501 2.07618 13484208
-0.0237108 0.90903097 2.07355 13550002
-0.022579201 0.90944302 2.0712299 13615794
-0.0209563 0.90843701 2.07112 13550000
0.0100229 0.90940702 2.0450499 13812916
0.0072450899 0.90525502 2.0379 11839635
0.0084581897 0.90434903 2.0334301 10589569
0.0111102 0.90630198 2.03462 11181450
0.0410426 0.90591198 2.0160201 12300946
0.041377299 0.90604401 2.01544 12300691
0.041629001 0.90717 2.0183799 12826782
0.0439707 0.90584099 2.00933 11050882
0.047160499 0.90622401 2.0067301 10787455
-0.052556802 0.91370201 2.1059101 14076346
-0.049852598 0.91118503 2.0984499 13878709
-0.0485355 0.91328597 2.1015601 14471362
-0.043106101 0.91253102 2.0924399 14339775
-0.041027199 0.912274 2.09162 14405311
-0.031606801 0.91335499 2.0859599 14405312
-0.0284872 0.91017002 2.0768001 13681587
-0.0266768 0.90952599 2.0737801 13615538
-0.025663299 0.91137803 2.0710499 13681588
-0.0242757 0.91043502 2.0711901 13681332
-0.021309299 0.91011798 2.0692799 13616051
-0.0155653 0.91150498 2.06387 14142137
0.0072714002 0.91017503 2.0469699 13945016
0.0095126498 0.90967798 2.0375199 13220778
0.0118277 0.91065699 2.0369401 13286572
0.0116781 0.90920901 2.03497 12957862
0.0107582 0.90762699 2.03599 12365725
0.0411001 0.91230798 2.0255201 13615538
0.0428118 0.91184002 2.0245399 13549745
0.047436401 0.90831399 2.00787 12694688
0.071988203 0.90630698 1.97895 9142896
0.084602997 0.90585703 1.96813 10393969
-0.0487515 0.91553599 2.0980201 14076345
-0.045264699 0.91661298 2.0962999 14076346
-0.026592599 0.91239202 2.07131 14142396
-0.023912201 0.911834 2.06967 13747381
-0.0233425 0.913158 2.06812 14273726
-0.024846099 0.91283399 2.0699601 14207933
-0.0124362 0.91333699 2.06073 13878454
-0.0102494 0.912808 2.0583601 14207933
0.010433 0.91346002 2.04441 14208188
0.0104176 0.91188997 2.04246 14076346
0.0110897 0.91161901 2.0375199 13418157
0.0133723 0.91258103 2.03689 13484465
0.015652999 0.913544 2.0362501 13615794
0.0141369 0.91163099 2.03635 13418158
0.018241899 0.912081 2.0306599 13286571
0.045515399 0.91101199 2.0078001 12760227
0.085280597 0.909567 1.96883 11314563
0.085174397 0.907888 1.96461 10196591
-0.037735201 0.91820198 2.0864401 13879733
-0.0337427 0.91744 2.08391 14537154
0.0127704 0.91612703 2.0458 13879223
0.0146994 0.91697299 2.0401299 13615793
0.017438401 0.91612601 2.0376699 13813174
0.0192277 0.91640699 2.0363801 13813174
0.017919401 0.91449797 2.0355899 13681588
0.020333 0.91489297 2.03549 13747380
0.023735199 0.91649997 2.0326099 13747637
0.0228847 0.91592699 2.0353899 13813173
0.0207226 0.91314399 2.02637 13221033
0.044952299 0.91739303 2.0179 13220779
-0.042781401 0.91807699 2.0886099 13682355
-0.041487601 0.91988403 2.0887599 13813687
0.0154977 0.919034 2.0436399 13813173
0.0167119 0.91775 2.0392301 13681587
0.0184163 0.91804898 2.03756 13681587
0.0182677 0.918185 2.0376 13681587
0.045818601 0.91885501 2.01683 13550258
0.0448355 0.919191 2.0194399 13747124
0.049281001 0.91610301 2.0027499 12693662
0.00669102 0.917781 2.0351601 14274238
0.0204926 0.92090499 2.0383201 13878967
0.022368301 0.920838 2.0371301 13878710
0.023558799 0.92064399 2.0349 13813173
0.044180699 0.92151099 2.0200901 14076347
0.0450764 0.92260599 2.02298 14141883
0.0457776 0.92107999 2.0174799 13879224
0.046476301 0.92255098 2.01928 14010552
0.042489 0.920035 2.01003 13352109
0.047104601 0.92039502 2.01511 13878966
0.044617999 0.91880703 2.0088799 13154472
0.0456791 0.91981101 2.0116601 13615794
0.048406199 0.91842598 2.0030899 13154729
0.049850699 0.91896099 2.0007501 13417903
0.051136501 0.91955698 1.99863 13418159
0.0534968 0.919222 1.99827 12628889
0.087416001 0.91653401 1.96137 12168601
0.086388998 0.91493303 1.95444 11181958
0.046714999 0.92297101 2.0152099 14076603
0.047591701 0.92427599 2.0172901 14076346
0.048307601 0.92421401 2.0139799 14207933
0.049898099 0.92262 2.0114999 13944503
0.052251201 0.92497897 2.01244 14273727
0.054349702 0.92617899 2.0132101 14207676
0.0512271 0.92098802 2.0006299 13418158
0.056210399 0.921767 1.99643 12958111
0.054261599 0.92022002 1.99544 12892574
0.0556884 0.92071998 1.99361 12497813
0.054012399 0.91897702 1.9931099 12432276
0.0575625 0.92193699 1.99192 12694939
0.061579902 0.92171502 1.99245 13418668
0.086066902 0.91890103 1.96224 13155241
0.084553704 0.91674101 1.9563 12694686
0.055301201 0.928231 2.0125201 14207676
0.054558098 0.92612898 2.0080199 14076091
0.056722101 0.92843401 2.0106399 14207676
0.0577223 0.92658198 2.00617 14076346
0.0583493 0.92873901 2.0090599 14142140
0.058314402 0.92555201 2.0037 14142139
0.059985001 0.92492598 1.9977601 13813173
0.0593253 0.92622 1.99871 14010553
0.058014199 0.92210197 1.9886301 13155492
0.059406299 0.92257601 1.98673 13221031
0.060376901 0.92375702 1.9859 13418156
0.064833201 0.923913 1.9832 13352108
0.063386999 0.923522 1.9850399 13352108
0.071609303 0.92422801 1.98014 13022884
0.056147698 0.932145 2.0140901 14339775
0.056786899 0.93010402 2.0125401 14207932
0.058292098 0.93100899 2.0109601 14208189
0.060622901 0.93072498 2.01034 14208189
0.0609117 0.92719799 1.99744 14076346
0.063215598 0.92702901 1.99712 14076346
0.066026203 0.92484301 1.98122 13417901
0.064031199 0.92317802 1.98008 13155241
0.071364403 0.92757601 1.98334 13813172
0.070223399 0.925614 1.98303 13483951
0.065530397 0.92386597 1.97855 13221034
0.072161101 0.926507 1.98028 13286312
0.072318003 0.92678797 1.98034 13286569
0.071399301 0.92478901 1.97988 13023141
0.072424904 0.92600602 1.97752 13088934
0.072646201 0.92552602 1.9778399 13023141
0.074250601 0.92655599 1.97673 13483950
0.073555797 0.92589903 1.9735399 13352364
0.072465502 0.92411798 1.97303 13220777
0.075272404 0.92490202 1.97001 13221034
0.057922199 0.933725 2.0140901 14536898
0.0586612 0.93485498 2.01267 14537155
0.056929499 0.932374 2.0123501 14339775
0.058534399 0.93333203 2.01092 14405312
0.0612817 0.93303198 2.0093601 14339775
0.0690905 0.92838901 1.98592 14010296
0.069376901 0.92946202 1.98753 13878709
0.0707957 0.92922002 1.9848599 14010553
0.070761599 0.930673 1.98589 13878710
0.0727771 0.92821699 1.9816099 13615534
0.072610199 0.92897499 1.98094 13944501
0.071552403 0.929811 1.98339 14010552
0.074980304 0.92966902 1.9795001 13944758
0.073422499 0.92792499 1.97847 13681586
0.0736738 0.92798299 1.9787101 13747122
0.076194599 0.92908001 1.97672 13813173
0.075021803 0.92860699 1.97711 13812916
0.077689096 0.92941302 1.97499 13812916
0.0768883 0.92763102 1.97284 13220520
0.075122103 0.92610699 1.97214 13022885
0.075486504 0.92716497 1.9746799 13483951
0.078272097 0.92812097 1.97097 13220521
0.077451803 0.92809701 1.9728301 13549744
0.075416401 0.92466301 1.9664 13155240
0.082534097 0.92785501 1.96331 13681331
0.085000902 0.926615 1.95757 12760739
0.057472799 0.933505 2.0013599 14339775
0.055606399 0.93218702 1.9974101 14273981
0.067894503 0.93298501 1.98563 13945016
0.072098203 0.93183202 1.98419 13878965
0.073953003 0.93164998 1.98039 13878708
0.076375797 0.93029797 1.97769 13944759
0.076044299 0.93161702 1.9798599 13878709
0.075715102 0.93202603 1.9789799 13878709
0.077552803 0.93122602 1.97553 14010295
0.079118803 0.92981601 1.97314 13812916
0.079952098 0.92937201 1.96951 14076090
0.081199899 0.92902797 1.96608 13878711
0.081761099 0.93112701 1.96802 13812918
0.0837605 0.92921603 1.96148 13747381
0.086309403 0.92884201 1.95935 13681331
0.085968301 0.92845702 1.95596 13220778
0.086340003 0.92728698 1.95333 12103065
0.0566715 0.933734 1.99536 14339774
0.0549202 0.93308997 1.9921 14405568
0.062779501 0.93384898 1.9902101 14273725
0.064366899 0.934053 1.98861 14208188
0.066008501 0.93415397 1.98709 14142396
0.064137399 0.93271101 1.98654 13945016
0.065824799 0.93577498 1.98861 14339775
0.066810697 0.93482399 1.98447 14142396
0.069282703 0.934192 1.984 14076347
0.070661798 0.93533701 1.98229 14207931
0.072610803 0.933599 1.9814 13944759
0.076609299 0.93313998 1.9765 13878710
0.078664601 0.93226701 1.97328 13747123
0.079467997 0.93445301 1.97325 13944503
0.079654798 0.93229502 1.96968 13878966
0.082639597 0.93362898 1.96603 13615281
0.0844291 0.93266702 1.96395 13812918
0.084795102 0.93135202 1.96025 14010554
0.0865293 0.93080699 1.95591 13812918
0.088152498 0.93140298 1.95244 13483950
0.067138597 0.936791 1.98544 14405312
0.068961099 0.936795 1.98406 14405056
0.070128798 0.93739003 1.98122 14405310
0.072240099 0.93730402 1.97779 14273725
0.073729001 0.93545997 1.97499 14010296
0.076327898 0.93649602 1.9771399 14142140
0.0743028 0.93625301 1.97808 14142140
0.076852404 0.93515497 1.97278 13944503
0.078616403 0.93620902 1.96893 13944759
0.080456398 0.93515903 1.96743 13812917
0.083967701 0.93505299 1.9646 13681331
0.089666203 0.93224299 1.94389 12761246
0.083522201 0.93760002 1.96499 13944760
0.081411302 0.93710601 1.96509 13944503
0.084890701 0.93686402 1.9621201 13747380
0.085484602 0.93858802 1.96301 14010296
0.091472499 0.934856 1.94537 13483946
0.0913257 0.93359601 1.94294 13221286
0.089832 0.93336898 1.93856 12695454
0.132496 0.92988402 1.89363 12628640
0.13529 0.92996597 1.8910201 12628639
0.150271 0.93093199 1.87971 10789502
0.085869402 0.94089198 1.96805 14273982
0.087412901 0.94146299 1.96663 14339519
0.088714004 0.94133002 1.95964 14141882
0.089964896 0.939888 1.95772 13944503
0.0910936 0.93823498 1.95476 13615281
0.090445198 0.93690902 1.9466701 13747121
0.091595203 0.93576598 1.9400899 13484204
0.102096 0.93225002 1.91222 12826017
0.101997 0.93059701 1.9101 12234391
0.114427 0.930103 1.89546 11904912
0.150181 0.932383 1.88205 12563612
0.151667 0.93365097 1.8802201 12760737
0.147588 0.92975497 1.87275 11247755
0.1564 0.93461102 1.87984 12629154
0.14923701 0.930426 1.87156 10393724
0.147792 0.92912 1.8699501 10852997
0.150903 0.93114001 1.87043 10723200
0.149542 0.92983401 1.86866 10853252
0.160482 0.93388999 1.87356 11774100
0.162328 0.93415397 1.8718801 11774102
0.084218897 0.94457603 1.96749 14471362
0.087786101 0.94237798 1.96219 14273725
0.089643799 0.93985897 1.9471 13681329
0.0900793 0.93921798 1.93934 13878196
0.089262702 0.93634701 1.9344701 12366238
0.091311 0.93795198 1.93531 13550002
0.081220798 0.93247098 1.91748 12629150
0.084403798 0.93215603 1.91433 12562843
0.098008104 0.933716 1.91425 12957604
0.102264 0.93383002 1.9144599 13089191
