# .PCD v0.7 - Point Cloud Data file format
VERSION 0.7
FIELDS x y z rgb
SIZE 4 4 4 4
TYPE F F F U
COUNT 1 1 1 1
WIDTH 1285
HEIGHT 1
VIEWPOINT 0 0 0 1 0 0 0
POINTS 1285
DATA ascii
0.165957 1.05626 2.3452401 14734278
0.19973999 1.0265501 2.2945499 14603205
0.20437799 1.02633 2.29757 14537411
0.213173 1.02675 2.2978201 14602948
0.21763299 1.02617 2.30037 14536898
0.223943 1.02636 2.3046801 14405313
0.22805101 1.02407 2.3004301 14405568
0.230873 1.0223 2.30125 14273982
0.23371001 1.0209 2.2960801 14339775
0.233605 1.02446 2.30234 14339775
0.243148 1.02324 2.30478 14339518
0.300455 1.0194401 2.32026 13418159
0.30531001 1.01588 2.3170199 13154730
0.31941301 1.01009 2.3078001 13220266
0.32434499 1.0073299 2.3069699 13220267
0.32632899 1.00867 2.3071799 13088680
0.378851 1.00767 2.3266101 11182461
-0.11028 1.05844 2.23034 15524824
-0.106582 1.05594 2.23016 15524568
-0.101251 1.05557 2.2269499 15590618
-0.096856698 1.05481 2.2306499 15327445
-0.082349099 1.0447201 2.2146201 15327188
-0.078005597 1.04135 2.20575 15327445
-0.0825487 1.0448999 2.2151899 15327188
-0.074556097 1.0386699 2.2067299 15196115
-0.054055098 1.03632 2.2056301 15261393
0.130198 1.05445 2.3209901 14931913
0.14589401 1.05722 2.33079 14931913
0.14694899 1.05524 2.3306799 14866121
0.15520699 1.05683 2.33687 14800328
0.160566 1.0578901 2.34025 14866121
0.16393401 1.05788 2.3415899 14866121
0.19623899 1.02999 2.2932899 14668998
0.201748 1.02722 2.2916901 14603205
0.21077301 1.02987 2.2974801 14734534
0.209953 1.02937 2.30111 14602947
0.21317101 1.03026 2.3016901 14800328
0.21706 1.0278701 2.29599 14734534
0.219851 1.02592 2.2960801 14668485
0.223525 1.02779 2.2988901 14668742
0.227824 1.02562 2.29566 14668741
0.229867 1.02328 2.29532 14471362
0.234476 1.0237 2.29688 14471362
0.246508 1.0233999 2.30145 14208189
0.31767899 1.01219 2.3050499 13286317
0.32379401 1.0121599 2.30918 13220267
0.37385401 1.0046901 2.3124101 12101522
0.37286499 1.00881 2.3217399 12035988
-0.096758097 1.05597 2.22504 15524824
-0.074543796 1.04079 2.2025001 15393237
-0.067799501 1.04093 2.20467 15392980
-0.062887199 1.04081 2.20801 15261651
-0.060641699 1.03862 2.20397 15327187
-0.057047099 1.03747 2.20048 15327187
-0.057057202 1.03731 2.20188 15261650
-0.053275801 1.03197 2.19329 15261394
-0.051057801 1.03293 2.1927099 15261651
0.123993 1.05787 2.3185599 14997964
0.127698 1.0572701 2.31533 14932428
0.13123199 1.0559601 2.3162501 14997964
0.135609 1.05354 2.3151801 14932171
0.146954 1.05825 2.3286099 14866378
0.15190201 1.05838 2.33248 14931914
0.157483 1.05957 2.3360901 14932169
0.174344 1.05683 2.3370099 14866378
0.211788 1.0308599 2.2952399 14800584
0.215275 1.03014 2.2970901 14734535
0.221921 1.0257 2.2918401 14734535
0.235649 1.02195 2.2856801 14668742
0.236095 1.02188 2.2897301 14537155
0.242074 1.02091 2.28494 14668742
0.31848401 1.0181201 2.31426 13483953
0.361543 1.01124 2.31301 12300178
0.37311 1.00714 2.3089299 12299417
0.37277099 1.00767 2.3144901 12102037
-0.078204498 1.04761 2.2085199 15590617
-0.071152598 1.04327 2.2040801 15459030
-0.062553696 1.04211 2.2046399 15393237
-0.058325201 1.0391999 2.1965499 15459030
-0.047662199 1.03417 2.1931801 15327444
-0.043563701 1.0336 2.1902201 15327445
0.159482 1.06287 2.3382001 14932170
0.16050699 1.06389 2.33601 14932427
0.16935 1.05907 2.3349199 14932171
0.167879 1.06312 2.3374901 14997963
0.209775 1.0347199 2.29548 14800585
0.210774 1.0327801 2.2953501 14866121
0.218889 1.03106 2.2948401 14800329
0.225906 1.0265 2.28917 14734792
0.22935601 1.02477 2.28618 14734792
0.23393001 1.02194 2.27738 14866121
0.237977 1.0201 2.2786701 14800328
0.30118501 1.01887 2.30196 14141881
0.358973 1.01492 2.31299 12760477
0.38270399 1.0045201 2.3062501 12102033
0.38453799 1.00121 2.29989 12167573
0.39278701 0.99744803 2.2930901 11905166
0.390533 0.998384 2.2943799 12036498
-0.066501901 1.04459 2.2031801 15525079
0.157508 1.06484 2.3341401 14932428
0.212743 1.03672 2.2951701 14866378
0.30124101 1.02307 2.3010099 14405569
0.36093 1.01363 2.3080001 12760733
0.373263 1.01013 2.3067 12891812
0.382007 1.00677 2.30286 12496795
0.38742301 1.00511 2.2997701 12431002
0.299817 1.0256799 2.29983 14537157
0.30501801 1.02338 2.3009501 14405570
0.31726101 1.01186 2.28267 14010810
0.32765099 1.01443 2.28725 14010295
0.330192 1.01294 2.2872701 13813173
0.35779601 1.0156699 2.3050699 13089446
0.36178401 1.01606 2.3045399 13154982
0.35942101 1.01799 2.3097501 13418414
0.36477101 1.01459 2.3054399 12958113
0.37392899 1.01368 2.3040199 12957860
0.37681201 1.0131299 2.3064201 12891811
0.38078901 1.0096101 2.2987199 12957093
0.385241 1.00773 2.3011799 12759969
0.39102501 1.0052299 2.29633 12693920
0.397513 1.00205 2.29179 12431001
0.39973301 1.0021501 2.2917199 12365465
0.30372101 1.02579 2.2993901 14471362
0.30744299 1.0262001 2.29948 14471362
0.31668499 1.01299 2.27704 14142397
0.32129699 1.01294 2.2802701 14076602
0.35899299 1.01499 2.2954099 13549743
0.36589101 1.0090899 2.2897401 13155239
0.36728299 1.0178699 2.3071599 13089703
0.375918 1.01319 2.2995801 13220776
0.384047 1.0095 2.29513 13023142
0.387214 1.00834 2.2964399 12957092
0.387705 1.00694 2.29214 12957349
0.39421001 1.00604 2.29445 12826018
0.39779601 1.00608 2.2934 12891811
0.40160599 1.0046901 2.29055 12891556
0.30250701 1.02807 2.29761 14602949
0.30644801 1.02775 2.2961199 14602948
0.31651199 1.02678 2.29656 14471362
0.31879401 1.02763 2.3011 14339777
0.32854599 1.01768 2.28351 14273983
0.327775 1.01642 2.283 14208189
0.327775 1.01642 2.283 14208189
0.334151 1.01615 2.2843399 14076346
0.34015101 1.0125901 2.2804599 13944502
0.34814301 1.01256 2.2790799 13878711
0.35761699 1.0070601 2.2718699 13681330
0.365354 1.01235 2.2865901 13615537
0.370359 1.0098701 2.28742 13352620
0.38018 1.01264 2.2951 13483696
0.38496301 1.00784 2.2880599 13154729
0.39318001 1.00969 2.2913699 13220522
0.39352199 1.00969 2.2953 12825764
0.394577 1.00849 2.2896399 13154986
0.40029901 1.00564 2.2913499 12957349
0.47011399 1.00981 2.32265 11510663
0.29982299 1.02808 2.28724 14866121
0.30880001 1.02975 2.2931001 14734792
0.32553899 1.02105 2.28319 14537156
0.33418199 1.01898 2.28122 14405312
0.337688 1.01615 2.2820799 14076346
0.37109599 1.01301 2.2847099 13681330
0.375195 1.00673 2.2733099 13615794
0.37872899 1.00577 2.2755401 13549744
0.38107899 1.01109 2.28825 13483950
0.38391799 1.0127 2.2881801 13550000
0.38577899 1.01151 2.29123 13286316
0.40003899 1.0094301 2.29248 13089193
0.401373 1.00849 2.2916501 13088936
0.400359 1.00736 2.2885699 13089193
0.30487999 1.0312901 2.28952 14931914
0.313932 1.0273401 2.2883101 14734535
0.31574699 1.02899 2.29228 14734535
0.32029301 1.02623 2.28649 14668999
0.32887101 1.02072 2.2802801 14602949
0.33957401 1.01688 2.27543 14339519
0.36365899 1.01123 2.2744701 13878966
0.37064001 1.0126899 2.2772801 13878966
0.37846699 1.00822 2.27262 13681586
0.40118599 1.01099 2.28845 13418415
0.406874 1.01237 2.2926199 13418414
0.45624 1.00263 2.29041 12431262
0.466925 1.00186 2.2929201 12167833
0.31741101 1.02964 2.2862 14800329
0.31714201 1.0312099 2.28844 14800585
0.326406 1.02434 2.2804501 14668741
0.32355499 1.0259 2.2836001 14668999
0.33327299 1.0220799 2.2787099 14669000
0.34831101 1.01561 2.27003 14405570
0.356801 1.0136 2.2716899 14142139
0.37357101 1.01504 2.2766399 14010810
0.37815699 1.00984 2.2681 13945016
0.37658399 1.01248 2.2763801 13878966
0.38193101 1.00937 2.2713201 13813174
0.38562 1.00862 2.27 13813174
0.31423 1.02705 2.27649 14931914
0.31723699 1.03075 2.2804101 14931914
0.32084101 1.0277801 2.2802899 14800585
0.335399 1.02191 2.2744901 14603205
0.33757499 1.02176 2.27034 14668741
0.33679801 1.02338 2.2740901 14668998
0.342336 1.02139 2.2763901 14537156
0.34873101 1.02033 2.2729599 14471619
0.35026401 1.01912 2.26998 14537156
0.37435001 1.01406 2.2695 14142140
0.38461599 1.00983 2.26525 14010810
0.38874799 1.0098 2.2686901 14010555
0.45626101 1.00525 2.2872701 12891557
0.47088799 1.0056 2.29194 12562590
0.479137 1.0032901 2.29105 12365213
0.499511 0.99750799 2.2883401 11970447
0.50428802 0.99531603 2.2832501 11970451
0.31411499 1.0301 2.27315 14997964
0.32422099 1.01818 2.25175 14932171
0.36866501 1.01662 2.2681601 14339776
0.37388 1.01605 2.27106 14207933
0.38167 1.01177 2.26475 14207933
0.409336 0.99179399 2.2337699 13878711
0.45246899 1.00734 2.2860899 13154729
0.46419001 1.00668 2.28795 12957349
0.47552001 1.00386 2.2839501 12759971
0.474879 1.0053101 2.2892201 12693921
0.48030001 1.00059 2.28092 12496542
0.48412499 0.99955899 2.28336 12299420
0.49079701 1.00225 2.2878499 12298905
0.50129598 0.99798101 2.28479 12167575
0.51135403 0.99915701 2.2883699 12035988
0.31698301 1.02973 2.26947 14997964
0.33555001 1.01315 2.24564 14866121
0.36495301 1.01981 2.26546 14668741
0.38266799 1.01271 2.2597201 14339520
0.38246799 1.01271 2.25962 14339776
0.38609499 1.0105799 2.2605901 14207933
0.38638401 1.0106 2.2607801 14207933
0.38857201 1.00993 2.25682 14273983
0.39084801 1.0079401 2.25577 14207933
0.39422101 1.00186 2.2413599 14273726
0.393186 1.00939 2.25965 14207933
0.40724799 0.99473202 2.2332101 14076347
0.41493699 0.992275 2.2335801 13878967
0.42112699 0.99030501 2.23 13813174
0.42108399 0.989981 2.23225 13681844
0.457928 1.01002 2.2869301 13286572
0.46072099 1.00923 2.2867401 13154986
0.46985 1.0095201 2.2871399 13089449
0.476551 1.0030299 2.2795 12891557
0.475263 1.00765 2.2855301 13023400
0.484236 1.00222 2.2800701 12891558
0.49596101 1.00114 2.2840099 12299162
0.50126499 0.999843 2.28075 12431004
0.50496203 0.99855298 2.28232 12167575
0.35403401 1.0197099 2.25741 14800585
0.36076 1.02048 2.2631199 14734534
0.385732 1.00896 2.2483499 14405570
0.39031699 1.0103101 2.25267 14536900
0.40833399 1.00065 2.2413499 14208189
0.41204399 0.99635297 2.2363801 14076347
0.41774601 0.99630898 2.2355199 14076346
0.42152101 0.99601197 2.23645 13945017
0.46620399 1.01015 2.2850499 13286572
0.472186 1.01042 2.2846601 13286828
0.48820901 1.0022399 2.2773299 12825764
0.50498301 1.00049 2.27846 12431003
0.52281201 1.00463 2.2929299 12233366
0.359653 1.02123 2.2568099 14866120
0.367998 1.0197999 2.2600999 14734535
0.38588199 1.01272 2.2486601 14602950
0.39799899 1.00779 2.24438 14471105
0.4061 1.00369 2.24071 14471361
0.41966999 0.99960703 2.23593 14208447
0.46870601 1.0111901 2.2827499 13484206
0.476376 1.01261 2.2853701 13352365
0.48088399 1.00915 2.2815599 13418416
0.47768 1.01168 2.2845299 13352622
0.486083 1.0052 2.2783799 13089193
0.491184 1.00249 2.2746301 12957350
0.50250101 1.00146 2.2727499 12891556
0.50593102 1.00049 2.2744901 12628382
0.51540101 1.00318 2.2854199 12430746
0.51798701 1.00212 2.27982 12431003
0.52754003 1.0047899 2.29145 12167574
0.55277699 1.00388 2.2972901 11708044
0.39049599 1.00835 2.2363901 14668999
0.385066 1.01586 2.2508199 14734791
0.42325199 1.00237 2.2374001 14274239
0.42887399 0.995188 2.22929 14208189
0.42645001 1.00174 2.2395599 14274239
0.478443 1.01257 2.2822599 13550001
0.49781299 1.00412 2.2703099 13220779
0.50628 1.00269 2.2711599 13023398
0.53176898 1.0089999 2.2932899 12496794
0.53314698 1.00658 2.29268 12233367
0.54634601 1.00449 2.2917099 12167575
0.359786 1.02077 2.2477 14866377
0.38473299 1.01346 2.2402101 14866121
0.39365399 1.00818 2.2353001 14734535
0.40683901 1.00684 2.2385099 14471618
0.42112499 1.0054801 2.23702 14405825
0.48824301 1.00963 2.27126 13681330
0.49432501 1.0046901 2.26757 13352365
0.50473303 1.00228 2.2634101 13286571
0.50643098 0.99922198 2.26141 13089191
0.53228801 1.0087301 2.28825 12694174
0.534105 1.00634 2.2879901 12430746
0.55294698 1.00612 2.2934 12167830
0.393655 1.00965 2.2303801 14800585
0.39117599 1.0106 2.23365 14800585
0.40673599 1.0106601 2.24 14668997
0.42679799 1.00468 2.23579 14405569
0.42492601 1.00551 2.2372601 14405569
0.43746501 1.00251 2.2319 14405312
0.453594 1.00267 2.2427101 14142395
0.46430999 1.00291 2.24335 14076602
0.49222299 1.0086401 2.2676401 13681330
0.49791899 1.00582 2.2660601 13352367
0.52434897 1.00616 2.2760701 12957350
0.53650099 1.00699 2.2832401 12693918
0.534908 1.00708 2.28461 12628382
0.55758297 1.00567 2.2906499 12233624
0.56041998 1.00512 2.28684 12233622
0.40470201 1.01332 2.23892 14866121
0.43030101 1.00677 2.23352 14602693
0.42890501 1.00813 2.2363 14602949
0.43197799 1.0056601 2.23101 14602693
0.448452 1.00771 2.2416799 14471105
0.45337799 1.00841 2.2460301 14340031
0.48498601 1.01291 2.26542 14010553
0.49066901 1.01287 2.27005 13878965
0.52423799 1.0104001 2.27702 13352109
0.556683 1.01015 2.29403 12562590
0.56288499 1.00731 2.2862401 12562588
0.58124399 0.99036199 2.26057 12101523
0.62555099 0.99641198 2.28913 9998189
0.63146502 0.98993802 2.2794099 9538917
0.39611199 1.01265 2.22892 14866379
0.40152201 1.01264 2.2269599 14932171
0.40351799 1.0171 2.23557 14932171
0.43271899 1.0095201 2.2320199 14800329
0.43698499 1.0044399 2.2283399 14537156
0.453374 1.01052 2.24244 14471618
0.45496199 1.00889 2.24158 14405825
0.47155401 1.01171 2.2550399 14339518
0.487791 1.01243 2.2602701 14076602
0.49487999 1.01203 2.2667799 13878966
0.52325201 1.0132 2.2788601 13483951
0.52738702 1.0115401 2.2755499 13417901
0.54315102 1.01221 2.2867801 12957348
0.55686998 1.01057 2.2871301 12759969
0.56260902 1.00448 2.2775099 12562332
0.57383698 1.00212 2.27665 12167830
0.579705 0.99593401 2.26599 12102038
0.58402801 0.98706299 2.25156 12167318
0.58310997 0.99593502 2.26543 12167831
0.63083798 0.99246103 2.28192 10130033
0.629228 0.99438602 2.28299 10524536
0.43768901 1.01048 2.2349 14734792
0.45004201 1.01085 2.2402899 14602948
0.458846 1.01099 2.24089 14537155
0.473427 1.01512 2.2543099 14405569
0.48976099 1.0138201 2.2633901 14076601
0.52411503 1.01195 2.2723 13615281
0.52378899 1.0154999 2.2758501 13747124
0.53291601 1.01133 2.2739999 13352364
0.532673 1.01085 2.2695501 13483951
0.56829101 1.0057499 2.27353 12825761
0.57698798 1.00202 2.2735801 12299160
0.58125299 0.99876899 2.26478 12430747
0.58320802 0.99300301 2.2578499 12167574
0.58671099 0.99091899 2.25158 12233367
0.61890602 0.99542701 2.2781799 11707276
0.62412 0.99577999 2.27881 11641483
0.63290799 0.99180001 2.27601 10655350
0.44104999 1.01511 2.23685 14800328
0.45502999 1.01105 2.2381201 14603204
0.45298299 1.0146199 2.2398701 14734792
0.46196499 1.01219 2.2395899 14603204
0.48246101 1.0102 2.24702 14273983
0.49617201 1.0158499 2.2639799 14142396
0.50410903 1.01634 2.2637 14142140
0.50813597 1.01598 2.26617 14010809
0.53140098 1.01504 2.27584 13615537
0.56544399 1.0086 2.2736299 12957606
0.57368201 1.00626 2.276 12694175
0.58158702 0.99780798 2.26144 12496797
0.616494 1.0005701 2.2796299 11970451
0.62415498 0.99662399 2.27266 11904400
0.62714398 0.99336499 2.27229 11378565
0.633174 0.99278998 2.27019 11575945
0.457104 1.01438 2.2372401 14800584
0.47551799 1.01044 2.23508 14602693
0.47955999 1.00962 2.2376399 14471362
0.49062499 1.01329 2.2507501 14339775
0.498144 1.01543 2.2583001 14273982
0.51939398 1.01975 2.2757399 14010296
0.52556598 1.01868 2.27139 14010297
0.53188002 1.01131 2.26215 13812917
0.53378302 1.0153 2.27108 13812917
0.55508602 1.012 2.2745199 13220779
0.55862403 1.01092 2.2711301 13220779
0.56840301 1.00878 2.27086 13023398
0.58083099 1.00655 2.2730601 12759969
0.59909302 1.00394 2.2725201 12497050
0.61678898 1.00238 2.27613 12167575
0.62234497 0.99902999 2.2739799 11970195
0.629363 0.99281502 2.26229 11838865
0.45642799 1.01842 2.2402999 14866122
0.48005 1.01009 2.23122 14668485
0.492174 1.01296 2.24441 14471104
0.503263 1.01603 2.2556801 14339775
0.508811 1.01609 2.25898 14208189
0.51828599 1.0195 2.2669699 14142396
0.51815802 1.0197099 2.26724 14142396
0.52962703 1.02036 2.2709999 14076346
0.53458297 1.01407 2.2599101 13945016
0.554905 1.01375 2.26965 13549745
0.565171 1.01138 2.27036 13286571
0.57011902 1.01156 2.27069 13286315
0.57530802 1.01034 2.27336 13088935
0.607728 1.00378 2.2723801 12431002
0.61268699 1.00432 2.27666 12364953
0.61762899 1.00076 2.2714701 12101782
0.624286 0.99360299 2.25823 11970453
0.440979 1.0197999 2.2284501 14997709
0.44488099 1.01948 2.2311699 14932172
0.459034 1.01774 2.23631 14866377
0.469136 1.02202 2.24739 14866120
0.492551 1.01489 2.24072 14602948
0.494706 1.01309 2.2400999 14536898
0.50455099 1.01713 2.25264 14405312
0.52004701 1.02256 2.2653899 14273983
0.52376902 1.0220701 2.2674699 14208190
0.52545702 1.02053 2.2671499 14142397
0.55114502 1.01166 2.2601099 13747380
0.56057298 1.01129 2.2620699 13615794
0.573928 1.0131201 2.26982 13483694
0.57927799 1.01231 2.2732401 13220778
0.58129102 1.00968 2.26982 13154472
0.58451903 1.00921 2.2667501 13220522
0.59921199 1.0052 2.26719 12957603
0.60953301 1.00649 2.2711899 12826017
0.61534798 1.0056601 2.2732201 12628382
0.43992701 1.0215 2.22844 14997965
0.43858901 1.02272 2.2315099 14997965
0.43721399 1.02433 2.2312 14997965
0.44208699 1.02016 2.2246201 14997965
0.44854701 1.0188 2.2284901 14932172
0.44757599 1.02068 2.2291901 14997964
0.49654001 1.01688 2.23999 14668997
0.51405001 1.0217299 2.2604499 14339776
0.513825 1.0215501 2.26002 14339776
0.52761501 1.02343 2.2655201 14273983
0.53961802 1.01526 2.25843 13944760
0.54200202 1.01464 2.25616 13945017
0.55113697 1.0140899 2.2572899 13944503
0.57138503 1.00986 2.26021 13615281
0.57975298 1.0115 2.26355 13484208
0.58112198 1.01079 2.2654099 13352365
0.586851 1.00914 2.26318 13352108
0.59924501 1.00717 2.2634399 13089447
0.60572201 1.00677 2.26524 13023398
0.60877597 1.0077699 2.26932 13088933
0.62482601 0.99669403 2.25488 12496797
0.43923801 1.0233901 2.22873 14997965
0.43822199 1.02517 2.2287199 14998221
0.443169 1.02052 2.2207899 15063758
0.44763401 1.02 2.22242 14998221
0.448567 1.02106 2.2254601 14997965
0.453547 1.01925 2.22206 14998221
0.456945 1.01697 2.2228301 14932171
0.489485 1.0178 2.2355499 14800327
0.49453199 1.01867 2.24069 14734790
0.51409101 1.0236 2.2564001 14471619
0.51428902 1.0236501 2.25651 14471619
0.52001798 1.02434 2.2611699 14405569
0.52587801 1.0250601 2.26594 14339776
0.531214 1.02482 2.2634301 14274496
0.54208601 1.0185 2.2556601 14208189
0.54944098 1.0176899 2.2574999 14076602
0.56462502 1.01276 2.2543399 13813430
0.57186902 1.01351 2.26017 13812661
0.57537198 1.01243 2.26139 13681331
0.584714 1.0115401 2.2637401 13483952
0.58657598 1.0117 2.2600999 13615538
0.59081399 1.00853 2.2600999 13352365
0.61214697 1.0078 2.2676899 13023142
0.61775798 1.00726 2.26859 12957605
0.62010002 1.00195 2.2593901 12826020
0.62294102 1.001 2.25576 12825764
0.66885 0.99294198 2.2585399 11970451
0.44205299 1.02248 2.2216499 15063758
0.43758601 1.02712 2.2290399 15064014
0.445512 1.02167 2.21825 15064014
0.45065099 1.02176 2.22171 15063758
0.45643499 1.0193599 2.2193899 15063758
0.48953 1.02192 2.2357399 14931914
0.49931699 1.02131 2.2413599 14800327
0.51468599 1.0240999 2.2499101 14668998
0.51755399 1.02476 2.2539799 14537668
0.52637398 1.02679 2.2613499 14471619
0.545591 1.01801 2.25246 14208189
0.55186898 1.0167201 2.2542901 14076604
0.56125599 1.01319 2.2522299 13879480
0.58485401 1.01335 2.25914 13747124
0.59151298 1.01039 2.25631 13615795
0.61427498 1.00843 2.2604599 13155243
0.61827302 1.00228 2.2516301 13023657
0.62504601 0.99877697 2.2498901 12891556
0.64245403 1.00069 2.2601299 12562591
0.65864301 1.0033799 2.26789 12496799
0.66205299 1.00525 2.2725301 12431006
0.67101502 0.99880302 2.26353 12167832
0.68617898 1.00178 2.27684 11904658
0.44459501 1.02359 2.2183499 15063758
0.45327601 1.02175 2.2188201 15063758
0.454252 1.02101 2.2151501 15064015
0.45945901 1.0211 2.2186401 15063758
0.50116003 1.02518 2.2413499 14866377
0.51331598 1.02592 2.2499299 14734791
0.53208703 1.02581 2.2581 14471619
0.535496 1.02377 2.25316 14471619
0.54228997 1.02158 2.2521701 14405824
0.55155098 1.01484 2.24243 14273983
0.55923897 1.01341 2.2454901 14142396
0.58190399 1.01715 2.25914 13944760
0.58716398 1.01403 2.25807 13813174
0.59442002 1.01081 2.2548399 13681588
0.59617198 1.00924 2.2499399 13681588
0.606287 1.00699 2.24845 13550001
0.606148 1.00529 2.2471299 13484208
0.61726999 1.00275 2.2446799 13286574
0.61694998 1.0062 2.25407 13220781
0.62158298 1.00072 2.24664 13023656
0.62512797 0.99910098 2.2437999 13220779
0.66531098 1.0046099 2.2715499 12431005
0.66810501 1.00337 2.26931 12430748
0.67089099 1.00211 2.26685 12365212
0.51197499 1.02777 2.2504399 14800584
0.516289 1.02811 2.24985 14800584
0.53786302 1.02265 2.24897 14471875
0.54092902 1.02389 2.2495799 14537412
0.54549599 1.02096 2.2487299 14405825
0.57966501 1.0218101 2.2611499 14142652
0.584117 1.01809 2.2585199 14010809
0.59281701 1.01334 2.2520599 13878968
0.60202199 1.00833 2.2443199 13747637
0.60383898 1.00765 2.2465 13616051
0.60933203 1.0039099 2.2423301 13550001
0.61965901 1.00144 2.24049 13352366
0.63725799 0.98974502 2.22436 12957862
0.66300797 1.00815 2.27142 12760483
0.666529 1.00802 2.2716899 12760227
0.67202502 1.00228 2.2630401 12496541
0.67607802 0.99933499 2.25951 12299418
0.53565502 1.02672 2.2495201 14668999
0.57505399 1.0240099 2.25824 14339776
0.58658803 1.0186501 2.2572899 14076602
0.58588898 1.02025 2.2600701 14076859
0.59056401 1.01728 2.2520101 14076603
0.59566402 1.01042 2.2451799 13879225
0.60645801 1.00769 2.2420101 13813174
0.60940802 1.0068099 2.2385199 13878968
0.61394101 1.0033 2.2355299 13681589
0.66407901 1.01319 2.2744501 13023654
0.66635799 1.0145299 2.2779901 13023398
0.675834 1.00504 2.26477 12759971
0.58213699 1.02242 2.2530899 14339776
0.58745003 1.0199 2.2522299 14273981
0.59350997 1.01643 2.2488401 14142140
0.59693903 1.01373 2.2425499 14142140
0.604738 1.01318 2.2455101 14010554
0.60986203 1.00412 2.2316501 13878968
0.61764598 1.0049 2.2363801 13747638
0.62547201 1.0023201 2.23522 13615794
0.63712901 0.99316502 2.2207501 13418414
0.665941 1.01618 2.2742701 13221290
0.66654003 1.017 2.27598 13221290
0.58520299 1.0239201 2.2562499 14339776
0.5905 1.02034 2.2497699 14273983
0.60708201 1.01087 2.2388501 14076347
0.61612898 1.0044301 2.22772 13945018
0.61367798 1.00535 2.2318499 13879225
0.62225401 1.00472 2.2342401 13813431
0.62589699 1.0044301 2.2316501 13878968
0.62608498 1.00227 2.2293601 13813175
0.62927198 0.998088 2.2237 13681845
0.64253098 0.99614 2.2228501 13615537
0.66962999 1.01376 2.2699599 13154986
0.66909301 1.0159 2.2743199 13221034
0.67630202 1.0151 2.27316 13089194
0.73259097 1.00041 2.26895 11970451
0.73541403 0.99380499 2.2551999 12036246
0.58342803 1.02714 2.2557001 14471362
0.58743799 1.02282 2.2497399 14405569
0.587107 1.02695 2.2558601 14471362
0.59480798 1.01781 2.2425699 14273984
0.60315299 1.01317 2.23753 14207933
0.60260803 1.0157599 2.2381899 14273983
0.61114597 1.00858 2.22873 14142397
0.61391699 1.00835 2.22841 14142140
0.62292802 1.0078 2.2304201 14142140
0.631378 1.00307 2.2288799 13878967
0.63234198 1.00159 2.22335 13944760
0.64157701 0.99836302 2.2235 13747380
0.64764702 0.99879301 2.22387 13747379
0.71724802 1.00545 2.2651 12694434
0.72961903 1.00203 2.2626801 12365212
0.73422998 0.99928099 2.2627599 12036502
0.73908401 0.99378502 2.2520599 11970709
0.58953601 1.02862 2.2530799 14471876
0.59554702 1.02078 2.23915 14471620
0.60544002 1.01555 2.2346101 14339776
0.63944 0.99995899 2.21909 13944760
0.64465302 0.999798 2.2223001 13813173
0.65074402 1.00044 2.22299 13813429
0.65583301 1.00009 2.2260001 13747379
0.712789 1.00897 2.2646999 12892070
0.73230398 1.00152 2.25792 12496798
0.74087298 0.99402201 2.2474301 12233883
0.773669 1.00571 2.2855301 11641740
0.77536798 1.00387 2.28018 11707789
0.58720201 1.03241 2.2532001 14668998
0.60122597 1.01722 2.2325001 14471362
0.61215597 1.01072 2.2264199 14273983
0.61539 1.0103101 2.2235601 14339520
0.62159598 1.00776 2.22189 14273726
0.64691901 1.0033799 2.2216301 14011065
0.64992303 1.00235 2.22315 13945015
0.71472198 1.00841 2.2621901 12957862
0.72637498 1.00346 2.25646 13154729
0.73209202 1.00064 2.25366 12694433
0.73909402 0.99574202 2.2480099 12431261
0.77843797 1.0033799 2.2770901 11838863
0.60794699 1.01829 2.2327399 14537155
0.61291897 1.01384 2.2235601 14471619
0.61914903 1.01012 2.2211001 14405313
0.62863499 1.0106601 2.2254 14273983
0.64170998 1.0039901 2.2191701 14076603
0.647717 1.00411 2.2190399 14076858
0.65284997 1.0039099 2.2221799 14011065
0.655819 1.00282 2.22365 14010552
0.71187001 1.01307 2.26388 13221036
0.72524601 1.00691 2.2581699 13023399
0.72921598 1.00363 2.2532899 12891813
0.73997498 0.99820602 2.2451701 12826020
0.77079803 1.00852 2.2759199 12365212
0.77598 1.0068001 2.2774799 11970452
0.80538899 0.98891699 2.2539899 11180936
0.57815701 1.01324 2.2067201 14800583
0.61598498 1.01336 2.2205701 14537156
0.62364501 1.00972 2.2182 14405569
0.62862903 1.01229 2.2211399 14471363
0.63274401 1.01249 2.2263501 14340032
0.64683902 1.0060101 2.2191501 14142652
0.65582103 1.00563 2.2214799 14142394
0.71818 1.00986 2.25652 13418672
0.72214502 1.00868 2.2530999 13286828
0.72814697 1.00717 2.25508 13286828
0.77585 1.00877 2.27356 12431261
0.79071301 1.00603 2.2767701 11708043
0.799694 0.99034798 2.24839 11838865
0.57459599 1.01355 2.19947 14866377
0.62486899 1.01362 2.2202499 14602948
0.63246399 1.01247 2.2187901 14537156
0.64083898 1.00456 2.2105801 14274239
0.648929 1.00475 2.2116799 14274238
0.71810001 1.01187 2.2523999 13615793
0.73091 1.00736 2.25179 13089705
0.73477298 1.00855 2.2524099 13155242
0.76777101 1.00823 2.2672701 12825507
0.77969599 1.00845 2.2699201 12497054
0.78193098 1.00616 2.2697599 12168343
0.78324097 1.00657 2.27088 12102292
0.79454201 1.0050499 2.2733099 11707532
0.806575 0.99105299 2.2506399 11904660
0.57679403 1.01702 2.19906 14932427
0.62499899 1.0161901 2.21784 14734534
0.62881899 1.01513 2.21929 14603205
0.640145 1.00793 2.2104499 14471619
0.64599699 1.00727 2.2131801 14405568
0.65568 1.0082099 2.2188201 14339774
0.72382998 1.0110199 2.24964 13616051
0.76555401 1.0085599 2.26033 13022888
0.77240199 1.00828 2.2644899 12825765
0.78209698 1.00744 2.2646101 12628639
0.79164201 0.99588799 2.24914 11970453
0.79911101 0.99733299 2.2524199 11970453
0.63236099 1.01361 2.21297 14668998
0.63178402 1.01114 2.20944 14668742
0.71672797 1.0179501 2.2559099 13879223
0.72384501 1.01182 2.2433701 13879224
0.73038799 1.01012 2.24388 13682101
0.76351798 1.01139 2.2616899 13088938
0.777897 1.00876 2.26261 12825764
0.78916198 0.99974298 2.25052 12233882
0.80125302 0.994102 2.2416401 12233625
0.79909301 0.99716097 2.2471399 12168089
0.80218899 0.99377602 2.2448599 11970709
0.80702102 0.99142098 2.2428899 11970710
0.65250999 1.01048 2.2114999 14603203
0.71471202 1.02298 2.2590499 14076603
0.72731501 1.01193 2.2411101 13879224
0.76127797 1.01245 2.2556701 13352366
0.75985402 1.01415 2.2602899 13286573
0.76822603 1.0103 2.2532699 13220780
0.76897597 1.01141 2.25878 13089194
0.77388102 1.01079 2.2597401 13023145
0.78236699 1.00911 2.2604201 12891557
0.78812301 1.00227 2.2464299 12694690
0.79675102 0.99936301 2.2470801 12299675
0.80500501 0.99220997 2.2358 12365726
0.80928302 0.99471802 2.2419 12365469
0.654015 1.01148 2.20715 14668998
0.71157902 1.02557 2.2587399 14142652
0.71526402 1.00842 2.2281401 14011066
0.71526402 1.00842 2.2281401 14011066
0.75113797 1.01107 2.2430899 13813174
0.74835199 1.01398 2.2499299 13747638
0.75673598 1.0099 2.2463 13484208
0.76175499 1.0115401 2.2507601 13484209
0.77339101 1.0099699 2.25049 13286317
0.77911401 1.0045 2.2465501 12957608
0.78553301 1.00351 2.2446201 12891813
0.79354501 1.0034 2.2465 12760227
0.79615402 1.00142 2.2442901 12760484
0.79903102 0.99927098 2.2445199 12562847
0.80208099 0.99998403 2.24264 12826020
0.80439299 0.997899 2.2411001 12628898
0.80472302 0.995004 2.2384601 12497311
0.83856499 0.995969 2.2509699 13024167
0.71279401 1.00819 2.2209201 14142653
0.71554899 1.0073 2.21682 14208189
0.76393503 1.01159 2.2474401 13615795
0.76445699 1.01151 2.24752 13615795
0.76716501 1.01112 2.2446401 13681332
0.77654302 1.0043 2.2385499 13221036
0.79900402 1.00203 2.2421899 12891813
0.80237103 0.99544102 2.2310801 12957864
0.83313102 0.99747199 2.2462001 13352365
0.84050602 0.99658698 2.2483001 13484465
0.84371603 0.99556899 2.2502799 13615796
0.72168601 1.00547 2.21366 14142654
0.73111302 1.00591 2.2160699 14142396
0.74650401 1.01296 2.23947 13944762
0.75711101 1.01215 2.2376001 13945017
0.76654398 1.0112 2.2437799 13747125
0.77119601 1.00992 2.2429399 13615795
0.77397799 1.00835 2.2380099 13615795
0.78393197 1.0046901 2.2360499 13286571
0.79607701 1.0031101 2.24052 13023656
0.79498303 1.00508 2.2408199 13089707
0.80161703 1.00254 2.23984 13023657
0.82258499 1.00348 2.24858 13155243
0.83102101 1.00103 2.2504799 13286572
0.835715 0.99937803 2.2465 13484207
0.83899403 0.99874699 2.2488501 13418415
0.70502502 1.0181201 2.22385 14537668
0.70931703 1.00562 2.2046499 14340289
0.71979702 1.00606 2.20716 14340032
0.72055799 1.00653 2.2081399 14340032
0.71973902 1.008 2.21456 14274239
0.765944 1.0150501 2.2456999 13878968
0.76885098 1.01229 2.2421401 13813175
0.76681697 1.01483 2.2458 13878967
0.77118498 1.01063 2.2368701 13813431
0.77735603 1.0072 2.23491 13615794
0.77981299 1.0075099 2.2344201 13616050
0.78639001 1.00497 2.2355299 13352364
0.79591101 1.00617 2.23807 13352623
0.79424697 1.00714 2.2414501 13286829
0.79700702 1.00422 2.2378199 13155244
0.81589103 1.00221 2.24177 13221036
0.83104199 1.003 2.2464001 13615536
0.83656102 1.00038 2.2434101 13681843
0.83983803 0.99864399 2.2441199 13747380
0.70799798 1.01378 2.21276 14603205
0.71369898 1.0059201 2.2027099 14406082
0.72068 1.00511 2.2014401 14405825
0.72056299 1.0049599 2.2014 14405825
0.724406 1.00351 2.2032599 14274239
0.72466499 1.00409 2.20351 14274239
0.73398501 1.00492 2.2096 14208189
0.764525 1.0156699 2.24036 14076347
0.76901901 1.01307 2.2361901 13945017
0.78221202 1.00827 2.2346799 13616051
0.78452599 1.00931 2.2355101 13681844
0.79824901 1.01104 2.24352 13747636
0.80071801 1.00607 2.2373199 13352881
0.81902802 1.00103 2.2348499 13550002
0.81679797 1.0067 2.2428701 13418417
0.82470602 1.00248 2.2416401 13549745
0.83572602 1.00237 2.2439301 13747379
0.716012 1.00869 2.2009799 14603205
0.71815997 1.00683 2.2010801 14537412
0.72201002 1.0039001 2.1963999 14471618
0.72632003 1.00644 2.2009001 14471619
0.73014498 1.0051301 2.20278 14339776
0.733684 1.00591 2.2039399 14339776
0.76527202 1.0165401 2.23808 14076604
0.76452202 1.0186599 2.2383599 14142397
0.76930302 1.0162899 2.2373099 14011067
0.77799702 1.01184 2.23439 13879480
0.78048402 1.01202 2.23364 13945017
0.80168802 1.01092 2.23932 13681846
0.83099598 1.00484 2.24212 13812916
0.83450103 1.00416 2.24405 13812916
0.83985901 1.00173 2.2416899 13878968
0.704961 1.01478 2.20226 14800584
0.70846802 1.01393 2.2039199 14734791
0.71211803 1.0083801 2.19701 14603462
0.71595198 1.00723 2.1942401 14668998
0.71784198 1.00849 2.1972301 14668998
0.76606202 1.01739 2.2357099 14142397
0.77587599 1.01887 2.2390001 14076860
0.78286999 1.01278 2.2338901 13945273
0.78671998 1.01353 2.2332599 14010810
0.79676402 1.01238 2.2358501 13879224
0.79686201 1.01235 2.2360899 13879480
0.80540401 1.01187 2.2372601 13879225
0.83659399 1.00811 2.2436199 13945017
0.83779401 1.00631 2.24348 13944760
0.83995497 1.00545 2.24032 14076347
0.843216 1.00424 2.2418001 14076348
0.708359 1.01122 2.19226 14734792
0.71227998 1.00826 2.1923499 14734791
0.76835799 1.02119 2.23524 14339776
0.777174 1.01694 2.2307401 14208447
0.77939999 1.01684 2.23333 14142654
0.78999102 1.01255 2.23019 14011067
0.80059397 1.01359 2.2342999 14076604
0.83540702 1.00992 2.2437699 14010554
0.83880597 1.00737 2.24051 14076604
0.84341401 1.0056601 2.2363999 14208191
0.70468497 1.01669 2.1984 14800841
0.71511102 1.01203 2.1925099 14800585
0.76329798 1.0216 2.2323301 14471361
0.77326101 1.01888 2.2289 14340033
0.77615899 1.01723 2.22616 14340033
0.78351903 1.01537 2.2295201 14142654
0.78648001 1.01305 2.22294 14208447
0.79462999 1.0131201 2.22929 14077117
0.80926001 1.01289 2.2353799 14076605
0.829184 1.00973 2.23633 14076603
0.83650702 1.01103 2.24089 14142397
0.75526202 1.02781 2.2351999 14734535
0.76111901 1.02487 2.2328701 14603205
0.76922101 1.0227 2.23157 14471619
0.776555 1.0166399 2.22086 14405826
0.79826301 1.01599 2.22773 14339776
0.80063403 1.0159301 2.2305501 14273983
0.81012601 1.01738 2.2366099 14273983
0.83243698 1.0118999 2.2358501 14273984
0.83546001 1.01292 2.24121 14208190
0.84082502 1.00705 2.2305601 14405313
0.75687897 1.02889 2.2310801 14800328
0.76335299 1.02859 2.23225 14734791
0.76558298 1.02539 2.23103 14668998
0.76987702 1.0253201 2.2286899 14668998
0.77466601 1.02122 2.2256899 14537412
0.78024602 1.0177701 2.21913 14537412
0.78865099 1.0145 2.2176199 14471362
0.79270101 1.01612 2.2244201 14340033
0.79530901 1.01529 2.2234001 14340032
0.841263 1.01599 2.24049 14405570
0.762613 1.03073 2.2325399 14735048
0.76577598 1.02827 2.22824 14735048
0.77461499 1.02299 2.22141 14734535
0.77454698 1.02 2.2163701 14668999
0.781591 1.01621 2.2141099 14603205
0.78451198 1.016 2.2131801 14603205
0.79350001 1.01688 2.2218699 14471618
0.79867202 1.01631 2.22103 14537155
0.82751399 1.01366 2.2267799 14471618
0.83244002 1.01487 2.2332399 14471362
0.77995998 1.01898 2.2133701 14734792
0.78621697 1.01589 2.2123699 14668742
0.80169702 1.01946 2.2223899 14603205
0.82301301 1.01613 2.22451 14602947
0.826307 1.01546 2.2268801 14537411
0.76317698 1.03424 2.2321701 14800841
0.76245099 1.03655 2.2332399 14866378
0.76818597 1.03239 2.2287199 14800841
0.78384602 1.0173 2.20719 14800585
0.78467399 1.01966 2.21437 14734535
0.82751298 1.01661 2.22419 14603205
0.82385099 1.02135 2.2265401 14668998
0.82868302 1.01774 2.2214701 14669255
0.826002 1.02245 2.22404 14734792
0.82757998 1.01959 2.2216799 14734791
0.82163298 1.02526 2.22264 14800585
0.82284498 1.02352 2.2225201 14735049
0.81765401 1.02387 2.2161801 14866377
-0.37392399 0.23793299 2.26633 9655864
-0.607207 0.960109 2.27472 12957607
-0.69527 0.97226697 2.28266 14076862
-0.612674 0.96659499 2.28111 13484210
-0.61098498 0.96530402 2.27842 13484210
-0.54615903 0.96386999 2.27788 12891815
-0.40815899 1.0081 2.3955901 11248769
-0.40821701 1.00913 2.40256 10985851
-0.52554101 0.96970302 2.28286 13286829
-0.41244301 1.00665 2.38362 11971217
-0.404688 1.00964 2.3931799 11577223
-0.40472701 1.00977 2.39343 11577224
-0.40771201 1.00775 2.3812399 12102292
-0.434919 0.99286902 2.3333001 12760224
-0.421648 0.99132401 2.3306701 12497562
-0.53176498 0.98076701 2.2839999 14076859
-0.54007298 0.98749 2.2862101 14340034
-0.53696698 0.98588502 2.2841499 14340033
-0.53539801 0.98307902 2.2797101 14274240
-0.51348299 0.97940302 2.2775099 14142397
-0.53293699 0.98544502 2.2776 14406083
-0.52865201 0.98630202 2.28 14405827
-0.25769699 1.0447299 2.4592199 11707790
-0.251268 1.04562 2.4664299 10984578
-0.246179 1.03745 2.44596 11247496
-0.237367 1.04198 2.45699 11248004
-0.23472901 1.04097 2.4584401 11314051
-0.224282 1.0402499 2.4537201 11445633
-0.22545099 1.0410399 2.45945 11379838
-0.160992 0.99120897 2.3532 10590326
-0.53438997 0.99969202 2.30037 14537669
-0.35429701 1.0355901 2.4142001 12891814
-0.279452 1.05136 2.4601099 12759714
-0.25698 1.04114 2.4430599 12496797
-0.25685599 1.03923 2.4409399 12233881
-0.244432 1.0414 2.4458001 12365978
-0.236039 1.04311 2.4535301 11445638
-0.54070997 0.99668002 2.2857499 14735305
-0.44582 1.0103 2.33179 14142397
-0.36103499 1.04031 2.4140699 13286828
-0.26178801 1.0426 2.4388499 12891300
-0.251414 1.04125 2.43785 12759968
-0.236857 1.0420001 2.4438601 12037522
-0.45042899 1.01004 2.3296499 14208190
-0.44463301 1.01136 2.33216 14142654
-0.301599 1.04544 2.4303401 13154986
-0.299146 1.0526299 2.44769 13154730
-0.28635699 1.04491 2.43206 13154729
-0.26886001 1.0524499 2.4512601 13023145
-0.25871101 1.04245 2.43524 12957350
-0.25141299 1.04255 2.43102 13089191
-0.242277 1.04407 2.44154 12760225
-0.224379 1.0386699 2.4270899 12563353
-0.22919901 1.04427 2.44222 12366487
-0.455075 1.01598 2.3281901 14471875
-0.44966 1.01055 2.3215499 14340034
-0.45145699 1.0123301 2.32705 14340033
-0.29776299 1.0501699 2.4321201 13484208
-0.29085001 1.04782 2.43293 13286572
-0.276602 1.05165 2.4407699 13286573
-0.27043399 1.05389 2.4449501 13286574
-0.263953 1.04387 2.4276299 13220524
-0.266684 1.04699 2.4302001 13286831
-0.26086301 1.0431499 2.4260099 13220780
-0.25576201 1.04398 2.42555 13352364
-0.23700801 1.04819 2.44401 12826786
-0.228155 1.0415 2.4256201 12958116
-0.23267999 1.04537 2.43624 12892323
-0.21467499 1.02433 2.38836 12892066
-0.208443 1.02292 2.38919 12694431
-0.20806301 1.0211 2.385 12628893
-0.21102899 1.02123 2.38836 12365977
-0.186808 1.01583 2.37713 12562589
-0.178817 1.0139101 2.37116 12628382
-0.17277201 1.00562 2.3596499 12233626
-0.101806 1.00635 2.37362 10721402
-0.101765 1.00624 2.37307 10721659
-0.45316499 1.0133801 2.32054 14537412
-0.303689 1.0581599 2.4425199 13681845
-0.302724 1.0566 2.4393001 13681844
-0.29407999 1.0516 2.4269199 13813174
-0.29407999 1.0516 2.4269199 13813174
-0.29407999 1.0516 2.4269199 13813174
-0.27418801 1.0470099 2.4241199 13615538
-0.24838901 1.04707 2.4277101 13483951
-0.238625 1.04321 2.41787 13550003
-0.236149 1.04647 2.43031 13352623
-0.23155101 1.0424401 2.41975 13418159
-0.21786299 1.0256701 2.3842001 13352363
-0.211147 1.0223 2.38041 13089190
-0.183167 1.01776 2.3748701 12825763
-0.183201 1.01984 2.3773601 12891813
-0.102425 1.01483 2.3837099 12365209
-0.30392101 1.06064 2.43838 14010553
-0.30384901 1.06054 2.43819 14010553
-0.30351099 1.06028 2.43771 14010553
-0.30351099 1.06028 2.43771 14010553
-0.30021301 1.05919 2.4421699 13813174
-0.292059 1.05286 2.42644 13878967
-0.27696201 1.04896 2.4210899 13813174
-0.27642101 1.0512201 2.4268899 13747382
-0.23547301 1.04356 2.4149699 13681589
-0.23677 1.04737 2.4218199 13747125
-0.21762 1.0194401 2.3633599 13549745
-0.21663199 1.02351 2.37586 13483950
-0.20305 1.02306 2.37848 13286314
-0.195292 1.02214 2.37289 13286572
-0.196172 1.0247101 2.3796 13286572
-0.187206 1.02 2.3746099 13023399
-0.173281 1.02069 2.3719001 13220266
-0.061598901 1.01803 2.38939 11970451
-0.049396802 1.0225101 2.4026699 10983813
-0.39987999 1.0256 2.34182 14405826
-0.311075 1.06083 2.4351599 14010812
-0.28897899 1.05536 2.42505 14010810
-0.24547599 1.0489 2.41594 13879225
-0.236926 1.04866 2.41628 13878969
-0.22038101 1.02282 2.3631899 13812918
-0.218015 1.0268 2.37642 13681587
-0.21839 1.0412 2.4052 13813173
-0.21444 1.04087 2.4021599 13813173
-0.214267 1.04075 2.4019401 13813173
-0.19891 1.02526 2.3717899 13550002
-0.17832799 1.0240999 2.37483 13352109
-0.176552 1.0229501 2.37361 13351852
-0.00061513699 1.05212 2.46334 11379334
-0.286623 1.0575401 2.4211099 14208192
-0.24617399 1.05273 2.4146099 14142142
-0.243779 1.05159 2.4188001 14010555
-0.241413 1.05317 2.41924 14010813
-0.21687201 1.0422 2.39832 13944760
-0.181706 1.0269001 2.3687 13747125
-0.177893 1.02671 2.3711901 13681332
-0.178102 1.02511 2.36886 13681075
0.0062032999 1.05195 2.46016 11050627
-0.28769299 1.06177 2.42102 14471363
-0.24415401 1.05494 2.41643 14142398
0.00439819 1.05167 2.4497499 12431769
0.0041653099 1.05164 2.4500999 12365976
0.0027065501 1.05697 2.4551301 12957859
0.0095749302 1.0508699 2.44557 12694686
0.0073830602 1.05558 2.44947 12957861
-0.22962999 1.0516 2.3938701 14471619
-0.227395 1.0498 2.39271 14405827
-0.224747 1.04853 2.3870599 14471619
0.024309 1.0605 2.45714 12629914
0.024249701 1.06051 2.4572899 12629914
0.0255327 1.05822 2.4554901 12564121
0.089251399 1.06596 2.4835 11379586
-0.29212499 1.05844 2.3941 14734792
-0.248399 1.05528 2.3936801 14669001
-0.23912001 1.05695 2.3975301 14668999
-0.22706901 1.05296 2.3901601 14668997
-0.225482 1.05011 2.38592 14603205
-0.22476199 1.04697 2.3828001 14537412
-0.222425 1.04635 2.38117 14537412
0.089430697 1.06802 2.4784801 12234131
-0.24206001 1.05042 2.3743501 14800842
-0.23047601 1.05471 2.3882501 14735048
-0.224728 1.04979 2.3757601 14735047
0.018849799 1.06515 2.4521301 13353383
0.082880601 1.0692 2.4720199 12825761
-0.269986 1.06611 2.4005599 14866379
-0.26850599 1.0648 2.39814 14866379
-0.2656 1.06524 2.39627 14866634
0.0172724 1.06712 2.4533601 13550250
0.098777696 1.07449 2.4785399 12760730
0.105101 1.07575 2.4853201 12694429
0.109684 1.07639 2.4875 12759712
0.113859 1.07662 2.4887099 12694175
-0.26496899 1.06733 2.3915401 14998220
-0.26466599 1.0674599 2.39768 14932427
-0.26466599 1.0674599 2.39768 14932427
0.096945398 1.07525 2.4715199 13220516
-0.26309201 1.06871 2.3913901 15063757
0.14892 1.02916 2.37357 12628126
0.17851301 1.04039 2.40503 11643015
0.19425701 1.0130399 2.3485899 11773580
-0.083239302 1.0832601 2.4432299 14800585
0.13049901 1.02992 2.3673601 12956835
0.17487 1.04407 2.4056499 12234900
0.179196 1.04247 2.39991 12169618
0.18445501 1.02713 2.36814 12037775
0.180898 1.03567 2.3881099 11841162
0.18006501 1.0373501 2.3954501 11775113
0.187838 1.01688 2.34693 11905676
0.19041 1.01526 2.3433299 11839883
-0.200846 1.0325 2.30652 15063759
-0.198089 1.0312001 2.3097701 14997965
0.13049901 1.03074 2.36011 13351593
0.17720599 1.0389 2.388 12300950
0.177212 1.03872 2.3879499 12300949
0.182079 1.0344 2.3815501 12038544
-0.203546 1.03399 2.30351 15129551
0.173666 1.04186 2.3879001 12892065
0.17680299 1.04197 2.3844399 13089444
0.18036801 1.0388499 2.3845601 12366998
0.183001 1.03836 2.3799601 12629401
0.184266 1.0343601 2.3689699 12826526
0.18574201 1.0264699 2.3589599 12432022
0.18908399 1.0197001 2.3434999 12431765
0.18836001 1.0237401 2.34829 12628890
0.18148901 1.043 2.3835001 13089700
0.184791 1.03116 2.36149 12892062
0.186202 1.02869 2.35462 12957856
0.188649 1.0293 2.3538201 13023650
0.19443899 1.02416 2.34409 13023652
0.196587 1.02334 2.3445799 13023140
0.32208401 1.0085 2.3330901 11970453
-0.191028 1.0398999 2.3061199 15129551
0.0109103 1.06135 2.3879199 14668743
0.183391 1.04208 2.3778801 13352617
0.181174 1.03563 2.3541 13747123
0.18154 1.03264 2.3484399 13681331
0.19429199 1.02885 2.34445 13615024
0.199201 1.02821 2.3424101 13549745
0.172187 1.04896 2.3716099 14010296
0.180775 1.03723 2.34867 13944504
0.191324 1.03406 2.3450699 13878454
0.38520801 0.99829501 2.3041201 11642245
0.298118 1.01767 2.3249099 13286573
0.318232 1.01658 2.3206699 13286060
0.360522 1.00774 2.3152201 11576710
0.35937199 1.01937 2.3347199 12168591
0.36133701 1.0150501 2.3250699 11971468
0.12934101 1.04662 2.34712 14405568
0.17867699 1.0407 2.3462 14142397
0.361375 1.01403 2.32144 12103054
0.130115 1.0501601 2.34498 14602947
0.178819 1.04354 2.3411701 14405825
0.35940599 1.02187 2.3299301 12760733
0.35947701 1.0191801 2.32341 12760732
0.127472 1.05369 2.3454199 14668998
0.173582 1.05343 2.35726 14471619
0.34903899 1.02449 2.3271501 13352365
0.354186 1.02166 2.3194301 13352365
0.465639 1.00613 2.30654 12167322
0.46580201 1.00648 2.3073201 12167322
0.125278 1.05999 2.35589 14734535
0.130523 1.05343 2.3422101 14734790
0.171093 1.05503 2.3545599 14602949
0.175218 1.05335 2.34813 14603206
0.22612201 1.0261 2.30037 14602949
0.34653199 1.02276 2.3166499 13681074
0.34895101 1.02316 2.3164799 13615538
0.351825 1.02044 2.3095 13615537
0.45293 1.0035 2.2909601 12431005
0.484496 0.99815798 2.2883999 12101782
0.17064901 1.05797 2.3508601 14734536
0.17758299 1.05353 2.3454101 14603462
0.35677701 1.02163 2.30968 13615537
0.36426401 1.01639 2.3011401 13418413
0.46508199 1.00508 2.2931001 12430749
0.16918901 1.0578901 2.34445 14800585
0.172552 1.05778 2.3415301 14866378
0.166573 1.05906 2.3418801 14866378
0.165527 1.06103 2.342 14932170
0.169848 1.06126 2.3417599 14932171
0.31311199 1.02754 2.302 14471362
0.32328299 1.02786 2.30038 14405571
0.40189099 1.01486 2.28918 13681587
0.164482 1.06302 2.3421199 14932171
0.322584 1.0296 2.29776 14602949
0.35825899 1.01192 2.2677701 14076604
0.49524599 1.00175 2.2739899 12891556
-0.248787 1.07004 2.2767501 15393494
-0.247602 1.07039 2.2764499 15393494
0.48805499 1.0075099 2.2748401 13286572
-0.24408799 1.07376 2.2811999 15459287
-0.198497 1.06172 2.2623301 15327188
-0.13942599 1.06058 2.2677801 15261394
0.48089299 1.01158 2.27861 13550001
-0.22952799 1.06463 2.25846 15459288
-0.157331 1.06261 2.2636499 15327188
0.32243201 1.0206 2.2586601 14866379
0.35499501 1.01951 2.2653699 14603206
0.36161301 1.01947 2.2688701 14537412
0.367107 1.0183901 2.2653999 14537156
0.38600701 1.01069 2.2523501 14339777
0.39225501 1.00907 2.2478499 14339777
0.41553801 1.00339 2.24 14273983
0.48448601 1.0113 2.2695899 13813173
0.48407099 1.01381 2.27846 13747379
0.54147202 1.01142 2.27843 13089192
0.55041301 1.0109299 2.2842801 12825763
0.54910803 1.01298 2.28562 12891813
0.55615401 1.0080301 2.2738299 12891300
0.62189001 0.99603498 2.2631199 11904401
-0.18658599 1.06507 2.2543001 15525080
-0.132457 1.06438 2.2649901 15327188
0.35220701 1.02319 2.2660899 14800586
0.36784899 1.01265 2.2461801 14734534
0.36763701 1.01764 2.25892 14734278
0.382691 1.01231 2.2511301 14471619
0.550493 1.01168 2.27719 13089191
0.62171298 0.997473 2.2581 12299160
-0.18803599 1.0670201 2.2577 15524825
0.31986701 1.02644 2.26209 14932428
0.31986701 1.02644 2.26209 14932428
0.31986701 1.02644 2.26209 14932428
0.32219601 1.02687 2.2617199 14932428
0.36534199 1.01659 2.2458799 14866121
0.36811599 1.01033 2.2390599 14800327
0.389103 1.01258 2.2472301 14602950
0.53862798 1.0107501 2.2688999 13418158
-0.140374 1.06822 2.2618699 15393239
0.31985 1.03101 2.2617199 14998222
0.35685 1.0208 2.2514 14866379
0.367713 1.01706 2.2454801 14866378
0.37005901 1.01764 2.2453499 14866378
0.388495 1.01106 2.2353799 14800584
0.409886 1.0077 2.2314999 14734534
0.40977001 1.0049 2.22382 14734791
0.541417 1.0125099 2.2640901 13747123
0.54484099 1.01006 2.2584801 13681587
0.56056201 1.01362 2.2681701 13549745
0.62842101 0.99490798 2.24282 12759970
0.32217801 1.03145 2.2613499 14998222
0.324503 1.03193 2.26108 14998222
0.32681999 1.0325201 2.2609899 14998222
0.47916901 1.01531 2.2552299 14273984
0.53323102 1.01776 2.2671101 13945017
0.541444 1.0131 2.2571101 13813430
0.563546 1.0122 2.2603099 13681331
0.59403998 1.00898 2.2616799 13286572
0.61008501 1.00981 2.2647901 13089450
0.67069399 1.00757 2.2713001 12628385
0.32214499 1.03619 2.2613201 15063759
0.40856501 1.01001 2.2263401 14800841
0.41145399 1.00711 2.2177899 14866378
0.56022203 1.01402 2.25877 13747381
0.60058099 1.00594 2.24827 13418415
-0.058743201 1.04164 2.2023201 15393238
-0.059195101 1.04204 2.2024901 15393238
-0.0562221 1.03824 2.19294 15393495
-0.0556219 1.03442 2.18835 15327444
-0.056475099 1.03978 2.2000201 15327444
0.43591401 1.01473 2.23241 14866123
0.445755 1.01534 2.2349601 14800586
0.465002 1.0068099 2.2218201 14668742
0.47313499 1.01643 2.24141 14668998
-0.060719199 1.04564 2.20386 15525081
-0.058446001 1.04431 2.2000599 15590617
-0.055345699 1.03769 2.18979 15459031
-0.054749198 1.0353301 2.1846099 15459031
-0.055303201 1.03561 2.18366 15524568
-0.055971101 1.04026 2.19488 15459032
-0.042427301 1.03653 2.1882701 15327701
0.537687 1.0190099 2.2544701 14208189
0.538459 1.02431 2.2645299 14208447
0.54023802 1.01924 2.2538199 14208189
0.55578601 1.01561 2.25021 14076603
0.56141597 1.0094 2.2388301 14010810
0.72240901 1.00668 2.2613699 12826019
0.45903599 1.0185 2.2299299 14866635
0.46429199 1.0093499 2.21719 14800585
0.53566402 1.02359 2.2546799 14405826
0.55223501 1.01291 2.23594 14274240
0.45439401 1.02139 2.2293601 14932429
0.54194897 1.01849 2.2397101 14471619
0.54651099 1.01474 2.2309699 14471363
0.716923 1.01173 2.25948 13221036
0.5266 1.02791 2.2533901 14603206
0.53063297 1.02948 2.25582 14603206
0.53815502 1.02508 2.24436 14668998
0.54970402 1.01632 2.22878 14537413
0.62751698 1.00607 2.2269499 13944762
0.71043599 1.0189101 2.2648799 13616051
0.71276098 1.01399 2.2576599 13484465
0.71665502 1.0143 2.25664 13616051
0.72758502 1.01044 2.25141 13418672
0.53056502 1.02939 2.2476299 14734792
0.53282797 1.02599 2.23967 14800329
0.53987598 1.0211101 2.2359099 14668742
0.54232502 1.02125 2.2355499 14668742
0.54477501 1.0213799 2.2351799 14603206
0.54707801 1.01972 2.2312601 14603206
0.63669199 1.00726 2.22259 14076861
0.77653497 1.0104899 2.2554901 13088938
0.53503603 1.02564 2.23808 14734792
0.53503603 1.02564 2.23808 14734792
0.53794402 1.02565 2.23595 14800584
0.54285401 1.02592 2.2351799 14800328
0.586954 1.0158499 2.22579 14537412
0.59739798 1.01736 2.2284 14602949
0.63612002 1.00914 2.2191899 14274240
0.63866502 1.00814 2.21823 14208447
0.64070898 1.0063 2.2138 14208703
0.70988601 1.0218 2.2606201 13945273
0.720227 1.0193501 2.2579899 13879223
0.53325701 1.0255899 2.2276001 14866634
0.53213698 1.02227 2.2225599 14866377
0.53213698 1.02227 2.2225599 14866377
0.59166199 1.01837 2.2234399 14668998
