# .PCD v0.7 - Point Cloud Data file format
VERSION 0.7
FIELDS x y z rgb
SIZE 4 4 4 4
TYPE F F F U
COUNT 1 1 1 1
WIDTH 1227
HEIGHT 1
VIEWPOINT 0 0 0 1 0 0 0
POINTS 1227
DATA ascii
0.80776697 -1.22224 4.4098101 11835438
0.68733001 -1.20556 4.33389 9852749
0.69358498 -1.20552 4.3355799 4269583
0.699413 -1.20556 4.3385301 10001505
0.70624 -1.2057101 4.3396802 11517802
0.71266103 -1.20541 4.3359098 10005336
0.72033501 -1.20863 4.3434701 5268246
0.723764 -1.2053699 4.3453798 7439412
0.73470902 -1.2063 4.3506298 11911543
0.72945702 -1.20552 4.3501 10465370
0.76994902 -1.21334 4.3731198 13297265
0.77500403 -1.20796 4.3645101 12511310
0.786654 -1.2084399 4.3692598 12183622
0.803285 -1.21387 4.39499 12636517
0.81104398 -1.20994 4.3924799 12375392
0.697173 -1.19994 4.3352299 3879187
0.703439 -1.19991 4.3369598 4870689
0.70947802 -1.19972 4.33708 5069600
0.72148198 -1.19964 4.3422298 7767875
0.72158301 -1.19967 4.34231 7833668
0.71647698 -1.19962 4.33746 5793834
0.72765899 -1.19977 4.3445702 10728548
0.75064301 -1.2006 4.3531699 14936508
0.77490801 -1.20157 4.36061 12707671
0.78030998 -1.20166 4.3647199 12510801
0.79294997 -1.2035 4.3695798 12708690
0.80516201 -1.2086 4.3896699 13101159
0.822124 -1.20517 4.38762 11059535
0.700692 -1.19435 4.3347702 9607009
0.70066601 -1.19428 4.3348298 9673058
0.70737797 -1.19432 4.3362002 9082199
0.712771 -1.1942 4.33779 6056241
0.71923101 -1.19418 4.3394899 3358735
0.71912599 -1.19414 4.3393798 3358735
0.72548801 -1.19414 4.34093 3424781
0.73153901 -1.19416 4.34337 6911541
0.73615801 -1.19499 4.3449101 7831879
0.76039302 -1.19506 4.3548899 12636291
0.77903402 -1.19598 4.3587499 9086775
0.78499299 -1.1957901 4.3579702 6849567
0.78959 -1.19654 4.3645501 9152063
0.80926001 -1.19779 4.3750401 12442974
0.82271397 -1.20035 4.3842702 13494647
0.92293501 -1.20617 4.43016 11116690
0.62993199 -1.17509 4.1477799 13614761
0.70425302 -1.18878 4.3345299 9872466
0.70997798 -1.18866 4.3357 10530906
0.71664399 -1.1885999 4.3368201 10465114
0.72265702 -1.18855 4.33886 9346894
0.75879401 -1.18944 4.3500099 8161354
0.76898301 -1.19093 4.3532701 7900980
0.77544701 -1.1909 4.35568 9546312
0.79343599 -1.1908799 4.3622499 5595934
0.81045401 -1.19383 4.3696499 9414208
0.81576598 -1.19555 4.3777699 10204745
0.89071399 -1.19532 4.4127998 15525848
0.897995 -1.19691 4.4166999 14339245
0.907076 -1.19529 4.41888 14208176
0.939551 -1.2014101 4.43152 11182483
0.61672801 -1.17028 4.1564999 11772293
0.62322098 -1.17301 4.15167 13549226
0.633775 -1.16918 4.14394 13549225
0.640751 -1.16915 4.13974 13615018
0.66571999 -1.1733299 4.1554699 13220520
0.70788002 -1.18319 4.3336802 4674319
0.714064 -1.18317 4.33531 10267219
0.72002 -1.1831599 4.3372698 8031022
0.72520399 -1.18373 4.33887 9544518
0.73095399 -1.18375 4.3403902 10399067
0.73697501 -1.18371 4.3420401 5462821
0.74934202 -1.18393 4.3448 12172439
0.75964898 -1.18358 4.3457999 8820043
0.76625198 -1.1854 4.3510199 10993751
0.772964 -1.18543 4.35287 11455578
0.77936399 -1.18543 4.3556299 9414977
0.78485298 -1.18576 4.35706 7834419
0.78473198 -1.18525 4.3568201 7703087
0.79091698 -1.1852601 4.3588099 8095810
0.80058098 -1.18607 4.3632798 7107127
0.80913299 -1.18806 4.3628998 10859365
0.81634301 -1.18908 4.3710399 10267476
0.82234901 -1.19069 4.37709 9676362
0.90220499 -1.19303 4.4169002 15525594
0.91609901 -1.19359 4.4147801 13550244
0.58955699 -1.1655999 4.1943202 9007410
0.620646 -1.16307 4.1531 9337166
0.627648 -1.16292 4.1465998 12101513
0.63664103 -1.16271 4.1410899 13483687
0.636953 -1.16276 4.1408701 13483688
0.64362001 -1.16276 4.1373501 13614763
0.65773797 -1.16668 4.1539402 13417897
0.66945201 -1.16646 4.1674399 13220000
0.67080897 -1.1652499 4.1704602 12364431
0.711191 -1.17776 4.3340402 5463071
0.71709502 -1.17775 4.3361402 9345612
0.71714699 -1.17767 4.3362298 9345612
0.72257298 -1.17849 4.3376002 6780449
0.72800303 -1.17856 4.3400202 10069842
0.73408902 -1.17819 4.3407602 7042358
0.740219 -1.17818 4.3421502 7896147
0.74638098 -1.1784199 4.3434501 8619102
0.75607997 -1.17813 4.3459802 10726757
0.76210499 -1.1781501 4.34723 11387482
0.76864499 -1.17813 4.3481302 11191884
0.778956 -1.17935 4.3522501 9744453
0.79584002 -1.17706 4.3564301 5922091
0.80470198 -1.1826299 4.36132 8553805
0.813236 -1.18264 4.3632498 7631162
0.81892997 -1.18248 4.3625698 8550978
0.91652298 -1.18814 4.4228601 15328213
0.92775798 -1.19014 4.4343801 14867406
0.92189401 -1.18611 4.4224801 15525850
0.58477098 -1.16009 4.1902599 5983015
0.59007698 -1.15922 4.1873398 11374128
0.59083301 -1.16004 4.1923599 12821312
0.617486 -1.16135 4.1575398 8875570
0.66003001 -1.16225 4.1552 13286311
0.65559298 -1.1604199 4.1519699 13417640
0.65855199 -1.15854 4.1533599 13286054
0.664177 -1.16229 4.1589999 13154468
0.66596502 -1.15827 4.1633701 11179902
0.66821402 -1.1637 4.1633401 12825245
0.67139202 -1.1607701 4.16923 10653293
0.66924 -1.15977 4.1691198 10587502
0.688429 -1.1625 4.22509 12357677
0.69079798 -1.16787 4.2273798 7225883
0.71088803 -1.16782 4.33707 5724213
0.71420699 -1.17285 4.3354902 5264928
0.71428198 -1.17285 4.3355098 5265185
0.71953899 -1.17285 4.3376298 9213517
0.71953601 -1.17287 4.33778 9213773
0.72521698 -1.17299 4.3390899 10069334
0.72528303 -1.17302 4.3391399 10069334
0.731062 -1.1731499 4.3404498 8620875
0.73709798 -1.17293 4.3411498 5000997
0.74335003 -1.17293 4.34234 7105357
0.75321198 -1.17257 4.34413 6382903
0.74994397 -1.1729 4.34305 7631951
0.75953001 -1.17257 4.3455701 7701050
0.76527202 -1.17263 4.34758 10400594
0.77151299 -1.1730601 4.34624 10007111
0.78335297 -1.17388 4.3499699 7176491
0.78725302 -1.17158 4.3518701 9147985
0.79337698 -1.1715699 4.3537898 7105595
0.79966098 -1.17154 4.35531 7696713
0.80199099 -1.17704 4.3583498 7894601
0.81338698 -1.1715699 4.35989 4536093
0.82730502 -1.17715 4.3678398 7103266
0.841649 -1.17291 4.36623 8557896
0.83677399 -1.17845 4.3684802 12373369
0.84383899 -1.1784101 4.3703198 10925174
0.84902799 -1.17864 4.3778501 11319935
0.94281298 -1.18213 4.44029 15591900
0.95071399 -1.18339 4.43961 15262678
0.58825701 -1.15475 4.1911702 12427328
0.61760199 -1.1535 4.15769 13413164
0.62547803 -1.15645 4.1507602 9072952
0.63211298 -1.1566401 4.1498799 11048307
0.63914001 -1.15663 4.1448698 13417122
0.64681602 -1.1558501 4.1367102 13680812
0.65292901 -1.1558599 4.1386199 13746605
0.65854299 -1.15667 4.1553302 13022882
0.66079903 -1.15273 4.1591201 10587765
0.65651202 -1.15625 4.1497598 13351847
0.66507298 -1.15434 4.1623802 10126950
0.66908097 -1.15544 4.1672401 9928531
0.67059398 -1.15567 4.1729598 9796159
0.67337 -1.15666 4.1719899 10059329
0.70791298 -1.1628 4.3378701 3158288
0.71920002 -1.16293 4.3397799 7633474
0.71650398 -1.16778 4.3381901 5199139
0.71352398 -1.1629 4.3389101 4277278
0.722161 -1.16784 4.3391099 6975794
0.72215199 -1.16783 4.33915 6910258
0.72491699 -1.16283 4.3404198 8817743
0.73114598 -1.16294 4.3412299 5592875
0.727974 -1.168 4.3403802 6120234
0.73401701 -1.16789 4.3411798 5000487
0.74692601 -1.16741 4.3419099 12564901
0.75616997 -1.16704 4.3446999 6381890
0.76256502 -1.16719 4.3461099 6581049
0.76848799 -1.16722 4.3476 6714414
0.77416402 -1.16773 4.3480902 9215818
0.78604603 -1.1657 4.35079 6910766
0.78028798 -1.1686 4.34972 8031287
0.79145402 -1.16574 4.3527899 7040309
0.80277801 -1.16608 4.3559499 6644543
0.80826199 -1.16617 4.3596201 3618840
0.81739801 -1.16617 4.35847 5001503
0.83130503 -1.1715699 4.36586 8358968
0.83971798 -1.16739 4.3615999 7310377
0.852494 -1.1672699 4.3668599 5860644
0.858693 -1.16741 4.36935 7439673
0.855636 -1.17283 4.3701301 8951637
0.86271697 -1.1695 4.37252 9019718
0.86876202 -1.16857 4.3742199 10205519
0.87458801 -1.16857 4.3777299 10930003
0.88182199 -1.1695499 4.3799 11191642
0.89301699 -1.16923 4.3829098 6253365
0.92085999 -1.1712199 4.4034801 8947823
0.95149302 -1.17562 4.42488 15723231
0.95739698 -1.17331 4.4214301 15789023
0.58538002 -1.14947 4.19031 11111479
0.592314 -1.14934 4.1904202 14135843
0.61141801 -1.1468101 4.1647801 14595854
0.61790299 -1.14598 4.1592398 14529814
0.623447 -1.15004 4.1550102 12886826
0.63120198 -1.15065 4.1483102 9269804
0.63941097 -1.14984 4.1444898 11377012
0.64492297 -1.15063 4.1476598 13088412
0.64476597 -1.1501499 4.1417999 13022617
0.65408802 -1.14606 4.1564999 10060898
0.65706903 -1.15128 4.1539898 11377796
0.65958899 -1.14731 4.1571102 9336650
0.65840602 -1.14701 4.1601 9599567
0.66606498 -1.15017 4.1652198 9072435
0.66252899 -1.14888 4.16046 9336392
0.66981399 -1.1476001 4.1697998 10057237
0.67099601 -1.1514 4.1711402 9597469
0.67205399 -1.1514601 4.1712499 9794844
0.675879 -1.15266 4.17448 10846748
0.67610401 -1.1496 4.17769 11635733
0.67978901 -1.15093 4.1838102 12556572
0.71656501 -1.1579 4.3405099 5396509
0.72231799 -1.15786 4.3408899 8620614
0.72832501 -1.15799 4.3415198 7303741
0.74285501 -1.16241 4.3431401 13090220
0.75418299 -1.1622 4.3445401 12300704
0.75702101 -1.15738 4.3454399 12497570
0.75966901 -1.16221 4.3459301 11183502
0.76845902 -1.1582299 4.34758 11314061
0.762878 -1.15826 4.3466802 12498338
0.77495402 -1.15798 4.3487902 6313786
0.77247697 -1.16278 4.34691 6646842
0.77186501 -1.16303 4.3470502 6646842
0.79471397 -1.16324 4.35255 7171897
0.80031598 -1.16058 4.3545198 6646579
0.80610102 -1.16058 4.3559599 5134368
0.82047999 -1.16085 4.3589101 9744197
0.82625401 -1.1609 4.3614602 10468676
0.83169103 -1.16215 4.3639102 10601030
0.84927499 -1.16247 4.3659301 9876553
0.855259 -1.1625201 4.3667598 8033336
0.86171901 -1.16205 4.3674698 6322725
0.87324601 -1.16299 4.3724198 6389534
0.86754298 -1.16241 4.3694901 5336086
0.87897301 -1.16301 4.3762202 10468944
0.884866 -1.16272 4.3763399 9480528
0.891146 -1.16256 4.3780098 3490071
0.90291601 -1.16721 4.3870201 11185554
0.96086103 -1.1677001 4.4203601 15723487
0.97263902 -1.16854 4.42978 15592159
0.999515 -1.1728899 4.4400802 8551795
0.58272302 -1.14448 4.18822 8349486
0.59612298 -1.14298 4.1866202 14068759
0.59694397 -1.14254 4.1848698 14068759
0.62296301 -1.14121 4.15591 14200848
0.62907797 -1.1443 4.1539898 12952355
0.63615602 -1.14421 4.1482701 10452784
0.64256197 -1.14422 4.1465902 10454873
0.66067803 -1.14283 4.16009 8874525
0.66766101 -1.14364 4.1667099 10320660
0.67167598 -1.14182 4.1728101 12556567
0.67393899 -1.1456701 4.1738601 11767059
0.71378398 -1.1530499 4.3417201 7962682
0.71942902 -1.15319 4.3424702 8555073
0.72491902 -1.15351 4.3435502 7962176
0.73059702 -1.15359 4.34411 4539422
0.79797602 -1.15514 4.35215 8816202
0.803527 -1.15537 4.3543601 8226110
0.81845701 -1.15593 4.3587399 9547321
0.82344699 -1.1554101 4.3596201 9811002
0.82386899 -1.1555099 4.35952 9811002
0.840554 -1.1568201 4.3629198 9943863
0.84648001 -1.15672 4.36379 10140988
0.85274398 -1.15672 4.36483 10403907
0.858702 -1.15681 4.3663702 10206277
0.86494702 -1.1566 4.36759 10008903
0.87085903 -1.15677 4.3694401 9876811
0.87697297 -1.15771 4.3733301 9678662
0.92544699 -1.16126 4.39574 3618599
0.98558301 -1.1662101 4.4225302 15395036
0.99220002 -1.16205 4.4216099 15000537
0.585177 -1.1378 4.19346 11768113
0.59279603 -1.13667 4.1881199 13213720
0.59360898 -1.13625 4.1861701 13213463
0.60103601 -1.1361001 4.1799998 13279498
0.61062902 -1.13887 4.1630001 13871880
0.621315 -1.13401 4.16431 13542151
0.616705 -1.13815 4.1590199 14002954
0.62781698 -1.1368099 4.1567001 13740044
0.63234299 -1.1370699 4.1564498 13346070
0.63937801 -1.13852 4.14925 10583573
0.64048898 -1.13818 4.1492701 10123284
0.65038103 -1.1381 4.15591 8743201
0.64714599 -1.13825 4.1471801 9597999
0.65473002 -1.13974 4.1588001 8743201
0.65954798 -1.13702 4.1623101 10189075
0.71625698 -1.14867 4.3442998 5593889
0.718997 -1.14439 4.3462701 6119465
0.72177601 -1.14896 4.3453999 7041079
0.72464699 -1.14442 4.3470898 4210709
0.73413998 -1.1453 4.3474302 7827292
0.73351997 -1.1484801 4.3457599 6051391
0.800699 -1.15029 4.3534698 4667155
0.86801702 -1.15135 4.3682799 10074179
0.87383598 -1.15149 4.3701301 9679171
0.87938702 -1.15167 4.37327 8625464
0.91579598 -1.15473 4.3861899 1973522
0.92126399 -1.15499 4.3887901 2499866
0.92730999 -1.15424 4.3905702 3881777
0.97190499 -1.15918 4.4225101 15526365
0.577434 -1.1301 4.1849899 4731669
0.58363903 -1.13033 4.1968899 10584105
0.579337 -1.12902 4.1956301 8743217
0.59016502 -1.1309201 4.1940398 11833107
0.59073198 -1.13074 4.1926198 11898899
0.59776801 -1.13076 4.18859 12424462
0.601349 -1.1309299 4.1912298 12424204
0.61494303 -1.13097 4.1703 12950535
0.63615501 -1.13135 4.1544199 13082126
0.64306498 -1.13217 4.1521201 11372304
0.66203099 -1.13157 4.1675401 11964438
0.66859698 -1.1331199 4.1746802 13411864
0.66625798 -1.1307499 4.1725702 13214491
0.71845698 -1.13792 4.3510098 6908458
0.718445 -1.13794 4.3510098 6908458
0.72346699 -1.14057 4.3497 5197088
0.731058 -1.1408 4.35006 7893338
0.79194403 -1.14554 4.3545799 6170662
0.80369699 -1.14552 4.3554301 4600355
0.81291002 -1.14548 4.3559299 4012062
0.829772 -1.1454999 4.3596401 6647857
0.83534199 -1.14577 4.3608599 6649385
0.84085798 -1.14582 4.3619299 7768628
0.84093601 -1.14582 4.36203 7768628
0.84664297 -1.1456701 4.3625302 6650658
0.84693801 -1.14563 4.36268 6453280
0.90053803 -1.1462899 4.3766398 1908244
0.90741801 -1.14467 4.3785901 2368539
0.91610903 -1.15014 4.3817801 3157797
0.92549998 -1.1447099 4.3823099 6250318
0.575921 -1.12734 4.1918001 4797205
0.57897002 -1.12546 4.20155 9071918
0.57288599 -1.1268899 4.1855202 3942677
0.59341002 -1.1241 4.19064 10846477
0.593099 -1.12403 4.1914201 10780941
0.61597902 -1.12342 4.1856298 11634953
0.62173802 -1.1265 4.1735601 12621580
0.629296 -1.1276 4.1594501 13016331
0.63762802 -1.12701 4.15979 12753422
0.644144 -1.12699 4.1577001 11503884
0.65696597 -1.1246901 4.1634798 10714638
0.67529702 -1.12802 4.18467 12293135
0.71829498 -1.13318 4.35502 5789471
0.72871101 -1.13368 4.3543801 4603690
0.72358799 -1.13577 4.3524399 4341527
0.73382998 -1.13621 4.3531399 2893080
0.73944998 -1.1369801 4.3513398 1774861
0.744937 -1.13703 4.3528099 1971984
0.74990201 -1.1372401 4.3541398 2101257
0.78867102 -1.13467 4.3580298 8994102
0.823008 -1.1392 4.3601098 7958106
0.82696497 -1.14087 4.3600898 5723191
0.83236301 -1.14092 4.3617702 4145690
0.84366101 -1.1409301 4.3633699 6517036
0.83951998 -1.1392601 4.36309 6318635
0.85031402 -1.1396 4.3646302 6912558
0.85546398 -1.1408499 4.3652 6255142
0.86775398 -1.1410201 4.3685198 7769144
0.87980002 -1.1408 4.3719602 8294978
0.88476998 -1.14051 4.3738599 5201695
0.89368999 -1.13969 4.3741598 5659706
0.89931601 -1.1396199 4.37499 7369311
0.904948 -1.13965 4.3773799 5461063
0.94210398 -1.14351 4.3902602 2565661
0.97653502 -1.14161 4.3978801 14867923
0.98642302 -1.1427799 4.4041901 15065817
0.57016498 -1.12117 4.1965799 4007957
0.57489699 -1.12156 4.2010798 6244131
0.59614098 -1.11761 4.1874299 9597195
0.59127301 -1.12098 4.1912198 9860368
0.60180402 -1.11769 4.1870599 10123016
0.59663898 -1.11756 4.1862001 9597195
0.60532802 -1.12107 4.1919298 10911751
0.61236298 -1.12095 4.1854901 11240457
0.61865902 -1.12125 4.1884699 11306249
0.64111 -1.12137 4.1609902 11898379
0.64971298 -1.1187299 4.1608601 10516998
0.65270501 -1.12181 4.1611199 10056453
0.717484 -1.1289901 4.3599601 5262360
0.723131 -1.13118 4.3580599 4209175
0.72838598 -1.12906 4.3594098 3813403
0.734339 -1.12784 4.3582702 3681565
0.73933399 -1.1304801 4.35673 1840138
0.74447203 -1.12858 4.3580399 2298119
0.782309 -1.13309 4.3568702 7481375
0.77898902 -1.12869 4.35952 6037269
0.81988502 -1.13471 4.3614702 4665894
0.82228702 -1.13018 4.3640699 3350284
0.83098298 -1.13473 4.36344 6842169
0.83664203 -1.1346999 4.3640099 8555333
0.83893198 -1.13012 4.3656998 7635506
0.84189999 -1.1348 4.3650098 8819777
0.84750402 -1.1347899 4.3656402 7767605
0.85553402 -1.13012 4.369 6450989
0.85320097 -1.13492 4.3663001 5530907
0.85833299 -1.1349601 4.3685699 5135895
0.86418003 -1.13605 4.3684802 6518058
0.873483 -1.13415 4.3714399 5794338
0.96273601 -1.13747 4.3909302 14538957
0.98007798 -1.13639 4.4010201 14670543
0.59455198 -1.1117899 4.1968999 8807691
0.60048598 -1.11526 4.1859398 9530889
0.60426301 -1.1115299 4.1864901 9135879
0.61246902 -1.11362 4.18363 9859336
0.61897302 -1.11533 4.1812 10451209
0.62786698 -1.11356 4.1715298 10582792
0.62646002 -1.1163599 4.1788402 10714377
0.63400602 -1.11333 4.17135 10648584
0.63685501 -1.11601 4.1675501 11240713
0.64338601 -1.11602 4.1659498 11043081
0.649023 -1.11443 4.1659799 10648329
0.66638702 -1.11472 4.1716499 10517258
0.72140598 -1.12115 4.3666201 6312493
0.72844201 -1.12315 4.36199 5062179
0.734743 -1.12141 4.3650999 5127206
0.73923701 -1.12587 4.36058 5193261
0.74430698 -1.1239901 4.3621998 6506034
0.752877 -1.12392 4.36374 7289125
0.783674 -1.12468 4.3624701 7025447
0.852552 -1.12528 4.3692398 4871194
0.85934299 -1.12648 4.3710499 5727524
0.87010401 -1.12906 4.3733501 5530397
0.91755098 -1.12909 4.3769598 7233090
0.61275601 -1.10867 4.1877599 9070598
0.623698 -1.11022 4.1694598 9990918
0.634606 -1.1083699 4.1784601 9662215
0.71447003 -1.11587 4.3780098 5455888
0.71469998 -1.11903 4.3705602 4865037
0.78377301 -1.12032 4.3667598 7156256
0.78347802 -1.118 4.3686199 7615007
0.850564 -1.12141 4.3708601 5198627
0.85615999 -1.12142 4.3714299 5462564
0.86190701 -1.1210001 4.3731198 6911283
0.86717302 -1.1210001 4.3748598 5595933
1.00111 -1.12677 4.4115801 2631717
0.714302 -1.1112 4.3851299 8018723
0.74662501 -1.11061 4.37886 2759175
0.86957097 -1.11649 4.3766999 7173689
1.00116 -1.11993 4.4096599 3289133
0.71375 -1.1045001 4.40413 6042884
0.81954801 -1.1091599 4.3771601 5448983
0.98704499 -1.1145 4.4063301 10920863
0.71365899 -1.10067 4.4127598 6042372
0.734725 -1.10076 4.4001298 6435334
0.82340598 -1.1020401 4.3845401 7024922
0.82823402 -1.09992 4.3871598 7880485
0.93289399 -1.10269 4.39257 5254958
0.979029 -1.10927 4.3976598 12367531
0.74660498 -1.09386 4.4117899 6501893
0.74660498 -1.09386 4.4117899 6501893
0.80364102 -1.09698 4.3902402 7549969
0.82247102 -1.09778 4.38867 6893586
0.82837099 -1.0957 4.3919902 7091480
0.83435601 -1.09779 4.38936 7288350
0.87712502 -1.09768 4.3846202 6959407
0.88231599 -1.0951101 4.3894501 6763826
0.89146203 -1.09682 4.38873 5386798
0.89481902 -1.0951 4.3906298 5384999
0.7184 -1.08925 4.4511299 7357187
0.86549503 -1.09391 4.39434 6957600
0.87160099 -1.09083 4.3952799 5775640
0.876688 -1.0926 4.3928599 6433317
0.88243502 -1.09115 4.3936501 6433574
0.89464098 -1.08922 4.3959799 8080966
0.714993 -1.08322 4.4538398 7883781
0.87244499 -1.08532 4.4020901 7883326
0.88331997 -1.08442 4.40171 7423032
0.88929498 -1.0865999 4.3983002 7949120
0.71893299 -1.07493 4.4516301 8344837
0.92473102 -1.08205 4.4104099 1710358
0.725407 -1.0700099 4.4517102 8344580
0.725407 -1.0700099 4.4517102 8344580
0.77651697 -1.07309 4.4668798 7423240
0.79031497 -1.0703501 4.4813099 6305294
0.80829698 -1.07514 4.4714999 7685894
0.81255502 -1.07162 4.4753199 7751940
0.70780998 -1.0616601 4.4418201 8871432
0.71488702 -1.06093 4.4423299 8674053
0.77958202 -1.06762 4.4691701 6173700
0.78097397 -1.06313 4.4746199 5318661
0.79657698 -1.0648201 4.4752302 5713160
0.80835199 -1.0685101 4.4703302 7751942
0.95971203 -1.0707901 4.4184999 8945009
0.77061701 -1.05927 4.4547601 8279046
0.79075801 -1.05671 4.4675002 5054727
0.77032101 -1.0524499 4.4484901 8476165
0.77731699 -1.05448 4.4534502 7752456
0.78157598 -1.05595 4.4646902 5252866
0.79065299 -1.0505199 4.4625001 6633997
0.81073302 -1.0543 4.4609199 8343817
0.83510399 -1.05557 4.4644699 8937502
0.753227 -1.04694 4.4284801 8541957
0.77007699 -1.04555 4.44242 8870405
0.79450601 -1.04521 4.4530301 7357707
0.82723099 -1.0486799 4.4587798 7421701
0.83522499 -1.04971 4.4570699 8871706
0.842529 -1.05004 4.4622798 10388561
0.74979001 -1.0413001 4.4285598 10384145
0.79465997 -1.03855 4.44349 9134099
0.803361 -1.04133 4.45156 8410372
0.820786 -1.0384099 4.4446402 8804360
0.82803601 -1.04232 4.4498901 7817224
0.83642602 -1.04441 4.4518199 9069854
0.84337598 -1.04456 4.4570498 10388819
0.84665197 -1.04395 4.4587202 10455646
0.85157001 -1.04372 4.4558802 10520923
0.69838703 -1.03334 4.4239602 15253293
0.705033 -1.03395 4.4226599 15187245
0.72477299 -1.03105 4.4257498 14924071
0.73547399 -1.02996 4.43262 14858536
0.828161 -1.0352401 4.43783 9989644
0.843494 -1.03839 4.4495201 10388816
0.85156602 -1.03777 4.4513102 10587236
0.84871501 -1.03192 4.4566302 10653547
0.68984401 -1.0195 4.4068098 15187496
0.678945 -1.01107 4.4052601 9921036
0.68597198 -1.0136499 4.40768 14659880
0.692105 -1.0137 4.4098501 15121186
0.699835 -1.01363 4.4050002 15121442
0.70591003 -1.01369 4.40765 15187234
0.73762602 -1.01114 4.4123101 15253028
0.68247998 -1.00545 4.40556 10053643
0.68966103 -1.00774 4.4044499 13278481
0.69392902 -1.00752 4.4058099 13673485
0.69589001 -1.00779 4.4062099 13673484
0.70327902 -1.00783 4.4036598 13871374
0.73555899 -1.0041 4.4082398 14200075
0.78880298 -1.00851 4.4221902 7750922
0.68633699 -1.00169 4.4032502 10054152
0.692586 -1.0016299 4.4022102 12225806
0.69372898 -0.99619597 4.3952599 9856771
0.69831997 -1.00178 4.40308 13279241
0.705118 -0.99804002 4.4019899 14924326
0.73505598 -0.99770099 4.4046302 14199823
0.75264698 -1.00011 4.41046 14462218
0.75955498 -1.00334 4.4133601 14397453
0.76989597 -1.00405 4.4128599 15055651
0.77632803 -1.00405 4.41605 14397744
0.77428198 -0.99862897 4.41186 15187247
0.78619897 -1.00279 4.4194498 6172418
0.79264498 -1.0028 4.41994 11435549
0.80364001 -1.0019799 4.4240298 14594315
0.72086602 -0.99332201 4.3916602 15450931
0.74323499 -0.99448198 4.4015098 14199562
0.74980801 -0.99452299 4.4063101 14462476
0.76217401 -0.99752301 4.41291 14331404
0.77165699 -0.993186 4.4084101 15450418
0.780451 -0.99860102 4.41538 9922831
0.77801102 -0.993173 4.4115801 13081891
0.789859 -0.99708301 4.4177399 8803343
0.79680997 -0.99744999 4.4186101 14528539
0.71174198 -0.98413998 4.39429 14200350
0.72855401 -0.98900998 4.3895798 15582258
0.734532 -0.98725301 4.3909702 15582257
0.76286697 -0.99154502 4.4072099 15121186
0.77149302 -0.98713899 4.40377 15582520
0.78128302 -0.98706901 4.4118099 9001223
0.79390299 -0.991862 4.41714 13475614
0.692047 -0.98018998 4.2794099 12752913
0.72602803 -0.97893101 4.3772602 13607953
0.76813 -0.98126 4.4061298 15516471
0.77827799 -0.98238403 4.40482 13146920
0.79318398 -0.98210198 4.4163198 14002464
0.79991603 -0.98210198 4.4140701 14924310
0.80669302 -0.982063 4.4095201 14924054
0.71240199 -0.977368 4.38767 13147658
0.77076602 -0.976129 4.3590102 14002967
0.77613002 -0.97702402 4.3775001 14397984
0.80346298 -0.975972 4.4126301 14002958
0.71472698 -0.970384 4.3833199 12884486
0.80074602 -0.96995199 4.4183898 12095239
0.79317498 -0.963323 4.34235 11567630
0.798603 -0.96330398 4.3450098 13345039
0.80369598 -0.96331102 4.3481302 12884489
0.68184698 -0.95533001 4.2634802 12556040
0.79645997 -0.958067 4.3421798 12884243
0.79649597 -0.94737202 4.3414502 12621585
0.793154 -0.94174498 4.3410101 11306257
0.79904902 -0.94174898 4.3440099 12424715
0.80149698 -0.93661898 4.3468499 12293130
0.64279801 -0.92123801 4.2486601 5657935
0.66653198 -0.92397797 4.2562299 1315341
0.68716502 -0.92321098 4.2739301 1446928
0.685148 -0.924384 4.2730098 1578252
0.690768 -0.92522502 4.2740998 1971978
0.69649798 -0.92460001 4.2709298 2892553
0.71022397 -0.92580998 4.27349 3681803
0.799779 -0.93048102 4.33881 12030989
0.64255399 -0.91511202 4.24263 7433833
0.65081698 -0.91730398 4.24541 3157804
0.65895402 -0.91543102 4.2454801 1249808
0.66665798 -0.91682303 4.2485199 1052687
0.67133301 -0.914653 4.2599201 1184273
0.68228602 -0.91697401 4.2649298 1184275
0.68259698 -0.91478598 4.2677999 1250068
0.68228298 -0.91697401 4.2648902 1315604
0.682266 -0.91697502 4.2647099 1447190
0.69024998 -0.917844 4.27353 1250069
0.69852 -0.91990298 4.2720299 1249813
0.70501602 -0.9199 4.2719102 1249810
0.73794401 -0.92036498 4.2881098 1840648
0.75966102 -0.92188501 4.3057399 6443803
0.79673398 -0.92303401 4.3127699 9664023
0.80846101 -0.92434603 4.3382001 11440406
0.80574399 -0.92111999 4.3288002 10257440
0.81316799 -0.92221898 4.3397899 10980385
0.63997602 -0.90873599 4.2444401 6579038
0.657377 -0.90966398 4.2449298 1644823
0.66352099 -0.910631 4.24825 921101
0.66323 -0.90965998 4.2439699 1118480
0.66819102 -0.91216499 4.2526598 921103
0.70612103 -0.91334701 4.2624698 1249811
0.71963 -0.91136098 4.27105 1315604
0.71519703 -0.91578102 4.27176 1250067
0.72623801 -0.91136599 4.2723098 1644569
0.73332602 -0.91300303 4.2688398 1315604
0.74740398 -0.913647 4.30269 723722
0.75361001 -0.91237497 4.3042002 789260
0.79781097 -0.916915 4.3186202 5062678
0.79996198 -0.91294998 4.3238902 2499089
0.80405402 -0.91505402 4.3282299 3221774
0.810588 -0.91836202 4.3350801 8219428
0.80787498 -0.91458201 4.3310399 3222032
0.64350301 -0.90224302 4.2354498 6513246
0.64815199 -0.90218401 4.24086 6907747
0.65498602 -0.90434003 4.24263 6052695
0.660936 -0.90434402 4.2411399 2499876
0.66064698 -0.90434003 4.24511 2171167
0.66696799 -0.90434402 4.2444901 1118480
0.66739601 -0.90434402 4.2451301 1315603
0.67222899 -0.902879 4.2520299 1118225
0.67743802 -0.90358698 4.26195 1381654
0.73857701 -0.90928 4.2818899 921103
0.74774998 -0.90832901 4.2797999 460551
0.758614 -0.91045302 4.2976899 855052
0.77820498 -0.90905303 4.3063302 1578773
0.80961901 -0.90866297 4.3286099 1579029
0.812123 -0.91231 4.3341599 2762259
0.81628901 -0.909859 4.3369298 2038803
0.652031 -0.89837599 4.2402101 7105382
0.64677799 -0.89690202 4.2361798 6710625
0.65889299 -0.896321 4.2472801 6579039
0.66319799 -0.89833701 4.24892 3486771
0.66712201 -0.90008301 4.2542701 1447446
0.74218601 -0.90028203 4.2756701 789262
0.74638802 -0.89858902 4.28022 723469
0.77803898 -0.90484899 4.3048902 1052431
0.784428 -0.904926 4.3096399 1381653
0.784554 -0.90492201 4.3030901 1381653
0.784554 -0.90492201 4.3030901 1512982
0.658692 -0.88999301 4.2474899 6512990
0.665295 -0.89492399 4.2532501 1842203
0.66175401 -0.892658 4.2511201 5460816
0.670407 -0.89493001 4.2549801 1052688
0.66753203 -0.89021599 4.25491 1250067
0.73657799 -0.89335197 4.2630401 1381397
0.74039203 -0.89325303 4.2674499 986896
0.77432299 -0.89937401 4.2814202 723468
0.771267 -0.89615297 4.27841 789003
0.78117698 -0.89375699 4.2892799 1315603
0.77765799 -0.89650899 4.2850099 920846
0.59547502 -0.88341701 4.2165899 6315347
0.599581 -0.88448602 4.2205801 6578519
0.61126798 -0.88555002 4.2189798 6446936
0.62086701 -0.88349003 4.2246399 6381399
0.62441999 -0.88357198 4.2305398 6512729
0.63070798 -0.88810301 4.2428598 6710624
0.63708103 -0.88806498 4.2504702 6644832
0.63708103 -0.88806498 4.2504702 6644832
0.65667099 -0.88671398 4.2372599 6908004
0.652758 -0.887308 4.2301798 6710881
0.66366601 -0.88656902 4.2508202 4868167
0.66052699 -0.88393003 4.2480502 6118232
0.67087197 -0.88489002 4.2546902 1184274
0.73839003 -0.88880199 4.2657399 1184275
0.74309999 -0.888771 4.26823 723725
0.78146303 -0.88752002 4.2874198 1249811
0.778144 -0.890522 4.2828999 920846
0.78454798 -0.89076 4.2920899 1447189
0.84793001 -0.89163399 4.35884 3092010
0.85522699 -0.88917798 4.3641801 7302504
0.85522699 -0.88917798 4.3641801 7302504
0.59795499 -0.87947702 4.2179198 5723210
0.60167199 -0.880463 4.2226 5920591
0.60863698 -0.88078302 4.2198901 6052177
0.61566597 -0.87648702 4.2238698 5525577
0.61445397 -0.88052499 4.2196798 6117971
0.61789203 -0.87906498 4.2244902 5920335
0.62703401 -0.87784398 4.2318001 5789264
0.62404102 -0.87915301 4.2233701 6052178
0.64057702 -0.882173 4.2390099 6710624
0.65481502 -0.88179302 4.2333398 6776418
0.659585 -0.881244 4.2382002 6381660
0.661524 -0.88263702 4.2463899 5986903
0.66548502 -0.88047397 4.25068 3749686
0.66102898 -0.87818599 4.2495899 5921110
0.66834998 -0.87959599 4.2530899 1381396
0.73196799 -0.87984502 4.26829 1381398
0.734761 -0.88453197 4.2677302 1315606
0.74040502 -0.88445997 4.2680602 855311
0.77527797 -0.884224 4.2779002 723467
0.78478497 -0.88451397 4.29178 1250067
0.784917 -0.88460797 4.2930498 1250067
0.82533598 -0.88486803 4.3562598 1184531
0.83166701 -0.88718897 4.3607202 1118481
0.84608299 -0.88688701 4.3570099 3881528
0.85674399 -0.882815 4.3589902 6578783
0.59518301 -0.874753 4.2184801 5196866
0.59974301 -0.875296 4.2210698 5328198
0.61293602 -0.87168998 4.22258 5328199
0.61136198 -0.87528402 4.2234402 5393992
0.62140501 -0.87606001 4.2272401 5525578
0.618379 -0.87164801 4.2281699 5393736
0.62957197 -0.87159699 4.23423 4867908
0.62357098 -0.87167901 4.2261 5328456
0.63552898 -0.87160498 4.23453 4144441
0.63821298 -0.87651402 4.2351999 5657936
0.64339799 -0.87642002 4.2376299 6447452
0.64990097 -0.87641501 4.2374902 6710625
0.66012001 -0.87293297 4.2434902 5855317
0.662947 -0.87650102 4.24722 5657939
0.67154902 -0.874309 4.2533302 1250068
0.67668903 -0.874376 4.25073 1447191
0.734124 -0.87490499 4.2684102 1249813
0.72903699 -0.874892 4.2679501 1381654
0.73975998 -0.87489402 4.2706299 723469
0.73697698 -0.87985402 4.2690601 1052691
0.74514902 -0.874861 4.27143 591882
0.74658102 -0.87430501 4.2769198 657676
0.74267298 -0.87985301 4.2697401 657676
0.74700499 -0.879601 4.2723598 592139
0.77525598 -0.87796903 4.2778902 723468
0.772048 -0.881109 4.2734599 657674
0.77999902 -0.87511998 4.2878699 1249811
0.77847701 -0.88108599 4.2822499 920847
0.79279399 -0.87767899 4.2853398 1315860
0.82525498 -0.88040799 4.3536201 1250068
0.82281399 -0.87952501 4.3535199 1381653
0.83168399 -0.88063598 4.3547902 2039839
0.84625202 -0.880373 4.35218 7763571
0.85146701 -0.88053399 4.3541002 7763314
0.59770799 -0.86537403 4.2114301 5196867
0.61023098 -0.86523098 4.2229199 5196870
0.60552502 -0.86933899 4.21773 5262663
0.61991102 -0.86541998 4.2312198 5328200
0.62591797 -0.86540902 4.23137 4802114
0.64003301 -0.87047398 4.2361698 4407613
0.63697797 -0.86482197 4.2351398 3881269
0.64618999 -0.87081897 4.23735 6447453
0.64288503 -0.86530501 4.2364302 5592143
0.65360099 -0.86969399 4.23279 6710625
0.65898299 -0.86972201 4.2343302 6381661
0.663652 -0.87024701 4.2479401 5065802
0.666933 -0.86724299 4.2525001 1644824
0.67261398 -0.86710203 4.25315 1381653
0.67403698 -0.86936003 4.2499299 1315861
0.73144102 -0.87007397 4.2688298 1315861
0.72943699 -0.870543 4.26368 1513240
0.73646402 -0.87007701 4.2708702 986897
0.742432 -0.87000698 4.2715302 591883
0.74449402 -0.869528 4.2762599 657676
0.76925302 -0.87121803 4.2769699 657418
0.77577901 -0.87164098 4.2831998 855054
0.78015602 -0.86892301 4.2887802 1249811
0.77982599 -0.869017 4.2878699 1184018
0.78638202 -0.87480599 4.2901602 1315861
0.78653699 -0.874879 4.2908502 1513239
0.82163298 -0.87169302 4.3496099 1381653
0.81602401 -0.87251598 4.34728 1447446
0.82768399 -0.87165701 4.3529201 2434340
0.83450699 -0.87166798 4.3512998 7039848
0.84154999 -0.874883 4.3510299 8224122
0.84905499 -0.87479699 4.3494601 8618623
0.85600001 -0.87508202 4.3489399 6381661
0.56825399 -0.86035401 4.2476201 3815217
0.57217598 -0.86175197 4.2428098 4078387
0.57790703 -0.85790497 4.2399998 4144179
0.591968 -0.85925102 4.2147398 4473400
0.59797102 -0.85966998 4.2164898 5196869
0.61085802 -0.86069 4.2249799 5262663
0.61509198 -0.862625 4.2321601 5328200
0.61280799 -0.86028701 4.23036 5328200
0.62219799 -0.86004102 4.2351298 4407356
0.62837899 -0.86004102 4.2346101 3815475
0.63433701 -0.86006099 4.2337699 3947061
0.64026499 -0.85914999 4.2350001 4473662
0.64622003 -0.85967398 4.2351298 6118230
0.64975101 -0.86496699 4.2354898 6513246
0.65983999 -0.86027002 4.24435 5328972
0.66007102 -0.861664 4.2464299 5394765
0.65645301 -0.85931402 4.2413502 5460558
0.66362399 -0.86393499 4.2492299 4144700
0.66657501 -0.86041301 4.2532201 1250066
0.66977203 -0.86231703 4.2531099 1250067
0.67553997 -0.86234498 4.25283 1513240
0.74043602 -0.86537498 4.27109 592140
0.74429703 -0.86514699 4.2736001 526347
0.76979703 -0.86504102 4.27702 657419
0.76684099 -0.86775398 4.2781601 723469
0.77655101 -0.86557198 4.2838001 855054
0.772753 -0.86815798 4.2813902 723212
0.78038502 -0.86275297 4.2888098 1250068
0.78548801 -0.86446297 4.2923799 1447447
0.78786802 -0.86786097 4.2904902 1447447
0.81900799 -0.8671 4.3486099 1513238
0.81955498 -0.867037 4.3457599 1513239
0.82504499 -0.86622602 4.3488898 1381395
0.824853 -0.86610198 4.3485599 1315859
0.83104002 -0.86607498 4.3512101 5987160
0.83430701 -0.86353397 4.3471699 6974055
0.83809298 -0.86924398 4.3481002 7894900
0.837924 -0.86612099 4.3456202 7500399
0.84985298 -0.866 4.34448 7565935
0.86759698 -0.866431 4.3755002 7236969
-0.38183701 -0.82190198 3.87449 732701
0.56549901 -0.85361898 4.2530999 4999492
0.56430101 -0.85384101 4.2501302 5526093
0.574265 -0.85206002 4.2423401 3749679
0.59955901 -0.85459799 4.2207398 5262405
0.60474801 -0.85174102 4.2302299 5328455
0.61314398 -0.854339 4.2354298 4867906
0.60952097 -0.85623598 4.2314601 5262920
0.606947 -0.85654801 4.2267098 5328199
0.60851502 -0.85513502 4.2325602 5262920
0.61758399 -0.85721099 4.2355499 4604735
0.61789 -0.852575 4.2371702 3947061
0.62274301 -0.85536402 4.2357798 3881012
0.63715702 -0.85323602 4.2344599 4210233
0.64281499 -0.85404199 4.2354202 4999749
0.65478599 -0.85315198 4.24231 5460301
0.66250801 -0.85754001 4.2509298 3157805
0.65847403 -0.85550702 4.2471099 5131594
0.66918302 -0.85567099 4.2541499 1250067
0.67418802 -0.85565299 4.2567101 1513239
0.73376697 -0.86016798 4.2642698 1249812
0.73752201 -0.85548401 4.2667198 855054
0.73998499 -0.86045003 4.2695498 723469
0.77076203 -0.85763103 4.2843599 723468
0.777134 -0.85943103 4.2849798 921103
0.773422 -0.86223102 4.2810702 723468
0.785568 -0.85839599 4.29075 1447447
0.788683 -0.86167598 4.2905102 1513240
0.822321 -0.86143202 4.3468199 1381652
0.81921101 -0.85712701 4.3443298 1447703
0.83001399 -0.85747898 4.3469701 5328974
0.83701003 -0.85748202 4.3443098 7171177
0.85278398 -0.86035198 4.34408 6447453
0.867351 -0.86121202 4.3701901 7697776
-0.382682 -0.81636399 3.87288 200713
-0.34703201 -0.81810403 3.8486199 132355
0.58456701 -0.84847599 4.2350202 3749421
0.60079801 -0.850582 4.22505 5262918
0.60521901 -0.847633 4.2322798 5196869
0.60894001 -0.85101801 4.2347898 4999491
0.60913402 -0.84688598 4.2379198 4341561
0.61815602 -0.84645599 4.2344398 3881267
0.62008601 -0.85081702 4.2367001 3815475
0.62678999 -0.85018098 4.2350101 4078391
0.63406599 -0.84862 4.2340002 4210232
0.63293397 -0.848755 4.2364602 4210231
0.63905001 -0.84874803 4.2364898 4342074
0.64443398 -0.84981799 4.2381401 5723471
0.65142101 -0.84899402 4.23559 6118487
0.66021103 -0.85164797 4.25349 2434082
0.66232997 -0.847628 4.2529802 921100
0.66675198 -0.85098898 4.25243 1052431
0.67201 -0.85099101 4.2539301 1512983
0.729828 -0.84928 4.2642899 1315604
0.725541 -0.85034901 4.2621698 1447446
0.73456502 -0.85070902 4.2674298 1052688
0.73511702 -0.84935802 4.26653 986896
0.73274797 -0.85457498 4.26403 1250067
0.74281502 -0.855501 4.2676001 592138
0.76597899 -0.85465997 4.2865 723724
0.77119702 -0.85157299 4.2810998 657932
0.77114999 -0.85510802 4.2680502 657675
0.777556 -0.85330999 4.28513 986896
0.775213 -0.85447901 4.2825499 789518
0.78280002 -0.85333502 4.2870698 1381654
0.78785801 -0.85341603 4.2851801 1512983
0.81185901 -0.85156798 4.34799 1644825
0.81998599 -0.85176301 4.3454199 1447702
0.82633603 -0.85176301 4.3461099 2763305
0.83329499 -0.85177702 4.3446798 6513504
0.839782 -0.851713 4.3444901 6908004
0.843786 -0.857485 4.3432298 7302763
0.84717602 -0.85174298 4.3411198 6973797
0.84963399 -0.85650098 4.3418498 6973798
0.86779499 -0.85546702 4.3628402 8289913
0.89772701 -0.85452199 4.3689098 9407877
-0.40250501 -0.80994302 3.84986 204819
-0.39384401 -0.812343 3.8505399 1129770
-0.375586 -0.81584197 3.8745 198148
0.54050899 -0.837372 4.2637901 2370078
0.55186898 -0.84026098 4.2579002 5920330
0.59291399 -0.84435201 4.2258401 4078644
0.597682 -0.843364 4.2265201 5131075
0.59770101 -0.83923399 4.2308002 4670780
0.60500097 -0.843611 4.2368698 4539197
0.60539901 -0.84334701 4.2371402 4407611
0.60550499 -0.83978403 4.23943 3947060
0.609824 -0.84274203 4.2389898 3815474
0.64185601 -0.84369397 4.23703 4933954
0.66376901 -0.84565002 4.2533498 855308
0.66547501 -0.84161901 4.2525001 986895
0.67010099 -0.845667 4.2519598 1315860
0.67151201 -0.84161597 4.2522202 1447190
0.67481798 -0.84338599 4.2600198 1513240
0.72655398 -0.84429598 4.2660098 1381654
0.73722899 -0.84471101 4.26858 723724
0.73175299 -0.84513599 4.2673402 1184531
0.76739299 -0.84819198 4.2877798 592138
0.78018498 -0.84841502 4.2860298 1250068
0.77490997 -0.848382 4.2843299 855054
0.78546202 -0.84844398 4.2878699 1447447
0.81472898 -0.84608901 4.3488202 1381909
0.81743002 -0.84632099 4.3442302 1118738
0.82324499 -0.84633303 4.34479 1315859
0.82980698 -0.84603399 4.3438401 4868680
0.83714402 -0.84610403 4.34132 6579040
0.836088 -0.84608901 4.33992 6447711
0.84403402 -0.84605002 4.3421998 6644833
0.89604998 -0.850658 4.3683701 9144963
-0.41423401 -0.80731499 3.8584499 403737
-0.397313 -0.80608398 3.8546801 200970
0.54645598 -0.833718 4.26055 2435099
0.554012 -0.83378297 4.256 3749675
0.55903202 -0.83404797 4.2537098 5723207
0.565786 -0.83403099 4.25137 5722950
0.59732097 -0.83498198 4.2357202 3947313
0.61039799 -0.83436298 4.23769 4012852
0.62527198 -0.83842403 4.2458301 4276023
0.63288599 -0.83903903 4.24125 4407609
0.63908201 -0.83904099 4.24052 4868417
0.65672499 -0.83655101 4.25 526344
0.66074002 -0.84037298 4.2547002 657930
0.66254401 -0.83648598 4.2537799 789516
0.66694301 -0.84037799 4.25385 1184274
0.66861701 -0.83649302 4.25283 1315860
0.67312402 -0.83818102 4.25669 1447446
0.72706002 -0.83821398 4.2606502 1447446
0.730156 -0.83955401 4.2649398 1250067
0.73449802 -0.84002298 4.26791 855309
0.76520503 -0.84344703 4.2856898 526345
0.77403301 -0.83822697 4.2857299 855310
0.770845 -0.84347701 4.2863402 723468
0.78056097 -0.83823502 4.2844701 1250068
0.77745599 -0.84352601 4.2853398 1052689
0.78292298 -0.84357798 4.28649 1447191
0.78353101 -0.84333301 4.2885599 1447447
0.81352901 -0.84072399 4.3473902 1579289
0.82063103 -0.84113503 4.3456502 1250066
0.82575798 -0.84035599 4.3443799 2039581
0.82643998 -0.84022099 4.3442798 2434340
0.83224601 -0.840388 4.3438501 5855317
0.84020698 -0.840271 4.3390002 6447196
0.84516001 -0.84010601 4.3414798 6513246
-0.382034 -0.804739 3.8078201 399631
0.55236 -0.82756901 4.2557998 2303001
0.55931503 -0.827586 4.2525101 2565401
0.56718898 -0.82767999 4.2467699 4538421
0.62583798 -0.82803798 4.2487402 4867901
0.629381 -0.83329803 4.2441802 4538938
0.63275999 -0.82783699 4.2452002 4539194
0.63583302 -0.83330202 4.24298 4999490
0.642272 -0.83329302 4.2421799 3618353
0.65403497 -0.83158898 4.2473402 526344
0.65964299 -0.831339 4.2543101 658188
0.66580802 -0.83136898 4.2519598 1118225
0.67088801 -0.83263999 4.2546401 1447446
0.67151499 -0.828493 4.2586398 1447447
0.72416502 -0.83319497 4.2615299 1513496
0.72643101 -0.834723 4.2673402 1315860
0.73208803 -0.83507198 4.2670798 987152
0.73766398 -0.83082497 4.2727599 658188
0.737248 -0.83518898 4.2686501 657931
0.76880503 -0.83764499 4.2859998 657931
0.76570499 -0.83245498 4.2855601 592394
0.77191502 -0.83248502 4.28583 789517
0.77721101 -0.832551 4.2845898 1118482
0.78216499 -0.83261001 4.2831302 1381653
0.78621697 -0.83826399 4.2848501 1447447
0.78732598 -0.83275199 4.27876 1447447
0.81152499 -0.83622801 4.3457799 2171169
0.81796402 -0.83625102 4.3466201 1250067
0.82287502 -0.83636898 4.34268 1118737
0.82894599 -0.83544898 4.3438201 3815992
0.82899201 -0.83505797 4.3436298 3750199
0.82874501 -0.835379 4.3460398 4079164
0.836124 -0.83515799 4.3411398 6052952
0.835163 -0.83550298 4.3441 6052695
0.84191501 -0.83516902 4.34234 6184280
0.840774 -0.83384901 4.3468499 6118230
0.85288799 -0.83864301 4.3481998 5263180
0.86815202 -0.83612001 4.3696098 5065800
-0.41910899 -0.794577 3.77565 1135413
0.60870397 -0.82543302 4.24575 4473142
0.625063 -0.821145 4.2551098 4209714
0.63904798 -0.82755703 4.2442398 2039321
0.66137302 -0.82694602 4.2552099 855310
0.65916198 -0.82554197 4.2491498 658187
0.66272599 -0.82262498 4.2583299 1184275
0.66750097 -0.82721502 4.25525 1315861
0.68740797 -0.82398301 4.2522602 1381397
0.69295198 -0.82397902 4.25246 1315603
0.69295198 -0.82397902 4.25245 1315603
0.69295198 -0.82397902 4.25245 1315603
0.72317898 -0.82881802 4.2690501 1447703
0.72258502 -0.82432097 4.2642999 1447446
0.72995198 -0.828973 4.26724 1184531
0.72966599 -0.82880199 4.2677002 1250067
0.73554999 -0.828906 4.2678699 789517
0.76941597 -0.82743901 4.2867498 723723
0.76472002 -0.82732999 4.2881398 460808
0.76432198 -0.82656902 4.27671 526601
0.77472597 -0.82750601 4.2856002 1052432
0.77977097 -0.82758999 4.2840099 1315861
0.78468198 -0.82771498 4.2809601 1447446
0.81866997 -0.82977003 4.3484101 1052944
0.825755 -0.82981402 4.3446202 1579031
0.82577699 -0.82929099 4.3444901 1513238
0.83195502 -0.829795 4.3439398 4868678
0.83199298 -0.82925999 4.3438802 4802886
0.83858597 -0.82950801 4.3431201 5855059
0.84509301 -0.82940298 4.3466301 6118229
0.85226601 -0.83291799 4.3494101 5328972
0.86853999 -0.829027 4.36867 4802372
0.87816697 -0.82906801 4.3753099 5460301
-0.38677701 -0.79351199 3.8013 3948855
-0.385562 -0.79371101 3.79637 3488561
-0.33482799 -0.79330897 3.8329599 15327440
0.614905 -0.815323 4.2624502 3484955
0.614829 -0.81955302 4.2571902 4998712
0.63226902 -0.81652802 4.2553802 985863
0.63922101 -0.81978899 4.2504201 723719
0.64465398 -0.81845599 4.25245 657927
0.65890199 -0.81730998 4.2611299 986895
0.67397302 -0.81777602 4.2560802 1447445
0.67993802 -0.81824201 4.2614398 1315346
0.68903601 -0.81972897 4.2623501 1579031
0.69462699 -0.819731 4.2625198 1513238
0.70595402 -0.82160902 4.2698102 1513496
0.71076202 -0.82085699 4.2743902 1381653
0.72506702 -0.81986803 4.2660799 1447446
0.731094 -0.81996602 4.2655301 1052688
0.72816998 -0.82434303 4.2650099 1250067
0.73317999 -0.82432199 4.2666202 855309
0.73801601 -0.82430702 4.2690101 657931
0.767066 -0.82235301 4.2850599 592394
0.77193099 -0.82252598 4.2880902 855309
0.77734202 -0.82263601 4.2852302 1250067
0.78425801 -0.82086402 4.2888398 1513240
0.82223397 -0.82372701 4.3461499 921358
0.82199299 -0.82345098 4.3459501 921359
0.82908797 -0.82392597 4.3454499 2039582
0.82835603 -0.82455403 4.34554 1842203
0.83463299 -0.82455599 4.3452601 5131594
0.84187698 -0.82426798 4.3452201 5723729
0.86813998 -0.82412601 4.3765998 4736578
0.87146902 -0.82270998 4.3848701 5262922
0.87536502 -0.821356 4.3789001 5394508
-0.47683701 -0.78214097 3.7681201 675889
-0.36343601 -0.78655899 3.80181 15261907
-0.35100999 -0.789482 3.78776 14932685
-0.33054399 -0.79001403 3.81864 12305839
-0.31985301 -0.78519201 3.8110399 12633777
0.62060398 -0.80940199 4.2617102 5654033
0.63530701 -0.81353003 4.2635698 1840137
0.64898998 -0.812011 4.26581 1840392
0.644494 -0.81219101 4.2619901 2103048
0.655608 -0.81200802 4.2636399 1774600
0.65540802 -0.812033 4.2646298 1774600
0.66416401 -0.81087202 4.2638202 2498060
0.697137 -0.81595498 4.2669702 1250065
0.710199 -0.81596702 4.2697902 1513237
0.72043103 -0.81353599 4.2691002 1513237
0.72703099 -0.81537598 4.26864 1315860
0.73599899 -0.81209201 4.2733898 591881
0.73747301 -0.81818998 4.2733898 592394
0.73365903 -0.81588399 4.2694001 657930
0.73929101 -0.81454498 4.2722802 394758
0.76898599 -0.81742501 4.2853799 592394
0.77492702 -0.81740499 4.2873402 1118481
0.78045499 -0.81748903 4.2855601 1447446
0.81985003 -0.81776202 4.3442998 1052686
0.825418 -0.817644 4.3450198 658186
0.83216101 -0.818627 4.3452702 1184017
0.829413 -0.81341702 4.34514 723468
0.837457 -0.81911498 4.3461499 2763047
0.83785301 -0.81858802 4.3457398 2434082
0.84357399 -0.81914502 4.34692 5065543
0.86723799 -0.81980002 4.3839598 4604993
-0.35119501 -0.78358197 3.7844801 13481642
-0.32110599 -0.77963799 3.8062 12042153
-0.31983501 -0.782332 3.7902801 12633264
0.62697399 -0.80354398 4.2623301 7165705
0.63380802 -0.80696899 4.2633801 6574353
0.64044201 -0.80384803 4.2615299 7428363
0.64709902 -0.80677497 4.2639098 6442513
0.65529698 -0.80572599 4.2603698 7363089
0.660456 -0.80531102 4.2616601 8218132
0.667732 -0.80530798 4.2614498 8744730
0.71038002 -0.80516201 4.26578 7692572
0.72092903 -0.80709398 4.2691202 3418639
0.73215997 -0.809793 4.2691598 789257
0.75847602 -0.81225997 4.2853999 395014
0.75567502 -0.80630797 4.2936702 723719
0.76165098 -0.80660599 4.2828002 657927
0.76484603 -0.812433 4.2783899 460550
0.77740997 -0.811095 4.2901201 1381653
0.789621 -0.81244802 4.2898798 1513494
0.78528702 -0.81078398 4.29175 1513494
0.79250997 -0.80866599 4.29211 1579031
0.83490098 -0.81352103 4.34548 789259
0.84035099 -0.81347698 4.3471799 1578516
0.841986 -0.80890101 4.3505101 2302237
0.84893298 -0.80956697 4.3489399 5591371
0.87379801 -0.81179303 4.3779202 5131078
-0.29354101 -0.77589899 3.8027301 13946298
-0.250045 -0.780563 3.7757199 12236196
0.62495202 -0.80048901 4.2488298 7230726
0.633865 -0.80057901 4.2599001 7493381
0.63126302 -0.79759097 4.2470298 7493380
0.64710999 -0.80042499 4.2596402 8479751
0.648848 -0.79953903 4.2567801 8742664
0.65546799 -0.799537 4.2572699 10387984
0.663836 -0.799815 4.2570901 11110924
0.66710597 -0.80017102 4.2561998 12031498
0.67216599 -0.80045003 4.2590799 12228364
0.68045902 -0.80373502 4.2642598 11045661
0.68780202 -0.80065697 4.2617602 12688915
0.69441402 -0.80057299 4.26366 12689171
0.70086598 -0.79996902 4.2647099 12886289
0.70721501 -0.79963499 4.2616501 13017617
0.706985 -0.79992598 4.2627301 12952082
0.71102297 -0.80513501 4.2657399 7627036
0.71379799 -0.80056 4.26723 12755223
0.72124499 -0.80022502 4.2670598 12689692
0.72618097 -0.80027801 4.2677102 12360996
0.72877699 -0.80539 4.2637701 4602646
0.758982 -0.80060399 4.2922502 6245910
0.76905 -0.80346799 4.2806301 1709066
0.77657503 -0.80319297 4.2870302 2169360
0.785806 -0.80155802 4.2901101 2629905
0.78747201 -0.806952 4.2888598 1579029
0.790048 -0.803101 4.2921801 1578512
0.80190498 -0.80421501 4.2888799 1315858
0.84165698 -0.802517 4.3576102 2170393
0.84891999 -0.80493301 4.3534098 5393991
0.85341102 -0.807127 4.3566999 6183249
0.86536098 -0.80404001 4.3800602 5459786
-0.51930302 -0.76422799 3.7418001 6124892
-0.45447999 -0.76542401 3.7590001 15853787
-0.31383201 -0.77247 3.78791 14275008
-0.30689999 -0.77257901 3.80669 14077629
-0.242052 -0.77217102 3.7825 9473147
0.640365 -0.79196298 4.25389 8150534
0.65223801 -0.79410899 4.2548199 10715661
0.66093498 -0.79442602 4.2544098 12623117
0.66734701 -0.79439998 4.2553201 12885771
0.67391402 -0.79447597 4.2542601 12950793
0.68492299 -0.79604697 4.2621002 13213964
0.69152802 -0.79545599 4.2639899 13279755
0.697882 -0.79528999 4.2639399 13279755
0.707461 -0.79372799 4.2627001 13411338
0.71173602 -0.795214 4.26124 13345547
0.71821201 -0.79512101 4.2651601 13411340
0.72435898 -0.79504597 4.2680402 13345806
0.728782 -0.79641598 4.2710199 11899148
0.73159498 -0.79388398 4.2791901 10780167
0.74101901 -0.79398602 4.2928801 12556817
0.74696302 -0.79410601 4.2925901 12885775
0.74381298 -0.79827201 4.2926698 10256925
0.75343502 -0.79405099 4.29318 12951567
0.74932301 -0.79981703 4.2848501 9007645
0.76012301 -0.79400998 4.2923899 13017103
0.77001101 -0.79988402 4.2898998 6376470
0.776582 -0.79980397 4.2867398 6245915
0.78393298 -0.79627103 4.2902699 10586670
0.78227502 -0.80051202 4.28719 4602137
0.78232002 -0.80063099 4.28721 4405016
0.78846902 -0.79760098 4.2930598 5917470
0.79287201 -0.79905897 4.2958598 2301454
0.79846901 -0.79907 4.2955298 1841425
0.80600703 -0.80036998 4.3060398 1315600
0.835657 -0.80042797 4.3594699 2039066
0.84813601 -0.80017799 4.3603001 5262146
0.86533701 -0.80038702 4.3855901 6183507
-0.53293699 -0.75761002 3.73137 10062199
-0.51514798 -0.76005 3.7443099 13751490
-0.51607102 -0.75881499 3.72876 12627615
-0.31869999 -0.76653302 3.79287 13879728
-0.28585899 -0.76678902 3.79375 12433318
-0.235514 -0.77018499 3.79127 7102291
-0.235952 -0.767896 3.7660899 8683888
-0.229583 -0.76865399 3.8055699 6970184
-0.223885 -0.76736701 3.8118899 6248771
0.64157099 -0.786255 4.2497501 8742152
0.66043001 -0.78856599 4.26331 13148427
0.66475999 -0.78777701 4.2615199 13279753
0.66475999 -0.78777701 4.2615199 13279753
0.68083203 -0.79057997 4.2639399 13411083
0.68739599 -0.79065198 4.2629099 13410827
0.69399101 -0.79196101 4.2596002 13345290
0.70041603 -0.79062003 4.2649798 13279498
0.70885199 -0.78988498 4.2596898 13542667
0.71515101 -0.78985 4.2617998 13477129
0.72115099 -0.79000199 4.26438 13477131
0.72207898 -0.78997201 4.26373 13477131
0.72688299 -0.79120898 4.2705698 12950796
0.73586202 -0.79181498 4.2912202 10976774
0.74005097 -0.788225 4.2912898 12949774
0.74695098 -0.78845501 4.2901301 13542154
0.75345302 -0.788427 4.2883401 13476617
0.76026899 -0.78840101 4.2867599 13081864
