# .PCD v0.7 - Point Cloud Data file format
VERSION 0.7
FIELDS x y z rgb
SIZE 4 4 4 4
TYPE F F F U
COUNT 1 1 1 1
WIDTH 1219
HEIGHT 1
VIEWPOINT 0 0 0 1 0 0 0
POINTS 1219
DATA ascii
0.33753499 -0.50182199 3.0792301 9596679
0.346084 -0.50168002 3.07739 9794056
0.34764099 -0.49913001 3.0763299 9465096
0.35289299 -0.50047201 3.0736599 9728006
0.37285301 -0.496984 3.07886 9662215
0.47256801 -0.50154501 3.12959 6116633
0.476529 -0.50045699 3.1266301 4339723
0.50327599 -0.49020901 3.0924399 7617580
0.52610302 -0.48632699 3.0673201 3351053
0.55176401 -0.47761801 3.0447299 5069594
0.549999 -0.48008901 3.0457101 6122790
0.56783003 -0.475914 3.0302899 6315083
-0.188906 -0.51238 2.9425001 6291984
-0.163932 -0.51127398 2.9461 7735830
-0.16202299 -0.50989902 2.9470899 7867159
-0.13243701 -0.50763702 2.9419799 7014423
-0.12799799 -0.50752598 2.94138 7276567
-0.125599 -0.50675601 2.93729 7605017
-0.123238 -0.50597101 2.9331999 8263713
-0.119169 -0.50612402 2.9356999 8526626
0.33954799 -0.50321198 3.1133201 7952389
0.333736 -0.50176799 3.09582 8412933
0.346526 -0.49644199 3.0883999 8939019
0.33873999 -0.498283 3.08393 8939017
0.34375799 -0.49796 3.0817201 9201930
0.34699801 -0.49753699 3.0817201 9267979
0.34960899 -0.49662399 3.07564 9333513
0.36155701 -0.494017 3.08125 9399307
0.36716899 -0.49403501 3.08302 9465095
0.37114999 -0.49345601 3.0810499 9662217
0.52508801 -0.482905 3.0711801 4400658
0.54301298 -0.477025 3.0534 4147218
0.54691303 -0.47336701 3.04985 6582573
0.55028701 -0.47417101 3.0478301 5069080
-0.19203199 -0.51080298 2.95029 7407381
-0.174485 -0.50973898 2.9521501 6817556
-0.12995 -0.50378102 2.9412301 7210773
-0.130666 -0.50135601 2.9370999 7473174
0.343824 -0.499248 3.1084099 7952643
0.34942499 -0.49532399 3.1077499 8281608
0.34031299 -0.497933 3.0989599 8150021
0.34208 -0.49498799 3.09162 8544521
0.34628299 -0.49282199 3.0929501 8610314
0.35003299 -0.49317399 3.08163 9070603
0.352777 -0.493065 3.0815899 9267725
0.35920301 -0.49259901 3.0787201 9399307
0.485935 -0.49155501 3.1379399 6899216
0.55226099 -0.469742 3.0480299 7041593
0.55206501 -0.46967 3.0484099 7107385
-0.193422 -0.50772399 2.95344 8194070
-0.13539501 -0.498952 2.9357901 7800597
-0.126469 -0.497183 2.9381499 8523289
-0.124796 -0.49656901 2.9349899 8590108
-0.120864 -0.496474 2.93507 8855332
-0.0260207 -0.481996 2.8912101 11604772
-0.0153908 -0.481837 2.88974 10292250
0.34942201 -0.492432 3.1151199 7821574
0.34714001 -0.49430001 3.10759 8084487
0.35416299 -0.49071401 3.10113 8544778
0.35416299 -0.49071401 3.10113 8544778
0.35747999 -0.49005401 3.09373 8873483
0.35910401 -0.489739 3.0850599 9202189
0.51652199 -0.475591 3.09569 8467479
-0.136464 -0.49490201 2.9354501 9244188
-0.119505 -0.49235699 2.9350901 9052967
0.35346901 -0.488114 3.11219 8150024
0.49856901 -0.48912501 3.17242 6371589
0.51489103 -0.474114 3.11024 6105094
0.61723799 -0.445483 2.99454 7565933
-0.141543 -0.4903 2.9289899 9637148
-0.145731 -0.49151501 2.92729 9768221
-0.136355 -0.49073499 2.93009 9375259
-0.121857 -0.48852199 2.9356201 8722719
0.0060285199 -0.46609199 2.8589399 8653848
0.35205901 -0.48893499 3.12409 7755526
0.359754 -0.484503 3.1147699 8347401
0.50328302 -0.485369 3.1770799 6963460
0.50743002 -0.48447099 3.17472 6897925
0.50405103 -0.48128 3.16378 6963716
0.50991702 -0.47404599 3.12852 6765061
0.54627299 -0.46086001 3.0644801 8926501
0.54951203 -0.458931 3.0608001 8533284
-0.151263 -0.48821199 2.9305401 9439257
-0.145768 -0.48744899 2.9268401 9439257
-0.00139116 -0.46256599 2.8650801 9835042
0.0062547401 -0.46235999 2.8603401 7932695
0.0080995196 -0.462358 2.8592701 7801624
0.35450599 -0.48327899 3.12514 7755782
0.357261 -0.48144999 3.1147201 8281607
0.36199501 -0.47911799 3.1182201 8413193
0.36019301 -0.480692 3.1059401 8544778
0.35930201 -0.477759 3.10918 8282123
0.37494901 -0.47760901 3.0962601 9464840
0.5007 -0.48153099 3.1774499 7621637
0.503802 -0.480382 3.1733799 7555844
0.50693101 -0.47803301 3.17103 7818757
0.55288303 -0.45585901 3.0696499 8729634
0.55288303 -0.45585901 3.0696499 8729634
0.55288303 -0.45585901 3.0696499 8729634
0.58701301 -0.446017 3.02372 5192245
-0.16355801 -0.486774 2.9351299 8455442
-0.15944 -0.48672101 2.9356799 8717844
-0.14746299 -0.483264 2.9277799 9111575
-0.0417444 -0.46835601 2.89554 7602186
-0.037446499 -0.46834001 2.8959899 7208968
-0.0212542 -0.46711701 2.8934801 11015719
-0.0084353499 -0.45925999 2.8659201 11016234
0.00388795 -0.45899299 2.86133 7866903
0.00790036 -0.45881701 2.86217 7605015
0.36325401 -0.479491 3.13291 7952901
0.36068401 -0.47399801 3.11286 8347656
0.36704201 -0.47623 3.1166501 8544776
0.43403399 -0.47623801 3.14044 9332229
0.50018698 -0.47816101 3.1812501 8016644
0.507025 -0.476183 3.1775601 8213765
0.50702 -0.47335401 3.17137 8345093
0.55802602 -0.46725401 3.15046 7356423
0.56441402 -0.46741199 3.1500199 6041350
-0.192012 -0.485093 2.93836 9111577
-0.185684 -0.48455101 2.93608 9046040
-0.149873 -0.47900599 2.9279699 8915224
-0.0317524 -0.46488601 2.8965299 9704224
-0.00078559702 -0.45575199 2.8614099 7932438
0.0036525801 -0.455652 2.8605599 7605015
0.425587 -0.46965301 3.1439099 10450440
0.427347 -0.473295 3.1421499 10187526
0.495076 -0.47365299 3.17626 8147972
0.50100303 -0.47200701 3.17838 8279301
0.50805497 -0.470727 3.17659 8476420
0.509965 -0.468523 3.1744699 8542212
0.56040102 -0.46096799 3.14852 5910534
0.59992599 -0.43283999 3.02495 9668988
-0.187911 -0.48063099 2.9360099 8981016
-0.154943 -0.47803301 2.93011 8849944
-0.151299 -0.47531301 2.92923 8850458
-0.142469 -0.475849 2.9306099 8849944
-0.089408703 -0.470873 2.9381599 8853280
-0.053022102 -0.46165401 2.8982 7536652
-0.028267501 -0.46068901 2.8931799 10950439
-0.00085075601 -0.45086101 2.8626201 7605014
-7.7340301e-05 -0.45166501 2.8627 7605014
0.49430799 -0.46665001 3.18009 8411141
0.49886999 -0.46675101 3.1779101 8608262
0.50700802 -0.463918 3.1738701 8674055
0.51064301 -0.46468601 3.17011 8805383
0.54594302 -0.45867899 3.14907 8146181
0.55654699 -0.45571899 3.1449499 5712645
0.56536299 -0.45299101 3.14239 6765329
0.57593501 -0.44057399 3.0595901 5124643
-0.144674 -0.471935 2.9302599 8391963
-0.086160503 -0.46975499 2.93629 10359588
-0.055022601 -0.45803499 2.89885 7208969
-0.046852302 -0.45855099 2.9005699 6815752
-0.00715815 -0.447649 2.8640399 7604247
0.490632 -0.46578699 3.1844699 8608518
0.49086899 -0.46177801 3.1803401 8805896
0.49467799 -0.46222299 3.1767299 8739846
0.51192802 -0.460518 3.1688199 8674053
0.54082799 -0.45268801 3.1415901 8410116
0.56195801 -0.448926 3.14273 4331781
0.65254998 -0.420351 3.02966 10591120
-0.145138 -0.46914801 2.9349599 6619921
-0.085854501 -0.46615499 2.93875 10686241
-0.044579301 -0.45536599 2.9030299 8522005
0.48646799 -0.45976701 3.18542 9200136
0.48805001 -0.45764101 3.1807599 9594889
0.491932 -0.45748001 3.1767399 9068807
0.53821599 -0.45035401 3.1446199 8541699
0.62365198 -0.417151 3.02266 2762788
0.64821702 -0.419449 3.0321701 7762794
-0.31004599 -0.482429 2.94787 11867428
-0.186105 -0.471066 2.9423201 6751506
-0.16161101 -0.46825799 2.95222 7736601
-0.144722 -0.466252 2.9414799 6490390
-0.107898 -0.46616799 2.95555 7145747
-0.103891 -0.46418399 2.94907 6687250
-0.100518 -0.462019 2.9468501 7933463
-0.0243636 -0.44297099 2.8631899 10360615
-0.0233906 -0.43971801 2.8606801 8850457
-0.019196801 -0.44064999 2.85864 7800594
-0.0198189 -0.43967801 2.85711 7473171
-0.0162156 -0.44023401 2.8576 7407379
0.47717401 -0.45737299 3.1884999 9398547
0.484494 -0.457396 3.1849899 11371287
0.485632 -0.45355701 3.1814499 14529580
0.64663398 -0.41565099 3.0334599 8552053
0.65141702 -0.41316399 3.0348899 10853778
-0.18998 -0.46781099 2.9547701 6621973
-0.155747 -0.46535999 2.95207 7148061
-0.156137 -0.465545 2.9512801 7213597
-0.15079699 -0.46675101 2.95065 7146521
-0.144871 -0.46375701 2.9511399 5443351
-0.139653 -0.464946 2.94906 6492442
-0.138225 -0.46439201 2.94642 6492443
-0.134369 -0.46270999 2.95047 4524817
-0.106225 -0.46191001 2.9511499 5375756
-0.103374 -0.46026301 2.94889 6228239
-0.100694 -0.45799801 2.9462299 8850200
-0.097830199 -0.45975 2.94416 9571611
-0.096003801 -0.45813099 2.9452 10029594
-0.093214199 -0.46017599 2.9428799 10291739
-0.078762397 -0.45058301 2.90663 10557224
-0.0269484 -0.439226 2.8635399 11082797
-0.0226095 -0.43566 2.85552 8326423
-0.0191986 -0.43656099 2.8555601 7669779
-0.0153162 -0.43645301 2.8584099 7276305
0.456411 -0.45752501 3.19367 7950598
0.468649 -0.45313501 3.1877 7490832
0.475281 -0.45335901 3.1874101 9332237
0.48190701 -0.452925 3.1849899 14858543
0.47703999 -0.45291701 3.1842999 12423976
0.48486799 -0.44934499 3.1837101 15121704
0.48736 -0.44851699 3.1754401 15187494
0.556005 -0.438788 3.13939 7357971
0.62013102 -0.415079 3.05404 10195333
0.62902498 -0.41308099 3.0350699 3354665
0.63344097 -0.412238 3.0302801 4078389
0.64682299 -0.41186801 3.03725 8748917
0.65140998 -0.40937001 3.0385301 11116693
-0.29885799 -0.47210199 2.94537 11737128
-0.194617 -0.46742299 2.95769 7212827
-0.19080301 -0.466241 2.9590299 6558236
-0.179782 -0.465821 2.95278 6426906
-0.17292801 -0.464136 2.95895 4196880
-0.16146199 -0.461936 2.96066 1705222
-0.155809 -0.46263501 2.95948 2491399
-0.150333 -0.46313599 2.9561999 3737869
-0.13963 -0.461667 2.9535401 2556934
-0.13437501 -0.459562 2.9558699 1050630
-0.124228 -0.45808199 2.9540999 1050887
-0.105741 -0.45800999 2.9511499 4589837
-0.110156 -0.459093 2.9496801 2294018
-0.106275 -0.454505 2.94662 5638931
-0.102094 -0.45442101 2.94594 9243676
-0.099097297 -0.45613199 2.94767 9505048
-0.098392501 -0.45433801 2.94397 9898009
-0.088243298 -0.44740599 2.9066601 10950442
-0.076923102 -0.44793299 2.9042301 8850203
-0.075208202 -0.44461599 2.90659 7537167
-0.066115603 -0.44466999 2.9060199 6684681
-0.0300202 -0.431912 2.85497 11410735
-0.025382901 -0.43191999 2.8557501 11411760
-0.0217536 -0.432367 2.8529201 9180704
-0.016437899 -0.43282601 2.8536401 7146257
0.46809101 -0.44929999 3.1903999 7228433
0.47247499 -0.44922099 3.18747 8740103
0.479866 -0.44890901 3.1838601 14858286
0.48123899 -0.44469401 3.1817 15121702
0.487113 -0.44649899 3.17277 15253287
0.53694302 -0.434192 3.13536 7226116
0.53475398 -0.43148199 3.1330199 7620871
0.540214 -0.431905 3.1338799 5909765
0.54647303 -0.43143299 3.1324799 8212496
0.61612898 -0.41432801 3.0692999 11116690
0.63132399 -0.40982199 3.0415101 4012338
0.63947898 -0.408672 3.03862 7170143
0.64551699 -0.40800899 3.0398901 10261899
-0.28306201 -0.46980101 2.9495299 11605027
-0.18437999 -0.46327901 2.96299 2163718
-0.178579 -0.460659 2.9656701 723719
-0.167137 -0.46154699 2.9616799 1246469
-0.156451 -0.459822 2.9651699 396808
-0.15561301 -0.45896599 2.9603 790283
-0.142011 -0.45825499 2.9563999 725000
-0.113454 -0.45519799 2.9514799 1115140
-0.109771 -0.455165 2.94945 2491655
-0.052513499 -0.441176 2.9031701 10753833
-0.032899201 -0.42847899 2.8555 11279662
-0.031043399 -0.428417 2.85571 11343913
-0.0275544 -0.428094 2.8538699 11213099
-0.0225465 -0.428774 2.8557501 10426150
-0.021224299 -0.428725 2.8496799 8655899
0.460053 -0.44611201 3.1905501 4137478
0.455553 -0.44611999 3.1898 3414788
0.46416199 -0.44609401 3.1912501 5781516
0.46941501 -0.44502401 3.1870401 8871945
0.471324 -0.44533601 3.18542 8937222
0.47827399 -0.44494799 3.1832199 14792493
0.47305 -0.44489801 3.18225 10713365
0.47579199 -0.440871 3.1814899 14134314
0.47265199 -0.44109899 3.1829801 10581266
0.47887799 -0.44060299 3.18098 15121704
0.53689098 -0.42761299 3.1322501 6501638
0.54623801 -0.42750999 3.1289699 10647312
0.627514 -0.409024 3.06392 11182224
0.62964499 -0.40780199 3.05356 11050899
0.638717 -0.40601099 3.04561 9143674
0.64548999 -0.404419 3.04386 11050112
-0.336023 -0.470422 2.9530699 10752800
-0.331718 -0.470413 2.9539001 10621472
-0.187482 -0.46018401 2.96421 986889
-0.150133 -0.45541799 2.96069 730643
-0.108622 -0.44799599 2.94978 7735829
-0.077243097 -0.43783 2.9063599 6750219
-0.035675801 -0.426222 2.85675 11345197
-0.0279675 -0.424808 2.85621 10163749
-0.024963999 -0.425026 2.8550899 9178652
0.44689399 -0.44049901 3.18854 4204295
0.45774201 -0.44210601 3.1897299 3874566
0.46389201 -0.441401 3.19015 8017426
0.46215001 -0.44208699 3.1902699 6504719
0.46900201 -0.441246 3.1854701 9003016
0.469533 -0.43690801 3.1835899 9200135
0.473232 -0.436748 3.18029 12686882
0.52378201 -0.42626101 3.1399801 15055914
0.53706402 -0.42305601 3.12888 11436844
0.56707799 -0.41777799 3.10864 10518840
-0.318555 -0.46569201 2.95327 9439257
-0.1841 -0.45413399 2.9690199 733975
-0.15487 -0.45383301 2.96435 733976
-0.109489 -0.443248 2.9437799 8718355
-0.106292 -0.44290301 2.9423699 9504021
-0.082452402 -0.43514001 2.9082899 7274509
-0.077629797 -0.43495399 2.91136 6815753
-0.073471598 -0.43498299 2.9112201 6881544
-0.0703137 -0.43474501 2.9112401 7800336
-0.024388799 -0.42165899 2.85449 7801108
0.45157 -0.43819901 3.1912701 3021058
0.45532501 -0.438108 3.18978 3611395
0.45954099 -0.43805599 3.18923 6307598
0.46152699 -0.43403199 3.18771 8937999
0.465747 -0.43716499 3.1865399 9069063
0.46447101 -0.43669301 3.1856 9069320
0.47038001 -0.432603 3.1798501 10186506
0.47483301 -0.43254799 3.17749 14529062
0.48339 -0.43288499 3.1723299 15450413
0.51974702 -0.42192501 3.1402299 15187241
0.53400701 -0.418726 3.1291101 10976301
0.54069 -0.41874099 3.1219001 14791969
-0.321419 -0.46180701 2.9527199 10424095
-0.31577101 -0.46162701 2.9520199 9636121
-0.31074101 -0.46164 2.9532299 8586514
-0.30462801 -0.460922 2.94753 6750218
-0.114155 -0.44233999 2.9444399 7868184
-0.108406 -0.43926901 2.9423001 9176339
-0.107357 -0.43900999 2.93871 9438741
-0.105463 -0.439473 2.9360399 9700887
-0.085860804 -0.433274 2.91044 7471116
-0.074747503 -0.431802 2.9138701 7406605
-0.063330501 -0.43120101 2.91014 10358819
-0.060777102 -0.431099 2.9105 10490146
-0.029521501 -0.41812 2.8555701 7670292
0.362046 -0.43733099 3.1793799 9793558
0.36662501 -0.438887 3.1738999 4925699
0.36867699 -0.43654901 3.1709499 6569993
0.45727101 -0.43408501 3.18925 6241552
0.453428 -0.434194 3.1912999 3085315
0.45982799 -0.430035 3.1886599 9003533
0.46206999 -0.42971 3.18572 9331977
0.46885699 -0.42727101 3.18027 9462790
0.472615 -0.42851999 3.1777999 11567885
0.47616699 -0.42836601 3.17465 13805586
0.52135998 -0.41782501 3.1378701 15187243
0.527053 -0.41370201 3.13187 7421443
0.53133601 -0.41440901 3.12904 9790745
-0.147027 -0.444426 2.9628301 3378005
-0.106592 -0.436553 2.9346499 9440024
-0.103967 -0.436324 2.93383 9832216
-0.071002401 -0.427214 2.9102099 10425124
-0.0293245 -0.41477501 2.8599501 7211796
0.36689401 -0.432432 3.1809399 13411344
0.36558899 -0.43554401 3.1756999 9793562
0.36822701 -0.43335101 3.1738701 12358944
0.371068 -0.43211201 3.16469 7753993
0.383434 -0.426671 3.15029 6702090
0.38712299 -0.42816299 3.1471801 5123587
0.38800001 -0.42476901 3.14308 5781252
0.39269599 -0.42672399 3.1418099 4926213
0.45483899 -0.43000501 3.18923 5978127
0.45363501 -0.42602301 3.1904299 6898961
0.45646501 -0.42589501 3.1867299 9003534
0.460163 -0.425767 3.1856201 9331974
0.46929699 -0.42247701 3.17594 9462277
0.47407699 -0.42381799 3.1742499 12028428
0.51771802 -0.41371301 3.1376801 15318568
0.51699799 -0.413614 3.13695 15318567
0.52440101 -0.40916201 3.1314399 7421953
0.52904201 -0.41009 3.12924 9921815
-0.308961 -0.455367 2.9567101 9832986
-0.312635 -0.45507401 2.9526999 10226973
-0.30355999 -0.45195001 2.9545801 9241621
-0.29703999 -0.45089099 2.95172 7930641
-0.26694801 -0.445961 2.94294 10162465
-0.218465 -0.44823399 2.9751599 3475723
-0.193543 -0.44685999 2.96876 3311699
-0.19118799 -0.44355601 2.9695301 2458697
-0.19156501 -0.443528 2.9690101 2590027
-0.17106099 -0.44279 2.96156 2653512
0.35851899 -0.43373099 3.1856999 13411343
0.36010501 -0.430711 3.18278 13213708
0.365596 -0.42827901 3.17992 13147659
0.36805299 -0.42667201 3.17221 13016076
0.36871701 -0.42908001 3.16694 11963663
0.38056701 -0.424712 3.15482 8938509
0.391868 -0.42212299 3.1442399 7097357
0.47331601 -0.41662601 3.16435 13015836
0.47742099 -0.41752499 3.16097 15582003
0.51457101 -0.40953499 3.1372399 15187233
0.51186001 -0.407841 3.1367199 14989338
0.524575 -0.409033 3.1317101 7355905
0.52691698 -0.40565601 3.1294 9592593
-0.29891801 -0.446982 2.9500501 9308184
-0.29182401 -0.44720501 2.9536901 7930642
-0.285936 -0.44522101 2.9493699 7012876
-0.270372 -0.44127601 2.9364901 8718356
-0.26273599 -0.44256699 2.9426401 10162721
-0.195629 -0.442846 2.9665599 2590283
-0.19247 -0.440669 2.96698 2195782
-0.116115 -0.429131 2.9391699 8589337
-0.075301602 -0.42017001 2.9082699 10818597
-0.059005301 -0.41135401 2.86571 11280175
0.37 -0.42440999 3.1684 12556046
0.371887 -0.42214999 3.16447 11898382
0.37392101 -0.419429 3.1605201 10911499
0.376614 -0.42154801 3.15763 8871684
0.38006401 -0.420964 3.14924 9004039
0.38913301 -0.41806099 3.1466601 8872711
0.389983 -0.414855 3.14258 8806663
0.40484899 -0.41406801 3.1310599 9530382
0.41071901 -0.410115 3.1259501 12819480
0.50869203 -0.403714 3.13622 15384612
0.51335001 -0.40373999 3.1342599 15450414
0.51810598 -0.40449399 3.1328399 11436306
0.51764703 -0.40368 3.1326799 11436306
0.52256298 -0.40451199 3.1312201 7486979
0.52214497 -0.40371099 3.1312001 7552772
0.52503997 -0.40069401 3.12936 10184468
0.52855402 -0.401923 3.12658 14330652
-0.311937 -0.44617599 2.9540401 10490658
-0.28909799 -0.44320101 2.95279 8324115
-0.28259701 -0.44139999 2.94993 7143947
-0.270224 -0.438131 2.9399099 7143432
-0.26665899 -0.438425 2.93784 8456212
-0.261305 -0.439042 2.9410901 9900575
-0.089392699 -0.417797 2.918 8522261
0.364494 -0.42199099 3.1721001 13147660
0.36737901 -0.417721 3.1670499 12818955
0.37245899 -0.41786599 3.1620901 12490512
0.376001 -0.41676399 3.1565101 9990152
0.37812901 -0.414296 3.1528699 9595398
0.38091701 -0.416666 3.15154 8871943
0.38272899 -0.41359201 3.1456399 8937736
0.38717499 -0.41343901 3.14621 8937991
0.38941601 -0.41045299 3.14359 9003781
0.39099601 -0.41170999 3.1384001 9069320
0.40990999 -0.40660301 3.12712 13345040
0.41254801 -0.405139 3.11922 13608208
0.50637901 -0.39965299 3.1345301 15647789
0.51065499 -0.39960501 3.1331 15647794
0.51525998 -0.39960101 3.13239 11896598
0.520895 -0.39916101 3.13118 7684102
0.524028 -0.395888 3.1294799 11829530
0.527219 -0.397439 3.1266401 14528280
-0.30165601 -0.443102 2.9542501 10358558
-0.28859499 -0.43943501 2.9535201 9110805
-0.28825301 -0.44138199 2.9567101 8782612
-0.28403699 -0.439412 2.95437 8324114
-0.280936 -0.43876499 2.9509101 7406348
-0.28244799 -0.43789801 2.9519899 8127249
-0.28001001 -0.43744001 2.9493501 7406349
-0.275056 -0.43737999 2.94438 6619144
-0.267407 -0.43494499 2.9389 7208969
-0.26014 -0.435846 2.94436 9244443
-0.184082 -0.4316 2.96486 1800766
-0.18488701 -0.43252599 2.96281 1866815
-0.180264 -0.431696 2.9650199 1735230
-0.105345 -0.417835 2.91945 8324373
-0.087758899 -0.414206 2.9189701 10491429
-0.049872398 -0.40473899 2.86953 7605273
0.362362 -0.415434 3.16856 13016333
0.37032801 -0.41530401 3.1647401 12621835
0.37260899 -0.41304401 3.1617701 12818958
0.37450299 -0.41053301 3.15854 12884750
0.376454 -0.41295001 3.1547101 11569167
0.37865999 -0.41043001 3.15118 11437325
0.38014799 -0.41171899 3.1498001 9661190
0.38195699 -0.40891901 3.1459 10187272
0.38519001 -0.40735301 3.1421199 10055944
0.390596 -0.40561801 3.14024 10977035
0.41359901 -0.40165901 3.11747 13410829
0.50780398 -0.39548701 3.13241 15845446
0.51222599 -0.39551601 3.1313801 12686108
0.51812899 -0.39512199 3.1308601 7092740
0.52189702 -0.39192101 3.1303301 10579223
0.52673799 -0.392959 3.12714 14791444
-0.28124499 -0.43543801 2.95362 8520466
-0.267836 -0.43210301 2.94326 6619144
-0.26439399 -0.432019 2.9414599 6946825
-0.25771099 -0.432697 2.9452701 8785177
-0.25591999 -0.43378699 2.9472799 9704738
-0.13800099 -0.41936299 2.9459801 1403187
-0.118466 -0.41500899 2.9284301 8916249
-0.102898 -0.41220301 2.9113801 7669778
-0.098567002 -0.41173899 2.9127901 9442081
-0.091499902 -0.41263399 2.9197099 10294564
-0.091499902 -0.41263399 2.9197099 10229028
-0.068124197 -0.40087399 2.8646801 10955062
-0.055849802 -0.39884999 2.8735099 7080983
-0.048161101 -0.40118599 2.8738101 6950425
0.35224801 -0.41530001 3.18978 13016844
0.36284801 -0.41280699 3.1738601 13082125
0.363419 -0.41061601 3.1686201 12753419
0.37057501 -0.410377 3.16382 12818956
0.36785299 -0.40842 3.1667199 12621831
0.372197 -0.408003 3.16082 12884749
0.374432 -0.40560001 3.1578801 12950540
0.376524 -0.40815601 3.15519 12884751
0.378416 -0.405579 3.15101 12950542
0.382265 -0.40503201 3.1443701 12489996
0.385315 -0.402924 3.14221 12885261
0.388964 -0.404295 3.13851 11964174
0.39046499 -0.400994 3.1359899 12885004
0.393608 -0.403209 3.1354899 12227086
0.410386 -0.398191 3.1221399 13213707
0.466088 -0.388796 3.10151 13607954
0.50780499 -0.391193 3.13027 14397233
0.51361698 -0.391574 3.1291699 9132038
0.51587099 -0.38716 3.12883 12224792
0.52817899 -0.38866299 3.12714 15120916
0.52332199 -0.387656 3.12765 14594332
-0.28378701 -0.430282 2.9493699 9898779
-0.281194 -0.430713 2.94642 9242392
-0.275783 -0.430774 2.94804 8258579
-0.25481701 -0.42999601 2.94631 8719641
-0.18755101 -0.424651 2.9645801 1535799
-0.17602099 -0.42337599 2.9716001 1469750
-0.110859 -0.40927801 2.9218299 7996430
-0.100984 -0.40871301 2.91313 9967142
-0.075312503 -0.39710301 2.8703301 10953778
-0.053020101 -0.39545101 2.8733101 6753814
-0.045958299 -0.39850399 2.8777299 6819351
-0.0403031 -0.396615 2.87995 6557205
0.347904 -0.41175199 3.18906 12950541
0.36510199 -0.40852499 3.17366 12687622
0.36473599 -0.40373001 3.1668 12753672
0.37611899 -0.40314701 3.1537199 12950540
0.37631801 -0.40309101 3.15346 12950540
0.37813699 -0.400695 3.1505499 12950796
0.383174 -0.398105 3.1433599 12950540
0.38638601 -0.39953399 3.1389501 12884749
0.391065 -0.39704901 3.13732 12753160
0.403449 -0.39635101 3.13936 13016329
0.403449 -0.39635101 3.13936 13016329
0.412294 -0.393572 3.11832 12950535
0.46419501 -0.38471001 3.0984199 13015821
0.52689999 -0.380523 3.1222501 12686858
-0.28258401 -0.42717001 2.94695 9964314
-0.265268 -0.42519599 2.95049 7734288
-0.26081899 -0.42521799 2.9505999 6881545
-0.25570101 -0.42677301 2.9488001 7209482
-0.253849 -0.423675 2.9512 7012616
-0.250698 -0.42373499 2.9499199 7997714
-0.22698601 -0.42373201 2.9576001 8002592
-0.180022 -0.42134199 2.9719601 1337651
-0.115745 -0.406086 2.9260399 8784662
-0.112812 -0.40590599 2.9228499 7668234
-0.108544 -0.405848 2.9208801 7669005
-0.107898 -0.40522599 2.92542 7996686
-0.101759 -0.40255299 2.91429 10557480
-0.099315703 -0.40515 2.9135001 10689066
-0.069816701 -0.39412099 2.8715401 7343128
-0.031869698 -0.39286101 2.8899701 6557461
-0.0289628 -0.39368901 2.8892701 6557461
0.344946 -0.40805301 3.2018299 12228367
0.34898201 -0.40663999 3.2023201 11834647
0.348928 -0.40873599 3.1944001 12622351
0.35573101 -0.40685299 3.19121 12688649
0.36007801 -0.40653601 3.18644 12754184
0.361177 -0.40271801 3.1711299 12819464
0.36124 -0.39819199 3.1571701 13016587
0.365944 -0.39794001 3.1538301 13016332
0.47680601 -0.37954301 3.10409 12752403
0.48309401 -0.37891999 3.1026101 10580490
0.486974 -0.37878799 3.1008799 13278994
0.487169 -0.37890899 3.10114 13279250
0.491036 -0.37624899 3.09882 13081867
-0.28429699 -0.42371401 2.94805 10358556
-0.26847699 -0.42052001 2.9470699 9308440
-0.264862 -0.42145699 2.94821 8324114
-0.224893 -0.41988099 2.9580801 7085087
-0.186085 -0.419709 2.97035 1205809
-0.17809901 -0.41852701 2.97651 1139248
-0.162027 -0.41642699 2.96664 942381
-0.15469199 -0.41251099 2.9635701 875307
-0.110994 -0.40048501 2.9199901 10098982
-0.10707 -0.40234599 2.91995 10295848
-0.103482 -0.401232 2.91996 10755372
-0.074932903 -0.390481 2.8782499 6949652
-0.062753104 -0.391123 2.88218 6622742
-0.065196499 -0.391426 2.87305 6754587
-0.034460202 -0.39030001 2.8943901 6426133
-0.0288375 -0.39010099 2.89151 6426901
-0.0256135 -0.39037099 2.8935201 6100503
-0.0223858 -0.39061701 2.89556 5250585
0.345716 -0.40824801 3.2131701 11440153
0.34609699 -0.404953 3.2077 9994017
0.34450999 -0.40277201 3.1977301 9928482
0.349565 -0.403846 3.1952901 11703323
0.352882 -0.40239 3.1923599 11375132
0.36075801 -0.39933199 3.17958 12820235
0.363664 -0.39857501 3.17485 12819721
0.36545601 -0.39385599 3.1628301 12688403
0.37191001 -0.39542699 3.1514599 13016587
0.368954 -0.39263901 3.1531601 13016590
0.37440801 -0.393116 3.14764 13016332
0.37804601 -0.390964 3.1461301 12885003
0.38035199 -0.393231 3.14289 12753415
0.38738 -0.38800201 3.1396101 12687373
0.48106101 -0.37502 3.10342 9462278
0.48508701 -0.374901 3.10218 12555541
0.48901501 -0.374897 3.1001899 13147660
0.493229 -0.373469 3.0957999 12950795
0.49814299 -0.37344599 3.0938499 12227598
0.50579101 -0.37002 3.09921 10254606
-0.24492 -0.41499901 2.9430499 7866387
-0.22267599 -0.41605499 2.9587801 5773593
-0.22705001 -0.41603199 2.95731 8067872
-0.216134 -0.415674 2.95784 1714195
-0.197171 -0.41482601 2.9674499 940844
-0.17917401 -0.414978 2.97489 875307
-0.14065 -0.408162 2.9618499 741927
-0.11462 -0.40097499 2.9240501 8259344
-0.115148 -0.39710501 2.9198699 10493227
-0.111943 -0.39867699 2.9144499 10820911
-0.101317 -0.39876199 2.9223499 11018030
-0.036096498 -0.38679299 2.8961599 6360595
-0.0325897 -0.38681301 2.8943701 6230550
-0.026865199 -0.38674501 2.8940301 4726297
-0.023977 -0.38690099 2.8947201 3284755
0.34470299 -0.40192401 3.2131 3418898
0.34385401 -0.401739 3.2116101 3484433
0.34457201 -0.40023699 3.1910901 8350240
0.35387999 -0.397724 3.1842301 10060579
0.36057201 -0.39430299 3.17554 10783266
0.35046199 -0.392652 3.1695399 8154424
0.35175201 -0.39302799 3.1726 8088632
0.35987201 -0.39384201 3.1634099 12097811
0.356289 -0.39245301 3.1642799 10257449
0.36194301 -0.38958699 3.1605301 9797160
0.367181 -0.38956299 3.1593699 11506461
0.373613 -0.39087901 3.15276 12950797
0.375599 -0.38852501 3.1491201 12688655
0.384803 -0.38784099 3.14481 12556296
0.41877699 -0.38116401 3.12134 13016078
0.47490501 -0.370913 3.105 11964176
0.48344401 -0.371106 3.10357 12094743
0.47899401 -0.37087199 3.10393 9660164
0.479215 -0.37098399 3.1038699 9594372
0.48713499 -0.371077 3.10132 12950796
0.49546501 -0.36961401 3.09466 12622350
-0.34193099 -0.417018 2.9251101 7344664
-0.31834701 -0.41413301 2.9221499 10557219
-0.26759201 -0.41404301 2.9531701 10424350
-0.247227 -0.411154 2.94326 6881287
-0.242835 -0.411064 2.9439001 7472399
-0.227661 -0.411755 2.9542201 7740189
-0.222858 -0.41179001 2.9555099 5512728
-0.21832 -0.41184399 2.9572501 2762774
-0.160183 -0.40869001 2.9679699 545830
-0.118184 -0.39423999 2.91939 11018032
-0.119946 -0.39713201 2.9214499 9441310
-0.115802 -0.39284301 2.91606 11083312
-0.113799 -0.39594999 2.9154899 10952240
-0.046460301 -0.3854 2.8998401 6295059
-0.042854901 -0.385921 2.8971 6360852
-0.036970001 -0.38337299 2.8968401 5968662
-0.0337619 -0.38188601 2.895 4332566
-0.0307009 -0.38212499 2.89625 2694160
0.34919101 -0.39306799 3.18259 6840657
0.344549 -0.388203 3.16942 6512729
0.34926599 -0.38866001 3.1672699 6775125
0.35667601 -0.38960099 3.1614799 8285744
0.359045 -0.385382 3.1589799 7959130
0.36937001 -0.38741001 3.15575 10848800
0.36664301 -0.384978 3.1583099 3615760
0.37144899 -0.38548699 3.1515701 10257441
0.41572899 -0.372958 3.11868 12556300
0.41160801 -0.37700501 3.11923 12885004
0.41580001 -0.37301701 3.11919 12556557
0.42071301 -0.37545201 3.1168301 12818955
0.42140499 -0.37341499 3.1213 12424455
0.477283 -0.36723301 3.10548 9793031
0.48135501 -0.36728999 3.1045401 11107858
0.48142099 -0.36722001 3.10448 11173906
0.48531401 -0.367284 3.1026499 12884750
0.48626399 -0.36337399 3.1006999 12622091
-0.315887 -0.411365 2.9237199 10623010
-0.31113601 -0.41250601 2.92292 10622497
-0.24091899 -0.40719 2.9451101 7209738
-0.229828 -0.407552 2.9505999 7673881
-0.22081 -0.40794399 2.9559801 4202517
-0.225474 -0.407877 2.9543099 7019034
-0.21686301 -0.40788999 2.9567299 1713937
-0.121485 -0.39339599 2.9216199 9381163
-0.120403 -0.390306 2.918 11018032
-0.043179501 -0.37988201 2.9010401 5771796
-0.036792502 -0.37953499 2.8989301 3677205
-0.0320918 -0.378521 2.8978601 1384206
0.340334 -0.38385499 3.16763 6644317
0.34430701 -0.38422099 3.16451 6644573
0.347785 -0.38452899 3.1607399 6513242
0.35300899 -0.385149 3.1617501 6710359
0.36651099 -0.38217199 3.1501701 4009999
0.39741501 -0.373676 3.1305699 8219163
0.41916499 -0.37046501 3.11799 12161806
0.48168299 -0.35969499 3.1052301 11964949
0.479361 -0.363493 3.10569 9332236
0.48337099 -0.363489 3.1038799 12359184
-0.33149701 -0.41103399 2.93786 7212823
-0.308507 -0.40846199 2.9245999 10556703
-0.310671 -0.40810701 2.9209099 10491424
-0.238783 -0.40336299 2.9467101 7078406
-0.234475 -0.40324101 2.9465101 7671314
-0.229453 -0.403422 2.94908 7214614
-0.21891899 -0.40406799 2.95614 2892820
-0.159307 -0.39899099 2.9626801 348451
-0.140374 -0.39650699 2.9632699 1006635
-0.123085 -0.389642 2.9216499 9187634
-0.088604502 -0.38150701 2.8878901 6229523
-0.047144201 -0.378142 2.90767 5706260
-0.046171799 -0.37834901 2.90763 5706517
-0.041444398 -0.375983 2.9047999 2958102
0.327692 -0.38751099 3.2067599 1644304
0.334571 -0.38318199 3.16714 6512989
0.34139299 -0.38001701 3.16435 7039331
0.34418201 -0.380256 3.15973 6381659
0.48005101 -0.355903 3.1066201 11175953
-0.35550299 -0.411722 2.9416499 7148061
-0.31088501 -0.404883 2.9243 9770270
-0.236321 -0.399441 2.9456 7407370
-0.223369 -0.39983901 2.95172 5250583
-0.203188 -0.398552 2.96298 411936
-0.044137102 -0.37586799 2.9044099 4071448
-0.039723299 -0.372751 2.9068501 993813
0.32452399 -0.38469899 3.2112701 1579025
0.32782301 -0.384289 3.20191 4670782
0.327705 -0.380983 3.1965599 6447449
0.33153799 -0.378378 3.1663001 7697518
0.33861101 -0.375779 3.16414 8486778
0.34221101 -0.37567499 3.16066 6710368
0.48374 -0.354175 3.1017001 11899400
0.48237601 -0.35208899 3.1061299 11571211
0.473153 -0.35271001 3.0957999 10715920
-0.24382301 -0.39652601 2.9437301 10426403
-0.225536 -0.39574701 2.95033 6428951
-0.19829801 -0.39657599 2.9630899 1469496
-0.20311999 -0.393812 2.95818 1997635
-0.192169 -0.39346299 2.9642601 1803590
-0.163784 -0.39187601 2.9619501 1738051
-0.100244 -0.377307 2.9029801 5966864
-0.0532711 -0.37007001 2.90663 3223324
-0.0454497 -0.372545 2.90713 2106643
-0.0468463 -0.36917999 2.9079399 993555
-0.043026399 -0.36916199 2.90611 666645
0.32219201 -0.380009 3.21052 2039575
0.32474801 -0.37881699 3.20087 6184279
0.32838401 -0.37644801 3.17184 6512987
0.32802799 -0.37293601 3.1653199 6315606
0.33204901 -0.37425399 3.1624 7631723
0.34007201 -0.371757 3.1614499 7894898
0.34243599 -0.369021 3.1566401 6381659
0.344064 -0.37169999 3.1584899 6250074
0.36375999 -0.367562 3.1440101 5328972
0.37320101 -0.36350101 3.1442399 1447445
0.37362701 -0.36354101 3.1437099 1447444
0.37131599 -0.36740199 3.1429901 1513238
0.37458399 -0.36315799 3.1396201 921101
0.417878 -0.35535699 3.1188099 1381395
0.47207099 -0.34917501 3.09513 9730584
0.49138001 -0.345478 3.0975699 9928220
-0.28695199 -0.39665401 2.92782 10556960
-0.226493 -0.39371499 2.9523799 7347740
-0.15736701 -0.388257 2.96227 1801793
-0.10853 -0.371914 2.90978 5639439
0.32269499 -0.37857601 3.21821 2039833
0.321399 -0.375164 3.21172 2565919
0.322869 -0.376699 3.2061901 4934468
0.32570899 -0.37559101 3.19663 6315865
0.33010101 -0.36966401 3.1630399 6118228
0.33553299 -0.36950701 3.16028 6973795
0.340368 -0.367048 3.1587 7236967
0.34272501 -0.36431599 3.1538799 6447453
0.356058 -0.36353701 3.14467 6776417
0.36163601 -0.36370301 3.14465 7303018
0.36691201 -0.359694 3.1439099 6118489
0.369185 -0.363547 3.1435201 1710616
0.36498201 -0.36357599 3.1433101 4473920
0.37063 -0.35959899 3.14399 3486771
0.37481901 -0.35957301 3.1445 1250066
0.379302 -0.35957301 3.1452501 921102
0.43593201 -0.34757701 3.1126001 592139
0.47091499 -0.341631 3.09197 2630157
0.477043 -0.34187201 3.0941 3879443
0.48885801 -0.340404 3.0984499 3945239
0.49312899 -0.34064701 3.0946701 6509343
0.497931 -0.34067601 3.0954199 7166751
-0.25165299 -0.389229 2.9429801 10688803
-0.22496399 -0.38967201 2.94872 7808033
-0.128538 -0.37475401 2.92624 1906699
0.320315 -0.37303001 3.2179699 2236957
0.32037899 -0.37052 3.20544 6052694
0.32232299 -0.37307 3.20016 6447451
0.329707 -0.36544499 3.15819 6118228
0.33849901 -0.361487 3.1528101 6776160
0.36209401 -0.355977 3.1449299 6973797
0.365426 -0.35586199 3.1443901 6776419
0.36920199 -0.35577801 3.14466 5986904
0.36277601 -0.359725 3.14341 7236969
0.37244299 -0.355645 3.1431799 2697255
0.378059 -0.355373 3.1423299 1052430
0.46649501 -0.337787 3.0959201 1249810
0.480946 -0.33646601 3.0888801 1709839
0.49539399 -0.337163 3.0928199 4339998
0.500386 -0.33678901 3.0945699 4471583
0.52112699 -0.335664 3.1057 7365433
-0.29374999 -0.38855201 2.9354899 6360847
-0.28430399 -0.38725799 2.9331501 6754319
-0.288818 -0.388749 2.9305899 6490640
-0.264575 -0.38632399 2.9363 9771296
-0.26507601 -0.38575101 2.9352601 9508894
-0.25028601 -0.38547999 2.94505 10361122
-0.114486 -0.36751899 2.9088299 5508623
0.31572801 -0.36781499 3.2082701 3092265
0.330396 -0.35784 3.15325 6249556
0.33525801 -0.35686499 3.1517 6315351
0.33772999 -0.356076 3.1475301 6776160
0.351592 -0.35481501 3.1398499 6710625
0.37188801 -0.35191 3.1452 3618612
0.365529 -0.351713 3.14183 6381404
0.41631001 -0.340729 3.1105499 855053
0.46082801 -0.336741 3.09671 1184274
0.47110599 -0.334519 3.0958099 1184274
0.47909799 -0.33439499 3.0935299 1184274
0.48173401 -0.33240801 3.0926001 1118738
0.49449199 -0.33257499 3.08955 1578511
0.504547 -0.329714 3.09535 2104857
0.51496297 -0.332973 3.1030099 3222560
-0.26471499 -0.382321 2.93909 7015953
0.31513301 -0.36469999 3.2177401 1973785
0.31726399 -0.36243999 3.2105999 4802883
0.31532401 -0.36232299 3.20753 4737090
0.31830701 -0.36478901 3.20485 6381658
0.31814 -0.36533901 3.20614 6184279
0.36150599 -0.34765199 3.1399601 6118489
0.36778599 -0.34779099 3.14204 5197388
0.408923 -0.34096199 3.11255 1381397
0.41092399 -0.34054101 3.1087899 1249811
0.417386 -0.339421 3.1064401 657676
0.43768999 -0.33356401 3.09747 526345
0.436427 -0.33349901 3.09724 526089
0.44324201 -0.33343601 3.0948501 855310
0.446217 -0.333397 3.0941801 986896
0.44793701 -0.333325 3.0925701 1118481
0.47675699 -0.33083701 3.09551 1315861
0.47921801 -0.33035699 3.0968201 1315861
0.50182801 -0.32533401 3.09605 1447447
0.50175798 -0.32489201 3.09043 1776153
-0.345835 -0.391112 2.9579201 3100725
-0.31307399 -0.38622701 2.95453 6098452
-0.26979199 -0.381008 2.94154 6230545
-0.26076999 -0.38042799 2.9440999 6754065
-0.25187501 -0.37827799 2.9473 6622738
-0.25581601 -0.378205 2.9459701 6295313
-0.24393199 -0.38054299 2.9514201 8786971
0.31341299 -0.36015299 3.2169499 2171164
0.317442 -0.35727 3.2017801 6052694
0.31564 -0.35501599 3.1824501 4341557
0.32085401 -0.35077399 3.1577499 5262919
0.32403699 -0.34961501 3.1526899 5394249
0.41267499 -0.33212599 3.1072099 657932
0.43500099 -0.32972801 3.09848 526089
0.44202 -0.32967699 3.09638 789260
0.44687599 -0.32574299 3.09302 986896
0.44388601 -0.329613 3.0947599 921103
0.50060701 -0.32053301 3.09481 855053
-0.260263 -0.377105 2.9493001 5837073
-0.257759 -0.37477499 2.9463699 5706001
-0.24894001 -0.37470099 2.9460101 5902097
-0.210163 -0.37132499 2.94979 2123321
0.31099701 -0.35558599 3.21415 2105372
0.316039 -0.35651401 3.2103 5197643
0.315476 -0.35631701 3.2091899 5329229
0.31704101 -0.35363901 3.2051599 6250074
0.31715399 -0.35241199 3.20101 6118487
0.316443 -0.354451 3.19366 4999747
0.316917 -0.35189599 3.1879799 4341558
0.34103701 -0.343981 3.14694 4868164
0.345272 -0.34394401 3.14674 4934214
0.445988 -0.325827 3.0959301 986895
0.44553199 -0.32186899 3.09079 986896
0.448412 -0.32393599 3.09059 921103
0.488309 -0.32084501 3.0991399 1184531
0.49270001 -0.32066101 3.0979099 921103
0.49585801 -0.31839201 3.09554 986639
-0.21699999 -0.36735401 2.9479301 1982756
-0.22214501 -0.36712399 2.94469 1125140
-0.228211 -0.36661401 2.93907 1976598
-0.228174 -0.36662501 2.9391699 2176286
-0.212926 -0.367338 2.9488399 2055733
0.311575 -0.35057101 3.2144301 2237214
0.31534499 -0.35062999 3.2093501 5789779
0.317182 -0.34980899 3.19472 4670783
0.34268299 -0.33852801 3.14779 3749683
0.39824 -0.32706699 3.1078 1381654
0.44463199 -0.317985 3.0885 986896
0.44722301 -0.32006401 3.0883801 921103
0.510674 -0.31215 3.0843201 6250330
-0.247545 -0.368826 2.96611 4785928
-0.21242701 -0.36352301 2.95105 2121526
-0.121882 -0.35247001 2.94139 3819572
-0.123033 -0.35260499 2.94379 3230258
-0.116569 -0.35264099 2.9428999 4475448
0.3141 -0.348102 3.2127099 3157803
0.31539899 -0.34555799 3.20895 5921109
0.353484 -0.33034199 3.14382 6184281
0.52928901 -0.305213 3.09233 5395022
0.53422397 -0.30521199 3.0922101 7434091
-0.24825899 -0.36609399 2.9693301 4720904
-0.250305 -0.36831799 2.96663 4786184
-0.155037 -0.35218301 2.94275 1337395
-0.149395 -0.35120201 2.9449401 1271602
-0.14725301 -0.351944 2.9458699 1271602
-0.119885 -0.34884 2.9456501 4150331
-0.118894 -0.34870401 2.94295 4806465
-0.075342797 -0.34928501 2.9763701 6120269
-0.071481898 -0.349251 2.9741199 6117960
0.31619599 -0.34237701 3.20239 6250330
0.32035601 -0.33610201 3.1640699 5328199
0.34940001 -0.32884401 3.14516 6513246
0.484604 -0.309616 3.10462 1118738
0.49825001 -0.302674 3.0885201 7960693
0.49969399 -0.30408499 3.0866201 7960692
0.50698203 -0.30129001 3.0853601 5921110
0.52196097 -0.301312 3.0912399 5395022
0.52684098 -0.30131301 3.09092 6776675
0.53174299 -0.30130601 3.0906301 8224121
0.53636199 -0.30125499 3.0899899 8684415
-0.26363599 -0.36487401 2.96562 4655111
-0.260019 -0.365325 2.96331 4655369
-0.25235999 -0.36422601 2.9709499 4589832
-0.193745 -0.35622501 2.9554901 1271859
-0.17809901 -0.35020199 2.93943 1271860
-0.163914 -0.34972101 2.94135 1140786
-0.15882701 -0.34917301 2.94138 1271602
-0.156937 -0.35068399 2.94207 1271603
-0.15572999 -0.348241 2.9427099 1205809
-0.153929 -0.349832 2.94344 1271602
-0.15368401 -0.349635 2.9431701 1205809
-0.149333 -0.34829 2.94649 1205552
-0.074592702 -0.345011 2.9758401 6579795
0.31612 -0.33752799 3.2049799 6250071
0.31937501 -0.33726501 3.1970401 5592142
0.31670499 -0.33421701 3.2004499 5657934
0.32430601 -0.32892999 3.1696501 5065283
0.39784801 -0.315649 3.11099 1381653
0.43264899 -0.30788499 3.11148 592395
0.48377901 -0.30458501 3.1033001 1118737
0.52297801 -0.29719001 3.0880401 7697777
0.53334701 -0.29720801 3.08654 8618879
-0.27068001 -0.363116 2.97281 5455922
-0.26764801 -0.363235 2.96788 4072727
-0.263482 -0.36121601 2.9691701 4794655
-0.216175 -0.35705101 2.9663999 732949
-0.17875899 -0.345873 2.9382 1140273
-0.160666 -0.34543699 2.9442201 1140017
-0.16601101 -0.34598801 2.9406199 1140273
-0.15471099 -0.345815 2.94345 1205552
-0.146382 -0.34538001 2.94556 1139760
-0.0769739 -0.34145799 2.9780099 6646871
0.318279 -0.331155 3.1965201 4276280
0.318385 -0.32786101 3.1909699 4144693
0.31935799 -0.32763201 3.17327 4539194
0.33620799 -0.32263499 3.15943 4209975
0.34646001 -0.31956699 3.1493499 5592143
0.43145999 -0.30605799 3.1026499 591882
0.513035 -0.29351699 3.0889101 5855572
0.51598197 -0.293304 3.0863199 7434348
0.52049398 -0.293264 3.08619 8487293
-0.285999 -0.37204701 3.0471499 4215870
-0.28424501 -0.37087199 3.0427699 6186322
-0.25220099 -0.359871 2.9842899 4995632
-0.15961599 -0.34310201 2.94507 1008688
-0.15741099 -0.341095 2.94786 942638
-0.153781 -0.343409 2.9444399 1074222
-0.072087303 -0.33722001 2.9807 5590080
0.31439599 -0.327672 3.2100501 1644306
0.32286 -0.32093999 3.1758699 4013106
0.397524 -0.30829501 3.1217899 1381397
0.50044298 -0.28992999 3.08724 5855316
-0.28443801 -0.36824501 3.04741 5792847
-0.28199399 -0.36724699 3.0434599 5988685
-0.076008402 -0.33531901 2.9826901 6581336
-0.071988396 -0.33331099 2.9830899 6512978
0.31917301 -0.32168701 3.18433 4210484
0.36124 -0.30910799 3.15254 658187
0.50711298 -0.28541499 3.08882 4605249
-0.31164199 -0.367295 3.05826 1268271
-0.282424 -0.364544 3.04743 6252370
-0.25993899 -0.353809 3.00263 4006943
-0.247133 -0.35483399 3.00651 2953227
-0.24329001 -0.35337201 2.99738 5065787
-0.23953 -0.35111901 2.99775 4935997
-0.075964503 -0.33110899 2.9850299 6581337
0.32006001 -0.319965 3.20507 1182985
0.321049 -0.318584 3.19363 4341813
0.32665399 -0.313988 3.19292 4208677
0.32546601 -0.31459001 3.1851799 4735797
0.33638901 -0.31291899 3.1821599 4867383
0.35643199 -0.30899301 3.1530299 592137
0.35847899 -0.30520299 3.1523399 723724
0.405718 -0.295066 3.1212699 657929
0.42701399 -0.291255 3.1132801 526601
0.47876799 -0.28445899 3.10694 1118482
0.48112801 -0.28762001 3.1050501 986894
0.48729101 -0.28267601 3.10274 5066058
0.51302701 -0.28063899 3.0908 4802371
0.510813 -0.28184199 3.09061 4407870
0.51582003 -0.27963701 3.0840399 5460557
-0.32036501 -0.36367199 3.0565801 1596207
-0.25983301 -0.34998 3.0057099 2959395
-0.25744501 -0.35174 3.00214 2034953
-0.241005 -0.35008901 3.0023701 4209196
-0.239517 -0.347505 3.00033 4802617
-0.231289 -0.34882501 3.0030501 4344632
-0.22380801 -0.34708101 3.0017099 2569507
-0.0735498 -0.32714701 2.9876499 6054738
-0.065818399 -0.32774401 2.9871399 6511439
-0.0619024 -0.327775 2.98841 5259319
-0.055829398 -0.325508 2.98926 6971734
0.32190001 -0.316569 3.21117 3483918
0.32725999 -0.31177801 3.2109499 5719565
0.32536101 -0.3152 3.2047801 2826764
0.32699701 -0.31036201 3.19962 4601354
0.33492199 -0.310408 3.1902699 4339999
0.33860001 -0.30819201 3.1889901 3747342
0.39526001 -0.292804 3.12674 1381654
0.424914 -0.28737399 3.11358 526600
0.48027301 -0.280718 3.10621 921102
0.50897199 -0.27846199 3.09232 3947319
0.51733601 -0.27703801 3.0914299 5394765
0.52560502 -0.27368 3.0876801 5526350
-0.25732401 -0.346571 3.0044601 592647
-0.24003901 -0.34427699 3.0035601 4538162
-0.232317 -0.34447801 3.00157 4542011
-0.224865 -0.343914 3.0049 3095593
-0.0751324 -0.323946 2.9932899 4739138
-0.070060298 -0.32426399 2.9923899 6448984
-0.064589299 -0.32418901 2.99055 7303522
-0.050629102 -0.32123399 2.9925499 4475198
0.33279401 -0.307037 3.2109499 6573316
0.33229101 -0.306068 3.1988499 6047494
0.33590999 -0.30744001 3.1993501 5521929
0.336876 -0.30596101 3.1929801 5456394
0.336124 -0.30546501 3.19261 5587979
0.33868501 -0.30358899 3.1892099 6048266
0.34094399 -0.30640599 3.18489 4009740
0.349749 -0.30083001 3.1730001 5062162
0.394483 -0.28829199 3.1247301 1447187
0.39962399 -0.290306 3.12518 1052688
0.483859 -0.27583799 3.1071401 723722
0.51662999 -0.27303699 3.09466 4933957
-0.31590801 -0.35610601 3.05304 738593
-0.311416 -0.35609901 3.0543499 672801
-0.30441701 -0.35627201 3.05551 475166
-0.27334401 -0.34682199 3.0167 4865075
-0.242819 -0.34348899 3.00769 2625291
-0.241668 -0.341391 3.0057499 3944487
-0.236729 -0.341041 3.00526 5264451
-0.225435 -0.340922 3.0100701 3753010
-0.222165 -0.34067401 3.0069301 2372386
-0.154329 -0.320802 2.94207 1006380
-0.149827 -0.32071501 2.9414001 1006379
-0.13648599 -0.32202899 2.94993 1006380
-0.068398803 -0.32055801 2.9953499 6120790
-0.058210202 -0.317599 2.9905 1384465
-0.053872898 -0.31734699 2.9883101 1121551
0.32944801 -0.302039 3.19857 6967557
0.33785799 -0.30180901 3.1984601 6836484
0.336492 -0.30090001 3.19205 6836228
0.33805001 -0.29894501 3.18731 7033604
0.34373301 -0.29881299 3.18554 6967813
0.354509 -0.296947 3.16662 6376976
0.405191 -0.283207 3.1272099 789001
0.41472501 -0.28275001 3.12696 460549
0.40988299 -0.28525099 3.12552 526344
0.46688399 -0.27587399 3.1043701 1316117
0.47480199 -0.27198499 3.1055601 1118481
0.48109999 -0.272113 3.1078401 657930
0.485295 -0.272066 3.10726 592137
0.51696599 -0.269113 3.0984399 4276027
0.52092302 -0.26656401 3.0987301 4999751
0.54810101 -0.26436299 3.1046801 6512214
-0.31088799 -0.35207 3.05584 737567
-0.268408 -0.34360701 3.01442 3346963
-0.25209799 -0.34006301 3.01582 1443846
-0.241604 -0.33781499 3.00862 4208172
-0.227567 -0.33843899 3.01197 4410169
-0.15975299 -0.318472 2.9500699 940587
-0.155605 -0.31849501 2.9419 940588
-0.147377 -0.317738 2.9446299 874795
-0.141261 -0.31965899 2.94682 940587
0.33609101 -0.296262 3.19052 7296516
0.33829799 -0.29642501 3.1926999 7230469
0.33930099 -0.29381499 3.17875 7493636
0.342585 -0.29507399 3.1745601 7362310
0.342549 -0.29176 3.16976 7559171
0.40986601 -0.28117701 3.1289899 657414
0.41184399 -0.27871999 3.128 1577478
0.46931401 -0.267914 3.1094 1381653
0.47154799 -0.267551 3.1054201 1184276
0.47617599 -0.26748699 3.1053801 789261
0.48320299 -0.26616099 3.1043301 657675
0.49594301 -0.26625201 3.0931499 5460043
-0.25571299 -0.336584 3.0218201 3674130
-0.24536701 -0.33546999 3.0102401 3283991
-0.23496 -0.33441499 3.00897 4541244
-0.229682 -0.334672 3.0118599 3488812
-0.234909 -0.33441499 3.0087399 4541244
-0.22516701 -0.333689 3.0129099 2107419
-0.17651699 -0.31640801 2.94819 874792
-0.15637299 -0.316315 2.9449301 874539
-0.14827999 -0.31632701 2.9470601 809259
-0.145018 -0.31433299 2.94734 677673
-0.143994 -0.31584799 2.9451301 743466
-0.063460797 -0.306523 2.97048 1658922
-0.059186101 -0.30651399 2.9690001 1593642
0.335747 -0.29023799 3.18432 7690756
0.338736 -0.28935799 3.18295 7756293
0.35012299 -0.286686 3.1747999 8084741
0.39745 -0.277298 3.1294501 11243556
0.41153699 -0.27511501 3.13164 7099663
0.51560003 -0.26081201 3.10551 4407357
-0.256713 -0.33407301 3.0234699 2755082
-0.244211 -0.33210799 3.01143 5064766
-0.241464 -0.332057 3.0104599 5461577
-0.229491 -0.329519 3.0076799 2238752
-0.165255 -0.31260499 2.9486699 611623
-0.162314 -0.312475 2.9456 611624
-0.156508 -0.310698 2.9463401 480294
-0.076219998 -0.30766699 2.9883499 1726255
-0.0421612 -0.29820001 2.9559901 1266985
-0.0318649 -0.29599801 2.94906 1267498
0.33472401 -0.28588301 3.18049 7887620
0.34924799 -0.28217399 3.1740899 8281861
0.411392 -0.27228099 3.13434 10057225
0.49004301 -0.25752401 3.11274 1052431
0.51835799 -0.256531 3.1055801 4802370
0.52474803 -0.252119 3.1033299 6183764
-0.245616 -0.32824799 3.01139 5725006
-0.241102 -0.32825199 3.01245 5330762
-0.23858 -0.32573399 3.0157199 4475713
-0.197274 -0.31536001 2.95363 743207
-0.18817499 -0.31265599 2.95103 545830
-0.17335901 -0.31004101 2.9505 1988139
-0.062296599 -0.298944 2.9619401 1202217
-0.113941 -0.29118699 2.8620801 1398826
0.33564001 -0.27796301 3.16711 8150275
0.35179001 -0.279728 3.1712999 9465352
0.392497 -0.26995099 3.1326699 13608460
0.39647701 -0.26985401 3.13149 12753160
0.490329 -0.25370601 3.1184199 2498320
0.495502 -0.25470001 3.1146901 2696993
0.55223697 -0.25055999 3.13011 8749172
-0.33045 -0.33959001 3.05123 1919529
-0.292178 -0.33172801 3.0371599 1260321
-0.261693 -0.32682601 3.0316 4606271
-0.197887 -0.31144899 2.96365 414757
-0.191212 -0.30974501 2.9615901 348709
-0.18816 -0.30888399 2.9534299 348708
-0.164874 -0.30707601 2.96049 414246
-0.116404 -0.29072899 2.8699 1598000
-0.117274 -0.288831 2.8624001 1797432
-0.116423 -0.28615701 2.8587 2915142
-0.0231738 -0.289433 2.9405 2196033
-0.0181062 -0.28645301 2.94261 2131264
-0.022140199 -0.286053 2.9410999 1869119
0.32741699 -0.277363 3.1590099 8084740
0.353248 -0.275157 3.1711299 11438606
0.34807301 -0.275105 3.17098 9267974
0.356334 -0.27505299 3.1691 12819725
0.357299 -0.27128401 3.1689501 13214219
0.35772601 -0.27132699 3.1691 13279755
0.36186901 -0.274645 3.1682401 13279496
0.36186901 -0.274645 3.1682401 13279496
0.36186901 -0.274645 3.1682401 13279496
0.35828 -0.27109101 3.16307 13411339
0.39084601 -0.266231 3.1343801 13542924
0.39247799 -0.26348001 3.1343701 13608205
0.39509299 -0.266132 3.1336401 13147913
0.41710299 -0.25964001 3.13624 13805068
0.49751899 -0.251167 3.1240201 4207381
-0.296579 -0.32938099 3.0362899 1132068
-0.27407899 -0.32516399 3.03321 660494
-0.233771 -0.32021001 3.0111201 795410
-0.186845 -0.30653301 2.96211 349221
-0.036859799 -0.28399801 2.9314699 1737792
0.33345601 -0.273754 3.1677999 8216068
0.33345601 -0.273754 3.1677999 8216068
0.354866 -0.27142701 3.1718299 12688142
0.35616899 -0.26765499 3.17114 13213708
0.35627201 -0.26729599 3.1642399 13214219
0.35617399 -0.26731601 3.1639099 13214219
0.36064699 -0.26945499 3.16675 13345545
0.36064699 -0.26945499 3.16675 13345545
0.36064699 -0.26945499 3.16675 13411081
0.39015099 -0.25881901 3.13269 13608204
0.414505 -0.25974399 3.13873 13541647
0.415555 -0.25597301 3.1380501 13870861
0.42622101 -0.253088 3.1140101 13279755
0.430462 -0.253068 3.11307 11701256
0.43474999 -0.25305599 3.1122 10978063
0.458074 -0.25065199 3.1224699 8348946
0.498781 -0.247337 3.13046 6836758
-0.33290899 -0.33249199 3.0472 2180388
-0.30540001 -0.32668599 3.0307 1198375
-0.27581599 -0.32238001 3.03302 1520672
-0.238977 -0.313867 3.01019 1196066
-0.231327 -0.31073201 2.9963 802591
-0.197157 -0.30499101 2.9721999 676904
