# .PCD v0.7 - Point Cloud Data file format
VERSION 0.7
FIELDS x y z rgb
SIZE 4 4 4 4
TYPE F F F U
COUNT 1 1 1 1
WIDTH 1262
HEIGHT 1
VIEWPOINT 0 0 0 1 0 0 0
POINTS 1262
DATA ascii
1.28939 0.27614 5.4767499 14791440
1.29312 0.28036901 5.46878 14922763
1.30575 0.30317301 5.4272699 14265869
1.31248 0.30316299 5.4233398 12095500
1.3208899 0.30779299 5.42137 9530892
-0.68753397 0.24610899 5.5500898 9731668
-0.55242401 0.309995 5.4324198 9666130
-0.40622699 0.33312699 5.3835502 5719851
-0.38592201 0.348625 5.3478098 6575156
-0.385124 0.35582501 5.3379898 6640948
-0.218312 0.40056601 5.2509799 8942410
-0.210581 0.400011 5.2470102 9271376
-0.18293799 0.39440101 5.2630401 8811082
-0.19770101 0.405788 5.2385302 8942411
-0.166979 0.38729599 5.2702599 8679752
-0.142684 0.39379901 5.2642102 8219204
-0.131311 0.39194399 5.2581201 8350532
-0.072214901 0.367475 5.3052802 8876102
-0.065255098 0.36754099 5.3096299 7691832
-0.053492401 0.36938 5.30831 8678724
-0.049412001 0.371178 5.3049002 9139529
-0.0401491 0.37178001 5.2993898 9073736
-0.033952501 0.37250099 5.2997699 8613187
-0.028736399 0.37360701 5.3050399 8547652
-0.028571 0.37360299 5.3049302 8547652
1.02248 0.212551 5.6303701 7492869
1.02642 0.208378 5.6261001 7492868
1.03083 0.212126 5.62046 8281604
1.0387501 0.219211 5.6064301 12161542
1.0447 0.225997 5.5978899 12753417
1.14999 0.283149 5.4798398 12555783
1.15431 0.290409 5.4678502 12292619
1.16987 0.290216 5.4675298 9658630
1.18283 0.29485199 5.4625902 13344777
1.2596999 0.277569 5.4978099 13014030
1.2632999 0.271285 5.4977498 14132755
1.29662 0.31126601 5.4277101 14396939
1.30266 0.307188 5.4282999 14396942
1.3013999 0.31446701 5.4219298 12884750
1.30885 0.30987701 5.4247298 11766283
1.31555 0.30986401 5.4207201 9662218
1.31507 0.31399 5.4205899 9530635
1.3219399 0.311315 5.4170799 9465356
-0.54464602 0.309259 5.4365602 9402961
-0.40461001 0.333478 5.3965001 5720107
-0.39974701 0.33620101 5.3913698 5983021
-0.39340001 0.33632699 5.3848701 6114608
-0.178546 0.39497301 5.2653799 8745289
-0.13816901 0.39513299 5.26577 8153410
-0.13212 0.395969 5.2607698 8219203
-0.124236 0.395244 5.2635398 8350789
-0.124656 0.39896801 5.26683 8219203
-0.084511697 0.38541001 5.2944999 9008201
-0.063947998 0.37516901 5.3105502 6770991
-0.068794101 0.37390599 5.3076801 7889467
-0.056186002 0.37520799 5.3112102 7757626
-0.052236401 0.376984 5.3080101 8941639
-0.0462684 0.37688601 5.30375 9271114
-0.037522599 0.37879601 5.3011298 8679236
-0.0305657 0.37920001 5.30304 8481859
0.179839 0.29909301 5.4654398 8876359
1.01976 0.21672 5.6381202 7624199
1.02689 0.21642099 5.6266298 7887363
1.03175 0.220158 5.6217899 11044621
1.0351599 0.227257 5.6157799 11964423
1.03874 0.230647 5.6071801 12227336
1.04477 0.23482101 5.5997601 12359176
1.12672 0.282711 5.49685 12819207
1.12763 0.28570199 5.4864802 12884743
1.1443501 0.29671901 5.46912 12424712
1.15092 0.29091701 5.4763699 12687370
1.1518199 0.29722601 5.4714599 12227084
1.16535 0.296653 5.4702902 9198345
1.1744699 0.29669899 5.4710302 10448905
1.18196 0.29664001 5.4686499 13213193
1.18182 0.302766 5.4626598 13147656
1.18182 0.30274299 5.46071 13082120
1.2001801 0.31603599 5.4372301 10779911
1.27704 0.31666499 5.4295001 14066954
1.29223 0.31598201 5.4306302 14528010
1.2963001 0.31911501 5.4232998 13410833
1.30258 0.322456 5.4207802 10385419
1.31214 0.32044199 5.4228301 9465099
-0.67980701 0.27150401 5.5327001 9402447
-0.39722499 0.342585 5.3927398 6312242
-0.389608 0.34402999 5.3854799 6509363
-0.38622099 0.36137199 5.3533802 6969655
-0.38115901 0.36373001 5.34727 7824707
-0.181357 0.400722 5.26862 8679497
-0.18234999 0.40566301 5.2641501 8613704
-0.139136 0.40049401 5.2670002 8021826
-0.125319 0.40281001 5.2681098 8153154
-0.089350902 0.39131501 5.2909698 8942409
-0.076150998 0.37996101 5.3122902 8679236
-0.069624104 0.37975499 5.3113799 8481861
-0.059978999 0.38159701 5.31282 6442027
-0.052874099 0.38146999 5.3104801 8744774
-0.047021199 0.381376 5.3063302 9205321
-0.041919298 0.385259 5.3031301 9073736
-0.034154899 0.38522899 5.3021898 8547395
0.175285 0.30590701 5.4674802 8942149
1.02722 0.224769 5.62463 10781708
1.0382299 0.251021 5.5827699 12622088
1.0425299 0.24285901 5.5917902 12621831
1.04406 0.247237 5.5809798 12950792
1.14791 0.30370599 5.4741998 12227082
1.17006 0.30317301 5.4737501 9330184
1.1781501 0.30315 5.4718299 12884491
1.18195 0.31361201 5.4505301 12819207
1.18721 0.31609699 5.4448099 12556555
1.19397 0.31607601 5.4413199 11372038
1.21784 0.31974199 5.43466 10319879
1.27961 0.32462701 5.4349899 12094729
1.2999099 0.32732999 5.4274201 10122505
1.30925 0.327894 5.4274998 9333517
1.59492 0.27957299 5.5150199 9466395
-0.68201399 0.26994801 5.54918 9271117
-0.390432 0.35130101 5.3776498 6641205
-0.384433 0.368563 5.3487 8285256
-0.209317 0.416949 5.2505202 8876875
-0.184862 0.41128501 5.2660799 8482375
-0.074190803 0.38621199 5.3109899 8810567
-0.0639515 0.388026 5.3140898 6376236
-0.056359898 0.38799199 5.31356 7626554
-0.0456465 0.38786399 5.30584 9271114
-0.0380399 0.39163101 5.30586 8613443
-0.0302977 0.39161199 5.3050299 8416323
-0.0306191 0.39145201 5.3060398 8416323
0.179482 0.31247699 5.4706502 8613700
0.2228 0.29921401 5.4925599 8218428
0.23850299 0.296794 5.4965801 9863249
1.0226901 0.22623201 5.6416898 8084741
1.0270801 0.23285501 5.6226301 11833864
1.02859 0.237297 5.61236 12030728
1.02595 0.246264 5.6049199 11702023
1.03106 0.250301 5.5957198 12228104
1.03421 0.254931 5.5890598 12228105
1.03591 0.24674401 5.59444 12424967
1.04855 0.253719 5.5805302 12950792
1.0498101 0.26454499 5.5640302 12885513
1.05286 0.26968199 5.55762 12688136
1.08606 0.290016 5.5097699 13213704
1.13981 0.30869401 5.4823098 12293128
1.14406 0.310251 5.4748201 12095755
1.15277 0.311124 5.4752898 10582026
1.16418 0.310662 5.4746499 9725705
1.17416 0.309708 5.4748902 12687119
1.17974 0.30944899 5.4672298 13082121
1.18478 0.32285699 5.4481802 12491018
1.19057 0.322795 5.4433198 11306502
1.19774 0.32700899 5.4412599 10451719
1.20447 0.326983 5.4386601 10188807
1.29274 0.32697299 5.4319901 11437321
1.28538 0.33019799 5.4326401 10319368
1.30557 0.33434799 5.4285498 8412421
1.31397 0.33457801 5.4284501 8478469
1.3375601 0.326857 5.4340501 9334025
1.33771 0.32725999 5.43262 9334025
1.5869401 0.28712499 5.5195498 9399825
1.5907201 0.289511 5.5155802 9532195
1.60088 0.29177999 5.5125999 10653289
1.60508 0.29337001 5.50526 10456951
-0.67939198 0.27781299 5.5485501 9139532
-0.45043299 0.328327 5.4373002 6377779
-0.44145101 0.335132 5.4349599 6443317
-0.39486501 0.35000101 5.3964901 6640949
-0.255202 0.41003799 5.2769299 9600081
-0.21064299 0.42251199 5.2519398 8613961
-0.183254 0.41761601 5.2680502 8219205
-0.17442299 0.416989 5.2646799 7955777
-0.170394 0.41804001 5.2663999 7824449
-0.139838 0.41497201 5.2617202 7759170
-0.078627102 0.39253801 5.3098798 8678981
-0.0710866 0.392607 5.3133402 8152640
-0.059622001 0.39394999 5.31529 6507822
-0.052995101 0.39387301 5.3126402 8678981
-0.044055 0.39436701 5.30584 9139786
-0.046281699 0.393626 5.3077102 9205578
0.179359 0.31258401 5.4714999 8613700
0.23041201 0.30204001 5.4976902 9402702
0.23022801 0.30170301 5.4974499 9468239
1.01657 0.22955 5.6508298 7362312
1.01798 0.23649 5.6428099 9599005
1.0228601 0.243416 5.6283398 11571481
1.03025 0.25884899 5.5960798 11637272
1.0392801 0.25984401 5.5860801 12556555
1.0463099 0.26821199 5.5724502 12491019
1.04827 0.27320799 5.5644302 12294159
1.06771 0.28298801 5.54531 12622092
1.07469 0.28735599 5.53932 12687884
1.09443 0.29720101 5.5114999 13082377
1.13403 0.31309101 5.4810901 12293128
1.14013 0.315723 5.4784298 12030217
1.14578 0.317471 5.4728999 10977291
1.1685899 0.31719801 5.4783802 11897871
1.17431 0.317074 5.4717898 12819465
1.18167 0.32962599 5.4504399 12425226
1.18801 0.329593 5.44629 11175175
1.19329 0.33353499 5.4419298 10451720
1.1994801 0.33348101 5.43823 10123273
1.27878 0.33095899 5.4500599 10319879
1.2938401 0.335089 5.4362702 9135880
1.29807 0.33395699 5.4324198 8544004
1.3264101 0.335069 5.4373798 8676358
1.3264101 0.335069 5.4373798 8676358
1.3264101 0.335069 5.4373798 8676358
1.33532 0.33503801 5.43959 9136393
1.58592 0.296305 5.5184898 9531933
1.59833 0.29864499 5.5166998 10653289
1.60202 0.30308601 5.5081902 10391415
-0.687778 0.27173501 5.57302 8942153
-0.448293 0.335453 5.4377198 6574902
-0.43383801 0.341144 5.4305801 6377523
-0.397975 0.354774 5.4021001 6640949
-0.39782199 0.362174 5.3920002 6838072
-0.205865 0.42730299 5.2487602 8285254
-0.177003 0.422842 5.26827 7890242
-0.167248 0.417371 5.26968 7824705
-0.16728801 0.42252901 5.2596798 7627584
-0.159922 0.4224 5.2600899 7561792
-0.075928599 0.39917299 5.3135099 8547397
-0.082099497 0.39851701 5.30862 8810568
-0.0630337 0.39997599 5.3165998 6113321
-0.056044102 0.39996901 5.3155398 7494967
-0.049391702 0.39952099 5.3112102 9205322
-0.042861901 0.40099701 5.30685 8876614
-0.0350825 0.39810199 5.3088398 8481859
-0.037746899 0.40144199 5.3080101 8547650
0.168415 0.31853101 5.4786601 8744767
0.175482 0.31916201 5.4731002 8876355
0.183374 0.31917399 5.4728899 6771246
0.230277 0.309452 5.50244 6902570
0.238554 0.304548 5.5020199 9797202
0.24635001 0.30726901 5.5061498 9468237
1.02309 0.250135 5.6182399 10454046
1.02435 0.255689 5.6083999 9665312
1.03376 0.26346901 5.5903702 11308573
1.02896 0.26729399 5.5949202 6640922
1.03684 0.267959 5.5836802 11177759
1.04054 0.27235201 5.5778599 10849058
1.04432 0.27681899 5.5721798 10651686
1.04924 0.28155199 5.5567999 11571487
1.05849 0.28574201 5.5488901 11834134
1.06688 0.291136 5.54632 11768343
1.07663 0.29416099 5.5329499 12228364
1.0750099 0.30157599 5.5267601 11571734
1.08241 0.29694 5.5276899 12622603
1.09115 0.29962799 5.51612 12950793
1.10119 0.30871901 5.5116801 12950794
1.11093 0.30717701 5.51088 12819209
1.13633 0.32071 5.4819498 11899143
1.14296 0.32309401 5.4780402 11175436
1.15325 0.32407901 5.4793801 8344840
1.1714799 0.32397401 5.4752402 12622090
1.17496 0.33247599 5.4590201 12687881
1.17844 0.33629301 5.4528999 12359179
1.1856 0.336299 5.4495802 11043847
1.19084 0.34031299 5.4454799 10254600
1.20673 0.34016901 5.4414301 9991688
1.2342 0.33820599 5.44556 9531655
1.33026 0.34305999 5.4412498 8610568
1.58702 0.300383 5.52669 9597209
1.58258 0.298489 5.53058 9465616
1.59568 0.30536601 5.52005 10587494
1.59709 0.30808601 5.5106502 10654589
-0.68293798 0.27876201 5.5732298 8876360
-0.67620498 0.285772 5.5492001 9073739
-0.44578099 0.342269 5.44133 6772024
-0.43946901 0.341858 5.4374399 6640439
-0.402484 0.34737599 5.4275699 5785899
-0.39913201 0.352117 5.4147501 6443571
-0.19717699 0.429028 5.25879 8087877
-0.192607 0.430271 5.2601399 7956291
-0.191956 0.42969301 5.2596302 7956291
-0.17309999 0.42860299 5.2683702 7627328
-0.13742501 0.427095 5.2712598 7956036
-0.078815103 0.40510201 5.3150902 8481859
-0.072010599 0.40526301 5.3169098 7757884
-0.058853898 0.40569901 5.3165998 6639663
-0.0520177 0.40537 5.31427 8810824
-0.0456204 0.40536001 5.3116999 9073993
-0.045569401 0.405375 5.3120599 9073993
-0.0311267 0.404385 5.3099899 8416323
0.17258701 0.32586801 5.4779201 8942147
0.17232201 0.32580999 5.4778399 8942147
0.17959701 0.32576901 5.4748802 8087359
0.186799 0.32559901 5.4742899 5389598
0.194258 0.32559499 5.47541 7429431
0.195723 0.325804 5.4790702 7955517
0.222444 0.31468499 5.5032902 8547395
0.23866101 0.31198999 5.50667 7560243
0.236873 0.311986 5.5042901 7165742
0.254583 0.30974999 5.5101299 9731408
1.00131 0.25188199 5.6419301 2104855
1.01088 0.244565 5.6447401 3352589
1.01864 0.25310799 5.6294999 4207886
1.0196199 0.25992101 5.6205301 2103558
1.0220799 0.26490399 5.60817 2498053
1.0242 0.27038801 5.6004901 2235401
1.02777 0.27541399 5.59479 1841162
1.0364799 0.27633899 5.5843601 4602128
1.03643 0.27600801 5.5840101 4865041
1.04001 0.28063601 5.5781298 4207374
1.04004 0.28059199 5.5781398 4207374
1.04379 0.28505599 5.5724301 3549706
1.05133 0.29005 5.5573401 6706201
1.0594 0.293989 5.5486898 8941604
1.0659 0.29931399 5.5467 7232283
1.07113 0.29603299 5.54143 11374361
1.08075 0.304344 5.5215101 12097555
1.09111 0.307486 5.5166602 12425485
1.10709 0.31512901 5.5100398 12425483
1.11394 0.31318399 5.5051198 12490760
1.1210999 0.32415 5.4886398 11768330
1.1291 0.32806399 5.48311 11636489
1.14062 0.32722101 5.48388 11439116
1.1584001 0.33071101 5.4823899 8279307
1.1690201 0.33193499 5.4752402 12424968
1.16256 0.327207 5.4751 12029968
1.17057 0.34309599 5.4565802 12425225
1.18323 0.34303001 5.4531298 10912519
1.18831 0.34704 5.4488702 10123271
1.19603 0.34208399 5.4506798 10123271
1.19482 0.347011 5.4447398 9926152
1.20192 0.347148 5.4419899 9926153
1.19873 0.351935 5.4391098 9729032
1.28921 0.344542 5.45155 9070855
1.29612 0.348268 5.44455 8873992
1.30343 0.34828001 5.4428101 8742151
1.31029 0.34818399 5.43929 8873738
1.58813 0.30781099 5.5282502 9729833
1.59253 0.31205899 5.52284 10587232
1.59631 0.313389 5.5202799 10588535
1.5976599 0.316425 5.5129499 10457467
1.60026 0.318643 5.5067501 10391674
-0.67315698 0.293681 5.5494699 8942153
-0.39487901 0.37072399 5.3923802 7035450
-0.27790299 0.42169499 5.29389 9600081
-0.27054501 0.42099699 5.2986999 9600081
-0.21094701 0.43001601 5.2685399 8351047
-0.20805 0.43441999 5.2604599 8153413
-0.202986 0.43441299 5.2609 8022084
-0.19790401 0.43503299 5.26226 7890499
-0.193278 0.435671 5.2642002 7758913
-0.188549 0.43653101 5.2654099 7627328
-0.18289 0.43652001 5.2596002 7495999
-0.14771999 0.43377599 5.26682 7758915
-0.108106 0.42482999 5.2919798 8613708
-0.081019998 0.41072801 5.3154402 8415810
-0.068809897 0.411569 5.3201299 6837042
-0.0617349 0.411569 5.3190999 6244907
-0.054846302 0.41117701 5.3165202 7889725
-0.0484666 0.411163 5.3140001 9205580
-0.0484231 0.411154 5.3141198 9205580
-0.042998899 0.41107699 5.31006 8745029
0.168892 0.332169 5.4801798 8941890
0.169158 0.331065 5.48171 8876353
0.168889 0.33099699 5.4816399 8876353
0.16892301 0.33254999 5.4820399 8876353
0.175428 0.33255801 5.4790301 8745027
0.175156 0.33250701 5.4789701 8745027
0.175809 0.33220199 5.47826 8744771
0.176232 0.33228299 5.4777498 8678979
0.18306901 0.332156 5.4762502 5850404
0.191212 0.33250999 5.4773502 5981734
0.246462 0.314989 5.51124 8744773
0.25745401 0.316544 5.5128598 9862994
0.26520601 0.31669 5.5185099 9665613
1.01311 0.26301301 5.6264901 1841939
1.01568 0.26855299 5.6107998 1512717
1.0188299 0.273637 5.60712 1381647
1.03224 0.28016499 5.59021 1840909
1.03263 0.28388399 5.5797601 1907214
1.03699 0.28845599 5.5746899 1841422
1.0368 0.28854099 5.5747199 1841422
1.0447299 0.29171199 5.5701098 1709578
1.0453 0.29870901 5.5619102 1709838
1.0535901 0.298558 5.5573301 1774856
1.0582401 0.30161101 5.5499802 2366217
1.07016 0.30401701 5.54175 6179863
1.07224 0.30682099 5.5325499 6245654
1.07759 0.309513 5.5267801 8810530
1.08295 0.31213301 5.5211601 10256933
1.09153 0.315184 5.5169001 11440414
1.0956 0.318358 5.5108199 11506204
1.10147 0.31935999 5.51158 11703064
1.10762 0.319446 5.5067801 12162829
1.10681 0.325427 5.4984398 11505690
1.11572 0.32741901 5.49368 11571217
1.12359 0.33485401 5.4813499 11045908
1.13539 0.33381799 5.4815001 11045390
1.14732 0.334811 5.4840598 8544008
1.1549 0.33722299 5.4843202 8872204
1.16198 0.33514199 5.4758801 12359692
1.16634 0.339701 5.4714599 12359430
1.17791 0.34681201 5.4573302 11504650
1.18314 0.350831 5.4532499 10255109
1.19127 0.35368299 5.4469099 9794824
1.2050101 0.35458699 5.4422102 9597704
1.2366199 0.34608999 5.4531798 9465606
1.5761 0.30846 5.5338802 9662737
1.58174 0.31243801 5.5320101 9729307
1.58421 0.3177 5.5247898 10059325
1.5933 0.31972101 5.5240102 10588017
1.59734 0.32159299 5.51862 10457467
1.59768 0.32484001 5.5096798 10391674
-0.68368798 0.28448001 5.58708 8547653
-0.669976 0.30143899 5.5497098 8810568
-0.43545601 0.35268301 5.4502501 6574389
-0.36807701 0.38854599 5.3777099 8811082
-0.210922 0.43665901 5.2736702 8219205
-0.200433 0.441448 5.27074 7824450
-0.19559 0.44181401 5.2665 7692865
-0.146947 0.43480301 5.2732401 7693122
-0.130537 0.43410701 5.28579 8153416
-0.109461 0.42501199 5.29356 8613707
-0.100671 0.42489901 5.2946601 8350536
-0.075943999 0.41160101 5.3214698 8152639
-0.079327397 0.417411 5.3208499 8021310
-0.065185703 0.417595 5.3204298 6179115
-0.058173601 0.417577 5.3191099 6771248
-0.0513882 0.41697201 5.3160501 8942410
-0.045486301 0.416875 5.3127198 8942408
-0.044956598 0.416978 5.3137798 8876615
0.17291699 0.338267 5.48066 8810562
0.172539 0.33855 5.4816298 8876354
0.17960601 0.33858901 5.47861 7166260
0.187341 0.338294 5.4776502 5258272
0.187445 0.33825001 5.4777198 5258272
0.196036 0.33825999 5.4794402 7232053
0.247711 0.32194099 5.5166101 6442021
0.96135402 0.275682 5.6250801 7236709
1.02745 0.28385901 5.5956802 1381135
1.03837 0.30020401 5.5695901 1315343
1.05001 0.303408 5.5577002 1644303
1.05451 0.306456 5.5503402 1710095
1.0546 0.30673501 5.5509701 1710095
1.06357 0.30752099 5.5471201 1840907
1.06686 0.311672 5.5387001 2038029
1.0756299 0.31481999 5.5359998 1971463
1.08099 0.322736 5.5282502 1182725
1.08582 0.32006299 5.5212898 4404495
1.09129 0.322633 5.5155001 5325075
1.09866 0.32628301 5.5141401 6180119
1.10531 0.32622099 5.5096898 9731105
1.10822 0.332744 5.5066299 5719573
1.11445 0.33263099 5.5020499 9138976
1.1197701 0.335316 5.4970899 9139485
1.13138 0.340819 5.4818702 9467930
1.13366 0.34725499 5.4791398 7034646
1.14121 0.34117299 5.4826298 8545292
1.15361 0.34461999 5.4798298 11505431
1.16114 0.34310299 5.4761901 12162567
1.16315 0.349334 5.4688601 12031241
1.17243 0.35632101 5.4579 11307532
1.1802599 0.35750401 5.4562201 10057734
1.19573 0.36315501 5.43678 9466375
1.24055 0.35340399 5.4531798 9334279
1.57099 0.31915301 5.53232 9531663
1.57907 0.321738 5.5306702 9795365
1.58252 0.32653299 5.5244198 10652766
1.59452 0.32783601 5.5225201 10391675
1.59534 0.33106601 5.51373 10260346
-0.67736399 0.29427099 5.5734901 8547910
-0.66584897 0.30899501 5.54808 8679240
-0.53588998 0.351643 5.45539 8416841
-0.529266 0.35494199 5.4593301 8022342
-0.529266 0.35494199 5.4593301 8022342
-0.52693403 0.35420799 5.4513402 8022085
-0.52217501 0.351693 5.4572501 7956549
-0.51719099 0.352202 5.4583101 7824963
-0.47383499 0.35748401 5.4544201 7101245
-0.45783901 0.354139 5.4570699 7166527
-0.38822499 0.385654 5.3850999 7759171
-0.204409 0.441129 5.27214 7890499
-0.204403 0.44215599 5.27385 7890243
-0.198044 0.447584 5.2694602 7561536
-0.16233701 0.440175 5.27741 7430207
-0.155671 0.44177699 5.2745099 7627330
-0.149198 0.44064099 5.2769599 7693380
-0.148782 0.44011301 5.27771 7758917
-0.14163201 0.441048 5.2799602 7956552
-0.104798 0.431481 5.2976699 8285000
-0.097893603 0.43214899 5.3003402 6903092
-0.078864299 0.42218599 5.3196301 7955261
-0.072274901 0.41767699 5.3224802 7429177
-0.061146699 0.423408 5.3210802 6310957
-0.054224599 0.42278799 5.3183398 8152896
-0.0482512 0.42265901 5.31498 9073995
-0.047841899 0.42277899 5.31599 9073995
-0.0384994 0.42912 5.3111801 8416323
0.166087 0.342329 5.4837098 8941890
0.170353 0.34437799 5.4842401 8942147
0.17043699 0.34463799 5.4843798 8942147
0.169791 0.34455699 5.4837399 8942147
0.17688499 0.34462801 5.4811702 8021310
0.18352801 0.344659 5.4788198 5061150
0.183562 0.34466001 5.4788599 5061149
0.191504 0.34473199 5.47928 5850664
0.19156 0.344722 5.4792099 5850664
0.236563 0.32757699 5.5153699 8152637
0.24525601 0.32762101 5.5198302 7099696
0.25707099 0.32444501 5.5199699 8481345
0.96139401 0.26763299 5.6466398 6644831
0.95547599 0.27675399 5.6348701 6644831
0.964863 0.28206801 5.62433 7105125
0.972049 0.28205901 5.6257701 5197387
0.99266303 0.28176001 5.6252899 855566
1.07049 0.31851 5.54036 1315598
1.06718 0.32842901 5.53301 592136
1.07129 0.32341501 5.5290499 789256
1.0856 0.32834101 5.52426 788744
1.10162 0.33302099 5.5110002 2497287
1.11067 0.34154299 5.5035 1905928
1.11235 0.339625 5.4967599 3943691
1.11643 0.34223801 5.4906602 4469773
1.12758 0.347458 5.4836302 5391127
1.14776 0.35232401 5.4753499 9863204
1.15792 0.351107 5.4778299 10848788
1.15935 0.35727099 5.4691501 10783257
1.17735 0.364052 5.4587498 9663753
1.18238 0.36954901 5.4482498 9006860
1.18915 0.36268601 5.4523401 9597704
1.1910599 0.366882 5.4449501 9400841
1.20673 0.36662301 5.44346 9335048
1.24481 0.36076301 5.4539299 9202695
1.24009 0.37053901 5.4453702 9071622
1.57375 0.32674599 5.5328698 9597463
1.59185 0.33412099 5.5260901 10260086
-0.67680401 0.299573 5.5781002 8416067
-0.67173398 0.30748901 5.5562301 8481862
-0.65748698 0.31654501 5.5451398 8745034
-0.53477103 0.358897 5.4630499 8022085
-0.49875799 0.36342901 5.4457502 7232830
-0.446926 0.35769999 5.4625602 7166783
-0.43531501 0.36062801 5.4578199 6245427
-0.400482 0.37349999 5.4306302 4994337
-0.36641499 0.396274 5.3820901 8613448
-0.36368299 0.395798 5.3769202 8811082
-0.21991999 0.44425899 5.2854199 8218950
-0.20949601 0.444013 5.2859602 8021829
-0.203532 0.44828799 5.2815199 7561792
-0.199278 0.44885799 5.2742701 7561536
-0.141791 0.446551 5.28617 8087625
-0.13986801 0.44535199 5.2890701 8022088
-0.116957 0.43981099 5.29529 8482382
-0.108964 0.43796 5.2992601 8153415
-0.101281 0.43817499 5.30163 6837556
-0.080129698 0.42737699 5.3187299 7889726
-0.068125904 0.423852 5.3238101 6244907
-0.071548201 0.429178 5.3226199 6771248
-0.064213201 0.42930201 5.32306 6179373
-0.057091199 0.42857099 5.32054 7034676
-0.050790299 0.42855799 5.3179698 9008203
-0.044801999 0.42845401 5.3146501 8613445
-0.044946399 0.428536 5.3148499 8613445
-0.041754499 0.43420401 5.3136201 8416323
0.16706 0.34965199 5.4892602 8942147
0.17281 0.351441 5.4850798 8547905
0.174327 0.35070601 5.4844098 8218942
0.180663 0.350674 5.4807501 5653027
0.187953 0.35114601 5.4814801 5390371
0.18796401 0.35118601 5.4814801 5390371
0.19780099 0.34983999 5.4818301 7363639
0.23657399 0.335426 5.5206199 8744772
0.26774999 0.327712 5.52565 9731411
0.27843001 0.33097199 5.5311799 9534284
0.94102597 0.25915 5.6817198 7434605
0.938829 0.26618001 5.66609 7039847
0.938739 0.27342001 5.6574798 6710625
0.949485 0.26593399 5.6638498 5855317
0.96171403 0.28868699 5.6257 6908002
0.96859199 0.28861001 5.62462 6447454
0.98959202 0.28857699 5.6262698 789517
0.99614698 0.28849599 5.62637 723980
1.0487601 0.33062801 5.5292902 1184016
1.05169 0.33815601 5.5258002 723723
1.05671 0.33249101 5.52772 723723
1.05811 0.34066901 5.5223198 460552
1.08224 0.33123901 5.53336 592136
1.10781 0.33983001 5.51229 1446152
1.11537 0.348248 5.4965701 1906704
1.11927 0.351677 5.4885702 1643531
1.15134 0.35872799 5.4716802 7890465
1.15686 0.367044 5.4668498 4076300
1.16146 0.363235 5.46207 9994272
1.17041 0.364086 5.4609299 10125334
1.17485 0.37059501 5.4605899 8152600
1.18025 0.371317 5.4569898 8612627
1.18088 0.37042001 5.45715 8809744
1.19034 0.37540701 5.4475598 8678928
1.2001899 0.371986 5.4474502 9006600
1.20136 0.373741 5.4438 8875273
1.20806 0.377471 5.4435501 8940809
1.20854 0.37605599 5.4496598 8809225
1.21664 0.37261301 5.4472899 9071878
1.2314301 0.37545601 5.44663 8808965
1.5669301 0.33360001 5.5309401 9597205
1.5696501 0.33587199 5.5293899 9861158
1.57743 0.33550599 5.5261002 10784612
1.58717 0.33959201 5.5224299 10325880
1.58699 0.34561899 5.5148401 10194036
-0.67925799 0.29909399 5.5897899 8218946
-0.670959 0.314228 5.5671802 8087363
-0.52637601 0.36162901 5.4671998 7758915
-0.53034699 0.359828 5.4646301 7890500
-0.50955302 0.364198 5.4565401 7364158
-0.47778499 0.36410901 5.4575701 7232575
-0.470976 0.36464199 5.4664798 7232576
-0.39643699 0.379408 5.4320798 5520423
-0.391844 0.381024 5.4253898 7297855
-0.370208 0.394546 5.3955102 8350534
-0.36186501 0.40349501 5.3822699 8482118
-0.353717 0.40920499 5.3648 8876619
-0.22078601 0.450883 5.2898202 7890498
-0.209806 0.45065901 5.2905402 7693122
-0.204633 0.44927299 5.2832098 7561792
-0.15486699 0.453253 5.2863202 7956039
-0.146942 0.44759101 5.29106 7890245
-0.14992601 0.44699201 5.2882099 7824452
-0.105041 0.44458199 5.30475 6837556
-0.066764101 0.43435499 5.3239899 6047785
-0.0599484 0.434443 5.32305 6442542
-0.053578202 0.434365 5.3202901 8416069
-0.053571299 0.43439099 5.32023 8416069
-0.046860602 0.43447599 5.3196201 8679494
-0.0469588 0.434389 5.3181901 8745031
-0.0471147 0.434367 5.3179798 8745031
-0.0367878 0.435866 5.3189602 8350530
0.166734 0.35146999 5.4892802 9007684
0.170396 0.35751101 5.4881001 8810564
0.178094 0.356758 5.48348 6640175
0.185303 0.35670599 5.4825101 5192992
0.19356 0.35639599 5.4821401 5982248
0.201151 0.35655701 5.4851398 8284481
0.237582 0.34078899 5.5233002 8810564
0.24513701 0.33544901 5.5248599 7889466
0.25738701 0.33259001 5.5303998 6244133
0.268094 0.33596101 5.5360198 7428660
0.93045801 0.282161 5.6519699 7302763
0.945454 0.28086701 5.6573701 5921109
0.95415002 0.27645701 5.6601501 6316123
0.954081 0.28625399 5.6348701 6710625
0.972772 0.29509401 5.6257401 6184539
0.98645902 0.29520601 5.6249599 3026479
0.99777001 0.29487801 5.6204801 789517
1.04093 0.34108499 5.5360799 1118481
1.04662 0.335861 5.5377102 1184016
1.0465 0.343256 5.5254402 920845
1.0537699 0.34586701 5.5240502 592138
1.08872 0.357214 5.49368 460810
1.1186 0.36362001 5.4811101 1184273
1.1429501 0.36858001 5.4794898 1709840
1.1484801 0.363684 5.4777198 1840134
1.16159 0.37121901 5.46242 3812877
1.15987 0.378912 5.4601302 1117193
1.1675299 0.37555 5.4596 3089675
1.17748 0.37796301 5.46 3747086
1.18126 0.37739 5.4530401 6838042
1.19952 0.38138899 5.4489498 8087574
1.2008801 0.379962 5.4553199 8021780
1.2084399 0.37994799 5.4534302 8481551
1.21623 0.380097 5.4514198 8612362
1.22302 0.37987 5.44835 8678151
1.23071 0.38317499 5.4511199 8677639
1.23839 0.37866601 5.4496999 8808710
1.23851 0.38017401 5.45468 8808711
1.24773 0.381547 5.4496102 8742918
1.5642999 0.340828 5.5373902 9662741
1.57401 0.34260699 5.52846 10455124
1.57447 0.34857801 5.5191798 10588533
1.58719 0.346322 5.5303102 9996657
-0.48358601 0.37032101 5.4650602 7298625
-0.45911801 0.36290601 5.4825902 7298112
-0.39442599 0.38498101 5.4289899 5980972
-0.376252 0.39324 5.4136 7890243
-0.37060401 0.40132701 5.4003401 7956290
-0.36279199 0.41249499 5.3697701 8416328
-0.35018399 0.41639799 5.3633699 8745034
-0.29562101 0.448015 5.3070402 8481862
-0.23139299 0.44745201 5.302 8416327
-0.224263 0.450041 5.2978702 8087620
-0.2077 0.455612 5.2832098 7430208
-0.16907001 0.45594499 5.28442 7561539
-0.15872 0.45399401 5.2926798 7758917
-0.151862 0.45397899 5.2904701 7956296
-0.117161 0.44755399 5.3014002 8087624
-0.110611 0.446895 5.3035202 7429694
-0.104125 0.44732901 5.3057899 6377006
-0.078168698 0.43994099 5.32234 7824187
-0.069830798 0.44011301 5.32515 6179369
-0.062835902 0.44027001 5.32517 6377005
-0.056484502 0.44022399 5.3221998 7232311
-0.050639801 0.440696 5.3203502 8876875
-0.049923699 0.44025299 5.3203101 8876618
-0.049963299 0.44018799 5.3201599 8876618
0.166673 0.36252299 5.4913402 9007942
0.162589 0.359577 5.49089 8941892
0.169045 0.362764 5.4886198 8876100
0.17562599 0.36281899 5.48634 7495225
0.182017 0.36285499 5.48349 5126942
0.18205699 0.36284301 5.4834599 5126942
0.18934 0.36300799 5.4841199 5587494
0.18942501 0.362993 5.4841399 5587494
0.197074 0.36300299 5.4858999 6442796
0.233063 0.347853 5.52321 8942406
0.23797999 0.34742001 5.51824 8678978
0.27876401 0.33920801 5.5414701 9271116
0.90675002 0.27843601 5.6763701 8092279
0.92701101 0.29103401 5.6533298 7960691
0.95471799 0.284206 5.6561699 6513246
0.94503802 0.291136 5.65133 5986903
0.96759599 0.295311 5.6318102 6513246
0.96273798 0.308092 5.62012 5921110
0.97559702 0.30186301 5.6234002 6052954
0.97552502 0.301548 5.6252899 6052697
0.98301601 0.301855 5.6237798 5131854
0.98897702 0.30164 5.6219602 1841948
0.996728 0.30179501 5.6255798 855054
1.04966 0.35058901 5.5275002 526346
1.0482399 0.35137701 5.5309701 592139
1.05537 0.35328501 5.5230098 460810
1.15031 0.37161601 5.4761901 1249034
1.17205 0.38320699 5.4616098 985864
1.18164 0.384532 5.4603901 1379845
1.19013 0.383356 5.4544401 4536849
1.19765 0.386545 5.45855 3353100
1.20518 0.386529 5.4562702 5523221
1.2208 0.38665599 5.4549899 8021268
1.21964 0.38649401 5.4523101 8021267
1.2275701 0.38657799 5.4547 8349454
1.23489 0.386565 5.4551802 8480778
1.24341 0.38670701 5.4584899 8480777
1.2477 0.38943699 5.4542699 8349448
1.25438 0.38927799 5.45192 8414725
1.26245 0.38450599 5.4505501 8546053
1.27649 0.38552701 5.4549999 8677126
1.27965 0.39128801 5.4416199 8546056
1.56935 0.350288 5.5346198 10125377
1.57543 0.35346901 5.53016 10390632
-0.66304499 0.323147 5.5673599 7955778
-0.659971 0.32913801 5.5573001 7890243
-0.65333098 0.33476001 5.5479598 7956036
-0.64776301 0.341856 5.53579 8021829
-0.64392197 0.34174499 5.5279598 8284742
-0.54530603 0.364158 5.4816799 8021828
-0.53999197 0.36632699 5.4832201 7824451
-0.52541202 0.369028 5.4752998 7429952
-0.48682299 0.37691 5.45825 7496004
-0.46779501 0.371066 5.4703698 7364418
-0.39356101 0.39172101 5.4256601 5783338
-0.38548899 0.39840499 5.42168 7429440
-0.38652301 0.39363301 5.4236898 7824196
-0.364957 0.40604001 5.39746 8021827
-0.367284 0.41475999 5.3772502 7824707
-0.362986 0.42402199 5.3707399 7758913
-0.355744 0.42348799 5.3646698 8284741
-0.350784 0.42749399 5.3624902 8087877
-0.24982999 0.45235199 5.3101101 8416584
-0.24445599 0.44993201 5.3061199 8482376
-0.241998 0.45221499 5.3008199 8284998
-0.228539 0.454835 5.3011398 7890499
-0.22195899 0.45639199 5.2963099 7693122
-0.209948 0.45732301 5.2953901 7495744
-0.177965 0.46327901 5.2828398 7627589
-0.17073099 0.46328399 5.2835798 7758918
-0.15783601 0.46043599 5.29703 8021832
-0.124828 0.452562 5.3020401 8351053
-0.116931 0.45526999 5.3060899 7100986
-0.109209 0.451076 5.30688 6705970
-0.107222 0.45335299 5.3085599 6245420
-0.094716899 0.45140001 5.3102102 6968627
-0.072974101 0.44599199 5.3273902 6705453
-0.0656818 0.446098 5.3273602 6311212
-0.059289001 0.44606999 5.3245802 6639919
-0.052819099 0.44613001 5.32268 8547911
-0.052758198 0.44603801 5.3226299 8547911
-0.045776401 0.446264 5.3225799 8481861
-0.045830701 0.446172 5.3222799 8481861
0.173005 0.36886299 5.4888902 8218433
0.17939401 0.36888 5.4858499 5455906
0.18615399 0.36930001 5.48734 5390371
0.186094 0.36915901 5.4850602 5390372
0.200927 0.36955401 5.48877 7626808
0.20291001 0.36928001 5.4893699 8547651
0.238648 0.34967801 5.5276699 8876613
0.254792 0.34305701 5.5375199 7626039
0.243103 0.34895799 5.5297899 8613442
0.26471099 0.343321 5.5470099 6573355
0.26823899 0.34411901 5.5458698 6178598
0.28935 0.34224701 5.5493898 9402442
0.88808101 0.27911201 5.6874499 8026482
0.89101398 0.279623 5.6820502 8289656
0.90068299 0.28570199 5.6758599 8289656
0.89927799 0.27844399 5.6817698 8158071
0.90494102 0.28685299 5.6659198 8158327
0.91177797 0.29676601 5.6585002 7895155
0.91442102 0.28857699 5.6636 8158071
0.92214698 0.29132801 5.6620102 8223863
0.92804998 0.29884401 5.6494002 7566190
0.93982899 0.29126799 5.6563201 6776418
0.93967003 0.30004799 5.6503901 6315868
0.94869798 0.29779401 5.64744 6447453
0.949265 0.30889601 5.6318402 6710625
0.97215998 0.308348 5.6237402 5987160
0.97079802 0.30817899 5.6226702 6052696
0.97827202 0.30818799 5.6224799 5789525
0.985107 0.308079 5.6223402 2828842
0.98527801 0.30812001 5.6222401 2829099
0.992544 0.308056 5.6216698 921102
0.98882699 0.31453601 5.6223302 1052688
1.0427099 0.34877101 5.5372 1118224
1.0461 0.35493001 5.5338101 657932
1.0501699 0.35886601 5.5289502 460553
1.17068 0.39094299 5.4650798 1052429
1.1793801 0.388585 5.46135 986122
1.1880701 0.390304 5.4654899 986376
1.2017699 0.393143 5.45894 1183238
1.20918 0.39310899 5.4565101 2169096
1.23848 0.39293599 5.4560599 7889683
1.26223 0.392409 5.4552498 8414728
1.27098 0.3924 5.45714 8480265
1.2763799 0.39197701 5.4516802 8545800
1.56375 0.34808701 5.55023 9531151
1.5652601 0.35439301 5.5402298 9795368
1.56908 0.35856399 5.5339098 10652511
1.57898 0.35998899 5.5308499 10457723
1.58224 0.36353001 5.5225101 9800051
-0.65048498 0.34070799 5.5463099 7758658
-0.62605703 0.34636599 5.5371799 8350789
-0.60314798 0.35501301 5.52457 8350789
-0.56659698 0.358805 5.5167198 8416326
-0.56905901 0.36173999 5.5092001 8284741
-0.55901599 0.35827601 5.5114002 8482119
-0.54182303 0.372242 5.4892602 7496000
-0.39451799 0.40256199 5.4266901 4729372
-0.39646199 0.39686 5.4302101 4795166
-0.38221899 0.40527299 5.4221501 7824195
-0.35430101 0.42728299 5.37325 7824706
-0.33765301 0.42987001 5.36097 8482375
-0.29545999 0.455183 5.3169198 8416329
-0.26444399 0.447952 5.3285198 9073741
-0.254599 0.45428801 5.3214698 8350792
-0.249005 0.45601499 5.3185601 8219463
-0.24774 0.46218699 5.3005199 7693379
-0.24511901 0.45700201 5.3049698 8022085
-0.22400101 0.46212 5.3006501 7495743
-0.21821301 0.46342599 5.2939901 7364415
-0.181428 0.46960199 5.28298 7759175
-0.15889999 0.46119401 5.2975702 7956039
-0.126378 0.459304 5.3057399 8022345
-0.109383 0.45907399 5.3105202 5916711
-0.108772 0.45868501 5.3106198 5916711
-0.078334101 0.45288599 5.3284402 7823931
-0.062231898 0.45196599 5.3263502 6705456
-0.056436401 0.45237601 5.3238602 7626811
-0.056627199 0.45255899 5.3236499 7626811
-0.051403001 0.45212901 5.3199401 8679495
0.165087 0.372042 5.4949899 9139270
0.17037199 0.37492999 5.4917698 8612931
0.17659099 0.374865 5.4875498 6113320
0.183513 0.37531599 5.4868498 5061151
0.191551 0.37533 5.4874301 5850408
0.19955599 0.375505 5.4906201 6837039
0.207109 0.37579399 5.4933701 9008201
0.24555101 0.35616601 5.5345802 8678978
0.27906701 0.34724 5.5518298 6968366
0.882873 0.28444299 5.6858902 5591104
0.88954401 0.28714299 5.6827798 5723728
0.890903 0.28738999 5.6821499 5921107
0.89632201 0.29036 5.6774101 6250330
0.90525001 0.29484501 5.6657701 7697519
0.92246902 0.29907301 5.6571598 8223607
0.92356497 0.305637 5.6492701 7697519
0.93711698 0.30664599 5.6529999 6842212
0.94436699 0.31281 5.6364002 6579039
0.96421099 0.32135099 5.6241002 5460558
0.968027 0.314776 5.6230798 5723731
0.97505099 0.314677 5.6230898 5855317
0.98137403 0.31454799 5.6244798 4144957
0.97899503 0.32115999 5.6234798 3684150
0.99256003 0.32126999 5.6220102 1052432
1.04445 0.35644501 5.53794 855309
1.18791 0.397524 5.4648099 1117964
1.1959 0.39341101 5.4639201 1052170
1.2036 0.399351 5.4563098 1249549
1.21312 0.399452 5.4566698 1183239
1.24216 0.399317 5.4566598 5917207
1.25428 0.39719599 5.4568801 7955217
1.2648 0.39917001 5.4577699 8152081
1.28707 0.39920801 5.4586601 8414731
1.28704 0.399243 5.4588199 8414731
1.28704 0.399243 5.4588199 8414731
1.30563 0.400435 5.4595199 8480524
1.32293 0.400471 5.4521699 8545804
1.5600801 0.354855 5.5512199 9794322
1.56134 0.35848299 5.5467901 9728790
1.56506 0.362681 5.5397401 10191170
1.56875 0.366871 5.5331502 10588529
1.58127 0.368314 5.5300999 9800051
-0.621988 0.35309699 5.5374498 8022338
-0.615803 0.35405001 5.5324101 8153410
-0.60968602 0.35506001 5.5272899 8153410
-0.60685498 0.36046401 5.5201101 7956034
-0.59878898 0.360984 5.5243502 8022083
-0.59254998 0.361054 5.52285 8087619
-0.58372998 0.35927901 5.5171099 8350534
-0.57780802 0.36325499 5.5197201 8218949
-0.536273 0.374394 5.4907899 7429952
-0.38680401 0.40545201 5.42699 5849132
-0.38066399 0.40497699 5.4242001 7955780
-0.349473 0.434257 5.37602 7627585
-0.34565401 0.434558 5.3660202 8087621
-0.34345701 0.43611601 5.3713298 8087621
-0.337428 0.43784699 5.3681502 7956549
-0.338476 0.43862301 5.3559999 8022086
-0.33498701 0.44293299 5.35148 8022086
-0.321576 0.44263199 5.3576498 8284742
-0.32797101 0.44300199 5.34969 8153159
-0.32329199 0.44647899 5.3488002 8087622
-0.316376 0.44512701 5.3516302 8284743
-0.256437 0.45274901 5.3334699 8481863
-0.25482899 0.45488799 5.3256502 8350791
-0.25185099 0.46138 5.3165498 7890756
-0.23970599 0.46452501 5.3060398 7561537
-0.229188 0.46068099 5.3104 7627328
-0.22541 0.46805501 5.30653 7364159
-0.202103 0.46962699 5.3042402 7430210
-0.196481 0.471522 5.2979398 7496003
-0.117392 0.46297199 5.31038 6311727
-0.093715802 0.458956 5.3159399 7561019
-0.100287 0.466369 5.3122902 6705457
-0.070898697 0.45301899 5.3336701 6507819
0.165961 0.37899399 5.4949999 8941891
0.171167 0.38192999 5.49228 8350016
0.180595 0.38115501 5.4884701 4797465
0.195511 0.38209599 5.4925098 6113578
0.203664 0.381899 5.4927802 8350274
0.202949 0.38246399 5.4934001 7955774
0.21032099 0.382471 5.4963899 8942152
0.25176901 0.357088 5.5447102 8481600
0.24308801 0.361985 5.5276399 8613184
0.28940001 0.35041001 5.5566702 8678979
0.88400102 0.034996301 6.2361302 2051115
0.89279598 0.29532999 5.6826801 5263175
0.89803898 0.298168 5.67662 5197384
0.90107298 0.30335 5.6691499 5328453
0.90998399 0.303882 5.6648502 5526349
0.923805 0.31277201 5.6559901 5065799
0.93210202 0.31314099 5.6505499 5328715
0.94201702 0.31339401 5.6526999 5000008
0.94310099 0.32181901 5.63662 6447453
0.95826501 0.32758299 5.6230102 5131850
0.966084 0.327562 5.6231399 5263436
0.97765201 0.321233 5.6257501 4605251
0.98148298 0.32800701 5.6261802 1644824
0.98281097 0.327687 5.6247001 1184017
0.98892897 0.32809299 5.6237202 986638
1.04504 0.36402401 5.5384998 723467
1.04 0.36803001 5.54106 789517
1.05094 0.36747801 5.5345998 395017
1.21163 0.40701899 5.4576001 1381393
1.31633 0.40482101 5.46454 8348944
1.3413301 0.397264 5.4749799 8480011
1.5574 0.36266401 5.5527101 9662992
1.54582 0.367962 5.5468898 9794321
1.56103 0.36677 5.54562 9926693
1.56463 0.37094 5.5387201 10587231
1.57178 0.37502 5.53829 9996912
1.579 0.37495601 5.5351501 10787209
-0.63619298 0.35276899 5.5486398 7627330
-0.58355302 0.36617401 5.52671 7956035
-0.58143598 0.36924899 5.5190701 7824707
-0.57524502 0.365677 5.5201802 8021828
-0.56646699 0.36566299 5.5248098 8021828
-0.55895102 0.36510599 5.51893 8021828
-0.480553 0.379529 5.4912 7496261
-0.48054799 0.379944 5.4925098 7561797
-0.383055 0.41119099 5.42733 6638643
-0.37677699 0.41199201 5.4229999 8021318
-0.31853899 0.449707 5.3501401 7956037
-0.30862501 0.45227101 5.3446598 8021830
-0.28025401 0.46187299 5.32973 7890756
-0.26641801 0.46108699 5.3313498 7956292
-0.26387 0.45518801 5.3368702 8284742
-0.267658 0.46077701 5.3344598 7956292
-0.256194 0.46087399 5.3317099 7956291
-0.255449 0.460401 5.3312998 7956291
-0.24140801 0.47031099 5.3103399 7429953
-0.23142999 0.46668699 5.3126898 7429951
-0.21545801 0.470745 5.3094802 7364416
-0.208994 0.47293299 5.3097401 7430209
-0.17617799 0.47575399 5.3029099 7956298
-0.093437597 0.466773 5.3206701 7823933
0.162531 0.382963 5.49755 9139269
0.16667201 0.38652399 5.4981098 9007683
0.172315 0.389 5.4932799 7757883
0.19275101 0.38813901 5.49259 6179628
0.199674 0.38850701 5.4944901 6639918
0.20051 0.38811699 5.4948502 6902833
0.20799799 0.388311 5.4956498 9008201
0.247978 0.36341101 5.5394902 8613185
0.25403801 0.365473 5.5452499 8481344
0.27657199 0.35427299 5.5627499 6244392
0.30039701 0.353468 5.5657101 9205319
0.87514597 0.045322198 6.2326398 5201476
0.89631301 0.306339 5.6773701 5394763
0.91668397 0.31244299 5.66466 5460556
0.939022 0.320099 5.65558 3486768
0.96250302 0.33442399 5.6279502 5065800
0.973984 0.32797199 5.6276498 4802886
0.98531699 0.334975 5.62642 986381
1.04556 0.37159899 5.5391302 526346
1.05062 0.36821201 5.5432401 526345
1.30634 0.40792301 5.47153 8086554
1.3376 0.404809 5.4721198 8283150
1.33805 0.40548399 5.4706202 8282893
1.34575 0.40803599 5.4759798 8217360
1.55189 0.37479901 5.5541902 9530895
1.55665 0.37085301 5.5500102 9597205
1.56094 0.37510499 5.5452399 10322242
1.56498 0.37911299 5.5384498 10325097
1.57052 0.38297901 5.5346599 9931380
-0.56265903 0.37248099 5.52174 7758658
-0.55202901 0.371869 5.5194898 7627585
-0.51865798 0.38403401 5.5020399 7496004
-0.51122499 0.38401201 5.4993701 7495747
-0.33579999 0.44683701 5.3638902 7758916
-0.33089599 0.450376 5.3610802 7759173
-0.32440001 0.45409599 5.3610301 7693124
-0.31561601 0.456925 5.3427901 7693123
-0.30870599 0.45979401 5.3400402 7693123
-0.28922901 0.462661 5.33637 7824708
-0.267313 0.466984 5.33394 7627586
-0.26640099 0.46131101 5.3345098 7956292
-0.25682899 0.46672601 5.3322401 7627585
-0.21662501 0.476668 5.3156199 7495746
-0.21665099 0.47676301 5.3158798 7495746
-0.210664 0.477972 5.3089299 7496003
-0.203403 0.47525901 5.3107901 7496002
-0.19780201 0.477617 5.3123298 7627590
-0.181244 0.476809 5.3066802 7890761
-0.183792 0.47852501 5.3092599 7824967
0.162718 0.39055201 5.5014901 9073732
0.168118 0.39327699 5.4962201 8744515
0.173553 0.39592901 5.4931998 7034163
0.17761301 0.39173701 5.4911199 6047274
0.195889 0.39508 5.4969201 6640177
0.248787 0.372646 5.5440502 8547392
0.26596299 0.36077401 5.5602002 7692088
0.28941399 0.35859299 5.5664902 6705195
0.30032799 0.36165899 5.5703802 8415551
0.82123899 0.016416799 6.3006701 1516822
0.83103001 0.016425399 6.3041501 1583129
0.83784801 0.025175501 6.2924399 2239258
0.90515798 0.31248 5.6792102 5328969
0.91687799 0.31926799 5.6730499 5131847
0.92487401 0.31999701 5.6649399 4473662
0.93238598 0.32243201 5.6627498 3355181
0.95664603 0.335085 5.6367898 5000007
0.97037798 0.334694 5.6295099 4934470
0.97787601 0.334811 5.6283498 2039325
0.97797698 0.33473799 5.6282301 1973532
0.98224097 0.34150901 5.62854 986637
0.98230398 0.341286 5.62712 986638
0.98833698 0.341373 5.62569 1249552
1.0312999 0.380256 5.5446801 921103
1.04246 0.38147101 5.5440402 460297
1.04471 0.38058001 5.5349498 394761
1.19217 0.43800101 5.4238901 1249810
1.35885 0.40872201 5.4839902 8282640
1.35885 0.40872201 5.4839902 8282640
1.3940001 0.41466799 5.4830999 8611337
1.53708 0.38041899 5.5432601 9465614
1.5482399 0.38111299 5.5536199 9531408
1.55585 0.380983 5.5513601 9926439
1.5608701 0.383432 5.5448999 10653026
-0.54514599 0.37863699 5.5197701 7298622
-0.52805501 0.38469899 5.5113602 7430212
-0.50544798 0.38879201 5.5039701 7562054
-0.49056801 0.385865 5.5028901 7627334
-0.481309 0.38874 5.51057 7693384
-0.31488299 0.45808199 5.3645301 7561539
-0.26628199 0.468124 5.3401198 7561794
-0.258297 0.46677101 5.3362498 7627586
-0.25565401 0.47269699 5.33496 7430209
-0.24799199 0.472974 5.3343902 7364417
-0.19485299 0.48180199 5.3130398 7890762
-0.15140601 0.47775301 5.3180299 8351312
0.16363899 0.39735001 5.4995499 9007683
0.162315 0.40018401 5.49858 9007682
0.168981 0.40022799 5.4962101 8415552
0.173283 0.40298599 5.4935002 7231796
0.179176 0.39995 5.4914498 6112812
0.196408 0.394943 5.4994302 6574385
0.204 0.39999199 5.5020499 7166004
0.21111199 0.39540401 5.5030499 9139530
0.265286 0.368799 5.5660801 8086843
0.26131901 0.37486601 5.5557499 8350014
0.82551998 0.0242224 6.3034902 2567713
0.830863 0.028478799 6.29705 4606009
0.84687197 0.041991699 6.2710299 12370350
0.851156 0.041910801 6.2730398 11778470
0.90868902 0.31933999 5.6773701 5460298
0.92485899 0.32615301 5.6761398 4210490
0.93011802 0.32833901 5.6679702 3026217
0.93584299 0.33057699 5.6610498 4605249
0.94742399 0.34125099 5.6335502 4868677
0.95740801 0.341506 5.6338902 4802628
0.96471101 0.34143701 5.6318998 4934214
0.96679902 0.34154099 5.6340499 4802885
0.96469003 0.341371 5.6319799 4934214
0.97443199 0.34158301 5.6314301 2302497
0.97445601 0.34151399 5.6315298 2368289
1.02684 0.38727701 5.5474 1052432
1.03118 0.38764599 5.54251 592139
1.03892 0.38799399 5.54458 460553
1.17624 0.434634 5.4419298 723467
1.1783299 0.431308 5.4449601 723467
1.18091 0.43757901 5.4345002 657930
1.1864001 0.44086099 5.4298601 855052
1.18795 0.44647399 5.4215698 4670787
1.18805 0.44639 5.4222898 4802373
1.20358 0.44906899 5.4135098 5723729
1.20347 0.45524201 5.4066401 5131592
1.2106301 0.457461 5.40272 5131593
1.37341 0.41257 5.49511 8217105
1.3771501 0.41441599 5.4986701 8151570
1.38059 0.416372 5.4950399 8282895
1.40593 0.41123199 5.4949498 8808202
1.55309 0.390158 5.5500102 10059323
1.5646501 0.38973001 5.54142 9996657
1.56653 0.39607099 5.53894 10786952
-0.57625401 0.37577301 5.5416198 7561793
-0.53754997 0.38557699 5.5273399 7429954
-0.512707 0.391781 5.5074201 7627848
-0.499244 0.39323801 5.5087299 7824714
-0.49128199 0.3924 5.5140901 7758920
-0.23054899 0.47926301 5.3368201 7364417
-0.214174 0.48636401 5.3163199 7824969
-0.215693 0.484052 5.3206 7627591
-0.206517 0.48373201 5.3190799 7759177
-0.189285 0.482959 5.3190498 7890762
-0.152981 0.482187 5.3234 8022091
-0.141537 0.48110199 5.3228898 6048302
0.165497 0.40665001 5.4990902 8876099
0.17458899 0.41080901 5.4927101 7100213
0.19595601 0.40517199 5.50249 6179117
0.212106 0.402677 5.5084701 8612931
0.30020201 0.36979201 5.5771298 6770732
0.93465197 0.33811599 5.65242 6250073
0.936248 0.34295699 5.6428199 6447451
0.95329303 0.34825799 5.6381998 4671041
0.96068799 0.348169 5.6352901 4802628
0.96124601 0.34833899 5.6350498 4737092
0.97154403 0.348286 5.6347399 2236703
0.97141498 0.34822601 5.6347299 2302496
0.97890002 0.34830001 5.6311898 986638
0.98033398 0.34828001 5.6339002 986638
0.98795301 0.348205 5.63234 1249809
1.02693 0.39487201 5.5478802 789516
1.03522 0.394797 5.5463901 460552
1.17313 0.43970099 5.4472499 723723
1.17451 0.43630901 5.4493799 789516
1.1762 0.44527501 5.4416299 2039324
1.18258 0.44938999 5.4284201 5921110
1.19096 0.45544899 5.4201398 6249818
1.1904 0.46084601 5.4064202 5131593
1.20454 0.46234599 5.4033499 5066057
1.38785 0.41562101 5.50247 8348687
1.38914 0.41991401 5.4984899 8282895
1.3963701 0.41880399 5.5055599 8348686
1.40687 0.41843501 5.4957199 8676874
1.42379 0.41447401 5.5078402 8939531
1.55876 0.396974 5.55373 10258528
1.56538 0.39682701 5.5517998 9865329
1.56222 0.40270701 5.5398898 10326139
-0.53213602 0.39229801 5.5281501 7496261
-0.27818999 0.47251901 5.3538098 7364416
-0.26516199 0.474702 5.3481698 7364417
-0.24801099 0.479902 5.3435998 7364418
-0.239375 0.47984701 5.3436098 7364418
-0.22318199 0.484999 5.3310699 7561541
-0.197101 0.48816901 5.3204298 8022092
-0.143938 0.488877 5.32691 6310961
0.16301399 0.41274801 5.5019498 9007683
0.16943599 0.41284099 5.4997501 7954747
0.20398 0.40774399 5.5072899 6442031
0.21979301 0.40483499 5.5150299 8876357
0.911937 0.32390499 5.7053399 5460299
0.911937 0.32390499 5.7053399 5460299
0.91669297 0.32791501 5.7005601 5262661
0.92334199 0.33232 5.6830201 3618352
0.931898 0.33787301 5.67061 5065800
0.93378198 0.347462 5.65241 6250329
0.93283898 0.35582101 5.6410799 5855571
0.94477201 0.35195899 5.6387601 4605248
0.95433903 0.35202301 5.63867 4736578
0.96089602 0.35600901 5.63907 4407872
0.97041398 0.355869 5.6379499 1381652
0.96690297 0.35494801 5.6382799 2631718
0.97856897 0.355849 5.6361499 1118224
0.97606403 0.35496399 5.6379299 921101
0.98134601 0.361301 5.6318402 1184016
1.1665601 0.44428501 5.45856 789517
1.17094 0.441329 5.4543099 789516
1.1719 0.448136 5.4507699 855309
1.17489 0.457313 5.4333601 7039590
1.18603 0.455145 5.4243798 7105127
1.1775 0.465482 5.4132199 5328973
1.18256 0.47017401 5.4032001 5197386
1.1841 0.46285301 5.4112802 5197386
1.19592 0.46718699 5.4064202 5197386
1.24448 0.46639299 5.4151902 5131593
1.25112 0.46615601 5.4116402 5065800
1.26395 0.462495 5.4140301 5197130
1.26559 0.469064 5.4072299 5526351
1.27432 0.46732801 5.4050598 5263178
1.3995301 0.42353901 5.5053601 8282896
1.40394 0.42370301 5.5111299 8282897
1.42031 0.42266601 5.5074401 8676619
1.44274 0.418329 5.52421 9005323
1.54576 0.40166399 5.5557199 10058542
1.55226 0.407626 5.54182 10391671
-0.56591201 0.38866699 5.5430198 7298880
-0.56187099 0.39042199 5.5419202 7364417
-0.554887 0.38828301 5.5384202 7364417
-0.55601001 0.394777 5.5339398 7496259
-0.54866302 0.392223 5.5311699 7430466
-0.455062 0.39389101 5.5327802 7232067
-0.302111 0.46897799 5.3728299 7364674
-0.26502699 0.48139101 5.3534398 7430210
-0.25575101 0.48063201 5.34866 7364417
-0.255981 0.489402 5.34091 7562054
-0.24953 0.492612 5.3327699 7759178
-0.216314 0.49164301 5.33494 7890506
-0.20581099 0.49195299 5.3377099 7956298
-0.203366 0.49047801 5.3281298 8153678
-0.14994401 0.49240401 5.33635 6377011
0.164454 0.41978899 5.5026898 8744769
0.167982 0.41536 5.5004802 8283966
0.173618 0.41897401 5.4994602 6375980
0.214132 0.41213301 5.5148702 7034418
0.917656 0.329429 5.7135 5328712
0.91894603 0.33584201 5.70296 4407611
0.93179899 0.34721601 5.66781 6184281
0.94304699 0.36360899 5.6450901 4539713
0.951648 0.36360601 5.6438098 4736835
0.96670097 0.36262399 5.6417799 1381395
0.96049899 0.36365399 5.6430898 3157805
0.97887498 0.361673 5.6399598 1118224
0.97405303 0.36255601 5.6389399 1052431
1.03124 0.40203601 5.5521698 460553
1.16092 0.44745299 5.46245 723724
1.16456 0.45195299 5.4565401 657674
1.16881 0.45789501 5.4488301 4868425
1.16839 0.45648101 5.4510698 3157807
1.17076 0.448872 5.4539399 657930
1.18426 0.46040201 5.4316201 6841954
1.17612 0.47290099 5.4094501 5263179
1.21766 0.47173801 5.4146299 5066057
1.22655 0.47255501 5.4158702 5066057
