# .PCD v0.7 - Point Cloud Data file format
VERSION 0.7
FIELDS x y z rgb
SIZE 4 4 4 4
TYPE F F F U
COUNT 1 1 1 1
WIDTH 1325
HEIGHT 1
VIEWPOINT 0 0 0 1 0 0 0
POINTS 1325
DATA ascii
1.71399 1.48456 8.08496 9142647
2.25982 1.4837101 8.0840302 9603199
2.2721801 1.48339 8.1041698 9866371
2.2899001 1.48786 8.0949001 10919061
2.28877 1.48725 8.0934896 10787475
2.3252699 1.4845001 8.1027699 13879751
2.34548 1.48594 8.1345797 13814216
2.3368101 1.48426 8.12992 13880008
2.3568699 1.48613 8.1342001 13814472
2.34519 1.4927 8.1223497 13945545
2.3680501 1.48641 8.1331301 13748422
2.3787501 1.48691 8.1317997 13616837
2.3903301 1.48689 8.1284103 13353665
2.40468 1.4858201 8.1224403 12695992
2.4245501 1.4867899 8.1175499 12432819
2.4370501 1.48658 8.11413 12301233
2.4457099 1.48912 8.1115303 12827577
2.4553299 1.48585 8.1077099 12235440
2.4642701 1.48703 8.1057796 12432819
2.47419 1.48744 8.10217 12498355
2.4870601 1.47838 8.09725 12695992
2.50053 1.4773901 8.0865402 12695991
2.5147901 1.47649 8.0784798 12564662
2.5293701 1.47703 8.0772896 12564148
2.56599 1.4842401 8.1132298 12893113
2.5778 1.48973 8.1055698 12367026
2.59147 1.48792 8.1100302 12827834
2.6050301 1.48039 8.1126604 13748679
2.6163099 1.47732 8.0910301 13683143
2.63798 1.47674 8.0795698 13814728
2.65698 1.47624 8.0450802 13617606
2.6661301 1.46815 8.0081196 13748936
2.90611 1.48496 8.0755301 13880780
-0.53006899 1.38472 7.5074701 13549749
-0.50342703 1.38714 7.51162 12559463
-0.49789801 1.39072 7.5051999 12426575
-0.493512 1.3832901 7.5036802 12359992
-0.489838 1.38465 7.50209 12425776
-0.42875999 1.3781199 7.4407601 12030751
-0.306591 1.35244 7.3436799 9004292
-0.29462901 1.3598 7.3514199 8806662
-0.24445499 1.3564399 7.3419199 7556613
-0.23380101 1.3584599 7.3400602 7490820
-0.225866 1.35989 7.3530998 7688195
-0.207185 1.36026 7.37743 8214791
-0.19652 1.36099 7.3807201 8082951
0.180024 1.26844 6.84234 5265468
0.19663399 1.26552 6.84266 3625294
0.218173 1.26252 6.8334799 3822669
0.22433101 1.26396 6.8373199 3690827
0.242385 1.26763 6.8427 3099208
0.234247 1.26402 6.8410501 3493705
0.244001 1.27352 6.8545098 2902089
0.25868601 1.26838 6.8617401 2639430
0.269936 1.26932 6.8452702 2573639
0.28746799 1.27039 6.8341298 2770503
0.30174699 1.26572 6.84236 3756101
0.318461 1.2736 6.8465199 4216391
0.311147 1.26719 6.8438401 3887685
0.31774899 1.27112 6.8502998 4085061
0.33175999 1.27406 6.8955202 4740931
0.34195799 1.27387 6.8947701 4872775
0.35807499 1.27785 6.9050102 5201484
0.38663799 1.2789299 6.9219999 5136720
0.428617 1.2740099 6.8886399 4151641
0.441854 1.27926 6.89326 2836307
0.45109901 1.27483 6.8991098 3099995
0.48467699 1.28531 6.93998 4940638
0.61362302 1.47035 7.98943 6443321
0.63384902 1.4716001 7.99472 6443321
0.65937698 1.47708 8.0261602 6509116
0.665398 1.4754 8.0235796 6509116
0.68057698 1.48155 8.01754 6838338
0.69296199 1.47425 8.0233803 6509371
0.69615102 1.47847 8.0252399 6706751
0.700629 1.47685 8.0204201 6640958
0.72790802 1.4708101 7.9840202 6772545
0.75452501 1.47168 7.9854002 7167561
0.75953698 1.47439 7.9892902 7364684
0.78226203 1.47164 8.00177 7364683
0.78995299 1.47087 8.0036201 7364684
0.79479599 1.47236 8.0113802 7430477
0.81416899 1.47486 8.0269098 7562064
0.95476502 1.47815 8.0285702 7496529
0.997136 1.4734499 8.0142202 7496272
1.02823 1.47558 8.0040598 7562062
1.0396 1.47716 7.9972501 7562064
1.05083 1.4736 8.0129099 7496269
1.06637 1.47797 8.0172997 7364685
1.07822 1.47847 8.0149698 7430478
1.0894099 1.47811 8.0078297 7364685
1.10578 1.48186 8.0153599 7430479
1.1351399 1.47603 8.0286303 7101769
1.1308399 1.4808 8.0141802 7496529
1.1428699 1.48053 8.0223198 7496529
1.20715 1.48087 8.0443096 7562066
1.21838 1.47919 8.04111 7430480
1.21927 1.4806499 8.0439196 7430480
1.2353801 1.48124 8.0481596 7101516
1.25507 1.48081 8.0365896 7035979
1.27441 1.48378 8.0325098 7036236
1.29398 1.4813 8.0541697 6312771
1.29096 1.48989 8.0464001 7167823
1.31274 1.48308 8.0699701 6378053
1.34077 1.47945 8.0276899 6575946
1.35176 1.4805599 8.01021 6707533
1.38679 1.47804 8.0056 7102035
1.40523 1.47711 8.0196104 7102549
1.42366 1.4852901 8.0207596 7892323
1.4243799 1.47856 8.0436296 7563101
1.42427 1.47817 8.0422401 7497565
1.44054 1.48516 8.0354099 8221288
1.44042 1.48566 8.0368404 8221288
1.7035201 1.49261 8.0943604 9076597
1.7516201 1.4803801 8.0014 9208440
2.3065901 1.4926 8.0864 12892854
2.30514 1.49251 8.0857601 12695474
2.3232901 1.48896 8.0959196 13814215
2.35359 1.49482 8.1291103 13880265
2.3636899 1.49586 8.1318598 13945802
2.37342 1.4969701 8.1319103 13880009
2.3729501 1.49716 8.1328602 13880009
2.38397 1.49753 8.1304302 13880009
2.3976099 1.49632 8.1229696 13880009
2.4097099 1.49509 8.1120701 13814472
2.4295599 1.49765 8.1171198 13945801
2.4247799 1.50032 8.1252003 13945802
2.4400101 1.4980201 8.11304 13880265
2.45139 1.4986 8.1093597 13880265
2.46052 1.49562 8.1065302 13616836
2.4732201 1.49806 8.09587 13682630
2.49211 1.49949 8.0973396 13419714
2.4942999 1.49949 8.0949802 13419714
2.4844999 1.48904 8.09834 12367026
2.49911 1.4893301 8.0936804 12038061
2.50913 1.48877 8.0888796 12037804
2.5239 1.48805 8.0826902 11906475
2.5475199 1.49017 8.0900402 11906218
2.5591099 1.49168 8.0901699 11972011
2.57445 1.4901201 8.0701799 11775145
2.5910699 1.494 8.0830297 12103854
2.6050999 1.49044 8.10186 12893370
2.6184399 1.49233 8.0873003 12827577
2.6299601 1.48835 8.0871801 13288128
2.64094 1.48689 8.0718203 13419456
2.6514201 1.4896801 8.0649595 13288384
2.6626101 1.48785 8.0520096 13354178
2.6766601 1.4796799 8.0329599 13617350
2.6907499 1.48719 8.0401497 13551813
2.7091999 1.49242 8.05723 13683399
2.7256501 1.48716 8.0864697 13815242
2.7267101 1.48988 8.0432997 13749193
2.7369599 1.48564 8.0407104 13814986
2.8674901 1.49771 8.0973101 13617864
2.8777699 1.49942 8.1000404 13617351
2.88851 1.49678 8.0825396 13617607
2.9127901 1.49273 8.0597897 13749193
-2.02599 1.45758 7.8551602 8945526
-1.9935 1.4686 7.9381099 13814213
-1.9746799 1.46849 7.91993 13616835
-0.51363701 1.39253 7.5092902 13417379
-0.49162701 1.40248 7.5097399 12425525
-0.48146299 1.39542 7.5008402 12622374
-0.40061101 1.38061 7.42137 10583316
-0.397425 1.37479 7.4088101 10583317
-0.30721799 1.36535 7.3544302 8938247
-0.29624099 1.37292 7.3646898 8214534
-0.26951799 1.37123 7.3755999 7358980
-0.25024799 1.3713 7.3552499 7227396
-0.22055 1.3674901 7.3640699 7490821
-0.21222 1.36967 7.3738799 7556357
-0.20390999 1.37195 7.3887 7358980
-0.184912 1.3695101 7.3690901 6832386
-0.16723301 1.36792 7.34865 6635010
-0.147067 1.36338 7.3158898 6700802
0.19831499 1.27671 6.8422799 3888213
0.23458201 1.27368 6.8214502 3493965
0.24458601 1.2743 6.8214502 3231053
0.26564699 1.27372 6.8232398 2507592
0.27908799 1.27657 6.8238902 2178885
0.29898301 1.27215 6.82442 3033415
0.30811301 1.27345 6.8377199 3887946
0.32204601 1.27795 6.86273 4544840
0.333242 1.2899899 6.8858199 5398350
0.341876 1.29058 6.89116 5529678
0.414754 1.28479 6.8872099 5005398
0.42499 1.2847199 6.8853202 4808536
0.438642 1.29127 6.8976898 4216919
0.457479 1.29198 6.9068799 3493715
0.619537 1.47952 7.9837699 6640701
0.63072997 1.4814 7.9875598 6903874
0.64287001 1.48119 7.98774 7101253
0.65442199 1.4813 7.9896498 7101511
0.66535598 1.48474 8.0097103 7167305
0.68078101 1.48966 7.9960999 7562064
0.69551301 1.488 8.01194 7364683
0.70604199 1.4832799 7.9763999 7364685
0.72233403 1.4897 7.9900699 7562065
0.73892599 1.48096 7.98771 7496270
0.75827301 1.48044 7.9710398 7627856
0.96850502 1.48483 8.0025196 7562322
0.98813599 1.48525 8.0128298 7562066
1.00416 1.4804 7.9777899 7562322
1.0289 1.48612 7.9903002 7562578
1.0236 1.48232 7.9854298 7627858
1.04957 1.48184 7.9905701 7562322
1.07226 1.4895 8.0177498 7562322
1.0849299 1.49324 8.02036 7628116
1.12069 1.4899499 8.00453 7694165
1.11299 1.49321 8.0082798 7825238
1.13076 1.48877 7.9994001 7694165
1.1516 1.48625 7.9896102 7694166
1.196 1.49317 8.0508204 7759447
1.2374901 1.49272 8.03757 7628118
1.25578 1.48596 8.00945 7496788
1.27437 1.49428 8.0241299 7759961
1.2860301 1.4873199 8.0254202 7299666
1.30273 1.48987 8.0459995 7167824
1.31086 1.49193 8.0515404 7233618
1.30876 1.49874 8.0341797 7760219
1.31906 1.49638 8.02668 7760219
1.33005 1.4878401 8.0268097 7299412
1.34112 1.4905 8.0185099 7496792
1.39511 1.48794 8.0166101 7760223
1.40521 1.4847701 8.0014296 7826273
1.42347 1.49279 8.0017796 8089702
1.45702 1.49194 8.0277996 8353132
1.45663 1.49265 8.0293398 8353132
1.75087 1.49173 8.0001297 9142391
2.2876899 1.49541 8.0692701 10524559
2.3054099 1.50114 8.0707302 12629681
2.3229101 1.49672 8.0762901 13813959
2.385 1.50423 8.11938 13880265
2.4045401 1.50418 8.1065598 13814472
2.4118299 1.50774 8.1194496 13880265
2.4226401 1.50808 8.1168804 13880265
2.4414899 1.51003 8.1124096 13946058
2.4339399 1.5080301 8.1118698 13946058
2.45632 1.5078599 8.0979204 13945802
2.46736 1.50807 8.0948696 13946058
2.47873 1.50851 8.0950603 13880265
2.4895799 1.50907 8.0934601 13946058
2.4893799 1.50875 8.0959997 13946058
2.50072 1.50931 8.09126 13946058
2.5046501 1.49936 8.0932302 13287872
2.5133801 1.5086499 8.0864401 13880265
2.5245199 1.50885 8.0842304 13880265
2.5188401 1.49898 8.0882101 13024956
2.52968 1.49825 8.0797796 12958906
2.54142 1.49906 8.0828304 12366769
2.56094 1.50094 8.0795498 12235183
2.5864699 1.49992 8.0715799 11906219
2.5966401 1.49989 8.0662899 11906475
2.6147699 1.5007401 8.0724401 12038061
2.63274 1.49762 8.0741796 12695991
2.6431701 1.49621 8.0585804 12827320
2.65623 1.4977601 8.0510998 12761784
2.67029 1.49808 8.0515404 13025213
2.6765399 1.49271 8.04039 13288385
2.6905 1.4994299 8.0436802 13025469
2.7021599 1.50169 8.0516396 13222848
2.7131 1.50165 8.0458002 13420227
2.7349801 1.49798 8.0401297 13749193
2.74705 1.49731 8.0324802 13749194
2.75735 1.49786 8.0296097 13814730
2.7837501 1.49315 8.0430002 13749450
2.84798 1.49918 8.0701399 13683400
2.8819399 1.5063 8.0799704 13551813
2.9026599 1.49867 8.0747299 13551814
-0.52101398 1.40345 7.5102501 13417903
-0.49701399 1.41383 7.5154099 12557897
-0.47105801 1.4046201 7.4918199 12754212
-0.42503101 1.39244 7.4474001 11767323
-0.39153799 1.3898799 7.4145999 10517268
-0.322543 1.38174 7.35109 8082178
-0.30821401 1.3787 7.3678699 7819524
-0.29147801 1.37986 7.3732901 7227393
-0.262512 1.38605 7.3682699 7424773
-0.19438601 1.38134 7.3856802 7029763
-0.190394 1.3812701 7.37644 7095811
-0.169982 1.37751 7.3494501 7161348
0.15121301 1.29688 6.8745899 9469726
0.165906 1.29456 6.8638301 8352557
0.192742 1.28739 6.8501401 4478805
0.206083 1.28651 6.84097 3888213
0.21814699 1.28492 6.8379598 3888468
0.22940899 1.28455 6.8294902 3691603
0.24010301 1.28443 6.8224301 3494228
0.24715801 1.28659 6.82934 3033936
0.25902799 1.2859499 6.81988 2376266
0.279661 1.2840199 6.8208799 2113350
0.29142299 1.2836 6.82479 2244422
0.32055101 1.28386 6.842 4742223
0.428601 1.29633 6.8787098 5071705
0.44296101 1.30045 6.9018798 4809051
0.48951399 1.31609 7.00949 6646854
0.63415802 1.49244 7.9928699 7693648
0.648543 1.49103 7.9864802 7759442
0.65936202 1.4937299 8.0027905 7759443
0.66294199 1.49703 7.9976001 7693652
0.69128501 1.49559 7.9628401 7562064
0.72059101 1.49958 7.9864202 7496273
0.74698597 1.48859 7.97014 7627857
0.75811899 1.4927599 7.96942 7628113
0.99797702 1.49324 7.9858298 7628116
1.01659 1.49535 7.9854102 7693909
1.04233 1.49272 7.9649601 7693909
1.0675 1.49533 7.9927201 7693652
1.1478699 1.48824 7.9312301 7825497
1.16345 1.48439 7.9219499 7825497
1.18507 1.49707 8.0061398 7759704
1.197 1.50324 8.0037498 7891290
1.2195801 1.50172 8.0356903 7759704
1.28566 1.49828 8.01968 7759962
1.3003401 1.50912 8.03267 7957598
1.32261 1.49762 8.0240602 7825756
1.33661 1.4953901 8.0006304 7826013
1.37319 1.49305 8.0012197 7760479
1.3823 1.49858 7.99124 8089187
1.40315 1.4933701 7.9864702 8154981
1.39917 1.49853 7.9741702 8220774
1.43484 1.50222 8.0011902 8287081
1.75021 1.49253 7.9826899 9142391
1.75493 1.48958 7.9530902 9076855
2.2811999 1.50369 8.0448503 9997958
2.2883301 1.50442 8.0566397 10590096
2.29773 1.51002 8.0391197 11511455
2.3057799 1.50921 8.0534601 12564145
2.32464 1.50614 8.0673504 13879751
2.47135 1.52187 8.1075401 13814472
2.4853799 1.51674 8.0796404 13814729
2.48785 1.51684 8.0896702 13946058
2.50015 1.5164 8.0813503 13946058
2.51531 1.52078 8.0901098 13946058
2.5315199 1.51828 8.0795603 13945802
2.54301 1.51834 8.0773296 13945802
2.5360899 1.50884 8.0815601 13879752
2.5476 1.50888 8.0792103 13748166
2.5700099 1.50889 8.0692902 13288128
2.5836101 1.50799 8.0660801 12827577
2.5815001 1.50884 8.0649996 13090749
2.59358 1.50824 8.0590496 12761784
2.60533 1.50754 8.0535202 12432563
2.60425 1.5093 8.0633497 12432819
2.61849 1.5094301 8.0591097 11774889
2.6306901 1.50711 8.0515099 11380387
2.6423199 1.5075901 8.0534697 11248288
2.6517 1.51227 8.0481396 10853532
2.6646399 1.50761 8.0492496 11314339
2.67519 1.51326 8.0464802 10854045
2.70632 1.51191 8.04601 12235954
2.7248499 1.50265 8.0452204 13617606
2.71719 1.51157 8.0383997 12498870
2.7332001 1.5058399 8.0329704 13486020
2.7406001 1.50813 8.03547 13486020
2.7521601 1.5079401 8.0301199 13551557
2.7634201 1.50787 8.0251503 13551557
2.76687 1.49933 8.03022 13814729
2.77303 1.50878 8.0232897 13485764
2.77491 1.50182 8.0342903 13749193
2.7913599 1.5088201 8.0229702 13683400
2.80147 1.50783 8.01614 13683399
2.83393 1.50704 8.0499001 13749449
2.8454199 1.50604 8.0441399 13749450
2.8744099 1.50946 8.0839596 13617607
2.8601201 1.5116301 8.0412903 13749449
2.8805201 1.51555 8.0641499 13880778
2.90804 1.50993 8.0760498 13354691
2.8991599 1.51343 8.07547 13486277
2.9225199 1.51481 8.0697203 13486021
-0.51496297 1.41591 7.51476 13548970
-0.48988101 1.42494 7.5173898 12688179
-0.46924701 1.41055 7.4928498 12819748
-0.43378001 1.4032 7.4542499 12490526
-0.39625999 1.3992 7.4123201 11043608
-0.32289699 1.39052 7.3354301 8872199
-0.29638499 1.39026 7.3743701 7556356
-0.276254 1.39361 7.3634501 7885317
-0.186793 1.3929501 7.3838401 7687684
0.16189601 1.30284 6.8586001 9272606
0.185866 1.2975301 6.8576698 4675148
0.20313101 1.2956899 6.8401499 3624786
0.221388 1.29546 6.8339701 3230543
0.23199999 1.29547 6.8276901 2902092
0.24450099 1.29565 6.8241401 2441290
0.25296 1.29704 6.82622 2178119
0.27653399 1.29225 6.8187699 2968401
0.29832101 1.29198 6.82235 2835788
0.311544 1.2905101 6.8288598 4084560
0.3204 1.29101 6.8329501 4873555
0.32958001 1.2913899 6.83673 5267536
0.43393499 1.304 6.8862801 5203033
0.44396299 1.3120199 6.9095702 5006169
0.48652101 1.32797 7.0090199 7237951
0.62174499 1.49628 7.9228802 7693907
0.64372802 1.50016 7.9703698 7693907
0.65946603 1.4973 7.9428701 7759444
0.67327303 1.49385 7.9440098 7627858
0.68912899 1.5023299 7.9415598 7562321
0.70592201 1.49711 7.9605198 7496272
0.77719998 1.49428 7.9146299 7562321
0.79140103 1.49512 7.9315701 7693906
1.01434 1.50991 7.9951901 7759446
1.1752 1.49371 7.9214101 7891546
1.16751 1.49635 7.9235501 7891546
1.18475 1.49274 7.9193201 7891290
1.20178 1.4972301 7.9595699 7891290
1.19863 1.49687 7.94519 7891290
1.21348 1.50899 7.9732299 7891547
1.23308 1.51114 7.9997101 7891547
1.27782 1.5107501 8.0196104 7957341
1.2958 1.51413 8.0004797 7957342
1.33394 1.5104001 8.0143204 8023649
1.36045 1.50518 8.0043001 7892065
1.3818901 1.5055799 8.0002699 8089187
1.3874201 1.50739 7.9753098 8286566
1.42506 1.50252 7.9908099 8221288
1.43761 1.51542 8.0111799 8353131
1.75922 1.50015 7.9604602 9076855
1.76613 1.50576 7.9502301 9076855
2.26614 1.51343 8.01507 9603200
2.28146 1.5128 8.0291901 9932422
2.2681899 1.51327 8.0179005 9603200
2.28176 1.5117199 8.0297804 9997958
2.2978101 1.5180399 8.0227003 11774628
2.3134201 1.51483 8.0303297 13287613
2.3269899 1.51053 8.0293903 13880008
2.3222401 1.51626 8.0021 13682628
2.55388 1.5187 8.0752897 13946059
2.5594599 1.52826 8.0697002 13946059
2.56708 1.51771 8.0689497 13946059
2.5731101 1.5273401 8.0633202 14011595
2.57816 1.51784 8.0653601 13945802
2.58936 1.51792 8.0620298 13880009
2.5994599 1.51766 8.0538301 13814473
2.6006401 1.5179501 8.0585299 13748680
2.6106701 1.51811 8.0508604 13551557
2.6113999 1.5187401 8.0555296 13682886
2.6224699 1.5193 8.0528202 13288128
2.6402099 1.51782 8.0469398 12169647
2.65131 1.52205 8.0410995 13156800
2.6642599 1.51738 8.0422497 11314340
2.67518 1.52275 8.0376701 12301747
2.6856301 1.5190001 8.0440702 10788508
2.69576 1.5196 8.04317 10656922
2.7239699 1.51941 8.0370998 11051680
2.7349 1.5185 8.0367699 11643560
2.7467501 1.51834 8.0318499 11841195
2.76808 1.51828 8.0215302 12235697
2.7842 1.50892 8.0202904 13617606
2.7851901 1.51764 8.01756 12762041
2.7976999 1.51713 8.0152102 13025470
2.80955 1.51753 8.0144701 13288384
2.8110399 1.50942 8.0191803 13683399
2.82389 1.50938 8.0160398 13748936
2.8420501 1.5195301 8.0179501 13683399
2.8352301 1.50916 8.0121298 13749193
2.8610699 1.5166399 8.03444 13815242
2.8610699 1.5166399 8.03444 13815242
2.8826799 1.52386 8.0473299 13946315
2.8934 1.51825 8.0566196 13814986
2.90643 1.52099 8.0500402 13814986
2.9175301 1.5217299 8.0534601 13814986
2.9293499 1.52016 8.0443201 13749193
2.9524801 1.50582 7.9931798 13749194
-2.0288799 1.48185 7.7985301 8879733
-2.02917 1.4834 7.8356299 8945527
-2.02543 1.4831001 7.8249898 9077113
-0.50131398 1.42528 7.5149999 13085297
-0.48052099 1.42373 7.5096598 12885286
-0.43705401 1.42423 7.4700599 13016085
-0.38860801 1.40444 7.402 11043349
-0.38442001 1.41495 7.4076099 10648077
-0.276463 1.40356 7.3509002 8608773
-0.26281199 1.39604 7.3559899 8148485
0.168937 1.31313 6.8582602 8813350
0.182019 1.3059601 6.8505301 5331005
0.191717 1.30697 6.8549099 4675920
0.202711 1.30756 6.8480501 4019027
0.21496899 1.30655 6.8394899 3953746
0.238838 1.30656 6.8267398 3361357
0.24871901 1.3070101 6.8260102 2769480
0.269171 1.30193 6.8227401 2901838
0.280146 1.30171 6.8231602 3625816
0.30282 1.3013901 6.8269501 3032395
0.31292301 1.30171 6.83005 4413267
0.315312 1.2999001 6.8326602 4479572
0.320813 1.3087699 6.8334799 5005140
0.46935999 1.33532 6.9773302 5071967
0.48448801 1.33561 6.9966202 6778179
0.61516702 1.50603 7.9136 7562582
0.63185698 1.50365 7.9388099 7693908
0.62442398 1.50861 7.9320002 7628117
0.63984299 1.50404 7.9325299 7693652
0.65023398 1.50402 7.9307399 7628116
0.64953601 1.5044399 7.9323702 7628116
0.65032399 1.50457 7.9346099 7628116
0.67254901 1.50423 7.9293599 7627859
0.68808001 1.50945 7.9295702 7562322
0.70254499 1.50298 7.93328 7562321
0.71440899 1.51056 7.9262099 7562323
0.72555101 1.50947 7.9380298 7562322
0.72657698 1.51057 7.9264598 7562323
0.72814202 1.50639 7.9545498 7627858
0.76174498 1.50433 7.9197102 7627858
0.80631399 1.4991601 7.9124799 7693651
0.80614197 1.4992501 7.9135098 7693651
0.82086998 1.50346 7.9049201 7627858
0.82001698 1.50284 7.9020901 7627858
0.82001299 1.50289 7.90237 7627858
0.82001299 1.50289 7.90237 7627858
1.21055 1.50999 7.9590001 7957083
1.21821 1.51054 7.9228301 8023132
1.21772 1.51118 7.9263902 8023132
1.2278301 1.51736 7.9675202 8023133
1.33584 1.52443 7.9907098 8023394
1.3694299 1.51766 8.00418 8089187
1.39849 1.5099601 7.967 8352359
1.4274 1.5151401 7.9974098 8353130
1.4274 1.5151401 7.9974098 8352874
1.7653 1.51524 7.94207 9011061
1.7713701 1.5161 7.9484601 9076854
1.78678 1.5044399 7.9285698 9142648
1.7954201 1.50302 7.91501 9208440
2.2505701 1.5241801 7.9920001 9668993
2.24476 1.51217 7.9724398 9537664
2.2634301 1.52066 7.9969001 9735043
2.2832501 1.51941 8.0109596 10392717
2.2807 1.52 8.0084105 10261132
2.28039 1.5196199 8.0109301 10195338
2.29635 1.52518 8.0016804 12366511
2.3108301 1.52154 8.0068598 13287870
2.3222201 1.5243 7.98628 13945801
2.58337 1.52915 8.0682802 13946058
2.5741501 1.53327 8.0495396 13946059
2.5941401 1.52946 8.06388 13946058
2.6048 1.52973 8.0589895 13946059
2.6152999 1.53012 8.0552998 13946059
2.6285501 1.5289 8.0475998 13946058
2.6398399 1.52886 8.0434303 13880522
2.66412 1.53312 8.0354099 13815243
2.6756101 1.53308 8.0342798 13946316
2.68929 1.52791 8.0331602 13288385
2.7011299 1.52943 8.0396299 12630456
2.71754 1.52628 8.0198603 12170160
2.71631 1.52856 8.0373201 11841196
2.72948 1.5286601 8.0330095 11775402
2.74071 1.52824 8.0310898 11709609
2.73542 1.5273499 8.03339 11512230
2.7524199 1.52856 8.0278502 11446181
2.7637 1.5283099 8.0216999 11314595
2.77652 1.52862 8.0199404 11183265
2.78895 1.5279 8.0193501 11183009
2.80037 1.52791 8.0184402 11314851
2.81252 1.5278 8.0160799 11709353
2.83688 1.5274 8.0102901 12696248
2.8492701 1.52781 8.01087 13156799
2.86022 1.52169 8.0167799 13814985
2.8714299 1.5219001 8.0122204 13880522
2.88274 1.52214 8.00914 13880778
2.8933001 1.52256 8.0087299 13880522
2.9086599 1.52258 8.0097904 13814986
2.9307899 1.52273 7.9974399 13749449
2.9503701 1.5149 7.9505301 13815243
2.9583099 1.52084 7.9845099 13815243
3.02898 1.51908 7.9654102 13880779
-2.03895 1.48358 7.7632198 8748148
-2.02755 1.48895 7.7787199 8879734
-2.02034 1.48884 7.8070798 9603458
-2.0151401 1.5039901 7.8355298 13813957
-0.49562001 1.43659 7.5181999 13741658
-0.49079299 1.43445 7.51159 13740877
-0.467439 1.43406 7.5085201 13410580
-0.45890999 1.4406199 7.49122 14199566
-0.4307 1.43533 7.4631 13475341
-0.39504799 1.41475 7.4006801 11766289
-0.38966501 1.42488 7.4080601 11239690
-0.37453699 1.42251 7.3921599 9858564
-0.28010699 1.4076999 7.3301301 9135368
-0.28324899 1.40212 7.3225598 8871942
-0.27272701 1.4092 7.3585 8872199
0.175898 1.31986 6.86131 8024623
0.19041 1.31691 6.8608499 4938317
0.20159 1.31539 6.8487101 4413781
0.221036 1.31785 6.8390498 4874071
0.244367 1.31622 6.8261199 4808279
0.25440499 1.31659 6.8248701 4347988
0.25427201 1.31662 6.8249602 4413524
0.26489601 1.31672 6.8226299 3426890
0.264806 1.31672 6.8228798 3426890
0.28399101 1.31138 6.82867 3098959
0.29629999 1.31085 6.8288598 2900807
0.295775 1.3133301 6.8335099 2966599
0.29864201 1.31902 6.8341498 4018768
0.30951199 1.32017 6.8404999 4874070
0.326287 1.31768 6.83459 5268051
0.47433701 1.34473 6.9806499 5398862
0.48035499 1.34442 6.9916501 6908991
0.60127598 1.51501 7.9084101 10128513
0.63272399 1.5139199 7.9303098 7693911
0.62444299 1.51921 7.9246001 9141359
0.65152597 1.52281 7.9246898 9470323
0.64586598 1.51335 7.92838 7562581
0.65823901 1.51299 7.9265199 7562580
0.65718901 1.51319 7.92693 7562580
0.66705602 1.5138299 7.92732 7628117
0.67907798 1.51362 7.9250898 7627861
0.692765 1.51898 7.9235301 7956827
0.70378798 1.51309 7.9253802 7496531
0.72033101 1.51981 7.9214301 7957084
0.73279202 1.5197001 7.9212999 7957084
0.74423897 1.5143501 7.92098 7628118
0.75839299 1.51904 7.92659 7891547
0.75777203 1.51665 7.9219198 7759704
0.75736302 1.51141 7.8940201 7628118
0.775693 1.51254 7.92101 7693654
0.77744198 1.51316 7.9239101 7693654
0.78856701 1.51727 7.9186702 7891290
0.78959501 1.5172 7.9186101 7891033
0.80561799 1.51343 7.9293399 7627859
0.80582398 1.51332 7.9280601 7627859
0.83806199 1.50916 7.8924499 7693652
0.839145 1.5066 7.8719001 7693653
0.839145 1.5066 7.8719001 7693653
1.34733 1.53131 8.0198402 8023907
1.35418 1.53763 8.0353498 8089444
1.7688299 1.5161999 7.9323502 9011061
1.77762 1.51565 7.9260998 9076854
1.79207 1.51501 7.91221 9142647
2.2516301 1.53309 7.9812398 9800580
2.2646301 1.52974 7.9847698 10458511
2.28054 1.52748 7.99505 11248029
2.28321 1.52723 7.99507 11445664
2.2952499 1.5326999 7.9841099 13419200
2.3071499 1.52986 7.9865198 13682629
2.61128 1.5395 8.05338 13946315
2.62075 1.54011 8.0513897 13946314
2.6336501 1.53883 8.0427504 13814985
2.6440499 1.53974 8.0431099 13880778
2.66977 1.54225 8.0300503 13815242
2.6835101 1.53862 8.03512 13880778
2.6949 1.5386699 8.0350199 13946315
2.70034 1.53605 8.0123301 13814986
2.71275 1.53303 8.0295401 13551557
2.72346 1.53712 8.0246696 13880522
2.7384801 1.5387501 8.0320902 13814729
2.7350399 1.53801 8.0301104 13880522
2.7467999 1.53886 8.0286398 13814472
2.7582099 1.53907 8.0250702 13617350
2.7821701 1.5382 8.0183496 13091006
2.7953899 1.53734 8.01686 12630455
2.8066101 1.5375 8.01472 12301490
2.81795 1.5375299 8.0125904 11643303
2.8287001 1.53783 8.0111399 11314339
2.8417101 1.53738 8.0087004 11248546
2.8540101 1.53743 8.0067301 11380132
2.86572 1.53057 8.0065603 13156799
2.8768001 1.53097 8.0039902 13354177
2.8877201 1.53148 8.00179 13486020
2.89957 1.5306799 7.99612 13551814
2.9090199 1.53204 7.9963102 13486020
2.9192901 1.5283099 7.9983702 13683400
2.93051 1.53308 7.9935198 13420228
2.9412401 1.53004 8.0062399 13880779
2.9456301 1.52779 7.9760199 13683657
2.95734 1.53008 7.9700398 13617864
2.9865999 1.5303299 7.9702001 13814986
3.0136499 1.5328799 7.9886498 13815243
3.0136499 1.5328799 7.9886498 13815243
3.0136499 1.5328799 7.9886498 13815243
3.0207801 1.52773 7.9423599 13815242
3.0308399 1.52685 7.9383101 13815242
3.12029 1.52329 7.92102 13946573
-2.0460701 1.49571 7.76091 8945526
-2.0240099 1.49722 7.7933998 9866887
-0.493839 1.44664 7.49788 14006649
-0.48846301 1.44792 7.5099301 14925634
-0.41093299 1.44494 7.4586902 11108101
-0.404598 1.44303 7.45439 10581765
-0.37579101 1.43427 7.4036798 9398022
-0.38347301 1.43578 7.41119 10055687
0.165673 1.32541 6.8671498 9338655
0.17385 1.3302799 6.8589602 9010211
0.18337899 1.32409 6.8603101 6579258
0.19209599 1.32704 6.86199 5200713
0.25066701 1.32531 6.82197 5005141
0.25174299 1.3247 6.8193698 5005141
0.26681101 1.3275501 6.8341098 4676951
0.27209899 1.32107 6.8337402 3427405
0.28685099 1.31938 6.8334298 3098442
0.30344301 1.33047 6.8495498 5005394
0.316459 1.3276 6.83179 5070930
0.47102499 1.35303 6.9756298 5661256
0.479177 1.35375 6.9815302 7828275
0.48735201 1.3513 6.9973898 9405219
0.61581999 1.52862 7.9025698 12562855
0.63955301 1.5228699 7.9247398 9930618
0.64474797 1.53251 7.9216399 12496803
0.66290802 1.52289 7.9239998 9338481
0.67331803 1.52332 7.9234099 9272945
0.68480498 1.52332 7.9218702 9141359
0.70347202 1.52381 7.9195499 9141359
0.71431398 1.52898 7.9161301 11180944
0.72625101 1.52907 7.9167299 11312273
0.73951799 1.52858 7.9174299 11049101
0.75060898 1.52412 7.9201298 9207153
0.74763 1.52816 7.9148002 11049102
0.758412 1.52876 7.9156399 11378323
0.75438499 1.52705 7.9161901 10654599
0.77558398 1.52185 7.9071598 9733496
0.77664798 1.52215 7.9091501 9733240
0.78956598 1.52711 7.9084902 10785928
0.78855503 1.52701 7.9075398 10851978
0.80560398 1.52271 7.91572 7956826
0.80493999 1.5230401 7.9155402 7957083
0.80581999 1.5226901 7.9149699 7956826
0.82287401 1.52965 7.9054499 8219998
0.82324201 1.52784 7.8978701 8022876
0.83849698 1.5229 7.9012899 7825239
1.34162 1.54272 8.0272198 8089444
1.34857 1.54901 8.0423803 8220773
1.76353 1.52437 7.9155898 8945268
1.77394 1.5219899 7.90413 9011061
1.7843699 1.52191 7.89607 9142646
1.78926 1.52824 7.9067101 9142647
1.79053 1.51898 7.87607 9142647
2.24101 1.5412101 7.9896102 9603457
2.25104 1.54232 7.9658499 9932165
2.26512 1.53795 7.9703798 11116698
2.28071 1.53548 7.9795198 12695476
2.29636 1.54101 7.9710698 13879751
2.3087399 1.53685 7.9683099 13945545
2.6575401 1.54145 8.0053101 13815242
2.6891601 1.54837 8.0337496 13814986
2.7028799 1.5431401 7.9839101 13880779
2.72559 1.54901 8.0331402 13946572
2.7432899 1.5487601 8.02946 13946572
2.75441 1.54758 8.0199099 13946315
2.7653699 1.5478801 8.0187302 14011852
2.7770801 1.54766 8.0163202 13946316
2.7881801 1.5477999 8.0177402 13946316
2.8001499 1.5474401 8.0139999 14012108
2.8115699 1.54742 8.0117197 13946315
2.82304 1.54737 8.0094204 13814729
2.8345301 1.54726 8.0073404 13683143
2.8461399 1.54725 8.0046501 13354178
2.85763 1.5475399 8.0018501 13024956
2.8696401 1.54053 8.0013304 11182753
2.87993 1.54491 7.9964399 10920093
2.89254 1.54037 7.9937901 11380645
2.9038899 1.54044 7.9900799 11709610
2.91415 1.5406899 7.9833202 11709610
2.92573 1.54023 7.9787002 12170161
2.9376299 1.53921 7.9711299 12696505
2.9497299 1.53982 7.9688802 13025726
2.9614899 1.53938 7.9619298 13222849
2.97172 1.5383199 7.95116 13288642
2.9803901 1.5393 7.9654102 13486021
2.99053 1.53764 7.95577 13551814
2.9917099 1.53948 7.9643502 13486277
3.0032899 1.5402 7.9655099 13552070
3.01492 1.5386699 7.95433 13617607
3.0441799 1.53791 7.93999 13749193
3.05551 1.5381401 7.9382601 13749192
3.06038 1.52775 7.9345899 13946573
3.072 1.52704 7.93152 13881036
3.1160901 1.53118 7.9440899 13946573
3.19169 1.53926 7.9651599 14012366
-2.0373499 1.50805 7.75769 8945527
-2.0427799 1.50248 7.7435098 8945526
-2.0271201 1.50655 7.7817001 10853525
-2.0165801 1.52074 7.8102999 13813959
-0.49382901 1.45502 7.4812598 13744529
-0.45903301 1.45259 7.4828 15778574
-0.43809199 1.44723 7.46661 14988045
-0.42995301 1.45478 7.4586802 15317776
-0.426364 1.44741 7.46176 13738505
-0.40941599 1.4523799 7.4511299 11239172
-0.393554 1.45012 7.4368701 9923846
-0.37826401 1.44639 7.4127202 9200645
0.16744199 1.34157 6.8690901 9469975
0.185533 1.33515 6.8631001 7039029
0.20392101 1.34056 6.86624 4479315
0.25121501 1.33691 6.82828 5004882
0.32767701 1.33516 6.8347502 5070930
0.451671 1.36137 6.9786601 4677719
0.46575499 1.36145 6.9726801 5989185
0.47575501 1.36452 6.9834599 9010980
0.48550501 1.36237 6.9977198 9996313
0.56944001 1.53422 7.9004698 11641230
0.61274397 1.5342 7.8858099 12694441
0.62962598 1.54118 7.9148598 12891563
0.620897 1.53837 7.9001098 12760234
0.63984901 1.5416501 7.91675 12891563
0.65136701 1.5417 7.9176302 12891562
0.65060502 1.5419199 7.9179602 12891562
0.663571 1.54186 7.92064 12891819
0.67515999 1.54186 7.91678 12891563
0.68568301 1.5422601 7.91539 12826027
0.690597 1.53294 7.9183998 12233889
0.69781399 1.54198 7.9130201 12825771
0.70206398 1.53295 7.9169302 12167839
0.71328098 1.53306 7.9163499 12299425
0.725438 1.5332 7.91466 12364962
0.72482997 1.54179 7.91152 12891821
0.73798698 1.5333 7.9130301 12430756
0.75175399 1.53802 7.9113498 12826028
0.74905401 1.53705 7.9126401 12760235
0.744394 1.5399801 7.9113102 12891565
0.76213801 1.53882 7.9130998 12826028
0.78668702 1.53496 7.8940001 12826027
0.80489701 1.5320899 7.9011698 10786185
0.80554998 1.53202 7.9025002 10588806
0.805722 1.53157 7.9019699 10523012
0.82283902 1.53766 7.88907 9601909
0.82305902 1.53755 7.89113 9470579
0.84075397 1.53318 7.8884001 8022875
1.33357 1.55923 8.0565901 8155236
1.34268 1.56057 8.0504398 8221029
1.75732 1.53321 7.9101801 8879475
1.7646199 1.53394 7.8954701 8879475
1.77232 1.53642 7.8959799 8945268
1.7799799 1.5298899 7.87854 8945269
1.79055 1.5293601 7.8691602 9142647
1.80138 1.534 7.8646302 9208440
2.24086 1.54977 7.9745102 9603456
2.2755699 1.54555 7.9490399 11905958
2.2960899 1.5493701 7.95261 13616579
2.30843 1.53933 7.9454598 13880008
2.7650001 1.5541101 8.0061197 14012108
2.7969501 1.55521 8.0060997 14012109
2.8075299 1.55573 8.0056696 14012108
2.8173399 1.55681 8.0071898 14012108
2.82849 1.55652 8.0023298 14012108
2.8394599 1.55679 8.0021801 14012108
2.8582101 1.55746 7.9932499 14012364
2.86918 1.55115 7.99506 13485764
2.88012 1.55519 7.98944 13749449
2.89711 1.55014 7.9882302 10986143
2.90763 1.55064 7.9835601 10591129
2.9195001 1.54924 7.97401 10459543
2.9306099 1.5503 7.9774199 10656922
2.9432399 1.55011 7.9707298 10920094
2.9561601 1.55027 7.9669199 11117473
2.96909 1.55056 7.9628801 11380646
2.98558 1.5486701 7.9607 12433333
2.9967 1.54805 7.9544201 12762298
3.00875 1.5485801 7.95398 13091263
3.01439 1.54301 7.9517102 13420484
3.0197599 1.5480601 7.9480801 13025469
3.05112 1.55161 7.95787 13157056
3.07985 1.54179 7.93606 13683399
3.1131799 1.54231 7.9531298 13880523
3.17875 1.5426 7.9579701 14012366
3.1849599 1.55133 7.94735 13814987
3.2274401 1.54784 7.96702 14012623
3.23699 1.5431401 7.95715 14078160
3.29776 1.55559 7.9724202 14078159
-2.04778 1.5105799 7.7319198 8879990
-2.0406301 1.516 7.7445302 9011575
-2.0309801 1.51478 7.7695198 11182491
-2.02318 1.52253 7.7821202 13879750
-0.493177 1.46134 7.4776702 13744789
-0.49049801 1.46823 7.4902802 14137717
-0.47099 1.46328 7.47995 15187998
-0.45514199 1.4659899 7.4699101 15581451
-0.44488701 1.46281 7.4588699 15581195
-0.425239 1.45801 7.4480901 15252239
-0.41630501 1.454 7.4463501 13739022
0.188127 1.34596 6.86449 7827504
0.20561001 1.35118 6.8661299 4478796
0.44384801 1.3703901 6.9679298 4808535
0.44793901 1.37038 6.9753299 5004880
0.454339 1.36641 6.9716802 5070670
0.458067 1.36936 6.97369 6252098
0.46365601 1.37138 6.9695301 7894067
0.46362099 1.37138 6.9695802 7893811
0.47726101 1.37501 6.9843302 9996052
0.58494401 1.54324 7.8652501 12365730
0.60558701 1.54337 7.87813 12694440
0.65176201 1.54676 7.89713 12891563
0.65804499 1.55146 7.9177299 12957614
0.668616 1.55189 7.9154201 12957614
0.68612099 1.54956 7.90587 12957614
0.70044202 1.54817 7.8993001 12957358
0.70580399 1.5506901 7.9060502 12957615
0.70492899 1.55247 7.91677 12957615
0.72592598 1.5487601 7.9010301 12957615
0.737881 1.54856 7.8981299 12957615
0.73498201 1.54984 7.9008498 12957615
0.74571103 1.55209 7.9150901 12957614
0.75543398 1.54877 7.91328 12957614
0.767501 1.54682 7.8945799 12891822
0.78678602 1.54467 7.8702002 12826030
0.80482399 1.5406899 7.8858399 12365476
0.82283902 1.54538 7.8697801 9536375
0.84073198 1.54142 7.8713598 8088668
1.77413 1.54065 7.8804898 8945268
1.78657 1.5422699 7.87463 9076854
2.2529299 1.5518399 7.9499898 9669250
2.2653601 1.55335 7.9435601 10129545
2.2809601 1.5555201 7.9369402 11116442
2.29615 1.55776 7.93472 12498097
2.32235 1.5562 7.9616499 13945545
2.82844 1.5631599 7.9920001 13880779
2.8454499 1.56499 7.9953599 14012108
2.8590701 1.56697 7.9854999 14012364
2.8730299 1.5709 7.9963102 13946572
2.8698699 1.56109 7.9869499 14012365
2.89079 1.5592 7.98421 13946571
2.90062 1.5603499 7.98351 13683656
2.9128399 1.55966 7.9767299 13288642
2.9242201 1.55985 7.9755602 12696505
2.9356 1.5597301 7.97155 11644073
2.9465499 1.55891 7.9637599 11380645
2.9576199 1.5586801 7.9588199 10788764
2.97458 1.55906 7.9595699 10459543
2.9905 1.55839 7.95681 10722715
3.0018101 1.55829 7.9526 10854044
3.0126901 1.55828 7.9481802 11051679
3.0280199 1.56217 7.9471798 10525335
3.0415101 1.5566601 7.96099 12828090
3.0509601 1.56075 7.94842 11775659
3.0610199 1.55667 7.9506698 12959676
3.0743799 1.55729 7.9519801 12894139
3.08602 1.55964 7.9511199 12499125
3.1031401 1.5518301 7.9404998 13222593
3.10534 1.55337 7.94136 13156800
3.11325 1.5505 7.9251399 13156543
3.1744299 1.5615 7.9804001 13551814
3.23581 1.55767 7.96699 14012366
3.2685399 1.56119 7.9510598 14012365
3.2890601 1.5572 7.9613199 14012623
-2.0489199 1.51814 7.7157798 8945526
-2.0431499 1.52493 7.7299299 9142906
-2.0339401 1.52276 7.7561598 11774628
-2.02649 1.53219 7.77174 13879751
-2.01317 1.52837 7.7905998 13813959
-0.48249 1.46758 7.4453802 13679255
-0.470653 1.47254 7.46487 14530886
-0.45825499 1.4764301 7.46136 15121684
-0.44049701 1.4658999 7.4534798 15449611
-0.416356 1.46478 7.4391899 14594061
-0.40273499 1.46403 7.4326501 11238406
-0.38818201 1.46167 7.4305301 9331972
-0.38986599 1.46637 7.4197998 9923333
0.191238 1.3549 6.8552999 8615971
0.200139 1.3582799 6.8600602 6842421
0.208683 1.36143 6.8658299 5528644
0.228773 1.36201 6.8686199 4610899
0.231014 1.3631001 6.8733501 4676435
0.29326099 1.3673199 6.92102 4939602
0.420481 1.37983 6.9499202 4480859
0.433483 1.37427 6.9552498 4481113
0.44595101 1.37827 6.9551201 5989696
0.454083 1.37558 6.9650698 6843192
0.45951799 1.38209 6.9699702 9142047
0.46562201 1.38358 6.9815102 9733141
0.48142701 1.38749 7.0055499 10521875
0.484965 1.38164 7.0018902 10456340
0.666704 1.55999 7.9114699 12891821
0.73911899 1.5603499 7.8947401 13023407
0.73073101 1.55378 7.88344 12957871
0.76985598 1.55395 7.8846102 12891822
0.76985598 1.55395 7.8846102 12891822
0.76985598 1.55395 7.8846102 12891822
0.80514503 1.54953 7.8603301 12431271
0.82277399 1.54563 7.8695302 9536375
0.84071398 1.54965 7.8537402 8022876
0.89416897 1.55024 7.8723102 7891033
0.92953902 1.54373 7.84582 7891032
1.00571 1.55255 7.8541002 7957340
1.02154 1.53975 7.8340902 7891546
1.03176 1.54082 7.8333802 7891546
1.77665 1.55275 7.8659101 9011061
1.7868299 1.5510499 7.8635602 9076598
1.80889 1.55823 7.9070301 9274233
2.2525699 1.56194 7.93993 9406077
2.2653401 1.56187 7.92629 9537664
2.28332 1.56337 7.9177999 10129545
2.2980499 1.56476 7.9106798 11577250
2.3092501 1.56062 7.9344401 13419201
2.3238101 1.56268 7.93362 13879752
2.8835001 1.56975 7.9843898 14012364
2.8941901 1.57041 7.9833102 14012365
2.90589 1.57012 7.9787302 13946829
2.9175501 1.56899 7.96876 13946829
2.92977 1.56943 7.9695902 14012365
2.9407201 1.5692199 7.9651399 13880779
2.9517801 1.56915 7.96071 13814986
2.96384 1.56973 7.9586301 13486278
2.9816 1.56848 7.9536099 12564919
2.9955499 1.5675 7.9481401 11709610
3.0067101 1.56797 7.9468699 11183266
3.0179701 1.5678999 7.9437399 10722458
3.0392799 1.56754 7.9422698 10196627
3.0509501 1.5707999 7.9384999 10196370
3.0627401 1.5635 7.9419899 11314595
3.10116 1.56203 7.93752 12169904
3.11133 1.56311 7.9376202 12367284
3.12853 1.5674 7.92693 12301490
3.1588099 1.5691299 7.92979 12498868
3.1789401 1.56232 7.94137 13156799
3.1858301 1.56025 7.9260998 13091263
3.23961 1.57199 7.9437099 13354435
3.23226 1.56271 7.9442401 13814986
3.23961 1.57199 7.9437099 13354435
3.24962 1.57145 7.9421401 13617351
3.25332 1.56174 7.9429002 13946829
3.26403 1.57147 7.94346 13749193
3.28543 1.56751 7.93859 13946573
3.2942801 1.5685 7.9219098 13946572
-2.0527401 1.51993 7.6845698 8682611
-2.04916 1.52715 7.7014198 8879733
-2.0432501 1.53377 7.7153802 9800835
-2.03707 1.5312999 7.7433901 12300715
-2.03018 1.53801 7.7547798 13748163
-0.41595399 1.47224 7.4249902 15054349
-0.40325001 1.47508 7.4263401 12291079
0.171189 1.36827 6.88414 9666836
0.182743 1.36514 6.8702998 9338388
0.19162101 1.36628 6.8598299 9141271
0.20230401 1.36891 6.8617501 8221993
0.224099 1.3715301 6.8668799 4347209
0.21591 1.36958 6.8629899 5134398
0.23208199 1.37288 6.8744001 4610642
0.24961101 1.3727601 6.8712201 4676176
0.29646799 1.3739901 6.9183402 4808016
0.34837401 1.38221 6.9187498 4676946
0.37685999 1.38632 6.9419599 4743256
0.43318 1.38333 6.94697 5267269
0.445582 1.38752 6.9478798 8354084
0.45164901 1.38844 6.9626999 9142039
0.45732999 1.38956 6.9707398 9601808
0.47481099 1.39669 7.0049801 10390800
0.73163199 1.57094 7.8945599 13154993
0.743249 1.56338 7.8990998 13023408
0.75068802 1.56789 7.8794198 13089201
0.79164398 1.56135 7.84128 13023665
0.81241399 1.56012 7.8312201 12168099
0.82276899 1.55392 7.8512301 9865342
0.840639 1.5585901 7.8402901 8088670
0.86922503 1.55652 7.8357 7825496
0.88512301 1.5572701 7.8238702 7891289
0.90230697 1.55753 7.8431401 7891033
0.91698903 1.5537601 7.8442302 7891033
0.93197 1.55919 7.8337998 8285791
0.938604 1.55933 7.83323 8220255
0.95525002 1.55123 7.8361101 7957082
0.97073299 1.55316 7.8291001 7957083
0.98310399 1.55286 7.8380899 7957084
0.99325901 1.55875 7.8470302 8286306
1.0060199 1.56183 7.8405199 8681065
1.01835 1.55293 7.8330598 7957341
1.0233001 1.5522 7.8334398 7891548
1.03745 1.55582 7.8241301 7891548
1.78979 1.56134 7.86239 9142391
1.79995 1.55963 7.8600202 9142648
2.2634699 1.57324 7.9237599 9406077
2.2764399 1.56782 7.8990002 9537664
2.2973101 1.5734 7.90062 10787733
2.3127201 1.5711401 7.9036999 12892856
2.3269801 1.56829 7.9183698 13814216
2.89746 1.58226 7.9873099 13946828
2.91237 1.5790499 7.97122 13947085
2.9261799 1.58083 7.9762301 13946829
2.9349301 1.5794801 7.9660501 14078158
2.94857 1.58069 7.9692101 14012366
2.95822 1.58032 7.9611301 14012365
2.97629 1.5783 7.9535899 14012366
2.9886301 1.57766 7.9485698 14012365
2.9997399 1.57778 7.9447699 13946572
3.0110099 1.57758 7.9397001 13683656
3.0278201 1.57253 7.9405198 11314851
3.0390899 1.57629 7.9342499 12236210
3.0509701 1.58003 7.9279499 13091262
3.0628099 1.5798301 7.9242802 12499125
3.0706601 1.5721101 7.9206901 10328214
3.0864301 1.57364 7.9284201 10459287
3.0974801 1.57384 7.9298201 10459286
3.10322 1.5728 7.9312201 10525079
3.1135099 1.5776 7.9275799 10590872
3.1296599 1.57744 7.9196601 10853788
3.14132 1.57767 7.9176302 11051422
3.1587701 1.57779 7.9188399 11314593
3.1701801 1.57491 7.92377 11840681
3.1791699 1.57023 7.9256601 12432819
3.1886599 1.5694 7.9169402 12498869
3.20612 1.57258 7.9369798 12696505
3.21819 1.57704 7.92944 12499127
3.23159 1.57794 7.9153199 12564918
3.2509799 1.5759 7.9386301 13222849
3.2592599 1.5782 7.9208298 12959677
3.2750299 1.57447 7.9342198 13683400
3.30126 1.5766 7.91576 13814986
3.3197501 1.57666 7.9289298 14012365
3.3150301 1.57454 7.91851 14012365
3.3315799 1.57416 7.9109302 14012366
3.3394499 1.57357 7.9074502 14012366
3.3525701 1.5728 7.8922901 14012366
3.3849101 1.56856 7.8754802 14078159
-2.0521901 1.53675 7.6906199 8879990
-2.0543599 1.534 7.6691799 8682611
-2.0447299 1.5429 7.7025599 10853524
-2.0387599 1.54014 7.7304101 12893108
-1.3667001 1.54626 7.74437 13616320
-1.35761 1.55056 7.7540202 13616577
-1.33444 1.54749 7.7365198 13682113
-1.32256 1.54641 7.7459202 13550785
-1.30337 1.54875 7.7305298 13550527
-1.30071 1.55492 7.7775998 13682112
-0.463815 1.49018 7.4335799 14072710
-0.449514 1.4833 7.4370899 14990899
-0.41925001 1.4887201 7.4203401 15251979
-0.42030299 1.48185 7.4205799 15317770
-0.402955 1.48546 7.41325 13672972
0.19508 1.37932 6.8650599 9272339
0.217305 1.3811899 6.8678198 7236400
0.22686499 1.38126 6.8714099 5463103
0.238884 1.3805799 6.869 4544074
0.27735201 1.3866301 6.8906999 4282188
0.29051301 1.38406 6.9063802 4544587
0.337037 1.39025 6.9167299 4479824
0.411183 1.39237 6.92237 4741697
0.420205 1.3888 6.9410801 4873542
0.41738299 1.39271 6.9383402 5333055
0.432886 1.39236 6.9384599 7565868
0.438943 1.39411 6.9501901 8748063
0.45350501 1.39933 6.9677701 9864715
0.48159799 1.41957 7.0828199 10784791
0.79720998 1.56815 7.8264999 12957616
0.840132 1.5650001 7.8157101 8220772
0.86039001 1.56286 7.8285599 7891290
0.88586903 1.56457 7.8025498 8088927
0.91426802 1.56451 7.8398199 8088670
0.90944701 1.56326 7.8157501 8088926
0.93978798 1.56689 7.8106198 10852235
0.95436901 1.5609699 7.8245802 8220514
0.98363 1.56191 7.8232698 8681322
0.99367398 1.56791 7.8327999 10654856
1.01756 1.56442 7.83006 8746859
1.02025 1.56329 7.8294902 8549479
1.03292 1.56612 7.8213701 8286306
1.04136 1.56142 7.8341298 7891804
1.05277 1.56331 7.8298101 7891548
1.79125 1.5677 7.8410602 9076854
1.79599 1.5645601 7.8245902 9142391
1.81296 1.56668 7.8120599 9208441
2.2973001 1.58103 7.8854399 10392975
2.3133299 1.57846 7.8878598 12563891
2.3275399 1.57616 7.89818 13682630
2.3422 1.58376 7.9068999 13880008
2.97001 1.59361 7.9754 13946572
2.9820399 1.58927 7.95679 13946830
2.9929399 1.58777 7.9443698 13946829
3.0050499 1.58717 7.9376702 13946829
3.0200801 1.5930099 7.9340701 14012621
3.0272501 1.5830801 7.9347501 14012364
3.03862 1.5830801 7.9317999 13749449
3.0390201 1.5858901 7.9256201 13946828
3.05109 1.58224 7.92768 13486020
3.0606501 1.58627 7.92383 13683400
3.0707901 1.58688 7.9200301 13617351
3.0819199 1.58732 7.9176002 13288643
3.0920601 1.58294 7.9261498 11775145
3.1031899 1.58269 7.9252701 11248801
3.1135199 1.58725 7.9203801 11775146
3.13625 1.58801 7.9198699 11511973
3.15134 1.58601 7.9098001 11314850
3.1623499 1.58555 7.90382 11117473
3.17588 1.58244 7.908 11314338
3.1935999 1.5798 7.9155302 12038061
3.20575 1.5805399 7.9221702 12367282
3.2167201 1.58314 7.9046001 12104111
3.2307999 1.5871201 7.9030499 12104367
3.24265 1.58166 7.9047599 12499126
3.2425399 1.58165 7.9092898 12564919
3.25299 1.58514 7.8948598 12499125
3.2746 1.58325 7.9222102 12959677
3.26248 1.57994 7.8962598 12762298
3.28952 1.5863 7.9202199 13025469
3.3108399 1.58916 7.92343 13288641
3.3231599 1.5861599 7.91887 13683143
3.3341999 1.5852 7.9079499 13748937
3.3494899 1.5832 7.9019399 13814987
3.35852 1.58269 7.89217 13881036
3.3703201 1.58249 7.8900199 13946572
3.3847101 1.58249 7.8880301 13946573
3.4221001 1.57198 7.85811 14078159
3.42518 1.56528 7.8171601 14078159
3.4433701 1.5613 7.8126202 14012622
-2.06054 1.54392 7.6633201 8682612
-2.05586 1.5479 7.6780701 9011320
-2.0478301 1.55137 7.6901302 11248283
-2.04024 1.54877 7.7161598 13287867
-1.4295501 1.55027 7.69627 13353405
-1.35789 1.55673 7.7291198 13287355
-1.34006 1.5515 7.7371702 13550784
-1.32076 1.55431 7.7227898 13287355
-1.2875299 1.55357 7.7263298 13550526
-1.29091 1.56406 7.7880998 13616576
-1.28961 1.5586801 7.7334599 13484733
-1.27425 1.57038 7.7832599 13616318
-1.24062 1.56523 7.7774401 13682112
-0.455475 1.4960901 7.4072599 13876113
-0.40400699 1.4949 7.4052901 13541131
-0.38895199 1.4928401 7.4051299 10515716
-0.37617901 1.4903001 7.3935499 9989892
0.18785401 1.39147 6.8811002 9666834
0.21413299 1.39048 6.86028 9141013
0.22339 1.39081 6.86238 8550177
0.227617 1.39332 6.8755598 8090928
0.243977 1.3862 6.8810301 4084296
0.25293699 1.39311 6.8825102 4215875
0.26472399 1.3907 6.8913298 3887947
0.27588499 1.39764 6.8956199 3822153
0.276122 1.39689 6.8913999 3625032
0.292696 1.39306 6.8895202 4085068
0.32546699 1.39838 6.9153299 3822666
0.38286099 1.3988 6.90839 4150338
0.39401299 1.39487 6.91994 4216647
0.39719599 1.39764 6.9171 4938300
0.40916601 1.4004 6.9110398 7762218
0.413293 1.40273 6.9352598 8025383
0.4258 1.39819 6.9379601 8157220
0.434396 1.40289 6.94555 9469966
0.44287199 1.40424 6.9506402 9732875
0.468445 1.4207799 7.0253 10587405
0.496562 1.43278 7.0728598 10981927
0.51218599 1.42487 7.0760899 11640146
0.79718399 1.57753 7.8123002 13023409
0.81241399 1.56926 7.81565 12628650
0.82671499 1.57149 7.8078599 11378839
0.84108001 1.57371 7.7992902 9470840
0.86084998 1.57032 7.8078699 8220514
0.86364901 1.57104 7.80264 8286050
0.90413898 1.56993 7.79316 9667961
0.92165399 1.5679801 7.8047099 9799547
0.95437503 1.5697401 7.8080702 11312787
0.97020203 1.5712399 7.7976899 11510168
0.98201197 1.57336 7.82164 11642009
1.0185699 1.57362 7.8162599 10852237
1.02107 1.57269 7.81704 10326149
1.03404 1.5749201 7.8078299 9602425
1.04445 1.56835 7.8138199 7957598
1.06989 1.57046 7.8218999 7957084
1.0941401 1.5727201 7.7894201 8022877
1.7798001 1.5711401 7.8218198 8879476
1.78819 1.57541 7.7950702 8945012
1.80018 1.57611 7.8238502 9076855
1.81743 1.57391 7.8078799 9273977
2.2681999 1.5829999 7.86766 9471614
2.2827101 1.58225 7.8775001 9603200
2.29719 1.58873 7.8707199 10327181
2.32774 1.58385 7.8818498 13748422
2.3438399 1.58885 7.87677 13945801
3.03265 1.5921299 7.9283199 14012365
3.0318201 1.59282 7.9306202 14012621
3.0459199 1.59657 7.9319201 14012365
3.0452001 1.5997699 7.9345999 13946829
3.0551701 1.59773 7.9300699 14012365
3.0656199 1.5912 7.91818 14012365
3.09232 1.59168 7.9126301 13485765
3.1017301 1.59076 7.9042602 13419971
3.1140499 1.59352 7.8944702 13485764
3.12554 1.59188 7.9200902 12301490
3.1126299 1.59115 7.9010201 13091006
3.1210999 1.58964 7.9070802 12367283
3.13675 1.5942 7.89569 12959420
3.14956 1.59211 7.8846402 12630711
3.16799 1.59164 7.9040799 11643560
3.1800201 1.59198 7.9017701 11643560
3.1930599 1.58815 7.89961 11577511
3.20438 1.5867701 7.8980799 11577767
3.2111001 1.5933501 7.8889899 11380644
3.2332499 1.59501 7.8895102 11446437
3.24296 1.59 7.8917999 11972524
3.2536199 1.59508 7.88974 11906988
3.2744501 1.59367 7.9172201 12630711
3.2859001 1.5901 7.8937001 12630711
3.3138499 1.59864 7.9152699 12499125
3.3347001 1.59399 7.8917799 12696505
3.34249 1.5932 7.8991799 12894141
3.3543301 1.59282 7.8982701 13157056
3.37677 1.59258 7.8913102 13420228
3.4031 1.5896699 7.8867202 13749194
3.4156699 1.5831 7.8784599 13946574
3.4256699 1.57898 7.8453398 13881036
3.4248099 1.57815 7.8453002 13946573
3.4400101 1.57221 7.8200598 14012365
3.4848101 1.5764101 7.8396702 14012622
3.47629 1.5765899 7.83425 14078158
3.5590799 1.59155 7.8871799 14012623
3.5722599 1.58959 7.8870702 14078159
3.7829399 1.56328 7.7326498 14078160
-2.0559499 1.5562201 7.6649199 9274493
-2.04055 1.5577 7.7011199 13551040
-2.01737 1.56564 7.7371998 13682373
-2.0074999 1.56661 7.7405801 13682373
-1.49186 1.55453 7.6985202 13419199
-1.4148999 1.55338 7.6859398 13418940
-1.40211 1.55985 7.68504 13550270
-1.36316 1.56927 7.7321701 13287355
-1.33801 1.56028 7.7157602 12958391
-1.3189501 1.56343 7.6989498 12629425
-1.2879601 1.56187 7.6986499 13089975
-1.24615 1.57026 7.7407999 13484733
-1.23441 1.5715899 7.7547998 13550527
-1.21803 1.57154 7.7645102 13616320
-1.12953 1.56651 7.7109098 13616318
-0.45503601 1.50498 7.4212098 14072188
-0.41602001 1.49731 7.40095 14857745
-0.40219301 1.5033799 7.3907599 11370245
-0.39132401 1.50288 7.401 10120965
-0.37934399 1.50115 7.3941398 10055685
-0.37733501 1.5012 7.3966098 9858309
0.18886299 1.40468 6.89256 9732625
0.22455999 1.40154 6.8729701 9404185
0.233814 1.40189 6.87358 8746777
0.235199 1.4016 6.87398 8878623
0.25185999 1.40324 6.88235 6908206
0.244633 1.39442 6.8680701 6185267
0.26396301 1.40027 6.8880301 4346429
0.28663099 1.40339 6.8931799 4017985
0.29677901 1.40339 6.8976998 3886917
