# .PCD v0.7 - Point Cloud Data file format
VERSION 0.7
FIELDS x y z rgb
SIZE 4 4 4 4
TYPE F F F U
COUNT 1 1 1 1
WIDTH 1301
HEIGHT 1
VIEWPOINT 0 0 0 1 0 0 0
POINTS 1301
DATA ascii
2.2228899 0.87674302 9.4648705 8484975
2.23628 0.87719399 9.4655399 8484975
2.2504699 0.87747103 9.4691696 8353389
2.27018 0.86674601 9.4679699 9011319
2.2634001 0.87910098 9.4723902 8221546
2.27721 0.87908602 9.4697104 8155753
2.2839999 0.86698699 9.4682903 9011318
2.2987199 0.86709303 9.4700203 8945525
2.3071101 0.879857 9.4791403 8156010
2.3053999 0.87958997 9.4779196 8156010
2.3475699 0.87200803 9.46521 8484975
2.38272 0.87608999 9.4701595 8419182
2.3961899 0.87569797 9.4595003 8550768
2.4105401 0.875516 9.4577599 8550768
2.4292099 0.86540902 9.45432 8813940
2.4440601 0.86616999 9.4559298 8748146
2.4637499 0.87297499 9.4563999 8748147
2.4962599 0.87485701 9.4650698 8813940
2.5115199 0.86971003 9.4760103 8748147
2.51562 0.87280703 9.4675598 8879733
2.5288701 0.87708002 9.4608097 8813939
2.54652 0.87262499 9.4620399 8682354
2.5418501 0.86724299 9.4541397 8682353
2.60356 0.87238199 9.43153 8814196
2.6120601 0.86767602 9.4552002 8748404
2.6745999 0.86705601 9.4342203 8616561
2.6844101 0.86775202 9.3634396 8682353
2.79984 0.87019402 9.4776497 9340028
2.8230801 0.86728299 9.4853802 9603457
2.8368299 0.87710798 9.4884596 9274236
2.8490901 0.87764102 9.4860697 9274492
2.85922 0.86870801 9.4745598 9537665
2.87625 0.86697102 9.4517097 9603457
2.89709 0.87014699 9.4493704 9735043
2.9069099 0.86738002 9.4503603 9800836
2.9147699 0.86404401 9.4451103 9866628
2.9270699 0.86211401 9.4540195 9866629
2.93928 0.86204302 9.4423399 10064264
2.9561601 0.87268198 9.4568396 10721938
3.0242701 0.875305 9.5100899 13748163
3.07375 0.88080901 9.5557404 13616835
3.0617199 0.86773801 9.4745398 13485249
3.1589501 0.87524199 9.4997902 10327437
3.17152 0.87151903 9.4895897 9340284
3.1798699 0.86439699 9.46698 9274490
3.18519 0.865399 9.48561 9274490
3.19122 0.87433702 9.4683199 9274491
3.2027199 0.86698598 9.4623299 9274746
1.83497 0.89001399 9.4732304 8353131
1.91829 0.884296 9.4374399 7892837
1.93071 0.87981802 9.4126101 7826788
1.94326 0.88406402 9.3970299 8418668
1.9672 0.88384801 9.3865204 8287338
2.01594 0.869295 9.3334398 7827045
2.04193 0.879309 9.3691301 8287596
2.0906999 0.88966399 9.5122805 7827045
2.1042199 0.88960201 9.5028496 7827044
2.13062 0.88340598 9.4858503 7892838
2.1533401 0.89136398 9.4627895 7958630
2.16694 0.883762 9.4680796 7958631
2.1868899 0.888147 9.4656601 7892582
2.1801 0.88940698 9.4656696 7958374
2.20069 0.88797897 9.4590902 7958375
2.21454 0.88814002 9.4573202 7892582
2.22908 0.88834399 9.4527702 7826788
2.2704799 0.89160901 9.4751997 7695458
2.28404 0.89218003 9.4776697 7695459
2.3218801 0.87981898 9.4745703 8221802
2.3452699 0.89030898 9.4566803 7629665
2.3543799 0.88400799 9.4683704 7892838
2.3764601 0.88866401 9.4442701 7761251
2.39679 0.889247 9.4438801 7827045
2.4242401 0.88158202 9.4541197 8156010
2.4380901 0.88167697 9.4541101 8287596
2.43696 0.87801403 9.4562998 8550768
2.45066 0.87764698 9.45086 8616561
2.46385 0.88500398 9.4509802 8221803
2.48142 0.89016801 9.4540501 8090217
2.49634 0.88671798 9.45506 8353389
2.51142 0.88099098 9.4592695 8748147
2.5155699 0.88600999 9.4569101 8484975
2.5290699 0.88771302 9.4498501 8287596
2.5465801 0.884027 9.4540501 8551025
2.61168 0.88179898 9.4460001 8748147
2.61028 0.883614 9.3932304 8090473
2.6661799 0.87719202 9.44172 8550769
2.67801 0.877626 9.3968296 8353645
2.7205999 0.87755698 9.3334999 7958631
2.8665199 0.88831598 9.4733496 8156012
2.88552 0.88054103 9.4675303 9340287
2.90202 0.88060701 9.4642 9537664
2.93015 0.87968397 9.4413795 9735044
2.96433 0.88766903 9.4724503 10919318
2.9744401 0.88291299 9.4666901 11774627
2.9807401 0.87819201 9.4659996 12300971
3.00684 0.882366 9.4672203 13484990
3.03179 0.88369501 9.4901304 13485248
3.0285101 0.88522702 9.4547596 13287612
3.0473499 0.88436103 9.4548302 13287613
3.0620699 0.88438398 9.4375696 13156283
3.0618501 0.87769902 9.45543 13616578
3.06511 0.87723601 9.45193 13616578
3.0811501 0.88378 9.4631901 13353407
3.08867 0.883407 9.4701099 13419199
3.1330299 0.88576001 9.5195503 13287868
3.1461201 0.884004 9.5080004 12827573
3.1714101 0.88006997 9.4897203 10458766
3.1695499 0.886796 9.4911003 11840419
3.18085 0.88067198 9.4812002 9866629
3.18294 0.88602102 9.47925 10590352
3.2016599 0.88286602 9.4604998 9406077
3.21365 0.87844998 9.4509697 9274746
3.2265401 0.87573302 9.4414902 9274746
1.84128 0.902915 9.48244 9208439
1.91441 0.90183902 9.4370604 9076854
1.9268 0.89533401 9.4257097 8682097
1.96893 0.90223998 9.4343395 9339770
1.9956 0.88741201 9.3631802 8945268
2.01756 0.89642298 9.4672899 8550511
2.0223801 0.896653 9.4556503 8616304
2.0703001 0.90191603 9.47334 8419181
2.1277699 0.897098 9.4756298 8155753
2.1538301 0.899607 9.4527597 8287595
2.16734 0.89654601 9.4561195 8090217
2.1807301 0.90561998 9.46134 8747890
2.19538 0.90550297 9.4583797 8813683
2.2290499 0.90296 9.4549799 8484975
2.24261 0.892654 9.4571199 7827045
2.2772901 0.90443498 9.4799604 8353132
2.3060601 0.89361298 9.4735403 7695458
2.31691 0.90284598 9.4766197 8024680
2.32762 0.89453799 9.4661703 7695458
2.3389101 0.90306902 9.467 8090216
2.3517699 0.90245301 9.4639397 8024423
2.3657801 0.902713 9.46101 8024424
2.40992 0.89887798 9.4109697 8024423
2.40992 0.89887798 9.4109697 8024423
2.4242201 0.89983797 9.4369497 7892837
2.44489 0.89384001 9.4570599 7761252
2.4681399 0.89649999 9.4537601 7892838
2.48278 0.89589399 9.4431105 7958631
2.51631 0.89686501 9.4319201 7827045
2.53321 0.897699 9.4101295 7761510
2.5475399 0.89792299 9.4106598 7629923
2.55934 0.89183402 9.4533901 8090474
2.57179 0.89467502 9.43505 7761252
2.5931201 0.89671397 9.44454 7695715
2.65852 0.89965302 9.4865198 7761509
2.6856699 0.88983703 9.3702698 7629666
2.8651099 0.89922798 9.4564695 7695460
2.87957 0.89380801 9.4628296 7958632
2.8914001 0.89209199 9.4595203 8156011
2.90962 0.90011698 9.4513597 7958633
2.9229901 0.900002 9.4498596 8024427
2.93893 0.89260101 9.4476004 8813943
2.9644401 0.89801502 9.4510002 9471872
2.96788 0.89847898 9.4555798 9735044
2.9809899 0.88905698 9.4439898 11708834
3.00769 0.893381 9.4470797 12235179
3.00597 0.89416701 9.4496498 12169129
3.02771 0.89540601 9.4352503 11840422
3.0485899 0.88950402 9.4317503 12498353
3.06198 0.89561701 9.4263096 11774374
3.0615201 0.88788599 9.4319696 12761269
3.0657799 0.888228 9.4378004 12827318
3.0952001 0.89442301 9.4655199 12564146
3.1064601 0.89929903 9.4464502 11972009
3.1500299 0.89644003 9.4967203 12629937
3.15591 0.90336001 9.47124 11840421
3.1945901 0.89707202 9.4533796 11511712
3.2097299 0.89353502 9.4530802 10261386
3.2073901 0.89814001 9.4439497 11248539
3.2213099 0.88911402 9.4200697 9406077
3.2383399 0.89467001 9.41745 9274490
1.81354 0.91244799 9.4663897 9537404
1.90187 0.908364 9.4503698 9340027
1.92168 0.916044 9.4593296 9405819
1.96055 0.91523498 9.4445105 9537148
1.97613 0.91826701 9.4481602 9471355
1.99055 0.90928203 9.4171305 9405819
2.0297501 0.90598702 9.4281702 9142648
2.04176 0.907745 9.4350405 9142648
2.0339 0.90531403 9.4257698 9142648
2.0509901 0.91585499 9.4377899 9471612
2.0752299 0.90977699 9.4521503 9011061
2.1407599 0.90573603 9.4483004 8682097
2.14066 0.90577602 9.4485397 8682097
2.14294 0.90544099 9.4321404 8813682
2.1738999 0.916758 9.4559498 9405819
2.18716 0.91724998 9.4551296 9405820
2.20911 0.90578902 9.4568396 8813683
2.2030499 0.91657799 9.4502201 9340027
2.21751 0.91627997 9.4427299 9274491
2.2313199 0.91460103 9.4192104 9340027
2.2484 0.90167803 9.3569202 8879733
2.3171101 0.91866201 9.4748001 9011575
2.3164699 0.91953701 9.4865704 9011318
2.3280301 0.91061401 9.4673901 8616817
2.3392899 0.91894603 9.4658403 9142904
2.37079 0.91531903 9.45858 8814196
2.3837299 0.91719198 9.4509296 8945783
2.4458001 0.90722001 9.4544697 8221803
2.4784501 0.90719801 9.4367304 8221803
2.49226 0.90753198 9.4353504 8156010
2.5085001 0.90780002 9.4373398 7958632
2.52512 0.90901601 9.4040804 7958889
2.53931 0.90917802 9.4038296 7827046
2.56375 0.90945202 9.4087696 7629666
2.5775199 0.90762502 9.4286299 7563873
2.59499 0.912323 9.44205 7563873
2.6038001 0.90429801 9.4420795 7432544
2.6140499 0.90856099 9.3937397 7564130
2.6203499 0.89734 9.3768501 7432544
2.63431 0.89648199 9.3585796 7432544
2.6686599 0.898467 9.3633404 7432544
2.6934099 0.90077901 9.3717804 7432543
2.70875 0.89843398 9.3606396 7432543
2.72419 0.89678597 9.3478899 7432287
2.7377999 0.897789 9.3418503 7432288
2.8153501 0.91109502 9.3995895 7761253
2.8460801 0.90535098 9.4582796 7695460
2.8313601 0.90486801 9.3908396 7761253
2.8691101 0.9156 9.4639101 7892838
2.87958 0.905159 9.4506197 7892839
2.8966801 0.91163403 9.45121 7892840
2.94366 0.90409797 9.4402704 8156011
2.9645901 0.90828699 9.4298801 9077114
2.98369 0.90085399 9.4324503 10129803
2.9833601 0.90189397 9.4251699 10261389
3.00704 0.90501797 9.4247704 10919319
3.0083001 0.90626597 9.4341402 11051161
3.0399301 0.91158998 9.4254999 10853781
3.06335 0.90736097 9.4217396 10919575
3.07516 0.90170097 9.4202204 11445663
3.1087501 0.90782601 9.4130096 11313821
3.09536 0.90717298 9.4106197 11182491
3.1198499 0.90526497 9.4362402 11511457
3.1337299 0.90380102 9.4449396 11642787
3.1426401 0.91096199 9.4149799 11248027
3.1814101 0.90658998 9.4485397 11708834
3.1970699 0.91337001 9.4477301 11314077
3.20928 0.90966898 9.42136 11314076
3.2493401 0.89628398 9.3955097 9340026
3.2569599 0.90582103 9.3981199 9340283
3.2649801 0.90545601 9.3926601 9274490
3.2744801 0.89815098 9.3738699 9340026
3.2838299 0.90183502 9.3620996 9340283
1.51368 0.92015302 9.41329 9338724
1.8954 0.92913097 9.4865999 9471356
2.12536 0.91711301 9.3969603 9602942
2.1352999 0.91552502 9.3989801 9602941
2.1461799 0.91458702 9.4086504 9471612
2.1633201 0.92318398 9.4502401 9537662
2.1886301 0.92485899 9.4378004 9603198
2.19384 0.92368603 9.45574 9537406
2.21382 0.91998702 9.4184999 9471613
2.23616 0.92737401 9.4148302 9471613
2.3041899 0.926292 9.50385 9208698
2.3283899 0.92620498 9.4630404 9340283
2.3406 0.930282 9.4629602 9340284
2.35619 0.91920602 9.4612799 9142905
2.50336 0.91701299 9.4119596 8682354
2.51841 0.91644597 9.40242 8484976
2.533 0.92159098 9.3935204 8814197
2.5699 0.92190403 9.4012604 8419182
2.6012599 0.91920698 9.42202 8024424
2.6059799 0.91733801 9.4274797 7827046
2.6336401 0.91182899 9.3771601 7695459
2.6471901 0.91185099 9.3761902 7695716
2.66206 0.91082901 9.3652401 7695715
2.67431 0.91045702 9.3546495 7761251
2.6877799 0.91081601 9.3570805 7695459
2.7016499 0.91083503 9.3565998 7761251
2.7151201 0.91042799 9.3576202 7695459
2.7729399 0.92108798 9.3786297 8024425
2.7588 0.919294 9.36693 8090218
2.7857599 0.90906399 9.3412704 7827046
2.8159599 0.921933 9.3743601 8090218
2.8315799 0.91515303 9.3715401 7958631
2.84445 0.91569 9.3691998 7958631
2.8833101 0.92239302 9.3913898 7958632
2.8986199 0.920834 9.4190903 7958888
2.8986199 0.920834 9.4190903 7958888
2.90413 0.914801 9.3756104 7958633
2.90413 0.914801 9.3756104 7958633
2.9437799 0.91425401 9.4172602 8353390
2.9425199 0.92218 9.3845196 8156012
2.96509 0.91799599 9.4039402 9142907
2.9800501 0.92139697 9.3791599 9735300
2.9976599 0.91837198 9.4122496 10853525
3.0191801 0.92126 9.3832903 11248539
3.0565701 0.92125797 9.3942099 10919319
3.0799201 0.91992301 9.3843203 10787732
3.1096399 0.91595697 9.3779202 10984855
3.13289 0.913445 9.4274502 11248028
3.13571 0.90116602 9.2755299 11248284
3.2440901 0.91152799 9.4104404 10195594
3.26599 0.92292202 9.3988705 10853268
3.2736599 0.91056901 9.35851 9406076
3.3037601 0.92043602 9.3868198 9340539
3.3108499 0.90866703 9.3648901 9274746
3.32144 0.91574401 9.3594103 9340282
3.33406 0.91811198 9.3573103 9274745
2.0152299 0.93028998 9.4215403 9603198
2.1896501 0.93978399 9.4594498 9537405
2.2197001 0.93297303 9.4248304 9537406
2.3405499 0.94484103 9.4728804 9471870
2.35622 0.93453503 9.4770803 9406077
2.38447 0.930601 9.3410301 9537406
2.41081 0.92881697 9.3116302 9537406
2.4665301 0.93054301 9.4300804 9405820
2.4846599 0.928267 9.4094696 9340283
2.4948599 0.93774402 9.3858604 9669249
2.5190599 0.92858499 9.3878002 9274491
2.5336699 0.93370599 9.3787498 9406077
2.55319 0.92521697 9.38836 8814197
2.60972 0.929766 9.3999901 9011320
2.62707 0.92520499 9.3958502 8682354
2.6224401 0.93535399 9.3800297 9406077
2.6352501 0.93576097 9.3794203 9537663
2.6484399 0.935516 9.3698397 9472126
2.6401501 0.92296499 9.3698902 8485231
2.65521 0.92323703 9.3665705 8682354
2.66365 0.93571198 9.3753204 9340284
2.66767 0.92211699 9.35991 8550768
2.6681001 0.92299497 9.3587198 8616818
2.68063 0.92198497 9.3525 8550768
2.7081499 0.92207903 9.3519201 8484975
2.72189 0.92264801 9.3573399 8419182
2.73578 0.92349398 9.3628597 8353647
2.7630401 0.93171299 9.3589296 8945527
2.8373599 0.927257 9.3662395 8353390
2.8504601 0.92737103 9.3613596 8353390
2.90273 0.92617399 9.3687296 8090218
2.9166 0.92615098 9.3698397 8090218
2.9231999 0.92204702 9.3596802 8024682
2.9651101 0.927939 9.3836603 8748405
2.9892299 0.93349099 9.3906498 10524817
2.9892299 0.93349099 9.3906498 10524817
2.9892299 0.93349099 9.3906498 10524817
2.99792 0.92809802 9.3888502 10853783
3.0181501 0.93220598 9.3725996 11643298
3.04141 0.93000901 9.3880796 11380126
3.0555999 0.93368 9.37817 11446176
3.0691299 0.924303 9.3769503 10919575
3.1164 0.92719299 9.3641596 11313821
3.1170199 0.91610098 9.3065701 11182490
3.13223 0.91467702 9.2961397 11314077
3.1401999 0.91722298 9.2607698 11577250
3.1479599 0.908409 9.2421999 11511457
3.1531601 0.912588 9.2016497 11840423
3.2780001 0.926238 9.3935804 10787732
3.2955599 0.93097299 9.3958502 10327179
3.32177 0.93182999 9.3635702 9405820
3.33148 0.93076301 9.3536701 9340283
3.33969 0.930628 9.35567 9274746
2.2290599 0.93425399 9.3284397 9471869
2.2400301 0.94353598 9.3069897 9603198
2.2509301 0.94064403 9.2957001 9603198
2.26895 0.93532401 9.3071499 9537662
2.28146 0.94494098 9.3238401 9603455
2.2953899 0.935965 9.3260202 9537663
2.3905399 0.94045001 9.3133097 9602943
2.40376 0.94072098 9.3116598 9734529
2.4412999 0.93513697 9.28016 9537407
2.46592 0.936544 9.2915401 9537664
2.4789701 0.93491298 9.27211 9537664
2.51229 0.93645501 9.2923298 9603456
2.53596 0.93122798 9.3021898 9537663
2.6519699 0.94439203 9.3762798 9537663
2.63873 0.947339 9.3658104 9668992
2.6747799 0.934591 9.3580704 9274748
2.6911299 0.93839598 9.3449297 9471870
2.7033501 0.93690801 9.32131 9603456
2.7004499 0.93174601 9.33111 9274491
2.7137799 0.93173403 9.3302402 9274491
2.71701 0.93823701 9.3276901 9603456
2.76719 0.94399798 9.3495197 9669251
2.7873399 0.944767 9.3616199 9603458
2.79756 0.943856 9.3553696 9471873
2.80882 0.94311303 9.3496103 9537665
2.8589101 0.93445402 9.3539104 8813942
2.8842599 0.93582797 9.3575897 8748149
2.89745 0.93587798 9.3533897 8748149
2.9123399 0.93485498 9.3457804 8682612
2.9319601 0.93701798 9.3326902 8879991
2.99211 0.94224501 9.3187799 11708834
3.0320799 0.93610299 9.3518696 11906470
3.0416701 0.93785501 9.3607502 11906470
3.04756 0.94095802 9.33531 12235180
3.0688 0.93696499 9.3638201 11774885
3.1161799 0.94695097 9.3761501 12761268
3.1192801 0.93610001 9.3310204 12169388
3.12586 0.92724401 9.2996798 11905959
3.15258 0.92639297 9.24195 12432560
3.1582601 0.93036097 9.2058401 13024697
3.16589 0.91951501 9.1933603 12498097
3.2873299 0.94149601 9.4061699 12432559
3.2995701 0.94694501 9.39713 12629681
3.30742 0.93589503 9.3826599 10458766
3.3073101 0.93601 9.3838501 10458766
3.3192301 0.94186503 9.3745203 10458767
3.32302 0.93946499 9.3601999 9998215
3.3298399 0.93213999 9.3550901 9340283
3.34342 0.936647 9.3440504 9208953
3.3631001 0.93438101 9.3232803 9274746
3.3746901 0.94050801 9.3131304 9274490
3.3873899 0.93781 9.3034096 9208953
2.2114999 0.95467502 9.3103199 9471612
2.2290599 0.946262 9.3121204 9537405
2.25155 0.95148599 9.2845297 9340027
2.29796 0.95258099 9.3141804 9471613
2.3186901 0.95445698 9.3357697 9340027
2.30879 0.95559901 9.3308496 9340284
2.3401301 0.94598401 9.2779999 9406077
2.37222 0.95054102 9.29002 9405820
2.4077101 0.94776899 9.2961502 9668992
2.4204099 0.94820303 9.2940397 9668992
2.4342101 0.94761002 9.2856798 9668992
2.45874 0.947429 9.2824697 9668993
2.47225 0.94762999 9.2824602 9669249
2.5199299 0.94601202 9.2758598 9668992
2.5514901 0.94357002 9.2923298 9537919
2.5994301 0.94782299 9.3050203 9735042
2.63729 0.95872903 9.3776398 9537406
2.63989 0.95980698 9.3596096 9603200
2.6749201 0.95023501 9.3555498 9537664
2.6749799 0.94573599 9.2953396 9537663
2.7074499 0.94612098 9.2947598 9603457
2.7072501 0.94842499 9.30443 9603457
2.72387 0.94974399 9.32691 9603457
2.75828 0.95565999 9.3450003 9669508
2.7715399 0.95521301 9.3341303 9669251
2.7926099 0.95517898 9.3543997 9669252
2.8034101 0.95426601 9.3470697 9669252
2.81215 0.95435601 9.3182898 9866630
2.82476 0.94458598 9.3185997 9735043
2.8967199 0.94917899 9.3508396 9603457
2.9128301 0.94662398 9.3278599 9669250
2.9333601 0.94916803 9.3190603 9801093
2.9623699 0.95088297 9.3197603 10130059
2.9765 0.94718701 9.3180399 10853781
2.9920001 0.95175803 9.30021 11643040
3.0101099 0.94825202 9.3109598 12630193
3.0279901 0.94456202 9.3209696 12695731
3.0269101 0.95382398 9.2995195 13222332
3.0501499 0.95179999 9.3257599 13156539
3.07792 0.95548201 9.3653803 13222332
3.08672 0.95333201 9.3650599 13222075
3.10008 0.95331299 9.3624201 13156027
3.1215701 0.95620799 9.3556499 13353663
3.12183 0.94484597 9.2966204 13090747
3.30299 0.96218699 9.3907804 13484992
3.31462 0.95772099 9.3741903 13287869
3.33077 0.94805598 9.3540897 11116698
3.3341899 0.94634098 9.3506603 10458766
3.34536 0.95318103 9.3411503 11116955
3.35445 0.94388098 9.3319197 9406334
3.3678501 0.94910699 9.3161898 9274492
3.3807399 0.95194203 9.3061104 9274490
3.3970499 0.94625503 9.29321 9340282
2.20838 0.96039999 9.2975101 9406075
2.2221601 0.96023297 9.2913399 9340283
2.2355299 0.96023202 9.2856998 9274490
2.2479801 0.96597397 9.2810898 9274490
2.2779701 0.961622 9.30093 9208441
2.3059101 0.96553898 9.2978096 9011319
2.29635 0.96379203 9.2894697 9076855
2.3104999 0.966537 9.2713404 9011062
2.31985 0.96401 9.2782898 8945269
2.3285 0.96193999 9.2891998 8945526
2.3371899 0.96217299 9.2905903 8945269
2.35712 0.954822 9.2803402 9208698
2.3727 0.96104097 9.2731104 9076855
2.39012 0.96364099 9.2639198 8945269
2.4056599 0.95673603 9.2854204 9405820
2.42713 0.95982099 9.2880497 9340284
2.4228301 0.95506197 9.2762203 9471613
2.43209 0.96473801 9.2624702 8945526
2.4491999 0.967354 9.2817802 8879477
2.4845099 0.95798099 9.2796497 9340028
2.49774 0.95720702 9.26964 9340027
2.5206299 0.95797402 9.2726498 9340284
2.5309701 0.95309597 9.2717199 9537407
2.5325301 0.96552199 9.2736301 8945526
2.54597 0.95378703 9.2758703 9537663
2.5510001 0.964387 9.2717896 9011063
2.5620601 0.95611799 9.2765999 9471870
2.65468 0.96041501 9.3467197 9406078
2.6572499 0.96828097 9.3254995 9208698
2.6968801 0.96255302 9.2769299 9274492
2.70908 0.96196699 9.27913 9537920
2.7186 0.95679498 9.2809095 9735043
2.89729 0.963983 9.3218603 9800836
2.9071901 0.95666099 9.3145905 9735300
2.92085 0.95644701 9.31178 9800838
2.9402001 0.96423298 9.3141003 9932423
2.95104 0.96419197 9.3234997 9998215
2.96264 0.96615702 9.3156004 10064009
2.9790001 0.95761299 9.30688 10590353
2.9922199 0.96144903 9.2820301 10985367
3.0103099 0.95721698 9.29109 12498607
3.03479 0.96231902 9.2803297 13353919
3.06619 0.966824 9.3456202 13682626
3.0783401 0.96593398 9.3551702 13551298
3.1247599 0.96475101 9.3231096 13551299
3.29897 0.96741003 9.39606 13616579
3.30863 0.97367901 9.3793201 13748422
3.3212299 0.96933299 9.3716402 13748422
3.3357401 0.96265203 9.3519001 13485505
3.3571801 0.959526 9.3296099 11445663
3.3699601 0.96503001 9.3155899 11708835
3.3791699 0.95578599 9.3060703 9405820
3.39132 0.96166402 9.29247 9340285
3.41276 0.95723403 9.2694101 9340283
2.20327 0.97241402 9.3004503 9537405
2.21592 0.97280198 9.2961903 9471869
2.2281699 0.97328699 9.29214 9471869
2.27352 0.97371101 9.2503996 9471613
2.30691 0.97372502 9.2458 9405820
2.32371 0.97370398 9.2302399 9077112
2.3475201 0.97140801 9.2738504 8879476
2.3687201 0.967884 9.2425003 8748147
2.3821499 0.96963799 9.2504702 8747890
2.3959701 0.970384 9.2462502 8682354
2.4092901 0.97085899 9.2479801 8747890
2.4469299 0.97062999 9.2340002 8550769
2.49138 0.97110403 9.2713299 8682098
2.50493 0.97386301 9.2653904 8682354
2.5188501 0.97454399 9.2759705 8747891
2.5532999 0.97862101 9.2744503 8748148
2.5446501 0.97637302 9.2753696 8747890
2.55914 0.96666503 9.2731504 8879733
2.5710499 0.96724302 9.2703199 8945526
2.56758 0.97735697 9.2649097 8879733
2.66061 0.96847302 9.2923803 9077113
2.6682301 0.97903401 9.2822399 8945526
2.68033 0.974684 9.2737799 8879989
2.7300999 0.96394998 9.2529497 9603457
2.7416699 0.96490097 9.2485199 9735043
2.7807801 0.97466701 9.2424898 9669250
2.9789 0.96822602 9.2902002 10195595
2.9828401 0.97032499 9.2985897 10195596
2.9965899 0.97252202 9.2754803 10787732
3.0009699 0.97346002 9.2551203 10853782
3.0111401 0.96631402 9.2707901 12103593
3.02724 0.96803099 9.2599096 12958903
3.03493 0.97432297 9.2642298 13222334
3.0516601 0.96884298 9.2722597 13551042
3.0854499 0.97382897 9.3385096 13617092
3.2836101 0.97777897 9.3299103 13682628
3.3314199 0.97804999 9.3500996 13748422
3.3407199 0.97468501 9.34867 13748677
3.35185 0.98211098 9.3357601 13683141
3.3592601 0.97584599 9.33148 13748420
3.3764901 0.980129 9.3077698 13748420
3.3824799 0.97092098 9.3011599 11840421
3.3943999 0.97476101 9.2891703 11511456
3.3945401 0.976969 9.2888899 12103594
3.40435 0.96597397 9.2788897 9340284
3.4163001 0.97229099 9.2645903 9340285
3.42383 0.96389002 9.2603703 9340283
3.4373701 0.96985799 9.2433901 9274746
3.4368 0.96985102 9.2431202 9274746
2.2772501 0.98560399 9.2138004 9340283
2.29441 0.97828299 9.2370996 9471869
2.3117599 0.98333901 9.2236996 9537662
2.35004 0.98479098 9.2375097 9143161
2.38606 0.98375702 9.2455301 8813939
2.3803301 0.97936201 9.2094297 8879733
2.39921 0.98323399 9.2370796 8813683
2.4312601 0.98220599 9.2413197 8550768
2.45245 0.98125303 9.2232904 8484975
2.47842 0.98638201 9.2391996 8682097
2.4769499 0.98779798 9.2326298 8682354
2.4679699 0.98733902 9.2272997 8616561
2.49194 0.98316598 9.2553997 8747890
2.5077701 0.98306102 9.2437096 8813940
2.5308299 0.98963898 9.2676697 9077112
2.5464301 0.99120301 9.27771 9208442
2.5602901 0.98899901 9.2634096 9142905
2.5761499 0.97984999 9.2685404 8879733
2.5936301 0.98041999 9.2603598 9077113
2.7076299 0.97731602 9.2581797 9077112
2.7021301 0.98949301 9.2610703 9142906
2.7205801 0.977386 9.2532196 9142905
2.73423 0.97710198 9.2470398 9340285
2.7492399 0.97547901 9.2356396 9406334
2.7634399 0.98604703 9.2437496 9340285
2.7958601 0.97566599 9.2322502 9669250
2.80446 0.98011601 9.2027102 9735043
2.8812201 0.980762 9.2279902 9932423
2.8991399 0.97877502 9.2175703 9932424
2.9138 0.979765 9.2091398 10129802
2.92785 0.97096002 9.2022696 9932168
2.9419601 0.973607 9.1975203 10064010
3.0144501 0.97658402 9.24893 11774629
3.3633001 0.989214 9.3245602 13683142
3.36936 0.98446298 9.3144197 13748934
3.38237 0.980519 9.3012199 13616834
3.39592 0.99032199 9.2873802 13748419
3.40677 0.980941 9.27388 11709092
3.4070899 0.98276001 9.2747402 12169386
3.41769 0.98806202 9.2635403 12103594
3.4274299 0.97964299 9.2542 9537663
3.4287 0.97948402 9.2525997 9471870
3.4486599 0.97707599 9.2295599 9274490
2.23912 0.99063301 9.2173901 9603198
2.2606499 0.994627 9.2053604 9274490
2.3464401 0.99623197 9.2145205 9406077
2.36764 0.993788 9.1943302 9406076
2.3820801 0.99188399 9.1893501 9340283
2.46047 0.99126202 9.2129498 8813940
2.4693401 0.99882501 9.2099705 9274234
2.48019 0.99590099 9.2191296 9208441
2.4944 0.993797 9.2283602 9208698
2.55235 1.00354 9.2724104 9406078
2.5697601 1.00156 9.2685099 9471870
2.5949399 0.997217 9.2673903 9406077
2.7123599 0.99084699 9.2590303 9208698
2.73615 0.996988 9.2433701 9406078
2.7492399 0.99673098 9.2351303 9471871
2.7806799 0.98706001 9.22824 9406079
2.78882 0.99044698 9.1973495 9603457
2.8187399 0.99402303 9.1757803 9735044
2.8402801 0.990511 9.1760502 9866630
2.8635199 0.98711199 9.2236404 9866630
2.8798699 0.992553 9.2218904 10064010
2.86375 0.99472302 9.1822996 9998216
2.89521 0.997513 9.2147903 10590354
2.9136801 0.992459 9.2014799 11116441
2.9266601 0.98473799 9.2035999 10524560
2.95556 0.982449 9.19098 10919063
2.94874 0.99333298 9.18643 12300718
2.95344 0.98658198 9.2012596 11116699
2.95344 0.98658198 9.2012596 11116699
2.96854 0.99228102 9.19592 12498353
3.01701 0.98863602 9.2430401 12695988
3.01687 0.99873501 9.2289896 13485761
3.0324199 0.99548602 9.2416601 13485762
3.3770101 0.99481302 9.3051796 13748678
3.3977399 0.99176103 9.28374 13748420
3.4059601 0.99863303 9.2750101 13814214
3.4196401 0.98834997 9.2609396 11972007
3.42996 0.99434 9.2477102 12432814
3.43975 0.98567998 9.2375698 9537920
3.45714 0.98589498 9.20683 9274490
3.4679101 0.99326199 9.1979303 9340283
3.48015 0.99253303 9.1873903 9208697
3.49157 0.98853302 9.17556 9405818
2.23927 1.00105 9.1948404 9603199
2.3178101 1.00946 9.1865702 9537407
2.3342099 1.01068 9.1910801 9537406
2.3894999 1.0063601 9.2086496 9537662
2.46294 1.00948 9.2037401 9537663
2.48019 1.00703 9.21105 9603199
2.49121 1.00398 9.2192402 9537407
2.5870199 1.00809 9.27666 9537919
2.5996699 1.01248 9.2678404 9603456
2.70753 1.01131 9.2542496 9603457
2.7160201 1.00415 9.2566404 9471871
2.7273099 1.00927 9.2437897 9669250
2.7319901 1.0135601 9.25068 9537665
2.7577801 1.0056601 9.2398701 9603457
2.74927 1.00932 9.2312603 9735043
2.8126199 1.00769 9.1830196 9932423
2.8234601 0.99363101 9.1694899 9735043
2.8443 1.00295 9.1700697 10327181
2.8322501 1.0033 9.1658802 10129803
2.87097 1.00638 9.1826601 10656147
2.9009399 0.998272 9.1956596 11182491
2.91295 1.00258 9.1916704 12432302
2.91326 1.00114 9.1934004 12235179
2.92663 0.99734402 9.19522 12432558
2.93167 0.999327 9.2002296 12761524
2.9686301 1.00362 9.1803999 13485249
2.98506 0.99606198 9.1864796 13287870
2.9904001 1.0042599 9.1538095 13682885
3.0111899 1.00639 9.1898804 13682884
3.02507 1.00247 9.19522 13617348
3.0250299 1.00246 9.1950502 13617348
3.0250299 1.00246 9.1950502 13617348
3.4021599 1.00394 9.2778502 13748422
3.41256 1.00948 9.2678204 13748423
3.42326 1.00288 9.2542105 13814471
3.43576 1.00876 9.2348299 13683141
3.42786 1.01299 9.2469597 13683399
3.44557 1.00482 9.2151604 13156796
3.4588599 1.00201 9.2085695 11314076
3.4863999 1.00371 9.1784296 9405820
3.49544 0.99639797 9.1614304 9405818
3.51068 1.00169 9.1593904 9274489
3.5216899 1.00041 9.1452904 9274489
2.25789 1.01684 9.20961 9668992
2.27039 1.0130301 9.2020903 9537406
2.2966299 1.01248 9.1812401 9537663
2.3043101 1.01728 9.1873703 9537406
2.31212 1.0216 9.1935101 9603200
2.39464 1.01476 9.1607199 9603455
2.4379599 1.01929 9.2007799 9734785
2.4484701 1.0143 9.2086401 9734785
2.47121 1.01895 9.2061901 9603456
2.59165 1.02332 9.2767496 9735042
2.5984299 1.0254 9.2472801 9669249
2.7147 1.02518 9.2660999 9735043
2.7328701 1.0236501 9.23948 9669251
2.76298 1.01792 9.2155399 9801093
2.7862201 1.01465 9.1718702 9932422
2.80687 1.02089 9.1780195 10459023
2.8118899 1.00827 9.1762896 9932423
2.8096299 1.0204 9.1744699 10590353
2.82324 1.0164 9.1743097 10919318
2.8401899 1.01341 9.16465 11577248
2.85429 1.01194 9.1630001 11774628
2.8675301 1.01182 9.1612701 11906214
2.8858299 1.01196 9.16992 12103337
2.89837 1.00745 9.1710901 12169131
2.8979101 1.0176001 9.1566801 13024697
2.9194801 1.0096 9.16605 13287870
2.9185901 1.01013 9.1598301 13287870
2.9995201 1.0172499 9.1698704 13617348
3.0067899 1.01483 9.1648102 13617349
3.0141699 1.01246 9.1602001 13617349
3.44068 1.02061 9.22474 13683399
3.45279 1.01737 9.2136698 13814472
3.4647801 1.0140899 9.2021599 13353662
3.4761 1.0103101 9.1895504 11445662
3.49527 1.01298 9.1699696 9932165
3.51408 1.0140001 9.1501799 9208697
3.5231199 1.00897 9.1174002 9340282
2.27175 1.02644 9.2098503 9603199
2.2666299 1.02948 9.2024298 9603199
2.26666 1.02946 9.2023697 9603199
2.4767201 1.03078 9.1875296 9669249
2.48156 1.02771 9.19592 9669249
2.7051401 1.02285 9.1326103 9735043
2.74248 1.02167 9.11026 9932679
2.7669401 1.02692 9.1351604 10130058
2.7917399 1.02586 9.1760197 10327181
2.83601 1.02539 9.1568499 12893110
2.8342299 1.0276099 9.1447096 13156282
2.85569 1.01973 9.1645403 12893109
2.86834 1.01948 9.1663704 12958645
2.8848801 1.02291 9.1524 13222076
2.9189601 1.0217299 9.15277 13419456
3.4481599 1.03329 9.2242298 13617606
3.4577501 1.02911 9.2036505 13748936
3.4704199 1.0256799 9.1926899 13814214
3.4846699 1.01965 9.1800404 12695987
3.4932499 1.02885 9.1701899 13419711
3.5039201 1.02202 9.1585903 10919317
3.51598 1.02247 9.1222601 9801092
3.5141301 1.01885 9.1149197 9603455
3.5341899 1.0224299 9.1232901 9208697
3.54619 1.0196 9.1120195 9208696
1.5074199 0.95945001 8.38626 9594630
2.70486 1.03239 9.11691 9866629
2.7222199 1.02911 9.1251297 9932422
2.7393999 1.03432 9.1157703 10195595
2.7556801 1.03023 9.1256905 10195851
2.7765501 1.03218 9.1284704 11051161
2.79703 1.03593 9.1163702 12761525
2.81409 1.0332201 9.1490097 12629939
2.8157599 1.03179 9.1345596 12761525
2.8499701 1.03258 9.1611404 13616834
2.8331599 1.0378799 9.1336298 13682372
2.8815 1.03475 9.1729898 13616835
2.8766 1.04539 9.1702805 13551556
2.89782 1.03994 9.13943 13551299
3.48087 1.03499 9.1756096 13814728
3.4923601 1.03535 9.1611605 13814472
3.5020101 1.0379601 9.1605501 13814471
3.5123501 1.03118 9.1500101 11972006
3.5138199 1.0297101 9.1486397 11380126
3.5209401 1.04029 9.14013 13222076
3.5352001 1.03404 9.0999298 10195851
3.5520301 1.03124 9.1045704 9208441
3.5752299 1.03218 9.0745096 9208698
1.4959199 0.96629697 8.3701897 9660934
1.50727 0.97073102 8.3745003 10909961
1.51889 0.963458 8.3807201 10844171
2.72036 1.04598 9.0960999 10129801
2.75771 1.0397201 9.0929699 11708835
2.7711 1.04233 9.0983295 12695987
2.7832601 1.0397201 9.10431 12827573
2.78705 1.04969 9.1126404 13616833
2.79475 1.04849 9.1200705 13616834
2.8157799 1.04117 9.1151896 13616834
2.83006 1.05037 9.13801 13748164
2.82951 1.05091 9.1422005 13748164
3.48755 1.0495 9.1797895 13683143
3.4986401 1.04996 9.1640196 13748937
3.5016799 1.05428 9.1648598 13683143
3.51088 1.04715 9.1513395 13814728
3.5241499 1.0477999 9.1164799 13683141
3.54265 1.04418 9.0918903 11906727
3.5541501 1.03984 9.0829802 9537663
3.58231 1.0427099 9.06567 9208697
3.58939 1.03728 9.0443296 9340283
1.47598 0.98231202 8.3808804 10515975
1.49549 0.979886 8.3614902 11041544
1.50727 0.97928298 8.3578901 11370247
1.52086 0.978414 8.3472996 11633416
1.52975 0.97925401 8.35394 11896329
1.53333 0.98299003 8.3828802 12093704
1.53921 0.981875 8.3733902 12028168
1.54636 0.980501 8.3700504 12094216
2.7202201 1.05562 9.07617 10721682
2.7402699 1.05006 9.0851498 11577248
2.73681 1.05674 9.0483999 12235180
2.75682 1.05189 9.0810699 13024696
2.77108 1.05207 9.0784101 13551040
2.7781799 1.05884 9.0543404 13682627
2.7932 1.05676 9.05902 13748420
2.8020401 1.05892 9.06178 13617092
2.8085301 1.05776 9.0675697 13617092
3.5109401 1.0635099 9.1566095 13683399
3.51671 1.05542 9.1343403 13683143
3.53495 1.05496 9.1031399 13748934
3.5661199 1.05405 9.0702801 11050905
3.5778799 1.05474 9.0546503 9998216
3.5890701 1.0537 9.0576096 9208699
1.46494 0.994169 8.3832903 10647304
1.47914 0.993608 8.3717098 11041799
1.50195 0.98975801 8.35604 11567622
1.51498 0.990224 8.3586998 11502087
1.53106 0.99023902 8.3575201 12028425
1.53769 0.98965299 8.3521795 12094473
2.6658199 1.06868 9.0402603 9932422
2.66009 1.0677299 9.0167103 9932422
2.6772299 1.06591 9.0346603 10064008
2.6950901 1.06073 9.03899 10195595
2.7158999 1.0641201 9.03337 11643041
2.7567301 1.06154 9.0605097 13551042
2.7365799 1.0671099 9.0209398 13353405
2.7732999 1.06399 9.0379801 13748421
3.5461299 1.0621001 9.09062 13814728
3.5548301 1.0685101 9.0718899 13814728
3.56774 1.06698 9.0591898 13551556
3.5845499 1.06911 9.0588398 12564402
3.5956199 1.0642999 9.0478296 9998217
3.6066301 1.0595 9.0371304 9208442
3.61166 1.05285 9.0109301 9340027
1.48031 0.99746001 8.3308096 11304456
1.52465 0.998752 8.3249702 11962632
1.5375 1.0015399 8.3444099 11897865
1.54562 1.00133 8.3389502 12029450
1.56224 0.997518 8.3656197 11897865
1.57559 0.99793297 8.3535805 11634439
1.58987 0.999897 8.3669004 11503366
2.57078 1.0677 8.9382896 9800835
2.58249 1.06674 8.9455004 9800835
2.59076 1.06754 8.9580803 9800835
2.6240499 1.07061 8.9842701 9800835
2.65611 1.07514 8.9865999 10129800
2.67243 1.07276 8.9961205 10392973
2.6950099 1.07004 9.0188503 11116697
2.7156401 1.07382 9.0100098 12958646
2.73627 1.07713 8.9984102 13814214
2.75262 1.0694799 9.02596 13682629
2.7529099 1.06899 8.9962502 13748421
3.56442 1.08385 9.0809698 13683399
3.5741501 1.0813 9.0627499 13814728
3.5912001 1.07974 9.0493002 13617349
3.6022301 1.07462 9.0378904 11445664
3.61304 1.06993 9.0268497 9406078
3.6231799 1.0740499 9.0149603 9208699
3.6356699 1.07243 9.0039701 9274490
1.49361 1.00572 8.34027 11764744
1.49738 0.999578 8.2525196 11567879
1.51078 1.00362 8.2942801 11896839
1.5236 0.99884599 8.3059397 11962888
1.53386 1.00537 8.2850599 11898123
1.55264 1.0075999 8.3149796 12095503
1.5638601 1.00876 8.3347397 12227091
1.5764101 1.01248 8.3449898 12095507
1.59128 1.01124 8.3470297 11437577
2.57458 1.08077 8.9475002 9866372
2.5897901 1.07801 8.9492502 9866628
2.6057301 1.07753 8.9543104 9800836
2.5992701 1.0793101 8.9596004 9735043
2.63973 1.07742 8.9767799 9998214
2.64221 1.07581 8.9754295 9998214
2.6420701 1.08471 8.95959 10787732
2.65324 1.08161 8.95609 10984855
2.6732099 1.08148 8.9769897 11774628
2.6681199 1.08002 8.9650202 11379870
2.69136 1.07779 8.9872303 12234922
2.6912301 1.08682 8.9680099 13353661
2.71562 1.08345 8.9881697 13748420
3.5782499 1.0947599 9.0582504 13617863
3.59705 1.09074 9.0395603 13814729
3.6096599 1.08435 9.02775 12893111
3.61479 1.0768501 9.0036802 10459024
3.63834 1.08459 8.9932604 9471870
3.6496301 1.08272 8.9795704 9142905
3.6589701 1.07629 8.9658403 9142905
1.5096999 1.01071 8.2664299 11897352
1.5229501 1.0113699 8.2771997 11832073
1.54453 1.01846 8.2878304 12161558
1.5598201 1.01617 8.2908401 12358683
1.59128 1.02112 8.33074 11964179
2.5246999 1.08434 8.9206696 9668993
2.55547 1.09276 8.9527302 9932422
2.54408 1.09403 8.9436998 9932421
2.5348301 1.0819401 8.9158201 9668992
2.5719399 1.09181 8.9631901 10129801
2.58708 1.08839 8.9519396 10261387
2.6082799 1.0874 8.9381104 10392973
2.63833 1.08722 8.9545002 11116698
2.6354899 1.09498 8.9272003 12761524
2.6525099 1.09199 8.9365101 12958646
2.66961 1.0890599 8.94629 13156026
2.6682701 1.08902 8.9501305 13024696
2.6872699 1.09426 8.9362402 13682627
2.7060101 1.09087 8.9484501 13748163
3.58623 1.095 9.0519104 13814729
3.60601 1.09973 9.0268002 13749192
3.61602 1.09368 9.0148001 13683141
3.6275101 1.08964 9.0042496 11643299
3.6340599 1.09993 8.99401 13222334
3.6440401 1.09614 8.9824104 11051162
3.6549399 1.0917 8.97122 9274492
3.66624 1.08779 8.9602404 9208441
1.5108 1.02123 8.2705803 11963401
1.52934 1.02854 8.2770901 12095766
2.5441301 1.10382 8.9323397 10064008
2.5672801 1.10121 8.9504099 10919317
2.5817201 1.10018 8.9453602 11774370
2.60184 1.09877 8.9507904 12103335
2.60093 1.1091 8.9421501 13485246
2.6140001 1.09955 8.9525604 12235178
2.64064 1.10604 8.92661 13748419
2.6525099 1.1009099 8.9187403 13748164
2.66961 1.0980099 8.92869 13682627
3.6114099 1.10966 9.0136499 13683657
3.6219001 1.1047 9.00529 13814985
3.6244099 1.10832 9.0037098 13814985
3.63344 1.1008199 8.9945898 13419713
3.6392901 1.1111799 8.9838305 13814728
3.6409299 1.10985 8.98353 13748935
3.6501999 1.10673 8.97264 12827576
3.65169 1.1053801 8.9716501 12367024
3.6607399 1.10195 8.9605799 10195596
3.66131 1.09843 8.9605198 9603457
3.66926 1.1083601 8.9563503 10130060
3.6814499 1.10279 8.9491901 9142906
1.51464 1.0392801 8.27279 12095769
1.53543 1.03983 8.2847605 12424997
2.5768001 1.1098 8.93433 12695729
2.56441 1.1129 8.9278202 12169128
2.58919 1.11053 8.9419498 13287611
2.59829 1.11945 8.9284296 13616577
2.6031101 1.11681 8.9148903 13551040
2.62782 1.11048 8.9209299 13616577
2.6389899 1.11827 8.9269304 13551042
2.64785 1.11401 8.9310102 13748164
2.6478601 1.114 8.9309597 13748164
2.6478601 1.114 8.9309597 13748164
2.6640999 1.10983 8.9198599 13748165
3.62782 1.11595 8.9964199 13683400
3.6314199 1.1197799 8.9972496 13748936
3.6470599 1.1206501 8.97402 13814729
3.65623 1.11726 8.9622602 13683142
3.6600299 1.1141 8.9614401 13222333
3.6577699 1.1163501 8.9617395 13617348
3.67838 1.11664 8.94312 10787991
3.68893 1.11217 8.9349203 9274492
3.69944 1.11078 8.9306898 9274233
3.70239 1.11228 8.9332705 9208697
1.13545 1.00509 7.9432402 6767362
1.44216 1.04494 8.2140999 11633928
1.43976 1.04653 8.2149401 11633927
1.44662 1.04465 8.2100897 11699720
1.44822 1.0445499 8.2071304 11699975
1.46723 1.04715 8.2551603 11766024
1.4755599 1.04459 8.2532997 11766281
1.48366 1.0427001 8.2504301 11832074
1.50639 1.04731 8.2480602 12227614
1.52627 1.04913 8.2612896 12359461
1.54312 1.05325 8.2979603 12161815
1.53854 1.05277 8.2865801 12162336
1.53184 1.04846 8.2761602 12293923
2.5219901 1.1299 8.9131298 10524559
2.5956299 1.13006 8.9045496 13682627
3.6526201 1.13153 8.9637804 13814729
3.6646399 1.12637 8.9516497 13814728
3.66273 1.12791 8.9530497 13814729
3.6684401 1.12283 8.9514303 13551299
3.67678 1.13175 8.9412804 13814472
3.6893799 1.12674 8.9265804 11774629
3.6938 1.12321 8.9246998 10064266
3.69434 1.12602 8.9204702 10722196
3.70597 1.12292 8.9094896 9340028
3.7175601 1.1200401 8.8986797 9208697
1.11643 1.01674 7.9481101 7491076
1.1263601 1.01439 7.9408698 6964738
1.44099 1.05584 8.2122898 11568390
1.46745 1.05708 8.2435598 11766538
1.46749 1.05711 8.2437897 11766538
1.48408 1.05146 8.2289696 11898382
1.47618 1.05441 8.2329798 11832331
1.50815 1.05866 8.2392502 12490792
1.4966201 1.05931 8.2259598 12556326
1.51957 1.05782 8.2507896 12293669
1.53649 1.06174 8.2755098 11964692
1.54576 1.06337 8.2849998 11833362
2.3129599 1.13542 8.85007 9603199
2.3259001 1.13112 8.8509598 9603199
2.33866 1.12984 8.8383303 9537406
2.35127 1.12845 8.8236599 9537406
2.4451699 1.13091 8.82934 9537664
2.4384 1.12883 8.8456097 9537663
2.4518499 1.13107 8.83988 9603456
2.4696801 1.12518 8.8316898 9735042
2.54514 1.1368001 8.8529596 13419196
2.5550399 1.13419 8.8491802 13485247
3.66588 1.14328 8.96451 13683400
3.67173 1.13643 8.94209 13814729
3.66958 1.13828 8.9443998 13814729
3.6838801 1.14126 8.9261503 13814728
3.6965699 1.13831 8.9115295 13288383
3.7086699 1.1358401 8.89995 10853783
3.7095499 1.1345299 8.8992596 10458767
3.72034 1.12974 8.8876104 9208698
1.13309 1.02713 7.9435201 8083719
1.43276 1.06278 8.1759396 11437064
1.4477201 1.06451 8.2006102 11503625
1.46018 1.06073 8.1965799 11701260
1.47334 1.06217 8.2048597 12029973
1.48639 1.06238 8.2187901 12424994
1.51045 1.07122 8.2372503 12096029
1.52121 1.06928 8.2391796 11898905
1.52579 1.06954 8.2567902 11898903
1.53499 1.07095 8.2659397 11767312
2.0565901 1.14106 8.7884302 9668990
2.0692599 1.1409 8.78195 9668990
2.1760199 1.14528 8.8130598 9537405
2.24314 1.14045 8.7910099 9537406
2.29948 1.14009 8.8440399 9603456
2.3129599 1.1464 8.8389101 10129544
2.33181 1.14135 8.8399 9668993
2.3447399 1.14083 8.8331003 9603456
2.3652599 1.13632 8.79037 9537407
2.39696 1.14136 8.8263798 9734786
2.41203 1.14125 8.8263397 9800580
2.4389501 1.14174 8.8274202 9997958
2.45188 1.14149 8.82549 10129800
2.4670501 1.13642 8.8326302 9866628
2.4774101 1.13616 8.83957 10064008
2.4906299 1.13606 8.8410997 10458766
2.5125899 1.14112 8.8272104 12827058
2.53163 1.13651 8.8367796 13090231
2.54689 1.14289 8.8177404 13682370
2.55496 1.14305 8.8350096 13682626
2.5587299 1.1449 8.8485498 13682626
3.67786 1.14663 8.9312801 13749192
3.68717 1.15267 8.9130402 13683399
3.69858 1.15118 8.9072704 13749192
3.71154 1.14868 8.8936596 13156539
3.71732 1.14438 8.88692 11643298
3.7269499 1.13705 8.8800898 9340284
3.73999 1.13668 8.8712101 9274489
1.12665 1.03905 7.9314299 8478982
1.14176 1.04649 7.95013 7821060
1.1372401 1.03583 7.9405298 8347142
1.34035 1.0692101 8.1480799 8805384
1.34236 1.06707 8.1324196 8674055
1.3620501 1.06379 8.1433296 9857545
1.39103 1.07566 8.1841898 11436296
1.4065 1.07688 8.1852303 11634185
1.42088 1.06841 8.1641703 11568393
1.44398 1.07485 8.1781301 11701265
1.45602 1.07195 8.1763201 11964438
1.47363 1.06778 8.1904202 12293661
1.50038 1.07911 8.2289495 11898909
1.5115499 1.08329 8.2398796 11767313
1.5323 1.07974 8.2414703 11504395
1.54273 1.0867701 8.2628698 11307016
1.6195199 1.10365 8.3933401 11306777
2.0529201 1.1511101 8.7823 9668990
2.06183 1.1526901 8.7837896 9668990
2.07569 1.1524301 8.7787704 9734527
2.19082 1.15064 8.7898998 9537406
2.2053699 1.15522 8.8008499 9734785
2.2139299 1.1485699 8.8007298 9734784
2.2262001 1.1493 8.8006201 9537406
2.2423601 1.15194 8.7857399 9800578
2.2560201 1.14536 8.7757902 9866371
2.2679999 1.15195 8.7717199 10721938
2.2776799 1.14983 8.7958202 10524558
2.29948 1.1511101 8.8332195 10919060
2.3257101 1.15861 8.83323 12169384
2.3377399 1.15242 8.8357601 10655889
2.3506801 1.15198 8.82973 10787474
2.3634601 1.15171 8.8247204 10721938
2.3772199 1.15271 8.8277702 10853268
2.3894899 1.15344 8.8338699 10853269
2.40429 1.15344 8.8334103 11050647
2.4173 1.15336 8.83043 11182234
2.4303899 1.15345 8.8285999 11511454
2.44508 1.1526 8.8220797 11971749
2.4671199 1.14677 8.81775 11840163
2.4826701 1.15154 8.8062801 13287867
2.49857 1.15882 8.8224802 13682626
2.5000801 1.14658 8.8238697 13090230
2.5171599 1.15115 8.8083897 13682626
2.53583 1.1463 8.8218203 13682625
2.5464599 1.1514699 8.8010101 13682371
2.5685 1.1513 8.8308296 13748164
3.7047701 1.1605999 8.8878403 13749192
3.71717 1.16092 8.8738899 13683398
3.7290399 1.1501499 8.8730402 10458767
3.74175 1.14898 8.8603296 9274492
3.7539999 1.1478601 8.8473196 9274491
3.7606201 1.1478 8.8423405 9340283
1.13104 1.05036 7.9457202 8281605
1.2946301 1.07528 8.0844202 7687939
1.34295 1.07696 8.12852 10121225
1.3427401 1.07702 8.1292696 10121225
1.35746 1.07417 8.1242104 10647048
1.40802 1.08728 8.1725197 11700492
1.4264899 1.08176 8.1741505 11832077
1.4446 1.08513 8.1626797 12490786
1.49112 1.09014 8.2212095 11898643
1.49879 1.0901999 8.2178297 11635729
1.51763 1.09712 8.2539997 11241226
1.51763 1.09712 8.2540302 11372554
1.61821 1.11062 8.3652601 11373628
1.6656899 1.11982 8.45397 11768650
2.0207901 1.16882 8.7958298 9800320
2.04755 1.15674 8.7697296 9537405
2.0562501 1.16242 8.7758799 9800577
2.0680001 1.1630501 8.7742596 9800576
2.0799501 1.1651599 8.7674999 9603198
2.1082301 1.16207 8.7642498 9603198
2.0987799 1.15678 8.7444696 9471612
2.1759801 1.1664701 8.7874699 10195335
2.1760199 1.15653 8.7956495 9537405
2.19068 1.16457 8.7960901 9932164
2.2054 1.16738 8.7881899 10129543
2.20455 1.16793 8.7915697 10129543
2.2181699 1.16756 8.7885504 10129543
2.2133601 1.15651 8.7907696 9734785
2.2320399 1.15479 8.7667904 9669249
2.24436 1.16105 8.7607098 10787474
2.25629 1.1563801 8.7652998 10853267
2.2681899 1.16308 8.7622004 12892851
2.27987 1.15871 8.7687902 12761521
2.29076 1.1593601 8.7725801 13287866
2.3470199 1.16475 8.8414803 12827058
2.35695 1.16334 8.8278704 12958645
2.3575301 1.16994 8.8420401 13287610
2.3701601 1.17152 8.8365202 13550782
2.3682799 1.16293 8.8173199 12893108
2.3828001 1.1648901 8.8365698 13024438
2.3972299 1.165 8.8368797 13024438
2.4101701 1.16477 8.8313799 13156281
2.42436 1.1652499 8.8332596 13353660
2.4360199 1.16458 8.8244495 13419453
2.4540999 1.16473 8.8240604 13550783
2.4660001 1.1588 8.81598 13485246
2.47597 1.1670901 8.82236 13551039
2.4809999 1.16396 8.8063202 13682627
2.4862001 1.1628799 8.79212 13682627
2.4862001 1.1628799 8.79212 13682627
2.50495 1.15549 8.7491198 13616834
3.7120399 1.17497 8.8791599 13749450
3.7302799 1.1622 8.8607903 12959418
3.72119 1.17146 8.8615198 13814986
3.74259 1.16105 8.8476601 11117212
3.7557499 1.15912 8.8310299 9603714
3.7670701 1.15688 8.8220196 9406076
3.7760201 1.15679 8.8247204 9405819
1.13087 1.07105 7.9603801 8150276
1.137 1.06066 7.9587998 8018435
1.14271 1.06985 7.9625101 7755267
1.2828799 1.08582 8.0721102 7819779
1.29008 1.08718 8.08846 8148229
1.29403 1.08619 8.0854702 8279558
1.32138 1.09147 8.1111603 10581514
1.33111 1.09184 8.1192503 10910472
1.35693 1.08146 8.0981102 11107847
1.39767 1.0897501 8.1796904 11700234
1.39871 1.09386 8.1546001 11832331
1.40635 1.0944999 8.1492701 11832593
1.41817 1.09317 8.1506205 12030235
1.4257801 1.0910701 8.15137 12227870
1.44119 1.09681 8.1537399 12293924
1.46252 1.09021 8.1717396 11964956
1.5146199 1.10676 8.2732801 11109641
1.57614 1.1205601 8.4001999 10517513
1.57688 1.12016 8.3985004 10517513
1.61544 1.1207401 8.3569603 11374415
1.63521 1.11876 8.3372498 11836529
1.68415 1.13265 8.4822702 10980692
2.02075 1.17934 8.7868004 9997699
2.07165 1.17319 8.7535105 10063749
2.0678799 1.1702 8.7547598 10195078
2.06234 1.17199 8.7547703 10326920
2.09374 1.16661 8.7575903 9603198
2.1083801 1.17266 8.7507696 9997957
2.14746 1.1746401 8.7507296 11642783
2.1579001 1.1756901 8.7634201 12037541
2.1759701 1.17678 8.7740202 12563885
2.1684301 1.17652 8.7736902 12366249
2.19068 1.1748 8.7819901 11840162
2.1892099 1.17522 8.7828598 11905955
2.2155099 1.16886 8.7881699 10261129
2.23245 1.16566 8.7552996 10787730
2.25629 1.16772 8.7574596 12892851
2.2461801 1.1703 8.7372904 12761522
2.26599 1.17091 8.7542105 13551038
2.2906599 1.16555 8.7385902 13748418
2.28297 1.16641 8.7335196 13748161
2.3318501 1.1779 8.8476496 13616576
2.36323 1.17468 8.8259096 13682368
2.3768301 1.17546 8.8323603 13682625
2.3891001 1.17634 8.8383703 13682626
2.3910999 1.17594 8.8351898 13682626
2.40468 1.17565 8.8318396 13551039
2.4045801 1.17626 8.8354797 13551039
2.40377 1.17527 8.8254995 13551039
2.4171801 1.17461 8.8184004 13682626
2.4304399 1.17677 8.8087301 13748163
2.44415 1.17977 8.8046503 13616578
2.44855 1.1750799 8.8190298 13616834
2.4604199 1.17585 8.8233299 13551040
2.4842801 1.17377 8.7865105 13682627
3.7309101 1.1744601 8.8489304 13814986
3.74333 1.17322 8.8352699 13814984
3.7432101 1.1733 8.8358898 13814985
3.75052 1.1714799 8.80933 13419968
3.75053 1.1716501 8.8102798 13485504
3.75982 1.17027 8.8203096 11906727
3.77144 1.1671 8.8102503 9800836
1.13524 1.0829999 7.9734602 8018691
1.2713 1.08733 8.0581398 7753986
1.27906 1.09568 8.0658798 8674566
1.2792 1.09584 8.0652304 8740358
1.29098 1.09544 8.0699596 9332232
1.3016599 1.0914201 8.0947199 9397513
1.31243 1.0903701 8.1006098 9923593
1.35674 1.08919 8.0805101 11239431
1.3688101 1.08793 8.0756998 11437064
1.41807 1.10273 8.1349897 12227355
1.43154 1.10411 8.1489496 12162340
1.44023 1.10711 8.1577702 12096024
1.61686 1.1318001 8.3373899 10783322
1.6293401 1.13035 8.3455296 11376241
1.6435601 1.13202 8.3343801 11508603
1.67222 1.1339 8.3563805 12035723
2.01283 1.1867599 8.75068 9668990
2.0499899 1.18125 8.7539597 10787216
2.06778 1.17896 8.7584295 10524044
2.07952 1.17663 8.7513704 10261128
2.0943501 1.1769 8.7420797 10129543
2.0867701 1.18253 8.7086296 10853522
2.1084001 1.18153 8.7308702 11050645
2.10851 1.1806901 8.7429895 10919059
2.12695 1.17812 8.7428999 11445402
2.1457801 1.18326 8.7328901 13090485
2.1761701 1.1864901 8.7686701 13550781
2.1643901 1.1864901 8.7641802 13484988
2.15768 1.18297 8.7363596 13353658
2.18731 1.18694 8.7761602 13550525
2.2037201 1.1792901 8.7758102 12892594
2.2054 1.17863 8.7745304 12761265
2.2161901 1.18056 8.7365999 13287610
2.2287199 1.17941 8.7247601 13353660
2.36955 1.18499 8.8159599 13748420
2.39537 1.18709 8.83496 13551041
2.4138501 1.19116 8.84126 13551041
2.4138501 1.19116 8.84126 13551041
2.4138501 1.19116 8.84126 13551041
3.74787 1.18635 8.8326397 13814986
3.76355 1.1806099 8.8104696 13617091
3.76385 1.18057 8.8109398 13551299
3.7748001 1.17863 8.8007498 11774629
1.1407 1.09356 7.9771399 7755523
1.12896 1.09324 7.9705 8150277
1.2645 1.0962501 8.0431805 8345605
1.2704 1.09865 8.0538502 8805894
1.28011 1.10615 8.0560102 9923848
1.2919101 1.10026 8.0384998 9989897
1.30676 1.10234 8.0623102 10384650
1.35682 1.09872 8.0711298 11108615
1.41904 1.1147701 8.1380701 12030488
1.43917 1.1174001 8.1617098 11833106
1.4454 1.1185499 8.1569796 11635983
1.45042 1.11002 8.1470604 11833107
1.5993 1.13845 8.31602 9926176
1.62912 1.13929 8.3308296 10850150
1.64227 1.1408401 8.30585 11047790
1.65977 1.1382101 8.3474102 11772548
1.68018 1.13776 8.3275499 11904395
2.0353 1.1896501 8.71805 9932163
2.0239201 1.18811 8.6857796 9537405
2.0244401 1.18776 8.6835403 9537405
2.0244401 1.18776 8.6835403 9537405
2.0518501 1.18779 8.7275295 10458250
