# .PCD v0.7 - Point Cloud Data file format
VERSION 0.7
FIELDS x y z rgb
SIZE 4 4 4 4
TYPE F F F U
COUNT 1 1 1 1
WIDTH 1283
HEIGHT 1
VIEWPOINT 0 0 0 1 0 0 0
POINTS 1283
DATA ascii
-1.37607 2.4272001 6.8301201 13813959
-1.29343 2.4688301 6.8741698 14208717
-1.29045 2.4680901 6.8713799 14208717
-1.2830499 2.4712999 6.8681798 14274510
-1.27325 2.4749501 6.86552 14340303
-2.1324 2.25945 7.2758098 8550769
-2.1356299 2.25526 7.2528 8484976
-2.122 2.2609899 7.2572598 8813687
-2.1135001 2.26089 7.2663202 11708580
-2.10566 2.2708099 7.26823 14208716
-2.0980401 2.27268 7.2804599 14208460
-1.3813601 2.4347799 6.81146 13945545
-1.37429 2.4355199 6.8225198 13879751
-1.37825 2.4253399 6.77917 13945545
-1.30773 2.4737501 6.8727798 14274510
-2.1122301 2.26913 7.2560301 13813701
-2.1207199 2.2691 7.2466102 10655893
-1.37152 2.44172 6.8067698 14077131
-1.3101799 2.4837999 6.87219 14340304
-2.13462 2.26754 7.2455201 8484720
-2.12256 2.2767601 7.2416501 11905703
-2.1109099 2.2774999 7.2460799 14274253
-1.36748 2.4586 6.8147602 14274510
-2.14186 2.2755201 7.22475 8550769
-2.1338 2.2746601 7.23278 8550514
-2.1226201 2.28373 7.23139 13550786
-2.11308 2.2845099 7.2393799 14274253
-2.1405101 2.28339 7.2144699 8550513
-2.1322801 2.28282 7.2234802 9537154
-2.12163 2.29 7.2186599 14274509
-2.1131201 2.29146 7.2290702 14208716
-2.1412201 2.2897401 7.2055101 8616306
-2.1325099 2.29003 7.21349 10984857
-2.1322999 2.2971499 7.20298 12827061
-2.1224999 2.2976999 7.2101002 14274253
-2.1491899 2.2908599 7.1974401 8484976
-2.1507499 2.2960401 7.18712 8484975
-2.1413701 2.2967601 7.1951399 9208444
-2.13235 2.3043499 7.1932001 14011336
-2.14205 2.3034101 7.1845598 10129804
-2.1413701 2.3036799 7.18501 10524562
-2.1324401 2.31127 7.18255 14274509
-2.1227801 2.31267 7.1926198 14208973
-2.15921 2.30388 7.1696401 8550768
-2.1500299 2.3043799 7.17591 8485233
-2.1419599 2.3103199 7.1745 11840166
-2.1324601 2.3180001 7.1719098 14274510
-2.1231101 2.31867 7.1790199 14143180
-2.1594 2.3103099 7.1575298 8550769
-2.1500299 2.3111601 7.1653199 9011321
-2.13503 2.3173599 7.1559501 14274765
-2.16887 2.3180399 7.1431799 8485232
-2.15905 2.31777 7.14926 8484977
-2.1489301 2.32445 7.1462798 12169388
-2.16868 2.32443 7.1319599 8550768
-2.1589799 2.3243301 7.1389399 8747892
-2.14891 2.3310699 7.1361198 13550785
-2.1391201 2.3313501 7.1438198 14274510
-2.13008 2.3370299 7.1374602 14142924
-2.15908 2.3308599 7.1282802 9340031
-2.1689301 2.3309 7.1213398 8550769
-2.1491399 2.3374901 7.1252298 14142923
-2.13902 2.33796 7.1339402 14208717
-2.1691201 2.33709 7.1098099 8550769
-2.14838 2.33869 7.1100998 14208716
-2.1393001 2.3441501 7.1222401 14274510
-2.1386001 2.3449099 7.1254702 14208974
-2.1689301 2.34342 7.0995998 8616564
-2.15871 2.3438599 7.10671 12103340
-2.1488199 2.3505599 7.1031699 14340303
-2.1789601 2.3436 7.0928302 8484977
-2.1679599 2.34954 7.0882401 9405825
-2.1689401 2.3498399 7.08885 9208446
-2.1584499 2.3499999 7.0957098 13550786
-2.14888 2.35694 7.0928702 14340303
-2.17786 2.34957 7.0812502 8484721
-2.1789501 2.3501301 7.0820498 8484721
-2.1584201 2.35642 7.0854101 14208716
-2.1677499 2.3561599 7.0780501 10787479
-2.1495099 2.3638501 7.0836802 14274510
-2.1584401 2.3631001 7.0756202 14340302
-2.1868899 2.3547599 7.0623298 8616306
-2.1791101 2.3564 7.0706701 8484722
-2.16784 2.3626101 7.0678501 12169132
-2.1582201 2.3693399 7.0648499 14406095
-2.1486599 2.3697701 7.0723 14274766
-2.1873701 2.3611 7.0523601 8550769
-2.17746 2.3619201 7.06002 8616564
-2.1779599 2.36797 7.0492001 9011066
-2.16763 2.36865 7.0567598 13419199
-2.1775601 2.36797 7.0492301 9011323
-2.15784 2.3756199 7.0538001 14340302
0.68590301 3.08446 5.5671902 14011594
0.690889 3.08202 5.5584698 13946057
0.70058399 3.0847399 5.56882 14011850
0.70961702 3.0840199 5.5366998 13748678
0.75014901 3.10517 5.5485301 13880008
0.77218401 3.11023 5.5457201 14011850
0.77974403 3.1134 5.5440998 14077386
0.78849602 3.1170499 5.54143 14011594
0.79633898 3.12047 5.5420799 14077131
0.80269998 3.11901 5.5355802 14142924
0.91345 3.1422901 5.4569898 14142924
0.91915202 3.1431701 5.4530201 14142924
0.93257803 3.1490099 5.45715 14142924
0.941064 3.15288 5.4598298 14142923
0.94662702 3.1547899 5.4583201 14142924
0.95713902 3.15819 5.4603601 14142924
0.96286899 3.1602001 5.4580798 14142924
0.96860403 3.1621499 5.4556699 14142924
-2.1882 2.3673899 7.04176 8550514
-2.1886599 2.3675499 7.0419898 8550514
-2.1784599 2.37398 7.0385799 9340288
-2.17821 2.3740001 7.0383 9406082
-2.1777999 2.3738899 7.0384202 9537411
-2.1678801 2.37462 7.04598 13880007
-2.1575999 2.38111 7.0423198 14340302
0.683469 3.0880799 5.5556598 13814215
0.69669902 3.0929401 5.5582399 13748422
0.69669902 3.0929401 5.5582399 13748422
0.69669902 3.0929401 5.5582399 13748422
0.70560402 3.09497 5.54351 13419713
0.717058 3.1001201 5.5458102 13419457
0.74688399 3.11426 5.5543499 13880007
0.77207297 3.11764 5.5407 13814214
0.77985197 3.1180899 5.5345201 13879751
0.78611898 3.1196799 5.5293298 13880007
0.792193 3.1225801 5.5263801 13880007
0.79821599 3.1248 5.5268302 13945801
0.813308 3.1275799 5.5276098 14077387
0.82109499 3.13111 5.52984 14077644
0.82887 3.1345699 5.5320001 14143180
0.83667099 3.1380601 5.5342498 14143180
0.844482 3.1415401 5.5364599 14143180
0.91667998 3.1517401 5.4463801 13945544
0.92363399 3.1515999 5.4440699 13880009
0.93178302 3.1559401 5.4478502 13880008
0.93709099 3.1519401 5.4366202 13814216
-2.18787 2.3731899 7.0301399 8484978
-2.18731 2.37292 7.0305901 8484978
-2.1881499 2.3731899 7.0296402 8484978
-2.17853 2.3803101 7.02808 10458514
-2.1780701 2.3801601 7.0283198 10655893
-2.1787801 2.38028 7.0280299 10326928
-2.16801 2.3805599 7.0348301 14274766
-2.1602299 2.3885601 7.03619 14340303
0.72740197 3.1073 5.5491099 13419200
0.723683 3.1138301 5.54738 12695477
0.738123 3.1134901 5.5527101 13682372
0.742589 3.1178701 5.5474801 13222077
0.75160098 3.1201301 5.5479398 13551042
0.76191002 3.1180601 5.5429401 13813957
0.79349798 3.1357701 5.5285802 12958904
0.81709301 3.13941 5.5264301 13945800
0.82385898 3.14347 5.5262198 13945544
0.81682903 3.13517 5.5007701 13353408
0.82615799 3.1372001 5.4990702 13682373
0.91086501 3.1537299 5.45506 13945544
0.914428 3.1582999 5.44596 13748422
0.92825001 3.1556499 5.4257498 13551044
0.93604398 3.1589401 5.4274602 13551044
0.94387102 3.1622701 5.4292598 13616580
0.95121002 3.1603501 5.4196501 13682373
0.95256603 3.16413 5.41114 13616580
-2.1882401 2.3800199 7.02036 8484978
-2.1879101 2.37991 7.0206699 8484978
0.71484202 3.11604 5.55616 13024442
0.730959 3.11991 5.5497799 12366768
0.74744999 3.12205 5.53829 12300719
0.77703398 3.13236 5.5394802 12761269
0.78356099 3.1337299 5.5337801 12564146
0.77975202 3.13131 5.51263 11577251
0.78890502 3.1359 5.5134401 11971753
0.796278 3.14255 5.5202398 12037546
0.804084 3.1400499 5.5252399 13156027
0.80397898 3.14485 5.51647 12234924
0.79728901 3.13484 5.49088 12234925
0.79708099 3.1377201 5.4954801 12169131
0.79708099 3.1377201 5.4954801 12169131
0.81497198 3.1424899 5.4925199 12629684
0.82989699 3.1445601 5.49541 13222078
0.889575 3.17243 5.4976001 13682628
0.89857298 3.171 5.48947 13748422
0.90218598 3.16961 5.4648399 13550786
0.90839899 3.1636801 5.45397 13682372
0.91394597 3.1698101 5.4460101 13222077
0.91983098 3.1640799 5.4373899 13484994
0.929726 3.17063 5.4307199 13353408
0.94893098 3.1712799 5.4036698 13485250
1.03917 3.1842201 5.31953 13748422
1.03754 3.1837101 5.3194699 13748166
-2.1683199 2.3908801 7.0020299 14406095
0.72302002 3.12712 5.5525098 12827062
0.73132801 3.1299601 5.5483398 12498098
0.80435902 3.1428399 5.49647 12300718
0.80526698 3.1473601 5.4877 12366511
0.81567103 3.14533 5.48068 12629684
0.881437 3.1773801 5.4950299 12958905
0.89405698 3.1712401 5.4686999 13221821
0.90713501 3.17538 5.4559798 12893112
0.91947699 3.17608 5.43822 12827064
0.93372798 3.1780701 5.43255 13024185
0.93544698 3.17733 5.4225202 12892599
0.94681501 3.17787 5.4169798 13287615
0.946881 3.1790099 5.4028702 13287614
0.95539498 3.18221 5.4024901 13550786
1.00984 3.1921101 5.3859901 13616578
1.0100501 3.1965001 5.37674 13485249
1.01615 3.20017 5.3830099 13551041
1.02472 3.20099 5.3768601 13682371
1.03701 3.1940701 5.34233 13748166
-2.20084 2.39115 6.9888101 8616562
-2.1926601 2.38992 6.9981499 8484977
-2.17168 2.4009199 7.0009699 14406095
0.73145503 3.1326201 5.5345502 13287614
0.78205597 3.14412 5.4993601 11774631
0.79259199 3.1474299 5.4962401 11972009
0.79405898 3.1503699 5.4811301 12563890
0.87947702 3.1774299 5.47612 12498096
0.88859898 3.1821401 5.4785199 12498352
0.910721 3.18788 5.4509301 12563635
0.92481798 3.18207 5.4299402 12497841
0.94155598 3.1839099 5.4179602 12761014
0.94959402 3.18929 5.40309 13024441
0.95601797 3.19017 5.3972702 13221821
0.97103101 3.1927299 5.40172 13550786
0.98431897 3.2009599 5.40133 13550786
0.98774898 3.1963301 5.3898101 13485249
0.99410099 3.1958699 5.38275 13485249
1.00615 3.2021 5.3786302 13353662
1.01542 3.20312 5.3712301 13419199
1.01692 3.2051499 5.3741298 13419200
1.0268 3.20929 5.3734798 13484736
1.0387501 3.21226 5.3594198 13418944
1.044 3.2088499 5.3491101 13419200
-2.1919799 2.39836 6.9872699 8747893
-2.18085 2.40658 6.9830198 13813957
-2.17207 2.40767 6.9913602 14340302
-1.87526 2.4677999 6.78023 14077644
0.70202702 3.13695 5.52985 14011336
0.85902703 3.1755099 5.44028 11971752
0.91047502 3.19345 5.4422698 12103083
0.92015702 3.1933401 5.4369202 12234669
0.92961502 3.19347 5.4302902 12234925
0.92632598 3.1846499 5.4047399 11971752
0.951123 3.19877 5.3933601 11774117
0.96719199 3.1983199 5.3997598 13156028
0.97228801 3.20748 5.3984499 12366511
0.97826803 3.20486 5.4009399 13156027
0.97907698 3.20345 5.4010901 13353150
0.988105 3.20995 5.3954101 12892855
0.99619597 3.20943 5.3814602 12695476
1.0156 3.2083399 5.3629999 12892856
1.0256 3.2121699 5.36165 12892856
1.03241 3.2145801 5.3659201 13090235
1.02854 3.2162399 5.35321 12234670
-2.20049 2.3989601 6.9781098 8419439
-2.2013099 2.4053199 6.9685502 8484976
-2.19066 2.40574 6.9750299 9603203
-2.1807699 2.41239 6.9717798 14208972
-2.17173 2.4138999 6.9806399 14340303
-1.87424 2.4768801 6.7730699 13879751
-1.8420399 2.49525 6.7824702 14077131
0.72037798 3.1450601 5.5191898 13945544
0.72466898 3.1521499 5.5128598 13879750
0.86341 3.18344 5.4379001 12234925
0.87356699 3.181 5.4345598 11839909
0.88778597 3.1898201 5.4324999 11708581
0.88058299 3.1854899 5.4337101 11774117
0.90535098 3.1939299 5.4256001 11576738
0.92462403 3.1990399 5.4307399 11708580
0.94049799 3.20609 5.4014201 11379614
0.96255898 3.2049999 5.3983698 11905960
0.95797199 3.2100401 5.3944001 11182236
0.981682 3.21118 5.3934898 12169131
0.98968798 3.2101901 5.3782401 12037546
0.99791998 3.21208 5.3684001 11840166
1.00372 3.2149601 5.3727102 12103082
-2.19104 2.4117601 6.96455 10392719
-2.2016799 2.41167 6.9565301 8484977
-2.1809001 2.41786 6.9601898 14406351
-1.87086 2.4853899 6.7794199 14011338
-1.83821 2.49753 6.76162 14011338
0.85509801 3.18838 5.4445701 13089977
0.866328 3.1888399 5.4384499 12629683
0.87344497 3.1907001 5.4333601 12629426
0.88052499 3.1933601 5.4295502 12563889
0.89213997 3.1974699 5.4265599 12234924
0.88672799 3.2014501 5.4257898 12958648
0.90188599 3.1995101 5.4203 12037545
0.93014401 3.2060499 5.3975 11840166
0.946437 3.21048 5.4004302 11314078
0.939704 3.21421 5.3963799 12234924
0.95930803 3.2179799 5.3889899 11708580
0.976632 3.22421 5.3842402 11774372
0.98430902 3.22558 5.3784699 11840165
0.991952 3.2289 5.3757801 12103337
-2.19135 2.4179399 6.9527402 11182493
-2.1809599 2.424 6.94908 14406095
-1.9426399 2.4782701 6.80442 14142924
-1.8501101 2.4980299 6.7415099 12827063
-1.83909 2.49718 6.73738 13550787
-1.83365 2.5037 6.72961 13024443
-1.78993 2.51384 6.7300301 14143180
0.86641097 3.2042501 5.45152 13419199
0.86625201 3.1975701 5.4356799 13419199
0.87538499 3.20385 5.4228101 13550785
0.88805598 3.2067399 5.4148402 13484992
0.88714403 3.2058201 5.4115601 13550784
0.92798698 3.2123301 5.4002099 12695474
0.93611997 3.2142899 5.3857498 13156026
0.92749399 3.21615 5.3864002 13748420
0.94643998 3.2164099 5.3927598 12234925
0.94259501 3.21645 5.3818302 13221820
0.951657 3.2172201 5.3790202 12761525
0.961236 3.2178199 5.3758602 12366510
0.95918697 3.22 5.3754802 12892854
0.97023898 3.22278 5.3783998 12234923
0.98436099 3.2288401 5.3673501 13090491
0.98857999 3.2290101 5.3787298 12103338
-2.21152 2.4191799 6.9366798 8550768
-2.20223 2.41887 6.947 8550770
-2.20171 2.42486 6.9350901 8616564
-2.19137 2.4243901 6.9421301 12300717
-2.1909201 2.42454 6.9421902 12498097
-2.18097 2.43066 6.9389701 14406352
-1.94353 2.48598 6.7968702 14208717
-1.93092 2.48808 6.7822299 14142924
-1.76354 2.52634 6.6827998 13879752
0.86108702 3.1997299 5.4131098 13748165
0.87618399 3.20699 5.41324 13748163
0.87318701 3.20574 5.4200001 13682371
0.88892502 3.21 5.40552 13813956
0.906075 3.2158999 5.4100199 13682370
0.892676 3.20699 5.3998499 13748163
0.91518402 3.22067 5.40382 13814214
0.92202902 3.2175801 5.3853898 14011336
0.92438602 3.21751 5.3856502 13945543
0.93781 3.21893 5.3727698 14011336
0.95158303 3.22684 5.3779602 13945543
0.95918101 3.22703 5.3703399 13945543
0.96866697 3.2308099 5.3722901 13814213
0.96410698 3.2344301 5.3661599 14142922
0.96381497 3.23246 5.3633499 14142922
-2.21087 2.4242499 6.9249001 8484976
-2.2017 2.4310501 6.9238801 8879737
-2.19102 2.4308701 6.9315 13484992
-2.19134 2.4307699 6.9313302 13353663
-2.18099 2.43679 6.9277802 14406096
-2.1809101 2.4370401 6.9282999 14406096
-1.94321 2.48908 6.7804298 14208717
-1.92992 2.4893401 6.7562699 14208717
-1.72358 2.5406101 6.6463499 14077131
-1.71499 2.5427499 6.6423001 14208717
-1.70815 2.5482299 6.6448798 14274510
-1.69576 2.54953 6.6594601 14471889
0.93026602 3.2278199 5.3881798 14011337
0.93978798 3.22965 5.3828802 14077130
0.951594 3.2332201 5.37181 14142922
0.94582802 3.23154 5.37358 14077130
-2.21246 2.4319699 6.9173899 8550769
-2.2014799 2.43782 6.91295 9669254
-2.19103 2.4370999 6.9205298 14208716
-2.1916699 2.43715 6.9207802 14011593
-1.8984801 2.50525 6.7321901 14208718
-1.71497 2.55089 6.6357799 13879752
-1.7005301 2.55181 6.64429 14406096
-1.68657 2.5608699 6.6252999 14603732
-1.67656 2.56039 6.6173201 14603732
-1.6390899 2.5686901 6.5844402 14603989
-2.2118399 2.4386401 6.9049902 8484977
-1.8872401 2.51263 6.7135201 14274510
-1.70541 2.5578001 6.6360302 14143180
-1.69646 2.5606301 6.63135 14471889
-1.6767401 2.5650599 6.6019402 14340560
-1.62391 2.5859599 6.5938201 14538195
-2.2119501 2.4445 6.8942599 8419184
-2.2014301 2.4448099 6.9007201 10721941
-2.1916499 2.4512501 6.8986101 14471888
-1.85844 2.5234301 6.6929798 14274510
-1.8584501 2.5234499 6.6930199 14274510
-1.8379 2.5290599 6.6792898 14274510
-1.8138 2.5376501 6.65731 14208974
-1.79808 2.5388601 6.6479101 14142924
-1.63722 2.57656 6.5722499 14472145
-1.62335 2.5922 6.5823202 14406610
-2.2123699 2.4512801 6.8843398 8484977
-2.2014799 2.4507501 6.8898401 11643044
-2.20153 2.4567599 6.87889 12366767
-2.1914799 2.45719 6.8871498 14340559
-1.7677701 2.5545199 6.6412702 14077130
-1.62894 2.59343 6.5655799 13945545
-1.6210901 2.5955901 6.5634499 14143181
-1.57943 2.59935 6.5385699 14603732
-1.57129 2.6018901 6.5334902 14603989
-2.2189801 2.4486301 6.86729 8550768
-2.2119 2.45701 6.87184 8682356
-2.2018099 2.46312 6.8685298 13090491
-2.19135 2.46281 6.8753901 14406352
-1.5890599 2.60502 6.53825 14143181
-1.59357 2.6042399 6.52385 13221823
-1.58463 2.60763 6.5199499 13419201
-1.57941 2.6076901 6.53265 14340303
-1.57551 2.6108301 6.5156202 13616580
-1.56639 2.6140299 6.5114002 13880008
-1.56909 2.60917 6.5229201 14406353
-1.56861 2.6087501 6.5221901 14471889
-1.55993 2.61233 6.51863 14537939
-1.5510499 2.6143601 6.5148802 14538196
-2.21193 2.46315 6.8608699 8748407
-2.20156 2.46924 6.8564 13551042
-2.19014 2.46854 6.8638902 14340560
-1.77158 2.5689199 6.6353302 14274767
-1.75968 2.57792 6.62534 14406352
-1.74371 2.57356 6.6058402 14537682
-1.7332799 2.57074 6.5775299 14603476
-1.7351201 2.57164 6.57833 14603732
-1.55905 2.6187899 6.5098901 14143180
-1.55101 2.62222 6.5077701 14275023
-1.53432 2.62535 6.4994898 14603988
-1.53421 2.62398 6.4965301 14603988
-1.52362 2.63042 6.4953198 14603989
-1.5166399 2.6321101 6.4945698 14669525
-1.51 2.6355801 6.4788499 14603732
-1.4974999 2.6412499 6.47719 14603731
-2.2233801 2.46398 6.8512998 8616562
-2.2125101 2.4695699 6.84797 9011322
-2.2014999 2.47505 6.8439898 13945544
-2.19291 2.47664 6.8573899 14340304
-1.7518899 2.5750699 6.59201 14603731
-1.72419 2.5834501 6.5824699 14669525
-1.71465 2.5901 6.5791602 14669268
-1.70219 2.5915401 6.5780902 14603731
-1.68819 2.5955501 6.55339 14669268
-1.67532 2.5961299 6.5472498 14603475
-1.55091 2.6285701 6.4971399 13682630
-1.54177 2.62958 6.4921398 14011595
-1.53355 2.63132 6.4882102 14274766
-1.5258 2.6333301 6.4829402 14406352
-1.51844 2.6350901 6.4823499 14538195
-1.50985 2.6423099 6.4692602 14406609
-1.5135601 2.64045 6.4710598 14406353
-1.50555 2.63955 6.47857 14603732
-1.49766 2.6387 6.45402 14603731
-1.49299 2.6435599 6.45748 14603732
-1.48368 2.6434801 6.44912 14669269
-2.22281 2.46942 6.8375001 8484977
-2.2126901 2.47561 6.83571 9142909
-2.2014201 2.48066 6.8311701 14077128
-2.1926501 2.4823599 6.8447299 14274510
-1.6711299 2.5994599 6.5353398 14603988
-1.52999 2.6384201 6.4756498 13551044
-1.52289 2.64044 6.4756498 14077388
-1.52733 2.6438401 6.4633899 13090236
-1.52476 2.64364 6.4640002 13287615
-1.51809 2.6459799 6.4583902 13353408
-1.51466 2.64678 6.46 13616580
-1.50752 2.64661 6.4540801 13814216
-1.49933 2.6475899 6.44942 14077131
-1.4993 2.64762 6.4467602 13945545
-1.48378 2.65184 6.4435 14537682
-1.47528 2.6530199 6.4366899 14537682
-2.2238801 2.4774001 6.8274698 8419184
-2.2132001 2.4814701 6.8239799 9669253
-2.20102 2.4860401 6.81775 14077385
-2.1944399 2.48945 6.8357801 14208716
-1.65806 2.61567 6.5301199 14538195
-1.64815 2.6158199 6.5216098 14406609
-1.63735 2.6271999 6.5327601 14208460
-1.62845 2.6285 6.5304799 14076874
-1.6159199 2.6273 6.5215998 13879752
-1.61107 2.6271801 6.4962702 14142923
-1.4534301 2.66435 6.4281602 14538196
-1.45339 2.66416 6.4280701 14538196
-1.45263 2.6670499 6.4126301 14275023
-1.4076999 2.6759601 6.3766398 14603988
-2.22311 2.4828801 6.8133998 8484977
-2.21227 2.48914 6.8101702 10458769
-2.2011099 2.49231 6.80545 14011592
-2.1937799 2.4923999 6.8211999 14077386
-1.6503201 2.62661 6.5118399 14603475
-1.63669 2.62586 6.5029001 14406352
-1.61964 2.6245899 6.48241 14340303
-1.60645 2.62872 6.47328 14274510
-1.609 2.63012 6.4737101 14340303
-1.58655 2.6396401 6.46731 14274766
-1.58687 2.64115 6.4700599 14274766
-1.57214 2.6410201 6.4766302 13682373
-2.2219801 2.4913299 6.8006701 8484977
-2.2123301 2.49541 6.7983999 10984857
-1.64218 2.62532 6.4849601 14603731
-1.63184 2.6266201 6.4795599 14538195
-1.61926 2.6289899 6.4699302 14472402
-1.62137 2.63552 6.4651399 14603988
-1.57416 2.64325 6.43121 14406609
-1.53646 2.6561401 6.4359298 13287614
-1.52782 2.66029 6.4363098 13221564
-1.39952 2.6883199 6.3675699 14406610
-2.22223 2.4979601 6.7894001 8550771
-2.2017601 2.49875 6.79425 13945544
-1.60808 2.6382301 6.4540801 14603988
-1.59699 2.6426201 6.4475398 14538196
-1.57029 2.6488099 6.4222698 14537939
-1.55431 2.6507699 6.4166198 14274767
-1.5473599 2.6605401 6.4298401 14274509
-1.52979 2.6675501 6.4283199 13813957
-1.5231 2.67207 6.4327502 13748165
-1.5066 2.6705799 6.4245801 13616580
-1.4910901 2.6751299 6.4176502 13748165
-1.36007 2.7035401 6.3295398 14538195
-2.2123699 2.5018799 6.7866998 11774373
-2.22241 2.5042801 6.7792602 8550771
-2.2025299 2.50614 6.78444 13945544
-1.58 2.65557 6.4416099 14603732
-1.55761 2.6619201 6.4191399 14669525
-1.55761 2.6619201 6.4191399 14669525
-1.55761 2.6619201 6.4191399 14669525
-1.53815 2.6698301 6.4149299 14603475
-1.52978 2.6724701 6.4151001 14471632
-1.51911 2.67788 6.42314 14274253
-1.50833 2.67869 6.4188499 14340046
-1.49974 2.6820099 6.4166498 14406095
-1.49164 2.6830499 6.4108801 14406095
-2.2121501 2.50793 6.7741599 12235181
-2.2030599 2.51301 6.7740798 13945800
-1.5387599 2.68011 6.41504 14669524
-1.52979 2.6776299 6.4025698 14735061
-1.5181 2.6763401 6.39399 14603732
-1.51408 2.68151 6.3980799 14537939
-1.49169 2.6899199 6.4021001 14603474
-1.4613301 2.69347 6.36901 14669780
-2.22316 2.51035 6.7652998 8616564
-2.2125101 2.5141499 6.7619901 12366767
-2.20278 2.5185399 6.7609 13945800
-2.0221601 2.5562699 6.6212902 13945545
-1.51747 2.6823599 6.3825002 14669525
-1.51747 2.6823599 6.3825002 14669525
-1.51747 2.6823599 6.3825002 14669525
-1.4728 2.69543 6.3639898 14669781
-1.4599299 2.6960101 6.3531699 14735317
-1.44986 2.70087 6.3501902 14735318
-1.22153 2.76071 6.2321901 14669781
-2.2230101 2.51564 6.7521901 8748406
-2.21228 2.5197001 6.7480102 12761781
-2.0278599 2.56388 6.6233301 14076874
-2.01403 2.5608001 6.6096702 13945545
-1.943 2.5807099 6.57023 14077130
-1.93493 2.5824299 6.5690198 14143180
-1.2307301 2.76033 6.2228498 14669525
-1.22101 2.76438 6.2189202 14603989
-2.2323999 2.51915 6.7428002 8550769
-2.2229099 2.5237501 6.7406902 8814199
-2.2125399 2.5259399 6.7362599 13090489
-2.20172 2.5277801 6.7308102 14143179
-2.0327799 2.5657799 6.6092401 14208717
-2.0346601 2.5589001 6.6009002 14142924
-2.0346601 2.5589001 6.6009002 14142924
-2.02284 2.5675001 6.6079502 14142924
-1.9560601 2.5841 6.5599098 14208717
-1.94319 2.58588 6.5567999 14274510
-1.52491 2.69368 6.3514299 14669525
-1.3724999 2.7329099 6.28127 14735574
-1.2018 2.7797599 6.1998301 14669525
-1.1921099 2.77947 6.2049599 14735318
-2.23142 2.5246699 6.7295198 8419440
-2.2126601 2.53211 6.7244 13419711
-2.20402 2.53562 6.7238202 14274509
-2.0278399 2.5686901 6.58988 14340046
-2.0037601 2.57005 6.5563502 14472145
-1.9868701 2.5797801 6.58074 14208973
-1.97859 2.5845499 6.5791101 14274509
-1.96972 2.58413 6.5682201 14274510
-1.51254 2.7025399 6.3489099 14603988
-1.5029401 2.7033 6.3408899 14669781
-1.5054899 2.70436 6.33288 14538452
-1.47335 2.71697 6.3236599 14603988
-1.4637901 2.71679 6.3140302 14669781
-1.1929899 2.7855899 6.1972799 14669524
-2.2325101 2.53216 6.7169299 8419440
-2.2237699 2.53652 6.7170801 9406337
-2.2131 2.53825 6.7124901 13682883
-2.20648 2.54333 6.7161999 14340302
-2.1473701 2.5439999 6.6198902 14143180
-1.99546 2.5829401 6.5739398 14537939
-1.98666 2.58759 6.5746398 14472402
-1.97159 2.59376 6.5574002 14537939
-1.95769 2.5941899 6.5594301 14406353
-1.93652 2.61057 6.5631199 14406353
-1.73683 2.6539299 6.4510999 14406609
-1.72311 2.6573801 6.4266801 14340560
-1.47763 2.7104001 6.3021402 14669524
-1.46641 2.7167399 6.2995801 14669524
-2.2339201 2.53895 6.7065401 8485233
-2.2240801 2.5423801 6.7045698 9471873
-2.21313 2.54388 6.69941 13616578
-2.2065001 2.5489099 6.7030702 13945545
-2.1915801 2.5415101 6.6641598 14274509
-2.1897099 2.54722 6.6579599 13945544
-2.17733 2.54526 6.64259 14077130
-2.1700699 2.5448699 6.6514702 14209230
-2.1686101 2.5466399 6.6352401 13880007
-2.1568899 2.54445 6.62567 14077130
-1.97124 2.60059 6.5478101 14669781
-1.9658 2.60534 6.5503402 14669781
-1.9532 2.6069601 6.5561399 14538195
-1.92893 2.61358 6.5527902 14472145
-1.9269 2.61567 6.5569501 14472145
-1.91853 2.6176901 6.5405998 14537939
-1.73571 2.6562901 6.4313302 14274767
-1.7096699 2.6633401 6.4073501 14274766
-1.7006299 2.6675 6.4254699 14406353
-1.69489 2.6653299 6.3908501 14340559
-2.2255299 2.54951 6.6950302 9274494
-2.2133601 2.5496299 6.6866899 13222075
-2.2079799 2.5553899 6.6921902 13616578
-2.1993301 2.55704 6.6771898 13419456
-2.18976 2.55179 6.6634598 13879751
-2.18976 2.55179 6.6634598 13879751
-2.1865201 2.5516901 6.64258 13156285
-2.1722801 2.5494399 6.6258602 13353407
-2.05777 2.58459 6.5888 14340559
-1.95478 2.6193299 6.5585399 14735317
-1.94287 2.6189799 6.5502901 14669781
-1.92682 2.6208401 6.54461 14603988
-1.91644 2.6261001 6.53685 14669525
-1.88384 2.6355901 6.5229402 14538195
-1.87646 2.6312201 6.5151801 14537938
-1.8674999 2.6390901 6.5208402 14406609
-1.8583699 2.6408601 6.5068002 14472145
-1.80983 2.64676 6.46346 14406352
-1.6461101 2.6893699 6.3769898 14537940
-1.50053 2.7234001 6.3160901 14143181
-2.23594 2.5544 6.6898899 8484976
-2.2255299 2.55527 6.6824398 9274237
-2.21398 2.5559101 6.6753702 12234924
-2.2058001 2.5573399 6.6674099 12761268
-2.1126699 2.56774 6.5861902 14142923
-2.0660701 2.59236 6.5852399 14340561
-2.0585499 2.59746 6.5919299 14406609
-1.94143 2.62517 6.5392299 14735575
-1.92469 2.62936 6.5411 14669782
-1.9133 2.6355901 6.5359602 14735317
-1.90185 2.6419301 6.5310798 14670038
-1.90227 2.6429 6.5335798 14670038
-1.90227 2.6429 6.5335798 14670038
-1.8939199 2.63782 6.5245199 14669781
-1.88353 2.64028 6.50984 14604244
-1.8762 2.6410699 6.5141802 14603988
-1.87102 2.64609 6.5039902 14603988
-1.84264 2.6430099 6.4732399 14537939
-1.8338701 2.63767 6.4225302 14670038
-1.81644 2.6498799 6.45472 14538195
-1.8240499 2.6429801 6.4248199 14735574
-1.81007 2.6512799 6.4490499 14603988
-1.8014801 2.6575 6.45082 14603988
-1.80068 2.65711 6.45155 14603732
-1.79212 2.65887 6.4476199 14472146
-1.78328 2.6591401 6.44064 14472146
-1.63587 2.7002399 6.3624001 14340561
-1.63585 2.70013 6.3621302 14340561
-1.63585 2.70013 6.3621302 14340561
-1.6253 2.6954899 6.3544402 14406353
-1.60505 2.70732 6.3441901 14340560
-1.21477 2.8072701 6.1705298 14669781
-1.20184 2.80861 6.15414 14604245
-1.2018 2.81268 6.1554098 14669781
-2.2359099 2.5601399 6.6760101 8485232
-2.22469 2.56055 6.6687598 9406080
-2.2142799 2.56145 6.66188 12037543
-2.19891 2.56148 6.6472702 12629938
-2.1898799 2.56146 6.6424999 12827063
-2.17766 2.56235 6.6303701 12958650
-2.16731 2.5623 6.6001401 12827063
-2.1268301 2.5741799 6.58497 13419200
-2.1193399 2.57689 6.5855899 13814215
-2.10903 2.57706 6.5803699 13879752
-2.10514 2.5813601 6.5855298 14274509
-2.0950699 2.5813301 6.5795298 14208973
-2.0934801 2.5886199 6.5872002 14274767
-2.0790701 2.5901301 6.5796199 14208975
-2.0580299 2.6045499 6.58108 14538195
-2.0492699 2.6079099 6.5856099 14669781
-1.86893 2.65312 6.4997602 14604245
-1.85992 2.65118 6.49856 14603988
-1.85218 2.64344 6.4570298 14670038
-1.81205 2.6579299 6.43998 14670039
-1.80352 2.66452 6.45013 14669782
-1.79213 2.6659501 6.43894 14669525
-1.77117 2.6691999 6.4323902 14537939
-1.77223 2.67097 6.4363999 14537938
-1.71667 2.6862099 6.4051499 14340303
-1.61514 2.70593 6.3376198 14143438
-1.36973 2.76965 6.2091398 14603475
-1.3611 2.7734301 6.2066498 14669269
-1.3529 2.77373 6.2005 14735061
-1.3396699 2.77845 6.1974101 14669268
-1.3396699 2.77845 6.1974101 14669268
-1.3396699 2.77845 6.1974101 14669268
-1.1939 2.8178401 6.1431599 14669524
-1.18259 2.81862 6.1366501 14669268
-2.2328801 2.5594299 6.6555901 8485233
-2.2244101 2.56639 6.6563902 9537666
-2.21488 2.5720999 6.6538501 12432302
-2.1161699 2.58603 6.57934 13221822
-2.0975299 2.58602 6.5683098 14077387
-2.09484 2.5890901 6.5718298 14208717
-2.0855999 2.5914199 6.5660701 14274510
-2.0787399 2.59411 6.56883 14340303
-2.0520301 2.6078401 6.56288 14669781
-2.0480499 2.61077 6.5788598 14670038
-2.0437601 2.6013601 6.5248699 14603988
-1.784 2.6742101 6.4256101 14735831
-1.78293 2.6753399 6.4261799 14735831
-1.77258 2.6801 6.43367 14669525
-1.73071 2.69803 6.4226298 14537939
-1.70846 2.6923399 6.3727798 14603988
-1.35401 2.7789099 6.19138 14603475
-1.34416 2.78055 6.18642 14735061
-1.33459 2.77916 6.1761999 14735318
-1.32911 2.7854199 6.1791601 14735318
-0.96102798 2.8747301 5.9849601 14603732
-0.95684397 2.8805301 5.9906301 14669268
-2.2336199 2.5669999 6.6483898 8551026
-2.2241001 2.5727201 6.6458702 9998217
-2.2131901 2.57535 6.6402602 12958390
-2.1087999 2.59112 6.5632601 12827320
-2.10432 2.5967901 6.5668802 13024699
-2.0857201 2.59513 6.5534401 14077131
-2.0804601 2.6038401 6.54743 14077130
-2.0722201 2.6049299 6.5482898 14340302
-2.0555401 2.6010399 6.53128 14538195
-2.0214601 2.6090901 6.4944201 14603989
-1.99424 2.6134 6.4710498 14603731
-1.98288 2.6154301 6.4637399 14603732
-1.9754699 2.6218901 6.47297 14603732
-1.95275 2.6271 6.4597101 14669524
-1.72765 2.70555 6.4165502 14669525
-1.71996 2.7003801 6.3986902 14669524
-1.70386 2.6939399 6.3548698 14735574
-1.71008 2.69099 6.35642 14735574
-1.64854 2.7086799 6.3220901 14603988
-1.51783 2.7452199 6.2771201 14406095
-1.51026 2.74895 6.27526 14406352
-1.33527 2.7881899 6.1712098 14603732
-1.32652 2.7892699 6.1648002 14669525
-1.3080699 2.7964599 6.1532302 14735318
-0.96219403 2.8841901 5.9769602 14472145
-2.23404 2.57446 6.6409302 8616819
-2.223 2.57814 6.6324701 10590098
-2.2135899 2.5820301 6.63061 13353406
-2.1967399 2.57969 6.6072698 13287614
-2.1891 2.5754001 6.5985799 12892856
-2.1763401 2.5808101 6.5871301 13156028
-2.07464 2.60815 6.5282698 13879494
-2.0072401 2.6138201 6.46626 14340303
-1.9942501 2.6170499 6.4572001 14274767
-1.9720401 2.6233399 6.4604702 14537939
-1.95365 2.62604 6.4487901 14603732
-1.95366 2.6260099 6.4490299 14669268
-1.7447799 2.7018499 6.41891 14735574
-1.72957 2.7081699 6.3975801 14801367
-1.70041 2.6965301 6.3386102 14735831
-1.60426 2.7263999 6.3100901 14340560
-1.59697 2.7286699 6.3069901 14274767
-1.5707999 2.7393501 6.2849998 14143180
-1.5285701 2.7472899 6.2683501 14077130
-1.5178601 2.7521801 6.2695699 14142923
-1.5094399 2.75372 6.2624202 14208717
-0.955571 2.8895299 5.9842701 14603732
-2.2349999 2.5822201 6.62713 8616820
-2.2232599 2.5841701 6.6205802 11050650
-2.21402 2.5880499 6.6189399 13813956
-2.1946499 2.5830801 6.59131 13748164
-2.18381 2.58477 6.5832801 13682372
-2.1733999 2.5866201 6.5756502 13616323
-2.1118701 2.61045 6.5611601 12826549
-2.10144 2.61043 6.5497098 12892599
-2.08775 2.6096599 6.5436401 13550529
-2.07096 2.6147599 6.5325899 13945544
-2.0260501 2.61905 6.47507 14011338
-1.99808 2.6266899 6.4530001 13748166
-1.9747 2.6286099 6.4507098 14274767
-1.97335 2.63135 6.4573398 14406096
-1.96896 2.63118 6.4355102 14142924
-1.96963 2.6291599 6.4219599 13813959
-1.95551 2.6307299 6.4267302 14274767
-1.62149 2.7344601 6.3207102 14735318
-1.61324 2.73469 6.3128099 14669781
-1.60508 2.73541 6.3060899 14603989
-1.59658 2.7356501 6.29845 14538196
-1.5836101 2.7414 6.2768898 14669781
-1.57133 2.7433901 6.2706199 14538195
-1.55349 2.7479899 6.26331 14406096
-1.51903 2.7541299 6.2561598 13879752
-1.27279 2.8164101 6.1167798 14538195
-1.26334 2.8196299 6.11165 14603988
-1.2614501 2.8211 6.12709 14603988
-0.95527202 2.8972399 5.9784598 14603732
-2.2339101 2.58728 6.6126399 8682613
-2.2235501 2.5901899 6.6087799 11314335
-2.1817801 2.5913601 6.5736599 14011081
-2.13849 2.5871401 6.4938502 13880007
-2.11168 2.61538 6.5477099 13353149
-2.0613201 2.619 6.5082202 13550784
-2.04602 2.6203301 6.49441 13748420
-1.98788 2.63202 6.4481602 13813958
-1.96392 2.6347599 6.4219899 13814216
-1.62129 2.7406001 6.31006 14736087
-1.6090699 2.73757 6.2954502 14670295
-1.60267 2.7373099 6.2846198 14735831
-1.5960701 2.7405 6.28583 14735831
-1.57154 2.7491901 6.2607598 14735575
-1.56625 2.74754 6.26967 14603732
-1.56182 2.75107 6.2570601 14669781
-1.5562201 2.74879 6.2629099 14472146
-1.55327 2.7536399 6.2524199 14603988
-1.5447299 2.7551301 6.2453198 14537939
-1.53602 2.75629 6.2377501 14472145
-1.44872 2.78408 6.2100801 14537682
-1.44576 2.7840099 6.2135601 14537682
-1.41898 2.7874501 6.2070599 14735318
-1.39338 2.7904601 6.1820002 14735318
-1.38341 2.7929101 6.1736398 14669525
-1.25526 2.82845 6.1047201 14603988
-1.24667 2.8297801 6.1000199 14669525
-0.95721799 2.90395 5.9712501 14537939
-2.2237301 2.59606 6.5966601 11577250
-2.2038801 2.59758 6.59442 14208715
-2.18784 2.5941999 6.5672302 14274509
-2.14065 2.5968201 6.4921298 14209229
-2.1208 2.6143301 6.54602 13550529
-2.1199999 2.61905 6.53932 13879494
-2.11041 2.6204 6.5342302 13813701
-2.1001599 2.6222799 6.5268898 13748165
-2.0913 2.6257801 6.52351 13550787
-2.0023701 2.6372499 6.4563298 13484994
-1.99088 2.6408601 6.4471798 13484737
-1.92243 2.65343 6.3950901 13813959
-1.58411 2.7493 6.2719798 14735575
-1.55847 2.7555499 6.2460198 14735575
-1.5499001 2.7570801 6.2451 14669525
-1.5257699 2.75911 6.2107501 14603732
-1.45446 2.78791 6.2161002 14340303
-1.4475501 2.7916501 6.20474 14340303
-1.44136 2.78913 6.2046099 14472146
-1.4323 2.79248 6.1993899 14603476
-1.43045 2.79125 6.2017002 14669268
-1.4088 2.79883 6.1760802 14669525
-1.39663 2.79984 6.1879001 14800854
-1.39092 2.80246 6.1644201 14735318
-1.24529 2.8339801 6.08744 14603732
-1.23866 2.8387401 6.08745 14603989
-1.00046 2.89575 5.9728298 14603732
-0.96649098 2.9093299 5.9715199 14603731
-2.2357299 2.5945201 6.6037998 8813942
-2.2337601 2.59886 6.5880198 8879735
-2.21509 2.60022 6.5959201 14208972
-2.2125001 2.60396 6.57897 14471888
-2.1228099 2.6200299 6.5288401 14208460
-2.1162801 2.6228099 6.5267401 14274508
-2.10748 2.6259601 6.5223799 14274509
-1.91635 2.6640699 6.3818102 13353407
-1.9067 2.6633 6.37571 13484993
-1.88791 2.6684599 6.3655801 13814215
-1.86279 2.6754899 6.3610702 14472145
-1.84919 2.68329 6.3520799 14472145
-1.55088 2.77125 6.2541599 14735318
-1.55088 2.77125 6.2541599 14735318
-1.53601 2.7648499 6.2132001 14735575
-1.51719 2.7752199 6.2133298 14735574
-1.46395 2.78913 6.2088599 14340560
-1.4545 2.79298 6.20433 14340559
-1.45433 2.7931499 6.2056198 14340559
-1.4412301 2.8000801 6.2094102 14340560
-1.44125 2.80076 6.2096601 14340560
-1.43862 2.79879 6.2041798 14406352
-1.43194 2.7987399 6.1910501 14472146
-1.42021 2.7999599 6.1834102 14537939
-1.4092799 2.8002701 6.17699 14669525
-1.40696 2.8080599 6.1723299 14472146
-1.39849 2.80936 6.1672902 14537938
-1.38721 2.8079901 6.1539602 14669525
-1.33204 2.8189299 6.1103201 14669268
-1.33087 2.8168099 6.1174102 14537939
-1.24303 2.8380499 6.0750899 14340816
-1.2384599 2.84425 6.0671902 14340559
-1.2268699 2.8411601 6.0687799 14669269
-2.24312 2.59848 6.5823998 8813941
-2.2240801 2.6021399 6.5851698 11379616
-2.2335501 2.6045899 6.5783 8945528
-2.1226699 2.62865 6.5253401 14537425
-2.11391 2.6305201 6.51859 14537682
-2.09868 2.6335299 6.5079398 14274510
-2.10448 2.6315899 6.5103102 14406353
-2.0964 2.63399 6.5052099 14208973
-2.08061 2.6354101 6.4752102 14208973
-2.0780799 2.6220801 6.43995 14340559
-2.0691099 2.6196001 6.4161301 14472145
-2.06672 2.62356 6.4265399 14340559
-2.05599 2.63853 6.4539599 14208717
-2.05599 2.63853 6.4539599 14208717
-2.05599 2.63853 6.4539599 14208717
-2.0563099 2.6240399 6.4103298 14340559
-2.0560701 2.6226499 6.4075499 14340559
-2.0401299 2.6407399 6.4461598 14142923
-1.92661 2.6661601 6.39431 13221822
-1.8672301 2.68681 6.3624701 14077130
-1.8575701 2.6871099 6.35464 14208717
-1.83183 2.6889701 6.3411498 14603732
-1.53136 2.7723701 6.2181501 14801111
-1.50916 2.7800801 6.2090702 14735318
-1.5009 2.7792399 6.1965499 14801111
-1.4900301 2.7894599 6.20577 14669525
-1.46386 2.79509 6.1996102 14208973
-1.45392 2.7995999 6.19661 14011595
-1.44148 2.80565 6.1982999 14340559
-1.43217 2.8117499 6.1944399 14406096
-1.42857 2.8073399 6.18822 14406353
-1.41684 2.80953 6.1820202 14340303
-1.41634 2.80988 6.1830101 14340303
-1.39235 2.8141401 6.1578302 14472146
-1.38625 2.81043 6.1367698 14472145
-1.37925 2.8158901 6.1419201 14603475
-1.37854 2.81598 6.1414199 14603475
-1.3250901 2.82318 6.1114702 14669524
-1.3185 2.8277099 6.1131701 14603475
-1.3106101 2.83127 6.1111202 14472145
-1.30706 2.8335199 6.0945401 14603731
-1.30042 2.83411 6.10886 14208717
-1.29041 2.83727 6.1048899 13682372
-1.23002 2.84828 6.0647502 14603475
-1.22539 2.8507299 6.06675 14669268
-2.23562 2.60936 6.5696502 9011321
-2.2242801 2.6083801 6.5742402 11577251
-2.21416 2.6147299 6.5696301 14406352
-2.14692 2.6319799 6.54849 14472145
-2.13573 2.63937 6.53404 14735061
-2.11186 2.6369801 6.5084901 14603732
-2.1035399 2.63888 6.5022898 14471889
-2.10551 2.63904 6.5021 14537682
-2.10179 2.62097 6.4482598 14603988
-2.09202 2.6355801 6.4855399 14274509
-2.0907199 2.62165 6.4327898 14669525
-2.07868 2.6243401 6.4226298 14669524
-2.06814 2.6246901 6.4061999 14603988
-2.0564899 2.6275699 6.3972902 14538195
-2.06078 2.63271 6.4092999 14537938
-2.0462 2.6293299 6.4043298 14275023
-2.0469799 2.6308999 6.41154 14274766
-2.0396299 2.6391499 6.4095302 14275023
-2.03933 2.64031 6.4176302 14274767
-2.0179901 2.65236 6.4296498 14077387
-1.8759 2.69244 6.3597002 13616580
-1.8680201 2.6944699 6.35572 13682629
-1.80176 2.7090499 6.3179998 14669525
-1.78748 2.7111199 6.3137202 14669783
-1.4852901 2.79743 6.1937699 14669525
-1.4884501 2.7920899 6.1917 14735318
-1.47585 2.7969 6.1958599 14340304
-1.45107 2.8101399 6.18259 14208973
-1.44392 2.8076 6.18009 14274766
-1.42774 2.81267 6.1778302 14208974
-1.41601 2.81236 6.1631398 14142924
-1.40052 2.81705 6.16008 14274767
-1.3989 2.8229401 6.1518002 14208974
-1.3699 2.8241799 6.1204901 14274511
-1.35647 2.83286 6.1294899 14472146
-1.3255399 2.8294201 6.1024699 14669781
-1.31828 2.83356 6.1041198 14669525
-1.29963 2.8374701 6.0941 14537682
-1.29071 2.8420601 6.0935798 14406096
-1.29619 2.8394201 6.07446 14669525
-1.29965 2.8418901 6.0820799 14669525
-1.28838 2.8436999 6.0756302 14669268
-1.2781301 2.84742 6.0723701 14537682
-1.27039 2.8488801 6.0854902 13419200
-1.23922 2.85221 6.0629201 14274509
-1.23349 2.8594301 6.06673 14537939
-2.2352099 2.61444 6.5601401 9274493
-2.22455 2.6142499 6.5640001 11511457
-2.2145901 2.6206999 6.5609498 14471888
-2.11991 2.6438 6.5089002 14735574
-2.0887499 2.62954 6.4293098 14735317
-2.0887499 2.62954 6.4293098 14735317
-2.0887499 2.62954 6.4293098 14735317
-2.066 2.63186 6.4016399 14669781
-2.0643499 2.6285601 6.3980999 14603731
-2.0506899 2.6422601 6.4123302 14537939
-1.8274699 2.70557 6.33044 14274767
-1.81635 2.7084899 6.3260398 14537939
-1.80189 2.71295 6.3027802 14406353
-1.78821 2.7183001 6.30616 14538196
-1.77608 2.7193999 6.2986398 14472660
-1.76373 2.7191501 6.28791 14472403
-1.76131 2.72682 6.2899399 14538196
-1.48624 2.8023701 6.1822 14603476
-1.49046 2.79265 6.1683898 14735318
-1.49303 2.7990699 6.1737099 14735317
-1.47628 2.8069699 6.1790199 13945546
-1.4731899 2.80567 6.1753302 13550788
-1.45286 2.8125401 6.1657701 14274510
-1.4319 2.8134301 6.1399002 14340302
-1.4314899 2.81235 6.1403499 14274510
-1.38361 2.82955 6.1423101 14274510
-1.36452 2.83199 6.1315498 14537682
-1.36901 2.8282399 6.1065798 14011339
-1.35646 2.8383 6.1185899 14208718
-1.34744 2.8376601 6.1128101 14472146
-1.30821 2.8407099 6.0879698 14669525
-1.28854 2.84795 6.06352 14735318
-1.26982 2.8528299 6.0727 14406096
-1.24148 2.86215 6.0625901 14406096
-1.23163 2.86356 6.0546999 14537939
-2.2247801 2.61972 6.5539999 11905959
-2.2147501 2.62626 6.5511799 14669268
-2.13573 2.6468301 6.5258698 14801110
-2.0055301 2.6732299 6.4168901 14406096
-1.99207 2.6733699 6.4090099 14406096
-1.98042 2.67663 6.4054799 14274510
-1.8314101 2.71544 6.3246899 14077130
-1.81785 2.7184701 6.32548 14472145
-1.81782 2.7177999 6.3240299 14274766
-1.80312 2.72171 6.2994099 14142925
-1.78833 2.72348 6.29426 14143438
-1.7759399 2.7233801 6.2839098 14209231
-1.77572 2.7272699 6.2853298 14077388
-1.7642 2.73015 6.28127 14011596
-1.76292 2.72701 6.2898998 14472404
-1.48402 2.8032601 6.1614099 14669525
-1.4823999 2.8038599 6.1422701 14735062
-1.47541 2.81077 6.1654301 14471889
-1.4657 2.8148301 6.1624298 14406096
-1.46894 2.81113 6.1511898 14537682
-1.45771 2.8111 6.1614199 14274510
-1.4571199 2.8169601 6.15207 14340559
-1.44701 2.8155701 6.1524801 14208717
-1.4439501 2.8127501 6.13025 14340559
-1.43156 2.81546 6.1240702 14406353
-1.38581 2.8322201 6.1259098 14077388
-1.3472 2.8380301 6.0906901 14142925
-1.33758 2.8398399 6.0871201 14406096
-1.32779 2.8449399 6.0871401 14537682
-1.31768 2.84917 6.0827198 14603732
-1.27584 2.85515 6.0615201 14669525
-1.26942 2.85797 6.0615401 14669268
-1.26367 2.8633599 6.0634799 14603475
-1.26819 2.86307 6.0509501 14735061
-1.2561899 2.8665099 6.0609498 14537682
-1.1814801 2.8800399 6.0008202 14537939
-2.22509 2.6258299 6.54357 11906216
-2.2138 2.6325901 6.5395598 14735060
-1.97316 2.6798401 6.3867998 14340559
-1.96646 2.6817601 6.38202 14208973
-1.95864 2.6835001 6.3758702 14077387
-1.95439 2.68854 6.3772898 13880007
-1.8180799 2.7221501 6.3093801 14143180
-1.78942 2.72857 6.2920299 13945546
-1.78974 2.7331901 6.2942801 13813959
-1.76361 2.7341199 6.2835398 13880009
-1.70012 2.74617 6.2395902 14604245
-1.69205 2.7490799 6.2349801 14735574
-1.46588 2.8196399 6.15065 14537939
-1.4689699 2.81587 6.1393399 14669781
-1.45182 2.8199201 6.1410499 14406353
-1.44548 2.81861 6.1229601 14537682
-1.3569601 2.84477 6.0905299 13879752
-1.34721 2.84395 6.08111 14011338
-1.3376 2.8466599 6.07932 14208717
-1.32564 2.8515 6.08219 14472145
-1.32945 2.84938 6.0750999 14340303
-1.31832 2.8539901 6.07376 14537682
-1.31668 2.8557 6.0749798 14537939
-1.30459 2.8559999 6.06214 14669268
-1.30407 2.8549399 6.0665698 14669525
-1.26082 2.8663499 6.0486798 14669268
-1.2567 2.86818 6.0387602 14603732
-1.24714 2.8708999 6.0345201 14537682
-1.15114 2.8907499 5.9793301 14603989
-2.00418 2.6828001 6.3859401 14801110
-1.9828399 2.69262 6.40277 14537682
-1.97359 2.68963 6.3846002 14406353
-1.96641 2.6898899 6.3757701 14208717
-1.95761 2.69172 6.3686299 14011337
-1.94877 2.6935799 6.3615999 13748422
-1.69987 2.7543099 6.2336898 14472658
-1.4693201 2.82499 6.13692 14801111
-1.46447 2.82391 6.1385002 14735318
-1.45789 2.82409 6.1297798 14735318
-1.44555 2.8255 6.1209898 14669525
-1.44791 2.8271899 6.1195002 14669525
-1.4368 2.8292301 6.1315098 14471890
-1.34733 2.8521299 6.0766802 14077131
-1.34591 2.85357 6.0748301 14077131
-1.3295701 2.8564999 6.0693102 14340303
-1.31766 2.8545101 6.0538602 14340303
-1.31503 2.8550701 6.0546298 14406096
-1.3041 2.85953 6.0529399 14537682
-1.23706 2.8775001 6.0218301 14471889
-1.12063 2.90836 5.9505301 14472146
-1.11062 2.9138999 5.9592299 14537938
-1.09896 2.9168999 5.96246 14603731
-1.99981 2.68944 6.3966799 14800854
-1.99244 2.6942799 6.3833799 14801368
-1.98237 2.6939099 6.37676 14735574
-1.96641 2.6989601 6.36869 14669525
-1.94883 2.7026999 6.35466 14472145
-1.9398299 2.70421 6.3473902 14274766
-1.69883 2.7616 6.2260199 13813959
-1.47136 2.83143 6.1375499 14801368
-1.4663 2.8306899 6.1361799 14801112
-1.45542 2.8301001 6.1227899 14801111
-1.44643 2.8310001 6.1111202 14801111
-1.4495 2.83512 6.1145902 14800854
-1.34306 2.86324 6.0781999 14077131
-1.34176 2.86339 6.0749602 14077131
-1.33052 2.8609099 6.0529199 14142924
-1.31573 2.85987 6.0447302 14208717
-1.31862 2.86064 6.04531 14208717
-1.3001601 2.8634601 6.03478 14406097
-1.29348 2.8687 6.0429702 14537682
-1.21653 2.89152 6.0002198 14669268
-1.11071 2.91802 5.9472899 14472145
-1.09896 2.9204299 5.9488001 14537939
-1.0991499 2.9207301 5.9281101 14406096
-1.9794101 2.69858 6.3619299 14736344
-1.97228 2.7034199 6.3626299 14736088
-1.94757 2.7103901 6.3446102 14801367
-1.64812 2.7748699 6.1802201 14406609
-1.60993 2.7864699 6.1522598 14670039
-1.44647 2.8385701 6.10572 14800855
-1.43529 2.8372099 6.0964599 14735062
-1.3873399 2.8483 6.0641098 13945545
-1.34478 2.86639 6.0481 14077131
-1.3187701 2.8668499 6.03509 14208717
-1.3090301 2.8666899 6.0290198 14274510
-1.30872 2.87077 6.0176201 14274510
-1.3015 2.8723099 6.03233 14340560
-1.20811 2.90219 5.9899502 14669782
-1.19971 2.9033599 5.9832902 14669269
-1.1087 2.92152 5.9333501 14208974
-1.0498 2.93999 5.9001999 14603988
-1.92044 2.7156899 6.3171501 14735318
-1.91188 2.72296 6.3199701 14669525
-1.8998899 2.7249501 6.3140502 14537682
-1.88753 2.7292399 6.3090901 14405840
-1.63257 2.7858601 6.16576 14472402
-1.62308 2.7880199 6.1613498 14603988
-1.5925699 2.7974701 6.13905 14669782
-1.58327 2.7987101 6.12151 14603988
-1.57851 2.80323 6.1270299 14669781
-1.56942 2.80288 6.12253 14735575
-1.56398 2.80775 6.12324 14735318
-1.44899 2.8435099 6.1090999 14801111
-1.39537 2.85097 6.0587101 14406352
-1.39591 2.85022 6.0580101 14406353
-1.38741 2.8557701 6.05899 14274511
-1.35097 2.8673799 6.0329299 14208717
-1.3455 2.8717301 6.0376401 14208717
-1.29264 2.87608 5.9878302 14340047
-1.28379 2.87918 5.98527 14340304
-1.2784899 2.8801 5.9835801 14406096
-1.16959 2.9122901 5.9442101 14669524
-1.17714 2.90853 5.9414201 14669525
-1.12476 2.9288099 5.93613 14208716
-1.05102 2.93736 5.88796 14603731
-1.05478 2.93663 5.8800502 14472145
-1.05036 2.94274 5.8794599 14472146
-1.0346299 2.94472 5.8896499 14538195
-1.02537 2.95174 5.8766499 14603988
-1.90922 2.72504 6.3005099 14932441
-1.90014 2.7293301 6.3018498 14866904
-1.89189 2.7346001 6.3017201 14866649
-1.88392 2.7334399 6.27561 14932697
-1.86458 2.7401099 6.2793102 14801111
-1.8474801 2.7401299 6.27003 14537682
-1.83244 2.7427599 6.2593498 14208974
-1.59735 2.8041401 6.1371298 14209231
-1.57881 2.80408 6.1121202 14406353
-1.5788701 2.8041799 6.11234 14406353
-1.57065 2.8076999 6.1094198 14603732
-1.57047 2.8073001 6.1087098 14603732
-1.56533 2.8125701 6.1124001 14669525
-1.5648 2.81107 6.1096201 14669525
-1.5548199 2.8092599 6.0973701 14669269
-1.54488 2.8092101 6.0926399 14735061
-1.40494 2.85729 6.0612001 14735317
-1.40497 2.85586 6.0604 14735061
-1.39557 2.85973 6.0563898 14669525
-1.38743 2.86308 6.0534101 14669269
-1.28668 2.8870699 5.9861898 14142924
-1.27719 2.8850601 5.9694099 14274510
-1.1425 2.92588 5.9253402 14669268
-1.13318 2.9298601 5.9263201 14537682
-1.12486 2.9323399 5.9226999 14406096
-1.03476 2.95192 5.8824 14537938
-1.02236 2.95263 5.8590598 14472402
-1.01577 2.95328 5.8411102 14406353
-1.8948801 2.7338901 6.2834501 14932954
-1.87806 2.73803 6.2786002 14932441
-1.86473 2.74788 6.2723198 14867161
-1.8355401 2.74827 6.2410598 14801625
-1.82363 2.7553599 6.2411199 14801111
-1.81463 2.7555499 6.2340798 14735319
-1.60242 2.8125801 6.1380801 13682629
-1.59138 2.8083301 6.1245999 13945801
-1.57813 2.8097601 6.10285 14011339
-1.56622 2.81253 6.09586 14340560
-1.56346 2.8153801 6.0966301 14406096
-1.55589 2.8146901 6.0868802 14471889
-1.40513 2.8658199 6.05832 14866904
-1.3876801 2.8691299 6.04772 14800855
-1.3748699 2.87112 6.0390301 14734805
-1.35136 2.8816299 6.04175 14340304
-1.34252 2.8828299 6.0334702 14340304
-1.33276 2.88714 6.0272498 14274253
-1.14244 2.9335001 5.92026 14735061
-0.99727201 2.96398 5.8209 14405839
-0.99013698 2.96364 5.8126101 14471889
-1.83394 2.7562499 6.24684 14801624
-1.81558 2.7611599 6.2244301 14867417
-1.80671 2.7620299 6.2174301 14801880
-1.54159 2.82656 6.07654 14471633
-1.54589 2.8206401 6.0759401 14406096
-1.5348901 2.83148 6.0784998 14472145
-1.37508 2.87747 6.0323901 14800854
-1.35297 2.8822801 6.02244 14603476
-1.3529299 2.8854699 6.0089402 14801111
-1.34333 2.88745 6.0113602 14603732
-1.33052 2.8877299 6.00492 14274510
-1.33683 2.8857501 6.0083799 14406096
-0.99200201 2.9693601 5.81215 14274510
-0.98439699 2.9709699 5.8073101 14340303
-0.97642601 2.97224 5.8018498 14471889
-0.96270502 2.98505 5.8173699 14472146
-0.95380902 2.9824901 5.8082099 14538195
-0.94246501 2.9829199 5.7859602 14538196
-1.79196 2.77565 6.21031 14866904
-1.77959 2.77935 6.2119999 14669524
-1.7682101 2.7821701 6.2050099 14669268
-1.75907 2.78526 6.2004399 14340303
-1.7571599 2.7862899 6.19734 14340304
-1.6408401 2.8064699 6.1160698 14077131
-1.56876 2.82601 6.0964699 14011338
-1.56065 2.82529 6.0867801 14142924
-1.55181 2.8331399 6.0736299 14077130
-1.52294 2.83236 6.0599399 14537939
-1.51622 2.8284099 6.0328898 14406609
-1.36593 2.8869901 6.0177202 14801368
-1.34059 2.8931501 6.0000601 14735318
-1.33683 2.8914101 5.9969902 14603732
-1.331 2.8936 5.99577 14537938
-1.32232 2.8931301 5.98948 14406096
-1.32093 2.89803 5.9789801 14603731
-1.27534 2.91154 5.9699302 14340303
-1.12073 2.9526999 5.9025002 14735061
-1.04152 2.9686999 5.8439298 14208717
-0.95063102 2.98247 5.78929 14472403
-0.92967802 2.9897001 5.7794399 14537940
-0.93960297 2.9879999 5.7772999 14406353
-0.93161303 2.98791 5.7687898 14472146
-0.924743 2.9906299 5.7651401 14472146
-0.91868901 2.9902999 5.7632899 14537939
-1.77703 2.78478 6.19801 14866904
-1.76864 2.7873499 6.1936302 14932440
-1.75848 2.7899699 6.18853 14800598
-1.64052 2.8101299 6.10218 14142924
-1.63353 2.8138299 6.11759 14011338
-1.62536 2.8188 6.11094 14011337
-1.61731 2.8260701 6.1103902 14076874
-1.56069 2.8331201 6.0795298 13813959
-1.53887 2.8440199 6.08183 14274766
-1.53505 2.84865 6.0806799 14209230
-1.52705 2.84042 6.0411901 14143437
-1.34981 2.8949101 5.9874902 14801367
-1.3411 2.89905 5.9917302 14866647
-1.3408999 2.8986299 5.9900699 14866647
-1.33222 2.8999901 5.9877901 14800854
-1.32265 2.8993499 5.9805198 14669524
-1.17945 2.92857 5.8840199 14472402
-1.1647 2.9419899 5.8923602 14603475
-1.1727999 2.9347899 5.8886399 14537939
-1.06036 2.9632499 5.8390598 14603732
-1.05788 2.97086 5.8446298 14669268
