# .PCD v0.7 - Point Cloud Data file format
VERSION 0.7
FIELDS x y z rgb
SIZE 4 4 4 4
TYPE F F F U
COUNT 1 1 1 1
WIDTH 1278
HEIGHT 1
VIEWPOINT 0 0 0 1 0 0 0
POINTS 1278
DATA ascii
0.42738399 2.2999699 5.5612602 14265101
0.445831 2.3188 5.5171599 15647243
0.438822 2.3237 5.5124602 15318538
0.54734498 2.3838301 5.5127702 14067723
0.54112703 2.39569 5.49476 15648531
0.56459302 2.3987 5.49717 14070317
0.55718899 2.3937299 5.4976602 14793507
0.54643101 2.39714 5.48804 14662443
0.55728501 2.4026799 5.4889398 12887099
0.554106 2.4086699 5.4767199 11112777
0.56446803 2.4063499 5.4863901 10850135
0.56474501 2.4041901 5.4779301 11046987
0.55420601 2.40555 5.46768 10521431
1.06169 2.9040699 4.8884602 12234920
1.07356 2.9088199 4.8845 13024438
1.07358 2.9159 4.8783002 13616576
1.0585999 2.9128301 4.8656001 13747906
1.07188 2.91291 4.8710699 13682625
1.16118 2.98577 4.8176899 13879494
1.15536 2.9828601 4.80446 13813957
1.15215 2.9839101 4.7926002 13813701
1.14623 2.9828701 4.78091 13682628
1.14184 2.98627 4.76788 13748420
1.12523 2.9881201 4.7551098 13814214
1.1317 2.9885399 4.74999 13814214
1.11489 2.98506 4.7298002 13879750
-0.22889701 1.20371 7.92662 8418668
-0.248422 1.19575 7.9156599 7300702
-0.225177 1.2144099 7.9209599 9208184
-0.212565 1.2266999 7.89292 10721424
-0.192452 1.23307 7.8941498 11379611
-0.17012499 1.2462 7.8972201 11905700
-0.18359099 1.24511 7.8937898 11445404
-0.169159 1.25301 7.8863401 12103079
-0.163941 1.26618 7.8569798 12629167
-0.165738 1.27354 7.8474302 12497579
-0.14252099 1.28337 7.8402801 12958387
-0.139605 1.29585 7.8182802 12826802
-0.144007 1.30071 7.7961602 12892594
-0.120144 1.31459 7.8004198 12892594
-0.095700897 1.34007 7.76194 12892593
-0.082088001 1.41319 7.5527101 12826543
-0.065972999 1.4103301 7.5620399 12892335
-0.25464299 1.47127 6.9338899 9070086
-0.25464299 1.47127 6.9338899 9070086
-0.247104 1.47618 6.9271202 9399304
-0.203382 1.51757 6.875 15383307
-0.213606 1.5169801 6.8777199 15318282
-0.207031 1.52371 6.8636599 15317515
-0.217969 1.52265 6.86447 15318283
-0.217913 1.52273 6.8648 15318283
-0.20204701 1.53092 6.8575001 15185418
-0.208703 1.5348099 6.8439898 15185673
-0.19393601 1.52959 6.8555498 14856461
-0.198843 1.52784 6.8489599 14659341
-0.197704 1.53554 6.8376799 14856715
-0.199338 1.53504 6.8410001 14856970
-0.201346 1.5409499 6.82377 14922250
-0.205392 1.54212 6.8035898 14593547
-0.19383 1.55629 6.7800598 13409555
-0.179967 1.57823 6.75771 13606668
-0.178094 1.57295 6.7434001 10909451
-0.17427699 1.58246 6.7431598 13540625
-0.17904299 1.58182 6.7248602 13015054
-0.176312 1.59009 6.72054 13606670
-0.15878899 1.60304 6.70157 10054665
-0.168083 1.60496 6.67729 8871171
-0.16312601 1.60906 6.66852 10055943
-0.146981 1.62194 6.6560102 8674564
-0.067631401 1.70028 6.5797701 9662214
-0.059725601 1.7058001 6.5724001 7823631
-0.34150401 1.6725301 6.0480099 6970672
-0.345101 1.66678 6.0488 7758110
-0.332385 1.6770101 6.0439 4477774
-0.33357999 1.67167 6.0467601 5461570
-0.33277801 1.68197 6.0330801 4019286
-0.34812599 1.68462 5.9924202 3559765
-0.32984599 1.72931 5.8787799 5005141
-0.32320201 1.72903 5.8740401 4808018
-0.281753 1.75807 5.8601198 4084813
-0.29015601 1.7709399 5.8080802 3231058
-0.199074 1.8297 5.8073101 7235874
-0.19312599 1.83698 5.8007398 8483860
0.133488 2.03883 5.83459 7162887
0.13484 2.0344901 5.83884 6965768
0.197291 2.1020701 5.75846 7622916
0.20280001 2.11063 5.7583599 7623173
0.22689199 2.1307399 5.7373099 7951875
0.228608 2.1375 5.7308002 7556867
0.236049 2.13714 5.7242599 8083459
0.24221499 2.1393099 5.7191901 8346885
0.24444 2.1477499 5.7157798 8017668
0.251571 2.15575 5.6949401 8215045
0.245102 2.1474099 5.6956902 8280837
0.25588 2.1640301 5.6882801 7951620
0.27245799 2.1719601 5.6802702 8346373
0.26171499 2.1719799 5.66645 7819781
0.29539099 2.19135 5.66295 8148740
0.352411 2.24979 5.5950599 8608261
0.41808301 2.3159101 5.5224299 14923528
0.42656499 2.31599 5.5166202 15318282
0.53225601 2.3987501 5.4907799 15649042
0.52633297 2.40242 5.4825602 15057186
0.54176903 2.40276 5.4888601 14728488
0.54071599 2.4019001 5.4879498 14794024
0.54799402 2.4047599 5.4831901 12492605
0.54896098 2.4061301 5.4859099 12755770
0.54073501 2.40962 5.4829102 12690234
0.54845399 2.4135699 5.4806199 11375430
0.55666697 2.41008 5.4836202 11047244
0.53303701 2.4128799 5.4625802 11046987
0.97184199 2.7712801 5.1715698 9603197
1.06362 2.91675 4.8820901 13221818
1.04275 2.90978 4.8629398 13550783
1.14755 2.9958799 4.7926502 13879495
-0.26583901 1.19684 7.9229698 8287594
-0.25906599 1.19551 7.9189301 8353130
-0.23312099 1.22253 7.9270101 9800578
-0.215858 1.23888 7.9014101 10589838
-0.199671 1.24044 7.8964701 10787218
-0.17346901 1.27571 7.8565402 11510941
-0.17201801 1.26894 7.8635802 11971492
-0.177448 1.28218 7.8450198 10984853
-0.16824999 1.28079 7.8373098 12168871
-0.149672 1.30054 7.8282499 12695214
-0.154525 1.2913899 7.8266401 12695214
-0.157151 1.31039 7.7816501 12761007
-0.153951 1.30299 7.7927799 12761264
-0.14087801 1.31821 7.7749901 12958387
-0.12506001 1.3346601 7.7760501 12892594
-0.139036 1.3297499 7.75809 12892593
-0.140726 1.32787 7.74962 12892594
-0.107 1.34287 7.7870698 12958386
-0.114226 1.33901 7.7726202 12826801
-0.114817 1.34463 7.7399902 12826800
-0.11461 1.34472 7.74016 12826800
-0.107318 1.35107 7.7256398 12958129
-0.099831499 1.36746 7.7087202 12892593
-0.105701 1.3718899 7.6786399 13023667
-0.1197 1.37433 7.6482 12826545
-0.111446 1.37321 7.6364899 12826800
-0.095409602 1.4014601 7.59588 12826800
-0.076074697 1.42147 7.54529 12760750
-0.0790613 1.42731 7.5226898 10720909
-0.068463899 1.44136 7.4986601 7694426
-0.25166401 1.48543 6.9498501 9202182
-0.247421 1.48465 6.9393501 9596679
-0.222858 1.52802 6.8499799 15252746
-0.20366301 1.53783 6.8480902 15120393
-0.21879999 1.53474 6.8434 15252234
-0.20518699 1.5435899 6.8346601 15185673
-0.20813701 1.54283 6.8392901 15185929
-0.217328 1.54582 6.8127599 15185930
-0.19660901 1.56749 6.7845998 14724618
-0.19461299 1.57099 6.77284 14658571
-0.186239 1.57856 6.7683101 14593035
-0.187501 1.5815901 6.7409701 14395916
-0.190038 1.58757 6.73066 14527241
-0.174503 1.60423 6.7161398 13409293
-0.17312901 1.60904 6.6891098 9066757
-0.16823199 1.61347 6.6753101 9330948
-0.16579901 1.61941 6.6648202 11042575
-0.15742999 1.63183 6.6614199 9266438
-0.120984 1.64949 6.65481 10385419
-0.059666801 1.71496 6.58742 9530887
-0.33313599 1.68802 6.0455999 4281687
-0.34515399 1.6821899 6.0462298 5789239
-0.33453 1.69226 6.03443 3821907
-0.351412 1.69031 5.9828601 3230545
-0.36034501 1.69008 5.9788198 3032909
-0.35062101 1.70347 5.9432702 4019283
-0.315597 1.74455 5.8699298 5004885
-0.32109201 1.74547 5.8716502 5136471
-0.31924799 1.75054 5.8613601 5070679
-0.29107499 1.76846 5.8663802 4741714
-0.294146 1.77249 5.8585901 4479318
-0.29426599 1.7711101 5.85885 4545110
-0.28641 1.76616 5.8624902 4413523
-0.28902599 1.77487 5.85462 4085078
-0.28863299 1.77406 5.8556099 4216406
-0.28775001 1.77047 5.8469501 3953749
-0.286596 1.7701401 5.8489499 4019541
-0.29216501 1.78075 5.8132701 2967888
-0.202325 1.8391401 5.8055201 7498272
-0.19733299 1.84953 5.8052101 8746259
-0.192102 1.84334 5.8040299 8680723
-0.183505 1.84969 5.8102298 8811792
-0.176851 1.85908 5.8098698 9206283
-0.14832599 1.87087 5.8188901 9074185
0.13461199 2.04614 5.8464899 6965513
0.133772 2.0585499 5.8147101 7755012
0.22634301 2.1358099 5.7500801 7688709
0.21226899 2.12556 5.75106 7622918
0.22242101 2.13855 5.7384901 7096323
0.230151 2.14417 5.7241201 7293699
0.236843 2.1483099 5.7176299 7556867
0.237085 2.15435 5.7004399 7425026
0.238363 2.16101 5.6932702 7359235
0.28422499 2.2111499 5.6468301 8082437
0.35810199 2.2614801 5.6037402 9397510
0.35844201 2.26653 5.5840402 10778632
0.35219499 2.2708199 5.5826998 11304710
0.51955801 2.4067099 5.4809699 15056931
0.51919299 2.39887 5.4857602 15845394
0.53010798 2.41137 5.4788799 12887096
0.54045701 2.4171801 5.4777298 11178054
0.53855401 2.41524 5.4762402 11309637
0.53024799 2.4186001 5.4731202 11309381
0.52919501 2.41749 5.4662199 11112522
0.54164797 2.4177101 5.4725199 10915404
0.52701497 2.4221799 5.4573498 10258787
0.52995598 2.4157701 5.4583802 10784085
0.52410901 2.41594 5.45926 11112523
1.04787 2.92607 4.8901701 12826803
1.03152 2.91294 4.8570199 13682370
-0.27257499 1.20388 7.9313002 8287594
-0.28753 1.19409 7.9212098 8287594
-0.26819101 1.21111 7.92311 8748145
-0.25062299 1.21845 7.9184499 9537406
-0.232758 1.2313 7.91854 10261129
-0.204449 1.25117 7.8958201 10524045
-0.19193301 1.26364 7.89501 10458253
-0.193739 1.2709 7.8832502 10524046
-0.1911 1.27948 7.8668599 10458252
-0.18096501 1.2785 7.8645 10524302
-0.178545 1.2899899 7.8372598 10787218
-0.165235 1.3079799 7.8036199 12102821
-0.17167 1.3136899 7.7769499 12103077
-0.1655 1.31836 7.7768602 12234663
-0.1196 1.35028 7.7612901 12826801
-0.125352 1.35662 7.74052 12629421
-0.109983 1.36292 7.73593 12826800
-0.107564 1.36866 7.72192 12826801
-0.106438 1.37374 7.7094598 12892337
-0.117756 1.38001 7.6793299 12629165
-0.116802 1.38324 7.6697798 12629165
-0.114215 1.38552 7.6546302 12629422
-0.110443 1.39331 7.6338902 12761007
-0.25580499 1.4903001 6.93888 9859591
-0.25263801 1.4928401 6.9421401 10056966
-0.26152501 1.49281 6.94697 9662729
-0.243994 1.5115 6.9167199 15187466
-0.201299 1.56326 6.8090601 15054090
-0.20758399 1.57222 6.7926698 15119883
-0.204835 1.57819 6.7484002 14592522
-0.202564 1.58592 6.7291799 14526728
-0.193956 1.59772 6.7337799 14658569
-0.190456 1.60323 6.7115402 14659084
-0.18539999 1.61239 6.7089801 14593551
-0.182962 1.61786 6.6875901 14001166
-0.17477401 1.61578 6.6834402 10711307
-0.170496 1.62438 6.6718402 13016084
-0.167243 1.63199 6.6659298 11371279
-0.124138 1.65878 6.6634302 10056456
-0.068923503 1.72051 6.5928001 9793799
-0.340601 1.69039 6.0453701 4543052
-0.34707299 1.69279 6.0447202 5264449
-0.36205 1.69627 6.00349 3491916
-0.35580599 1.69398 5.9949698 2901323
-0.36904299 1.69952 5.9528999 3032652
-0.34829 1.71707 5.9486299 4347733
-0.307441 1.76578 5.8582201 4873298
-0.30215901 1.77279 5.8544102 4544856
-0.31216201 1.77241 5.85567 4873818
-0.29427201 1.7798899 5.8537598 3756116
-0.291067 1.78074 5.8566599 3821908
-0.301429 1.78548 5.82407 3099219
-0.212109 1.8393101 5.8164501 4608834
-0.215881 1.8446701 5.8171501 4543300
-0.20632701 1.84715 5.8119102 7038759
-0.20194501 1.8584599 5.81041 8746515
-0.190016 1.86401 5.8153701 9074704
0.267876 2.2035 5.6641998 8082694
0.28383499 2.2164299 5.6589899 8279814
0.340453 2.27597 5.5855598 11304967
0.352743 2.2806101 5.57514 12620809
0.35646501 2.27756 5.5837202 11765255
0.34265801 2.28002 5.56107 13673226
0.488776 2.3919301 5.5100698 15054603
0.501315 2.4045701 5.5064001 15910666
0.48865801 2.4024701 5.4860001 15911432
0.51364601 2.4070899 5.4917202 15845642
0.496142 2.39957 5.4891701 15911432
0.50514501 2.40997 5.4875102 15845899
0.50692999 2.40909 5.4784698 15320092
0.49946499 2.41236 5.4745998 15056930
0.51044202 2.41711 5.4718699 12689723
0.50400901 2.4149799 5.4770699 14793764
0.510948 2.4100001 5.4779 14925604
0.51934302 2.4141901 5.4755702 12952887
0.51899201 2.4137299 5.4752498 12953142
0.511365 2.42396 5.4651098 11309642
0.51999301 2.42083 5.46872 11309639
0.52004403 2.4198201 5.4615698 11112523
0.95628601 2.84407 5.0113802 9471612
0.96816599 2.87111 4.9453402 9537405
1.02486 2.9126 4.8926101 11905956
1.01495 2.9314401 4.8260598 13879749
1.0046901 2.9323499 4.8123202 13813700
1.01357 2.9407599 4.8041301 13748164
1.03938 2.9539299 4.8048902 13682371
1.04917 2.96837 4.7853599 13748164
1.05575 2.9744501 4.7632499 13879750
1.05874 2.9829299 4.7591701 13879750
1.06297 2.9872799 4.7453899 13813957
1.0457 2.9873199 4.6909099 13879750
1.04599 2.9874799 4.69102 13879750
-0.30574101 1.19848 7.93924 8353130
-0.29175499 1.20353 7.9324398 8353387
-0.287705 1.21061 7.9236302 8813682
-0.28327101 1.2192 7.9155302 10195336
-0.23154999 1.25181 7.9212899 10195336
-0.196767 1.28488 7.8467302 10458253
-0.18669701 1.2918299 7.8470402 10392460
-0.178518 1.32251 7.7706599 11379354
-0.16526 1.32704 7.76513 12037028
-0.168026 1.33683 7.7462502 11642269
-0.15577801 1.3472 7.7323399 12102820
-0.166467 1.34618 7.73312 11576476
-0.130455 1.36716 7.7105598 12432299
-0.13011 1.37198 7.6963801 12432299
-0.12783299 1.37757 7.6859298 12497835
-0.119985 1.38924 7.6533999 12497580
-0.104767 1.42509 7.5892701 11839905
-0.26789799 1.49457 6.9549499 9070853
-0.237391 1.57401 6.7571502 15185674
-0.233024 1.58 6.75488 15054090
-0.238408 1.57893 6.7504201 15120139
-0.216914 1.58367 6.7437201 14395145
-0.21857999 1.5921201 6.7346201 14263305
-0.220489 1.5999 6.7228498 14527241
-0.19106799 1.6164 6.7168198 14790667
-0.190566 1.61792 6.6963501 14856204
-0.195861 1.62293 6.6802702 14790922
-0.186994 1.63161 6.6697502 13015823
-0.16542 1.65075 6.6687999 8674309
-0.137628 1.65749 6.66855 8543490
-0.132651 1.66705 6.66646 9793287
-0.123967 1.67432 6.66541 10385160
-0.065694198 1.72838 6.6162601 9925127
-0.320398 1.7733999 5.8607798 5070420
-0.31782699 1.77976 5.8554702 4742235
-0.302109 1.78793 5.8509102 3164240
-0.31016701 1.77843 5.8489499 3953238
-0.244728 1.8326401 5.8238001 4150871
-0.22060999 1.85052 5.8243899 4215374
-0.22629599 1.84403 5.8256001 4150873
-0.210072 1.85518 5.8178601 6907434
-0.179028 1.87512 5.8236599 9337615
0.20016301 2.14902 5.7283301 7293444
0.203667 2.1572001 5.69946 7753733
0.21011101 2.1665399 5.6991801 7951108
0.21831 2.177 5.7000799 8148485
0.229654 2.1768501 5.6939902 7885316
0.27068201 2.2162099 5.6705699 8477447
0.277935 2.2169399 5.6644001 8411398
0.28269401 2.22805 5.6629701 8740101
0.27499801 2.2211399 5.6517801 8674309
0.28973299 2.22949 5.6406698 8740358
0.34361401 2.2713599 5.6368299 10121479
0.29777101 2.26666 5.5686798 10845189
0.330365 2.2787099 5.5709801 11897094
0.32352799 2.2855999 5.5551 13673738
0.46602401 2.39292 5.51335 13540614
0.469749 2.3985 5.5062799 14461958
0.49355599 2.40957 5.5040102 15910665
0.48806801 2.4103401 5.48879 15845640
0.48771501 2.41559 5.4788098 15648782
0.496943 2.4130199 5.4835401 15780365
0.495121 2.4174099 5.4723501 14267689
0.48789299 2.4221699 5.46387 12492861
0.49526301 2.42417 5.4650202 11901251
0.50337499 2.4210899 5.4689698 12295488
0.50036198 2.42663 5.4612999 11309900
0.89118201 2.81071 5.0251498 9800576
0.91092902 2.8217399 5.0176802 9603198
0.94160002 2.8382001 5.0276899 9866371
0.94021302 2.8440399 5.0087399 9537405
0.94749701 2.8444901 5.0180998 9734784
0.942384 2.84815 4.9959102 9405819
0.93226802 2.8490801 4.98349 9537405
0.93598998 2.85517 4.9737201 9406076
0.97041702 2.8809299 4.9600902 8879476
0.97347599 2.87902 4.93507 9471612
0.96843302 2.8884699 4.9300499 8682097
0.97706997 2.8919301 4.92204 9208441
0.99392098 2.90746 4.9122 9537405
1.00638 2.9093599 4.9036899 10853266
1.01522 2.91962 4.8967299 12366507
1.0009 2.9164901 4.9035001 10524301
0.99102598 2.9144499 4.8793502 12629681
1.06359 2.9627299 4.8757901 13616833
1.00357 2.9385099 4.82307 13484992
1.01544 2.9451201 4.80581 13748164
1.04476 2.97053 4.7943401 13616578
1.04153 2.9751101 4.78546 13221819
1.03675 2.97824 4.77211 13221819
1.05251 2.98382 4.7671399 13484992
1.04337 2.9905801 4.7329798 13682371
1.0439 2.99598 4.7221899 13419455
1.03905 2.9967799 4.7104301 13353406
1.04415 2.9925001 4.7019901 13616834
1.05109 3.0041201 4.7021198 13616578
-0.33036199 1.1909 7.9254899 8353386
-0.31632 1.20383 7.9379001 8287594
-0.31614599 1.20393 7.9382701 8287594
-0.30448499 1.21052 7.9313102 8550767
-0.30348 1.21689 7.9157901 10524301
-0.30202699 1.2235 7.90131 11511197
-0.27471501 1.2314399 7.9158301 10919060
-0.245196 1.25166 7.92524 10721424
-0.234533 1.25858 7.9098501 10326666
-0.248503 1.25896 7.9062099 10853009
-0.245896 1.2618999 7.88873 10589581
-0.21529301 1.2799799 7.8919902 10392459
-0.21909299 1.28704 7.87358 10589838
-0.209778 1.28743 7.8642502 10392460
-0.210962 1.29565 7.8530502 10524046
-0.209894 1.30295 7.84056 10524045
-0.19382501 1.29748 7.85149 10589582
-0.195307 1.30415 7.8344798 10655375
-0.191651 1.3074 7.8204699 10655631
-0.202574 1.31221 7.82371 10458252
-0.191469 1.3214099 7.7979202 10458252
-0.193037 1.31258 7.8031602 10655630
-0.188127 1.32865 7.7897201 10392203
-0.190874 1.327 7.7662702 10589838
-0.18532801 1.33634 7.7662902 10458252
-0.174715 1.3391401 7.7588801 10787217
-0.108004 1.4512399 7.5518198 7365462
-0.095703997 1.4513 7.5525599 7563099
-0.092489503 1.45049 7.5525599 7628893
-0.102819 1.45345 7.5240402 7562840
-0.10844 1.4549299 7.5048699 7562582
-0.27269399 1.50209 6.95509 9136647
-0.27426699 1.50604 6.9622898 9070856
-0.25886101 1.51887 6.92377 14859018
-0.25997901 1.5247 6.90029 15055625
-0.27459499 1.52411 6.87889 14924554
-0.25445101 1.58039 6.7560101 15186954
-0.233509 1.59505 6.7448802 11433733
-0.22438 1.59949 6.7409301 13144585
-0.22482499 1.60654 6.7101302 14461705
-0.216784 1.61116 6.7105298 14593546
-0.20462 1.62306 6.6918702 14856459
-0.14295299 1.66572 6.6746602 8411651
-0.13562401 1.67696 6.6749501 9135364
-0.067946397 1.72609 6.66224 10187526
-0.056643002 1.73801 6.6454501 10056454
-0.053649802 1.7440799 6.6257601 9990662
-0.37907201 1.71762 5.97752 4084050
-0.37039801 1.71622 5.9692502 4872798
-0.37046799 1.72132 5.9586401 3163468
-0.36639199 1.72948 5.9556599 3886928
-0.35285199 1.73418 5.9440799 4939352
-0.32394201 1.78142 5.8625102 5070420
-0.30747899 1.7995 5.8582001 3821653
-0.30821601 1.7893 5.85324 3558740
-0.30572599 1.79592 5.8488898 3427156
-0.22527 1.85647 5.8320999 4150097
-0.18334199 1.87947 5.8246999 9272076
0.179153 2.13182 5.8066401 7162117
0.16606399 2.1261599 5.7953601 7162117
0.157976 2.13184 5.76792 7359747
0.20920201 2.17278 5.7119398 8148741
0.32609501 2.28618 5.5727201 12028935
0.32449499 2.2920101 5.5494599 14660876
0.27899599 2.2846601 5.5037498 15056138
0.45834699 2.4033699 5.5046902 14264581
0.468182 2.3996899 5.5074501 14330117
0.472938 2.40464 5.49927 15646987
0.47633499 2.42432 5.4660602 13676083
0.475393 2.4166801 5.4718499 15583254
0.47955599 2.41851 5.46737 14662442
0.479886 2.4258299 5.4612999 12229953
0.48956099 2.4298799 5.4588099 11375692
0.91888303 2.8265901 5.0831499 9668990
0.89129502 2.8152599 5.0150399 9866370
0.89709598 2.82583 5.0148201 10063750
0.92128497 2.84268 4.9994798 9734784
0.93319398 2.85252 5.0061698 10261129
0.91965902 2.8483 4.99014 9734784
0.91670799 2.8533101 4.98072 9800577
0.93400103 2.8639801 4.9728999 10195336
0.93202102 2.86377 4.9779902 10195336
0.93627799 2.8644099 4.9668498 9537405
0.94176102 2.8696899 4.9636102 10063750
0.96059602 2.8880301 4.9496498 9734529
0.96746099 2.8895299 4.9451299 8813682
0.94497102 2.8872399 4.9200301 9339770
0.95232898 2.88956 4.9159598 9011062
0.97395599 2.90114 4.9136 8747889
0.98242098 2.9114499 4.9068098 9076854
0.98316997 2.9153399 4.88973 10589838
1.05558 2.9688799 4.8706899 13419455
1.0016 2.94418 4.8335299 13089977
1.00488 2.9525001 4.8035798 13221563
1.03518 2.9761801 4.7937999 13089976
1.02764 2.9783299 4.7835102 12695218
1.03443 2.9844899 4.76401 12958647
1.05056 2.9946699 4.75629 13221819
1.02601 2.99348 4.73984 12629682
1.04487 3.0076001 4.7238498 13090490
1.0220799 2.9984601 4.7059002 13089978
-0.33226901 1.1985 7.9378099 8353387
-0.32506099 1.21025 7.9402499 8353388
-0.325178 1.2101901 7.93997 8353388
-0.319206 1.22313 7.9079299 11971491
-0.30056 1.23498 7.8910499 11774114
-0.27984899 1.24441 7.9148302 11774113
-0.24342801 1.26915 7.9106102 11181974
-0.25357899 1.27191 7.8893499 11576733
-0.241494 1.28395 7.8748899 11379353
-0.230391 1.2846299 7.8744602 10918802
-0.220502 1.29547 7.8643198 10918547
-0.22352199 1.30213 7.8484001 11116182
-0.21724901 1.31104 7.8379502 11115925
-0.168734 1.38107 7.6912398 10129287
-0.168336 1.38232 7.67977 10195080
-0.12712499 1.43278 7.5911398 7233879
-0.12942 1.4553699 7.5364799 6838861
-0.117194 1.45547 7.5315499 7168082
-0.108748 1.46393 7.52284 7233874
-0.106623 1.4716001 7.4946399 7299666
-0.25688699 1.4868 7.1068501 8807430
-0.26742101 1.5237401 6.9289699 14464013
-0.284715 1.53109 6.8788099 14398218
-0.26003 1.58836 6.7554002 15055627
-0.23141401 1.60586 6.74512 12091913
-0.22556201 1.62079 6.7262902 13870344
-0.24149799 1.61727 6.6924601 13870600
-0.232418 1.6237299 6.6702099 14265354
-0.13707399 1.6837 6.6865301 8542979
-0.135245 1.68998 6.6760101 9924359
-0.086228602 1.72418 6.6768899 10581512
-0.107251 1.71245 6.6642699 10581511
-0.066069402 1.73897 6.67243 10515975
-0.066950202 1.74182 6.6554198 10581255
-0.059672002 1.74428 6.6352401 10187526
-0.061246701 1.75093 6.6266899 10845191
-0.057642501 1.7506599 6.61517 10056710
-0.063631602 1.75433 6.6019301 9399051
-0.36206201 1.74664 5.9502602 4939351
-0.313357 1.7986799 5.86305 4479322
-0.32135499 1.8006001 5.8671198 5005144
-0.25532201 1.84804 5.8293099 4676693
-0.231813 1.86195 5.8261499 4608576
-0.20861199 1.87673 5.8278298 8680981
-0.187613 1.8867199 5.8327699 9272077
-0.196486 1.8819 5.83038 9140750
0.200711 2.1459501 5.8631001 7162116
0.13069101 2.11113 5.8188601 7425284
0.175394 2.13852 5.82127 7425029
0.152556 2.1293199 5.7870498 7490820
0.171975 2.1361401 5.79774 7162373
0.15702701 2.1389201 5.7613201 7753988
0.15728299 2.1467199 5.7563 8148741
0.22633301 2.20186 5.6847301 8609285
0.237445 2.2139299 5.68928 8806404
0.24000899 2.22017 5.6824298 8872197
0.30602199 2.2966599 5.5713201 11437831
0.27416199 2.28038 5.5591102 10516997
0.310269 2.2981801 5.5691199 12292616
0.27499801 2.2931099 5.51578 13937672
0.280821 2.2978001 5.5083599 14858505
0.45524099 2.4166701 5.4913902 15910923
0.45587501 2.4254701 5.4653201 15122724
0.465316 2.4209599 5.4697099 15517464
0.47158301 2.4289501 5.4576998 12098119
0.47422001 2.4296601 5.45294 11638349
0.45791301 2.42714 5.4384298 11638098
0.906192 2.82284 5.1040502 9668991
0.90548497 2.8204501 5.0887098 9668990
0.88237101 2.8299201 5.0306201 11182231
0.94136202 2.87696 4.9622002 10326922
0.93958002 2.8843601 4.961 10721680
0.95322102 2.8985801 4.9178901 10129287
0.95015299 2.9040501 4.9183602 10458252
0.95095402 2.90604 4.92489 10524302
0.95185602 2.9065399 4.92521 10524302
0.96679097 2.9082601 4.9101901 9340026
0.95668799 2.9063001 4.91258 10260873
0.96368903 2.9135301 4.9004302 10195080
0.95679897 2.9123399 4.9063501 10590095
0.96915698 2.91394 4.8928199 10458509
0.96857798 2.9175799 4.8816299 12103079
0.95175499 2.9154999 4.8737202 12695473
0.96849799 2.92151 4.8706198 12300715
0.94343299 2.9151001 4.8564601 13353148
0.96289998 2.9261799 4.8570499 12958645
1.01765 2.98873 4.7877998 12234667
1.02709 2.98803 4.7723799 12234667
1.0244401 2.9895501 4.7596302 12300461
1.0276901 2.99384 4.7547798 12300718
1.00982 2.99419 4.7419 12037289
1.02953 3.00302 4.7407198 12366510
1.0218 3.0050499 4.7168198 12432048
1.0141799 3.0064199 4.70506 12366254
-0.35721701 1.20549 7.9362001 8287339
-0.343741 1.20577 7.93788 8287595
-0.34270599 1.21399 7.9293799 9208697
-0.33487099 1.22316 7.9163699 12169126
-0.29655799 1.25134 7.9074898 12234665
-0.26076499 1.27542 7.9007902 12037027
-0.26280999 1.28093 7.8857698 12037284
-0.256668 1.2832299 7.87078 11905697
-0.25279999 1.28856 7.87848 12037027
-0.25450599 1.27932 7.8790598 11774111
-0.29686201 1.27126 7.8262601 10655890
-0.22820701 1.30528 7.8741798 11773855
-0.29142401 1.2824301 7.8017502 12168870
-0.224718 1.31762 7.8224001 9537409
-0.21607199 1.31817 7.8224702 11181718
-0.217098 1.32437 7.8186498 11576476
-0.32547599 1.29869 7.6718402 12300201
-0.204256 1.37255 7.7022099 11642526
-0.187194 1.38344 7.67979 10918803
-0.185278 1.38705 7.6696701 10853010
-0.18068001 1.3871 7.6726198 10589581
-0.17835701 1.40198 7.6186299 10129287
-0.160008 1.43418 7.5801101 6641740
-0.14078701 1.43849 7.5868402 6641741
-0.143815 1.44565 7.5769601 6575946
-0.13501699 1.44838 7.5683999 6641483
-0.122696 1.4663301 7.5331001 6773067
-0.119951 1.47483 7.50453 6838859
-0.270574 1.4892401 7.11584 8742161
-0.27446899 1.48972 7.1094799 9005597
-0.27045101 1.4931 7.0999298 8676621
-0.272461 1.49668 7.0962801 9005596
-0.25560799 1.50041 7.1020799 8939275
-0.25691301 1.50455 7.0853 8742150
-0.26890001 1.58913 6.7643299 15055882
-0.26551801 1.59641 6.7553401 14660621
-0.241699 1.6059099 6.75105 10315268
-0.235401 1.61568 6.7502999 12487434
-0.22706699 1.61922 6.7322898 13870088
-0.238066 1.62712 6.6985002 13804809
-0.23285399 1.6289001 6.6822801 13870857
-0.135268 1.70301 6.6760402 10844426
-0.109679 1.72207 6.67418 10974982
-0.097760499 1.72886 6.6716599 11040775
-0.0802655 1.7445 6.6644301 12093451
-0.076850198 1.75125 6.64324 13607184
-0.066232301 1.75433 6.6389799 12686350
-0.069896497 1.761 6.6284499 12818707
-0.0714949 1.76434 6.6059399 8214533
-0.081664503 1.76323 6.5861001 7622917
-0.38669699 1.72656 5.9774799 5464673
-0.36002699 1.75287 5.95889 4873814
-0.30480099 1.8257999 5.8585901 4676700
-0.28469399 1.8364 5.85847 4479577
-0.25582001 1.85905 5.83955 4610387
-0.231161 1.87207 5.8252201 6710834
-0.229748 1.88322 5.82652 8812566
-0.230106 1.88162 5.8242202 8549660
-0.21901201 1.88609 5.8182802 9272078
0.133128 2.12115 5.8337698 7622660
0.13017701 2.1150301 5.8271499 7491076
0.15898301 2.13517 5.8240099 7556867
0.15898301 2.13517 5.8240099 7425283
0.158978 2.13937 5.81215 7556611
0.14822599 2.13959 5.7676301 7622659
0.139853 2.1405201 5.7744999 7951622
0.126395 2.1324999 5.7456999 7951620
0.14531299 2.14293 5.75422 8082949
0.14531501 2.15171 5.7464299 8346373
0.22156601 2.2105701 5.7023301 8741125
0.223786 2.22523 5.6751099 8938757
0.22917099 2.2249601 5.6739402 8938501
0.237517 2.2358799 5.6697502 9267718
0.27284801 2.25334 5.6616802 9793286
0.30107501 2.29861 5.5721798 11174918
0.305756 2.30635 5.5706301 12161288
0.30148199 2.3043399 5.5708299 11635207
0.298379 2.3084199 5.5604601 12556040
0.300129 2.3085301 5.56112 12687624
0.32283899 2.3264301 5.54497 14792713
0.44464001 2.4133101 5.4956002 15515404
0.442413 2.4260499 5.47263 15845901
0.45582399 2.42307 5.47966 15911434
0.453749 2.4346399 5.4670401 14398769
0.905249 2.82284 5.1594701 9668990
0.91689003 2.83516 5.13271 9668991
0.902206 2.83253 5.1019502 10063749
0.89145201 2.84197 5.0237398 11774368
0.90886497 2.8557799 5.0165401 11379610
0.89525801 2.8570499 5.0078301 12234919
0.90931201 2.8665199 4.9905801 10721680
0.90341598 2.8551099 4.99646 10458507
0.90912998 2.8733301 4.98423 11313817
0.89610702 2.869 4.9674001 11905699
0.91587001 2.87482 4.9771099 10984852
0.92337298 2.8794999 4.9742398 10918802
0.95514899 2.9166901 4.9312501 11247770
0.94929302 2.9105799 4.9106998 10195080
0.94864899 2.9150801 4.8996902 10984853
0.93914801 2.9166999 4.9070902 11511198
0.93348801 2.9159 4.8913999 12234665
0.93437999 2.9090199 4.8782101 12169128
0.92313701 2.9125299 4.8716602 13156025
0.91650802 2.91274 4.85536 13747907
0.94318998 2.92364 4.8488302 13682369
1.01772 2.9930799 4.77349 12103337
1.01411 2.9962201 4.7566299 12037545
1.01094 3.00105 4.7662802 12629682
1.01109 3.00195 4.7443399 12168875
1.01665 3.0065801 4.7252798 12168875
0.99847901 3.0051401 4.7202501 12497839
1.00432 3.01051 4.7202101 12432046
1.00965 3.0150399 4.7024798 12102824
-0.37122199 1.20525 7.9334698 8353131
-0.35508299 1.22264 7.9257002 12037542
-0.32868901 1.23673 7.9212098 12761266
-0.28132001 1.27405 7.8766799 12234407
-0.33842501 1.2975301 7.6874599 12431788
-0.31965101 1.30933 7.6728702 12431787
-0.212026 1.37154 7.7111101 11971235
-0.201728 1.37956 7.6936798 11773855
-0.20000499 1.4119101 7.6117601 11708321
-0.18124899 1.43568 7.5540199 7168083
-0.145583 1.44742 7.5762901 6641995
-0.164134 1.45722 7.5185199 7102032
-0.160037 1.46703 7.5127101 7233873
-0.137704 1.47262 7.5252399 6838860
-0.133541 1.4779201 7.5141201 6839116
-0.278842 1.48927 7.1416702 8545055
-0.28463501 1.48279 7.13341 8479517
-0.29536 1.48585 7.12818 8677424
-0.28688699 1.48994 7.1190901 9137976
-0.28630501 1.49568 7.1080599 9203776
-0.283472 1.49589 7.10954 9006394
-0.28307199 1.4999 7.0939102 8874806
-0.28730601 1.50114 7.0893602 9006395
-0.276573 1.50467 7.0794201 8808221
-0.27503601 1.51438 7.07199 8413204
-0.260784 1.59299 6.8196502 14924297
-0.27726099 1.58752 6.7830801 14989834
-0.27610001 1.59252 6.7691898 14990345
-0.27123499 1.5992 6.7638402 14989837
-0.25815201 1.61509 6.7589998 10250501
-0.27105999 1.60524 6.7582798 13673485
-0.246536 1.61494 6.7533498 10249987
-0.24834099 1.62771 6.6957402 13739016
-0.23689701 1.64089 6.68822 13739529
-0.20712 1.6626199 6.67594 8870916
-0.0990692 1.7424999 6.67629 14264081
-0.092313997 1.7492 6.65906 14659087
-0.094231397 1.7463 6.6550102 14527504
-0.096303701 1.7537 6.6455998 14659597
-0.087137803 1.74796 6.6472402 14133008
-0.079221599 1.75264 6.6553001 14198800
-0.086734898 1.74817 6.6477399 14133008
-0.086604998 1.75668 6.6409001 14528270
-0.077401303 1.75941 6.6356101 13871120
-0.084296897 1.7689199 6.59689 7688455
-0.35116601 1.76978 5.9660201 4873816
-0.348865 1.77785 5.9626398 4808024
-0.25750899 1.86394 5.8592501 4807765
-0.249984 1.8735501 5.8566499 4281420
-0.240823 1.87278 5.8447199 4149060
0.115895 2.1110401 5.8573599 6898946
0.113765 2.1161301 5.84798 7293699
0.113939 2.1082599 5.84093 7359492
0.107081 2.1157401 5.8365898 7556868
0.128901 2.1291001 5.83319 7885829
0.131042 2.1342399 5.8238101 8017669
0.12969799 2.1329701 5.8248 8017669
0.152619 2.1424799 5.8219099 7951622
0.14826199 2.14288 5.8042698 7886086
0.150166 2.1535599 5.80513 8149254
0.150362 2.1536801 5.8053899 8149254
0.124377 2.1499801 5.7459202 8214788
0.145338 2.16049 5.7386699 8609285
0.23112901 2.2286899 5.7176099 8938501
0.21748801 2.2204001 5.68993 8872965
0.21668901 2.23333 5.6759701 9399303
0.217733 2.2236099 5.6744399 8938757
0.22258399 2.2334199 5.6726198 9333511
0.27587801 2.2883799 5.6153102 10122757
0.28455299 2.29142 5.5931001 10254341
0.28447601 2.29849 5.5836902 10320134
0.28809601 2.3056901 5.57901 10583302
0.29888201 2.3136599 5.5731902 11701511
0.30651 2.3192999 5.5569901 13871881
0.32423899 2.33934 5.5542302 14464010
0.31869999 2.3361499 5.55088 14398218
0.30902299 2.32512 5.5489202 14266633
0.67309397 2.5652599 5.5530701 9865330
0.85874403 2.8027201 5.1698699 9866369
0.89255798 2.8232801 5.1710501 9800320
0.89728701 2.82623 5.1601701 9866113
0.89649999 2.8257699 5.15484 9866369
0.90450299 2.8280101 5.1514201 9668990
0.90672302 2.83657 5.1468201 9800577
0.906964 2.8388801 5.1297998 10458507
0.912965 2.8389299 5.12361 9932162
0.906389 2.84777 5.1188698 11708575
0.90460497 2.85062 5.1047702 12103077
0.88870102 2.8591599 5.03303 13616573
0.88686901 2.85849 5.0111299 13484731
0.88081801 2.8619001 4.9983201 13484732
0.88788998 2.8594501 4.9932499 12366506
0.88538402 2.8650999 4.9835 12629678
0.90825802 2.8902099 4.9748302 13418940
0.94118202 2.91816 4.9284101 11905955
0.934138 2.9182301 4.91468 12300458
0.94841403 2.91944 4.92237 11510941
0.92153198 2.91715 4.8819199 13221562
1.02851 3.00578 4.8105001 13221562
1.0208 3.01086 4.8063598 13747907
1.01442 3.01174 4.7786598 13616577
1.01586 3.0179999 4.76965 13616577
1.00159 3.0134301 4.7534299 13748163
1.0102299 3.0067301 4.7562699 12892854
1.0051301 3.0106101 4.7438898 13221819
1.0003 3.0134499 4.7319999 13418942
0.99470198 3.0157399 4.7198 13550785
0.99997902 3.0146401 4.7109299 12629169
1.0052299 3.0318201 4.69625 12761012
-0.39532399 1.20557 7.9376898 8353132
-0.384936 1.20494 7.9351501 8352875
-0.38232699 1.2147599 7.9256802 9734529
-0.369721 1.21429 7.9266701 9537407
-0.36778599 1.22703 7.9199901 13089974
-0.354386 1.23484 7.91643 13089975
-0.21693 1.37861 7.7114601 12300200
-0.20667399 1.38351 7.7094898 12234406
-0.20332401 1.4046201 7.6820698 12365993
-0.216701 1.39938 7.6350398 11313303
-0.231795 1.40442 7.6076002 12694959
-0.184305 1.44612 7.5654702 7562841
-0.177735 1.44622 7.5560398 7431254
-0.18616 1.44719 7.5543199 7628633
-0.18121199 1.4612499 7.5167899 7694169
-0.18088099 1.46691 7.49965 7497046
-0.151904 1.4781899 7.51612 7299667
-0.165235 1.48068 7.4990602 7497046
-0.159877 1.4787199 7.4846902 7299666
-0.30692199 1.48443 7.1326799 9007173
-0.30725399 1.48847 7.1154599 9139023
-0.296841 1.49795 7.1188402 9073492
-0.296841 1.49795 7.1188402 9073492
-0.296841 1.49795 7.1188402 9073492
-0.306512 1.49827 7.08744 8941904
-0.31374201 1.50342 7.0679898 8744521
-0.297196 1.5118999 7.0787902 8677951
-0.29023001 1.52558 7.0448999 8018182
-0.272935 1.59958 6.8131299 14661128
-0.28659201 1.60164 6.7734098 14661385
-0.27600101 1.61473 6.7625699 12554504
-0.25065899 1.62534 6.7601299 10513412
-0.24073701 1.6302201 6.7579699 13211917
-0.24131501 1.63925 6.7511902 13738760
-0.24688099 1.6438 6.69379 13673480
-0.225233 1.66703 6.6817498 9395974
-0.16739 1.69762 6.7089801 9134085
-0.100236 1.7484 6.66891 14658828
-0.110148 1.74735 6.6719198 14593034
-0.102608 1.74861 6.6620202 14658827
-0.11192 1.75038 6.6422701 14593548
-0.100166 1.76017 6.63411 12226060
-0.104949 1.76661 6.6140199 8083205
-0.0924716 1.76783 6.6192799 8280068
-0.089979596 1.77289 6.6080098 7754247
-0.250588 1.87538 5.8806701 4742228
-0.248625 1.8817199 5.8703299 4215628
-0.24897601 1.88585 5.8555598 5331001
-0.245317 1.88888 5.8424201 8352797
-0.244009 1.89512 5.8326602 9272076
-0.23794401 1.89261 5.8323798 9206284
-0.246758 1.8947099 5.8190799 9469194
0.105986 2.11532 5.8540201 6701569
0.106828 2.1214099 5.8421698 7556612
0.102715 2.1226499 5.8326201 7885830
0.10305 2.12287 5.83286 7885830
0.094778597 2.1165299 5.8213301 8083462
0.134106 2.1434901 5.8210101 8083717
0.123959 2.1612501 5.74824 8412165
0.204035 2.21521 5.7378001 8806916
0.227082 2.23367 5.70716 8938756
0.208214 2.23353 5.6952901 9267974
0.20703501 2.2369299 5.6830802 9596936
0.217105 2.24033 5.6887298 9531144
0.215111 2.2380199 5.66436 9728520
0.28040799 2.3032601 5.5932698 10057221
0.295093 2.3226099 5.5740299 12030215
0.28996399 2.31302 5.5735602 11109639
0.30072901 2.3236699 5.5657401 13016329
0.30722001 2.3331499 5.5611 13740297
0.311111 2.34266 5.5534101 13937673
0.327503 2.3472199 5.5510998 14397706
0.41867399 2.4435599 5.4555998 13478470
0.67332602 2.58025 5.5516601 10523262
0.66669703 2.59076 5.49793 9734006
0.67793798 2.5945699 5.4962301 9734005
0.88842398 2.83114 5.1659999 10326920
0.89767498 2.83357 5.1558499 10129542
0.89355099 2.84093 5.1397099 11576732
0.89481699 2.8422699 5.1408701 11576989
0.89828002 2.8433399 5.1277699 11313816
0.90060902 2.8508799 5.1346598 12234663
0.89974803 2.8513701 5.1224098 12695471
0.900011 2.85729 5.11409 13353402
0.88859898 2.85111 5.0850801 13484987
0.89271998 2.8573999 5.0739899 13616317
0.90121198 2.8612001 5.0732398 13419193
0.889943 2.8639901 5.05901 13813954
0.89254397 2.86602 5.06252 13813954
0.87208003 2.85551 5.0371599 13813953
0.88360202 2.8638401 5.0216699 13813697
0.87366498 2.8640201 5.0213099 13813955
0.87380201 2.86481 5.00319 13879490
0.8768 2.86744 4.98912 13616318
0.873227 2.87344 4.9786401 13747905
0.93249798 2.92189 4.9538398 13616577
0.92950499 2.9242899 4.9400601 13682113
0.906618 2.9139099 4.90694 13682113
0.92486799 2.9227099 4.9103298 13419197
0.92038202 2.9218299 4.8970699 13419198
0.92236203 2.9284599 4.8874798 13682370
1.01546 3.01525 4.7913499 13879493
1.01605 3.02546 4.7805099 13879750
1.00621 3.0248799 4.7459302 13879493
0.99508101 3.02529 4.7318902 13945286
0.98508602 3.02332 4.7196598 13879750
0.99460101 3.02284 4.7122598 13682370
0.99844301 3.03333 4.7045002 13748164
1.0023 3.0427401 4.6978202 13748164
1.02458 3.05653 4.69244 13484735
1.02907 3.0634 4.6863799 13484736
1.02745 3.05814 4.67624 12563891
-0.40837601 1.2085299 7.9424801 8353131
-0.3919 1.21647 7.9317498 9603198
-0.38350999 1.23081 7.9197602 13221559
-0.36691001 1.2393 7.9110899 13155768
-0.31030601 1.29453 7.8268199 12761265
-0.25771099 1.35045 7.7661099 12366250
-0.217448 1.39483 7.7027102 12563117
-0.234561 1.39335 7.69243 11970977
-0.207633 1.40813 7.6938701 12563373
-0.208533 1.41434 7.6827102 12694959
-0.22846501 1.41113 7.6379299 11576474
-0.241211 1.40753 7.5921202 12694959
-0.24625599 1.41485 7.5938802 12300201
-0.23016299 1.42125 7.5827799 9405564
-0.18515 1.4546 7.5581899 7694427
-0.19797701 1.46099 7.5246902 7694426
-0.32163 1.49008 7.12462 9403232
-0.32170999 1.49419 7.1068902 9206108
-0.332201 1.49878 7.0834899 9074779
-0.32085499 1.49974 7.0745502 8876626
-0.3272 1.49537 7.0794301 8877398
-0.32323 1.5073299 7.0639801 8679245
-0.33030301 1.49848 7.0647802 8877140
-0.31340301 1.5124 7.06249 8415296
-0.292914 1.52229 7.0692301 7953441
-0.28925499 1.53095 7.0636802 7887118
-0.284886 1.54512 7.0068102 8215812
-0.28653899 1.55883 6.94346 12818953
-0.278651 1.56873 6.9484 12950539
-0.26018599 1.59217 6.92273 13805832
-0.29121399 1.60685 6.7866502 14398217
-0.287783 1.61247 6.77384 14529293
-0.28182599 1.61953 6.7701898 13344267
-0.26181501 1.62579 6.7669501 10184453
-0.274625 1.62691 6.7687502 11040262
-0.24674299 1.63732 6.7647099 12751115
-0.20899101 1.68152 6.6940198 9330693
-0.21211199 1.68878 6.69631 9133573
-0.179326 1.69715 6.7072902 9199621
-0.179022 1.69891 6.7084699 9199621
-0.166416 1.7042201 6.7090998 9528069
-0.165416 1.71338 6.70295 13409553
-0.136724 1.7373 6.6747899 14329864
-0.12897401 1.74467 6.6528301 14593035
-0.142066 1.73954 6.65277 14461449
-0.128258 1.75378 6.64784 13738508
-0.119004 1.75697 6.6433802 13080845
-0.118519 1.7605799 6.63833 10713606
-0.105454 1.77463 6.6442499 8411909
-0.109543 1.77561 6.6226602 7952132
-0.34950599 1.78789 5.9977298 4545625
-0.250871 1.88389 5.8713398 4215112
-0.25088501 1.89267 5.86759 6053426
-0.244302 1.8983001 5.85745 8352285
-0.248345 1.9006701 5.82939 9338122
0.097067297 2.1205299 5.8468499 6767361
0.092256099 2.1268301 5.8344002 7688708
0.093510501 2.13166 5.8298802 8083717
0.1021 2.13184 5.83003 8083717
0.115579 2.1635001 5.7505498 8017411
0.126351 2.1763599 5.7546902 8477957
0.174968 2.20399 5.74441 8675844
0.27526301 2.3034 5.6212602 9794309
0.26980701 2.30726 5.6098199 9728517
0.28865999 2.3261499 5.5819702 11109638
0.27804101 2.32498 5.5815601 10714885
0.292285 2.3321099 5.5750098 12096264
0.282529 2.3310101 5.5755901 11438600
0.284706 2.3215201 5.5750299 11241222
0.29772699 2.3443501 5.5669699 13082376
0.30646601 2.3438499 5.5647998 13411336
0.31630099 2.3511901 5.55337 13871625
0.36059201 2.3914101 5.5503802 12554246
0.361166 2.3908501 5.5501199 12619782
0.66056597 2.5911801 5.5468798 12694437
0.66178697 2.5957201 5.5367699 12233886
0.66822398 2.5912299 5.5239301 10589060
0.65680599 2.5936201 5.5139599 11181454
0.65443897 2.5932901 5.5110402 11246991
0.66503 2.6024599 5.5027699 10260350
0.65567303 2.5998199 5.5050001 11049611
0.65668899 2.59922 5.5051098 10918025
0.64907002 2.5841 5.5012598 9996922
0.67276001 2.60251 5.49368 9865335
0.67396402 2.61061 5.47401 9930873
0.66741103 2.6178 5.4703002 9931386
0.67048103 2.64621 5.3766899 9865595
0.85789001 2.80755 5.2382002 9602940
0.86593199 2.81829 5.2047601 10063748
0.864977 2.82548 5.1881499 10918801
0.88608903 2.8426199 5.1753402 11774111
0.88426799 2.8389201 5.17518 11379609
0.89791799 2.85587 5.1556401 12761264
0.88915002 2.84624 5.1563301 12366506
0.90550399 2.86114 5.1501498 12958387
0.89887601 2.86623 5.1268001 13813697
0.902421 2.86991 5.1124101 13879491
0.87708998 2.8761101 5.0037899 13879491
0.90700001 2.9287901 4.92137 13879494
0.90754598 2.92646 4.9067602 13814214
0.91965997 2.9393499 4.8885698 13879750
0.99433798 3.02384 4.75248 13945286
0.99496299 3.0380599 4.7143998 13879750
0.985403 3.0441301 4.69803 13879750
0.98885202 3.0465701 4.69943 13879750
1.0093499 3.0534401 4.6970701 13814213
1.0308599 3.07177 4.6805801 13682371
1.0305099 3.0785301 4.6738601 13814213
1.03745 3.07903 4.6673799 13353406
-0.42129001 1.2013 7.9447498 8418924
-0.41988301 1.21351 7.9386101 8353132
-0.40922999 1.21975 7.93152 10392715
-0.40312999 1.21648 7.9338899 9208440
-0.39865699 1.2257299 7.9288502 12563885
-0.39469701 1.23479 7.9227099 13155767
-0.37501901 1.2456 7.9277101 13155769
-0.29735899 1.3015 7.8899202 13024181
-0.31715 1.32731 7.7859902 13089975
-0.298278 1.33129 7.79601 13089975
-0.28998801 1.34049 7.78264 12958132
-0.296148 1.34628 7.7673202 13024182
-0.28447101 1.34699 7.7636399 13023924
-0.28631401 1.35498 7.75489 13155510
-0.26861301 1.3587101 7.7625499 12958387
-0.27458599 1.35051 7.76438 12958387
-0.252765 1.3837399 7.7150302 13023924
-0.24194001 1.39429 7.7038698 12958131
-0.251147 1.39768 7.6723599 13023924
-0.251167 1.39772 7.6725001 13023924
-0.247135 1.39948 7.6812501 12234405
-0.234929 1.41221 7.6621499 12234149
-0.25003099 1.41778 7.6213102 12826546
-0.25430301 1.4131 7.6017299 12892339
-0.32464701 1.50258 7.1329198 9140832
-0.33650801 1.4998 7.0957799 8943452
-0.32690001 1.51078 7.07407 8811091
-0.330654 1.51759 7.06675 8613710
-0.32068601 1.51886 7.0622401 8415555
-0.30114901 1.52823 7.0679898 7822631
-0.30677599 1.5387501 7.0534902 7492883
-0.29722399 1.53732 7.0585699 7690001
-0.29677299 1.54379 7.04989 7623692
-0.295849 1.55323 6.9970698 7952644
-0.294182 1.5605 6.9912701 8083979
-0.29870799 1.5659699 6.9768701 8610584
-0.29174799 1.55673 6.9843001 8215560
-0.29161599 1.5731 6.9573202 13413459
-0.292476 1.56815 6.9612198 11570728
-0.284284 1.5792201 6.94627 13148460
-0.28670701 1.58512 6.9307199 14004285
-0.279439 1.5885201 6.9249201 13608721
-0.29150999 1.61385 6.8012099 14134537
-0.28877401 1.6234 6.7744598 13607436
-0.253903 1.64358 6.7696199 12158729
-0.262281 1.64584 6.7721801 10710788
-0.25000599 1.65019 6.76302 13935881
-0.186093 1.71385 6.70402 13409551
-0.18147001 1.7218601 6.6984801 14461451
-0.161495 1.73256 6.69771 14395144
-0.150024 1.73269 6.6982999 14329352
-0.16687199 1.73534 6.67979 14263816
-0.168201 1.72892 6.6650901 14329352
-0.1605 1.7355 6.6626501 14263816
-0.170912 1.73813 6.6450801 14132489
-0.163698 1.74133 6.6269398 13409547
-0.127731 1.7627701 6.64258 9726980
-0.117712 1.77481 6.64324 8346631
-0.25380099 1.89442 5.8890901 4608319
-0.249887 1.90019 5.8772602 7498286
-0.25449401 1.8997999 5.8611698 8549400
-0.25533 1.8994 5.8607302 8549400
-0.24308001 1.90968 5.85745 9141003
-0.25214499 1.90628 5.8379998 9337868
0.091479696 2.1312201 5.8474798 6833153
0.095220298 2.13993 5.84094 7688452
0.092723399 2.14342 5.83567 7886085
0.097378597 2.1393499 5.8299599 8017925
0.095970303 2.1445701 5.8249302 8149509
0.113092 2.1742301 5.76267 7951620
0.116205 2.1756101 5.7543302 8083459
0.114048 2.18011 5.75951 7951619
0.122163 2.1842699 5.7540798 8478212
0.12682299 2.1861801 5.7461901 8741381
0.179166 2.2317901 5.7291698 9202439
0.267768 2.31389 5.6227198 9596934
0.27586001 2.33056 5.5920701 10320391
0.28375399 2.3366899 5.5696101 12096265
0.34491199 2.3979101 5.5220399 15910929
0.32665899 2.38713 5.5064001 15911185
0.35792801 2.41922 5.4876299 14726409
0.65023798 2.5938799 5.5251899 12760231
0.64257902 2.5986199 5.52492 13681592
0.65048802 2.6001599 5.5164499 12431266
0.64802599 2.6047699 5.5023398 11904921
0.65236402 2.60537 5.49543 10918025
0.64975297 2.6119699 5.4882898 11049611
0.66517699 2.6230099 5.4809299 10062460
0.671085 2.6359301 5.4594402 9931387
0.67848802 2.6398799 5.4442301 10128765
0.69852 2.65151 5.4463501 10062972
0.662292 2.63779 5.4121099 10260352
0.68625998 2.65377 5.4113202 9997180
0.67243999 2.6479599 5.4057698 10194561
0.67498899 2.6530199 5.3972101 10194561
0.68575901 2.6656899 5.3667698 9800059
0.68475801 2.66359 5.3773599 9931388
0.67514002 2.6661899 5.3501101 9865851
0.82778001 2.7969699 5.2571201 9734783
0.84828001 2.8101299 5.2333002 9866114
0.838485 2.7988801 5.2351098 9668990
0.863778 2.8294101 5.21632 10984595
0.86532301 2.83797 5.1991401 12497835
0.87501001 2.83938 5.1909499 12037283
0.89137101 2.8616199 5.1618099 13682111
1.02538 3.08618 4.6755199 13879751
-0.44702899 1.21113 7.9377499 8353388
-0.42107901 1.22622 7.9284301 12629422
-0.40637401 1.22963 7.92556 13090230
-0.40540299 1.2349 7.9267001 13221560
-0.31915 1.33557 7.7756801 13089974
-0.306344 1.33841 7.7783098 13089718
-0.31145301 1.3446701 7.76511 13089974
-0.28088701 1.3663599 7.7618599 13089974
-0.254619 1.39631 7.7276402 13221046
-0.27001801 1.39809 7.6837201 13089717
-0.25617099 1.40001 7.6907001 13155510
-0.25990799 1.40741 7.6749802 13023925
-0.247584 1.40811 7.6793399 12958388
-0.25709301 1.42158 7.6047702 12628910
-0.263073 1.42655 7.6038098 12563373
-0.33755699 1.5059 7.14043 9141089
-0.31281501 1.5422699 7.0633001 7822898
-0.311692 1.5430501 7.0690298 7954745
-0.321513 1.53392 7.0636902 8283970
-0.30988401 1.54908 7.0555701 7691047
-0.30840701 1.5376 7.0580502 7493404
-0.29552901 1.55287 7.04251 7228932
-0.309172 1.5552599 7.02104 7031814
-0.32038099 1.55522 6.9835801 7558412
-0.30946401 1.56891 6.9710398 10058819
-0.32039201 1.56336 6.97402 8677941
-0.29847801 1.57415 6.9679999 12822121
-0.29784399 1.57322 6.9594202 13808747
-0.2965 1.58102 6.9518099 15191180
-0.29323399 1.58021 6.94839 14795380
-0.298996 1.58803 6.9424601 15455134
-0.28507501 1.59429 6.9259601 14004284
-0.28641799 1.6021 6.91711 14069297
-0.27296099 1.6071 6.9179902 13345290
-0.279293 1.59694 6.9182601 13937440
-0.262418 1.62911 6.8727999 13673992
-0.29713199 1.6282901 6.8007598 13805320
-0.294177 1.62824 6.7828999 13870860
-0.27937299 1.64461 6.77844 10381575
-0.287422 1.6318001 6.7757802 12093192
-0.25680199 1.6535 6.7696199 12882697
-0.26523501 1.65571 6.7720299 11697670
-0.19717599 1.71357 6.7040401 13343501
-0.19115201 1.72252 6.7019501 14263817
-0.191608 1.7312599 6.6613302 14263817
-0.19025899 1.7335401 6.6664701 14263817
-0.17460901 1.74807 6.6633902 13278219
-0.170772 1.74641 6.6388798 12160265
-0.17153101 1.75308 6.62991 9267461
-0.160565 1.75949 6.6289701 8807688
-0.15457299 1.76827 6.6245298 8544777
-0.122125 1.78602 6.6399498 8281094
-0.347076 1.8058 6.0200901 5463111
-0.33876199 1.81515 6.0187302 5069385
-0.35165501 1.81502 5.9977999 5332039
-0.346652 1.81765 5.9958801 4938319
-0.33514899 1.8273799 5.9880199 4544850
-0.33205801 1.83031 5.9661398 4545365
-0.25516501 1.90149 5.9002399 5790263
-0.25863701 1.90622 5.8896799 8089379
-0.25791499 1.90451 5.8703299 8614933
-0.258634 1.9104199 5.8606 9074955
-0.25202301 1.9144599 5.8496399 9206796
-0.24928001 1.92216 5.86198 9206539
0.0847314 2.14079 5.8475699 6898434
0.090622798 2.1482301 5.8424301 7622660
0.0919948 2.15242 5.8420501 7754244
0.088708602 2.15611 5.8338799 7952133
0.094478801 2.14832 5.8323398 8017925
0.094736896 2.1486599 5.8337798 8017925
0.097631603 2.15591 5.8309498 8346886
0.109145 2.1821899 5.7623701 7951363
0.108684 2.18734 5.7582002 7951875
0.108853 2.1874101 5.7585602 7951617
0.119071 2.1928999 5.7541099 8544261
0.116368 2.18647 5.7569199 8215043
0.125 2.1909101 5.7516699 8675589
0.127547 2.1925399 5.7532902 8741381
0.12646601 2.20875 5.7333498 9070342
0.175533 2.2502799 5.6833901 9334277
0.25832 2.3350699 5.57371 10714889
0.283234 2.35238 5.56881 12227337
0.32924199 2.39641 5.5349598 14331949
0.33458099 2.404 5.5293298 15648565
0.334171 2.4038 5.5149298 15648558
0.34473401 2.4173601 5.4913702 14660899
0.33157599 2.4130499 5.4715199 13870350
0.59731197 2.57163 5.5543599 11969931
0.60134399 2.57898 5.5466399 14075831
0.610385 2.5757501 5.55057 14075572
0.64159799 2.6180601 5.4949598 12760231
0.66081798 2.6363599 5.4398999 9997180
0.66843498 2.6617301 5.4017901 10984077
0.67820197 2.67238 5.3966498 10720906
0.67576498 2.6645401 5.3840098 10391940
0.668863 2.6698501 5.3734002 10589576
0.67880499 2.6798699 5.36025 9800059
0.67913598 2.6753099 5.34831 9865851
0.672782 2.67647 5.3380899 9800058
0.66468698 2.6712501 5.3277302 9800058
0.68127799 2.68505 5.32549 9734011
0.811894 2.7869101 5.2834301 9734526
0.82234901 2.79566 5.25664 9931906
0.82483101 2.80985 5.2504001 11050387
0.85197902 2.8321099 5.2306499 12168869
0.85718501 2.8367901 5.2235599 12498091
0.85521299 2.83495 5.2075901 12761008
0.86049801 2.8468499 5.2073202 13616318
0.868451 2.84763 5.19696 13353144
0.91240901 2.8850801 5.1688399 13879491
-0.46024701 1.21128 7.9362702 8353132
-0.45265001 1.22162 7.9314699 10524046
-0.43378901 1.2226599 7.9355402 10721425
-0.43183801 1.2328 7.9279299 13155768
-0.41750401 1.23709 7.9242501 13155768
-0.278797 1.42855 7.5956898 12694958
-0.37521201 1.48158 7.1699901 7694167
-0.318097 1.55211 7.0676599 8152902
-0.31387001 1.54796 7.05163 7559203
-0.32174301 1.55509 7.04286 7822897
-0.31171799 1.55469 7.0425701 7163668
-0.319574 1.56194 7.0190101 7361825
-0.33094901 1.5580699 6.9780998 8086064
-0.34167001 1.56876 6.9551501 9732449
-0.31097001 1.5854501 6.9402399 15455659
-0.30052999 1.59492 6.9286699 15388561
-0.30192 1.60291 6.9211602 15452802
-0.29332599 1.59868 6.9239802 14860136
-0.29468501 1.60667 6.9165101 14398277
-0.27923399 1.63629 6.8422899 13476359
-0.28015 1.6358401 6.8411498 13476359
