# .PCD v0.7 - Point Cloud Data file format
VERSION 0.7
FIELDS x y z rgb
SIZE 4 4 4 4
TYPE F F F U
COUNT 1 1 1 1
WIDTH 1216
HEIGHT 1
VIEWPOINT 0 0 0 1 0 0 0
POINTS 1216
DATA ascii
0.90287799 0.551305 3.9644301 10918797
0.90396702 0.55562699 3.96257 11050382
0.62799799 0.379462 4.3146801 8349742
0.624457 0.383448 4.3048 9072146
0.62363601 0.387584 4.2973399 9664011
0.59212899 0.40983599 4.24751 11110410
0.57672799 0.42417201 4.2065001 11438600
0.57392001 0.42988801 4.1989999 11767559
0.57470798 0.43130901 4.20187 11833351
0.57053202 0.43299499 4.19032 12293383
0.56671602 0.43812799 4.1859298 12227849
0.56933498 0.44123501 4.18119 12622344
0.57089001 0.44350499 4.1711702 12885000
0.55511302 0.45815101 4.1469898 12884999
0.55417001 0.45828 4.1453099 12950535
0.57737398 0.491851 4.0777302 13674507
0.58398002 0.494398 4.07341 12423433
0.585159 0.49450201 4.0673399 11699462
0.59437698 0.49989 4.0641699 11567367
0.596196 0.49881399 4.06322 11764743
0.60377401 0.49827799 4.05616 12554503
0.60044801 0.50108701 4.0595398 11830533
0.60698801 0.50309002 4.0506802 14396940
0.60705101 0.50660402 4.0448799 14067466
0.60336697 0.50965202 4.0363498 13738760
0.59435803 0.518507 4.0153699 12950798
0.59564102 0.51785803 4.0171599 13082381
0.597974 0.52070302 4.01092 10977803
0.69146699 0.52638298 4.00702 8151303
0.70098299 0.52697301 4.0056601 7954184
0.70384401 0.532179 4.0014 7888136
0.700885 0.53178602 4.0013499 7888392
0.90254003 0.554649 3.97473 10261382
0.90099603 0.55838197 3.9677701 10984846
0.90178102 0.56231099 3.96298 11050382
0.621292 0.391395 4.3028002 9466381
0.60709798 0.397825 4.2895002 9597965
0.57322103 0.418019 4.2389398 11044105
0.58205199 0.41600701 4.23773 11242011
0.57847703 0.42155999 4.2302299 11242009
0.57847703 0.42155999 4.2302299 11242009
0.57676798 0.42125699 4.2272 11176217
0.57180101 0.43135601 4.2121301 11768090
0.56543201 0.43621701 4.2050099 11635976
0.56852698 0.43878999 4.2005701 12030472
0.57045799 0.435637 4.1960602 12293383
0.56900698 0.43650699 4.1958399 12030471
0.57206303 0.43928999 4.1912899 12819209
0.569152 0.44668901 4.1763 12753672
0.56389898 0.45283201 4.1642599 12819207
0.54945302 0.46503401 4.14361 12753672
0.56156701 0.459326 4.1472602 13016583
0.56259799 0.465758 4.1429801 13016584
0.56142002 0.46880001 4.1353598 13082376
0.56593198 0.46322501 4.1388202 12819208
0.58116502 0.497118 4.0781598 12950282
0.583812 0.50044799 4.0740199 11765510
0.58284497 0.49985901 4.0696998 11699462
0.58842897 0.49985299 4.0668402 11238921
0.58287501 0.50443298 4.0654602 11238919
0.60087597 0.50717002 4.0592299 13672717
0.601987 0.50998598 4.0487599 14199562
0.60286099 0.51333702 4.0434599 13870344
0.59071898 0.52008498 4.03197 13673225
0.59169197 0.52386498 4.0274401 13476361
0.593382 0.52244198 4.0216899 13147915
0.593714 0.52079302 4.02245 13345033
0.593979 0.52576703 4.0159998 11372300
0.59464997 0.529221 4.01057 10057230
0.60849398 0.52965099 4.0071201 9597457
0.69754601 0.53265202 4.0089502 8151304
0.70645499 0.53637201 4.0029602 8019720
0.72411102 0.53543001 4.0046701 7691019
0.89559901 0.56104499 3.97019 10853261
0.62821198 0.387936 4.32127 8745007
0.58270299 0.41045699 4.2708602 9795085
0.57532197 0.416538 4.2487302 10189576
0.57280701 0.41980499 4.2518301 9992199
0.57571298 0.421978 4.2469201 10715400
0.57674402 0.42573899 4.2414198 10912522
0.5772 0.428031 4.2281599 11504922
0.57193798 0.430343 4.2253699 11768092
0.56123501 0.43926901 4.2073998 11109898
0.56945503 0.442606 4.1958299 12359177
0.56387401 0.44759899 4.1897101 12622087
0.56074601 0.46908399 4.1474099 12951049
0.56671202 0.47445801 4.1335702 11965195
0.570189 0.47211099 4.1345 12030730
0.57811999 0.49979499 4.0826602 13411339
0.58047801 0.505575 4.07583 11765510
0.58468902 0.50511199 4.0711799 11436039
0.59227198 0.50760198 4.06634 11632904
0.59587801 0.509839 4.0620699 12159494
0.59507698 0.51063699 4.0629702 12422404
0.59965998 0.51398802 4.05936 14001932
0.60170102 0.51654899 4.0549998 14133771
0.604038 0.51574498 4.0499201 13936136
0.59011501 0.52713698 4.0330901 13607690
0.59231001 0.52884197 4.0208998 11898381
0.59277898 0.53207999 4.0148902 10254351
0.59422398 0.53573501 4.0109401 9860370
0.71896499 0.542045 4.0048599 8019719
0.89401698 0.56524801 3.97703 10129796
0.8919 0.56972897 3.96876 10984589
0.625126 0.39643201 4.3193002 8940817
0.585159 0.41429901 4.2740898 9926666
0.57657403 0.42031199 4.2555199 10189318
0.569502 0.42766401 4.24263 10846728
0.57326299 0.42862701 4.2396598 11241483
0.57967502 0.429162 4.2375798 11702300
0.576343 0.43463001 4.2280302 11965468
0.559102 0.442954 4.21244 10781193
0.56101203 0.44559899 4.2061701 11898889
0.56586403 0.44838601 4.1984701 12622343
0.55636299 0.46951401 4.1565399 13082375
0.54244697 0.47253999 4.1486001 12950793
0.56734002 0.480598 4.1337299 12688135
0.58014703 0.51153803 4.07622 11436295
0.58604503 0.51185101 4.07759 11304456
0.58401603 0.50907499 4.0726399 11370247
0.583911 0.51610798 4.0658898 11896071
0.59460801 0.51378298 4.0675001 11041548
0.59765202 0.51930398 4.0587502 14133772
0.59491301 0.52380902 4.0461001 13870345
0.58859998 0.53156 4.0364499 13542154
0.59065002 0.53188801 4.0258999 12424463
0.59076297 0.53205502 4.0262499 12424463
0.59174699 0.53526598 4.0209498 10451727
0.59260303 0.53840798 4.0153799 9925908
0.71995699 0.54848701 4.0037498 8217096
0.74717897 0.55972099 3.9812901 7033867
0.89230698 0.56900197 3.9825799 8748143
0.88982701 0.57288301 3.9736099 10918795
0.61798298 0.40581101 4.3081999 9663496
0.57422799 0.43803 4.23351 12097057
0.55659699 0.45101899 4.2069998 11504649
0.56388903 0.451424 4.2031798 12293383
0.56169498 0.454465 4.2074099 12227591
0.56667298 0.45494899 4.20367 12687879
0.578201 0.48761201 4.1312399 13345544
0.57792097 0.51671398 4.0778699 11436038
0.58178103 0.52192801 4.0684199 11961863
0.58832997 0.522026 4.0666699 12422406
0.59762698 0.52573502 4.0599799 14133515
0.5862 0.53430498 4.0404201 13673481
0.588709 0.53478801 4.0306001 12227348
0.58722597 0.53774399 4.0360899 12621843
0.59091598 0.53846502 4.0268698 10648845
0.59069997 0.538526 4.0267301 10648845
0.591573 0.54160303 4.0210199 9991188
0.72714198 0.55085897 4.0116301 8414215
0.71891701 0.58147597 3.95507 7888658
0.888273 0.57634002 3.97843 10852745
0.88814199 0.58010298 3.9725001 10589308
0.666668 0.26560399 4.6233301 7955503
0.663302 0.268015 4.6133699 8217903
0.61460698 0.40916401 4.3145499 9203464
0.61470002 0.41315001 4.3080702 9794823
0.57188201 0.44133401 4.2388701 12031265
0.55848002 0.449085 4.2310901 10320903
0.55614001 0.45345101 4.2205501 10912519
0.559228 0.45708999 4.2076802 12162056
0.55900699 0.490235 4.13624 12819207
0.57548201 0.52189702 4.0704398 11961863
0.59204698 0.52911401 4.06604 14462735
0.58817101 0.53275502 4.0498199 13936137
0.58778 0.53642601 4.0434399 13739018
0.58471698 0.54046202 4.0398798 12818963
0.58745301 0.53967601 4.0376501 12424724
0.586483 0.54372197 4.0356398 11372564
0.58857 0.54090101 4.0311899 10846483
0.58885098 0.54174101 4.0312901 10649107
0.59001797 0.54460001 4.0261402 9991442
0.59225702 0.547988 4.0227199 9794326
0.59584099 0.54557502 4.0215402 9794326
0.88944697 0.57597101 3.99261 4800817
0.88786298 0.58354503 3.9799399 10523256
0.65565401 0.25124201 4.6568899 5389068
0.65079898 0.25889599 4.64922 4667917
0.65987402 0.26889101 4.6286302 7626024
0.58930898 0.43191099 4.2828798 10649863
0.550161 0.48081699 4.1694398 13016328
0.56010598 0.497969 4.1403599 12950792
0.56803602 0.49537501 4.1378002 13016584
0.57272702 0.525823 4.0852599 11567879
0.57245803 0.52754903 4.0770402 11370504
0.57285303 0.52738398 4.0777898 11501832
0.57963598 0.527502 4.0710402 11896070
0.58641797 0.52922601 4.0693498 12948745
0.59091198 0.53633702 4.0598898 14133513
0.58349299 0.54053599 4.0482998 13804810
0.586739 0.54287302 4.0432601 12687381
0.58470899 0.54664201 4.04076 11832853
0.58694601 0.544056 4.03685 11438356
0.58689803 0.549981 4.0369201 10057237
0.58916402 0.54716802 4.0329599 9925910
0.59027702 0.55093598 4.0274601 9794326
0.88896799 0.58223802 3.9923401 8286550
0.88684201 0.59028798 3.9801199 10720636
0.65471601 0.25590101 4.6638098 4536846
0.64936 0.26372001 4.6553898 5127697
0.57631302 0.436308 4.2864399 9663496
0.58420497 0.43440601 4.2797799 10649863
0.58051199 0.43706 4.2792902 10452743
0.57723403 0.43989199 4.2796502 10386951
0.58436602 0.44173601 4.2685499 11307527
0.56011403 0.46526301 4.21457 12490503
0.57121801 0.526034 4.0906801 12094728
0.57272702 0.52594799 4.0859199 11567879
0.56976902 0.52911699 4.0894599 11831559
0.56935197 0.52940899 4.0894599 11897095
0.572658 0.53169101 4.0848498 11436295
0.57182997 0.53146201 4.0838099 11304711
0.58527303 0.53897399 4.0713 14265102
0.58302701 0.53367198 4.0721302 12619784
0.58716601 0.53916198 4.0632 14265354
0.588866 0.54338902 4.0590301 13936138
0.58541799 0.54594803 4.0479598 12819222
0.58457202 0.54992503 4.04879 12358934
0.58432001 0.55268198 4.0409598 10320405
0.59082103 0.555843 4.02984 9728792
0.88583797 0.59135801 3.9937899 9995599
0.89262903 0.58882099 3.9906199 10654839
0.88630402 0.59459001 3.9868901 10983809
0.64585602 0.267371 4.6573901 5719575
0.65625203 0.26802 4.6563201 6112274
0.65099001 0.263657 4.65731 4996624
0.65762001 0.27154601 4.64464 7494437
0.58388197 0.44091499 4.2796798 10715911
0.55664903 0.48252401 4.1920099 12885000
0.56101298 0.48010299 4.19557 12885000
0.56220597 0.50547999 4.1452699 13213704
0.56572998 0.53252202 4.0915899 12292359
0.56920898 0.53498101 4.0889502 11436293
0.569143 0.53542101 4.0895801 11436293
0.569704 0.53565103 4.0911102 11436293
0.58338499 0.54189998 4.0769701 13212171
0.58434898 0.54501098 4.0712299 14528269
0.58298302 0.54883599 4.06389 14067978
0.58440202 0.54909301 4.0533099 12884757
0.58203298 0.55546701 4.0453501 10649108
0.58330703 0.55608797 4.0485101 10846228
0.58442301 0.55883402 4.0419998 10057492
0.58762699 0.55590802 4.0378599 9728795
0.58978599 0.55943102 4.0362802 9794585
0.88230902 0.600335 3.98439 10786171
0.88458002 0.60509402 3.9802101 10589571
0.89060998 0.60009402 3.98265 10721159
0.87320697 0.60723603 3.97086 11050125
0.65203601 0.27220699 4.6571002 6968868
0.65829003 0.27540499 4.6528001 8087090
0.65899998 0.27829999 4.6441202 8086318
0.57582802 0.44328001 4.2870202 10123783
0.57100803 0.449036 4.2744899 10715655
0.58372498 0.44747901 4.2802701 11110152
0.58426303 0.45333999 4.2778001 10781729
0.55792499 0.537938 4.0911398 12818697
0.56758398 0.540672 4.0929198 11304965
0.56469101 0.54034603 4.0897398 11436548
0.57427502 0.53825301 4.0894399 11107334
0.58357 0.544864 4.0841198 12225029
0.58160001 0.55526799 4.0636802 13147925
0.583529 0.55226499 4.05896 13016340
0.582421 0.55887902 4.0533199 10978069
0.58157903 0.55897099 4.0537701 11109397
0.58900797 0.56255001 4.0422702 9860376
0.87622899 0.60713702 3.9879799 11114879
0.868644 0.609824 3.97579 11115659
0.65154499 0.276797 4.665 6837796
0.57840902 0.44948301 4.2880802 10518534
0.5801 0.45246801 4.28268 11373594
0.57374901 0.46069199 4.2751799 11899680
0.56308198 0.48661599 4.2182798 12819464
0.56096399 0.490538 4.21065 12950790
0.563124 0.53784198 4.0995002 12950794
0.58252102 0.546462 4.09236 11369990
0.58174902 0.55268699 4.0704398 14330891
0.57297701 0.55758798 4.0627799 14002701
0.58131099 0.55855501 4.05797 12490254
0.58186501 0.56506199 4.0534501 9926169
0.58299202 0.56824797 4.0485501 10057752
0.85499501 0.60578501 3.99664 9202957
0.86351401 0.60851097 3.9856601 10323276
0.85374302 0.62163001 3.9665201 11050125
0.570939 0.472911 4.2539401 12096007
0.56525099 0.48011801 4.2423902 12358918
0.56182599 0.48537001 4.2336602 12621578
0.55968601 0.489943 4.22578 12621835
0.55744898 0.49363399 4.2178402 12622092
0.55936199 0.49446201 4.2032099 13016582
0.55668902 0.49873 4.1957698 13148169
0.55620801 0.50277603 4.18997 13213961
0.566966 0.55025101 4.0959201 11766552
0.58119702 0.55260599 4.0866199 12751878
0.57896602 0.561212 4.0736899 13082391
0.58205801 0.56245899 4.0657902 11964694
0.57745498 0.56494999 4.0672898 12162072
0.58252603 0.56563598 4.0570502 10123288
0.580127 0.56589401 4.05794 10714644
0.58623999 0.56904602 4.0543299 9926163
0.84949702 0.61141998 3.9930899 9268496
0.85874498 0.61255199 3.98963 9927994
0.85531098 0.618671 3.98701 10982247
0.85679603 0.61577702 3.98927 10323530
0.85999602 0.61604702 3.98453 11311482
0.85923201 0.61875999 3.9772201 11115402
0.56659597 0.46906799 4.27319 11307017
0.56932497 0.471935 4.2691598 11635978
0.56741798 0.47590899 4.2617302 11701770
0.56204402 0.483183 4.2505202 11372301
0.55897099 0.48759401 4.2422099 10780171
0.55595702 0.492226 4.2337098 9990665
0.55680197 0.49678001 4.2245202 10253833
0.556687 0.49809599 4.21068 12490507
0.55727798 0.49724001 4.21035 12622090
0.55654198 0.497605 4.2109799 12490507
0.55571502 0.50139302 4.2030602 12490763
0.55303299 0.50568998 4.19593 11898635
0.55221897 0.50966603 4.1895399 11503884
0.55029398 0.51119 4.1919799 9464582
0.554057 0.508228 4.18712 12753677
0.57071102 0.550304 4.10888 12226570
0.57056099 0.55027902 4.1087399 12293148
0.56782198 0.55441099 4.10186 10846234
0.57941198 0.559062 4.0851998 13936144
0.58187097 0.56902403 4.0659599 10912018
0.585195 0.56954998 4.0686402 10912273
0.58503902 0.57204199 4.0595002 9925906
0.58601201 0.57261503 4.0633101 9925905
0.85302299 0.62264103 3.9919801 10784862
0.85673499 0.62474 3.98739 11180932
0.85693198 0.625866 3.9770899 10984588
0.57902098 0.46032101 4.3051801 10848030
0.57979703 0.460866 4.3053098 11308334
0.57652003 0.46500099 4.29703 11373870
0.57000798 0.47034001 4.2857399 10123038
0.56727397 0.47435799 4.27774 9399063
0.56423903 0.478715 4.26934 8937740
0.56348503 0.48517799 4.2607398 8345605
0.559955 0.484795 4.2595701 8016389
0.56078398 0.483614 4.2600002 8674567
0.56148601 0.48940799 4.2529502 8016646
0.55865902 0.49016601 4.25142 8543515
0.555619 0.49549001 4.2395601 8477978
0.55513901 0.50086099 4.21701 9595912
0.55341399 0.505207 4.2096601 9399576
0.55373698 0.504004 4.21035 9332998
0.55274302 0.508412 4.2080302 8610071
0.55284798 0.50800902 4.2038398 9662486
0.55260301 0.511931 4.1977501 8938246
0.55235499 0.512945 4.2012501 7556868
0.554138 0.51545399 4.1922498 8346116
0.55030602 0.515396 4.1872001 8609283
0.56305999 0.55368698 4.1075802 9333000
0.58288598 0.56936502 4.0785398 11898901
0.583318 0.57254398 4.0731001 10320917
0.84693003 0.61922699 4.0046101 9334028
0.85031301 0.621867 4.0009499 9400340
0.85345501 0.62903899 3.9908099 11115391
0.859869 0.63110203 3.98932 10984586
0.58210802 0.46305901 4.3161802 9334305
0.59726602 0.458166 4.3289299 9664551
0.58002198 0.46657401 4.3090801 9202721
0.578403 0.46859801 4.3059201 8676124
0.57622403 0.47226501 4.2989702 7754261
0.57703799 0.470393 4.3014798 8346649
0.57136798 0.475449 4.2909598 7358996
0.56951302 0.47896001 4.2838802 7227156
0.56774002 0.484626 4.2743902 7621381
0.56226599 0.49046201 4.2631402 7424784
0.56276298 0.49417099 4.25702 8148762
0.55659503 0.494115 4.2437801 8412188
0.55368501 0.499547 4.2322502 8214809
0.55179602 0.50370902 4.2246799 7227651
0.54953599 0.507236 4.2171302 7293444
0.55405402 0.51012301 4.2120099 7359747
0.554564 0.513304 4.2118101 7162116
0.55221301 0.51775998 4.1996102 7425285
0.55359 0.52102 4.1949501 7622918
0.583682 0.57576603 4.0787902 9662214
0.84879798 0.62520301 4.00666 9465615
0.84932101 0.62863702 4.0009599 9730606
0.85037899 0.63211501 3.9956701 11114358
0.85126698 0.63563502 3.9902699 11575949
0.595321 0.46583399 4.3295898 8873766
0.58487499 0.470788 4.3184299 7030279
0.57564199 0.47732401 4.30374 7425045
0.56186599 0.496088 4.2553101 7951642
0.55893701 0.50114399 4.2432299 7820311
0.55511802 0.50549698 4.2356601 8215068
0.84688401 0.63221502 4.0060101 9663776
0.853715 0.636437 3.9986401 11115396
0.85605401 0.640405 3.9946899 11576208
-0.32642901 0.373806 4.4229398 3803403
0.549573 0.51252502 4.2357402 7556891
0.54105997 0.51878798 4.2224398 7820315
0.83515501 0.63363302 4.0118499 9466129
0.84232402 0.63868201 4.0125299 9663261
0.84725201 0.635876 4.0079899 10124858
0.84986001 0.638978 4.0032201 11180148
0.848993 0.641918 3.99541 10984585
0.85379398 0.646577 3.99388 11576209
-0.33803201 0.37240699 4.4264498 3604485
-0.33215699 0.37305999 4.4248099 3473669
-0.32576099 0.377406 4.4275498 4528409
-0.32134801 0.37613499 4.4247198 4198417
-0.311304 0.38069099 4.4156599 3670533
0.566984 0.57517898 4.1233702 7688709
0.56572801 0.57791501 4.1113 7623434
0.56836998 0.58159798 4.1080899 9663248
0.571289 0.58444703 4.1042399 11702804
0.57055998 0.58432901 4.10358 11899926
0.84255898 0.63873601 4.0226102 9531408
0.85029697 0.641774 4.00914 11048043
0.851457 0.64504701 4.0038199 11050120
-0.32837501 0.37717 4.4334898 3803659
-0.320081 0.37958601 4.4295402 5121059
-0.31699499 0.38124299 4.4254398 5451305
-0.31261301 0.38265499 4.4219599 4330517
-0.30770701 0.38674501 4.4153199 3735812
-0.26182801 0.409134 4.3743801 3540745
-0.073614597 0.41104999 4.3900399 5653303
-0.060088899 0.42647001 4.3688502 5126700
0.56320697 0.580172 4.11658 7623690
0.56360298 0.58318698 4.1107898 8478729
0.56789798 0.58714801 4.10743 11440151
0.58896399 0.58866102 4.1117001 9268751
0.842556 0.64699 4.0176301 10124855
0.851237 0.65165699 4.0086498 11641742
-0.32941401 0.377359 4.4507499 3604485
-0.330966 0.381423 4.4412098 3935246
-0.32865301 0.379623 4.4408698 3738380
-0.33148301 0.37802601 4.4446301 3670277
-0.335067 0.37773401 4.44136 3604742
-0.323733 0.381715 4.4326601 6110004
-0.324487 0.38158801 4.43785 5385767
-0.32194 0.38283801 4.4328699 6373689
-0.31724399 0.38475299 4.4296999 6177080
-0.317314 0.384664 4.4302201 6242873
-0.31227899 0.38759401 4.4266601 5847091
-0.30703899 0.39230099 4.4208899 3935757
-0.25816301 0.41454899 4.37498 5188392
-0.063559897 0.42908901 4.36765 4600614
-0.058945499 0.43206 4.3686399 4205600
0.58423799 0.494755 4.3213301 6963974
0.58125597 0.571558 4.15378 7754757
0.56566399 0.58514398 4.1262298 8148997
0.56661302 0.58682501 4.1188102 8610571
0.58291203 0.59378701 4.11306 9663243
0.592655 0.59413803 4.1132102 9137164
0.60000801 0.594262 4.11198 8545292
0.847996 0.64483303 4.0341902 9531665
0.84101701 0.65014201 4.0227399 9992490
0.842623 0.65319699 4.01757 11179629
0.84419799 0.65627801 4.0124002 11641484
0.84490103 0.65987599 4.0063801 11839123
-0.36460099 0.36790901 4.4758501 4858658
-0.360367 0.364629 4.4742398 3014917
-0.357784 0.37262201 4.4683099 3145989
-0.33357099 0.379697 4.4531898 3735559
-0.33403099 0.37957001 4.44765 3735814
-0.33213699 0.38288 4.4466 3802634
-0.327099 0.385176 4.44103 5846321
-0.32405901 0.387613 4.4377398 6572097
-0.32385099 0.385286 4.4368501 6637631
-0.31958601 0.38896599 4.43434 6902088
-0.31206101 0.391289 4.42558 6242618
-0.31477401 0.39096701 4.4296098 6771272
-0.30949801 0.39579499 4.4255099 6308154
-0.26069999 0.41992599 4.3775001 5715248
-0.25139499 0.41931301 4.3768702 4857631
-0.077736102 0.42027399 4.3967099 5126445
-0.051201899 0.44836101 4.3492899 5127459
-0.050727502 0.445943 4.3548698 5127205
0.59032601 0.497816 4.3329301 8412172
0.589046 0.50228602 4.3261499 8280598
0.58148998 0.573883 4.1647 7688965
0.57541102 0.58560801 4.1442599 8148997
0.57541102 0.58560801 4.1442599 8148997
0.57541102 0.58560801 4.1442599 8148997
0.56630599 0.59099603 4.1259298 9268238
0.58074403 0.59932899 4.1154099 9794572
0.59304398 0.59508699 4.1149001 9202956
0.59757501 0.59990603 4.11655 9005836
0.604002 0.59979802 4.1149802 8347914
0.83813101 0.65366101 4.0268502 9860900
0.84274 0.65939403 4.01755 11509895
-0.373521 0.362616 4.4986401 3806996
-0.36295 0.36703199 4.4887099 3081736
-0.36392599 0.371521 4.4823699 4728869
-0.35879999 0.37204301 4.4763398 4923937
-0.35320699 0.37388 4.46982 3670277
-0.334093 0.38504699 4.45753 3735814
-0.330948 0.38179001 4.4598699 3866631
-0.33076799 0.38548201 4.4453301 4462616
-0.32701099 0.38919601 4.4450998 6307641
-0.314459 0.39541599 4.4285302 6771784
-0.31337199 0.39703 4.4286299 6771784
-0.30906099 0.39692599 4.4253001 6308411
-0.26319399 0.42522901 4.37925 6968135
-0.25683501 0.42541 4.37781 5123111
-0.253622 0.42430499 4.3742199 3672075
0.59316301 0.488765 4.3618002 13082640
0.59171897 0.500889 4.3406901 10977808
0.59094501 0.50444299 4.3343501 9925657
0.58455998 0.57801002 4.1755199 7754757
0.58109301 0.58350098 4.1580601 8017669
0.57850802 0.60475498 4.1175399 9860364
0.58319098 0.60450602 4.1138601 10057481
0.58884901 0.60453498 4.1117601 9334543
0.608419 0.60543197 4.1170802 8807942
0.73652601 0.627343 4.0805302 8086036
0.83762902 0.65695697 4.0321898 9795106
0.83839601 0.66011101 4.0264101 10849619
0.84183002 0.66586 4.0167699 11773587
-0.37378901 0.36768499 4.4969001 3675923
-0.357196 0.37955099 4.47754 5584434
-0.35321301 0.37939599 4.4746099 4529181
-0.349446 0.37935501 4.4698 3145988
-0.347054 0.38321501 4.4695601 5119262
-0.33510301 0.3883 4.4617701 3670277
-0.32966 0.392941 4.4492698 6440254
-0.31016201 0.40586501 4.4278102 6771785
-0.31033599 0.40580401 4.4277301 6771785
-0.31033599 0.40580401 4.4277301 7561555
-0.31331801 0.40160999 4.4273601 6771785
-0.30413899 0.402686 4.4242601 5649711
-0.25614899 0.42982799 4.3772001 5124138
-0.25097901 0.431537 4.37538 3870737
-0.056907699 0.45231301 4.3590102 4664605
-0.051467601 0.452012 4.3548999 5192996
0.58842999 0.49515301 4.3666401 13148169
0.58719099 0.49558601 4.3573999 13477130
0.57741898 0.50130999 4.3453002 13608971
0.58698499 0.499717 4.3510399 13608715
0.577703 0.50139999 4.3500099 13608714
0.586568 0.50843197 4.3393002 11640600
0.58941603 0.50844401 4.32762 9464346
0.59141701 0.51185399 4.32271 8148502
0.59238499 0.51536399 4.3173499 7556372
0.59006298 0.51928598 4.3101902 7359252
0.59078699 0.52296698 4.3046198 7227156
0.586537 0.57553399 4.1826301 7688965
0.57990903 0.58324802 4.1690602 7886085
0.57990903 0.58324802 4.1690602 7886085
0.58101797 0.58669102 4.1633501 8017413
0.58210301 0.59018302 4.1578398 8280325
0.575091 0.59452701 4.1487198 9859860
0.570261 0.60801798 4.1175699 10583566
0.56831998 0.612019 4.1125898 9991949
0.57615501 0.608495 4.1113 10123273
0.61769098 0.61194998 4.1179299 8676613
0.82510602 0.661632 4.0328898 9860898
0.83942699 0.66645598 4.0264301 11904651
-0.37581101 0.36769399 4.5057502 3676179
-0.37261099 0.373016 4.4969902 4861480
-0.361992 0.37723199 4.4938898 7166031
-0.36041901 0.37980801 4.4821601 7231310
-0.35410401 0.383634 4.4775701 5715763
-0.34961599 0.38395 4.4737501 4003608
-0.35077399 0.386572 4.47192 4333085
-0.34964401 0.38677901 4.4725499 4989216
-0.346892 0.38629699 4.4683199 3604485
-0.33221799 0.39515901 4.45578 5583149
-0.32942301 0.39862201 4.4489598 6705477
-0.31207499 0.409998 4.4301801 6706504
-0.30745599 0.409962 4.4280601 7232334
-0.29802799 0.40990099 4.4250998 4200213
-0.30601799 0.40882501 4.42454 6770756
-0.263742 0.431418 4.3821001 6969162
-0.25548699 0.43648201 4.3814702 6573121
-0.053836402 0.45763999 4.3587699 5192483
0.58443898 0.48475799 4.4012299 11241737
0.58977503 0.48227301 4.4021902 11307531
0.59191298 0.485347 4.39715 11965191
0.59461999 0.48274899 4.3976698 11899401
0.58644998 0.493505 4.3763499 12951050
0.582766 0.49811599 4.3629999 13411338
0.58088398 0.50642002 4.3459802 13937673
0.58071297 0.50806499 4.3443198 13937929
0.57966202 0.51179302 4.3384099 13871883
0.58021599 0.512667 4.3391099 14069258
0.57827401 0.51718599 4.33075 14003724
0.58441299 0.516491 4.3341699 13937934
0.58781397 0.514871 4.3278298 11109405
0.58880597 0.51476502 4.32862 11043613
0.584023 0.52004302 4.3173299 10451751
0.586335 0.52471203 4.3155198 10583862
0.59241599 0.52461702 4.3123202 7556373
0.59074998 0.52894598 4.3056798 7161876
0.58389097 0.530711 4.3039899 7885593
0.59201097 0.53299201 4.3018498 6635029
0.59098297 0.583215 4.18852 7886340
0.58072299 0.59001499 4.1688099 8214788
0.58115202 0.58961701 4.17029 8083205
0.58131999 0.59336698 4.1627498 9136402
0.575885 0.60052902 4.14856 11635719
0.57670599 0.601197 4.1489601 11767303
0.57589698 0.600532 4.1485701 11635719
0.57589698 0.600532 4.1485701 11635719
0.56745899 0.60467398 4.13691 12293640
0.565525 0.60392898 4.1356001 12293385
0.565525 0.60392898 4.1356001 12293385
0.565525 0.60392898 4.1356001 12293385
0.565983 0.61567998 4.1185699 10517774
0.56966102 0.61537802 4.1189098 10123276
0.61440003 0.61730099 4.1203899 8742405
0.84335101 0.67243099 4.0268402 11773586
0.850474 0.67647201 4.0250902 10984588
-0.375819 0.37216699 4.5051098 5124907
-0.37576401 0.37116399 4.5103102 5124140
-0.373409 0.37863001 4.5004802 7099980
-0.35551 0.38815099 4.4801998 8350048
-0.350418 0.38800001 4.4769101 5846578
-0.35204601 0.390071 4.4756398 5847605
-0.34830001 0.391747 4.4723001 5188136
-0.344791 0.39288101 4.4686298 3475465
-0.336099 0.39429301 4.4657602 3474439
-0.33154801 0.39919099 4.4602098 6308409
-0.330726 0.401829 4.4538298 6705477
-0.30152199 0.41754699 4.4264202 5914935
-0.29766601 0.41707301 4.41889 3607051
-0.28487799 0.424274 4.4156299 4529434
-0.257725 0.43722299 4.38276 7034698
-0.25038499 0.43817499 4.3794899 4530974
-0.246849 0.44390601 4.3793702 3938325
-0.23196299 0.451536 4.3625302 5257008
0.57483202 0.48027101 4.4250998 6440962
0.58222598 0.48829699 4.4070902 11438857
0.580073 0.49366999 4.39922 11702279
0.582932 0.49112999 4.3992801 11767815
0.56188601 0.50098002 4.37538 11898886
0.567608 0.49996799 4.3733001 10783244
0.56875002 0.50595403 4.3706002 12885256
0.57448298 0.51042801 4.35921 13608969
0.57941598 0.505337 4.3606501 13740298
0.58186299 0.52332199 4.3236599 13149485
0.58212298 0.52208298 4.32514 13149480
0.58110201 0.52579999 4.3185301 12952896
0.58146799 0.528678 4.3116398 11307322
0.57837099 0.53121901 4.3164902 13874246
0.58665597 0.53509003 4.3028798 7293205
0.59448302 0.53722 4.3003602 5911059
0.599123 0.56160498 4.2431798 7427343
0.58923101 0.56775701 4.23663 7558672
0.586375 0.58846802 4.1820698 7951876
0.58188099 0.59298599 4.1760201 8872709
0.58256698 0.59701401 4.1698999 10583318
0.58233303 0.60024703 4.1629701 11832588
0.60992998 0.61786401 4.1272602 8808461
0.60920101 0.617782 4.1262102 8808460
0.61117202 0.62294501 4.1228099 8545292
0.61181599 0.62291902 4.1237402 8545292
0.827066 0.67206401 4.0499401 9860895
0.82820201 0.676162 4.0345802 10456949
0.83602399 0.67907 4.0316601 11773587
-0.37240899 0.37246901 4.5240698 4992296
-0.374989 0.374881 4.5152798 4795431
-0.379289 0.37889799 4.5076699 6112828
-0.37595299 0.37561101 4.5095901 5256751
-0.37399101 0.377303 4.5053401 6507586
-0.37617499 0.38103899 4.5037498 7165772
-0.37254599 0.38393399 4.5005102 7692885
-0.35930699 0.388693 4.4833798 7496020
-0.331536 0.40286401 4.4644098 6177081
-0.33178601 0.40399599 4.4646902 6308923
-0.33035699 0.40561199 4.4593201 6771526
-0.30436099 0.41700301 4.4335699 7627861
-0.29790801 0.42246801 4.4270501 6046009
-0.28727999 0.42764401 4.41956 4464411
-0.287615 0.42768201 4.4187799 4530204
-0.258526 0.44271401 4.3868999 6838088
-0.25213301 0.44267499 4.3823199 6375486
-0.25300401 0.44228601 4.3827701 6573634
-0.23654801 0.451462 4.3660102 4268574
-0.232555 0.45557201 4.3659301 5652791
0.57249999 0.48462901 4.4298201 6309891
0.578044 0.48857799 4.4170198 10649607
0.57627201 0.494068 4.4102998 11373321
0.58027202 0.49149999 4.41187 11241737
0.56117702 0.50667 4.3727198 12030742
0.566333 0.51106 4.36233 13280008
0.55267 0.517537 4.3526502 11507223
0.56219602 0.52191401 4.3379798 13543704
0.57616001 0.53754997 4.3162599 14530340
0.57929701 0.53495198 4.3111901 12359990
0.57911599 0.54365897 4.3033299 10056473
0.58462799 0.54163599 4.3028698 8016663
0.59109801 0.53968102 4.3049598 6832147
0.59743702 0.56571198 4.2508202 7624464
0.59720701 0.57976198 4.2218699 7689220
0.59713697 0.585024 4.2159901 7755013
0.582946 0.59013599 4.2042298 8149253
0.58327699 0.59059602 4.1925802 8413201
0.58279997 0.59039402 4.1919298 8412945
0.55639601 0.60394299 4.1669998 9995026
0.58192003 0.60685301 4.1616302 12555530
0.564349 0.62128502 4.1219702 10583568
0.564973 0.621822 4.1222401 10452239
0.57008499 0.62496603 4.1207099 10123271
0.60610503 0.62316602 4.12849 9202959
0.83581197 0.67184001 4.0654101 9926165
0.82284999 0.67700899 4.0450902 10848836
0.82960403 0.68017 4.0411401 10456947
0.835428 0.68330801 4.0374298 11773587
-0.379884 0.382011 4.51228 5849142
-0.37308499 0.387321 4.5064802 8614500
-0.34897199 0.397762 4.4802799 7890008
-0.33286601 0.40594399 4.46807 5914165
-0.33170399 0.408728 4.46384 6705476
-0.33073899 0.40868899 4.4640698 7034953
-0.30225301 0.42372599 4.4335699 6508610
-0.296112 0.42725399 4.4258299 4268830
-0.28530699 0.431501 4.4147201 5848884
-0.253591 0.447864 4.3869901 6640709
-0.248293 0.448663 4.38203 4993578
-0.243093 0.45166701 4.3755999 4334109
-0.23972499 0.45601201 4.3751998 4334365
-0.235506 0.455798 4.37146 5190957
-0.231814 0.45985201 4.3709998 5718582
-0.228293 0.45973101 4.36619 6311745
-0.230024 0.45770499 4.3660402 5982268
-0.226585 0.46199501 4.36586 6574660
0.54943198 0.51869297 4.3600702 10914838
0.54608899 0.52820098 4.3456202 12951828
0.55868298 0.52858299 4.3463998 13937929
0.57482302 0.54411 4.3158898 14596136
0.57757902 0.541327 4.3115702 13017643
0.56991398 0.54780602 4.30548 13345569
0.58458501 0.54815102 4.3052402 8871958
0.58561802 0.55066502 4.30373 8147990
0.58662403 0.55185997 4.3009701 7029013
0.58473301 0.55435401 4.2947302 5054982
0.59541899 0.57936299 4.2341399 7755013
0.59240401 0.58314699 4.2242699 7689476
0.58835298 0.587093 4.2160001 7820549
0.58436197 0.59381801 4.19842 9531158
0.584993 0.59394199 4.1990499 9596694
0.58505303 0.59729397 4.1916399 10649366
0.58569902 0.59746999 4.1923099 10714902
0.58705699 0.60458899 4.1788902 12292615
0.582627 0.60633999 4.1786299 12358151
0.586321 0.60773098 4.1705899 12489737
0.58132201 0.61036098 4.1707301 12489736
0.54741001 0.62579203 4.1318698 12885003
0.56647903 0.62816501 4.1244102 10320138
0.61040902 0.62847501 4.1276999 8939791
0.83545297 0.67516702 4.0711002 10057759
0.83632702 0.67819101 4.06534 10123805
-0.39462599 0.37944099 4.5244799 4993824
-0.38073701 0.38615799 4.51508 6441535
-0.351731 0.40254599 4.4822698 7101004
-0.345752 0.40259299 4.48031 7494994
-0.34255001 0.40714201 4.48036 7362895
-0.331108 0.412738 4.4629202 7232588
-0.33093199 0.41260201 4.46912 6771011
-0.33018401 0.41401401 4.4637098 7232845
-0.30766001 0.428819 4.4352798 6706502
-0.28499299 0.43946701 4.41501 6442816
-0.253593 0.45204201 4.3913498 6772551
-0.24940699 0.45365599 4.3870602 6376769
-0.244381 0.45464599 4.382 4203549
-0.23277099 0.46335199 4.3743601 5916217
-0.236761 0.47111401 4.3499198 6575171
-0.19936401 0.47695401 4.3460598 7101000
-0.080420204 0.47670099 4.3657398 4862749
0.59621102 0.46809 4.4960198 2629128
0.60090202 0.46786299 4.4920998 4535818
0.60419601 0.471517 4.4869499 5784068
0.57532197 0.49846801 4.42485 11175945
0.54421002 0.52483302 4.3657398 11768083
0.54125601 0.52930403 4.3537798 12162835
0.53755301 0.53378803 4.3437901 12557331
0.53257799 0.538113 4.3329101 13083145
0.541044 0.537848 4.3281002 13806088
0.56348801 0.554461 4.2995701 13345295
0.57228702 0.55291998 4.3033199 12161049
0.56443799 0.55948102 4.2944598 11765258
0.58169901 0.55375999 4.3067498 10253071
0.57222903 0.55806798 4.29737 10318088
0.581568 0.55711502 4.2997599 8147214
0.59807402 0.574889 4.2574 7755013
0.59465599 0.57849503 4.24823 7755013
0.59172398 0.58256799 4.2406402 7755013
0.58539599 0.59052002 4.2237101 8938502
0.58691502 0.58999002 4.22543 8609797
0.583148 0.594401 4.2160802 10517514
0.57852697 0.59768498 4.2054801 11438091
0.58506399 0.59702802 4.20399 10846488
0.57933003 0.60210198 4.20292 11898900
0.54376 0.630858 4.13166 12687370
0.54960901 0.63097298 4.12953 11898901
0.563465 0.63170099 4.1283202 10517514
0.60838699 0.634215 4.1319399 9729035
0.61513698 0.63429099 4.12781 8808204
0.63206798 0.641334 4.1217899 8676615
0.71313602 0.65205699 4.1129098 8413968
0.72416401 0.65174502 4.1078601 8676369
0.72777402 0.65718699 4.10882 8610573
0.729316 0.65507197 4.1037502 8610574
0.72949803 0.65519601 4.1034098 8610574
0.836146 0.69041097 4.04667 11839122
-0.37882799 0.391233 4.5146999 7232076
-0.33285499 0.415833 4.4728799 6309948
-0.33009699 0.41768 4.4699001 7232844
-0.32423201 0.42662001 4.4527998 7891288
-0.302434 0.43626601 4.4355402 6443074
-0.307082 0.43420801 4.4366999 6772551
-0.30236799 0.43195799 4.4387898 6706501
-0.29646501 0.43318301 4.4314699 5191470
-0.29765201 0.43463299 4.4302602 5520948
-0.28600401 0.443259 4.4209399 6376767
-0.25040901 0.45804101 4.3916001 6772295
-0.25614899 0.46042401 4.38767 6838344
-0.245682 0.45950201 4.3868999 5060139
-0.24010301 0.460933 4.3822899 4269598
-0.23616099 0.46280399 4.3785501 5388847
-0.24036799 0.47444701 4.3622298 6378049
-0.238526 0.47486699 4.3528399 6640707
-0.20163 0.48216799 4.3467999 7956566
0.58110201 0.46940899 4.4991102 722950
0.58756 0.46941099 4.4974899 787971
0.59348202 0.47369599 4.4971399 3221001
0.599154 0.474206 4.4906502 5126915
0.55426699 0.50483698 4.41927 11110420
0.546969 0.510943 4.4109998 12162581
0.53783399 0.53134203 4.3665199 11175952
0.53558302 0.53591102 4.3550301 11833618
0.53649497 0.544635 4.3316998 13608969
0.559726 0.55536902 4.30513 14200588
0.56076699 0.56037802 4.3000598 13871372
0.55764598 0.56598699 4.2930002 13147149
0.58162701 0.56891298 4.2871599 7095309
0.60272098 0.57091397 4.28825 7161862
0.60030401 0.579606 4.2712798 8083461
0.59238601 0.582205 4.25667 8017669
0.58897901 0.585805 4.24856 7428874
0.58640897 0.589733 4.2406301 9662217
0.58351398 0.59380698 4.2323399 11043597
0.58391303 0.59348297 4.2329602 10912269
0.580567 0.59786803 4.22399 11898635
0.58335698 0.59781301 4.2282801 11964428
0.57520097 0.60096699 4.2108798 12095497
0.57369602 0.60483599 4.2042098 12161287
0.57255101 0.60878199 4.19839 12292871
0.57846397 0.60612702 4.1975799 12292871
0.54724997 0.63638699 4.1315899 11832587
0.56039202 0.63706601 4.1292801 10188554
0.72214198 0.653229 4.1196198 8742415
0.72696197 0.65922099 4.1142201 8676622
0.73493099 0.660914 4.1103501 8610829
0.83802801 0.67799598 4.08743 9728793
0.83280599 0.68561101 4.0767899 9993264
0.83920401 0.68673098 4.0676699 10322230
0.83319998 0.69232601 4.06145 11771513
0.83619899 0.68955898 4.0585198 11705719
0.836016 0.69527 4.0535002 11839122
-0.39064899 0.0311225 5.3158698 14859810
-0.375173 0.40346 4.49579 7496274
-0.332726 0.43116501 4.4513502 8154203
-0.33300999 0.431081 4.45048 7298895
-0.33300999 0.431081 4.45048 7298895
-0.32668701 0.43205401 4.4499302 7759702
-0.328208 0.42890301 4.45224 7825495
-0.31874299 0.43258801 4.4485602 7891032
-0.32254899 0.43014401 4.45049 7759445
-0.31251299 0.43623301 4.44209 6903881
-0.32282701 0.44143099 4.4320202 7101259
-0.30507201 0.43970901 4.4393702 6772551
-0.28858399 0.446742 4.4246898 6047802
-0.274454 0.46240899 4.3896699 6772551
-0.247192 0.464178 4.3916402 6113854
-0.247371 0.47194901 4.37359 5849652
-0.245212 0.474572 4.3688998 6311485
-0.24464899 0.476464 4.3613501 6443584
-0.239963 0.48077101 4.35604 6640707
-0.232287 0.48296499 4.3493199 7101515
-0.225482 0.48306 4.3492098 7167565
-0.198506 0.48763901 4.3489199 7956567
0.573569 0.47530699 4.5036201 985606
0.57471299 0.47441301 4.5037899 920326
0.57595801 0.479734 4.4994998 919812
0.57970101 0.47527599 4.5011601 854276
0.580477 0.47429201 4.5012598 854020
0.59752297 0.479709 4.49755 5390089
0.55369598 0.50934899 4.4274902 11307273
0.56253397 0.504296 4.4310398 10847239
0.53100997 0.53741997 4.3631501 10978832
0.52960598 0.53720403 4.3614302 11110419
0.53318697 0.54077202 4.34624 12359955
0.53189301 0.54118502 4.3449402 12491541
0.53055102 0.54557198 4.3377199 12688915
0.559784 0.560884 4.3069801 14200330
0.551211 0.566724 4.2976899 14266122
0.54847801 0.57182699 4.2907701 13739531
0.56528199 0.566585 4.2967901 12423180
0.57727802 0.57121599 4.2904501 5647111
0.58024001 0.57698202 4.28792 10780179
0.59626901 0.58236098 4.2790098 9661706
0.583758 0.59293699 4.2486 10256914
0.58137298 0.59680903 4.2408299 10454288
0.57907403 0.60057598 4.2332101 12227080
0.54352701 0.640733 4.14218 12293130
0.54505801 0.63530499 4.1442299 12687114
0.53521001 0.63682401 4.1410298 12621577
0.54962897 0.63728601 4.1372199 12029963
0.55013001 0.64324301 4.1375198 10780424
0.55618203 0.64561599 4.1332202 9991436
0.56105202 0.64294899 4.12924 9859852
0.73304403 0.66307902 4.1152902 8807950
0.74167699 0.66468298 4.1118698 8807687
0.83549798 0.68327302 4.0914998 9860641
0.82860398 0.68182802 4.0942702 9991958
-0.404109 0.038162701 5.3175702 6706718
-0.39887699 0.036648501 5.3113599 13282351
-0.39102399 0.036933899 5.3098202 14728494
-0.39058599 0.042743601 5.30513 14530853
-0.384094 0.042642701 5.3014398 14925084
-0.49207899 0.409376 4.4806099 6179895
-0.37610301 0.41324601 4.4966698 7298894
-0.33588499 0.434277 4.4573102 7364686
-0.317599 0.43695599 4.4451199 7693653
-0.322806 0.43724301 4.44662 7759701
-0.31730899 0.44111601 4.4370899 7035466
-0.310891 0.44079199 4.4380598 6904137
-0.30079001 0.441661 4.43712 6245439
-0.29802299 0.44646201 4.4381299 5784375
-0.30093899 0.445905 4.4331498 6245439
-0.29469401 0.44664499 4.4264398 4270623
-0.29232499 0.45206901 4.42628 5587508
-0.28259999 0.45574701 4.4152598 6443585
-0.28027001 0.462412 4.3966799 6706756
-0.28446901 0.46308199 4.3962598 6640964
-0.25441501 0.46635199 4.3941398 6904137
-0.24574301 0.477828 4.3739901 6311741
-0.24665099 0.47925299 4.3641901 6443327
-0.24180201 0.488965 4.3540301 6772294
-0.236395 0.48586801 4.3564301 6838086
-0.235319 0.488235 4.3508101 6969930
-0.201563 0.49292001 4.3490601 7891031
0.56510502 0.48350301 4.50177 985605
0.57532603 0.48060501 4.4997401 919811
0.57679099 0.485917 4.4959798 3221259
0.57422101 0.49157101 4.4889302 5193734
0.58230299 0.48737001 4.4912601 5259014
0.55191499 0.51347703 4.43328 11767305
0.55191499 0.51347703 4.43328 11504393
0.54748499 0.515558 4.4205599 12162056
0.54698402 0.51542503 4.41994 12162056
0.526582 0.54472899 4.36204 10847247
0.53505898 0.54936397 4.3534698 12491285
0.52911699 0.548599 4.3523502 11899667
0.52628601 0.553159 4.3369699 12754452
0.53567201 0.55245 4.3379798 13083157
0.55142802 0.57700801 4.2896299 13147148
0.57633698 0.57944101 4.2906399 9397774
0.58238202 0.580163 4.28192 11306255
0.57985801 0.58621502 4.2785001 12489995
0.59451801 0.58654398 4.2713799 10714380
0.58018899 0.59587598 4.2564101 12358408
0.57855099 0.60006398 4.2486601 12358664
0.57626301 0.60398299 4.24085 12358408
0.57660502 0.60554802 4.2262902 12292615
0.545865 0.64595997 4.1404901 11306762
0.554299 0.648772 4.1374102 9991179
0.55689198 0.651582 4.1335802 9728526
0.832313 0.68905199 4.09484 9926961
0.831891 0.69969398 4.0748501 11246467
0.83891201 0.70072901 4.0629101 11904658
0.83563298 0.705091 4.0545998 11773331
-0.411356 0.044665899 5.3127198 2498834
-0.403047 0.0439176 5.3131099 5391891
-0.39802101 0.043439101 5.3084402 12098607
-0.39642999 0.048942599 5.3036399 11835697
-0.38986 0.048468702 5.30058 14268454
-0.388403 0.0532084 5.29603 14202659
-0.38172299 0.0527732 5.2932801 14727966
-0.380483 0.060081501 5.2866602 14596381
-0.38061899 0.0583396 5.2881098 14596381
-0.48942301 0.413665 4.4851899 6442810
-0.49549299 0.41769201 4.4754901 6245431
-0.406214 0.40763101 4.51053 5850415
-0.38039899 0.41424599 4.4986501 7496273
-0.38112399 0.418625 4.4928699 7562066
-0.32993999 0.450068 4.43679 7298638
-0.32111901 0.44701999 4.44034 7298638
-0.30047101 0.452903 4.4324398 6706246
-0.296545 0.451278 4.4304099 4994603
-0.28925899 0.457454 4.42553 6179901
-0.285193 0.45928201 4.4190698 6377792
-0.28744599 0.46894401 4.4005098 6838086
-0.28304201 0.46783999 4.39715 6838343
-0.27490199 0.47142601 4.3975801 7232845
-0.257723 0.47406101 4.3941698 7693653
-0.246949 0.47443101 4.3923202 5982524
-0.250352 0.48785701 4.3671398 6509120
-0.247705 0.48521599 4.3629799 6311999
-0.244902 0.487616 4.3594599 6509121
-0.23714399 0.49183699 4.3543401 6969673
-0.224701 0.494131 4.3530898 7364943
-0.178261 0.49711999 4.3503499 5323555
0.57300401 0.48627999 4.5008202 1182211
0.56170702 0.49322 4.4923701 2431495
0.564174 0.498936 4.4805799 5455621
0.562204 0.505032 4.4678302 6112515
0.52432901 0.55105102 4.3633699 10715919
0.530375 0.55128098 4.3582602 11899411
0.52328801 0.55593699 4.3436098 12294164
0.54830098 0.58230799 4.2901301 13476108
0.54155302 0.58220202 4.2912002 14002952
0.574839 0.58585501 4.2905998 11042062
0.58025903 0.58376402 4.2874899 12227085
0.58110201 0.58646202 4.28229 12621321
0.590895 0.58923101 4.2792301 12358409
0.58837003 0.59351999 4.2712302 12424201
0.54180199 0.64527601 4.1546302 12292873
0.54315501 0.64692801 4.1481099 12227339
0.549137 0.65077198 4.1456499 10517770
0.54343998 0.651586 4.1427999 10912011
0.826096 0.68900001 4.0995202 8610312
0.83613902 0.69485199 4.0945301 10783842
-0.40855899 0.044737499 5.3182702 2499091
-0.41781601 0.051706299 5.3108201 2236445
-0.41637701 0.0517378 5.3123398 2236445
-0.40808401 0.050471801 5.31321 2434071
-0.40774199 0.049997699 5.3130798 2499606
-0.40829599 0.0508359 5.3133702 2434072
-0.40224499 0.049516998 5.3074799 5391636
-0.40120101 0.055119999 5.3028798 4865295
-0.395035 0.0545699 5.2988501 11507505
-0.38696599 0.058823399 5.2916198 14005286
-0.38639399 0.0657176 5.2857199 13676329
-0.48642799 0.41403201 4.4952402 6573879
-0.48863599 0.417256 4.4885898 6508601
-0.488056 0.42247 4.4777398 6311481
-0.409807 0.41046801 4.51406 5653033
-0.408048 0.41428599 4.5083699 6838082
-0.3856 0.418841 4.5018702 7693652
-0.38536 0.41967899 4.4990501 7693651
-0.33961299 0.44376501 4.45643 7496015
-0.33349001 0.44473901 4.45015 7430480
-0.33311099 0.45049199 4.44765 7430222
-0.334324 0.45105401 4.44136 7298636
-0.24663199 0.49313 4.3622499 6706756
-0.25261801 0.49286899 4.3638101 6706499
-0.24133199 0.494672 4.3555002 6904135
-0.227622 0.49919099 4.3527198 7299150
-0.18605199 0.52168602 4.31284 5718309
0.56035602 0.49047801 4.5048699 920069
0.559129 0.496259 4.49751 1116418
0.56081897 0.499717 4.4921198 4075530
0.55601102 0.504143 4.4763598 5061380
0.54496801 0.53208399 4.4143801 11570708
0.52173501 0.55677801 4.3636098 9008658
0.52492303 0.55503798 4.3572698 11570706
0.52124602 0.56321597 4.3462 11899666
0.54616499 0.58821201 4.2942901 13936649
0.56950998 0.588072 4.2937598 10317069
0.574444 0.59254998 4.2917299 12225802
0.57900202 0.590249 4.2877302 12753163
0.58430898 0.593647 4.2851601 12950025
0.58871502 0.59680599 4.2803602 12621321
0.54474998 0.65083301 4.15347 12029962
0.53924501 0.65025699 4.15061 12293130
0.54943001 0.65666401 4.14569 10123024
0.547019 0.65375203 4.1493902 10912267
0.82531202 0.693299 4.1058302 8939016
0.82734901 0.697227 4.1015701 9466399
0.81787598 0.70124799 4.0933299 10058803
0.82626599 0.700221 4.0941 10521178
-0.41286701 0.052122999 5.3189402 2368030
-0.41255301 0.0571451 5.3124399 2302749
-0.407011 0.0556725 5.3077898 2499863
-0.41578701 0.061016399 5.2999201 2236700
-0.40614301 0.061267801 5.3026199 2499607
-0.41628799 0.066717498 5.2932301 2171164
-0.40461901 0.064475797 5.29669 2565396
-0.40026301 0.060675502 5.2979398 4208143
-0.40052599 0.065560699 5.2897401 4799764
-0.39790401 0.0717149 5.2852001 4470798
-0.393334 0.065511502 5.2869201 11113007
-0.39007801 0.071767703 5.2838402 11112754
-0.38422599 0.070612498 5.2808399 13873701
-0.37616101 0.069660097 5.2831502 14530848
-0.48567399 0.418479 4.49932 6771514
-0.48994601 0.42117199 4.4863501 7297599
-0.49449599 0.42749101 4.47679 5324067
-0.490473 0.426263 4.47926 5061153
-0.49180499 0.42782101 4.4702101 6047272
-0.411369 0.41719899 4.5127902 5982255
-0.36333099 0.44695899 4.4595599 5916982
-0.35060301 0.452611 4.4511199 6114104
-0.344239 0.45409599 4.4472699 6311483
-0.33955601 0.44932401 4.4514399 7298636
-0.33791101 0.455578 4.4434199 6443326
-0.33327901 0.45593899 4.44135 6772291
-0.30502501 0.47153801 4.40869 6574657
-0.302008 0.47273499 4.4050102 6640449
-0.246612 0.49878401 4.3588099 6706241
-0.24600901 0.49894699 4.35744 6640705
-0.24907599 0.50289398 4.3571601 5785137
-0.236523 0.50934702 4.34306 5456431
-0.207067 0.52431202 4.3085299 5981224
-0.184764 0.52625901 4.3105898 5915688
0.551943 0.496604 4.5041299 920325
0.55243999 0.50266099 4.49856 919299
0.53979599 0.51178801 4.4760199 5850641
0.55833298 0.51078701 4.4734001 6770182
0.539563 0.53525698 4.4241199 10780677
0.54279101 0.53818101 4.4173002 11044627
0.54000598 0.54264498 4.4088101 10979090
0.531129 0.54894298 4.3947601 10847762
0.518646 0.558523 4.3702898 8613649
0.518951 0.55810499 4.3696899 8613649
0.51926601 0.56266898 4.36484 8942609
0.52013099 0.56232399 4.3650899 9139730
0.52260399 0.56036901 4.3573599 10781969
0.52251297 0.56080699 4.3578501 10781969
0.526995 0.56835502 4.34973 12688392
0.51731497 0.573071 4.3383198 12097041
0.54223901 0.59344298 4.2929301 14002185
0.54900098 0.59350997 4.2915502 13804818
0.57621199 0.59972203 4.2903099 12950027
0.540205 0.65114897 4.1623902 12358664
0.54272699 0.65391999 4.1578498 12096009
0.545241 0.65685898 4.15381 11043852
0.54470998 0.65621698 4.1500602 10846476
0.54761499 0.65975398 4.15031 10583312
0.54605502 0.66137397 4.1386499 9860374
0.82630903 0.69750297 4.1190701 9267976
0.82573903 0.69700998 4.1189799 9202440
0.82452101 0.69993299 4.1065102 9202704
-0.41356501 0.075643003 5.2842698 2039578
-0.413854 0.070833899 5.28685 2302491
-0.404457 0.075919501 5.2855301 2039057
-0.40473899 0.071823403 5.2888498 2433814
-0.41857401 0.086359702 5.2637601 1907732
-0.41059199 0.081213802 5.2669702 2893331
-0.39777699 0.078917302 5.2807298 2827273
-0.3874 0.076742902 5.2801299 11507760
-0.38834199 0.080300801 5.2769599 10389551
-0.37764099 0.079432398 5.27426 14399523
-0.37569699 0.085400403 5.2704802 13873964
-0.49266699 0.425161 4.4875598 5586979
-0.499401 0.43017501 4.4861698 6310187
-0.496784 0.43142101 4.47858 5718566
-0.49221 0.43556899 4.4758701 6178601
-0.497087 0.43314201 4.4689002 6113065
-0.39957699 0.446271 4.4618301 5718826
-0.343409 0.45951101 4.4410701 5719087
-0.33699301 0.46081901 4.4372001 5916723
-0.34315401 0.465193 4.4377098 5653035
-0.33714199 0.46619299 4.4305301 5258279
-0.33714899 0.47150499 4.4243102 5784363
-0.30051401 0.48012 4.4027801 5850673
-0.29619601 0.492681 4.3840299 5652521
-0.26136199 0.50305003 4.3603201 5652779
-0.241661 0.51466697 4.34515 5060899
-0.21351901 0.54568702 4.2709599 6375978
-0.218495 0.55032903 4.2686 6573357
0.53627002 0.50847697 4.5022502 919811
0.546139 0.50642997 4.4974298 1445125
0.53505599 0.52239197 4.46802 7099664
0.53666198 0.52556801 4.46244 8743431
0.551853 0.52170599 4.4635701 10715912
0.53047103 0.53317899 4.4454699 10254852
0.53542101 0.53103 4.44908 10452228
0.53597701 0.53772098 4.4286499 11044103
0.53665 0.54132199 4.4205699 11044103
0.51524699 0.563986 4.37005 9269254
0.51611102 0.56380802 4.37009 9269518
0.51727903 0.568124 4.3657899 8679698
0.51571101 0.56824201 4.3647499 8745232
0.50909102 0.56874597 4.3642998 10452486
0.52112401 0.56659698 4.3604598 11242001
0.52005702 0.57046098 4.3487701 11768337
0.51921999 0.57083303 4.3513098 11636497
0.54588598 0.59923398 4.2927499 13804299
0.56619197 0.60052001 4.2953701 10711305
0.57562703 0.60598803 4.2934699 13015562
0.53811002 0.65425497 4.1669402 12292871
0.54062998 0.65702403 4.1623998 12227594
0.54312998 0.659769 4.15769 11175181
0.54335397 0.659917 4.1579499 11306765
0.54527801 0.66224498 4.1511402 10320147
0.53880298 0.66693801 4.1460299 10123290
0.82615203 0.70093 4.1289501 9136392
0.823232 0.70044202 4.1195102 9136393
0.82418197 0.70388103 4.1134 9202447
0.822465 0.70863497 4.0997701 10520403
0.82513303 0.712502 4.0983701 10851191
-0.43347999 0.090869598 5.26367 1841944
-0.43403101 0.0871801 5.2653599 1973530
-0.395302 0.092064902 5.26863 3287830
-0.40908101 0.093688697 5.25634 3024661
-0.38775101 0.086414903 5.2716599 8679466
-0.38596001 0.091933101 5.26825 8942638
-0.38061401 0.089397803 5.2655201 13282611
-0.37612101 0.0943553 5.2624698 13545268
-0.352171 0.088358499 5.27918 14860062
-0.49831501 0.43539 4.4809899 6244394
-0.499488 0.43546 4.4800801 6178858
-0.50243199 0.441625 4.4720502 6640187
-0.474976 0.45891699 4.43753 6705715
-0.47483799 0.458965 4.4379902 6705459
-0.427706 0.45446599 4.4574699 6310446
-0.439004 0.45811301 4.4470401 6376239
-0.41837499 0.456671 4.4530101 6179894
-0.43425301 0.4637 4.43575 5653290
-0.445645 0.46604499 4.4272499 6639410
-0.424512 0.45942399 4.44521 5456169
-0.417106 0.46258 4.4404998 5456168
-0.408418 0.45899799 4.4449601 5455911
-0.43950301 0.46699801 4.42273 6573618
-0.40059301 0.46094501 4.4439502 5455911
-0.42697799 0.46702099 4.4256001 5784875
