# .PCD v0.7 - Point Cloud Data file format
VERSION 0.7
FIELDS x y z rgb
SIZE 4 4 4 4
TYPE F F F U
COUNT 1 1 1 1
WIDTH 65
HEIGHT 1
VIEWPOINT 0 0 0 1 0 0 0
POINTS 65
DATA ascii
-0.96889699 0.26019099 3.61678 11768181
-0.97442901 0.26500499 3.6154799 11768182
-0.97032601 0.27083501 3.61707 11833975
-0.97570401 0.27573699 3.6174099 11899512
-0.96565503 0.27689701 3.6246099 11899511
-1.0548 0.27700201 3.5020001 11833975
-0.98109901 0.28064501 3.6179099 11899512
-0.97102201 0.28180501 3.62502 11899768
-0.94513297 0.28676099 3.6719201 11965303
-1.06871 0.28497201 3.48997 11899768
-1.0587 0.28331399 3.50144 11833975
-1.04845 0.286504 3.5490601 11899768
-1.04862 0.28640401 3.54688 11899768
-1.0404299 0.28385901 3.5540199 11899767
-1.03787 0.28872401 3.5541301 11965304
-1.03236 0.28378299 3.5557401 11899768
-1.0301 0.28797701 3.5525501 11965561
-1.02389 0.28235799 3.5473399 11899768
-0.982678 0.29287401 3.62624 12096633
-0.97629702 0.28790101 3.6303599 12030841
-0.96679902 0.28752899 3.6268401 11965304
-0.96167803 0.293246 3.6680701 12031096
-0.95198798 0.29085401 3.67149 12031095
-0.94677299 0.29466301 3.66836 12031352
-1.06311 0.28932601 3.4939699 11899768
-1.0464 0.29368901 3.5406301 12031097
-1.03394 0.29430699 3.55281 12031097
-0.98893899 0.297382 3.6185999 12096890
-0.97322798 0.29667401 3.6324799 12162427
-0.95647103 0.297061 3.66506 12096890
-0.94081098 0.29624099 3.66065 12096889
-1.06584 0.29644099 3.5084901 12031097
-1.0537 0.30367601 3.5362401 12096890
-1.05916 0.30135399 3.52619 12096890
-1.03996 0.29939801 3.5539801 12096890
-1.02679 0.30117401 3.58213 12097147
-1.00776 0.30417699 3.5801301 12162940
-0.98508298 0.30318099 3.6182599 12162684
-0.96899402 0.306261 3.6493399 12228477
-0.94259298 0.304057 3.6556201 12228475
-0.92593598 0.30559999 3.6557801 12294268
-1.07516 0.30394799 3.52127 12097147
-1.05393 0.30564201 3.52636 12162683
-1.03904 0.31019101 3.5766799 12228476
-1.02798 0.31064701 3.57867 12228732
-1.0080301 0.311665 3.5897501 12294526
-1.00368 0.30792001 3.6066101 12228732
-0.99196303 0.31211799 3.6173799 12294525
-0.98283303 0.311611 3.6128399 12294525
-0.97008198 0.31594101 3.64555 12425855
-1.07555 0.315743 3.52142 12294269
-1.06076 0.31394199 3.53668 12294269
-1.0089999 0.32170701 3.5883501 12491647
-1.00295 0.31768101 3.5950401 12360318
-0.99632102 0.320963 3.6168001 12426111
-0.98871499 0.321096 3.62254 12491647
-0.98008299 0.320559 3.61678 12491904
-1.0726 0.32709101 3.5650401 12426111
-1.06776 0.32416201 3.53636 12426111
-1.02923 0.32757801 3.59161 12557696
-1.0824701 0.333022 3.5419099 12557441
-1.07575 0.32550001 3.5246699 12426111
-1.06648 0.32956299 3.5878201 12491904
-1.05711 0.32947701 3.59166 12491904
-1.07745 0.33973101 3.5942199 12754819
