# .PCD v0.7 - Point Cloud Data file format
VERSION 0.7
FIELDS x y z rgb
SIZE 4 4 4 4
TYPE F F F U
COUNT 1 1 1 1
WIDTH 1258
HEIGHT 1
VIEWPOINT 0 0 0 1 0 0 0
POINTS 1258
DATA ascii
0.57094699 0.34697101 3.1189899 7753531
0.57611102 0.347662 3.1212599 7160108
-0.0642379 0.317101 2.7575901 7356714
-0.062481102 0.31585801 2.7525401 7356713
-0.0650502 0.31634399 2.7514999 7422504
-0.058224399 0.31739399 2.7611799 7489586
-0.0588925 0.31732899 2.7613101 7489073
-0.051111899 0.31744701 2.7641301 10517095
-0.043795601 0.31731701 2.7678001 11439741
-0.043518901 0.32031599 2.76774 11439741
-0.0185773 0.319572 2.7794399 11308926
-0.0187134 0.316403 2.78405 11374461
-0.0153818 0.32337001 2.7852299 11242617
-0.0123444 0.316459 2.7873399 10518121
-0.0052722599 0.32210401 2.79024 7424051
-0.0074229999 0.32328001 2.78848 8148289
0.00098762102 0.31740901 2.79386 7356971
0.0079823397 0.32004401 2.7925301 7488042
0.075817697 0.323634 2.83266 7225641
0.082323998 0.32378101 2.8368599 7094057
0.081840098 0.32384199 2.8369999 7159593
0.088991798 0.323852 2.8410399 6765350
0.088907003 0.323861 2.8410499 6765350
0.094987199 0.32404301 2.84461 6502178
0.095734499 0.32388201 2.84571 6436386
0.095062204 0.32403401 2.84462 6436386
0.096028902 0.32394299 2.84567 6436386
0.123645 0.33158499 2.8580599 6174501
0.122629 0.324471 2.85425 6305829
0.139241 0.33046299 2.8716099 9927791
0.14952999 0.32571399 2.8738201 9928563
0.15738501 0.33311501 2.8792901 10125429
0.17009801 0.32846901 2.8864801 9926247
0.17391799 0.32813901 2.8887999 7885633
0.179441 0.33144999 2.8919201 7094829
0.185046 0.33488101 2.89609 7225385
0.186132 0.33467099 2.8940599 7225385
0.20098899 0.33399701 2.9030199 7488042
0.199811 0.329752 2.90277 7422505
0.194304 0.33394301 2.89938 7422248
0.206605 0.329739 2.9065399 7357485
0.21328001 0.32969901 2.9100499 8148032
0.213158 0.333051 2.9096 7490101
0.22490101 0.335493 2.9184599 11374206
0.22922 0.330832 2.9222 11243136
0.23063 0.338218 2.9224501 11243392
0.266543 0.336418 2.9430599 11309187
0.26614699 0.33637601 2.9436901 11309187
0.278808 0.334856 2.94785 9991782
0.27391499 0.338976 2.9438901 11242880
0.273938 0.33912 2.9438801 11242880
0.284605 0.33806801 2.9514501 7227187
0.29054099 0.34119201 2.9546599 7094571
0.295284 0.33705199 2.9586699 7094314
0.31446901 0.339046 2.9663501 6305313
0.333992 0.34222099 2.98247 6239779
0.34083501 0.34210399 2.98596 6240549
0.34818801 0.34206599 2.98873 8017731
0.35451001 0.343281 2.9936099 11242619
0.38767099 0.34409001 3.00828 11374721
0.38733301 0.344228 3.0088799 11309185
0.39101401 0.347738 3.01318 11374465
0.402242 0.345195 3.0171299 10386538
0.40997699 0.345094 3.01968 10583660
0.412931 0.34711799 3.02491 11241848
0.42392901 0.35022801 3.0253601 11308672
0.42349201 0.34396899 3.0299201 10847089
0.430428 0.34387001 3.03338 11373691
0.42765999 0.35022199 3.0309801 11308672
0.439165 0.344367 3.03915 11308672
0.43667799 0.35062599 3.03578 11374722
0.465516 0.35080799 3.0536001 11243137
0.47065601 0.34757999 3.0561399 11243136
0.47861001 0.34786499 3.06323 10188904
0.482122 0.35417601 3.06443 7424309
0.48527199 0.34776899 3.0662999 7424309
0.48736 0.34733599 3.06899 7226415
0.488727 0.35410601 3.0676301 7225900
0.49422199 0.34969801 3.0692999 7291435
0.51550698 0.35210201 3.08828 7225899
0.52374101 0.352222 3.0896101 9135441
0.534549 0.35787001 3.0943799 11177086
0.52869898 0.35519299 3.09285 11044725
0.540021 0.35157001 3.0969501 11177344
0.55646503 0.360517 3.1141701 11177088
0.56018698 0.35380101 3.1138501 11176830
0.57501799 0.35444599 3.11918 7095087
0.56799799 0.35357001 3.1152201 9662303
-0.063534103 0.32450199 2.7597599 7422764
-0.049874298 0.32552299 2.76419 10780781
-0.0181395 0.32743201 2.7795 11243390
-0.010553 0.33017501 2.78617 10123365
-0.0044762199 0.330304 2.7902901 7358258
0.00252011 0.325358 2.7936399 7356971
0.0120918 0.330863 2.8181801 7422248
0.0267663 0.333361 2.8264899 7356712
0.060662702 0.32878 2.8157699 7356968
0.074152596 0.333731 2.8324699 7290920
0.084197603 0.331045 2.839 7159850
0.0843044 0.331027 2.8389001 7159850
0.092577703 0.33089501 2.84253 6831142
0.092526101 0.330897 2.8425 6831142
0.0913857 0.33562401 2.8415899 7028264
0.096302599 0.331572 2.84552 6633508
0.1009 0.33584499 2.85179 6436642
0.124374 0.33925799 2.8580401 6108707
0.129115 0.33498099 2.86203 6241323
0.139659 0.33766899 2.87169 9927792
0.144024 0.333617 2.87554 9862769
0.15210401 0.33784699 2.8782799 9862258
0.166603 0.336959 2.8845401 10190450
0.16663501 0.33697399 2.88463 10190450
0.17400301 0.33564499 2.88831 7688769
0.17979699 0.33918601 2.8919201 6766378
0.186114 0.342536 2.89467 7028264
0.19481599 0.34159899 2.89904 7290663
0.208561 0.337731 2.9056499 7357229
0.204043 0.342522 2.90294 7290921
0.214525 0.34071901 2.91045 7358002
0.22134 0.34081399 2.91504 10254951
0.22063901 0.34022799 2.9145401 10057315
0.23213799 0.345579 2.92237 11308672
0.270226 0.34753001 2.9445901 11243137
0.26768899 0.34369501 2.94208 11309187
0.27455401 0.346632 2.9438901 11242879
0.27957299 0.34239399 2.9477701 9662816
0.30127901 0.34470001 2.95713 6831143
0.31236601 0.35082501 2.95872 6239776
0.30838299 0.34444499 2.9588599 6502435
0.315285 0.34431201 2.96156 6239776
0.33749101 0.34891599 2.98405 6240035
0.34480599 0.34880501 2.98669 6635564
0.355304 0.34977499 2.99332 11308412
0.38920701 0.35124099 3.0083799 11309187
0.39921799 0.35173699 3.01476 11308930
0.40488899 0.35196599 3.0183799 11308928
0.40800601 0.35147199 3.0167601 11308928
0.46560499 0.357063 3.0521801 11308672
0.47001001 0.354139 3.0560901 11177085
0.469569 0.36072701 3.0559499 10979190
0.47899601 0.360744 3.06199 7227443
0.48613301 0.36070099 3.0648501 7225899
0.495105 0.35668799 3.0690401 7356713
0.512164 0.35929799 3.08692 7225640
0.52448398 0.35872 3.0889499 9069904
0.53488499 0.36464801 3.0943699 11111550
0.55271202 0.36786699 3.1131499 11046272
0.56089598 0.367935 3.1143899 11045758
0.57099199 0.36180699 3.11918 7622461
0.577411 0.36963299 3.1194999 6963499
0.58242399 0.36326301 3.1231101 7028775
-0.071241103 0.33099499 2.7542901 7488040
-0.0643709 0.33109 2.7572701 7488299
-0.059361398 0.33141199 2.76051 7423279
-0.058922902 0.33136001 2.76069 7423535
-0.0492098 0.333698 2.7642 10846831
-0.043869901 0.32913899 2.7681799 11373949
-0.015896 0.33546799 2.7792599 11243390
-0.00933869 0.33745101 2.78827 9004370
-0.0138411 0.331092 2.7844601 11176824
0.0074525401 0.33736399 2.7943699 7291435
0.018714201 0.33574 2.8055401 7422505
0.017689699 0.33663699 2.7989299 7291433
0.0291472 0.33528399 2.81229 7356969
0.039081398 0.337915 2.8150699 7225641
0.037108399 0.34125501 2.80913 7358512
0.061523601 0.33572701 2.8233399 7159848
0.0676663 0.337432 2.8288701 7094312
0.0757358 0.34141299 2.8313799 7160106
0.082996897 0.341492 2.83395 7291178
0.092152402 0.344006 2.8412299 7093800
0.096721403 0.33913299 2.8444099 6765093
0.108119 0.34252101 2.84951 6436897
0.124646 0.34698901 2.85816 6108707
0.129687 0.34267601 2.8620901 6241323
0.128573 0.34296301 2.86268 6175530
0.140063 0.344877 2.8715899 9927792
0.160493 0.34445301 2.88379 9993586
0.163736 0.34399199 2.8826699 9927793
0.171178 0.34401801 2.88588 9202784
0.171141 0.34402099 2.88592 9202783
0.180158 0.34691399 2.89187 6437672
0.17877001 0.34401 2.8892901 6503723
0.193148 0.35044599 2.89586 6896421
0.198714 0.34664401 2.9003501 7093542
0.20999201 0.34560299 2.90801 7225644
0.21802799 0.34735399 2.9115901 7226672
0.213349 0.35247299 2.9097099 7094314
0.222812 0.34809899 2.9145899 9004369
0.22904301 0.351201 2.9191799 11176569
0.243543 0.352189 2.9297299 11243138
0.238484 0.34869501 2.9251299 11243393
0.27127999 0.35526201 2.9444101 11243137
0.27440301 0.35460001 2.9451399 11242879
0.280974 0.35766599 2.9476299 9267801
0.28024301 0.34997901 2.94769 9465437
0.29384699 0.358071 2.95121 6765865
0.30172801 0.35800001 2.954 6371364
0.309479 0.35812199 2.9571099 6173984
0.30531001 0.35104999 2.9567599 6437155
0.34105399 0.35563701 2.9855101 6503207
0.333855 0.35884199 2.97628 6239521
0.34969401 0.35549101 2.9879999 8478282
0.34971499 0.35554299 2.98757 8543818
0.35363799 0.36282599 2.9886799 10452587
0.355941 0.35631901 2.9932599 11308669
0.399077 0.35784799 3.0111599 11309187
0.410808 0.358484 3.0160899 11243394
0.44303799 0.36825201 3.03917 11177602
0.45564801 0.36249501 3.04687 11243137
0.45432001 0.36900499 3.04584 11308673
0.46710801 0.36320099 3.0504501 10979193
0.46027601 0.366447 3.04828 11242623
0.46934301 0.36716801 3.0555401 9333594
0.47586 0.36730501 3.05955 7030064
0.48289001 0.36732399 3.06267 7160108
0.516666 0.369445 3.08793 7225898
0.53521699 0.37138501 3.0943301 11111550
0.54322499 0.37633401 3.1071899 11046017
0.55635899 0.375884 3.1152699 11111551
0.56513202 0.375411 3.11483 10716020
0.57411802 0.37596101 3.11799 7227445
0.574211 0.37602401 3.11748 7292981
0.58081597 0.37588999 3.12077 6962983
-0.057320502 0.33851901 2.7611699 7686965
-0.048632599 0.34185699 2.76421 11044210
-0.042573102 0.337293 2.7678699 11374206
-0.0113243 0.34604499 2.7845099 10914166
-0.0125516 0.33874401 2.7844801 10913653
-0.0140464 0.34283799 2.7788701 11177597
-0.0064157899 0.344446 2.7892001 8741198
0.0037795999 0.34410301 2.79092 8674889
0.0169072 0.342107 2.79581 7556148
0.026826199 0.34171599 2.80247 7358513
0.046197299 0.34505001 2.8113101 9661783
0.072546199 0.34838599 2.82986 8016444
0.080796599 0.34832999 2.8318999 7225899
0.094958998 0.35239699 2.8429599 7094056
0.098027401 0.34676301 2.84464 6896677
0.103781 0.34819499 2.84793 6633763
0.110185 0.34999099 2.8510101 6436642
0.124998 0.35471699 2.8582599 6174244
0.129641 0.35058799 2.86237 6241324
0.141727 0.35191199 2.8710999 9927792
0.166915 0.35574901 2.8849499 9861999
0.175098 0.35117501 2.8873899 6900025
0.180448 0.354651 2.89183 6175014
0.19869301 0.35440099 2.9002199 6765093
0.205752 0.355151 2.9049101 6831142
0.223922 0.35567001 2.91448 7687996
0.219386 0.35508001 2.9128699 7029293
0.230051 0.35889101 2.91886 10386539
0.230342 0.358724 2.91906 10518381
0.235732 0.36158699 2.9228599 11045499
0.236026 0.361316 2.9217701 11045499
0.239721 0.356976 2.92715 11243136
0.246721 0.35973001 2.9294801 11177601
0.27521801 0.36242399 2.9451499 11177085
0.28196201 0.365293 2.9474599 8939092
0.29016799 0.36515099 2.9493799 6700844
0.29798901 0.36507899 2.9519999 6371364
0.30592799 0.364898 2.9537201 6173985
0.338783 0.36238 2.9821401 6568486
0.33608201 0.36902499 2.9784 6568228
0.349742 0.36996001 2.9872799 8280646
0.34831601 0.37041599 2.98842 8148803
0.342006 0.36982 2.98458 6897449
0.34581301 0.362701 2.9864299 7029808
0.344641 0.36304101 2.987 6963758
0.35676199 0.36582699 2.9928401 11374207
0.36122701 0.37109101 2.99336 11374464
0.440833 0.37533301 3.0380099 11243138
0.43812799 0.36931399 3.0397401 11177602
0.449031 0.37254301 3.04403 11308673
0.439345 0.37319201 3.02584 11243137
0.45838299 0.373218 3.04849 10913141
0.466048 0.37381101 3.05369 7753790
0.46378499 0.37092099 3.05213 10254953
0.473032 0.373723 3.0566599 7029294
0.473084 0.37379 3.05673 7029294
0.480122 0.373705 3.0596001 7094314
0.512043 0.37706301 3.0880001 7159849
0.52100998 0.376793 3.08795 7489586
0.53558302 0.37805501 3.09426 11111293
0.52970898 0.375438 3.09322 11044726
0.55430198 0.38182601 3.1099 11177086
0.551 0.37692499 3.10481 11046016
0.56124699 0.38232201 3.11396 11111035
0.57724601 0.38240701 3.11975 6832171
-0.0563614 0.34681901 2.7608399 7687222
-0.0479009 0.349998 2.7642 11176052
-0.0429014 0.34596601 2.7716999 11374207
-0.0133768 0.35022101 2.7790301 11243390
0.0104028 0.34957901 2.7887599 11373689
0.0231387 0.34998101 2.79001 11308410
0.0315645 0.34875101 2.7955201 11373688
0.046641499 0.35071 2.8050599 11373690
0.041414902 0.35046801 2.79917 11308154
0.058761802 0.35001799 2.8096299 11373434
0.072266199 0.35630199 2.83059 7885374
0.084003597 0.35550201 2.83305 7225641
0.106003 0.355582 2.84885 6830885
0.103574 0.35984299 2.8441 7159593
0.110766 0.35883 2.8531301 6568227
0.12547199 0.36243099 2.8584001 6240292
0.142158 0.35915101 2.8710499 9927793
0.17645501 0.366586 2.8873401 6636596
0.175302 0.35897699 2.88747 6768439
0.181537 0.36216301 2.8910201 6109221
0.181136 0.362351 2.8919899 6108965
0.18769599 0.36557499 2.8945899 6240034
0.20113599 0.36744699 2.89979 6239520
0.208104 0.36212301 2.90734 6699557
0.204794 0.36150599 2.90236 6502692
0.215674 0.362174 2.9111199 6765607
0.22491799 0.363359 2.9149899 6832686
0.219983 0.36791199 2.91119 6634278
0.23149601 0.366258 2.91854 9004886
0.23175301 0.36618 2.91871 9202521
0.23085301 0.366357 2.9182799 8675663
0.241276 0.364263 2.9274499 11111550
0.237707 0.36963099 2.9235599 10782070
0.242245 0.36462301 2.9270999 11111550
0.23795 0.36965001 2.9237101 10782327
0.24670701 0.36699101 2.93244 11112064
0.24816 0.367531 2.93104 11046272
0.277917 0.37243 2.9454601 11044985
0.28622901 0.372356 2.9479101 7030324
0.29395401 0.37230501 2.95082 6371623
0.302926 0.37134701 2.9477201 6240035
0.33059999 0.36864999 2.96837 6239777
0.32359299 0.37430701 2.9709899 6305313
0.33928499 0.37648699 2.98086 6896936
0.33247399 0.37254101 2.97381 6371107
0.34522501 0.37741101 2.98701 7095343
0.350995 0.377873 2.9893401 9596506
0.35874799 0.37795299 2.9909999 11373948
0.37985 0.37695801 2.99734 11308930
0.40083 0.376057 3.0158701 11243395
0.39399499 0.37586299 2.9983799 11243394
0.43063799 0.37977701 3.0309601 11308415
0.42756599 0.38404301 3.02614 10978678
0.43694299 0.38162899 3.0353999 11307900
0.432354 0.38128901 3.0302899 11308158
0.44884199 0.380528 3.04216 10254953
0.457829 0.37970999 3.0480299 7885376
0.45344299 0.38355801 3.04527 7358774
0.45064199 0.37876001 3.04322 10584176
0.463112 0.38030401 3.0508699 7095087
0.470231 0.380243 3.05373 7160107
0.47783801 0.37985101 3.0552499 7159849
0.51676399 0.384206 3.0871899 7094057
0.51168102 0.38348299 3.0839 7159335
0.52510703 0.38425699 3.08863 8740169
0.53330499 0.384101 3.08953 10847089
0.529378 0.39106199 3.0878899 7094829
0.54423302 0.39096901 3.09321 6964017
0.54021198 0.38435099 3.0930099 10584691
0.53735101 0.39069399 3.0896599 7029809
0.552715 0.38749301 3.0976901 8478541
0.56550401 0.38901201 3.11465 8214597
0.57419002 0.38886499 3.1167901 6963500
-0.062972799 0.35498399 2.75899 7422763
-0.055195499 0.354983 2.7607601 7950394
-0.046838898 0.35816699 2.7641399 11242102
-0.042462301 0.353692 2.7720001 11308670
-0.0095821004 0.35726401 2.7788701 11243390
0.0105852 0.35603699 2.78038 11243133
0.016099401 0.35768601 2.7838199 11243133
0.038530398 0.35539201 2.7943499 11242876
0.047247499 0.35655001 2.7991099 11177085
0.065907598 0.36239901 2.82617 11176311
0.072739899 0.36247599 2.8298299 7687994
0.080262102 0.36254299 2.83164 7160621
0.107138 0.363262 2.84883 6962470
0.104337 0.367569 2.84375 7225384
0.114313 0.36609101 2.85216 6567970
0.126139 0.37013 2.85835 6240034
0.13221601 0.365733 2.8617301 6899254
0.139357 0.365823 2.86608 9795948
0.14537001 0.36647201 2.87412 9862514
0.16344599 0.373979 2.8815701 9993586
0.166733 0.367017 2.88327 10059122
0.160853 0.36669299 2.88024 9862515
0.17121001 0.373983 2.88393 9598056
0.17459799 0.36700001 2.88556 7755336
0.17733 0.374246 2.88727 6505011
0.18241601 0.36981201 2.891 6043429
0.182413 0.36991501 2.891 6043429
0.19586 0.37249699 2.8991799 6173985
0.201749 0.375826 2.8987401 6240033
0.21509799 0.372504 2.9080501 6371363
0.22594 0.37093899 2.9147 6437672
0.2324 0.373941 2.9188199 7359803
0.23253 0.373873 2.91892 7425597
0.23903801 0.37706101 2.9233899 10189677
0.239241 0.37705201 2.92326 10255469
0.243632 0.372439 2.92752 10913915
0.245133 0.37983 2.9275899 10716535
0.249349 0.37513301 2.93169 10980478
0.26079899 0.37983701 2.9285901 11046015
0.25609401 0.374019 2.9307599 11046528
0.25744799 0.37522799 2.93712 11112065
0.26453501 0.37518299 2.94065 11112321
0.27385399 0.38118401 2.9442 11242622
0.28274801 0.379473 2.94607 9004630
0.29172 0.37913701 2.9482801 6371879
0.29247901 0.379163 2.94787 6371879
0.300661 0.379195 2.9488399 6305572
0.32826501 0.38374299 2.9698501 6371106
0.33427599 0.384307 2.98282 6962472
0.333038 0.37981901 2.9737599 6567972
0.347673 0.38485301 2.98751 7753273
0.34187499 0.38439101 2.9851999 7160107
0.370065 0.37965599 2.9851401 11373948
0.37699801 0.385288 2.9990301 10912885
0.399304 0.38565999 3.0077701 10452332
0.423388 0.386994 3.0217199 9399130
0.433294 0.39273101 3.03175 7094830
0.43313199 0.38594499 3.0313499 9662559
0.44974199 0.38672799 3.04052 7029808
0.45372799 0.39005399 3.04497 7094314
0.45946199 0.394335 3.0462601 7225127
0.46288499 0.38736701 3.04843 7225385
0.46870601 0.38752499 3.05251 7290921
0.52501601 0.398426 3.0866699 7028007
0.52127898 0.39221901 3.086 7093800
0.51890099 0.39822099 3.0825 7093542
0.53829598 0.397742 3.0901101 6897193
0.53624898 0.39668801 3.0831699 7028522
0.54817402 0.39451599 3.09993 6832172
0.55265599 0.40010399 3.0989201 6962728
0.54624701 0.39712301 3.09045 6897193
0.554901 0.394315 3.1022799 6700843
0.56081599 0.394555 3.1066301 6700329
0.55861002 0.40032601 3.1031699 6896935
0.56950301 0.39606899 3.1170599 6765607
0.57437098 0.40223601 3.11517 6831142
0.57671398 0.39623901 3.12028 6765350
-0.058340698 0.36179 2.75931 7423279
-0.052317701 0.36618701 2.7608299 8806475
-0.041464798 0.36114001 2.77127 11243389
-0.044511501 0.36615199 2.76367 11242360
0.068710603 0.36959401 2.8280101 10254694
0.084287301 0.369598 2.8324201 7225641
0.109096 0.37075499 2.8483801 7028263
0.117928 0.374982 2.8552999 6634019
0.132045 0.37355599 2.8621399 6833716
0.143158 0.37270501 2.86726 9927791
0.14163201 0.37940001 2.8635001 10124397
0.14794999 0.379536 2.8677499 9927792
0.15485901 0.37957999 2.87168 9927793
0.15851501 0.38013899 2.87743 9927793
0.16807701 0.38111401 2.87992 10058863
0.178131 0.381917 2.8872299 6438703
0.18311299 0.37760201 2.891 6043429
0.227145 0.37872699 2.9159801 6240550
0.22411899 0.38558301 2.9138401 6174243
0.22929101 0.38057199 2.9168999 6240551
0.229173 0.380631 2.9167299 6240550
0.23601 0.380537 2.9204099 7622978
0.240293 0.387079 2.9216399 7623234
0.248235 0.38730401 2.9254501 9399903
0.24820501 0.38723499 2.92538 9400159
0.255824 0.38732699 2.9295399 9729125
0.256374 0.38732001 2.92942 9663332
0.26224199 0.38770801 2.9324 9597538
0.265679 0.38858399 2.9363 9202523
0.26261899 0.38147199 2.9368801 11177600
0.26563701 0.38219699 2.9418001 11177344
0.27108601 0.38886899 2.9403 9070679
0.279118 0.386516 2.94449 9794146
0.28617501 0.38659501 2.94786 6635310
0.294837 0.38648301 2.9498401 6174500
0.32158601 0.38791201 2.96679 6239521
0.32832301 0.391166 2.96995 6502436
0.333572 0.39145899 2.97401 6831143
0.34587499 0.39150199 2.98435 7160107
0.34388801 0.39029601 2.9798 7159850
0.353679 0.39155099 2.9864299 7358001
0.36318099 0.39124399 2.98843 7358260
0.374217 0.391853 2.9963701 7226674
0.36983499 0.39138401 2.9916999 7292467
0.409468 0.39415199 3.0157399 7029294
0.42217401 0.39803901 3.02562 7159850
0.43068001 0.39810899 3.0279 7159849
0.43778899 0.39630201 3.0358801 7160106
0.444951 0.39674801 3.0400701 7159849
0.45290199 0.397174 3.0436399 7225384
0.528427 0.404809 3.08811 7093799
-0.065400898 0.37242001 2.7507501 7290920
-0.0557932 0.37311301 2.7589099 7489586
-0.047984499 0.37312901 2.76193 11044211
-0.040981099 0.37320599 2.7650299 11242876
-0.0069787698 0.372958 2.7699201 11177598
-0.0058943201 0.37020499 2.77777 11177598
-0.00122664 0.37173501 2.78386 11177598
0.0136814 0.37792799 2.8048 11177598
0.027425099 0.37747401 2.80425 11177598
0.035994198 0.37652501 2.80531 11111805
0.050223101 0.37466699 2.8185501 11243135
0.059344001 0.38072401 2.8155501 11242875
0.060925402 0.37785101 2.8250799 11177082
0.065266803 0.37663901 2.8260601 11111031
0.073649697 0.37649101 2.82918 7490615
0.081626199 0.37649301 2.8306401 7029033
0.085785702 0.377069 2.8334999 7159848
0.107017 0.37760699 2.8450201 7225383
0.115382 0.380651 2.8508899 7028262
0.122677 0.38031101 2.85653 6699813
0.12845901 0.380593 2.8602901 6306341
0.13617299 0.38674 2.8626101 8280648
0.14574499 0.38633299 2.8643701 9597539
0.149691 0.38685399 2.8699701 9400419
0.159757 0.38638499 2.8721399 9268831
0.16013999 0.387445 2.8782799 9268832
0.173223 0.38471499 2.8843601 8873559
0.181943 0.384482 2.8874099 6109479
0.189031 0.384599 2.88994 6174500
0.22600199 0.38727999 2.9143901 6174243
0.22607701 0.38723999 2.9146399 6174499
0.232876 0.38734201 2.9191899 6175015
0.232806 0.387409 2.9191201 6175015
0.236651 0.39420801 2.91998 6174757
0.23678499 0.394476 2.9200499 6174757
0.244471 0.39447099 2.9230199 6174758
0.245433 0.394043 2.9223101 6175015
0.24526601 0.39407 2.9223299 6175015
0.25422001 0.39379001 2.9249799 6306344
0.254399 0.393783 2.9248199 6306344
0.25819099 0.39452499 2.92942 6503466
0.259175 0.39434901 2.92907 6503723
0.26203299 0.39538601 2.9323201 6700845
0.26219699 0.39523101 2.93382 6700845
0.26712099 0.39565399 2.9379499 6635309
0.26497 0.39638999 2.93577 6701101
0.272434 0.39599401 2.9419899 6437930
0.277255 0.39486501 2.94684 6240551
0.28276899 0.393599 2.9461801 6306088
0.29049301 0.393742 2.94888 6108707
0.31914899 0.39761299 2.9635601 6239522
0.32539099 0.39770901 2.9674301 6436643
0.330437 0.39804301 2.97158 6765350
0.33654699 0.398215 2.9751799 7094056
0.34737301 0.39752901 2.9800301 7094056
0.35123301 0.39831999 2.98351 7094056
0.35991499 0.39789301 2.98434 7094313
0.372201 0.398258 2.9934199 7094313
0.369582 0.397156 2.9889801 7094314
0.36949801 0.39719301 2.9867499 7094058
0.38135201 0.40066001 2.9796901 7225128
0.38902399 0.39818701 3.0017099 7160107
0.40136501 0.40587699 3.0072801 7356457
0.405595 0.39931101 3.01091 7291178
0.404616 0.406795 3.0118001 7290920
0.441232 0.40371901 3.0385399 7291176
-0.063970402 0.37969899 2.75337 7356713
-0.059418999 0.380128 2.7572 7291435
-0.052712299 0.380252 2.76038 8608839
-0.030523799 0.38003799 2.77162 11243390
-0.0099868104 0.38125601 2.7711999 11308668
-0.0057991398 0.376811 2.776 11243134
0.00718622 0.380115 2.7920201 11243133
0.00774753 0.378804 2.77672 11243132
0.012224 0.381823 2.7999799 11243133
0.025893901 0.38422799 2.80197 11308411
0.045637999 0.384563 2.81301 11242619
0.059979402 0.38460299 2.82184 11242102
0.067219801 0.38459799 2.82581 11044209
0.075019598 0.38751701 2.8290701 7292463
0.111013 0.38653401 2.84726 7159591
0.124878 0.38755801 2.8582301 6765862
0.120331 0.38707 2.8538799 6962726
0.13430899 0.393475 2.8584599 6634535
0.140274 0.39370999 2.8629601 6371879
0.14762899 0.393675 2.8666601 6174759
0.15614299 0.39193901 2.8683 6307116
0.166813 0.392701 2.8784499 6241323
0.161846 0.39371699 2.87251 6109479
0.186204 0.39147601 2.8881099 6174756
0.24079999 0.39998701 2.9149201 6108707
0.24592 0.40147099 2.9242201 6108708
0.24608 0.401539 2.9241099 6108708
0.248109 0.40266901 2.92766 6108451
0.25282201 0.40168101 2.92592 6108450
0.25683799 0.40246001 2.9296899 6174243
0.25954199 0.40189999 2.9298401 6305829
0.26325101 0.40254301 2.9356999 6634537
0.26982999 0.402628 2.9396801 6502951
0.277886 0.40185699 2.9455299 6173987
0.28611201 0.40194201 2.94835 6108193
0.288212 0.40309301 2.9537399 6108193
0.31290701 0.403346 2.96351 6305056
0.32682201 0.40473101 2.9691501 6830886
0.32424 0.40389499 2.96345 6567971
0.33443999 0.40455499 2.9724901 7028263
0.39311501 0.414758 3.0125 7356712
-0.063118003 0.38715199 2.75541 7356713
-0.064531803 0.38627699 2.7504599 7290920
-0.055420101 0.387135 2.75828 7357743
-0.0481386 0.38716301 2.7613599 10188129
-0.029830201 0.38676199 2.7663 10715759
-0.0226372 0.386884 2.7693701 10584173
-0.0144607 0.38979799 2.7729499 8478024
-0.0045797299 0.384507 2.7759199 11176311
0.00477457 0.38709101 2.7786701 9794143
0.0096345702 0.38745099 2.7832699 9794142
0.015301 0.38605699 2.78917 10715503
0.0482735 0.39160499 2.8117399 7556409
0.056055799 0.38986 2.8218801 9267541
0.063170299 0.39580899 2.81515 7094571
0.063841999 0.39434299 2.8206999 7095085
0.0783571 0.39464501 2.82972 7160105
0.085883602 0.39472899 2.8317299 7291177
0.121376 0.394494 2.8561201 7159590
0.120976 0.40131199 2.8515899 7290919
0.13093799 0.40018499 2.85479 7028262
0.138947 0.400354 2.85851 6765092
0.148681 0.39943299 2.8664501 6305315
0.145423 0.39864099 2.86204 6371363
0.159381 0.400428 2.8686399 6108706
0.16777501 0.39847001 2.87889 6174758
0.166017 0.40054801 2.8725801 6108962
0.17603999 0.39849299 2.8808401 6240293
0.183052 0.398453 2.8861899 6371621
0.256769 0.41020301 2.9300399 6305314
0.25843099 0.40979901 2.9302499 6305571
0.26808599 0.40925401 2.9339199 6502949
0.27627301 0.40882999 2.9447801 6305315
0.309214 0.40986201 2.95995 6173728
0.316102 0.409628 2.96157 6305057
0.31825 0.41113201 2.96241 6436642
0.32484099 0.41118601 2.96649 6830885
0.33017099 0.41147301 2.9707501 7028263
0.33039701 0.41143101 2.97106 7094056
-0.064681597 0.39385 2.75299 7290920
-0.051461499 0.39409399 2.7593701 7225900
-0.042698901 0.39387599 2.76211 7292721
-0.035048101 0.39388099 2.7645199 7161649
-0.02076 0.392894 2.76478 7095342
0.0093440199 0.39390099 2.77953 7029549
0.0167909 0.39384699 2.7832899 7095085
0.017495399 0.39730799 2.7892499 7094572
0.0472348 0.39816099 2.8046 7160106
0.0596596 0.397551 2.81001 7160106
0.062275302 0.40143701 2.8059101 7225384
0.065660298 0.40243801 2.8090601 7159591
0.066854 0.403698 2.8129201 7159591
0.074568503 0.40174001 2.8287399 7159591
0.132963 0.40852299 2.8559799 7093798
0.140283 0.406914 2.86586 6633763
0.15524299 0.40904599 2.8743401 6305313
0.25824401 0.417447 2.9309199 6305570
0.27018699 0.41651499 2.9338601 6305571
0.308321 0.41825899 2.9580801 6305314
0.32133099 0.41802001 2.9648099 6830885
0.31610101 0.418008 2.96033 6568228
0.319543 0.42451701 2.96228 6831142
0.327701 0.41811699 2.9690001 7094056
0.32770899 0.41811499 2.96892 7094056
0.32467401 0.424849 2.96697 7093799
-0.056908399 0.401272 2.7577901 7225383
-0.0471383 0.40089899 2.7602201 7159847
-0.0390018 0.40085 2.7625599 7094311
-0.0311324 0.40079099 2.7646401 7159849
-0.0176252 0.39868599 2.75981 7159848
-0.0028305899 0.39760399 2.75876 7159848
0.0056241401 0.40094501 2.7771101 7225641
0.0116151 0.401117 2.7813499 7290921
0.022644199 0.401171 2.7820101 7225385
0.022421001 0.403402 2.8003199 7356714
0.034952302 0.40562901 2.8025 7225384
0.055239201 0.403992 2.80197 7225384
0.068004899 0.40495801 2.81672 7159590
0.135102 0.41561499 2.85535 7225127
0.13763399 0.411596 2.8607299 7028263
0.145248 0.41703299 2.87133 6633763
0.151051 0.41966099 2.87186 6567970
0.30397001 0.42943701 2.9553699 6305057
0.31208 0.425026 2.95948 6502691
0.31625399 0.43248001 2.9619501 6831141
-0.0274828 0.40640301 2.75965 7225382
0.14015201 0.41861901 2.85989 7093799
0.146423 0.42407101 2.86902 6830885
0.154476 0.42683601 2.8719699 6633764
0.16457801 0.424182 2.875 6436642
0.304416 0.437271 2.9555199 6502178
0.31131601 0.43723899 2.95873 6699556
0.317305 0.43994901 2.9607699 6896934
0.144465 0.42798501 2.8631301 7159336
0.148662 0.43144301 2.8682401 7028007
0.15572099 0.43455899 2.87234 6896678
0.16062 0.42968401 2.87497 6568227
0.16648 0.432327 2.87883 6436898
0.173538 0.43587899 2.88218 6305314
0.17135 0.437572 2.8897099 6239778
0.183226 0.436957 2.8879001 6174241
0.29902801 0.44156301 2.9523001 6370849
0.30314299 0.44432601 2.9493101 6436642
0.30808601 0.44384599 2.95612 6699556
0.32350001 0.442799 2.9639101 7093799
0.149874 0.43510601 2.8611801 7094055
0.150519 0.44123301 2.8670399 7028006
0.159401 0.441724 2.87009 6831141
0.163701 0.438232 2.8749499 6634020
0.17017201 0.442828 2.8798399 6568484
0.176824 0.444902 2.8832099 6436899
0.177411 0.44422901 2.88939 6305570
0.177506 0.44277999 2.8835299 6305570
0.294146 0.45308599 2.9495599 6305058
0.30324301 0.44888699 2.9556999 6567972
0.30302501 0.452158 2.94963 6567972
0.30894899 0.451424 2.9553299 6765349
0.31001699 0.45547101 2.96123 6962470
0.15363701 0.44815499 2.8672199 7093798
0.1657 0.44826099 2.87661 6765606
0.173014 0.45035401 2.8796401 6699813
0.181499 0.449727 2.8835499 6502435
0.188812 0.45118201 2.89063 6371106
0.190632 0.45229399 2.8961799 6305571
0.19970401 0.45133501 2.8928599 6239778
0.28886601 0.45803201 2.9473701 6370593
0.298365 0.459537 2.95 6502435
0.30809 0.45950499 2.95625 6896678
0.17487299 0.45740801 2.8789799 6765349
0.17929401 0.45782 2.8856599 6633764
0.18571199 0.45813701 2.8880799 6502435
0.19005799 0.45877799 2.89236 6436899
0.28527501 0.46977001 2.94033 6305057
0.292678 0.46376199 2.9465401 6370849
0.29861501 0.467417 2.9500899 6633763
0.17659201 0.464578 2.87976 6896677
0.183008 0.465013 2.88537 6765349
0.22269499 0.47225201 2.9017799 6305569
0.253041 0.47446001 2.9337001 6239777
0.28672701 0.47709599 2.9435401 6436385
0.282644 0.47648099 2.9382701 6305056
0.281717 0.47491899 2.9319201 6305313
0.29331899 0.471948 2.9465301 6502177
0.30033201 0.47994 2.9512701 6896676
0.30333599 0.476271 2.95597 6765090
0.30353999 0.476215 2.9558599 6765090
0.311129 0.476331 2.9590299 6830626
0.31400201 0.47743699 2.96436 6830883
0.31612799 0.47746301 2.9735701 6962212
0.320162 0.483298 2.9705 7093797
0.324072 0.48417199 2.97504 7159590
0.32285699 0.47782701 2.97527 6962212
0.32397801 0.47959101 2.9790201 6962212
0.32717401 0.48030201 2.9795301 7027748
0.108897 0.471062 2.84532 7093540
0.15937901 0.47382101 2.8740001 7093797
0.16726001 0.47531 2.8771999 7028005
0.177137 0.46863899 2.8736 7028261
0.19261301 0.47907901 2.9168999 6502434
0.21380401 0.480876 2.91081 6502177
0.216317 0.48224699 2.9144001 6436385
0.22623099 0.48041901 2.9085 6370849
0.22353099 0.47743699 2.91552 6305313
0.23479 0.476221 2.90626 6305313
0.241336 0.48217601 2.91819 6239777
0.248316 0.48139301 2.93029 6174241
0.24579599 0.47770599 2.9237001 6108448
0.25659299 0.48137599 2.9326701 6239778
0.270861 0.47994 2.93222 6305314
0.28439501 0.483744 2.94134 6831142
0.28000799 0.48363599 2.93714 6699814
0.29245499 0.48007599 2.94752 6699555
0.29769701 0.48671001 2.9495101 7620142
0.301774 0.48756 2.9507999 7883313
0.306474 0.48353499 2.95471 7488299
0.310675 0.487526 2.95912 7751471
0.317635 0.48936099 2.9627299 7883056
0.31481001 0.48331499 2.96522 7225383
0.325542 0.48951599 2.9641199 7751471
0.330755 0.48683 2.96804 7422505
0.33023599 0.487405 2.9786699 7291176
0.087926202 0.47789001 2.8385899 7093540
0.096051499 0.47790799 2.84041 7093540
0.104468 0.47770599 2.84114 7027748
0.14343999 0.483491 2.8719699 7225125
0.151549 0.47954699 2.86744 7028004
0.163697 0.48072001 2.87305 7159333
0.197583 0.48487201 2.9086599 6765091
0.211797 0.48824799 2.90481 7028520
0.224929 0.489061 2.91012 6765606
0.221772 0.48871499 2.9123099 6765349
0.22527801 0.49084601 2.9154 6831142
0.23266999 0.48562601 2.91184 6568227
0.241927 0.48949 2.9129701 6568228
0.238433 0.48596099 2.9086201 6568228
0.25422099 0.48750201 2.9360199 6436900
0.26699799 0.48843399 2.93573 6568228
0.27353501 0.49088401 2.9356999 6831142
0.28085199 0.49049699 2.9374599 7159849
0.289193 0.489925 2.9377601 7356971
0.29025799 0.49269101 2.9423101 7422763
0.302616 0.49469501 2.95189 7619883
0.30676201 0.492221 2.9548299 8014642
0.312608 0.49485999 2.95925 7685420
0.319368 0.49673399 2.9609799 7356711
0.32491201 0.495846 2.96574 7422505
0.33024499 0.495446 2.9717901 7356712
0.337506 0.495904 2.97805 7356456
0.35063201 0.49732199 3.0002899 7422505
-0.00059204601 0.47811699 2.79545 7028003
0.0233107 0.47765499 2.79707 7028004
0.028532 0.478405 2.80405 7028003
0.024178401 0.47145501 2.7978201 7093540
0.031085599 0.47651699 2.8125 7028003
0.0382444 0.48334399 2.8252001 7028003
0.042436998 0.47707501 2.8273201 7093539
0.0683778 0.479684 2.8245001 7093539
0.0824956 0.476475 2.8271599 6962211
0.091738403 0.48531699 2.84022 7422248
0.108491 0.484898 2.84181 7488042
0.108831 0.48363701 2.84659 7290663
0.116235 0.484009 2.83794 7553834
0.124778 0.48390499 2.83887 7619370
0.13088199 0.48814201 2.8546901 7685419
0.13425601 0.48077199 2.8542399 7290662
0.138859 0.488123 2.8563399 7685419
0.155717 0.48677999 2.8679399 7619627
0.17659099 0.49178201 2.8879199 8014640
0.168695 0.486191 2.87376 7553833
0.183577 0.492318 2.87957 8014383
0.2066 0.49077001 2.9007699 7488812
0.21224999 0.49423701 2.90572 7291178
0.221315 0.49400699 2.9068699 7094056
0.231225 0.495453 2.9085901 6831141
0.235319 0.49239501 2.9097099 6765349
0.233564 0.496822 2.9121001 6765348
0.260396 0.49922401 2.92679 6436899
0.26564899 0.50073999 2.9314101 6568227
0.27731201 0.49745101 2.9361899 6831141
0.28466201 0.49698201 2.9374001 7094055
0.293051 0.49974799 2.9436901 7093797
0.29871199 0.50009799 2.9476299 7225125
0.30534899 0.502168 2.9530301 7224869
0.30749401 0.50201201 2.95735 7225126
0.318046 0.50108099 2.9595599 7224870
0.32621899 0.50057697 2.95311 7159333
0.338727 0.50016397 2.9684 7093284
0.340018 0.50299102 2.9516499 7093540
0.0041981102 0.48479399 2.7945499 7290918
0.0303484 0.48300499 2.79282 7422504
0.038126498 0.49068299 2.8208201 7488296
0.047069401 0.48677799 2.81903 7422503
0.044923201 0.484914 2.8294301 7159588
0.054529998 0.483906 2.8225701 7225381
0.068443596 0.48722699 2.82145 7488297
0.076558299 0.487212 2.8234 7619626
0.083391301 0.490293 2.8329599 7751212
0.087650001 0.490839 2.8336201 7816748
0.091900997 0.49156401 2.83441 7882541
0.096487701 0.49370399 2.84289 7948334
0.103322 0.48750499 2.8426499 7553834
0.108476 0.49159801 2.8462601 7948335
0.114737 0.492136 2.84852 7816749
0.130518 0.49289799 2.8587 7817005
0.143269 0.495132 2.85605 7619625
0.159899 0.493985 2.8682301 7882799
0.172166 0.49786901 2.8759699 7619625
0.168662 0.493424 2.8689101 7751212
0.183 0.49968201 2.87468 7553832
0.18897299 0.49639601 2.88394 7619625
0.19464999 0.503052 2.8931301 7356711
0.20531 0.497172 2.90221 7291433
0.202645 0.50302601 2.8948801 7356711
0.226316 0.50072402 2.9060299 7093799
0.234871 0.50262898 2.90886 6830885
0.241785 0.50273198 2.9130399 6633762
0.24183001 0.50643802 2.91908 6567970
0.237395 0.50030601 2.9200499 6633762
0.24624699 0.50180101 2.9232399 6371105
0.25671801 0.50724697 2.92729 6502434
0.26916799 0.50910002 2.9290299 6699299
0.27444899 0.50386 2.93244 6765348
0.28137001 0.50384003 2.9358799 6962469
0.29042199 0.50641799 2.9406199 7159333
0.302118 0.508959 2.9511399 7093541
0.309975 0.50902802 2.9561 7093284
0.32020101 0.51187497 2.9496 7093540
0.00091821502 0.49153599 2.79124 7619882
0.0089529399 0.49141899 2.7928801 7685418
0.0168758 0.49135199 2.7950201 7554089
0.024909699 0.491247 2.7967 7619626
0.047082402 0.49400899 2.8142099 7685674
0.054606698 0.49118799 2.81795 7619882
0.062091399 0.49559599 2.8168299 7685418
0.066755898 0.49527699 2.82142 7751211
0.081270501 0.49391201 2.8220401 7751210
0.087493204 0.49635401 2.8324001 7751210
0.0924486 0.49596801 2.83199 7751211
0.099673897 0.496286 2.84338 7816748
0.102771 0.500525 2.8457501 7553833
0.114161 0.50012702 2.8478701 7421990
0.122315 0.499975 2.84969 7422246
0.120526 0.49699599 2.85462 7619625
0.130101 0.500139 2.8531201 7488039
0.137659 0.49915799 2.8496201 7553576
0.146873 0.502406 2.8615 7553576
0.155873 0.50162899 2.8687999 7619625
0.153419 0.50026298 2.8619201 7553576
0.166004 0.50200498 2.8749001 7553833
0.163471 0.50094002 2.86815 7619626
0.170995 0.50622499 2.8776 7488039
0.176814 0.501912 2.875 7488039
0.19002999 0.50577903 2.8792801 7422246
0.230682 0.51033098 2.9107499 7093798
0.238057 0.51086199 2.9147301 6896677
0.24293099 0.51382703 2.9192901 6830884
0.25331801 0.51500702 2.92715 6765347
0.267589 0.51285398 2.9363999 6765348
0.071330003 0.50119102 2.8153801 7487783
0.081089802 0.50023699 2.82564 7553575
0.086155802 0.50622898 2.8327401 7553575
0.092510499 0.50272202 2.83441 7619368
0.097804397 0.503528 2.84062 7553832
0.100969 0.50799203 2.84428 7488039
0.117967 0.507608 2.8506601 7422247
0.152464 0.508026 2.86215 7553833
0.164703 0.50894499 2.87257 7488039
0.172068 0.51187402 2.86607 7488039
0.24035101 0.518305 2.91431 7028005
0.291987 0.52721399 2.9409201 7028005
0.0833093 0.511998 2.8357401 7553575
0.090158597 0.51045299 2.8339701 7553576
0.108985 0.51234102 2.83673 7488040
0.151108 0.51603299 2.86322 7422504
0.170054 0.52095801 2.8800499 7290919
0.23381899 0.52606302 2.9130499 6962469
0.28289801 0.53315002 2.9337299 6896676
0.28529999 0.53469503 2.93786 6896675
0.087302297 0.51869601 2.83425 7422247
0.080738597 0.521312 2.8297701 7422247
0.094038099 0.51955801 2.83235 7356455
0.0922805 0.52097797 2.8388801 7356454
0.101579 0.52000099 2.8359301 7290918
0.113328 0.51933199 2.8373499 7356454
0.127866 0.52252799 2.8552899 7356455
0.13612799 0.52262402 2.85747 7422248
0.14975899 0.52403802 2.8641701 7290919
0.171064 0.52666003 2.8784201 7224869
0.190604 0.52519298 2.8671999 7225126
0.193636 0.533746 2.8959401 7159590
0.213008 0.530348 2.89662 7159333
0.22831701 0.53370202 2.91014 6962468
0.23761301 0.53375 2.9133501 6896675
0.27237099 0.54155099 2.93243 6896420
0.27729601 0.54249901 2.93543 6830883
0.068052001 0.52545297 2.8185501 7422247
0.074532703 0.52321601 2.82357 7356454
0.073734596 0.52869499 2.8250501 7290917
0.084619001 0.52680099 2.83389 7290918
0.11677 0.52858597 2.8486199 7290919
0.132626 0.52899402 2.8527701 7224870
0.142198 0.52763999 2.84852 7224869
0.14879 0.52895302 2.8561699 7159333
0.15147001 0.53536898 2.85624 7028005
0.146616 0.534383 2.8473499 7027748
0.154199 0.53057098 2.8610799 7224870
0.164363 0.53712797 2.86307 7028005
0.171115 0.53381902 2.8731101 7093540
0.18503401 0.53317201 2.87305 7159590
0.19184101 0.53399599 2.87535 7094054
0.196279 0.53695399 2.88135 7028006
0.200094 0.53843802 2.8929601 7028005
0.216223 0.53747499 2.8989201 7028004
0.22287899 0.54130399 2.9085901 6831139
0.23239601 0.54075903 2.9103401 6831139
0.2476 0.54599899 2.9117899 6765347
0.25971699 0.54803002 2.9279799 6765091
0.27526999 0.54636198 2.9263999 6765091
0.060238399 0.53223902 2.81213 7290662
0.084550001 0.53557497 2.8334301 7159333
0.090832204 0.53733301 2.8377099 7093541
0.10004 0.540497 2.85514 7093541
0.121023 0.535492 2.8476801 7093541
0.12912899 0.53548902 2.84883 7027748
0.13741 0.53545099 2.8503399 7027748
0.142441 0.541646 2.84692 6896420
0.15663201 0.537045 2.8612199 7093541
0.15598901 0.54190397 2.85393 6962213
0.157827 0.543513 2.8573501 6896421
0.160919 0.54538202 2.8666501 6962213
0.170834 0.53856403 2.8671999 6962212
0.176163 0.539958 2.87216 6962213
0.18857799 0.54431099 2.8669901 6830883
0.19069999 0.54209 2.87867 6962213
0.19463301 0.54475302 2.8833899 6896676
0.206058 0.54359698 2.8921399 6896420
0.21199299 0.54530698 2.8973999 6896164
0.22032601 0.54812503 2.9040201 6830884
0.228863 0.54784 2.9075 6765091
0.25457999 0.55014801 2.9101601 6633763
0.259009 0.54979402 2.9143701 6699556
0.26975799 0.55137098 2.9186399 6633763
0.27191901 0.55286503 2.92256 6633763
0.27307501 0.55483103 2.92623 6568227
0.054831602 0.53917998 2.8099999 7224870
0.062867202 0.54237598 2.8208699 7093797
0.061411101 0.53979099 2.8139601 7093541
0.067178801 0.542979 2.82201 7093797
0.075930201 0.54347998 2.8282199 7028004
0.084571503 0.54299498 2.82934 7028004
0.095481701 0.54390001 2.8353601 7027748
0.10412 0.54494202 2.8418 7027748
0.112247 0.54483002 2.84233 6896675
0.125212 0.54246402 2.8469801 6830882
0.129409 0.54943401 2.8463199 6765091
0.148665 0.55139899 2.85671 6830885
0.153731 0.55019701 2.8536699 6830885
0.161209 0.55429202 2.8691399 6765092
0.191053 0.54919499 2.87834 6765092
0.20682199 0.557437 2.8963301 6699299
0.205419 0.554986 2.8879399 6699555
0.211445 0.55936801 2.90171 6633763
0.22639 0.55471897 2.9031799 6633763
0.232991 0.55491501 2.90783 6633762
0.26006901 0.55613101 2.9024 6502434
0.26179001 0.55458403 2.90838 6568227
0.26247701 0.56045002 2.9084899 6502434
0.26405099 0.55624801 2.9116499 6502435
0.27219 0.55628902 2.9129601 6502434
0.27430901 0.55799198 2.91624 6502434
0.058480602 0.54661 2.8107901 7159333
0.064381197 0.55016899 2.8205299 6962468
0.0718069 0.55007398 2.8234301 6962212
0.079612702 0.55031002 2.8278401 6830883
0.088246502 0.55010098 2.8301401 6896420
0.097236 0.54990101 2.83217 6896419
0.150278 0.556674 2.8497 6699299
0.158406 0.556665 2.85133 6567971
0.162681 0.55815297 2.8568299 6567970
0.171637 0.56249398 2.88115 6568226
0.202089 0.56283599 2.89131 6567971
0.216167 0.562639 2.9037199 6567971
0.211429 0.56676102 2.9003 6436386
0.222054 0.56350398 2.9080901 6567970
0.231405 0.56319398 2.9100599 6567970
0.260611 0.56206501 2.9035599 6436642
0.26706901 0.56709701 2.90643 6436642
0.264447 0.56630802 2.91465 6436642
0.278671 0.56465697 2.91394 6436642
0.069016397 0.55729902 2.8220699 6830883
0.075666398 0.55770302 2.82707 6830628
0.097041696 0.55701602 2.82602 6764835
0.10761 0.56092 2.8233199 6633762
0.132514 0.56416601 2.8471301 6633763
0.151108 0.56093103 2.8438201 6567970
0.158052 0.56120402 2.8457999 6567971
0.16237 0.56268102 2.85129 6502434
0.16565301 0.56401098 2.8543701 6436642
0.19841801 0.56765002 2.8873999 6436386
0.209737 0.57270098 2.9016299 6370593
0.219597 0.57046199 2.90431 6370849
0.26758099 0.57274401 2.9058199 6239521
-1.78422 0.55158597 2.71924 10978923
-1.77653 0.55708599 2.7671599 10716010
0.061123099 0.568066 2.8253701 6699555
0.062888302 0.56588298 2.8189299 6765091
0.10149 0.56400597 2.8267901 6633762
0.115803 0.57016402 2.8403201 6502433
0.133008 0.57100803 2.84093 6502177
0.133008 0.57100803 2.84093 6502177
0.13111299 0.56547499 2.8399601 6633506
0.133008 0.57100803 2.84093 6502177
0.15109199 0.56806099 2.83884 6436641
0.16593499 0.57071799 2.84496 6305056
0.17350399 0.56736201 2.84675 6370848
0.17760301 0.56582999 2.8457201 6370848
0.20806099 0.57701302 2.8965499 6370593
0.219579 0.577797 2.89921 6305056
-1.77598 0.56263 2.7521801 10518889
-1.77561 0.56692398 2.7649 10058853
0.0632395 0.57573402 2.8225901 6633762
0.056895599 0.57045197 2.81955 6699556
0.0717443 0.574543 2.8293099 6633506
0.064840503 0.57523698 2.8274 6633762
0.065427303 0.57338703 2.8208499 6633763
0.080435097 0.574117 2.8303101 6567970
0.082161702 0.575661 2.8276601 6567970
0.098237 0.571154 2.82441 6567970
0.105611 0.57115 2.8280499 6502434
0.115939 0.577232 2.83446 6370848
0.134161 0.577474 2.8338599 6305056
0.129999 0.57269299 2.83465 6436385
0.134161 0.577474 2.8338599 6305056
0.149413 0.57316202 2.8340399 6305056
-1.79997 0.560835 2.70977 10847595
-1.78303 0.56371999 2.71948 10650217
-1.77305 0.56730098 2.7339399 9993061
0.055367 0.57859802 2.82043 6633762
0.054345898 0.58092499 2.80825 6567970
0.0633315 0.58297998 2.81848 6502177
0.068385303 0.580387 2.8219099 6502177
0.076990098 0.580176 2.8240399 6436641
0.084758997 0.58020401 2.8264999 6436385
0.093207397 0.58059603 2.8318701 6436385
0.102458 0.58061701 2.8350899 6436385
0.115429 0.58333302 2.8335299 6239520
-1.7731301 0.56733799 2.7003 10058852
0.0572167 0.58407801 2.8159599 6567969
0.056758001 0.58229101 2.8120401 6567969
0.071338803 0.58670402 2.8194201 6436384
0.089150801 0.586613 2.82427 6436641
0.096949302 0.58920598 2.83968 6305056
0.049562 0.59181899 2.8148799 6502433
0.058883201 0.59151298 2.8157201 6436640
0.572667 0.66136098 3.11886 6305312
0.58665299 0.66441399 3.1267099 6371106
0.58378601 0.65784103 3.12377 6436897
0.58133298 0.66337901 3.1224201 6239776
0.60097301 0.66635001 3.14031 6568482
0.053228199 0.59996599 2.8195 6305055
0.57112497 0.666439 3.11447 6042654
0.57651401 0.66681999 3.11868 6108447
0.58966303 0.671341 3.13131 6174241
0.59591103 0.66689301 3.1278501 6371106
0.54981703 0.67485201 3.1233201 5911583
0.55858701 0.674743 3.1220801 5911585
0.57947099 0.67924899 3.1248 5648671
0.58903003 0.68089002 3.13393 5451292
0.59355599 0.67543298 3.13308 6108706
0.39408901 0.67174101 3.0406201 5911071
0.40836999 0.66984802 3.0365701 5911327
0.42571601 0.67522401 3.0762401 5977119
0.44392401 0.675273 3.07672 5976864
0.44054699 0.67331201 3.0726399 5976864
0.45744401 0.67479801 3.0692999 5911328
0.472323 0.67416501 3.0813 6042656
0.47863901 0.67876202 3.07777 5780255
0.480416 0.67459899 3.08551 5977120
0.48455599 0.680125 3.0803001 5583133
0.49970499 0.679111 3.0789001 5122840
0.50757098 0.67921799 3.0838301 5319706
0.51796103 0.68392199 3.0972199 6043427
0.51769698 0.67901802 3.1036899 5845792
0.51898098 0.67854202 3.1073599 5911584
0.52521002 0.68257898 3.10447 5254168
0.532785 0.6814 3.11307 5714720
0.54137498 0.68264103 3.1213801 5649184
0.55400002 0.682028 3.1201 5320222
0.56289202 0.682055 3.1194799 4859672
0.57081097 0.68101799 3.1140499 4399121
0.57964802 0.68099898 3.1131899 4727828
0.58772802 0.68340498 3.1219599 5517343
0.247885 0.66494799 2.97662 5845534
0.27478999 0.66683698 2.98332 5911071
0.26880801 0.66368699 2.9737899 5911328
0.28066599 0.66760302 2.9865401 5911071
0.29031 0.66502398 2.99334 5911071
0.29229099 0.66707098 2.9973199 5911072
0.30630299 0.67092401 3.0014601 5911072
0.33061901 0.66818398 3.0037601 5911072
0.34619999 0.67254198 3.03058 5779998
0.349852 0.67236203 3.02179 5714462
0.36306399 0.67421299 3.01476 5648926
0.37070701 0.67062002 3.0181701 5779998
0.378447 0.674505 3.01615 5648670
0.379814 0.67361599 3.04459 5845535
0.384372 0.67452502 3.0225899 5648671
0.405056 0.67542899 3.0281701 5648670
0.41838399 0.679075 3.0511 5714721
0.42791301 0.676727 3.06057 5846048
0.43100899 0.680408 3.0595801 5714465
0.44419301 0.67988503 3.0708699 5845793
0.45723701 0.68124998 3.06549 5254170
0.472866 0.681418 3.07816 5517340
0.477323 0.687316 3.0755799 6702128
0.47956899 0.68656999 3.07477 6833458
0.47703001 0.680417 3.07932 5648926
0.48666 0.68336898 3.07358 5846563
0.493025 0.68165398 3.07776 4728083
0.50257301 0.68997997 3.08464 10123105
0.518812 0.69158399 3.0971701 11701621
0.51373202 0.68477601 3.0964999 5648926
0.52524501 0.68923998 3.10008 10517606
0.532731 0.68810099 3.1083 5649185
0.53353697 0.690202 3.10709 8017730
0.550026 0.690054 3.1214399 5188893
0.54328001 0.69282901 3.1213601 7228730
0.54634601 0.69711 3.11976 12031354
0.55425102 0.696055 3.1149399 12623490
0.553249 0.69606 3.1130199 12689027
0.56326902 0.69539601 3.11216 12754819
0.56646699 0.68857503 3.1133399 7557437
0.572236 0.69521701 3.1115999 13083269
0.57499498 0.68820399 3.11094 10123105
0.57629198 0.69042599 3.1129 12228222
0.58428198 0.68670899 3.10426 11965307
0.59305698 0.68677199 3.1037199 12688771
0.59568697 0.69299901 3.10607 13017220
0.194178 0.66787302 2.95207 5845536
0.216589 0.66677898 2.9496 5779742
0.23081 0.66155702 2.94875 5845279
0.23999199 0.67103499 2.9663301 5714206
0.243451 0.66857803 2.95522 5648413
0.25481701 0.669128 2.97474 5845535
0.27787101 0.67447299 2.9837401 5648671
0.27708399 0.67208803 2.9772 5714207
0.292458 0.669415 2.9867499 5845536
0.29197001 0.674631 2.98171 5582622
0.302798 0.67306697 2.9958701 5713951
0.31465799 0.67919302 3.0046999 5517086
0.31367499 0.67186397 3.00333 5845279
0.32097799 0.67739999 3.0047901 5582879
0.32655901 0.67806602 3.00599 5451551
0.33430299 0.67768902 3.00788 5517342
0.34573299 0.678927 3.0162399 5451807
0.34771201 0.68064201 3.01842 5386013
0.349399 0.67908502 3.02547 5582878
0.35198101 0.678298 3.0227599 5517342
0.37070701 0.67826003 3.01337 5188634
0.38440499 0.67939502 3.0166299 5122841
0.38916799 0.680996 3.0277801 5057047
0.395542 0.67863297 3.02426 5188377
0.40540501 0.68137997 3.0170701 6372906
0.41256499 0.684201 3.02842 7162166
0.41832 0.68476301 3.04216 5320222
0.430787 0.68528497 3.0520201 4201743
0.43673301 0.68435299 3.05443 4267535
0.44469899 0.685013 3.0613401 4464656
0.44012401 0.69177598 3.0568399 8346952
0.451451 0.68971598 3.0603199 7689024
0.45803699 0.68835098 3.06477 6175786
0.46467599 0.69311398 3.0641799 12096637
0.463245 0.69122899 3.05597 11965308
0.47304201 0.69432598 3.0727501 11965049
0.46444899 0.68678898 3.06832 5780772
0.46904799 0.68712097 3.0709 6109735
0.48056301 0.69407302 3.0752001 12294269
0.49297801 0.68808901 3.0734999 10057568
0.49653801 0.69252402 3.08393 11833463
0.49906 0.69268602 3.07304 13083270
0.503353 0.69726002 3.08373 13083270
0.510005 0.696953 3.08623 13412235
0.51883799 0.698246 3.09269 13477771
0.52462202 0.69510901 3.09217 13346442
0.53242099 0.69467199 3.1033001 12491648
0.53943598 0.69680297 3.11185 12294013
0.54187202 0.70392501 3.1129 13543563
0.550677 0.704593 3.1181901 13412232
0.57391202 0.70054901 3.1064 13214340
0.57782298 0.69619203 3.10937 13477770
0.1437 0.67139 2.9291999 5779486
0.151733 0.66895598 2.9340999 5845021
0.161862 0.66748399 2.9300101 5779743
0.16690101 0.66643399 2.93313 5845279
0.17429499 0.67024702 2.9290099 5713951
0.181279 0.665649 2.9251101 5779487
0.185992 0.67129499 2.9490099 5779742
0.200579 0.67319 2.9447401 5648415
0.203454 0.67151701 2.94959 5713951
0.223612 0.67110199 2.94806 5582621
0.23185501 0.67284501 2.95403 5517085
0.248972 0.67334402 2.95435 5451292
