# .PCD v0.7 - Point Cloud Data file format
VERSION 0.7
FIELDS x y z rgb
SIZE 4 4 4 4
TYPE F F F U
COUNT 1 1 1 1
WIDTH 1255
HEIGHT 1
VIEWPOINT 0 0 0 1 0 0 0
POINTS 1255
DATA ascii
-0.512007 -1.45199 6.0739698 3289389
-0.38317201 -1.49945 6.2472901 2170910
-0.35713801 -1.50029 6.2619901 2039324
-0.309488 -1.5484101 6.45012 1578516
-0.2942 -1.5438401 6.4734998 1314831
-1.54541 -1.0057 4.2656598 7297612
-1.5447201 -1.01283 4.2838998 7232075
-1.53997 -1.01214 4.2800298 7166539
-1.5236501 -1.027 4.3646102 6705989
-0.50282502 -1.42513 6.0334702 3355182
-0.475265 -1.43527 6.0890002 3157803
-0.36306801 -1.5082901 6.38168 1907738
-0.36307701 -1.50832 6.3818402 1907738
-0.33918899 -1.5157 6.38802 1776152
-1.55871 -1.0076801 4.3227201 7231819
-1.5545 -1.0142601 4.3362098 7034954
-0.496916 -1.40771 6.0201998 3355182
-0.45083499 -1.44433 6.1557598 2960425
-0.43695599 -1.44313 6.1781301 2828839
-0.35585701 -1.49175 6.3721199 1907738
-0.28239399 -1.5125099 6.4916301 1183502
-1.56618 -1.00964 4.3585601 7100233
-0.45361799 -1.42462 6.1813998 2960425
-0.38119999 -1.44657 6.2362299 2236703
-0.37551299 -1.43292 6.2360702 2236703
-0.375103 -1.43393 6.2400098 2236703
-0.37551299 -1.43292 6.2360702 2236703
-0.34871799 -1.48558 6.4110198 1842202
-0.33175999 -1.48903 6.4314499 1776153
-0.30115199 -1.49362 6.4534202 1446674
-0.46282601 -1.40053 6.1740499 3026218
-0.38386601 -1.42961 6.2407398 2368032
-0.303965 -1.4744999 6.45575 1512723
-0.37354299 -1.41234 6.2470398 2302495
-0.36116701 -1.4143 6.2539101 2236447
-0.31663099 -1.44617 6.4436598 1775895
-0.305666 -1.45426 6.4556198 1512724
-0.27960101 -1.4704 6.5095 1117452
0.69936299 -1.62139 7.2207098 197379
-1.32831 -1.07631 4.8678498 7168343
-1.25796 -1.07892 4.8705001 7300443
-0.421253 -1.37133 6.2032299 2631460
-0.41183299 -1.3760999 6.20649 2565667
-0.35984901 -1.38274 6.2035699 2302496
-0.336164 -1.39326 6.2708902 2105117
-0.31800401 -1.43477 6.4464402 1775896
-0.29641899 -1.4421099 6.4667802 1315088
-0.28101701 -1.43962 6.4633598 1183245
0.70909703 -1.60453 7.2193198 262915
-1.29364 -1.05106 4.7775402 6707534
-1.30176 -1.06294 4.8653598 6641485
-1.29679 -1.07645 4.8804402 7365721
-1.26188 -1.07357 4.9011002 7365722
-0.414244 -1.36075 6.2139802 2565667
-0.365778 -1.36339 6.20613 2302496
-0.35386199 -1.37236 6.2189999 2236703
-0.33963001 -1.37421 6.2712998 2170653
-0.30562401 -1.42575 6.4549599 1644053
-1.32423 -1.04505 4.8325801 5522233
-1.29265 -1.04952 4.8664699 5785404
-1.2780499 -1.06364 4.8926101 6838863
-1.28227 -1.05546 4.8745198 6246469
-1.2717201 -1.0609699 4.91607 6509641
-1.27347 -1.07156 4.9093299 7233879
-1.26178 -1.06445 4.91504 6904656
-0.522726 -1.30926 6.05407 4275256
-0.45181099 -1.33749 6.1774998 3091753
-0.35672 -1.35375 6.2163 2302496
-0.338956 -1.3523 6.2443299 2170653
-0.30432501 -1.40347 6.44629 1709845
0.71984702 -1.57172 7.2263899 263172
-1.31777 -1.0369101 4.8411798 5456440
-1.29476 -1.03688 4.84201 5456439
-1.2844 -1.03635 4.8683 5390647
-1.28557 -1.0504301 4.9064002 5588283
-1.28993 -1.04553 4.8962002 5456696
-1.2808599 -1.05682 4.9168501 5983041
-0.35847399 -1.33741 6.2196898 2368032
-1.28206 -1.03202 4.8494601 5456183
-1.27062 -1.0371 4.9046202 5324854
-0.49927801 -1.28202 6.07831 3683376
-0.45348001 -1.2974499 6.1518002 3157547
-0.36073199 -1.31083 6.2368498 2368032
-0.36250401 -1.32963 6.3197398 2236703
-0.34404799 -1.34225 6.3555498 2170653
-0.332706 -1.35236 6.3809099 2039323
0.71742398 -1.51399 7.2121201 197379
-1.1280299 -1.0671099 5.0991502 7036757
-1.12602 -1.068 5.13095 6905171
-0.47908601 -1.2733901 6.0943899 3420719
-0.46180201 -1.28124 6.1500101 3223340
-0.36543101 -1.3131 6.3242798 2302495
-0.35435799 -1.31844 6.3269 2302239
-0.35448101 -1.31815 6.3269901 2302239
-0.33942199 -1.33209 6.3636498 2105117
-0.348966 -1.32205 6.3410001 2236446
-0.32914999 -1.34084 6.3955498 2104860
-0.200528 -1.42283 6.81636 789001
-0.209282 -1.41866 6.8221402 1051916
-1.12956 -1.0694799 5.1622901 6707791
-0.46063301 -1.26033 6.1194201 3289389
-0.438054 -1.26843 6.1562901 3026218
-0.342511 -1.31794 6.3821802 2170909
-0.352613 -1.30985 6.3688698 2301982
-0.32723299 -1.33591 6.4716401 2038810
-0.20091601 -1.40793 6.8356199 788745
-0.210326 -1.40317 6.8373699 1051661
-1.08017 -1.05301 5.1914701 5917762
-0.53501397 -1.23043 6.0432501 5393476
-0.48952499 -1.2414 6.08463 3749426
-0.466429 -1.2420599 6.1174302 3420718
-0.46104401 -1.2488101 6.1350999 3289389
-0.434609 -1.25834 6.1786399 2960424
-0.44009599 -1.25012 6.1568198 3092010
-0.35575801 -1.2881 6.3604698 2302239
-0.34466499 -1.30018 6.3836598 2236702
-0.347076 -1.29698 6.3758402 2302238
-0.33610901 -1.3142101 6.4258099 2170653
-0.31049699 -1.31144 6.4376898 2104347
-0.298379 -1.3157001 6.44801 1841174
0.72480702 -1.45372 7.17946 263172
-1.66562 -0.94214302 4.7016301 6443079
-1.63572 -0.94768602 4.7108998 6245956
-0.49685699 -1.2256 6.0816498 4012597
-0.47091201 -1.22746 6.1292601 3486511
-0.439078 -1.24237 6.19557 2960425
-0.36024901 -1.27317 6.3828201 2368031
-0.306651 -1.29786 6.4450698 2038554
-0.29568499 -1.30318 6.46067 1709588
0.74189001 -1.447 7.17839 525831
-1.66768 -0.92524099 4.6896801 6574921
-1.64098 -0.93121099 4.7114301 6377285
-1.05636 -1.04791 5.2679801 5325367
-0.48400301 -1.20617 6.1245599 4144183
-0.43350101 -1.22659 6.1866899 3026218
-0.335262 -1.2181799 6.1915898 2434081
-0.33172101 -1.26569 6.4147501 2301982
-0.31638801 -1.28108 6.4509301 2235676
-0.315377 -1.26998 6.45821 2235676
-0.30405599 -1.2847199 6.4594102 2038297
-0.30243599 -1.27039 6.4643602 2038040
-0.29134801 -1.28608 6.4703598 1709332
-0.29034999 -1.27534 6.4860401 1709076
-1.66155 -0.91021198 4.69138 6640458
-1.65765 -0.92777801 4.7561898 6311749
-1.0251499 -1.03811 5.32338 4930353
-0.502078 -1.18163 6.0977201 5064770
-0.497973 -1.19649 6.09833 4670270
-0.45728499 -1.2101099 6.1958499 3354925
-0.456911 -1.20611 6.1739302 3420718
-0.33481601 -1.26082 6.4386501 2236189
-0.32969999 -1.24938 6.4509902 2301726
-0.323176 -1.26531 6.4511399 2235932
-0.29874101 -1.25854 6.4788299 1906711
0.70831102 -1.38752 7.14255 197123
-1.67179 -0.90148002 4.67346 6903373
-0.383329 -1.18738 6.2026701 2697252
-0.30972299 -1.24271 6.4493599 2235676
-0.32210001 -1.23823 6.4542398 2301469
-0.29829401 -1.2368 6.47015 1972504
0.74174601 -1.38794 7.18611 657417
-0.515113 -1.16146 6.1204801 5393220
-0.447826 -1.17326 6.1813598 3551791
-0.42677799 -1.18115 6.2233 2960424
-0.40700501 -1.17643 6.2090802 2828838
-0.38741001 -1.17566 6.2201099 2697252
-0.30830899 -1.22377 6.4411898 2235676
-0.31982699 -1.21804 6.44701 2301725
-0.320941 -1.20474 6.4025202 2301982
-0.29639801 -1.21586 6.45153 2038040
-0.29834399 -1.21866 6.4705901 1972247
-1.6504101 -0.89067602 4.7456899 6508872
-0.46468499 -1.15083 6.18613 4341305
-0.444105 -1.1634001 6.1970201 3486255
-0.42791301 -1.16756 6.2312498 3091753
-0.314062 -1.19515 6.4211001 2301981
-1.65994 -0.86701697 4.7248402 6772043
-1.66105 -0.86928803 4.7344899 6706250
-0.47972 -1.13955 6.1806598 5064769
-0.38049299 -1.17721 6.3777399 2565410
-0.36190799 -1.16696 6.36415 2499617
-0.296011 -1.18167 6.41571 2170138
-0.302937 -1.17163 6.39854 2301725
-1.25572 -0.85572398 4.7069802 5851200
-1.10952 -0.84658802 4.6814098 5653821
-0.47726101 -1.12439 6.18785 5064769
-0.36311799 -1.14347 6.34201 2631202
-0.35356 -1.14878 6.3369498 2565410
-0.317074 -1.1633101 6.4119 2433310
-0.298655 -1.16407 6.4162698 2235675
-1.65473 -0.84333599 4.7374902 6837579
-1.6432101 -0.843566 4.7455702 6706250
-1.64483 -0.84800297 4.7638001 6640457
-1.1173199 -0.84635198 4.7376699 5653821
-1.07766 -0.84144402 4.7454901 5653821
-1.07096 -0.84677303 4.7607598 5588028
-0.370323 -1.13089 6.3070102 2696995
-0.38266501 -1.1259 6.2765002 2762532
-0.36365899 -1.12005 6.3195901 2696739
-0.355358 -1.12923 6.3358998 2630946
-0.309158 -1.13337 6.38592 2498590
-0.30166599 -1.14282 6.4029398 2301468
-0.29262301 -1.15242 6.4268899 2038039
-1.10939 -0.82598001 4.7037401 5785406
-1.10461 -0.838139 4.7421298 5653822
-1.07568 -0.84280401 4.7868299 5588028
-1.06991 -0.84534401 4.8119302 5588028
-1.0629801 -0.85092098 4.8251901 5588028
-0.429627 -1.09758 6.2402201 3683632
-0.37280101 -1.11168 6.3071899 2762531
-0.331846 -1.12612 6.3770599 2564640
-0.30890301 -1.1156501 6.39182 2497820
-0.209932 -1.2129 6.9018998 1971732
-0.184396 -1.21964 6.89326 920330
-1.08213 -0.83029699 4.7849202 5653821
-1.07037 -0.82509297 4.7782798 5653821
-1.06855 -0.83462399 4.8154702 5588028
-1.1329499 -0.80669701 4.7371602 5916736
-1.14145 -0.802163 4.7378302 5916992
-1.11546 -0.80522197 4.7353702 5851200
-1.07096 -0.81597501 4.7904902 5654077
-1.06485 -0.82224298 4.8034101 5653821
-1.63195 -0.79831499 4.7995801 6706250
-1.1294 -0.78315002 4.6528902 5982529
-1.12938 -0.786457 4.7081199 5982785
-1.63818 -0.791363 4.77741 6903373
-1.62606 -0.78754902 4.8027301 6706250
-1.28721 -0.764175 4.64884 6311749
-1.08621 -0.79403198 4.7834802 5851200
-1.64136 -0.77581799 4.7828498 6969421
-1.62984 -0.77933002 4.7885599 6837836
-1.61761 -0.77595699 4.7999301 6706506
-1.09339 -0.77950001 4.7832799 5982528
-1.63622 -0.764884 4.8023901 6903629
-0.18025 -1.10586 6.9279599 789001
-1.61795 -0.74374503 4.7827702 6969421
-0.19820701 -1.09073 6.9258399 1708817
-1.61023 -0.74385601 4.8053002 6837836
-1.61571 -0.74518502 4.84062 6706250
-1.61264 -0.72682297 4.80476 6969422
-1.60598 -0.72592002 4.8322201 6837836
-1.60118 -0.73375499 4.84343 6706250
-1.60979 -0.71768701 4.8175402 6969422
-1.60263 -0.71670198 4.8439999 6772043
-1.59805 -0.72451401 4.8619699 6640714
0.65798801 -1.07531 7.24684 197379
-1.60618 -0.70830202 4.8290701 6903629
-1.69361 -0.69018799 4.8092299 7166800
-1.59375 -0.69860601 4.86485 6772043
0.67386198 -1.03653 7.2106099 263172
-1.707 -0.66653198 4.7579899 7495251
-1.59148 -0.68526202 4.8654699 6772043
0.65394503 -1.01266 7.2474999 197379
-1.70209 -0.658158 4.7726102 7692629
-1.68406 -0.64578903 4.7431898 7955288
-1.6593 -0.64073497 4.6900301 7889752
-1.56476 -0.67289799 4.8659902 6772043
-1.56554 -0.67340702 4.8660202 6772043
-0.23938701 -0.946778 6.9386501 4535856
-1.66427 -0.63315099 4.67588 8021081
-1.68736 -0.64439601 4.7684898 7955288
-0.195237 -0.910824 6.9225202 2037268
0.68320698 -0.95880699 7.2171602 262915
0.68259102 -0.94824302 7.1990299 197122
-1.59061 -0.63826001 4.90516 7692628
-1.55286 -0.62675798 4.8878398 7626579
-0.18772601 -0.901824 6.9469099 1380110
-1.36071 -0.689125 5.4077501 6311235
-1.20183 -0.68142802 5.41008 6114113
-0.18802001 -0.88176602 6.94208 1380110
-1.39135 -0.664671 5.3743401 6837577
-1.38983 -0.66363698 5.3538399 6837577
-1.1998399 -0.66546899 5.3938599 6179905
-0.213957 -0.82343203 6.9275398 3155231
0.59488302 -0.75884998 7.07096 197122
0.59633303 -0.76520997 7.1205101 197122
0.553657 -0.73809099 7.0513601 197378
0.57801998 -0.73891401 7.0584102 262658
-0.209581 -0.6997 6.9302902 3155232
-0.198778 -0.68694401 6.9388399 2234389
0.56383002 -0.69362098 7.0079899 1117709
0.576451 -0.70716798 7.0561199 1117708
0.597431 -0.71054 7.07727 1249038
-0.188815 -0.68232101 6.9751 1314573
0.54118598 -0.67900902 6.9878201 1249037
-0.18649 -0.64159501 6.9495101 2103062
-0.19068199 -0.61562699 6.9595098 2300183
-0.21096601 -0.51264399 6.9464102 3812648
0.84391499 -0.031051001 3.4305899 5976093
0.85385901 -0.030955199 3.42925 5319194
0.85224998 -0.038142499 3.4235301 6896422
0.87034601 -0.0309253 3.43347 6107938
0.88002598 -0.030874601 3.4333301 7028265
0.849756 -0.023239899 3.4296899 3346181
0.85876399 -0.023207299 3.43048 3215111
0.86692101 -0.0232308 3.4317701 5845796
0.87542701 -0.0232412 3.4330101 6831145
0.83786398 -0.018200699 3.43082 5779229
0.84515202 -0.0155745 3.431 4793108
0.86238903 -0.0155821 3.4316499 5517345
0.87169099 -0.0155633 3.4316299 6634537
0.87643498 -0.0160709 3.4389501 6896679
0.87524903 -0.015730901 3.4372301 6831144
0.878232 -0.015733499 3.4360199 6896679
0.825571 -0.0103463 3.428 6436384
0.83523798 -0.0020768901 3.4305301 6108194
0.83434403 -0.0103656 3.4282999 6173729
0.84440899 -0.0020632399 3.4312799 5384987
0.86176199 -0.00278639 3.4338601 5845793
0.85847598 -0.0080603398 3.43121 5254172
0.87179899 -0.010279 3.43366 6765865
0.87278599 -0.0094251297 3.4375701 6765608
0.86555499 -0.0094237002 3.4345801 6371623
0.87711698 -0.00284098 3.4317999 6831144
0.82148898 -0.00167481 3.42609 6436385
0.82143098 -0.00172762 3.4261601 6436385
0.83196402 0.0054619801 3.4284401 6436902
0.83191699 0.0054544099 3.4284501 6436902
0.82522398 0.00561686 3.4244699 6436643
0.825261 0.00561606 3.4244201 6436643
0.84890902 0.0057622902 3.4321401 5384986
0.86621702 0.0048774802 3.43349 6502952
0.82840103 0.0130562 3.42681 6699816
0.84454101 0.0132696 3.4307201 5384986
0.34493801 0.0224475 3.36233 7159339
0.770284 0.021149401 3.42294 7028007
0.77752799 0.021132 3.41958 6896678
0.81374902 0.020646401 3.42609 6699557
0.850025 0.020520899 3.4296601 5319194
0.76492298 0.028532401 3.41854 6896678
0.79233903 0.0277947 3.4216499 6633507
0.78943902 0.0286163 3.42015 6633763
0.80196702 0.027789799 3.42226 6502178
0.81458098 0.034776598 3.4189 6831144
0.75533998 0.037151199 3.41553 6962214
0.80915099 0.043074202 3.4173701 6896679
0.39865601 0.045765799 3.3838401 7356458
0.405278 0.049098499 3.38766 7224872
0.803725 0.051403299 3.41482 6962472
0.84897 0.0499398 3.4295499 5450523
0.40379199 0.0540637 3.3790801 7422251
0.84533203 0.0573567 3.4277 5450779
0.86193597 0.0592722 3.4307301 6502951
0.87096298 0.0592249 3.4291799 6765608
0.84587401 0.0728596 3.4266901 5516572
0.86161703 0.0734974 3.4301801 6700073
0.815027 0.0825423 3.4298899 6634021
0.83599901 0.089299999 3.4246399 5581851
0.86925 0.089337997 3.43027 6896935
0.84049898 0.097184099 3.4240601 5779230
0.82948601 0.105667 3.4238901 6042143
0.836169 0.104783 3.4235799 5844766
0.83342201 0.113391 3.4252901 5910558
0.868442 0.116397 3.4260199 7028008
0.686041 0.118953 3.3987601 6765092
0.83941698 0.121043 3.4246299 5845278
0.829027 0.136784 3.4242201 5910558
0.83473903 0.14625099 3.42343 5845278
0.864829 0.13942599 3.4268501 7028263
0.39505199 0.15097401 3.3666899 5845021
0.85570902 0.15358099 3.4256799 7094057
0.86152297 0.150436 3.42857 7094056
0.390279 0.15904699 3.3667099 5647900
0.51586801 0.163213 3.37832 7225128
0.82462001 0.161513 3.4231701 6041886
0.85562903 0.16109499 3.4258599 7094058
0.39500001 0.16752701 3.36308 5582107
0.84902799 0.174187 3.4218199 6699559
0.85249698 0.167659 3.42418 6962473
0.86213201 0.167759 3.4257801 7094056
0.39032301 0.175543 3.3645501 5779230
0.52749598 0.17703401 3.378 7093798
0.82710898 0.18567599 3.4198699 5844765
0.85717398 0.18940701 3.4235499 7094058
0.32252201 0.19873101 3.35184 7094056
0.36201 0.19656099 3.3566999 6962471
0.37066501 0.196476 3.35851 6831144
0.54716599 0.19949 3.3696301 6765350
0.54588002 0.19953699 3.3715 6765350
0.846035 0.200371 3.42046 6765353
0.31279901 0.20692299 3.3506601 7028779
0.32225901 0.20696899 3.3506601 6963243
0.332811 0.207625 3.3610899 6897451
0.37385699 0.207957 3.3615899 6437673
0.47579801 0.20663799 3.3703001 6896678
0.484532 0.206035 3.3717 6831143
0.662287 0.21073399 3.39066 6963500
0.66733497 0.21062499 3.3989201 6897707
0.847 0.207763 3.4210801 6897452
0.85749102 0.20769601 3.4182999 7028781
0.908167 0.20976 3.4290199 7093800
0.92508799 0.209819 3.42156 7093799
0.32823199 0.215905 3.3638599 9728351
0.438117 0.216259 3.3663001 7159849
0.45224899 0.214802 3.3704 7094056
0.84514099 0.215819 3.4177699 7886149
0.864609 0.215785 3.4147401 8346185
0.87510401 0.217683 3.41188 9728352
0.88053501 0.221541 3.42242 10781555
0.94014102 0.217296 3.43028 7093800
0.25551701 0.225086 3.3596201 10913655
0.28887999 0.223426 3.3513 10782584
0.33383 0.22458901 3.3721299 10716536
0.79532498 0.23015399 3.4110899 11045759
0.80914199 0.222847 3.41114 10453365
0.86140001 0.22367699 3.4186299 10979707
0.88050097 0.22996201 3.4296899 10979965
0.245462 0.229241 3.3504601 8543561
0.29152599 0.231831 3.3577499 10651514
0.31041101 0.23139 3.35426 10651258
0.339443 0.232724 3.3706701 10585722
0.96116501 0.23903 3.43483 7093800
0.42414099 0.24426 3.36832 6831143
0.42421001 0.24383999 3.3680601 6831143
0.71455997 0.247198 3.39414 7159591
0.79477698 0.24515501 3.41117 10980224
0.79469597 0.245151 3.4112101 10980224
0.81569302 0.248238 3.41326 9205615
0.82600802 0.25650501 3.41678 9402481
0.922903 0.255256 3.42751 11045762
0.93958098 0.25416699 3.4270699 11045501
0.97064197 0.25424099 3.4312899 7159592
0.69179797 0.263208 3.3954501 7227703
0.79450297 0.25999099 3.4107101 10848895
0.81214303 0.265744 3.4126301 9336686
0.82206899 0.264054 3.4149499 9336687
0.81588101 0.27258 3.4133899 9336686
0.860906 0.27296299 3.4163799 6899251
0.86887199 0.273002 3.4182899 7162167
0.87038201 0.273191 3.41678 7096374
0.87760198 0.27298999 3.4194701 7951685
-1.68994 0.34426001 4.1574898 11702392
0.28979 0.28080401 3.34534 10782842
0.79722899 0.280965 3.40907 9796721
0.796574 0.28103301 3.4102399 9862257
0.81614298 0.28159699 3.4128399 9336686
-1.68205 0.35161 4.1659298 11768184
-1.66342 0.35494599 4.19416 11833721
0.80991 0.28938001 3.40995 9336686
0.82084399 0.289437 3.4133601 9533552
-1.97202 0.34466699 3.97209 11636601
-1.96394 0.35125899 3.97943 11636858
-1.68628 0.35680401 4.1373701 11833720
-1.6843899 0.36531299 4.1667399 11899513
-1.66152 0.366905 4.2441702 11899513
0.288257 0.292676 3.35022 10848378
0.79643202 0.296987 3.40769 9533550
0.80543101 0.297043 3.4091401 9402222
0.82531101 0.296579 3.41117 9730674
0.98258001 0.30500001 3.4345901 7159849
-1.98452 0.35393199 3.9478099 11636601
-1.98383 0.36164901 3.9668601 11702394
-1.73362 0.371135 4.16329 11899513
0.80347902 0.30695999 3.40766 9271150
-2.00049 0.35963801 3.8685801 11702394
-1.971 0.36758399 3.9642501 11768186
-1.7290699 0.37560999 4.10113 11965307
-1.68663 0.392818 4.1910701 12228221
-1.68663 0.392818 4.1910701 12228221
-1.68663 0.392818 4.1910701 12228221
0.46739799 0.31503001 3.35937 7093800
0.560978 0.31363499 3.37198 10914431
0.79958099 0.31437501 3.4066601 9336687
0.853127 0.32190201 3.4173 7094314
0.91276801 0.319213 3.4240999 10912883
0.912745 0.319417 3.42432 10912882
-1.99989 0.37601599 3.8735299 11702394
-2.0060101 0.370848 3.9049399 11702394
-1.98919 0.37655899 3.9019401 11768187
-1.97903 0.374782 3.9198101 11768187
-1.9925801 0.38519099 3.98159 11833980
-1.72641 0.39741701 4.1275601 12162685
-1.72465 0.391684 4.1452298 12162685
-1.72653 0.395145 4.1710901 12162685
0.530168 0.321933 3.3689401 10848638
0.66121 0.330147 3.38427 10717566
0.82386601 0.32964399 3.4118099 10586238
0.833745 0.329261 3.4109001 11111295
-1.9920599 0.35475001 3.5539501 11571322
-2.07252 0.38176799 3.83761 11702651
-1.98576 0.38415101 3.9158001 11899772
-1.9884501 0.38325599 3.9433 11833980
-1.98941 0.39348501 3.9663601 11965565
-1.9737 0.39047199 3.9189701 11899772
-1.71202 0.40460199 4.1094098 12294271
-1.7262599 0.40453401 4.1419902 12294271
-1.73256 0.40927699 4.1629901 12359808
-1.72497 0.40865201 4.1724801 12294272
0.33367401 0.33179301 3.3504901 7687740
0.76077998 0.339802 3.39836 7094056
-2.04353 0.36357501 3.54965 11636859
-2.0492101 0.381659 3.7969 11702651
-2.0453701 0.387326 3.8077099 11768444
-2.06464 0.38693899 3.8499801 11702651
-1.99963 0.389884 3.8480999 11833980
-2.00583 0.391121 3.88975 11833980
-1.99709 0.39424801 3.91732 11899772
-1.98614 0.39933401 3.9435301 11965565
-1.72033 0.41981199 4.1399899 12491906
-1.72157 0.42179799 4.17067 12557443
-1.72524 0.42936501 4.2199402 12623748
-1.7121 0.420461 4.2123199 12557699
0.57683098 0.34636801 3.3794501 10848637
0.765163 0.347381 3.3989401 6962472
0.82469302 0.343584 3.40854 10849153
0.85028702 0.34303701 3.4165599 7028779
-2.02512 0.372183 3.5397601 11768444
-1.98452 0.36675701 3.5480101 11702652
-2.07077 0.389882 3.73278 11768444
-2.07622 0.38742301 3.7644999 11702651
-2.07514 0.38853699 3.7732799 11768443
-2.04339 0.38738 3.7679601 11768444
-2.0439999 0.38861299 3.77756 11768443
-2.0275199 0.39914599 3.7972801 11834236
-1.9855 0.397012 3.7847199 11899773
-1.98783 0.39631101 3.8167 11833980
-1.98418 0.40366 3.8341501 12031102
-2.00492 0.39899299 3.87536 11899773
-1.99043 0.405884 3.88186 12031102
-1.9947701 0.402365 3.90273 12031102
-1.97043 0.406317 3.9192801 12096895
-1.95827 0.40455699 3.8987899 12162431
-1.71742 0.42730099 4.1537399 12623491
0.44284201 0.34798801 3.3590801 5976607
0.58133501 0.35395899 3.3779399 10848381
0.82527101 0.35845801 3.4071901 10980481
0.92621499 0.355313 3.4179101 11177344
-2.0080099 0.382678 3.5376 11834238
-2.0081401 0.38082999 3.55811 11768445
-2.0723 0.39816099 3.72106 11834237
-2.0704701 0.39790401 3.74804 11834236
-2.0673599 0.40149999 3.7683799 11834237
-2.0357599 0.40033501 3.7633801 11834237
-2.0313599 0.40693501 3.76423 11965565
-1.97934 0.40369299 3.8002601 11899773
-1.9786299 0.41124699 3.8147299 12031358
-1.98619 0.41349199 3.86566 12096895
-1.95364 0.420232 3.8989699 12228736
-1.72549 0.444906 4.1845198 13281422
0.34557399 0.35512799 3.3346 10783101
0.36516801 0.36032 3.3536501 10782842
0.37480199 0.359898 3.3515301 10782326
0.382177 0.360495 3.3557899 8215111
0.76507002 0.36293501 3.3998599 6633764
-2.0195701 0.389983 3.5322399 11900031
-2.0096099 0.38880301 3.54896 11834239
-2.0079999 0.38865599 3.5713401 11834238
-2.0695801 0.405965 3.7343199 11899774
-2.0555699 0.40356201 3.7178299 11899774
-2.0344801 0.41626599 3.7725699 12031614
-1.98015 0.41892001 3.78158 12162944
-1.98198 0.41896299 3.80654 12097151
-1.97926 0.418486 3.8345799 12162944
-1.97962 0.42052799 3.8771901 12162944
-1.93786 0.42718399 3.91417 12360321
-1.9315799 0.42635 3.9005599 12425857
-1.93461 0.43494201 3.9265399 12491650
-1.81218 0.442545 4.0021601 12886920
-1.78123 0.4522 4.1072602 13544850
-1.7497 0.45136401 4.1191101 13742229
-1.7575901 0.45789301 4.1415501 14136987
-1.7254699 0.45959499 4.20227 14203036
0.37511599 0.36807799 3.3513899 10847861
0.37968799 0.36817199 3.35392 9860194
0.82596201 0.37200299 3.4059801 11045760
-2.0207701 0.396097 3.5434201 11900031
-2.02162 0.40284401 3.55564 11965824
-2.05422 0.41603801 3.71911 11965823
-2.0529399 0.41886601 3.7414999 12031615
-2.0310299 0.421224 3.75525 12097407
-1.96329 0.42419499 3.7562499 12228736
-1.97982 0.426898 3.79231 12228993
-1.97905 0.42659199 3.8213899 12294529
-1.97521 0.43402001 3.8353 12426115
-1.92178 0.44137001 3.89555 12623492
-1.91677 0.43823001 3.8877101 12557699
-1.84869 0.44867799 3.9999199 13215629
-1.85026 0.456278 4.0532298 13610386
-1.84062 0.456664 4.06248 13610899
-1.76942 0.458345 4.11831 14070938
-1.76999 0.45829001 4.1198902 14070937
-1.75955 0.465911 4.1581402 13873815
-1.75112 0.46974501 4.1685901 13150092
-1.74256 0.46675801 4.1824598 13676436
0.401557 0.37645799 3.3557 6962985
0.92720002 0.38105899 3.4188499 11177344
-2.02561 0.40291199 3.53526 11965824
-2.0784199 0.421729 3.6886101 12097408
-2.0497601 0.42816201 3.71926 12163201
-2.0197201 0.429575 3.7546301 12228736
-1.94845 0.432612 3.7623401 12360578
-1.9563 0.43920001 3.78198 12492164
-1.96936 0.43731701 3.81884 12426371
-1.9699399 0.44050899 3.84782 12557700
-1.91241 0.44527799 3.8689699 12886664
-1.93031 0.44744599 3.9165001 12886664
-1.84363 0.46861699 4.0595298 14071450
-1.79181 0.46919599 4.0876498 13413520
-1.77449 0.46618 4.10776 13808022
-1.77051 0.472949 4.12046 12360576
-1.76455 0.473254 4.1465702 12491906
-1.75901 0.48061201 4.15734 11307889
-1.7494 0.479655 4.1478701 11307888
-1.73869 0.47913301 4.1646199 11242096
0.230354 0.382211 3.3371999 7225385
0.302683 0.38514599 3.34672 10848376
0.347828 0.38325101 3.3417499 10123623
0.34846899 0.38315701 3.3424201 10123880
0.379177 0.38474 3.35515 9200977
0.76516199 0.39363199 3.3975 5976606
0.80129302 0.39433399 3.3991301 9730417
0.82497102 0.39342099 3.4051299 11046017
-2.11199 0.41157201 3.4951701 12031615
-2.10905 0.410907 3.5213399 11965824
-2.1069801 0.41490999 3.5479 12031616
-2.10184 0.42190501 3.5571599 12097408
-2.05018 0.42366001 3.5552299 12163201
-2.0367999 0.41694099 3.5617199 12097408
-2.03039 0.42086601 3.57757 12097664
-2.0875001 0.43672299 3.7031801 12294530
-2.06654 0.43550199 3.71596 12294530
-2.0553899 0.44104999 3.7246499 12294786
-2.0306101 0.440144 3.7264299 12294786
-2.02052 0.43929499 3.7362001 12295042
-1.97806 0.45197099 3.8354001 13018508
-1.9449199 0.445445 3.79231 12886665
-1.83907 0.481148 4.0672102 11900025
-1.82806 0.482476 4.0865502 11636853
-1.78766 0.47634199 4.0997901 12031355
-1.7654001 0.487084 4.1167002 11176302
-1.7671 0.48027 4.13309 11307889
-1.74437 0.48598501 4.1305499 11176303
-1.7334 0.49193799 4.1648202 11110510
-1.71435 0.494885 4.18787 11110510
-1.69854 0.49205899 4.23002 11110765
0.28915599 0.39798 3.33901 10980221
0.380844 0.39296401 3.3558199 7028522
0.70586503 0.40061301 3.39224 6962727
0.91584301 0.40624201 3.4184799 11044469
-2.18383 0.39565301 3.2809 11702653
-2.18308 0.39538601 3.3077099 11702653
-2.18591 0.40336701 3.32251 11768446
-2.2528999 0.42409101 3.4958999 12031616
-2.2425599 0.42456201 3.5041299 12031360
-2.12953 0.422414 3.4904399 12097408
-2.10571 0.42479399 3.5042601 12163201
-2.1115201 0.42424399 3.5385599 12097409
-2.1057799 0.42759001 3.5469401 12163201
-2.0824499 0.45072901 3.7105501 12557957
-2.06674 0.444493 3.7057099 12360579
-1.93106 0.466757 3.8791699 14268573
-1.90481 0.45671701 3.82108 14005658
-1.8549 0.49512699 4.0824099 11242096
-1.84227 0.49508801 4.0882401 11307888
-1.82951 0.496288 4.1067901 11242095
-1.80261 0.492039 4.1132898 11242095
-1.74037 0.49334899 4.14255 11176046
0.303137 0.40122899 3.3458099 10255210
0.81861699 0.40789601 3.401 10914688
-2.1958599 0.41254199 3.3169799 11834238
-2.1851599 0.40333501 3.2941501 11768445
-2.19629 0.41260999 3.3452899 11900031
-2.1377001 0.42733401 3.48119 12163201
-2.12695 0.43499899 3.4884901 12229250
-2.1244199 0.42976499 3.4998 12228994
-2.12521 0.43555701 3.5152199 12229250
-2.1176701 0.43248999 3.52775 12228994
-2.1008999 0.436986 3.55639 12163457
-2.0771301 0.44420999 3.5864999 12426372
-2.08847 0.45287701 3.67623 12689543
-2.0745001 0.457562 3.7117901 13018764
-2.07761 0.457629 3.7197499 13018508
-1.9987 0.45963001 3.7323999 13808280
-1.92558 0.46281099 3.7460101 14203037
-1.91176 0.46660599 3.7854099 14071195
-1.89851 0.46432501 3.8043301 14203037
-1.90563 0.47260001 3.8231399 13150349
0.30737099 0.410364 3.3461101 8346440
-2.1905701 0.41189 3.2843499 11900031
-2.2570601 0.43590799 3.4872899 12163202
-2.2475801 0.43775201 3.50614 12228994
-2.12043 0.44216001 3.4964499 12360835
-2.12287 0.445254 3.5281999 12360836
-2.1147399 0.44207299 3.5397699 12294787
-2.02794 0.472213 3.7216101 14137245
-2.0216701 0.47483 3.75823 14005915
-1.98725 0.476574 3.7732799 13479570
-1.9300801 0.47831699 3.7857399 12163456
-1.93153 0.471816 3.77175 13479315
-1.905 0.47285399 3.79583 12952970
0.29044601 0.42232099 3.34568 11045755
0.30788699 0.42650399 3.3456299 8148804
0.44980299 0.42295599 3.35045 6042658
0.810516 0.433272 3.39607 10980225
-2.19907 0.42831501 3.3169799 12097409
-2.17153 0.423529 3.2966599 12031872
-2.2575099 0.451361 3.4957399 12295044
-2.2314301 0.44931501 3.50173 12295043
-2.11941 0.456204 3.5143199 13084814
-2.1249599 0.45610699 3.5504899 13018765
-2.0873899 0.46535 3.58441 13939867
-2.0889101 0.46623701 3.64977 13939866
-2.0747399 0.46630299 3.6542001 14005659
-2.0718901 0.46741799 3.6693201 14071452
-2.0600801 0.471784 3.6758299 14203038
-2.0546899 0.47529599 3.69788 14137245
-2.0468099 0.48354301 3.7200699 12821385
-2.0074 0.48207501 3.7311101 12426628
-2.0092001 0.48508799 3.7529199 11966333
-1.9735301 0.486855 3.7695401 11373939
-1.9479899 0.48717701 3.7811899 11242354
-1.92852 0.49083099 3.7853501 11242354
-1.91993 0.488399 3.8071899 11307890
-1.8972 0.48759601 3.8192401 11308146
0.30609301 0.43438801 3.3443899 9202006
0.32740501 0.43509001 3.3485301 7159592
0.78706598 0.43446001 3.3963499 9136990
0.80666202 0.44121799 3.3972399 10980224
0.92386597 0.44332501 3.4107201 10980222
-2.1930799 0.431793 3.30774 12163202
-2.1812501 0.43818399 3.3048799 12229251
-2.1965401 0.439006 3.3512001 12228995
-2.2627399 0.46317101 3.4988501 12558214
-2.2268701 0.46179301 3.5018001 12755592
-2.12708 0.46289599 3.5400901 13742487
-2.09569 0.466364 3.53914 14137245
-2.10641 0.46785301 3.5669701 14005660
-2.0936301 0.470303 3.57493 14137246
-2.06811 0.47648901 3.6384301 13939866
-2.0685599 0.48361999 3.64798 12755592
-2.06619 0.479877 3.6603799 13479572
-2.0539999 0.48392001 3.6816399 12558214
-2.0531099 0.48697999 3.6988399 12163455
-2.03929 0.48762801 3.72665 11966076
-1.9736 0.49489599 3.73019 11111025
-1.9798599 0.49668601 3.75014 11110768
-1.98721 0.498615 3.7660601 11110768
-1.97753 0.49884 3.7741001 11176561
-1.90172 0.49519899 3.80808 11308147
0.30684 0.44276401 3.3443401 8741455
1.0267299 0.45229501 3.42593 6831397
-2.20438 0.44685599 3.3182299 12295043
-2.2048399 0.44694799 3.3189299 12295043
-2.2423501 0.46609399 3.44806 12887179
-2.2402 0.46929201 3.4677899 13150351
-2.2335899 0.47039601 3.4935 13347986
-2.1760099 0.46988201 3.4820099 13939867
-2.1503699 0.47034401 3.48737 13874330
-2.1404901 0.46939701 3.51547 13874330
-2.1340799 0.475613 3.5244801 14071709
-2.1254399 0.471026 3.5338099 14137246
-2.1077001 0.47986701 3.54567 13413779
-2.10585 0.48371601 3.5922999 12952972
-2.0754199 0.48968101 3.63995 11702905
-2.0691199 0.484597 3.6178501 12295298
-2.0529499 0.488199 3.6577899 11637112
-2.0582299 0.49618801 3.6851201 11110769
-2.0402901 0.50186098 3.70471 11110769
-2.0065 0.49738601 3.7118499 11110769
-1.99325 0.4964 3.7221 11111025
0.303018 0.45074001 3.3410201 10519152
0.800111 0.456186 3.39728 10980222
0.92264199 0.46029899 3.4105101 10980223
1.0101 0.46276301 3.4305601 7028521
1.04246 0.460145 3.41874 8017474
1.05106 0.46064699 3.4194901 8478282
1.05647 0.46272501 3.41799 9860193
-2.2065401 0.456036 3.33654 12492421
-2.21682 0.46042401 3.3567801 12689544
-2.1693399 0.471558 3.4586301 14071709
-2.1768501 0.477516 3.47399 14137246
-2.1801901 0.48219401 3.4892199 13742745
-2.1621001 0.47855201 3.5111499 13940123
-2.1535101 0.48326099 3.51983 13347986
-2.1327701 0.48334301 3.54054 13150351
-2.10163 0.49506101 3.6097801 11242355
-2.0967 0.49603799 3.63796 11176818
-2.0801499 0.50292701 3.6412201 11044977
-2.0787799 0.50577497 3.6586599 11044977
-2.0823801 0.49883401 3.6533501 11045232
-2.0621099 0.50143301 3.66431 11110769
0.87135398 0.468054 3.4126799 7753533
0.916354 0.46792501 3.4136701 10914431
1.0230401 0.470175 3.4288001 10978416
1.05751 0.469632 3.4163499 10848377
1.0525399 0.46564999 3.41278 10848118
1.08017 0.47524899 3.4345601 7490875
1.08745 0.47530201 3.43713 6765865
-2.2179699 0.46273699 3.329 12887180
-2.2232101 0.47301 3.3559201 13742745
-2.1949201 0.47909901 3.42801 14005659
-2.17699 0.47981399 3.43681 13742488
-2.17361 0.47945899 3.4492199 13808281
-2.18314 0.490693 3.4793501 12097921
-2.1631 0.491409 3.51298 11966078
-2.1417799 0.490922 3.5413499 11834747
-2.13341 0.49170101 3.55123 11702905
-2.12638 0.49995601 3.5661299 11045232
-2.1047699 0.49872601 3.5761001 11044976
-2.1043899 0.50554001 3.5995901 11045233
-2.09044 0.49893501 3.58251 11044977
-2.09673 0.505665 3.6112599 11045233
0.41310099 0.47071701 3.3514299 8082752
0.86165398 0.475912 3.40815 11044984
0.87707603 0.48062399 3.4096899 11045502
0.88196403 0.48203501 3.4170799 10980222
0.88286197 0.47612801 3.4170499 11111036
1.04786 0.47303301 3.41344 10782843
1.05714 0.47822499 3.42396 10782844
1.08926 0.48198199 3.4410801 6765607
-2.23136 0.478643 3.3456199 13808795
-2.2350199 0.482209 3.3724799 13676952
-2.2325699 0.48221299 3.38518 13676952
-2.22592 0.480712 3.3916199 13808537
-2.1884699 0.492634 3.4293799 11439993
-2.18837 0.49144 3.4448199 11702907
-2.1707799 0.48977801 3.4518499 11768957
-2.17783 0.50291699 3.5018599 10913649
-2.18279 0.50453198 3.5148201 10979441
-2.14487 0.5011 3.5329599 10979439
-2.14991 0.50715297 3.5479 10979440
-2.1416299 0.50478798 3.55776 10979440
0.85397702 0.48556101 3.39253 10914432
0.87344998 0.481516 3.39572 10980222
1.0857 0.49332899 3.4389999 6569000
1.09024 0.48952901 3.4431601 6699814
-2.2130401 0.49650699 3.3963201 10979698
-2.2033601 0.49581999 3.4065399 11045234
-2.19292 0.49489501 3.41662 11045234
-2.1744499 0.50151098 3.42593 10781807
-2.1854 0.503456 3.4567101 10782064
-2.1768401 0.50314802 3.47627 10847857
-2.1724701 0.50805598 3.4987199 10847857
-2.1756301 0.50954598 3.5107901 10913649
0.40208101 0.48667401 3.3455501 10848377
0.65488201 0.49128699 3.3751199 10783102
1.03185 0.49763799 3.4273701 10717052
-2.2429399 0.496373 3.37445 11308662
-2.2179599 0.50476497 3.38745 10716271
-2.2053699 0.50643802 3.39663 10716526
-2.18156 0.50441802 3.4007599 10716270
0.22572599 0.49694699 3.33529 7028263
0.293309 0.49676901 3.34636 10914428
0.39815301 0.49428201 3.3424499 10782842
0.66036302 0.49902701 3.3743501 10717822
1.01849 0.50939202 3.4226301 8806734
1.0287499 0.50405502 3.42559 10717050
1.09282 0.508708 3.4328799 6568740
0.242792 0.50324303 3.3268001 7028777
0.31636599 0.50493997 3.3270099 10914426
0.36349899 0.502846 3.3294699 10914171
0.37950099 0.50483102 3.34952 10848380
0.60115498 0.50756502 3.37146 5976864
0.69084501 0.50863302 3.37905 9399903
1.0240099 0.51174802 3.42418 10716018
1.0510499 0.511186 3.4166 10716795
1.0575401 0.50955999 3.41102 10716795
1.06426 0.51160699 3.42541 10651259
1.06104 0.516563 3.4157901 10387827
1.09163 0.52202499 3.4342 6502692
0.32616299 0.51156002 3.32335 10452588
0.33258799 0.51206303 3.3299 10584175
0.53439701 0.51914901 3.35691 7492420
0.67018199 0.51433599 3.3645301 10519156
0.76547498 0.52283001 3.38556 6699816
1.05124 0.52683699 3.40974 6438186
1.05132 0.52679402 3.4094 6438186
1.06322 0.52488202 3.42362 7491389
1.06893 0.52232403 3.4293699 9400158
1.07621 0.52250397 3.43309 8478284
1.07985 0.529329 3.43486 6437414
1.07986 0.52939099 3.43505 6437414
0.312069 0.51973099 3.31566 6832428
0.537283 0.52695799 3.3462601 5846052
0.54843801 0.52760899 3.3633001 5912100
0.623321 0.53050297 3.3677199 5845793
0.65794498 0.53180099 3.3761001 6174502
0.78737098 0.53101802 3.3917699 6831400
1.0105 0.53843099 3.4203401 6699300
1.02746 0.53587502 3.41871 6568486
1.0398999 0.53542501 3.40819 6568486
1.04637 0.53543103 3.41155 6568486
1.05474 0.53204399 3.4050901 6502950
1.06273 0.53117597 3.4019401 6437413
1.08349 0.53602397 3.43595 6371107
0.247703 0.524984 3.3266399 6897190
0.38858199 0.52554703 3.3300099 6897193
0.65762901 0.53246999 3.37256 6042916
0.65496999 0.53877902 3.3742499 5911072
0.66803199 0.532938 3.3745699 6372137
0.67396301 0.53323299 3.3794301 6240295
0.78392601 0.53780699 3.3902299 6830885
1.05871 0.54065597 3.4144499 6502435
1.06287 0.54169798 3.41852 6502435
0.35998499 0.53683501 3.3413799 6962470
0.50709099 0.55194902 3.3571999 6502436
-1.73875 0.70917499 4.2511902 10912875
-1.74383 0.71569997 4.2776499 10912875
-1.7151099 0.71500897 4.2761302 10912875
-1.74187 0.70220798 4.1702499 10978924
-1.7397 0.710006 4.1841698 10912876
-1.74936 0.72054601 4.24369 10847083
-1.73962 0.72481602 4.26123 10716010
-1.7107199 0.713642 4.1965299 10847083
-1.7032 0.717614 4.2233601 10716010
0.74613702 0.57745802 3.3782899 6831141
-1.7404799 0.71812701 4.1704998 10781547
-1.73261 0.72368002 4.17135 10650475
-1.72746 0.72315001 4.1922002 10716010
-1.71501 0.739452 4.2734799 10059110
-1.71674 0.74027503 4.2820401 10058853
-1.70377 0.74432302 4.2926402 9467232
-1.86989 0.68243098 3.8745799 11110511
-1.80277 0.71926302 4.11306 10847340
-1.74379 0.73321903 4.1737499 10453097
0.73186499 0.59222901 3.3733799 6699300
-1.88719 0.68743801 3.8954599 11110255
-1.90249 0.71843898 4.0205002 10978925
-1.84895 0.73551297 4.1217799 10715755
-1.83224 0.73557401 4.12217 10715755
-1.78601 0.73978198 4.1526299 10453098
-1.76975 0.74273801 4.1673698 10190184
-1.71789 0.74855602 4.2293901 8612440
-1.70223 0.76227897 4.26089 3745564
-1.6887 0.762918 4.2758598 3745565
0.55914098 0.599904 3.3554599 6305059
0.72081202 0.60256201 3.3796 6568228
-1.98985 0.67636198 3.75474 10847597
-1.9954799 0.686019 3.7869301 10847340
-1.88405 0.69707602 3.88117 11044719
-1.86445 0.699296 3.89557 11044462
-1.84077 0.71039802 3.90692 10847340
-1.86956 0.72135198 4.0008402 10912876
-1.8998899 0.731287 4.0612102 10847340
-1.86356 0.72806799 4.0160298 10781547
-1.84102 0.74305302 4.1048598 10518377
-1.7916 0.74643201 4.1399999 10124647
-1.77707 0.75299698 4.1530199 9533026
-1.76423 0.75646102 4.16396 8151889
-1.76017 0.75165099 4.1824598 9335904
0.54447502 0.60829401 3.3568799 6633764
-1.99506 0.68615001 3.7600999 10782061
-1.97627 0.69014102 3.7458799 10781804
-1.92224 0.71379399 3.89905 10978926
-1.8615299 0.70888603 3.8813801 10913133
-1.85926 0.71112901 3.89239 10913133
-1.85699 0.71338803 3.90341 10847341
-1.86689 0.72209197 3.96735 10847340
-1.85155 0.721654 3.9353299 10781548
-1.85969 0.73612797 4.0008602 10584683
-1.84433 0.72642601 3.96965 10781547
-1.8742599 0.75123602 4.0896602 10387305
-1.83702 0.75044602 4.0855098 10124391
-1.81327 0.75108898 4.1180701 9993063
-1.7855 0.75430602 4.1237898 9335906
-1.77733 0.75892001 4.1361098 7691854
-1.76342 0.76564097 4.1507401 4271136
-1.75984 0.76595998 4.18362 4336929
-1.73623 0.76922798 4.1845999 3284757
-1.69546 0.778705 4.2291999 5783862
-1.68828 0.77987802 4.2473698 6309948
0.76492202 0.62232101 3.37815 6699298
0.79208899 0.61555898 3.35149 6699298
0.80388099 0.61710697 3.3604801 6765091
0.811149 0.61711198 3.3641601 6764834
0.81984699 0.61788201 3.3728299 6830627
0.89661598 0.62765598 3.3987401 6699299
-1.94327 0.68888497 3.6908 10716013
-1.99137 0.701702 3.7878599 10781548
-1.94348 0.71969903 3.87993 10913133
-1.88678 0.72300398 3.8810799 10847340
-1.87161 0.72296703 3.88592 10781548
-1.862 0.72105199 3.89345 10847084
-1.8487099 0.727157 3.9096799 10650219
-1.86235 0.732979 3.96387 10650220
-1.85807 0.745067 3.9872701 10321769
-1.85855 0.75058502 4.0317702 10190183
-1.8588001 0.74693102 4.0373302 10321513
-1.8576699 0.75476801 4.0514898 9992806
-1.82709 0.75846398 4.0809302 9335906
-1.8223701 0.75810301 4.0998902 9467236
-1.79808 0.76289898 4.1104898 7099720
-1.78009 0.768668 4.1244001 3942686
-1.7640899 0.77219999 4.1359401 3285014
-1.74465 0.77691799 4.1612 3285270
-1.68029 0.79512 4.27211 10649962
0.70625103 0.63234001 3.3743401 7028520
0.73508 0.63045102 3.3685601 7225641
0.74382502 0.62978703 3.36303 7225385
0.75029403 0.63120103 3.3696001 7093799
0.76990598 0.62705499 3.3645201 6896676
0.80837399 0.62082601 3.3533599 6830884
0.82394499 0.62447602 3.3743401 6830884
0.82080698 0.63114297 3.3722899 7028007
0.828013 0.63129699 3.37695 7028006
0.83192903 0.62541699 3.3831201 6765091
0.84936899 0.63215601 3.39237 6896676
0.85582602 0.632312 3.39661 6896677
0.85611397 0.63223702 3.39661 6896677
0.86106199 0.631181 3.39394 6896676
0.86131001 0.63108802 3.3938601 6896676
0.89288998 0.62610602 3.3814299 6765092
0.887003 0.62918198 3.37638 6896678
0.90386599 0.633066 3.3926699 6896677
-2.2005301 0.67504102 3.5708499 10650477
-2.2005501 0.67703301 3.5808301 10650220
-2.20064 0.679048 3.59091 10716013
-2.2019701 0.68122798 3.60163 10716013
-2.1854999 0.68120402 3.6036699 10650477
-2.16838 0.68109602 3.6053801 10650477
-1.94653 0.696594 3.6773801 10716012
-1.97671 0.70648098 3.76021 10716012
-1.96766 0.71106601 3.74579 10650220
-1.98641 0.71726799 3.7880099 10650220
-2.01121 0.73151702 3.88835 10912876
-2.01157 0.73401397 3.9008801 10847340
-1.96286 0.73098302 3.88538 10847340
-1.95275 0.73646098 3.88234 10650476
-1.93384 0.73357898 3.88709 10716012
-1.91721 0.738796 3.8966899 10650220
-1.90027 0.73892802 3.90115 10584427
-1.8886499 0.73944098 3.90854 10518634
-1.8703099 0.75288701 3.98051 9927526
-1.84812 0.735286 3.9233699 10518634
-1.85428 0.76172 4.0349698 9335906
-1.84692 0.77004802 4.0693698 6771009
-1.83267 0.76982301 4.0742898 5916215
-1.81182 0.76655197 4.0799899 5784375
-1.79739 0.76834601 4.0868301 4271394
-1.76099 0.77741599 4.1017098 3219221
-1.7532901 0.78390402 4.13868 4600615
-1.74611 0.78797299 4.1503601 7231303
-1.73668 0.78704 4.1617398 7494219
-1.72803 0.78555101 4.1726799 7823183
-1.66775 0.80112898 4.27422 10715240
0.67095798 0.63787001 3.3812599 6436642
0.71121198 0.63973898 3.3743601 7686191
0.74383199 0.63589102 3.3682899 7488557
0.75630999 0.63407999 3.36411 7225385
0.76317602 0.63199198 3.3680201 7028006
0.81957197 0.63905001 3.37695 7093799
0.80534601 0.63567698 3.3512599 7094056
0.80534601 0.63567698 3.3512599 7094056
0.825064 0.63805097 3.37536 7028263
0.833287 0.63914901 3.3848701 7028263
0.85978502 0.64416403 3.38855 7093799
0.86688 0.64400297 3.3915401 7028263
0.89672202 0.640526 3.3850999 7094056
0.90194303 0.64130098 3.3943 7094056
-2.1895299 0.68538898 3.55477 10519148
-2.1765699 0.69407201 3.5987799 10584684
-2.15955 0.69378 3.6007099 10650477
-2.1598699 0.69599301 3.6098399 10650477
-2.1581399 0.69800299 3.6183 10650477
-2.15962 0.69386399 3.6306701 10650477
-1.96539 0.71054202 3.69047 10650220
-1.95848 0.71581399 3.71841 10584428
-1.94678 0.70469803 3.6911199 10649964
-1.9718601 0.72168303 3.7586 10518891
-1.94955 0.744183 3.88886 10518891
-1.88322 0.76504397 3.9786301 9072992
-1.85795 0.76539499 4.0131898 8283733
-1.841 0.77448398 4.0205498 3876893
-1.7919101 0.77529401 4.0694299 2824721
-1.76136 0.77793097 4.07161 3482394
-1.74807 0.78306299 4.0773902 6244668
-1.75213 0.79214799 4.1247201 9072990
-1.74902 0.79725802 4.13976 10059111
-1.7243299 0.79741901 4.1765299 10584424
-1.69361 0.79560298 4.17875 10912875
0.68666703 0.64574802 3.37362 6831142
0.69577998 0.64215499 3.37448 7094057
0.73948801 0.64305699 3.3675799 7159591
0.75115103 0.64151597 3.3646901 7093799
0.759152 0.63971502 3.36062 7094055
0.80376101 0.64656103 3.36551 6765091
0.81723702 0.64659703 3.37936 6830628
0.81092501 0.64643002 3.37499 6765091
0.82993197 0.64560699 3.3816099 6896677
0.83838803 0.64683199 3.3919499 6896677
0.84279197 0.65361702 3.38973 6699297
0.84923398 0.64563102 3.39136 6962470
0.85742098 0.650491 3.38499 6699298
0.865439 0.64997399 3.38643 6699298
0.87098902 0.65052998 3.3881299 6699298
0.88244301 0.64864397 3.38359 6699298
0.89444703 0.64680499 3.3817699 6699298
0.897053 0.64818501 3.3895099 6633762
-2.1863201 0.68925899 3.54059 10453355
-2.09589 0.669402 3.4273801 10322026
-2.09498 0.66150099 3.41359 10256490
-2.1050601 0.68700498 3.5066299 10453098
-2.08864 0.68684101 3.5081799 10453098
-1.98373 0.721156 3.71597 10584427
-1.95841 0.72387302 3.73209 10518635
-2.0000801 0.75553799 3.88674 10387305
-1.97782 0.75836003 3.88873 10255976
-1.96271 0.75348002 3.90119 10387305
-1.94302 0.76176602 3.9091799 9927270
-1.91243 0.75753498 3.9216001 9927013
-1.86858 0.776142 3.9972899 4534565
-1.85957 0.77379698 4.0076699 4732200
-1.82804 0.779468 4.0262499 2890771
-1.79948 0.78135198 4.0323 3087894
-1.7773499 0.78069299 4.0474801 3679517
-1.75056 0.790766 4.0651698 9533026
-1.75071 0.78417701 4.0475702 7099718
-1.75161 0.80000198 4.1104398 10453097
-1.73972 0.804874 4.15626 10518630
-1.73155 0.81163502 4.16537 10781030
-1.714 0.80852199 4.1764798 10780774
0.0286049 0.64948899 3.3167601 7225642
0.0306536 0.649266 3.3175399 7159849
0.57101798 0.64900798 3.3619699 7159590
0.59929103 0.64878702 3.3589001 6831141
0.609047 0.649073 3.3606 6699814
0.73399401 0.65286702 3.37589 6896420
0.74890798 0.650123 3.36797 6830627
0.81409699 0.65324998 3.3770599 6765091
0.84075099 0.66105801 3.3916199 6567969
0.86343497 0.65612501 3.38205 6699298
-2.0911801 0.65328097 3.28442 10190697
-2.07499 0.64368498 3.2644501 10256233
-2.1066101 0.66305 3.33429 10256234
-2.1861401 0.693331 3.52881 10387563
-2.1076801 0.67513102 3.4044499 10256233
-2.0964301 0.67719299 3.4133999 10256233
-2.16768 0.70689398 3.5938499 10584684
-2.1659999 0.70890999 3.60199 10584427
-1.9974999 0.736413 3.7268 10387305
-1.97932 0.736099 3.72946 10387306
-1.97707 0.74227297 3.7431099 10190185
-1.99734 0.76305199 3.8726799 9993063
-1.99446 0.76209998 3.8572099 9927270
-1.97033 0.76837701 3.8892701 9599076
-1.9543 0.76419801 3.90048 9796197
-1.93514 0.77556902 3.91114 7362891
-1.9104 0.773601 3.92768 6836547
-1.8609999 0.77692997 3.9231999 3350809
-1.85434 0.77807099 3.94994 3285016
-1.84817 0.78280199 3.9630201 2956309
-1.82775 0.787889 4.0050502 3745566
-1.8121001 0.78301799 3.9696701 3548189
-1.8164001 0.78799999 4.0114899 4140067
-1.8049099 0.78811198 4.0177698 4929581
-1.79186 0.79365599 4.0248699 8612699
-1.7967401 0.79086101 4.03829 6507841
-1.7519701 0.792153 4.0344801 9993319
-1.75181 0.79941797 4.0534801 10387304
-1.74874 0.80725402 4.0938401 10518118
0.033348002 0.658149 3.31635 7159848
0.0324516 0.65618402 3.31107 7291434
0.61726499 0.65755701 3.35656 6699813
0.62771499 0.65845197 3.3607299 6567971
0.65198302 0.66805297 3.37098 6370849
0.81484598 0.66501802 3.39609 6502176
-2.17202 0.70137399 3.5262401 10322026
-2.08113 0.68304402 3.4198599 10190440
-2.10868 0.70364898 3.5249901 10387562
-2.0016999 0.75382 3.7705901 9992806
-2.0115399 0.76141202 3.83322 9927269
-2.0045199 0.77490699 3.8655901 9270370
-1.9986399 0.77326399 3.8468599 9270114
-1.99646 0.77590799 3.87308 9139042
-1.97052 0.779203 3.8782001 7297611
-1.93689 0.77903003 3.8797801 5258287
-1.8997999 0.78207302 3.9125099 3548186
-1.85242 0.77820802 3.9145899 3022102
-1.84728 0.78600001 3.93223 3350810
-1.8318501 0.78992999 3.94628 5126448
-1.8270299 0.79219699 3.9577799 6113340
-1.80778 0.79552299 3.9686201 9007455
-1.80905 0.79919899 4.0114102 9072220
-1.79851 0.79949701 4.0181999 9730148
-1.79566 0.80135 4.01301 9861218
-1.79939 0.79965901 4.0187402 9730148
-1.78562 0.79939502 4.0235901 10190440
-1.77748 0.80430597 4.0344801 10255461
-1.75049 0.80682403 4.0675201 10452581
-0.114114 0.67162299 3.3419001 8146739
-2.10495 0.66994298 3.29054 10124904
-2.1217999 0.68030399 3.3425701 10190441
-2.0822799 0.69092101 3.4063101 10124648
-2.1217899 0.71445203 3.5067 10255976
-2.1108501 0.71477902 3.51248 10321513
-2.10797 0.71803802 3.52843 10321513
-2.1331899 0.74110699 3.6746299 10387561
-2.1203899 0.74401599 3.6828101 10321769
-2.00739 0.76535398 3.7560999 9532771
-2.0064001 0.765966 3.79161 9533283
-1.9627 0.77591097 3.80586 6705477
-1.9802901 0.78044802 3.8679399 7297612
-1.9297 0.78382403 3.8952401 3679516
-1.86411 0.79022503 3.9107599 4074017
-1.86015 0.790654 3.89486 4666666
-1.8453 0.79259199 3.9026599 6770756
-1.84118 0.79404497 3.9150701 7428427
-1.83368 0.79926503 3.9331701 9664355
-1.8350101 0.802827 3.9486699 9730146
-1.81789 0.80358499 3.9588399 10124390
-1.80898 0.80307901 3.98224 9927267
-1.80793 0.80659598 3.9853599 10058082
-0.113509 0.68097502 3.3409901 7949360
-0.110367 0.676018 3.34954 7619880
-0.108672 0.67645597 3.34814 7619624
0.52081901 0.68111998 3.34763 6962212
0.57111198 0.68177497 3.34622 6896419
-2.10202 0.677046 3.27635 9993318
-2.1097901 0.67918497 3.3124001 10190184
-2.1477001 0.71592599 3.5041699 10190440
-2.08302 0.69879401 3.4200201 10124648
-2.07514 0.72875798 3.55107 10255976
-2.11992 0.74818099 3.6574099 10190440
-2.1240001 0.75246203 3.6732399 10190183
-2.1156199 0.75648099 3.6826501 10124390
-2.0318301 0.75469297 3.65926 9861476
-2.0160501 0.76195598 3.7170501 9598563
-2.00315 0.75942898 3.71627 9664356
-1.9786 0.77615899 3.7983201 7428685
-1.96491 0.78378499 3.8220601 4140065
-1.9552799 0.78282398 3.8322899 4074272
-1.91684 0.78639799 3.8439901 3153430
-1.88272 0.79414803 3.84654 5784377
-1.88122 0.79113698 3.8622701 3613979
-1.85344 0.78838801 3.8610699 4995118
-1.84732 0.794559 3.87358 8612955
-1.85605 0.80423999 3.89764 9993062
-1.8458 0.80504102 3.90766 10058596
-0.11372 0.69047099 3.3403001 7949104
-0.110813 0.686441 3.3489599 7619881
-0.105622 0.68687201 3.34986 7685417
0.56864399 0.69011801 3.34604 6830628
0.57792598 0.69209999 3.35326 6765091
-2.1236999 0.69634801 3.3199501 10058598
-2.1155601 0.68848503 3.3081801 10058855
-2.13463 0.69984198 3.3635299 10058855
-2.1247699 0.70445901 3.3620601 9993062
-2.08531 0.70687902 3.4072499 10124391
-2.0845799 0.71456099 3.4201901 10058598
-2.10763 0.72852999 3.5132301 10124392
-2.08564 0.73194802 3.53181 10124392
-2.07669 0.736884 3.53829 10124135
-2.0734401 0.76096898 3.65558 9861477
-2.0778799 0.76282901 3.6740999 9795941
-2.0479901 0.76379699 3.6813099 9598820
-2.0499401 0.76678598 3.6822901 9467235
-2.03706 0.766904 3.70222 9401699
-2.00894 0.77979201 3.73228 6573633
-2.0011101 0.78152001 3.7428601 5652532
-1.99809 0.78470302 3.7643001 4666153
-1.96565 0.78660399 3.7597599 3087639
-1.95983 0.78748602 3.7749 2956053
-1.95011 0.78655398 3.7857299 3022102
-1.94419 0.78841102 3.79915 3219481
-1.90944 0.78946698 3.7920899 3416859
