# .PCD v0.7 - Point Cloud Data file format
VERSION 0.7
FIELDS x y z rgb
SIZE 4 4 4 4
TYPE F F F U
COUNT 1 1 1 1
WIDTH 1314
HEIGHT 1
VIEWPOINT 0 0 0 1 0 0 0
POINTS 1314
DATA ascii
-0.452481 1.06366 6.4959998 11115661
-0.44269899 1.06567 6.51401 11181709
-0.43857801 1.06205 6.5320501 11773845
-0.43870699 1.06236 6.5339799 11510674
-0.428505 1.06495 6.54775 11510674
-0.28442499 1.0613 6.6132498 10787468
-0.28676501 1.06344 6.6029 10853004
-0.26955599 1.07609 6.39082 10195589
-0.27412301 1.05849 6.6147299 10590346
-0.241552 1.07544 6.3470802 8157559
-0.232585 1.075 6.3476901 4540491
-0.223643 1.0735 6.3428898 3948871
-0.21215899 1.08029 6.2175398 3225147
-0.212069 1.0791 6.2382302 3225403
-0.207132 1.09951 5.9637599 2830387
-0.20529 1.09885 5.95085 2633007
-0.18652099 1.09919 5.8794298 2432537
-0.13507099 1.10544 5.8099298 4272935
-0.112701 1.10746 5.7636399 4404260
-0.115067 1.1026599 5.7845998 4470053
-0.104347 1.10853 5.7687101 4797988
-0.096621901 1.10743 5.7622399 6112557
-0.0885287 1.1055501 5.7554002 7361076
-0.080313101 1.10981 5.7260499 7952185
-0.039200399 1.11312 5.6530299 5257247
-0.041544098 1.1130199 5.6922798 6177575
-0.041615199 1.1138901 5.6520801 5520161
-0.033138599 1.1241699 5.4622798 2892308
-0.0201918 1.12227 5.4527402 13352622
-0.020284999 1.12222 5.4523401 13286830
-0.020353099 1.1214499 5.4534602 13089451
-0.0128533 1.12204 5.4481502 15062725
-0.0131093 1.1210901 5.44877 14931397
-0.0130436 1.1219701 5.4472299 14996932
-0.0176454 1.12778 5.44766 14800068
-0.00340258 1.12816 5.4280701 13549481
0.015935101 1.13504 5.29317 14207412
0.038766399 1.12435 5.4137301 14734012
0.0605921 1.12853 5.38375 15128515
0.0686014 1.13105 5.3948598 14734013
0.078305498 1.12395 5.39573 13747375
0.098133601 1.12033 5.46562 13154983
0.105279 1.12273 5.4688902 12694176
0.113534 1.12824 5.39042 13812656
0.117159 1.12712 5.3795199 13548969
0.125452 1.1372499 5.20397 10385498
0.13667201 1.13621 5.1903901 9990739
0.163211 1.1415499 5.1705399 7821120
0.156865 1.13714 5.17697 8412998
0.21171799 1.13441 5.24123 5848107
0.22285201 1.1355799 5.2298498 8281157
0.22285099 1.1355799 5.2298298 8281157
0.217062 1.1377701 5.2217002 7163192
0.24150901 1.15127 4.9914799 1445390
0.267133 1.1464 5.0373302 1575437
0.274627 1.14958 5.0367699 2299159
0.28163701 1.14446 5.0331602 1904401
0.277078 1.1595 4.8480401 1709072
0.286396 1.16049 4.8385201 11706767
0.291251 1.15871 4.8418598 13482146
0.30200699 1.16177 4.7782502 11178624
0.29913399 1.15846 4.7946301 12954773
0.30316901 1.16246 4.7498899 9007718
0.30674601 1.16548 4.7460299 7560533
0.36288401 1.1674401 4.7268901 1969936
0.36822301 1.16294 4.7251501 4535862
0.37449101 1.16567 4.7212501 5653571
0.37279299 1.16992 4.6646299 4995641
0.393464 1.16866 4.6237302 2563358
0.39347899 1.1686701 4.6238899 2563358
0.41329101 1.17071 4.6170201 1774355
0.41859001 1.17189 4.6071401 3617072
0.42280301 1.17347 4.5829101 3222312
0.43149 1.17232 4.5460901 3420205
0.433956 1.17608 4.5253301 3091241
0.45413101 1.1715699 4.6072698 2762275
0.48207301 1.17703 4.5573802 2039067
0.49051499 1.17135 4.5598302 1184016
0.49724901 1.17138 4.5582199 1117966
0.50392097 1.17645 4.55092 1512725
0.51166999 1.17498 4.5279899 2104605
0.613424 1.17135 4.6454201 2499104
0.62014103 1.17136 4.64393 2104346
0.623676 1.17579 4.57376 2762532
0.63936198 1.17427 4.5451999 2762276
0.69160002 1.1745 4.5750399 2499104
0.69957399 1.1749001 4.5781498 2104347
0.70512301 1.17091 4.5787301 1841431
0.740107 1.17065 4.6301599 1249553
0.76072901 1.1663001 4.6652899 1907483
0.76743603 1.16519 4.6711302 1644054
0.78861499 1.16773 4.6806202 1117970
0.79848498 1.16553 4.6904502 920591
0.80436897 1.17074 4.6237702 2959913
0.84822702 1.16854 4.67061 2236189
0.85872799 1.17235 4.6375699 1250070
0.97381598 1.16742 4.66784 1117968
0.98659301 1.16597 4.67559 1841945
0.99552298 1.16465 4.6902499 2104860
1.0068099 1.16573 4.7129002 2104859
1.02171 1.16739 4.7173901 2499361
0.974298 1.18098 4.4320002 1579027
0.97697502 1.18326 4.37709 10261381
0.98378998 1.18511 4.3814802 10984846
0.97701102 1.18571 4.3505201 10787467
1.0063 1.18747 4.34828 11643034
1.00746 1.18738 4.3171802 11445659
1.01616 1.18581 4.3174601 1841684
1.01448 1.18626 4.3189902 3946802
1.01591 1.18935 4.30301 920842
1.1253 1.1752501 4.51474 657674
1.1119601 1.17993 4.4304299 1447188
1.11467 1.1822701 4.43466 2433825
1.1534899 1.17985 4.48909 1447187
1.2081701 1.17381 4.5836701 4340792
1.5467401 1.16027 4.8398399 12958118
1.54884 1.15955 4.8138299 12234140
1.59111 1.1654299 4.6990099 11313298
1.61756 1.16781 4.6262798 11247504
1.6577801 1.17024 4.6617298 11510674
1.65611 1.1695 4.6566401 11510675
1.65732 1.17037 4.65905 11510675
1.81621 1.19086 4.2647901 11511448
1.8271199 1.18661 4.2730899 10853777
1.83701 1.18777 4.2760901 9735556
-1.08953 1.09418 6.1614599 12497055
-1.08278 1.09026 6.1665001 8681581
-1.07585 1.09589 6.1732502 2694683
-1.0705301 1.09043 6.1969099 2365464
-0.843126 1.08609 6.34444 1972255
-0.834086 1.08281 6.3392801 2365213
-0.82468802 1.08742 6.3333402 6638666
-0.82547998 1.08012 6.3305101 6704718
-0.77569503 1.08076 6.4155202 4331536
-0.76393402 1.07954 6.4177599 7425865
-0.75549501 1.07979 6.4263101 3810857
-0.67590898 1.07687 6.4444799 1512994
-0.67973697 1.0835299 6.4084702 1512995
-0.667135 1.07375 6.46944 1446944
-0.66255999 1.0788701 6.4537301 1578530
-0.619721 1.07432 6.5029101 1578530
-0.62327802 1.07788 6.4906402 1644067
-0.498404 1.07778 6.5166898 3742498
-0.48898 1.0750099 6.5067101 3545632
-0.48405901 1.07205 6.4998798 3480351
-0.44552499 1.07815 6.50945 11181453
-0.437549 1.0693001 6.5378599 11445138
-0.267113 1.08202 6.3853998 10064004
-0.25258401 1.0812401 6.3582602 9932419
-0.24779201 1.07854 6.3497701 9340801
-0.238453 1.08339 6.3491902 6381664
-0.23837499 1.0836101 6.3478599 6315872
-0.225199 1.08566 6.3072 3949128
-0.22172999 1.08878 6.2088599 3752005
-0.225191 1.08562 6.3069301 3949127
-0.214616 1.08901 6.2214799 3225404
-0.194722 1.1081899 5.9129701 2499359
-0.188531 1.10972 5.8900099 2366228
-0.166774 1.1126 5.82621 5389355
-0.120944 1.11031 5.7839398 4207397
-0.111215 1.11575 5.75564 4141347
-0.095018402 1.1155699 5.7529898 4994594
-0.087142698 1.11315 5.74296 6834992
-0.0496138 1.1142499 5.7185102 7492146
-0.043221898 1.12182 5.6601601 5454370
-0.0414345 1.11963 5.6090002 4600349
-0.036051601 1.13175 5.4664302 2563344
-0.0297103 1.1308 5.46174 4207912
-0.023604101 1.1297899 5.4560499 11049869
-0.023689101 1.12887 5.45684 10720904
-0.0235689 1.12988 5.4562001 11115662
-0.017147601 1.12902 5.4481502 14865861
-0.017229401 1.1290801 5.44771 14865861
-0.012512 1.13542 5.44099 14931139
0.0027488901 1.14298 5.2955899 13812908
0.0098513998 1.13943 5.2888098 13878446
0.064450599 1.13737 5.3920498 14931392
0.075344801 1.1314 5.3952398 13944754
0.083140597 1.13134 5.3975501 13221032
0.085542902 1.13732 5.3905802 12826275
0.13022301 1.15008 5.0640001 9135949
0.132974 1.15449 5.08179 9070412
0.141995 1.14913 5.1037698 8807497
0.149937 1.1495 5.12989 8346950
0.15807299 1.1472 5.1765099 8215364
0.22172999 1.14306 5.2086201 8807244
0.230215 1.1537 5.0307598 8742741
0.233487 1.1540101 4.9993701 4337447
0.27451101 1.1552401 5.0265198 2497051
0.28129399 1.1653301 4.8401299 7036498
0.29876301 1.16994 4.8010898 12625808
0.30138901 1.1720001 4.7492099 9204841
0.30183899 1.17076 4.7429299 8744804
0.305769 1.17125 4.7512598 7757656
0.31097299 1.17298 4.7193599 5916229
0.356231 1.16778 4.74647 2759965
0.37211299 1.17347 4.7082801 5719364
0.36910799 1.1706001 4.7177901 5785159
0.382121 1.1761301 4.6835198 4337970
0.40584201 1.17109 4.7010298 2760223
0.41523501 1.17708 4.62082 2366492
0.43262601 1.181 4.5459299 3419693
0.44681501 1.1775 4.58497 2893605
0.475683 1.1772 4.5567698 2236446
0.48639899 1.17374 4.63169 2367775
0.48976299 1.17752 4.5585899 1249809
0.507339 1.18259 4.5468502 1709847
0.509332 1.1813101 4.5516901 1841433
0.51107401 1.18321 4.5208502 2038812
0.600694 1.17625 4.5767899 2564897
0.60857397 1.17628 4.5812302 2499105
0.62733603 1.18186 4.5738502 2565154
0.630189 1.1824 4.5571699 2104346
0.65982902 1.17558 4.5917201 2696483
0.66384 1.18071 4.5911798 2893862
0.69724602 1.18115 4.5865002 2696484
0.70367903 1.18064 4.58565 1972505
0.76799798 1.17334 4.6780801 1578519
0.77284598 1.17198 4.6724 1315347
0.79310298 1.176 4.6775799 1183247
0.79807901 1.1712101 4.6795902 920590
0.85334599 1.1726 4.6670599 1841689
0.84677398 1.17647 4.6606998 2170396
0.85164797 1.1731 4.6547298 1841689
0.85556 1.17642 4.6075401 1052690
0.85374099 1.1774 4.5803399 986897
0.86144298 1.17655 4.5886302 855569
0.85715097 1.1828901 4.5469499 789520
0.97431999 1.17196 4.6691198 1118225
0.99290597 1.17572 4.68717 1776152
0.99727303 1.17331 4.6954799 1907738
1.01531 1.17343 4.7105799 2630947
0.97386801 1.18988 4.41853 1710099
0.97219998 1.18671 4.4252701 1578770
1.00159 1.19317 4.3052101 11972002
1.01275 1.1961 4.2999501 1183756
1.01056 1.19217 4.3123698 7762280
1.11931 1.17941 4.5150599 1578774
1.1203001 1.18326 4.4771299 592138
1.11619 1.18534 4.4303498 2104860
1.22444 1.17747 4.6107302 5721670
1.54898 1.16679 4.8312001 12299933
1.54538 1.1645 4.8161702 12431519
1.53462 1.16879 4.73246 11576469
1.6181099 1.17694 4.6217599 11181968
1.6181099 1.17694 4.6217599 11050381
1.60895 1.17583 4.5799899 11379091
1.65639 1.17689 4.6234198 12234141
1.8002501 1.19434 4.2692199 13353391
1.80477 1.19279 4.2659101 12827048
1.82224 1.19262 4.2723799 10985363
1.8224601 1.19274 4.2727199 10985363
1.82955 1.1926301 4.2685299 10064520
1.84137 1.19496 4.2799201 9340798
1.85043 1.19498 4.2831998 8025452
-1.09045 1.10562 6.1612902 12628640
-1.08179 1.10333 6.1665001 7826016
-1.0657001 1.10456 6.18085 2496797
-0.83176398 1.0929 6.34272 3548968
-0.822797 1.08971 6.3376398 6045757
-0.813806 1.08979 6.3429298 3609357
-0.79947698 1.0876 6.3551202 4923158
-0.78931898 1.08963 6.3818898 8080189
-0.78360802 1.08461 6.4043698 5646367
-0.77031499 1.0884 6.4198799 6568759
-0.76005203 1.08797 6.41641 5913402
-0.74791402 1.0896 6.4203401 2102816
-0.73729903 1.08531 6.4174399 1644579
-0.67490602 1.08709 6.4507098 1512995
-0.66609401 1.08766 6.44982 1840933
-0.52083802 1.08163 6.5325699 3479842
-0.50826597 1.0783 6.53373 3611427
-0.48384801 1.08091 6.5155101 3809570
-0.470209 1.0794899 6.5033398 9338230
-0.46161699 1.08535 6.4960299 10852235
-0.45387501 1.081 6.4947701 11049868
-0.44094801 1.08222 6.53754 11247502
-0.28510299 1.07289 6.68329 11050640
-0.26079601 1.09304 6.3687801 10590346
-0.26552999 1.0934401 6.3610902 10129540
-0.25280601 1.09158 6.3540802 9866627
-0.24357601 1.09144 6.3476701 8354680
-0.243424 1.09053 6.3432498 8288887
-0.22419401 1.09023 6.3404198 3948872
-0.18614601 1.11194 5.8980098 3088920
-0.17836 1.1131099 5.8767099 6113076
-0.154028 1.11515 5.8337402 4272162
-0.14244799 1.12054 5.8357201 4470052
-0.12533399 1.12187 5.8087602 4009761
-0.12966301 1.11698 5.8127098 4141348
-0.119714 1.11957 5.79217 4075811
-0.1016 1.12596 5.7522998 4337695
-0.094464198 1.12284 5.7371998 4994851
-0.084606603 1.12078 5.7327299 6506284
-0.0857348 1.12143 5.7330399 6374955
-0.086696401 1.12613 5.72191 6703919
-0.082730196 1.12453 5.7188601 7361076
-0.047119301 1.12894 5.64257 5126435
-0.052354399 1.13004 5.6438298 5849128
-0.0390939 1.13033 5.6065798 3680023
-0.040442199 1.12822 5.6064801 3877144
-0.027261499 1.13669 5.4563198 8286821
-0.0207559 1.13545 5.4553299 14273725
-0.020341899 1.13627 5.4545398 14470848
-0.020681599 1.13626 5.4538999 14339519
-0.0050818999 1.14481 5.28584 13878702
0.0089541404 1.15022 5.2842002 13944237
0.0147561 1.14798 5.2905002 14273459
0.060940899 1.1423399 5.3808799 14997184
0.079627603 1.1384799 5.3951302 13352361
0.086066402 1.14215 5.40447 12892067
0.139493 1.15517 5.1889701 9398863
0.138822 1.15548 5.0960102 9136202
0.14520501 1.15555 5.1098299 8741704
0.164432 1.15166 5.1704001 7492414
0.216619 1.1489201 5.2167201 7360572
0.22617701 1.1547101 5.1037302 10516831
0.23156799 1.14826 5.2136302 9662036
0.231897 1.15754 5.0444002 9071448
0.23049299 1.15929 5.0869398 10320225
0.228562 1.16027 5.0124102 8216656
0.23120999 1.1604199 5.0929399 10320225
0.23120999 1.1604199 5.0929399 10320225
0.232318 1.16541 4.9987898 4008738
0.237451 1.16021 4.9903302 1642253
0.241528 1.16686 4.9833298 1314573
0.27389699 1.16293 4.9984999 1116682
0.278319 1.16036 4.9841399 985097
0.28106901 1.16653 4.9801602 787973
0.275749 1.17231 4.8508902 1906451
0.28499299 1.1718 4.8353901 12890526
0.290391 1.17001 4.8429098 13481889
0.290391 1.17001 4.8429098 13481889
0.290391 1.17001 4.8429098 13481889
0.297912 1.1772 4.7358799 9468270
0.30054599 1.17978 4.7158198 7692122
0.365733 1.17611 4.7295299 4338226
0.37287301 1.18065 4.6893702 5193020
0.37521601 1.17746 4.6801801 4798262
0.411156 1.18145 4.6307902 1642768
0.417328 1.1828001 4.6111798 3682608
0.422115 1.18453 4.58079 3682863
0.42915499 1.1847 4.5635099 4209207
0.42910099 1.19006 4.53936 3485485
0.43307701 1.18522 4.5248899 3157034
0.485856 1.1831599 4.5576701 1644311
0.49537501 1.1838599 4.5592799 1052174
0.501118 1.1859 4.5384998 1446932
0.60127902 1.18501 4.5813098 2564897
0.61174101 1.1834199 4.64327 2499360
0.61239898 1.18212 4.5808601 2104603
0.63176602 1.18267 4.5673599 2104603
0.63459599 1.1878099 4.5572701 1775382
0.696787 1.1831599 4.59091 2762019
0.69776499 1.18144 4.5898499 2696484
0.70985299 1.18341 4.5911798 1841175
0.71603602 1.18656 4.60007 1775383
0.724904 1.1848 4.6071 1183247
0.75145602 1.18081 4.6584601 1315089
0.76995403 1.18286 4.6693602 1578006
0.77994603 1.18234 4.6771498 1446419
0.781241 1.17846 4.6756902 1315090
0.78815198 1.1807899 4.6756601 1446419
0.78859597 1.18099 4.67802 1446419
0.79298902 1.1805 4.6558399 1972763
0.85127801 1.18083 4.6543198 1907482
0.85690802 1.17795 4.6589098 1578775
0.85545099 1.18173 4.6499 1512982
0.85545099 1.18173 4.6499 1512982
0.85605699 1.18283 4.60849 1118483
0.85736102 1.18451 4.5741501 855313
0.85257101 1.18759 4.5537 855313
0.97140598 1.178 4.6710401 1183761
0.99157703 1.17988 4.69209 1710104
1.00684 1.17577 4.7010102 2565153
0.978145 1.19429 4.38097 10392711
0.97299498 1.19776 4.3404298 11379603
1.00967 1.1968499 4.3601699 11839900
0.99738997 1.19888 4.2971802 12169121
1.01108 1.20122 4.3016901 2301979
1.1222301 1.1889 4.5315099 2236189
1.1242599 1.18663 4.5342798 920844
1.12594 1.18468 4.5222902 657674
1.11145 1.191 4.43082 1249809
1.11782 1.19361 4.4590702 789258
1.54479 1.17144 4.8386302 12892324
1.56511 1.17548 4.7812901 11444627
1.56295 1.17035 4.78861 11707799
1.60707 1.18172 4.5886502 11313553
1.6262701 1.18206 4.6451302 11379347
1.60827 1.1817 4.5865002 11248017
1.80627 1.20286 4.27386 13089962
1.80854 1.2008801 4.2683001 12366498
1.81771 1.20096 4.2721 11379862
1.81976 1.19892 4.2662802 10919569
1.83437 1.1998399 4.2753401 9669762
1.84496 1.20215 4.2819901 8880247
-1.08767 1.11052 6.1581702 11904919
-1.05171 1.10571 6.2288799 2496029
-0.89424503 1.10675 6.2860198 2169381
-0.83602601 1.0980901 6.33779 2365470
-0.82061702 1.0985399 6.3537402 4793888
-0.80054897 1.10209 6.38518 6897458
-0.78396302 1.09664 6.4032798 6501671
-0.77426499 1.0990601 6.4221101 7817533
-0.75653499 1.09647 6.4179902 3940384
-0.74641901 1.0961601 6.4170198 2103073
-0.67879999 1.09445 6.4376702 1644325
-0.66971302 1.09623 6.4439402 1972262
-0.65728801 1.0908 6.4539099 2235176
-0.64803201 1.09156 6.4605398 2365991
-0.63117999 1.09075 6.5011201 1972004
-0.51178598 1.08565 6.5557899 3742498
-0.49053401 1.087 6.5139399 3808033
-0.48326901 1.0939 6.5198002 3940642
-0.46841499 1.09345 6.5102 10062207
-0.28544599 1.0815099 6.66259 10919054
-0.26884601 1.09513 6.4284601 9866625
-0.25119901 1.0956399 6.3610101 9406592
-0.24737801 1.1003799 6.3509698 9012351
-0.237469 1.10088 6.3499999 5132114
-0.227339 1.09825 6.33429 4080201
-0.221506 1.10834 6.2030702 3357506
-0.21729 1.10815 6.1992102 3290941
-0.211344 1.11718 6.0041499 3224632
-0.200523 1.11629 5.9523501 2894119
-0.190662 1.12023 5.90166 3548441
-0.180475 1.12359 5.8895302 6375216
-0.181172 1.1256 5.8909202 6374959
-0.165169 1.12239 5.8423901 5519911
-0.172204 1.12824 5.8582201 6111273
-0.13497099 1.1276799 5.8331199 4272160
-0.116856 1.12896 5.7841902 3944224
-0.101511 1.13273 5.7345901 4469281
-0.081451997 1.12954 5.70365 7623989
-0.078289002 1.13349 5.7000999 7952439
-0.078289002 1.13349 5.7000999 7952439
-0.0433858 1.13691 5.6181102 3811352
-0.044821002 1.13596 5.6149998 4008987
-0.040033001 1.13994 5.5881701 3877401
-0.036999598 1.14457 5.46773 2234893
-0.0299521 1.14536 5.45928 6510925
-0.0247663 1.14276 5.46101 11773849
-0.0246969 1.14373 5.4607201 12037021
-0.0169103 1.14238 5.4534798 14865605
-0.016439199 1.14307 5.4534702 14931397
-0.00506151 1.15207 5.2834401 13878444
0.0660289 1.15174 5.3913202 14734011
0.073898897 1.15228 5.3972402 14010289
0.088427298 1.151 5.4197898 12694688
0.121158 1.15426 5.34201 10062457
0.132057 1.16409 5.1663198 9596496
0.132494 1.15698 5.1873999 9727826
0.175203 1.16462 5.12817 5914154
0.221485 1.1551501 5.2086401 8873035
0.226533 1.16649 5.0997901 10583140
0.231483 1.15835 5.1968198 10056793
0.227259 1.17178 5.0120902 7953999
0.231323 1.1695499 5.04318 8019276
0.270904 1.17314 4.9851599 854025
0.27493599 1.16706 4.9861202 919561
0.27057299 1.1754301 4.84938 920072
0.28031501 1.1761 4.8386598 9075822
0.28985 1.1787 4.8324299 13679010
0.29533699 1.17687 4.7951899 12822931
0.296498 1.18602 4.72859 8350305
0.36106899 1.1827199 4.7324901 1838350
0.37089899 1.18109 4.7192101 5850694
0.373555 1.1900001 4.6591501 4535092
0.37665799 1.1845 4.6901999 4600883
0.37961 1.18779 4.6719298 4140591
0.40884799 1.18455 4.7066202 2694430
0.41426399 1.1859699 4.6219802 2432284
0.416491 1.1899199 4.6101499 3748400
0.42486399 1.1962 4.5039101 3485741
0.43265799 1.1947401 4.52953 3288619
0.439659 1.1926301 4.5452299 2959655
0.49047399 1.19234 4.5694299 1315345
0.49862799 1.18941 4.55794 1117710
0.50549102 1.1936001 4.54108 1775639
0.51043397 1.19605 4.5008502 1907481
0.61176801 1.19231 4.5819502 2170397
0.60881197 1.18793 4.57934 2367775
0.648844 1.18984 4.5549302 2893862
0.66343999 1.19197 4.5996099 2959397
0.69098997 1.19021 4.5841799 3025447
0.70015597 1.18872 4.5935102 2827812
0.707874 1.1887 4.5973701 2301469
0.73428398 1.18699 4.6259098 1051917
0.75444901 1.18888 4.6242199 1249039
0.76075101 1.18521 4.6647301 1578006
0.78256899 1.18659 4.63696 2301727
0.78248101 1.18662 4.6364999 2301727
0.84408098 1.18739 4.6284299 2104860
0.84244502 1.18583 4.6241002 2039067
0.851542 1.18715 4.6156001 1381397
0.97867203 1.1868401 4.6833 1381140
0.98295897 1.18653 4.67309 1973532
1.0056 1.18181 4.7033601 2565153
1.02906 1.18134 4.7290001 2236188
1.02961 1.18023 4.7289901 2236188
0.968674 1.20034 4.4235101 1381392
0.97207099 1.19613 4.4272799 1578771
0.97424799 1.19935 4.3846202 8222315
0.976969 1.20368 4.3344798 11576982
1.00518 1.2056 4.3123398 11708828
1.01074 1.20742 4.3042698 3025700
1.01693 1.20429 4.3000598 920843
1.11657 1.19497 4.5194001 2236447
1.12272 1.19397 4.50455 789772
1.1083 1.1992199 4.4300799 723722
1.11566 1.19591 4.4232602 2368287
1.19963 1.19063 4.57197 2696738
1.2143101 1.19003 4.6055002 3485740
1.22289 1.18836 4.6101098 4735291
1.22566 1.19171 4.6115999 5064255
1.2314 1.18712 4.6163702 6576976
1.55266 1.1809 4.7643099 11313297
1.55881 1.18062 4.7837 11313299
1.54682 1.18356 4.7302599 11510676
1.54424 1.18636 4.70051 11510676
1.54424 1.18636 4.70051 11445139
1.60737 1.18829 4.6006799 11116175
1.61262 1.18821 4.6149998 10984589
1.61129 1.18819 4.6127901 10984589
1.6082799 1.1894799 4.5924401 11313297
1.66378 1.18624 4.6268902 12168603
1.69244 1.18854 4.6659799 13221290
1.69361 1.18671 4.6690202 13418668
1.69244 1.18854 4.6659799 13221290
1.82491 1.20599 4.2628498 10130054
-1.0809799 1.11708 6.17065 6904659
-1.06628 1.11552 6.17625 2496796
-0.99629003 1.11555 6.2688198 2431265
-0.892887 1.11487 6.2864799 2169381
-0.840307 1.10655 6.3398499 1972258
-0.831541 1.10972 6.3463202 3154730
-0.78794801 1.10835 6.4049602 5255725
-0.776057 1.10368 6.4096498 7358266
-0.76223302 1.10531 6.4245501 7163467
-0.746553 1.10553 6.4239402 3155247
-0.73691398 1.10092 6.4191599 1710376
-0.68388301 1.10015 6.4397602 1644583
-0.62966901 1.10357 6.5003099 3086888
-0.489463 1.1023099 6.5117002 3939617
-0.460343 1.10023 6.4985099 10852234
-0.25398299 1.1086299 6.3687201 9669762
-0.249869 1.11022 6.3617601 9143935
-0.241409 1.1095999 6.3520899 6447458
-0.231984 1.10956 6.3467002 4343371
-0.23199099 1.10616 6.3443699 4343371
-0.218182 1.12313 5.9928799 3356477
-0.209681 1.12546 5.96697 3486258
-0.195794 1.13004 5.9517698 5849905
-0.18607301 1.13412 5.9022598 6440237
-0.14909901 1.1296901 5.8480201 5520423
-0.131919 1.1367199 5.8217402 4929315
-0.108813 1.13691 5.74512 4074781
-0.103235 1.1425 5.7300601 4337179
-0.096436203 1.13674 5.7133999 5455144
-0.085252903 1.1371599 5.7070599 6901039
-0.0722216 1.13808 5.6813798 8018488
-0.063156202 1.14027 5.6619401 7163697
-0.0549297 1.14486 5.6546001 5191714
-0.053556401 1.13915 5.6550698 5717543
-0.036671098 1.15004 5.4556999 2892566
-0.025101 1.155 5.4583602 13616052
-0.0254591 1.15605 5.4576001 13550259
0.050291602 1.15514 5.38973 15128770
0.070073798 1.15918 5.3983798 14602426
0.075829498 1.15509 5.3963699 13681325
0.084066898 1.15854 5.4126902 12957603
0.108102 1.1525 5.3965201 12694433
0.13661601 1.17035 5.0889301 8675656
0.13668799 1.17072 5.09127 8675912
0.13668799 1.17072 5.09127 8675912
0.195324 1.16431 5.1814399 5913899
0.195325 1.16431 5.1814599 5913899
0.22052801 1.17117 5.1433301 9859412
0.22579101 1.16327 5.2049699 9662035
0.224457 1.16243 5.2059102 9464913
0.226761 1.1713901 5.1016102 10385761
0.226969 1.17171 5.1058798 10319968
0.231233 1.1780601 5.0036998 4074529
0.230037 1.17012 5.0830202 9465691
0.232733 1.17381 5.0778198 8676433
0.237092 1.17618 5.0091 1708043
0.27073699 1.18639 4.8481002 1380878
0.28009599 1.18694 4.8379502 11443854
0.275428 1.1813999 4.8460202 2827293
0.284758 1.18176 4.8305702 13548196
0.29118699 1.18843 4.8141699 13546910
0.29195499 1.19131 4.7374802 9863537
0.300574 1.19152 4.7203999 6179399
0.359431 1.1938601 4.6974201 3943469
0.366593 1.18791 4.7202401 5850951
0.371701 1.19383 4.65799 4666421
0.37855399 1.19458 4.6549702 4009261
0.40795299 1.1948 4.6744399 2300186
0.40864599 1.1919 4.6293201 1576975
0.412368 1.19598 4.62216 2366234
0.419889 1.1961 4.61234 3090471
0.42178401 1.19578 4.5829802 3748656
0.42686301 1.19628 4.5557399 4011828
0.42770699 1.19967 4.52981 3551534
0.49117601 1.20005 4.5690298 1315089
0.49568501 1.19534 4.5613298 1051917
0.49990201 1.1963 4.5374098 1512467
0.61537498 1.19855 4.5827198 2038810
0.62288898 1.19899 4.58778 1841431
0.65753001 1.19569 4.5970802 2893862
0.694619 1.19866 4.5927401 3025191
0.71666199 1.19313 4.59589 2893606
0.729186 1.19804 4.6096401 2893349
0.73837298 1.1942 4.6270599 2367263
0.775181 1.19269 4.6345801 2630691
0.80416101 1.19372 4.6313801 2827812
0.80891198 1.19491 4.6379299 2762019
0.816921 1.19585 4.6598001 2630690
0.83947599 1.1913199 4.6511302 2367517
0.840536 1.1922801 4.6266999 2368031
0.84767097 1.1921999 4.62149 1907482
0.85862797 1.1961401 4.6199002 1118227
0.97693098 1.1938 4.6872802 1249811
0.971246 1.2065901 4.4233999 1578514
0.97876 1.20517 4.3813801 10524553
0.976704 1.20744 4.3782401 10327175
1.01765 1.21227 4.3064399 986633
1.11221 1.2 4.5187001 2631204
1.11984 1.19998 4.5064001 1447189
1.12239 1.20242 4.5043502 855310
1.11195 1.20503 4.4309001 1578773
1.1907001 1.20034 4.5572801 1973528
1.22079 1.19811 4.60815 4275254
1.51907 1.1807801 4.8445601 12234394
1.54699 1.19085 4.74365 11905177
1.54699 1.19085 4.74365 11773848
1.5543 1.18856 4.7481899 10918539
1.54904 1.18906 4.7202301 11576725
1.53566 1.1934201 4.6809201 11181968
1.60786 1.1962399 4.6073799 11116175
1.61356 1.19442 4.61408 11116175
1.61356 1.19442 4.61408 11116175
1.6659499 1.19247 4.65978 11444881
1.6696 1.19491 4.6628699 11444881
1.67134 1.19503 4.6327 12365725
1.80048 1.20983 4.2695098 13221805
1.81353 1.20935 4.2722602 11840155
1.8049901 1.21576 4.23701 10853775
1.84804 1.21173 4.2922602 9472128
1.84878 1.211 4.29217 8748663
-1.0938801 1.12269 6.1858902 12957604
-1.07535 1.12186 6.1795502 2628122
-1.05519 1.12086 6.2524199 2561821
-0.98176301 1.1203901 6.28965 2496800
-0.99072099 1.12 6.3075399 2299422
-0.91820699 1.12062 6.3242302 2234659
-0.909163 1.12323 6.2904701 2826795
-0.89988798 1.12322 6.2901902 3944505
-0.890737 1.12304 6.2886801 2103588
-0.88105398 1.12027 6.3228598 1840930
-0.824058 1.11826 6.3708501 2234917
-0.779441 1.11238 6.4067502 3745579
-0.770733 1.11246 6.4135098 3350563
-0.76182997 1.11263 6.4190502 2892073
-0.75622302 1.11411 6.42344 2300711
-0.74656701 1.11487 6.4299502 1972778
-0.73695999 1.1100301 6.42553 1841706
-0.736525 1.11474 6.4313002 1776170
-0.72608501 1.10953 6.4228301 1579049
-0.66394001 1.10737 6.4489498 2562855
-0.65352601 1.11368 6.48421 2956069
-0.64810902 1.10561 6.4930301 2890535
-0.65143901 1.10648 6.4811502 2824999
-0.64807701 1.10569 6.4937301 2890535
-0.64807701 1.10569 6.4937301 2890535
-0.62078202 1.10783 6.5204701 3152423
-0.50769901 1.10783 6.5760899 4070437
-0.49939501 1.10974 6.5475998 4136229
-0.48264199 1.10787 6.5233002 4006435
-0.46787399 1.10739 6.5115099 10128000
-0.45285201 1.10797 6.5023699 10786953
-0.26486099 1.11016 6.4337201 9800832
-0.25396299 1.11932 6.36692 9604226
-0.245883 1.1181901 6.3533301 8026229
-0.226165 1.13018 6.02209 3817540
-0.214304 1.13429 5.9774499 3420209
-0.202768 1.1373301 5.9580102 6442041
-0.160427 1.14074 5.86412 5782310
-0.15096 1.1397001 5.8575401 5454115
-0.140618 1.14062 5.8322401 5520422
-0.12888999 1.1457601 5.81037 5126180
-0.117819 1.13978 5.7938299 4272159
-0.113241 1.1463 5.7750902 4665888
-0.082819298 1.14565 5.7045698 6506282
-0.073904604 1.15188 5.6807299 7493176
-0.066159204 1.14863 5.6627798 7230004
-0.057257202 1.15232 5.6665702 5257506
-0.046670999 1.15026 5.6543999 3680279
-0.0410523 1.16223 5.4667101 2498067
-0.0191871 1.16151 5.4556899 14865860
-0.020366499 1.16272 5.44839 14865860
0.036220498 1.16624 5.36485 14602425
0.066456601 1.16575 5.3944898 14931647
0.071041301 1.16285 5.3982902 14339254
0.079802297 1.16205 5.3989501 13154981
0.125852 1.17673 5.1542001 9727826
0.1275 1.17109 5.1791501 9793619
0.125845 1.17667 5.1539102 9727826
0.125845 1.17667 5.1539102 9727826
0.13305201 1.17546 5.1637201 9464654
0.162358 1.17352 5.1682601 7295035
0.19339401 1.1744699 5.1746802 5979435
0.202143 1.17335 5.20503 6111021
0.21455801 1.17233 5.2393699 6966068
0.228992 1.18154 5.0809302 9334362
0.22786701 1.17864 5.0671 9794398
0.22803199 1.1781501 5.0664401 9400154
0.233968 1.18462 5.0176902 2956821
0.263237 1.18287 4.9809599 854538
0.265912 1.19152 4.8505602 920586
0.27518499 1.19197 4.8390899 7102549
0.28617799 1.19313 4.8224101 13810340
0.289253 1.19739 4.7193699 9402990
0.30177999 1.1945 4.70012 5061433
0.30479699 1.2007101 4.6936598 4601141
0.36301801 1.19433 4.7287698 4469556
0.36455601 1.19795 4.6879001 6048073
0.372345 1.19643 4.6574001 4535091
0.402987 1.2025599 4.6445398 2103063
0.40840599 1.20189 4.6376901 1708560
0.41422901 1.20143 4.6108999 3485228
0.42251199 1.20202 4.5880098 4011571
0.422876 1.20526 4.5554099 4538170
0.424907 1.20731 4.5124698 3617327
0.42649701 1.20627 4.5137601 3420205
0.43329701 1.2038 4.5348001 3288619
0.44043699 1.2016701 4.5531402 3025704
0.43501899 1.2056 4.5441899 3485741
0.4404 1.20164 4.5527802 3025704
0.50462902 1.20478 4.5437999 1644309
0.50460303 1.20474 4.5435801 1644309
0.60608298 1.20244 4.6032 2630946
0.61059999 1.20074 4.59729 2433311
0.66103202 1.20268 4.5942101 3025191
0.72092199 1.20107 4.6018 3485485
0.73299497 1.19924 4.6125998 3156777
0.78106302 1.20066 4.6248298 3025190
0.79110599 1.2012 4.6378498 2959141
0.809632 1.20076 4.6164999 2630433
0.82163602 1.20332 4.61691 2762018
0.82957202 1.2000099 4.6203499 2762274
0.83799303 1.20274 4.61696 2499361
0.84434497 1.20268 4.6118398 1644054
0.97655201 1.1947401 4.68749 1249811
1.00613 1.19625 4.7232299 2038811
0.97118402 1.20961 4.4195299 1578258
0.98843497 1.21321 4.3734298 11511188
0.98273998 1.21293 4.3642998 11182481
1.0056601 1.21586 4.3524799 11905949
0.99884599 1.21737 4.3063002 12037535
1.00421 1.21412 4.3130102 11774622
1.0110199 1.21402 4.3102298 4275509
1.01788 1.21885 4.3122301 1052169
1.11736 1.20388 4.51301 1973276
1.10935 1.21213 4.4361801 723723
1.11578 1.21207 4.4342799 2434080
1.20087 1.20187 4.57196 3288873
1.54263 1.19269 4.72154 11773847
1.54532 1.19758 4.7104402 11510676
1.61541 1.19774 4.6288099 11181968
1.613 1.20288 4.6226602 11181968
1.62058 1.19938 4.6368399 10918796
1.66452 1.19862 4.6690001 11313295
1.67092 1.19987 4.65312 11708052
1.66854 1.19899 4.6515899 11642259
1.66549 1.2026401 4.6275702 11839638
1.66976 1.19836 4.6233301 12365725
1.6712199 1.20363 4.6143799 12497310
1.68428 1.19857 4.6465902 12826532
1.6828901 1.1981601 4.6410499 12760739
1.6838599 1.1992199 4.6385102 12958117
1.6842 1.1993901 4.6394501 12958117
1.8068 1.21696 4.2687802 12432290
1.80459 1.21693 4.2711501 12958634
1.80735 1.21542 4.2653098 11906204
1.84964 1.21618 4.2882299 8485745
-1.10034 1.1320601 6.1971598 13023137
-1.07713 1.13054 6.1778998 3154463
-1.0694799 1.12925 6.1907501 2430745
-1.06319 1.1291699 6.2474198 2496028
-0.999879 1.12581 6.2855802 2562594
-0.97296703 1.12442 6.30125 2497058
-0.95384002 1.12999 6.31217 2497058
-0.93229598 1.12405 6.31077 2235172
-0.91349697 1.13161 6.2941098 2365987
-0.91997802 1.12607 6.3025999 2366245
-0.90447402 1.13126 6.2915802 5260362
-0.89527899 1.13113 6.2905102 2957866
-0.87824202 1.12605 6.3069501 2366759
-0.86928099 1.12612 6.3113198 3023660
-0.86053902 1.12609 6.31497 2562593
-0.85111201 1.127 6.32549 3811629
-0.77179599 1.12569 6.4025502 2695981
-0.764337 1.11975 6.4021201 1841706
-0.68131298 1.1148 6.4786901 2234919
-0.67322999 1.11896 6.47721 3087652
-0.66460401 1.11874 6.4860802 3218981
-0.65809798 1.11686 6.4828 3021347
-0.64735103 1.11678 6.48456 3546660
-0.63787198 1.1192 6.4976602 4136738
-0.63003498 1.11804 6.5067801 4136997
-0.62460399 1.1159199 6.5153198 3545891
-0.47463301 1.11522 6.51051 7100242
-0.45929399 1.11336 6.5001502 10786954
-0.27779299 1.1272 6.3719602 9998468
-0.27501699 1.1231 6.3977599 9998211
-0.25016299 1.12694 6.3561902 8815485
-0.241143 1.1269 6.3513799 5395542
-0.23314799 1.12571 6.3373599 4212298
-0.235312 1.1199 6.36274 4474698
-0.210513 1.14542 5.9628701 5127987
-0.214561 1.13977 5.9758401 3354414
-0.205743 1.1392 5.9661102 6245435
-0.196403 1.14448 5.9551902 6506028
-0.196403 1.14448 5.9551902 6506028
-0.181848 1.1474 5.8996601 5914149
-0.179178 1.14829 5.8889098 5782565
-0.16400801 1.14984 5.8737102 5387808
-0.15643901 1.151 5.8650799 5453857
-0.14837299 1.14785 5.8509498 5519650
-0.137565 1.14965 5.8207798 5322786
-0.125828 1.15394 5.80022 5125666
-0.108897 1.14986 5.7586002 4665886
-0.104387 1.15538 5.7541099 4731423
-0.088724598 1.15662 5.7156601 4994078
-0.081940703 1.15414 5.6982498 5717540
-0.071171097 1.15952 5.6730099 7297085
-0.060270101 1.16066 5.6672301 5389349
-0.039249498 1.16783 5.4600501 2827288
-0.0262833 1.16843 5.45469 14273982
-0.024666499 1.16705 5.4520402 14602689
-0.0116711 1.1745501 5.2437201 13943983
0.0010848 1.16605 5.43679 13088673
0.0743047 1.1701699 5.39817 13878704
0.115715 1.1802 5.1881299 10319963
0.133524 1.18423 5.1449599 9267277
0.13058899 1.18274 5.14537 9399119
0.138467 1.18139 5.09621 8478534
0.16333599 1.1813 5.1641202 6966327
0.171804 1.1796499 5.1692901 6242864
0.19780099 1.17871 5.1886702 6111019
0.202071 1.1780699 5.2076998 6308142
0.20195 1.1779799 5.20717 6308142
0.20213801 1.17812 5.2080102 6308142
0.223676 1.18039 5.1732101 9727571
0.225327 1.18549 5.1414399 10319708
0.224507 1.1813 5.15345 10451036
0.22855499 1.1841201 5.12884 10451297
0.22565199 1.18788 5.0581598 9268312
0.22565199 1.18788 5.0581598 9268312
0.227997 1.1831599 5.1048198 9991517
0.22565199 1.18788 5.0581598 9268312
0.25157201 1.19031 5.0065298 1972760
0.25827101 1.19015 4.9998102 920332
0.261558 1.1917 4.9717302 789003
0.27061099 1.1975 4.8474598 2959137
0.280359 1.19771 4.8348699 13416612
0.28703499 1.20494 4.7305002 9929332
0.29738599 1.19978 4.7185798 6245448
0.29910001 1.20428 4.6929002 5390141
0.36135301 1.20312 4.7296801 4140591
0.36351299 1.2057101 4.7113099 6179659
0.364425 1.20605 4.6872902 5982280
0.364384 1.20601 4.68679 5982280
0.36952201 1.20297 4.6716099 4929849
0.36899999 1.20507 4.6631298 4798006
0.37595201 1.20403 4.6694398 4206383
0.37962899 1.20227 4.66822 4075053
0.38481501 1.20664 4.6631298 3615274
0.40997899 1.20664 4.6244998 2037525
0.41995901 1.20609 4.5869999 3748655
0.423181 1.20916 4.57516 4472378
0.42570201 1.20935 4.51583 3551278
0.43076801 1.21393 4.5193901 3288363
0.45016301 1.21129 4.5745001 2762275
0.45502999 1.20953 4.5862999 2499360
0.495121 1.20977 4.5890598 1183758
0.49997601 1.20918 4.5522699 1117966
0.51204097 1.2088 4.5308099 1841688
0.52121502 1.21166 4.4920001 2170396
0.61388099 1.2066 4.5939202 2367518
0.62108803 1.20595 4.5984802 2170138
0.66549897 1.20921 4.59266 3420205
0.66508001 1.20825 4.6016698 3222826
0.776559 1.20824 4.5914202 3288363
0.78638899 1.20711 4.6315198 3156520
0.79440999 1.2071199 4.63626 3090727
0.81357998 1.20653 4.6152601 2564639
0.84507698 1.20837 4.6098099 1315603
0.85211802 1.20482 4.6125498 1052690
0.98250002 1.20314 4.7020402 1512726
0.99329698 1.19967 4.70818 1710103
0.989061 1.20539 4.70718 1973275
1.00121 1.20156 4.7202001 1907225
1.00605 1.20344 4.7294898 2038810
0.97567898 1.21434 4.4301701 1578258
0.95914102 1.22004 4.3310399 7893092
0.98026299 1.21569 4.41645 6643285
0.97768801 1.2143199 4.40589 6906456
0.978854 1.21977 4.3592701 10853259
1.01553 1.22041 4.31388 1249548
1.01557 1.22311 4.3023901 920841
1.12106 1.21048 4.50489 1250066
1.12299 1.20938 4.5176301 1841945
1.2043999 1.2077399 4.5854998 2631457
1.4721 1.19209 4.9428701 10524038
1.47621 1.18875 4.96802 10918539
1.50662 1.19379 4.9461002 11181965
1.5130301 1.1902 4.9439702 11642259
1.5006 1.1913199 4.9074101 11642002
1.52183 1.1950099 4.8533602 12365981
1.5217 1.1949199 4.8530202 12365981
1.5303 1.1975501 4.87007 12563359
1.5537601 1.20005 4.7866001 12036762
1.54714 1.2021199 4.7456598 11708311
1.61742 1.20629 4.63835 11181711
1.61742 1.20629 4.63835 10984333
1.65876 1.2035 4.6292701 11642260
1.66085 1.2048 4.6320901 11708053
1.67149 1.20474 4.61412 12431774
1.67173 1.20534 4.58919 12958118
1.80323 1.22548 4.2765002 13221806
1.8113101 1.22537 4.2711501 11840411
1.82094 1.22558 4.2757502 10919825
-1.0920399 1.13871 6.1867599 12760225
-1.08161 1.1384799 6.1786799 6641743
-1.07233 1.13898 6.1826801 2365207
-1.06607 1.1443599 6.18326 2628123
-1.0581501 1.14127 6.2452102 2627613
-1.00877 1.1343 6.27459 2693922
-0.99986798 1.1343499 6.2775602 2627872
-0.991503 1.1329401 6.2859201 2693407
-0.991467 1.14099 6.2741499 5584951
-0.98229599 1.13322 6.2922602 2824736
-0.97299498 1.13349 6.2982302 2824737
-0.96349001 1.13331 6.30547 2693408
-0.95447999 1.13765 6.3057499 4138021
-0.94306999 1.13155 6.30899 2694178
-0.93407297 1.13518 6.2968102 3548458
-0.92484599 1.13478 6.3105001 2497831
-0.90946198 1.13898 6.29175 2826279
-0.89994198 1.13908 6.2912598 5786191
-0.88263702 1.13241 6.3066902 2235172
-0.88766497 1.13965 6.3001299 2038822
-0.87338197 1.13439 6.3084998 5915718
-0.864658 1.13431 6.3119001 4926505
-0.85583001 1.13469 6.3187099 6240561
-0.84719801 1.13578 6.32236 7685945
-0.77193302 1.13336 6.39081 5191994
-0.764624 1.13099 6.40519 2498861
-0.65180701 1.12589 6.4839201 6502704
-0.64266598 1.12727 6.4897299 7356209
-0.62781101 1.12508 6.5261898 6566700
-0.54706901 1.12389 6.5040398 3546150
-0.474327 1.12913 6.5128498 7166292
-0.467466 1.12137 6.5135498 10128000
-0.45593601 1.12786 6.4983301 10786953
-0.288647 1.13657 6.3520598 10195333
-0.27627301 1.1305701 6.3794198 9866626
-0.25398901 1.1361001 6.3622899 9078142
-0.25865999 1.12784 6.3677301 9603711
-0.245415 1.1356601 6.35431 6842215
-0.240537 1.13337 6.3556399 5066578
-0.233943 1.13038 6.3335199 4212298
-0.23423199 1.1325001 6.33566 4146762
-0.202097 1.14836 5.94136 6572079
-0.194093 1.15154 5.92202 6045478
-0.186166 1.1562999 5.9093299 5388320
-0.172454 1.15275 5.8942099 5650980
-0.171781 1.15197 5.8920202 5519394
-0.15422399 1.1571 5.8439598 5322271
-0.146264 1.15355 5.8313899 5124893
-0.13458 1.1586699 5.8137002 5125151
-0.087981299 1.16531 5.70436 4139801
-0.088861801 1.16152 5.6902699 4271129
-0.080087297 1.16219 5.68887 5323814
-0.078907602 1.16256 5.6875501 5586986
-0.0629512 1.16295 5.6694298 5784108
-0.0515486 1.1648999 5.6651502 2957075
-0.041371498 1.17599 5.4671602 2432529
-0.032050598 1.1744699 5.4630098 9734781
-0.0215101 1.17196 5.44133 14931396
0.040999699 1.17773 5.3822498 14668474
0.070111901 1.17462 5.4028602 14536888
0.077615097 1.1799001 5.39926 13615532
0.0820603 1.17363 5.402 13089189
0.129668 1.19162 5.13379 9333326
0.15890101 1.191 5.1694698 7295035
0.174464 1.18493 5.1649699 6045742
0.21519201 1.1816 5.23735 7557691
0.225971 1.1921099 5.11237 10188381
0.229845 1.19392 5.0235 5718067
0.22903 1.19338 5.0451002 7821898
0.229845 1.19392 5.0235 5718067
0.235967 1.19201 5.0265002 2102541
0.24141499 1.1921 5.0244999 3353639
0.24666201 1.19618 5.0074401 2564382
0.2536 1.19688 5.0038099 920331
0.26039499 1.19673 4.9985399 789003
0.26588601 1.2029001 4.8593798 986376
0.27581099 1.2031 4.8424802 11114890
0.28594899 1.21129 4.7205901 8350561
0.28832501 1.20948 4.7203999 7626840
0.29479399 1.20927 4.7157798 6113607
0.29496101 1.2114201 4.69701 5719106
0.28353399 1.22198 4.49821 5258556
0.30307701 1.21178 4.70049 4863799
0.36454701 1.21224 4.68431 5719107
0.36407501 1.21008 4.7055802 6245195
0.36496699 1.21271 4.6894398 5784900
0.374798 1.2095799 4.6684299 4272175
0.40068901 1.20854 4.6647501 2563357
0.400473 1.2155499 4.6357899 2037527
0.40515 1.21106 4.6341901 1774354
0.414222 1.21682 4.6041799 3221800
0.41258901 1.21144 4.6149302 3419435
0.414996 1.2167701 4.5956998 2827298
0.41802299 1.21276 4.5809102 3682862
0.437004 1.21767 4.5308199 3090984
0.43646401 1.2163 4.5295701 3025448
0.437004 1.21767 4.5308199 3025191
0.453798 1.21364 4.5777998 2499360
0.46224001 1.21745 4.5948501 2367775
0.468981 1.21682 4.54667 2367775
0.48754001 1.21436 4.62357 2499104
0.48770499 1.21418 4.6239901 2499104
0.50413799 1.21442 4.55651 1381137
0.50469398 1.21389 4.56071 1315345
0.61264098 1.21674 4.6008701 2367519
0.61246997 1.21495 4.59865 2367518
0.62320298 1.21693 4.59939 1972761
0.623649 1.21469 4.5984502 1972761
0.82184398 1.21621 4.5974498 2565153
0.83026397 1.21488 4.6029 2170396
0.83721298 1.21207 4.6008701 1709847
0.83706301 1.21208 4.6006398 1709847
0.82878703 1.2161601 4.5224199 1052432
0.972929 1.22 4.4395299 1381394
0.96215802 1.22655 4.3259301 10524038
1.01202 1.22455 4.3676701 12761256
1.11423 1.21898 4.5217199 2828326
1.11801 1.21878 4.49821 723723
1.11158 1.2190599 4.43645 986895
1.19973 1.2124 4.5876498 2039065
1.2077301 1.2171 4.59341 3946545
1.50137 1.19805 4.9520702 10721159
1.49713 1.1973 4.9170599 10918536
1.5093499 1.20178 4.9152298 11510671
1.52479 1.20153 4.8446598 12497567
1.53845 1.198 4.8799601 12431775
1.53901 1.19837 4.8814902 12431775
1.55992 1.20228 4.7834401 11576468
1.66792 1.2098401 4.6210599 11905431
1.66644 1.21198 4.6121302 11971223
1.6741101 1.21059 4.6054702 12694945
1.68523 1.21479 4.59725 13221290
1.80286 1.23011 4.2684398 12892842
1.84771 1.2251 4.29176 8946296
-1.10084 1.1459 6.1992102 13023137
-1.0923001 1.15206 6.1890502 12760226
-1.07714 1.14626 6.1788802 3088927
-1.0737799 1.1507601 6.1847801 2430999
-1.0618401 1.1509 6.20258 2627355
-1.05961 1.14507 6.23453 2824991
-1.00348 1.14196 6.27179 2890529
-0.99853402 1.1473 6.2722001 4467757
-0.98514199 1.14059 6.2842598 5583406
-0.97602898 1.14101 6.2919002 5648425
-0.979325 1.14852 6.2845201 8013624
-0.96671599 1.1410201 6.2957602 6437943
-0.95448798 1.1463701 6.3011198 8210489
-0.943066 1.14072 6.3078799 6702399
-0.93503797 1.14642 6.30059 7425865
-0.92640698 1.14329 6.2975602 2825764
-0.91411799 1.14701 6.2927499 2300966
-0.90457797 1.1471601 6.29247 5391177
-0.88841999 1.14105 6.29808 2038823
-0.87907797 1.14173 6.30481 3351080
-0.86854202 1.14274 6.3099699 8607565
-0.859815 1.14266 6.3134098 6039834
-0.77638501 1.1427701 6.3709898 7162957
-0.76202703 1.14166 6.3846102 2563626
-0.70660597 1.14094 6.4039001 6899779
-0.67506498 1.13955 6.4759998 9261115
-0.670766 1.1395299 6.4837399 7222049
-0.65801799 1.13357 6.4903498 8471856
-0.64869499 1.13577 6.4924502 8274475
-0.46726099 1.13557 6.5149398 10128256
-0.28782901 1.13713 6.3558402 10195334
-0.288582 1.13618 6.4522901 10326919
-0.278842 1.14219 6.3784299 9998212
-0.261177 1.14457 6.3622599 9537917
-0.26587501 1.1372401 6.3740902 9801089
-0.262815 1.13662 6.37081 9800833
-0.25178 1.14451 6.3582602 8617850
-0.24449199 1.14074 6.3437099 6184542
-0.237507 1.13981 6.34553 4277834
-0.21693701 1.15473 5.98246 4602934
-0.207881 1.15607 5.9439802 6374960
-0.19749101 1.16076 5.92942 5848357
-0.188005 1.1638401 5.9263601 5256735
-0.18706 1.16162 5.8910499 5125406
-0.17026401 1.16124 5.8856201 5322529
-0.143811 1.1618 5.8461299 5059358
-0.14353301 1.1626 5.8452601 4927773
-0.13036799 1.16593 5.80158 5059615
-0.122671 1.16623 5.7923799 4928030
-0.114709 1.1644599 5.79 5125410
-0.082422704 1.17238 5.6971898 4272160
-0.078281999 1.17057 5.6845899 5258796
-0.0762548 1.17013 5.6749001 5522226
-0.067349501 1.17041 5.6740599 5061932
-0.054891799 1.17398 5.6774998 2102284
-0.058902301 1.1708 5.6770701 3088403
-0.037711602 1.1803401 5.4669399 4406062
-0.026667699 1.1811 5.45613 14602690
-0.023807401 1.17953 5.4514098 14734276
0.0484071 1.18292 5.38377 14800061
0.068687901 1.18251 5.3965101 14536888
0.085794099 1.18103 5.4028502 13089447
0.102961 1.18943 5.2600899 11837838
0.125688 1.19268 5.1733198 9793362
0.128704 1.19935 5.1264601 9267533
0.16666099 1.19162 5.1722698 6506034
0.196042 1.192 5.1918302 6176814
0.20466 1.19425 5.217 6505263
0.2124 1.19428 5.2177401 7886398
0.219593 1.18883 5.23102 8544326
0.225499 1.19521 5.15488 10253916
0.221946 1.19946 5.1379499 10319452
0.23404799 1.2005301 5.0289001 4996401
0.240485 1.1988699 5.0206099 4405812
0.24165399 1.20116 5.0181398 3945518
0.27168301 1.2092201 4.8538699 5655618
0.279026 1.21251 4.8249002 13744804
0.28077 1.21023 4.8403802 13481890
0.28443399 1.21006 4.8125901 13546911
0.276182 1.21629 4.7213001 12100238
0.28082901 1.21577 4.7253299 10850174
0.29005101 1.21629 4.7096801 6639948
0.286347 1.2164 4.7121701 7231825
0.27347299 1.22719 4.4906301 5784643
0.27974999 1.22364 4.5093699 5258556
0.309789 1.2163 4.6989698 5061435
0.31897601 1.2148499 4.6785002 5193021
0.36041099 1.21214 4.7259598 4666678
0.36988199 1.21428 4.67031 4666933
0.367632 1.21603 4.6830502 5061434
0.37375799 1.21741 4.6768298 4272176
0.39349899 1.21696 4.6368899 2694686
0.40979901 1.22192 4.6173701 3221800
0.40729299 1.21679 4.6248498 1840147
0.417465 1.22262 4.58463 3879985
0.422194 1.22032 4.5693998 4603709
0.43705001 1.22391 4.5373001 3222570
0.44387999 1.2250299 4.5378399 2696483
0.45191199 1.2203799 4.5774002 2696483
0.48533499 1.21675 4.6174598 2301982
0.50207603 1.22473 4.5562901 1183759
0.50845999 1.21964 4.56182 1578517
0.51379198 1.22761 4.4855599 1775895
0.53361702 1.22637 4.5266399 1973274
0.83003002 1.22091 4.59443 1775640
0.83875901 1.21916 4.6020198 1446933
0.98093402 1.21266 4.7104998 1249810
0.98822302 1.21269 4.7100401 1973276
0.99904102 1.21595 4.7248902 2170653
0.98012698 1.2266999 4.4168301 6511698
0.98032999 1.23236 4.3634801 10984588
0.98786902 1.22856 4.3761401 11905689
0.99377799 1.22946 4.3824601 11971226
1.01255 1.22693 4.41926 12760997
1.0208499 1.22988 4.3829799 10721935
1.11348 1.2234 4.50103 1052432
1.49497 1.2016701 4.9545898 10194816
1.5017 1.2032599 4.9377899 10457987
1.50398 1.20462 4.9453402 10457986
1.5063 1.20767 4.9263501 10786950
1.56183 1.20665 4.8288002 11839640
1.53433 1.21742 4.7024598 11839640
1.6232899 1.22016 4.65453 10589832
1.62684 1.21506 4.6509299 10984590
1.62569 1.21541 4.6517801 11181712
1.67005 1.22122 4.6245198 11773845
1.671 1.21881 4.6115298 12102810
1.68011 1.21929 4.5999398 12892069
1.6814801 1.21736 4.60536 12760740
1.6814801 1.21736 4.60536 12760740
1.81382 1.23511 4.2691598 11379862
1.84724 1.2345999 4.2996502 9472383
-1.09973 1.15827 6.1936102 12957345
-1.0673701 1.15516 6.1786799 2693660
-1.0601 1.16011 6.2126999 2759199
-1.05383 1.15425 6.2135801 2824992
-1.04927 1.15729 6.25283 2956322
-1.00835 1.1507699 6.26618 2956836
-0.99163902 1.15258 6.2750001 7424837
-0.969217 1.15005 6.29603 7814703
-0.95874202 1.15461 6.2992301 9326396
-0.92938799 1.15377 6.3001099 4205356
-0.92576301 1.15382 6.3032999 2891814
-0.90079403 1.15526 6.2939401 5983573
-0.89266801 1.14937 6.2981801 2235432
-0.88388801 1.14932 6.30091 2104101
-0.874713 1.1497101 6.3061099 6307901
-0.86731899 1.1547199 6.3119001 8671299
-0.86130297 1.14755 6.3143301 6894372
-0.78383601 1.15272 6.3622899 4267549
-0.77520299 1.1528 6.3679199 6703694
-0.768547 1.1473 6.3762598 2824483
-0.76073003 1.15166 6.3828001 4139570
-0.731776 1.14507 6.45365 2826540
-0.70785701 1.15109 6.4031801 5980480
-0.69975603 1.1467201 6.4067001 5581601
-0.65260297 1.14373 6.4905 8669235
-0.55445999 1.14459 6.5405402 3678762
-0.47416201 1.1434799 6.5148802 7167063
-0.459658 1.14294 6.5044098 10655111
-0.349024 1.14701 6.3376999 10655624
-0.33908099 1.1511199 6.3299298 10721161
-0.30416501 1.1566401 6.2739201 9932419
-0.30271301 1.13752 6.5979199 10524552
-0.25279999 1.14635 6.3593202 8486264
-0.25025201 1.1488 6.3465099 8025971
-0.240667 1.1503201 6.3502698 4408904
-0.23583101 1.1526999 6.2844801 4080454
-0.20044801 1.1707799 5.93539 4994079
-0.200481 1.17085 5.9365501 5059615
-0.200461 1.17081 5.9358702 4994079
-0.190154 1.1709599 5.8998499 4599581
-0.18109401 1.1709501 5.8989601 4994080
-0.18109401 1.1709501 5.8989601 4994080
-0.18109401 1.1709501 5.8989601 4994080
-0.138284 1.17298 5.8568301 5059358
-0.13851599 1.1692899 5.8453898 5190943
-0.088927902 1.18039 5.7311702 4008988
-0.060164701 1.18106 5.6757302 1970956
-0.0431315 1.1864901 5.4710999 2761495
-0.0329437 1.18585 5.4611101 11445142
-0.0392791 1.19046 5.4653802 5063735
-0.027253799 1.19161 5.4570098 14734019
-0.0014189699 1.19069 5.4277301 13417895
0.059855498 1.1890301 5.3787498 14799805
0.071968697 1.1884 5.3931198 14142132
0.086745501 1.18874 5.4008999 13221034
0.099151202 1.19294 5.35887 12037019
0.098375402 1.1975501 5.2934799 11773334
0.109952 1.19903 5.1882801 10517345
0.120781 1.2029901 5.2027898 10253656
0.120782 1.2029999 5.2028298 10253656
0.120782 1.2029999 5.2028298 10253656
0.123017 1.2059799 5.1132202 9399119
0.123207 1.20654 5.1198401 9464911
0.170991 1.20166 5.1892099 6242864
0.18570399 1.20262 5.1887498 6045486
0.19398201 1.20374 5.1960201 6176814
0.20789699 1.20028 5.2158399 7228727
0.222312 1.1991 5.2002602 9333326
0.217189 1.19962 5.1476302 9596239
0.22470599 1.2031699 5.1273499 10713953
0.22312801 1.2028199 5.1416898 10253661
0.226147 1.20428 5.04462 8610895
0.22852699 1.20532 5.03825 6770234
0.25300401 1.20785 5.0090499 1051659
0.26432401 1.2105 5.0060902 723465
0.26659799 1.2142 4.8604102 1315080
0.279955 1.21763 4.8313098 13612960
0.27726501 1.2194 4.7421398 12231567
0.27924299 1.2243201 4.7200699 10126709
0.31493899 1.2206 4.6976299 5587779
0.322366 1.2207299 4.6700301 4732727
0.35651201 1.21981 4.68929 5061178
0.36813 1.22385 4.6679001 4798520
0.36837101 1.22305 4.6705799 4798263
0.37041801 1.22328 4.67769 4601140
0.400067 1.2239 4.6363101 2300184
0.404515 1.22551 4.62535 1774355
0.411194 1.2268699 4.605 3550765
0.413701 1.22693 4.5436101 4274487
0.419379 1.22823 4.57478 4406586
0.442256 1.2321 4.5353999 2762019
0.47998601 1.22981 4.5609498 2170139
0.47998899 1.2266999 4.5688801 2104603
0.50738001 1.2244101 4.60607 1249295
0.50462502 1.2306499 4.5486798 1381138
0.511181 1.2255501 4.5566602 1578517
0.51117802 1.2255501 4.5566401 1578517
0.51117802 1.2255501 4.5566401 1578517
0.51329601 1.23183 4.4828801 1775895
0.52459401 1.2309999 4.5109301 1907481
0.64522898 1.22676 4.6448302 1907224
0.69289601 1.22711 4.5843301 3025447
0.69403899 1.2258101 4.5850101 2828068
0.71499699 1.23057 4.5582299 2959654
0.74105603 1.2310801 4.5237699 2959398
0.78253901 1.22908 4.57021 2828068
0.81595099 1.22839 4.5967698 2170396
0.97614098 1.21943 4.7101898 1184016
0.98514998 1.2194901 4.7171001 1644311
0.97605598 1.2313499 4.4499998 1381391
0.96106601 1.23717 4.32619 10064001
0.98992801 1.23322 4.3800702 11642517
0.985762 1.2357301 4.3698902 11576725
