# .PCD v0.7 - Point Cloud Data file format
VERSION 0.7
FIELDS x y z rgb
SIZE 4 4 4 4
TYPE F F F U
COUNT 1 1 1 1
WIDTH 1257
HEIGHT 1
VIEWPOINT 0 0 0 1 0 0 0
POINTS 1257
DATA ascii
-0.102815 0.377112 3.43715 2694934
0.12343 0.41805699 3.6749499 3286551
0.221846 0.41870999 3.6252401 4141339
0.234699 0.425387 3.6329999 6114608
0.24366599 0.422162 3.62853 4601901
0.95637298 0.510463 3.98507 5720636
0.96478301 0.50718701 3.9862299 5720379
0.97249103 0.508955 3.9819701 5852221
0.98477101 0.51282197 3.9943299 6312256
0.993186 0.51346302 3.99242 7956822
0.99318701 0.51345199 3.9923899 7956822
1.00325 0.51141 3.9921401 7759444
1.01213 0.51358801 3.99002 11179392
1.0204901 0.515495 3.98595 12033672
1.0287499 0.51232398 3.9892399 11639428
1.03701 0.51397598 3.9835501 11902085
1.04854 0.51384097 3.9834499 11836547
1.05436 0.51435399 3.9855001 11902341
1.3121001 0.53249198 3.96718 11968392
1.3251801 0.53030998 3.9461901 12231820
1.35338 0.53338701 3.93556 12165258
1.35797 0.53092498 3.9282 12033928
1.36013 0.528714 3.9168601 12033672
1.3658201 0.52684599 3.9177201 11902343
1.43225 0.53494 3.9261401 11573377
1.43064 0.53144002 3.87182 11836292
1.43677 0.53223801 3.8736801 11836293
1.43952 0.53201997 3.87094 11967879
1.82555 0.55957502 3.8989 13020566
1.82787 0.555619 3.8891699 13217945
1.81724 0.55761403 3.8787701 13020823
1.82973 0.56015199 3.8824999 13217945
1.95204 0.562446 3.8313401 13020566
1.95275 0.56240201 3.8322799 13020566
1.99303 0.56325197 3.8387699 13283738
-0.92887002 0.283034 3.03596 526088
-0.92645103 0.28651801 3.03778 657417
-0.921803 0.28371 3.02933 789003
-0.79948503 0.41830501 4.1820402 1644051
-0.79982698 0.418659 4.1800499 1578259
-0.78804302 0.412678 4.15101 1907222
-0.77241302 0.41618201 4.1813002 1249551
-0.772632 0.42295101 4.1933298 262915
-0.76564801 0.42280599 4.1975899 197123
-0.21483999 0.37612501 3.43402 2826520
-0.20954201 0.375514 3.43086 3681573
-0.192523 0.377628 3.42747 9470842
-0.186133 0.37866899 3.43085 8878962
-0.181593 0.37893301 3.43449 8023397
-0.176441 0.37904 3.4363501 6510414
-0.169164 0.38239101 3.44047 3023385
-0.163287 0.37908101 3.4407401 3681571
-0.15649 0.38125101 3.44649 2826262
-0.145062 0.38436601 3.4438 2957849
-0.142554 0.37957701 3.43957 2892055
-0.134928 0.38163501 3.4387901 2892312
0.21620201 0.429524 3.64011 4010274
0.22254699 0.424905 3.6331201 4601886
0.228056 0.42568499 3.6336801 5983274
0.24158999 0.42716801 3.63114 4667691
0.24671 0.42801699 3.6307299 4470572
0.92971098 0.51651198 3.9943199 5852222
0.95632601 0.51678699 3.9867699 6180928
0.96491998 0.51239902 3.98018 5918013
0.972489 0.515477 3.98508 7496529
0.97396702 0.51560199 3.9864299 7693652
0.98510897 0.51718199 3.9852099 11048064
0.99316698 0.51763397 3.9800701 11902857
1.00131 0.52004498 3.9878199 12231564
1.00325 0.51626301 3.9832599 11836807
1.00962 0.51903802 3.9815199 12099465
1.01527 0.52072501 3.9912901 12165258
1.02882 0.51792097 3.98576 12099208
1.0473 0.51916701 3.9744201 12362634
1.28854 0.53210098 3.94065 12033929
1.3394099 0.537696 3.9472899 12231307
1.3433599 0.53431499 3.9404399 12362893
1.34734 0.53652102 3.9129801 11704963
1.35613 0.53674603 3.92329 11704962
1.35221 0.53416997 3.90639 11704963
1.35711 0.53352201 3.9047401 11704963
1.43127 0.537925 3.8743501 11967879
1.42601 0.53396302 3.8714399 11902085
1.42451 0.53629303 3.8670599 12033671
1.43726 0.53854901 3.87497 11967879
1.43531 0.53616703 3.87394 11967879
1.8317 0.56677699 3.8885901 13612961
1.95557 0.56843197 3.85515 12888724
1.96662 0.56500697 3.81253 13349532
1.9799 0.56530797 3.8222001 13480862
-0.92368501 0.28929701 3.03298 723211
-0.79984599 0.42595899 4.1922002 328707
-0.78418201 0.419588 4.1652699 657415
-0.78785801 0.42072701 4.1687198 525830
-0.21252 0.38062099 3.43048 2892313
-0.207467 0.38036099 3.4290299 3944745
-0.20221201 0.382166 3.4303401 6642257
-0.19694901 0.382846 3.4274399 6115655
-0.191742 0.38289601 3.4282401 4668466
-0.184297 0.383499 3.43523 3549729
-0.17929 0.38349399 3.4362099 3154971
-0.173979 0.38516 3.43734 3089434
-0.160448 0.38343599 3.4350901 3089434
-0.154452 0.38560599 3.43856 2892569
0.21380401 0.43389601 3.64551 4338727
0.218885 0.435947 3.6423099 3943962
0.22242101 0.430933 3.6373601 4601886
0.22940899 0.43295899 3.63588 6311983
0.234832 0.43127999 3.6362 5720109
0.242015 0.434277 3.6320901 4535850
0.90648299 0.51974499 3.9832599 5852222
0.92249 0.52144301 3.99019 5852222
0.92973298 0.521088 3.9836099 6115137
0.93837202 0.51832199 3.98807 5851965
0.94734699 0.51999497 3.98318 7299150
0.95632702 0.52151799 3.9771399 11114369
0.96539098 0.51871502 3.9832699 9469804
0.97396803 0.520513 3.9781699 12297871
0.98524398 0.52256298 3.9751599 12560784
1.00705 0.52240902 3.98282 12231050
1.00325 0.52154303 3.9776399 12296844
1.33148 0.54078001 3.91257 11639170
1.33681 0.53697598 3.90783 11770499
1.33933 0.53756702 3.8822601 11441534
1.42471 0.54224199 3.86606 12099464
1.43593 0.54136699 3.86781 12033671
1.4279 0.53925103 3.84303 12099464
1.43687 0.53916901 3.8404 12033927
1.44048 0.53574097 3.83515 12033927
1.81883 0.56616598 3.8833499 13415325
1.8182 0.56637001 3.8843901 13415581
1.81752 0.56869698 3.8652899 13876390
1.81844 0.56927902 3.8710599 13876389
1.9506 0.57014501 3.83042 12625809
1.9571199 0.570333 3.82021 13020566
-0.92816699 0.291621 3.0360899 591881
-0.92561901 0.295407 3.0376 723467
-0.78984898 0.42703101 4.1759601 197122
-0.78445703 0.429364 4.1705298 131586
-0.209795 0.38486499 3.4293699 3352607
-0.20215601 0.38764799 3.4274099 3221020
-0.19689301 0.388179 3.4231701 3221021
-0.18886 0.38845801 3.4345901 3155227
-0.183063 0.38870499 3.43694 2892312
-0.176679 0.389631 3.4370401 3023641
0.215828 0.440492 3.6459301 3812380
0.235227 0.436854 3.63854 5193768
0.239393 0.441551 3.63797 4601642
0.88436502 0.52292103 3.9705999 5786173
0.89191502 0.52368498 3.9875901 5786172
0.90010703 0.52033299 3.96557 5852221
0.91593301 0.52574903 3.9733901 8417375
0.911295 0.51981997 3.9674101 5852221
0.91303003 0.52046001 3.97365 5852221
0.93835199 0.523413 3.98103 9206890
0.92999703 0.52555501 3.9749501 10521978
0.94735003 0.52468401 3.9734299 12034956
0.95860797 0.52517098 3.97997 12297871
0.96539402 0.52428597 3.9795499 12626578
0.96539098 0.52418602 3.97893 12626578
0.97396803 0.52556401 3.9709499 12757907
1.11357 0.52956498 3.9109499 11967879
1.12617 0.531353 3.92242 11836550
1.13767 0.53344703 3.92434 11507841
1.32662 0.54193801 3.9180601 11770756
1.33671 0.54067701 3.8919799 11441534
1.42893 0.54496002 3.8404801 12296843
1.43215 0.54111397 3.83478 12099464
1.43858 0.542844 3.8270299 12231306
1.522 0.54926598 3.8334601 12954771
1.52908 0.550524 3.8233299 12888979
1.81034 0.57090998 3.86375 13810853
1.8161401 0.57054198 3.8684399 13942182
1.81135 0.57142198 3.8624401 13942182
1.82017 0.56169099 3.7881 13941926
1.95443 0.57647198 3.8016801 12626066
1.96 0.57580602 3.79862 13679266
-0.92973799 0.29753 3.0369699 460552
-0.92316997 0.29854 3.0375299 855052
-0.20736399 0.392463 3.42751 3023899
-0.191587 0.39029199 3.43276 3155228
0.21332701 0.445151 3.6475 4141603
0.21972799 0.445669 3.6450601 4799009
0.23163401 0.44654801 3.6424601 5785646
0.23732001 0.446637 3.64184 4733227
0.74168098 0.51951599 3.9816501 5260085
0.76098698 0.51707399 3.9556201 5259830
0.766864 0.51482099 3.9615099 5325622
0.76677102 0.51508301 3.96333 5325622
0.87466103 0.52695101 3.9735501 5851964
0.87147099 0.52580202 3.96134 5851964
0.884206 0.52859402 3.96773 6378307
0.88407999 0.52866298 3.9684801 6312514
0.89044601 0.52500701 3.96575 5852221
0.90300298 0.52659798 3.96276 8614754
0.91184402 0.53013802 3.96506 12692630
0.92536902 0.528364 3.9749601 11772299
0.92987698 0.53209502 3.97807 12494993
0.92994601 0.53182602 3.97613 12429456
0.93805599 0.52835 3.9746101 12232335
0.96538103 0.53033698 3.9795101 12823443
0.96118999 0.52637798 3.92927 12560527
0.983778 0.52784699 3.92066 12428429
1.00104 0.53035802 3.91787 12297099
1.02544 0.52993202 3.9215801 12099462
1.02732 0.529594 3.9019899 12033925
1.03211 0.52831298 3.90257 11968133
1.1099 0.53444397 3.9095199 11573122
1.11639 0.53544903 3.9149301 11573121
1.12941 0.537368 3.90416 11047290
1.28339 0.54779398 3.9147301 12033927
1.2951 0.54851502 3.9243 12033671
1.30756 0.54947501 3.9374199 11902085
1.28958 0.54649401 3.9094601 11968135
1.3006999 0.54714 3.91467 11902084
1.30635 0.54733402 3.91609 11704963
1.31022 0.54448199 3.8960299 11573120
1.4249901 0.548105 3.85009 12231050
1.4335999 0.544478 3.8210599 12296843
1.4288 0.54629898 3.81639 12231306
1.51416 0.55345601 3.8178301 12625808
1.52429 0.55335802 3.8278201 12757394
1.69653 0.56139499 3.8068399 12888979
1.80525 0.57556498 3.8477199 14468527
1.82147 0.56813002 3.7923601 13415326
1.8125401 0.56812799 3.7736001 13217946
1.9536 0.58046597 3.8150101 12362637
1.9540401 0.581554 3.7943101 12757908
1.95895 0.581209 3.79287 13350301
1.9596699 0.57948703 3.79287 13810595
1.9652801 0.57886499 3.79865 14008231
-0.93831599 0.30254599 3.0462799 197380
-0.93402898 0.30093199 3.04233 328710
-0.92731601 0.301808 3.04321 723467
-0.92428303 0.30424801 3.0414 855052
0.0286787 0.48470899 4.0757799 2891798
0.210978 0.450084 3.6499901 4338984
0.21243501 0.44706699 3.6510701 4273446
0.216093 0.451821 3.6501501 3943962
0.2176 0.450827 3.64957 4272925
0.223373 0.451702 3.6470101 5983276
0.234853 0.451462 3.6436601 4733224
0.72360599 0.52346897 3.97611 5391415
0.73269999 0.51941103 3.9630799 5325622
0.73476398 0.51768702 3.95821 5325622
0.741705 0.52239299 3.9582801 5391671
0.76090503 0.522407 3.9500799 5523000
0.76702201 0.51975799 3.9539599 5391415
0.82882899 0.52926302 3.95818 5851708
0.84648401 0.529055 3.9561801 5786171
0.85064697 0.52625 3.9537201 5720379
0.85851598 0.52678502 3.9593501 5720379
0.859595 0.52770603 3.9548399 5720378
0.87465101 0.53164101 3.96404 7693907
0.87445998 0.53109699 3.9605801 7694164
0.88405597 0.53345799 3.9596901 11838349
0.89182502 0.52987897 3.9574699 10522492
0.890885 0.52973801 3.9565001 10390906
0.90301299 0.53187799 3.95766 12692886
0.909096 0.534531 3.9557099 12823957
0.92051601 0.53227299 3.9618399 12692629
0.94571501 0.52811903 3.9226501 12494478
0.95200199 0.52883101 3.9154 12231307
0.960958 0.53024203 3.91661 12494222
0.98269701 0.53258401 3.91225 12691601
0.99042702 0.53439897 3.91045 12428173
1.00086 0.53371602 3.9056301 12428685
1.0111901 0.53184199 3.91397 11967621
1.0152 0.53235698 3.91448 12033670
1.02424 0.53418601 3.9098101 12296842
1.0288301 0.53466302 3.8966701 12231305
1.1082 0.54170197 3.9109399 11047034
1.06972 0.52949297 3.8439 11573377
1.11911 0.54166597 3.9103899 10849655
1.13026 0.54256201 3.89763 11376513
1.14531 0.54293799 3.9156499 11178877
1.1375901 0.54266 3.9001 11376513
1.14595 0.54528999 3.90991 11508099
1.24421 0.55049598 3.90572 12165257
1.24702 0.549833 3.8987899 12165257
1.25384 0.549196 3.8989301 12099720
1.28052 0.554084 3.91541 11836036
1.28274 0.55205297 3.90558 11770500
1.2840199 0.55202597 3.9078801 11770500
1.29018 0.55171198 3.90413 11638657
1.2930501 0.54922497 3.89271 11507328
1.29996 0.54944003 3.8926899 11441278
1.52636 0.55848497 3.8236001 12296844
1.52713 0.55673099 3.8201101 12494479
1.71889 0.57000202 3.7973101 13612960
1.78822 0.57403201 3.7951801 14007975
1.80767 0.57056499 3.7697001 13020824
1.81675 0.57406503 3.7757499 13020567
1.9557101 0.586227 3.81197 12494480
1.96237 0.58592999 3.7889199 12955801
-0.93480098 0.30662999 3.0448501 328711
-0.93040103 0.304546 3.0390899 460297
-0.92781103 0.30790901 3.0455899 723466
-0.00135745 0.490839 4.0816302 2891799
0.00509908 0.487966 4.0842099 2891798
0.0134589 0.492708 4.0847998 2957591
0.0117285 0.490293 4.0805402 2891799
0.027552299 0.490924 4.0777898 3023383
0.032417599 0.491276 4.0769 3220762
0.21942 0.45681301 3.6512401 5325607
0.225977 0.45634601 3.64645 6312241
0.23766699 0.45647699 3.64555 4667691
0.73270601 0.52395499 3.9522901 5457208
0.736027 0.52448201 3.92979 5654330
0.75481498 0.52923399 3.94871 5851966
0.78094202 0.52941298 3.9784 5720380
0.82088202 0.53035098 3.9453299 5851708
0.82868898 0.53467 3.9537899 5917502
0.83714199 0.53160101 3.9531701 5917501
0.845254 0.53520602 3.9564199 6969930
0.85271603 0.53221202 3.95278 6312258
0.86515403 0.534594 3.9597399 9535854
0.860897 0.53298199 3.9509599 8483424
0.87447202 0.53623402 3.95451 12561814
0.88103002 0.53392798 3.9595301 11772557
0.89352298 0.53518599 3.9550099 13153180
0.902942 0.53707302 3.95173 13086615
0.917606 0.53386801 3.90538 12626064
0.92621601 0.535267 3.9017799 12494221
0.95202702 0.53396797 3.9080999 12296586
0.95766801 0.53693199 3.9024301 12757394
0.98227203 0.53751498 3.9052401 12691602
0.98975098 0.539253 3.9029 12560014
1.0051 0.53880697 3.90447 12494477
1.01094 0.53712898 3.90698 12625807
1.01949 0.53897202 3.90751 12691856
1.03215 0.54097998 3.8959899 12297099
1.07744 0.54100299 3.8713701 10981499
1.08174 0.53922498 3.8749499 11178621
1.11133 0.54635 3.90675 10784119
1.11491 0.54735702 3.89588 11244926
1.1214 0.547203 3.89131 11310719
1.12374 0.54527998 3.87765 11442306
1.13727 0.54756099 3.8861201 11639685
1.23384 0.55302799 3.8988299 12165258
1.23473 0.55317402 3.8858299 12099464
1.24333 0.55459702 3.8932099 11902085
1.24301 0.55613297 3.88817 11770500
1.2523299 0.554618 3.888 11704963
1.24786 0.55479997 3.88044 11639170
1.67558 0.57636702 3.8438101 13349274
1.67514 0.57856297 3.8250101 13349274
1.7018501 0.57570797 3.78807 13941925
1.78405 0.58011103 3.80686 13810853
1.81226 0.576792 3.7736499 12757652
1.92064 0.58728999 3.78776 12757652
1.94642 0.59347898 3.80547 12166030
1.9524 0.58810401 3.78877 11968394
1.9583 0.58937001 3.7903399 11837064
-0.93144703 0.31018201 3.0418601 460296
-0.92532599 0.311039 3.0457799 920844
-0.0038290799 0.494959 4.0693998 2957592
0.0050514499 0.49331799 4.0791898 2957591
0.0108934 0.49619299 4.0799398 3154970
0.0127161 0.498427 4.0815701 3483935
0.0207881 0.494124 4.0781398 3155226
0.0234563 0.49987501 4.0802898 4075815
0.0299739 0.495965 4.0730801 3878436
0.036168899 0.49570999 4.0695701 4076071
0.209538 0.45910701 3.6538401 4338728
0.215561 0.45917499 3.6533501 4272925
0.223031 0.46134099 3.6488099 6180656
0.22913601 0.461335 3.64821 5654574
0.23528799 0.46123201 3.6466601 4602153
0.73409498 0.52577198 3.92223 5654586
0.74465102 0.527632 3.93642 5786172
0.76229 0.53208798 3.92558 5720123
0.769054 0.533023 3.9284401 5523001
0.76580799 0.530945 3.9209499 5588794
0.78862798 0.533997 3.92788 5589049
0.799784 0.53326899 3.9321201 5654586
0.809484 0.53497499 3.9509301 5720122
0.81914401 0.53686303 3.9456699 5917757
0.82860303 0.53927898 3.94418 9470061
0.82664299 0.538149 3.93641 9272425
0.83698899 0.53709799 3.9493799 8417374
0.84524399 0.54007399 3.94836 12496021
0.86515099 0.53912199 3.94928 13087644
0.87433702 0.54165399 3.95015 13218716
0.88101298 0.53925103 3.95469 13218973
0.89365602 0.53818798 3.90152 13283994
0.90167803 0.539455 3.9098301 13020822
0.91000003 0.537247 3.91945 12757651
0.91461003 0.537386 3.9121799 12823187
0.91985297 0.53859699 3.9014001 13020822
0.92618501 0.540811 3.89904 12954772
0.93584901 0.53799701 3.9057701 12165256
0.94309098 0.53844601 3.9031401 12362636
0.95162201 0.53897899 3.9007499 12296843
0.96704602 0.538993 3.90166 12889236
0.97457403 0.54043001 3.90012 12888981
0.99469 0.54334301 3.89415 12626321
1.01013 0.542364 3.8996201 12428685
1.01906 0.54487097 3.8947501 12165514
1.02425 0.54541701 3.8841 11902598
1.03272 0.54669201 3.88604 11771012
1.04008 0.54306298 3.8952301 11902341
1.06999 0.54722297 3.8770101 11441793
1.08017 0.54676801 3.8735001 10521205
1.10838 0.55042601 3.89414 11507585
1.11006 0.55073398 3.8798001 11442050
1.1173199 0.55281103 3.8905201 11508099
1.12099 0.551718 3.8833201 11574148
1.12951 0.551808 3.8754799 11837063
1.16203 0.55104601 3.8805201 11705220
1.21545 0.559246 3.90079 11968136
1.22451 0.55818498 3.9044001 12033928
1.2210701 0.558249 3.87956 11902085
1.22874 0.557338 3.8862901 11902086
1.2351 0.55883503 3.8837099 11704706
1.24178 0.56104898 3.88568 11507072
1.24913 0.55957401 3.8747101 11309949
1.25462 0.55905199 3.8761699 11375741
1.28237 0.56121701 3.89797 11309692
1.3446701 0.56315398 3.8573999 11836034
1.34944 0.56154799 3.8496301 11836291
1.52922 0.57003301 3.8175299 12888979
1.6702501 0.58520299 3.8407099 13415324
1.67515 0.579831 3.8065901 13349274
1.9007 0.59228599 3.77863 12691860
1.96053 0.59357899 3.7834499 11639429
-0.93507302 0.31402799 3.05091 460039
-0.93039298 0.316291 3.0478799 723210
-0.92931801 0.31406301 3.0486801 723467
-0.0410465 0.49995899 4.09058 2892056
-0.030949499 0.500781 4.0746102 2892056
-0.022226101 0.49936399 4.0527501 3089178
-0.00542555 0.50073999 4.0676899 3483679
-0.0057612001 0.50127101 4.07125 3483679
0.00362791 0.49921399 4.07797 3352094
0.0120087 0.50384301 4.0763998 4141864
0.028565601 0.502662 4.0859699 4273193
0.035169698 0.502285 4.0833602 4273449
0.041891899 0.50266898 4.085 4273450
0.0467171 0.50449997 4.0925398 4273450
0.212874 0.46411601 3.6556399 3943964
0.219107 0.46399501 3.6536901 5588521
0.21996801 0.466414 3.65189 5917741
0.22633401 0.46622801 3.6500199 6246451
0.71899402 0.53594798 3.9416399 5391670
0.72075099 0.53324997 3.9261501 5391670
0.72873199 0.53137797 3.9263 5523000
0.73406202 0.53407502 3.9226501 5654586
0.74950302 0.534486 3.9229901 5720379
0.76445001 0.53914797 3.9273701 5325879
0.77057999 0.54009402 3.93241 5391671
0.77070099 0.53895301 3.9300301 5391671
0.775729 0.54030299 3.93455 5523001
0.77710098 0.53851402 3.93555 5523001
0.78570199 0.53971398 3.9339001 5589049
0.79116797 0.53950202 3.9322801 5720634
0.795313 0.53855699 3.9292099 5720377
0.80339998 0.539087 3.9363101 5851962
0.80962503 0.53947598 3.94014 6312512
0.81915498 0.54137802 3.9353299 10653819
0.82870102 0.54341203 3.93137 12955544
0.83363003 0.54483002 3.9409699 13021337
0.83944899 0.54130399 3.93926 12956315
0.84514302 0.54376602 3.9373801 13218715
0.85527098 0.54161501 3.94221 13350301
0.89375901 0.542445 3.8899601 13218458
0.90059602 0.54392397 3.89398 13020823
0.91988897 0.543365 3.8935299 13086616
0.92658699 0.54372197 3.89504 12955029
0.93372899 0.54222202 3.89607 12428428
0.93497699 0.54531997 3.89101 12362892
0.94344401 0.54314798 3.8962901 12099464
0.95054698 0.54534 3.89098 12428685
0.956756 0.54273599 3.89222 12757651
0.98812199 0.54503399 3.8924301 12823444
0.99458802 0.54827702 3.8859501 12297099
1.00254 0.54702801 3.8906 12165770
1.00616 0.54938197 3.87816 12099977
1.0185601 0.54708803 3.8807199 11902598
1.0358 0.54845297 3.8837399 11771013
1.04101 0.54899299 3.8761001 11771013
1.05746 0.55189502 3.8736801 11705221
1.06376 0.550138 3.8751299 12297358
1.06946 0.55211198 3.8702199 12889752
1.08279 0.55167699 3.8686199 11376771
1.1028399 0.553945 3.8779099 11705221
1.14397 0.55781603 3.8683901 11770756
1.15118 0.554362 3.87062 11639171
1.16425 0.55734402 3.8763599 11902343
1.16502 0.55612701 3.87552 11968136
1.17626 0.55985999 3.8716099 11967878
1.18522 0.55880302 3.8783801 11902085
1.18703 0.55628598 3.8640001 11770500
1.19837 0.557724 3.8687899 11902343
1.1933399 0.55898798 3.8560801 11704708
1.22884 0.56268102 3.88221 11573121
1.2157201 0.56146902 3.85796 11507072
1.21566 0.56144297 3.85778 11572864
1.32287 0.56926602 3.8589201 11704194
1.32473 0.567765 3.83992 11836035
1.33073 0.56554103 3.8379099 11770242
1.3386101 0.56693399 3.84115 11770498
1.54678 0.57806402 3.7980399 12888980
1.5592901 0.575661 3.7874701 12428428
1.65452 0.58793902 3.83498 13349531
1.66398 0.58924699 3.8352399 12954516
1.67197 0.59066403 3.83637 12625551
1.66913 0.58527601 3.8171 12823187
1.67616 0.58428597 3.8222301 13151895
1.67356 0.58740801 3.8074 13349787
1.69143 0.58579499 3.78917 13349530
1.89068 0.59652799 3.77367 12757909
1.9018199 0.59661102 3.77126 12428945
1.98357 0.60018301 3.73755 13942696
1.98297 0.60139102 3.73791 13876903
-0.93923998 0.31983 3.0550499 328709
-0.93148702 0.31920499 3.05124 657417
-0.92756802 0.32157701 3.0518 920588
-0.81037802 0.462897 4.1981301 131587
-0.80293298 0.462596 4.1924701 131587
-0.80157101 0.46218601 4.1918602 131586
-0.79571998 0.467269 4.1985302 197378
-0.712816 0.449085 4.0173502 1775635
-0.70254397 0.44775301 4.0034099 1972758
-0.0618321 0.498373 4.0507302 2892055
-0.0557856 0.50403899 4.06493 2957849
-0.045772702 0.50064099 4.0708399 2826519
-0.038068399 0.503025 4.06743 2957849
-0.028975001 0.50106102 4.0460801 3089178
-0.0212589 0.503353 4.0374498 3615265
-0.0126542 0.50103402 4.0476899 3549472
-0.0050806799 0.50555599 4.0573001 4010023
0.0259443 0.50762397 4.0834799 4273449
0.0455143 0.511567 4.0987802 4273449
0.21010999 0.47264999 3.6594501 3878427
0.214029 0.46955699 3.6575 4338973
0.2172 0.47442701 3.6572001 5720362
0.22434101 0.47118801 3.65205 6312242
0.22979701 0.471389 3.6510401 4930856
0.23652799 0.47141299 3.6505799 4733485
0.71968001 0.54113001 3.93328 5589048
0.72793502 0.54171199 3.92326 5589049
0.730775 0.53875202 3.9190099 5589049
0.74514002 0.53955501 3.91872 5588793
0.75807399 0.538643 3.92066 5391415
0.76559198 0.545012 3.9272499 5851706
0.76609099 0.54463202 3.9266901 5785914
0.777071 0.544779 3.93257 6378049
0.77470303 0.54492199 3.9288001 6641220
0.78250599 0.54455101 3.9317701 7101514
0.78837597 0.54448599 3.93118 8088151
0.794254 0.544424 3.9305501 9206373
0.79924601 0.54409403 3.9305501 9798252
0.80598098 0.544783 3.93802 10521718
0.81185699 0.54446799 3.9398701 11048062
0.81787801 0.54471302 3.9391799 11903113
0.81912798 0.546018 3.92592 12692115
0.88683897 0.54636502 3.8838201 13152410
0.89110702 0.54714698 3.8870299 13087129
0.89359403 0.54829597 3.8907101 13021080
0.92668903 0.54846698 3.8870599 12955029
0.93340498 0.55051398 3.8828101 12691858
0.94264901 0.54769701 3.88694 12165257
0.94844002 0.55158001 3.88236 12494735
0.95646501 0.54759097 3.8847899 12560272
0.98005998 0.55075902 3.8773999 12757907
0.98932099 0.55154598 3.8668699 12165771
0.99843299 0.55069703 3.8740201 12034441
1.00626 0.55438 3.8705299 11902599
1.01221 0.55396003 3.8768101 11902599
1.01551 0.55198902 3.8754699 11771269
1.02227 0.55214298 3.8787401 11573634
1.02948 0.55246198 3.88292 11508098
1.04366 0.554317 3.8784001 11507585
1.05261 0.55403203 3.8743801 11639427
1.0571001 0.55691803 3.8659799 11573892
1.0650001 0.55752599 3.8643 12297358
1.07225 0.55873603 3.8628199 12165772
1.0856301 0.55638897 3.86677 11902857
1.15132 0.55910498 3.8631301 11573378
1.1427701 0.56216002 3.85833 11573377
1.1582299 0.564228 3.85864 11836036
1.16658 0.56077999 3.8679299 11836292
1.18065 0.56181198 3.85847 11770756
1.18133 0.56206298 3.8602099 11770756
1.19285 0.56359297 3.8461699 11441535
1.19882 0.563187 3.8438499 11441534
1.20846 0.56280398 3.85409 11507328
1.22912 0.56806099 3.8754399 11441278
1.30451 0.57437098 3.86115 11638656
1.31766 0.57471198 3.86692 11638657
1.32023 0.57000899 3.8464999 11704450
1.33097 0.56994897 3.8371301 11902084
1.32849 0.57247901 3.8338499 12231049
1.33824 0.57173401 3.8343401 11901828
1.55624 0.58328003 3.7874501 13283737
1.65038 0.59370399 3.8280399 13086358
1.65887 0.59422302 3.83479 12823186
1.66178 0.594558 3.8343999 12757393
1.69146 0.59153199 3.7811699 13283737
1.70049 0.59061301 3.78443 13612703
1.8623199 0.59754902 3.7444899 13152668
1.87369 0.59873998 3.7562699 12889239
1.88772 0.59944397 3.75722 12560532
1.97259 0.601861 3.7425599 14074539
1.98241 0.604963 3.7467699 13679781
-0.93839997 0.324561 3.05705 394502
-0.93280602 0.324821 3.0569201 657417
-0.92605299 0.32539299 3.04948 986380
-0.85646302 0.47020501 4.2213998 131586
-0.84611601 0.47272801 4.2344298 131587
-0.83230197 0.47075501 4.2199202 131586
-0.82474899 0.47191799 4.2274899 131330
-0.81823897 0.470476 4.2115002 131586
-0.80822599 0.46941999 4.1997399 197379
-0.80160803 0.46941599 4.19696 263171
-0.80135202 0.46965301 4.1996398 263170
-0.75035697 0.463413 4.09584 2104342
-0.737095 0.45978299 4.0704198 2235671
-0.72337598 0.45693401 4.0427198 2367257
-0.70563501 0.454963 4.0233102 2630172
-0.077864297 0.50264102 4.0302901 2892056
-0.063889697 0.50392401 4.0534101 2957848
-0.056145798 0.50893301 4.0561399 3483935
-0.047536898 0.507972 4.0691099 3221277
-0.034156699 0.50670701 4.0415201 3747108
-0.035861 0.50656998 4.0483899 3549985
-0.0293054 0.50661302 4.04247 3878436
-0.0120487 0.50526202 4.0342798 3944486
0.028939599 0.502716 3.95666 4273449
0.20787799 0.47780901 3.66133 4010271
0.21341901 0.47920701 3.65782 5259559
0.219742 0.47910899 3.6570699 6377775
0.22792201 0.476026 3.6535599 5259305
0.23333099 0.47657201 3.6542599 4733483
0.72682703 0.54679602 3.9161799 5786172
0.73280001 0.544999 3.9198 5720380
0.74071503 0.54613298 3.9237299 5786172
0.747042 0.54447001 3.9157901 5786172
0.75357997 0.54458898 3.9186599 5720122
0.76350802 0.55046898 3.9258101 10653561
0.76063299 0.54485399 3.92504 5654328
0.76970899 0.55057698 3.9288099 11113854
0.77651 0.55047601 3.9305501 11574404
0.78137898 0.54979801 3.9279799 11771526
0.786919 0.55197698 3.9245501 12560527
0.79764497 0.54977101 3.9305799 12362892
0.80618 0.55058402 3.93804 12362636
0.818923 0.554331 3.9259901 12757393
0.86911398 0.54820698 3.8808 13284508
0.88006902 0.55143797 3.86885 13416352
0.88887602 0.55177498 3.8740201 13218973
0.92031902 0.551489 3.8855801 13218715
0.92623001 0.55326498 3.87956 13021080
0.93597603 0.55574101 3.87221 12297356
0.94142401 0.55295402 3.87937 12362635
0.94845498 0.55655599 3.8745899 12428942
0.98024702 0.55559897 3.8704 12495249
1.00567 0.55891401 3.8612299 11442049
1.01408 0.56027001 3.8643799 11310720
1.01432 0.55759799 3.86765 11310719
1.0300601 0.56002003 3.85905 11573892
1.0395 0.56126398 3.85584 11508355
1.0572799 0.56173301 3.85993 11639686
1.06557 0.56246603 3.85903 11771271
1.07863 0.560821 3.8609099 11968651
1.13124 0.56806701 3.8613901 11639171
1.14404 0.56673598 3.8515 11573377
1.15535 0.56925499 3.85865 11507584
1.1614799 0.565754 3.85519 11704706
1.17185 0.56600899 3.8654201 11704706
1.17284 0.57059598 3.85741 11375741
1.18222 0.56701702 3.8545401 11507327
1.1874 0.565678 3.85025 11507327
1.2225699 0.57145202 3.8560801 11507328
1.22552 0.56770802 3.8418801 11507070
1.29284 0.57466298 3.8374901 11770243
1.30107 0.57395703 3.8240099 11967621
1.3077 0.57586199 3.83306 11967622
1.31906 0.57430798 3.84181 11836035
1.33375 0.577007 3.82778 12428428
1.37231 0.58061397 3.8234999 12494223
1.54405 0.58339101 3.7876 13283737
1.5497299 0.58287299 3.78475 13349274
1.60418 0.59551603 3.82265 13152408
1.6101 0.59675902 3.8278201 13283737
1.6301 0.59593803 3.80917 13546910
1.63957 0.59461302 3.81726 13349531
1.64955 0.598728 3.8194799 13875619
1.67106 0.59964103 3.81441 14073254
1.67579 0.59841198 3.8013201 13612959
1.69472 0.59402698 3.7653501 13546910
1.69952 0.590913 3.7602799 13810339
1.9072599 0.60843998 3.76614 12099980
1.97394 0.61182499 3.75017 12560531
1.9782701 0.60864902 3.7485499 13284767
1.9801199 0.61182898 3.7362101 13021081
-0.94100201 0.32787499 3.0592501 263173
-0.93517798 0.33021101 3.0620699 591624
-0.92886603 0.32963401 3.0560901 986124
-0.92282301 0.32804701 3.0431099 1052173
-0.85870099 0.47472 4.2128701 131586
-0.852714 0.47691801 4.2228498 131587
-0.84700102 0.47782299 4.2281799 197379
-0.83860999 0.477153 4.22577 262914
-0.831361 0.47693601 4.2226801 328707
-0.81371999 0.476262 4.2106299 1052171
-0.80505902 0.47568101 4.2035198 1380880
-0.79828399 0.47568199 4.20225 1644308
-0.74478 0.47043499 4.09688 2761755
-0.73311299 0.467989 4.0716801 2893085
-0.0894446 0.50871599 4.04877 2892054
-0.0793892 0.50852799 4.0299301 3089176
-0.072790697 0.51089102 4.03228 3484191
-0.064363196 0.51186401 4.04671 3747363
-0.065318502 0.50965297 4.0510898 3352605
-0.0471703 0.51247799 4.0577998 4207658
-0.044847801 0.51102901 4.0446 4207658
-0.0327533 0.51048303 4.0248098 4207402
-0.032260999 0.51069701 4.0248599 4207402
-0.0224529 0.50949001 4.0384498 3944486
-0.0238184 0.51204997 4.02143 4075815
0.0250556 0.50755101 3.9610701 4273450
0.20780601 0.48245201 3.66293 3944221
0.219493 0.485116 3.6603799 6443312
0.22588199 0.481545 3.6591101 5456939
0.232058 0.481471 3.6552401 4733483
0.71211499 0.55184501 3.9396901 5720634
0.71948099 0.55221701 3.9275899 5654841
0.72697902 0.55211103 3.92081 6246720
0.73886901 0.55020702 3.91588 7167822
0.744847 0.55021501 3.91769 7956824
0.75093299 0.55023903 3.9195499 8877924
0.75778902 0.550538 3.9234099 9995890
0.76767802 0.55605698 3.9275 12823441
0.77562898 0.55481797 3.92466 12691856
0.778916 0.55424601 3.9177599 12757649
0.78506899 0.55656201 3.9149401 12822928
0.791942 0.55364698 3.9275701 12494477
0.81193298 0.55642498 3.9431 12691344
0.80714703 0.55010998 3.88765 12757393
0.81397599 0.55005503 3.8766501 13020566
0.82607001 0.55239499 3.88132 13086616
0.83672702 0.55353999 3.87672 13284508
0.86363697 0.55486202 3.8757401 13482145
0.86981398 0.55322403 3.8728001 13284766
0.87459999 0.55245399 3.8734 13350559
0.88993102 0.55735803 3.8659799 13350303
0.896487 0.555242 3.8703101 13218459
0.90266299 0.55537999 3.87185 13087130
0.90762103 0.55350101 3.8652 13021336
0.92151701 0.557742 3.8696899 12758164
0.93005902 0.55924398 3.8656499 12363406
0.93761998 0.56037301 3.8661301 12560785
0.948412 0.56151402 3.8666999 12757909
0.952268 0.55908698 3.86291 12757908
0.959575 0.55689597 3.8593199 12757908
0.97823 0.56214797 3.86099 12495250
0.98033202 0.55966502 3.86251 12166285
0.99134701 0.56038302 3.8650401 11968393
0.99892199 0.56212097 3.8600399 11968393
1.0053999 0.56378299 3.8529999 11244927
1.0068001 0.56388801 3.8552599 11244927
1.01357 0.564726 3.8545401 11310977
1.0218 0.56279999 3.8585 11508099
1.02235 0.562029 3.8592601 11508099
1.03127 0.56380302 3.85168 11903112
1.0411201 0.56642199 3.8509901 11968906
1.04861 0.563712 3.8538301 11442306
1.06558 0.56755698 3.85338 11837063
1.0724 0.564659 3.86239 12099979
1.12824 0.57037401 3.8582101 11639170
1.11703 0.57038403 3.83986 11639170
1.12966 0.57210201 3.8489699 11573377
1.12973 0.57214898 3.8491299 11573377
1.1377701 0.56971997 3.85202 11704706
1.14226 0.57068199 3.8387301 11375999
1.1551501 0.574103 3.85167 11178619
1.1612099 0.57076198 3.84653 11309948
1.21401 0.57445502 3.8498399 11638657
1.22351 0.57500702 3.8429501 11770243
1.27705 0.57844102 3.8326001 11638657
1.28462 0.576285 3.8329101 11638656
1.2930599 0.579624 3.8298099 12099206
1.31912 0.578794 3.8327601 12230794
1.32538 0.57842398 3.8276 12691600
1.3521399 0.58350998 3.8193099 12428428
1.3610899 0.58391899 3.8150201 12296842
1.37055 0.58446598 3.8115599 12428685
1.37845 0.58219498 3.81687 12165258
1.38449 0.58503801 3.81095 12362636
1.39177 0.583597 3.8150401 12362380
1.39921 0.58219802 3.81937 12493966
1.40188 0.58476001 3.80847 12691857
1.41152 0.58642399 3.8048699 12494221
1.6015199 0.59728903 3.8034 13678753
1.61384 0.60043103 3.8066199 13612959
1.62831 0.59800601 3.8060601 13744289
1.66712 0.60043699 3.79145 13612703
1.6908 0.601919 3.76864 13414811
1.69499 0.598773 3.7576499 13744033
1.9749 0.61412901 3.7319901 12428687
1.98265 0.61625201 3.7297201 12823445
2.05439 0.618662 3.7107301 12625552
2.42788 0.63972998 3.67575 13942439
-0.93115699 0.33424899 3.0599899 854795
-0.92590201 0.332885 3.05021 1051916
-0.893969 0.47523499 4.1974101 131587
-0.87806499 0.477761 4.2021599 131586
-0.87429702 0.47856799 4.2105298 131330
-0.87254697 0.47951001 4.2063599 131586
-0.86588198 0.479487 4.2067699 197379
-0.85810202 0.48102 4.21977 460293
-0.84552097 0.48616999 4.22645 1907222
-0.83490998 0.48253399 4.2220602 1578258
-0.82959199 0.48315901 4.2212 1906965
-0.820059 0.48230499 4.2133698 2038550
-0.735484 0.47277999 4.0767498 3090206
-0.72393799 0.46811399 4.0510898 3090207
-0.712439 0.465707 4.0265002 3155999
-0.121695 0.51016301 4.0434799 2892055
-0.127278 0.51071602 4.0355902 2892056
-0.110211 0.51362199 4.05024 2957592
-0.11356 0.51339698 4.0426502 2957592
-0.114709 0.51426399 4.0403199 2957592
-0.103661 0.51260698 4.0594001 2957592
-0.106815 0.51595497 4.0458798 3154714
-0.094916403 0.51211399 4.04035 3023384
-0.088141903 0.51302701 4.0359802 3286299
-0.064141698 0.51630098 4.0352001 4207657
-0.064863302 0.517079 4.0383902 4207657
-0.057048101 0.51549298 4.0542102 4207914
-0.022824099 0.51255798 3.9849501 4076071
-0.017437899 0.51531303 4.0085301 4010022
-0.025082501 0.50988799 3.9749701 4141608
-0.0105327 0.51495802 4.0029998 4010021
0.028214199 0.51225901 3.96977 4405036
0.034999501 0.51250702 3.9639499 4536621
0.212807 0.485176 3.65921 5522729
0.222363 0.490453 3.6645899 6048815
0.23023599 0.48686799 3.6593599 4733484
0.67975801 0.54921103 3.88148 5589048
0.70319498 0.55182999 3.91394 5720634
0.71159798 0.55558598 3.9244299 5918012
0.71929902 0.55658501 3.91716 8746338
0.72677797 0.55706298 3.9156799 11311493
0.73541999 0.55542803 3.91416 11771786
0.73401898 0.555695 3.9152901 11574664
0.741705 0.55555099 3.9167399 12298130
0.74757397 0.55555302 3.91857 12627093
0.753277 0.555498 3.9196999 12823958
0.75477803 0.55615997 3.92137 12823958
0.75896001 0.55551702 3.9199901 12823700
0.76405799 0.56178302 3.9270301 13020051
0.77271301 0.55733597 3.91677 12822928
0.80772102 0.554492 3.8735199 12823186
0.81444699 0.55493498 3.87059 13349530
0.82321298 0.55665898 3.86971 13481373
0.82920098 0.554784 3.87269 13350301
0.83675098 0.558429 3.8689699 13679523
0.843346 0.55596 3.87397 13152923
0.87123901 0.55698103 3.85553 13614245
0.88133103 0.561827 3.86134 13680039
0.89991099 0.55950898 3.86499 13152924
0.90509403 0.55816698 3.8593199 13153179
0.912552 0.55971801 3.85761 12955801
0.92123997 0.562231 3.8606601 12692629
0.92524701 0.563124 3.8537099 12692373
0.93404102 0.56346297 3.8494699 12692372
0.94841599 0.566374 3.85832 12955802
0.95226598 0.56438798 3.85636 13021338
0.95628101 0.56350303 3.8519001 13284254
0.96891201 0.56406498 3.8528099 12890009
0.97965598 0.56382197 3.8531499 12626835
0.98189902 0.56753099 3.8487 12889751
0.99658197 0.56861401 3.8478899 11968392
1.00006 0.56779897 3.8497801 11705477
1.00666 0.568268 3.84658 11376769
1.01466 0.56564802 3.85043 11705734
1.01324 0.56868398 3.84302 11837062
1.02205 0.56583703 3.84723 11837319
1.06559 0.57262498 3.84779 11836807
1.07205 0.56889302 3.8505599 11968649
1.08012 0.572173 3.8466201 11902343
1.09389 0.57413799 3.8406999 11836293
1.10956 0.57261503 3.82388 11573377
1.12397 0.57452899 3.84656 11507584
1.12964 0.576608 3.8396001 11441534
1.13756 0.57415199 3.8422599 11441791
1.14267 0.57529598 3.8302 11178619
1.15759 0.57516402 3.8092 11375484
1.24955 0.58121097 3.8216701 11441277
1.26232 0.58152503 3.82446 11572862
1.2544 0.580001 3.8171599 11441277
1.2681 0.57923597 3.8234701 11572863
1.27712 0.583574 3.82567 11638656
1.28509 0.58221501 3.8308599 11770241
1.29188 0.58281898 3.81106 12362379
1.3018301 0.58533698 3.80828 12625295
1.32622 0.583547 3.8214099 12494222
1.33092 0.58261901 3.80969 12362378
1.33912 0.58330297 3.80586 12231049
1.35199 0.58879298 3.81037 12230793
1.37717 0.58664101 3.8074701 11967878
1.3848 0.59025401 3.8041601 12757394
1.3917 0.58885199 3.80775 12625808
1.39616 0.58662599 3.80706 12560014
1.40409 0.58901602 3.8022101 13152408
1.41135 0.59097397 3.7960801 12428172
1.58524 0.60026097 3.80038 13744289
1.58936 0.60082 3.7971699 13810081
1.61552 0.60628903 3.8044801 14270890
1.6182899 0.602669 3.7995601 14139560
1.61968 0.60334402 3.7901001 14534062
1.62765 0.60165799 3.7946301 14534062
1.64117 0.60695499 3.8027599 14205097
1.69224 0.60234398 3.7663801 13415068
1.68814 0.60418701 3.7579999 13283481
1.69959 0.60317999 3.7542901 13810082
1.9793 0.61978799 3.7318299 12362894
1.97913 0.61884803 3.7284999 12494224
2.04719 0.620197 3.7056701 12691345
2.0590301 0.61944699 3.69521 12822931
2.0432899 0.61660302 3.6670599 12823188
2.05005 0.61669302 3.6565001 13086359
-0.94576299 0.338819 3.0799699 328965
-0.93755001 0.33752999 3.06863 591880
-0.92298299 0.336184 3.0448999 1052173
-0.91633201 0.48260799 4.19099 131330
-0.91157299 0.48314399 4.1957998 131586
-0.901712 0.48140699 4.2027202 131587
-0.89217001 0.48253801 4.19839 197123
-0.86137801 0.486417 4.2084999 1841430
-0.85596001 0.486772 4.2231498 1841430
-0.84632599 0.48958099 4.2277999 2301722
-0.827797 0.48768899 4.2091999 2433050
-0.82055998 0.48801699 4.20753 2564380
-0.73544002 0.480149 4.0823202 3221535
-0.72400099 0.47551501 4.05723 3221792
-0.158517 0.515347 4.0293798 2826520
-0.149949 0.51333398 4.0241299 2826519
-0.139265 0.51537502 4.0403199 2892055
-0.142814 0.514337 4.0451899 2892055
-0.13240799 0.51636797 4.0336399 2892055
-0.123302 0.51666802 4.03159 3023385
-0.072734497 0.51566899 4.0229301 4010278
-0.0703649 0.51661098 4.0129499 4010279
-0.0249558 0.51265901 3.9510601 4273194
-0.0144654 0.51822501 3.9845099 4141864
0.204668 0.493402 3.6665499 4075551
0.21060701 0.492917 3.66555 5391143
0.228012 0.49280101 3.66677 4799275
0.66351497 0.55501902 3.91169 5457207
0.65596199 0.55557698 3.9061301 5457207
0.67258298 0.55771297 3.9165201 5457207
0.70233202 0.55813903 3.9163799 7035978
0.71188498 0.56044 3.90955 11969679
0.71955699 0.56041598 3.90484 12889752
0.72745502 0.56174397 3.9091899 13152409
0.734267 0.56051701 3.9119501 13152409
0.74192101 0.55991298 3.91117 12955286
0.74883699 0.56033301 3.9154201 13020822
0.774055 0.55858999 3.8882999 12954515
0.78248101 0.55900401 3.88464 12757136
0.775159 0.55960399 3.8568201 12691343
0.79065198 0.560076 3.88715 12625550
0.80134302 0.56047702 3.87658 12428426
0.80637097 0.55999702 3.86725 12560012
0.81274301 0.55999202 3.86443 13086614
0.82210702 0.56067401 3.86041 13679266
0.82732099 0.55938703 3.86339 13745060
0.82927698 0.563043 3.85672 14140332
0.83671898 0.56357598 3.8639901 14008747
0.84333199 0.56103498 3.86852 13547939
0.860497 0.56119603 3.85478 13614502
0.86772501 0.56192398 3.85779 13943211
0.893058 0.56307799 3.85571 13087901
0.90372401 0.56432098 3.8573599 13482403
0.91239899 0.564843 3.85286 13614245
0.91838098 0.566459 3.8501101 13285024
0.923751 0.56781697 3.8461499 13218975
0.92954803 0.56854302 3.83986 13021852
0.94048101 0.56762701 3.85302 12890008
0.956285 0.57020003 3.85536 13482659
0.96284503 0.56777298 3.8505399 13482659
0.97496402 0.57104701 3.84951 13481890
0.98170203 0.57253301 3.84307 12823445
0.99547601 0.57231802 3.83657 11902343
1.0098 0.57415801 3.8429401 11837063
1.07322 0.573771 3.8439801 11902342
1.08471 0.57856101 3.8478799 11770755
1.07937 0.57897699 3.8378601 11770499
1.09427 0.57948899 3.8359101 11573634
1.12052 0.57863998 3.8563499 11507328
1.14039 0.57766598 3.8338301 11244156
1.13677 0.582232 3.83023 11375742
1.14106 0.58050901 3.8212099 11375998
1.16322 0.57987201 3.8083501 11441534
1.25085 0.58548999 3.8196199 11770242
1.25585 0.58485001 3.8125899 11967878
1.2591799 0.58522397 3.8085301 12099207
1.2687401 0.58442599 3.81725 11901828
1.2851599 0.58723003 3.82358 12230793
1.2767299 0.58794498 3.81423 12099207
1.29189 0.58769798 3.8031099 12493709
1.3013099 0.589571 3.7990401 12230794
1.30127 0.58955801 3.79895 12230794
1.3149199 0.58690798 3.8122799 12230793
1.3223701 0.58669698 3.8052499 12230793
1.32672 0.590424 3.79846 12362635
1.33075 0.58870101 3.80073 12494221
1.3389699 0.58701801 3.79636 12296842
1.35066 0.59339398 3.80038 12165000
1.34736 0.592417 3.7931299 12165257
1.35744 0.59364098 3.7988999 12099464
1.36274 0.59297901 3.7965701 12296843
1.37449 0.59011602 3.7973399 11967621
1.3709 0.59304798 3.7915599 12033158
1.3840899 0.59106803 3.79217 13086102
1.3955899 0.59113097 3.7976501 13283737
1.40333 0.593548 3.7918601 13349787
1.41076 0.59551102 3.78773 12165256
1.41969 0.59319103 3.7934599 13152150
1.41874 0.59512699 3.7811601 13349530
1.61182 0.60723698 3.8031001 14205097
1.61461 0.60872799 3.7886901 14270890
1.61632 0.607337 3.77492 14270890
1.62017 0.60521603 3.76916 14205097
1.6891201 0.608365 3.7560799 13086102
1.69423 0.60650498 3.75524 13349531
1.69261 0.60920203 3.7474599 13152152
1.69823 0.60792398 3.7455101 13678753
1.97622 0.62443203 3.7304599 12165002
1.9777499 0.626773 3.72528 12099465
1.97864 0.62249398 3.7191999 12296844
1.98044 0.62613499 3.7080801 12230794
2.0503199 0.62939399 3.7120399 13086104
2.0506499 0.62975401 3.6981599 13349532
2.04895 0.62773699 3.68679 13612448
2.0459599 0.620359 3.65997 13217946
2.0434101 0.62129998 3.66012 13349532
2.40749 0.64977598 3.6835699 14205868
2.3706601 0.64215201 3.6257501 14139819
2.3737099 0.63849503 3.62009 14140075
-0.94208002 0.34240201 3.0755401 394759
-0.93879098 0.485425 4.1942301 131586
-0.92537099 0.481529 4.1844301 131586
-0.92456597 0.484108 4.1905499 131586
-0.90739501 0.48708799 4.2022901 460294
-0.89679402 0.48901901 4.19452 1709846
-0.89012003 0.48775601 4.2077498 1249294
-0.87659901 0.49075201 4.2084398 2433309
-0.86936098 0.49126199 4.1988502 2564381
-0.86084902 0.490585 4.1954002 2564380
-0.84169298 0.49325001 4.2129002 2630172
-0.82946599 0.49305099 4.2133999 2827292
-0.81663901 0.49320301 4.1957998 2958621
-0.744721 0.48142201 4.0824599 3156000
-0.176364 0.52044898 4.0310102 2826263
-0.15860701 0.52055299 4.02384 2892056
-0.150096 0.51873499 4.02034 2892055
-0.141996 0.52043998 4.0349102 3023385
-0.139689 0.52049899 4.0331402 3023641
-0.132769 0.52302998 4.0353699 3418143
-0.126645 0.52295601 4.0374899 3549729
-0.119323 0.52517498 4.0370898 4075815
-0.110329 0.52255797 4.0497298 3812644
-0.107019 0.52655399 4.0483499 4141609
-0.028961601 0.516159 3.95012 4404780
-0.023086101 0.51504201 3.93659 4405037
0.00760028 0.52265799 3.9684401 4339243
0.004158 0.52208197 3.9607401 4405035
0.0072256299 0.523709 3.9723201 4404779
0.200987 0.49932399 3.6717 4338725
0.20659301 0.498422 3.66769 4536097
0.212713 0.49815401 3.6683099 6114605
0.218995 0.49842599 3.6681299 6377777
0.225879 0.498119 3.67045 4930601
0.52534997 0.55315101 3.9114101 5588794
0.52534997 0.55315101 3.9114101 5588794
0.52659601 0.55036598 3.90957 5523001
0.53140002 0.55249399 3.91571 5588794
0.53010201 0.55363899 3.8978801 5720380
0.64634103 0.561683 3.90062 5588794
0.64960098 0.560866 3.9104099 5523001
0.66426498 0.56101602 3.91399 5654585
0.67271799 0.56205201 3.90639 6772808
0.68083602 0.56376803 3.9031401 10522235
0.692599 0.56551099 3.90184 12889752
0.702277 0.56237298 3.9051099 12495508
0.70566398 0.56439102 3.90623 13087131
0.713682 0.56620598 3.9115701 13152409
0.71971202 0.56426603 3.89307 13086359
0.73463702 0.56311798 3.90114 13217688
0.77415103 0.56511003 3.858 12559757
0.80615401 0.56561798 3.8624401 12494220
0.81329 0.56454003 3.8568201 13218201
0.821711 0.56655997 3.86306 13810853
0.83889103 0.56852603 3.8592401 13811881
0.84378898 0.56725198 3.8596699 13614502
0.85864699 0.56730598 3.8535299 13548453
0.853414 0.56895298 3.8499 13351074
0.88752699 0.56844699 3.85501 13811625
0.89181602 0.56828803 3.8491299 13746089
0.89941102 0.57111299 3.8506401 13746088
0.895064 0.57305503 3.84812 13877675
0.90551698 0.568461 3.8492301 13680039
0.911385 0.56967902 3.8462 13548452
0.915043 0.57087302 3.8396599 13548710
0.92329299 0.57244802 3.8387101 13482661
0.93775201 0.57192302 3.84304 12824217
0.94886899 0.57515001 3.8466599 13416867
0.96503198 0.57374299 3.8420601 13811626
0.97508502 0.57542002 3.8401301 13021339
0.98414302 0.57678801 3.8345399 12231564
1.00291 0.57568598 3.83796 12033928
1.0420901 0.57842898 3.81358 11836549
1.05574 0.57796699 3.8236899 11902342
1.05804 0.577721 3.81652 11836549
1.06861 0.57687998 3.8207099 11770756
1.08514 0.58403498 3.8424399 11639170
1.0865999 0.58040899 3.83041 11639170
1.08869 0.58301198 3.8180799 11441534
1.12796 0.58399898 3.8231101 11507326
1.12985 0.58500499 3.8110499 11573120
1.13682 0.583125 3.8041999 11573120
1.25366 0.58998001 3.8065801 12165257
1.2596101 0.59174103 3.81269 12165257
1.26867 0.58920503 3.8085001 12099207
1.28988 0.59283298 3.7920899 12493709
1.32188 0.59437001 3.7809899 12230792
1.32873 0.59324503 3.7862 12691343
1.33648 0.590352 3.78267 12362635
1.33836 0.59531498 3.7795801 12691343
1.35066 0.59793401 3.7934101 12559758
1.3614 0.59688199 3.78532 12560014
1.37458 0.59429199 3.7876 12493965
1.38161 0.59587699 3.78405 13283480
1.3953201 0.59734303 3.7813799 13151894
1.40308 0.598001 3.78303 13481116
1.40185 0.599199 3.7799101 13546909
1.4094 0.598818 3.7801399 12955028
1.41062 0.599558 3.7779801 13086614
1.41666 0.60050702 3.77457 12757649
1.61203 0.612701 3.7772999 13876132
1.61237 0.611579 3.7664001 13876132
1.67831 0.61437303 3.75791 12889236
1.69726 0.61321902 3.7398601 13481375
1.69107 0.61379099 3.73508 13020823
1.70411 0.613083 3.7433901 14008233
1.8671 0.62806797 3.7409899 13613992
1.88442 0.62687498 3.74283 12560788
1.97481 0.63034302 3.73248 12099466
1.97773 0.63005698 3.71243 11901829
2.0056701 0.627307 3.69136 12691344
1.99147 0.62534797 3.6621301 12625809
2.0517299 0.63415301 3.7098999 13152154
2.0518401 0.62598801 3.65991 13678754
2.36567 0.65447903 3.6775701 14271661
2.3998201 0.658099 3.71521 14337197
2.3731599 0.64640701 3.62007 13481374
2.37586 0.64265603 3.6138799 13481631
-0.94029498 0.34553301 3.0608399 394503
-0.92584002 0.345348 3.04877 986381
-0.94122303 0.48467299 4.16224 197123
-0.94116098 0.49224499 4.1922302 526087
-0.92004001 0.49001399 4.1581502 1578516
-0.91720402 0.49069899 4.1853399 1315345
-0.91086 0.49285099 4.1816702 2236188
-0.90767002 0.49179101 4.1897402 2038810
-0.90294701 0.494885 4.1964698 2630688
-0.89274102 0.49258 4.2017598 2498846
-0.88250101 0.49687099 4.2016902 2761757
-0.84177798 0.498918 4.1975198 3024415
-0.835262 0.500341 4.2121301 3024413
-0.827474 0.50050199 4.2061701 3089950
-0.81924099 0.50050998 4.2017999 3155742
-0.81191599 0.50081301 4.1998501 3155742
-0.191881 0.52344102 4.0546098 2891799
-0.191874 0.52344698 4.0546598 2891799
-0.185058 0.52740902 4.0546198 2891800
-0.16779301 0.52574301 4.0304899 2957848
-0.160561 0.52674598 4.0249701 3286557
-0.15192699 0.52533698 4.02566 3352606
-0.14431299 0.52456599 4.03123 3418143
-0.135649 0.52899498 4.0381398 4010022
-0.13896701 0.527282 4.0317998 3944230
-0.110584 0.52905798 4.0229101 4207402
-0.073632203 0.51437199 3.92291 4010278
-0.036865398 0.52081299 3.9470899 4273450
-0.031209501 0.51956999 3.93086 4339243
0.00018070301 0.52764499 3.95276 4668207
0.20113599 0.50431401 3.6744299 4141345
0.206358 0.50453198 3.6703501 4865315
0.216447 0.50334698 3.66992 6443569
0.22269499 0.50319999 3.67152 5456684
0.225137 0.50852001 3.6752701 4930860
0.492116 0.55930102 3.9252999 5523001
0.49562499 0.55796701 3.9152999 5523001
0.51634097 0.55529499 3.8913801 5654587
0.526362 0.55544698 3.90201 5720380
0.53135097 0.55713397 3.89575 5786173
0.60972899 0.56324202 3.8914299 5523000
0.622567 0.56591702 3.91201 5325878
0.62956101 0.56331003 3.9112401 5523001
0.630566 0.56386203 3.8936801 5457464
0.63067698 0.56439102 3.8970001 5457464
0.641415 0.56320602 3.9081299 5523257
0.65649098 0.56486797 3.90254 6509635
0.65427798 0.56484997 3.9036801 6114878
0.66531801 0.56556797 3.8996301 9535597
0.68065602 0.56797802 3.8915901 13152666
0.68955702 0.56597698 3.9015801 12824215
0.70817202 0.56554699 3.8559599 13152407
0.72619998 0.56750298 3.8573599 13152149
0.73469198 0.56695902 3.8643501 13086356
0.80465603 0.567626 3.8470099 12559757
0.81321299 0.56897402 3.84899 13021079
0.820728 0.57200599 3.85373 13482401
0.82872403 0.57432199 3.8503301 13680295
0.84306198 0.57187098 3.8482201 13548709
0.85224402 0.57377797 3.84233 13482147
0.85791802 0.57181001 3.8446701 13614503
0.86272001 0.574772 3.8401401 13877676
0.89063698 0.57326698 3.84167 13943468
0.92222899 0.57727402 3.8294899 13811882
0.935893 0.57666302 3.83617 13285025
0.95473301 0.57818502 3.8409801 13745833
0.95796102 0.57946801 3.83041 13482148
0.96530902 0.57827598 3.8338399 13416354
0.96602798 0.578179 3.8348601 13350818
0.97508401 0.57938498 3.8283 12560529
1.02711 0.58374 3.8137901 12033671
1.04812 0.580836 3.81727 11836549
1.0563101 0.583323 3.8204801 11704963
1.06037 0.582605 3.8141201 11639170
1.07241 0.58257401 3.8206201 11573377
1.06655 0.58266503 3.8178699 11573377
1.08465 0.58502102 3.8196499 11441534
1.08522 0.58514899 3.8209701 11441534
1.12365 0.58703798 3.82412 11507326
1.12095 0.58672202 3.80373 11573119
1.25307 0.59406501 3.7952199 12362380
1.28167 0.594877 3.7851501 12099207
1.28959 0.59709197 3.7823 12493965
1.31203 0.599033 3.78179 12493964
1.31881 0.59696299 3.7850499 12362378
1.32812 0.59879202 3.7789199 12888722
1.3327 0.59649098 3.77404 13020307
1.33883 0.59973001 3.7730701 12888721
1.35377 0.59866202 3.78246 13086102
1.36431 0.59835702 3.77953 12033414
1.37133 0.59887999 3.7727499 11967620
1.37429 0.597839 3.77526 12428428
1.38174 0.59997302 3.7747099 13152150
1.38538 0.60195601 3.7697101 13481114
1.40289 0.60273099 3.77619 13612702
