# .PCD v0.7 - Point Cloud Data file format
VERSION 0.7
FIELDS x y z rgb
SIZE 4 4 4 4
TYPE F F F U
COUNT 1 1 1 1
WIDTH 1217
HEIGHT 1
VIEWPOINT 0 0 0 1 0 0 0
POINTS 1217
DATA ascii
0.712488 0.71450198 2.3659999 11902086
0.72774899 0.71630001 2.3645101 12165001
0.73271799 0.71319902 2.3654599 11901830
0.73892498 0.71600401 2.3730099 11901830
0.76008201 0.71715099 2.3745301 11967877
0.77809501 0.71805602 2.3769701 11901828
0.78259999 0.71802902 2.3724799 12165256
0.78740102 0.71560502 2.37444 12033670
0.79205298 0.71757001 2.37955 12099463
0.79741597 0.71609497 2.3741701 12033670
0.81006199 0.71943599 2.3779399 11704963
0.83744597 0.71776497 2.3717201 12888978
0.85263002 0.71771902 2.3749001 12822930
0.86749798 0.71234798 2.36222 12625807
0.92209798 0.71644598 2.3762901 12494221
0.50832802 0.71067899 2.3375001 12099207
0.51184702 0.71640199 2.3462801 11901828
0.525253 0.72412199 2.37678 12033670
0.51948398 0.72182602 2.36427 11967621
0.51644403 0.71650797 2.3487699 11967621
0.52481002 0.72347403 2.3747499 11967878
0.52592099 0.72422802 2.37427 11901828
0.53327 0.72053999 2.3629601 11901828
0.53834099 0.71942699 2.3661699 11902084
0.56297302 0.71797699 2.3564701 11704706
0.58336401 0.71970302 2.35831 11770499
0.59295797 0.72009701 2.36391 11638912
0.59469002 0.718207 2.3615899 11704449
0.60271299 0.71810102 2.3603401 11572863
0.60769898 0.717785 2.35957 11375741
0.61332601 0.71599102 2.34781 11507070
0.62910497 0.71904403 2.35956 11836035
0.63631302 0.71826202 2.3578 11704449
0.64013302 0.716717 2.36215 12033670
0.64563698 0.71987098 2.36289 11638913
0.64573801 0.71791202 2.35607 11704705
0.65440398 0.71931398 2.3613701 11902085
0.65446401 0.71922803 2.36113 11902085
0.66624802 0.717062 2.35303 11967365
0.67506802 0.71471798 2.35709 11836036
0.68034399 0.71665603 2.3582001 11836036
0.68657798 0.71544802 2.3577499 12033415
0.70442802 0.71851802 2.36393 12296587
0.70937401 0.71727002 2.36257 12231050
0.71400797 0.71785301 2.3663001 12230794
0.73270297 0.71915102 2.36883 12165000
0.75164402 0.71905202 2.37047 11967877
0.75378698 0.71861303 2.3664401 11901828
0.760849 0.72061902 2.3704901 11967877
0.76085401 0.72061402 2.3704801 11967877
0.774288 0.721075 2.37254 12296586
0.77829897 0.719661 2.36905 12559757
0.78722501 0.71932 2.3726001 12362378
0.79292703 0.72150302 2.3703001 12099207
0.82110298 0.71959698 2.37222 11967621
0.82848698 0.72217202 2.37955 12231049
0.85233903 0.72050101 2.36994 12625550
0.85509199 0.71957701 2.3705599 12428172
0.51839501 0.72145802 2.35236 11836035
0.51839203 0.72145498 2.35235 11836035
0.52145302 0.72051901 2.3484299 11836035
0.52913803 0.724226 2.36906 11770498
0.534356 0.723701 2.3654799 11704705
0.534226 0.72385001 2.36129 11638912
0.538598 0.72264898 2.3605299 11704449
0.56824303 0.716389 2.3471301 11704193
0.578237 0.71700698 2.34655 11770499
0.58912301 0.72213697 2.3624101 11638656
0.58271402 0.71926302 2.34533 11704449
0.59080303 0.72081202 2.3527801 11573119
0.60406101 0.71967399 2.3585999 11375741
0.60741401 0.72133797 2.35432 11836034
0.61308199 0.71952099 2.3470399 11901827
0.625027 0.71941102 2.3571999 11901828
0.63167602 0.71950197 2.35027 11836035
0.64052898 0.71995801 2.3602901 11573120
0.63905501 0.72027701 2.35655 11704449
0.64586902 0.72078001 2.3524699 12099463
0.649023 0.72044897 2.3571899 12033414
0.669222 0.72146302 2.3563299 12033158
0.67278701 0.71992803 2.3538599 12033158
0.68134499 0.72027701 2.3564 11967365
0.75097102 0.721816 2.36675 12296585
0.75414699 0.72250903 2.3659401 12428428
0.76174098 0.72399902 2.3675301 12296585
0.76908201 0.72251499 2.36957 12230792
0.77477199 0.72429401 2.3698599 12296585
0.78773397 0.72231799 2.36801 12362379
0.79697502 0.72384298 2.3683901 11901828
0.80095202 0.724594 2.3701601 12428171
0.81327802 0.72140598 2.36973 12362379
0.817119 0.72258699 2.3679099 12428172
0.82481301 0.72229201 2.3715 12362378
0.82971603 0.72444803 2.3692901 12428428
0.84474498 0.72115302 2.3666201 12625550
0.52689201 0.723611 2.3515401 11573119
0.52595001 0.72252798 2.34692 11638656
0.53113699 0.723786 2.3576901 11572863
0.56861502 0.72076797 2.3468101 11441276
0.57251102 0.720667 2.34484 11638912
0.57525998 0.72324598 2.3470199 12099206
0.57965302 0.723014 2.34604 12165000
0.59985697 0.726861 2.3589799 11967620
0.60056198 0.72548801 2.3641701 11572863
0.60368699 0.72411501 2.3590801 11836034
0.611682 0.720406 2.34954 12098950
0.61577201 0.71988499 2.3458099 11770242
0.61577201 0.71988499 2.3458099 11770242
0.63594502 0.72150397 2.3529201 11836035
0.63943499 0.72271401 2.3510499 12033414
0.65134901 0.72189498 2.3501899 11967877
0.66531497 0.72200298 2.3555901 11967364
0.66945899 0.724154 2.35323 12033157
0.67353803 0.722745 2.3514299 12230537
0.677338 0.722651 2.3516901 12164744
0.751454 0.72561198 2.36483 12428172
0.78764999 0.724585 2.3626201 11901572
0.79303199 0.72438401 2.3645599 12033158
0.79762697 0.72460598 2.3624799 12625551
0.80123001 0.72706199 2.3649099 12296586
0.80816698 0.72531199 2.3705001 12362379
0.81855398 0.72672498 2.36498 11901828
0.82970202 0.72648799 2.3638 12625550
0.84481698 0.72417402 2.3637099 12493965
0.86607403 0.72754401 2.36918 11902085
0.49945199 0.722534 2.33231 11967876
0.50494403 0.71988899 2.32986 11902083
0.53051502 0.726062 2.3491299 11770241
0.52717501 0.72483099 2.34021 11836035
0.53676403 0.72342002 2.33922 11770242
0.54853702 0.72540498 2.3434899 11901827
0.553101 0.72604799 2.3431699 11901827
0.56417602 0.72519898 2.34657 11704448
0.56852901 0.72550797 2.34306 11967620
0.57214701 0.72501099 2.3448601 12033414
0.58286399 0.72264397 2.3433001 12230793
0.586927 0.722534 2.33987 12165000
0.59250802 0.72230703 2.33811 11901827
0.60377598 0.72751898 2.3564401 11901827
0.61111403 0.72417998 2.3478701 12098950
0.61555201 0.72375101 2.3441899 12230536
0.61962998 0.72473198 2.34272 12296585
0.64596498 0.723746 2.34917 12033414
0.65176803 0.72524399 2.34863 12165000
0.66537201 0.72451198 2.35149 11901572
0.67387497 0.72568703 2.34881 12493452
0.70118803 0.72440898 2.34202 12362379
0.75265598 0.72626603 2.35849 11967877
0.78677899 0.728293 2.36151 12559758
0.793221 0.72538799 2.35849 12625550
0.79768097 0.72678602 2.3568599 12493965
0.813564 0.72769099 2.3623099 11836035
0.81840098 0.72829401 2.3575799 12428172
0.83372903 0.72720498 2.35725 12296586
0.83829302 0.72942603 2.3685601 12493965
0.83981103 0.72577399 2.35952 12559502
0.85983902 0.72889602 2.36448 12296841
0.86173099 0.72901201 2.36625 12033670
0.86593002 0.73022401 2.3648 12231049
0.86975801 0.72796702 2.36532 12230792
0.873299 0.72717899 2.36584 12428428
-0.321845 0.71693498 2.2860601 12560273
0.50613499 0.72280401 2.3284299 12033413
0.52054697 0.72457802 2.3283701 11836034
0.53195298 0.72550303 2.3350501 11967365
0.54091603 0.72533798 2.33637 11836034
0.54542297 0.72536498 2.3396299 11836290
0.56953198 0.72934097 2.34285 12164999
0.58270502 0.72600901 2.34021 12098950
0.61043799 0.72831798 2.34021 12230792
0.62358701 0.72766799 2.34267 12296585
0.651766 0.72753602 2.3434801 12822930
0.65184498 0.72801101 2.3420801 12822674
0.65598798 0.72583503 2.3413501 12296329
0.66076601 0.72791201 2.3413401 12296330
0.66553599 0.72692901 2.3473599 12164487
0.67057401 0.72943199 2.34513 12427915
0.679537 0.72703099 2.34198 12493709
0.696325 0.72809702 2.3435199 12230793
0.792907 0.73004001 2.36005 12428429
0.80404401 0.729909 2.3520701 12099464
0.80794698 0.72813398 2.3498299 11967621
0.81241 0.72888201 2.35326 12099464
0.81590199 0.727633 2.35186 12362379
0.83387101 0.728585 2.34905 12362635
0.83952099 0.72785503 2.3537199 12296586
0.85992002 0.73188299 2.36132 12559757
0.50076801 0.72748202 2.3312299 12296585
0.50370902 0.72884399 2.3271501 12230792
0.50812203 0.72667497 2.3299301 11967621
0.512097 0.72617102 2.32777 11902084
0.51686198 0.72614801 2.3271401 12033414
0.55234998 0.72827703 2.3373699 12230792
0.56383997 0.730483 2.3376601 12362378
0.56686401 0.72953099 2.33588 12427914
0.569938 0.728517 2.3339701 12362378
0.60481399 0.73003697 2.3371799 12428171
0.616337 0.727997 2.33497 12164999
0.62226301 0.72897798 2.3338799 12427915
0.632294 0.72961497 2.3389001 12296585
0.63501799 0.73057801 2.3418801 12362634
0.64780802 0.72938699 2.3404701 12757138
0.64725101 0.73004299 2.3362401 12296330
0.65192002 0.73014498 2.3397701 12296586
0.65608001 0.72859299 2.3375499 12230537
0.66539502 0.72867 2.3405499 12230537
0.73618102 0.73142499 2.34253 11967622
0.74588698 0.72923303 2.3452599 12033414
0.74829799 0.73141402 2.3420601 12165000
0.75334698 0.73155302 2.34518 12165000
0.75857598 0.73184299 2.3489699 11967877
0.76332402 0.73224598 2.35444 11967620
0.76323599 0.73207599 2.35432 11967621
0.80066699 0.73282701 2.35778 12230794
0.80068398 0.732858 2.3578801 12230794
0.80794501 0.73040903 2.34408 12559757
0.81189901 0.730304 2.34585 12493964
0.81929702 0.72955501 2.3485301 12757136
0.828982 0.72987902 2.34426 12625550
0.83381999 0.73075002 2.3434501 12559757
0.83923602 0.72989303 2.34799 12362379
0.84689403 0.731197 2.3524101 12230793
0.85187602 0.73184401 2.35131 12362379
0.85850698 0.73223299 2.34934 13086358
0.86600399 0.73220599 2.35847 12954515
1.00306 0.73578 2.3664999 13020565
0.509592 0.72902697 2.32514 12230793
0.51328301 0.72949702 2.3256099 12230792
0.56999499 0.73100197 2.3290999 12362377
0.59925997 0.73174399 2.3315401 12428172
0.60526103 0.73132098 2.3270199 12099207
0.60932899 0.730995 2.32547 11901828
0.61047697 0.73032701 2.3336999 12230793
0.61647397 0.73025602 2.3286901 12099208
0.62600499 0.73173499 2.33373 12098950
0.634354 0.73206598 2.3392301 12165000
0.64413798 0.73210001 2.33815 12164999
0.64720398 0.732346 2.33077 11967621
0.655936 0.73016798 2.33097 11836035
0.66056198 0.73292899 2.33285 11770242
0.66551799 0.73110998 2.33585 11901829
0.667741 0.73273098 2.33828 11836035
0.68616098 0.729891 2.3327601 12164744
0.69010401 0.72945702 2.3331299 12165001
0.70784801 0.73204899 2.33125 11902085
0.73456901 0.73116601 2.3394699 11967622
0.73436803 0.732283 2.33759 11967622
0.73736 0.73318303 2.33776 11967621
0.74079901 0.732306 2.34219 11902085
0.74459797 0.73163903 2.34149 12033413
0.75297397 0.73292798 2.33722 12757392
0.75850499 0.73436999 2.3448501 12625807
0.76276201 0.73448998 2.34867 12691343
0.76275998 0.73439598 2.3487501 12625807
0.76721299 0.73565602 2.3469801 12757136
0.76762998 0.73589498 2.3481801 12757393
0.77279598 0.73633599 2.35355 12494221
0.77661699 0.73303503 2.3471701 12494221
0.79836702 0.73396599 2.3415899 12560014
0.81185299 0.73254597 2.34093 12954515
0.81614 0.73302197 2.34445 12823185
0.82111502 0.73581499 2.34589 13151637
0.829193 0.73287302 2.3408 12822930
0.83481801 0.73243701 2.3401599 12493965
0.841169 0.73253697 2.34605 12033414
0.84306502 0.73362601 2.3417301 11902085
0.84866601 0.73407203 2.3469601 12033670
0.498301 0.735071 2.3288801 12362379
0.50715202 0.73314601 2.3269501 12691343
0.51122701 0.732889 2.32534 12691344
0.54844701 0.73453498 2.3271 12428172
0.55379999 0.73279202 2.3271799 12428172
0.560027 0.73326498 2.32535 12164999
0.56477499 0.73276699 2.3264 11967364
0.57118702 0.73273402 2.3262601 12164743
0.621153 0.734115 2.32639 11572864
0.62108397 0.73441398 2.3273699 11572864
0.62853599 0.73039299 2.32356 11836034
0.63439 0.73318499 2.3287799 11967621
0.656371 0.734047 2.33056 11901828
0.66294903 0.73122603 2.3181901 11769986
0.67351502 0.73359001 2.33411 11835779
0.67763698 0.73435199 2.3323901 11967366
0.68553603 0.73301101 2.3229799 11967366
0.69023401 0.732288 2.3291199 11901572
0.69569898 0.73484701 2.33429 12165000
0.698771 0.73223299 2.32827 12165001
0.70729101 0.73144901 2.32831 11901828
0.71950901 0.73258299 2.3257401 12165256
0.72256202 0.73322302 2.32745 12099207
0.74098003 0.73539102 2.3362 12954771
0.74501598 0.73383999 2.3347099 12822928
0.75710601 0.735493 2.33653 13020565
0.762721 0.73704797 2.34464 12954515
0.76485401 0.73576897 2.34302 12888978
0.76439703 0.73549199 2.3427401 12888722
0.77268499 0.73910898 2.35028 12888722
0.77622002 0.73868698 2.35076 12954771
0.78632402 0.736727 2.3375599 12691343
0.791219 0.73638499 2.3434701 12230793
0.79532099 0.73589498 2.3450899 12493964
0.80160201 0.73552001 2.3359599 13875616
0.80626398 0.73342401 2.3354101 13283480
0.81105798 0.73349702 2.33144 13217430
0.81683201 0.73653799 2.3433399 13217687
0.82950002 0.736085 2.3377399 12757137
0.84103203 0.73401302 2.3382699 12099463
0.84792799 0.73477203 2.3377099 12296585
0.49041101 0.73389399 2.3189299 12362378
0.498265 0.73661703 2.32125 11901828
0.505018 0.735946 2.32564 12296585
0.51131499 0.73642302 2.3224599 11901828
0.54849499 0.73627102 2.32037 12099207
0.55500603 0.73486501 2.32163 11836035
0.57143998 0.73522002 2.3210399 12033414
0.60733002 0.73505801 2.32511 11967621
0.61060297 0.73502499 2.3245399 11770242
0.61614197 0.7374 2.3240399 11507070
0.621696 0.73563802 2.31744 11704449
0.62462902 0.73372298 2.3221099 11638656
0.62914002 0.73331702 2.31849 11836034
0.62914002 0.73331702 2.31849 11836034
0.64654797 0.73682898 2.32217 11901828
0.65301299 0.73407102 2.3218 11704450
0.65959299 0.73296303 2.3209801 11704450
0.67474502 0.73742598 2.32458 12165000
0.703637 0.73689699 2.3255401 12954516
0.70804501 0.73532802 2.3285601 12493965
0.707587 0.73595899 2.3291399 12625551
0.712367 0.73777097 2.32636 13020309
0.72302699 0.73547101 2.3264401 12428173
0.72572702 0.73828602 2.3288701 12888723
0.73608297 0.739384 2.3331299 13283480
0.737167 0.73816001 2.3292799 13349273
0.74829298 0.738886 2.3324399 13481114
0.77831399 0.73610097 2.33008 13744030
0.78623801 0.73927802 2.3332 14072739
0.79610097 0.73890501 2.3364999 13546652
0.806499 0.73617601 2.3313 13546653
0.83739501 0.735147 2.33145 12822929
0.84283 0.73687899 2.3290999 13415066
0.84762901 0.73617101 2.33058 13020565
0.85285801 0.73603201 2.3340399 13086101
0.87876701 0.73700798 2.3394899 13085846
0.88085401 0.73777097 2.3320601 12625807
0.484519 0.73567301 2.30951 11967876
0.48881099 0.735982 2.31271 12231049
0.49218899 0.738083 2.3148401 11901827
0.54834598 0.73824298 2.3143499 12296330
0.56773901 0.73780501 2.3183401 12033413
0.56410402 0.73796803 2.3152101 12099206
0.61254197 0.73889899 2.32304 11638912
0.61625701 0.74078399 2.32199 12099206
0.61944199 0.73765498 2.31813 12033413
0.64247501 0.73477 2.31424 11967621
0.66471702 0.73548102 2.31213 12822930
0.68026102 0.73987198 2.3215301 12559757
0.682432 0.738729 2.3198199 12625550
0.68735403 0.73881602 2.3226299 12559757
0.69461799 0.736664 2.3219299 12691600
0.69880903 0.73743999 2.3195 12954772
0.70513499 0.74080598 2.3278899 12822930
0.707313 0.73856801 2.32465 12954515
0.71168703 0.73764199 2.32513 13085845
0.722745 0.73782998 2.32163 13086102
0.73271102 0.73779202 2.32618 13283481
0.74444002 0.74053699 2.3313999 13678237
0.74877101 0.73948699 2.32265 13546652
0.76902699 0.741234 2.3287101 13151894
0.76631701 0.73739898 2.3246701 13481115
0.77313298 0.73932499 2.3289399 13481116
0.78255701 0.74167597 2.33006 12493964
0.79529601 0.73979402 2.32671 13085845
0.80639702 0.737643 2.3222201 13349273
0.82195801 0.74273598 2.3348701 13217687
0.84895802 0.73808801 2.32743 14072740
0.853221 0.73859102 2.3301301 14072740
0.87195402 0.74063301 2.3338799 12954772
0.87878501 0.73988003 2.3357601 12691344
0.42779899 0.73692298 2.2952299 12033414
0.48781899 0.73696297 2.30406 11901827
0.49186 0.73910397 2.30441 12164999
0.49559399 0.739896 2.31078 12164999
0.55273801 0.74021 2.31304 12098950
0.556647 0.74078 2.31004 12230536
0.56806499 0.73978299 2.31266 12296585
0.57598799 0.74062598 2.31058 12428428
0.60996997 0.74072701 2.31493 12559758
0.61630303 0.73970997 2.31387 12362379
0.62103701 0.74077398 2.31619 12560014
0.62789297 0.74071902 2.3115799 13086357
0.62544399 0.73794502 2.3099 12691600
0.62789297 0.74071902 2.3115799 13086357
0.63467598 0.73681802 2.30703 12099463
0.65129697 0.74048799 2.312 13020051
0.66467899 0.73678499 2.3053 13480859
0.670187 0.73709297 2.3094201 13217687
0.70810503 0.74283499 2.3245299 13020308
0.70522702 0.74293298 2.3227701 12822929
0.72470999 0.73954499 2.3208699 13349273
0.72534299 0.74025601 2.3229699 13349529
0.72917497 0.74311697 2.3229699 13546651
0.744982 0.74088103 2.3209 13415323
0.75232202 0.74118501 2.3197701 12493708
0.76335901 0.74342602 2.3241301 13086101
0.76901799 0.74367398 2.32412 13283737
0.77366197 0.74280602 2.32743 12954772
0.787099 0.743334 2.3333499 12428171
0.78497398 0.74416602 2.32779 13480858
0.79995197 0.73760301 2.3151801 13217943
0.80789 0.74023801 2.31883 13612446
0.82163399 0.74395102 2.32637 13415066
0.83798802 0.74172598 2.3251901 12822673
0.84257197 0.73987401 2.3188701 13020051
0.84896201 0.74144602 2.3250501 13414809
0.85451102 0.74364799 2.33181 13677981
0.87034202 0.74232203 2.32938 13151895
0.87244499 0.73994303 2.3236599 12954517
0.87347102 0.73518199 2.30863 12823187
0.876333 0.73497301 2.3069999 12625808
0.87576503 0.73524201 2.3059001 12691600
0.88346702 0.74054599 2.3176 12493963
0.96125001 0.742607 2.3364 11902343
0.96709102 0.74355203 2.33055 12757652
0.42965499 0.74058598 2.2939501 12362634
0.43402401 0.73847097 2.2963901 12230793
0.48359099 0.74028897 2.2964001 12230791
0.49617201 0.74237001 2.3046899 12362377
0.55274397 0.742392 2.30829 12428172
0.57240498 0.74180597 2.31006 12428171
0.54381001 0.69858402 2.1819999 12428171
0.622262 0.74342698 2.31287 13415066
0.63944697 0.74221599 2.3129301 12493963
0.63933802 0.74208301 2.3125401 12493964
0.64414901 0.74090397 2.3019099 12559500
0.64739901 0.741247 2.3048699 12691343
0.65055698 0.741265 2.3089399 13217430
0.65773201 0.741238 2.3090401 13414810
0.67008102 0.74170798 2.31037 13085845
0.675228 0.74216598 2.3060801 12691342
0.715832 0.74280202 2.31846 13875616
0.72496098 0.74215502 2.3173001 13546651
0.74497598 0.74274302 2.31426 13678495
0.75228399 0.74367398 2.31498 13414810
0.75821102 0.744394 2.3215799 13217686
0.773054 0.74347401 2.31779 13678238
0.77932298 0.74467999 2.3252599 13809823
0.78595001 0.74414802 2.31569 14072994
0.78889102 0.74338698 2.3177099 13941408
0.82751101 0.74580199 2.3252201 13020307
0.83196199 0.742899 2.3200099 13151893
0.828583 0.735246 2.2913799 13020051
0.83984298 0.74058902 2.3152001 13283223
0.84388399 0.74385703 2.3175499 13283480
0.84894198 0.745112 2.32353 13480858
0.85330701 0.74561602 2.32604 13481114
0.85837299 0.745749 2.33009 13283479
0.86273903 0.74842 2.3315699 13546907
0.86687702 0.74784201 2.33499 13283480
0.41641101 0.74483401 2.3011601 12493964
0.41292799 0.74003297 2.28493 12428172
0.422245 0.74293298 2.2991199 12362379
0.42596999 0.74177802 2.2966299 12231049
0.43395001 0.74086702 2.29178 12691344
0.43798301 0.740879 2.29475 12230793
0.44938901 0.74446303 2.29581 12033414
0.44647899 0.74287099 2.2911 12099207
0.486662 0.74264598 2.2927201 12230792
0.49073699 0.743352 2.2980199 12428171
0.54696298 0.70463598 2.18802 12822930
0.616377 0.74355203 2.3030601 13283480
0.66136599 0.74472898 2.3038299 13020309
0.67258102 0.74359 2.3053899 12559500
0.71494001 0.74291998 2.30704 13415065
0.720676 0.74384302 2.3013301 13283735
0.720743 0.74240398 2.29726 13283736
0.75087303 0.74382502 2.31106 13415065
0.757119 0.74389797 2.30814 13349273
0.76020002 0.74421197 2.3082399 13283223
0.76616502 0.74410403 2.3108399 13414809
0.77097303 0.74372602 2.3127899 13546651
0.81741297 0.74871498 2.32374 13612701
0.82214099 0.746692 2.32283 13151893
0.82604301 0.73822898 2.2971599 13086100
0.84893799 0.74763101 2.3185101 13547165
0.853724 0.74843299 2.3231599 13744287
0.86368901 0.751926 2.3307099 14073509
0.86643702 0.74878901 2.3276999 13744031
0.897618 0.74365598 2.3145001 12494221
0.89941198 0.74387598 2.31113 12625551
1.0212801 0.746517 2.3262501 14338484
-0.322705 0.72552502 2.21627 12559758
0.434807 0.745242 2.29212 12559756
0.43872499 0.74445403 2.2927499 12230792
0.444462 0.745704 2.2900901 12493965
0.44926301 0.74654102 2.29106 12691343
0.45435601 0.745731 2.29615 12428172
0.45391601 0.74712998 2.2938499 12559757
0.46017301 0.74484497 2.29527 12165000
0.49416101 0.74780101 2.29602 13020307
0.54513597 0.70576602 2.18065 13217687
0.59404701 0.74514699 2.29864 13480858
0.59729302 0.74739301 2.29877 13480858
0.64875603 0.74458599 2.2993 13217686
0.65790701 0.74292898 2.29632 13217688
0.66152602 0.74432999 2.29423 13678237
0.67622298 0.74663502 2.3076899 13151893
0.68927002 0.75589502 2.32827 13612443
0.69087499 0.75258303 2.3217101 13480857
0.70873702 0.74821699 2.30634 13875360
0.71491599 0.74524802 2.3016801 13744030
0.72485203 0.74377 2.2965701 13349272
0.72863901 0.74219602 2.2961199 13349271
0.73491102 0.74618602 2.29915 13744031
0.73996598 0.74628502 2.30217 13612702
0.75090998 0.74561697 2.3043301 13546652
0.76630598 0.74620903 2.3060501 13612445
0.77117699 0.74594998 2.3083401 14007203
0.77472401 0.7489 2.30721 14073509
0.849038 0.75184602 2.31827 14402475
0.84224302 0.74510902 2.30723 13941924
0.85086399 0.74971998 2.31443 14402475
0.854653 0.75024998 2.3162701 14402731
0.85832697 0.75062299 2.3217101 14205095
0.89798099 0.745866 2.3041899 12888980
0.89619797 0.745772 2.30757 12955029
1.02318 0.745812 2.3153 14404534
0.43072701 0.750745 2.2976401 12625293
0.436811 0.74878299 2.2918301 12099206
0.449451 0.74731803 2.2862799 13020308
0.45460999 0.74768102 2.28984 12691343
0.45545599 0.74638802 2.2814 12954514
0.45994201 0.74718797 2.28479 13151894
0.46470499 0.74743599 2.28701 13020051
0.47080499 0.74531001 2.2839501 12493963
0.54127598 0.70493197 2.17167 13415065
0.54725099 0.71079302 2.1809299 13678493
0.59232998 0.74960399 2.29949 13809823
0.59704697 0.75040698 2.29583 13612444
0.60057497 0.74955398 2.2986701 13546651
0.67371202 0.74567598 2.28988 13809824
0.67747599 0.74505699 2.2921901 13875616
0.71613997 0.74613702 2.2933199 13941408
0.720927 0.744609 2.2923801 13744287
0.72941297 0.74450397 2.2906001 13612444
0.799788 0.75037402 2.30176 14139044
0.799227 0.74830002 2.29684 14073252
0.803985 0.74800801 2.2990799 14204838
0.89403701 0.74985403 2.3023801 13810853
0.89838499 0.74989402 2.3038299 13218202
0.90009201 0.74590403 2.30129 12823187
0.94083798 0.75034398 2.31528 12889237
0.43870601 0.75212997 2.2909601 13086357
0.470687 0.74734199 2.2780499 13151637
0.58221602 0.75197798 2.29777 14072995
0.585554 0.752312 2.2943699 13744030
0.59247297 0.75165802 2.29391 13349272
0.60243601 0.75133502 2.2923801 13283480
0.60816801 0.74943697 2.29231 13151895
0.60745698 0.75095099 2.2964201 13151894
0.61194998 0.75274599 2.2953401 13744030
0.61651403 0.7529 2.29252 13743774
0.635481 0.75069398 2.2885201 13546909
0.64123899 0.75035799 2.29182 13810079
0.650949 0.75024199 2.2929299 14270374
0.65654701 0.75206 2.2916 13875616
0.66485798 0.74926198 2.2898901 13941410
0.66642702 0.74747503 2.27865 13612445
0.66998899 0.74635798 2.28093 13941153
0.67354798 0.74857801 2.28597 13809568
0.680134 0.74936998 2.2890501 13875617
0.68312401 0.75070399 2.29109 13809824
0.69322902 0.75089502 2.2951901 13744031
0.69727302 0.75141001 2.2925301 13810080
0.70251203 0.74963498 2.29163 13809823
0.77966601 0.75675398 2.3140399 14468011
0.80033201 0.75309998 2.2987199 14402218
0.81174099 0.753712 2.30372 14468268
0.81450999 0.74856102 2.2946601 14336681
0.89115202 0.75211799 2.29897 14140332
0.440451 0.755795 2.29317 13415065
0.49052799 0.75513399 2.2859499 13743773
0.49653199 0.75332201 2.28828 13875615
0.58132398 0.75529099 2.2934201 13612444
0.58583897 0.75423801 2.2880399 13941408
0.59780103 0.75261903 2.29021 13612444
0.60234302 0.75360203 2.2871799 13612187
0.607364 0.753452 2.29217 13612445
0.63538897 0.752545 2.2827599 12888723
0.64090902 0.75291699 2.2879601 13415067
0.64663601 0.75269502 2.29159 13744031
0.65225101 0.74791598 2.2756801 13612445
0.65761203 0.75037301 2.2760999 12362379
0.67644799 0.75035203 2.2862699 13546652
0.680466 0.75105 2.2825899 13151895
0.68376601 0.75048101 2.2844 13415066
0.68594801 0.75278699 2.2901199 13349015
0.693169 0.753411 2.2914701 13414808
0.70044303 0.753869 2.29405 13612445
0.70527798 0.75052702 2.2876 13744030
0.73158503 0.75806803 2.3015699 13415065
0.74465901 0.75947398 2.3102701 13875873
0.75079203 0.76274002 2.3207099 13875873
0.77680302 0.75633299 2.30181 14402219
0.80602801 0.75542903 2.2978799 14534061
0.814529 0.75060701 2.2892499 14534059
0.817828 0.74694598 2.2767701 14468266
0.89300698 0.75255102 2.2978899 14140333
0.938923 0.75498801 2.3055899 13152665
0.996795 0.76351899 2.3288901 13153695
0.470465 0.752316 2.2697001 13612188
0.47713301 0.75502902 2.2800701 13677981
0.480225 0.75486797 2.27367 13283479
0.49032 0.75609201 2.2840099 13480858
0.48721299 0.75325799 2.27425 13480602
0.49401599 0.75816 2.28332 13020307
0.49667901 0.75523698 2.28194 13217686
0.50183898 0.75476003 2.2836699 13349272
0.59105003 0.75581998 2.2837901 13612443
0.598014 0.75453103 2.2842801 13677980
0.60759902 0.75461298 2.2848699 14072739
0.615008 0.75711 2.2843399 13743775
0.61982697 0.754094 2.2848699 12691344
0.63002902 0.75471699 2.2863801 12822930
0.631522 0.75261402 2.2746 12493966
0.63625199 0.75100797 2.26826 12230537
0.64202398 0.75125402 2.27268 11967366
0.668778 0.75353903 2.27844 11835780
0.67398602 0.75133801 2.27509 12165001
0.68392801 0.75352401 2.28198 12559501
0.69326401 0.75536001 2.2862201 12625549
0.69716698 0.75580603 2.2901101 13283479
0.70015502 0.75656903 2.2869501 13678493
0.70639402 0.75511098 2.29071 13546650
0.722516 0.756796 2.29164 13283736
0.72787303 0.75775301 2.29686 13283480
0.737041 0.76323199 2.30667 13744287
0.75135899 0.76395297 2.3155301 13612444
0.76169699 0.75643498 2.29 14204838
0.78167599 0.75770199 2.29193 14270632
0.80630499 0.75878 2.29566 14073253
0.80910301 0.75327098 2.2869699 14204839
0.47159901 0.756042 2.2694199 13020307
0.475988 0.75533801 2.2693601 13151637
0.49005401 0.75700498 2.2764299 12888721
0.50174397 0.75626999 2.2769899 13151894
0.61995399 0.75616598 2.2792001 13612445
0.62478101 0.75652599 2.27424 13217687
0.629067 0.75369197 2.2718699 12954259
0.63494903 0.75314403 2.2643199 12954516
0.63494903 0.75314403 2.2643199 12954516
0.64291 0.74853599 2.2535601 12493709
0.65086001 0.75325501 2.2713699 12164744
0.65684098 0.755777 2.2718699 13283480
0.66262102 0.75371099 2.27246 12296585
0.67837203 0.75614101 2.2783301 13349273
0.68401802 0.75518203 2.2792799 13020052
0.68900001 0.75831002 2.2804699 13744029
0.700279 0.75858998 2.2816601 14007201
0.70390499 0.75898403 2.2846999 13941408
0.70558 0.75735402 2.2838399 13941409
0.70894998 0.75581503 2.2808499 13810079
0.711649 0.75666797 2.2842 13810079
0.71428603 0.75492001 2.2774401 13941409
0.72804999 0.75797701 2.28736 13875872
0.734119 0.75905699 2.2894499 14270630
0.758753 0.766321 2.3073499 14270630
0.76102602 0.76152402 2.29281 14139045
0.77463502 0.75966102 2.2924299 14073253
0.90094 0.75787997 2.2921 13810853
0.479653 0.75728297 2.26875 12888722
0.48352 0.75673801 2.2674699 12756879
0.49258399 0.76047099 2.2757001 12888721
0.48961499 0.75913697 2.2667501 13020307
0.50801003 0.75743598 2.2649601 13941409
0.51290399 0.75785202 2.27209 13546651
0.53005803 0.75842798 2.2720799 13744030
0.53398597 0.75709999 2.2665401 13875616
0.55747998 0.75663698 2.26667 13809822
0.60314602 0.75717002 2.27162 13744031
0.60776299 0.75897503 2.2713001 13941410
0.61533898 0.75945002 2.2794199 13809824
0.62444198 0.757577 2.266 14336424
0.65637499 0.75658703 2.2632799 14204581
0.67209202 0.755023 2.2660201 14007201
0.67777997 0.75588202 2.2620599 13941664
0.68411398 0.756594 2.27232 14007202
0.687962 0.75871003 2.27055 14138788
0.69386297 0.75972998 2.27742 14138788
0.71075702 0.75944501 2.2789299 14007458
0.717583 0.75647199 2.27282 13941666
0.75128502 0.76542401 2.29263 14073252
0.74623603 0.76126403 2.2808199 14073252
0.75492799 0.76223803 2.28914 14139045
0.50371897 0.75980502 2.26529 13744031
0.50854802 0.76052201 2.2621601 13414810
0.51299602 0.75841099 2.2625699 13743774
0.52321398 0.76314801 2.27001 13283480
0.53180403 0.75717002 2.2595699 13546652
0.55860001 0.76119798 2.26789 13546652
0.602072 0.76084799 2.27057 14138789
0.61043102 0.76071602 2.27246 14138788
0.605093 0.75982398 2.2639 14204582
0.61318302 0.76227802 2.2731299 14336168
0.61667401 0.76227897 2.26964 14138788
0.62107801 0.76032102 2.2721901 14204581
0.66522098 0.75611901 2.2532301 14533803
0.68373197 0.76035398 2.27197 14204582
0.72642702 0.76122099 2.2748401 13678495
0.750597 0.762115 2.2745299 13744030
0.74640602 0.76154101 2.2711101 13744288
0.75397998 0.76176202 2.2767501 13809823
0.77067697 0.75933403 2.27122 14072996
0.77908099 0.75842297 2.2708399 14139045
0.90464699 0.76351702 2.2805099 13877160
0.49237201 0.76475298 2.2651401 13349273
0.49537301 0.76449102 2.26841 13546652
0.50007403 0.76532298 2.26459 13283224
0.51427901 0.76255202 2.26314 13415066
0.51719803 0.7615 2.26105 13415066
0.51868302 0.76344198 2.2671101 13415066
0.52329803 0.76603401 2.2665 12954515
0.53016502 0.76265103 2.2602201 13085845
0.55218202 0.76210397 2.26349 13217686
0.55391997 0.761949 2.2630701 13283480
0.60764802 0.76145703 2.26492 14138789
0.61019897 0.76326102 2.2673199 14072996
0.61393303 0.76326501 2.2658801 13875617
0.61603099 0.76412201 2.26315 13480859
0.621261 0.76055998 2.2604599 13875873
0.621261 0.76055998 2.2604599 13875873
0.62039602 0.76450801 2.2648101 13546651
0.621261 0.76055998 2.2604599 13875873
0.62741399 0.76119101 2.2590101 14073253
0.63334697 0.758735 2.2575099 14270375
0.638309 0.759 2.2541001 14139045
0.64448601 0.75559902 2.2429099 14204837
0.65357101 0.75975901 2.2614801 14599596
0.65373302 0.76007402 2.2623899 14599596
0.65554798 0.760988 2.25652 14468011
0.696334 0.76399398 2.2674799 14204839
0.70217299 0.76447099 2.27336 14204839
0.71109301 0.76470798 2.2689199 14599339
0.71704602 0.76200098 2.26615 14401960
0.72211701 0.75946301 2.2621601 14139045
0.75099897 0.76558501 2.2716899 14007458
0.75510502 0.76352698 2.2688 14073251
0.76522499 0.76088798 2.26788 13612702
0.774059 0.75845498 2.25611 14336425
0.49555501 0.76604801 2.26018 13020309
0.50001198 0.767672 2.25962 13020309
0.515396 0.76656699 2.2631299 13020309
0.52621502 0.76495498 2.2593 13086102
0.52990299 0.76395798 2.2523899 13217688
0.53172702 0.764211 2.2599199 13020309
0.55326498 0.76523501 2.2609601 13415067
0.59980297 0.77067798 2.2768099 13415323
0.60188198 0.76844102 2.2658601 13086358
0.60464197 0.76493698 2.2637 13480859
0.607894 0.76488101 2.2611599 13151894
0.612225 0.765513 2.26088 13283480
0.62209398 0.76501602 2.26138 13480859
0.633434 0.76195103 2.24946 13349273
0.63376403 0.759691 2.2504399 13810081
0.63621199 0.76164401 2.2491601 13415323
0.63972098 0.75742698 2.24103 13612445
0.65533501 0.76300001 2.2512 13349786
0.65990001 0.763412 2.25633 13612959
0.691266 0.76516098 2.2639501 14073253
0.69665802 0.766949 2.2644501 13810081
0.701244 0.76444 2.2619801 14270632
0.70569199 0.76512998 2.26561 14533804
0.71108299 0.76647699 2.26299 14139046
0.71708399 0.76356697 2.2597201 14204838
0.739182 0.76841402 2.27617 14402474
0.74386299 0.76610303 2.2650199 14336681
0.74720103 0.76605099 2.2628801 14270889
0.75358999 0.76630902 2.27089 14139302
0.75594097 0.76735997 2.27143 14270888
0.759987 0.76588899 2.2676001 14336682
0.495924 0.76942003 2.25827 13415067
0.51774502 0.77117997 2.26352 14072997
0.53266001 0.76760697 2.25384 13612445
0.53750199 0.76732898 2.2560301 13283737
0.54227197 0.76695001 2.2579401 13217945
0.547378 0.76618701 2.2528901 13349274
0.55074501 0.767138 2.2525301 13151895
0.55241603 0.76733601 2.2511101 13283481
0.66358101 0.76760298 2.25559 13481116
0.69138002 0.76759398 2.25947 13612958
0.70709598 0.76679599 2.2622001 14204582
0.71820903 0.76543403 2.2560301 13810081
0.72174102 0.76619899 2.25859 13547167
0.75021899 0.76744401 2.26402 14205352
0.75298297 0.76982898 2.26724 14270889
0.75966501 0.76734298 2.26021 14336682
0.49964699 0.76972002 2.25387 13941410
0.51443201 0.771038 2.25875 13809824
0.51824802 0.77285701 2.2557399 13480860
0.52291399 0.77042401 2.25337 13415067
0.542023 0.76831502 2.25121 13481373
0.54755098 0.76898098 2.24861 13415324
0.547831 0.76847702 2.2485001 13415067
0.550883 0.76979202 2.2478299 13612446
0.55247402 0.76976699 2.2467 13481116
0.61285102 0.763381 2.23665 13612445
0.660254 0.76951098 2.2493 13875874
0.69139099 0.77094102 2.2554901 14204839
0.70711797 0.76919001 2.2578499 14007459
0.71991497 0.769382 2.2544601 14205095
0.73927498 0.77102798 2.26122 14205096
0.74930698 0.77250099 2.26443 14139303
0.74675602 0.771999 2.2600999 14139303
0.75532401 0.76990902 2.26088 14270889
0.75896698 0.76827598 2.2518699 14139559
0.773498 0.77426499 2.26706 14139303
0.79354697 0.76530898 2.2465799 14270889
0.50330198 0.76911199 2.2376101 13546652
0.51334101 0.77039999 2.24244 13546909
0.517919 0.77395803 2.24752 12955030
0.52207798 0.77073401 2.24298 13086616
0.54778898 0.771415 2.24336 13612702
0.61878002 0.76260799 2.2251999 13546908
0.61726499 0.76073098 2.2151799 13744287
0.75001001 0.770706 2.24927 13876131
0.75516999 0.77173501 2.25493 13876131
0.77297002 0.77562302 2.2603099 13941924
0.77580601 0.77366 2.2580099 13876131
0.50786299 0.77128899 2.2376699 13349274
0.50493199 0.76788002 2.2237899 13217945
0.51346099 0.771671 2.23475 13152409
0.51849997 0.77296901 2.2417901 12954773
0.60172802 0.77342099 2.2393601 13678751
0.60506302 0.76711899 2.2277999 13941667
0.604882 0.76646799 2.2260399 13941667
0.60724097 0.76471901 2.2200301 13941923
0.60773998 0.76417702 2.2181599 13941923
0.69821602 0.775886 2.2490699 13941924
0.70335698 0.77530903 2.2500401 14073766
0.70662302 0.77519703 2.25387 14139302
0.75489098 0.77293098 2.24807 13744802
0.76531899 0.77556503 2.2566299 13941925
0.768224 0.77342701 2.25262 13942181
0.77445698 0.77336198 2.24681 13810338
0.59750599 0.77698803 2.2392099 13283994
0.62830502 0.767663 2.21755 13678751
0.64280498 0.77277899 2.2285099 13612703
0.65047097 0.77598298 2.23911 13678496
0.68935698 0.77738398 2.24318 13810339
0.78158498 0.77033699 2.2300301 13678752
0.82339799 0.75332397 2.18523 14008232
0.84048098 0.75893599 2.2035999 14271405
0.58087301 0.77665102 2.2333 13415325
0.58250499 0.77655602 2.2361701 13678497
0.60173303 0.77688801 2.2358201 13086872
0.63082099 0.77174699 2.21948 13481372
0.63778901 0.77284902 2.2240601 13481116
0.699597 0.77746099 2.23524 13481631
0.69984698 0.77693701 2.2339201 13481631
0.77126902 0.77655399 2.24208 13350045
0.57111502 0.778413 2.2254601 13020824
0.65660602 0.77886498 2.2325399 13086360
0.70095402 0.77920902 2.22858 13415838
0.84657902 0.77044803 2.2100899 13416095
0.64273697 0.78079998 2.22732 12823445
0.69263297 0.77605098 2.2137799 12955031
0.69809097 0.77567297 2.21755 13152410
0.70483702 0.78241301 2.2291701 12823702
0.70586997 0.78245199 2.2292399 12889238
0.807616 0.76956201 2.2011001 13547167
0.82250798 0.76907903 2.1974399 13547425
0.55637801 0.78402603 2.22335 12757909
0.660914 0.78101403 2.2217 12889237
0.698515 0.77806997 2.2137201 12428688
0.91105199 0.79494601 2.2658601 13154215
-0.26889899 0.78292 2.1862299 14007976
-0.25969401 0.77785099 2.1766 14073513
0.66566402 0.78364402 2.21348 11771014
0.67020702 0.78103501 2.2055399 11771271
0.67508399 0.77901202 2.1991799 11902600
0.68082899 0.77563602 2.19363 11902858
0.79636598 0.777744 2.2081101 12626065
0.80338597 0.777803 2.2079599 12626065
0.806113 0.77666998 2.2025101 12757908
0.82281399 0.77894598 2.2061701 12823445
0.826594 0.78009599 2.2071199 12823444
0.89608997 0.79783702 2.2581699 13285801
0.90286499 0.80288899 2.2720101 12824993
0.90318698 0.79506803 2.24827 12167064
0.91107702 0.79629803 2.25896 12035734
0.62359297 0.78204 2.2014 12429200
0.77995402 0.74807101 2.11885 12823445
0.88674003 0.79683399 2.2455299 13219235
0.889139 0.79083699 2.23244 12561822
0.667822 0.78540897 2.20594 12166286
0.67411 0.78559101 2.20667 12231822
0.78212303 0.75138402 2.1189401 12691859
0.88300401 0.796013 2.2392499 13087648
0.88412601 0.79377502 2.23277 12890014
0.667867 0.788571 2.20345 11968394
0.77975601 0.75478297 2.11921 11902344
0.67775798 0.790205 2.1970501 12297101
0.72257298 0.79407603 2.20561 11507844
0.77389997 0.76228499 2.12995 11310207
0.777435 0.761585 2.1266699 11441793
0.678635 0.791852 2.19098 12033929
0.72404498 0.79069 2.19414 11573637
-0.107347 0.78746498 2.1522 12822932
0.68129402 0.796058 2.1939299 12033930
0.72086102 0.79516703 2.1959701 11442050
0.72388399 0.79474199 2.19064 11639428
-0.11287 0.791161 2.1521299 12757138
0.682046 0.79673803 2.18645 11771271
0.68537199 0.79828799 2.1919501 12297358
0.68296498 0.80106997 2.18771 11705478
0.68254501 0.80159497 2.1874599 11639429
0.68254501 0.80159497 2.1874599 11639429
0.71071601 0.80300498 2.1910501 11638915
0.71444499 0.80299598 2.19047 11573378
0.70165497 0.80449998 2.1918299 11704964
0.71281201 0.80568302 2.1941199 11441793
0.72306198 0.804483 2.1858499 11639171
-0.22282501 0.79967499 2.13714 13152152
0.72070998 0.80680501 2.1900499 11507329
-0.224233 0.79898298 2.13223 12823187
1.3873301 -0.94602299 2.65833 13222071
1.38941 -0.94351703 2.64363 13287863
1.3941 -0.94204903 2.6431899 13222070
1.39755 -0.93944597 2.6396699 13222070
1.45882 -0.91004699 2.5559001 13353657
1.46193 -0.90784901 2.5529301 13287865
1.30869 -0.98036599 2.75401 13222070
1.31152 -0.97649097 2.75091 13156277
1.32814 -0.98797601 2.77264 13156278
1.33217 -0.98992598 2.7832799 13090485
1.45548 -0.90881801 2.5641601 13287864
1.45548 -0.90881097 2.5641401 13287864
1.3258801 -0.98256099 2.7697401 13024692
1.32155 -0.98000002 2.76687 12958899
1.46509 -0.89413601 2.53968 13156791
1.48599 -0.89079702 2.52407 13287864
1.47993 -0.886078 2.5278299 13090742
1.48338 -0.88487798 2.52371 13090742
1.48721 -0.88603097 2.5257399 13156278
-0.87527299 -0.82777297 2.41839 12565175
1.32066 -0.968925 2.76753 12498348
1.31881 -0.97408599 2.77055 12761521
1.33074 -0.97215402 2.77461 12301225
1.477 -0.88635898 2.52984 13025206
-0.87793797 -0.82488698 2.4136 12499382
1.32454 -0.96240598 2.7611401 12037797
1.32454 -0.96240199 2.7611301 12037797
1.33383 -0.96943003 2.7702999 12235433
1.4717799 -0.88267303 2.53161 12959157
1.4798599 -0.88150501 2.52965 12893620
1.48088 -0.88062 2.5270901 12893619
1.3232501 -0.96078402 2.76424 11906469
1.47569 -0.87861103 2.53669 12696241
1.49577 -0.87358803 2.5171499 12827827
1.49948 -0.87456298 2.51898 12893620
-0.833606 -0.92319 2.73805 12960190
-0.81386203 -0.92183298 2.7307 13025982
1.46164 -0.87131298 2.54811 11644069
1.47009 -0.86854601 2.5357201 11775655
-0.93312502 -0.80311197 2.4158001 11907245
-0.687334 -0.88806599 2.6513801 13025727
1.29847 -0.94981599 2.77812 12695728
1.46758 -0.86755002 2.5445399 11512997
1.46934 -0.86382902 2.5378001 11644069
1.47238 -0.85993499 2.5304799 11775400
-0.80737102 -0.903404 2.7046399 9210249
-0.804537 -0.91117197 2.7215099 11381159
1.28878 -0.94004297 2.7718201 12827314
1.47242 -0.86118001 2.54354 10394261
1.61659 -0.95386797 2.80144 11775656
-0.79646498 -0.89436901 2.6974499 7631732
-0.80127299 -0.90666902 2.7214701 8552319
-0.79854298 -0.90508002 2.7179599 8420989
-0.80218798 -0.90668499 2.7232101 8355196
1.46319 -0.87389803 2.5853801 6710367
-0.75706398 -0.814089 2.4799299 7631734
-0.75705898 -0.81412601 2.4800401 7631734
-0.75447899 -0.81309098 2.47717 7631734
-0.80260003 -0.89391702 2.7042601 7697525
-0.79406101 -0.89911199 2.71293 7565940
-0.50680399 -0.83810699 2.5385799 13288898
1.29261 -0.93894702 2.7825999 12629935
1.3018301 -0.94080502 2.78953 11906727
-0.89111298 -0.781847 2.3975 9538957
-0.54486698 -0.83927798 2.55233 13091518
0.58320898 -0.79434001 2.4031999 10781795
-0.55140001 -0.83222002 2.5504501 8026231
-0.54663402 -0.83581102 2.5541301 11775915
0.65933597 -0.77437401 2.35848 9437719
0.656627 -0.77193701 2.35466 9634325
1.31422 -0.92270201 2.7844501 2631720
0.65952098 -0.76943398 2.3575001 9437975
1.6318901 -0.930978 2.82516 11775141
0.66507697 -0.76208699 2.36778 7406092
1.61827 -0.92385 2.8110299 10985885
-0.76606601 -0.74533999 2.35572 7631732
-0.75999099 -0.74808598 2.3696799 7499891
-0.76005101 -0.74810302 2.36973 7499891
0.66804498 -0.76129401 2.3704801 7864850
1.63151 -0.92573202 2.8256099 11709091
0.665479 -0.75846797 2.3692701 6881547
-0.762788 -0.74351299 2.37152 7302768
-0.760387 -0.74496901 2.3803101 7302769
-0.75033998 -0.741786 2.3673899 7368305
-0.75024903 -0.74171901 2.3671899 7368305
1.27276 -0.895787 2.78193 12959155
1.62322 -0.91474402 2.8190999 11183006
-0.76015103 -0.73798001 2.37095 7170925
-0.761033 -0.73862302 2.37289 7170925
-0.63244301 -0.71416599 2.30214 7368304
-0.65098202 -0.73828202 2.3638999 7303025
1.6192501 -0.90820003 2.8168001 10789019
-0.76595199 -0.74293202 2.3979399 7171182
-0.633636 -0.71113998 2.2965801 7236975
-0.646873 -0.73004198 2.3573699 7236718
-0.646348 -0.72956699 2.35707 7171182
1.31757 -0.89676499 2.7994699 2237218
-0.634305 -0.71460801 2.3153 7171181
-0.64554101 -0.73378301 2.3742199 7170926
1.65596 -0.90609002 2.8350401 12038568
-0.77416301 -0.73149401 2.3919101 6644838
-0.774176 -0.73161602 2.39206 6644838
-0.77219999 -0.73032498 2.38814 6579301
-0.65154201 -0.72882599 2.37167 7039339
-0.64853001 -0.72627902 2.3757501 6841961
0.87035203 -0.80162698 2.5711 12102794
0.87753898 -0.80267102 2.56528 12695469
1.31782 -0.88265699 2.8050001 2302755
1.6190701 -0.89317298 2.8238499 10328468
-0.62133503 -0.69063002 2.28337 6447715
0.33792001 -0.77134699 2.50422 12892845
0.70538199 -0.741579 2.4009099 9401937
0.704678 -0.74279398 2.4007399 9731157
0.87204498 -0.79800701 2.57076 12629147
1.6199501 -0.88797301 2.8248 10525847
-0.91137302 -0.72146499 2.4021499 7170923
0.86825198 -0.79652297 2.5729499 12036475
-0.75842798 -0.72075099 2.40764 6184544
-0.63126397 -0.69344997 2.3148301 6315872
-0.63125998 -0.69344598 2.3148201 6315872
-0.63781297 -0.69935501 2.3334 6250336
0.337419 -0.76524699 2.50828 12958380
0.34205699 -0.76446497 2.5058401 12958379
-0.45427799 -0.75518399 2.5095501 12302004
-0.90165401 -0.70220298 2.3671601 8749440
-0.91021299 -0.71280402 2.4033301 7104874
-0.449101 -0.72707897 2.4352901 7236975
1.30594 -0.85936898 2.7969899 7039076
-0.44672999 -0.72143799 2.4332399 7368560
1.28544 -0.85873997 2.80476 11643554
1.30641 -0.85326099 2.7978599 6578526
-0.89577502 -0.710253 2.4184101 6973802
-0.446733 -0.71811801 2.4379001 7499889
0.33517799 -0.750552 2.51368 12761515
-0.76186198 -0.73901999 2.5232201 6052701
-0.44643399 -0.73673099 2.50758 11973296
-0.75594097 -0.73583001 2.5216601 6118495
-0.75510901 -0.73358399 2.52086 6052701
-0.457652 -0.71741498 2.4521301 7631732
-0.4576 -0.717363 2.4519601 7631732
-0.45820701 -0.72024298 2.4725499 7302767
-0.90698397 -0.69226599 2.40448 7039339
-0.90432799 -0.69427198 2.4089601 6644837
-0.754933 -0.72857201 2.5165701 5657943
-0.749479 -0.73020297 2.52001 5921114
-0.461651 -0.71375901 2.4602101 7894647
-0.460298 -0.71778101 2.46896 7631732
-0.90539902 -0.68905199 2.4081299 6842216
-0.75026202 -0.72355902 2.5137601 5526357
-0.74850702 -0.72744399 2.5204 5658199
-0.73790598 -0.72596902 2.5155599 5855322
-0.65925199 -0.72280902 2.5102899 6052701
1.30688 -0.83443302 2.80071 6644575
-0.88928503 -0.67136598 2.36221 7697011
-0.90844899 -0.688582 2.4221101 6250080
-0.74849999 -0.72193199 2.51653 5526614
-0.65967101 -0.71364599 2.4928999 5789530
-0.65807301 -0.71669501 2.4983599 5789786
-0.65363401 -0.71763098 2.49789 5921371
-0.46069399 -0.71140897 2.4742601 7697268
-0.90577602 -0.68305999 2.4090199 6776424
-0.653593 -0.71351999 2.50137 5921115
1.29634 -0.83318698 2.82459 8485750
1.3077101 -0.82707602 2.81078 6578269
-0.90382397 -0.679138 2.41854 6184287
0.327961 -0.72781801 2.53213 12827306
1.2965 -0.83042902 2.8294001 8551543
-0.88768798 -0.66419703 2.3761899 7039339
-0.46618101 -0.70193899 2.48069 8026232
-0.43815199 -0.72552502 2.5606599 12696761
0.85526198 -0.75223202 2.6035399 2234645
1.2552299 -0.828655 2.84147 13024948
1.70011 -0.794146 2.71504 1645602
-0.47543201 -0.70420802 2.5018301 7828853
-0.436955 -0.72580099 2.5836401 13091518
0.462832 -0.71457702 2.5111899 11905950
1.3193099 -0.81732202 2.82533 2434084
1.61604 -0.82805002 2.84901 3026220
1.732 -0.79803598 2.7346699 12432558
-0.72861397 -0.69185102 2.49405 5592150
-0.72969401 -0.693232 2.4989901 5592407
-0.733087 -0.69389802 2.49751 5592151
-0.733087 -0.69389802 2.49751 5592151
-0.43629599 -0.71080101 2.54351 12433332
-0.43863201 -0.72198999 2.58585 13025982
0.46224499 -0.71026999 2.5104599 11906205
0.461548 -0.71054602 2.50857 11905949
0.46549201 -0.70787901 2.50525 11774876
0.46943 -0.70793599 2.5028501 11709085
0.469405 -0.70770401 2.50208 11709085
1.61457 -0.82550001 2.85726 1644569
-0.44051501 -0.718005 2.58725 12960188
0.46368799 -0.70486802 2.50705 11577498
1.2803 -0.80298102 2.80971 10788246
1.28017 -0.802912 2.8085699 10788246
1.3190399 -0.80947602 2.8266799 2434340
1.31963 -0.81007397 2.8282199 2434340
1.72765 -0.78991801 2.7449901 4211277
0.362636 -0.713247 2.54673 1710100
0.37865499 -0.71337497 2.5518799 12432549
0.461887 -0.70020902 2.5035601 11840413
1.28253 -0.803231 2.81285 10393487
1.61563 -0.81890303 2.8543601 2302497
1.73805 -0.785788 2.73948 5790303
1.75717 -0.78192699 2.7237301 12432556
-0.44165999 -0.71060401 2.5822799 12696759
0.37943801 -0.709683 2.55426 12498084
1.28335 -0.79979497 2.8176701 10130315
1.28776 -0.80072999 2.82008 9275520
-0.91581601 -0.64364201 2.3870399 7171437
1.28297 -0.79455298 2.8152399 10064780
1.29272 -0.79886401 2.8292201 8617590
1.29238 -0.79817301 2.82476 8551797
1.29238 -0.79817301 2.82476 8551797
1.2826 -0.78933603 2.81282 10196109
1.2957 -0.79637998 2.83744 8552054
1.63081 -0.796543 2.82283 8815488
1.2976201 -0.79244298 2.83832 8354419
1.76555 -0.76406801 2.7185199 12300970
0.365033 -0.69081199 2.54514 6775895
0.89810199 -0.71980399 2.6261699 13024176
1.3006099 -0.78976899 2.84324 8025454
1.32113 -0.78634501 2.8396599 2434341
0.367726 -0.68711603 2.5462101 4341299
0.38445199 -0.69302303 2.55933 10720636
0.82038498 -0.71665299 2.63415 12365988
-0.88032901 -0.620502 2.3813 6644836
0.36421701 -0.68328601 2.5422101 5590334
0.81780201 -0.71282202 2.6273601 12431781
1.28716 -0.77711701 2.8364699 9209215
0.819583 -0.70929098 2.6317301 12300194
0.90671003 -0.70552301 2.6194201 13024176
1.27689 -0.771272 2.8250699 11314332
1.27716 -0.77141899 2.8255401 11248796
1.2894 -0.77316803 2.8391399 8880507
1.2894 -0.77316803 2.8391399 8880507
-0.88412398 -0.61592102 2.3884699 6578787
0.37475201 -0.676507 2.55199 1773833
0.51474297 -0.65550703 2.46842 7888412
0.65759403 -0.65347803 2.4565799 5918010
0.66089302 -0.65429401 2.45964 1907481
0.82128799 -0.70102298 2.62391 12365727
0.88952398 -0.70275497 2.62167 5324321
1.27424 -0.76692402 2.8245001 11314332
1.2818201 -0.76775801 2.8331599 9867402
1.29223 -0.77234399 2.84863 8880250
0.65698701 -0.65102702 2.4581001 4865584
0.68377203 -0.65612501 2.48035 1250323
0.68586397 -0.65986198 2.4841399 1710874
0.82773 -0.69752699 2.6223199 6901796
0.88545197 -0.69693601 2.61654 2169621
0.889144 -0.69739097 2.62047 4535578
-0.88766801 -0.61625898 2.4117601 6184286
-0.40855601 -0.66218501 2.5561299 12565175
-0.41200301 -0.66717499 2.5729101 12630969
0.518628 -0.64849502 2.4704199 9596170
0.52272898 -0.64944702 2.4809101 9135887
0.53150398 -0.65324497 2.4850199 1379589
0.64812499 -0.64210802 2.4384 8283458
0.68804699 -0.65536898 2.48524 8684153
0.82158601 -0.69569099 2.6203799 12365728
0.88771701 -0.69288099 2.62076 2563598
0.89774799 -0.69892299 2.63257 8350536
0.901456 -0.69939297 2.6350801 12891812
0.90518099 -0.69946802 2.6387601 13024430
-0.88321102 -0.60443199 2.3944499 6447458
-0.88949299 -0.61195999 2.41607 6184030
-0.41797501 -0.65751398 2.5562501 11841453
-0.40913001 -0.65884399 2.5611501 12499382
0.53154403 -0.65090001 2.4908299 3614476
0.638933 -0.63527697 2.4366801 8481349
0.650392 -0.63945198 2.44332 7233092
1.28899 -0.759067 2.85128 9011836
1.28819 -0.757761 2.84758 9143166
-0.889 -0.606107 2.4146299 6184029
-0.88835198 -0.60765898 2.41255 6184030
-0.41054401 -0.65060502 2.54808 11512487
-0.41431201 -0.65042901 2.55516 11446950
-0.39823499 -0.64098603 2.5172701 11380901
-0.40974599 -0.65517497 2.5655701 12499382
0.31404901 -0.66357601 2.56879 13089705
0.52328902 -0.64736301 2.49107 9463566
0.52540898 -0.64652902 2.4942 9727244
0.64364201 -0.63383698 2.4423499 5194031
1.29154 -0.75380599 2.85237 9011579
-0.426139 -0.64603603 2.5546501 11117986
0.52945697 -0.64421803 2.5023501 9201419
0.65113997 -0.63445997 2.45522 1117705
0.64770198 -0.63415903 2.4516399 919813
0.83625001 -0.68462998 2.62464 6971218
0.88163501 -0.684484 2.6331799 3549986
1.26412 -0.74355602 2.82164 12169384
