# .PCD v0.7 - Point Cloud Data file format
VERSION 0.7
FIELDS x y z rgb
SIZE 4 4 4 4
TYPE F F F U
COUNT 1 1 1 1
WIDTH 1265
HEIGHT 1
VIEWPOINT 0 0 0 1 0 0 0
POINTS 1265
DATA ascii
1.8058 -1.0609699 4.61028 10191470
1.8132401 -1.06174 4.61449 10191214
1.81871 -1.05744 4.6033502 9796456
1.84119 -1.06608 4.6359401 9402212
1.8382 -1.06616 4.63978 9204577
1.8382 -1.06616 4.63978 9204577
1.8414201 -1.06533 4.6370602 9402212
1.85114 -1.07066 4.6445398 9139041
1.85133 -1.0687799 4.6508999 9139297
1.86138 -1.06876 4.6520801 7758161
1.85633 -1.06612 4.6498799 8941919
1.86459 -1.0698 4.6495199 5982780
1.80469 -1.056 4.6355901 10388592
1.8138 -1.0539401 4.6114402 10059885
1.8382601 -1.05883 4.6356502 9533541
1.85123 -1.06376 4.6476498 9139297
1.84103 -1.05867 4.6317 9402212
1.86568 -1.0637701 4.65661 6574403
1.87173 -1.06643 4.6610398 4930354
1.80388 -1.05123 4.6423502 10388336
1.80907 -1.05352 4.6311698 10322799
1.8203501 -1.05151 4.6335602 9994091
1.84159 -1.05268 4.6382198 9402213
1.83838 -1.053 4.6409602 9533798
1.84828 -1.05541 4.6441498 9270627
1.86532 -1.05834 4.6617799 7034440
1.85483 -1.0584199 4.64991 9073504
1.86616 -1.05804 4.6551399 5850938
1.89472 -1.07292 4.7149901 3681061
1.80725 -1.04682 4.6327 10191470
1.80797 -1.04633 4.6307101 10257263
1.83858 -1.052 4.6718202 9336163
1.84112 -1.04729 4.6455798 9468005
1.85311 -1.05076 4.6499 9073505
1.86101 -1.05283 4.6565399 8284248
1.86759 -1.0512 4.65453 6442561
1.80405 -1.03755 4.6429801 10322799
1.8106101 -1.03546 4.6347198 10257263
1.82003 -1.03912 4.6469102 9994091
1.8383501 -1.04448 4.6694999 9270369
1.83691 -1.0391099 4.6438999 9664870
1.85902 -1.04533 4.6567998 8745055
1.86836 -1.04299 4.6636801 6442561
1.80409 -1.03029 4.6395602 10388592
1.80845 -1.02976 4.6352501 10322799
1.81142 -1.02853 4.6321702 10191470
1.82043 -1.03203 4.6440401 10125677
1.83656 -1.03168 4.6403098 9599334
1.84275 -1.0326101 4.64504 9467749
1.84795 -1.03292 4.6473298 9270883
1.8628401 -1.04014 4.6610498 8218455
1.86569 -1.0396399 4.6573901 6508610
1.80466 -1.0233099 4.6361098 10388592
1.8388 -1.02583 4.6450601 9599334
1.84153 -1.02421 4.6409898 9468005
1.84262 -1.0237 4.6402502 9467748
1.84183 -1.02403 4.63937 9467749
1.8525701 -1.0283999 4.6543598 9270627
1.85849 -1.03105 4.6585398 8941662
1.86305 -1.03299 4.65939 8086868
1.8915499 -1.04448 4.7217302 3878181
1.89775 -1.0473599 4.7263398 3681574
1.80538 -1.01954 4.65031 10454384
1.80915 -1.01851 4.64849 10191470
1.82892 -1.02292 4.6421299 9862249
1.82616 -1.02317 4.6460299 9862506
1.83211 -1.0229 4.6393199 9730664
1.84124 -1.01876 4.6484399 9533542
1.85683 -1.02343 4.6586699 9073505
1.8477 -1.0191801 4.6469698 9270883
1.8628 -1.0261101 4.6629801 8284247
1.8944499 -1.03872 4.7245698 3812388
1.7977999 -1.0129499 4.64574 10519921
1.81262 -1.01732 4.6459599 10257006
1.8322001 -1.01755 4.64749 9730664
1.8290499 -1.0175101 4.6501899 9862249
1.83508 -1.0173 4.6438799 9665127
1.84378 -1.0129499 4.6520901 9468005
1.84946 -1.01353 4.65553 9336419
1.85487 -1.01579 4.6584201 9205090
1.86069 -1.01824 4.6622801 8744541
1.89571 -1.0287 4.7263899 3812389
1.8099101 -1.01003 4.6460299 10322799
1.81891 -1.01352 4.6578798 10059884
1.8291399 -1.01194 4.6586499 9928298
1.82862 -1.01275 4.6594501 9993835
1.82602 -1.0124 4.6617799 9862506
1.82602 -1.0124 4.6617799 9994091
1.83193 -1.01195 4.6547799 9796712
1.83148 -1.01257 4.6556802 9796713
1.84096 -1.01327 4.65588 9599334
1.83629 -1.0125901 4.6551199 9665127
1.83486 -1.01176 4.6512699 9730664
1.88966 -1.02837 4.7262702 5127476
1.885 -1.02245 4.7244501 6837834
1.8924299 -1.02302 4.7274699 4272682
1.81945 -1.00014 4.63728 10191214
1.83664 -1.00714 4.6633401 9336420
1.82216 -0.99822801 4.6293402 9796713
1.8263299 -0.99838901 4.6358199 9862506
1.84378 -1.0070699 4.6599102 9533542
1.83241 -1.0003901 4.6402702 9730920
1.85704 -1.01342 4.6902499 9073505
1.88774 -1.01687 4.7249198 6179905
1.89438 -1.01703 4.7260299 3812132
1.79479 -0.993406 4.6454701 10454384
1.81618 -0.99328101 4.6378298 10257007
1.81917 -0.99286902 4.6345201 10191214
1.81624 -0.99330401 4.63799 10257007
1.82687 -0.99145299 4.6328702 9796713
1.82111 -0.99395901 4.63486 10059884
1.85932 -1.00739 4.69379 8876126
1.87728 -1.01322 4.72156 7560784
1.87925 -1.0078 4.7222099 7495248
1.89182 -1.01166 4.7294302 4667182
1.88553 -1.00924 4.7262001 6837833
1.79491 -0.98585302 4.6429601 10388848
1.80055 -0.98490399 4.6420202 10388592
1.80571 -0.98266399 4.6333899 10257263
1.8023 -0.98313701 4.6359 10322800
1.80235 -0.98396897 4.6353698 10322800
1.83218 -0.99965203 4.69837 9928299
1.81599 -0.98606199 4.6350598 10257007
1.81789 -0.98169303 4.62744 10125421
1.81572 -0.985901 4.6346002 10257007
1.81501 -0.98115999 4.6308899 10257007
1.82095 -0.98234302 4.6244898 9928298
1.87631 -1.00806 4.72649 6771526
1.87762 -1.0015 4.7252998 6771783
1.8659199 -1.0035501 4.7116699 8481882
1.88258 -1.00229 4.7262001 7495249
1.8878599 -1.0055701 4.7273898 6311491
1.89463 -1.00585 4.7312698 3943718
1.7946399 -0.97810501 4.6394601 10388592
1.79782 -0.977777 4.63592 10322799
1.8054 -0.97538102 4.6300402 10388593
1.80225 -0.97680402 4.6325998 10454385
1.81283 -0.974796 4.63132 10322800
1.81581 -0.97458398 4.6280198 10191470
1.81868 -0.97494698 4.6244898 9994091
1.86519 -0.99590701 4.7129998 8612954
1.79768 -0.97040802 4.6332898 10322799
1.80353 -0.96766001 4.6266799 10388593
1.8006901 -0.96903402 4.6300302 10191214
1.80961 -0.96815598 4.6314001 10323056
1.81616 -0.96762103 4.6244202 10125421
1.8125499 -0.96754098 4.6280198 10257263
1.81328 -0.96740502 4.6279101 10257263
1.81912 -0.968045 4.62113 9928298
1.85847 -0.98600602 4.7003398 9204834
1.86175 -0.98452502 4.6964502 8810333
1.79848 -0.96490002 4.6356301 10322799
1.8080601 -0.96322501 4.6388102 10125678
1.80138 -0.962668 4.6331301 10388592
1.812 -0.96239102 4.6361098 9994092
1.81677 -0.962098 4.63272 9731177
1.855 -0.98027402 4.7003798 9468005
1.8107001 -0.95743197 4.6444502 10257007
1.8134 -0.96216202 4.6365299 10191214
1.84951 -0.97317398 4.6950998 9599591
1.86374 -0.97390902 4.7112098 8810333
1.8710001 -0.97927898 4.72402 8284247
1.87445 -0.97522402 4.72082 7758161
1.80146 -0.958565 4.65412 10322799
1.8046 -0.95789999 4.6508498 10322799
1.80785 -0.957515 4.64816 10322800
1.81203 -0.95725298 4.6448898 10191471
1.8208801 -0.95541102 4.6659398 9994091
1.86176 -0.96571201 4.7091298 8941919
1.80707 -0.95213199 4.65558 10323056
1.81085 -0.95194203 4.6525898 10257264
1.81695 -0.948273 4.6657701 10191470
1.85365 -0.95905101 4.69701 9468005
1.85352 -0.95886099 4.6969399 9468005
1.86309 -0.95985502 4.7061701 8810333
1.87243 -0.96313 4.7259698 8284247
1.80304 -0.94710499 4.6657801 10454641
1.80994 -0.94662899 4.6600199 10323312
1.80629 -0.94673002 4.6630201 10388848
1.8506 -0.95282602 4.6981001 9599591
1.85148 -0.95295 4.7004499 9599591
1.85349 -0.95178998 4.6939301 9468005
1.85359 -0.95200598 4.6938801 9468005
1.80258 -0.93980402 4.6630201 10323055
1.82655 -0.941769 4.6767998 9994091
1.83602 -0.94500798 4.68964 9862505
1.8537199 -0.94876301 4.7058401 9336419
1.8556 -0.946549 4.6981301 9401956
1.81652 -0.93602997 4.6985202 10388593
1.82032 -0.93460298 4.6891298 10322800
1.82355 -0.93446398 4.6861901 10125677
1.8267 -0.93490702 4.6831498 9994092
1.83609 -0.93787098 4.6867199 9862506
1.85364 -0.94220001 4.7053599 9205091
1.8511699 -0.93555999 4.6799598 9533542
1.85326 -0.93964601 4.6970401 9533542
1.83333 -0.92987001 4.68469 9928299
1.82717 -0.92797899 4.68016 10059884
1.83612 -0.93075502 4.6809602 9862762
1.83612 -0.93073303 4.6836901 9862762
1.85241 -0.93212199 4.6916199 9533542
1.8248399 -0.92187399 4.6975799 9993834
1.82768 -0.92160398 4.6936202 10059884
1.83362 -0.92107701 4.6864901 9928299
1.83059 -0.92106003 4.6898999 9994092
1.83916 -0.92454797 4.6901302 9599334
1.85386 -0.92957902 4.7108202 9665127
1.82956 -0.91545498 4.6967702 10059627
1.8263299 -0.91532201 4.6997499 9928298
1.83577 -0.917068 4.7013798 9928298
1.84746 -0.92062598 4.7024598 9730920
1.854 -0.92245299 4.7078099 9467749
1.85435 -0.91544098 4.7047601 9402212
1.60475 -0.93383503 4.8285398 11441276
1.60685 -0.93670499 4.8347902 11441020
1.61148 -0.93408 4.8271999 11506813
1.62406 -0.93500799 4.8217702 11441020
1.8294899 -0.90972501 4.7045398 9862506
1.84787 -0.91343999 4.6995201 9730920
1.57382 -0.93108499 4.83006 11767668
1.57919 -0.93027699 4.8263402 11767413
1.5865 -0.93074399 4.8299899 11571576
1.58655 -0.93087697 4.8266401 11637369
1.59501 -0.93345302 4.8347702 11440762
1.6012599 -0.92724597 4.8272099 9929326
1.60893 -0.92856902 4.8322601 9797739
1.61588 -0.92936403 4.8334298 9862506
1.6229399 -0.92826301 4.8271899 9336420
1.84548 -0.90547103 4.7003498 9796713
1.8426 -0.905132 4.7040901 9862505
1.84824 -0.90645802 4.6965399 9665128
1.9029599 -0.92830402 4.82336 5653563
1.56586 -0.91913801 4.8277001 11896681
1.57328 -0.91903502 4.8266802 10647649
1.5766 -0.92488003 4.8276801 11503726
1.5799299 -0.918926 4.82653 7099458
1.58237 -0.92431003 4.82517 9926240
1.5858999 -0.91992003 4.8331099 5788740
1.59313 -0.92665303 4.8352699 8811358
1.59821 -0.92217302 4.8303199 6184525
1.59313 -0.92665303 4.8352699 8811358
1.6045099 -0.92193002 4.8294401 6313796
1.6123101 -0.92217398 4.8329301 6969159
1.9069 -0.92147398 4.8231802 4799025
1.56288 -0.91348898 4.8280702 11764068
1.57042 -0.91330498 4.8261099 9135183
1.57008 -0.91312599 4.8260002 9266512
1.57793 -0.91347897 4.82763 6115651
1.58386 -0.91312701 4.8287702 5462605
1.58868 -0.91159201 4.8250299 5266768
1.59462 -0.91627002 4.8290401 5529422
1.62277 -0.91766602 4.8313699 5723208
1.87047 -0.92851102 4.9022002 8744539
1.8824 -0.91301602 4.8118 7955540
1.90479 -0.91503298 4.8271899 5456440
1.53539 -0.90160799 4.7761402 12289381
1.55574 -0.91084403 4.8236799 12158566
1.5597399 -0.90717 4.8239398 11367776
1.5663199 -0.90706903 4.82409 8280134
1.57452 -0.90749699 4.8255 5591877
1.5807101 -0.90737098 4.82686 5200976
1.58543 -0.90647203 4.8246198 5267027
1.84816 -0.92274898 4.90029 10191212
1.8481801 -0.92270201 4.90061 10257005
1.85606 -0.92166603 4.9045801 9138782
1.85533 -0.92093599 4.8997102 9138782
1.8695 -0.92189801 4.90523 9138784
1.87941 -0.92452198 4.9188499 8744541
1.89118 -0.90805602 4.8174901 6639939
1.88502 -0.90674299 4.81352 7758161
1.90161 -0.90975302 4.8299599 6508612
1.89764 -0.90951401 4.8222399 6245698
1.90496 -0.90843201 4.8263798 5588026
1.54176 -0.89699697 4.8122702 9453107
1.5483 -0.90247798 4.8189502 10838348
1.5411 -0.90001398 4.8036399 11430997
1.55389 -0.90043902 4.8211298 10509645
1.56306 -0.90133297 4.8235102 6836031
1.56958 -0.90112698 4.8230901 5329991
1.57749 -0.90149999 4.8253102 5070162
1.5864201 -0.89835697 4.8280001 5333334
1.8382699 -0.91889298 4.9113898 10848886
1.84451 -0.91653699 4.9061098 10651763
1.85061 -0.91419202 4.9006 9599076
1.85075 -0.914132 4.9001298 9533540
1.86972 -0.91459501 4.9035401 9139040
1.8973401 -0.90359002 4.8302798 7034955
1.90648 -0.90308702 4.8359799 6114113
1.53714 -0.88834703 4.8078499 12422772
1.54108 -0.89422798 4.8094301 11626842
1.54784 -0.89577401 4.8188701 12286057
1.55823 -0.894131 4.8189902 5918013
1.56616 -0.89441401 4.81849 5200719
1.5682 -0.89116597 4.8210802 5135699
1.57665 -0.89610797 4.8274899 5070420
1.58339 -0.894068 4.8313298 5399128
1.59276 -0.895114 4.82548 5263945
1.6317101 -0.89491701 4.8498502 5128506
1.6384799 -0.90197599 4.85326 5201235
1.64773 -0.89597201 4.8531299 5527887
1.64463 -0.90169102 4.8530598 5332307
1.65337 -0.900509 4.8503299 5132617
1.65214 -0.90222102 4.8560801 5264974
1.65588 -0.895872 4.8432899 5198153
1.66653 -0.90079898 4.8502498 5133131
1.6677999 -0.89456397 4.8481898 5330249
1.8356 -0.91249698 4.9147801 10914678
1.84121 -0.91055399 4.9119701 10848885
1.8474801 -0.90817702 4.9065599 10256749
1.84736 -0.90834802 4.9068599 10257006
1.8528399 -0.90640199 4.9045401 9401954
1.85983 -0.90552598 4.9026599 9007454
1.8739901 -0.90928799 4.9068198 8612954
1.89127 -0.91189098 4.9120002 7034698
1.89605 -0.90488499 4.8842101 5785405
1.9026 -0.899562 4.8617301 6772041
1.90951 -0.89493299 4.83394 5390648
1.54826 -0.88793099 4.8147202 7492931
1.55856 -0.88612902 4.8140202 5528656
1.56559 -0.88506401 4.8182902 5398871
1.57191 -0.88935298 4.8228002 5201493
1.58009 -0.88936502 4.8324599 5464408
1.5861 -0.88652802 4.8315001 5329480
1.60144 -0.88849503 4.8418999 10977897
1.65475 -0.89294398 4.8500199 5460037
1.65792 -0.88897002 4.84655 7102032
1.66435 -0.88895297 4.8484402 8286047
1.67075 -0.888919 4.8489499 9731440
1.68876 -0.891864 4.86619 7155760
1.69573 -0.89176202 4.8682399 11038809
1.83794 -0.90407503 4.91821 10848885
1.83845 -0.90419298 4.9147201 10783349
1.84386 -0.90218902 4.9126101 10585971
1.85007 -0.90007901 4.90763 9599333
1.8929 -0.90218198 4.9050698 6705990
1.89907 -0.89532697 4.8747201 5588540
1.90477 -0.89078897 4.8601098 6772041
1.5861501 -0.88326198 4.8394499 6906454
1.59761 -0.88308698 4.8416901 11306859
1.60444 -0.883452 4.84589 10254427
1.6045099 -0.88357502 4.8465199 10254427
1.61125 -0.883219 4.8467498 6636340
1.6294301 -0.88814902 4.8534698 4860969
1.63613 -0.88677001 4.8475699 9533288
1.64241 -0.88690698 4.8520899 10454382
1.64895 -0.88696498 4.85217 10453868
1.6568201 -0.884381 4.85151 11174251
1.66368 -0.884516 4.8555198 11566959
1.67784 -0.88536 4.8611598 7215644
1.68573 -0.88588297 4.8646402 7473690
1.69471 -0.88448501 4.84829 11960162
1.83456 -0.89797801 4.9238 10849141
1.8413399 -0.894804 4.9175 10717300
1.84701 -0.89401197 4.9131098 9928297
1.85333 -0.89245898 4.91049 9336162
1.8857 -0.89958298 4.92488 8349784
1.88588 -0.90021402 4.9246802 8349783
1.8915499 -0.89854598 4.9147401 7363404
1.89372 -0.89100403 4.90381 6771524
1.89586 -0.88761401 4.8867698 6179904
1.9083 -0.88437599 4.8381901 5982528
1.53476 -0.86947799 4.8074198 9395536
1.5820301 -0.87660402 4.8362899 5266770
1.59021 -0.87739903 4.8387799 8479829
1.60133 -0.87750602 4.8446102 9069649
1.60809 -0.87733102 4.8459001 7622977
1.6317101 -0.87455601 4.8492498 6175537
1.6393 -0.880777 4.8495998 10977638
1.64253 -0.87526202 4.8506999 10976614
1.64569 -0.88130099 4.8526101 11568490
1.64915 -0.87510401 4.8506498 10905944
1.66167 -0.87872797 4.8566499 8466476
1.66926 -0.87727499 4.8590798 10110275
1.6813 -0.87942201 4.8603101 11492447
1.69793 -0.877913 4.84587 12092259
1.82789 -0.89081001 4.9245 10914678
1.83293 -0.88986403 4.92454 10849142
1.83885 -0.88863701 4.9215598 10783349
1.83801 -0.88965398 4.92378 10783349
1.8444999 -0.887721 4.9179602 10257006
1.85128 -0.88602799 4.9128098 9401955
1.86447 -0.89004999 4.9068398 8744540
1.8831 -0.89530897 4.9309201 7823954
1.90627 -0.87907201 4.8444901 6705993
1.53769 -0.86461699 4.8124099 7555905
1.5801899 -0.86553901 4.8397198 5988178
1.57243 -0.86467701 4.8310699 5267540
1.5791301 -0.86519498 4.8356299 5726034
1.58495 -0.87176698 4.8415499 6052943
1.59749 -0.87025601 4.8408499 3543307
1.60507 -0.87094098 4.8422499 4069650
1.61151 -0.87069201 4.8440599 7096896
1.6181901 -0.86925697 4.8443999 5122852
1.6254801 -0.86915201 4.8463998 10123112
1.63489 -0.86823899 4.8467002 4531229
1.6458 -0.86976999 4.8524299 7552565
1.6523401 -0.870067 4.85496 8532015
1.6593 -0.87011498 4.85531 11624543
1.6664799 -0.87015402 4.8564 9782083
1.67371 -0.87074 4.8607702 11959921
1.68093 -0.870251 4.8618999 11234659
1.6876 -0.870507 4.8650398 9649985
1.70147 -0.871755 4.8457398 11828578
1.83627 -0.88246 4.9254799 10783094
1.83184 -0.88275701 4.9226298 10848885
1.84211 -0.881302 4.9223199 10454642
1.84905 -0.87962502 4.9167299 9467747
1.88796 -0.88560402 4.92378 7429197
1.89827 -0.881172 4.89539 6048061
1.90372 -0.87259001 4.8477101 6640199
1.5655299 -0.86106598 4.8294101 5201746
1.57602 -0.85906303 4.8328199 6842969
1.5772901 -0.85865599 4.8326302 7696734
1.5845701 -0.858437 4.83389 8414291
1.59118 -0.85842103 4.8356199 4135700
1.5979 -0.85843098 4.83742 9728607
1.60124 -0.86426699 4.8401699 7688774
1.60496 -0.85830402 4.8394098 10056029
1.6082 -0.86435598 4.8418398 5254436
1.62862 -0.86324102 4.84584 5649194
1.63966 -0.86398703 4.84869 3084814
1.64916 -0.86382401 4.8516002 8076860
1.65575 -0.86387497 4.8527298 11625056
1.67773 -0.86426198 4.8603101 10576472
1.6843899 -0.86451298 4.86343 12222579
1.70353 -0.86622298 4.84935 12158055
1.8299 -0.87594098 4.9272699 10783350
1.83419 -0.87558103 4.9302802 10717557
1.84093 -0.87424099 4.92415 10454642
1.84742 -0.87272102 4.9183898 9533540
1.8592401 -0.87857902 4.9169698 8810076
1.89476 -0.87663698 4.9141002 7955008
1.89531 -0.86973 4.8808298 7363133
1.57288 -0.85303098 4.8305502 7433563
1.5741 -0.85279399 4.8313599 8353122
1.57978 -0.85305202 4.8323202 11110513
1.58074 -0.852714 4.83253 11175278
1.58802 -0.852507 4.8341298 5779237
1.58733 -0.85271299 4.8340101 6108458
1.59474 -0.85254598 4.8361101 10056034
1.60174 -0.85244298 4.8372898 11697514
1.60193 -0.85246497 4.83742 11631465
1.60864 -0.85244799 4.8390799 7873831
1.61295 -0.85838997 4.8424602 4985619
1.61631 -0.85240197 4.8406801 8198694
1.61975 -0.85862398 4.8431201 5706517
1.6231101 -0.85265201 4.8414502 12482933
1.63 -0.85236001 4.8422999 7554365
1.63699 -0.853001 4.8462 4398360
1.6334 -0.85884303 4.8470001 3150606
1.64592 -0.85788202 4.8499198 5910827
1.65065 -0.85484302 4.85427 7286573
1.65246 -0.85820401 4.8526101 7216930
1.70432 -0.85905999 4.8510299 11828836
1.83878 -0.867679 4.9300199 10454642
1.84554 -0.86613101 4.9232898 9533797
1.85716 -0.87196898 4.9215298 8810076
1.56311 -0.847004 4.8263001 5857874
1.56977 -0.84653801 4.82478 8221537
1.58468 -0.84639698 4.83184 8144958
1.5772099 -0.84643698 4.8284202 11437935
1.59163 -0.84644002 4.8334799 5772823
1.59861 -0.84643602 4.8352299 7545634
1.60551 -0.84641802 4.8369498 8858158
1.61251 -0.84639901 4.83887 8197409
1.62007 -0.84661603 4.8399901 12613748
1.62691 -0.84655499 4.8421698 9723473
1.62644 -0.84655499 4.8415098 9723474
1.63344 -0.84714198 4.8451099 9854291
1.64458 -0.84844899 4.8467498 11369326
1.69741 -0.84799701 4.8552499 11105372
1.70486 -0.85174203 4.85146 11566175
1.7156399 -0.84998298 4.8516202 10582882
1.84412 -0.85930401 4.9268899 9533796
1.85786 -0.86345702 4.9140601 8612698
1.85779 -0.86367702 4.91926 9073248
1.58207 -0.839903 4.82865 9258045
1.58855 -0.84024799 4.83184 7410716
1.59563 -0.83982199 4.8302498 12150886
1.60242 -0.840321 4.8343801 13471106
1.60929 -0.84043002 4.8368301 12878971
1.61598 -0.840446 4.83781 8270128
1.62263 -0.84075701 4.84092 12088686
1.63857 -0.84319597 4.84658 9327174
1.64368 -0.838741 4.8457899 6954780
1.6729 -0.84543699 4.8484802 8927028
1.67865 -0.844455 4.8461199 11759459
1.6835099 -0.83889002 4.84763 12026988
1.68651 -0.84451598 4.8476501 12223853
1.6971101 -0.83995497 4.8474202 11895397
1.71506 -0.842453 4.8509202 10910818
1.7217 -0.84260899 4.85179 9663582
1.72851 -0.84185398 4.8471298 9467231
1.85416 -0.84639502 4.8592 8678747
1.85605 -0.83828002 4.8241401 8415577
1.87014 -0.8409 4.8346701 7429453
1.87696 -0.84037101 4.8304701 6968648
1.89701 -0.850465 4.8858299 6377026
1.9039201 -0.84570402 4.8869901 5916733
1.47439 -0.82454902 4.7883201 12159061
1.58534 -0.83394903 4.8277502 9715519
1.58903 -0.82812101 4.8273702 8470069
1.59235 -0.83406198 4.82936 11165019
1.59943 -0.83349198 4.8271999 10447192
1.60615 -0.83424199 4.83283 9395018
1.60918 -0.83131403 4.8281798 12158071
1.6195199 -0.83447301 4.83707 6623252
1.6261801 -0.83477402 4.84022 9387068
1.63764 -0.83363003 4.8463702 9392458
1.64757 -0.83270299 4.8446898 8991284
1.65398 -0.83209097 4.8422799 11890536
1.6797 -0.83311099 4.8484702 10843743
1.67355 -0.83217198 4.8448501 7553840
1.68519 -0.83226502 4.8471599 11896427
1.68924 -0.83833897 4.8480701 11961959
1.71848 -0.83682102 4.8510799 9859416
1.72488 -0.83635497 4.8506398 9730145
1.73537 -0.83140498 4.8352399 9467233
1.84187 -0.85287702 4.93257 9665126
1.84839 -0.85123402 4.9267402 9007197
1.85519 -0.83246499 4.84027 8152404
1.8753999 -0.83366001 4.8348498 6705477
1.88446 -0.83525002 4.84307 6377026
1.4694099 -0.819332 4.79212 10845010
1.59601 -0.82823098 4.8292699 12352626
1.61222 -0.82569498 4.8298001 11103844
1.62298 -0.82891202 4.83887 11820642
1.6323 -0.82576603 4.8354001 8074800
1.6390899 -0.82584602 4.8373098 10049871
1.64583 -0.825836 4.8383899 7945780
1.65285 -0.82554698 4.8394198 8013882
1.66064 -0.82547897 4.83992 7619635
1.68174 -0.82690901 4.8504901 11436135
1.68859 -0.82672799 4.8491101 11699304
1.71531 -0.83109099 4.85044 11173475
1.71855 -0.82490897 4.8495598 9859159
1.72185 -0.83004802 4.8463702 9071187
1.72853 -0.82860398 4.8394499 9138267
1.74195 -0.824049 4.8213801 9401697
1.79006 -0.83347398 4.9011102 9993833
1.79588 -0.836927 4.8817401 10388335
1.80969 -0.840195 4.9070501 10257005
1.8461699 -0.844787 4.9322701 8678489
1.85589 -0.82795399 4.8646302 7691854
1.88993 -0.82817298 4.8445702 5719354
1.60271 -0.819924 4.8263698 10908003
1.60903 -0.81966901 4.82722 9524813
1.61567 -0.81988698 4.8294001 9455942
1.6223 -0.81982601 4.8317599 7940136
1.62909 -0.81995797 4.8339 9851211
1.63589 -0.81999898 4.8359299 9657680
1.6426899 -0.82004797 4.8376498 7948857
1.6502 -0.819435 4.8365202 7488821
1.65737 -0.81958401 4.8386502 10120027
1.6737601 -0.81995201 4.8448701 9528141
1.69256 -0.821181 4.85146 11830376
1.69951 -0.82107598 4.85045 11895910
1.7051899 -0.82417297 4.8509898 12224360
1.71206 -0.82382703 4.8456802 12027241
1.7099 -0.81743997 4.8454299 12224618
1.71667 -0.817182 4.84095 10976354
1.72315 -0.81832701 4.8452802 8413513
1.8169399 -0.833269 4.9136701 9730404
1.81032 -0.832946 4.9079399 9796454
1.85535 -0.83920199 4.9378099 7955025
1.86225 -0.828291 4.8894 6836804
1.9002399 -0.82567698 4.8737602 5061682
1.6192 -0.81408501 4.8310099 10510422
1.62598 -0.81420398 4.8330798 8539710
1.62282 -0.808384 4.8318701 10975845
1.6294301 -0.80841601 4.8334899 10383707
1.63582 -0.80831403 4.8345199 8278589
1.64644 -0.814228 4.8378401 6831146
1.6533999 -0.81401902 4.8377299 6962734
1.66214 -0.81442702 4.8417501 10843745
1.67026 -0.81413603 4.8449702 11172708
1.6769201 -0.81411201 4.8453498 10843487
1.68358 -0.81409699 4.8457799 11698793
1.69593 -0.814915 4.85006 11895912
1.70294 -0.814888 4.8495202 9856070
1.72807 -0.81378299 4.8452001 8414288
1.80758 -0.82824302 4.9285498 9335641
1.8187701 -0.82840103 4.9239302 9204318
1.84382 -0.83025801 4.9307299 7494218
1.85136 -0.83016402 4.9295602 7099460
1.86287 -0.82452899 4.9100199 6639168
1.8696001 -0.82340902 4.9060998 6375998
1.87869 -0.82120502 4.90764 5718325
1.8857599 -0.819359 4.89782 5587254
1.9015501 -0.816535 4.8840499 5916733
1.62621 -0.802616 4.8322201 11371116
1.63263 -0.80243301 4.8327298 9660498
1.6424299 -0.80826098 4.8355899 11041895
1.64571 -0.80256402 4.8363099 9462863
1.6501 -0.80831498 4.8372798 9002313
1.65022 -0.80840999 4.83777 9068362
1.6586601 -0.807298 4.8404398 10778210
1.6656899 -0.807248 4.8445201 10843744
1.67351 -0.80799401 4.8475199 9198664
1.67392 -0.80831099 4.8467798 9132871
1.68653 -0.80741203 4.8461499 11961708
1.69292 -0.80756003 4.84902 10580052
1.69907 -0.80895197 4.8494301 9527106
1.70573 -0.80892199 4.8499799 12223847
1.71258 -0.80887598 4.8496699 12224361
1.73181 -0.80764198 4.8437099 8349009
1.7774301 -0.81694603 4.9171801 9006940
1.79846 -0.82118702 4.9258599 9138525
1.80432 -0.82203102 4.92904 9138525
1.8097 -0.823156 4.9341202 9138269
1.81872 -0.82237899 4.92835 9006939
1.84461 -0.82394701 4.9401999 6836031
1.85019 -0.82377899 4.9370999 6770494
1.85465 -0.81853998 4.9315901 10323059
1.85975 -0.81573898 4.9165101 11112575
1.86675 -0.81682402 4.9089799 7954254
1.87289 -0.81411999 4.9031801 9007203
1.8836499 -0.81669003 4.89568 6508098
1.89048 -0.81534201 4.8920398 6837064
1.8909 -0.81381202 4.8929501 7231821
1.89641 -0.811912 4.8885102 7297615
1.63574 -0.79676902 4.8340502 8607811
1.6428 -0.79642099 4.8348398 10318173
1.65579 -0.801108 4.8384399 9725779
1.66223 -0.801171 4.8421998 9198920
1.67012 -0.80188 4.84483 10448986
1.66978 -0.80179399 4.8445601 10448729
1.67746 -0.80230498 4.8470302 11895917
1.6763 -0.80173802 4.84517 11895917
1.6833301 -0.801844 4.8461599 11895658
1.70135 -0.79662102 4.8485999 12421225
1.7023799 -0.80320799 4.8501801 12421226
1.7062 -0.79736698 4.85009 12487017
1.7248 -0.798078 4.8497 8281673
1.76719 -0.81059802 4.9219699 9533285
1.7738301 -0.81057602 4.92065 9993836
1.79063 -0.81169701 4.92769 10914937
1.7928801 -0.81606603 4.9334402 9270112
1.8033299 -0.812621 4.91712 10454387
1.8113199 -0.81508303 4.9215999 9993579
1.81458 -0.80892497 4.91892 12230541
1.82925 -0.815148 4.9384098 11769989
1.84605 -0.81537998 4.9422302 12428177
1.8522 -0.812289 4.9366698 12296591
1.86294 -0.80931503 4.9141002 12230798
1.86957 -0.80891401 4.9109902 12493186
1.87633 -0.80677998 4.90869 12033165
1.87966 -0.811759 4.9015498 9072996
1.88547 -0.80881 4.8953199 8875617
1.89634 -0.80952901 4.8867002 7363407
1.44271 -0.77846998 4.7620702 8677195
1.61777 -0.78901398 4.8313398 7621177
1.62371 -0.79277599 4.8318901 6831406
1.63034 -0.792831 4.8330402 6896942
1.6399601 -0.79072303 4.83499 8541762
1.6501 -0.78988099 4.83746 5383449
1.6594 -0.79502898 4.8404899 11304806
1.66958 -0.79009402 4.8441 11961965
1.67994 -0.79600602 4.8460398 11369570
1.67301 -0.79592001 4.8449602 11961965
1.68671 -0.79607898 4.8469601 9461315
1.69032 -0.78975999 4.8452301 12356204
1.69753 -0.789765 4.84655 10184778
1.70877 -0.79115498 4.84975 12355432
1.72114 -0.79326999 4.85502 10779492
1.77283 -0.805309 4.9237199 11967626
1.76721 -0.80189598 4.9089699 12033419
1.78019 -0.80518198 4.9261899 12296590
1.78579 -0.803913 4.9144502 12296590
1.7933 -0.804515 4.9198599 12493970
1.79889 -0.806225 4.9135599 12165005
1.80734 -0.806207 4.9127002 12296590
1.8184201 -0.80333102 4.9197202 12756884
1.81479 -0.797876 4.8947201 12888727
1.8148201 -0.79786098 4.8946099 12888727
1.85964 -0.80342197 4.9155998 12428176
1.86639 -0.80313301 4.9131598 12362127
1.88697 -0.80124301 4.8997798 12033165
1.89641 -0.800578 4.8866701 9401704
1.6147799 -0.782565 4.8256001 9134157
1.62712 -0.78357399 4.83462 8147262
1.62079 -0.78296298 4.8305302 8871243
1.63346 -0.78708303 4.8337402 9133900
1.64 -0.784284 4.8387198 11568237
1.64668 -0.78411603 4.8383598 9989209
1.65344 -0.78416198 4.8389201 11041893
1.65968 -0.78391302 4.8400502 11831149
1.66605 -0.78405499 4.8432298 11830637
1.66654 -0.78445297 4.8439498 11764844
1.67348 -0.78426099 4.8446102 9198660
1.68049 -0.78419399 4.8446298 11830122
1.68722 -0.78391701 4.8436699 12159341
1.69426 -0.78373301 4.8438101 12093546
1.70867 -0.783957 4.8505902 12159599
1.7151999 -0.79018599 4.8543501 12093292
1.77346 -0.79487801 4.9151502 12625555
1.76053 -0.79627597 4.8919201 12296591
1.77333 -0.79693198 4.9080801 12560018
1.78101 -0.79611897 4.90943 12691348
1.7970901 -0.79752803 4.9165101 12757142
1.7893699 -0.79768002 4.9123802 12691349
1.8233 -0.79506201 4.8832002 12757140
1.83443 -0.78962803 4.87992 12625554
1.87486 -0.79277498 4.9123802 12559505
1.88032 -0.797068 4.9084001 12427663
1.88553 -0.79255801 4.90131 12427663
1.89149 -0.79564101 4.8936901 12230287
1.89597 -0.790021 4.8875499 12362128
1.90168 -0.79313397 4.8804698 11703944
1.61738 -0.77767301 4.8323898 9200206
1.61242 -0.77314901 4.8306599 9989978
1.63337 -0.78102398 4.8399301 11436908
1.62736 -0.77706403 4.83461 11305835
1.64325 -0.77841502 4.83885 11634543
1.65625 -0.778211 4.8399801 11502957
1.66259 -0.77785802 4.8396802 10844770
1.66968 -0.777915 4.8418298 9199689
1.67682 -0.777937 4.8417702 11436394
1.68413 -0.77826297 4.8440399 11305064
1.69821 -0.77806002 4.8466001 11700335
1.70516 -0.77871501 4.8529501 12358780
1.71143 -0.77897203 4.8563399 12490881
1.71805 -0.77920997 4.8614502 13017998
1.82682 -0.78205198 4.8819499 12822933
1.82368 -0.78204203 4.8859801 12822934
1.83018 -0.78293401 4.8786302 12757140
1.83784 -0.78426898 4.8857198 12757140
1.88079 -0.78847301 4.9095702 12559505
1.60443 -0.770028 4.8316398 9990748
1.61058 -0.77284199 4.8343701 10056027
1.6182801 -0.77214903 4.8371501 10648164
1.62448 -0.772017 4.8400202 10845799
1.63186 -0.77221203 4.83846 10845798
1.6392699 -0.77259302 4.83777 10977383
1.6455801 -0.77234399 4.8377199 11372142
1.65122 -0.77297401 4.8459702 11570036
1.66619 -0.771065 4.8463101 13215376
1.65899 -0.77280402 4.8431301 12030587
1.67861 -0.770962 4.8418798 12951946
1.67217 -0.77056003 4.8415098 13280913
1.69362 -0.77302301 4.8505101 13149325
1.71217 -0.77195799 4.8526201 13084818
1.71233 -0.769934 4.8488598 13282455
1.82811 -0.77736402 4.8927598 12822933
1.83477 -0.77657801 4.8857398 12822933
1.83164 -0.77665198 4.8898101 12757397
1.83798 -0.77709597 4.88204 12888469
1.88766 -0.78544402 4.9117899 12559762
1.893 -0.78077102 4.90697 12625555
1.56144 -0.75604898 4.8055601 13083787
1.56411 -0.76233101 4.8106499 11370853
1.57262 -0.75920898 4.8200102 13149326
1.5554 -0.75374001 4.7860198 12688513
1.57103 -0.76051199 4.8105001 11503472
1.61089 -0.76583999 4.83391 11833467
1.61751 -0.76540297 4.83462 12425860
1.63161 -0.76752299 4.8487902 12886667
1.61991 -0.76030898 4.8324399 12690060
1.63507 -0.76647198 4.8572001 13150609
1.63855 -0.763897 4.8543301 13150610
1.66032 -0.76708198 4.8504801 13216404
1.67352 -0.76414502 4.8378 13216661
1.68239 -0.76520902 4.84234 13216917
1.6791 -0.76126999 4.8393698 13151382
1.69262 -0.76458901 4.8360801 13282455
1.7048301 -0.76712 4.8462501 13216919
1.88969 -0.77871001 4.9268098 12757141
1.6142401 -0.75783902 4.8424501 13019284
1.6288199 -0.76164401 4.8577499 13019539
1.65205 -0.76060402 4.8529601 13085590
1.65871 -0.76002002 4.8590298 13085847
0.58555597 -0.64164501 4.2469401 9336162
0.59300297 -0.641662 4.2558799 5914679
0.59332299 -0.63482201 4.2558799 5914936
0.59253901 -0.62880898 4.2611899 6506815
0.59729099 -0.63047701 4.2551899 5060144
0.59887803 -0.62146598 4.25664 5586487
0.59532201 -0.61681199 4.26267 7296586
0.59059399 -0.61253798 4.2706299 8283476
0.596587 -0.61184502 4.2688098 6836293
0.597314 -0.607342 4.2771201 6441792
0.587771 -0.60094601 4.2835302 9863024
0.59404999 -0.60042697 4.2764702 8218715
0.59404999 -0.60042697 4.2764702 8218715
0.592843 -0.59413201 4.2814102 9863537
0.603984 -0.58757198 4.2768302 6838091
0.61022002 -0.58767301 4.2740998 5720382
0.59525901 -0.58672798 4.27597 9798000
0.59139401 -0.58622301 4.2746701 12034188
0.61065203 -0.58062899 4.2723699 6049089
0.61238801 -0.58150202 4.2769299 5720126
0.590195 -0.58047301 4.2809801 12231566
0.59426099 -0.58108699 4.2835698 9929586
0.59319299 -0.58112001 4.2836699 10324087
0.60099298 -0.581101 4.2801499 8021850
0.61228698 -0.57355398 4.2690701 6180676
0.613451 -0.57447499 4.2756701 6312518
0.59588599 -0.574009 4.2801499 9929844
0.606341 -0.573443 4.2701001 7891034
0.611687 -0.57363898 4.2703099 6246212
0.612948 -0.56724799 4.2665601 6443847
0.61196101 -0.56762898 4.2681198 6575432
0.60322499 -0.56304598 4.2669702 10127735
0.61459398 -0.56786501 4.27526 5851969
0.61357898 -0.56173497 4.2740502 6641227
0.61255199 -0.561809 4.2798901 6509898
0.61967099 -0.562181 4.2787099 6049605
0.61510903 -0.55620301 4.28091 6181192
0.62366998 -0.55490601 4.2767301 5786691
0.81419498 -0.447676 4.1718202 6115142
0.81221998 -0.446069 4.15452 5720128
0.82083303 -0.44782299 4.1736398 5851970
0.81391698 -0.441535 4.1736898 4470833
0.81381398 -0.44316101 4.1549301 5391421
0.81361699 -0.43478999 4.1749802 3089438
0.813793 -0.436654 4.1540799 3352608
0.81402802 -0.42812899 4.1725302 2760731
0.81316602 -0.424364 4.18752 3549732
0.812626 -0.42244101 4.1628199 3352353
0.81477702 -0.41771799 4.1701002 5653822
0.81679302 -0.417059 4.1617298 5588286
0.77533001 -0.413923 4.1756101 5259063
0.78606099 -0.41484901 4.1795201 5785150
0.79608798 -0.41095701 4.1617398 6969164
0.80753303 -0.41492599 4.1679101 5719612
0.811589 -0.41271999 4.1712699 8350560
0.82223397 -0.41553599 4.1782298 6903373
0.78481299 -0.40701401 4.1679902 9600627
0.79185301 -0.40450001 4.1622601 10389626
0.79853898 -0.404515 4.1589999 10586747
0.80472499 -0.40432301 4.1585898 10783868
0.76073802 -0.39855999 4.1563802 12823706
0.76284999 -0.40019199 4.1686602 12560534
0.77000701 -0.402964 4.1652298 11574413
0.77791601 -0.403227 4.1675301 11047813
0.78785503 -0.39801899 4.1623902 11705224
0.79429197 -0.398058 4.1595402 11244416
0.80504501 -0.39815599 4.1526799 10191730
0.81445003 -0.39846599 4.1525998 10060143
0.81176001 -0.39920601 4.1482701 10125937
0.82598102 -0.39952499 4.1507802 11046266
0.84787703 -0.39410701 4.1318402 11375232
0.85031199 -0.39453101 4.13552 11441281
0.79046601 -0.39251301 4.1577702 12165518
0.79849899 -0.39239901 4.1546602 12231311
0.804721 -0.39249301 4.1536999 12231054
0.81264901 -0.39383599 4.15451 12428432
0.81930703 -0.393231 4.1491399 11507331
0.82653499 -0.39315301 4.1444101 11243902
0.839773 -0.39427999 4.1370802 11243901
0.84557599 -0.38888001 4.1381502 12296332
0.78584301 -0.386269 4.1570902 12955289
0.79834002 -0.386026 4.1459398 12888983
0.80461901 -0.38676 4.1491599 12823190
0.80822003 -0.38713199 4.1525402 12757140
0.81245798 -0.38833299 4.1523299 12560018
0.81424898 -0.38633299 4.1454802 12626067
0.81684798 -0.38669699 4.1482902 12625810
0.823533 -0.386684 4.1444702 12494224
0.82888699 -0.38679799 4.1429 12888725
0.83892 -0.388906 4.1409001 12165002
0.84572703 -0.38396999 4.1360502 13349277
0.85096002 -0.384051 4.1367002 13415069
0.79106802 -0.38240099 4.15728 13415326
0.79762799 -0.38057101 4.1581101 13415326
0.82363701 -0.37991899 4.1392798 13217947
0.83920801 -0.382056 4.1375899 13349532
0.845815 -0.377673 4.1385498 13481118
0.850299 -0.37867001 4.1388798 13481119
0.83401501 -0.372852 4.12427 13415325
1.14833 -0.32351801 3.9795599 13678503
1.04618 -0.31213 3.9256699 13678758
1.05812 -0.31529099 3.9359 13678758
1.07348 -0.31472701 3.95345 13678501
1.0848 -0.31740299 3.95632 13612964
1.09056 -0.316535 3.96299 13612964
1.10198 -0.31639701 3.95963 13744549
1.1078399 -0.31640199 3.95895 13810087
1.11493 -0.31676501 3.9644599 13612710
1.12284 -0.31718099 3.9703 13217952
1.12736 -0.316719 3.9648399 12757145
1.13462 -0.31691399 3.96719 11638921
1.1420701 -0.31736499 3.9702899 10915197
1.14911 -0.31769499 3.97172 10125681
1.0146101 -0.30746299 3.93765 13678758
1.02189 -0.310348 3.9407699 13678757
1.0294501 -0.31010199 3.94754 13678757
1.03471 -0.309266 3.9393401 13678758
1.04001 -0.308761 3.9352601 13679015
1.04634 -0.307726 3.9414301 13678502
1.0513 -0.31128201 3.9370501 13613221
1.0544 -0.31044301 3.9358799 13678758
1.05985 -0.31051001 3.9394801 13744295
1.06619 -0.31048301 3.93767 13678758
1.07941 -0.31194001 3.94679 13678501
1.08571 -0.312089 3.9493501 13546915
1.0902801 -0.31217599 3.9519601 13283743
1.09902 -0.31476101 3.96275 13547171
1.10088 -0.310801 3.9590299 9730923
1.11229 -0.31176299 3.9640601 8546650
1.11815 -0.31187499 3.9672699 8151635
1.13845 -0.311827 3.9681699 8546649
1.13823 -0.311701 3.96735 8480856
1.1444401 -0.311822 3.9646299 7625291
1.1522599 -0.31252101 3.97193 7559755
1.15458 -0.31487501 3.96979 8086099
0.964773 -0.302874 3.92465 13547171
0.97063899 -0.29998401 3.9133799 13612964
0.98158199 -0.30096999 3.9277899 13744038
0.98155802 -0.30693001 3.94203 13546916
0.98759502 -0.30803001 3.94698 13612708
0.99250901 -0.30678999 3.94175 13612709
0.997585 -0.306869 3.94383 13612965
1.0072401 -0.307964 3.94804 13678758
1.00992 -0.303839 3.9230399 13678758
1.02555 -0.30271599 3.9358799 12297106
1.03219 -0.30485201 3.94542 13086622
1.03549 -0.302771 3.94241 9665129
1.04995 -0.30209699 3.9437599 7230533
1.05138 -0.306335 3.94541 12560021
1.0585001 -0.30719501 3.9477401 12494228
1.06481 -0.30727801 3.95016 11244161
1.07103 -0.30711901 3.95052 9928301
1.07719 -0.30651599 3.9514 8020305
1.09039 -0.30569401 3.9552901 7098947
1.09576 -0.30859599 3.9624901 7757133
1.1028399 -0.30690199 3.9697101 6572860
1.10939 -0.30479401 3.97276 6441275
1.12052 -0.306725 3.9662299 6572862
1.15438 -0.30914101 3.9695899 6967618
0.91875899 -0.29660201 3.9131601 13283743
0.92862803 -0.29783699 3.92135 13283742
0.922656 -0.29700199 3.91359 13349535
0.93446898 -0.29798201 3.92366 13283998
0.94210899 -0.29847699 3.9299099 13480865
0.955944 -0.29800099 3.92155 13349536
0.96133202 -0.29801399 3.92171 13415586
0.96559697 -0.297566 3.91641 13283744
0.976915 -0.295376 3.9214799 10257523
0.98660702 -0.30094501 3.92994 13546660
0.99101102 -0.30064201 3.9279101 13481124
1.00488 -0.30088899 3.9319899 12954780
1.01411 -0.299797 3.92944 9796972
1.01982 -0.301254 3.9331999 11047039
1.02406 -0.29667601 3.9256001 6704444
1.0301 -0.29822901 3.9295101 6836030
1.03854 -0.29747 3.93907 6835776
1.04582 -0.29705301 3.9427199 6967106
1.0556 -0.30202699 3.9445 7033154
1.06159 -0.30202499 3.94591 6967361
1.0683399 -0.302228 3.94993 6967361
1.0754 -0.30225599 3.9572101 7033155
1.0844899 -0.30173701 3.9683299 6967363
1.09856 -0.30391601 3.9770601 6638398
0.853755 -0.28773701 3.89538 13678757
0.86403602 -0.28797299 3.9022 13678758
0.88203698 -0.287402 3.88551 13546916
0.88818401 -0.287366 3.88462 13481123
0.89768201 -0.287653 3.8919301 12296850
0.893673 -0.28738701 3.8845999 12362643
0.91483301 -0.291123 3.91501 13678244
0.918441 -0.29168999 3.9182401 13678501
0.94511402 -0.29227 3.91485 12757399
0.95096999 -0.29234701 3.9143 11441540
0.95629001 -0.29235899 3.9147201 10718075
0.96234298 -0.29248899 3.9154501 9994353
0.96811199 -0.29249299 3.9161501 8612698
0.98742098 -0.29298601 3.91347 7099204
0.99944597 -0.29443499 3.9282801 6704446
1.01416 -0.29366499 3.9251399 6770238
1.0237 -0.29096201 3.9195399 6835775
1.03008 -0.29260799 3.92472 6836032
1.03722 -0.294011 3.9346499 6836033
1.08961 -0.29765901 3.98142 6506813
1.11087 -0.29349601 3.9797001 6573120
1.11727 -0.293432 3.9776599 6639170
0.85633701 -0.288443 3.9084599 13678757
0.86456198 -0.28201401 3.88713 12165263
0.86990702 -0.28792101 3.9028299 13612709
0.870516 -0.28201801 3.8859799 12099470
0.876432 -0.28192499 3.8861101 11507333
0.89510399 -0.28312299 3.89256 8875614
0.90647399 -0.284989 3.9118199 8217683
0.91908902 -0.28600901 3.91961 7625291
0.93350202 -0.287431 3.91767 8546648
0.949018 -0.28754801 3.9184899 7164996
0.95972401 -0.28763899 3.91695 7164997
0.96509302 -0.287568 3.9149499 7099204
0.97063202 -0.28741199 3.9160099 6902080
0.97620302 -0.287334 3.9119401 6902080
0.98598403 -0.288946 3.9298401 6836032
0.99920702 -0.288452 3.9232099 6769726
1.04322 -0.289561 3.9407201 6901571
1.0803601 -0.28890601 3.9769299 6572607
1.08596 -0.289947 3.9806001 6375228
1.08898 -0.287927 3.97593 5783349
1.10606 -0.28860599 3.9862399 4862505
1.11812 -0.29097301 3.9786899 6047035
1.12248 -0.29047501 3.97157 5784119
0.87416101 -0.27684101 3.88345 7164995
0.879094 -0.27696699 3.88731 7099202
0.88668501 -0.28098699 3.8840101 8809820
0.89830297 -0.27743 3.9082601 7164996
0.90893298 -0.27954599 3.91625 7099203
0.90591198 -0.27941799 3.9131501 7099203
0.92720902 -0.28296599 3.9163001 7033410
0.92403698 -0.27795801 3.9177499 7099203
0.92887098 -0.27800101 3.9182999 7033667
0.94191301 -0.28238699 3.9200699 7033155
0.95141202 -0.28115299 3.90888 6967618
1.07558 -0.283261 3.97926 3415316
1.08329 -0.28383499 3.97679 3546645
1.0895 -0.28194201 3.9737301 4336161
1.09648 -0.284944 3.9753799 3151889
1.09887 -0.283811 3.9784801 3875867
1.10667 -0.287797 3.9844501 4204576
1.1119699 -0.284881 3.9772699 3744539
1.11668 -0.286181 3.9830301 3415573
1.12221 -0.28274301 3.9822299 6244925
1.12858 -0.28278801 3.98195 6508098
0.89854002 -0.27327201 3.90871 7164996
0.92679203 -0.273839 3.9231701 7033667
0.93493497 -0.27447701 3.9282501 6902337
0.94081903 -0.27734101 3.9374299 6902338
0.94905198 -0.27573901 3.9335401 6836546
0.962008 -0.273166 3.93383 6770497
1.07776 -0.27803299 3.97698 6113082
1.08371 -0.27781999 3.97422 6441791
1.10662 -0.28150901 3.97999 6178876
1.10856 -0.27851799 3.9758101 6573890
1.12028 -0.278759 3.9771099 6508096
1.12506 -0.27742299 3.9804001 6573632
1.1324 -0.281454 3.9818399 6508097
1.13885 -0.27935499 3.97419 6573633
0.89665401 -0.268785 3.90534 8546902
0.912763 -0.27083501 3.92451 8086611
0.91506398 -0.26898199 3.91961 8086612
0.94083899 -0.27135599 3.9396801 6836546
0.95626301 -0.27298301 3.9323001 6771009
0.96540302 -0.26765901 3.93559 4336416
1.08057 -0.272618 3.9718499 6508096
1.0983 -0.27318501 3.9754901 6573633
1.1021 -0.27272999 3.9705999 6573889
1.11731 -0.27390599 3.9765601 6573888
1.1292599 -0.27544999 3.98277 6508352
0.85948998 -0.26144299 3.9221599 7954767
0.863648 -0.26080099 3.9137101 7889231
0.89012903 -0.26394099 3.9126599 8547673
0.895576 -0.26394001 3.9147601 8613466
0.90574199 -0.26291001 3.92572 7692368
0.91129899 -0.26683101 3.92731 8481627
0.93188298 -0.26545301 3.96295 3810331
0.94750398 -0.26763001 3.9441099 4863016
0.95346099 -0.26766801 3.9415901 4599843
0.95943397 -0.267672 3.9387 4599588
0.86021298 -0.255898 3.91697 5718327
0.85985398 -0.25591001 3.9155099 5915705
0.86605901 -0.25588799 3.9163101 4929070
0.87024999 -0.26056001 3.91659 7889231
0.87602001 -0.255748 3.9240699 2956055
0.87271702 -0.255622 3.91887 3547933
0.87616599 -0.260557 3.91768 7626318
0.88188201 -0.25571001 3.92379 2692627
0.88982701 -0.25971699 3.9241199 5850425
0.89422601 -0.25841501 3.91786 4074018
0.89578801 -0.25788501 3.92272 3087125
0.92936701 -0.260084 3.9648099 6112825
0.93540698 -0.260207 3.96455 6244668
0.93866903 -0.26244399 3.9588001 5520946
0.94466102 -0.26228201 3.95242 5915446
0.95680201 -0.26219001 3.9470699 6178874
0.95380402 -0.25727201 3.9505799 6442047
0.96282297 -0.26225999 3.9419701 6179131
0.92700899 -0.254042 3.96047 6375737
0.93314201 -0.254666 3.96734 6376253
0.941993 -0.25710601 3.9614 6376253
1.86408 -1.24432 4.6399798 7494991
1.86385 -1.24459 4.6402898 7626576
1.86122 -1.23711 4.6402898 8612700
1.86122 -1.23711 4.6402898 8612700
1.86122 -1.23711 4.6402898 8612700
1.86949 -1.21443 4.6310701 6179648
1.8680201 -1.2087801 4.6205101 6376769
1.85985 -1.2066 4.68082 9007456
1.86007 -1.20717 4.6845999 9007456
1.87073 -1.17764 4.6838899 7363405
1.8646801 -1.1467299 4.74892 6837574
1.86445 -1.13319 4.7573299 6903110
1.86297 -1.1119699 4.6795301 7494990
1.83365 -1.0801899 4.6154799 10322798
1.82516 -1.07137 4.6111898 10585713
1.87543 -1.09218 4.6898499 7495247
1.87394 -1.0852 4.6907601 7823954
1.83346 -1.06222 4.6319299 10191212
1.83102 -1.06433 4.6363001 10454127
1.87508 -1.07939 4.6953301 7823954
1.88438 -1.0829901 4.7073898 5588025
1.88333 -1.08338 4.7081499 5916989
1.88434 -1.08297 4.7073302 5588025
1.88085 -1.08167 4.7017999 6640197
1.83567 -1.05881 4.6399002 10257005
1.88474 -1.07567 4.7045398 5588025
1.88704 -1.0779999 4.7104402 5324854
1.83236 -1.05562 4.6538501 10519920
1.885 -1.0699 4.71206 5916733
1.87834 -1.05531 4.6847501 7626576
1.88463 -1.06251 4.7143402 6179904
1.87815 -1.04953 4.6878099 7758162
1.87819 -1.04957 4.6880002 7758162
1.88928 -1.05762 4.7189102 5061682
1.88161 -1.0470099 4.7146502 7429455
1.8874 -1.04953 4.7179298 5785147
1.87402 -1.03785 4.7126799 6903111
1.88861 -1.03741 4.7216001 5588024
1.8803101 -1.03198 4.72014 7824211
1.8782901 -1.03274 4.7210398 7955539
1.8853199 -1.03307 4.72089 6903369
1.86577 -1.01484 4.6823401 8744540
1.8412 -1.00801 4.6645098 10125421
1.8718801 -1.0193501 4.7113199 7494733
1.87898 -1.0202301 4.7210102 8021333
1.84112 -1.00319 4.67345 10257006
1.84333 -1.00325 4.6757698 10191213
1.85006 -1.0044399 4.6815901 9994091
1.85899 -1.00877 4.7003598 9731177
1.86791 -1.01143 4.7112002 8744797
1.86773 -1.01287 4.7121401 8744797
1.88225 -1.01476 4.7223401 7824212
1.89973 -1.01782 4.7297602 4667439
1.84238 -0.99563402 4.6723599 10257006
1.86459 -1.00451 4.7123199 9073761
1.8414299 -0.99194598 4.6891999 10257006
1.83821 -0.99206799 4.6921201 10322799
1.83821 -0.99206799 4.6921201 10322799
1.8366801 -0.98546797 4.6956401 10388591
1.84129 -0.986435 4.6971898 10322798
1.85598 -0.98791701 4.7062502 9994091
1.8531899 -0.98253202 4.7076602 10125420
1.84404 -0.97677302 4.6813402 10322798
1.88298 -0.98789603 4.7579699 6705991
1.88003 -0.97342098 4.7420402 7232076
1.85738 -0.954099 4.7069502 9730664
1.55205 -0.92907602 4.77707 11506298
1.55885 -0.93320698 4.8001599 11506298
1.5764101 -0.94647199 4.8474998 11440507
1.55292 -0.927154 4.8000798 11572087
1.55479 -0.92755502 4.8055201 11637623
1.57451 -0.939753 4.84448 11571833
1.58183 -0.93988597 4.8463998 11506042
1.58103 -0.938972 4.8408799 11506042
1.58183 -0.93988597 4.8463998 11506042
1.5925601 -0.93835002 4.8403001 11441019
1.85133 -0.93288898 4.6984301 10191213
1.54024 -0.91885102 4.77178 11702646
1.55293 -0.92153901 4.8054099 11898739
1.54642 -0.91875303 4.78615 11768180
1.5623699 -0.92532802 4.8290401 11832430
1.56423 -0.93080097 4.82728 11702131
1.84735 -0.92784297 4.7056499 10322799
1.5415601 -0.91229099 4.7843199 11897706
1.55917 -0.91980398 4.8313498 11961958
1.54335 -0.88932598 4.8155899 11765872
1.8415999 -0.92526102 4.90696 10783092
1.52486 -0.87304598 4.7933602 12422771
1.5373501 -0.87589097 4.80796 9595477
1.54511 -0.87455201 4.8138399 6050887
1.53166 -0.863464 4.8050199 8397609
1.55284 -0.87328899 4.82024 5332562
1.5183001 -0.85956901 4.8064098 8913694
1.5559601 -0.866835 4.82479 5398868
1.86772 -0.90619302 4.90203 9665126
1.48498 -0.84347701 4.7878299 11959136
1.5537601 -0.85745901 4.82478 6118224
1.56273 -0.85905802 4.8299499 5333074
1.4807301 -0.83758301 4.7947602 12288610
1.48956 -0.84225702 4.78899 10835530
1.49667 -0.83983099 4.7844501 8914717
1.54827 -0.84522802 4.8105202 3349783
1.5661 -0.85256302 4.8260298 5464658
1.56988 -0.856466 4.8383002 5858132
1.48184 -0.83061802 4.7961302 12288866
1.48568 -0.83618599 4.7948399 11959391
1.4924901 -0.83395898 4.7895498 9580337
1.48513 -0.82494199 4.7971001 12354147
1.49189 -0.824857 4.7969298 9845046
1.54303 -0.83088601 4.79671 6961463
1.55375 -0.83700001 4.8125401 6640453
1.56024 -0.83888 4.8179498 6643532
1.5668 -0.84017998 4.8206501 9600360
1.5747 -0.83968002 4.82374 12093298
1.72963 -0.85415298 4.8411598 9533280
1.4754 -0.81946403 4.7959599 12026982
1.48221 -0.81842202 4.7922502 12223331
1.48858 -0.81928498 4.7976499 11957084
1.49851 -0.82463998 4.79531 9110559
1.49498 -0.81990701 4.8007698 8983842
1.5024199 -0.81938303 4.7989202 9110560
1.54871 -0.83174902 4.8158898 8738127
1.55221 -0.82527798 4.8122301 9328205
1.55514 -0.83187997 4.81815 7690057
1.5623 -0.83173698 4.8203602 11368814
1.56917 -0.83204198 4.8171601 10113611
1.57491 -0.83389401 4.8301802 7409942
1.73243 -0.84706998 4.8413601 9533281
1.8324 -0.86897802 4.9352198 10585184
1.4784 -0.81359798 4.7979498 12158310
1.48522 -0.81254297 4.7941198 12354660
1.49885 -0.81327498 4.7978802 9638953
1.50929 -0.81792402 4.8196502 10230323
1.53694 -0.81920499 4.8035798 8914463
1.5498199 -0.81866997 4.8110199 10766155
1.55967 -0.825495 4.8168201 7347743
1.55607 -0.81923002 4.8144898 8203566
1.57178 -0.82654798 4.8198199 8724521
1.5822001 -0.82711101 4.8204398 13468544
1.8033 -0.851318 4.8842201 10717557
1.82928 -0.86242199 4.9426599 10585971
1.47237 -0.80427003 4.8059602 10713438
1.48197 -0.80666298 4.79353 12354916
1.48832 -0.807275 4.7974701 12222050
1.55287 -0.81357199 4.8143401 10767951
1.55971 -0.81354898 4.8150501 7541790
1.5631599 -0.81948799 4.8157902 9841717
1.57215 -0.81444299 4.8168898 11762542
1.5755 -0.820445 4.8181701 7148825
1.5823801 -0.82026201 4.8175001 11954790
1.58911 -0.820252 4.8180799 9590089
1.59685 -0.81896102 4.8242102 11035742
1.74997 -0.84361303 4.9009199 9796711
1.76977 -0.84174001 4.8835602 10257261
1.8136899 -0.85030103 4.9175901 10520178
1.8363 -0.86100101 4.93501 10454641
1.46981 -0.79741102 4.8050699 9070158
1.48171 -0.80013102 4.8004198 12355173
1.47662 -0.79703301 4.79953 11961702
1.4983 -0.80197501 4.8113599 10833990
1.55646 -0.80736101 4.8124199 11035223
1.56304 -0.80747801 4.8140001 7868700
1.56897 -0.80839598 4.81457 11886688
1.5754 -0.808779 4.8181801 11038563
1.58472 -0.81313401 4.8178101 12087915
1.59096 -0.81369901 4.8233299 8998215
1.6016099 -0.81097198 4.82201 8795959
1.6060899 -0.81341398 4.8231101 7416616
1.61244 -0.81398499 4.82758 8336176
1.7697999 -0.83643299 4.8923001 9994090
1.77911 -0.84156603 4.8866901 10388592
1.8219 -0.84957099 4.9252 10454385
1.4536099 -0.78955001 4.80515 8020303
1.47895 -0.79462898 4.8042498 12224102
1.48502 -0.79467201 4.8070002 12420708
1.49356 -0.79422599 4.80865 12420709
1.52098 -0.79745102 4.8066001 12682601
1.54003 -0.801431 4.8020201 12743782
1.5432 -0.796911 4.8090301 12420709
1.55299 -0.802311 4.81566 12551273
1.56618 -0.80193502 4.8161001 7605529
1.5726 -0.801745 4.8165598 9252147
1.58096 -0.80778801 4.8192 11233378
1.58381 -0.80236799 4.8217602 8601658
1.58804 -0.80756098 4.8197398 9920084
1.59831 -0.805538 4.82301 9913415
1.6048501 -0.80514199 4.8222198 11957360
1.6113 -0.80513501 4.8234301 8473920
1.76983 -0.83111101 4.9010801 9665382
