# .PCD v0.7 - Point Cloud Data file format
VERSION 0.7
FIELDS x y z rgb
SIZE 4 4 4 4
TYPE F F F U
COUNT 1 1 1 1
WIDTH 1202
HEIGHT 1
VIEWPOINT 0 0 0 1 0 0 0
POINTS 1202
DATA ascii
-1.29925 -0.115933 3.5476201 8351001
-1.29575 -0.111801 3.5523801 8022040
-1.29079 -0.116365 3.5592101 7890196
-1.18538 -0.129189 3.8501699 2232843
-1.17354 -0.133846 3.8457899 4140320
-1.1668299 -0.133701 3.84231 4403494
-1.1634001 -0.127588 3.84095 1444102
-1.14248 -0.129774 3.8362801 2364945
-1.13617 -0.12986401 3.8382499 3022873
-1.1301 -0.129958 3.8420801 2891287
-1.12283 -0.13031501 3.8421299 2232844
-1.11593 -0.13015001 3.8406 2035464
-1.10849 -0.13041499 3.8423901 2429709
-1.09428 -0.12988099 3.8391199 3941147
-1.08841 -0.12998299 3.84378 3611156
-1.08084 -0.132386 3.8540499 5317400
-0.829997 -0.134983 3.8900101 3218966
-0.81868201 -0.12876 3.8743701 4535338
-0.79499698 -0.136553 3.9312501 4864818
-0.74430799 -0.132677 3.87675 4798767
-0.73581702 -0.132615 3.87554 4535851
-0.728212 -0.129945 3.8789899 5456952
-0.71227401 -0.129326 3.8568101 4930351
-0.712659 -0.129549 3.8570499 4930351
-0.68916702 -0.128076 3.8889999 5720383
-0.68326998 -0.12811799 3.8920901 5588798
-0.676 -0.13176499 3.89522 5127990
-0.66141897 -0.131483 3.8981099 5061939
-0.65520102 -0.131514 3.9007101 5785661
-0.64536899 -0.131383 3.89783 5588538
-0.644108 -0.128151 3.88503 6049089
-0.63304299 -0.129512 3.9042399 6246469
0.75642502 -0.124338 3.8707199 10059117
1.17855 -0.117807 3.89729 4600342
1.17299 -0.123457 3.8932199 7690540
1.18277 -0.120379 3.8803699 8281908
-1.35703 -0.10749 3.52479 12099368
-1.34179 -0.107055 3.5267301 10455842
-1.33535 -0.106986 3.52391 9929502
-1.32917 -0.107251 3.5315599 9403419
-1.31528 -0.107806 3.5339501 8548373
-1.30679 -0.107681 3.54106 8087828
-1.28961 -0.109472 3.5662899 7627287
-1.17345 -0.122409 3.8519599 1444617
-1.16614 -0.121896 3.84196 1576459
-1.14617 -0.123768 3.8373699 1378823
-1.13955 -0.123803 3.8389399 1181701
-1.13297 -0.123906 3.8418901 1181700
-1.124 -0.123894 3.8343599 1247237
-1.11283 -0.123791 3.84075 1444616
-1.10583 -0.123794 3.8399501 1575430
-1.09861 -0.12377 3.8384399 2034953
-1.0921201 -0.124165 3.84409 2230791
-1.08363 -0.127073 3.8501501 2557444
-1.07815 -0.125433 3.8642399 3475207
-0.86489302 -0.123232 3.8615501 3345679
-0.84853703 -0.120725 3.84867 3280396
-0.84300297 -0.120777 3.85025 4530715
-0.83719999 -0.12082 3.85132 5189154
-0.817177 -0.121506 3.86114 4008223
-0.80956298 -0.11955 3.8542299 3088149
-0.802809 -0.119545 3.85497 3878179
-0.79302299 -0.122735 3.8622301 2759699
-0.77516001 -0.123339 3.86656 3088664
-0.76433998 -0.12592 3.8723199 4535852
-0.740659 -0.12679601 3.87872 4733486
-0.71888602 -0.123399 3.8703201 5719868
-0.71109498 -0.123384 3.86637 5917248
-0.67356902 -0.124737 3.89467 5917763
-0.66656399 -0.124735 3.8941801 5588798
-0.65753698 -0.125488 3.89764 5786176
-0.64353001 -0.121499 3.88976 5391674
-0.63500398 -0.122282 3.9028499 3812387
-0.62944502 -0.12434 3.9080901 4667695
0.70553499 -0.122166 3.9367099 13350046
0.70159698 -0.11721 3.93451 13415583
0.71125901 -0.118455 3.92998 12888981
0.71774501 -0.118459 3.92696 10257003
0.75619 -0.117315 3.8686199 9532772
0.77537298 -0.114187 3.8622401 9598823
1.1691999 -0.114554 3.89323 2563604
1.18036 -0.111749 3.89025 2760468
-1.36031 -0.102748 3.5220201 12625709
-1.3625 -0.097783297 3.51264 12691499
-1.3541501 -0.100477 3.5190401 12033833
-1.3479199 -0.10369 3.52037 11112996
-1.34349 -0.101166 3.5171101 10718498
-1.33678 -0.101074 3.51791 10126880
-1.33132 -0.101447 3.5276599 9600797
-1.32504 -0.101426 3.53052 9337884
-1.3155299 -0.100744 3.5351 8614423
-1.3199 -0.104136 3.53039 8877336
-1.31115 -0.104253 3.53865 8285460
-1.3069201 -0.100645 3.54217 8285465
-1.29975 -0.101614 3.54633 7825175
-1.29512 -0.100084 3.54935 7562007
-1.2879601 -0.102211 3.56634 7232532
-1.17817 -0.115192 3.8307099 2102030
-1.1680501 -0.115318 3.8487999 1773581
-1.15844 -0.115422 3.85741 1642251
-1.1587 -0.115402 3.85393 1707788
-1.14341 -0.11616 3.8397701 1642250
-1.1239001 -0.117722 3.83356 2102801
-1.11781 -0.117461 3.8369701 2102802
-1.10692 -0.113913 3.82461 2299666
-1.02242 -0.114767 3.8519399 6623766
-0.95499098 -0.118147 3.83217 5769489
-0.948246 -0.118073 3.8308599 5835026
-0.93694001 -0.112745 3.83003 5244944
-0.92966503 -0.112734 3.82867 5179664
-0.92271101 -0.112734 3.82797 4786190
-0.91275901 -0.112624 3.82635 4392974
-0.903341 -0.112541 3.8215499 4130828
-0.895854 -0.113326 3.8396499 3737869
-0.88580197 -0.113216 3.83445 3541774
-0.878613 -0.11405 3.8543899 3280399
-0.86856598 -0.117695 3.86657 3214093
-0.853221 -0.116003 3.8503699 3083790
-0.84399903 -0.112438 3.84604 5716790
-0.83542597 -0.112404 3.84337 6112057
-0.82989299 -0.113075 3.8457501 5914935
-0.827483 -0.119028 3.8475299 4203802
-0.82319701 -0.113128 3.8497601 5785148
-0.82063901 -0.119069 3.85057 4073502
-0.81823802 -0.112864 3.84798 5851198
-0.80606699 -0.113703 3.85374 5194040
-0.79634702 -0.11571 3.8585601 5325369
-0.78968102 -0.115722 3.8598101 5456956
-0.78437698 -0.11956 3.8598499 4404524
-0.78327298 -0.115749 3.8620701 5457212
-0.77933902 -0.116419 3.8652899 5523006
-0.77144301 -0.114033 3.8640699 4931126
-0.76776803 -0.119971 3.86795 4799539
-0.75689799 -0.118984 3.86992 5917764
-0.74881101 -0.115725 3.8673501 5325884
-0.74315 -0.119532 3.87695 5917762
-0.73585099 -0.119506 3.8778501 5786176
-0.71107298 -0.116489 3.87079 4141095
-0.70303601 -0.118685 3.86408 5194040
-0.67817301 -0.117728 3.89291 3220765
-0.67143399 -0.117722 3.8947301 3089180
-0.66202903 -0.118868 3.8912499 4273196
-0.65388602 -0.119507 3.8976901 6510157
-0.64121097 -0.115833 3.8952899 3680802
-0.63190502 -0.117047 3.90766 3286044
0.70657802 -0.113645 3.9356 13415326
0.71104199 -0.10841 3.92872 12888724
0.788589 -0.106103 3.8494799 9467236
0.78853601 -0.109376 3.8494799 9599080
1.17471 -0.108906 3.89762 2433827
1.18104 -0.105206 3.88271 2499364
-1.3652 -0.092945002 3.51019 12230693
-1.35085 -0.093121499 3.50896 11309861
-1.34633 -0.0967464 3.5171199 10652448
-1.32714 -0.095601901 3.52613 9798691
-1.31789 -0.092338301 3.52879 9074972
-1.31529 -0.0937896 3.53512 8746266
-1.31232 -0.096165001 3.5390999 8548633
-1.30755 -0.092229903 3.5364201 8219673
-1.3018 -0.097020797 3.53862 7890967
-1.29581 -0.094369002 3.54037 7561749
-1.29089 -0.097593203 3.56074 7298838
-1.20158 -0.107426 3.8332 4930096
-1.1697 -0.109028 3.83531 2496787
-1.1750799 -0.10651 3.8140399 3943718
-1.16538 -0.109083 3.84182 2628632
-1.16075 -0.109411 3.8432 2628632
-1.1555099 -0.109211 3.8517699 3089182
-1.15887 -0.109085 3.8445799 3023133
-1.14736 -0.109206 3.85113 3418146
-1.13808 -0.11027 3.84777 3154975
-1.11604 -0.110448 3.8266201 3154974
-1.1060801 -0.107434 3.8192699 4799027
-1.09636 -0.109962 3.8194001 3941915
-1.0416501 -0.110309 3.8194201 6755097
-1.04291 -0.110147 3.81218 6755097
-1.02209 -0.11084 3.82443 6624023
-1.0130399 -0.107662 3.80428 6295575
-0.99812299 -0.110504 3.82388 6032661
-0.95616001 -0.107536 3.8164401 4261386
-0.942038 -0.109795 3.8273399 4326409
-0.92819703 -0.106569 3.8194399 4464414
-0.919855 -0.106896 3.82762 4992041
-0.90706098 -0.106798 3.8236001 5322292
-0.90979999 -0.106805 3.8218701 5256242
-0.89943302 -0.106964 3.8260801 5520184
-0.89275998 -0.107076 3.8295 5849664
-0.88559198 -0.107601 3.8419499 5981249
-0.878012 -0.107584 3.8417301 5849920
-0.86868697 -0.110484 3.8540299 5585721
-0.85791099 -0.106542 3.8480201 5390395
-0.85962099 -0.112424 3.84725 4728873
-0.84731102 -0.106447 3.84165 4995893
-0.83865899 -0.106397 3.83918 4601134
-0.83075798 -0.106389 3.8380499 4206375
-0.82565397 -0.106705 3.8376 4140838
-0.81900501 -0.107344 3.84355 3878180
-0.80973101 -0.107841 3.8518801 3549216
-0.80326802 -0.107803 3.8518701 4667697
-0.79184902 -0.109822 3.8556199 4470317
-0.77864498 -0.109675 3.85991 3286301
-0.77171803 -0.108467 3.8559899 3154715
-0.77175403 -0.109665 3.86133 3220508
-0.75819099 -0.112032 3.8600399 3878438
-0.76107299 -0.110393 3.8552401 3352351
-0.751845 -0.108741 3.8634801 3089180
-0.73857403 -0.112646 3.87514 3418143
-0.73218399 -0.112667 3.87449 5391675
-0.71749699 -0.107202 3.8764901 4799283
-0.70339698 -0.111635 3.8733499 3088923
-0.67405099 -0.10719 3.8912699 2891802
-0.664976 -0.111672 3.88938 3023387
-0.65013802 -0.113095 3.89382 6246985
-0.64403403 -0.110084 3.8959301 4733747
-0.63443398 -0.109758 3.9073801 3023130
0.70510799 -0.105096 3.9344599 13415327
0.70510799 -0.105096 3.9344599 13415327
0.70510799 -0.105096 3.9344599 13415327
0.79389 -0.102735 3.84517 9335907
0.80381203 -0.100341 3.842 9401700
0.82008302 -0.098472401 3.8237 9730924
0.84025198 -0.096222103 3.82131 10388339
0.84678602 -0.095352903 3.8227 10388595
1.09788 -0.096795402 3.8794701 2168857
1.09466 -0.102431 3.8835399 3023392
1.17614 -0.103775 3.9002299 2236709
-1.3590699 -0.090469502 3.5058 11901734
-1.35323 -0.088159397 3.50407 11112739
-1.3474 -0.085861899 3.5023501 10586657
-1.3242 -0.088165902 3.5169599 9272349
-1.31938 -0.086679198 3.52372 8746008
-1.31189 -0.088826001 3.5329001 8351256
-1.31408 -0.0867282 3.5281301 8548632
-1.29994 -0.091451898 3.5422001 7693591
-1.29535 -0.088380203 3.54581 7299093
-1.2888401 -0.090085097 3.55476 7035670
-1.20652 -0.103527 3.84973 7166800
-1.19505 -0.104389 3.8389599 5916991
-1.1985101 -0.101075 3.8453701 6706506
-1.1888 -0.100787 3.8409901 6048834
-1.17733 -0.103007 3.8426399 5325627
-1.17021 -0.103051 3.84252 5325627
-1.1708699 -0.102977 3.84392 5325371
-1.16366 -0.103046 3.8454299 5259835
-1.15853 -0.102972 3.84705 5193785
-1.1518199 -0.103012 3.84881 4996662
-1.14335 -0.103 3.8476501 4470575
-1.0735 -0.099332601 3.7820899 6306083
-1.0615799 -0.099575102 3.7897201 4328970
-1.05513 -0.099609002 3.79322 4196362
-1.0470901 -0.103813 3.8004999 5902358
-1.04058 -0.103826 3.79725 5902101
-1.04187 -0.097628303 3.78913 4396824
-1.03657 -0.097762004 3.79616 4726301
-1.0345 -0.103881 3.8015001 5573906
-1.02824 -0.103894 3.8001699 5376784
-1.01925 -0.0981258 3.8092699 5452336
-1.01723 -0.100806 3.8015599 4066575
-0.99523699 -0.104609 3.82146 4064778
-0.99568599 -0.097845197 3.7946701 5849405
-0.99849302 -0.103488 3.7925899 4261386
-0.98878402 -0.097801603 3.7941999 5915712
-0.98123801 -0.097947702 3.7994699 6047811
-0.94875801 -0.102432 3.8141401 5322033
-0.93826199 -0.099994101 3.80461 5587003
-0.93209898 -0.099945597 3.8066599 5521724
-0.92508698 -0.102809 3.81336 6113091
-0.91638201 -0.101033 3.8256299 4798772
-0.90940398 -0.101047 3.8258901 4272685
-0.90349799 -0.100873 3.82428 4009514
-0.896097 -0.101161 3.82535 3943721
-0.863931 -0.100466 3.8378201 4141097
-0.85733801 -0.100477 3.8373001 3351582
-0.84698701 -0.100337 3.8322899 3220253
-0.83081597 -0.099877402 3.83371 3088666
-0.82090598 -0.100453 3.8316 3023130
-0.78844601 -0.103899 3.8563199 3615522
-0.782552 -0.103948 3.8575301 2891799
-0.77171803 -0.101462 3.85535 2891801
-0.76887602 -0.103519 3.8482699 2957594
-0.755162 -0.102759 3.8617699 2892059
-0.74160302 -0.105002 3.8768899 2826266
-0.734721 -0.10641 3.8738301 3352351
-0.72048002 -0.1013 3.87538 4799540
-0.715738 -0.101365 3.8778801 3812645
-0.70900398 -0.101367 3.87814 2891543
-0.70089197 -0.101332 3.8760099 2825751
-0.68634999 -0.099922001 3.85096 2825753
-0.68230897 -0.101132 3.8797801 2825752
-0.67217302 -0.101234 3.89539 2957595
-0.661511 -0.106782 3.89394 3417888
-0.65850902 -0.101087 3.8986199 3154717
-0.64102602 -0.104402 3.8998401 2957336
-0.63554502 -0.104426 3.90448 3088666
-0.63501799 -0.105214 3.90611 2957336
-0.62444001 -0.104298 3.9247501 4470062
0.69796097 -0.096312404 3.9149499 13283483
0.70633101 -0.098332196 3.9156301 13217691
0.71436101 -0.094246902 3.9119799 12427918
0.72258598 -0.096726201 3.91259 12164489
0.72922599 -0.096834801 3.9186001 11506559
0.78531998 -0.096846797 3.8669 9072990
0.791529 -0.096809998 3.86163 9401699
0.80453801 -0.092704304 3.85286 9467493
0.81099099 -0.089876398 3.84518 9401701
0.826401 -0.0920702 3.82337 9401700
0.84469497 -0.089211904 3.82094 9664873
0.84990698 -0.092542402 3.8146701 10388595
1.08988 -0.093913101 3.87622 6640202
1.09649 -0.090947904 3.8798299 3417892
-1.34217 -0.078800701 3.5097401 9929249
-1.32052 -0.081332102 3.5165801 8614424
-1.31548 -0.079827599 3.5227799 8350998
-1.31217 -0.081838101 3.5330999 8022293
-1.3076 -0.085098803 3.5355301 7890710
-1.2947201 -0.080833599 3.5476201 7167254
-1.29878 -0.084198102 3.54175 7693337
-1.29193 -0.0855866 3.55089 6969876
-1.13864 -0.090179503 3.76737 4864819
-1.13246 -0.090132102 3.7690599 4667696
-1.0915999 -0.093432702 3.77788 5127732
-1.06975 -0.0935627 3.77981 6045743
-1.05602 -0.093690097 3.78444 6045239
-1.04906 -0.0936592 3.7846701 6308670
-1.02909 -0.094529197 3.8038001 6441540
-1.02544 -0.092798904 3.79478 6310725
-1.01685 -0.093417801 3.7965 5784896
-0.98325902 -0.092411801 3.80652 3878699
-0.97063899 -0.096478999 3.80723 5193274
-0.95746702 -0.096487097 3.8083501 6113859
-0.96402001 -0.0964671 3.8076401 4798259
-0.95083201 -0.096499003 3.80867 9732472
-0.93437099 -0.094049297 3.80599 3877412
-0.92883903 -0.093849704 3.8057001 3483169
-0.90644097 -0.095169097 3.8278401 2891804
-0.89967197 -0.095188901 3.8301001 2760218
-0.89149702 -0.094994999 3.8280399 2891805
-0.861287 -0.094414599 3.84008 3549474
-0.837955 -0.0947055 3.8231399 2957596
-0.791116 -0.097841702 3.8594799 4273196
-0.78350902 -0.097644001 3.8575101 2694165
-0.774104 -0.095636703 3.86007 2694423
-0.76810098 -0.095474102 3.85554 2694680
-0.76100898 -0.0958151 3.8656499 2694423
-0.754511 -0.095821902 3.8680799 2694423
-0.74787599 -0.095823802 3.86991 2760216
-0.73611897 -0.099165499 3.8730199 3088923
-0.73175901 -0.099230699 3.87801 3878439
-0.71882498 -0.095109999 3.8782401 3549730
-0.71246898 -0.095125102 3.87744 4010024
-0.70371097 -0.095593996 3.8761799 4141610
-0.68506402 -0.0975191 3.8689301 3812390
-0.68902999 -0.097424403 3.8621099 3549218
-0.673908 -0.094889604 3.8849699 4864820
-0.67313302 -0.095089599 3.8880501 5325371
-0.66675198 -0.095091097 3.8919599 4470063
-0.66087002 -0.0951057 3.89553 4206891
-0.65040398 -0.094993897 3.88937 4404012
-0.64487702 -0.095029503 3.8896799 4601390
-0.64123702 -0.095114201 3.8963101 4799024
-0.63836998 -0.098419197 3.9023299 5391420
-0.63331699 -0.098452598 3.9079101 5522748
-0.62440699 -0.096967898 3.9221799 5654076
-0.61864501 -0.099842399 3.92554 4930354
-0.61927497 -0.101469 3.92961 4469805
-0.61526197 -0.097907797 3.9351399 7101265
0.70634103 -0.091735803 3.90907 12428175
0.71558499 -0.087506697 3.8940301 10519921
0.72225702 -0.0901803 3.90977 10519664
0.73113799 -0.091531903 3.9130299 9795941
0.73778999 -0.092037097 3.8991399 9993319
0.75085801 -0.0910616 3.9055099 9927526
0.78534299 -0.090634897 3.87549 8217682
0.793455 -0.0889792 3.8604 8480598
0.800008 -0.0886411 3.8580599 8349268
0.80800599 -0.086704701 3.8542099 8612184
0.81352401 -0.083835199 3.84726 8217684
0.81984299 -0.08405 3.83792 9072992
0.827084 -0.085443601 3.83199 9336164
0.83297402 -0.085768297 3.82832 9335908
0.84949797 -0.086083896 3.81545 9467495
0.85549402 -0.081921101 3.79616 9467495
0.86147499 -0.080525897 3.7918301 9467496
0.95576298 -0.083472602 3.7374799 12888980
1.08987 -0.087532699 3.88149 10981507
-1.31897 -0.074055403 3.5153301 8614171
-1.31595 -0.0782592 3.52108 8417048
-1.31205 -0.0745591 3.5339301 7824919
-1.30817 -0.078511603 3.5384099 7430161
-1.30286 -0.073501199 3.54059 7299096
-1.29853 -0.076989397 3.54441 7167255
-1.2902 -0.078761898 3.5583401 6838551
-1.23112 -0.085675001 3.74734 7101006
-1.17089 -0.083257899 3.75734 5720127
-1.16308 -0.083253302 3.7592499 5720128
-1.15711 -0.082854703 3.7622199 5654336
-1.14759 -0.087241203 3.7584901 5259576
-1.13261 -0.083277903 3.7615499 5194042
-1.12784 -0.089520499 3.7686801 5194041
-1.12441 -0.083574697 3.76827 4930869
-1.1127 -0.083401002 3.76864 5062455
-1.09429 -0.087448597 3.77496 5523005
-1.08813 -0.087471098 3.77826 5588797
-1.07969 -0.087748997 3.78282 5654077
-1.07313 -0.087515302 3.7788401 5456955
-1.0461 -0.087980703 3.7859199 5325370
-1.04048 -0.088073097 3.79002 8614762
-1.0333 -0.088044003 3.78971 9864571
-1.0217299 -0.0868636 3.7916901 4338219
-1.01368 -0.085225902 3.7971201 3417632
-0.98793602 -0.085491098 3.7960401 2957596
-0.974877 -0.089295097 3.8082199 3417891
-0.96836197 -0.086434901 3.80885 3943719
-0.960711 -0.090669103 3.8073399 7035474
-0.95478499 -0.0907555 3.8105299 10324862
-0.95435703 -0.087907702 3.80667 10456447
-0.946908 -0.090610102 3.8069501 10587776
-0.93610501 -0.088059902 3.80354 7561815
-0.92998898 -0.087991796 3.8059101 3548959
-0.92001802 -0.089802697 3.8152499 2430995
-0.90592998 -0.088909298 3.8113101 2233617
-0.89409 -0.089161798 3.8238599 2102032
-0.88796997 -0.089229502 3.8271 3549733
-0.86382699 -0.0886494 3.8396399 4075818
-0.84824198 -0.086669803 3.8313 2694423
-0.84224099 -0.086468801 3.8273799 2694424
-0.83630103 -0.084987201 3.8324399 3154461
-0.81928003 -0.088468596 3.8556399 2759960
-0.82565898 -0.088474497 3.8528399 2694167
-0.79145998 -0.090883598 3.85887 2825751
-0.783198 -0.087353699 3.85746 4470576
-0.75543201 -0.091086499 3.8672099 4010025
-0.74090999 -0.092196897 3.87257 4075817
-0.73485303 -0.0888272 3.87691 4075561
-0.72804898 -0.088824198 3.8768401 3943975
-0.717852 -0.088744603 3.86976 4141354
-0.73497403 -0.086626902 3.7867899 5062199
-0.679501 -0.091024503 3.87201 4403755
-0.67037898 -0.0873475 3.8784299 6574920
-0.64305902 -0.089297503 3.8938799 8021593
-0.63166702 -0.091685697 3.9098201 6969164
-0.62020701 -0.092563398 3.92647 8087643
-0.61138397 -0.092735603 3.94122 9205093
0.69823998 -0.085410699 3.9088199 13217436
0.70788997 -0.084243298 3.89905 11572354
0.72259498 -0.084263802 3.8915601 10453872
0.73140699 -0.084484503 3.8961899 10388078
0.74072498 -0.083271503 3.88098 9664869
0.79777998 -0.082444802 3.8589799 7559496
0.79296303 -0.083453096 3.8594601 7756875
0.81847203 -0.077619702 3.8421099 7296839
0.82510102 -0.077610597 3.8372099 7494474
0.83648998 -0.0793956 3.8301101 9204836
0.842107 -0.081618302 3.8225999 9270373
0.84763902 -0.078508601 3.8217101 9139045
0.86731303 -0.079154 3.7902801 9467752
0.97198802 -0.073390901 3.73333 13085593
0.97728199 -0.073268197 3.72859 11572613
-1.34016 -0.071534798 3.5051899 9139996
-1.33498 -0.069165103 3.50804 8679707
-1.32512 -0.067375399 3.5074 8416794
-1.31805 -0.066951104 3.5176101 7824661
-1.31797 -0.066928901 3.51704 7824917
-1.3151 -0.071482301 3.5225501 7956502
-1.3073699 -0.070004798 3.53497 7233045
-1.24325 -0.079092599 3.7356701 7561815
-1.23812 -0.0763795 3.73827 6443849
-1.23548 -0.081176899 3.7446201 7364437
-1.23342 -0.081107698 3.74771 7561559
-1.23 -0.0791471 3.74997 7035473
-1.2253 -0.0769151 3.7496099 6443594
-1.2118599 -0.077612698 3.7346599 6378057
-1.2057101 -0.0808134 3.7502699 6969936
-1.1672601 -0.077114999 3.7565801 3549216
-1.16198 -0.076870702 3.7548299 3220508
-1.15438 -0.077164002 3.76278 3088923
-1.13705 -0.078059599 3.7562201 3088924
-1.1294399 -0.077452503 3.76226 2957338
-1.12214 -0.077501997 3.76368 2891545
-1.11603 -0.077485099 3.7665901 3615524
-1.11025 -0.0773338 3.7655499 5062713
-1.0959899 -0.081582598 3.7758601 3549216
-1.08419 -0.081536099 3.7786601 3286045
-1.07695 -0.081527598 3.7771599 3286302
-1.07116 -0.081362799 3.7760999 3352095
-1.0628099 -0.081835203 3.78897 3352096
-1.05716 -0.081481501 3.7818999 3417632
-1.05051 -0.081425503 3.78146 3483424
-1.04444 -0.082084998 3.78455 4141097
-1.03707 -0.082356401 3.7895 8746604
-1.02852 -0.077757403 3.79023 5325371
-1.02169 -0.077795103 3.79176 2956567
-1.01025 -0.0792794 3.7937801 3154460
-1.0069799 -0.080240801 3.8006599 2628117
-0.99748498 -0.083070301 3.8036101 2562838
-0.988006 -0.0788645 3.7923999 2825496
-0.98223501 -0.082097203 3.8009701 2497044
-0.975012 -0.082202397 3.80319 2430995
-0.968005 -0.079025201 3.79967 5062455
-0.96031499 -0.083501101 3.8015599 9601400
-0.95195198 -0.080347702 3.7983501 9666931
-0.94027501 -0.083535999 3.80516 10259068
-0.93760401 -0.079119399 3.80199 8285791
-0.92872 -0.081529103 3.80319 5523004
-0.91984802 -0.083104402 3.8074701 3023130
-0.913966 -0.082937799 3.80375 3417888
-0.90908802 -0.080802098 3.8046899 5983557
-0.90246701 -0.082974598 3.8088701 4536113
-0.890773 -0.0833022 3.8237 6246730
-0.89609897 -0.078303397 3.80757 7167573
-0.88653302 -0.0801569 3.8211 6904401
-0.85095102 -0.078097798 3.83497 4140841
-0.82904398 -0.078651302 3.8396699 3812133
-0.816212 -0.078948103 3.8550401 4075305
-0.81380099 -0.084813803 3.85796 4076077
-0.80288899 -0.079814501 3.8450699 3877924
-0.79503602 -0.085096397 3.8583801 4207147
-0.78652799 -0.081586704 3.8568799 4535852
-0.77554202 -0.079207502 3.82303 5588538
-0.757653 -0.085216001 3.86535 4404525
-0.74582797 -0.085234903 3.87235 4338732
-0.738886 -0.083071202 3.87854 5259575
-0.73771298 -0.079303503 3.87918 7035469
-0.731296 -0.083053596 3.8768699 5719870
-0.73893201 -0.080664299 3.7824199 5259320
-0.73844099 -0.080751002 3.7846999 5259320
-0.73370397 -0.080204599 3.78373 5851199
-0.716299 -0.076224402 3.7997501 8416090
-0.69573402 -0.080072999 3.79392 7956313
-0.67768103 -0.078994103 3.7945199 7824469
-0.63034898 -0.083326802 3.91098 9073762
0.69909698 -0.078311898 3.89677 13546401
0.71473902 -0.0741653 3.87692 13349278
0.72323501 -0.073639803 3.8789899 13283484
0.73068798 -0.077628501 3.88255 11572867
0.73709702 -0.077626802 3.8793099 10849144
0.743967 -0.077625602 3.8784299 10191213
0.74106097 -0.0714733 3.87464 13020313
0.74779099 -0.0714764 3.8743501 12559763
0.78783399 -0.076770298 3.86936 7230788
0.84297699 -0.074165598 3.82288 8152408
0.91014302 -0.067887798 3.75792 10059632
0.95452499 -0.064524397 3.7232599 10256496
0.95156699 -0.069859698 3.7214601 12164749
0.94810599 -0.064522803 3.7223101 10125167
0.96170002 -0.064638801 3.73229 10322545
0.96839201 -0.068029203 3.73314 11441025
0.97452003 -0.067917898 3.7365401 9927790
-1.3373801 -0.064328 3.4976201 8482329
-1.32771 -0.0622481 3.50371 8285212
-1.3202699 -0.062426601 3.5106699 7890712
-1.31613 -0.059774399 3.51701 7430164
-1.31335 -0.064783797 3.5264201 7364371
-1.31354 -0.064334899 3.52314 7429907
-1.31343 -0.064335898 3.5225401 7429907
-1.30302 -0.066475801 3.5401399 6772756
-1.24349 -0.073429801 3.7330799 6377542
-1.23927 -0.069210701 3.73721 3877924
-1.23164 -0.074083798 3.7502699 5193784
-1.23404 -0.072112098 3.7413199 4535854
-1.22711 -0.071758501 3.74891 4009511
-1.22657 -0.071971796 3.7530999 3943974
-1.21864 -0.074113801 3.7535701 4535854
-1.20504 -0.073824801 3.7439699 4075559
-1.1693 -0.071127802 3.75565 3351838
-1.16495 -0.071074702 3.7597301 2891288
-1.1576101 -0.071636498 3.76559 2891545
-1.14372 -0.071478203 3.7631299 2760216
-1.1294 -0.071701601 3.7716701 2694680
-1.11869 -0.071742199 3.76846 2563094
-1.0996701 -0.0745892 3.7725699 4865590
-1.09342 -0.074608698 3.7743599 3089180
-1.08527 -0.075455897 3.7746201 3088924
-1.0721101 -0.070228398 3.7801299 3023389
-1.06894 -0.074285403 3.7785699 3220510
-1.06077 -0.075867802 3.7848499 3286561
-1.04747 -0.075869702 3.7874501 3549475
-1.0249 -0.071977101 3.7927999 4009511
-1.01771 -0.071981803 3.7929499 7167317
-1.0067101 -0.073361501 3.7918401 6509900
-0.99748498 -0.076246902 3.7950001 4272941
-0.97956598 -0.075320899 3.79178 6444365
-0.96839398 -0.071800902 3.7923999 8220516
-0.96109498 -0.076192297 3.7924399 7101778
-0.95341998 -0.073373497 3.79547 7759190
-0.94510102 -0.069839403 3.7895801 8022364
-0.94002998 -0.069850199 3.79461 7956572
-0.931027 -0.075542197 3.79934 7233363
-0.920955 -0.071511701 3.8050201 7759452
-0.91239101 -0.071399197 3.8080599 7233108
-0.88285798 -0.072679698 3.8168099 6114114
-0.87700498 -0.073015399 3.8238599 4995890
-0.87135798 -0.073027402 3.8273799 4469034
-0.86114103 -0.075249001 3.83392 3614239
-0.84623098 -0.072113499 3.8373599 4995119
-0.83842498 -0.071568497 3.8321099 5324085
-0.830468 -0.072716102 3.8369701 6245443
-0.82294798 -0.0759262 3.83075 4600877
-0.81509697 -0.0724397 3.8320401 7758165
-0.806674 -0.071709499 3.8247399 7166286
-0.80167699 -0.075747497 3.83005 6311492
-0.79508799 -0.0759864 3.8276999 5982529
-0.78639001 -0.0731216 3.82236 7890006
-0.77917397 -0.073185697 3.82266 7297870
-0.77228498 -0.073193997 3.82166 8152920
-0.76746702 -0.070334703 3.7976501 8283990
-0.76036698 -0.070359901 3.79509 8349783
-0.75528198 -0.0698369 3.78686 8415319
-0.74717498 -0.074573703 3.77632 8087127
-0.74165797 -0.068594098 3.7729199 8612440
-0.74057901 -0.074578002 3.7766299 7561042
-0.73422098 -0.068495803 3.78249 8283989
-0.73413002 -0.074323103 3.78248 7495247
-0.73286903 -0.074531399 3.7874701 7495247
-0.72292101 -0.0727304 3.7998099 7955282
-0.72925502 -0.0738125 3.7825 7494990
-0.70599401 -0.069080502 3.7962 8875610
-0.69874501 -0.074546501 3.7971799 8021332
-0.69253099 -0.074419901 3.79496 8218711
-0.679196 -0.072967701 3.7896399 8612953
-0.673289 -0.073233597 3.79252 8941659
-0.66120303 -0.074140102 3.81247 9007196
-0.65425199 -0.073275402 3.8118899 9072732
-0.63643301 -0.071554102 3.8310101 9072474
-0.64109999 -0.071246102 3.81545 8940632
-0.606785 -0.068349302 3.7945199 9598818
-0.599603 -0.069499999 3.7978499 9993318
-0.58951199 -0.072888397 3.8119299 10059112
0.72765201 -0.071491703 3.8812399 13415071
0.72762501 -0.068994299 3.8745799 13480865
0.73426801 -0.071475402 3.8756001 13283485
0.73304302 -0.067800403 3.8745799 13415072
0.73930001 -0.067808799 3.8731501 13349279
0.74525702 -0.065856203 3.86921 13349279
0.74546498 -0.067706697 3.8637199 13151899
0.75398999 -0.070041999 3.8725801 12559763
0.75182003 -0.067716002 3.8610899 12954777
0.76881099 -0.064274199 3.83746 12757399
0.79320502 -0.0690457 3.8590701 9007199
0.800506 -0.068370901 3.85078 8283476
0.90744501 -0.062098399 3.7595201 9073252
0.91356802 -0.062096398 3.7565 9270630
0.96840799 -0.061860599 3.73752 10190959
-1.35759 -0.055782702 3.49739 8744475
-1.35067 -0.056530599 3.4990799 8679452
-1.34183 -0.054446701 3.49299 8219163
-1.33675 -0.057624299 3.49576 8153368
-1.33564 -0.057589799 3.49754 8087833
-1.3280801 -0.055304501 3.5025899 7824921
-1.31975 -0.055314999 3.5109401 7561752
-1.31635 -0.0592422 3.5164001 7430164
-1.31592 -0.059379499 3.5165701 7364628
-1.31241 -0.055846501 3.52265 7298327
-1.31231 -0.056254201 3.5223701 7298326
-1.24537 -0.067402102 3.7372899 7035729
-1.2414401 -0.062410198 3.7381999 4075560
-1.23568 -0.064804502 3.7368801 3549217
-1.22779 -0.066969201 3.7559099 3483681
-1.22308 -0.064747803 3.7556901 3483682
-1.2151999 -0.068138398 3.7525301 3352096
-1.20846 -0.068118498 3.7504399 3352096
-1.20162 -0.068033397 3.7465301 3286559
-1.16989 -0.067671403 3.7532899 3483424
-1.13662 -0.0635975 3.77477 2431252
-1.12827 -0.063146003 3.7730601 2431509
-1.12163 -0.063096397 3.7692399 2431252
-1.09698 -0.068536699 3.77425 3286561
-1.08855 -0.0660033 3.77953 2760473
-1.07285 -0.063404404 3.7720301 4075819
-1.06875 -0.066955402 3.7735701 3089182
-1.06001 -0.0631923 3.7776501 5260093
-1.05116 -0.063659102 3.7897699 5917508
-1.04423 -0.063737601 3.78912 5917252
-1.0379699 -0.063714802 3.7913499 5719616
-1.0292701 -0.064514302 3.7883 4732722
-1.02328 -0.065809399 3.7959199 5522236
-1.0135 -0.0696541 3.79282 7430489
-0.997486 -0.069493003 3.78743 8088674
-0.990475 -0.069367297 3.7841101 7759710
-0.98315698 -0.069257103 3.7813101 7693916
-0.976861 -0.063306302 3.7811799 6904142
-0.95964098 -0.069250599 3.78827 8022622
-0.95268703 -0.066184297 3.78846 7430229
-0.94229299 -0.065111302 3.7873499 7035472
-0.92881602 -0.065691702 3.8010299 6443337
-0.92237097 -0.065486804 3.8006001 6706251
-0.91573501 -0.065417603 3.79949 6705994
-0.90908098 -0.065273002 3.79686 6508870
-0.90143198 -0.065778702 3.81095 6179905
-0.89465302 -0.069881603 3.81411 6245956
-0.88133401 -0.067077599 3.82353 5060655
-0.87417603 -0.067124702 3.82582 8679012
-0.86929601 -0.067141101 3.83078 10981509
-0.86528599 -0.069271997 3.8341899 9929078
-0.857467 -0.069260001 3.8339601 9336941
-0.83908999 -0.065123901 3.8299501 11244422
-0.83152503 -0.065972097 3.82529 9402218
-0.81520802 -0.066192903 3.81582 7691600
-0.80896699 -0.066056103 3.8118899 7625550
-0.80236202 -0.066039599 3.8108799 7560014
-0.79800701 -0.0684174 3.81125 8217943
-0.79605401 -0.065940902 3.8076999 8349014
-0.79025698 -0.065830201 3.80177 8349270
-0.78364801 -0.0656735 3.79863 7822927
-0.77609903 -0.068789199 3.7999401 8283733
-0.76514101 -0.0640091 3.7930501 8743767
-0.758775 -0.063918501 3.7876999 8612182
-0.75968403 -0.064053103 3.7927999 8546646
-0.75206101 -0.063921601 3.78666 8874840
-0.72667003 -0.068412296 3.7924299 8415574
-0.70519102 -0.067379102 3.8004999 8941402
-0.70096898 -0.067872398 3.79511 8941403
-0.69397199 -0.068208702 3.79898 8809818
-0.684991 -0.062391698 3.79407 9401182
-0.67694801 -0.067212403 3.79354 9006939
-0.66853601 -0.066967897 3.7969301 9204060
-0.66104102 -0.0675942 3.7964699 9072217
-0.65587902 -0.067486703 3.80335 8874838
-0.65899903 -0.062308598 3.79513 10848884
-0.64907199 -0.062518999 3.8020699 11966852
-0.64953101 -0.066703297 3.8062 9204059
-0.64295101 -0.066089101 3.8054099 10058855
-0.64236099 -0.0651813 3.80916 10716785
-0.63708001 -0.065339804 3.8134601 10059111
-0.628582 -0.065154999 3.8057301 9533024
-0.62130898 -0.065817498 3.7993701 9861732
-0.61702001 -0.063064002 3.79811 9993319
-0.60532397 -0.063359499 3.7990799 10124648
-0.59429199 -0.067642801 3.80284 9664611
-0.58653498 -0.0632191 3.8114901 13151383
-0.58703202 -0.065927297 3.81218 11769473
0.741992 -0.061758202 3.8578601 13349535
0.74834198 -0.0573911 3.8541701 13546657
0.75489002 -0.061448298 3.85796 13415329
0.77174002 -0.058088001 3.8376901 13546916
0.77853 -0.061290398 3.8290801 13020571
0.777924 -0.0612952 3.8371899 13152414
0.78833801 -0.058171701 3.82288 13217693
0.82820499 -0.059030101 3.8136101 8283735
0.93286699 -0.053801101 3.73703 9139043
0.94517201 -0.051870301 3.73663 9533288
1.14331 -0.054660201 3.8359499 9995644
-1.35789 -0.0498478 3.4881999 7758360
-1.36263 -0.048551701 3.48739 7494935
-1.35141 -0.0523469 3.49224 8284699
-1.35315 -0.0511376 3.4890001 8087322
-1.34788 -0.049479701 3.4942999 7758617
-1.34661 -0.050665699 3.49277 7955995
-1.3431799 -0.047621801 3.4947901 7429656
-1.34238 -0.047833301 3.4939101 7429913
-1.33709 -0.051003002 3.49617 7824667
-1.33232 -0.0520803 3.49772 7758874
-1.3282501 -0.048465099 3.5022099 7298329
-1.32384 -0.051681299 3.50666 7429913
-1.31536 -0.0521066 3.51547 7166999
-1.24466 -0.056558199 3.73562 5522749
-1.23877 -0.0567456 3.7437899 3746341
-1.23162 -0.0566714 3.75051 3615012
-1.2248501 -0.056643099 3.7502401 3680549
-1.21728 -0.057054698 3.7469399 3549221
-1.2087801 -0.061147202 3.7460001 3483684
-1.20241 -0.061845399 3.7506101 3352097
-1.19189 -0.0588056 3.75018 3022876
-1.1851799 -0.056025501 3.75578 3812133
-1.17844 -0.056154702 3.7591801 3351838
-1.1716599 -0.056274202 3.76229 3351839
-1.1644599 -0.062692396 3.7623301 2628373
-1.15772 -0.062699199 3.76318 2562837
-1.15134 -0.062488701 3.7695301 2496788
-1.14491 -0.062501103 3.7713599 2431252
-1.1313699 -0.056983002 3.7741301 4075819
-1.12368 -0.057234701 3.77772 4010026
-1.1131001 -0.062757403 3.7746899 2826009
-1.10579 -0.058591001 3.7769301 4207405
-1.09609 -0.058841702 3.7810199 4601905
-1.08588 -0.0596122 3.7762201 4667698
-1.08551 -0.059629899 3.77897 4667699
-1.06817 -0.059801701 3.77653 5259579
-1.0616 -0.056461599 3.77755 7232851
-1.0409 -0.057737201 3.79054 9140334
-1.03546 -0.057639599 3.7879701 8350818
-1.02967 -0.0586854 3.7888899 5521464
-1.02329 -0.058814999 3.7936599 6310979
-1.0162899 -0.063229904 3.7907801 6772301
-1.01394 -0.056911599 3.7906401 6771787
-1.00712 -0.056905299 3.78847 5653306
-1.0003901 -0.056899998 3.7864599 6508613
-0.98670697 -0.057103898 3.7769599 6771785
-0.98026502 -0.057103802 3.7734699 6442822
-0.97244602 -0.059356902 3.7820799 6772298
-0.96596998 -0.059345499 3.7834699 6772299
-0.95947599 -0.0593394 3.78543 5324856
-0.95262003 -0.059658699 3.7864799 3088155
-0.94570601 -0.059411898 3.78584 2430483
-0.93895203 -0.059824299 3.79895 2298897
-0.93210202 -0.059696801 3.7957001 2430483
-0.92559302 -0.059663199 3.7964301 3350813
-0.91892999 -0.059664499 3.7974601 6903115
-0.91231602 -0.059659299 3.79829 7232079
-0.90549701 -0.059844099 3.8042099 7232078
-0.89080697 -0.060301501 3.81914 8613730
-0.89439398 -0.057962898 3.81653 10521469
-0.88329399 -0.0604004 3.8224699 10323577
-0.87142199 -0.056822602 3.8102 12099470
-0.86282802 -0.059999399 3.8234899 12230798
-0.852723 -0.0634057 3.82901 12296593
-0.84468502 -0.063475199 3.83355 12625558
-0.85114598 -0.059566502 3.81989 12888471
-0.84600598 -0.063585199 3.83114 12559765
-0.83920699 -0.0584905 3.8198199 12560020
-0.83152002 -0.059436399 3.8178899 12560020
-0.82466 -0.060387 3.8184099 12296591
-0.81864101 -0.060360201 3.8154099 12164747
-0.81184602 -0.056997798 3.8113999 12756884
-0.805475 -0.060223401 3.81199 10717559
-0.79888302 -0.056705501 3.80848 12493712
-0.77946001 -0.062151998 3.8026199 8677718
-0.769198 -0.057959601 3.7992899 9401441
-0.762263 -0.0578884 3.7939799 9138268
-0.754996 -0.057897799 3.7911501 9006682
-0.70754701 -0.061063699 3.80195 9533025
-0.70046502 -0.061200202 3.8022499 9401182
-0.69241703 -0.057088502 3.8027999 11046264
-0.69272298 -0.057042699 3.8017099 11111800
-0.68602902 -0.057049502 3.8015201 11901316
-0.68204802 -0.056675099 3.7916901 12296073
-0.67671299 -0.061096199 3.7898099 9664355
-0.67053598 -0.061069701 3.7923501 10190699
-0.66365498 -0.061084501 3.7962899 10848628
-0.66105801 -0.055882201 3.79688 12230282
-0.65620399 -0.0557996 3.79686 13019797
-0.649203 -0.055853199 3.7977099 12427661
-0.64254397 -0.059419598 3.8002501 10980214
-0.63503301 -0.059416201 3.7990401 9730147
-0.62627101 -0.059407301 3.7969301 9730147
-0.625669 -0.055042502 3.7946501 11112056
-0.61673498 -0.056329001 3.7906301 10651249
-0.61801398 -0.060067002 3.79651 10059111
-0.60694301 -0.056829602 3.80057 11572351
-0.60871899 -0.0604368 3.79094 10190697
-0.59664398 -0.059155699 3.80053 13217176
-0.58765 -0.055690002 3.8064499 13480605
-0.58167201 -0.059818801 3.81582 13546141
0.74693602 -0.054578401 3.84045 13546658
0.75631499 -0.054571599 3.84443 13612451
0.76494998 -0.055076201 3.84622 13678244
0.76769 -0.054690901 3.8496101 13678244
0.77883601 -0.0539563 3.8373001 13612708
0.77968299 -0.055336401 3.8383 13612708
0.78211099 -0.0550979 3.8375599 13612708
0.779661 -0.0549931 3.8276801 13612708
0.788845 -0.051739302 3.81583 13546914
0.79529399 -0.054939199 3.82057 13349536
0.79726201 -0.05074 3.80861 13415585
0.80917698 -0.052239999 3.81742 13217950
0.802239 -0.049391299 3.8099 13481122
0.81930798 -0.049496301 3.80598 13152157
0.81965703 -0.0492373 3.8000801 13020827
0.93860102 -0.050790399 3.7337501 9073251
-1.36698 -0.041760098 3.4886701 6376467
-1.36119 -0.0432343 3.493 6508562
-1.35114 -0.045430198 3.4941599 6969109
-1.35369 -0.040399101 3.4960999 6377237
-1.34513 -0.043610901 3.49261 6574610
-1.34778 -0.045564398 3.4922299 6837779
-1.3492 -0.044477399 3.4937999 6705939
-1.33917 -0.044732898 3.4949501 6838039
-1.34147 -0.040481299 3.4951601 6245908
-1.3334 -0.046003301 3.49824 6903831
-1.3309799 -0.041463301 3.5042801 6443287
-1.32473 -0.043883 3.50541 6574869
-1.32377 -0.044831902 3.50564 6574868
-1.32069 -0.0405908 3.5109 6443287
-1.26262 -0.050756998 3.72401 3680545
-1.25625 -0.050896101 3.7318001 4404011
-1.23562 -0.050644498 3.7446401 5851458
-1.22806 -0.0508295 3.7499199 6246216
-1.2222199 -0.050677899 3.74791 6377803
-1.21649 -0.0504838 3.74441 6509389
-1.20902 -0.0546798 3.74156 4141100
-1.20314 -0.0552512 3.7429199 4075307
-1.19899 -0.049770199 3.7478001 6574923
-1.18861 -0.052897099 3.75137 5193528
-1.1787699 -0.0495046 3.75615 4535596
-1.14345 -0.052083898 3.76826 4075048
-1.13512 -0.0509299 3.7721901 4404268
-1.12795 -0.050976001 3.7730701 4404011
-1.11738 -0.049720399 3.7720699 5719869
-1.10897 -0.052712001 3.77987 5061941
-1.0987 -0.052905701 3.78229 5851200
-1.10221 -0.052554399 3.7748699 5653821
-1.09365 -0.052686099 3.78004 6245701
-1.08874 -0.053853501 3.77933 5521978
-1.07994 -0.056241602 3.77894 4995891
-1.07033 -0.050859898 3.77402 10323579
-1.06094 -0.049609002 3.76578 12231062
-1.04834 -0.0514079 3.76226 12560796
-1.04216 -0.050683901 3.7795701 12823195
-1.03696 -0.051953498 3.7922699 12823452
-1.02975 -0.052386101 3.7911 12494488
-1.0231 -0.053208701 3.7947099 12099732
-1.01099 -0.0508985 3.7909801 11507338
-1.00379 -0.0508206 3.78579 10784128
-0.99687999 -0.050784402 3.7823801 10783870
-0.98953998 -0.050136801 3.7776599 11244421
-0.95601898 -0.053742301 3.78549 8021596
-0.949085 -0.053796701 3.7867801 8811111
-0.93578202 -0.0539992 3.79495 10653058
-0.91537899 -0.0497442 3.7985401 12954777
-0.908728 -0.049688298 3.7969301 12954520
-0.90202802 -0.054283898 3.80899 12362900
-0.89447302 -0.0508065 3.8072901 12888727
-0.89068699 -0.050312102 3.8045499 12888726
-0.88159698 -0.053426702 3.8057301 12362641
-0.86936498 -0.049819101 3.7914 12625299
-0.85851401 -0.0528051 3.7946601 12954262
-0.80531698 -0.053578701 3.80861 13085848
-0.79833001 -0.050106999 3.8059299 13151641
-0.79218799 -0.050243601 3.7962699 13151641
-0.78484398 -0.054020099 3.7985001 13151642
-0.77415502 -0.053914599 3.8020101 12822675
-0.73705798 -0.050220799 3.77439 12954262
-0.71565902 -0.053778499 3.7952399 13282969
-0.70573902 -0.0503801 3.7901199 13414554
-0.69555002 -0.053663 3.79691 12559246
-0.68818301 -0.049244098 3.7927499 13348762
-0.68152303 -0.049239401 3.7902901 13085847
-0.67662698 -0.053596299 3.78687 12625040
-0.674851 -0.049236499 3.78789 13217176
-0.67160302 -0.0533747 3.7820599 12559503
-0.665757 -0.0532763 3.7803199 13085590
-0.66353703 -0.0494879 3.7869101 13020054
-0.64981902 -0.0495979 3.7901299 13151639
-0.63957202 -0.052857399 3.7893901 12954003
-0.63998902 -0.052858401 3.7902701 12954003
-0.63089198 -0.0507516 3.7846701 13349018
-0.62640101 -0.0482096 3.7888601 13349019
-0.61857897 -0.0517441 3.7906301 12691089
0.81341398 -0.046275899 3.8180001 13481122
0.82010198 -0.042505901 3.8013799 13546914
0.82946002 -0.046292301 3.79515 13283743
0.836366 -0.047240701 3.79988 13086366
0.83980101 -0.041451398 3.7971599 13546917
0.866943 -0.040809099 3.76138 12362644
0.94360501 -0.043492001 3.7426 8678238
-1.35179 -0.039484899 3.49528 6245653
-1.34726 -0.036691599 3.49875 5916692
-1.34132 -0.037916001 3.49951 6048533
-1.33542 -0.0397349 3.49686 6311703
-1.27624 -0.041899599 3.71312 7166794
-1.27042 -0.043922398 3.7237101 6509125
-1.27051 -0.043653101 3.70331 6509126
-1.2603101 -0.044801001 3.7258699 6245957
-1.25 -0.044765498 3.7352099 5982527
-1.25362 -0.044799801 3.7291501 6180163
-1.23309 -0.043112598 3.7467501 8218975
-1.22553 -0.043138001 3.74945 9074540
-1.21988 -0.0448936 3.7458701 7429716
-1.21128 -0.048741698 3.74191 6706510
-1.19988 -0.043382701 3.7539501 11113608
-1.18911 -0.0463286 3.7511001 7955804
-1.18515 -0.046885598 3.74915 6574664
-1.17871 -0.042776 3.74488 8481888
-1.16869 -0.0455359 3.7583699 6442820
-1.15906 -0.049525902 3.77301 4798512
-1.14669 -0.046303101 3.76736 6377285
-1.14675 -0.047033001 3.76285 6114114
-1.13994 -0.046283599 3.7672801 6508870
-1.13105 -0.046585198 3.7756701 6772042
-1.12525 -0.046688698 3.7768199 6903627
-1.1244 -0.0463726 3.77004 6969419
-1.11798 -0.042674098 3.7590699 7297868
-1.1088001 -0.045942999 3.7581601 7232078
-1.0978301 -0.045664798 3.7753 7363150
-1.09197 -0.047040202 3.78001 7429200
-1.08629 -0.047038998 3.7818301 7494735
-1.0758801 -0.048821699 3.7695899 7889237
-1.06094 -0.042827401 3.7559299 8216914
-1.04612 -0.044499099 3.7449801 12427666
-1.02306 -0.046483099 3.7832601 12822679
-1.00699 -0.0439445 3.78055 12888216
-0.99984097 -0.044009801 3.78145 12954008
-0.99290401 -0.043903101 3.7758801 13217179
-0.98640603 -0.043724101 3.76687 13217179
-0.97995102 -0.043539599 3.7576799 13217179
-0.945535 -0.047977999 3.78844 12888986
-0.93942398 -0.048314702 3.79757 12888985
-0.93221802 -0.048325799 3.79807 12888728
-0.92445201 -0.048326001 3.79672 12954521
-0.901896 -0.047746699 3.8088 13085848
-0.88670802 -0.0467708 3.7990699 12954006
-0.87987697 -0.046571501 3.79129 13019542
-0.87732702 -0.046233598 3.7909501 12954006
-0.86196703 -0.041676801 3.7612 13085591
-0.79892099 -0.043329 3.7990899 13217434
-0.78314298 -0.047474202 3.8001499 13283226
-0.77611101 -0.047474202 3.7960501 13349019
-0.770845 -0.047472998 3.7953701 13414812
-0.76442403 -0.047451999 3.7915001 13217434
-0.75907499 -0.047276899 3.7841401 13217433
-0.75244498 -0.047281899 3.7816601 13283226
-0.74590498 -0.047272399 3.7789099 13282970
-0.744111 -0.043725099 3.7846401 13480349
-0.735304 -0.044058099 3.7678599 13282970
-0.695535 -0.0469319 3.78826 13414811
-0.68633699 -0.0438166 3.7785001 13414811
-0.67479002 -0.0421216 3.7829599 13480348
-0.675789 -0.0428016 3.7662101 13414556
-0.66559601 -0.046386201 3.7700801 13283225
-0.666089 -0.043115102 3.77668 13282969
-0.642744 -0.046627801 3.78721 13480604
-0.63560098 -0.044333398 3.78251 13546397
-0.627621 -0.044551101 3.7858 13611934
-0.61936301 -0.044861201 3.79287 13612190
-0.62136698 -0.0450693 3.79105 13546398
-0.61253899 -0.044872001 3.7892699 13612190
-0.60901999 -0.044863898 3.79246 13546398
0.81226099 -0.037264999 3.7788899 13546915
0.83236498 -0.040368099 3.8013699 13612708
0.83966303 -0.034843098 3.7867401 13612709
0.868132 -0.034821201 3.7669401 13481123
0.87526298 -0.037690699 3.77144 12823450
0.87635303 -0.037948102 3.7564499 12494229
0.885445 -0.0348376 3.7687399 13152157
0.88432002 -0.034751002 3.75319 12823193
-1.34389 -0.030810099 3.50682 5258768
-1.33645 -0.032270201 3.5088 5456402
-1.3261 -0.0311554 3.5064099 5982743
-1.27121 -0.038136698 3.7158301 10521725
-1.25834 -0.038730301 3.72944 10126712
-1.2522399 -0.0386739 3.73158 9534575
-1.24271 -0.039936598 3.7421 9337196
-1.23611 -0.037070502 3.7437501 13217955
-1.22956 -0.037081901 3.7454 13152162
-1.22622 -0.036386799 3.7412801 13152161
-1.21997 -0.0381191 3.7404301 13020832
-1.20173 -0.0360853 3.73195 12955038
-1.17871 -0.0361026 3.7348101 10388596
-1.1683199 -0.038611799 3.7404201 7560013
-1.15624 -0.041203801 3.75876 7165769
-1.14981 -0.041218001 3.7613599 7165769
-1.1450599 -0.040098801 3.7549801 7297354
-1.14863 -0.0400513 3.73704 7231561
-1.1376899 -0.0402168 3.75877 7428939
-1.1263601 -0.039092999 3.7526901 7560523
-1.11134 -0.038528699 3.7341599 7560524
-1.1005 -0.039631698 3.76419 7822926
-1.09252 -0.0389577 3.7810099 7954253
-1.09041 -0.035872001 3.7189801 8217424
-1.07003 -0.035245001 3.71948 8019789
-1.04606 -0.037807699 3.7347701 9203550
-1.03154 -0.0340342 3.72101 12822164
-0.943003 -0.042599302 3.8004601 13151386
-0.86917901 -0.034387399 3.74613 13216919
-0.85461801 -0.036318399 3.76688 13348762
-0.84811503 -0.040750701 3.76545 13151896
-0.84630901 -0.0408637 3.77157 13217433
-0.84588701 -0.036392 3.7690799 13217689
-0.791798 -0.040998001 3.81341 13283226
-0.78380901 -0.041000199 3.8108201 13217433
-0.78393501 -0.040999699 3.81106 13217433
-0.78150302 -0.040989898 3.8167 13349019
-0.774728 -0.0409915 3.8157301 13348762
-0.74791503 -0.041321602 3.78495 13282970
-0.66641098 -0.037404299 3.77683 13480604
0.87775701 -0.031723998 3.7700701 13481121
0.87792897 -0.032441702 3.7648699 13415329
0.89176399 -0.031549498 3.7525899 13152416
0.89797801 -0.0277601 3.7447801 13415330
-1.35882 -0.0221899 3.5135 5258265
-1.3480999 -0.023732301 3.50947 4666127
-1.33189 -0.027873101 3.51477 5785367
-1.32679 -0.0241703 3.5107801 6048281
-1.3225 -0.0275658 3.5153601 6443292
-1.27758 -0.034274898 3.7130301 13283999
-1.26614 -0.031662598 3.71521 13283229
-1.26746 -0.032436501 3.71472 13217693
-1.25093 -0.032464799 3.73246 13349023
-1.24318 -0.033185899 3.73015 13283487
-1.2341501 -0.034448199 3.7361 13283489
-1.22138 -0.0310668 3.7255599 13283230
-1.21698 -0.032385901 3.7124801 13283230
-1.20974 -0.032943498 3.7161601 13151645
-1.1912301 -0.032477401 3.7195001 13086109
-1.14498 -0.0296674 3.6999099 8085839
-1.12791 -0.0327859 3.6907499 7888716
-1.123 -0.026970901 3.68802 8941147
-1.12054 -0.032829002 3.6965301 7888716
-1.11612 -0.026959701 3.6911199 9138269
-1.11235 -0.027564 3.69294 8414547
-1.10985 -0.026833501 3.69087 8414547
-1.10651 -0.0275732 3.6968999 8019790
-1.10174 -0.027616899 3.70436 8085583
-1.0904 -0.029141201 3.70929 8151375
-1.0804 -0.0324338 3.7142401 10388336
-1.07003 -0.0286451 3.7095499 11243388
-1.05968 -0.031485699 3.7148399 8151118
-1.04866 -0.0276326 3.7079401 9532770
-1.04208 -0.0300193 3.72121 10914167
-1.02148 -0.030172899 3.7170401 13282715
-0.88060802 -0.031886101 3.7235 13151126
-0.872962 -0.032853901 3.72927 13151383
-0.86138099 -0.0289379 3.74615 13085848
-0.85492003 -0.02974 3.7523999 13414812
0.88205802 -0.0239866 3.7724199 13612451
0.892703 -0.024140101 3.75051 13481122
0.90249598 -0.023984401 3.7421601 13480866
-1.33193 -0.020933799 3.51477 5587733
-1.32693 -0.017271601 3.5118101 6180122
-1.25897 -0.027268 3.71471 13283485
-1.24195 -0.0269385 3.73031 13349022
-1.23431 -0.027651699 3.7273901 13349021
-1.1873 -0.024727 3.68449 12493455
-1.1782 -0.0277058 3.7119501 9861993
-1.16764 -0.023548299 3.70052 8348754
-1.14675 -0.022688501 3.68136 8414547
-1.15195 -0.0228993 3.6845901 8414290
-1.13791 -0.025721399 3.6848199 8217168
-1.13904 -0.025132401 3.68031 8217168
-1.13194 -0.0259923 3.68468 8217424
-1.1255701 -0.020951601 3.6805799 12559248
-1.11805 -0.0210301 3.68642 13217178
-1.11818 -0.0210313 3.68659 13217178
-1.10926 -0.0216443 3.6944001 12493712
-1.1107 -0.0210998 3.6923001 12822677
-1.10344 -0.0216568 3.6975601 12230540
-1.0904 -0.022473499 3.7001901 11901575
-1.08057 -0.025678899 3.7044301 11967112
-1.0700099 -0.0220399 3.6986499 13085591
-1.05954 -0.0247139 3.6970999 12296076
-1.05243 -0.0210829 3.70346 13217177
-1.04844 -0.0210502 3.6990399 13282714
-1.03905 -0.0233333 3.7024601 13151385
-1.04163 -0.021048401 3.7003701 13348507
-1.03202 -0.0254946 3.717 13348506
-0.84812099 -0.024331899 3.7615099 13480604
-1.34609 -0.0118682 3.5109501 4928795
-1.3401099 -0.0118545 3.5130501 5718560
-1.33488 -0.0144619 3.5157599 5850909
-1.1854399 -0.0160948 3.6628101 9861736
-1.17722 -0.0200892 3.6872799 8545875
-1.16752 -0.016726499 3.6888001 9795942
-1.1625201 -0.016771 3.6689899 9466977
-1.15721 -0.0199029 3.6858599 8809048
-1.15496 -0.0129948 3.66045 13085592
-1.14666 -0.0157748 3.6645899 12361870
-1.1385601 -0.0189605 3.67643 10980473
-1.13248 -0.019327501 3.67606 12033160
-1.12559 -0.0143854 3.6749899 13414556
-1.10831 -0.0150742 3.6904099 13217178
-1.09025 -0.015675999 3.69034 13151384
-1.08355 -0.0191122 3.6963301 13085592
-1.0764101 -0.0155036 3.69502 13217177
-1.05981 -0.0184447 3.6862299 13282970
-1.05 -0.0153038 3.6937599 13414555
-1.04581 -0.0151139 3.69311 13480092
-1.03861 -0.0151905 3.7044101 13414556
-1.03763 -0.016847599 3.6912601 13480092
-1.03327 -0.018247601 3.7065499 13414556
-1.35155 -0.0063404301 3.51071 4205078
-1.34269 -0.0060545802 3.51159 5455392
-1.3431799 -0.00628214 3.5085399 5323807
-1.33569 -0.0076499102 3.5128 5981984
-1.33123 -0.0093560796 3.52335 6311710
-1.2880599 -0.00659069 3.6124899 7428160
-1.19278 -0.0063344301 3.6507699 13875107
-1.18308 -0.010005 3.6551099 13282970
-1.17667 -0.0130364 3.66803 11111802
-1.17351 -0.0068391799 3.65027 13809315
-1.16422 -0.0099462504 3.6514101 13611936
-1.15864 -0.0061198999 3.6410201 13611936
-1.14754 -0.0091487402 3.6522999 13480606
-1.13929 -0.0120395 3.66401 13480349
-1.1325999 -0.0128362 3.66959 13349020
-1.12705 -0.0076342998 3.6610501 13480349
-1.0833 -0.0122283 3.6819601 13282714
-1.3523 -0.00056562398 3.5257001 4666394
-1.34454 -0.00044311301 3.5384099 5259033
-1.31033 -0.0035795199 3.6180301 6771255
-1.30282 -0.0034119601 3.6131999 7034170
-1.29612 -0.0034173101 3.6175301 7297086
-1.28246 0.00047417101 3.5940101 7691330
-1.27486 -0.00167323 3.6027501 7822661
-1.27189 -0.0029885501 3.6140499 7953990
-1.2650501 -0.00452364 3.6268401 9138009
-1.1829 -0.00322155 3.64749 13809571
-1.14838 -0.00251234 3.6376901 13546399
-1.13929 -0.0056619002 3.6585901 13480606
-1.07409 -0.0059739999 3.6686299 13348763
-1.37002 0.0072297598 3.5681 3285265
-1.29215 0.00163954 3.5945699 7428673
-1.2824 0.0067509999 3.5843201 8020039
-1.27376 0.0053679598 3.59658 10125416
-1.2653199 0.0041614901 3.6091199 13085845
-1.36519 0.0127 3.5643401 1706755
-1.35783 0.0107055 3.55513 2233093
-1.3521301 0.0106835 3.5594499 2167300
-1.33038 0.0095587699 3.5705199 4666658
-1.32471 0.0143382 3.55234 6113846
-1.32135 0.0084635001 3.57637 6179124
-1.31827 0.0146887 3.5594399 7231811
-1.31548 0.0143238 3.54884 7034433
