# .PCD v0.7 - Point Cloud Data file format
VERSION 0.7
FIELDS x y z rgb
SIZE 4 4 4 4
TYPE F F F U
COUNT 1 1 1 1
WIDTH 1324
HEIGHT 1
VIEWPOINT 0 0 0 1 0 0 0
POINTS 1324
DATA ascii
2.7184801 0.53512901 3.6944399 4073762
2.7254601 0.53512102 3.6942999 4073506
2.73261 0.53514099 3.69434 3942177
2.7439799 0.53593898 3.69892 3942178
2.75073 0.53590298 3.6984301 3810592
2.7534299 0.53512198 3.6944201 3876385
2.7604301 0.53498203 3.69487 4139557
2.7747099 0.532655 3.69736 6770757
2.7869401 0.53446198 3.69958 5718329
2.80551 0.53753901 3.7072699 3613214
2.8190601 0.53834403 3.7052901 2560527
2.82897 0.53889102 3.7059801 2231819
2.83235 0.532974 3.70664 7296843
2.8359001 0.53889602 3.70543 2100234
2.8379099 0.53733999 3.6953599 2100233
2.84426 0.53111601 3.69595 7165513
2.8525901 0.53604901 3.6919401 2166284
2.86009 0.53610098 3.6919999 2166028
2.8982899 0.53078699 3.6809199 5060400
2.9070401 0.53118598 3.6795101 4336678
2.9140699 0.53114498 3.6796401 4336678
2.9222901 0.53486902 3.67976 2165769
2.9293799 0.53585303 3.6845801 2165769
2.93806 0.53583002 3.68433 2297098
2.93543 0.52915901 3.6724701 4731178
2.9446199 0.53043002 3.6767299 4205092
2.9629099 0.532493 3.6849799 3678749
2.96978 0.53278399 3.68347 3152663
2.97699 0.532888 3.6840701 3152406
3.0069599 0.53469199 3.68888 2428940
3.01015 0.53148699 3.6779399 3086869
3.01741 0.53149098 3.6777 3021076
3.02406 0.53129703 3.67556 2889491
3.0520599 0.52964199 3.6730499 3415834
3.0594499 0.529975 3.6740799 3218456
3.06604 0.52956498 3.6708901 3152662
3.0726299 0.52993399 3.66786 2692113
3.0792301 0.52976501 3.6656699 2560527
3.09606 0.52746803 3.6544001 2560527
3.1166699 0.53042501 3.66032 2362892
3.12098 0.525666 3.6544199 3678493
3.1306701 0.52682 3.6569099 2823699
3.13925 0.526847 3.65344 2560271
3.14782 0.52729601 3.65172 2428685
3.15518 0.52788502 3.6521499 2362893
0.30991399 0.53173 3.60748 2757903
2.0996101 0.53561401 3.6628101 2692368
2.1489899 0.53154999 3.64219 1837833
2.19169 0.52803397 3.6239901 1838089
2.2871599 0.54558498 3.7147901 2034697
2.30302 0.54864299 3.7193601 3349523
2.40639 0.53990501 3.6926799 2231818
2.41312 0.54294598 3.6903501 4204321
2.4233 0.54362899 3.6958101 3941406
2.43472 0.54349703 3.6977401 3415575
2.43981 0.53877902 3.69174 2560526
2.4451499 0.53979897 3.6791 3349527
2.4523001 0.54084998 3.6852701 3283733
2.4523001 0.54084998 3.6852701 3283733
2.4656301 0.54474598 3.6925499 6046266
2.4698701 0.53873402 3.6930799 2494733
2.47665 0.53873301 3.6907101 2363147
2.48912 0.53984898 3.69591 2231562
2.4953699 0.53971601 3.69331 2165769
2.5078599 0.54136902 3.7012899 2165770
2.5177801 0.541942 3.7035999 2231562
2.5242701 0.54427898 3.69696 4796971
2.5311301 0.54426098 3.6970301 4862763
2.54914 0.54604101 3.70772 4665384
2.55615 0.54603499 3.7072599 4796970
2.56692 0.54678398 3.70982 5322800
2.57726 0.54746199 3.71189 5717558
2.59094 0.54255301 3.7064199 2362891
2.6072199 0.54021901 3.70678 2757905
2.6145599 0.540218 3.70593 2691856
2.6228399 0.54043901 3.70595 2494734
2.6316299 0.54210103 3.7060101 2231561
2.6382201 0.54207599 3.70298 2363147
2.64486 0.54206598 3.6998899 2757390
2.65851 0.54188198 3.6981201 2888976
2.6668999 0.54207999 3.6991 2954769
2.6744101 0.54210901 3.6990199 3020561
2.6874199 0.54290599 3.70453 3020305
2.7190101 0.54195797 3.6991601 3283733
2.73171 0.54250002 3.7028699 3349526
2.7351999 0.54236299 3.7014301 3415575
2.75805 0.542575 3.7017601 3612441
2.7653301 0.541587 3.6972799 3546905
2.7781899 0.53887701 3.6963699 2428684
2.79267 0.54165298 3.7000401 3283477
2.8101499 0.54314202 3.70028 4665128
2.8264101 0.54387802 3.6986201 6112571
2.8337901 0.54396099 3.6977401 6507329
2.83603 0.54291201 3.6910901 6836550
2.84413 0.54291201 3.69087 7033672
2.85221 0.542889 3.6905701 7099722
2.8680799 0.54419398 3.69644 7560017
2.8603201 0.54288697 3.6904099 7297101
2.8761301 0.54424202 3.6963999 7625810
2.8843999 0.54426497 3.6963 7823188
2.8928599 0.54425102 3.69608 7954518
2.9014001 0.54293698 3.6894701 8020312
2.9096799 0.54289299 3.6890199 8151898
2.91819 0.54290497 3.6889501 8283740
2.92589 0.54401797 3.69417 8415326
2.9267001 0.54293799 3.6889701 8349276
2.9339199 0.54397702 3.6938701 8546655
2.9417801 0.54340303 3.6902399 8743777
2.9486201 0.54340798 3.6884601 9072997
2.9588201 0.53904802 3.6842999 4664870
2.96626 0.53873199 3.68204 4862506
2.97334 0.53891098 3.68295 4862506
2.98034 0.53880501 3.6825099 4796713
2.9962599 0.53975803 3.68976 4270369
3.0079899 0.53860003 3.6770501 6243901
3.03584 0.53893399 3.67448 7757395
3.0425401 0.538899 3.6724801 8480861
3.0557401 0.53573298 3.6723299 3941406
3.07586 0.53613102 3.66664 6112573
3.0848501 0.53617501 3.66676 6112573
3.0917799 0.534352 3.6577599 6178366
3.10058 0.53437901 3.65762 6309951
3.1080301 0.53499299 3.66552 4928556
3.1166699 0.53897202 3.66664 10323320
3.1180201 0.53271002 3.6591001 4007456
3.1264999 0.53279299 3.6561301 4665385
3.1349499 0.53281897 3.6526899 5520437
3.1429999 0.53256297 3.64782 6704710
3.15045 0.53321302 3.6486599 7428689
0.304878 0.53390098 3.6081901 3810590
0.313131 0.538679 3.60987 5126704
2.08848 0.546377 3.67399 7165258
2.09215 0.54528099 3.6763799 6112572
2.0948 0.54261303 3.6706901 5125935
2.0827899 0.54328603 3.6555901 7428429
2.0917001 0.542997 3.6461699 7954771
2.0998001 0.53847599 3.6446199 5717814
2.10746 0.53863198 3.6310699 7428428
2.11151 0.53883302 3.6190801 7822928
2.1217401 0.53559601 3.6241 6112571
2.1284101 0.537242 3.6129899 5125414
2.1489501 0.53702199 3.6337099 3086351
2.1698401 0.53945398 3.6465199 3151887
2.14359 0.53247398 3.60554 3349008
2.1500599 0.53437799 3.59688 4795931
2.14446 0.531964 3.58516 4664603
2.18189 0.53638899 3.63152 3151887
2.1860001 0.53751099 3.6191001 4466968
2.19033 0.53303498 3.6131899 3217680
2.19806 0.53576702 3.6094301 4729624
2.2060001 0.53360701 3.61309 5124898
2.21351 0.53687203 3.61198 7492403
2.2830901 0.55032301 3.7021899 6834477
2.2992699 0.55429697 3.71016 8347711
2.4056399 0.54610503 3.68734 8480347
2.42224 0.548289 3.6870999 9533289
2.4398501 0.54788297 3.69151 9335910
2.44186 0.543558 3.6810501 7098952
2.45432 0.54788601 3.68624 9467238
2.4846001 0.54579997 3.69488 6901575
2.5088699 0.54905498 3.6886301 9204581
2.5157299 0.54903001 3.68876 9204581
2.52264 0.54901898 3.68893 9270374
2.5297101 0.54903698 3.6891799 9204581
2.5297101 0.54903698 3.6891799 9204581
2.54245 0.55017197 3.6950099 9007459
2.53669 0.54903698 3.6893101 9007459
2.5538299 0.55107498 3.6984601 9007203
2.5536399 0.55103499 3.69822 9007203
2.5536399 0.55103499 3.69822 9007203
2.57003 0.55293202 3.7077 9138531
2.58112 0.553765 3.71066 8875615
2.5924101 0.55464202 3.7137201 8809566
2.6035299 0.55548102 3.7165301 8546394
2.61391 0.55612701 3.7188699 8415064
2.6061101 0.54898298 3.71487 7099211
2.64779 0.54835999 3.6975801 9270377
2.6560099 0.54865003 3.69645 9335912
2.6696601 0.54833698 3.69965 9204583
2.66277 0.54863501 3.69398 9204582
2.6909699 0.54937398 3.7061601 9467498
2.6990199 0.54939198 3.70628 9533548
2.7068801 0.549371 3.7061501 9599341
2.7140701 0.54939097 3.70626 9730671
2.72121 0.54939902 3.70628 9862513
2.73154 0.54991299 3.7100301 10059892
2.7283599 0.549402 3.7063701 9993842
2.73998 0.54994202 3.7102499 10060148
2.7483699 0.549963 3.71035 10125685
2.7516601 0.54907602 3.70487 10191478
2.75846 0.54900801 3.70451 10191734
2.7655799 0.54900002 3.70451 10257271
2.7735901 0.54897898 3.7044101 10257270
2.7848699 0.54624897 3.6979101 9336426
2.7965701 0.548401 3.69976 10191221
2.8037701 0.54843497 3.7002699 10125685
2.82143 0.54981703 3.7002599 9204580
2.8301101 0.54996997 3.6973701 8612443
2.8397901 0.55084401 3.69964 8283221
2.8483 0.549191 3.69151 8414806
2.86271 0.55097598 3.6986899 8151635
2.8718801 0.55221999 3.7053001 8151891
2.88849 0.55196702 3.7035699 8020050
2.8812799 0.550789 3.69943 8283478
2.8970699 0.55112797 3.6993999 8020306
2.9056101 0.549752 3.69256 8020050
2.91395 0.54992503 3.69309 7954513
2.92204 0.54967201 3.6916599 7954256
2.9377999 0.55194998 3.7023101 7888719
2.9448099 0.55005097 3.6902201 7756876
2.95173 0.54923499 3.6839199 7559753
2.95855 0.54920399 3.68238 7559753
2.9652801 0.54915899 3.68082 7493960
2.9693201 0.54499102 3.6798699 9599081
2.97668 0.54555601 3.6802101 9138531
2.98365 0.54563999 3.67981 9006944
2.9995 0.54638302 3.6886201 9401703
3.0044999 0.54463899 3.6774001 9138787
3.0111301 0.54450601 3.67522 8875358
3.0183899 0.54486501 3.67606 8612442
3.0253201 0.54491001 3.67538 8546649
3.0321 0.54480797 3.67397 8415063
3.0388401 0.544806 3.6721599 8217428
3.0455899 0.54482001 3.6704099 8020049
3.0515001 0.54342401 3.6676199 8414808
3.0581999 0.54341203 3.66572 8217429
3.06499 0.54347497 3.66418 8020306
3.08041 0.54313701 3.67013 8809823
3.0894599 0.54323697 3.6705301 8743774
3.0985701 0.54323697 3.67045 8678235
3.1054299 0.54133803 3.6610701 8744028
3.1136401 0.54496002 3.6605501 7427910
3.1171501 0.54064202 3.664 9467752
3.12589 0.54076999 3.6616001 9072738
3.1340699 0.54068398 3.65802 8677979
3.1408701 0.53965801 3.6498799 8349014
3.1559501 0.54107898 3.6524899 8085585
0.31658101 0.545605 3.6120501 6837318
2.09091 0.546009 3.6514699 7691341
2.0953901 0.54473698 3.64218 7559755
2.0996301 0.54326499 3.6332099 7559755
2.1024499 0.54554999 3.61131 7230530
2.1180999 0.54043901 3.61447 7230789
2.1245501 0.54023898 3.6124799 6441528
2.1278901 0.54256999 3.6045001 6112046
2.1450901 0.53955901 3.6046901 6440237
2.1819999 0.54224801 3.62535 6111528
2.1621001 0.53800201 3.59883 6374954
2.1861401 0.54207999 3.6156299 6900783
2.1935 0.54031599 3.61464 6374442
2.19941 0.54198003 3.60619 7689525
2.20502 0.53911698 3.6052599 7097388
2.2909501 0.557298 3.7070401 7952180
2.2799499 0.55524999 3.6908801 7886384
2.4190199 0.55631799 3.67746 7427909
2.4306901 0.55190098 3.68764 8283475
2.44835 0.55111003 3.6848099 8349011
2.45818 0.55610901 3.67606 7427908
2.45818 0.55610901 3.67606 7427908
2.45818 0.55610901 3.67606 7427908
2.4862101 0.55100203 3.6852 8282963
2.48648 0.55541801 3.6744201 7427909
2.56741 0.55931598 3.70912 7427910
2.60589 0.56155199 3.71399 7427653
2.6208701 0.55609697 3.71842 8414808
2.62801 0.556104 3.71819 8283222
2.6308999 0.555269 3.7126601 8151892
2.63799 0.55525899 3.7121301 8151636
2.64517 0.554838 3.6995001 7559241
2.6591101 0.554811 3.69416 7362118
2.65869 0.55475903 3.69382 7362118
2.66272 0.55418402 3.6881001 7362117
2.68539 0.55561 3.7063601 7559496
2.6679599 0.556328 3.68749 7361861
2.72348 0.55807197 3.7144799 7427655
2.73104 0.55804098 3.7141099 7362119
2.7370601 0.55685699 3.7142701 7559497
2.7450399 0.55679101 3.7138901 7493961
2.7685699 0.55543 3.7056799 7493703
2.79567 0.56088901 3.70802 7362117
2.7944901 0.55384099 3.7024701 7625291
2.78423 0.55810201 3.69366 7427654
2.80986 0.55479401 3.7017801 7427911
2.81794 0.556207 3.70135 7362117
2.8229301 0.55592602 3.69574 7361860
2.8358901 0.55467302 3.6791 7296324
2.8719399 0.55857199 3.7049 7427654
2.93399 0.55993599 3.71064 7362117
2.9407301 0.55909699 3.7038701 7427653
2.9476399 0.55872601 3.6997001 7362116
2.9529901 0.56022602 3.7055199 7362116
2.9712501 0.55873197 3.69873 7362117
2.97597 0.556499 3.6853299 7361861
2.9951701 0.55223203 3.6867599 7296325
3.0029299 0.55352199 3.68415 7362116
3.00983 0.55357802 3.6831701 7362116
3.02126 0.55035502 3.6724801 7296323
3.0418799 0.550713 3.6700201 7361860
3.0486701 0.55076098 3.66838 7361860
3.0573201 0.55251998 3.67504 7296324
3.0881901 0.55724198 3.69047 7362118
3.09656 0.55242598 3.68454 7296325
3.10255 0.55413699 3.6749499 7362117
3.1089101 0.55137902 3.6614001 7427653
3.1224799 0.54755598 3.6652801 7427910
3.1308 0.54746801 3.66155 7362116
3.15469 0.54888201 3.66149 7296325
3.16152 0.54883301 3.66009 7361861
0.31254399 0.55241901 3.6113701 4402983
2.10515 0.54799402 3.60339 7164993
2.10748 0.54396403 3.59957 7099457
2.1170199 0.54638302 3.59762 6770491
2.25841 0.55732799 3.66659 8610108
2.26564 0.55737603 3.6660299 8610108
2.27491 0.557886 3.6682401 8544572
2.4266601 0.55935597 3.6748199 7493445
2.4339199 0.55942202 3.66906 7427909
2.4446001 0.55612302 3.67255 7427908
2.46105 0.55814099 3.68648 7427908
2.62656 0.56382 3.7090199 7427653
2.65242 0.56041998 3.69155 7361861
2.6472099 0.55748701 3.68009 7361860
2.6844101 0.56111097 3.70015 7427653
2.69154 0.56115198 3.7002599 7427653
2.69856 0.56141901 3.7014301 7362116
2.7051101 0.56296498 3.70839 7427652
2.71878 0.56665701 3.7260399 7427653
2.72733 0.56439698 3.71521 7427653
2.74382 0.56495398 3.7261801 7362117
2.75264 0.56371999 3.7195499 7362117
2.7601299 0.56347698 3.7080801 7362117
2.7660899 0.56199503 3.7078099 7427653
2.81797 0.56141102 3.69223 7361860
2.91816 0.56402099 3.7249899 7427910
2.92366 0.56226099 3.7147901 7427654
2.96753 0.56295598 3.70716 7362116
2.98386 0.561459 3.6867001 7361861
2.11815 0.55210602 3.5917799 6638905
2.1254101 0.555668 3.59163 6243633
2.2513101 0.56880099 3.68027 6570788
2.25423 0.56620002 3.6693101 6570788
2.2568901 0.56228298 3.65904 6702372
2.26057 0.56151998 3.6533799 6636578
2.2615099 0.561737 3.6549699 6636579
2.2665401 0.561279 3.6515501 6571042
2.11883 0.55854797 3.5890701 6638906
2.12679 0.55877101 3.59097 6112047
0.30590299 0.57049298 3.6131899 3481882
0.30689099 0.57323998 3.6127801 3087381
2.1175699 0.56463498 3.58918 6704699
2.1262701 0.56503999 3.5921199 6441268
2.1243999 0.56460601 3.5903399 6507062
2.1322899 0.565597 3.59606 6178096
0.31013599 0.58025497 3.6152 2890002
2.1213601 0.57051498 3.5885401 6639163
2.1211801 0.57051599 3.5887201 6704699
2.12974 0.57103801 3.59231 6375733
2.13539 0.57190901 3.59814 6309939
0.30677 0.58591598 3.6161201 2890001
0.313427 0.58711803 3.6187501 6047548
2.1080201 0.58276898 3.6206701 7164993
2.11748 0.57740903 3.5913401 6836028
2.12325 0.57769501 3.5938599 6770235
2.1242001 0.576882 3.5904601 6770235
2.1301 0.57794398 3.5929201 6572855
2.13695 0.57673299 3.5831499 6506806
2.1433101 0.57747102 3.5825 6441269
0.31037799 0.596784 3.6183 2955794
2.11848 0.58603001 3.5992899 6902078
2.12497 0.58573198 3.5963199 6967357
2.1250501 0.58526999 3.59356 6967614
2.13078 0.584575 3.5869 6836027
2.1315501 0.58394903 3.5876801 6770234
2.1366899 0.58609003 3.58901 6901821
2.1380701 0.58464199 3.5872099 6770235
2.1227601 0.59217 3.5904601 7230786
2.1225901 0.591353 3.58688 7230530
2.1307499 0.59297103 3.58866 7164993
2.1363001 0.59268099 3.58707 7164737
0.311452 0.608441 3.6209199 4271397
0.32357401 0.61444402 3.62205 7033925
0.72203201 0.61534703 3.6196799 7296325
0.72917902 0.610897 3.6161599 7362117
0.31081599 0.62232602 3.6231 3745054
0.726529 0.62065899 3.62464 7230789
0.73860103 0.62232798 3.63271 7362374
0.73346502 0.62961799 3.6168001 6967361
0.74152601 0.62810898 3.6282201 7164995
0.74835801 0.62702799 3.6312001 7427910
0.30311099 0.63633698 3.6214299 6310719
0.31013799 0.63642299 3.6252899 3218711
0.73725998 0.63374501 3.6252501 6967617
0.741117 0.63504398 3.6261001 6901567
0.74814397 0.63354301 3.6272299 7099202
0.76565999 0.63867497 3.6296899 7296325
0.29909 0.64317399 3.62114 7165767
0.30610999 0.64337301 3.6243701 3087381
0.313696 0.643309 3.62762 6376257
0.73197103 0.64374501 3.62323 6770237
0.74977702 0.64046401 3.6235001 6638395
0.756293 0.640894 3.6270001 6967359
0.77752399 0.63795501 3.61568 7362117
0.298466 0.65183002 3.62047 7165510
0.30950099 0.65040898 3.62673 2758416
0.701199 0.64726198 3.62167 7098946
0.70724601 0.64725101 3.62712 7033153
0.74280602 0.646963 3.62343 6638395
0.75305402 0.64711499 3.6249101 6375479
0.76146197 0.646339 3.6231201 6770237
0.772618 0.64473802 3.61584 7164995
0.778364 0.64605403 3.6220701 7296581
0.30174899 0.65881699 3.6231699 6836805
0.30856699 0.65900499 3.6273301 2429709
0.312875 0.65737301 3.6291299 5455669
0.70467198 0.65542001 3.6317401 7164739
0.71144903 0.65435499 3.6307199 7099202
0.75642902 0.656811 3.63044 6638651
0.76543897 0.65369201 3.62679 6770237
0.77374798 0.65266597 3.6213701 7033409
0.29753199 0.665797 3.62288 7165511
0.30419499 0.66609699 3.6269901 4469031
0.31593099 0.66398901 3.63114 6837318
0.70547098 0.66128999 3.62924 7296581
0.76057798 0.66356802 3.6313801 6967617
0.76886898 0.66328299 3.62924 6901823
0.77713501 0.66327399 3.6289501 6901823
0.78417701 0.662696 3.62725 7164994
0.29999799 0.67315698 3.6264901 7034184
0.30766299 0.67317802 3.6294999 2166537
0.31333601 0.67066997 3.6312301 5916220
0.74668598 0.67289799 3.6388099 7362374
0.74903399 0.672306 3.63431 7362374
0.75526297 0.67225403 3.63937 7296581
0.76026899 0.67199099 3.63376 7362373
0.77254099 0.66983998 3.6289699 7230787
0.78083199 0.67000198 3.6301401 7164994
0.29605499 0.67992198 3.6263299 7099717
0.30330399 0.68033898 3.62959 4929069
0.311272 0.68031299 3.6317999 3876640
0.76895303 0.67592901 3.6254001 7428166
0.77600002 0.67612898 3.6275599 7428166
0.78390998 0.67771 3.63462 7362373
0.299721 0.68670201 3.6279299 6968134
0.30711901 0.68733603 3.63151 2363917
0.31459999 0.68747801 3.63692 6705221
0.29592201 0.69329 3.62725 6968132
0.30357999 0.69344002 3.62921 4797740
0.31248501 0.69557703 3.6364999 5586999
0.29952699 0.70019799 3.6294401 6705220
0.31115901 0.70358199 3.6357601 4074019
0.29642299 0.70638698 3.6248701 7033923
0.303325 0.70664901 3.62975 5323826
0.299512 0.713539 3.6280501 6968133
0.30935201 0.71180302 3.63568 2692625
0.31382301 0.71815997 3.6389 6047293
0.29741001 0.72169 3.6287701 6968131
0.309111 0.72360301 3.6372001 2626832
0.29594499 0.72947901 3.6276801 6968130
0.302113 0.727166 3.6336 5850168
0.31999299 0.72943997 3.64082 7033925
0.30039999 0.73555201 3.63415 6639425
0.30718499 0.73205203 3.63799 2626575
0.307163 0.73573297 3.63852 2626575
0.31464401 0.73637402 3.6444299 6770756
0.32340899 0.73554802 3.6393399 7165253
0.30292001 0.74285901 3.63765 5060397
0.30237401 0.75113499 3.63853 5586740
0.30906701 0.746557 3.64131 2626832
0.30110899 0.759345 3.63831 6507583
0.30802801 0.75642401 3.6421199 2494989
0.31710801 0.75780702 3.64715 7033671
0.30541101 0.764844 3.64311 3086867
0.31250101 0.76504999 3.64679 5718327
0.30034599 0.76718098 3.6372499 6967876
0.30905199 0.77195603 3.6452701 2692623
0.316237 0.77204299 3.6485901 6902340
0.29659599 0.77600002 3.6391399 7099459
0.30377799 0.77955103 3.6449201 4205089
0.311252 0.77947003 3.64886 4863277
0.30754799 0.78651601 3.64715 2561037
0.30113101 0.78624099 3.6421299 6704961
0.298282 0.79495603 3.64363 6968130
0.30372101 0.79577303 3.64745 4336932
0.31130099 0.79348898 3.65007 4534313
0.32006401 0.793257 3.652 6902595
0.29990801 0.80253702 3.64764 6507838
0.30822501 0.80244601 3.64955 2495245
0.303462 0.80977398 3.6498899 4468518
0.31954601 0.80774897 3.6565399 6968132
0.30797601 0.81477898 3.65241 2626831
0.30109 0.81831801 3.6499 5981497
0.299081 0.82678401 3.64977 6902340
0.303469 0.83259302 3.6547401 4139553
0.30720201 0.82934302 3.6538799 2560781
0.29650801 0.83534199 3.65009 6968131
0.31108001 0.83642 3.6563101 4402982
0.318252 0.83682299 3.6601 6968131
0.29154199 0.84315097 3.6533201 7099459
0.29961401 0.84332699 3.6553099 6442304
0.30548599 0.84420103 3.6573 2955795
0.30284601 0.850667 3.6567299 4534568
0.31055799 0.85118902 3.65852 4139555
0.294911 0.85397798 3.65365 7033923
0.30535799 0.85883403 3.65925 3021332
0.30142701 0.86570501 3.65992 5389618
0.31145 0.865529 3.66167 5060655
0.306797 0.87637001 3.6628101 2890002
0.314578 0.87282199 3.6663201 6902341
0.29690301 0.88264501 3.6619999 7034181
0.30314901 0.88345999 3.66378 4074017
0.30096599 0.89004898 3.66324 5850168
0.29611301 0.88851798 3.65943 7099973
0.30904499 0.88971698 3.66383 3152918
0.313728 0.89537001 3.66887 6573633
0.30613199 0.89873099 3.6649699 3021332
0.31204599 0.903934 3.6686299 5850168
0.30111799 0.90608501 3.6669099 5258288
0.31005999 0.91266 3.6688499 4205347
0.30115399 0.91601503 3.6664901 5784375
0.298641 0.924891 3.6671901 6968133
0.307138 0.92137301 3.6696301 2692623
0.319087 0.92890298 3.67466 7099717
0.31004 0.92920399 3.6707799 4139811
0.311075 0.92885 3.6714001 5060655
0.32228601 0.935413 3.6737001 7164996
0.30594501 0.93620801 3.67149 2626831
0.30028301 0.94542199 3.66433 7033925
0.31005001 0.94326299 3.6729801 4205860
0.316001 0.951419 3.6800399 6968133
0.32176599 0.94666302 3.68169 7033666
0.30960101 0.95471001 3.6733 3613210
0.320719 0.95680797 3.6854701 7099460
0.29883701 0.95408398 3.6645401 7165509
0.30412599 0.95927501 3.66927 4665640
0.31413299 0.95965803 3.6772399 6705220
0.319482 0.96586698 3.68538 7033667
0.297344 0.96204603 3.6624701 7164996
0.301945 0.967206 3.6670499 6639169
0.312922 0.96885097 3.67852 6441792
2.0991499 0.96695298 3.6903601 7098944
2.2217 0.96955401 3.6841099 7230529
0.30726001 0.97325599 3.67415 3152917
0.31813699 0.97512102 3.6853499 7033668
0.31206 0.97873402 3.67855 5718327
2.0947399 0.97504097 3.6949501 7098944
2.1179399 0.97766399 3.6909399 7098943
2.22561 0.97675699 3.6823399 7427908
2.2297699 0.971524 3.6860399 7427907
0.300724 0.97689003 3.6696601 7033670
0.30576 0.98257703 3.6742001 3481883
0.316688 0.984424 3.6854401 7099461
2.07128 0.98853701 3.7005601 7230529
2.07741 0.98575199 3.6958001 7164736
2.09389 0.98113197 3.6949999 7098944
2.0868499 0.98636401 3.69066 7098944
2.0987 0.97999299 3.68909 7033151
2.10918 0.98565298 3.6902399 6901564
2.1147699 0.98485702 3.6907201 7098687
2.1212001 0.984424 3.69223 7164480
2.2132599 0.982086 3.68029 7230529
2.9442999 0.98780698 3.70204 7362115
0.298774 0.98583102 3.6662099 7099461
0.30954 0.98774999 3.6791301 3876382
0.31455699 0.99287099 3.6832399 7033927
0.320963 0.98907799 3.6875601 7164996
2.0674601 0.995363 3.7019701 7164992
2.0750301 0.991615 3.6908801 7164736
2.08409 0.98920298 3.69189 7098943
2.09343 0.98600101 3.6873801 7033150
2.08937 0.99253798 3.6874399 6967358
2.0975599 0.99272299 3.6880801 6704186
2.1134901 0.992935 3.69315 7098944
2.1054001 0.992558 3.68962 6770235
2.1179399 0.99163002 3.6919601 7164993
2.2179101 0.99186999 3.6865201 7362115
2.22154 0.98483598 3.6847999 7362115
2.9425001 0.989685 3.7058699 7296323
2.9521101 0.991566 3.6993101 7493702
0.303379 0.99128598 3.6723599 5586484
0.297378 0.995112 3.6663699 7165252
0.307955 0.9964 3.67804 3284504
0.319783 0.998505 3.6890399 7230789
2.0213301 1.00227 3.69644 7427909
2.08389 0.99831498 3.6849999 6967358
2.09319 0.999138 3.6861501 6704443
2.1012001 0.999358 3.6886699 6770236
2.1094601 0.99951702 3.6909399 7033152
2.2144401 0.99916399 3.6887901 7230786
2.2225599 0.99434203 3.6886301 7493702
2.2604499 0.99912202 3.6881199 7493703
2.2660999 0.99414098 3.6829 7493703
2.27298 0.99221599 3.6869299 7559495
2.27507 0.996687 3.6886301 7625288
2.79619 0.98806399 3.6672699 7559495
2.8100801 0.98812097 3.6665499 7559495
2.82833 0.98392701 3.6543701 7427910
2.8413 0.983643 3.654 7493447
2.8496301 0.98419797 3.65798 7493446
2.8585601 0.98772901 3.6623001 7493702
2.87204 0.99011898 3.6665499 7559495
2.9444101 0.99359602 3.6954501 7427909
2.9503901 0.99404901 3.6833701 7559239
2.9570899 0.99086499 3.6670599 7559496
2.97209 0.99469298 3.6765101 7625289
2.98107 0.970384 3.6118801 7625288
2.9909201 0.97181797 3.6157 7625288
3.0039501 0.97289598 3.6192901 7690824
3.0095699 0.971847 3.6159501 7691080
3.01845 0.97222298 3.61707 7625288
3.0264399 0.96997601 3.6108401 7625288
3.0554099 0.97049898 3.6128399 7559495
0.295771 1.0027601 3.6661699 7230788
0.30220601 1.00114 3.6743701 6112826
0.30655 1.0054801 3.6786399 3218454
0.313146 1.00195 3.6835599 6573634
0.31822601 1.00802 3.68999 7165254
0.93877101 1.0135601 3.70857 7493958
1.25169 1.00486 3.6875801 7099463
1.53597 1.00353 3.6753299 7362372
1.54353 1.00458 3.6823499 7296580
1.55287 1.00137 3.66886 7296580
1.58242 1.0104001 3.6967599 7296580
1.85622 1.02736 3.7613001 7625031
1.96374 1.0139101 3.71383 7625288
2.00175 1.00773 3.7052801 7493704
2.0089099 1.01141 3.70766 7493703
2.0929999 1.00697 3.6891699 6835775
2.10497 1.00632 3.69014 7033153
2.1124599 1.00103 3.6910501 7099201
2.2043099 1.00735 3.6926999 7099459
2.2115099 1.00713 3.6900101 7296581
2.2181001 1.00587 3.68695 7493959
2.2304299 1.00284 3.69452 7559496
2.23791 1.00344 3.6934199 7559239
2.2442601 1.00299 3.6905701 7493702
2.2548699 1.00433 3.69403 7559239
2.26633 1.00246 3.67976 7756875
2.27318 1.00186 3.6752901 7756875
2.28193 0.99797702 3.6784 7691081
2.8020401 0.99244899 3.6606801 7625288
2.8122499 0.99391699 3.66185 7625289
2.8322899 0.99090397 3.6554501 7625290
2.83693 0.98903102 3.65009 7625033
2.8457799 0.99175501 3.65838 7625032
2.86146 0.994941 3.6631801 7690825
2.8684499 0.99559999 3.6635201 7625288
2.89255 0.99466199 3.67467 7559239
2.9419601 0.998923 3.6801701 7559496
2.9484799 0.99251598 3.6619999 7625289
2.9647999 0.99024898 3.65381 7690825
2.9723301 0.97795498 3.61795 7756875
2.97593 0.97418201 3.6043601 7756618
2.9865999 0.97633898 3.6101401 7756618
2.99541 0.97871298 3.6165299 7756874
3.00525 0.97914201 3.61782 7756875
3.0139101 0.97916901 3.6179399 7756875
3.0230801 0.97922498 3.6182401 7691338
3.0308001 0.97719002 3.61251 7691082
3.0395 0.97496599 3.60691 7691081
3.04949 0.97737199 3.6134701 7691081
3.0594101 0.97722101 3.61306 7691080
3.0757999 0.97341299 3.5994101 7625289
3.08446 0.97577697 3.6058099 7625289
3.0994599 0.978899 3.6148801 7559495
3.10969 0.980856 3.62008 7427909
0.295499 1.00433 3.6661201 7230788
0.30003399 1.00884 3.67237 7099462
0.30094999 1.0105 3.67558 6638913
0.31189501 1.01103 3.68431 5981242
0.316295 1.01741 3.69013 7231048
0.387647 1.02957 3.74052 7493959
0.403088 1.03106 3.7355101 7625288
0.40967 1.03643 3.75403 7559496
0.42103201 1.03337 3.7484 7559494
0.59423 1.03223 3.7448599 7559752
0.61795503 1.0315 3.7483599 7625288
0.63335699 1.03194 3.74089 7625289
0.76522201 1.02507 3.72891 7559496
0.78615999 1.0258 3.7226701 7625288
0.79430801 1.02595 3.7227199 7625288
0.80192798 1.01982 3.7182 7625288
0.83512002 1.03215 3.75301 7625288
0.83723301 1.03671 3.7725699 7559751
0.89517999 1.02903 3.7354801 7625544
0.910101 1.02109 3.7139001 7625544
0.93863302 1.01939 3.70223 7625544
0.94807398 1.0161901 3.6986401 7559752
0.96811903 1.02557 3.7339599 7559752
0.97383302 1.02777 3.7357399 7625545
0.98359698 1.02933 3.73734 7625545
1.17064 1.0293601 3.73664 7625033
1.25594 1.0111001 3.6868999 7362632
1.3365999 1.02539 3.7210701 7559495
1.38774 1.02853 3.7374101 7362116
1.46378 1.01142 3.6829801 7362374
1.47185 1.0064 3.6663799 7427911
1.4817899 1.00648 3.6651399 7428167
1.5003901 1.0029 3.66099 7362373
1.52226 1.00618 3.6730399 7427909
1.5282 1.0032099 3.67049 7427908
1.56293 1.01849 3.70031 7493704
1.5737799 1.01125 3.69894 7296324
1.58667 1.01633 3.69437 7493447
1.59501 1.01346 3.6860099 7427911
1.60105 1.0105799 3.67748 7427911
1.61554 1.00973 3.6858001 7362374
1.79848 1.03514 3.76612 7625545
1.81203 1.02671 3.73856 7691081
1.82789 1.0252399 3.7337301 7691081
1.85086 1.03421 3.7611201 7691080
1.85351 1.03107 3.75034 7691081
1.9614 1.01156 3.7002101 7625289
1.96866 1.01267 3.7031 7625290
2.01583 1.01299 3.7072001 7493703
2.1094999 1.00457 3.68064 7164739
2.1835101 1.01468 3.6916699 7099204
2.1916201 1.0144399 3.69085 7099204
2.19754 1.01236 3.68483 7099205
2.20559 1.01232 3.6849301 7165254
2.2130001 1.0118099 3.6840999 7625291
2.2267699 1.00658 3.6867001 7691082
2.23406 1.00644 3.6837399 7690826
2.2867 1.00626 3.6804399 7888461
2.7952001 1.00316 3.6742101 7888204
2.80726 1.00178 3.66644 7888205
2.8229899 0.998514 3.65854 7888205
2.8373499 0.99814302 3.65746 7822412
2.8517599 0.99798101 3.65341 7888205
2.8648701 0.99843103 3.6537199 7822669
2.88113 0.99756199 3.6623001 7691082
2.8719299 0.99843699 3.6522801 7888462
2.8854499 0.99647301 3.6391101 8085330
2.8877599 0.98949498 3.6277001 7822414
2.8970001 0.98429 3.61308 7822412
2.9452801 0.99627 3.6512201 7888206
2.9286101 0.99655098 3.6395099 8151378
2.93115 0.99409401 3.6296501 8085585
2.9358799 0.99285299 3.6277101 8151378
2.9565799 0.99548799 3.6361899 8217171
2.94646 0.99313402 3.62749 8085585
2.9519501 0.99462199 3.6347201 8217170
2.9649401 0.99284297 3.63972 7953998
2.9724 0.98548102 3.6178601 7888206
3.00423 0.99014401 3.61868 8085587
3.02087 0.98857498 3.6194899 8217172
3.04458 0.98521602 3.61695 7822669
3.05229 0.98163801 3.6036999 7888206
3.05916 0.98143399 3.6015899 7953999
3.0706 0.98122501 3.6026001 7756876
0.29457 1.0149601 3.6708 7296837
0.29506701 1.01357 3.6693599 7296837
0.29392701 1.0135601 3.6709299 7296837
0.30485499 1.0147901 3.67908 4205091
0.29898101 1.01781 3.67097 7428169
0.29809499 1.01806 3.67377 7427913
0.30972201 1.0207 3.6835201 4336933
0.30997601 1.02004 3.6833501 4468519
0.320436 1.0214601 3.6907799 7297096
0.38331401 1.03704 3.74105 7559753
0.39323401 1.03613 3.7360599 7625546
0.40578899 1.03872 3.7374799 7691340
0.41778001 1.0403399 3.7458501 7625546
0.42588601 1.03974 3.7474301 7625288
0.43550801 1.03873 3.74631 7625288
0.44067299 1.04044 3.7534101 7559496
0.46250999 1.04021 3.74406 7625289
0.47556999 1.0370899 3.7421999 7625288
0.50037402 1.03658 3.74054 7559753
0.49639201 1.03122 3.72594 7625289
0.51647002 1.0363801 3.73999 7625290
0.525172 1.03634 3.7402899 7625546
0.54599601 1.03846 3.7381499 7625547
0.56590903 1.0297101 3.72686 7559753
0.57708502 1.02917 3.7235301 7625546
0.58209997 1.03311 3.73527 7625289
0.58637297 1.03733 3.7365201 7691338
0.59818101 1.04047 3.7495899 7756619
0.60839599 1.03705 3.7400801 7756875
0.61742598 1.0357 3.7384901 7691082
0.62936997 1.03935 3.7420001 7822668
0.63762599 1.03931 3.7391901 7822669
0.64707398 1.0326999 3.7379999 7691082
0.68979001 1.0319 3.7253699 7691338
0.696962 1.03239 3.7261701 7691082
0.70875901 1.03142 3.7241199 7756618
0.72248501 1.02986 3.7202101 7690826
0.74668998 1.0326999 3.7286501 7691082
0.76629001 1.0361 3.73909 7691083
0.79017198 1.0332299 3.7234399 7757133
0.81845498 1.03732 3.7414501 7757132
0.844567 1.0365601 3.74703 7691081
0.85750097 1.03956 3.7553501 7691338
0.91024297 1.0327899 3.7294099 7691595
0.96454 1.0319 3.7306499 7757132
0.97814798 1.03537 3.7346101 7757133
0.97964603 1.03677 3.73915 7757133
0.986395 1.03553 3.7316699 7822926
1.00655 1.04372 3.7639501 7691596
1.04519 1.03475 3.73525 7625804
1.05387 1.0347199 3.7319801 7626061
1.14114 1.0241899 3.7142601 7560009
1.16945 1.0335701 3.7288401 7625548
1.2513601 1.01898 3.6893201 7165257
1.2682199 1.01934 3.6917801 7493960
1.3229899 1.0312001 3.73736 7493702
1.34069 1.02256 3.7115901 7559495
1.38817 1.0352401 3.7321701 7559241
1.40719 1.02537 3.7150099 7427654
1.4226201 1.01896 3.6981101 7493446
1.43049 1.01657 3.69175 7493446
1.4321001 1.01756 3.69572 7493446
1.4402601 1.0202399 3.70257 7427910
1.46647 1.02842 3.7089801 7559499
1.47807 1.02463 3.6968801 7559755
1.48023 1.0217299 3.6903501 7559499
1.52352 1.01443 3.6742301 7559240
1.5437 1.01828 3.6991301 7427912
1.55295 1.02176 3.7095201 7427911
1.56822 1.0203201 3.7054601 7493704
1.57678 1.01952 3.7031 7493704
1.59891 1.02018 3.6858699 7625036
1.6172301 1.01843 3.6884501 7559755
1.7803299 1.03834 3.7632599 7625545
1.78777 1.03759 3.76125 7625545
1.82188 1.0291899 3.7344899 7756875
2.2100899 1.02191 3.6974299 7428427
2.2145901 1.02061 3.69151 7757134
2.2217901 1.0204901 3.6902699 7888463
2.2265 1.01931 3.68612 7888206
2.23083 1.01792 3.6816199 7822413
2.2384 1.01794 3.6817701 7888205
2.24594 1.01794 3.68185 7888205
2.25337 1.01789 3.68172 8019791
2.26089 1.01788 3.6815801 8019791
2.2685499 1.01793 3.6816199 8085584
2.2724199 1.01634 3.6765499 8019791
2.2799699 1.01632 3.6763999 7888462
2.2874401 1.01627 3.6761 7954254
2.29492 1.01622 3.6758699 8020046
2.3025701 1.01623 3.6758499 8020046
2.3102 1.01624 3.6756699 7888461
2.3176701 1.0161901 3.6752901 7888204
2.3283601 1.0175101 3.6791799 7756875
2.3359699 1.01754 3.6790099 7756875
2.3968 1.02289 3.70135 8480343
2.4109099 1.01815 3.6883399 8611928
2.4169099 1.01748 3.6855299 8414548
2.4244499 1.0174201 3.6847999 8217170
2.45944 1.01456 3.6759601 7822413
2.4693799 1.01632 3.6805899 7756620
2.4821401 1.01504 3.68694 8020048
2.48981 1.01509 3.6868899 7953998
2.4972601 1.01509 3.6869299 7953998
2.50454 1.0150501 3.68682 7954254
2.5118699 1.01502 3.68682 7954254
2.5193701 1.0150501 3.6868501 7954254
2.5267401 1.01498 3.6865699 8020047
2.5339999 1.01484 3.6859901 8085584
2.54144 1.01483 3.68595 8019791
2.54879 1.01476 3.68574 8019791
2.5562799 1.0147901 3.6858201 8020047
2.5636401 1.01464 3.68541 8020048
2.5711801 1.01464 3.6853399 8019791
2.5848701 1.01589 3.68646 8019535
2.59868 1.01561 3.6923399 8085583
2.6106601 1.01994 3.6963601 7888205
2.6261499 1.0187401 3.69768 8282963
2.61535 1.01486 3.68537 8217169
2.63272 1.0215 3.6951101 7625033
2.6344399 1.0139101 3.6818299 8348756
2.64167 1.01386 3.6804299 8282963
2.64886 1.0137399 3.67887 8348756
2.6577201 1.01599 3.68346 8019791
2.6708801 1.01595 3.6928301 8414549
2.67347 1.01428 3.68805 8349012
2.6810701 1.01668 3.6842101 7559240
2.69221 1.0139 3.6774399 7625034
2.6875401 1.01436 3.6723101 6967103
2.6968501 1.01135 3.66433 6835518
2.7004399 1.0045201 3.6554101 8217171
2.71981 1.0129499 3.66941 6835517
2.7249401 1.01081 3.6698201 7887949
2.73229 1.01105 3.6698101 7690570
2.7395501 1.0112 3.6695099 7493447
2.7467301 1.01124 3.6688099 7296068
2.7662799 1.01735 3.6851599 6769724
2.7556601 1.0132999 3.67436 7098689
2.7869201 1.0050499 3.6617301 8282963
2.7976999 1.00734 3.66119 7888206
2.8150401 1.00704 3.6602099 7888462
2.83146 1.0078 3.6664901 8283220
2.8475201 1.00432 3.65306 7954001
2.85462 1.00431 3.6508501 7295815
2.8645501 1.00231 3.6450901 7164231
2.87254 1.00354 3.6452999 5782835
2.8854599 1.00231 3.63432 4927271
2.8921599 0.99699998 3.63027 7098438
2.9304099 1.00228 3.6347799 4400670
2.94349 1.00142 3.6324201 4335134
2.9518299 1.0018899 3.63344 4335134
2.9565799 0.99994099 3.6273701 4400927
2.9653001 0.99603897 3.6271501 6638143
2.97594 0.99977797 3.62764 4334878
2.9830899 0.99978799 3.62709 4269342
2.9868801 0.99449497 3.63012 8085586
2.9902301 0.99578702 3.61535 4335135
2.9972301 0.99594599 3.6148601 4400928
3.01652 0.99471402 3.6180301 4795685
3.0200901 0.99571198 3.6150801 4203549
3.0269799 0.99573803 3.6131201 4729893
3.0307801 0.98979199 3.6138899 7295816
3.0397799 0.99278498 3.6196001 6440765
3.04862 0.992966 3.61764 5782837
3.04861 0.99267 3.6168499 5848373
3.05549 0.99123198 3.6115 5585201
3.0626199 0.98754603 3.6001 5322285
0.30333099 1.0236 3.6789899 5454900
0.381612 1.04773 3.7479999 7757647
0.41106999 1.05003 3.7511001 7954514
0.429185 1.0470901 3.74823 7822670
0.440469 1.0495 3.75384 7888718
0.45869699 1.05051 3.7540901 7954513
0.48544699 1.04126 3.7344799 7691084
0.48170701 1.03941 3.7292299 7691340
0.49438599 1.04085 3.73329 7691341
0.50252199 1.04081 3.7330899 7691341
0.510768 1.04073 3.73279 7756877
0.51832199 1.04076 3.7330501 7691598
0.52936602 1.04313 3.73997 7757135
0.53769302 1.0431 3.7393701 7757134
0.55651498 1.0419101 3.7360699 7757132
0.56575298 1.03854 3.7330201 7691339
0.57168698 1.04265 3.7377701 7757388
0.58094603 1.04212 3.7360101 7823180
0.58540702 1.0438401 3.7417099 7823180
0.594051 1.0436 3.74071 7888717
0.59904897 1.04514 3.7458899 7823181
0.616853 1.03992 3.72878 7954511
0.64346099 1.0431499 3.7439401 7888718
0.66918898 1.04398 3.7477801 7888463
0.68421203 1.04312 3.7381301 7888721
0.70012301 1.0415699 3.73399 7954257
0.70851499 1.04159 3.7339599 7954514
0.71694201 1.0415601 3.7337899 7888977
0.72539198 1.04158 3.73383 7888721
0.73398697 1.04149 3.73335 7954258
0.74268901 1.0414701 3.7330999 7954514
0.75159699 1.04088 3.7318399 7954514
0.76430398 1.04433 3.73821 8151894
0.76034999 1.0411201 3.7328601 8020050
0.77193302 1.0452 3.73789 8151894
0.789693 1.04458 3.7363701 8151895
0.79699498 1.04568 3.7411399 8217943
0.80535001 1.04248 3.7333801 8217942
0.81434202 1.0431499 3.7368801 8217686
0.82412201 1.0447299 3.7412701 8217943
0.83448601 1.0413001 3.73122 8283736
0.85333699 1.04623 3.75403 7888719
0.84692502 1.0392801 3.7386799 7822926
0.86121702 1.04624 3.75335 7888976
0.877864 1.0411299 3.73473 8020562
0.89370799 1.0419101 3.73664 7955026
0.906699 1.0394599 3.7276299 8086612
0.91746199 1.04132 3.7325699 8152405
0.92858201 1.03901 3.7341399 7757647
0.96478403 1.04272 3.73999 8020563
0.97295302 1.04268 3.73948 8020563
0.98176903 1.04287 3.73967 8086356
0.994789 1.04603 3.7472501 8086357
1.00515 1.04441 3.7427101 8020820
1.0135601 1.04427 3.74212 8020564
1.02195 1.04414 3.74159 7955028
1.03023 1.04406 3.74139 7955028
1.03819 1.0444 3.7422099 7955028
1.07759 1.04574 3.7479 7955285
1.09059 1.04317 3.74105 7955028
1.09047 1.0433 3.74139 7955028
1.09869 1.0432 3.7413199 7889236
1.10914 1.04357 3.7433801 7889236
1.11727 1.04365 3.7432799 7954772
1.12564 1.04351 3.74261 8020565
1.13459 1.04223 3.73945 7955028
1.14821 1.03711 3.7251201 7954772
1.16071 1.03578 3.72334 7823186
1.16625 1.0414701 3.7277901 6902342
1.1769201 1.04072 3.7339101 7955285
1.18529 1.04061 3.7333701 7955029
1.1967 1.0376101 3.7248499 7889236
1.21079 1.03521 3.70995 6705220
1.20935 1.03388 3.71435 7823699
1.22514 1.02467 3.6951699 7494476
1.22132 1.03207 3.6972201 5191727
1.23243 1.0247101 3.69135 7428685
1.25501 1.0261199 3.6909299 7625809
1.2622 1.0274 3.6937699 7691343
1.31501 1.03772 3.73699 7559497
1.32086 1.03619 3.7321 7559498
1.3253 1.04287 3.7314999 8020307
1.32941 1.03579 3.73089 7559755
1.3374701 1.03591 3.7311399 7559755
1.34644 1.0369101 3.71962 8020307
1.36629 1.0379699 3.7328999 7625292
1.36377 1.03636 3.71787 8020052
1.37675 1.04064 3.7293401 8020052
1.39303 1.03461 3.7267599 7625034
1.39968 1.03493 3.7232201 7559755
1.43572 1.02662 3.7014201 7625547
1.46576 1.0271699 3.70419 7625292
1.48831 1.02463 3.6965799 7625548
1.49856 1.0246 3.6963 7691084
1.5204999 1.04003 3.7321401 7954258
1.52786 1.04055 3.7334399 7954259
1.50883 1.02467 3.69627 7691084
1.53477 1.04166 3.7363701 8020051
1.5511301 1.04052 3.73297 8020051
1.55683 1.02817 3.70839 7625293
1.5640301 1.02847 3.70913 7625292
1.57148 1.02846 3.7090399 7625292
1.5789 1.0284801 3.7090399 7625291
1.6439 1.02627 3.70081 7888208
1.6601599 1.02688 3.7026899 7822671
1.66878 1.02768 3.7049699 7888464
1.6763901 1.02662 3.7017601 7954000
1.77742 1.03839 3.7200999 5717297
1.94718 1.02868 3.7002299 6704189
1.9546601 1.02868 3.69994 6572603
1.9622 1.02868 3.69959 6506811
1.96905 1.02843 3.69805 6177846
1.97614 1.0283 3.6980901 6243639
1.97931 1.02627 3.69203 6243638
1.99338 1.02239 3.6828499 6506811
2.0051601 1.02841 3.6895499 5914675
2.0009 1.02222 3.6826899 6375226
2.0115399 1.02433 3.6862199 5388333
2.02194 1.0256799 3.69086 5256491
2.1830699 1.02587 3.68507 4796454
2.20609 1.02969 3.69716 5585967
2.20612 1.0297 3.6972001 5585967
2.2225201 1.02563 3.68522 8085585
2.23369 1.02402 3.6797199 8677722
2.2416301 1.02421 3.6804199 8940893
2.2496901 1.02443 3.6812 9204065
2.2565801 1.02415 3.68031 9533287
2.26355 1.0239201 3.67945 9730409
2.3434801 1.01754 3.6786399 7756875
2.34202 1.02176 3.6703701 12099213
2.35495 1.01925 3.68312 7690825
2.3625801 1.01925 3.6830101 7625032
2.3733799 1.02054 3.6871099 7559496
2.39131 1.02342 3.6937399 7296069
2.3945799 1.02178 3.68889 7295813
2.4065001 1.02237 3.6891501 7361861
2.4103999 1.02308 3.68223 10059118
2.4794199 1.02195 3.6877601 6703932
2.4877901 1.02227 3.68858 6703930
2.49403 1.0217 3.68682 6769723
2.5005901 1.02135 3.68575 6901310
2.5083699 1.02499 3.6859901 10651511
2.52373 1.02194 3.68747 7361862
2.5302 1.02124 3.6852901 7493448
2.53778 1.0213 3.6854601 7493449
2.5450699 1.02118 3.6851101 7427656
2.5552499 1.02187 3.6751201 11835784
2.5752399 1.02241 3.6863401 8151377
2.5812299 1.02135 3.68314 8151377
2.5896599 1.02177 3.6835401 8611928
2.59833 1.01915 3.6804099 7032896
2.6056299 1.02204 3.67804 11506820
2.6222701 1.02469 3.6886699 10585719
2.6292901 1.02239 3.6757901 13217438
2.6287601 1.02191 3.67502 13085852
2.63871 1.02095 3.68209 9138017
2.6435101 1.02185 3.67383 13414816
2.6519401 1.02028 3.67451 11967627
2.6594901 1.0206701 3.67554 12033420
2.66675 1.0207601 3.67542 12165005
2.67151 1.01966 3.67572 10322546
2.68046 1.02054 3.67313 12559506
2.68821 1.01878 3.6795001 7296068
2.68819 1.01623 3.6589 12691093
2.70895 1.0163701 3.6596999 12756886
2.70033 1.00995 3.64959 8743770
2.7189 1.0161901 3.6574099 13349280
2.7260201 1.01449 3.6598001 10848889
2.73294 1.01364 3.6578901 10651254
2.7404499 1.01396 3.6580901 10980475
2.74686 1.0139 3.6538601 12691093
2.7702701 1.01372 3.6531899 12625301
2.7980599 1.01315 3.65641 9927788
2.8092301 1.01249 3.6653299 5782830
2.8045399 1.01396 3.64801 13414817
2.8045399 1.01396 3.64801 13414817
2.8045399 1.01396 3.64801 13414817
2.8235099 1.01217 3.6638801 5651245
2.8387899 1.0121599 3.6640201 5388074
2.8422999 1.0097899 3.65008 7690829
2.84588 1.00775 3.64222 8612187
2.85062 1.00887 3.6345301 13282975
2.86463 1.00747 3.6374099 10717050
2.87958 1.0051399 3.6391001 6374716
2.8917799 1.0064 3.6352401 9993329
2.8987999 1.0064 3.63432 10322294
2.9053299 1.00422 3.6317899 8282456
2.92489 1.00775 3.6322601 12625047
2.9379001 1.00585 3.6278801 12230545
2.93959 1.00292 3.6182001 12559509
2.9463899 0.99996799 3.62551 5124650
2.95122 1.00551 3.6245999 12822681
2.96524 1.00186 3.6221099 9204069
2.9719999 1.00528 3.62502 12493715
2.9864099 1.00273 3.6168699 12691351
2.9934499 1.00313 3.6171401 12954265
3.0009601 1.00306 3.61689 13020315
3.00422 0.99758202 3.61835 4861479
3.0104799 1.00082 3.6171601 10059378
3.0164299 1.00287 3.6175399 12625558
3.02352 1.00344 3.6157501 13415073
3.03596 0.99578702 3.6107399 5717044
3.0446801 0.997024 3.6115999 6769732
3.05162 0.99695301 3.61006 7361611
3.0625501 0.996279 3.60659 8019797
3.0695 0.99730998 3.6078501 8743775
3.07693 0.99988902 3.6096001 11967627
0.38451001 1.05246 3.7395599 4665384
0.392984 1.0530699 3.74192 4797226
0.404724 1.04935 3.74561 7954772
0.41677901 1.05555 3.7551999 7493713
0.45162299 1.05047 3.7503901 8020307
0.47281101 1.0518301 3.7445099 7165003
0.48099601 1.05182 3.74438 7165002
0.49329299 1.04993 3.7390499 7165258
0.50237799 1.0497299 3.7385399 7033673
0.510598 1.04968 3.7381899 7033417
0.518462 1.04967 3.7383299 6967880
0.52675498 1.04963 3.7382801 6836294
0.53531301 1.0494699 3.7380099 6836295
0.54764998 1.05132 3.7428701 6572865
0.56084299 1.04898 3.73627 6572863
0.56876999 1.04916 3.73667 6441278
0.57704097 1.04909 3.7361701 6375485
0.58964199 1.05081 3.7414899 6309691
0.59609801 1.05163 3.7442801 6309691
0.60443699 1.05151 3.7439599 6309691
0.61741501 1.04931 3.74157 7691342
0.63350302 1.0462 3.73316 7757392
0.64356601 1.051 3.74036 5191212
0.65185201 1.04961 3.7437799 8152149
0.65908802 1.04962 3.7477601 8415065
0.67481798 1.0482 3.73544 6309692
0.68870902 1.04905 3.7353499 5059884
0.69641799 1.0490201 3.7369001 5849142
0.704368 1.04869 3.73399 4796455
0.71275598 1.04877 3.7341299 4730663
0.72117901 1.04877 3.73403 4599334
0.729689 1.0488501 3.73423 4533284
0.73839003 1.04884 3.734 4467492
0.74710798 1.04886 3.7339399 4335906
0.75588101 1.0484 3.7328501 4401700
0.76775098 1.0526299 3.7394099 3217171
0.76421601 1.0484999 3.73418 4993580
0.78452402 1.0511301 3.7337401 3349012
0.79313499 1.05128 3.7358899 3020048
0.80142403 1.05144 3.73803 2954255
0.80903 1.05153 3.73983 3414804
0.81783599 1.0502599 3.7377 4006942
0.82772702 1.0513099 3.7390399 3283475
0.83618701 1.05119 3.7388 3349268
0.84247398 1.04774 3.7397699 7231050
0.87568301 1.04607 3.72807 4731176
0.88400298 1.04599 3.7276199 4599334
0.89220101 1.04607 3.7276499 4402212
0.900545 1.0460401 3.72738 4204834
0.90511501 1.04963 3.73226 2691854
0.91212499 1.0502 3.7369699 3283733
0.92908102 1.05004 3.7474201 6968137
0.95424002 1.05352 3.7408099 3612696
0.96074098 1.0496 3.73839 4138782
0.96882302 1.04965 3.73862 4138782
0.97816497 1.04928 3.7372999 4007195
0.98583502 1.04956 3.7376499 3875866
0.99438697 1.04986 3.7379401 3744023
1.03773 1.04851 3.73388 3415316
1.04504 1.04959 3.7376101 3415316
1.0621901 1.0484999 3.7349999 3415573
1.0764 1.05102 3.74245 3415317
1.0843101 1.05028 3.74069 3415318
1.09465 1.05022 3.7411201 3546904
1.1057 1.05057 3.7428601 3612953
1.11303 1.05089 3.7437201 3678746
1.1385 1.04925 3.7391701 3744283
1.14979 1.04703 3.7330799 3809818
1.17261 1.04807 3.7348299 3481110
1.18115 1.04777 3.7338099 3480854
1.19552 1.04457 3.7204101 3283476
1.23571 1.03214 3.6906199 3744024
1.2583801 1.03399 3.6953299 6178364
1.33331 1.04303 3.7318599 8020308
1.34217 1.04423 3.7209101 4336160
1.3505599 1.04425 3.7207999 4335903
1.35897 1.04425 3.7207501 4138525
1.36719 1.04431 3.7207501 4138525
1.3860199 1.04187 3.7271099 7691344
1.40239 1.04291 3.7202101 4598819
1.4110399 1.0402499 3.7203901 7033158
1.42372 1.04278 3.7273099 6901572
1.43454 1.04109 3.7225201 6901573
1.46848 1.04045 3.7202101 6572607
1.48044 1.04494 3.7257099 4006682
1.48891 1.04483 3.7251101 4006937
1.50148 1.04626 3.73103 4269853
1.50933 1.04616 3.7304699 4204061
1.51705 1.04617 3.7302699 4138268
1.52484 1.04609 3.72996 4072731
1.53268 1.0459501 3.7294099 4072474
1.54048 1.0458699 3.7290699 4006937
1.54831 1.04576 3.7286601 4006424
1.5561399 1.04565 3.72821 4006937
1.55547 1.04127 3.72562 6638399
1.56401 1.0455199 3.7277701 4072474
1.57171 1.04563 3.72789 4138522
1.59382 1.04198 3.7161701 4335644
1.5839 1.039 3.7076199 4269852
1.6019 1.04179 3.7155499 4401438
1.6125799 1.03585 3.69959 4269852
1.6243401 1.0321701 3.6977401 5454127
1.63249 1.03311 3.70066 5388077
1.64017 1.03309 3.70069 5256492
1.64815 1.03336 3.70158 5124905
1.656 1.03339 3.70171 4927783
1.6638401 1.03325 3.7012701 4927783
1.6722701 1.03369 3.70245 4795941
1.67887 1.0309 3.69419 4730148
1.7 1.03789 3.70293 5124903
1.68964 1.03509 3.6947601 5256489
1.70872 1.03789 3.7030201 4927524
1.7174 1.03425 3.70522 4796197
1.7174799 1.03438 3.7056 4796197
1.7174799 1.03438 3.7056 4796197
1.72421 1.0320899 3.68695 5190696
1.72317 1.03021 3.6889901 4072474
1.7318 1.03079 3.6909201 4072474
1.73972 1.031 3.6914899 4203803
1.7705899 1.03934 3.7226501 5519919
1.78479 1.03827 3.7194099 5651504
1.79237 1.03846 3.71961 5454125
1.80117 1.03938 3.7217901 5322282
1.80436 1.0448101 3.71789 10388341
1.8083301 1.0385799 3.7193999 5256746
1.81585 1.03866 3.71872 5124904
1.82785 1.04108 3.72563 5125160
1.83532 1.04103 3.7253101 5059367
1.84289 1.04103 3.7251699 4927782
1.85019 1.04091 3.7246201 4927781
1.8585401 1.04138 3.72597 4927781
1.86593 1.04136 3.7258699 4861989
1.87335 1.04137 3.72578 4927526
1.87977 1.0408601 3.72401 4861477
1.88561 1.04001 3.7211699 4795939
1.89468 1.04085 3.72364 4927525
1.90203 1.04081 3.72314 5059110
1.91556 1.04655 3.72489 11046270
1.9144599 1.04184 3.72998 5454124
1.95316 1.03626 3.7030101 8677722
1.96418 1.03409 3.69643 9006688
1.9719599 1.0342799 3.6956999 9730411
1.98988 1.03306 3.7005899 6506553
2.0009501 1.0324399 3.69065 10256754
2.0128 1.0324399 3.6898 8282966
2.1796899 1.03046 3.68748 7493707
2.1872301 1.03319 3.6844499 8612185
2.1898899 1.02845 3.6812699 7822928
2.2028799 1.03242 3.6854501 8875357
2.2121501 1.03038 3.6907499 9138531
2.2183101 1.02985 3.6875899 12099215
2.2244501 1.03056 3.6774399 12756886
2.24331 1.02886 3.67168 12427922
2.2523301 1.02948 3.6737399 12493715
2.2597401 1.02948 3.6738 12427665
2.2716 1.02731 3.67646 13678246
2.2797201 1.02767 3.67682 13677990
2.2819099 1.02815 3.66995 12164493
2.31409 1.02692 3.66747 12164750
2.32253 1.02737 3.6691301 12230543
2.32988 1.02737 3.6693001 12164750
2.3406601 1.02889 3.6724999 11572613
2.3471999 1.0286 3.6705501 11112062
2.3524401 1.02325 3.6742201 12427922
2.3597801 1.02314 3.67381 12427922
2.3575399 1.02228 3.6710501 12559508
2.36198 1.0268199 3.6735301 13283231
2.385 1.02801 3.6856201 13282975
2.4017601 1.02829 3.68771 13019804
2.4893401 1.02626 3.67011 11309440
2.5043001 1.02668 3.6687601 10454130
2.5125501 1.02433 3.6726999 12493459
2.5264699 1.02589 3.67681 12559508
2.5317299 1.02514 3.6749301 12625301
2.5406499 1.02712 3.66974 9993580
2.5551701 1.02595 3.6654999 9664615
2.5739601 1.02615 3.6775601 12559508
2.5803101 1.02579 3.6754899 12427665
2.58497 1.0252 3.6636801 9532773
2.59957 1.02519 3.67624 12822423
2.59987 1.02194 3.6577001 10453874
2.59987 1.02194 3.6577001 10453874
2.59987 1.02194 3.6577001 10453874
2.6201799 1.02624 3.67102 10980475
2.6291201 1.0269001 3.66732 9072478
2.6373401 1.0252301 3.6726301 12822678
2.65518 1.02558 3.6709399 11836040
2.6629801 1.02639 3.67291 11638661
2.6697299 1.02371 3.6637199 11177853
2.67887 1.0222501 3.6563399 9861994
2.68644 1.0173 3.64064 9138527
2.69419 1.0154099 3.6508801 13480865
2.70912 1.0206701 3.6501801 9072478
2.7186999 1.0197999 3.6461699 8546134
2.72927 1.01959 3.6564801 12625044
2.73664 1.0198801 3.65663 12493457
2.7372 1.01933 3.6495099 10388081
2.7469399 1.01736 3.64253 9796200
2.7598901 1.01863 3.64589 9730408
2.7725301 1.0196199 3.6490099 9796201
2.7797301 1.01632 3.6396201 9861993
