# .PCD v0.7 - Point Cloud Data file format
VERSION 0.7
FIELDS x y z rgb
SIZE 4 4 4 4
TYPE F F F U
COUNT 1 1 1 1
WIDTH 1263
HEIGHT 1
VIEWPOINT 0 0 0 1 0 0 0
POINTS 1263
DATA ascii
-0.19138101 0.90716702 3.8856699 5388331
-0.174117 0.90696102 3.89047 4072217
-0.16837201 0.906811 3.8885601 4006680
-0.162884 0.90199298 3.88377 5848628
-0.155195 0.90300697 3.88782 5585456
-0.14209101 0.90369099 3.8908801 5454126
-0.13587999 0.90380001 3.8912599 5322540
-0.122306 0.90467799 3.8951499 5190954
-0.116242 0.90467 3.8949299 5256490
-0.11158 0.90391099 3.89114 5124904
-0.105561 0.90394002 3.89118 4927782
-0.099535003 0.90397298 3.8912301 4927781
-0.083273999 0.90227503 3.87363 5190696
-0.058487099 0.90770501 3.88714 10388342
-0.058839101 0.90467799 3.89732 5190953
-0.052882802 0.90467697 3.8968 4993575
-0.0463553 0.90886003 3.8919001 10849150
-0.040151499 0.908831 3.89201 10914686
-0.025893699 0.90702403 3.90242 4006680
-0.0073981802 0.91051501 3.9174099 4335644
-0.0012088 0.91058898 3.9177301 4533023
0.0087190596 0.90985298 3.9054401 8480601
0.019526901 0.90986902 3.9042399 9598825
0.0250536 0.90969801 3.9045501 9335909
0.031097 0.910245 3.9112799 7296070
0.036869101 0.909558 3.9045601 9467495
0.042899899 0.90955901 3.9044199 9730411
0.051061101 0.91069901 3.9097099 9862254
0.062702298 0.91111201 3.91295 9598569
0.057123099 0.910743 3.9098401 10059632
0.073925599 0.91064602 3.9100201 10585975
0.084086902 0.90738201 3.89801 9664619
0.094698399 0.907543 3.89693 8151381
0.101591 0.90538299 3.9001501 4927782
0.111824 0.91123301 3.9120901 8349014
0.118514 0.91178697 3.91433 8414552
0.124534 0.91178697 3.9138601 8611931
0.133632 0.90981799 3.9186599 5520174
0.147048 0.91348898 3.9309299 6638142
0.164159 0.918854 3.9407799 9138274
0.169668 0.91601801 3.9419701 6901570
0.175171 0.918495 3.93942 9006945
0.181107 0.91850501 3.9375801 9072481
0.18677101 0.91854697 3.94064 9006944
0.194897 0.91566497 3.9400001 7427913
0.20094 0.91825402 3.93801 9138273
0.20652901 0.91409701 3.9360399 7033155
0.213962 0.916695 3.93398 8941151
0.20988201 0.915528 3.9266901 9006944
0.22965799 0.91461802 3.93255 7888208
0.235644 0.91453397 3.93188 7888208
0.242553 0.91569602 3.9267001 8809564
0.251582 0.91031498 3.9073501 8875358
0.258917 0.90881503 3.8915501 9533287
0.27041501 0.90577501 3.89922 12625302
0.28264901 0.90865099 3.9159901 11375235
0.31551301 0.91762501 3.9607401 9730666
0.315422 0.91768003 3.9614501 9533030
0.32156101 0.91788298 3.9621 9927789
0.31832501 0.92202699 3.9579599 13612197
0.329602 0.92092699 3.9619901 13743783
0.323852 0.92111301 3.9548199 13612197
0.32483801 0.92221701 3.95842 13414818
0.34283501 0.91971201 3.9481499 13414817
0.35796699 0.91965598 3.94837 13217438
0.368278 0.91984499 3.9678199 12164750
0.37289599 0.920376 3.9642899 13612453
0.37315401 0.92063397 3.96592 13546660
0.38143599 0.92053199 3.9636199 13677990
0.388078 0.920183 3.97205 11572870
0.39088601 0.92481202 3.96878 12427922
0.393967 0.92003298 3.97106 11770249
0.39691401 0.92488199 3.9686601 12296336
0.40199599 0.91929299 3.9683399 11835785
0.40808401 0.91967201 3.9706399 11769736
0.42553601 0.92315203 3.97521 13612196
0.42947501 0.92462403 3.9744999 13085851
0.43393299 0.925376 3.9707201 11572355
0.44140199 0.92402601 3.97666 13151388
0.44819701 0.92554897 3.9826 12954009
0.45423999 0.92597198 3.9777 11835529
0.462661 0.92709702 3.9806001 11112062
0.477173 0.92658699 3.9781101 10848633
0.53437901 0.93054497 3.99964 11111806
-0.28241101 0.912682 3.88111 12757143
-0.27700099 0.91243702 3.8816199 12493972
-0.274836 0.91360301 3.8852201 12888729
-0.26884899 0.91360801 3.8850801 13085852
-0.26286799 0.91260201 3.8821001 12954523
-0.25270399 0.91129702 3.8766401 12954524
-0.247216 0.91089499 3.87501 13020316
-0.236084 0.910671 3.87432 12954523
-0.219475 0.91234797 3.8783801 13217438
-0.21349099 0.912296 3.8785999 13217438
-0.203651 0.91043502 3.8894601 8875103
-0.19750001 0.91030103 3.8891699 8875102
-0.188646 0.91217399 3.88412 13020059
-0.18051 0.90988803 3.8786299 12427923
-0.17274299 0.91102803 3.88519 12033166
-0.161438 0.910806 3.88552 11572614
-0.131763 0.91098201 3.8968599 9401703
-0.14785101 0.90822899 3.8587301 12625302
-0.117097 0.91203099 3.88954 13349025
-0.106503 0.910119 3.89428 10322548
-0.101084 0.91247702 3.8920801 13414819
-0.091468699 0.91165298 3.88765 13677990
-0.074706502 0.90898299 3.8698399 13085852
-0.067496702 0.909576 3.87255 12954266
-0.049291 0.91150999 3.8807399 12822681
-0.055188902 0.90954602 3.8724899 12954266
-0.037344601 0.91279298 3.88572 12361873
-0.043293599 0.91154802 3.8807499 12625302
-0.031397201 0.913122 3.8873501 12230544
-0.0258916 0.91095299 3.89309 13151647
-0.0160437 0.91222799 3.89993 13020061
-0.0060167299 0.91720301 3.9029801 11046270
0.0018292 0.91201401 3.901 12888475
0.0138753 0.91670501 3.9015901 10848891
0.016189801 0.91486901 3.9031301 13151646
0.0223304 0.91483402 3.90342 13217438
0.031115901 0.91531199 3.90675 13151646
0.0338328 0.91475701 3.9041901 13151645
0.040011901 0.914837 3.9044199 13020059
0.047900401 0.91570503 3.9084301 12954267
0.053967901 0.91575402 3.90855 12822681
0.059495401 0.91626799 3.91221 12888218
0.066038899 0.91651499 3.9134099 12888217
0.071224101 0.91618401 3.91102 12756886
0.077452697 0.91177899 3.8996301 13414817
0.087666899 0.91004097 3.89347 12098958
0.096493602 0.91067898 3.88518 8611928
0.096649297 0.91125202 3.8867199 8546135
0.114875 0.915941 3.90943 8612184
0.12796199 0.91604602 3.91187 8743514
0.13367701 0.91391599 3.9101701 9270115
0.164094 0.92387599 3.9358001 7559240
0.16970199 0.921588 3.9393201 8809308
0.17518 0.92391402 3.9361401 7493447
0.183979 0.92142701 3.92752 7559240
0.18603601 0.92189199 3.93167 7690826
0.213952 0.92063397 3.9250901 7427653
0.222256 0.91887498 3.9298401 8546391
0.21349999 0.91840398 3.91855 7690826
0.229432 0.916857 3.9087701 7296323
0.243495 0.91608298 3.9054999 7230530
0.25150099 0.90915799 3.8863399 8020047
0.263006 0.91455197 3.8931701 7230530
0.27382299 0.91142201 3.90079 11572356
0.26807499 0.91110599 3.8965499 10717303
0.27245399 0.91593802 3.8973801 7296066
0.28025401 0.913845 3.9135599 12098957
0.30245501 0.92230999 3.9409201 9138271
0.309356 0.92187101 3.94625 11309184
0.32733399 0.92774701 3.9566 7361605
0.3364 0.92326701 3.9588499 12427922
0.33507901 0.922414 3.94661 10059375
0.34319201 0.92504001 3.9451201 7361861
0.34379199 0.92549002 3.9469399 7361861
0.349125 0.92200601 3.9444001 9598823
0.34791201 0.92218202 3.94541 9730153
0.35808101 0.92456698 3.94345 7361605
0.364384 0.922144 3.9463201 9467237
0.366485 0.92660999 3.9495499 7295811
0.372049 0.92340398 3.94768 8414549
0.37289599 0.92465198 3.9551001 8809307
0.385212 0.92710698 3.96541 8545878
0.390793 0.92975402 3.96364 7098689
0.39084101 0.930583 3.9672401 7098689
0.399813 0.92746699 3.9635401 7690568
0.40808201 0.92492199 3.96715 11506563
0.40803301 0.92459297 3.9446399 7032382
0.418421 0.92653799 3.95191 7032638
0.42556599 0.924739 3.9570601 8348241
0.42607999 0.92605102 3.95873 7822153
0.43173599 0.92529202 3.9544101 7558725
0.43395299 0.92434603 3.94205 7163967
0.43954599 0.920762 3.9400499 7953740
0.44973299 0.92509401 3.9588301 7756362
0.44223699 0.9188 3.92081 7098174
0.469987 0.92889702 3.9754601 7625032
0.46256399 0.92766303 3.95823 6966846
0.47847 0.92592901 3.95118 6967103
0.48736799 0.92889202 3.9754 7558983
0.49612099 0.92741197 3.9668601 7427397
0.50202501 0.92743403 3.9673901 7493190
0.50792998 0.927468 3.9679799 7493446
0.50828898 0.924779 3.95665 7558983
0.51448202 0.927737 3.96892 7493446
0.52341199 0.92819399 3.98 9072222
0.51972097 0.928729 3.96065 7296066
0.54192698 0.933065 3.9973199 8216913
0.54815298 0.93351001 3.99843 8085326
-0.281968 0.91594499 3.87234 9993836
-0.27361199 0.91748297 3.8785601 9664614
-0.26816699 0.917144 3.8768499 9401699
-0.25731799 0.91489297 3.86885 9861994
-0.244148 0.91365802 3.8557501 7888204
-0.233749 0.913912 3.8752601 12427921
-0.226971 0.914285 3.8772099 12362128
-0.222516 0.91705698 3.8757701 8677720
-0.222441 0.917032 3.8758199 8677720
-0.21634901 0.91703302 3.87606 8414804
-0.209519 0.91792399 3.88204 8677720
-0.198364 0.91420102 3.88115 12625300
-0.190852 0.91771299 3.88132 8348754
-0.18038499 0.91508299 3.8819399 11769991
-0.173783 0.91719002 3.8885601 10980732
-0.16954499 0.91619003 3.8850999 11112062
-0.16788501 0.91717601 3.88921 11046012
-0.163839 0.91609699 3.8859301 11243647
-0.153045 0.909518 3.85078 8874843
-0.1408 0.90806001 3.84517 8875100
-0.118259 0.91701901 3.8992701 13151645
-0.127049 0.91222602 3.8624599 8677719
-0.111753 0.91480601 3.8879099 12625302
-0.107638 0.91572601 3.8782899 8414548
-0.099834703 0.91233099 3.8614399 7888204
-0.091712303 0.914823 3.8745 7953998
-0.084057599 0.91325402 3.8652999 7624776
-0.071351603 0.91518098 3.8738501 7361860
-0.0780508 0.91326803 3.8656199 7558983
-0.064457104 0.91497701 3.8731401 7098688
-0.064489298 0.91518301 3.8740001 7033151
-0.046465602 0.91471303 3.87339 7164481
-0.025865899 0.91540402 3.88553 8743515
-0.0118117 0.91794199 3.9026201 10125167
-0.0119447 0.92121398 3.89346 7230018
-0.0059955898 0.92121398 3.8940301 7230018
-4.6490801e-05 0.92129803 3.8949699 7164481
0.0059293499 0.92179197 3.89626 7164481
0.0138354 0.918863 3.8848 7295811
0.020191099 0.91618401 3.88709 7822411
0.031024599 0.91763997 3.89064 7493189
0.040008001 0.919541 3.89834 7361860
0.0483859 0.920825 3.9041901 7296067
0.062521301 0.92252398 3.9134099 7296067
0.080457397 0.91561502 3.8929601 7953997
0.086777098 0.91333699 3.8803999 7427395
0.127266 0.91619599 3.8864501 7098687
0.13682701 0.91929698 3.9103799 7296066
0.150699 0.91665 3.8989301 7296066
0.16219699 0.920564 3.9039299 7164480
0.180629 0.92316598 3.92979 7296068
0.18978401 0.92235702 3.9110501 7098688
0.18978401 0.92235702 3.9110501 7098688
0.18978401 0.92235702 3.9110501 7098688
0.250918 0.91602099 3.8900199 7098944
0.28152499 0.92023998 3.9135799 7296066
0.282736 0.92049301 3.91435 7296066
0.287963 0.92474002 3.9290299 7296066
0.29357901 0.926745 3.9333401 7230530
0.313382 0.93005401 3.9533999 7296067
0.318313 0.92700899 3.9405301 7230275
0.327364 0.929986 3.9405799 7230274
0.33431599 0.92424202 3.92891 7296067
0.34259501 0.92619401 3.9244699 7296067
0.351951 0.927064 3.9409399 7295811
0.431169 0.922764 3.9205899 7164224
0.434715 0.91805798 3.89904 6901309
0.48733699 0.932082 3.96369 7164225
0.49326101 0.93223202 3.96472 7230018
0.499042 0.93036503 3.9577401 7295811
0.503663 0.92795801 3.9474199 7295811
0.51136899 0.92955101 3.9548399 7296066
0.52595699 0.93093002 3.9685299 7295810
0.531959 0.93093002 3.96789 7361603
0.53797299 0.93106902 3.9678099 7361604
0.54401398 0.93139702 3.96841 7361603
-0.28456101 0.92099899 3.8703101 6572342
-0.266837 0.921278 3.8713601 6572343
-0.266837 0.921278 3.8713601 6572343
-0.266837 0.921278 3.8713601 6572343
-0.26186001 0.91669399 3.86322 7032895
-0.25370899 0.92093301 3.8683701 6967101
-0.247722 0.92054701 3.86238 6835772
-0.240109 0.91642803 3.8625801 7164481
-0.22837999 0.92159998 3.87148 6901565
-0.20235801 0.92155701 3.8841701 6572343
-0.18196701 0.92019701 3.8767099 6769722
-0.18852299 0.91961801 3.86445 6769978
-0.180135 0.92006201 3.8770299 6704185
-0.14856 0.90494901 3.80931 6835771
-0.154146 0.90226603 3.79755 6704185
-0.142456 0.90456498 3.8081601 6967101
-0.105612 0.91544503 3.8631201 7230273
-0.089948498 0.91801798 3.8748 7164481
-0.079707399 0.92318898 3.8847899 7164480
-0.075000599 0.92179102 3.8785801 6901565
-0.0680952 0.92276901 3.8836901 6704185
-0.055293299 0.920569 3.87532 6901564
-0.0556444 0.92038602 3.87448 6901308
-0.0088493302 0.92623299 3.8924899 7230273
0.046163499 0.92519999 3.89573 7295809
0.15359101 0.92363697 3.9024799 7098943
0.175372 0.92931199 3.9298999 7164480
0.18071599 0.92856598 3.9235799 7098944
0.26205999 0.93582398 3.9377999 7098943
0.27959999 0.93115598 3.9300301 7230529
-0.083158799 0.92818898 3.8833799 7032893
-0.083336599 0.927885 3.8821199 7032894
-0.0783922 0.92744601 3.8801401 6769978
-0.070967302 0.92792898 3.8831201 6638392
-0.064883202 0.92881399 3.88749 6638391
-0.065016799 0.928348 3.8852899 6638391
-0.0647972 0.92805302 3.88412 6638391
-0.058572698 0.92817003 3.88498 6835771
-0.058862299 0.928083 3.88448 6835770
-0.052737501 0.92872798 3.8875301 7098687
0.0074367598 0.91693902 3.8455901 7230273
0.047619101 0.93147999 3.8999901 7230274
0.058626998 0.92078 3.8608999 7230274
0.25886601 0.942258 3.9414999 7033408
0.27134499 0.94065797 3.9449501 7164737
0.27849001 0.94060099 3.9473701 7164737
0.288966 0.94094098 3.94186 7164994
0.30347899 0.94204098 3.9462199 7230530
0.30930099 0.941993 3.94642 7164994
0.32352501 0.94274199 3.9411399 7099460
0.32317001 0.94282401 3.9414401 7099460
0.47992301 0.94264102 3.9624701 7230533
0.48979199 0.95004302 3.97926 7165254
0.50299001 0.93919498 3.95103 7230789
0.51348501 0.93891299 3.94803 7230530
0.51559699 0.94008201 3.95294 7230530
0.52183098 0.939273 3.95065 7230529
0.52275598 0.94002903 3.94086 7230786
0.52977401 0.93779403 3.9442599 7296322
0.53631502 0.94075799 3.9441199 7296068
0.54238099 0.94103998 3.9452901 7230531
0.551633 0.94235897 3.95135 7230532
-0.26440999 0.93474001 3.88396 6967615
-0.21081699 0.93184203 3.88064 6506810
-0.20470101 0.93265098 3.88465 6835774
-0.14561599 0.93298399 3.87672 7033409
-0.13965499 0.93297797 3.87553 7099201
-0.119948 0.933994 3.8814199 7033408
-0.111011 0.93576801 3.8869801 6968128
-0.104816 0.93590999 3.8875899 6968128
-0.080614701 0.93314999 3.88199 6704443
-0.061972301 0.93665099 3.88832 6705215
-0.059034102 0.93511802 3.8851399 6836544
0.059058201 0.93124801 3.8794799 7164996
0.0656818 0.93205303 3.88305 7164996
0.074743301 0.93483901 3.8854301 7231048
0.094091199 0.94098997 3.91031 7099975
0.109496 0.943672 3.93399 7033408
0.115439 0.942689 3.92908 6967616
0.121641 0.94286001 3.9291501 6967873
0.12568 0.94349599 3.93138 6967874
0.13174701 0.94328099 3.9306099 6967874
0.16058201 0.94449002 3.92314 6771525
0.166584 0.94462401 3.92401 6771524
0.172618 0.94483298 3.9251001 6771525
0.178737 0.94554698 3.92835 6837061
0.19736899 0.94764602 3.9349101 6376768
0.204871 0.94561899 3.9386899 7099717
0.222488 0.94812602 3.9491 7099974
0.23618101 0.94394898 3.9353399 6968388
0.24224401 0.94404501 3.93612 6902852
0.259662 0.94637299 3.9403 7100233
0.26654401 0.94546002 3.9402201 7165768
0.274295 0.947532 3.95151 7165767
0.28151399 0.94774801 3.95487 7099974
0.29705399 0.94425702 3.9431 7165509
0.30290899 0.94539702 3.93769 6968392
0.31037199 0.94746703 3.93771 5850684
0.32032499 0.94839799 3.94261 5850684
0.32590801 0.948255 3.9397199 5061169
0.32950699 0.94304901 3.9402001 7099717
0.36075899 0.94802898 3.94872 6574149
0.38571501 0.95579201 3.98996 7034440
0.37762499 0.94836599 3.9626501 7165769
0.391675 0.95513701 3.9843199 6902855
0.48016801 0.95333397 3.98035 6771526
0.48016199 0.95353699 3.9812701 6837062
0.480046 0.95352501 3.98118 6837062
0.489755 0.95745403 3.98405 4074789
0.48873901 0.95732498 3.9834399 4074789
0.48876399 0.957605 3.98457 4074788
0.48973399 0.95770597 3.9847901 4008996
0.500871 0.95183802 3.9703 6442563
0.50212401 0.95172799 3.9699299 6442563
0.50543898 0.946473 3.95787 7165769
0.50997603 0.95115298 3.9524701 3285016
0.51354897 0.94427299 3.94519 7099205
0.51560801 0.94442803 3.9461401 7099460
0.52014101 0.94638902 3.9418299 5717551
0.52294803 0.94641399 3.9421301 5783086
0.53332102 0.94599199 3.94065 5651245
0.53938901 0.94610697 3.94154 5520174
0.54543602 0.94620699 3.94225 5520175
0.55173999 0.94857299 3.95188 5389103
-0.82242399 0.914527 3.753 6902338
-0.81796402 0.91278899 3.74507 6968131
-0.794864 0.91517103 3.75488 6968131
-0.801485 0.91237402 3.7446301 7033924
-0.78648901 0.91947502 3.7725101 6967874
-0.77179497 0.921866 3.7838099 6968131
-0.76626003 0.92118102 3.78069 7033667
-0.75736398 0.91799599 3.76635 7033924
-0.75200403 0.91745502 3.7645299 6968131
-0.67793 0.91617203 3.7590499 6902339
-0.677535 0.916511 3.7606599 6902339
-0.67082399 0.91355002 3.74984 6902082
-0.66357398 0.914702 3.75454 6902082
-0.65567797 0.916264 3.76039 6902082
-0.65580398 0.916264 3.7611001 6902082
-0.64771903 0.91807401 3.76864 6968132
-0.648417 0.91750699 3.7666099 6967875
-0.64308202 0.91689497 3.76353 6968132
-0.63348001 0.91616797 3.7701499 7033668
-0.63585502 0.91800803 3.76827 6968133
-0.62623101 0.917238 3.77461 7033668
-0.618361 0.918872 3.7813699 7033667
-0.61240298 0.918975 3.7824399 7099203
-0.51572502 0.92894799 3.82932 7033411
-0.512474 0.92698401 3.8191299 7033411
-0.50724 0.92637497 3.81671 7033668
-0.49700299 0.92685199 3.8176799 7033669
-0.48164901 0.93230999 3.84108 7033668
-0.47309199 0.934241 3.8485501 7033669
-0.46547201 0.93546098 3.85325 7033669
-0.45768401 0.93680298 3.85851 7099462
-0.45001501 0.93800902 3.86274 7099462
-0.44215301 0.93942702 3.8689599 7033670
-0.43786401 0.938142 3.8634 6902341
-0.42929399 0.94012803 3.87271 6968132
-0.42158899 0.941374 3.87767 7099462
-0.415452 0.94142199 3.87712 7099462
-0.37079701 0.94326901 3.8942299 7033668
-0.366189 0.94178599 3.8892 7033667
-0.360185 0.94189101 3.88923 7033667
-0.3488 0.94128901 3.88398 6968131
-0.326673 0.94408298 3.8952701 6704959
-0.32029599 0.94423002 3.8956499 6573630
-0.313068 0.944942 3.8979599 6639167
-0.30755001 0.94447201 3.8959 6507837
-0.30105099 0.94468099 3.8968501 6310459
-0.26641199 0.93949097 3.88169 7033924
-0.25749001 0.93654001 3.8777101 6967874
-0.24924099 0.93884599 3.8794601 6770753
-0.244807 0.93781197 3.8750801 6507837
-0.23858701 0.93687302 3.8729401 6441787
-0.232636 0.93689102 3.87358 6310201
-0.221389 0.94038397 3.8909099 6375739
-0.200317 0.93839097 3.8812301 6638911
-0.19691999 0.93672901 3.87184 6638911
-0.190909 0.93672901 3.8700299 6507582
-0.185445 0.93637401 3.86867 6573375
-0.17513099 0.93573898 3.86865 6771011
-0.161192 0.94146401 3.8879499 6968390
-0.15674999 0.94054198 3.88468 6902853
-0.139521 0.939592 3.8808999 6902596
-0.127736 0.94311202 3.8956599 6902340
-0.12389 0.94491202 3.89961 6705219
-0.11743 0.94093299 3.8835299 6639426
-0.101933 0.94125801 3.8862 6508098
-0.097174697 0.94056398 3.8839099 6573890
-0.0945566 0.93663698 3.8801 7034180
-0.088540897 0.93667102 3.88061 7033924
-0.073381603 0.93863899 3.8847301 6639683
-0.067420997 0.93996203 3.88994 6771268
-0.0560808 0.93973202 3.8821199 6311234
0.056416702 0.93683797 3.88059 6705478
0.062549502 0.93701798 3.8815501 6639685
0.068525702 0.93699598 3.88168 6639685
0.084002301 0.94129002 3.89926 6442563
0.0928578 0.94719797 3.9107499 3087639
0.101545 0.94122702 3.8984399 5916476
0.115905 0.94474602 3.9151001 6310977
0.109753 0.94384199 3.9118099 6442562
0.121862 0.944646 3.9140501 6179391
0.12820201 0.94429201 3.9125199 6113598
0.134296 0.944166 3.9121101 5982014
0.14039899 0.94405103 3.9117401 5850428
0.148726 0.94646299 3.9093299 2364175
0.153312 0.945023 3.90434 2429967
0.15367299 0.94531202 3.90451 2298382
0.159766 0.94534999 3.9047999 2167053
0.169541 0.94924301 3.9211199 2035467
0.17527001 0.94779003 3.9154201 2035467
0.181224 0.94762301 3.91432 1903881
0.188942 0.94968301 3.9305501 3548445
0.19740599 0.95177501 3.92676 1575430
0.20592 0.95225 3.9412501 3285274
0.214054 0.95033503 3.9457901 6179390
0.24031501 0.95258498 3.94941 4206632
0.25141299 0.95241302 3.9452 3219739
0.27302 0.95331699 3.9547501 4403497
0.28707999 0.95522797 3.9429801 1707017
0.28959599 0.94974703 3.9431701 5061170
0.29435199 0.949224 3.94153 5126962
0.30183899 0.95208299 3.9386799 2035723
0.31471199 0.95400798 3.93804 1707274
0.319684 0.95130998 3.92748 1707274
0.33193401 0.94832599 3.9378099 4271912
0.33478799 0.95343101 3.93643 1707274
0.33857599 0.948605 3.9386699 4074789
0.34463501 0.94863099 3.93887 4074790
0.35538399 0.95084298 3.9474299 3680032
0.35297799 0.94970298 3.9438601 4009253
0.36737701 0.95300102 3.9504199 1904394
0.37356099 0.95190799 3.9531701 3680289
0.38678601 0.954831 3.9422901 1510152
0.480037 0.958395 3.97594 1904138
0.48875901 0.96549302 3.9911001 1641738
0.49773499 0.95950198 3.97943 1706760
0.499053 0.95882601 3.97682 1707016
0.49773401 0.959198 3.9786 1772553
0.49926701 0.95805299 3.9741499 1707017
0.50418502 0.954943 3.9608901 1772553
0.50522703 0.954252 3.9581599 1838345
0.51571202 0.95100999 3.9446299 2889741
0.52673501 0.94846702 3.9382601 4269590
0.53336602 0.95094699 3.93628 3282955
0.53935498 0.95165801 3.93747 2034178
0.54861999 0.95131201 3.9418001 1903365
-0.84705001 0.91545397 3.7367799 6113341
-0.841977 0.91426098 3.7315199 6047805
-0.835886 0.91426003 3.7316 6047805
-0.82609099 0.918944 3.74964 5916476
-0.82004899 0.918975 3.7492299 5850683
-0.81403202 0.91898799 3.7486899 5719097
-0.80878103 0.91743302 3.74317 5850682
-0.80457097 0.91669297 3.7409201 5784889
-0.79786199 0.91960001 3.75137 5521975
-0.791394 0.92203403 3.7602201 5324596
-0.78471398 0.92268199 3.7634799 5521719
-0.77735603 0.92399502 3.7695 5653305
-0.77123302 0.92394799 3.76928 5587512
-0.76510102 0.92391402 3.76911 5521719
-0.76070702 0.92210102 3.76108 5324597
-0.755952 0.920793 3.7558 5258548
-0.75015301 0.92061198 3.75581 5390391
-0.73944598 0.92048699 3.7651501 6376513
-0.733495 0.920443 3.7651899 6442049
-0.72597301 0.92218798 3.7718799 6310719
-0.72113901 0.92117298 3.76809 6376511
-0.715783 0.92069602 3.7667201 6376511
-0.70870298 0.92173302 3.77177 6376767
-0.70861501 0.92181897 3.77215 6376768
-0.70013201 0.925834 3.7809601 5916476
-0.69582897 0.924115 3.7725201 5719098
-0.69145399 0.92257899 3.7644999 5324340
-0.68655199 0.92154902 3.7597001 5061425
-0.68051702 0.92161298 3.75981 4995377
-0.67461401 0.92155403 3.7593701 4864048
-0.66660899 0.91977799 3.75365 5258549
-0.65869498 0.92142498 3.7606399 5258549
-0.64659899 0.92139399 3.76015 5126963
-0.64065301 0.92135 3.75965 5126963
-0.62923098 0.92223102 3.7734301 6244927
-0.62186003 0.92312503 3.7767899 6113598
-0.616023 0.92312503 3.7774 6179391
-0.59394598 0.93223703 3.81938 6639427
-0.60649103 0.92115301 3.76912 6113342
-0.58220601 0.93200701 3.8190401 6639428
-0.57624203 0.93196303 3.8190501 6705220
-0.57025301 0.93192899 3.819 6639428
-0.55225301 0.93177098 3.81815 6442306
-0.52646399 0.93282402 3.82376 6442306
-0.51225501 0.93420601 3.8279901 6179392
-0.508775 0.93356401 3.8241301 6047807
-0.49757901 0.934313 3.8274901 5916221
-0.47207099 0.93794298 3.84056 5521465
-0.471017 0.93875998 3.84407 5521465
-0.463658 0.93978101 3.8478601 5455672
-0.45429701 0.93911302 3.855 6771015
-0.44976199 0.93810701 3.85133 6836808
-0.44159299 0.94262999 3.8580401 4863793
-0.437208 0.94129699 3.8524499 4798000
-0.42910901 0.94292802 3.86006 4929585
-0.423145 0.942873 3.85976 4797999
-0.41560799 0.94401699 3.86467 4732206
-0.396245 0.949471 3.9066999 7033926
-0.395742 0.949848 3.9084101 7033927
-0.411347 0.94270301 3.8589101 4600620
-0.39381099 0.94953299 3.8848801 4008741
-0.40609899 0.94214398 3.85655 4534827
-0.40034699 0.94196701 3.8559101 4469034
-0.386035 0.94729602 3.8992801 7033925
-0.381809 0.946639 3.8849599 5982012
-0.376699 0.94598103 3.88236 5981755
-0.3707 0.94597697 3.88271 5981755
-0.36542001 0.94545603 3.8807001 5916218
-0.35942101 0.94540501 3.87955 5718840
-0.35207999 0.94632 3.8826799 5455668
-0.33856201 0.94735003 3.8863499 5192498
-0.330264 0.94894701 3.8931601 4929326
-0.323174 0.94966602 3.89606 4600619
-0.31611499 0.95035499 3.89818 4469033
-0.26516801 0.94546998 3.8701999 2495761
-0.25958401 0.94516599 3.86882 2364176
-0.25349 0.94520402 3.8689899 2298639
-0.241666 0.94319397 3.87239 4008739
-0.236186 0.94177097 3.8680401 4206117
-0.226528 0.94377899 3.8812201 4995376
-0.21883801 0.94601101 3.89258 5455669
-0.21146099 0.94595301 3.8935399 5587255
-0.20565601 0.94569403 3.89239 5521462
-0.199817 0.94937801 3.8899701 2101515
-0.194167 0.94209701 3.87007 3680031
-0.18833201 0.94115198 3.8664701 3680031
-0.18397801 0.94010001 3.86198 3679775
-0.164322 0.941899 3.8715401 3745567
-0.16065601 0.94653398 3.87414 1772809
-0.155008 0.94347 3.8849499 5455924
-0.152656 0.94779098 3.8789999 1838602
-0.14650799 0.94788599 3.8792 1772808
-0.148451 0.945189 3.8802199 2627602
-0.138427 0.94536901 3.8809099 2430479
-0.143867 0.94650602 3.87293 1772808
-0.126515 0.94886702 3.89323 2232844
-0.120508 0.948807 3.89271 2101258
-0.114651 0.948695 3.8922999 2101515
-0.108597 0.94869798 3.8924601 2101258
-0.102194 0.94888699 3.8930299 2035722
-0.096200399 0.94886798 3.89292 2035722
-0.0885408 0.94439399 3.8869901 3679775
-0.0825288 0.94400901 3.8852301 3482396
-0.076553397 0.94401503 3.88515 3219481
-0.070487604 0.94392699 3.8845301 3022359
0.058613099 0.94435799 3.8779099 1838602
0.059443701 0.94201499 3.8801999 1904137
0.065735497 0.94239801 3.8819799 1969673
0.073295198 0.94609201 3.88186 1838859
0.071875297 0.94258201 3.8829601 1969417
0.08061 0.94836998 3.89432 1838602
0.112711 0.94853503 3.90908 1772295
0.12515099 0.95015401 3.9149699 1838088
0.13150901 0.95064402 3.9167299 1772296
0.14367101 0.94904703 3.9103601 1772296
0.158659 0.94768399 3.9024799 1707017
0.170893 0.94972801 3.91026 1707274
0.16917001 0.95107102 3.90362 1707532
0.188926 0.95352399 3.92133 1510153
0.179205 0.94846499 3.8924999 1510410
0.197722 0.957228 3.92416 1444873
0.197348 0.95703399 3.9233301 1444873
0.20584901 0.95599598 3.9315801 1510410
0.21417899 0.95633298 3.9449501 1641224
0.222625 0.96178699 3.9524 1510410
0.22873899 0.95634198 3.9458599 1444102
0.231961 0.962327 3.9482801 1379338
0.252837 0.95604801 3.9326501 1707789
0.276472 0.95981598 3.9595799 1641480
0.27605101 0.95823902 3.9532499 1641480
0.29141399 0.95853102 3.9426501 1641996
0.298619 0.95526201 3.9301701 1641996
0.319536 0.95735502 3.92693 1510667
0.32577801 0.95451802 3.9284401 1641996
0.365807 0.96100903 3.9602101 1641996
0.37045801 0.95785499 3.94894 1641739
0.37623399 0.95765501 3.9499099 1576202
0.39014399 0.96658999 3.9841101 1576203
0.49459699 0.96737099 3.98928 1576204
0.50258499 0.961182 3.9639599 1510411
0.51387 0.95646399 3.93733 2298636
0.52996302 0.95591098 3.93349 4400661
0.536035 0.95603299 3.9340301 2691593
0.54185301 0.95738697 3.9372399 1837829
0.63503802 0.97922701 4.0492501 2101771
0.64712799 0.98069602 4.0508199 3284243
0.65334898 0.97981799 4.0471802 2692621
0.66598701 0.98076397 4.0509501 1509893
-0.84474701 0.91938001 3.73085 2627860
-0.83972102 0.918082 3.72506 2562066
-0.82911497 0.91853201 3.73703 4206375
-0.819996 0.92252499 3.74175 2233358
-0.81877798 0.92146403 3.73615 2101773
-0.812783 0.92147303 3.73681 2167566
-0.81068099 0.92258602 3.7415099 2233102
-0.80678701 0.92147899 3.73752 2233358
-0.80039102 0.923154 3.7460999 2364687
-0.78761399 0.92740798 3.7609701 1970188
-0.78152603 0.92741102 3.7613399 2035980
-0.77517998 0.92777997 3.7627299 1970187
-0.76502299 0.92545199 3.75247 1904395
-0.75453103 0.92348498 3.74508 1904395
-0.742495 0.92554098 3.76402 3285532
-0.73610598 0.925574 3.76454 3285275
-0.72084498 0.92619801 3.75545 1904137
-0.712497 0.925547 3.76526 3416860
-0.70553499 0.927975 3.7622199 1838601
-0.69139898 0.92502499 3.75158 1838601
-0.684645 0.92577797 3.75454 1773065
-0.68639803 0.92364502 3.7455001 1772809
-0.671803 0.92649198 3.7576101 1641481
-0.66032898 0.92619503 3.7567101 1707274
-0.655159 0.927423 3.7620001 1707274
-0.64379603 0.92618799 3.7578101 1641481
-0.63322902 0.92595798 3.7665401 2627860
-0.640549 0.92666 3.7567 1707274
-0.62783498 0.928711 3.76509 1641482
-0.61296302 0.92802 3.77634 2562067
-0.591097 0.93674999 3.81634 3219482
-0.59061497 0.93701702 3.8174601 3219482
-0.57920599 0.93679303 3.8169301 3219482
-0.57911801 0.936827 3.8171799 3285018
-0.57319599 0.93678403 3.81709 3219482
-0.56762099 0.93647701 3.8159399 3153689
-0.54878002 0.93697 3.8181901 2956567
-0.542768 0.93706101 3.8190999 3022360
-0.53686398 0.937015 3.819 2956567
-0.52930099 0.93829799 3.82429 2759445
-0.52330899 0.93823498 3.8231299 2562066
-0.50964701 0.93946302 3.8259699 2233359
-0.50607902 0.93878901 3.8231399 2167567
-0.45995101 0.941787 3.84268 2693397
-0.45014501 0.94030899 3.83798 2890519
-0.44344199 0.943398 3.8381801 1707274
-0.43569201 0.94500202 3.8455999 1707017
-0.42619699 0.947725 3.85781 1707274
-0.41894501 0.94875902 3.8622 1772810
-0.41440299 0.94749099 3.8566599 1707273
-0.401732 0.94324499 3.8382599 1707274
-0.38947499 0.950921 3.86765 1773067
-0.38273299 0.94841802 3.8694899 2101518
-0.37659499 0.94841403 3.8697701 2101262
-0.37057701 0.94835502 3.8697701 2035469
-0.36453301 0.94830799 3.86972 1969932
-0.360064 0.94711602 3.86449 1904139
-0.35474199 0.94950801 3.8615799 1641482
-0.34844199 0.94959801 3.8621399 1641482
-0.34257999 0.94717199 3.8645699 1903882
-0.32235599 0.95341903 3.8879199 1838604
-0.31303 0.95575899 3.89626 1838603
-0.30581501 0.95659399 3.8998899 1772810
-0.26769501 0.94653302 3.8514099 1707532
-0.25984201 0.94776499 3.85691 1707532
-0.24791101 0.94954699 3.8745799 1772811
-0.246112 0.94691199 3.8644199 1707274
-0.23430599 0.94653499 3.8636501 1707017
-0.21933 0.95153803 3.8931799 1969931
-0.20521 0.96040201 3.91083 1641996
-0.21484099 0.950611 3.89013 1970187
-0.20069601 0.95231998 3.8873999 1707274
-0.19497199 0.952411 3.8847301 1641994
-0.199196 0.95228201 3.8840599 1641994
-0.186305 0.94599998 3.85974 1641994
-0.174481 0.946343 3.86203 1707530
-0.14860301 0.94991398 3.87446 1707531
-0.123754 0.95397902 3.8921101 1707787
-0.137743 0.94579601 3.8576701 1707531
-0.11788 0.95378202 3.8912799 1707787
-0.102635 0.95573997 3.9000299 1707530
-0.095735297 0.95615602 3.90183 1707787
-0.085573897 0.94897598 3.88392 1773065
-0.079581097 0.949054 3.88411 1772809
-0.068100303 0.95199603 3.8933301 1773322
-0.062045202 0.95224398 3.89483 1773066
0.064841203 0.94569898 3.8705399 1773324
0.13292199 0.955055 3.9093201 1707788
0.138014 0.95313603 3.9017301 1707787
0.214494 0.96168703 3.9425499 1444874
0.51322597 0.96103698 3.9349899 1838344
0.51998198 0.96140498 3.93541 4204571
0.52659702 0.96099597 3.93169 4861210
0.53290999 0.960549 3.9312301 4006419
0.63187099 0.98545498 4.0524101 1576201
0.63526398 0.99143201 4.0532298 1839115
0.64385802 0.985838 4.04989 3218965
0.65026802 0.98584998 4.0497298 3218965
0.65671498 0.986027 4.05022 2035206
0.66296601 0.98637599 4.0518699 1575685
-0.85236901 0.919227 3.7170999 1707274
-0.82820302 0.92311198 3.7312901 1707274
-0.77369797 0.92811298 3.75172 1707530
-0.76500303 0.92327303 3.7337601 1641738
-0.74057698 0.92938602 3.7570601 1773067
-0.73199701 0.93188298 3.7677801 1707274
-0.72676301 0.93095702 3.7632201 1773066
-0.59599799 0.93970799 3.80582 1707531
-0.58877599 0.94087201 3.81142 1576201
-0.58902401 0.940714 3.81075 1576201
-0.58194602 0.941751 3.8155799 1707530
-0.58205098 0.941715 3.81532 1707530
-0.575854 0.94182801 3.81604 1707530
-0.57033497 0.94109899 3.813 1707530
-0.56480002 0.94076598 3.8118899 1641994
-0.55861199 0.94111902 3.81339 1707531
-0.55115402 0.94227999 3.81826 1641993
-0.54622298 0.941414 3.8148999 1641993
-0.52517402 0.94450599 3.8273001 1641738
-0.46535701 0.945786 3.8366201 1707275
-0.45481601 0.94372702 3.8294799 1707531
-0.44300801 0.94609499 3.8371799 1641996
0.510423 0.96744102 3.93909 1379082
0.51688701 0.96723199 3.93749 2692623
0.51677603 0.966968 3.9365101 2692879
0.52317798 0.96687102 3.9352 4664091
0.52964699 0.96672702 3.9336801 4860952
0.53595102 0.96618903 3.9328799 3349262
0.54239798 0.96653903 3.9360499 1706757
0.54908299 0.96845597 3.94455 1510152
0.641716 0.991243 4.0511599 3022101
0.64711702 0.99155903 4.0510101 3284501
0.65353101 0.99149698 4.05021 2890257
0.65988398 0.99153 4.0506501 1575427
0.51381803 0.973077 3.93961 1575946
0.52012801 0.97283602 3.9381199 3481621
0.52022099 0.972817 3.9378099 3547157
0.52031797 0.97279 3.9376099 3547414
0.526546 0.97253698 3.93572 4861210
0.533005 0.97228301 3.93378 4597781
0.53240103 0.97220099 3.9335201 4663574
0.53893101 0.97187501 3.9344499 2692106
0.54836202 0.97819299 3.9403801 1575687
0.63071901 1.00217 4.05793 1314058
0.63610798 0.99916297 4.0532098 1970445
0.64464402 0.99804503 4.0520601 3218708
0.650397 0.99692702 4.05023 3284500
0.65665001 0.99696898 4.0504398 2101256
0.659796 1.00237 4.0503802 1575427
0.665218 1.00176 4.0479898 1378822
0.51042497 0.97856998 3.94034 1379339
0.51704699 0.978585 3.9398899 1904393
0.52362603 0.97847098 3.93855 4270361
0.52912098 0.97849602 3.9366601 4992281
0.53545499 0.977431 3.9335799 4400660
0.54190898 0.97761202 3.9361701 2166278
0.544918 0.98361897 3.9388001 1903621
0.62956899 1.00937 4.0581799 1248266
0.63507199 1.00693 4.0555902 1707275
0.641442 1.00359 4.0524998 3087637
0.64756 1.0039001 4.0511899 3350292
0.65643501 1.00757 4.04948 2232841
0.662404 1.00738 4.0487399 1444613
0.51219499 0.99120897 3.94698 1445643
0.52088898 0.98440999 3.94102 2627341
0.52440798 0.99007601 3.9411399 3744534
0.52688003 0.98401499 3.9386001 4729883
0.53215498 0.98347598 3.93576 4926487
0.53847599 0.98309898 3.93483 3743760
0.54785502 0.98951203 3.94031 1772293
0.554196 0.98951203 3.9428 1510409
0.62833101 1.01609 4.05656 1314059
0.63392597 1.01415 4.0558901 1575946
0.63944399 1.01177 4.0535698 2890260
0.64440697 1.00951 4.05198 3415829
0.64845401 1.0142 4.0522799 3546900
0.65344697 1.01319 4.0492902 3153171
0.65941602 1.0129499 4.0493202 1641220
0.659585 1.01307 4.0498199 1641220
0.665573 1.01276 4.0497599 1378821
0.66580898 1.013 4.04951 1379078
0.51473403 0.99618 3.94556 1379851
0.52138299 0.99600297 3.9437001 1969930
0.54147798 0.98931599 3.9367199 3152397
0.54443598 0.99520898 3.93858 2560776
0.55563301 0.99462998 3.94115 1444872
0.63438898 1.0224299 4.0571299 1707018
0.63906598 1.01867 4.0528102 2890259
0.64430702 1.01895 4.05197 3415571
0.65116698 1.01937 4.0513101 3546900
0.66245103 1.0184799 4.0496998 1510149
0.662534 1.01845 4.0496101 1510149
0.65646702 1.0186 4.0492702 2298378
0.51818597 1.00181 3.9457099 1510667
0.52490401 1.0017 3.9440801 2692880
0.52472001 1.00148 3.9439001 2627344
0.53143197 0.99580503 3.93926 4992796
0.53492099 1.0016201 3.9402599 4992537
0.538091 0.995722 3.93806 4532501
0.54739797 1.00121 3.9408 2100485
0.54480702 0.99619401 3.93893 2560520
0.553945 1.0016201 3.94491 1575942
0.63847899 1.0268101 4.0523601 2693137
0.64780003 1.02492 4.0517802 3743763
0.659302 1.02422 4.0496602 1706756
0.65933901 1.02411 4.04952 1706756
0.66530401 1.02389 4.0495901 1444614
0.66566497 1.02404 4.0502501 1444614
0.51540703 1.00811 3.94943 1379594
0.52885199 1.00774 3.9456501 3744279
0.543814 1.00704 3.9396901 3809298
0.55036199 1.00747 3.9438901 1969157
0.62936699 1.03301 4.0577102 1379339
0.63393998 1.03031 4.0568399 1576203
0.65088499 1.03047 4.0508699 4006678
0.65674597 1.02993 4.0500302 2560778
0.65674901 1.03012 4.0499701 2560778
0.525554 1.01386 3.94788 1969929
0.53251201 1.01368 3.94648 4466970
0.54041499 1.01415 3.94208 4729623
0.546601 1.0135601 3.9430001 3349519
0.546749 1.01329 3.9421401 3217934
0.55880803 1.0152 3.9531901 1641478
0.63375902 1.03847 4.05688 1641738
0.63895202 1.0349 4.0517302 3153429
0.64735502 1.03611 4.05053 4269590
0.65367198 1.03563 4.0499101 3809555
0.65372998 1.03583 4.04989 3809555
0.66005403 1.0358 4.0509501 1838084
0.66659099 1.03584 4.05232 1575687
0.52263999 1.01941 3.94874 1576459
0.529024 1.01959 3.94698 2692879
0.53545702 1.01941 3.9437201 4795418
0.54297 1.01916 3.94296 4532502
0.54966003 1.01929 3.9446499 2823692
0.54969001 1.01951 3.94435 2823692
0.55613202 1.01956 3.94719 1772806
0.55608499 1.01941 3.9472499 1772806
0.63383502 1.0458 4.0560098 1641738
0.633605 1.04678 4.0574498 1576202
0.63866597 1.04193 4.0512099 3087636
0.64481199 1.04181 4.0506701 4072726
0.65041697 1.04119 4.0492201 4203795
0.66047299 1.0434901 4.0516901 1838084
0.66981 1.04195 4.0539999 1510409
0.52157402 1.02574 3.94943 1511180
0.52614599 1.02494 3.94714 1773323
0.53262901 1.02534 3.9460101 3810071
0.539756 1.02642 3.9462099 4795415
0.539792 1.02518 3.94555 4795415
0.54626101 1.0248801 3.9442301 4203797
0.54628003 1.0261 3.9445601 4269589
0.55270201 1.0248801 3.94577 2297863
0.552634 1.0255899 3.9460101 2297863
0.55914098 1.02511 3.9487901 1772807
0.62963802 1.0497299 4.0590601 1510924
0.63864899 1.04954 4.0513501 3021843
0.64662099 1.04891 4.0511498 4204053
0.65286899 1.04874 4.0493999 4072469
0.664065 1.04934 4.0531602 1707014
0.67048001 1.04948 4.05475 1510665
0.52269399 1.0326 3.9484601 1576716
0.52953798 1.03237 3.94767 1970188
0.53622299 1.0323 3.94735 4270361
0.54964602 1.03195 3.9460499 3743762
0.55575901 1.0307 3.94753 2034949
0.56214499 1.03067 3.9494801 1707271
0.63356602 1.05487 4.0573001 1576201
0.633439 1.05374 4.0571799 1576201
0.63866103 1.05688 4.0509901 2890514
0.643408 1.0541101 4.0503602 3941655
0.64984202 1.05471 4.05054 4269588
0.66094899 1.05501 4.05199 1903878
0.66729498 1.05503 4.0538101 1641736
0.52585602 1.03842 3.9498301 1510924
0.53272301 1.03817 3.9491899 2496013
0.53962398 1.0381401 3.9493501 4533017
0.54634601 1.03793 3.94842 4532502
0.55299997 1.03777 3.9478199 3020812
0.55241698 1.03664 3.94754 3152398
0.553069 1.03776 3.9476099 3020812
0.560018 1.03824 3.9500401 1903877
0.55882603 1.0368 3.9501801 1903877
0.56739002 1.04026 3.9575901 1641993
0.63397098 1.06169 4.0563598 1642250
0.63396001 1.06147 4.0552502 1707530
0.639768 1.06449 4.0527401 3087635
0.64459902 1.06059 4.0509701 4072726
0.651178 1.06069 4.0503602 4269588
0.65771198 1.06084 4.0511498 2692106
0.67071199 1.0599 4.0517101 1510665
0.52923101 1.04395 3.9509399 1576714
0.52905101 1.04409 3.9512999 1576714
0.52919298 1.0436701 3.9496901 1576714
0.53612399 1.04401 3.95116 3284756
0.54301602 1.04372 3.9500501 4664602
0.54947197 1.04355 3.9486899 4269845
0.549712 1.04327 3.9482501 4204053
0.55635899 1.04363 3.94993 2429449
0.56364501 1.04522 3.95609 1838856
0.56725502 1.0452501 3.9546101 1641994
0.63095403 1.06722 4.0563102 1510922
0.63466501 1.06893 4.0555701 1641992
0.64556301 1.0679801 4.0513301 4204310
0.652134 1.0682 4.0499701 4204053
0.65861303 1.06824 4.0517201 2560521
0.52568102 1.0493701 3.9511499 1511180
0.52545798 1.04936 3.94908 1511180
0.532673 1.04976 3.95262 1838857
0.53955603 1.0497 3.95243 4073498
0.53966099 1.04961 3.95222 4139034
0.54628003 1.04936 3.9503601 4664344
0.55276698 1.04922 3.94999 3941396
0.55953199 1.0494 3.95169 2100998
0.56609398 1.05134 3.9576001 1773064
0.63448 1.07177 4.0555201 1707529
0.62870699 1.07116 4.0506902 1510922
0.64066702 1.07178 4.0531001 3350549
0.64690298 1.0720299 4.05159 4269845
0.65530902 1.07393 4.0508099 3744019
0.65897 1.0757999 4.0518198 2363399
0.52910697 1.0552 3.9529099 1642252
0.53625298 1.05562 3.9545701 2298635
0.53651798 1.05559 3.9547501 2364428
0.54338098 1.05557 3.9533401 4467739
0.54239798 1.05523 3.95332 4336411
0.543172 1.05514 3.95313 4467483
0.54968601 1.05524 3.9524601 4532758
0.556198 1.05496 3.95245 3481105
0.56290901 1.05519 3.9533899 1969669
0.56985998 1.05726 3.96105 1773064
0.63267702 1.08158 4.0551801 1642250
0.63808298 1.07906 4.0527401 2430478
0.642492 1.07853 4.05088 3810327
0.64411199 1.0796 4.05127 4007190
0.65211803 1.0798 4.0503898 4269588
0.53270203 1.0613101 3.9556999 1707788
0.547131 1.06126 3.95366 4664345
0.54624802 1.0609 3.9535699 4598809
0.554138 1.06145 3.9532199 4138517
0.55354297 1.061 3.9530399 4269589
0.56092101 1.0619299 3.9544599 2429448
0.56048602 1.06128 3.9537899 2494984
0.56748098 1.06182 3.95752 1904135
0.567146 1.06216 3.95788 1904135
0.63705802 1.08623 4.0532899 2101515
0.63924998 1.08418 4.05162 2824721
0.64959598 1.08613 4.0517802 4335381
0.65901798 1.08355 4.05234 2560520
0.66740102 1.08441 4.05304 1773062
0.53003401 1.06788 3.96048 1642253
0.536322 1.06724 3.95734 1838859
0.54389799 1.06739 3.95647 4073499
0.55088401 1.0673701 3.9553101 4664344
0.55071098 1.06735 3.95506 4664344
0.55756199 1.06703 3.9535999 3744018
0.57055098 1.06771 3.9593599 1904648
0.57035601 1.0685 3.9614899 1970184
0.630463 1.09332 4.0562901 1708045
0.63686699 1.09312 4.0528998 2035978
0.64213902 1.08995 4.0503802 3678999
0.65012199 1.09366 4.0517201 4335636
0.65882701 1.09106 4.0519099 2692106
0.670874 1.09287 4.05407 1839114
0.53288299 1.07306 3.9588599 1707789
0.54043698 1.0731601 3.9579799 2298892
0.546929 1.07297 3.95596 4401946
0.55495399 1.07349 3.9555099 4335637
0.561948 1.07376 3.95632 2889483
0.56770998 1.0732599 3.9566801 2035719
0.63391399 1.09883 4.05373 1773323
0.64191598 1.0969501 4.0503502 3481877
0.64715803 1.1001 4.0514398 4269846
0.65224802 1.0989 4.04985 4269589
0.65899199 1.0985399 4.0515499 2692105
0.66599798 1.09723 4.0500202 1969929
0.53702098 1.0790499 3.9598 1773325
0.54441702 1.07933 3.95995 3284756
0.54305398 1.07863 3.95963 2758928
0.55152899 1.07936 3.9572501 4533017
0.55846602 1.07902 3.9558001 4072468
0.56522399 1.07942 3.9574299 2494983
0.57104802 1.07916 3.9584601 1969928
0.631266 1.10379 4.0518398 1708043
0.637245 1.10482 4.0527401 2101514
0.64347398 1.10519 4.0512199 3810070
0.65022999 1.10613 4.0524502 4401174
0.66241097 1.1039701 4.0504298 2100999
0.53296101 1.08416 3.9576299 1773583
0.53468502 1.08553 3.96434 1773583
0.53771198 1.09089 3.9628799 1773582
0.54102302 1.08525 3.9618399 2035979
0.54814899 1.08567 3.9605401 4139290
0.562648 1.08553 3.95801 3612176
0.56891698 1.08539 3.9581399 2166535
0.63419598 1.11069 4.0541301 1839115
0.659253 1.10946 4.05054 2626313
0.66571498 1.10947 4.0497298 1904392
0.54128301 1.09714 3.9644799 1773323
0.54464298 1.0914201 3.9617901 2430220
0.54463202 1.09113 3.96229 2430220
0.56001502 1.09154 3.9598899 4466710
0.55701602 1.0908999 3.9602599 4663832
0.573515 1.0917799 3.9621699 2035464
0.63125402 1.11587 4.0520601 1708044
0.63734102 1.11658 4.05304 2167051
0.64351898 1.11684 4.0514002 3941401
0.65060401 1.11578 4.0517602 4466967
0.65619302 1.11511 4.05124 3941397
0.66255999 1.11511 4.0531001 2100741
0.669016 1.11491 4.0543799 1838857
0.53819001 1.10356 3.96806 1707790
0.54144597 1.09736 3.9635899 1707787
0.54807597 1.09725 3.96351 3218707
0.54860401 1.09729 3.96404 3350293
0.55364901 1.09667 3.96157 4533019
0.55575699 1.09726 3.9628999 4598553
0.56426698 1.09798 3.9629099 4138260
0.57130599 1.09815 3.9633999 2232070
0.57874101 1.09952 3.96878 1904394
0.576693 1.09876 3.9663401 1969929
0.634112 1.12212 4.0532098 1838859
0.64714402 1.1212 4.0512199 4401178
0.65345901 1.12119 4.0511899 4401174
0.65950698 1.12091 4.0520701 2757898
0.65976697 1.1212 4.05124 2626569
0.66618699 1.1196001 4.04948 1904392
0.538683 1.10418 3.9679 1707789
0.54169101 1.10895 3.9665 1773581
0.54926503 1.1095001 3.9681499 2429965
0.55586398 1.1093 3.9667301 4467228
0.559542 1.1032799 3.9646201 4664087
0.56764799 1.1037101 3.9639499 3612432
0.56740302 1.10338 3.96241 3546896
0.57717103 1.10981 3.9681499 2035464
0.63063103 1.12613 4.0482402 1773324
0.63735199 1.1281 4.05338 2035467
0.64380097 1.1284 4.0529299 3809816
0.65033698 1.1265301 4.0506301 4532759
0.650361 1.12639 4.05059 4532759
0.65662098 1.12669 4.0513301 3875604
0.66340899 1.12578 4.0518699 2035206
0.662696 1.12664 4.0526099 2035205
0.666143 1.1309299 4.0507002 1969928
0.55272698 1.11528 3.9687099 3284501
0.56419802 1.10996 3.96418 4598295
0.57045501 1.10929 3.9642301 3020813
0.57141399 1.1101 3.9640601 2757642
0.634197 1.13396 4.0532598 1838860
0.64055502 1.13387 4.0528698 2824466
0.653539 1.13187 4.0503402 4401431
0.65928602 1.13252 4.0514898 2955276
0.66573501 1.13243 4.0532598 2035463
0.54255801 1.12063 3.9693799 1839118
0.54945302 1.1211801 3.9703701 2035980
0.55624199 1.12064 3.96767 4139035
0.55618 1.1206 3.96768 4139035
0.56092501 1.11624 3.9672201 4795673
0.56301898 1.12151 3.9681699 4795672
0.56784803 1.11585 3.96526 4269847
0.56791699 1.11594 3.9655299 4269847
0.57465798 1.11613 3.96701 2363400
0.581025 1.11761 3.9733 2035466
0.63737601 1.1395 4.0532999 2035467
0.64317298 1.1389199 4.0511799 3678743
0.65087998 1.1376899 4.05126 4532760
0.65637499 1.1387 4.0507698 4007189
0.66243601 1.13837 4.0520802 2166277
0.662709 1.13853 4.05164 2166277
0.66896802 1.1382 4.0535598 1970186
0.54616803 1.12705 3.97188 1904909
0.56010503 1.1269701 3.9684 4598555
0.56005198 1.1269701 3.9685299 4598555
0.56741297 1.12726 3.9677801 4729624
0.56771702 1.12738 3.9677601 4663832
0.57158399 1.12192 3.9672101 3809556
0.579063 1.12272 3.97001 2232330
0.58182698 1.12918 3.97258 2297866
0.63431102 1.14484 4.0527501 1904395
0.640935 1.14614 4.0540199 2890000
0.64671302 1.1444401 4.0496998 4270104
0.65339702 1.14477 4.05124 4401430
0.65947503 1.14438 4.0513301 2955276
0.66579598 1.14449 4.0534601 2166793
0.54979801 1.13278 3.9720199 2101773
0.54953402 1.13266 3.9717801 2101773
0.557307 1.1331 3.9712601 3612951
0.55729902 1.1331 3.9711001 3612951
0.56445903 1.13346 3.9700401 4729881
0.56385499 1.13298 3.96896 4729882
0.564098 1.13311 3.96892 4729881
0.57460701 1.1291 3.96891 3283470
0.58467799 1.1356699 3.97487 2363659
0.63724899 1.15095 4.0535202 2166795
0.643906 1.1517 4.0539899 3678486
0.65027702 1.15065 4.0522099 4467223
0.656578 1.15031 4.0513601 4007189
0.66248101 1.15054 4.0520701 2363655
0.66907299 1.15058 4.05479 2167051
0.55478603 1.1394 3.9746001 2626830
0.55480897 1.13947 3.9745901 2626830
0.56077898 1.13888 3.97207 4270106
0.56086701 1.13896 3.9720399 4270106
0.56191498 1.14122 3.97282 4335899
0.57110399 1.13502 3.9688101 4532760
0.57761103 1.1352299 3.9697001 2888970
0.57755703 1.13467 3.96942 2823434
0.63527602 1.16194 4.0566401 2232844
0.64072502 1.15723 4.0542402 2758416
0.64731199 1.15757 4.0533299 4138776
0.65432203 1.15797 4.05165 4335895
0.659082 1.15678 4.0494399 3283726
0.66636699 1.1567 4.0522099 2363913
0.55911797 1.14736 3.9755099 3152656
0.56520802 1.14693 3.9725599 4598811
0.56791902 1.14095 3.97052 4730137
0.57411897 1.1416 3.9688499 4335381
0.58068198 1.14159 3.9719701 2823177
0.58068699 1.14157 3.9719801 2823177
0.64166099 1.16555 4.0543199 2955536
0.65083998 1.16379 4.0525398 4467225
0.65604502 1.16308 4.0490799 4138262
0.66319001 1.16406 4.0503201 2757641
0.55662203 1.14942 3.97491 2758415
0.56360197 1.14959 3.97451 4401691
0.57073897 1.1490901 3.9715199 4795673
0.583803 1.14774 3.97384 3086092
0.64303797 1.17334 4.0545902 3283986
0.65280497 1.17257 4.0506701 4533018
0.65959001 1.16913 4.0488901 3415055
0.56021798 1.15531 3.9754601 3152656
0.56750798 1.1555901 3.97523 4730140
0.574682 1.1554101 3.97331 4664087
0.574637 1.15523 3.97259 4664087
0.58195102 1.15593 3.9737799 3546126
0.64960098 1.17839 4.0517602 4401434
0.66183603 1.17389 4.0479398 3283726
0.55563301 1.16377 3.9730301 2955795
0.563981 1.16127 3.97616 3875606
0.57135701 1.16141 3.97526 4861466
0.57130098 1.16154 3.97539 4795929
0.57860398 1.1618299 3.97544 4335381
0.585841 1.16309 3.97804 3414542
0.64411801 1.1817501 4.0546598 3612437
0.649517 1.18569 4.0519199 4467227
0.65618998 1.18581 4.0509501 4269590
0.65920401 1.17992 4.0497398 3677969
0.662494 1.18568 4.0492702 3283726
0.56046098 1.16766 3.97419 2889487
0.56803101 1.16794 3.9786799 4401434
0.58247399 1.1681499 3.9774201 4006418
0.58998698 1.17018 3.9837899 3217677
0.64411801 1.1891201 4.0550799 3546901
0.65300101 1.19164 4.05194 4532762
0.66508001 1.19095 4.0478101 3283984
0.57146901 1.17382 3.9795899 4729883
0.57886702 1.17395 3.9785399 4730136
0.57817 1.17348 3.9779899 4730137
0.64484799 1.19666 4.0555902 3678229
0.65054202 1.1962 4.0511599 4401177
0.66430002 1.19663 4.0512199 3349519
0.561423 1.17959 3.98031 2955537
0.56816798 1.17966 3.98084 3809813
0.57488698 1.17945 3.97967 4796186
0.57485098 1.17917 3.9795699 4796186
0.58244997 1.1797 3.9794199 4466965
0.58922702 1.18051 3.98212 3414797
0.642748 1.2062 4.0580301 2889487
0.64789599 1.20259 4.05405 4072984
0.66088998 1.20154 4.0492601 3480590
0.66697103 1.20161 4.0492201 3284241
0.56238401 1.19116 3.98019 2890258
0.56917 1.19104 3.98329 3218191
0.57590598 1.19159 3.9825301 4730650
0.57911497 1.1855299 3.9805501 4796185
0.585778 1.18542 3.9802899 4072466
0.58611703 1.18685 3.9806099 4072466
0.59251797 1.18686 3.98101 3217678
0.59257901 1.18742 3.98577 3283470
0.64778101 1.21021 4.0541201 4007191
0.65309697 1.20675 4.0506501 4467225
0.66398603 1.20728 4.0489702 3283983
0.56601501 1.19725 3.98507 2824208
0.56517202 1.19841 3.9848399 2890001
0.57287401 1.19733 3.9835801 4072984
0.58263302 1.19152 3.9811299 4795929
0.58932 1.19251 3.9813099 3677710
0.58621699 1.1974699 3.98158 4598552
0.64320499 1.2149 4.0569801 2955535
0.65414703 1.2130899 4.0503101 4401433
0.66070402 1.21301 4.0495701 3415054
0.66736799 1.21336 4.0504599 3218448
0.57014298 1.20348 3.9860699 2889742
0.57711101 1.20362 3.9847901 4599067
0.57730401 1.20332 3.98472 4664859
0.58283401 1.20347 3.9832499 4927515
0.58589202 1.1985 3.98247 4730137
0.58983302 1.20371 3.98347 4269332
