# .PCD v0.7 - Point Cloud Data file format
VERSION 0.7
FIELDS x y z rgb
SIZE 4 4 4 4
TYPE F F F U
COUNT 1 1 1 1
WIDTH 1283
HEIGHT 1
VIEWPOINT 0 0 0 1 0 0 0
POINTS 1283
DATA ascii
1.39177 0.055530299 4.2400999 7033924
2.3550799 0.051037502 4.5577898 6770753
2.3618 0.054161701 4.5593901 6375995
2.38061 0.055665702 4.5548201 6967874
-1.28155 0.066748597 3.94573 4471605
-1.2773 0.065861002 3.94649 4602934
-1.27858 0.068870999 3.9679401 4668725
1.1985199 0.060945299 4.20925 6771010
1.3035001 0.057893001 4.2227201 6112825
1.3408 0.061475299 4.2291198 6836547
2.3548601 0.057765301 4.5617499 6704704
2.3580899 0.063573301 4.5619898 6507325
-1.28434 0.074189298 3.9236801 4076591
-1.2855 0.0702319 3.9363899 4340276
-1.28158 0.0705292 3.9465401 4668983
1.20042 0.066823699 4.2124801 6771010
1.29998 0.063367002 4.21136 6836547
2.35429 0.068745203 4.56113 6638911
-1.28614 0.078481898 3.91576 4142128
-1.28415 0.075631998 3.9398 4800570
-0.774773 0.0714323 3.86254 2689859
-0.76087999 0.075143702 3.8613801 1772332
2.3568201 0.071860202 4.5650902 6572862
-1.28897 0.082786597 3.90909 4471350
-0.77866 0.081117898 3.8282499 1770787
-0.77941102 0.076609403 3.85183 3083335
-0.76683003 0.076915197 3.86022 2428222
2.3539 0.077881597 4.5679002 6507581
2.35815 0.083771102 4.5711498 6507837
-1.29131 0.087046698 3.9015 4339764
-0.75787002 0.082609802 3.8615301 2825006
2.3548501 0.089102097 4.57656 6442044
-1.29462 0.092511803 3.8905799 3681577
-1.29251 0.091828398 3.91696 5457986
-0.80088103 0.0895705 3.7887001 1245718
-0.797315 0.090479203 3.7944901 1048853
-0.76788801 0.090811603 3.8343599 2756912
-0.76249999 0.088130802 3.8405199 3415608
1.20263 0.091205701 4.2284298 6902851
2.3419399 0.097449102 4.5701098 6836289
2.35764 0.094467103 4.5791602 6639167
2.3712101 0.095720403 4.5742898 7165253
-1.30024 0.0970667 3.8598299 4076076
-0.81366497 0.096103102 3.77706 1639196
-0.79657501 0.092715502 3.8031001 1114903
-0.78171003 0.093982898 3.82043 1573410
-0.77412999 0.095406398 3.82409 3278395
-0.76809001 0.096485399 3.82934 5245523
1.19113 0.095735498 4.2225099 6902852
2.3367 0.104302 4.5789599 6902083
2.34431 0.104202 4.5775399 6770497
2.35498 0.100648 4.5797601 6704959
2.3622501 0.101035 4.5798001 6902082
2.36659 0.10094 4.5753598 7033669
3.59851 0.1321 5.93225 8085836
-1.31094 0.103029 3.8594899 4602162
-0.80258298 0.101206 3.78914 4392517
-0.80125999 0.103035 3.7976899 5375314
-0.79607898 0.10003 3.8001001 3867710
-0.79247999 0.098323002 3.8129599 2753327
-0.78385901 0.101957 3.8246901 6227552
-0.69014901 0.100236 3.82918 4533822
1.19327 0.10147 4.2260499 6968388
1.19129 0.106636 4.2226701 7099974
2.3373899 0.111433 4.5868402 6902083
2.35816 0.106497 4.57971 6770497
2.3633201 0.106434 4.57686 7033411
3.5489299 0.141155 5.93117 8217165
3.5581701 0.138042 5.9179001 8282701
3.56461 0.138063 5.9278598 8217165
3.5862501 0.135581 5.9193001 8151629
3.59144 0.13410901 5.9274998 8085836
-0.79913598 0.106509 3.8043399 6488930
-0.79157799 0.104685 3.81355 6423649
-0.78428102 0.106953 3.8180499 6816104
-0.75138998 0.104195 3.8058701 7405683
-0.73933798 0.10872 3.8164999 6554470
-0.73426098 0.107602 3.82322 6030686
-0.70788801 0.104119 3.8224199 4724805
-0.68821698 0.108684 3.8140099 4865083
-0.69141102 0.106131 3.8257599 4865085
1.19197 0.112825 4.2295399 7034439
1.20112 0.107541 4.2312698 6837060
1.22163 0.1085 4.2393498 6771013
2.3354399 0.117576 4.5899301 6902082
2.3429201 0.112112 4.5893402 6770497
2.3554299 0.112397 4.58319 6770496
2.3597901 0.118006 4.58073 6968132
2.36184 0.117787 4.5812502 7033668
2.3657401 0.112148 4.5759602 7099460
3.4700799 0.14835501 5.8913202 8414543
3.5111799 0.14445201 5.9311099 8282958
3.5246401 0.149626 5.92172 8677715
3.51685 0.147677 5.9117298 8480337
3.53583 0.148553 5.9281998 8677458
3.5423601 0.144466 5.9267402 8348751
3.5485799 0.150021 5.92202 9927525
3.56687 0.145992 5.9217401 9598560
3.5778301 0.14494701 5.92489 9664609
3.5884099 0.14444 5.9291401 9861732
-0.807082 0.111035 3.78684 6685030
-0.789684 0.109649 3.81551 6946923
-0.69607502 0.113334 3.80358 4996411
1.19225 0.119224 4.2348499 6968645
1.20032 0.118744 4.2358398 6902852
2.33127 0.124698 4.5868402 6902082
2.3619699 0.123476 4.5761499 6967875
2.3622 0.123475 4.5803699 7033668
3.4691501 0.156096 5.9096198 8677716
3.4772699 0.15822899 5.90523 9861733
3.4737699 0.156093 5.9011898 9006680
3.49332 0.153864 5.9095998 9072216
3.50122 0.152417 5.90728 9072216
3.5139201 0.1543 5.91009 10388076
3.5085199 0.150778 5.90732 8940630
3.5211999 0.155001 5.91187 10848627
3.54251 0.15435 5.92062 10979956
3.5552299 0.15600599 5.9238701 10716527
3.5609601 0.151071 5.9238 10650991
3.77016 0.157102 5.9345598 8347462
3.8216901 0.151999 5.9488502 8676683
3.8288701 0.15181801 5.9460201 8676682
-0.79415703 0.117742 3.80653 6946921
-0.78612697 0.11628 3.8041201 6946921
-0.74078703 0.117851 3.81112 5191494
-0.64579701 0.115442 3.8045499 5523777
-0.222302 0.112471 3.7553999 3812390
2.3285999 0.131092 4.5908098 6901825
2.3356099 0.131373 4.5911598 6704703
2.34307 0.13128 4.5872302 6507323
2.35654 0.12896501 4.5854201 6902082
2.35865 0.12872601 4.5755701 6967875
3.5351801 0.162384 5.9222798 9926753
3.5472 0.166549 5.9173198 8939600
3.5548899 0.16512799 5.9210801 8874063
3.56147 0.161411 5.9218402 8939857
3.57885 0.166526 5.9187799 8742220
3.58459 0.16291299 5.9267502 8676427
3.5782101 0.166464 5.9212298 8676683
3.6400599 0.16611101 5.9047699 8939599
3.6964099 0.166163 5.9530301 9070927
3.75016 0.16562501 5.9224401 8215876
3.7602301 0.16694801 5.9203401 8084033
-0.74751002 0.123798 3.80146 5061953
-0.68098801 0.121162 3.7892699 5589059
-0.63351399 0.124401 3.7794499 5325887
2.3256299 0.137234 4.5921998 6836288
2.3329201 0.137291 4.5910101 6638654
2.33989 0.137173 4.5878601 6441531
2.3520601 0.134946 4.58922 6902338
2.3550601 0.13826001 4.59373 6968131
2.3551199 0.134436 4.5757799 6836545
3.5002201 0.168892 5.9081502 9268822
3.5019 0.175548 5.90341 8807755
3.5130601 0.168423 5.9107599 9005392
3.5150299 0.175128 5.9070401 8807755
3.5164299 0.17471801 5.9053998 8807755
3.5325601 0.170387 5.9071398 8808012
3.5265801 0.174288 5.90169 8873804
3.53986 0.16817901 5.9101 8873806
3.56552 0.175584 5.90066 8873805
3.62147 0.17039201 5.91608 8808012
3.6289599 0.17187899 5.9007101 8676426
3.6585701 0.170165 5.9147 8281413
3.6494901 0.170092 5.9089198 8479047
3.6863401 0.170799 5.9342699 8479047
3.6787701 0.170737 5.9309602 8479047
3.6939001 0.17086799 5.9376302 8479047
3.71767 0.175016 5.9313598 8084289
3.74389 0.172011 5.9154201 7952961
3.75336 0.167888 5.9021502 8149827
-0.79309797 0.127979 3.7839301 3475766
-0.78851902 0.127404 3.7824199 3476022
-0.75324303 0.126818 3.7987001 5325378
-0.68380702 0.126257 3.7894399 5589058
-0.64374101 0.12881599 3.7604499 5457472
-0.634314 0.12943 3.7667601 5326143
-0.63450599 0.12965401 3.7716 5326142
-0.588166 0.128943 3.79673 5129020
1.20222 0.13672701 4.2437401 6968389
2.32336 0.143295 4.5952301 6901825
2.3301499 0.143308 4.5928402 6573118
2.3371401 0.143176 4.5896301 6375738
2.3491099 0.140866 4.5927401 6902082
2.3552899 0.14147 4.5962601 7033667
2.35393 0.14072099 4.5871 6967874
3.4722099 0.177287 5.89782 8808014
3.4644301 0.183072 5.88661 9005135
3.4807 0.178746 5.8982 8873805
3.4907601 0.181187 5.8942399 8939084
3.50705 0.179499 5.8983598 8873548
3.54846 0.180931 5.89289 8610376
3.57199 0.180668 5.8858399 8347205
3.5922501 0.183065 5.8843699 8149827
3.59214 0.178294 5.8853998 8347206
3.59214 0.178294 5.8853998 8347206
3.6112599 0.18225899 5.9016299 8215875
3.6205299 0.17643 5.9021301 8413254
3.6191001 0.18239599 5.8864799 8084289
3.62989 0.176774 5.8923202 8084033
3.6300399 0.179851 5.8882298 8018241
3.65241 0.17761301 5.91257 8018497
3.6882801 0.182248 5.88658 8347461
3.7001801 0.17683899 5.8784299 8150339
-0.82544202 0.131735 3.7895601 3343156
-0.762205 0.13604499 3.7855999 5456450
-0.75782001 0.135143 3.77215 5390914
-0.75571603 0.131145 3.7925899 5260097
-0.59343898 0.13003901 3.76126 5457729
-0.58607602 0.130046 3.76214 5260349
-0.58199799 0.135234 3.7865601 4997434
1.19945 0.14261501 4.2497802 6968389
2.32301 0.15051 4.6005402 6704703
2.32024 0.15161701 4.6057901 6836289
2.32039 0.151639 4.60009 6836288
2.33287 0.14903 4.5932999 6375738
2.3400099 0.14892299 4.5935001 6573118
2.3513701 0.1473 4.5995302 6968131
3.4549601 0.19112299 5.8706999 8676168
3.4668701 0.18719199 5.8842702 9005134
3.47844 0.186575 5.8829298 8807755
3.48452 0.19168501 5.87573 8346947
3.4913199 0.186823 5.8703799 8478790
3.5661099 0.18454701 5.8893099 8084032
3.56197 0.189933 5.8761201 8083776
3.5722599 0.19079299 5.88269 8018240
3.5780101 0.184993 5.87674 8018240
3.5836301 0.19029699 5.8681698 8084034
3.6117899 0.18910301 5.8663402 8281668
3.62111 0.191218 5.86238 8215875
3.66942 0.188499 5.8776598 8084289
3.6789601 0.185415 5.8825002 8084289
3.68838 0.188426 5.8783998 8479048
3.67893 0.19151101 5.8733802 8215875
-0.88235098 0.139384 3.7550399 1839383
-0.634547 0.13496999 3.76191 5260349
-0.59296602 0.135178 3.7653201 5391935
-0.57692498 0.13564201 3.76475 5260349
1.20149 0.148323 4.25348 7033925
1.20757 0.14875899 4.2547402 6704962
2.3289399 0.15573999 4.5981798 6309946
2.3359101 0.155718 4.5960498 6573118
2.3431799 0.15298 4.5964799 6836289
2.3464999 0.158632 4.59797 6967875
3.46264 0.193368 5.8789301 8544582
3.4553499 0.199889 5.86976 8412740
3.4742501 0.19625001 5.8668299 8084032
3.4709201 0.194313 5.8727102 8347203
3.54193 0.19814201 5.8557301 8149826
3.55073 0.19832601 5.85461 8215618
3.5594499 0.19580901 5.8590498 8149825
3.56902 0.199237 5.85323 8347206
3.5776501 0.19637001 5.8562598 8149827
3.5859599 0.19361199 5.8585801 8215620
3.60868 0.19277801 5.8702002 8479047
3.62081 0.19863699 5.8508801 8347718
3.63218 0.194361 5.8638 8413511
3.6665001 0.194189 5.8587399 8281668
3.67906 0.19761001 5.8648 8281925
-0.801373 0.142334 3.78549 4865085
-0.74872202 0.141671 3.76577 5062718
-0.74664003 0.14169399 3.78318 5194046
-0.637308 0.140487 3.7588301 5128763
-0.62681401 0.140421 3.76195 5260348
-0.58669502 0.14434101 3.7588699 4931385
2.3115001 0.165629 4.60179 6836289
2.31846 0.16595501 4.6020799 6441531
2.3255999 0.16133399 4.5984902 6441531
2.33601 0.161773 4.5960202 6704960
2.3403101 0.164472 4.5964599 6902339
3.5239799 0.200776 5.8446102 8149825
3.5422101 0.200828 5.8505902 8149826
3.55037 0.202234 5.8532701 8347205
3.5404799 0.206778 5.84554 8215875
3.56075 0.20395599 5.8523402 8281668
3.5617099 0.20182601 5.8524299 8215875
3.58637 0.200019 5.8531098 8347462
3.5776801 0.202462 5.84863 8412999
3.5771401 0.203209 5.8503098 8413255
3.6123199 0.20331401 5.84793 8610890
3.6113999 0.202714 5.8483701 8610890
3.6198399 0.204384 5.8375802 8479304
3.6407499 0.20395499 5.84413 8479561
-0.83383101 0.149527 3.7211101 4141875
-0.831007 0.147165 3.73227 4142132
-0.75463498 0.149563 3.7371399 4931133
-0.75030398 0.150598 3.74966 4865853
-0.74438399 0.146715 3.7509301 4931646
-0.61463302 0.14557 3.75139 5194813
-0.59402102 0.148136 3.7472899 5062971
-0.58459097 0.149276 3.74962 5062971
2.3079801 0.171867 4.6055102 6836288
2.31517 0.17186201 4.6037402 6441530
2.32249 0.171901 4.6031499 6375481
2.3287399 0.16742 4.6029801 6507581
2.3371899 0.170439 4.5996499 6902082
3.54949 0.20846801 5.8422499 8478790
3.5491199 0.214569 5.8320899 8610377
3.5777199 0.209289 5.8435998 8742220
3.6201301 0.210463 5.8299298 8479304
3.62729 0.210398 5.82583 8676940
3.63484 0.210402 5.8231502 8611147
3.75863 0.21094801 5.8198099 8874061
-0.84784698 0.150773 3.7219601 4010290
-0.83244997 0.151651 3.7067499 4076339
-0.825701 0.153528 3.70907 4273717
-0.821293 0.15557399 3.7164099 4470839
-0.65055001 0.153988 3.7140999 4865594
-0.61216801 0.15057001 3.7349 4997435
-0.60664499 0.151807 3.7334199 4931641
-0.60142601 0.150645 3.73858 4931641
-0.59292603 0.154357 3.7255599 4800313
-0.35989201 0.15739 3.8029599 4865848
1.20706 0.16556101 4.2613602 7033928
2.2966101 0.175722 4.5977502 6967874
2.31302 0.17738201 4.6054101 6375738
2.3342199 0.17648301 4.6037402 6967618
3.4082699 0.223396 5.8131499 8412997
3.4163301 0.22004899 5.8141499 8478790
3.4333701 0.22251201 5.8168898 8610376
3.42536 0.222371 5.8099399 8544584
3.44084 0.216434 5.8173399 8544583
3.44662 0.22112601 5.81141 8741962
3.55952 0.217755 5.7948499 8741963
3.5664799 0.22240099 5.79317 8544840
3.57781 0.22286101 5.8017201 8544840
3.57355 0.222313 5.7939801 8544839
3.5829301 0.216933 5.8085499 8676426
3.5998499 0.22117899 5.8118601 8545096
3.6300499 0.21661 5.8218398 8874319
3.6378901 0.216658 5.8201199 8676683
-0.91895002 0.159733 3.7265301 4010545
-0.82798398 0.158729 3.7077301 4405045
-0.82068002 0.16055501 3.7088399 4470838
-0.81169802 0.15688699 3.71328 4470839
-0.81169802 0.15688699 3.71328 4470839
-0.63564199 0.15529899 3.7142799 4734265
-0.58775598 0.155624 3.73244 4865849
-0.57757902 0.156496 3.73191 4800313
-0.35495099 0.16045 3.79895 4799799
-0.34934601 0.1626 3.80128 4931641
-0.34454101 0.160236 3.81391 5457984
-0.329723 0.163519 3.8227799 5062713
-0.326368 0.158649 3.82108 4536884
0.81033099 0.172804 4.1529298 7231303
0.81726003 0.172381 4.1416502 7165767
2.2920799 0.181393 4.5988998 7164996
2.3020401 0.18283799 4.60743 6836031
2.30726 0.18277501 4.6078901 6507323
2.30725 0.18275499 4.60782 6572859
2.29826 0.181554 4.6012802 6967874
3.4163499 0.231031 5.79702 8281668
3.4317999 0.231391 5.7958298 8675912
3.4381199 0.224971 5.8083701 8741962
3.4523799 0.225602 5.7964101 8610376
3.7304201 0.227468 5.7953901 8939599
3.7381301 0.22751801 5.79948 8939600
-0.92239201 0.165098 3.7226601 4142130
-0.90454203 0.16577099 3.6935301 4273460
-0.90463501 0.164538 3.7109301 4142131
-0.88210499 0.16560601 3.70892 4339509
-0.84433597 0.165033 3.6872499 4273461
-0.843885 0.164961 3.68697 4273461
-0.83163399 0.163958 3.70944 4470838
-0.82291198 0.165764 3.70785 4734010
-0.82325 0.165894 3.7079401 4734010
-0.64845598 0.164868 3.7012999 4668474
-0.33292601 0.16833501 3.82375 4997178
-0.210399 0.167575 3.7939899 6311232
0.82023001 0.178207 4.1506901 7165767
2.2980499 0.188289 4.6079202 6836287
2.2920799 0.18776301 4.6022301 7033410
2.2957399 0.193133 4.6079102 6901824
2.30371 0.18824001 4.60922 6572859
2.31672 0.19091 4.61941 6507579
2.31742 0.190308 4.6194601 6573115
2.3102701 0.188096 4.60853 6309944
3.4063201 0.23459899 5.7915602 8281412
3.40746 0.234459 5.7897701 8281412
3.4081299 0.23401999 5.7715802 8347203
3.44627 0.23549899 5.78929 8479048
3.43541 0.237753 5.7839599 8479047
3.45561 0.232953 5.7886701 8478791
3.47611 0.23614 5.7938199 8215619
3.4827001 0.236046 5.7896399 8347205
3.5794201 0.23928501 5.7925901 7952704
3.5847399 0.23339701 5.7980599 8018498
3.5878601 0.23938701 5.79495 7952705
3.7484901 0.236279 5.8064899 8610635
-0.88805401 0.166666 3.69045 4273716
-0.88308001 0.166389 3.6998601 4405302
-0.84723502 0.166151 3.6666901 4339510
-0.84723502 0.166151 3.6666901 4339510
-0.84257698 0.16632199 3.6698799 4339510
-0.84187001 0.168246 3.6907401 4339253
-0.83131802 0.16916101 3.70277 4668474
-0.81280202 0.167385 3.7030799 4931389
-0.70069402 0.16696601 3.71035 4602682
-0.64242101 0.169305 3.6874599 4471095
-0.596789 0.168495 3.7017701 4668984
-0.59121603 0.16851901 3.7039101 4668984
-0.58701497 0.17079701 3.7093101 4471350
-0.55126703 0.165655 3.71629 4602937
-0.34348401 0.16888499 3.7992899 5062971
-0.32519099 0.174215 3.81937 4142383
0.85013902 0.183892 4.1614599 7231560
2.2883201 0.197281 4.6055698 7099203
2.2918501 0.19458701 4.6077499 7033410
2.2955899 0.199857 4.61306 6770238
2.3015599 0.194116 4.61168 6572859
2.29421 0.193481 4.60677 6967617
2.3137801 0.19584399 4.6210699 6507580
2.32934 0.195969 4.6158299 7099203
3.4291 0.24748699 5.7763801 8149825
3.4384899 0.245051 5.7757201 7952703
3.4479001 0.24254 5.7754598 8084033
3.4556401 0.242457 5.7723799 8084032
3.47452 0.241648 5.7734799 8149569
3.4786699 0.242109 5.76651 8215619
3.48153 0.243257 5.75811 8412998
3.60921 0.240996 5.7743402 7558460
3.64308 0.243095 5.7623901 8150341
3.7588401 0.244633 5.7692699 8216133
-0.79619002 0.17377 3.69172 4997182
-0.78865099 0.173796 3.6919601 4734010
-0.343256 0.173866 3.7929201 4799799
-0.33210799 0.178186 3.80405 4668470
0.78404301 0.186636 4.1489201 7033924
1.20816 0.189927 4.2741299 6836804
2.2864001 0.20460799 4.6094699 7033410
2.2936001 0.200378 4.6128402 6836031
2.2916701 0.201362 4.6125398 6901824
2.2885001 0.203493 4.6089501 6967617
2.2938499 0.20686001 4.6164598 6770238
3.42834 0.25420001 5.7541299 8149824
3.47929 0.24944 5.7487001 8347205
3.4749701 0.250126 5.73669 8347205
3.4868 0.25382701 5.7463698 8215363
3.48683 0.247463 5.75284 8412998
3.48054 0.25292799 5.72402 8149827
3.5924101 0.248675 5.78548 7886655
3.63573 0.249984 5.7561598 7689532
3.6501601 0.24773 5.7622099 7952704
3.70456 0.24841601 5.7452202 8084291
3.7121 0.248468 5.7473602 7821119
-0.78876197 0.179593 3.66732 4997182
-0.79189098 0.179309 3.6881101 4734009
-0.573928 0.17748 3.68047 4273971
-0.34465399 0.18150701 3.76759 5063228
-0.343119 0.18069001 3.7828801 4865592
-0.33832499 0.180223 3.79316 4602676
-0.336759 0.183143 3.7890401 4405298
-0.333455 0.18257099 3.7983201 4273456
-0.32856199 0.184488 3.8034799 4010798
-0.31985599 0.182099 3.8343599 2366489
0.80993903 0.192316 4.1441302 6770753
0.82428902 0.192535 4.1541901 6639423
0.84201401 0.194766 4.1593599 6770753
0.84430802 0.192054 4.1640801 7034182
0.85834002 0.194207 4.1735201 7165768
1.20453 0.19995201 4.27001 7099719
1.2128 0.201583 4.2812099 5849911
2.2838399 0.20923001 4.6110501 7033410
2.2880199 0.213875 4.62005 6704702
2.30777 0.207919 4.6270499 6836288
2.6575501 0.216328 4.73596 7428168
2.74648 0.219965 4.78757 6112825
3.3854799 0.26057401 5.7449899 8215619
3.38603 0.26032001 5.74541 8215619
3.44102 0.26124799 5.7137399 8215875
3.45136 0.25995001 5.7325001 8347462
3.4570301 0.256926 5.7293801 8347206
3.4579899 0.26163301 5.7165098 8281413
3.4582701 0.26143199 5.7161899 8281413
3.46066 0.25748599 5.7028699 8281413
3.4607699 0.25772899 5.7029099 8281412
3.48353 0.26097599 5.7233601 7886654
3.4998901 0.262151 5.7346001 7820862
3.5074201 0.26022801 5.73945 7886655
3.67869 0.26107499 5.7185202 7952706
3.69783 0.25835499 5.7234998 8084548
3.7058301 0.256138 5.7277799 7886912
-0.78227401 0.184955 3.6666999 4668474
-0.528009 0.184769 3.6865699 4668985
-0.52417701 0.185314 3.6893301 4734777
-0.341656 0.18464901 3.7756701 4865849
-0.341497 0.184641 3.7739899 4800055
-0.33762899 0.187133 3.7769301 4471347
-0.33744699 0.18704 3.7765701 4471347
-0.339876 0.187373 3.7828901 4471091
-0.33549699 0.18963601 3.7885699 3813163
-0.334328 0.18689699 3.7922599 3878955
0.79958498 0.201804 4.14568 7033925
0.80353498 0.19969299 4.1443901 6968388
0.86159801 0.19914401 4.1784301 7231304
2.28229 0.21702801 4.61624 6967617
2.30496 0.21980301 4.6223102 7033410
2.6368999 0.22235 4.7168698 7559499
2.65183 0.221802 4.7304802 7493962
2.65962 0.22155499 4.7360902 7559755
2.67312 0.221439 4.7504902 7362633
2.68732 0.22292399 4.7519202 7493708
2.7436399 0.22252201 4.7757101 7691084
2.7488899 0.22476099 4.7744799 6441531
3.4092901 0.26921901 5.7315402 8281669
3.41978 0.26818201 5.7287898 8216133
3.4281299 0.26412201 5.7158999 8281669
3.4256899 0.26723799 5.7123199 8150083
3.43575 0.26417699 5.7179098 8215618
3.43729 0.266745 5.6938601 7952704
3.4484701 0.26502699 5.7121201 8084033
3.4586799 0.267425 5.70965 7952448
3.4869001 0.26795101 5.7293901 7689276
3.4918101 0.26404899 5.7286701 7755069
3.50739 0.26666901 5.7333002 7623483
3.6834199 0.26752201 5.7147102 8084290
3.6828699 0.26801199 5.7155299 8018498
3.69138 0.26624501 5.7136598 7886655
3.7058301 0.26233399 5.7207899 7689533
-0.78109401 0.190099 3.65927 4536887
-0.54347599 0.190723 3.6783199 4537143
-0.34039301 0.19167601 3.7641301 4931641
-0.33851701 0.191679 3.77106 4734263
-0.33436099 0.19392399 3.7766199 3879212
-0.32826599 0.19187 3.8043399 3155490
0.801153 0.207376 4.1452999 7165510
0.805345 0.20549899 4.1452398 7034182
0.82562 0.205017 4.1568298 7099716
0.849253 0.207922 4.1655898 6902339
0.86182898 0.205562 4.1784701 7165511
2.2829199 0.224604 4.6230602 6836288
2.3092501 0.224997 4.6293898 7164997
2.6047399 0.22598299 4.7181802 7494219
2.6203899 0.227446 4.71697 7691085
2.6203899 0.227446 4.71697 7691085
2.6270101 0.22754 4.7199502 7625549
2.65008 0.228671 4.7406702 7560012
2.7021201 0.22985099 4.7582598 7362124
2.74037 0.23034699 4.7725701 10059375
3.41977 0.27453899 5.71907 7952961
3.42767 0.27340201 5.7112699 7952704
3.4353099 0.27035701 5.7104802 7952704
3.45119 0.271458 5.7143502 7886654
3.4576399 0.27626199 5.6731901 8018496
3.6759601 0.27158701 5.72088 7557947
-0.84633201 0.19479799 3.6397901 4076594
-0.840312 0.192178 3.6407101 4010544
-0.53096902 0.191339 3.68837 4931643
-0.52406198 0.19274101 3.6925199 4865850
-0.521703 0.196824 3.69842 4800057
-0.422838 0.19465201 3.6677899 4734521
-0.339288 0.196237 3.74948 5128764
-0.33657801 0.19768 3.7569499 4865848
-0.336458 0.197602 3.75703 4865592
-0.33211601 0.19858 3.7634001 4076333
-0.33034399 0.196187 3.7825899 3352869
-0.31981701 0.19966599 3.77827 2826783
0.81917 0.21183001 4.1609402 7165510
0.82601798 0.21172 4.1626902 7231303
2.2555599 0.234348 4.6176801 7099202
2.2829299 0.227863 4.6184301 6967617
2.29076 0.23426799 4.6182899 7099204
2.2981601 0.228356 4.6185002 7099204
2.5209501 0.23567601 4.69244 7230790
2.5250399 0.230767 4.6886001 7164996
2.52299 0.23532 4.6859198 7231047
2.51525 0.23583201 4.6766901 7296583
2.5364101 0.23233099 4.6970901 7296583
2.53196 0.237432 4.6971698 7296840
2.5307801 0.230983 4.6935 7164996
2.5408199 0.232989 4.7012801 7362376
2.5503199 0.237887 4.7087002 7493962
2.5620201 0.23704199 4.7203898 7493963
2.5568399 0.236734 4.71735 7493962
2.58606 0.23849 4.7276201 7756880
3.4057701 0.285106 5.6818099 8084289
3.4365101 0.28428701 5.68047 8150083
3.44819 0.283793 5.6786199 8215619
3.67904 0.27869201 5.71139 7557947
-0.84595197 0.20014299 3.63552 4207922
-0.53902602 0.1972 3.6774199 4800315
-0.402953 0.198543 3.6819501 4668471
-0.392088 0.19897901 3.68207 4734263
-0.397174 0.19712199 3.70415 4865849
-0.39574701 0.197576 3.7023599 4865849
-0.38378501 0.201904 3.7226801 5063227
-0.335336 0.202489 3.7502201 4865592
-0.33429801 0.20039099 3.73983 5062972
-0.331047 0.20358101 3.75669 4076590
-0.32675499 0.205542 3.77704 2958625
0.81905502 0.216657 4.1560798 7165767
0.85524499 0.21697199 4.1691098 7231560
2.2509799 0.240771 4.62079 7230788
2.29475 0.241436 4.6266599 7362118
2.2979701 0.23466399 4.6192698 7164997
2.5204401 0.24042 4.68572 7427913
2.74704 0.242073 4.7560902 7625291
2.75565 0.24258 4.75035 6770238
3.29809 0.289873 5.6528602 8018497
3.3982601 0.28684101 5.6946301 7952704
3.40206 0.29051399 5.69698 8215875
3.40574 0.29383999 5.6810002 8412997
3.4120901 0.289354 5.6773 8215618
-0.84592199 0.20121901 3.63112 4207922
-0.81941497 0.203206 3.6294899 4931901
-0.428693 0.20448001 3.6461401 4997434
-0.423051 0.204493 3.6482401 5128763
-0.415171 0.20155001 3.6711099 4865850
-0.409881 0.20299301 3.6769199 4931642
-0.403225 0.20370901 3.6809599 4931642
-0.39397901 0.204083 3.68153 4931385
-0.384177 0.20710801 3.72067 5128763
-0.33204699 0.20525201 3.74052 4734264
-0.33221701 0.209114 3.7485099 4536628
-0.33086801 0.20547 3.7547901 4142127
-0.327236 0.2095 3.77052 3155747
1.91167 0.242276 4.5170398 6902079
2.25456 0.246372 4.6233802 7099202
2.25682 0.241524 4.6237402 7033409
2.4886401 0.248826 4.7035398 7493963
2.5248301 0.245518 4.7097602 7428171
2.57672 0.24645901 4.7348299 7888467
2.6688001 0.248072 4.74786 13020318
2.7216499 0.25008801 4.7639799 8809308
3.2949901 0.295977 5.64923 8150340
3.2890301 0.29729399 5.6455798 8150340
3.3945301 0.29519299 5.7044902 8412997
3.4029901 0.30131799 5.69875 8479046
3.4126899 0.29823101 5.6788998 8478790
3.41746 0.29400501 5.6619802 8347204
-0.42597699 0.20967799 3.6465001 5194812
-0.416834 0.208803 3.66676 5260349
-0.41029999 0.210035 3.67015 5260349
-0.407309 0.20687599 3.6784 5063227
-0.404618 0.21091101 3.6828699 5260349
-0.39869899 0.21188501 3.68291 5194812
-0.32860801 0.212255 3.75372 4010541
-0.325077 0.216718 3.7744801 2563867
1.22053 0.236807 4.30301 4994603
1.9038301 0.24690101 4.5157199 7099202
1.9110301 0.24679901 4.5147099 6836543
2.25144 0.25166401 4.62289 7164996
2.3703101 0.253362 4.6888199 7164999
2.50404 0.253885 4.7141099 7625550
2.5150499 0.255858 4.7182002 7296330
2.5483699 0.253048 4.7228799 6309434
2.5709701 0.259431 4.7244 12559768
2.6751201 0.25773299 4.7431002 7098947
2.6789 0.25450301 4.74967 8349014
2.68836 0.25956601 4.73739 6572603
2.69366 0.25725001 4.7389102 6572604
2.7053101 0.25465399 4.75699 7032898
2.71819 0.25756899 4.7490001 6967105
2.71825 0.25717601 4.74687 7032897
2.7312701 0.255512 4.7674599 6967362
3.2822499 0.30834499 5.6364698 8610891
3.29212 0.30350199 5.6464601 8413512
3.30266 0.30666801 5.6450701 8413512
3.2989399 0.30124801 5.6470199 8216134
3.31462 0.30479401 5.6437201 8281926
3.31762 0.308083 5.6342602 8676427
3.3250999 0.30828801 5.6380801 8676683
3.32619 0.30213401 5.6311002 8479305
3.4017799 0.31013599 5.7103601 8479303
3.4107201 0.30904099 5.6877098 8610632
3.4129801 0.30478099 5.6619802 8544583
-0.42448601 0.214342 3.6526599 5326142
-0.418993 0.216216 3.66505 5457726
-0.42048299 0.21154501 3.6589601 5260605
-0.41469201 0.213131 3.6678901 5326142
-0.408216 0.214159 3.67606 5326141
-0.33533299 0.21893799 3.7456901 4273713
-0.33533299 0.21893799 3.7456901 4273713
-0.32800499 0.221178 3.76984 2826525
1.8986 0.250251 4.5112901 7164995
1.90283 0.25169599 4.5140901 7099202
1.90686 0.25295201 4.5162802 6967616
2.25332 0.25746301 4.6268101 7033667
2.35502 0.264166 4.6859899 7362377
2.38922 0.262321 4.6859198 7560012
2.3954999 0.26199901 4.68471 7625549
2.40148 0.261989 4.68505 7625549
2.6285701 0.261022 4.7364702 8151379
2.64218 0.26506901 4.7312999 7033154
2.6744299 0.260748 4.7315998 6901567
2.6794 0.26115701 4.73528 6769982
3.2795401 0.313041 5.6350799 8676684
3.2779701 0.30897301 5.6384602 8610891
3.2748499 0.31339601 5.6370802 8611148
3.2886 0.30881599 5.6398001 8676685
3.29511 0.30880499 5.6416202 8676940
3.30235 0.31186101 5.6366501 8479306
3.3118899 0.30831099 5.6360302 8545097
3.31182 0.31418401 5.6309299 8874063
3.3275199 0.31365499 5.6328602 8874062
3.40082 0.31662601 5.69555 8808012
3.40713 0.31471899 5.6466198 8742475
-0.84750903 0.215911 3.6148601 4734266
-0.84287202 0.216961 3.6231699 4931644
-0.84289199 0.21791001 3.6135299 4800060
-0.71669102 0.215029 3.59916 4274228
-0.42248499 0.218738 3.65415 5523520
-0.41793799 0.22157601 3.6660399 5589312
-0.41260499 0.217489 3.6693399 5457470
-0.38520601 0.220796 3.6774199 5786435
-0.37175399 0.219797 3.6987 5918020
-0.33124599 0.22383299 3.7333901 4142126
-0.32761899 0.223529 3.7552199 3155233
-0.32870701 0.22456799 3.77862 2234902
1.90453 0.25863501 4.51897 6967616
1.91141 0.25867999 4.5172801 6967616
2.27421 0.26818201 4.6413202 7231048
2.3099201 0.27079001 4.66957 7493707
2.3078101 0.264954 4.66504 7362634
2.3144801 0.264979 4.6687598 7362377
2.32265 0.26497999 4.6659198 7296584
2.39904 0.267151 4.68718 8151637
2.6147101 0.268509 4.7181401 6967362
3.1791101 0.324056 5.6243901 8019270
3.1888599 0.32188401 5.6110501 8019269
3.1888599 0.32188401 5.6110501 8019269
3.1989999 0.320353 5.6143699 8085063
3.2974701 0.32053101 5.63415 8808271
3.30234 0.31713 5.6294599 8742477
3.3095901 0.31946501 5.6169701 9071442
3.3304701 0.32025799 5.6360502 9005648
3.4186001 0.32071999 5.6269698 8808269
-0.83925802 0.225242 3.6085899 4668730
-0.84139299 0.224489 3.6252999 4602680
-0.43162501 0.223683 3.65028 5589056
-0.43484899 0.220809 3.6443999 5391934
-0.427775 0.226263 3.6513801 5720642
-0.41269401 0.22267701 3.6677999 5655105
-0.41098201 0.225079 3.6624501 5720898
-0.40746 0.223777 3.66957 5655105
-0.400832 0.224856 3.6731601 5720897
-0.38860899 0.226138 3.67519 5720641
-0.35396701 0.22889499 3.7082601 5194555
-0.329896 0.22814199 3.75037 3220769
-0.21587101 0.23231199 3.82265 4600875
2.2601099 0.27627701 4.6446099 7164998
2.2985599 0.27728501 4.6713901 7625550
2.31073 0.272807 4.67732 7493963
2.31688 0.27273101 4.6777902 7559500
3.1722901 0.32933801 5.6247902 8216392
3.1803701 0.328702 5.60042 8348491
3.47981 0.32189101 5.5805502 8413254
-0.84651297 0.227883 3.60641 4800058
-0.83868998 0.228506 3.6306 4668472
-0.611682 0.22825 3.6438401 4931901
-0.59324801 0.226413 3.5988801 4602937
-0.447896 0.22877499 3.64535 5523520
-0.431685 0.22767 3.64324 5523520
-0.43005899 0.23088101 3.6531701 5720899
-0.42391101 0.22882301 3.6524501 5852228
-0.40654299 0.228652 3.6624601 5852227
-0.402208 0.229993 3.6696501 5918020
-0.38759401 0.232456 3.6672299 5983812
-0.33624601 0.236233 3.7637401 2497816
-0.21346 0.23747601 3.8302901 6179391
2.0411999 0.27240399 4.5498199 7362632
2.1846299 0.27604899 4.6242299 7296584
2.1880701 0.27948901 4.6346102 7296585
2.2009599 0.27870399 4.6407599 7362377
2.29426 0.281124 4.67308 7888722
2.29812 0.28204 4.67454 8086101
2.50144 0.283748 4.6967902 6638911
2.5184801 0.28163999 4.7064199 6967619
3.1705 0.332048 5.5910902 8348235
-0.834638 0.232186 3.5999999 4471093
-0.74067801 0.232476 3.59777 4339766
-0.60768998 0.231795 3.6351199 4997693
-0.44013 0.23427901 3.6388199 5720641
-0.426007 0.233367 3.6528599 5918020
-0.41810599 0.23362499 3.6602399 6049606
-0.41112801 0.23449001 3.6637499 5983813
-0.40191299 0.23511501 3.66366 6049606
-0.39317501 0.23552699 3.6642101 6115399
-0.34882 0.243521 3.76125 2760475
2.18169 0.28432801 4.6345301 7428170
2.1918399 0.28475201 4.6440902 7428171
2.28743 0.28697199 4.6731601 7822930
2.2895501 0.285429 4.66996 7954516
2.4700799 0.28586799 4.6914401 6769725
-0.74861503 0.237185 3.5957601 4471350
-0.72560197 0.234861 3.5952301 4931643
-0.56558001 0.242337 3.6735001 5194813
-0.406223 0.23856001 3.6560099 6180935
-0.40144199 0.24012201 3.65748 6181191
-0.389451 0.239694 3.6673801 6246727
-0.389451 0.239694 3.6673801 6246727
-0.213228 0.253703 3.83934 6311234
2.1166899 0.293742 4.6342301 7625548
2.1228099 0.29423299 4.6333899 7625805
2.1231 0.29035401 4.6381698 7559755
2.41238 0.298383 4.6836801 7033412
-0.75954098 0.24507999 3.59373 4471094
-0.75269401 0.24504 3.5947001 4602680
-0.456159 0.244546 3.6242299 6115399
-0.44766101 0.244121 3.6247799 6049349
-0.44192299 0.24440899 3.63234 5983556
-0.435534 0.245986 3.6327 5983299
-0.425367 0.24326099 3.64522 6180935
-0.39537999 0.247595 3.68118 6444105
2.05896 0.296821 4.61309 7625805
2.0627201 0.29835999 4.6156101 7691597
2.1043 0.29788399 4.6268802 7625805
2.11094 0.29797399 4.62925 7757134
2.1760199 0.29707801 4.6300602 7954259
2.33551 0.30236 4.6661301 7230278
2.3781199 0.30480501 4.6729598 7033413
2.42981 0.30246201 4.6916299 6836806
2.4343801 0.30494899 4.68749 4666410
2.5025301 0.303395 4.7090402 2430737
3.37655 0.35272899 5.5430799 8939598
-0.76163101 0.246686 3.5622499 4931900
-0.757649 0.2455 3.57493 4800057
-0.74358398 0.248945 3.6078601 5326400
-0.57778299 0.24519899 3.5853 5194814
-0.56792003 0.24619 3.6013801 5128763
-0.44738799 0.249689 3.6300199 5983813
-0.44148901 0.249294 3.6361499 5983556
-0.43649399 0.25099999 3.63167 6049348
-0.43111199 0.24745201 3.6398301 6312264
-0.39582899 0.25339201 3.6913099 6312520
-0.36482999 0.25808999 3.7676001 2760476
1.8675801 0.30424899 4.5441499 7033667
2.0027499 0.30085599 4.5815601 7362376
2.0260999 0.30398399 4.6022 7559756
2.03315 0.30733201 4.60042 7822928
2.0387001 0.30693299 4.6013598 7823185
2.32146 0.30976799 4.6698098 7230534
2.33829 0.307964 4.66609 7098949
2.3668699 0.30857199 4.6740198 7033671
3.23718 0.364346 5.4896402 8874062
3.25126 0.36178601 5.5209899 9005904
3.39324 0.361417 5.5562701 8347718
3.3775301 0.35942501 5.5330601 8479049
-0.87478697 0.25354299 3.60654 4800059
-0.76282501 0.24732199 3.5455799 4668474
-0.75954199 0.25008401 3.57338 4997437
-0.75553399 0.25288701 3.57496 5063229
-0.56819099 0.25016201 3.5910499 5128764
-0.56470197 0.25290099 3.5961599 5391678
-0.469574 0.25470701 3.61941 6378313
-0.43831101 0.25588301 3.63322 6180678
-0.425699 0.253683 3.6391599 6575435
-0.425735 0.25306001 3.6391699 6509643
1.2024699 0.29756299 4.3280201 7296841
2.02267 0.30826101 4.5941501 7757391
2.0280199 0.30825499 4.5968199 7757392
2.0502801 0.31296 4.6037302 8415066
2.31738 0.31544501 4.6703601 7099205
2.3392799 0.31370199 4.6711602 7034184
2.3320701 0.31364101 4.6684699 7034184
2.34568 0.31334901 4.66682 6639685
2.3534901 0.31698999 4.6759601 4140323
2.36129 0.31736901 4.6793599 3285273
2.36917 0.31248099 4.6778598 5915963
2.3857801 0.31929699 4.6855998 1378823
2.3924501 0.31897801 4.68927 1707529
2.39626 0.31333101 4.6880002 2890772
2.3991399 0.319098 4.69173 1575944
3.25631 0.370792 5.5040202 8676683
3.28197 0.37195101 5.4972901 8610634
3.3273599 0.36967999 5.5349698 8347462
-0.761298 0.254711 3.5717399 5194559
-0.56608802 0.25829101 3.58042 5325885
-0.56048101 0.25935599 3.5915501 5655106
-0.56227201 0.26348799 3.68051 5983556
-0.434122 0.25785801 3.6349101 6378057
-0.41374299 0.26664901 3.7386899 4470832
-0.39918 0.26826099 3.7562599 3352354
-0.39096099 0.26914901 3.7602401 3089439
-0.214232 0.272861 3.8479099 5916219
2.01983 0.31634799 4.5968699 8152150
2.1747799 0.31932801 4.63134 7559499
2.2397201 0.32380101 4.6433802 6967618
2.26949 0.32053399 4.6519198 7033669
2.2842801 0.32100299 4.6610298 7033670
2.32306 0.31933501 4.6654801 5192496
2.32815 0.32068899 4.6708498 3876894
2.3606 0.324981 4.6763101 1445386
2.3673201 0.32405999 4.6810098 1444873
2.6607499 0.35973999 5.17308 1511689
2.6585901 0.35337701 5.1691499 1051910
2.6681199 0.35972399 5.17658 5588537
2.6659901 0.35337701 5.1728601 4799536
2.6732199 0.35327601 5.1752901 6376765
2.6728699 0.35336101 5.1763701 6376765
3.23596 0.37546501 5.4837999 8413767
3.3851299 0.37822899 5.4897499 8479048
-0.97858799 0.266763 3.60535 5852740
-0.635234 0.264034 3.5688701 5589570
-0.56125098 0.263091 3.6019599 5983813
-0.47523099 0.26534501 3.6238301 6510155
-0.470386 0.26729801 3.6231699 6312520
-0.46937299 0.262261 3.6241701 6378313
1.22832 0.31082201 4.3456898 7034182
1.94677 0.32366699 4.5688801 6771012
2.12395 0.32614699 4.6152401 7493963
2.24665 0.326516 4.6489501 6836291
2.2792799 0.3272 4.6641898 4863532
2.29615 0.32729301 4.6575899 2364173
2.3019199 0.33030599 4.6570401 1641737
2.3438399 0.33002201 4.6763401 1708043
2.65573 0.36629501 5.17625 986376
2.6632099 0.366272 5.17733 2827033
2.6705401 0.366234 5.17946 6048573
3.1479001 0.37810901 5.4419498 8939855
3.2316401 0.38125601 5.4762702 8413511
3.3397 0.38339201 5.4797001 8347718
3.38902 0.38169199 5.4798598 8545097
3.3982601 0.382346 5.49155 8479047
-0.678886 0.26399201 3.56023 5983814
-0.56169999 0.26485401 3.5803499 5786691
-0.553509 0.26616201 3.5767 5983813
-0.47836199 0.269656 3.6178401 6641485
-0.461997 0.26812801 3.6244199 6115141
2.0835199 0.32908499 4.6021099 7559501
2.1751599 0.333051 4.6325598 6968135
2.20087 0.33500999 4.6383801 5652532
2.2460101 0.337194 4.6567602 1903879
2.2497101 0.33214301 4.6518002 3350551
2.2967601 0.33171099 4.6499801 1641481
2.3094201 0.33208999 4.6511202 1444874
2.6527901 0.373364 5.1815801 920840
2.6586699 0.37257299 5.1793299 1117447
2.66607 0.37253699 5.1814699 4734001
3.1359701 0.38771701 5.4418101 8742476
3.3243001 0.39063099 5.4703898 8281669
3.3946199 0.38771799 5.4812198 8742476
3.4377601 0.388634 5.49297 8874063
-0.84920001 0.27048799 3.5708201 5194813
-0.85020101 0.27060801 3.5734999 5194813
-0.562581 0.26953101 3.5746601 5786691
-0.55503201 0.27093199 3.5725901 5852227
-0.54979497 0.27246001 3.5764401 6180935
-0.54984498 0.272708 3.5762501 6180935
-0.43329 0.28656101 3.7502999 3286560
1.16571 0.32570201 4.3437901 7296839
1.20594 0.321183 4.3404298 7231304
1.22839 0.32275099 4.35464 7033926
1.78629 0.337001 4.5230298 7428425
2.0450001 0.33721 4.5880699 7427657
2.0817101 0.339095 4.60532 7033413
2.1071999 0.341153 4.62112 6638912
2.1519001 0.34208 4.6327701 5718841
2.66149 0.37883899 5.1831398 1840398
2.6626599 0.379049 5.1833701 2563863
2.6555901 0.37915301 5.1814599 986120
2.6691301 0.378723 5.1844401 5785659
2.67628 0.37829101 5.1810699 6244923
3.1406801 0.39472499 5.4503999 8347462
3.41238 0.398191 5.4509802 8611148
3.43767 0.39962599 5.4773698 8742477
3.4194 0.39822701 5.4548001 8611147
3.41853 0.39807999 5.4516001 8611147
3.4562099 0.39462799 5.4689202 9005392
-0.55166698 0.27728999 3.57234 6180678
-0.475528 0.28494799 3.68133 5457212
1.20192 0.32763499 4.3435302 7296840
1.20789 0.327425 4.34478 7296584
1.77898 0.337006 4.5204701 7428425
1.81262 0.33775401 4.5300102 7297097
2.0179901 0.34691101 4.5838799 7033412
2.0473001 0.34261599 4.5906801 7164486
2.08354 0.34563401 4.6127801 6968134
2.1488299 0.34834799 4.6314902 1904138
2.16503 0.34984401 4.6319599 1641739
2.21825 0.351428 4.6771598 3940883
2.2130401 0.35380399 4.6760201 4598554
2.6508801 0.385463 5.1823902 855304
2.66747 0.391563 5.1904202 5259830
2.65804 0.38541099 5.1849499 985862
2.66452 0.385189 5.1870699 3813414
2.66519 0.385355 5.18748 4207915
2.6647999 0.385252 5.1869998 3945000
2.66785 0.391651 5.1905899 5391159
2.6724 0.38512501 5.1886501 6113851
2.67693 0.39172101 5.1941299 6310459
3.4130299 0.403521 5.4418702 8479561
-0.85117 0.28154901 3.5650599 5983557
-0.73845601 0.281501 3.56481 6181192
-0.47903201 0.288605 3.67766 5259834
-0.47764701 0.28949901 3.67996 4931126
-0.47224 0.28952199 3.6801701 4733747
1.16741 0.33439499 4.3381801 7231047
1.1732 0.334295 4.3392801 7296838
1.17275 0.33622301 4.3291001 7231046
1.18028 0.33518699 4.3401499 7362632
1.9691 0.349879 4.5804901 7033153
1.96198 0.346645 4.5592899 6967618
2.0318301 0.34845999 4.5915799 7033413
2.0520501 0.351033 4.6030898 6902599
2.0501001 0.350106 4.6005998 6836549
2.1514499 0.35403699 4.63412 1576202
2.1959 0.36024299 4.6735301 1641737
2.20294 0.360131 4.6752501 2561549
2.2058499 0.353688 4.6729598 3810072
2.22809 0.35756201 4.6855001 2429706
2.6554501 0.398316 5.191 986376
2.6528499 0.39201099 5.1875601 920841
2.6628301 0.39821801 5.1933799 2563606
2.66308 0.39824399 5.1937399 2695448
2.6605699 0.391785 5.1890302 1380104
2.67032 0.39809299 5.1949301 5785402
2.6709399 0.398112 5.1943998 5850938
2.6768401 0.39778301 5.1926398 6179129
3.27777 0.41388601 5.4590001 8676941
3.3436 0.411973 5.4186201 8479049
-0.818183 0.28657001 3.55618 6904401
-0.50664902 0.28585199 3.5827899 6180935
-0.47470599 0.29414701 3.6789999 4404783
-0.474794 0.29416701 3.67908 4404783
1.17662 0.33839601 4.34023 7231046
1.17287 0.34144399 4.3384199 7230789
1.87543 0.357896 4.5506902 7164742
1.9557 0.359844 4.5716801 6902083
1.9669501 0.354689 4.5776701 6901825
2.0172701 0.35513601 4.5943398 7099721
2.01104 0.355497 4.5889702 7099721
2.02566 0.355416 4.5960302 6902600
2.1914799 0.366712 4.6804399 1510410
2.19821 0.366106 4.6765299 1707530
2.2040999 0.364692 4.6779399 2627086
2.2108901 0.36451599 4.6789899 4401690
2.65801 0.40473801 5.19522 1051654
2.67223 0.407204 5.2026701 5982522
2.6656301 0.404704 5.1977801 4339243
2.6733999 0.40464899 5.1999202 6048058
3.3349299 0.421884 5.4156799 8413256
3.34444 0.41823 5.4198599 8611149
3.35619 0.42025101 5.4228802 9137236
3.36853 0.41692701 5.4355798 8808271
3.4136901 0.418598 5.4227099 8545098
-0.50173402 0.29202199 3.5778301 5720385
-0.49583399 0.30056399 3.66289 4733747
-0.48243299 0.30003399 3.66278 4273198
1.8612 0.363002 4.5395699 6901824
2.1941199 0.37253299 4.6837101 1576459
2.1938 0.37259999 4.68367 1576459
2.2007899 0.37207499 4.6812 1707786
2.2063401 0.37048501 4.6801901 2758671
2.21383 0.37043801 4.6807899 4401688
2.22417 0.37343401 4.68431 4269332
2.6537099 0.41170999 5.2023401 986377
2.66062 0.411185 5.19945 1511690
2.6684599 0.411167 5.2019801 5457208
2.67047 0.41207701 5.20119 5785658
2.67523 0.41049501 5.1970501 6113593
3.2680199 0.423814 5.4116201 8742734
3.28262 0.42367199 5.4005899 8742477
3.3000901 0.42451701 5.4043598 8479307
-0.58200002 0.296904 3.5394101 5655105
-0.51349699 0.29568601 3.5736001 5588798
-0.49103299 0.30351201 3.65658 4010282
-0.47528899 0.30322799 3.65254 3681318
1.20068 0.35296601 4.3586202 7297095
1.81203 0.36847001 4.5348701 7296070
1.90595 0.369499 4.5594401 6902598
1.91717 0.367165 4.5686302 6836803
2.1967101 0.37852201 4.6884999 1576459
2.2063301 0.37895799 4.68541 2364172
2.2120399 0.381733 4.6874099 3547157
2.65573 0.41772401 5.2016702 1051656
2.66348 0.41764599 5.2035198 3287329
2.6665299 0.418623 5.20432 4931124
3.25719 0.433658 5.3769302 8742221
3.2878599 0.43141899 5.39148 8545099
3.2962201 0.43234399 5.3811798 8347721
3.3047199 0.43351901 5.3808198 7887426
3.31213 0.430944 5.3865299 8019012
3.3678501 0.43327799 5.3914099 8677199
-0.62406099 0.29708999 3.5054801 6312777
-0.61823499 0.295623 3.5082901 6312777
-0.60946399 0.300145 3.51105 5983556
-0.61378199 0.29782799 3.50966 6115398
-0.58368301 0.29633099 3.50735 5918020
-0.56863701 0.301321 3.5448201 5457726
-0.56443602 0.30332899 3.5509601 5391676
1.76896 0.37122101 4.5176201 7757133
1.78712 0.37472999 4.5338802 7164739
1.79877 0.37256601 4.5317402 7164740
1.89661 0.37295601 4.5574899 6508100
1.90262 0.37485 4.5545001 4205860
2.2086501 0.38466999 4.6882601 2495501
2.2152801 0.387835 4.6912098 3875863
2.65222 0.424822 5.2084599 1051656
2.65869 0.42425099 5.20576 1182727
2.6617 0.42529199 5.2077498 2037263
2.6673701 0.42502099 5.2072701 5194038
2.6754301 0.424936 5.2067699 5982008
3.2659299 0.43766201 5.3593202 8676684
3.2973499 0.43909901 5.3790898 8545354
3.31141 0.436445 5.3787198 8479819
-1.02046 0.308844 3.5322299 7035986
-0.98983097 0.30941701 3.53511 7102035
-0.97441101 0.30652201 3.5445299 7167572
-0.61255699 0.30523199 3.51512 5654849
-0.58845401 0.30467999 3.5292699 5457469
-0.557639 0.304447 3.5515599 5194298
-0.54861599 0.30504799 3.5478201 4930870
1.20411 0.37057301 4.36414 7231047
1.76851 0.37728301 4.51717 7164483
2.2047 0.39335701 4.69315 1839115
2.2154601 0.39488301 4.69449 3481365
2.22244 0.390912 4.6942902 4664343
2.65255 0.43860701 5.2125602 1117448
2.65504 0.43189901 5.21487 1182984
2.66028 0.43899599 5.2164698 1642762
2.66167 0.43149999 5.21099 2103312
2.66699 0.43855199 5.2143002 5128245
2.6675501 0.43847799 5.2164302 5325623
2.66486 0.43176201 5.2119899 4076073
2.67102 0.43155399 5.2101598 5719608
3.2672901 0.44452301 5.3508501 8544842
3.3009801 0.44670901 5.3736501 8742734
-1.0391099 0.310938 3.5123799 6838864
-1.01299 0.31227899 3.5292001 6773070
-0.77982002 0.30728301 3.5109799 6707022
-0.77911103 0.30714399 3.50842 6509900
-0.76260501 0.31007901 3.50442 6246728
-0.612876 0.307165 3.5084901 5391677
-0.608419 0.309273 3.50913 5128249
-0.59948701 0.30757001 3.5278201 5391676
-0.58404702 0.30858499 3.53863 5062456
-0.57736701 0.31005499 3.5390899 4799798
1.6542701 0.38599801 4.4795299 7625034
1.6867 0.387779 4.4980698 7032898
1.82917 0.38524801 4.5373702 4074018
2.20696 0.39948601 4.6979299 1707786
2.2195301 0.40200499 4.6988902 3876119
2.6552899 0.44513801 5.2163701 1314570
2.66276 0.44507 5.2174501 3023899
2.6700599 0.445124 5.22118 5851195
3.0565701 0.45482299 5.35144 5190690
3.06373 0.455057 5.3497601 4467226
3.2932401 0.45202401 5.3452401 8282183
3.30334 0.45551899 5.3495498 8084804
-1.00841 0.31607601 3.51758 6312264
-0.93587297 0.31948099 3.53302 6509900
-0.935215 0.318921 3.53844 6575436
-0.78033799 0.31211501 3.5053 6312265
-0.64692402 0.31217599 3.5003099 5128249
-0.623941 0.31264499 3.50686 4931126
-0.61368001 0.31139401 3.5025799 4865333
-0.60926098 0.31362799 3.50367 4602162
-0.59022897 0.31682199 3.53827 4338991
-0.58154202 0.31547999 3.5431001 4338991
-0.57386702 0.31661299 3.5467601 4141868
-0.53628099 0.318239 3.55914 3418147
1.43727 0.38565901 4.4435201 7428425
1.64992 0.39332101 4.4862099 7164483
1.75723 0.39185801 4.5250802 6968393
2.2097199 0.405359 4.7010899 2036236
2.2153499 0.40811801 4.7014899 2495757
2.2226801 0.40828401 4.7041998 4072984
2.65815 0.45131099 5.2175298 1511690
2.6653299 0.45146501 5.2215199 4602415
2.6728699 0.45131201 5.2206898 5916472
3.0384099 0.462147 5.3394198 7624257
3.04866 0.45755699 5.34692 7427135
3.05673 0.45967501 5.3421798 6703413
3.0645399 0.461826 5.33922 4993311
3.0731299 0.46327901 5.3347998 4598553
-2.2242501 0.35525 3.87201 6968903
-1.01164 0.319507 3.5047801 5851969
-0.94474602 0.32052401 3.5093901 6246728
-0.75035203 0.31637201 3.46595 5654592
-0.74507201 0.317581 3.49367 5523006
-0.69533497 0.31938899 3.5041699 4996919
-0.66642201 0.32074699 3.50207 4470834
-0.61727798 0.31900999 3.50387 4141611
-0.58202702 0.323127 3.54354 3549731
-0.57386202 0.32259801 3.5517099 3549476
-0.566046 0.32387599 3.55883 3286560
-0.558806 0.32373899 3.5596399 3286560
-0.54966003 0.32196799 3.56002 3154718
1.70091 0.39609799 4.5105901 6902598
1.70558 0.401499 4.50985 4995376
1.70807 0.39606199 4.5102 7034184
1.73245 0.39813101 4.5149598 4666667
1.80716 0.39781499 4.52843 1707275
2.2084701 0.41693401 4.7017598 2036237
2.20543 0.41120201 4.7015901 1905422
2.2186401 0.41410699 4.7046199 2824207
2.21472 0.416832 4.7041101 2232843
2.21263 0.41115299 4.7028899 2101772
2.66043 0.45804 5.2225099 1840140
2.66787 0.457863 5.2254801 5325622
2.68554 0.457984 5.2284198 6375992
3.0316601 0.465969 5.3291602 7887170
3.0643401 0.46695501 5.3298502 6571570
3.06493 0.46619701 5.3294001 6571570
3.06511 0.470254 5.3268499 7163449
3.0759399 0.468972 5.3372502 5650469
3.08181 0.467006 5.3384399 5979432
3.0889201 0.470799 5.3361602 7228983
-0.93843901 0.32321 3.5064099 6115142
-0.64145601 0.32347801 3.49493 3747112
-0.62828201 0.32001299 3.4928401 3944490
-0.62025499 0.320416 3.4969699 3878953
-0.61136597 0.32313499 3.5151801 3878440
-0.60399097 0.32687801 3.53509 3352352
-0.58815497 0.32824001 3.5381 3089181
1.69757 0.40811101 4.50775 1904393
2.2169399 0.422703 4.7072802 2364428
2.21433 0.42012799 4.70647 2167308
2.22176 0.42015299 4.7082801 3218706
2.22349 0.42117101 4.7090402 3612949
2.6549301 0.46463299 5.2273798 1708813
2.6626501 0.464544 5.2277799 2958362
2.67135 0.46449399 5.2271399 5785400
2.6881199 0.46553299 5.2403898 6441530
3.0113201 0.47491899 5.3250999 8018241
3.0643899 0.47153699 5.3222599 7360827
3.0734999 0.47129601 5.3218198 6834485
3.08183 0.47211999 5.3306198 6966069
3.0868199 0.47521999 5.3200798 7689534
3.0857301 0.476246 5.3137102 7755071
3.1305399 0.47329 5.2891202 7886654
3.14449 0.469726 5.2803898 7755325
3.1312101 0.468557 5.2672801 7886655
3.1537399 0.47196299 5.2753401 7492153
-2.24473 0.36852601 3.8654399 6442560
-0.70071101 0.32706401 3.4744599 3812647
-0.69296199 0.32911599 3.4969001 3747112
-0.67383099 0.32674801 3.4911301 3681319
-0.65215898 0.325789 3.4969201 3681319
-0.623568 0.325885 3.4943299 3089439
-0.61785501 0.328417 3.4965401 2694681
-0.59210497 0.32561299 3.49577 2760216
1.20472 0.399739 4.3787899 7231304
1.22938 0.40178201 4.3951602 7296840
2.21299 0.42883199 4.70962 2101772
2.2275901 0.42749 4.7121701 4072984
2.66764 0.471347 5.2308102 5457207
2.6669099 0.47537699 5.2313499 5588793
2.76457 0.47624701 5.26757 6375739
2.9141099 0.48365599 5.32166 7690050
3.1139801 0.476448 5.2900801 8018241
3.1119699 0.476468 5.2786002 7952447
3.12272 0.478118 5.2822199 7820861
3.12747 0.48046499 5.2732701 7755069
3.1347301 0.47474 5.2739601 7755069
3.1424601 0.47736901 5.2691898 7360567
-2.26861 0.37502399 3.8657999 6705732
-0.72075897 0.33151999 3.45069 3221024
-0.713247 0.32928801 3.45806 3483940
-0.69720697 0.33198401 3.4631801 3089182
-0.69690299 0.33373699 3.4893999 3221025
-0.66017801 0.334598 3.4987299 2497303
-0.66072398 0.334429 3.49454 2628632
-0.61870199 0.32966301 3.4865799 2629144
1.2299401 0.41289401 4.39817 7494220
1.2380199 0.412864 4.4019799 7494218
1.28326 0.41258401 4.4249902 7560526
1.51676 0.41298601 4.4630899 6967103
1.5241899 0.41289899 4.46351 6704188
2.21524 0.43382999 4.7160301 2298893
2.2234099 0.43396601 4.71663 2824464
2.21697 0.43373901 4.7121501 2364430
2.22738 0.439529 4.7164698 3350292
2.9295101 0.48827001 5.3032198 7952191
3.1049099 0.48415199 5.2650299 7755069
3.11479 0.485145 5.27039 7755068
3.12271 0.48305401 5.2745099 7755068
3.1175499 0.486175 5.2642298 7623739
3.1245999 0.48498201 5.2609301 7491897
3.1320801 0.48288101 5.2644801 7491896
-0.71656901 0.33342099 3.4552901 3089438
-0.71310103 0.335457 3.4614601 2957596
-0.70963198 0.333345 3.4647999 3154974
-0.69404101 0.336128 3.4849801 3023645
-0.69404101 0.336128 3.4849801 3023645
1.20534 0.41777399 4.3877602 7362636
1.22914 0.42015901 4.4047098 7494477
2.2191801 0.439726 4.71591 2430223
2.24562 0.44219199 4.7309299 3283983
2.8188601 0.49295399 5.28824 7755843
2.8348801 0.49629799 5.29949 8084292
3.1077099 0.49064299 5.2583199 7623483
