# .PCD v0.7 - Point Cloud Data file format
VERSION 0.7
FIELDS x y z rgb
SIZE 4 4 4 4
TYPE F F F U
COUNT 1 1 1 1
WIDTH 1387
HEIGHT 1
VIEWPOINT 0 0 0 1 0 0 0
POINTS 1387
DATA ascii
1.322 3.44242 11.65 7829621
1.3322999 3.4438701 11.6574 7500658
1.36905 3.45596 11.6982 1973290
1.38711 3.45064 11.6975 2759976
1.4040101 3.4586699 11.7193 3808561
1.5383199 3.4782701 11.7964 3807787
1.5556 3.47805 11.8103 3876146
1.5800101 3.4977 11.853 3614516
1.60978 3.49652 11.88 5788502
1.6059 3.5051501 11.8722 4668228
1.62528 3.5063601 11.894 5591123
1.63155 3.5004301 11.8956 6512735
1.62968 3.5088699 11.9041 5854293
1.64191 3.51073 11.9099 6577757
1.6411999 3.5165701 11.9125 6183259
1.6537 3.5177901 11.9166 7300706
1.67316 3.5305099 11.9546 8944752
1.6793 3.5179801 11.9403 9601908
1.69835 3.5281401 11.977 10194307
2.8072901 3.7717299 12.863 9010544
2.83255 3.7892301 12.9088 9733494
2.85255 3.79778 12.9354 10720388
2.8668201 3.8013799 12.9478 11378575
-0.62679201 3.1025701 10.2705 11050131
-0.63897598 3.10484 10.2749 11050905
-0.62106901 3.11132 10.2863 11181716
1.2849 3.44714 11.6253 7962238
1.2946301 3.4507 11.6388 7962238
1.3081 3.4476399 11.6363 7896701
1.3085999 3.4466801 11.639 7962237
1.33248 3.45344 11.645 6119267
1.33661 3.4467001 11.6498 6448489
1.34382 3.4530301 11.6602 3947844
1.3552999 3.44962 11.6606 2763573
1.3681901 3.4637699 11.6805 1841195
1.39733 3.4690001 11.713 3413289
1.43859 3.4749999 11.7284 5053751
1.4677 3.4809699 11.7533 4396849
1.4718601 3.4818201 11.7685 4396332
1.49242 3.4876599 11.7782 3937322
1.52587 3.49561 11.7964 3412261
1.5897501 3.51316 11.8723 3744048
1.60015 3.5225699 11.8828 3940916
1.61597 3.51579 11.8928 4603465
1.62677 3.52478 11.8968 4470079
1.65273 3.5243499 11.9197 6905694
1.66111 3.5264399 11.9162 7759971
1.66395 3.53282 11.9279 7891299
1.67935 3.5372 11.9467 9404274
1.68925 3.53824 11.9651 9930617
1.69563 3.5388899 11.9514 9931134
2.82813 3.8055601 12.9172 9470323
2.8484199 3.80233 12.9266 10588803
2.88556 3.8004501 12.9142 12034951
1.28553 3.4585199 11.6108 7962240
1.29623 3.4620299 11.6267 7830139
1.30667 3.4606099 11.6326 7500660
1.31959 3.4565699 11.6368 7237746
1.31936 3.4572001 11.6438 7369331
1.3322901 3.4635999 11.6341 3158588
1.3338799 3.4609301 11.6399 3816517
1.34448 3.46229 11.6465 2105389
1.34453 3.4616001 11.6452 2105389
1.359 3.46014 11.6567 1709862
1.40806 3.4763401 11.7042 3610156
1.40727 3.47646 11.7023 3479083
1.41985 3.47645 11.7086 4003886
1.45075 3.48628 11.7289 2822180
1.46304 3.48943 11.7362 2428451
1.50001 3.50159 11.7913 2953511
1.5307 3.5127699 11.8103 3150888
1.64244 3.5304699 11.9038 5390921
1.65408 3.5380099 11.9099 6179406
1.67079 3.5381401 11.9358 8614504
1.69052 3.5529301 11.9554 9798517
2.80566 3.82019 12.92 8945784
2.8357601 3.81898 12.9163 9996408
2.85903 3.8210199 12.9409 11443854
2.87516 3.819 12.9292 11903627
2.8964801 3.79283 12.8935 12101258
2.8910301 3.81866 12.9316 12034434
2.90184 3.82376 12.946 12233361
3.07353 3.5724699 12.3721 12035467
3.53126 3.32376 11.8702 3880244
-0.60979497 3.09587 10.2111 11115923
-0.62705302 3.13324 10.2814 10984594
-0.60685098 3.1306901 10.2731 11313045
0.36390999 3.2768199 10.897 8943465
1.24918 3.4705501 11.6041 7962239
1.30758 3.4693301 11.6181 5527389
1.31797 3.4698801 11.634 4672082
1.33333 3.47211 11.6262 1514284
1.34566 3.4693601 11.6392 1447717
1.35692 3.4721701 11.651 1447205
1.35811 3.4704399 11.6541 1512998
1.39793 3.48579 11.6855 1839652
1.41524 3.4870801 11.7 2232869
1.42721 3.4885001 11.7097 2298148
1.43926 3.48682 11.7178 2560036
1.4852901 3.50633 11.7782 1838627
1.49374 3.51404 11.7868 1773089
1.5096 3.50899 11.7801 2495013
2.8497601 3.83287 12.9286 10851200
2.8654699 3.8373699 12.9416 11574921
2.8631899 3.83832 12.9427 11377026
3.08041 3.58584 12.3727 11969931
3.54179 3.3352599 11.8639 3683636
3.5567901 3.3301401 11.8591 3158063
-0.613527 3.1335199 10.2752 11181716
0.36174399 3.2915599 10.8965 9075051
0.35494801 3.28567 10.9064 9337966
1.24417 3.4582601 11.551 7962238
1.26951 3.4734001 11.6012 7566452
1.28432 3.4695499 11.5972 7304571
1.29568 3.4755399 11.6176 6054247
1.3212399 3.4758401 11.615 1580077
1.3364201 3.4793999 11.6269 1316394
1.35821 3.47946 11.6399 1381671
1.40721 3.4925101 11.6712 1118241
1.44604 3.4867301 11.6768 1117472
1.45192 3.4971199 11.7158 1052193
1.45575 3.5030701 11.7323 987173
1.46803 3.5134799 11.7358 790819
1.4680001 3.5134399 11.7356 790819
1.5017 3.52473 11.7841 1445665
1.52124 3.5206101 11.7793 2035490
1.54926 3.53336 11.8132 2297634
1.57201 3.5336201 11.8359 3544361
1.57792 3.53722 11.8238 3413032
2.79948 3.83881 12.903 9141873
2.8183999 3.84392 12.9263 9274492
2.82956 3.8392 12.9178 9667701
2.8434501 3.83673 12.9181 10522492
2.8357999 3.84076 12.9329 9997955
2.8573999 3.8518801 12.9341 11311749
2.87343 3.8373201 12.9295 11903627
2.8731699 3.83706 12.9285 11903627
3.07548 3.5999501 12.3725 12101260
3.5336399 3.3496499 11.8604 3880759
3.5490699 3.34989 11.8696 3552051
-0.60211098 3.1395199 10.2513 11247509
-0.616458 3.14661 10.2617 11115924
0.36843801 3.2971201 10.8899 8746343
1.24303 3.47015 11.5435 7763573
1.2515 3.4821899 11.5919 7765119
1.25144 3.48248 11.5928 7765119
1.25144 3.48248 11.5928 7765119
1.28485 3.48684 11.6063 2895673
1.29431 3.4830201 11.5956 1712687
1.30767 3.48435 11.6067 1186090
1.33637 3.48682 11.6094 1185066
1.5293 3.52969 11.7823 1510943
1.53846 3.54194 11.8011 1314593
1.56024 3.54193 11.8229 2166561
2.8278201 3.8554101 12.9217 9602682
2.8421099 3.85358 12.9222 10391164
2.8381801 3.85167 12.9146 10193787
2.8714499 3.85357 12.9408 11639938
2.8760099 3.85144 12.9178 12035212
3.5397699 3.36378 11.8632 3814966
3.5548201 3.3638599 11.8714 3486002
0.37853199 3.3082199 10.9114 8154209
0.80020899 3.38078 11.1803 8422018
0.800228 3.3806701 11.1799 8422018
0.81058198 3.3836401 11.1926 8487554
0.831626 3.37813 11.1825 8487554
0.82402998 3.3814099 11.1887 8487554
0.85162401 3.3826799 11.2009 8421245
0.87606102 3.3799601 11.1989 8421245
0.91109198 3.37028 11.1747 8421761
0.92802399 3.3699801 11.1881 8554119
0.93235999 3.3868201 11.2218 8487553
0.95392001 3.40376 11.2878 8487810
1.21636 3.4725101 11.5344 7896446
1.25175 3.4879899 11.5665 5726055
1.26494 3.4949999 11.5932 2765631
1.29941 3.4972401 11.5994 1054248
1.3102601 3.4994299 11.6155 1119529
1.3868001 3.5176499 11.6619 1118497
2.7711799 3.84357 12.8324 9207925
2.8357899 3.8666601 12.9153 10127994
2.8494101 3.86606 12.922 10982785
2.86533 3.86695 12.9349 11640199
2.8768201 3.8719299 12.9386 12102295
3.5376401 3.3773799 11.8695 3880759
3.54793 3.3759999 11.8646 3683380
-0.59354502 3.14995 10.2331 11313301
-0.57990199 3.1500101 10.2301 11444886
0.32194301 3.3460801 10.9523 10522751
0.33762401 3.3450999 10.9461 9930359
0.367192 3.31091 10.8808 8877928
0.35015199 3.34045 10.9278 9535344
0.80930299 3.39428 11.1803 8290690
0.83892 3.38869 11.1899 8289917
0.91747802 3.3896501 11.204 8355969
0.918832 3.3919401 11.2111 8355453
0.95188999 3.42504 11.2911 8290689
1.19542 3.4834199 11.5012 7961209
1.20654 3.4835 11.5114 7895673
1.21743 3.4846699 11.5249 7896446
1.23127 3.4792299 11.5198 7698810
1.24224 3.4809401 11.5329 6711404
1.26384 3.49423 11.5469 1515051
1.2778 3.5006101 11.5803 1054245
1.37561 3.51735 11.6496 1249826
2.7578399 3.8427701 12.8194 9142388
2.8281901 3.8794999 12.9061 9866626
2.84429 3.8803401 12.9166 10654079
2.85815 3.8799801 12.9229 11443335
2.8728299 3.87556 12.9046 12035212
3.65394 3.4173801 11.9657 2369578
3.6975901 3.41365 11.9711 2500645
-0.587843 3.1602399 10.2194 11313301
0.33081201 3.35759 10.9459 10325115
0.340159 3.35902 10.958 9798514
0.816984 3.3922 11.1743 8225153
0.82705998 3.39624 11.1846 8159105
0.84683597 3.4003699 11.2015 7829881
0.85465503 3.4124999 11.2148 6843761
0.87077498 3.39661 11.1966 7763830
0.87686902 3.4144599 11.2234 6975089
0.89344102 3.42028 11.2416 7238780
0.907067 3.4095299 11.2209 7566710
0.92062002 3.41029 11.2308 7764088
0.94142598 3.4236701 11.279 8225670
0.95448703 3.4373901 11.2972 7632241
0.96460003 3.4362099 11.3035 8224897
0.98775601 3.4324601 11.317 8487037
1.0061899 3.4337699 11.3211 8552828
1.20763 3.49473 11.4995 7829882
1.2297601 3.4965799 11.5245 6185579
1.24049 3.49874 11.5407 4343375
1.25307 3.4932001 11.532 2303538
1.27687 3.50471 11.548 1119526
1.28874 3.5143499 11.5775 1185065
1.37625 3.52841 11.6372 1118240
1.38743 3.5287001 11.6495 921375
1.40223 3.50857 11.6002 921892
1.71437 3.62532 11.9755 10325890
2.7639201 3.8629899 12.8298 9339767
2.77756 3.8640499 12.8439 9339767
2.82393 3.8933699 12.9067 9735041
2.8522799 3.8938301 12.9151 11114628
2.8612101 3.8944199 12.921 11574920
2.8755801 3.89429 12.9267 12035729
3.53912 3.38658 11.8533 3880758
3.5534201 3.38692 11.8587 3486258
3.5665801 3.38678 11.8604 3157806
3.67011 3.4128499 11.9382 2633006
3.6808 3.40891 11.9485 2435628
3.70906 3.4236801 11.9764 2106146
-0.57847202 3.1656301 10.2273 11444886
-0.57528502 3.1812999 10.2452 11445145
0.32326701 3.3710001 10.9481 10588287
0.337722 3.3715701 10.9459 10061944
0.75474101 3.42641 11.2022 8422537
0.825486 3.4109499 11.1886 7173242
0.84180301 3.4183099 11.2025 5660262
0.862679 3.4240401 11.2261 5660006
0.88457298 3.43432 11.2452 5791593
0.939574 3.4303401 11.2603 7107188
0.939574 3.4303401 11.2603 7107188
0.96956998 3.4421301 11.2813 6844276
0.96826398 3.4459701 11.2922 6844276
0.98056602 3.44451 11.2929 7172468
0.99129999 3.4390299 11.294 7895673
1.00372 3.4458499 11.3147 8224122
1.02941 3.4323599 11.296 8487036
1.0476 3.4367199 11.3023 8487552
1.03722 3.44502 11.3083 8289915
1.0625401 3.4440501 11.3222 8487036
1.1566499 3.49369 11.4566 8224121
1.2003599 3.49684 11.4774 7764089
1.21734 3.5116301 11.5146 4473678
1.25293 3.50372 11.5179 1513512
1.26394 3.5049 11.5303 1316390
1.41488 3.5155399 11.5871 725027
1.71391 3.6389999 11.976 10325116
2.7447901 3.87607 12.8019 9339251
2.75841 3.8771999 12.815 9536372
2.77233 3.87674 12.8322 9602682
2.7883101 3.8792601 12.8485 9537406
2.8239601 3.90412 12.9055 9864823
2.8356199 3.9024501 12.9049 10325115
2.84794 3.9042101 12.907 10917250
2.86079 3.90785 12.9158 11574919
2.8698399 3.9078 12.9211 11772298
2.8716199 3.8943901 12.9025 11969419
2.8806601 3.9054699 12.9153 12166797
3.54672 3.3970399 11.8491 3683380
3.5618601 3.39768 11.856 3289136
3.65416 3.4279301 11.9502 2632492
3.6802299 3.4249899 11.9441 2895665
3.69415 3.4300001 11.9637 2566184
-0.58721203 3.1763401 10.2216 11379612
-0.56810302 3.19491 10.2567 11708574
0.331651 3.38308 10.9431 10325372
0.71599102 3.43401 11.1931 8554121
0.75766897 3.43401 11.1814 7699328
0.767295 3.4393001 11.2022 7305602
0.82924098 3.4233999 11.1886 4543587
0.86159003 3.4484701 11.2475 3490128
0.914994 3.4524601 11.2764 4213076
0.929353 3.45455 11.2823 4147540
0.94261098 3.4502699 11.2692 4214364
0.97685498 3.45526 11.2842 4870748
0.99838698 3.45348 11.3015 7106932
1.02697 3.45346 11.3149 8027001
1.04137 3.45434 11.3017 7501172
1.03097 3.46417 11.3194 7106674
1.05967 3.46137 11.3215 7961465
1.0713201 3.45402 11.3318 8355707
1.14613 3.50494 11.4542 8356224
1.17063 3.5006399 11.4469 8093051
1.17834 3.4997699 11.4588 8159102
1.18902 3.49967 11.4721 7895157
1.20698 3.5079701 11.4944 6249567
1.20781 3.51122 11.4945 5591382
1.21793 3.50841 11.5049 4539471
1.21929 3.5073099 11.4976 4210247
1.2531199 3.5159299 11.5087 1644073
1.26438 3.51595 11.5176 1447207
1.2738 3.5174401 11.5296 1316137
1.29629 3.51685 11.5375 1119271
1.4173599 3.52723 11.5746 724770
1.4285901 3.5281 11.5872 724770
2.7309899 3.8606501 12.7422 9208698
2.7332101 3.8633299 12.7582 9207925
2.87306 3.9138601 12.9217 11903627
2.8791399 3.9095399 12.9117 12166796
2.88095 3.9096 12.9081 12166797
2.8912201 3.91346 12.9109 12364174
3.5394499 3.40853 11.8424 3946552
3.5552399 3.40888 11.8496 3552051
3.56743 3.40835 11.8495 3289135
3.6452999 3.43905 11.9309 3027249
3.7054501 3.4370799 11.9613 2040096
-0.60648698 3.19642 10.2381 11050387
-0.59693301 3.1972699 10.2369 11247252
-0.58025402 3.1905301 10.2319 11511196
-0.57272398 3.19788 10.243 11576988
-0.56076998 3.19752 10.2528 11774366
0.327261 3.39272 10.9356 10522751
0.71985799 3.44381 11.1781 8554121
0.73298401 3.4430101 11.1887 8290174
0.84953803 3.44314 11.2129 2305854
0.87322497 3.45859 11.2441 2370360
0.89296103 3.45521 11.2332 2369846
0.88442397 3.4574499 11.2533 2831168
0.927953 3.4605801 11.272 2898247
0.95049101 3.4626901 11.2823 3094854
0.948327 3.4672799 11.2835 2765633
0.964818 3.4563301 11.2828 4147027
0.96435797 3.45696 11.284 4081490
0.97658598 3.45539 11.2833 4804955
0.98483598 3.46878 11.2909 3489098
0.98458898 3.4693401 11.2922 3423562
0.99618 3.46826 11.3 4607576
0.99603897 3.4684801 11.3006 4607576
1.00673 3.4690499 11.3122 5857384
1.03159 3.4632199 11.3108 6843759
1.04896 3.46679 11.3126 6646639
1.06879 3.4720299 11.3336 7829881
1.07985 3.4759099 11.3408 8158330
1.1780601 3.51244 11.4539 7960949
1.1890301 3.5116799 11.4675 7631730
1.20688 3.5186 11.4815 4011582
1.21026 3.52161 11.4818 3287604
1.21795 3.5191 11.4922 2827055
1.22831 3.5227799 11.5126 2235437
1.2649 3.52683 11.5042 1447209
1.43963 3.55354 11.6234 986400
1.70574 3.65697 11.9544 9864570
2.7300899 3.8907299 12.7715 9339511
2.74317 3.8910601 12.7879 9471096
2.7563701 3.8907001 12.8025 9602681
2.82829 3.9237299 12.8987 10062200
2.8399601 3.9219699 12.8976 10522493
2.8534801 3.9209399 12.8963 11311749
2.8531899 3.9170201 12.8955 11311749
2.8757501 3.92537 12.9235 12035212
3.5348599 3.42065 11.8435 4012603
3.54704 3.42009 11.8414 3749430
3.5469201 3.4195399 11.8397 3749430
3.56128 3.41996 11.8449 3420465
3.57321 3.4193299 11.8439 3158064
3.67502 3.4405501 11.9338 3422009
3.6755099 3.44189 11.9374 3422009
3.6909101 3.4486799 11.9625 2500392
-0.581559 3.2077401 10.2459 11379093
-0.58648098 3.2285199 10.2718 11445404
-0.57312399 3.2223599 10.2787 11642782
0.30456001 3.4005001 10.9305 11050131
0.318028 3.3991899 10.9262 10785667
0.33869401 3.3970201 10.942 10062200
0.42628601 3.38134 10.93 8750211
0.72180998 3.4546001 11.1667 8093569
0.73336703 3.4462299 11.1595 7961985
0.733464 3.4534199 11.1769 7697779
0.75100499 3.4482501 11.1667 6647157
0.74743003 3.4445 11.16 7173243
0.76062 3.45029 11.1866 5464172
0.85110497 3.4544001 11.2029 1383468
0.858428 3.4646699 11.2435 1712175
0.904926 3.4696801 11.2467 1711403
0.94889802 3.4704499 11.256 2040626
0.937419 3.46824 11.27 2304568
0.97221297 3.47314 11.2961 2963013
0.97208101 3.47365 11.2963 2897221
0.98080897 3.4828 11.2964 2172726
1.0073299 3.47926 11.2993 3488840
1.01799 3.47998 11.3111 4476248
1.02238 3.47804 11.3195 5199713
1.03865 3.47523 11.319 5397347
1.04453 3.48578 11.3196 4213334
1.05683 3.4791501 11.324 6054762
1.06585 3.49038 11.3367 6449005
1.07718 3.4930899 11.3439 7764088
1.16828 3.51548 11.4469 8093051
1.17796 3.52441 11.4469 7434351
1.18857 3.5229101 11.4584 6184030
1.19949 3.52244 11.4699 4406853
1.20573 3.53021 11.4716 3089970
1.22306 3.53297 11.4868 2366511
1.30154 3.5283 11.4884 855838
1.4305201 3.5392301 11.5724 986401
1.61947 3.64259 11.8746 2888229
1.6401 3.6607201 11.8969 3937064
2.74071 3.90657 12.7816 9536889
2.82529 3.93876 12.8968 10128251
2.81654 3.9440401 12.9165 9931905
2.81654 3.9440401 12.9165 9931905
2.83516 3.93595 12.8905 10390906
2.8476 3.93611 12.8896 10982785
2.8583601 3.93121 12.8862 11509127
2.88785 3.94121 12.9027 12363919
3.10097 3.6932399 12.3566 11444106
3.5395801 3.4309101 11.8327 3881015
3.5397999 3.43033 11.8313 3881015
3.5538001 3.4302199 11.8349 3552307
3.5697601 3.43132 11.8442 3157806
3.68256 3.4563401 11.9429 2829355
-0.60886103 3.2226601 10.2471 10984595
-0.61428797 3.2346101 10.2583 10852494
-0.57856297 3.23511 10.2828 11642525
-0.57109898 3.2375 10.2786 11708062
0.31246299 3.4100599 10.921 10851717
0.34384599 3.41155 10.9473 9864565
0.721021 3.4667799 11.1627 7106934
0.74579799 3.4575701 11.1579 5594729
0.75850201 3.4581599 11.1621 4017758
0.774643 3.46139 11.1883 2768205
0.92697698 3.46468 11.2315 1711402
0.99592698 3.4798501 11.2906 2501433
1.0273499 3.4902699 11.3182 3621454
1.05398 3.4981699 11.3281 3555918
1.1573 3.5181201 11.4154 8289917
1.16728 3.5265 11.4367 7961466
1.22393 3.5459199 11.4889 1906472
1.2373101 3.5357599 11.4687 1578278
1.29608 3.55422 11.5201 593696
1.4342099 3.5657899 11.6023 1641762
1.54533 3.63446 11.7992 1576736
1.55347 3.63345 11.7822 1510944
1.55347 3.63345 11.7822 1510944
1.62596 3.6591201 11.8852 2822693
1.71628 3.70015 11.9862 10260097
2.7448499 3.90572 12.7773 9602938
2.7570801 3.91997 12.785 9931645
2.8408101 3.9492099 12.8787 10654076
2.83355 3.95151 12.8902 10390906
2.8706701 3.95608 12.9098 11773329
2.8945401 3.94014 12.8878 12430744
2.8945401 3.94014 12.8878 12430228
3.5434401 3.4402699 11.8206 3749686
3.5482199 3.4421999 11.829 3683892
3.5470099 3.44116 11.8278 3683893
3.56005 3.44151 11.8302 3354928
3.5647399 3.4428999 11.8371 3223599
3.5833299 3.4451699 11.8559 2960427
3.6755199 3.46504 11.9288 3092525
-0.60617 3.24141 10.2692 11049874
0.31929699 3.4215701 10.9205 10984337
0.69907498 3.4646101 11.1476 8355968
0.71000499 3.4679 11.1535 7830140
0.73037201 3.4794199 11.1741 4477536
0.75295401 3.46843 11.1561 3359832
0.76828998 3.4727299 11.1626 1912382
0.78911901 3.47192 11.1879 1385522
0.85913402 3.4486101 11.1427 1381927
0.85492599 3.45718 11.1685 1381927
1.0635099 3.5076699 11.3373 4607833
1.0761 3.5090699 11.3447 7304053
1.16732 3.53794 11.4283 7500917
1.17945 3.5388999 11.4333 5723481
1.178 3.5357699 11.4382 6381665
1.1903501 3.54002 11.4467 4078145
1.20208 3.5409901 11.4609 3221814
1.2131 3.5446899 11.4749 2432301
1.22282 3.55989 11.4867 1447208
1.23474 3.55866 11.492 1119014
1.23673 3.5553401 11.4855 1119014
1.28889 3.57042 11.5308 724252
1.28935 3.5707901 11.5312 724252
1.54185 3.6405699 11.7659 1708325
1.63225 3.6736701 11.8916 2429218
2.6473501 3.9611499 12.8275 9338736
2.66874 3.9373 12.7726 9274234
2.7449601 3.9402001 12.8211 9800834
2.8422501 3.9667201 12.8883 10523265
2.87813 3.9551699 12.8975 12035985
3.1103401 3.70876 12.3505 9076593
3.55689 3.45453 11.8304 3420977
3.5764201 3.4459701 11.8403 2960942
3.6756201 3.47802 11.9216 2829354
-0.56913 3.25475 10.2734 11774886
0.684035 3.47752 11.1293 8554379
0.69661099 3.47715 11.1315 8159364
0.69890302 3.47454 11.1355 8027518
0.70980901 3.47842 11.1444 6383470
0.71961898 3.4787199 11.1574 5397349
0.79042298 3.48383 11.1782 1054758
0.98380202 3.51089 11.2901 2692903
1.16496 3.54813 11.4168 7105644
1.20143 3.5552499 11.4619 2696498
1.21052 3.5548501 11.4519 1973293
1.25012 3.56616 11.4814 659749
1.2822599 3.58658 11.5405 920861
1.54956 3.6410301 11.7487 1576993
1.6432 3.6835799 11.8876 2692391
1.63472 3.6972201 11.8966 1708836
1.7186199 3.7202799 11.9851 10259841
2.6823299 3.9312401 12.7583 9340026
2.7609401 3.9477301 12.8075 10063230
2.8538599 3.9607401 12.8691 11312003
2.86851 3.96684 12.8822 11707534
2.8786199 3.96734 12.8755 12101777
3.5400801 3.4530399 11.8165 3881015
3.5374899 3.4523201 11.8146 3947066
3.56424 3.4586899 11.8305 3223599
3.57795 3.4735601 11.8639 2895408
-0.56656301 3.2690499 10.2714 11642525
0.66612798 3.4853401 11.129 8619915
0.691733 3.4904699 11.1348 7896191
0.70425498 3.48965 11.1356 6252400
0.72013599 3.48823 11.1458 3489870
0.731318 3.4912601 11.1557 2371904
0.99582398 3.51682 11.287 2888742
1.00527 3.5267799 11.2917 3544104
1.15767 3.55721 11.4062 7698041
1.1868401 3.55444 11.4318 3750213
1.19415 3.5652201 11.4501 2697269
1.20524 3.57163 11.4625 1645098
1.22247 3.5715301 11.4765 987942
1.3414299 3.6366701 11.6505 3935277
1.53319 3.6622901 11.7549 1838881
2.68191 3.9417901 12.7437 9405302
2.69924 3.9444499 12.7603 9471095
2.7631299 3.9602301 12.7912 10194303
2.7686501 3.9520299 12.7788 10194302
2.8503399 3.9779 12.8719 11114625
2.8654101 3.98439 12.8849 11641484
2.87553 3.9858 12.8832 11970191
2.89311 3.98698 12.8956 12364691
3.5473399 3.46207 11.8082 3749429
3.5504301 3.4667301 11.8267 3749170
3.5683701 3.4761701 11.8314 3157806
3.6758001 3.4908099 11.9164 2698026
-0.596183 3.2728601 10.2662 11313562
-0.58245701 3.27249 10.2632 11510167
-0.55905598 3.2829199 10.2825 11707543
0.353661 3.43189 10.8778 9799029
0.36935899 3.4261501 10.8735 9009516
0.66661501 3.4971399 11.121 8356484
0.68147701 3.4919 11.1221 8224640
0.68958497 3.5051999 11.1318 6449521
0.70417702 3.5055001 11.1401 3818833
0.71299702 3.50912 11.1564 1976633
0.73786998 3.50353 11.1542 1252908
0.79197699 3.48329 11.1292 1054244
0.83020502 3.51931 11.2017 1381155
1.16842 3.5639901 11.4177 6118751
1.16775 3.5643301 11.4176 6250853
1.18458 3.5734301 11.4456 3487299
1.22653 3.59869 11.5147 660005
1.23423 3.62234 11.5582 658978
1.42713 3.70174 11.8039 4524592
1.4654599 3.6663301 11.7238 3607080
1.5275 3.6830499 11.7849 1904418
1.55154 3.6582999 11.7481 1511457
1.67038 3.7120299 11.9022 2233890
1.68004 3.72013 11.9056 3615793
1.72224 3.7256899 11.9489 10128253
1.72224 3.7256899 11.9489 10127995
2.6795101 3.9352 12.6796 9537404
2.6993699 3.9518399 12.7378 9668217
2.71684 3.95346 12.7516 9800319
2.7343099 3.9546499 12.7643 9932161
2.7483799 3.9572999 12.7738 10063490
2.7752399 3.9728899 12.791 10194559
2.9007299 4.0002198 12.8982 12429967
2.9249699 4.0222301 12.9499 12693397
3.54386 3.4793799 11.8232 3946551
3.6781499 3.5023899 11.9073 2632235
-0.592264 3.27105 10.2382 11115924
-0.59811699 3.2820799 10.2432 11050388
-0.58884799 3.28636 10.2729 11379611
-0.57535702 3.28526 10.2658 11379093
-0.56629503 3.2947299 10.2834 11444370
-0.55052501 3.2834301 10.2704 11773852
0.36868301 3.44274 10.8736 9206894
0.36961299 3.44222 10.8722 9141358
0.360847 3.4352901 10.8691 9601651
0.66494501 3.50962 11.1194 8159363
0.67767203 3.5090499 11.1319 7436156
0.69859499 3.5169001 11.1368 2371133
0.70916802 3.5176699 11.1448 1515567
0.71004403 3.5201001 11.1495 1186861
0.75084502 3.5139501 11.1531 1120294
0.82035702 3.50424 11.1345 1381156
0.855883 3.5269201 11.2145 1643043
1.17878 3.5816901 11.4308 3947846
1.1892 3.5910699 11.456 2369336
1.20874 3.58845 11.4526 989230
1.21869 3.6079099 11.4905 791335
1.24714 3.6360099 11.5589 1772325
1.27999 3.6410799 11.5998 3279402
1.45547 3.69945 11.7907 4000300
1.524 3.70575 11.8126 1904419
1.53644 3.7098801 11.8282 1773858
1.5341901 3.7080801 11.8113 1642530
1.5512 3.7098501 11.8215 1380898
1.66887 3.7288499 11.8997 1774882
1.71336 3.7453301 11.9426 9470322
1.71623 3.7427299 11.9557 9930615
2.69943 3.9597099 12.7168 9734009
2.7131901 3.97051 12.7615 9799802
2.75704 3.9748399 12.7739 10128766
2.86642 4.0042 12.8841 11377797
2.8898001 4.0165901 12.8953 11903882
2.90503 4.0142002 12.8959 12298637
3.5456901 3.4904301 11.8147 3881788
3.68559 3.5204699 11.9243 2631464
3.7000201 3.5242901 11.9346 2237473
-0.61950701 3.29252 10.2453 10786962
-0.610273 3.29632 10.2588 11050649
-0.59447199 3.2943201 10.2618 11115924
-0.560202 3.30423 10.2734 11641751
0.35281 3.4475801 10.8763 9930615
0.35339299 3.4469299 10.8746 9930359
0.35339299 3.4469299 10.8746 9930359
0.35995099 3.4518199 10.8693 9732980
0.36058399 3.4510801 10.8676 9667444
0.653346 3.52071 11.1046 8158849
0.66483903 3.52056 11.1113 7304570
0.67618901 3.52035 11.1247 5660263
0.68707699 3.51949 11.1332 3884113
0.69549 3.53284 11.1428 1318445
0.70837301 3.53021 11.1411 1252139
0.71996498 3.52706 11.1443 1054504
0.84282798 3.5321801 11.2017 1773860
0.85290599 3.54093 11.2053 2560551
0.86593598 3.5357001 11.2181 2298405
1.16322 3.58901 11.4071 6710887
1.17249 3.5915899 11.421 4869202
1.18288 3.5994899 11.4377 2896192
1.19481 3.60849 11.4638 1645869
1.2047 3.6031499 11.4493 989234
1.20727 3.6054399 11.4619 923440
1.2405699 3.6247799 11.5144 1313829
1.27095 3.65061 11.5708 4066610
1.28187 3.65311 11.5865 4394036
1.29289 3.65518 11.6012 4394293
1.30404 3.6572599 11.6155 4459830
1.42961 3.7091701 11.7689 4852530
1.4399199 3.7184 11.7811 4655920
1.67905 3.7365 11.9037 2498600
1.72261 3.7469001 11.946 9996925
2.7130899 3.9821401 12.7472 9865851
2.7095699 3.9785299 12.7343 9800058
2.8685801 4.0202599 12.8778 11049089
2.92345 4.0344601 12.926 12429967
3.6787 3.5330999 11.9247 2632237
3.6891601 3.53829 11.9389 2434855
-0.60471702 3.3053401 10.2619 10984596
-0.57337499 3.3030901 10.2638 11379094
0.367495 3.4593599 10.8728 9338479
0.36802801 3.4588301 10.8711 9272942
0.37891299 3.4712 10.899 8548966
0.62120199 3.5181301 11.0859 8552832
0.62076402 3.5172 11.0826 8552832
0.63406301 3.5325799 11.0988 8421762
0.64760101 3.5318501 11.1009 7961985
0.66004199 3.5328 11.1064 6055796
0.67472601 3.53158 11.1173 3094597
0.68527597 3.5318999 11.1291 1778996
0.72052997 3.5358701 11.13 1119783
0.75205302 3.54492 11.1578 1382182
0.86102498 3.55475 11.2085 4461616
0.86637402 3.5515699 11.2292 3412522
1.1654 3.60674 11.4151 6119011
1.16687 3.6025701 11.4146 5856355
1.17582 3.6100099 11.4276 3356483
1.18689 3.61497 11.4358 1712693
1.21336 3.6212399 11.4594 922669
1.23926 3.63921 11.5122 2100007
1.25109 3.63677 11.5135 2886443
1.29522 3.66627 11.5865 4525624
1.4505 3.72719 11.7927 4393775
1.53905 3.6926601 11.7201 1445921
2.70947 3.9901299 12.7198 9865851
2.8840799 4.0352201 12.8911 11246212
2.9061601 4.0409899 12.9115 11903881
2.93469 4.04842 12.9373 12562068
3.6777201 3.5466199 11.9252 2697512
3.6814599 3.5478699 11.9223 2631975
-0.60267699 3.3197401 10.2675 11182491
-0.58930397 3.3164401 10.2533 11181716
0.33974701 3.46789 10.864 10391166
0.366649 3.47594 10.8722 9404271
0.360273 3.47031 10.8778 9667442
0.628829 3.5448999 11.0976 8290434
0.64167601 3.54338 11.0979 7567742
0.67501801 3.54211 11.1269 1779511
0.694673 3.54479 11.1388 1055018
0.85325599 3.56792 11.2099 5574967
0.90914202 3.57074 11.2428 5902902
1.15782 3.6182499 11.4131 7500667
1.16887 3.6203101 11.4168 4869980
1.19832 3.6180401 11.4448 1185839
1.22914 3.6336 11.4878 1314087
1.24971 3.65153 11.5123 3476268
1.2619801 3.6470399 11.5076 4000816
1.28671 3.6510701 11.5341 4525367
1.43839 3.7305701 11.7599 4852530
1.4496599 3.74155 11.7786 4459567
1.54366 3.71279 11.7582 1380904
2.7102101 4.0449901 12.8312 9866368
2.9082799 4.0672598 12.9356 11706764
2.91764 4.0552502 12.9239 12101004
-0.56779999 3.32305 10.2587 11444630
0.34154201 3.4804101 10.8556 10391166
0.35232601 3.4866199 10.8601 9996407
0.37497199 3.48492 10.8819 8878186
0.61499399 3.5520101 11.0851 8487297
0.648498 3.55476 11.0988 3818578
0.65958202 3.55071 11.1037 2634305
0.66996598 3.5504301 11.1149 1647667
0.68095797 3.5562201 11.1335 989736
0.694736 3.5569601 11.1368 1251880
1.1819 3.6254101 11.4251 2107194
1.19289 3.63041 11.4396 1186353
1.23132 3.6482301 11.4861 2165800
1.23864 3.6503501 11.5006 2624297
1.44329 3.7297299 11.7198 4852013
1.51712 3.7063501 11.6982 1969957
1.53374 3.70994 11.7031 1445665
1.5454 3.69942 11.6907 1380643
1.6962301 3.78743 11.9238 6182224
2.70941 4.0012102 12.7043 9865851
2.7479701 4.0472002 12.8163 10589576
2.89522 4.0802798 12.9421 11049093
2.9020801 4.0829201 12.9421 11313296
2.9368401 4.0917702 12.9633 12233880
2.9767001 4.1107001 13.0245 12497051
3.5980101 3.5322299 11.8195 2961457
3.67536 3.5655899 11.9245 2698026
-0.579723 3.3373301 10.2619 11247509
-0.56834602 3.3406601 10.2654 11444630
0.36577001 3.4936199 10.8761 9470064
0.37369999 3.5018599 10.8825 9009515
0.62524801 3.5615499 11.0875 7435900
0.63643402 3.5553601 11.0957 6581108
0.65572703 3.5667601 11.1016 1581362
0.66769898 3.5669799 11.1075 1252651
0.68153697 3.5625999 11.1 989480
1.16315 3.6322701 11.4126 5856877
1.18713 3.6393299 11.4291 1186354
1.22387 3.66202 11.4871 2231594
1.2248501 3.65961 11.4826 2166317
1.23789 3.6615601 11.4894 3279916
1.24904 3.6623399 11.4999 3935023
1.26051 3.6622801 11.5078 4262963
1.3195699 3.7100301 11.6104 4591413
1.36154 3.74718 11.7273 5180987
1.51457 3.7261901 11.7047 1904162
1.52832 3.71996 11.6951 1576481
2.71841 4.0264101 12.7344 10062974
2.7274101 4.0362101 12.7669 10195076
2.7297399 4.0383902 12.7742 10325371
2.76389 4.0648098 12.8254 10918797
2.88202 4.0902901 12.9351 10457729
2.9274099 4.1104999 12.9777 11707795
2.9890101 4.1244001 13.038 12431002
3.60355 3.5302601 11.7808 3093042
3.61607 3.5460999 11.8256 3027249
3.6345601 3.54389 11.8398 2961456
3.6780601 3.5597999 11.8844 2631975
-0.58290499 3.34147 10.2279 11115924
-0.56306499 3.35835 10.2708 11642268
0.32562399 3.5086 10.8716 10851718
0.338525 3.5112 10.8829 10324859
0.35060599 3.50615 10.868 10193530
0.36629099 3.51296 10.8906 9469808
0.608284 3.56583 11.0787 8356487
0.60369903 3.5669301 11.0735 8422279
0.61411297 3.56516 11.0832 8093830
0.63178003 3.5655899 11.0886 5397094
0.64366502 3.56669 11.0962 2568513
0.65027797 3.57709 11.0975 1383983
0.662471 3.5801899 11.1085 1054762
1.16772 3.64589 11.409 3422797
1.18336 3.6522501 11.4242 1252406
1.2122 3.6728499 11.4673 1970739
1.21882 3.6702299 11.4758 2362926
1.2242301 3.6737499 11.4816 2755885
1.22321 3.6742001 11.4809 2755885
1.22605 3.67136 11.483 2821420
1.2371401 3.6714001 11.4934 3542063
1.2614501 3.67325 11.4947 4394293
1.2783099 3.67084 11.4783 4394552
1.27736 3.68538 11.5186 4460088
1.33469 3.73476 11.66 4853820
1.34332 3.73348 11.6518 4984637
1.37289 3.7532201 11.7042 5443388
1.41468 3.7390699 11.6766 5311027
1.44818 3.74312 11.7108 4655663
1.4734 3.7481101 11.7253 3672615
1.50315 3.7333801 11.6965 2297123
2.7258699 4.0541401 12.7714 10391681
2.73704 4.0629401 12.7928 10654336
2.7513199 4.0610499 12.8018 10918541
2.7692399 4.0832 12.8357 10853517
2.78299 4.0869098 12.8512 10656394
2.89574 4.09828 12.9139 10523523
2.9398 4.1230602 12.9904 11773844
2.9726801 4.1340499 13.0252 12233625
3.6029799 3.5582199 11.8133 3552564
3.6245201 3.56303 11.8388 3224372
3.64849 3.56745 11.871 2961456
3.6678901 3.57517 11.8892 2763560
-0.57584 3.37675 10.2844 11510683
-0.55578703 3.3682499 10.2922 11312267
0.35229999 3.5258601 10.8843 10193529
0.372859 3.5186901 10.8847 9140844
0.36526 3.5295501 10.8916 9535601
0.593858 3.57342 11.0578 8422019
0.594715 3.57582 11.0637 8422019
0.59371501 3.5754299 11.0672 8421763
0.60593498 3.5767601 11.0709 7896450
0.61393899 3.5764899 11.0761 6975352
0.62704903 3.57583 11.0817 4081237
0.638484 3.5759399 11.0877 2042170
0.65834701 3.5848501 11.0881 1317418
0.76721102 3.5845599 11.1231 4330546
1.18023 3.66324 11.409 1580858
1.22211 3.6832299 11.4652 3084337
1.2166899 3.6814301 11.4664 2560049
1.22153 3.6829801 11.4659 3018801
1.2365299 3.6860399 11.4922 3935538
1.24993 3.6791501 11.4743 4263219
1.32499 3.7439499 11.6397 4919870
1.34021 3.74786 11.6513 5181758
1.46078 3.75564 11.7131 4262443
1.51008 3.7463701 11.6964 1903906
2.71752 4.0669899 12.76 10391164
2.73295 4.0746799 12.7787 10720129
2.7465401 4.0743399 12.7869 10852231
2.7671001 4.0858598 12.8338 10919053
2.9239099 4.12184 12.9536 11115140
3.5732501 3.5568099 11.7876 4013374
3.6108401 3.5738299 11.8227 3684149
3.6247201 3.5711501 11.822 3420976
3.64487 3.5890601 11.8826 3224116
-0.60002202 3.3829501 10.2752 11314078
-0.59044302 3.3833301 10.2691 11314594
-0.55279797 3.38275 10.2913 11246474
0.371842 3.53509 10.8851 9206894
0.59155297 3.5862899 11.055 8159624
0.60197997 3.58811 11.0646 6975866
0.60205102 3.58673 11.0659 7173501
0.61133999 3.58971 11.0744 4805216
0.62314898 3.58691 11.0762 2634050
0.63497603 3.5868399 11.0821 1581362
0.64695698 3.58779 11.091 1383469
0.86538899 3.6354001 11.2363 6755394
0.88608599 3.63869 11.2592 6820929
0.91137302 3.64188 11.2833 6821183
0.99603802 3.6389401 11.2904 6492471
1.06428 3.64293 11.3109 4133674
1.07976 3.6461899 11.3139 3216167
1.21323 3.6960299 11.4669 2691634
1.22527 3.6941299 11.469 3608627
1.23436 3.6947401 11.4738 4132404
1.24918 3.6893301 11.4583 4394293
1.29004 3.68524 11.479 4591676
1.2857 3.737 11.5778 4788539
1.35059 3.75966 11.6475 5443642
1.35841 3.75616 11.6557 5574719
1.36867 3.7606599 11.6745 5706046
1.41231 3.7574699 11.6764 5376818
1.44162 3.76318 11.6942 4918064
1.44162 3.76318 11.6942 4918064
1.46222 3.7656701 11.7172 4262443
1.4790699 3.76791 11.7278 3476263
1.49433 3.7678599 11.7302 2493475
1.50508 3.76265 11.7165 2100257
1.51499 3.75316 11.6844 1773089
1.50807 3.77145 11.7302 1903650
2.7142999 4.08497 12.768 10391165
2.7241499 4.0655298 12.7455 10523267
2.7645199 4.0960302 12.8087 10720902
2.7858901 4.1098399 12.8632 10392967
2.7856801 4.1173601 12.8675 10327174
2.9087 4.1281099 12.931 10589570
2.9497199 4.1443 12.9733 11576722
2.9697599 4.1333799 12.9626 12036504
2.9790399 4.1619501 13.0103 11905175
2.98002 4.1626801 13.0136 11905175
3.0217299 4.1784 13.0659 11576468
3.6006501 3.58444 11.8395 3947838
3.6007299 3.5845301 11.8398 3947838
-0.58218998 3.3894401 10.2803 11313819
-0.57339799 3.39517 10.2959 11444374
-0.56156802 3.3935299 10.2874 11510166
0.37795699 3.5416 10.8801 8943723
0.587942 3.5975001 11.0479 7633023
0.59869802 3.5994201 11.0576 5266024
0.599006 3.5996399 11.0523 5068387
0.609532 3.6008201 11.0668 3029322
0.64357001 3.59973 11.0887 1251883
0.71798003 3.5924699 11.0929 1971751
0.71301699 3.5952799 11.0973 1775143
0.75304699 3.6032701 11.1134 4658227
0.83111 3.62694 11.1772 6755396
0.87434798 3.6461101 11.2482 6690114
0.89515501 3.6494701 11.2715 6755648
0.89977503 3.64937 11.2721 6755392
0.904248 3.66028 11.2837 6690113
1.02491 3.65398 11.2955 5902386
1.04014 3.6559501 11.298 5115694
1.08585 3.6614699 11.3239 3150631
1.1794699 3.68151 11.4126 1778240
1.2024 3.6923499 11.4491 1840435
1.22375 3.69594 11.4654 3608884
1.22454 3.6968801 11.4669 3674164
1.2674299 3.71541 11.4958 4788284
1.3169301 3.7486999 11.5876 5182529
1.30796 3.7537301 11.5948 5182529
1.31898 3.7553599 11.6086 5182011
1.3299299 3.7551701 11.6218 5181754
1.34009 3.7559299 11.6316 5312826
1.38442 3.7567401 11.6218 5771063
1.39659 3.7495501 11.6168 5705272
1.38726 3.7541499 11.637 5836861
1.3969899 3.7623501 11.6455 5705271
1.45342 3.7739501 11.6925 4524587
1.46428 3.7820001 11.7057 4262698
1.49874 3.77631 11.7221 2296867
1.50978 3.77176 11.7028 1904162
1.49475 3.7945199 11.738 2690856
1.50877 3.7703099 11.707 1904162
1.51682 3.75934 11.6697 1707552
2.7236199 4.0854602 12.762 10589059
2.76281 4.12784 12.8434 10524295
2.78198 4.1312499 12.8601 10062971
2.79719 4.12746 12.8621 9996920
2.7959399 4.1241698 12.8547 9996920
2.9054301 4.13063 12.9114 10458244
2.93437 4.1537199 12.9621 11050894
3.6066899 3.5921199 11.8332 3947063
3.6162801 3.58798 11.8249 3618356
3.62959 3.6127901 11.866 3487031
3.6570301 3.61917 11.9041 2894892
-0.578529 3.4092 10.3011 11708065
-0.58067399 3.4105899 10.2997 11643045
-0.56906497 3.41202 10.3077 11576732
-0.564349 3.40766 10.3042 11840165
0.37667599 3.5578499 10.8786 9075309
0.58184898 3.60816 11.0423 7501694
0.60482699 3.6128299 11.0587 2502724
0.61712003 3.6152401 11.0715 1515573
0.64474398 3.63042 11.1238 1185063
0.71317202 3.6043999 11.0892 2037031
0.82077599 3.6245601 11.1629 6820931
0.864223 3.65662 11.248 6625091
0.88959599 3.6622701 11.2537 6494018
1.03212 3.67031 11.3023 5640241
1.03881 3.6635699 11.2963 5247024
1.05718 3.6524701 11.2934 4329514
1.07768 3.66078 11.3142 3281447
1.18062 3.6867499 11.4037 1909567
1.2104 3.7077 11.4595 2954555
1.22146 3.7063701 11.4526 3740470
1.22047 3.70699 11.4556 3674934
1.2321301 3.70842 11.4581 4329526
1.24342 3.71157 11.4677 4591160
1.28598 3.74771 11.5646 4985402
1.295 3.74385 11.5581 5116992
1.33175 3.76633 11.6102 5509949
1.34264 3.7661099 11.6232 5575227
1.37354 3.7651701 11.6329 5836857
1.37361 3.7652299 11.6332 5836857
1.39013 3.77493 11.6534 5771063
1.41369 3.7823901 11.6872 5705530
1.4422801 3.77407 11.6639 5049391
1.43051 3.78245 11.6809 5443125
1.44687 3.7794499 11.6702 4983857
1.46372 3.7948699 11.7102 4393771
1.47315 3.8055799 11.7312 3935017
1.50511 3.7886901 11.7201 2034977
1.50108 3.7860601 11.7179 2231587
1.51151 3.7920101 11.7348 1772833
1.52441 3.8025999 11.7564 1380901
2.89744 4.1398301 12.8937 10129797
2.9201701 4.1477599 12.9104 10590346
2.9435699 4.1588402 12.9585 11181967
2.9616101 4.1820302 13.0013 11181968
2.98789 4.1855402 13.0245 11379090
2.9960001 4.1777 13.0135 11379089
3.02174 4.1874099 13.0448 10919054
3.60409 3.60535 11.8319 4078905
3.6156099 3.60326 11.8305 3749685
-0.59099299 3.4216399 10.2877 11314851
-0.57757902 3.42714 10.3042 11708837
0.37933999 3.57741 10.8964 8943467
0.59301502 3.6112399 11.0495 4673631
0.70242 3.6150899 11.0766 1774886
0.71916199 3.63204 11.1194 2757418
0.71916199 3.63204 11.1194 2757418
0.723032 3.6269701 11.1152 3085355
0.74477202 3.6356201 11.1315 5379126
0.833808 3.63695 11.162 6624836
0.843777 3.63991 11.1777 6625092
0.87747997 3.6699901 11.2432 6429252
0.89970398 3.6741099 11.2599 6494278
1.03176 3.6787801 11.3053 5771315
1.0464 3.6663799 11.2926 4919342
1.05682 3.67348 11.3038 4329771
1.06991 3.6796801 11.3176 3608871
1.18204 3.7023499 11.4044 2040896
1.2159801 3.72013 11.4525 3675194
1.21731 3.72119 11.4548 3806266
1.2283 3.72437 11.463 4395576
1.23746 3.7214799 11.4512 4657466
1.25107 3.72683 11.4685 4919355
1.2745 3.7625501 11.5527 5313344
1.31542 3.7562301 11.5594 5444413
1.32073 3.76688 11.5981 5444411
1.3444901 3.7772 11.6113 5837887
1.35659 3.7830801 11.6285 5969473
1.3963799 3.7804899 11.6454 5771065
1.4184901 3.7945499 11.6745 5771325
1.42863 3.7914 11.6659 5508405
1.4841501 3.8036101 11.7271 3214116
1.49867 3.80216 11.7216 2297122
1.50282 3.8050001 11.7234 2166050
1.51797 3.78776 11.6856 1576480
1.51249 3.80988 11.7267 1773088
1.73307 3.86167 11.924 9865340
2.76278 4.1419601 12.8276 10129796
2.77651 4.1444602 12.844 9998211
2.7915499 4.1490698 12.8667 9932161
2.7992699 4.1789198 12.9092 9866110
2.93273 4.1568599 12.9143 10655365
2.9456601 4.1709299 12.9325 10656395
3.0042601 4.2003598 13.0248 10590346
3.0171101 4.2002802 13.0323 10457470
3.03987 4.1995201 13.0376 10064004
3.58707 3.6180799 11.8207 4407356
3.6010201 3.61865 11.8277 4144442
3.61673 3.6227 11.8426 3749942
-0.60170102 3.4254799 10.2681 10853010
-0.593274 3.4333 10.2847 11116698
-0.58448201 3.4379599 10.2993 11313819
-0.57920402 3.43483 10.3109 11313046
-0.56927401 3.4337101 10.2989 11444374
-0.55082899 3.4314499 10.2881 11576213
0.370666 3.58355 10.8831 9535601
0.587758 3.6224 11.0444 4410461
0.60002798 3.6226699 11.0502 2305091
0.61341602 3.6201899 11.0479 1646904
0.62824398 3.6198299 11.0407 1514545
0.65119803 3.6293499 11.0778 1250600
0.728046 3.6507101 11.1278 4199471
0.72784901 3.64908 11.1402 4068655
0.74756497 3.6517999 11.1396 5837623
0.84631097 3.6501701 11.163 6560326
0.85670698 3.6524501 11.1771 6495046
0.887775 3.6819899 11.2474 6429512
1.01917 3.6868 11.3002 6361142
1.0298899 3.69505 11.3065 6033461
1.04799 3.6886101 11.3098 4853807
1.05963 3.69016 11.3052 4329516
1.21252 3.73616 11.4572 3544379
1.22358 3.73612 11.4549 4395578
1.22228 3.7349999 11.4519 4264506
1.24859 3.7374899 11.4575 5116220
1.2608 3.74945 11.4973 5378624
1.26915 3.77056 11.5631 5379136
1.32288 3.77724 11.5846 5706812
1.3358099 3.7654099 11.5648 5903683
1.41607 3.7979801 11.6495 5771063
1.41607 3.7979801 11.6495 5771063
1.41607 3.7979801 11.6495 5771063
1.44498 3.8018301 11.6766 5115185
1.45439 3.8173101 11.713 4984111
1.4656399 3.8245001 11.7241 4459563
1.49145 3.81725 11.7252 2821155
1.477 3.8304501 11.7334 3869480
1.5056601 3.81546 11.7252 2100513
1.52509 3.81741 11.7261 1511715
1.72614 3.87484 11.9243 9403756
2.7883401 4.1828499 12.901 9866368
2.9184101 4.1825299 12.9286 10130053
2.92975 4.1777 12.9127 10260865
2.9586201 4.18118 12.9389 10524810
2.9863901 4.2006102 13.005 10590346
3.54529 3.6168001 11.7716 4275257
3.6104 3.6315801 11.8303 3815478
3.6356101 3.6246901 11.8274 3092013
-0.60762799 3.4375899 10.2696 10787217
-0.58751202 3.4463999 10.2894 11050131
-0.57808399 3.45047 10.3027 11445149
-0.55531102 3.44205 10.2838 11444629
0.37680799 3.5898099 10.8776 9206637
0.57018399 3.63289 11.0333 7436418
0.58247 3.6337199 11.04 4080986
0.60712701 3.6339099 11.0502 1646650
0.71940601 3.6547899 11.1082 3150635
0.71973699 3.65955 11.1187 3281707
0.73149198 3.66765 11.1397 4789298
0.731861 3.6633301 11.141 4789298
0.74276102 3.66908 11.1508 5706294
0.84279197 3.6705799 11.1737 6692682
0.858702 3.6635399 11.1645 6627402
0.86277503 3.66907 11.1798 6627659
0.89491397 3.68613 11.2381 6364489
0.958305 3.6849 11.2457 6755901
1.05256 3.6926999 11.2935 4788269
1.06513 3.69611 11.3134 4133161
1.06749 3.7042699 11.3115 4067882
1.07671 3.6925399 11.3004 3543336
1.3365 3.78947 11.5874 6100804
1.40166 3.80111 11.6256 5968186
1.42523 3.8183999 11.6878 5837117
1.43703 3.8154199 11.6767 5574455
1.45682 3.83461 11.7125 5181235
1.45724 3.8350799 11.7132 5115699
1.48545 3.8325801 11.7368 3345446
1.50851 3.8229001 11.7085 2166306
1.51635 3.8175199 11.6878 1838882
1.5211 3.8318501 11.7356 1576995
1.52795 3.8348999 11.7269 1445922
1.53246 3.8392601 11.7477 1315364
1.70474 3.8813 11.8939 6510676
1.7063299 3.87871 11.8936 7102297
2.9137599 4.1900501 12.9091 9932931
2.94207 4.1922698 12.9295 10195846
2.97065 4.1969399 12.9577 10195846
2.9914501 4.2122502 12.9853 9867139
3.00545 4.2142 13.0025 9932674
3.5354199 3.6307099 11.7916 4209466
3.5404501 3.62975 11.7814 4209465
-0.59506798 3.45397 10.2817 10918547
-0.57188898 3.4632499 10.3026 11313045
-0.55827397 3.4574201 10.3039 11378578
0.36879399 3.6006601 10.8832 9667186
0.56621999 3.6482301 11.0367 5791342
0.578174 3.6461301 11.0371 3028301
0.61851197 3.63203 11.0209 1580341
0.71075499 3.6659701 11.1028 2561321
0.71109498 3.6659 11.1019 2495272
0.723373 3.6772001 11.1327 3675182
0.72243702 3.6775899 11.1288 3544109
0.73507398 3.6796 11.1456 5182260
0.74582398 3.6850801 11.1531 5903160
0.752312 3.66785 11.138 6099770
0.87209702 3.6863401 11.1883 6628430
0.94753802 3.6926601 11.2334 6625345
1.02672 3.69977 11.2839 6361142
1.05079 3.70151 11.275 5116207
1.05311 3.7104399 11.2951 4985134
1.22936 3.7509301 11.454 4788538
1.24632 3.7496099 11.4477 5312830
1.26325 3.7602701 11.4823 5641026
1.40854 3.8038199 11.61 5902650
1.4687099 3.84074 11.7228 4525355
1.46523 3.8578801 11.735 4918831
1.48606 3.84817 11.7323 3476775
1.51239 3.84041 11.7202 1969954
1.54052 3.85776 11.7584 1184032
1.6819 3.8952899 11.892 1446687
1.69666 3.8959701 11.8974 3353650
1.71226 3.89606 11.8925 8351589
2.8966501 4.1980901 12.8957 9735297
2.9103401 4.20016 12.9197 9866882
3.53564 3.64275 11.7912 4209981
3.58635 3.6423099 11.8098 4276289
3.6006999 3.64764 11.8282 4079166
3.6466801 3.62907 11.7904 2829616
-0.59725702 3.4715099 10.2917 11116440
-0.55286902 3.4734299 10.3122 11642009
0.56342697 3.6595099 11.0292 4475483
0.58478099 3.6600499 11.0453 1909308
0.58623898 3.6563201 11.0299 1843775
0.59648001 3.65696 11.0467 1580604
0.73749202 3.69438 11.145 5313589
0.76400203 3.68203 11.1452 6559038
0.85567099 3.68279 11.1726 6759502
0.97182798 3.71736 11.2812 6821183
1.03715 3.7261 11.3009 6099251
1.05207 3.72328 11.2989 5181743
1.0701801 3.7275701 11.3242 4067882
1.08073 3.72404 11.3139 3412520
1.08402 3.73 11.321 3215912
1.2348599 3.7662799 11.4536 5247292
1.24542 3.76739 11.4568 5509436
1.2588 3.7781999 11.4935 5772099
1.2588 3.7781999 11.4935 5772099
1.26756 3.77788 11.4884 5837891
1.33327 3.8863201 11.7398 6495306
1.39258 3.8016701 11.5699 6033979
1.38322 3.8240199 11.609 6100285
1.39259 3.8016901 11.57 6033979
1.50746 3.8545101 11.7341 2232099
1.5143501 3.8584399 11.7246 2035490
1.5143501 3.8584399 11.7246 2035490
1.53076 3.8710201 11.7561 1445919
1.67395 3.9047799 11.8794 1446176
2.90801 4.2129502 12.9091 9735296
3.58007 3.6574399 11.7936 4143928
3.58007 3.6574399 11.7936 4144186
3.6073599 3.65962 11.8254 3749686
3.6087999 3.6605301 11.8281 3750459
3.64043 3.6506701 11.8177 2894892
3.664 3.6716199 11.849 2632235
-0.57968903 3.4731901 10.2907 11115924
-0.55865902 3.48248 10.3039 11378836
0.33506301 3.61181 10.8254 10851203
0.38445699 3.6243701 10.8876 8877672
0.56065798 3.6714499 11.0236 3488335
0.57194299 3.67103 11.0289 1909311
0.58300298 3.6716299 11.0378 1777726
0.59394401 3.6626501 11.0162 1646398
0.611413 3.66502 11.0225 1646136
0.62699401 3.66976 11.0396 1514031
0.71240699 3.6795199 11.0973 2692136
0.72448701 3.6926 11.1292 3937070
0.72588402 3.6921599 11.1335 4199215
0.74799103 3.7005999 11.1534 6033980
0.78635401 3.67974 11.1031 6821952
0.758587 3.6989999 11.1576 6493501
0.94626498 3.70946 11.2312 6625602
1.01673 3.7269399 11.2901 6820153
1.08606 3.7412601 11.3145 3215912
1.22165 3.78283 11.4645 4789051
1.2313401 3.7795401 11.4536 5247548
1.23133 3.7793901 11.454 5247548
1.2579499 3.80843 11.5186 6035012
1.26959 3.81023 11.5297 6166597
1.40288 3.8155701 11.589 5902905
1.46663 3.8683701 11.7125 5050418
1.48449 3.8621299 11.716 3935529
1.49868 3.8648701 11.7288 2821925
1.6672601 3.91715 11.8754 1445919
3.5934999 3.67449 11.8119 3946806
3.6073799 3.6721301 11.818 3618101
3.6310999 3.67275 11.8188 3026480
3.64359 3.6812 11.8373 2829357
3.6870699 3.70309 11.9149 2566440
3.70046 3.6993501 11.9107 2369317
-0.56457502 3.4919801 10.3002 11313301
-0.54935402 3.4884801 10.3101 11510678
0.34401599 3.6112499 10.8121 10653824
0.34401599 3.6112499 10.8121 10653824
0.384141 3.64132 10.8884 8943466
0.386904 3.64341 10.8877 8811880
0.590711 3.67784 11.0237 1580608
0.62015599 3.6816199 11.0374 1579827
0.71521801 3.69363 11.0961 2757416
0.727709 3.7087901 11.1382 4264751
0.72746903 3.7070301 11.1348 4199214
0.73952502 3.7107201 11.1476 5444404
0.738787 3.7106199 11.1426 5313332
0.750323 3.7137699 11.1523 6099769
0.749708 3.71469 11.1491 6034233
0.760315 3.7140801 11.1447 6492991
1.01455 3.7490201 11.3016 6885690
1.03892 3.7577701 11.3243 6033457
1.21671 3.79514 11.4582 4723774
1.22791 3.7971201 11.4644 5313340
1.27062 3.8603301 11.6223 6429514
1.35086 3.8856699 11.705 6626635
1.3953201 3.85554 11.6308 6100289
1.47822 3.8750601 11.72 4460076
1.4701 3.8861401 11.7208 5116211
1.4892499 3.87485 11.7205 3739176
1.50001 3.8821599 11.7286 3083814
1.5125901 3.8885701 11.7397 2232099
1.52254 3.8919201 11.7481 1773344
3.5805399 3.68186 11.8162 4078393
3.58742 3.6717601 11.7932 4013375
3.6073999 3.6849201 11.8113 3486515
3.6954601 3.7165501 11.9174 2435113
3.6883299 3.7213199 11.9155 2500646
0.358125 3.6144099 10.7947 10259323
0.35112101 3.6129501 10.8039 10522238
0.37597901 3.6488199 10.8757 10128515
0.36219499 3.6507399 10.8903 10127482
0.565027 3.6860099 11.0197 1975105
0.61766201 3.68767 11.0218 1580084
0.70746702 3.7056601 11.1031 2298405
0.732651 3.7204299 11.1357 4657969
0.73218203 3.7205701 11.1345 4657968
0.74370801 3.72404 11.1446 5706550
0.75377399 3.7219901 11.1338 6165561
0.98207802 3.7476101 11.2686 7149122
1.05521 3.76089 11.3089 5116206
1.0684201 3.76211 11.3191 4395821
1.08318 3.7587399 11.3153 3478314
1.2230099 3.8081801 11.4551 5116991
1.23317 3.80988 11.4553 5509949
1.25702 3.8332601 11.5309 6166598
1.29804 3.8617699 11.6087 6626892
1.28901 3.8679399 11.6166 6626892
1.47964 3.8909199 11.7191 4656943
1.49137 3.8915601 11.7201 3870249
1.5023299 3.8973501 11.7261 3149350
1.5338399 3.89643 11.7533 1380126
1.54181 3.8928599 11.7323 1249311
1.6541899 3.92644 11.8484 1510943
1.6651599 3.93009 11.866 1707807
1.68365 3.9389999 11.8765 4333874
1.69662 3.9387 11.8802 4334124
1.7095701 3.93839 11.8837 7756118
1.71758 3.93732 11.8885 9401707
3.18555 3.9765501 12.3532 4077367
3.5941401 3.69593 11.8139 3881530
3.61975 3.7003801 11.8278 3158064
3.63241 3.6873801 11.8191 3026738
3.63589 3.68572 11.8133 2961201
3.69015 3.72856 11.9117 2434855
0.38716999 3.65938 10.892 8877673
0.60978299 3.69996 11.0203 1645879
0.62679899 3.69485 11.0299 1448496
0.71701801 3.7239299 11.1128 3019561
0.72659397 3.7302699 11.1243 4002348
0.737939 3.7342501 11.1358 5182002
0.970824 3.76038 11.2594 7214916
0.98759401 3.75705 11.264 7148863
1.06259 3.7723999 11.3093 4854318
1.07681 3.7681 11.3035 4133677
1.06893 3.7825201 11.3237 4526894
1.26344 3.8485899 11.5347 6429257
1.26982 3.85532 11.5592 6363462
1.28986 3.86936 11.5763 6626636
1.2991101 3.86518 11.5726 6626636
1.36045 3.87585 11.627 6429510
1.39156 3.87816 11.636 5311794
1.39695 3.8706999 11.6343 5508660
1.41368 3.8901701 11.6558 5574968
1.4835 3.9022501 11.7141 4854066
1.4949501 3.9066501 11.7193 3936043
1.51002 3.9154899 11.7397 2756388
1.5170701 3.90376 11.7405 2101025
1.53345 3.9036 11.729 1511456
1.63965 3.9444301 11.8476 1445149
1.66374 3.941 11.8524 2231839
1.6911 3.95069 11.8749 5514549
3.6064 3.7135999 11.8278 3421495
0.36977699 3.64749 10.8147 10061688
0.37736899 3.6649101 10.8767 10194307
0.378858 3.6615601 10.8665 9799032
0.38922501 3.67044 10.878 8877930
0.71996099 3.7395 11.1112 3478314
0.75210297 3.7379799 11.1267 6034487
0.75903898 3.74786 11.1507 6492988
0.78699702 3.7676301 11.1917 7346501
0.96994799 3.77794 11.2666 7149634
1.06051 3.7913799 11.3295 5050928
1.0897501 3.7911301 11.3235 3478828
1.22702 3.82093 11.4455 5379136
1.27986 3.8662601 11.554 6626379
1.40468 3.88939 11.6429 5312565
1.52105 3.9200799 11.7454 2035489
1.5212899 3.92292 11.7505 2101281
