ply                 
format ascii 1.0    
element vertex 831
property float x    
property float y    
property float z    
property uchar red  
property uchar green
property uchar blue 
end_header          
-2.74968 1.27748 5.12398 89 68 83 
-2.78896 0.102357 5.23304 36 24 34 
-2.80184 -0.310214 5.26187 49 63 98 
-2.80301 0.0840063 5.29475 102 116 155 
-2.79428 -0.275225 5.28495 43 34 39 
-2.72132 1.22617 5.17487 86 66 78 
-2.81551 -0.97238 5.48019 29 44 75 
-2.64994 1.15517 5.17199 84 98 137 
-2.66354 1.24656 5.20598 13 17 29 
-2.76481 0.104655 5.45808 130 144 181 
-2.63109 1.20895 5.19633 10 15 47 
-2.75515 0.113575 5.44163 116 130 169 
-2.65354 1.17537 5.26794 85 105 138 
-2.63714 1.31047 5.23766 11 10 18 
-2.76152 -0.0382196 5.48362 117 132 161 
-2.63344 1.18285 5.24998 17 19 40 
-2.63474 1.1686 5.26268 10 14 51 
-2.7518 -0.0833385 5.52431 26 32 44 
-2.57829 0.806638 5.34226 16 25 56 
-2.57455 0.810329 5.36117 25 36 64 
-2.57226 0.698097 5.37988 53 67 114 
-2.56756 0.720239 5.38483 98 98 134 
-2.54913 0.74474 5.37303 11 13 26 
-2.55572 0.722097 5.38741 97 113 149 
-2.99546 1.222 6.86538 114 132 168 
-2.55723 0.902503 5.92085 11 31 58 
-2.55152 1.03207 5.90926 15 18 25 
-2.55562 0.744835 5.94835 19 33 59 
-2.52564 0.368911 5.97961 77 94 140 
-2.54601 0.232767 6.02855 122 137 176 
-2.56295 0.150786 6.0686 110 127 157 
-2.54766 -0.129719 6.03258 52 42 50 
-2.56251 0.0797691 6.08307 108 122 151 
-2.55645 0.143814 6.08394 13 28 59 
-2.511 1.07438 6.02969 113 132 164 
-2.48826 1.08139 5.99375 119 133 172 
-3.32116 -1.96792 8.02623 87 98 130 
-2.57215 -0.733033 6.23541 38 52 91 
-2.4986 0.484897 6.07157 104 123 166 
-2.52088 0.00332594 6.14126 72 68 95 
-2.52088 0.00332594 6.14126 72 68 95 
-2.49727 0.962257 6.09741 33 31 53 
-2.46351 1.38297 6.0987 84 102 140 
-2.50706 0.0248951 6.23934 107 127 164 
-2.49945 0.178828 6.26397 37 37 71 
-3.35322 -2.03008 8.40197 132 152 203 
-2.51543 -0.571574 6.33395 118 123 143 
-2.46232 0.306841 6.22609 63 48 55 
-2.47185 0.218442 6.26761 75 63 75 
-2.41805 1.36913 6.13779 82 100 136 
-2.40059 1.41894 6.11116 108 87 104 
-2.43549 0.681783 6.2055 64 67 98 
-2.48021 -0.0471785 6.3198 34 22 34 
-2.4088 1.26953 6.14049 84 103 143 
-2.3882 1.39106 6.14724 5 12 18 
-2.43812 0.330876 6.28355 73 78 116 
-2.45084 -0.0711555 6.32879 51 34 42 
-2.36814 1.44673 6.13217 9 9 17 
-2.36814 1.44673 6.13217 9 9 17 
-2.46458 -0.969933 6.40648 95 112 155 
-2.48999 -0.824988 6.47932 40 24 35 
-2.36863 1.40307 6.16958 77 90 122 
-2.41066 -1.01078 6.62235 64 80 114 
-2.41066 -1.01078 6.62235 64 80 114 
-2.34383 0.735669 6.45544 65 73 112 
-2.31838 1.20764 6.4325 51 35 46 
-2.31838 1.20764 6.4325 51 35 46 
-2.26494 1.34531 6.34304 82 97 138 
-2.29422 1.06006 6.63269 89 91 116 
-2.27607 1.20895 6.61488 112 127 166 
-2.356 -0.469551 6.84929 116 121 141 
-2.356 -0.469551 6.84929 116 121 141 
-2.33041 -0.877289 6.77805 100 114 153 
-2.29077 1.12684 6.68393 27 41 68 
-2.34544 -0.734603 6.84497 53 58 78 
-2.28841 1.02357 6.72087 23 31 50 
-2.28943 0.968305 6.73438 27 33 55 
-2.28943 0.968305 6.73438 27 33 55 
-2.27696 1.0772 6.73511 105 116 144 
-2.28022 0.920361 6.77267 94 105 133 
-2.33523 -0.735628 6.94072 42 29 39 
-2.33523 -0.735628 6.94072 42 29 39 
-2.2881 0.389311 6.83648 99 109 144 
-2.30873 -0.50946 6.91258 110 110 122 
-2.29055 0.237925 6.8927 118 129 161 
-2.26039 0.425007 6.83566 59 43 54 
-2.18244 1.57075 6.71439 12 11 16 
-2.24742 0.0485929 6.92553 56 36 45 
-2.60573 -1.38415 8.0324 87 97 124 
-2.25688 -0.401421 6.99875 58 46 58 
-2.28478 -0.706124 7.08983 43 31 45 
-2.23993 -0.237411 7.18796 115 132 178 
-2.18802 0.248866 7.06833 106 125 168 
-2.14225 1.31113 6.97463 93 116 168 
-2.14209 1.28346 6.97593 96 116 167 
-2.13558 1.23567 7.15565 92 104 130 
-2.13558 1.23567 7.15565 92 104 130 
-2.14051 0.2314 7.18972 112 127 170 
-2.12858 1.08383 7.16295 86 101 134 
-2.12858 1.08383 7.16295 86 101 134 
-2.1285 1.29309 7.17384 20 22 37 
-2.12612 1.32475 7.17778 109 122 156 
-2.13025 0.999312 7.23526 21 19 32 
-2.12285 1.09425 7.22534 82 94 132 
-2.12285 1.09425 7.22534 82 94 132 
-2.12399 0.295201 7.32978 45 54 71 
-2.12607 0.248581 7.35196 102 115 150 
-2.2309 -1.18562 7.76229 10 17 36 
-2.12899 0.228185 7.41359 24 23 37 
-2.12899 0.228185 7.41359 24 23 37 
-2.07725 1.35436 7.33009 106 119 153 
-2.10328 -0.309702 7.42545 69 57 71 
-2.13198 -0.56201 7.58511 23 21 43 
-2.80497 -1.74866 9.9957 118 137 180 
-2.12545 -0.534464 7.59657 98 113 146 
-2.81174 -1.98544 10.0689 147 171 235 
-2.08048 0.496504 7.52079 33 38 58 
-2.07936 0.421253 7.53395 33 35 56 
-2.08089 0.315693 7.55533 25 30 49 
-2.06732 0.523169 7.52223 88 93 125 
-2.09005 -0.377413 7.66726 87 103 129 
-2.07929 -0.733848 7.64905 99 114 155 
-2.04368 -0.268152 7.68775 64 48 58 
-1.96355 0.648332 7.68295 61 45 55 
-1.91161 1.23877 7.53718 82 94 118 
-1.91488 0.612847 7.68249 85 91 125 
-1.86402 0.427815 7.68804 86 103 133 
-1.83893 0.303138 7.70632 11 13 25 
-1.86572 -0.225368 7.82459 96 107 139 
-1.83798 0.216335 7.72094 20 23 38 
-1.87079 -0.495279 7.8883 85 98 133 
-1.7923 0.497532 7.63914 31 53 92 
-1.84326 -0.610739 7.8963 20 28 41 
-1.72722 0.544194 7.56155 12 20 41 
-1.75417 -0.233047 7.7825 99 110 142 
-1.75417 -0.233047 7.7825 99 110 142 
-1.73307 -0.278994 7.74073 16 30 56 
-1.70963 0.125723 7.64038 48 35 45 
-1.70963 0.125723 7.64038 48 35 45 
-1.73647 -0.446128 7.78534 14 21 40 
-1.73956 -0.652249 7.836 17 25 44 
-1.37673 -0.893146 7.66146 33 24 27 
-1.37316 -1.12852 8.05495 28 41 83 
-1.37411 -1.18164 8.06615 30 44 83 
-1.3699 -1.12773 8.04368 28 41 83 
-1.36076 -1.14149 8.04129 29 44 77 
-1.35743 -1.16015 8.05432 34 50 86 
-1.35743 -1.16015 8.05432 34 50 86 
-1.33783 -1.12232 8.04113 86 107 138 
-1.33845 -1.17098 8.04758 84 104 141 
-1.33845 -1.17098 8.04758 84 104 141 
-1.30322 -1.2573 7.98477 40 51 71 
-0.614533 0.997021 3.85677 60 61 89 
-0.580866 1.00638 3.83822 50 56 78 
-1.07506 0.585646 7.35589 72 66 76 
-1.07957 -0.25611 7.52305 69 61 82 
-1.02616 0.978523 7.28602 15 13 18 
-1.0235 0.97778 7.27637 14 11 18 
-1.03788 0.085545 7.44518 38 30 43 
-1.03788 0.085545 7.44518 38 30 43 
-1.00716 0.278523 7.40911 34 41 67 
-0.990617 0.435253 7.41909 69 78 107 
-0.976443 0.547674 7.35128 115 131 165 
-0.976443 0.547674 7.35128 115 131 165 
-0.951564 0.515071 7.34072 36 44 67 
-0.953656 -0.320919 7.5188 20 18 29 
-0.891918 -0.325814 7.50482 18 17 31 
-0.852343 0.307509 7.34895 35 48 83 
-0.852343 0.307509 7.34895 35 48 83 
-0.83867 -0.325143 7.46698 21 25 37 
-0.825876 0.0671709 7.35655 52 39 56 
-0.808436 -0.338879 7.4441 106 102 117 
-1.00429 -1.84105 9.25524 37 38 66 
-0.282808 0.619599 3.46438 38 7 15 
-0.269131 0.637846 3.45433 9 16 24 
-0.261908 0.624396 3.48493 46 0 3 
-0.255624 0.634755 3.46349 82 80 39 
-0.259516 0.490523 3.57172 37 37 65 
-0.236985 0.485355 3.60604 44 81 90 
-0.601129 -1.60884 9.4446 39 45 77 
-0.218281 0.597541 3.87849 3 23 48 
-0.195891 0.649515 3.57155 7 30 22 
-0.182348 0.664636 3.57864 26 39 71 
-0.182348 0.664636 3.57864 26 39 71 
-0.306392 0.199793 7.60373 83 98 129 
-0.251949 -0.385586 7.83726 101 116 147 
-0.251949 -0.385586 7.83726 101 116 147 
-0.24289 0.29664 7.69622 106 122 158 
-0.236919 0.560653 7.63959 83 92 123 
-0.236328 -0.256418 7.83795 53 59 95 
-0.182199 -0.191527 7.87838 85 81 95 
-0.173556 0.649041 7.70131 57 49 60 
-0.12404 -1.27058 9.58554 41 46 76 
-0.0340596 0.655165 3.57889 73 75 35 
-0.0177309 0.660502 3.58583 9 16 24 
0.141476 -0.0984218 8.31406 58 49 68 
0.141476 -0.0984218 8.31406 58 49 68 
0.162923 0.727394 8.23159 107 111 138 
0.19483 -0.496351 8.60136 24 29 59 
0.204338 -1.15145 8.99653 161 187 248 
0.195447 -0.42667 8.58732 28 36 72 
0.21512 -1.12622 8.99714 24 26 83 
0.218438 -1.24054 9.01377 158 184 245 
0.209626 -0.43585 8.61812 68 79 101 
0.206557 0.718745 8.34348 33 47 76 
0.2239 -1.16323 8.99675 36 44 93 
0.218659 0.406964 8.47128 71 79 102 
0.216824 0.750113 8.3897 99 110 140 
0.223614 -0.417016 8.63462 39 45 81 
0.223614 -0.417016 8.63462 39 45 81 
0.221757 0.488085 8.45625 67 74 92 
0.22128 0.565704 8.43019 64 76 100 
0.230663 -0.104358 8.55779 108 127 159 
0.238555 -0.46995 8.66507 102 113 145 
0.249424 -0.540835 8.67883 40 28 38 
0.249424 -0.540835 8.67883 40 28 38 
0.239974 1.35552 8.27085 31 35 60 
0.284146 0.792618 8.41134 58 50 63 
0.293588 1.14727 8.33234 53 46 62 
0.292891 1.67989 8.25059 31 26 33 
0.379403 1.84686 8.36426 81 79 101 
0.439994 -1.1287 9.1586 20 27 69 
0.440359 -1.1545 9.16255 20 29 70 
0.440608 -1.15395 9.15852 20 29 70 
0.444575 -1.09373 9.16687 23 26 57 
0.444575 -1.09373 9.16687 23 26 57 
0.44755 -1.20889 9.17736 151 180 238 
0.457088 -1.07167 9.15764 153 175 235 
0.494911 -0.930275 9.07355 39 41 66 
0.552359 0.849446 8.71189 57 50 66 
0.587 0.35221 8.81454 42 31 47 
0.587 0.35221 8.81454 42 31 47 
0.600701 -0.0297969 8.91864 113 125 151 
0.600975 0.510162 8.76974 92 108 142 
0.609944 0.419247 8.81839 27 39 77 
0.619493 0.782221 8.71501 44 57 89 
0.627185 0.366795 8.80151 34 40 62 
0.710126 1.8317 8.44114 77 93 129 
0.734823 0.777543 8.69327 39 53 82 
0.734823 0.777543 8.69327 39 53 82 
0.777002 -0.488357 8.95905 49 62 94 
0.763275 0.725704 8.70015 84 102 140 
0.759776 1.71955 8.3941 32 44 82 
0.776956 1.72374 8.39592 77 90 122 
0.778893 1.29199 8.3833 89 102 137 
0.801611 1.28674 8.39537 14 23 56 
0.80475 1.70448 8.38474 79 92 134 
0.804218 1.40711 8.37372 21 34 66 
0.805606 1.78112 8.37795 13 20 30 
0.831567 0.828379 8.61326 59 50 67 
0.823205 1.31346 8.36521 23 21 42 
0.832107 1.43776 8.4495 72 81 110 
0.848597 1.48496 8.46824 7 13 37 
0.851301 1.71262 8.36369 33 47 82 
0.89335 1.82429 8.37634 71 87 120 
1.02591 -1.06174 8.52439 151 174 241 
1.13658 -0.0381047 8.68219 65 61 86 
1.17746 -0.526239 8.78334 47 39 54 
1.17746 -0.526239 8.78334 47 39 54 
1.13896 0.803782 8.48636 52 48 62 
1.21431 -0.516778 8.78658 50 61 89 
1.33465 -1.77967 9.49133 95 116 181 
1.20748 0.73918 8.54985 32 43 73 
1.33115 -1.32031 9.37423 155 180 244 
1.26098 -0.479006 8.77357 52 71 114 
1.2581 -0.339824 8.74182 66 87 134 
1.37324 -1.79941 9.50131 69 113 152 
1.37324 -1.79941 9.50131 69 113 152 
1.27842 -0.860917 8.79464 19 27 46 
1.38284 -1.3637 9.42653 156 179 246 
1.29059 -0.497085 8.76879 114 133 176 
1.29059 -0.497085 8.76879 114 133 176 
1.29081 -0.389309 8.74381 122 140 186 
1.42259 -1.81894 9.48744 156 186 246 
1.42595 -1.7923 9.50951 160 184 246 
1.42132 -1.464 9.40796 163 184 247 
1.42516 -1.40524 9.41514 162 184 242 
1.2918 0.764787 8.50304 103 121 159 
1.44022 -1.43561 9.41523 45 50 70 
1.42937 -1.33974 9.33097 52 87 129 
1.45203 -1.671 9.46242 158 186 249 
1.44315 -1.38755 9.40198 57 84 137 
1.31812 0.355822 8.56972 27 35 58 
1.46287 -1.47009 9.4258 154 185 242 
1.46179 -1.40633 9.41055 156 185 243 
1.35625 -0.527863 8.73037 57 62 91 
1.37732 -0.386816 8.74515 111 130 172 
1.37732 -0.386816 8.74515 111 130 172 
1.35118 0.46392 8.56758 95 113 153 
1.38492 -0.54118 8.71579 49 44 64 
1.37478 0.505174 8.52282 30 41 73 
1.37478 0.505174 8.52282 30 41 73 
1.37575 0.728074 8.46621 37 52 83 
1.5426 -1.26464 9.33363 21 34 53 
1.42475 -0.0570695 8.58455 64 61 82 
1.46304 -0.675723 8.69952 12 16 28 
1.58042 -1.23197 9.38293 147 177 237 
1.41838 0.786332 8.40882 52 46 60 
1.50917 0.26353 8.49042 92 84 105 
1.50917 0.26353 8.49042 92 84 105 
1.65569 -1.05826 9.13504 33 37 82 
1.69873 -1.06359 9.21367 38 39 67 
1.68781 -1.0048 9.09874 115 125 161 
1.633 -0.760118 8.56721 70 65 72 
1.6457 -0.806803 8.55929 83 119 155 
1.64915 -0.776291 8.5179 19 18 26 
1.64481 1.2235 8.12047 16 21 53 
1.64412 1.24708 8.11276 16 18 30 
1.66205 1.27229 8.1248 61 81 108 
1.67753 1.41823 8.182 7 12 34 
1.66728 1.2319 8.11552 78 97 130 
1.76869 -0.567504 8.59579 47 34 52 
1.76869 -0.567504 8.59579 47 34 52 
1.67274 1.25588 8.1134 14 19 48 
1.79567 0.307303 8.43165 22 30 49 
1.79663 0.394573 8.41674 25 35 60 
1.79675 0.472732 8.39761 21 29 48 
1.7975 0.293726 8.40008 21 28 47 
1.79468 0.54613 8.3775 35 44 77 
1.88121 -0.540643 8.58029 97 116 156 
1.88121 -0.540643 8.58029 97 116 156 
1.84896 0.304712 8.40402 24 32 53 
1.84834 0.537775 8.34464 34 49 80 
1.88174 -0.125445 8.49487 104 122 162 
1.87919 0.42287 8.37174 96 115 155 
1.87919 0.42287 8.37174 96 115 155 
1.87919 0.42287 8.37174 96 115 155 
1.91067 0.38933 8.37255 29 39 64 
1.91102 0.465419 8.35253 26 32 56 
1.91121 0.693204 8.31479 28 40 66 
1.91121 0.693204 8.31479 28 40 66 
1.96521 0.29837 8.36959 25 32 51 
1.96508 0.382742 8.36051 32 43 71 
1.96227 0.686101 8.28334 34 47 79 
1.86737 1.47455 7.34646 67 85 123 
2.03059 -1.05668 6.59076 15 13 16 
2.03961 -0.621969 6.49298 39 33 43 
2.04724 -0.435364 6.49336 35 32 39 
2.22062 -1.40347 6.94926 26 28 49 
2.0721 -0.282603 6.43734 94 112 148 
2.06131 0.0029042 6.36208 87 106 138 
2.07281 0.0573008 6.35233 88 104 138 
2.04166 1.35938 6.08564 11 12 17 
2.06223 1.34439 6.08542 69 85 119 
2.56594 -1.58149 6.77158 49 58 75 
2.63111 -1.42161 6.77837 63 84 111 
2.63111 -1.42161 6.77837 63 84 111 
1.29624 0.852846 2.94492 96 113 141 
-2.60784 1.21739 5.15961 90 110 169 
-2.63065 0.847741 5.34833 86 101 144 
-2.55121 0.754299 5.32325 82 102 137 
-2.54928 0.730405 5.3268 37 49 65 
-2.40574 0.65708 6.19686 101 119 159 
-2.21956 0.805194 6.80032 56 53 80 
-2.12282 0.401999 7.29578 94 108 135 
-2.80534 -1.72414 9.94596 35 42 61 
-2.10483 -0.601837 7.47414 57 56 74 
-2.66975 -1.6689 9.64519 41 45 72 
-2.08291 -0.313014 7.61997 95 100 122 
-1.94765 0.64247 7.62083 61 45 55 
-1.95151 -0.190086 7.77774 57 44 61 
-1.91548 0.146821 7.70381 33 21 31 
-1.79332 1.04438 7.48914 71 82 104 
-1.86143 -0.583757 7.86166 71 86 109 
-1.70318 1.19585 7.41087 17 20 27 
-1.7192 0.541647 7.52633 12 20 41 
-1.72184 0.373131 7.57194 17 29 51 
-1.7259 -0.278073 7.70845 16 30 56 
-1.29694 1.49007 7.18531 84 99 140 
-1.25343 1.57883 7.11617 84 96 136 
-1.37787 -1.16285 8.01882 104 122 158 
-1.16719 1.07213 7.10142 29 35 49 
-1.29992 -1.16245 7.96659 65 80 113 
-1.14221 1.22711 7.16312 67 82 113 
-1.13064 1.24515 7.17496 9 13 38 
-1.12946 1.19036 7.18508 8 12 41 
-1.05693 0.931143 7.21582 65 42 52 
-1.00289 -0.611103 7.55811 49 64 103 
-0.915264 0.390376 7.30786 118 135 179 
-0.916011 0.234192 7.34312 116 135 178 
-0.916614 0.158091 7.35746 116 135 177 
-0.88251 0.508359 7.27107 28 35 54 
-0.886138 0.266784 7.32199 37 44 73 
-0.787172 0.558491 7.17171 70 67 78 
-0.945398 -1.87627 9.31038 150 173 240 
0.241401 -1.25022 8.93894 158 187 247 
0.243693 0.445492 8.41732 96 111 144 
0.284932 -0.0515921 8.55371 60 51 72 
0.455678 -1.11086 9.11683 150 180 234 
0.542816 0.425987 2.76466 16 19 54 
0.55317 0.415101 2.76732 16 21 53 
0.558703 0.431263 2.76728 61 81 108 
-3.02898 0.99326 3.95255 21 18 25 
-3.08331 0.454655 4.04297 37 47 74 
-3.08726 0.471244 4.04907 69 82 114 
-3.08135 0.437015 4.05152 76 91 130 
-3.07507 0.695923 4.02884 87 106 139 
-3.06522 0.369312 4.05163 64 83 115 
-3.0828 0.459957 4.065 23 29 51 
-3.09186 0.42439 4.08059 16 25 58 
-3.08209 0.661388 4.05802 51 63 75 
-3.07817 0.619077 4.05865 53 61 80 
-3.07197 0.386344 4.07111 14 20 46 
-3.06948 0.551647 4.06296 57 68 86 
-3.07511 0.477053 4.07396 67 81 110 
-3.08204 0.572115 4.07543 39 47 58 
-3.08195 0.538672 4.08183 40 50 62 
-3.06372 0.70277 4.06078 89 104 135 
-3.06544 0.46479 4.08785 17 28 50 
-3.07841 0.667908 4.09289 11 17 17 
-3.07472 0.593209 4.10498 10 14 15 
-2.89918 0.369868 3.94546 62 72 99 
-3.03465 1.05949 4.04292 7 10 17 
-3.07267 0.61173 4.11208 9 10 15 
-3.06619 0.577188 4.11286 7 10 17 
-3.06101 0.471311 4.12168 20 22 45 
-3.06304 0.669446 4.11317 69 75 101 
-3.06283 0.632037 4.11817 66 73 99 
-3.06256 -0.090617 4.17213 51 45 49 
-3.06448 0.564107 4.13216 69 78 107 
-3.05718 0.488506 4.13343 73 79 111 
-3.07918 0.415415 4.16256 45 62 82 
-3.09466 -0.259002 4.22339 11 20 29 
-3.03546 0.640483 4.1278 78 75 86 
-3.07971 -0.134686 4.22501 17 18 38 
-3.04977 0.562428 4.15418 72 64 75 
-3.02325 0.722372 4.14634 86 97 127 
-3.03255 0.359179 4.18392 74 62 72 
-3.08373 -0.953398 4.33024 41 61 96 
-3.02912 0.607037 4.17135 7 14 24 
-3.01878 0.657724 4.16418 11 19 30 
-3.03644 0.501295 4.19724 68 83 112 
-3.03907 0.450968 4.20712 17 24 53 
-3.03839 0.469666 4.2064 79 94 133 
-3.03887 0.526727 4.20428 16 21 27 
-3.08758 -1.21053 4.37265 34 28 38 
-3.02581 0.321638 4.21175 45 34 40 
-3.02957 0.490353 4.21266 12 14 39 
-3.02563 0.646933 4.20139 65 72 98 
-3.07349 -0.275045 4.31659 20 18 29 
-3.08971 -0.935678 4.379 108 119 147 
-1.39692 -0.622596 2.56271 38 47 88 
-3.02794 0.507114 4.22614 69 83 112 
-3.01983 0.701137 4.20728 10 19 36 
-3.03294 0.55553 4.23473 53 66 82 
-3.08882 -1.21729 4.41587 57 45 49 
-3.01794 0.441447 4.23201 67 83 116 
-3.018 0.734273 4.21285 90 105 136 
-4.09655 -2.54039 5.58212 162 189 234 
-3.09069 -1.13031 4.42095 111 129 165 
-3.01893 0.496267 4.24118 13 15 40 
-3.01251 0.65161 4.22551 61 76 97 
-3.02603 0.546878 4.24868 25 31 43 
-1.3397 0.417084 2.45603 35 41 75 
-3.01632 0.513021 4.25404 68 80 104 
-3.01039 0.706004 4.23594 14 22 35 
-3.06138 -0.336905 4.36023 73 73 97 
-3.01389 0.671836 4.24637 10 14 26 
-3.0361 0.452004 4.28515 75 91 124 
-3.01542 0.638784 4.25393 11 19 32 
-3.0083 0.741125 4.24272 87 98 128 
-3.01445 0.605794 4.26034 11 15 27 
-3.01506 0.572749 4.26876 13 16 31 
-3.01161 0.502264 4.27213 14 16 39 
-3.01176 0.700139 4.26147 71 77 103 
-3.00985 0.661225 4.26422 69 76 102 
-3.00984 0.371422 4.2856 8 12 13 
-3.01227 0.630999 4.27539 72 83 111 
-1.32276 0.440635 2.45833 51 39 43 
-3.01155 0.594343 4.27901 71 82 110 
-3.00048 0.712283 4.25947 32 31 49 
-3.03154 0.434197 4.32252 13 17 28 
-4.10154 -2.48451 5.68971 38 42 80 
-3.01681 0.463734 4.31834 70 67 84 
-3.91504 -2.4316 5.49844 34 31 102 
-3.03051 -0.911532 4.44372 107 105 118 
-3.89203 -2.45277 5.49909 166 197 252 
-3.88586 -2.43826 5.5009 90 103 173 
-3.01323 -0.111438 4.41235 30 38 57 
-3.02529 -0.937816 4.48344 47 65 101 
-2.97707 0.350183 4.34447 44 29 34 
-3.03609 -1.1802 4.5172 32 29 40 
-3.02513 -0.336358 4.45019 25 35 60 
-3.04663 -1.06942 4.52783 46 64 100 
-3.01727 -1.20716 4.50607 61 50 54 
-3.0097 -1.2046 4.49921 54 41 48 
-3.00785 -0.926719 4.54258 52 70 106 
-2.95589 0.907662 4.37835 85 102 146 
-3.00824 -1.17497 4.59191 67 56 60 
-3.01876 -1.01868 4.60517 107 123 156 
-3.0065 -1.15958 4.62904 34 24 33 
-2.97149 -1.18069 4.63856 61 49 59 
-2.82477 0.667096 4.42403 20 30 66 
-2.99772 -0.637384 4.72655 106 123 169 
-2.79235 0.516692 4.44377 32 42 91 
-2.86054 1.08286 4.5064 91 80 96 
-2.76817 0.568938 4.4604 21 21 57 
-2.8999 -0.40059 4.70137 46 56 91 
-2.90453 -0.368197 4.7309 56 51 58 
-2.8867 -0.319735 4.76749 35 34 48 
-2.90163 -0.0389303 4.78031 16 19 24 
-2.92355 -0.945513 4.88152 26 43 71 
-2.92165 -0.9702 4.88447 28 44 70 
-3.12103 -1.6547 5.18441 103 127 187 
-2.92215 -0.926686 4.89009 30 49 81 
-2.89709 -1.13287 4.87538 47 36 44 
-2.92188 -1.06189 4.91796 31 43 67 
-2.91994 -0.844745 4.90018 41 54 98 
-3.04468 -1.5989 5.12163 15 11 34 
-2.92032 -0.831262 4.91084 110 121 141 
-2.92008 -1.04515 4.93924 32 41 82 
-2.90759 -1.09993 4.93653 37 30 38 
-2.90413 -0.978668 4.96673 30 41 69 
-2.99428 -1.67127 5.14473 36 43 87 
-2.98821 -1.66012 5.1492 144 166 203 
-2.89678 -1.03465 4.98756 33 38 76 
-2.89574 -0.933691 5.01362 83 80 99 
-2.86154 -0.216286 4.93245 107 126 159 
-2.87226 -0.801027 5.02356 93 95 118 
-2.86277 -0.892823 5.025 26 42 68 
-2.84561 -0.28987 4.96149 47 47 57 
-2.87295 -0.801086 5.05853 108 115 143 
-2.86818 -0.994129 5.08984 111 129 167 
-2.86001 -0.885291 5.10322 28 42 71 
-2.86208 -0.9513 5.11811 33 46 78 
-2.8507 -1.06459 5.11826 40 30 39 
-2.84574 -0.791288 5.10624 124 134 161 
-2.79894 -0.753634 5.08626 44 28 38 
-3.82166 -2.30067 6.64381 40 40 64 
-2.79824 -1.09783 5.21106 67 73 109 
-2.77009 -0.913394 5.23002 109 127 173 
-2.74145 -1.11008 5.26435 98 116 156 
-2.75421 -0.0351152 5.20531 13 16 21 
-2.7561 0.0136992 5.2257 21 18 35 
-2.75745 -0.0573057 5.24084 19 18 34 
-2.75119 0.0829236 5.22221 112 125 167 
-3.15974 -1.72182 5.96361 79 92 134 
-2.75207 -1.06997 5.34395 62 72 107 
-2.73902 -0.223589 5.25949 41 43 56 
-2.73463 -0.709899 5.31591 46 34 44 
-2.74439 -0.024167 5.27953 17 16 21 
-3.14321 -1.70405 5.98121 93 113 150 
-2.74458 -1.03684 5.36596 57 45 55 
-2.76036 -0.893379 5.38758 30 40 67 
-2.7412 -0.0433208 5.29591 16 14 25 
-2.74248 -0.0707936 5.30333 23 17 31 
-2.75719 -0.929824 5.39314 114 133 166 
-2.76274 -0.845112 5.4077 36 39 72 
-2.75736 -0.732476 5.3941 105 117 143 
-2.73492 -0.055758 5.31194 107 121 148 
-2.76432 -0.950609 5.42624 30 36 72 
-2.75717 -0.794285 5.40927 107 120 152 
-2.75329 -0.926118 5.42717 111 132 163 
-2.73632 -0.996689 5.41206 43 38 45 
-2.72337 -0.137194 5.33371 76 78 103 
-2.74919 -0.725169 5.41956 93 97 122 
-2.7431 -0.816787 5.44053 28 38 65 
-2.60612 1.1311 5.08701 13 14 44 
-2.60844 1.17262 5.10759 17 17 29 
-2.59771 1.13816 5.09762 88 96 132 
-2.70574 -0.00575415 5.353 18 19 23 
-2.73857 -0.842767 5.47718 115 125 160 
-2.62042 1.12306 5.15552 92 107 148 
-2.72118 -0.737782 5.46424 85 76 95 
-2.70625 0.0336568 5.3884 109 122 154 
-2.56877 1.1743 5.12385 92 111 169 
-2.58085 1.24474 5.14768 15 17 29 
-2.69587 0.0047253 5.42434 31 35 46 
-2.67306 -0.192175 5.4208 33 31 44 
-2.69726 -0.144844 5.4566 17 21 30 
-2.57381 1.22115 5.18305 112 86 99 
-2.65536 0.155092 5.40215 58 48 56 
-2.61972 0.83073 5.30991 8 12 39 
-2.55266 1.20403 5.18039 96 106 141 
-2.6939 -0.769542 5.60147 42 50 89 
-2.66743 -0.739994 5.60643 78 73 93 
-2.51707 0.817861 5.26623 21 29 68 
-2.6327 -0.234973 5.53608 72 75 108 
-2.51172 0.795329 5.2666 38 53 84 
-3.49587 -2.07899 7.29874 78 93 132 
-3.47175 -2.05744 7.31333 94 112 148 
-2.93194 -1.57675 6.63168 88 108 145 
-2.47571 0.634552 5.75572 47 33 33 
-2.50371 0.961054 5.79355 96 103 131 
-2.50825 0.815153 5.82904 90 106 139 
-2.48323 0.673962 5.81401 43 43 55 
-2.49471 0.854573 5.84688 18 18 28 
-2.50441 -0.648202 6.05695 107 106 120 
-2.48535 0.750657 5.89534 95 106 134 
-2.48563 0.828897 5.90133 70 67 88 
-2.50648 -0.891148 6.11159 57 45 55 
-2.47765 0.748882 5.91142 68 61 77 
-3.44088 -2.0719 7.83816 39 44 74 
-2.51513 -0.647992 6.14163 89 104 135 
-2.52024 -0.714679 6.16152 97 113 147 
-2.48915 0.00496829 6.08543 77 74 101 
-2.50633 -0.740362 6.19342 28 34 58 
-2.44049 1.06573 5.91137 119 131 171 
-2.5056 -0.689336 6.20297 20 22 43 
-2.50807 -0.71616 6.21017 19 20 50 
-2.50756 -0.798229 6.22213 23 23 57 
-2.45685 -0.103086 6.07831 48 31 37 
-2.44091 1.04337 5.96023 33 38 57 
-2.46569 -0.682624 6.17661 74 72 94 
-2.4889 -0.843251 6.24256 46 29 37 
-2.44504 1.015 5.98981 34 35 55 
-2.44417 0.919821 6.00842 30 31 52 
-2.43326 -0.0956882 6.09045 49 34 41 
-2.4683 -0.567508 6.21008 116 114 127 
-2.44943 0.130329 6.18298 38 36 60 
-2.47353 -0.755765 6.3221 110 125 164 
-2.46153 -0.689541 6.31456 31 47 83 
-2.46763 -0.583234 6.32838 23 31 44 
-3.28688 -1.95448 7.9626 86 100 139 
-2.45922 -0.710874 6.34055 33 46 78 
-2.45569 -0.774805 6.34955 31 44 76 
-2.45611 -0.686211 6.3515 29 35 71 
-2.45166 -0.673138 6.36371 121 132 164 
-3.25407 -1.92837 7.96505 76 94 130 
-2.40513 -0.132464 6.30994 113 130 174 
-2.41923 -0.837846 6.40726 65 46 52 
-2.71589 -1.44628 7.26964 102 120 158 
-2.32652 -0.951215 6.60958 81 93 135 
-2.29126 1.13267 6.35657 17 18 36 
-2.28598 1.16251 6.37542 107 125 161 
-2.27861 0.373382 6.48803 62 49 56 
-2.30206 0.345654 6.54137 120 130 165 
-2.29068 0.851288 6.49228 25 25 35 
-2.30174 -0.771021 6.70428 59 46 55 
-2.32307 -0.698234 6.74249 14 16 29 
-2.26805 -0.861831 6.65044 96 111 152 
-2.27898 1.03072 6.47949 100 106 140 
-2.28746 -0.443216 6.65102 55 42 52 
-2.30887 -0.573382 6.76748 15 21 43 
-2.25031 1.04541 6.544 74 84 109 
-2.24359 1.11659 6.55733 83 102 132 
-2.26026 0.29138 6.68359 85 95 122 
-2.24163 0.969972 6.58169 90 103 138 
-2.24831 0.896648 6.60707 81 88 116 
-2.23347 1.10577 6.56726 29 38 67 
-2.26807 -0.447724 6.81451 116 116 126 
-2.26933 -0.566062 6.87148 92 102 129 
-2.25334 0.254604 6.76475 31 38 57 
-2.25388 0.118909 6.79249 26 31 50 
-2.24775 0.385142 6.75227 112 125 159 
-2.27471 -0.637 6.93113 110 124 159 
-2.23821 -0.695194 6.91694 59 65 77 
-2.1928 0.800626 6.7543 57 55 77 
-2.22128 -0.72156 7.01566 62 47 54 
-2.12434 -0.534988 7.30839 113 128 171 
-2.22229 -1.19552 7.61771 11 13 25 
-2.20557 -1.12222 7.61598 70 86 112 
-2.0871 0.409717 7.19579 24 27 44 
-2.19088 -1.12462 7.65106 14 17 34 
-2.08981 0.244916 7.26647 94 107 141 
-2.0728 0.16863 7.24936 40 44 56 
-2.08544 0.457369 7.26332 23 25 38 
-2.09649 -0.40112 7.41685 89 105 130 
-2.05371 -0.305548 7.30673 70 58 70 
-2.07024 0.486838 7.25991 100 111 141 
-2.07183 0.409843 7.29405 110 119 150 
-2.09484 -0.364231 7.45285 20 22 35 
-2.06785 0.339587 7.32635 75 75 101 
-2.07884 -0.451072 7.48791 118 129 159 
-2.07977 -0.454598 7.51221 84 88 117 
-2.04286 0.182491 7.35137 90 82 93 
-2.04674 -0.726255 7.56797 95 113 151 
-2.04741 -0.328453 7.52406 30 36 58 
-2.03537 0.251407 7.4546 21 27 39 
-2.00669 0.193975 7.40539 48 45 56 
-2.05059 -0.332487 7.61157 27 32 51 
-2.04306 -0.329625 7.59552 28 31 50 
-2.03612 -0.0595627 7.54736 101 119 159 
-2.04199 -0.527332 7.6321 19 22 41 
-2.02381 -0.569316 7.59456 51 51 61 
-2.03024 -0.362372 7.62449 114 123 152 
-2.00749 -0.263824 7.59609 68 54 67 
-2.44429 -1.4033 9.16125 27 32 51 
-1.90649 0.63533 7.53467 62 46 56 
-1.88076 0.606649 7.59215 94 101 130 
-1.84988 0.578489 7.5577 30 32 55 
-1.852 0.359047 7.60315 26 31 50 
-1.85302 0.304309 7.61833 26 32 54 
-1.85344 0.217361 7.637 22 27 46 
-1.85664 -0.242139 7.73529 25 31 53 
-1.85719 -0.286758 7.74331 24 31 47 
-1.8181 0.550703 7.53162 82 88 112 
-1.85758 -0.369099 7.76127 27 32 51 
-1.85974 -0.412375 7.7763 24 29 48 
-1.85885 -0.455798 7.78135 25 28 45 
-1.81491 0.462693 7.54119 79 90 112 
-1.81944 0.37502 7.5678 79 85 109 
-1.82197 0.600432 7.54653 92 105 140 
-1.85805 -0.555267 7.80061 21 27 43 
-1.85931 -0.597493 7.81348 17 23 37 
-1.81122 0.277378 7.57189 77 87 112 
-1.83366 -0.267806 7.72967 81 88 114 
-1.83139 -0.351859 7.73994 70 78 101 
-1.83047 -0.223368 7.72838 97 103 135 
-1.79827 0.574423 7.54084 28 27 41 
-1.80162 -0.246152 7.71043 23 26 41 
-1.80401 -0.459704 7.75716 20 26 40 
-1.76853 0.591915 7.53445 95 109 144 
-1.77381 -0.497581 7.75934 88 104 138 
-1.73687 0.566314 7.51645 14 17 34 
-1.73731 0.437887 7.54117 12 18 34 
-1.73012 0.50047 7.51417 62 73 93 
-1.73737 0.34757 7.55884 15 20 39 
-1.73853 0.296305 7.57242 12 15 32 
-1.74687 -0.250736 7.70133 12 15 34 
-1.74795 -0.338447 7.72115 14 18 30 
-1.70722 0.591 7.48609 96 107 139 
-1.74497 -0.464827 7.73802 14 16 31 
-1.74727 -0.51977 7.75451 19 20 38 
-1.74827 -0.606694 7.7738 17 28 46 
-1.69644 0.538729 7.47588 63 71 90 
-1.70888 0.317399 7.54966 85 99 134 
-1.68932 0.268876 7.51749 33 40 59 
-1.6854 0.56668 7.48309 21 20 36 
-1.70501 -0.275174 7.66106 76 82 104 
-1.71777 -0.497091 7.73342 88 102 137 
-1.7034 -0.355287 7.67636 61 72 94 
-1.70566 -0.443061 7.69731 43 54 74 
-1.68515 0.293954 7.53799 16 14 27 
-1.70502 -0.543908 7.7193 40 52 78 
-1.6979 -0.645638 7.7172 46 52 74 
-1.64194 0.614812 7.40932 60 47 57 
-1.68901 -0.468969 7.69812 20 18 29 
-1.67585 -0.683126 7.70702 51 38 48 
-1.53338 -0.653936 7.67434 102 120 160 
-1.36826 -0.890767 7.6348 33 24 27 
-1.36862 -0.551958 7.6416 65 78 120 
-1.32988 -1.10243 7.94612 64 79 108 
-1.32197 -1.14229 7.93307 33 47 84 
-1.19087 -1.24947 7.99513 38 44 56 
-1.03826 0.574826 7.22513 71 63 74 
-1.04402 -0.251616 7.39395 65 56 75 
-1.04611 -0.11016 7.39611 108 127 170 
-1.00318 0.0840886 7.31817 40 28 42 
-1.01221 -0.729767 7.51125 40 30 41 
-1.00352 -0.498721 7.47606 117 128 158 
-0.971368 0.271906 7.27698 42 48 74 
-0.0403561 0.19768 3.82787 75 85 110 
-0.974909 -0.306498 7.41654 47 51 80 
-0.979716 -0.548262 7.47849 36 37 58 
-0.980323 -0.675903 7.50707 25 27 42 
-0.953759 -0.699626 7.45465 21 24 39 
-0.947873 0.16206 7.30003 90 109 139 
-0.947804 0.539389 7.2446 112 126 161 
-0.948551 -0.360646 7.41723 99 115 148 
-0.924902 -0.549094 7.45074 19 21 34 
-0.928724 -0.682749 7.49254 18 20 33 
-0.892318 -0.298844 7.39436 116 138 179 
-0.860146 0.29395 7.24169 35 42 70 
-0.857863 0.263359 7.23966 32 42 67 
-0.860775 0.207781 7.26402 33 40 68 
-0.867654 -0.686352 7.47104 18 21 38 
-0.861596 -0.410708 7.39908 15 18 27 
-0.858281 -0.343605 7.37552 17 19 32 
-0.834631 0.232269 7.25178 101 121 158 
-0.818858 0.0896617 7.2356 45 50 70 
-0.802724 0.259021 7.20489 35 42 61 
-0.805068 0.169041 7.23157 47 54 80 
-0.801322 0.47092 7.16131 23 26 33 
-0.792961 0.0663486 7.22324 48 40 53 
-0.801171 -0.746455 7.41458 47 35 49 
-0.738011 1.48555 6.89811 23 18 24 
-0.739225 1.35174 6.93833 43 36 54 
-0.698613 1.44212 6.89813 86 100 137 
-0.692656 1.51333 6.88202 26 24 29 
-0.653682 1.51021 6.88007 93 88 110 
-0.641244 1.53717 6.85739 28 23 29 
-0.966456 -1.80439 9.07937 37 39 64 
-0.571703 1.53352 6.85339 83 96 131 
-0.549638 1.58102 6.7801 21 19 20 
-0.416045 1.58364 6.84116 94 100 148 
-0.406555 1.57298 6.85088 15 19 67 
-0.407277 1.59795 6.85912 13 17 55 
-0.634575 -1.51066 8.93268 95 115 150 
-0.612503 -1.49519 8.95472 80 98 138 
-0.293852 -0.465879 7.62985 90 105 136 
-0.282575 0.108711 7.41844 39 29 38 
-0.282918 -0.695757 7.63267 44 40 55 
-0.283346 1.44883 7.08454 37 30 38 
-0.284287 1.15237 7.22074 23 24 42 
-0.280043 -0.273452 7.60768 34 41 69 
-0.270495 1.37909 7.16799 49 57 76 
-0.272013 1.43993 7.18196 84 88 113 
-0.268349 0.304966 7.47334 36 44 65 
-0.265268 -0.659072 7.72667 108 124 160 
-0.267675 0.550402 7.42456 53 58 88 
-0.263234 1.16129 7.26516 16 22 36 
-0.24224 -0.350505 7.61526 47 55 91 
-0.243158 1.44888 7.24408 68 75 104 
-0.226153 1.16943 7.31257 20 23 38 
-0.227224 1.42371 7.27602 16 23 42 
-0.21926 -0.618711 7.80656 39 49 84 
-0.192358 -0.670102 7.81174 35 25 34 
-0.179646 0.146769 7.62257 35 25 33 
-0.182602 1.29926 7.36738 73 81 104 
-0.183439 1.35163 7.36766 79 85 109 
-0.176338 1.01077 7.44069 24 18 22 
-0.148497 1.50737 7.37385 32 27 34 
-0.157732 -1.28591 9.45643 44 48 75 
0.151516 -0.540998 8.36715 31 30 48 
0.151586 -0.501423 8.35907 31 33 54 
0.151934 -0.433713 8.3462 47 46 77 
0.162909 -0.566728 8.32302 44 33 41 
0.160073 -0.412921 8.35073 99 115 149 
0.177042 -0.389962 8.39386 65 79 118 
0.169384 1.59191 7.81528 27 22 29 
0.17655 1.32277 7.97817 43 51 70 
0.181424 1.23358 7.96786 40 48 67 
0.181228 1.27571 7.96691 69 80 112 
0.177787 1.53856 7.95001 35 43 62 
0.206452 -1.14948 8.90658 143 167 227 
0.190086 1.56781 7.85734 75 89 118 
0.201184 0.575358 8.20632 94 113 146 
0.216697 -0.396279 8.49532 98 114 148 
0.218095 0.337427 8.27844 32 39 67 
0.234881 -0.480246 8.51917 23 27 54 
0.207663 1.58231 7.96022 69 84 117 
0.244303 -0.103673 8.40829 106 122 158 
0.24938 -0.499526 8.55501 88 94 118 
0.247278 0.716173 8.25495 36 43 71 
0.247806 0.679797 8.27015 36 44 67 
0.242284 1.29517 8.07662 70 86 112 
0.271487 0.289511 8.35497 28 21 28 
0.254458 1.28104 8.11413 32 39 67 
0.304511 1.6525 8.11504 26 23 32 
0.457321 -1.19075 9.02752 140 171 228 
