ply                 
format ascii 1.0    
element vertex 1303
property float x    
property float y    
property float z    
property uchar red  
property uchar green
property uchar blue 
end_header          
-0.939825 0.515221 7.31188 36 44 67 
-0.941332 -0.320976 7.48917 20 18 29 
-0.87964 -0.325891 7.47527 18 17 31 
-0.840557 0.307573 7.32013 35 48 83 
-0.840557 0.307573 7.32013 35 48 83 
-0.826527 -0.325266 7.43777 21 25 37 
-0.814078 0.0671269 7.32789 52 39 56 
-0.796368 -0.339032 7.41509 106 102 117 
-0.985477 -1.83535 9.20626 37 38 66 
-0.281119 0.622067 3.44389 38 7 15 
-0.267363 0.640453 3.43375 9 16 24 
-0.260002 0.626882 3.46445 46 0 3 
-0.253726 0.637329 3.44289 82 80 39 
-0.257366 0.491996 3.55165 37 37 65 
-0.234576 0.486775 3.58604 44 81 90 
-0.582826 -1.6033 9.39259 39 45 77 
-0.215017 0.599594 3.8592 3 23 48 
-0.193255 0.652112 3.55116 7 30 22 
-0.179591 0.667332 3.55822 26 39 71 
-0.179591 0.667332 3.55822 26 39 71 
-0.29368 0.199866 7.57213 83 98 129 
-0.238678 -0.385346 7.80407 101 116 147 
-0.238678 -0.385346 7.80407 101 116 147 
-0.229927 0.296726 7.66356 106 122 158 
-0.224079 0.560743 7.60713 83 92 123 
-0.223047 -0.2562 7.80456 53 59 95 
-0.168829 -0.19129 7.8445 85 81 95 
-0.160557 0.649101 7.66809 57 49 60 
-0.106763 -1.26577 9.53112 41 46 76 
-0.0302055 0.657763 3.55798 73 75 35 
-0.0137414 0.66313 3.56488 9 16 24 
0.155611 -0.0979252 8.27514 58 49 68 
0.155611 -0.0979252 8.27514 58 49 68 
0.176921 0.727114 8.1924 107 111 138 
0.209424 -0.495133 8.55958 24 29 59 
0.219603 -1.14851 8.95069 161 187 248 
0.210017 -0.42556 8.54562 28 36 72 
0.230367 -1.12332 8.95125 24 26 83 
0.233703 -1.2374 8.96786 158 184 245 
0.224232 -0.434692 8.57605 68 79 101 
0.220719 0.718403 8.30299 33 47 76 
0.239129 -1.16027 8.95093 36 44 93 
0.233025 0.406947 8.4297 71 79 102 
0.231059 0.749705 8.34864 99 110 140 
0.238231 -0.415865 8.59232 39 45 81 
0.238231 -0.415865 8.59232 39 45 81 
0.236094 0.487972 8.41481 67 74 92 
0.235575 0.565499 8.38889 64 76 100 
0.245147 -0.103693 8.51596 108 127 159 
0.253204 -0.468691 8.62248 102 113 145 
0.264079 -0.539462 8.63618 40 28 38 
0.264079 -0.539462 8.63618 40 28 38 
0.253998 1.35453 8.23023 31 35 60 
0.298347 0.792152 8.36993 58 50 63 
0.307659 1.14646 8.29131 53 46 62 
0.306842 1.67857 8.2097 31 26 33 
0.393451 1.84508 8.32173 81 79 101 
0.455064 -1.12549 9.11063 20 27 69 
0.455433 -1.15123 9.11455 20 29 70 
0.455676 -1.15069 9.11058 20 29 70 
0.459647 -1.09057 9.11872 23 26 57 
0.459647 -1.09057 9.11872 23 26 57 
0.46263 -1.20548 9.12926 151 180 238 
0.472123 -1.06859 9.1096 153 175 235 
0.50976 -0.92765 9.02645 39 41 66 
0.566653 0.848691 8.66662 57 50 66 
0.601368 0.352269 8.76876 42 31 47 
0.601368 0.352269 8.76876 42 31 47 
0.61517 -0.0290347 8.87212 113 125 151 
0.615269 0.509958 8.72426 92 108 142 
0.62428 0.419192 8.77248 27 39 77 
0.633695 0.781593 8.66983 44 57 89 
0.641477 0.366831 8.75584 34 40 62 
0.72391 1.82988 8.39757 77 93 129 
0.748844 0.776956 8.64832 39 53 82 
0.748844 0.776956 8.64832 39 53 82 
0.791239 -0.486765 8.91281 49 62 94 
0.777266 0.725201 8.6552 84 102 140 
0.77347 1.71801 8.35122 32 44 82 
0.790635 1.72221 8.35303 77 90 122 
0.792574 1.29104 8.34125 89 102 137 
0.815283 1.28579 8.35318 14 23 56 
0.818395 1.70301 8.342 79 92 134 
0.817866 1.40605 8.3316 21 34 66 
0.81924 1.77955 8.33515 13 20 30 
0.845399 0.827798 8.56922 59 50 67 
0.836833 1.31253 8.32331 23 21 42 
0.845788 1.43653 8.40644 72 81 110 
0.862273 1.48363 8.42487 7 13 37 
0.864887 1.7112 8.32115 33 47 82 
0.906903 1.8227 8.33346 71 87 120 
1.03961 -1.06026 8.48451 151 174 241 
1.15017 -0.0374697 8.63878 65 61 86 
1.19109 -0.524885 8.73956 47 39 54 
1.19109 -0.524885 8.73956 47 39 54 
1.15243 0.803397 8.44384 52 48 62 
1.22789 -0.515438 8.74277 50 61 89 
1.34825 -1.77464 9.44048 95 116 181 
1.22091 0.738841 8.5067 32 43 73 
1.3447 -1.31654 9.32417 155 180 244 
1.27452 -0.477737 8.72985 52 71 114 
1.27162 -0.338765 8.69821 66 87 134 
1.38678 -1.79433 9.45042 69 113 152 
1.38678 -1.79433 9.45042 69 113 152 
1.29199 -0.859153 8.75134 19 27 46 
1.39631 -1.35973 9.37588 156 179 246 
1.3041 -0.495805 8.72518 114 133 176 
1.3041 -0.495805 8.72518 114 133 176 
1.3043 -0.388193 8.70033 122 140 186 
1.43604 -1.81391 9.43683 156 186 246 
1.43939 -1.78724 9.45851 160 184 246 
1.43473 -1.4599 9.35782 163 184 247 
1.43856 -1.40124 9.36477 162 184 242 
1.30515 0.764466 8.46038 103 121 159 
1.4536 -1.43156 9.36495 45 50 70 
1.44277 -1.3361 9.28169 52 87 129 
1.46541 -1.66635 9.41189 158 186 249 
1.45652 -1.38363 9.35179 57 84 137 
1.33151 0.355957 8.527 27 35 58 
1.47622 -1.46596 9.37548 154 185 242 
1.47513 -1.40236 9.3603 156 185 243 
1.3697 -0.526607 8.6873 57 62 91 
1.39073 -0.38571 8.70165 111 130 172 
1.39073 -0.38571 8.70165 111 130 172 
1.36453 0.463931 8.52467 95 113 153 
1.39835 -0.539932 8.67291 49 44 64 
1.38811 0.505154 8.48038 30 41 73 
1.38811 0.505154 8.48038 30 41 73 
1.38905 0.727836 8.42403 37 52 83 
1.55581 -1.26118 9.28428 21 34 53 
1.43811 -0.056474 8.54238 64 61 82 
1.47644 -0.674371 8.65713 12 16 28 
1.59354 -1.22846 9.33284 147 177 237 
1.43166 0.786082 8.36718 52 46 60 
1.52246 0.263777 8.44879 92 84 105 
1.52246 0.263777 8.44879 92 84 105 
1.6688 -1.05565 9.088 33 37 82 
1.71174 -1.06081 9.16565 38 39 67 
1.70089 -1.00236 9.05211 115 125 161 
1.64636 -0.758947 8.52656 70 65 72 
1.65907 -0.805614 8.51881 83 119 155 
1.66253 -0.775196 8.47783 19 18 26 
1.65806 1.22327 8.08109 16 21 53 
1.65736 1.24684 8.07342 16 18 30 
1.67529 1.27202 8.08528 61 81 108 
1.6907 1.41776 8.14161 7 12 34 
1.68053 1.23167 8.07618 78 97 130 
1.78195 -0.566462 8.55451 47 34 52 
1.78195 -0.566462 8.55451 47 34 52 
1.68599 1.25565 8.07404 14 19 48 
1.80886 0.30753 8.39058 22 30 49 
1.80983 0.394733 8.37572 25 35 60 
1.80994 0.472831 8.35662 21 29 48 
1.81072 0.293964 8.35941 21 28 47 
1.80786 0.546174 8.33657 35 44 77 
1.89444 -0.539662 8.53917 97 116 156 
1.89444 -0.539662 8.53917 97 116 156 
1.86217 0.304945 8.36329 24 32 53 
1.86154 0.537848 8.30412 34 49 80 
1.89495 -0.124859 8.45392 104 122 162 
1.89239 0.423022 8.33113 96 115 155 
1.89239 0.423022 8.33113 96 115 155 
1.89239 0.423022 8.33113 96 115 155 
1.92387 0.389509 8.332 29 39 64 
1.92423 0.465549 8.31206 26 32 56 
1.9244 0.693188 8.27428 28 40 66 
1.9244 0.693188 8.27428 28 40 66 
1.97843 0.298615 8.32921 25 32 51 
1.9783 0.382934 8.32014 32 43 71 
1.97549 0.686118 8.24319 34 47 79 
1.88122 1.47563 7.3134 67 85 123 
2.04608 -1.0597 6.56635 15 13 16 
2.05512 -0.624039 6.46831 39 33 43 
2.06273 -0.436958 6.46843 35 32 39 
2.23628 -1.40652 6.92348 26 28 49 
2.08769 -0.283862 6.41234 94 112 148 
2.07688 0.00233034 6.33697 87 106 138 
2.08841 0.0568642 6.32716 88 104 138 
2.05712 1.36245 6.05946 11 12 17 
2.07775 1.34743 6.05924 69 85 119 
2.58293 -1.58561 6.74691 49 58 75 
2.64822 -1.42531 6.75336 63 84 111 
2.64822 -1.42531 6.75336 63 84 111 
1.30929 0.856983 2.91598 96 113 141 
-2.62325 1.22686 5.1686 90 110 169 
-2.64442 0.85368 5.35695 86 101 144 
-2.56459 0.759508 5.33188 82 102 137 
-2.5626 0.735412 5.33542 37 49 65 
-2.41095 0.660687 6.20238 101 119 159 
-2.21932 0.809003 6.80202 56 53 80 
-2.11847 0.403723 7.29267 94 108 135 
-2.7783 -1.7158 9.89391 35 42 61 
-2.09876 -0.603118 7.46798 57 56 74 
-2.64587 -1.66227 9.60036 41 45 72 
-2.07587 -0.313299 7.61248 95 100 122 
-1.94073 0.644826 7.61471 61 45 55 
-1.94322 -0.189924 7.76869 57 44 61 
-1.90775 0.147745 7.69616 33 21 31 
-1.78705 1.04829 7.48524 71 82 104 
-1.85231 -0.58432 7.85119 71 86 109 
-1.6972 1.20052 7.40815 17 20 27 
-1.71232 0.543761 7.52153 12 20 41 
-1.71463 0.37468 7.56642 17 29 51 
-1.71763 -0.27828 7.70051 16 30 56 
-1.29092 1.49677 7.18575 84 99 140 
-1.24762 1.5862 7.11738 84 96 136 
-1.367 -1.16428 8.00634 104 122 158 
-1.16097 1.07704 7.10228 29 35 49 
-1.28922 -1.16412 7.95493 65 80 113 
-1.13562 1.23265 7.16367 67 82 113 
-1.12395 1.25076 7.17545 9 13 38 
-1.1227 1.19569 7.18542 8 12 41 
-1.04968 0.935216 7.21568 65 42 52 
-0.993611 -0.612813 7.55264 49 64 103 
-0.90695 0.392001 7.3064 118 135 179 
-0.907524 0.235176 7.34111 116 135 178 
-0.908054 0.158776 7.35521 116 135 177 
-0.874239 0.510499 7.27015 28 35 54 
-0.877637 0.267894 7.32029 37 44 73 
-0.778925 0.560914 7.17189 70 67 78 
-0.928209 -1.87268 9.2767 150 173 240 
0.257134 -1.24999 8.91618 158 187 247 
0.258874 0.446928 8.40562 96 111 144 
0.300339 -0.0511349 8.53928 60 51 72 
0.47184 -1.11024 9.09199 150 180 234 
0.553799 0.42899 2.75714 16 19 54 
0.564319 0.417932 2.7598 16 21 53 
0.569941 0.43434 2.75975 61 81 108 
-3.07741 1.0064 3.97321 21 18 25 
-3.13106 0.459711 4.06415 37 47 74 
-3.135 0.476537 4.0703 69 82 114 
-3.12899 0.441813 4.07278 76 91 130 
-3.12307 0.704518 4.05001 87 106 139 
-3.1127 0.373138 4.07295 64 83 115 
-3.13036 0.465083 4.08638 23 29 51 
-3.13935 0.428993 4.10209 16 25 58 
-3.12988 0.66945 4.07943 51 63 75 
-3.1259 0.626525 4.08008 53 61 80 
-3.11934 0.390409 4.09258 14 20 46 
-3.11703 0.558114 4.08443 57 68 86 
-3.12257 0.482428 4.09549 67 81 110 
-3.12961 0.578863 4.09696 39 47 58 
-3.12945 0.544934 4.10342 40 50 62 
-3.11137 0.71145 4.0823 89 104 135 
-3.11268 0.469987 4.10952 17 28 50 
-3.12592 0.676046 4.11467 11 17 17 
-3.122 0.60025 4.12683 10 14 15 
-2.94607 0.373782 3.96637 62 72 99 
-3.08248 1.0735 4.06451 7 10 17 
-3.11991 0.61904 4.13403 9 10 15 
-3.1133 0.583997 4.1348 7 10 17 
-3.10792 0.476589 4.14367 20 22 45 
-3.11022 0.677598 4.13517 69 75 101 
-3.10995 0.639644 4.14022 66 73 99 
-3.1085 -0.0933184 4.19426 51 45 49 
-3.11143 0.570719 4.15429 69 78 107 
-3.10397 0.494029 4.15555 73 79 111 
-3.12586 0.41987 4.18484 45 62 82 
-3.14029 -0.263981 4.24577 11 20 29 
-3.08229 0.648229 4.15006 78 75 86 
-3.12535 -0.137956 4.24755 17 18 38 
-3.09643 0.569015 4.17658 72 64 75 
-3.06988 0.731303 4.16884 86 97 127 
-3.07857 0.362842 4.20651 74 62 72 
-3.12766 -0.967548 4.35311 41 61 96 
-3.07548 0.614269 4.19398 7 14 24 
-3.06515 0.665701 4.18681 11 19 30 
-3.08254 0.506985 4.22002 68 83 112 
-3.08505 0.455933 4.22995 17 24 53 
-3.08441 0.4749 4.22925 79 94 133 
-3.08494 0.532775 4.22712 16 21 27 
-3.13088 -1.2279 4.39564 34 28 38 
-3.0715 0.324763 4.23458 45 34 40 
-3.07547 0.495883 4.23559 12 14 39 
-3.07175 0.654722 4.22434 65 72 98 
-3.11806 -0.280149 4.33974 20 18 29 
-3.13321 -0.949449 4.40216 108 119 147 
-1.43187 -0.637313 2.56693 38 47 88 
-3.07372 0.512878 4.2492 69 83 112 
-3.06588 0.709705 4.23031 10 19 36 
-3.07876 0.561981 4.2579 53 66 82 
-3.13177 -1.23462 4.43919 57 45 49 
-3.06352 0.446276 4.25512 67 83 116 
-3.06404 0.74332 4.23598 90 105 136 
-4.1327 -2.56411 5.60525 162 189 234 
-3.13365 -1.14649 4.44431 111 129 165 
-3.06449 0.501873 4.2644 13 15 40 
-3.05832 0.659458 4.24872 61 76 97 
-3.07163 0.553198 4.27196 25 31 43 
-1.37561 0.422731 2.45917 35 41 75 
-3.06178 0.518862 4.27739 68 80 104 
-3.05614 0.714628 4.25927 14 22 35 
-3.10543 -0.342804 4.38374 73 73 97 
-3.05954 0.679955 4.26975 10 14 26 
-3.08147 0.456964 4.30872 75 91 124 
-3.061 0.646424 4.27737 11 19 32 
-3.05401 0.750251 4.26614 87 98 128 
-3.05992 0.612955 4.2838 11 15 27 
-3.06045 0.579436 4.29228 13 16 31 
-3.05685 0.507945 4.29564 14 16 39 
-3.0573 0.708655 4.28501 71 77 103 
-3.05534 0.669186 4.2878 69 76 102 
-3.05488 0.37525 4.30919 8 12 13 
-3.05766 0.638517 4.29904 72 83 111 
-1.35843 0.446775 2.46158 51 39 43 
-3.05686 0.601335 4.30266 71 82 110 
-3.04595 0.720982 4.28304 32 31 49 
-3.07639 0.438879 4.34626 13 17 28 
-4.13644 -2.50703 5.71273 38 42 80 
-3.06174 0.468854 4.34226 70 67 84 
-3.95157 -2.45545 5.5224 34 31 102 
-3.07289 -0.924895 4.46748 107 105 118 
-3.92839 -2.47686 5.52309 166 197 252 
-3.92216 -2.4622 5.52491 90 103 173 
-3.05673 -0.114263 4.43664 30 38 57 
-3.0673 -0.951436 4.50752 47 65 101 
-3.02127 0.353707 4.36862 44 29 34 
-3.07759 -1.19679 4.54124 32 29 40 
-3.06808 -0.342158 4.47447 25 35 60 
-3.08834 -1.08458 4.55209 46 64 100 
-3.05871 -1.22417 4.53012 61 50 54 
-3.05117 -1.22162 4.52326 54 41 48 
-3.0492 -0.94007 4.56712 52 70 106 
-3.00017 0.919079 4.40321 85 102 146 
-3.04888 -1.19132 4.61655 67 56 60 
-3.05948 -1.03299 4.62991 107 123 156 
-3.04675 -1.17561 4.65387 34 24 33 
-3.01131 -1.197 4.66349 61 49 59 
-2.86735 0.675155 4.44967 20 30 66 
-3.03745 -0.64663 4.75223 106 123 169 
-2.83433 0.522613 4.46959 32 42 91 
-2.9032 1.09673 4.53287 91 80 96 
-2.80986 0.575609 4.4865 21 21 57 
-2.93944 -0.406973 4.72759 46 56 91 
-2.94385 -0.374115 4.75726 56 51 58 
-2.92563 -0.324998 4.7942 35 34 48 
-2.94099 -0.0405618 4.8074 16 19 24 
-2.96093 -0.958274 4.90794 26 43 71 
-2.95906 -0.983275 4.911 28 44 70 
-3.15628 -1.67414 5.21056 103 127 187 
-2.95951 -0.939209 4.91663 30 49 81 
-2.93418 -1.14797 4.90178 47 36 44 
-2.95886 -1.07597 4.94452 31 43 67 
-2.95732 -0.856262 4.92688 41 54 98 
-3.08007 -1.61818 5.14796 15 11 34 
-2.95757 -0.842581 4.93756 110 121 141 
-2.95687 -1.05897 4.96591 32 41 82 
-2.94421 -1.11442 4.96314 37 30 38 
-2.94056 -0.991623 4.99358 30 41 69 
-3.02898 -1.69132 5.17119 36 43 87 
-3.02285 -1.68005 5.17572 144 166 203 
-2.93294 -1.04824 5.01451 33 38 76 
-2.93164 -0.945974 5.0406 83 80 99 
-2.8989 -0.22006 4.96017 107 126 159 
-2.90813 -0.811764 5.05092 93 95 118 
-2.89845 -0.904661 5.05232 26 42 68 
-2.88251 -0.29454 4.98935 47 47 57 
-2.90849 -0.811738 5.08601 108 115 143 
-2.90316 -1.00696 5.11722 111 129 167 
-2.89491 -0.896828 5.13078 28 42 71 
-2.89676 -0.963555 5.14561 33 46 78 
-2.88518 -1.07817 5.1457 40 30 39 
-2.88061 -0.801735 5.13395 124 134 161 
-2.83369 -0.763744 5.11416 44 28 38 
-3.84314 -2.31604 6.66315 40 40 64 
-2.83141 -1.11158 5.2389 67 73 109 
-2.80313 -0.925039 5.25828 109 127 173 
-2.77379 -1.12391 5.29266 98 116 156 
-2.78854 -0.0364612 5.2348 13 16 21 
-2.79027 0.01296 5.25524 21 18 35 
-2.79139 -0.0588945 5.27032 19 18 34 
-2.78549 0.0830262 5.25192 112 125 167 
-3.18703 -1.73816 5.98933 79 92 134 
-2.78368 -1.08305 5.37227 62 72 107 
-2.77244 -0.227161 5.28888 41 43 56 
-2.76683 -0.719042 5.34473 46 34 44 
-2.77798 -0.0253355 5.30928 17 16 21 
-3.17022 -1.72017 6.00694 93 113 150 
-2.77595 -1.0495 5.39437 57 45 55 
-2.79183 -0.904367 5.41615 30 40 67 
-2.77453 -0.0447084 5.32562 16 14 25 
-2.7758 -0.0725053 5.33312 23 17 31 
-2.78857 -0.941211 5.42173 114 133 166 
-2.79407 -0.855504 5.43632 36 39 72 
-2.78898 -0.74167 5.42296 105 117 143 
-2.76808 -0.0572855 5.34176 107 121 148 
-2.79544 -0.962126 5.45485 30 36 72 
-2.78857 -0.80413 5.43806 107 120 152 
-2.78433 -0.937373 5.45582 111 132 163 
-2.76728 -1.00878 5.44065 43 38 45 
-2.75611 -0.139674 5.36348 76 78 103 
-2.78052 -0.73423 5.44849 93 97 122 
-2.77408 -0.826819 5.4694 28 38 65 
-2.642 1.14498 5.11854 13 14 44 
-2.64421 1.18703 5.13925 17 17 29 
-2.63347 1.15214 5.12929 88 96 132 
-2.73842 -0.00666726 5.38318 18 19 23 
-2.76912 -0.852989 5.50604 115 125 160 
-2.65576 1.13665 5.18718 92 107 148 
-2.75178 -0.74689 5.4932 85 76 95 
-2.73864 0.0332315 5.41869 109 122 154 
-2.60413 1.18876 5.15584 92 111 169 
-2.61623 1.26011 5.17986 15 17 29 
-2.72785 0.00397498 5.45474 31 35 46 
-2.70457 -0.195238 5.45091 33 31 44 
-2.72873 -0.147315 5.4868 17 21 30 
-2.6088 1.23613 5.2154 112 86 99 
-2.68745 0.156116 5.43293 58 48 56 
-2.65336 0.840232 5.34178 8 12 39 
-2.58743 1.2188 5.21274 96 106 141 
-2.72311 -0.778719 5.63078 42 50 89 
-2.69646 -0.748874 5.63593 78 73 93 
-2.55038 0.827379 5.29861 21 29 68 
-2.66284 -0.238425 5.56653 72 75 108 
-2.54501 0.804568 5.29905 38 53 84 
-3.50849 -2.08965 7.3135 78 93 132 
-3.48416 -2.06795 7.32805 94 112 148 
-2.95104 -1.58909 6.65538 88 108 145 
-2.50423 0.64124 5.78906 47 33 33 
-2.53254 0.971566 5.82737 96 103 131 
-2.53656 0.823858 5.86252 90 106 139 
-2.51124 0.681033 5.84726 43 43 55 
-2.52282 0.863728 5.88051 18 18 28 
-2.52827 -0.65526 6.08694 107 106 120 
-2.51281 0.758535 5.92881 95 106 134 
-2.51319 0.837684 5.93501 70 67 88 
-2.52948 -0.90041 6.14092 57 45 55 
-2.50493 0.756728 5.94495 68 61 77 
-3.4465 -2.07918 7.84593 39 44 74 
-2.53828 -0.65485 6.17139 89 104 135 
-2.54317 -0.722127 6.19109 97 113 147 
-2.51365 0.0045492 6.11687 77 74 101 
-2.52881 -0.747987 6.22289 28 34 58 
-2.46806 1.07737 5.94591 119 131 171 
-2.52802 -0.696449 6.23245 20 22 43 
-2.53047 -0.723518 6.23967 19 20 50 
-2.52973 -0.806325 6.25141 23 23 57 
-2.48109 -0.104643 6.10979 48 31 37 
-2.46808 1.05466 5.9948 33 38 57 
-2.48816 -0.689784 6.20644 74 72 94 
-2.51069 -0.851728 6.27176 46 29 37 
-2.47186 1.02587 6.02417 34 35 55 
-2.47068 0.929549 6.04258 30 31 52 
-2.45729 -0.0971678 6.12211 49 34 41 
-2.49068 -0.573496 6.24011 116 114 127 
-2.47306 0.131245 6.21484 38 36 60 
-2.4946 -0.763245 6.35127 110 125 164 
-2.48272 -0.696451 6.34399 31 47 83 
-2.4889 -0.589127 6.35798 23 31 44 
-3.29121 -1.96099 7.96975 86 100 139 
-2.48011 -0.717916 6.36982 33 46 78 
-2.47643 -0.782419 6.37875 31 44 76 
-2.47697 -0.693015 6.3809 29 35 71 
-2.47237 -0.679792 6.39305 121 132 164 
-3.25839 -1.93486 7.97239 76 94 130 
-2.42692 -0.134133 6.34108 113 130 174 
-2.43909 -0.845901 6.43618 65 46 52 
-2.72768 -1.45521 7.28936 102 120 158 
-2.34389 -0.959778 6.63779 81 93 135 
-2.31423 1.14436 6.39196 17 18 36 
-2.30877 1.17449 6.41083 107 125 161 
-2.29899 0.376786 6.52081 62 49 56 
-2.32204 0.348755 6.57369 120 130 165 
-2.31194 0.859629 6.52641 25 25 35 
-2.31838 -0.777846 6.73255 59 46 55 
-2.33959 -0.70434 6.7706 14 16 29 
-2.28483 -0.869592 6.67891 96 111 152 
-2.30055 1.04102 6.51421 100 106 140 
-2.30503 -0.447385 6.68058 55 42 52 
-2.32527 -0.578414 6.79586 15 21 43 
-2.27123 1.05577 6.57883 74 84 109 
-2.26447 1.1277 6.59237 83 102 132 
-2.27866 0.293929 6.71539 85 95 122 
-2.26203 0.979464 6.61618 90 103 138 
-2.2684 0.905316 6.6412 81 88 116 
-2.25421 1.11676 6.60233 29 38 67 
-2.28405 -0.451656 6.8432 116 116 126 
-2.28461 -0.570853 6.89945 92 102 129 
-2.27088 0.256795 6.79597 31 38 57 
-2.27099 0.119864 6.82322 26 31 50 
-2.26564 0.388561 6.78407 112 125 159 
-2.28934 -0.642211 6.95838 110 124 159 
-2.2527 -0.700931 6.94433 59 65 77 
-2.21114 0.808128 6.78786 57 55 77 
-2.23479 -0.727277 7.0424 62 47 54 
-2.13517 -0.538772 7.33392 113 128 171 
-2.22966 -1.20241 7.63724 11 13 25 
-2.21296 -1.12871 7.63575 70 86 112 
-2.10032 0.413193 7.22579 24 27 44 
-2.19793 -1.13104 7.67056 14 17 34 
-2.1022 0.247004 7.2954 94 107 141 
-2.08514 0.170098 7.27829 40 44 56 
-2.09825 0.461222 7.29315 23 25 38 
-2.10643 -0.403778 7.44188 89 105 130 
-2.06467 -0.307727 7.33357 70 58 70 
-2.08304 0.490945 7.28994 100 111 141 
-2.08422 0.413284 7.32354 110 119 150 
-2.10451 -0.366575 7.47765 20 22 35 
-2.07981 0.342437 7.35529 75 75 101 
-2.08805 -0.453966 7.51225 118 129 159 
-2.08857 -0.457442 7.53589 84 88 117 
-2.05417 0.184079 7.37957 90 82 93 
-2.05463 -0.730772 7.59056 95 113 151 
-2.05639 -0.330478 7.54868 30 36 58 
-2.04598 0.253539 7.48238 21 27 39 
-2.01736 0.195656 7.43332 48 45 56 
-2.05872 -0.334396 7.63503 27 32 51 
-2.05146 -0.331562 7.61956 28 31 50 
-2.04522 -0.0596995 7.57263 101 119 159 
-2.04973 -0.53048 7.65497 19 22 41 
-2.03161 -0.572802 7.61753 51 51 61 
-2.03819 -0.364475 7.64796 114 123 152 
-2.01577 -0.265332 7.62039 68 54 67 
-2.43618 -1.40379 9.15215 27 32 51 
-1.91661 0.640519 7.56427 62 46 56 
-1.89021 0.611552 7.62121 94 101 130 
-1.85948 0.583224 7.5873 30 32 55 
-1.86085 0.362009 7.63136 26 31 50 
-1.86161 0.306843 7.64605 26 32 54 
-1.86171 0.219238 7.66411 22 27 46 
-1.86329 -0.243408 7.75929 25 31 53 
-1.86375 -0.288313 7.76717 24 31 47 
-1.82774 0.555255 7.56164 82 88 112 
-1.86387 -0.371155 7.78459 27 32 51 
-1.86576 -0.414664 7.79905 24 29 48 
-1.86479 -0.458355 7.80397 25 28 45 
-1.82432 0.466524 7.57082 79 90 112 
-1.82855 0.378138 7.59687 79 85 109 
-1.83163 0.605382 7.57667 92 105 140 
-1.86369 -0.558396 7.82266 21 27 43 
-1.86467 -0.600822 7.83494 17 23 37 
-1.81997 0.279722 7.6003 77 87 112 
-1.84027 -0.269267 7.7539 81 88 114 
-1.83777 -0.353854 7.76372 70 78 101 
-1.83717 -0.224541 7.75286 97 103 135 
-1.80778 0.579171 7.57101 28 27 41 
-1.80829 -0.247512 7.73517 23 26 41 
-1.80997 -0.462377 7.7805 20 26 40 
-1.77802 0.596838 7.56508 95 109 144 
-1.77963 -0.500519 7.78281 88 104 138 
-1.74635 0.571064 7.54748 14 17 34 
-1.74641 0.441554 7.57147 12 18 34 
-1.73946 0.504672 7.54498 62 73 93 
-1.74614 0.350493 7.58851 15 20 39 
-1.74705 0.298812 7.60158 12 15 32 
-1.75341 -0.252169 7.72657 12 15 34 
-1.75416 -0.340436 7.74573 14 18 30 
-1.71687 0.596014 7.51782 96 107 139 
-1.75091 -0.467624 7.7621 14 16 31 
-1.75293 -0.522869 7.77797 19 20 38 
-1.75361 -0.610285 7.7966 17 28 46 
-1.70601 0.543306 7.50752 63 71 90 
-1.71752 0.320087 7.57946 85 99 134 
-1.69801 0.271182 7.54749 33 40 59 
-1.69492 0.571499 7.51489 21 20 36 
-1.71168 -0.276854 7.687 76 82 104 
-1.72355 -0.500119 7.7575 88 102 137 
-1.70976 -0.357487 7.70167 61 72 94 
-1.71176 -0.445816 7.72211 43 54 74 
-1.69368 0.296457 7.56787 16 14 27 
-1.7107 -0.54726 7.74322 40 52 78 
-1.70356 -0.649682 7.74118 46 52 74 
-1.65194 0.620164 7.44247 60 47 57 
-1.69506 -0.471917 7.72308 20 18 29 
-1.68133 -0.687426 7.7308 51 38 48 
-1.53869 -0.65831 7.69995 102 120 160 
-1.37277 -0.897026 7.66106 33 24 27 
-1.37357 -0.555875 7.66921 65 78 120 
-1.33167 -1.10894 7.96776 64 79 108 
-1.32374 -1.14906 7.95469 33 47 84 
-1.19155 -1.25679 8.01636 38 44 56 
-1.04611 0.580447 7.26566 71 63 74 
-1.0494 -0.253898 7.42838 65 56 75 
-1.05166 -0.111197 7.43107 108 127 170 
-1.00937 0.0847663 7.35556 40 28 42 
-1.01591 -0.735711 7.54226 40 30 41 
-1.00776 -0.50296 7.50877 117 128 158 
-0.977944 0.274413 7.31615 42 48 74 
-0.0507667 0.199343 3.86351 75 85 110 
-0.979603 -0.309262 7.45096 47 51 80 
-0.983687 -0.552908 7.511 36 37 58 
-0.983874 -0.681466 7.53844 25 27 42 
-0.957508 -0.705566 7.48689 21 24 39 
-0.953928 0.16348 7.33851 90 109 139 
-0.954862 0.544683 7.28575 112 126 161 
-0.953015 -0.363896 7.45167 99 115 148 
-0.928767 -0.553883 7.48418 19 21 34 
-0.932033 -0.688461 7.5244 18 20 33 
-0.896666 -0.301641 7.42987 116 138 179 
-0.86611 0.296703 7.2821 35 42 70 
-0.863863 0.265808 7.28023 32 42 67 
-0.86648 0.209653 7.30379 33 40 68 
-0.870757 -0.69224 7.50376 18 21 38 
-0.865635 -0.414514 7.43451 15 18 27 
-0.862579 -0.346873 7.4117 17 19 32 
-0.840322 0.234399 7.29225 101 121 158 
-0.824351 0.0903421 7.27571 45 50 70 
-0.808538 0.261442 7.24634 35 42 61 
-0.810577 0.170525 7.27219 47 54 80 
-0.807745 0.475651 7.20441 23 26 33 
-0.798211 0.0667836 7.26328 48 40 53 
-0.804093 -0.753066 7.4481 47 35 49 
-0.746988 1.50359 6.94917 23 18 24 
-0.747786 1.36782 6.98846 43 36 54 
-0.707175 1.45969 6.94945 86 100 137 
-0.701373 1.53197 6.93393 26 24 29 
-0.662044 1.52894 6.93245 93 88 110 
-0.649649 1.5564 6.91016 28 23 29 
-0.958797 -1.80852 9.08054 37 39 64 
-0.579468 1.55294 6.90707 83 96 131 
-0.557628 1.60151 6.83461 21 19 20 
-0.422423 1.6044 6.89734 94 100 148 
-0.412789 1.59358 6.90714 15 19 67 
-0.413505 1.61887 6.91544 13 17 55 
-0.627574 -1.51572 8.94134 95 115 150 
-0.605332 -1.50013 8.96314 80 98 138 
-0.292632 -0.470259 7.66773 90 105 136 
-0.282998 0.109584 7.46274 39 29 38 
-0.281317 -0.702087 7.66909 44 40 55 
-0.287127 1.46708 7.1407 37 30 38 
-0.28706 1.16601 7.27398 23 24 42 
-0.279102 -0.276178 7.64743 34 41 69 
-0.273725 1.3961 7.22352 49 57 76 
-0.275288 1.45775 7.23784 84 88 113 
-0.268666 0.307931 7.5186 36 44 65 
-0.263155 -0.664862 7.76231 108 124 160 
-0.268586 0.556156 7.47226 53 58 88 
-0.26565 1.17498 7.31854 16 22 36 
-0.240879 -0.353951 7.65479 47 55 91 
-0.245884 1.46667 7.29999 68 75 104 
-0.228036 1.18318 7.36622 20 23 38 
-0.229621 1.44107 7.33175 16 23 42 
-0.216547 -0.624037 7.84202 39 49 84 
-0.189396 -0.675866 7.84716 35 25 34 
-0.178424 0.148076 7.66639 35 25 33 
-0.184074 1.31474 7.42246 73 81 104 
-0.184932 1.36778 7.42284 79 85 109 
-0.177008 1.0222 7.49287 24 18 22 
-0.149834 1.52577 7.43067 32 27 34 
-0.147498 -1.28883 9.45969 44 48 75 
0.158647 -0.544852 8.39952 31 30 48 
0.158631 -0.505031 8.39205 31 33 54 
0.158866 -0.43687 8.38003 47 46 77 
0.169949 -0.570908 8.35636 44 33 41 
0.167036 -0.415934 8.38488 99 115 149 
0.184239 -0.392739 8.42765 65 79 118 
0.172643 1.61073 7.87417 27 22 29 
0.180675 1.33736 8.03306 43 51 70 
0.185626 1.24713 8.02235 40 48 67 
0.185399 1.28977 8.02166 69 80 112 
0.181596 1.55609 8.00722 35 43 62 
0.215989 -1.15502 8.92536 143 167 227 
0.193691 1.5862 7.91605 75 89 118 
0.207015 0.58088 8.25189 94 113 146 
0.224448 -0.398953 8.528 98 114 148 
0.224506 0.340576 8.32113 32 39 67 
0.242887 -0.483467 8.55099 23 27 54 
0.211738 1.6005 8.01827 69 84 117 
0.251683 -0.104319 8.44557 106 122 158 
0.257627 -0.502797 8.58599 88 94 118 
0.253474 0.72313 8.3019 36 43 71 
0.254059 0.686368 8.31676 36 44 67 
0.247334 1.30925 8.13123 70 86 112 
0.278575 0.292204 8.39683 28 21 28 
0.259759 1.29483 8.16824 32 39 67 
0.309919 1.67126 8.17354 26 23 32 
0.468301 -1.19653 9.0469 140 171 228 
-2.02849 0.962691 7.26971 50 35 40 
-2.02822 0.194595 7.44824 49 37 47 
-2.05894 -0.731681 7.59311 99 114 155 
-2.04871 -0.311958 7.65435 121 126 155 
-1.93348 1.52855 7.39321 46 36 45 
-1.8851 1.45374 7.41897 82 90 111 
-1.88714 1.38043 7.43383 75 87 113 
-1.89828 1.03004 7.49763 28 18 26 
-1.88916 1.15886 7.4803 76 86 113 
-1.88979 1.05366 7.50179 68 75 94 
-1.86543 1.46657 7.41837 17 22 41 
-1.84633 1.65999 7.35056 16 13 24 
-1.84159 1.70432 7.35169 68 77 94 
-1.78393 1.15052 7.4526 79 93 119 
-1.7841 1.07856 7.4664 82 93 121 
-1.84325 -0.226249 7.75811 96 107 139 
-1.64817 1.50219 7.27754 48 39 44 
-1.32956 1.42955 7.18496 16 18 33 
-1.24214 1.5813 7.08602 84 96 136 
-1.31854 -1.16707 7.98284 84 104 141 
-1.19904 -1.26003 8.02986 44 51 61 
-0.989828 0.519661 7.30018 34 41 69 
-0.935623 0.513921 7.2771 36 44 67 
-0.634048 -1.51942 8.95824 85 99 136 
-3.12361 0.292966 4.07269 38 27 33 
-3.12969 0.391574 4.10304 14 20 46 
-3.21588 0.477885 4.19488 19 23 48 
-3.03993 0.389252 4.04875 17 24 50 
-3.11151 0.718235 4.11776 85 99 128 
-3.1002 0.468837 4.15416 77 87 114 
-3.60985 0.415247 4.72162 57 54 65 
-3.07842 0.732737 4.17776 86 97 127 
-3.08699 0.363175 4.21541 74 62 72 
-3.12082 -0.147778 4.30224 18 21 28 
-3.08269 0.410062 4.24421 65 85 118 
-3.12005 -0.348904 4.33701 99 117 153 
-3.13988 -1.02181 4.41468 45 52 98 
-3.0694 0.545549 4.30248 10 13 20 
-3.92977 -2.4828 5.4551 167 197 251 
-3.12529 -1.16133 4.49552 49 64 103 
-3.08861 -0.235751 4.39355 14 22 33 
-3.09104 -1.09685 4.58345 42 50 87 
-3.01479 0.921478 4.41965 85 102 146 
-3.07077 -1.08458 4.63236 49 62 104 
-3.06019 -1.19513 4.62991 67 56 60 
-3.06801 -1.1252 4.64166 55 66 111 
-3.02817 -0.873086 4.58652 54 41 51 
-3.00198 -0.440166 4.57604 55 58 93 
-3.01976 -1.19911 4.6733 61 49 59 
-2.99679 -0.641627 4.70397 106 123 169 
-2.83918 0.560215 4.46774 37 48 68 
-2.83896 0.537401 4.47209 6 11 40 
-2.92762 0.00686854 4.69843 41 30 36 
-2.95743 -0.2614 4.8268 110 125 164 
-2.93991 -0.32619 4.81193 35 34 48 
-2.94486 -1.15133 4.91311 51 43 54 
-2.9679 -1.0059 4.94156 28 42 69 
-2.94097 -1.05013 5.02487 33 38 76 
-2.93613 -0.953203 5.01983 109 124 153 
-2.88634 -0.430207 4.91763 106 123 167 
-2.98824 -1.69966 5.16928 70 98 135 
-2.92431 -1.09819 5.04483 36 25 33 
-2.89512 -0.246172 5.00591 19 21 33 
-2.89336 -1.08067 5.1568 40 30 39 
-2.82846 -0.338283 5.08872 59 65 101 
-2.77955 -1.12437 5.30042 98 116 156 
-2.69366 1.21693 5.11689 84 66 78 
-2.77167 -1.01031 5.44727 43 38 45 
-2.75346 -0.244441 5.36629 59 44 49 
-2.76174 -0.139785 5.37156 76 78 103 
-2.75672 -0.224967 5.37532 37 27 36 
-2.6471 1.14642 5.1258 13 14 44 
-2.76816 -0.733261 5.47984 125 131 155 
-2.64722 1.15583 5.14901 88 96 132 
-2.74107 0.101976 5.40659 117 136 169 
-2.61704 1.16545 5.1963 88 105 131 
-2.61168 1.16279 5.21054 4 17 51 
-2.74213 -0.713202 5.57344 104 114 141 
-2.70438 -0.97697 5.62014 41 31 39 
-2.72583 -0.922757 5.65958 38 42 80 
-2.6776 -0.216958 5.53339 57 40 48 
-2.70829 -0.9699 5.68007 40 28 40 
-2.66461 -0.238314 5.56916 72 75 108 
-2.54811 0.694689 5.3258 59 73 118 
-2.68125 -0.993206 5.69579 62 47 54 
-2.52938 0.718741 5.33395 100 114 153 
-3.50084 -2.0872 7.30165 78 93 132 
-2.53605 0.812894 5.8635 93 113 150 
-2.5114 -0.0841859 6.0155 48 48 60 
-2.54503 -0.710524 6.17384 31 36 66 
-2.52372 -0.0280621 6.07461 23 27 38 
-2.51838 -0.861275 6.17968 47 43 57 
-2.45869 -0.0973138 6.12468 49 34 41 
-2.4418 0.215722 6.20291 73 61 81 
-2.47839 -0.647835 6.35536 28 36 59 
-3.28206 -1.95804 7.95341 86 100 139 
-2.40651 0.677915 6.14178 66 66 100 
-2.41911 -0.0703823 6.26021 51 32 38 
-2.40988 0.328309 6.22129 72 78 114 
-2.37528 -1.00505 6.54624 66 79 114 
-2.29791 -0.873933 6.7063 96 111 152 
-2.27667 -0.506737 6.84072 107 109 122 
-2.24412 0.0307028 6.72032 57 41 42 
-2.26717 0.119094 6.81549 26 31 50 
-2.25984 -0.437148 6.95758 124 131 157 
-2.23405 -0.400038 6.94587 63 47 57 
-2.2042 0.806123 6.7731 57 55 77 
-2.10482 1.27227 6.88888 101 117 168 
-2.10573 1.2993 6.88936 96 117 170 
-2.20747 -1.12692 7.62279 70 86 112 
-2.09229 1.25292 7.09575 21 21 31 
-2.18798 -1.17463 7.66233 13 21 40 
-2.09586 0.246153 7.2805 94 107 141 
-2.18191 -1.19534 7.67055 57 81 119 
-2.0799 0.34003 7.32715 113 124 154 
-2.10045 -0.366905 7.46824 20 22 35 
-2.09647 -0.560061 7.50149 20 20 30 
-2.07434 0.342342 7.34189 75 75 101 
-2.04432 1.10304 7.22706 74 87 119 
-2.0396 1.30904 7.2255 34 36 57 
-2.04167 1.08453 7.27286 26 33 51 
-2.04278 1.34318 7.24712 102 113 145 
-2.04214 1.01462 7.28729 23 27 39 
-2.02966 1.26356 7.26025 103 113 140 
-2.04865 -0.729651 7.57575 95 113 151 
-2.04049 0.490591 7.42451 31 36 55 
-2.02141 -0.0607411 7.51357 101 119 159 
-2.04527 -0.52985 7.64399 19 22 41 
-2.01234 -0.265296 7.61175 68 54 67 
-2.75763 -1.73659 9.8521 42 61 117 
-2.74272 -1.72544 9.84953 112 135 179 
-2.69517 -1.74703 9.83048 160 182 242 
-1.91024 -0.852999 7.71198 28 19 22 
-1.92203 0.640587 7.57893 62 46 56 
-1.87159 1.22681 7.43564 88 90 115 
-1.8542 0.582237 7.57313 30 32 55 
-1.85497 0.360248 7.6161 26 31 50 
-1.85635 0.306451 7.63174 26 32 54 
-1.85931 -0.243065 7.74835 25 31 53 
-1.82391 0.553966 7.55152 82 88 112 
-1.8204 0.465419 7.56046 79 90 112 
-1.82386 0.37626 7.58499 79 85 109 
-1.82376 0.602957 7.55582 92 105 140 
-1.8588 -0.558803 7.81041 21 27 43 
-1.86163 -0.599614 7.82594 17 23 37 
-1.81898 0.280221 7.59719 77 87 112 
-1.83223 -0.268915 7.73209 81 88 114 
-1.82939 -0.225215 7.7324 97 103 135 
-1.80524 -0.24681 7.72634 23 26 41 
-1.75409 -0.606923 7.71831 93 106 138 
-1.74087 0.348648 7.57453 15 20 39 
-1.74888 -0.339384 7.73035 14 18 30 
-1.70545 0.543287 7.50587 63 71 90 
-0.258836 0.637755 3.40999 9 13 25 
-1.69632 0.27093 7.54266 33 40 59 
-1.72092 -0.500491 7.75065 88 102 137 
-1.70587 -0.44553 7.7057 43 54 74 
-1.67879 0.125624 7.55887 48 35 44 
-0.244915 0.634323 3.41804 76 76 38 
-1.67981 -0.68621 7.7255 51 38 48 
-0.249676 0.489985 3.52925 32 32 56 
-0.168083 0.656031 3.5353 70 83 118 
-0.162981 0.669765 3.51857 61 77 102 
-1.34374 -1.17302 7.97831 25 33 70 
-1.3075 -1.16257 7.958 76 96 133 
-1.27012 -1.24711 7.88614 44 55 75 
-1.04196 0.579185 7.25091 71 63 74 
-1.04694 -0.253581 7.41932 65 56 75 
-0.00609442 0.659972 3.53724 4 15 19 
-1.0071 0.0851741 7.34683 40 28 42 
-1.01331 -0.734455 7.53207 40 30 41 
-0.978184 0.34775 7.30063 40 45 74 
-0.979227 0.307107 7.31168 40 46 72 
-0.978505 0.377161 7.29894 37 40 59 
-0.983003 -0.522568 7.50069 29 32 49 
-0.978646 -0.309482 7.44747 47 51 80 
-0.981355 -0.453245 7.48328 35 34 52 
-0.981365 -0.552491 7.50224 36 37 58 
-0.981263 -0.607936 7.5142 30 35 55 
-0.982256 -0.681143 7.53206 25 27 42 
-0.952338 0.363124 7.28853 81 92 124 
-0.948907 0.241776 7.31364 101 119 159 
-0.923967 0.271779 7.2943 35 41 67 
-0.930347 -0.614477 7.50052 16 19 34 
-0.891683 0.390934 7.25969 112 129 172 
-0.889057 0.532693 7.2304 109 127 165 
-0.862785 0.509875 7.23198 25 28 45 
-0.869443 -0.690364 7.49644 18 21 38 
-0.83588 0.234232 7.27422 101 121 158 
-0.839426 -0.593263 7.46067 103 123 160 
-0.818667 0.089709 7.25364 45 50 70 
-0.828269 -0.340299 7.38591 30 35 55 
-0.823716 -0.540922 7.41502 15 20 42 
-0.81313 0.209363 7.26652 35 41 67 
-0.796386 0.067625 7.25488 48 40 53 
-0.803325 -0.75146 7.44306 47 35 49 
-0.768359 0.558776 7.13904 69 64 71 
-0.745535 1.50221 6.94338 23 18 24 
-0.743724 1.36466 6.97213 43 36 54 
-0.633838 1.41278 6.90845 48 57 96 
-0.555987 1.59981 6.82738 21 19 20 
-0.914793 -1.85964 9.22163 137 166 226 
-0.4105 1.59101 6.89589 15 19 67 
-0.409671 1.61445 6.89662 13 17 55 
-0.400762 1.60607 6.90861 87 99 147 
-0.278989 -0.700803 7.65518 44 40 55 
-0.28495 1.46474 7.12856 37 30 38 
-0.269741 0.182639 7.53663 31 37 63 
-0.268182 0.256106 7.51795 36 42 74 
-0.26214 -0.663534 7.75409 108 124 160 
-0.265717 0.554459 7.45595 53 58 88 
-0.232741 0.193166 7.58235 31 32 60 
-0.215039 0.293528 7.56995 99 117 155 
-0.202453 -0.229761 7.75083 108 119 149 
-0.19885 -0.376657 7.78721 115 130 163 
-0.18925 -0.674956 7.84444 35 25 34 
-0.190203 0.300017 7.6238 98 113 152 
-0.178077 0.148555 7.6633 35 25 33 
-0.160281 -0.188535 7.78617 77 66 80 
0.5272 0.204088 5.08867 32 39 67 
-3.57733 -0.190573 2.83284 65 75 102 
-3.62085 -0.410578 2.87531 19 20 50 
-3.61468 -0.481172 2.88765 25 22 49 
-3.59713 0.266474 2.80953 56 65 82 
-3.59708 0.193727 2.82374 48 56 75 
-3.59793 0.159757 2.83116 44 51 69 
-3.62082 -0.650317 2.92221 14 12 34 
-3.5884 -0.756974 2.93149 78 75 84 
-3.56307 -0.171194 2.863 33 36 67 
-3.56178 -0.317711 2.87697 69 87 125 
-15.2357 -4.41085 8.79508 45 54 95 
-3.61355 -0.647437 2.94484 9 12 31 
-3.61321 -0.624988 2.95532 82 105 137 
-3.58597 -0.402815 2.92139 21 18 35 
-13.4428 -1.48768 7.75329 19 17 38 
-3.53172 0.482802 2.82873 60 75 108 
-3.58729 -0.457632 2.95283 74 89 120 
-3.51911 0.751034 2.80242 68 66 79 
-4.83349 -2.90941 3.80095 39 39 63 
-3.53078 0.447173 2.84116 66 84 120 
-14.9681 -5.07147 8.92277 79 79 87 
-3.5972 -0.633575 2.98788 86 95 128 
-3.54388 -0.23363 2.92407 41 56 95 
-3.53754 0.0327329 2.89465 24 21 32 
-3.53913 -0.311812 2.93077 81 99 137 
-3.55744 -0.775068 2.98915 84 103 143 
-3.59304 -1.4925 3.08631 30 27 38 
-3.56102 -0.72567 3.01685 26 17 18 
-3.54151 -0.769667 3.01263 86 105 138 
-3.53911 -0.463872 2.99494 38 40 63 
-3.58692 -1.26792 3.11319 39 61 98 
-15.1658 -4.82556 9.23786 90 105 144 
-3.54377 -0.760128 3.04542 86 99 131 
-3.54013 -0.748285 3.04296 33 30 49 
-4.80069 -2.889 3.91443 39 45 67 
-3.51865 -0.22897 3.00558 96 115 148 
-3.51306 0.0417159 2.97784 18 25 44 
-3.49526 0.368757 2.93794 68 87 129 
-5.92752 -3.44096 4.56139 147 171 219 
-8.38761 -2.53929 5.71812 51 58 102 
-15.0523 -4.531 9.34961 101 117 153 
-3.52739 -0.536833 3.07619 91 110 152 
-3.49582 0.330573 2.9722 39 30 33 
-3.53286 0.188971 3.01075 67 75 98 
-3.51691 0.302268 2.99297 71 80 111 
-3.53213 0.155914 3.01759 58 65 83 
-3.53684 0.126121 3.02521 61 66 85 
-3.72837 0.251389 3.12438 60 73 64 
-3.51751 0.295613 3.01414 20 24 51 
-4.76407 -2.89862 3.995 156 180 242 
-3.48381 0.368004 2.99461 68 83 122 
-4.7778 -2.89228 4.01248 133 170 215 
-3.50409 0.314718 3.03842 28 30 53 
-3.50712 0.301239 3.04196 26 37 69 
-3.50971 0.143096 3.06791 8 12 21 
-3.50171 0.309817 3.05678 73 89 125 
-3.49802 -0.722548 3.16444 28 38 65 
-3.46353 0.615979 3.01258 6 8 31 
-3.46042 0.649504 3.01502 8 8 18 
-3.46011 0.63395 3.01854 72 94 152 
-3.45767 0.600735 3.02397 78 96 158 
-3.47914 -0.300926 3.13061 44 34 42 
-3.51194 0.282089 3.08688 6 11 17 
-18.1012 -2.15821 11.1243 90 105 136 
-3.45632 0.618536 3.03043 4 10 42 
-3.49265 0.319719 3.08574 66 77 107 
-3.50109 0.292034 3.09415 7 11 23 
-3.49784 0.253614 3.10079 16 18 30 
-3.50327 0.237158 3.10722 15 13 34 
-3.507 -0.371238 3.17966 10 15 19 
-3.50992 -0.449883 3.19559 12 19 27 
-3.4694 -0.25942 3.1565 51 64 109 
-3.49557 0.212603 3.12058 64 70 94 
-3.49729 0.193545 3.12434 55 61 83 
-3.49798 0.177786 3.12862 67 75 98 
-3.49762 0.144216 3.13565 54 57 74 
-3.51285 -0.328564 3.20783 88 102 139 
-3.50499 -0.33709 3.20719 100 120 155 
-3.50796 -0.490149 3.22926 22 20 44 
-3.4548 -1.52618 3.31155 90 111 154 
-3.48062 0.184901 3.14903 69 53 64 
-3.50462 -0.645023 3.25161 43 45 57 
-3.50399 -0.479726 3.23588 103 122 152 
-3.50053 -0.342423 3.21969 9 19 44 
-3.48301 0.236119 3.16231 51 66 85 
-3.4801 0.220099 3.16275 70 83 102 
-3.47911 0.186538 3.16905 74 81 100 
-3.46934 0.331752 3.14821 79 91 131 
-3.46378 0.325585 3.16533 26 40 69 
-3.48975 -0.387093 3.2652 21 17 32 
-17.9829 -2.57112 11.5515 12 17 23 
-3.42924 0.407395 3.15007 28 30 51 
-4.77922 -0.600064 4.01277 22 18 33 
-3.13476 -0.497203 3.09515 82 86 113 
-14.5211 -7.53898 10.2255 162 186 248 
-3.45571 0.322873 3.18938 66 86 110 
-3.4868 -0.334745 3.28648 86 85 101 
-3.45033 0.331818 3.19415 29 35 67 
-3.44753 -0.66157 3.32509 42 31 35 
-13.7813 -4.55505 9.63619 31 28 39 
-3.44586 -0.642769 3.33595 85 80 87 
-3.44102 0.332351 3.23423 68 74 98 
-3.43944 0.349445 3.23926 76 89 121 
-3.44031 -0.656139 3.35172 43 32 38 
-3.4715 -1.20381 3.43124 43 56 90 
-3.45439 0.286842 3.25855 10 10 18 
-3.48187 -1.16021 3.43935 49 62 104 
-3.44389 0.276078 3.26402 72 77 106 
-3.44243 0.207508 3.27925 66 72 96 
-13.6745 -3.866 9.63772 106 125 158 
-3.44486 0.175379 3.28695 64 70 86 
-3.44873 -0.29805 3.35127 87 101 140 
-2.30589 -1.7191 2.85175 171 193 251 
-3.4522 -0.377375 3.36942 99 113 140 
-17.9783 -2.61788 12.0727 15 15 27 
-3.45276 -0.450171 3.38344 95 114 144 
-3.38402 0.657554 3.23274 9 8 14 
-3.38189 0.827908 3.22026 84 77 93 
-3.46599 -1.33721 3.51262 107 122 161 
-3.43323 -0.607687 3.42438 45 49 60 
-1.48992 -0.155844 2.2322 21 21 33 
-13.6107 -4.17143 9.83745 52 61 104 
-3.45482 -1.25822 3.52524 104 120 153 
-13.6342 -4.02252 9.85782 104 120 153 
-13.5433 -4.48328 9.98163 84 78 90 
-3.41931 -1.40752 3.56218 84 78 90 
-17.6493 -2.61001 12.2315 31 22 27 
-2.28472 -1.69991 2.92997 104 135 190 
-3.39503 -0.628854 3.48798 38 25 32 
-3.38435 -0.631552 3.49415 38 25 35 
-1.44451 -1.29813 2.39557 160 182 231 
-3.37581 -0.650925 3.51586 40 38 62 
-2.58089 -1.07072 3.11389 110 128 164 
-13.496 -3.60209 10.2131 58 70 112 
-3.29478 0.887521 3.33968 4 9 13 
-7.67164 -2.24592 6.4398 53 61 100 
-3.40771 -1.16188 3.65164 53 61 100 
-3.3157 0.729577 3.38101 10 14 26 
-7.68272 -2.47206 6.48846 48 60 100 
-13.5132 -3.75641 10.2975 108 123 156 
-3.32537 0.407044 3.43344 17 33 66 
-3.34928 -1.06704 3.62718 37 21 31 
-3.29888 0.844326 3.40545 78 93 132 
-3.35551 -1.39747 3.72134 43 31 41 
-14.2154 -7.34356 11.4283 168 193 250 
-3.3004 0.670797 3.46023 79 98 138 
-4.54084 -2.75538 4.67343 148 180 227 
-3.30786 0.261817 3.53943 80 81 102 
-3.31027 0.160216 3.55907 50 60 95 
-4.50704 -2.75492 4.71878 173 195 252 
-3.31718 0.60238 3.53905 84 97 129 
-3.30374 -0.64102 3.68905 92 111 153 
-3.33972 0.566799 3.57666 8 11 16 
-3.31991 0.38048 3.58627 65 80 109 
-3.29903 -1.54917 3.81103 56 71 102 
-3.33794 0.492579 3.59029 5 8 13 
-3.29446 0.111102 3.60975 92 109 152 
-3.30959 0.367182 3.59168 48 61 80 
-3.33885 0.419163 3.60486 9 12 19 
-3.26705 0.111094 3.59654 93 110 153 
-3.31115 0.298424 3.60422 53 66 83 
-3.30954 0.607269 3.57033 86 107 138 
-13.8442 1.76621 10.4219 86 107 138 
-3.30856 -0.201111 3.66931 39 29 37 
-3.7846 -2.09334 4.21887 87 109 148 
-3.31294 -0.582045 3.72166 60 50 59 
-3.76113 -2.07393 4.20306 23 41 77 
-3.77118 -2.08578 4.22128 70 96 131 
-13.9631 1.66541 10.5673 54 60 72 
-3.50536 0.634658 3.71767 32 45 77 
-3.30088 0.604899 3.58521 23 39 72 
-3.10814 0.36149 3.49492 58 73 92 
-3.29634 0.599345 3.59469 73 84 112 
-3.3022 0.38197 3.62857 16 23 49 
-3.29928 0.240484 3.64673 21 28 36 
-3.32475 -0.421698 3.74523 13 14 19 
-3.32929 -0.502907 3.76337 10 14 23 
-3.27216 -1.53841 3.85786 56 69 101 
-3.25271 0.78812 3.56012 77 96 138 
-3.30477 0.577433 3.62603 6 11 15 
-1.64421 -0.172907 2.59776 20 17 44 
-3.28987 0.617809 3.61286 29 44 75 
-3.32641 -0.483315 3.77676 13 17 26 
-4.47604 -2.73284 4.83459 174 196 253 
-3.29395 0.430671 3.64835 11 12 17 
-3.28634 0.605129 3.62349 70 76 100 
-3.26533 -0.667155 3.76694 99 116 160 
-3.29686 0.311154 3.66838 56 73 89 
-0.714492 -0.165203 1.97588 97 117 154 
-3.28666 0.620751 3.62893 79 92 124 
-3.31892 -0.531077 3.79542 46 49 68 
-4.56049 -0.383913 4.62258 11 17 39 
-3.30377 0.506692 3.65809 3 11 14 
-3.29854 0.46326 3.66357 16 17 35 
-3.29255 -1.36105 3.88712 36 32 46 
-3.29309 0.54338 3.65626 67 74 100 
-4.54677 0.376745 4.53587 61 64 83 
-3.2949 0.474941 3.67096 67 80 112 
-3.28806 0.445069 3.68568 59 60 78 
-3.29339 0.268321 3.7134 68 73 95 
-3.2685 0.553697 3.6703 79 76 87 
-3.27709 0.47231 3.69086 72 66 80 
-4.54197 -0.287932 4.66052 74 82 119 
-4.45253 -2.68678 4.90974 36 42 68 
-4.55814 -1.35707 4.8243 48 59 105 
-16.7553 -1.08636 13.283 87 86 100 
-3.25614 0.244347 3.72987 79 72 79 
-3.26483 0.482827 3.70812 71 77 101 
-3.26323 0.534075 3.70911 8 13 17 
-3.2654 0.390644 3.72952 17 23 49 
-3.26801 0.502599 3.7194 9 12 21 
-13.1217 -3.96688 11.1677 108 123 162 
-3.25784 0.62008 3.69858 66 82 108 
-16.7841 -2.37403 13.5496 55 44 48 
-3.26923 0.411136 3.73895 66 80 109 
-3.25773 0.628752 3.70666 31 39 75 
-16.6416 -2.1159 13.435 85 79 91 
-3.20436 0.937744 3.63139 25 22 31 
-3.26823 0.521295 3.73031 13 14 19 
-16.7641 -1.31249 13.4538 98 107 136 
-3.25482 0.638711 3.72131 92 108 142 
-13.1699 -3.65416 11.2536 52 67 106 
-3.25809 0.615167 3.72734 11 12 30 
-3.3093 -1.24219 3.99837 112 128 162 
-3.26383 -0.522391 3.88503 34 29 36 
-3.25918 0.626129 3.73661 64 81 109 
-4.54197 -1.35002 4.89508 50 61 106 
-3.24882 -0.547679 3.88127 53 42 46 
-3.25735 0.616253 3.74014 58 65 83 
-16.732 -1.13249 13.5022 14 18 27 
-3.28218 -0.234133 3.86635 14 18 27 
-3.25892 0.601543 3.74422 56 64 77 
-13.3309 -3.93125 11.4551 52 70 108 
-3.2474 0.633523 3.7367 29 39 74 
-13.1801 -3.71165 11.3324 53 62 103 
-3.29775 -1.21366 4.0108 52 64 106 
-4.5532 -1.60902 4.9529 56 69 113 
-3.28968 -1.03919 3.98359 117 128 156 
-3.23049 0.641407 3.73459 90 106 139 
-3.28774 -1.16037 4.00755 106 120 155 
-3.27882 -0.432473 3.91016 95 113 149 
-13.1858 -4.20037 11.488 36 26 35 
-3.24668 0.422719 3.79424 65 79 106 
-3.27168 -0.447706 3.92968 14 14 38 
-13.7289 1.88573 11.1303 27 40 72 
-3.23628 0.641068 3.76546 27 40 72 
-3.26577 -0.342553 3.9172 108 125 155 
-3.23253 0.278149 3.81744 28 32 43 
-3.259 -0.257532 3.90831 16 23 42 
-13.7669 1.48554 11.2545 13 19 31 
-3.23944 0.418484 3.81048 16 26 51 
-3.23391 0.653249 3.77894 86 93 122 
-3.2516 -1.30826 4.04408 89 86 93 
-3.21489 0.681511 3.77439 55 38 44 
-3.23127 0.427715 3.8193 76 83 109 
-3.2596 -0.499757 3.96062 44 48 60 
-13.7746 1.45081 11.3287 71 80 109 
-13.1512 -4.17861 11.6105 32 26 36 
-3.21616 0.620381 3.79044 33 31 53 
-2.41735 0.37848 3.24638 74 79 99 
-3.23943 0.402937 3.8418 74 85 113 
-3.26013 -0.380122 3.95884 13 13 21 
-2.42015 0.317668 3.26003 75 85 110 
-13.7239 1.26783 11.36 36 34 56 
-1.05814 -0.53962 2.38294 42 54 94 
-3.18412 0.962257 3.74047 15 13 14 
-3.2058 0.576068 3.80842 104 94 103 
-3.25909 -1.07435 4.07819 51 65 104 
-13.0125 -3.82088 11.6103 52 61 100 
-3.19482 0.254594 3.87501 41 26 33 
-7.3904 -2.3485 7.30935 107 123 159 
-7.39934 -2.0815 7.28472 46 64 104 
-3.24672 -1.13036 4.10271 47 66 106 
-4.37094 -2.64699 5.13663 23 32 71 
-3.20805 -0.522329 4.02146 54 39 46 
-4.35254 -2.66118 5.15952 177 199 255 
-3.18737 0.233222 3.91537 60 66 100 
-12.9978 -3.30552 11.7039 59 71 111 
-7.36548 -2.10052 7.35252 59 68 111 
-7.42967 -2.39098 7.44417 58 73 112 
-7.37423 -2.17818 7.375 50 63 98 
-3.24253 -1.2258 4.16376 58 71 113 
-12.9701 -3.44835 11.7572 111 127 160 
-3.1919 -0.543396 4.05075 56 59 90 
-3.17461 -0.0255931 3.97315 62 77 120 
-3.2028 0.814817 3.891 84 103 143 
-3.22133 0.0533447 4.01439 94 113 153 
-3.19922 -1.29929 4.20036 58 47 51 
-4.32715 -2.62833 5.26024 168 194 243 
-3.17519 -0.335219 4.10345 103 118 161 
-3.13218 0.257575 4.04633 56 68 106 
-4.29823 -2.62188 5.35545 173 198 252 
-3.15206 -1.35222 4.31019 93 110 153 
-3.14724 0.477791 4.07987 71 85 114 
-3.14505 0.663711 4.05453 11 14 19 
-3.15302 0.589784 4.0727 17 16 22 
-3.55684 0.751871 4.37317 36 44 80 
-3.17049 0.517332 4.1033 15 18 25 
-3.13986 0.466205 4.09382 18 28 55 
-3.13862 0.70639 4.0622 94 109 142 
-1.59529 0.705029 2.8291 19 16 25 
-3.14191 0.39201 4.11041 24 28 55 
-3.34023 0.40602 4.26714 24 28 55 
-3.14215 0.682362 4.0717 15 15 27 
-3.12466 -0.512194 4.22534 56 67 99 
-3.57876 -1.96775 4.8008 81 96 129 
-4.37359 0.591797 5.08494 70 79 112 
-3.13468 0.685857 4.07996 65 68 87 
-3.13422 -1.29394 4.35545 55 68 102 
-3.59557 -1.98581 4.8266 87 99 137 
-3.11687 0.334286 4.12772 11 12 16 
-3.12696 0.471161 4.1209 22 27 56 
-4.06496 0.508233 4.87912 26 31 61 
-3.12857 0.398969 4.13775 22 27 57 
-3.12434 0.712987 4.09259 92 107 140 
-14.6284 -0.9619 13.634 18 24 40 
-14.3355 -0.522365 13.3438 59 48 54 
-3.12561 -1.26098 4.37766 59 49 58 
-3.14267 -0.161142 4.24335 19 22 31 
-4.34471 0.556265 5.12159 81 95 134 
-4.35839 0.515655 5.1414 82 98 131 
-3.11776 0.708244 4.1071 39 50 82 
-3.13332 0.602285 4.13575 14 19 23 
-3.11822 0.478023 4.15188 21 26 48 
-3.13491 0.58662 4.15209 15 16 21 
-4.35316 0.53774 5.15489 19 28 59 
-3.11571 0.636087 4.13058 68 74 90 
-4.35475 0.494316 5.1649 19 27 50 
-3.12115 0.56927 4.14696 67 72 91 
-3.1208 0.469963 4.16688 91 101 128 
-3.12147 0.641259 4.14943 68 75 103 
-3.12409 0.572017 4.16451 70 81 109 
-4.35257 0.732531 5.15084 65 71 93 
-4.34417 0.587974 5.16535 17 22 44 
-3.11913 0.55789 4.165 65 73 94 
-3.09987 1.07675 4.07832 9 12 21 
-4.11179 -2.53103 5.41864 177 198 253 
-3.12091 0.509025 4.17757 74 79 99 
-3.10633 0.656021 4.14617 44 35 54 
-3.10542 -1.22876 4.41699 66 54 58 
-3.14032 -0.950472 4.40811 98 112 139 
-4.34468 -1.44107 5.47134 47 63 97 
-14.5707 -0.668809 13.7963 16 19 38 
-4.35229 0.443068 5.21531 63 60 71 
-3.1268 -0.257076 4.30424 12 20 39 
-3.09691 0.650048 4.16189 84 78 88 
-3.13094 -0.959804 4.41859 47 64 108 
-3.13158 -1.00177 4.42572 40 58 96 
-4.07064 -2.52118 5.43547 26 47 100 
-3.0967 0.363932 4.22146 82 69 79 
-3.12485 -0.38134 4.35326 15 19 30 
-3.12613 -0.97544 4.44365 48 64 100 
-3.12525 -1.03779 4.45532 48 66 102 
-3.13221 -1.10673 4.47338 49 67 105 
-3.12956 -0.957325 4.4587 49 61 103 
-3.08853 0.733617 4.18411 88 95 124 
-3.0966 0.508561 4.23159 68 79 109 
-1.66017 -0.763835 3.21124 57 70 114 
-3.10277 -0.119733 4.33681 89 86 103 
-3.11831 -1.06347 4.48948 109 125 159 
-4.15788 -2.57561 5.58471 166 185 228 
-3.08771 0.497265 4.24572 15 19 46 
-3.0869 0.481 4.24874 33 47 86 
-4.15694 -2.67107 5.60534 187 200 255 
-3.49119 0.494173 4.58999 16 25 56 
-3.08321 0.460794 4.25054 16 25 56 
-4.15945 -2.84262 5.63939 190 204 253 
-3.10457 -1.20845 4.51387 37 25 37 
-3.10737 -0.391126 4.39899 83 75 90 
-4.1498 -2.59956 5.60351 180 201 255 
-3.08164 0.655474 4.23261 65 76 104 
-3.07392 0.587172 4.23865 60 74 101 
-3.08369 0.51424 4.25745 69 78 107 
-3.08161 0.448268 4.27017 68 87 120 
-3.07919 -1.233 4.51169 55 43 47 
-3.08739 0.429526 4.27952 24 31 60 
-3.07452 0.731483 4.22952 29 42 74 
-4.12796 -2.55869 5.60019 156 189 234 
-4.12525 -2.57625 5.60308 175 205 255 
-4.12569 -2.62173 5.61343 183 203 255 
-4.12359 -2.64219 5.61742 179 206 255 
-3.94315 -2.34946 5.4224 60 79 112 
-7.7608 -0.463125 8.40046 15 22 40 
-4.11908 -2.56353 5.607 80 100 163 
-3.08041 0.433437 4.29181 16 26 53 
-3.07137 0.660934 4.25966 58 68 93 
-4.10244 -2.61028 5.61587 184 201 255 
-3.09482 -0.210123 4.40908 18 22 31 
-3.07227 0.520148 4.28618 66 76 101 
-3.08365 -1.19752 4.5464 35 29 41 
-3.07661 0.699215 4.26641 40 48 67 
-3.07656 -1.2288 4.54596 54 41 48 
-3.09362 -0.289681 4.42476 13 14 19 
-3.05944 0.486695 4.28528 83 97 136 
-4.07 -2.62128 5.6066 179 202 252 
-3.06289 0.738468 4.25781 28 38 73 
-4.0361 -2.57562 5.58187 182 202 255 
-3.06727 0.509315 4.30441 17 21 48 
-3.07473 0.615233 4.29621 14 20 32 
-4.03745 -2.6627 5.6027 183 198 255 
-3.06393 0.47173 4.31014 22 32 59 
-3.06204 0.598904 4.29368 72 74 97 
-3.08811 -0.251556 4.44123 19 24 46 
-4.02477 -2.67257 5.60215 96 111 176 
-3.08603 -0.931708 4.5475 53 61 107 
-3.05227 0.483729 4.3119 67 84 114 
-3.06707 0.709876 4.29327 77 81 106 
-3.05682 0.526377 4.31169 66 71 100 
-3.95886 -2.45887 5.52927 37 36 96 
-3.06843 0.512014 4.32599 22 26 51 
-3.09713 -1.13806 4.59708 51 62 107 
-3.98753 -2.45559 5.56287 183 199 248 
-3.97965 -2.62696 5.58163 178 201 253 
-3.0681 0.538702 4.32875 73 78 100 
-3.06784 0.477216 4.34071 19 21 44 
-3.05094 0.68537 4.29627 43 39 56 
