ply                 
format ascii 1.0    
element vertex 1301
property float x    
property float y    
property float z    
property uchar red  
property uchar green
property uchar blue 
end_header          
1.42465 -0.0579149 8.44557 64 61 82 
1.46166 -0.667767 8.55698 12 16 28 
1.5754 -1.21301 9.21351 147 177 237 
1.41943 0.774173 8.2753 52 46 60 
1.50844 0.258205 8.35459 92 84 105 
1.50844 0.258205 8.35459 92 84 105 
1.65028 -1.04331 8.97586 33 37 82 
1.69247 -1.04827 9.0513 38 39 67 
1.68208 -0.99087 8.94101 115 125 161 
1.6296 -0.751631 8.42987 70 65 72 
1.64212 -0.797727 8.4223 83 119 155 
1.64565 -0.767772 8.38241 19 18 26 
1.64413 1.2064 7.99663 16 21 53 
1.64349 1.22971 7.98916 16 18 30 
1.6612 1.25457 8.00076 61 81 108 
1.67648 1.39847 8.05581 7 12 34 
1.66636 1.2147 7.99184 78 97 130 
1.76363 -0.561711 8.45719 47 34 52 
1.76363 -0.561711 8.45719 47 34 52 
1.67178 1.23839 7.98976 14 19 48 
1.79152 0.301167 8.29798 22 30 49 
1.79259 0.387296 8.2835 25 35 60 
1.79283 0.464446 8.26497 21 29 48 
1.79341 0.287774 8.26757 21 28 47 
1.79091 0.536908 8.24548 35 44 77 
1.87477 -0.535386 8.44227 97 116 156 
1.87477 -0.535386 8.44227 97 116 156 
1.84423 0.298572 8.27135 24 32 53 
1.84401 0.528656 8.2138 34 49 80 
1.87594 -0.125912 8.35945 104 122 162 
1.8743 0.415186 8.24008 96 115 155 
1.8743 0.415186 8.24008 96 115 155 
1.8743 0.415186 8.24008 96 115 155 
1.90536 0.382053 8.2409 29 39 64 
1.90584 0.457174 8.2215 26 32 56 
1.90635 0.682085 8.18481 28 40 66 
1.90635 0.682085 8.18481 28 40 66 
1.95918 0.292223 8.23816 25 32 51 
1.95915 0.375512 8.22929 32 43 71 
1.95691 0.675084 8.15446 34 47 79 
1.86687 1.45752 7.24656 67 85 123 
2.02933 -1.05322 6.51326 15 13 16 
2.03904 -0.621731 6.41721 39 33 43 
2.04678 -0.436341 6.41737 35 32 39 
2.21631 -1.39595 6.86307 26 28 49 
2.07184 -0.28469 6.36236 94 112 148 
2.06165 -0.00103616 6.28845 87 106 138 
2.07317 0.053012 6.27881 88 104 138 
2.04428 1.34808 6.01614 11 12 17 
2.06473 1.33316 6.01589 69 85 119 
2.5599 -1.57405 6.68927 49 58 75 
2.62472 -1.41535 6.69557 63 84 111 
2.62472 -1.41535 6.69557 63 84 111 
1.30624 0.85141 2.90767 96 113 141 
-2.60699 1.22131 5.14947 90 110 169 
-2.62714 0.849852 5.33527 86 101 144 
-2.5481 0.756208 5.31069 82 102 137 
-2.54612 0.732242 5.31418 37 49 65 
-2.39046 0.656875 6.16802 101 119 159 
-2.19702 0.803166 6.75716 56 53 80 
-2.0949 0.400931 7.23814 94 108 135 
-2.73277 -1.68832 9.76892 35 42 61 
-2.07535 -0.596251 7.40968 57 56 74 
-2.60421 -1.63682 9.48488 41 45 72 
-2.05171 -0.30916 7.55107 95 100 122 
-1.9172 0.639335 7.5537 61 45 55 
-1.91963 -0.187061 7.70412 57 44 61 
-1.88461 0.147133 7.63336 33 21 31 
-1.76539 1.03899 7.42749 71 82 104 
-1.82967 -0.577413 7.78493 71 86 109 
-1.67667 1.18991 7.35229 17 20 27 
-1.6917 0.539194 7.46313 12 20 41 
-1.69393 0.371713 7.50702 17 29 51 
-1.69688 -0.274798 7.63805 16 30 56 
-1.27492 1.48391 7.13548 84 99 140 
-1.23217 1.57275 7.06859 84 96 136 
-1.34957 -1.15164 7.93766 104 122 158 
-1.14679 1.06792 7.05393 29 35 49 
-1.27282 -1.15172 7.88765 65 80 113 
-1.12133 1.22207 7.11416 67 82 113 
-1.10971 1.23999 7.12574 9 13 38 
-1.10849 1.18537 7.13551 8 12 41 
-1.03626 0.927059 7.16529 65 42 52 
-0.981059 -0.607038 7.49515 49 64 103 
-0.895032 0.388408 7.25441 118 135 179 
-0.895642 0.23296 7.28839 116 135 178 
-0.896194 0.157241 7.30218 116 135 177 
-0.862612 0.505865 7.21897 28 35 54 
-0.866058 0.265369 7.26806 37 44 73 
-0.768359 0.55586 7.12291 70 67 78 
-0.912524 -1.84847 9.17642 150 173 240 
0.258387 -1.23639 8.82922 158 187 247 
0.261433 0.441275 8.33188 96 111 144 
0.302069 -0.0515568 8.46227 60 51 72 
0.470847 -1.09815 9.00102 150 180 234 
0.553612 0.426773 2.75844 16 19 54 
0.564131 0.415698 2.76109 16 21 53 
0.569775 0.432108 2.76104 61 81 108 
-3.08183 1.00735 3.97811 21 18 25 
-3.13515 0.460619 4.06851 37 47 74 
-3.13904 0.477443 4.07463 69 82 114 
-3.13304 0.442719 4.0771 76 91 130 
-3.12711 0.705397 4.05447 87 106 139 
-3.11679 0.374042 4.07727 64 83 115 
-3.1343 0.465977 4.09063 23 29 51 
-3.14319 0.429895 4.10624 16 25 58 
-3.13374 0.670309 4.08373 51 63 75 
-3.12978 0.627388 4.08437 53 61 80 
-3.12329 0.391307 4.09679 14 20 46 
-3.12094 0.558979 4.0887 57 68 86 
-3.12644 0.483306 4.09969 67 81 110 
-3.13341 0.579725 4.10116 39 47 58 
-3.13322 0.545798 4.10758 40 50 62 
-3.11521 0.712285 4.0866 89 104 135 
-3.11647 0.470851 4.11365 17 28 50 
-3.12953 0.676866 4.11877 11 17 17 
-3.12559 0.601077 4.13087 10 14 15 
-2.95097 0.374581 3.9713 62 72 99 
-3.08625 1.0743 4.06895 7 10 17 
-3.12344 0.619853 4.13803 9 10 15 
-3.11686 0.584815 4.1388 7 10 17 
-3.11149 0.477429 4.14762 20 22 45 
-3.11372 0.678387 4.13917 69 75 101 
-3.11344 0.640438 4.14419 66 73 99 
-3.11212 -0.0922475 4.19791 51 45 49 
-3.11487 0.571524 4.15818 69 78 107 
-3.10746 0.494852 4.15943 73 79 111 
-3.12917 0.420723 4.18854 45 62 82 
-3.14364 -0.26275 4.24909 11 20 29 
-3.08573 0.648989 4.15399 78 75 86 
-3.12861 -0.136816 4.25086 17 18 38 
-3.09973 0.569791 4.18035 72 64 75 
-3.07317 0.732012 4.17268 86 97 127 
-3.08184 0.363669 4.21011 74 62 72 
-3.13086 -0.965647 4.35582 41 61 96 
-3.07867 0.614998 4.19767 7 14 24 
-3.06837 0.666411 4.19055 11 19 30 
-3.08562 0.507744 4.22354 68 83 112 
-3.08809 0.456712 4.23341 17 24 53 
-3.08744 0.47567 4.23271 79 94 133 
-3.08795 0.533521 4.2306 16 21 27 
-3.13402 -1.22565 4.39811 34 28 38 
-3.07461 0.325593 4.23802 45 34 40 
-3.07846 0.496632 4.23903 12 14 39 
-3.07471 0.655406 4.22785 65 72 98 
-3.12083 -0.278856 4.34249 20 18 29 
-3.13606 -0.947458 4.40455 108 119 147 
-1.44289 -0.640242 2.57533 38 47 88 
-3.07661 0.513609 4.25256 69 83 112 
-3.06879 0.710356 4.23381 10 19 36 
-3.08155 0.562684 4.2612 53 66 82 
-3.13462 -1.23226 4.44137 57 45 49 
-3.06643 0.447028 4.25845 67 83 116 
-3.06689 0.743949 4.23943 90 105 136 
-4.12481 -2.55283 5.59629 162 189 234 
-3.13639 -1.1442 4.44644 111 129 165 
-3.0673 0.502592 4.26767 13 15 40 
-3.06114 0.660107 4.2521 61 76 97 
-3.07436 0.553891 4.27518 25 31 43 
-1.38594 0.422899 2.46732 35 41 75 
-3.0645 0.519561 4.28058 68 80 104 
-3.05886 0.715239 4.2626 14 22 35 
-3.10797 -0.341433 4.38622 73 73 97 
-3.06222 0.680576 4.27301 10 14 26 
-3.08398 0.457694 4.31169 75 91 124 
-3.06364 0.647055 4.28057 11 19 32 
-3.05667 0.750836 4.26942 87 98 128 
-3.06254 0.613598 4.28697 11 15 27 
-3.06303 0.58009 4.29539 13 16 31 
-3.05947 0.508634 4.29873 14 16 39 
-3.05986 0.709244 4.28818 71 77 103 
-3.0579 0.66979 4.29094 69 76 102 
-3.05748 0.376009 4.31218 8 12 13 
-3.06016 0.63913 4.30211 72 83 111 
-1.36869 0.447007 2.46974 51 39 43 
-3.05936 0.601965 4.30571 71 82 110 
-3.04853 0.721559 4.28623 32 31 49 
-3.0787 0.439601 4.34903 13 17 28 
-4.12751 -2.4954 5.70247 38 42 80 
-3.06405 0.469541 4.34503 70 67 84 
-3.94502 -2.44523 5.5145 34 31 102 
-3.0754 -0.922872 4.46947 107 105 118 
-3.92196 -2.46661 5.5152 166 197 252 
-3.91572 -2.452 5.517 90 103 173 
-3.05882 -0.113112 4.43878 30 38 57 
-3.06957 -0.949309 4.50923 47 65 101 
-3.02356 0.35443 4.37126 44 29 34 
-3.07983 -1.19429 4.54274 32 29 40 
-3.07008 -0.340744 4.47636 25 35 60 
-3.09038 -1.08217 4.55348 46 64 100 
-3.06109 -1.22169 4.53171 61 50 54 
-3.0536 -1.21917 4.52491 54 41 48 
-3.05111 -0.937859 4.56841 52 70 106 
-3.00193 0.919361 4.40571 85 102 146 
-3.05068 -1.18868 4.61751 67 56 60 
-3.06103 -1.03052 4.63075 107 123 156 
-3.0483 -1.1729 4.65455 34 24 33 
-3.01289 -1.19428 4.66414 61 49 59 
-2.86918 0.67546 4.45193 20 30 66 
-3.03794 -0.644523 4.75211 106 123 169 
-2.83617 0.522998 4.47173 32 42 91 
-2.90419 1.09661 4.5346 91 80 96 
-2.81161 0.575919 4.48856 21 21 57 
-2.94012 -0.405371 4.72774 46 56 91 
-2.94431 -0.372527 4.75717 56 51 58 
-2.92586 -0.323472 4.79383 35 34 48 
-2.94088 -0.039459 4.80691 16 19 24 
-2.96086 -0.955453 4.90664 26 43 71 
-2.95898 -0.980404 4.90967 28 44 70 
-3.15425 -1.66868 5.20641 103 127 187 
-2.95937 -0.936408 4.91525 30 49 81 
-2.93438 -1.14485 4.90057 47 36 44 
-2.95865 -1.07285 4.94292 31 43 67 
-2.95704 -0.853598 4.92541 41 54 98 
-3.07867 -1.61317 5.14448 15 11 34 
-2.95722 -0.839923 4.936 110 121 141 
-2.95652 -1.05584 4.96413 32 41 82 
-2.94396 -1.1112 4.9614 37 30 38 
-2.94002 -0.988586 4.99156 30 41 69 
-3.02765 -1.68614 5.16756 36 43 87 
-3.0215 -1.67489 5.17205 144 166 203 
-2.93233 -1.04505 5.01232 33 38 76 
-2.93079 -0.942945 5.03818 83 80 99 
-2.89808 -0.218611 4.95845 107 126 159 
-2.90717 -0.809024 5.04842 93 95 118 
-2.89759 -0.901737 5.04982 26 42 68 
-2.8816 -0.292945 4.9874 47 47 57 
-2.90731 -0.808935 5.08318 108 115 143 
-2.90196 -1.00368 5.11413 111 129 167 
-2.89356 -0.893772 5.12756 28 42 71 
-2.89537 -0.960317 5.14226 33 46 78 
-2.88392 -1.07469 5.14238 40 30 39 
-2.87921 -0.798903 5.13072 124 134 161 
-2.83253 -0.761089 5.11117 44 28 38 
-3.82742 -2.30112 6.63989 40 40 64 
-2.82978 -1.10788 5.23476 67 73 109 
-2.80131 -0.921786 5.25397 109 127 173 
-2.77203 -1.12013 5.28807 98 116 156 
-2.78621 -0.0353638 5.23072 13 16 21 
-2.78778 0.0139508 5.25098 21 18 35 
-2.78886 -0.0577285 5.26591 19 18 34 
-2.78298 0.0838487 5.2477 112 125 167 
-3.17957 -1.72974 5.9764 79 92 134 
-2.78137 -1.07918 5.36687 62 72 107 
-2.76998 -0.225601 5.2843 41 43 56 
-2.76444 -0.716196 5.33961 46 34 44 
-2.77522 -0.0242493 5.3045 17 16 21 
-3.16271 -1.71179 5.99381 93 113 150 
-2.7735 -1.04568 5.38875 57 45 55 
-2.78907 -0.900871 5.41028 30 40 67 
-2.77171 -0.0435723 5.3207 16 14 25 
-2.77294 -0.0712961 5.3281 23 17 31 
-2.78582 -0.937607 5.4158 114 133 166 
-2.79114 -0.852101 5.43023 36 39 72 
-2.78605 -0.738607 5.41701 105 117 143 
-2.76519 -0.0561185 5.33667 107 121 148 
-2.79248 -0.958388 5.44857 30 36 72 
-2.7856 -0.800871 5.43196 107 120 152 
-2.78138 -0.933716 5.44954 111 132 163 
-2.76455 -1.00498 5.43457 43 38 45 
-2.75319 -0.138301 5.35819 76 78 103 
-2.77746 -0.731157 5.44229 93 97 122 
-2.771 -0.82346 5.46299 28 38 65 
-2.64008 1.14361 5.11595 13 14 44 
-2.64214 1.18555 5.13649 17 17 29 
-2.63149 1.15074 5.12661 88 96 132 
-2.73535 -0.00564307 5.37772 18 19 23 
-2.76585 -0.849494 5.49926 115 125 160 
-2.65342 1.13519 5.18398 92 107 148 
-2.74858 -0.743745 5.48658 85 76 95 
-2.73533 0.0341621 5.41287 109 122 154 
-2.60207 1.18723 5.15299 92 111 169 
-2.61395 1.25839 5.17677 15 17 29 
-2.72438 0.00498165 5.44856 31 35 46 
-2.70136 -0.193722 5.4448 33 31 44 
-2.72518 -0.145882 5.48027 17 21 30 
-2.60635 1.23439 5.21199 112 86 99 
-2.68415 0.15668 5.42706 58 48 56 
-2.65028 0.839153 5.337 8 12 39 
-2.58509 1.2171 5.20941 96 106 141 
-2.71921 -0.775281 5.62271 42 50 89 
-2.69261 -0.745554 5.62784 78 73 93 
-2.54789 0.826315 5.2944 21 29 68 
-2.65914 -0.236753 5.55926 72 75 108 
-2.54254 0.803546 5.29482 38 53 84 
-3.48968 -2.07373 7.27979 78 93 132 
-3.46541 -2.05215 7.29411 94 112 148 
-2.94028 -1.57945 6.63354 88 108 145 
-2.49928 0.640113 5.77972 47 33 33 
-2.52706 0.969388 5.81763 96 103 131 
-2.53095 0.8221 5.85233 90 106 139 
-2.50594 0.679735 5.83728 43 43 55 
-2.51716 0.861812 5.87015 18 18 28 
-2.52251 -0.651764 6.07381 107 106 120 
-2.50699 0.756898 5.91786 95 106 134 
-2.50727 0.835776 5.924 70 67 88 
-2.52361 -0.895864 6.12709 57 45 55 
-2.49905 0.755073 5.93382 68 61 77 
-3.42414 -2.06118 7.80223 39 44 74 
-2.53199 -0.651216 6.15714 89 104 135 
-2.53679 -0.718186 6.17658 97 113 147 
-2.50728 0.00552927 6.10344 77 74 101 
-2.52235 -0.743907 6.20799 28 34 58 
-2.46215 1.07463 5.93495 119 131 171 
-2.52147 -0.692566 6.21743 20 22 43 
-2.52388 -0.719508 6.22454 19 20 50 
-2.52315 -0.801953 6.23613 23 23 57 
-2.475 -0.103282 6.0965 48 31 37 
-2.46189 1.05191 5.98321 33 38 57 
-2.48196 -0.68602 6.19185 74 72 94 
-2.50414 -0.847157 6.25625 46 29 37 
-2.46553 1.02317 6.01223 34 35 55 
-2.4643 0.927158 6.03038 30 31 52 
-2.45124 -0.0958541 6.1087 49 34 41 
-2.48418 -0.570153 6.22506 116 114 127 
-2.46625 0.13171 6.20024 38 36 60 
-2.48761 -0.75893 6.33472 110 125 164 
-2.47578 -0.69245 6.32757 31 47 83 
-2.48176 -0.58556 6.34135 23 31 44 
-3.26919 -1.94366 7.92389 86 100 139 
-2.47306 -0.713785 6.35305 33 46 78 
-2.46941 -0.777997 6.36186 31 44 76 
-2.46986 -0.688979 6.36397 29 35 71 
-2.4652 -0.675801 6.37597 121 132 164 
-3.23662 -1.91777 7.92655 76 94 130 
-2.41986 -0.132593 6.32486 113 130 174 
-2.43201 -0.841147 6.41858 65 46 52 
-2.71431 -1.44471 7.25769 102 120 158 
-2.33637 -0.954237 6.61754 81 93 135 
-2.30662 1.14052 6.37565 17 18 36 
-2.30108 1.17049 6.39431 107 125 161 
-2.2913 0.376019 6.50252 62 49 56 
-2.31397 0.34811 6.55458 120 130 165 
-2.30382 0.85676 6.50815 25 25 35 
-2.31036 -0.773047 6.71096 59 46 55 
-2.33117 -0.699815 6.74838 14 16 29 
-2.27738 -0.864488 6.65821 96 111 152 
-2.29247 1.03739 6.49624 100 106 140 
-2.29709 -0.444289 6.65983 55 42 52 
-2.31671 -0.574505 6.7733 15 21 43 
-2.26295 1.05196 6.56002 74 84 109 
-2.25612 1.12354 6.57342 83 102 132 
-2.27014 0.29346 6.69431 85 95 122 
-2.25366 0.975919 6.59684 90 103 138 
-2.25991 0.902068 6.62144 81 88 116 
-2.24587 1.11263 6.58325 29 38 67 
-2.27539 -0.448382 6.82004 116 116 126 
-2.27576 -0.566894 6.87541 92 102 129 
-2.26201 0.256481 6.77371 31 38 57 
-2.26207 0.120225 6.80049 26 31 50 
-2.25677 0.387601 6.76203 112 125 159 
-2.2802 -0.637787 6.93339 110 124 159 
-2.24393 -0.696264 6.91967 59 65 77 
-2.20231 0.805108 6.76606 57 55 77 
-2.22565 -0.722334 7.01622 62 47 54 
-2.12509 -0.534611 7.30321 113 128 171 
-2.21791 -1.19337 7.60079 11 13 25 
-2.20128 -1.12019 7.59938 70 86 112 
-2.09031 0.411776 7.19726 24 27 44 
-2.18619 -1.12244 7.6336 14 17 34 
-2.09195 0.246507 7.26562 94 107 141 
-2.07515 0.170029 7.24883 40 44 56 
-2.08788 0.459494 7.26348 23 25 38 
-2.09593 -0.400342 7.40942 89 105 130 
-2.05492 -0.305018 7.30314 70 58 70 
-2.07278 0.489039 7.2604 100 111 141 
-2.07384 0.411805 7.29339 110 119 150 
-2.09382 -0.363334 7.44456 20 22 35 
-2.06935 0.341352 7.3246 75 75 101 
-2.07738 -0.450165 7.47859 118 129 159 
-2.0778 -0.453594 7.50183 84 88 117 
-2.0439 0.183898 7.34851 90 82 93 
-2.04406 -0.725158 7.55559 95 113 151 
-2.04568 -0.327452 7.5145 30 36 58 
-2.03522 0.252921 7.44954 21 27 39 
-2.00711 0.195371 7.40147 48 45 56 
-2.04759 -0.331265 7.59929 27 32 51 
-2.04045 -0.328471 7.5841 28 31 50 
-2.03428 -0.0583725 7.53814 101 119 159 
-2.03872 -0.526068 7.61884 19 22 41 
-2.02096 -0.568191 7.58217 51 51 61 
-2.02718 -0.361162 7.61204 114 123 152 
-2.00498 -0.262705 7.58508 68 54 67 
-2.41454 -1.38866 9.08255 27 32 51 
-1.90616 0.637413 7.53062 62 46 56 
-1.87973 0.608558 7.58664 94 101 130 
-1.84939 0.580412 7.55344 30 32 55 
-1.85071 0.360533 7.59661 26 31 50 
-1.85144 0.305708 7.61101 26 32 54 
-1.85153 0.21865 7.62872 22 27 46 
-1.85303 -0.24099 7.72201 25 31 53 
-1.85349 -0.285593 7.72972 24 31 47 
-1.81802 0.552613 7.52835 82 88 112 
-1.85359 -0.367873 7.7468 27 32 51 
-1.85544 -0.411077 7.76099 24 29 48 
-1.85449 -0.454473 7.76581 25 28 45 
-1.81465 0.46441 7.53733 79 90 112 
-1.81879 0.376552 7.56285 79 85 109 
-1.82177 0.602426 7.5431 92 105 140 
-1.8534 -0.553823 7.78413 21 27 43 
-1.85436 -0.595947 7.79617 17 23 37 
-1.81035 0.278734 7.56626 77 87 112 
-1.83024 -0.26671 7.7168 81 88 114 
-1.82777 -0.350738 7.72643 70 78 101 
-1.82712 -0.22228 7.7158 97 103 135 
-1.79816 0.576365 7.53765 28 27 41 
-1.79857 -0.245147 7.69856 23 26 41 
-1.80021 -0.458564 7.74299 20 26 40 
-1.76863 0.593912 7.53195 95 109 144 
-1.77012 -0.496491 7.74537 88 104 138 
-1.73728 0.568287 7.51477 14 17 34 
-1.73732 0.439535 7.53826 12 18 34 
-1.7305 0.502287 7.51231 62 73 93 
-1.73705 0.349018 7.55497 15 20 39 
-1.73795 0.297648 7.56781 12 15 32 
-1.74415 -0.249843 7.69034 12 15 34 
-1.74489 -0.337523 7.70913 14 18 30 
-1.70812 0.593093 7.48576 96 107 139 
-1.74169 -0.463872 7.72517 14 16 31 
-1.74368 -0.518735 7.74074 19 20 38 
-1.74435 -0.605551 7.759 17 28 46 
-1.69743 0.540697 7.47567 63 71 90 
-1.70872 0.318777 7.5462 85 99 134 
-1.68952 0.27016 7.51488 33 40 59 
-1.68637 0.568712 7.48297 21 20 36 
-1.70293 -0.274448 7.65166 76 82 104 
-1.7146 -0.496196 7.72077 88 102 137 
-1.70103 -0.354559 7.66607 61 72 94 
-1.70301 -0.4423 7.68609 43 54 74 
-1.68513 0.295275 7.53493 16 14 27 
-1.70195 -0.543067 7.70681 40 52 78 
-1.69496 -0.644839 7.70481 46 52 74 
-1.64395 0.61713 7.41199 60 47 57 
-1.68644 -0.468253 7.6871 20 18 29 
-1.67297 -0.682386 7.69471 51 38 48 
-1.53152 -0.653703 7.66503 102 120 160 
-1.36717 -0.891254 7.62755 33 24 27 
-1.36765 -0.552177 7.6356 65 78 120 
-1.3255 -1.10122 7.92875 64 79 108 
-1.31771 -1.14112 7.91596 33 47 84 
-1.18645 -1.24821 7.97709 38 44 56 
-1.0428 0.577432 7.24082 71 63 74 
-1.04627 -0.252599 7.40057 65 56 75 
-1.0484 -0.110663 7.40326 108 127 170 
-1.00643 0.0842014 7.32926 40 28 42 
-1.01307 -0.731663 7.51257 40 30 41 
-1.00488 -0.500273 7.47974 117 128 158 
-0.975158 0.272855 7.29072 42 48 74 
-0.0568379 0.197678 3.87406 75 85 110 
-0.976912 -0.307731 7.42312 47 51 80 
-0.981004 -0.549976 7.48205 36 37 58 
-0.981223 -0.677778 7.509 25 27 42 
-0.955194 -0.701865 7.45844 21 24 39 
-0.951325 0.162461 7.3128 90 109 139 
-0.952093 0.541779 7.26104 112 126 161 
-0.95054 -0.362103 7.42392 99 115 148 
-0.92652 -0.551057 7.45595 19 21 34 
-0.929775 -0.684835 7.49546 18 20 33 
-0.894563 -0.30027 7.4028 116 138 179 
-0.864102 0.29496 7.25784 35 42 70 
-0.861887 0.264212 7.25596 32 42 67 
-0.864482 0.208333 7.27913 33 40 68 
-0.86896 -0.688719 7.47548 18 21 38 
-0.863809 -0.412581 7.40748 15 18 27 
-0.860773 -0.345322 7.38507 17 19 32 
-0.838487 0.232936 7.2679 101 121 158 
-0.822765 0.0895698 7.25164 45 50 70 
-0.806983 0.259832 7.22289 35 42 61 
-0.809023 0.169351 7.24829 47 54 80 
-0.806122 0.473045 7.1817 23 26 33 
-0.796842 0.0661002 7.23957 48 40 53 
-0.802919 -0.749412 7.4211 47 35 49 
-0.745536 1.49699 6.93118 23 18 24 
-0.746339 1.36166 6.96981 43 36 54 
-0.705964 1.45326 6.93164 86 100 137 
-0.700168 1.52531 6.9164 26 24 29 
-0.661051 1.52231 6.91517 93 88 110 
-0.648747 1.54973 6.89328 28 23 29 
-0.953024 -1.79289 9.02005 37 39 64 
-0.57893 1.54632 6.89063 83 96 131 
-0.557303 1.59492 6.81934 21 19 20 
-0.422623 1.5977 6.88197 94 100 148 
-0.413022 1.5869 6.89167 15 19 67 
-0.413705 1.61209 6.89988 13 17 55 
-0.624947 -1.50374 8.88614 95 115 150 
-0.602842 -1.48826 8.9076 80 98 138 
-0.293979 -0.468567 7.64015 90 105 136 
-0.28422 0.10825 7.43888 39 29 38 
-0.282932 -0.699194 7.64146 44 40 55 
-0.287698 1.46033 7.12258 37 30 38 
-0.287677 1.16017 7.25367 23 24 42 
-0.280394 -0.27553 7.62035 34 41 69 
-0.274288 1.38943 7.20416 49 57 76 
-0.27577 1.4508 7.21827 84 88 113 
-0.269722 0.305638 7.49404 36 44 65 
-0.26471 -0.662053 7.73321 108 124 160 
-0.2695 0.552718 7.44856 53 58 88 
-0.266301 1.16902 7.29767 16 22 36 
-0.242458 -0.352947 7.62781 47 55 91 
-0.246426 1.45955 7.2797 68 75 104 
-0.228811 1.1771 7.34486 20 23 38 
-0.230226 1.43398 7.31107 16 23 42 
-0.218244 -0.621407 7.81185 39 49 84 
-0.191303 -0.672988 7.81706 35 25 34 
-0.17993 0.146473 7.63988 35 25 33 
-0.184886 1.30799 7.40052 73 81 104 
-0.185712 1.36081 7.401 79 85 109 
-0.17802 1.0166 7.46974 24 18 22 
-0.150662 1.51814 7.40905 32 27 34 
-0.148123 -1.27829 9.39607 44 48 75 
0.155163 -0.542512 8.3618 31 30 48 
0.155178 -0.502945 8.3545 31 33 54 
0.155463 -0.435216 8.34275 47 46 77 
0.166337 -0.568484 8.31955 44 33 41 
0.163601 -0.414415 8.34758 99 115 149 
0.180739 -0.391341 8.38967 65 79 118 
0.170573 1.60178 7.84771 27 22 29 
0.178434 1.32934 8.00367 43 51 70 
0.183279 1.23957 7.99307 40 48 67 
0.183085 1.282 7.99246 69 80 112 
0.179522 1.54705 7.97845 35 43 62 
0.211902 -1.14771 8.87695 143 167 227 
0.191517 1.57726 7.88899 75 89 118 
0.204106 0.576519 8.21813 94 113 146 
0.220735 -0.39747 8.48835 98 114 148 
0.221321 0.337527 8.28602 32 39 67 
0.238986 -0.481451 8.51099 23 27 54 
0.209539 1.59123 7.98957 69 84 117 
0.248003 -0.104756 8.40797 106 122 158 
0.253626 -0.500638 8.5454 88 94 118 
0.250429 0.717914 8.26769 36 43 71 
0.25099 0.68134 8.28221 36 44 67 
0.24474 1.30118 8.1006 70 86 112 
0.275043 0.289376 8.36069 28 21 28 
0.257095 1.28676 8.13705 32 39 67 
0.307291 1.6613 8.14298 26 23 32 
0.462327 -1.18919 8.99808 140 171 228 
-2.00766 0.955694 7.22387 50 35 40 
-2.00725 0.194019 7.39905 49 37 47 
-2.03791 -0.723914 7.54119 99 114 155 
-2.02705 -0.307925 7.6011 121 126 155 
-1.91243 1.51647 7.34518 46 36 45 
-1.86444 1.44222 7.37055 82 90 111 
-1.86645 1.3695 7.38512 75 87 113 
-1.87751 1.02203 7.44765 28 18 26 
-1.86844 1.14976 7.43068 76 86 113 
-1.86905 1.04543 7.45174 68 75 94 
-1.84493 1.45494 7.37 17 22 41 
-1.82614 1.64689 7.30355 16 13 24 
-1.8214 1.69085 7.30467 68 77 94 
-1.76428 1.1415 7.40375 79 93 119 
-1.76446 1.07014 7.41728 82 93 121 
-1.82301 -0.223112 7.70316 96 107 139 
-1.63016 1.49056 7.23235 48 39 44 
-1.31555 1.4199 7.14573 16 18 33 
-1.22812 1.56946 7.04518 84 96 136 
-1.30346 -1.15535 7.92461 84 104 141 
-1.18506 -1.24746 7.97091 44 51 61 
-0.978097 0.515712 7.2559 34 41 69 
-0.924396 0.510002 7.23335 36 44 67 
-0.623597 -1.50219 8.87897 85 99 136 
-3.12251 0.293457 4.07172 38 27 33 
-3.12837 0.391919 4.10193 14 20 46 
-3.21379 0.478124 4.19321 19 23 48 
-3.03914 0.389549 4.04802 17 24 50 
-3.10995 0.718077 4.1166 85 99 128 
-3.09869 0.469028 4.15287 77 87 114 
-3.60359 0.415707 4.71628 57 54 65 
-3.07669 0.732498 4.17639 86 97 127 
-3.08534 0.363507 4.21385 74 62 72 
-3.11903 -0.146523 4.30022 18 21 28 
-3.08088 0.410305 4.24252 65 85 118 
-3.11826 -0.347254 4.33483 99 117 153 
-3.13821 -1.01871 4.41212 45 52 98 
-3.06729 0.545534 4.30052 10 13 20 
-3.92019 -2.47107 5.44379 167 197 251 
-3.12342 -1.15781 4.49256 49 64 103 
-3.0866 -0.234315 4.39112 14 22 33 
-3.08885 -1.09336 4.58003 42 50 87 
-3.01209 0.920689 4.41717 85 102 146 
-3.06843 -1.08107 4.62868 49 62 104 
-3.058 -1.19138 4.62628 67 56 60 
-3.06567 -1.12159 4.63794 55 66 111 
-3.02603 -0.870192 4.58317 54 41 51 
-2.99963 -0.438269 4.57276 55 58 93 
-3.01754 -1.19534 4.66948 61 49 59 
-2.99405 -0.639149 4.69993 106 123 169 
-2.83716 0.559954 4.46535 37 48 68 
-2.83694 0.537178 4.46966 6 11 40 
-2.92467 0.00777028 4.69452 41 30 36 
-2.95398 -0.259775 4.82201 110 125 164 
-2.93666 -0.324434 4.80729 35 34 48 
-2.94183 -1.14733 4.90786 51 43 54 
-2.96452 -1.0022 4.93604 28 42 69 
-2.93736 -1.04621 5.01882 33 38 76 
-2.93248 -0.949562 5.01381 109 124 153 
-2.88292 -0.428164 4.91238 106 123 167 
-2.98435 -1.69344 5.16216 70 98 135 
-2.92073 -1.09412 5.03867 36 25 33 
-2.89112 -0.244539 5 19 21 33 
-2.8894 -1.07649 5.14987 40 30 39 
-2.82446 -0.336411 5.08236 59 65 101 
-2.77552 -1.11996 5.29262 98 116 156 
-2.68897 1.21453 5.11065 84 66 78 
-2.76691 -1.00601 5.43823 43 38 45 
-2.74849 -0.242733 5.3579 59 44 49 
-2.75661 -0.138395 5.36311 76 78 103 
-2.75168 -0.223311 5.36685 37 27 36 
-2.64263 1.14418 5.11961 13 14 44 
-2.76302 -0.729836 5.47049 125 131 155 
-2.64264 1.15353 5.14263 88 96 132 
-2.73569 0.102594 5.39787 117 136 169 
-2.61238 1.16305 5.18965 88 105 131 
-2.60699 1.16038 5.20379 4 17 51 
-2.73668 -0.709753 5.56332 104 114 141 
-2.69916 -0.97258 5.60973 41 31 39 
-2.72027 -0.918462 5.64874 38 42 80 
-2.67223 -0.215315 5.52374 57 40 48 
-2.70278 -0.965426 5.66909 40 28 40 
-2.65916 -0.236591 5.55923 72 75 108 
-2.54355 0.693416 5.31826 59 73 118 
-2.67583 -0.98866 5.68474 62 47 54 
-2.52485 0.717382 5.32638 100 114 153 
-3.48263 -2.07148 7.26883 78 93 132 
-2.52915 0.810767 5.85114 93 113 150 
-2.50467 -0.0829504 6.00163 48 48 60 
-2.53797 -0.706529 6.15822 31 36 66 
-2.51661 -0.0270186 6.06006 23 27 38 
-2.5116 -0.856668 6.1641 47 43 57 
-2.4518 -0.0960303 6.10979 49 34 41 
-2.4344 0.215706 6.18719 73 61 81 
-2.47087 -0.64396 6.33787 28 36 59 
-3.2617 -1.94134 7.91055 86 100 139 
-2.39922 0.676001 6.12688 66 66 100 
-2.41184 -0.0691941 6.24394 51 32 38 
-2.40249 0.327794 6.20547 72 78 114 
-2.36793 -0.999374 6.52688 66 79 114 
-2.29024 -0.868718 6.68515 96 111 152 
-2.26821 -0.503214 6.8178 107 109 122 
-2.23587 0.031409 6.69902 57 41 42 
-2.2583 0.119395 6.79287 26 31 50 
-2.25093 -0.433886 6.93313 124 131 157 
-2.22532 -0.397013 6.92167 63 47 57 
-2.19535 0.802978 6.7513 57 55 77 
-2.0958 1.26665 6.86599 101 117 168 
-2.09668 1.29354 6.86646 96 117 170 
-2.19684 -1.11868 7.58885 70 86 112 
-2.08252 1.24703 7.07003 21 21 31 
-2.17738 -1.16603 7.62785 13 21 40 
-2.0861 0.245626 7.25194 94 107 141 
-2.17134 -1.1866 7.63597 57 81 119 
-2.06999 0.338943 7.29795 113 124 154 
-2.09046 -0.363743 7.43688 20 22 35 
-2.08657 -0.555696 7.46967 20 20 30 
-2.0644 0.341234 7.31249 75 75 101 
-2.03445 1.09772 7.19958 74 87 119 
-2.02963 1.3026 7.19812 34 36 57 
-2.03165 1.07925 7.24471 26 33 51 
-2.03268 1.33651 7.21942 102 113 145 
-2.0321 1.0097 7.2589 23 27 39 
-2.01966 1.2573 7.2324 103 113 140 
-2.03898 -0.724206 7.543 95 113 151 
-2.03032 0.488558 7.39397 31 36 55 
-2.01153 -0.0594886 7.48175 101 119 159 
-2.03514 -0.525565 7.61009 19 22 41 
-2.00233 -0.262738 7.57844 68 54 67 
-2.73165 -1.71641 9.77147 42 61 117 
-2.7169 -1.70541 9.76901 112 135 179 
-2.67003 -1.72692 9.75063 160 182 242 
-1.90121 -0.846758 7.67763 28 19 22 
-1.912 0.637488 7.54644 62 46 56 
-1.86203 1.22042 7.40574 88 90 115 
-1.84474 0.57946 7.54101 30 32 55 
-1.84552 0.358798 7.58326 26 31 50 
-1.84689 0.30533 7.59866 26 32 54 
-1.8499 -0.240712 7.71341 25 31 53 
-1.81477 0.551356 7.51985 82 88 112 
-1.81133 0.463331 7.52865 79 90 112 
-1.81475 0.374701 7.55276 79 85 109 
-1.81457 0.60005 7.52408 92 105 140 
-1.84948 -0.554364 7.77453 21 27 43 
-1.85228 -0.594888 7.7898 17 23 37 
-1.80995 0.279239 7.56482 77 87 112 
-1.82311 -0.266439 7.69754 81 88 114 
-1.82025 -0.223017 7.69784 97 103 135 
-1.79633 -0.244506 7.69199 23 26 41 
-1.74596 -0.602429 7.6844 93 106 138 
-1.73242 0.347202 7.54281 15 20 39 
-1.74047 -0.336557 7.69619 14 18 30 
-1.69734 0.540701 7.4754 63 71 90 
-0.263839 0.636964 3.41663 9 13 25 
-1.68838 0.269923 7.51165 33 40 59 
-1.71281 -0.496665 7.71632 88 102 137 
-1.69797 -0.442114 7.67214 43 54 74 
-1.67105 0.125463 7.52768 48 35 44 
-0.249916 0.633521 3.42472 76 76 38 
-1.67229 -0.68131 7.69181 51 38 48 
-0.254771 0.488875 3.53593 32 32 56 
-0.173002 0.655198 3.54226 70 83 118 
-0.167887 0.668966 3.52554 61 77 102 
-1.33845 -1.16511 7.94211 25 33 70 
-1.30253 -1.15483 7.92231 76 96 133 
-1.26572 -1.23907 7.85188 44 55 75 
-1.03893 0.576218 7.22715 71 63 74 
-1.04424 -0.25228 7.39309 65 56 75 
-0.010953 0.659147 3.54481 4 15 19 
-1.00451 0.0846429 7.32182 40 28 42 
-1.01104 -0.730494 7.50442 40 30 41 
-0.97563 0.345872 7.27643 40 45 74 
-0.97668 0.30543 7.28732 40 46 72 
-0.97593 0.375137 7.27477 37 40 59 
-0.980787 -0.519835 7.4736 29 32 49 
-0.976368 -0.307941 7.42115 47 51 80 
-0.979119 -0.450904 7.45644 35 34 52 
-0.979186 -0.549598 7.47514 36 37 58 
-0.979113 -0.60473 7.48693 30 35 55 
-0.980134 -0.677516 7.50454 25 27 42 
-0.949959 0.361156 7.26463 81 92 124 
-0.946597 0.240405 7.28939 101 119 159 
-0.921823 0.270243 7.27044 35 41 67 
-0.92856 -0.611324 7.47371 16 19 34 
-0.889699 0.388801 7.23648 112 129 172 
-0.887031 0.529889 7.20765 109 127 165 
-0.860931 0.507166 7.20934 25 28 45 
-0.868126 -0.686901 7.47001 18 21 38 
-0.834338 0.232818 7.25108 101 121 158 
-0.838273 -0.5904 7.4349 103 123 160 
-0.817402 0.0889793 7.23088 45 50 70 
-0.827087 -0.338828 7.36124 30 35 55 
-0.822702 -0.538407 7.38999 15 20 42 
-0.81176 0.208053 7.2436 35 41 67 
-0.795274 0.0669825 7.23222 48 40 53 
-0.802594 -0.747859 7.41777 47 35 49 
-0.767194 0.555849 7.11817 69 64 71 
-0.744107 1.49554 6.92549 23 18 24 
-0.742356 1.35848 6.95382 43 36 54 
-0.633112 1.40657 6.89154 48 57 96 
-0.555633 1.59312 6.81198 21 19 20 
-0.910558 -1.84402 9.16432 137 166 226 
-0.410721 1.58425 6.88037 15 19 67 
-0.409879 1.60761 6.88111 13 17 55 
-0.400997 1.59923 6.89298 87 99 147 
-0.280951 -0.697926 7.62941 44 40 55 
-0.285546 1.45796 7.11061 37 30 38 
-0.271018 0.18103 7.51258 31 37 63 
-0.269421 0.254143 7.49418 36 42 74 
-0.264032 -0.660724 7.72684 108 124 160 
-0.26677 0.551106 7.43315 53 58 88 
-0.234153 0.191476 7.5578 31 32 60 
-0.216472 0.291338 7.54569 99 117 155 
-0.204251 -0.229291 7.72386 108 119 149 
-0.200775 -0.375395 7.75971 115 130 163 
-0.191475 -0.672061 7.81616 35 25 34 
-0.191702 0.297767 7.59886 98 113 152 
-0.179742 0.147043 7.63781 35 25 33 
-0.16224 -0.188301 7.75887 77 66 80 
0.522127 0.201906 5.09506 32 39 67 
-3.57032 -0.188682 2.83139 65 75 102 
-3.61373 -0.408121 2.87376 19 20 50 
-3.60762 -0.478552 2.88609 25 22 49 
-3.58968 0.267364 2.80804 56 65 82 
-3.58967 0.194777 2.82223 48 56 75 
-3.59052 0.160883 2.82964 44 51 69 
-3.61382 -0.647273 2.92059 14 12 34 
-3.58163 -0.753717 2.9299 78 75 84 
-3.55607 -0.169355 2.8615 33 36 67 
-3.55489 -0.315538 2.87547 69 87 125 
-15.0074 -4.32964 8.68892 45 54 95 
-3.60654 -0.644398 2.94318 9 12 31 
-3.60618 -0.621997 2.95362 82 105 137 
-3.57894 -0.4004 2.91977 21 18 35 
-13.2682 -1.45685 7.67548 19 17 38 
-3.52437 0.483176 2.82723 60 75 108 
-3.58027 -0.455077 2.95115 74 89 120 
-3.51162 0.750838 2.80094 68 66 79 
-4.8185 -2.89507 3.79475 39 39 63 
-3.52346 0.44762 2.83964 66 84 120 
-14.7453 -4.98044 8.81521 79 79 87 
-3.5902 -0.630569 2.98613 86 95 128 
-3.53694 -0.231656 2.92247 41 56 95 
-3.53046 0.0340933 2.89309 24 21 32 
-3.53226 -0.309661 2.92918 81 99 137 
-3.55075 -0.771778 2.98746 84 103 143 
-3.58656 -1.48728 3.08443 30 27 38 
-3.55424 -0.722476 3.01509 26 17 18 
-3.53487 -0.766399 3.01091 86 105 138 
-3.53227 -0.461345 2.99321 38 40 63 
-3.58026 -1.26325 3.11122 39 61 98 
-14.9328 -4.7359 9.12203 90 105 144 
-3.53706 -0.756859 3.04361 86 99 131 
-3.53344 -0.745052 3.04116 33 30 49 
-4.78557 -2.87455 3.90772 39 45 67 
-3.51171 -0.227013 3.00383 96 115 148 
-3.50597 0.0430399 2.97612 18 25 44 
-3.48805 0.369336 2.93627 68 87 129 
-5.90079 -3.41855 4.54859 147 171 219 
-8.3243 -2.51244 5.6882 51 58 102 
-14.8199 -4.44587 9.23154 101 117 153 
-3.52055 -0.534111 3.0743 91 110 152 
-3.48858 0.331232 2.97046 39 30 33 
-3.52549 0.189974 3.0089 67 75 98 
-3.50956 0.303003 2.99116 71 80 111 
-3.52479 0.156993 3.01574 58 65 83 
-3.52949 0.127273 3.02333 61 66 85 
-3.71971 0.252382 3.12198 60 73 64 
-3.51013 0.296361 3.01229 20 24 51 
-4.74899 -2.88405 3.98794 156 180 242 
-3.47657 0.368569 2.99283 68 83 122 
-4.76255 -2.87765 4.0053 133 170 215 
-3.49672 0.31541 3.03652 28 30 53 
-3.49974 0.301963 3.04005 26 37 69 
-3.50241 0.144186 3.06596 8 12 21 
-3.49434 0.310516 3.05484 73 89 125 
-3.49132 -0.719364 3.16238 28 38 65 
-3.45615 0.615974 3.01074 6 8 31 
-3.45302 0.649423 3.01317 8 8 18 
-3.45273 0.633901 3.01668 72 94 152 
-3.45032 0.600758 3.02211 78 96 158 
-3.47226 -0.298808 3.12861 44 34 42 
-3.50448 0.282856 3.08485 6 11 17 
-17.7509 -2.1001 10.9427 90 105 136 
-3.44895 0.618517 3.02856 4 10 42 
-3.48527 0.320386 3.08374 66 77 107 
-3.49367 0.29277 3.09212 7 11 23 
-3.49046 0.254436 3.09875 16 18 30 
-3.49586 0.238022 3.10516 15 13 34 
-3.49995 -0.3689 3.1775 10 15 19 
-3.50289 -0.44734 3.19339 12 19 27 
-3.4625 -0.257405 3.15444 51 64 109 
-3.4882 0.213518 3.1185 64 70 94 
-3.48992 0.194506 3.12226 55 61 83 
-3.49061 0.178785 3.12652 67 75 98 
-3.49027 0.145293 3.13355 54 57 74 
-3.50569 -0.326314 3.20558 88 102 139 
-3.49788 -0.334829 3.20495 100 120 155 
-3.50092 -0.487493 3.22698 22 20 44 
-3.44871 -1.52088 3.30923 90 111 154 
-3.4733 0.185868 3.14691 69 53 64 
-3.49769 -0.641971 3.24929 43 45 57 
-3.49695 -0.477099 3.23358 103 122 152 
-3.49343 -0.340149 3.21743 9 19 44 
-3.47562 0.236967 3.16014 51 66 85 
-3.47273 0.220982 3.16058 70 83 102 
-3.47177 0.1875 3.16688 74 81 100 
-3.46197 0.332366 3.14608 79 91 131 
-3.4564 0.326207 3.16316 26 40 69 
-3.48266 -0.384703 3.26284 21 17 32 
-17.628 -2.50385 11.3576 12 17 23 
-3.42201 0.407807 3.14798 28 30 51 
-4.76201 -0.594934 4.00524 22 18 33 
-3.12981 -0.495081 3.09372 82 86 113 
-14.294 -7.40249 10.0907 162 186 248 
-3.44835 0.323493 3.18716 66 86 110 
-3.47964 -0.332482 3.28404 86 85 101 
-3.44298 0.332412 3.19193 29 35 67 
-3.44078 -0.658512 3.32265 42 31 35 
-13.5756 -4.47268 9.51743 31 28 39 
-3.43908 -0.639755 3.33347 85 80 87 
-3.43365 0.332932 3.23191 68 74 98 
-3.43206 0.349984 3.23693 76 89 121 
-3.43355 -0.65309 3.34921 43 32 38 
-3.46486 -1.1992 3.4285 43 56 90 
-3.44694 0.287538 3.25615 10 10 18 
-3.47512 -1.15569 3.43657 49 62 104 
-3.43649 0.276792 3.26163 72 77 106 
-3.43508 0.208386 3.27683 66 72 96 
-13.4703 -3.79461 9.51909 106 125 158 
-3.43751 0.176336 3.2845 64 70 86 
-3.44163 -0.295902 3.3487 87 101 140 
-2.30543 -1.71646 2.85189 171 193 251 
-3.44511 -0.375015 3.3668 99 113 140 
-17.6132 -2.54807 11.8625 15 15 27 
-3.4457 -0.447617 3.38079 95 114 144 
-3.37667 0.657341 3.23046 9 8 14 
-3.37443 0.827309 3.21799 84 77 93 
-3.45933 -1.33216 3.50964 107 122 161 
-3.42633 -0.60473 3.42165 45 49 60 
-1.49044 -0.156338 2.23316 21 21 33 
-13.4055 -4.0946 9.7145 52 61 104 
-3.44814 -1.2534 3.52223 104 120 153 
-13.428 -3.94784 9.73418 104 120 153 
-13.3381 -4.40112 9.85569 84 78 90 
-3.41287 -1.40231 3.55912 84 78 90 
-17.291 -2.54063 12.0181 31 22 27 
-2.28429 -1.69727 2.93005 104 135 190 
-3.38824 -0.625858 3.48512 38 25 32 
-3.37761 -0.62856 3.49129 38 25 35 
-1.446 -1.29823 2.39675 160 182 231 
-3.36909 -0.64788 3.51294 40 38 62 
-2.57881 -1.06834 3.11325 110 128 164 
-13.2871 -3.53292 10.0812 58 70 112 
-3.28752 0.886697 3.33721 4 9 13 
-7.61218 -2.22143 6.40324 53 61 100 
-3.40096 -1.15728 3.64827 53 61 100 
-3.30839 0.729107 3.37842 10 14 26 
-7.623 -2.44551 6.4513 48 60 100 
-13.3028 -3.68436 10.1634 108 123 156 
-3.3182 0.407336 3.43072 17 33 66 
-3.34283 -1.06283 3.62398 37 21 31 
-3.29151 0.843566 3.40279 78 93 132 
-3.34911 -1.39222 3.71783 43 31 41 
-13.9771 -7.20198 11.2631 168 193 250 
-3.29307 0.670425 3.45742 79 98 138 
-4.52508 -2.74036 4.66282 148 180 227 
-3.30071 0.262441 3.53643 80 81 102 
-3.30316 0.161098 3.55602 50 60 95 
-4.4914 -2.73987 4.70796 173 195 252 
-3.30969 0.602153 3.53599 84 97 129 
-3.29707 -0.637996 3.68567 92 111 153 
-3.33205 0.566658 3.57344 8 11 16 
-3.31251 0.380804 3.58308 65 80 109 
-3.2929 -1.54348 3.80731 56 71 102 
-3.33033 0.492625 3.58704 5 8 13 
-3.28738 0.112097 3.60656 92 109 152 
-3.30225 0.367532 3.58849 48 61 80 
-3.33128 0.419395 3.60157 9 12 19 
-3.26014 0.112066 3.59345 93 110 153 
-3.30382 0.29895 3.60099 53 66 83 
-3.30202 0.607016 3.56718 86 107 138 
-13.6199 1.7489 10.2825 86 107 138 
-3.30155 -0.199275 3.66594 39 29 37 
-3.77506 -2.08408 4.21246 87 109 148 
-3.30612 -0.57915 3.71813 60 50 59 
-3.75177 -2.06483 4.19677 23 41 77 
-3.76171 -2.07658 4.21488 70 96 131 
-13.7335 1.64947 10.4234 54 60 72 
-3.49644 0.634358 3.71366 32 45 77 
-3.2934 0.604643 3.58203 23 39 72 
-3.10201 0.361744 3.49239 58 73 92 
-3.28885 0.599096 3.59149 73 84 112 
-3.29482 0.38227 3.62528 16 23 49 
-3.29199 0.241147 3.6434 21 28 36 
-3.31768 -0.419216 3.74158 13 14 19 
-3.32222 -0.500185 3.75965 10 14 23 
-3.26607 -1.53274 3.85401 56 69 101 
-3.24535 0.7874 3.55707 77 96 138 
-3.2972 0.577233 3.62271 6 11 15 
-1.6446 -0.173174 2.59872 20 17 44 
-3.28237 0.617503 3.6096 29 44 75 
-3.31931 -0.480644 3.773 13 17 26 
-4.46021 -2.71767 4.82306 174 196 253 
-3.28652 0.430836 3.64499 11 12 17 
-3.27885 0.604851 3.6202 70 76 100 
-3.25875 -0.664064 3.76335 99 116 160 
-3.28948 0.311628 3.66496 56 73 89 
-0.715743 -0.166585 1.97711 97 117 154 
-3.27915 0.620431 3.62562 79 92 124 
-3.31187 -0.528273 3.79161 46 49 68 
-4.5426 -0.379639 4.61187 11 17 39 
-3.29621 0.506663 3.65468 3 11 14 
-3.29103 0.46334 3.66015 16 17 35 
-3.28614 -1.35582 3.8831 36 32 46 
-3.28556 0.543251 3.65286 67 74 100 
-4.52869 0.377653 4.52566 61 64 83 
-3.28739 0.474987 3.66752 67 80 112 
-3.28058 0.445184 3.6822 59 60 78 
-3.28598 0.268899 3.70984 68 73 95 
-3.26108 0.553525 3.6669 79 76 87 
-3.26963 0.472346 3.68738 72 66 80 
-4.524 -0.284092 4.64958 74 82 119 
-4.43657 -2.6717 4.89774 36 42 68 
-4.54035 -1.34815 4.81236 48 59 105 
-16.4016 -1.0484 13.0394 87 86 100 
-3.24891 0.244961 3.72632 79 72 79 
-3.2574 0.482824 3.7046 71 77 101 
-3.25577 0.533938 3.70558 8 13 17 
-3.25801 0.390878 3.72593 17 23 49 
-3.26053 0.502544 3.71583 9 12 21 
-12.9081 -3.88864 11.0129 108 123 162 
-3.25035 0.619721 3.69509 66 82 108 
-16.4256 -2.30757 13.2968 55 44 48 
-3.26177 0.411316 3.73532 66 80 109 
-3.25021 0.628368 3.70314 31 39 75 
-16.2895 -2.05566 13.1871 85 79 91 
-3.197 0.936602 3.62817 25 22 31 
-3.26071 0.521187 3.7267 13 14 19 
-16.4068 -1.26936 13.2042 98 107 136 
-3.24728 0.638293 3.71774 92 108 142 
-12.9533 -3.58064 11.0959 52 67 106 
-3.25054 0.61481 3.72374 11 12 30 
-3.30246 -1.23715 3.99385 112 128 162 
-3.25689 -0.519635 3.88098 34 29 36 
-3.2516 0.625739 3.73297 64 81 109 
-4.52403 -1.34106 4.88268 50 61 106 
-3.242 -0.544873 3.87727 53 42 46 
-3.24979 0.615887 3.7365 58 65 83 
-16.3746 -1.09323 13.251 14 18 27 
-3.27494 -0.232177 3.8623 14 18 27 
-3.25135 0.601214 3.74056 56 64 77 
-13.1077 -3.85159 11.291 52 70 108 
-3.23988 0.633109 3.73309 29 39 74 
-12.9622 -3.63678 11.1725 53 62 103 
-3.29093 -1.20871 4.00625 52 64 106 
-4.5352 -1.59871 4.9401 56 69 113 
-3.28282 -1.03481 3.97915 117 128 156 
-3.22305 0.640966 3.73101 90 106 139 
-3.28094 -1.15561 4.00303 106 120 155 
-3.27167 -0.42994 3.90596 95 113 149 
-12.9662 -4.11642 11.324 36 26 35 
-3.23923 0.422842 3.79045 65 79 106 
-3.26454 -0.445129 3.92542 14 14 38 
-13.4959 1.86502 10.9723 27 40 72 
-3.22876 0.640617 3.76177 27 40 72 
-3.2586 -0.34029 3.91299 108 125 155 
-3.22524 0.278646 3.81362 28 32 43 
-3.25182 -0.255522 3.90415 16 23 42 
-13.5311 1.47148 11.0928 13 19 31 
-3.232 0.418611 3.80665 16 26 51 
-3.22636 0.652761 3.7752 86 93 122 
-3.24506 -1.30307 4.03949 89 86 93 
-3.20743 0.680942 3.7707 55 38 44 
-3.22385 0.427809 3.81545 76 83 109 
-3.25251 -0.497029 3.95627 44 48 60 
-13.5373 1.43723 11.1648 71 80 109 
-12.9306 -4.09453 11.4433 32 26 36 
-3.20871 0.619966 3.78669 33 31 53 
-2.41462 0.378316 3.24558 74 79 99 
-3.23194 0.403098 3.83785 74 85 113 
-3.25294 -0.377741 3.95448 13 13 21 
-2.41744 0.317599 3.25921 75 85 110 
-13.4875 1.25739 11.1954 36 34 56 
-1.05981 -0.540618 2.38449 42 54 94 
-3.17664 0.960976 3.73692 15 13 14 
-3.19842 0.575758 3.80464 104 94 103 
-3.25223 -1.06982 4.07341 51 65 104 
-12.7947 -3.74338 11.4436 52 61 100 
-3.18764 0.255122 3.87104 41 26 33 
-7.32822 -2.32153 7.26185 107 123 159 
-7.33691 -2.057 7.23745 46 64 104 
-3.23993 -1.12566 4.09785 47 66 106 
-4.35479 -2.63173 5.12319 23 32 71 
-3.20114 -0.519569 4.01697 54 39 46 
-4.33647 -2.64585 5.14596 177 199 255 
-3.18016 0.233799 3.91127 60 66 100 
-12.778 -3.23656 11.5342 59 71 111 
-7.303 -2.07576 7.30438 59 68 111 
-7.36594 -2.36316 7.39453 58 73 112 
-7.31156 -2.15263 7.32652 50 63 98 
-3.23571 -1.22074 4.15866 58 71 113 
-12.7504 -3.37677 11.5862 111 127 160 
-3.18503 -0.540579 4.04617 56 59 90 
-3.16757 -0.0243082 3.96887 62 77 120 
-3.19504 0.813828 3.88686 84 103 143 
-3.21388 0.0544527 4.00984 94 113 153 
-3.19263 -1.29404 4.1952 58 47 51 
-4.31087 -2.61296 5.24598 168 194 243 
-3.16814 -0.333008 4.09865 103 118 161 
-3.12498 0.258031 4.04181 56 68 106 
-4.28183 -2.60636 5.34052 173 198 252 
-3.14555 -1.34675 4.30462 93 110 153 
-3.1397 0.477628 4.07514 71 85 114 
-3.13742 0.663035 4.0499 11 14 19 
-3.14536 0.58931 4.06798 17 16 22 
-3.54593 0.750908 4.36612 36 44 80 
-3.16272 0.517061 4.09841 15 18 25 
-3.13234 0.466068 4.08906 18 28 55 
-3.13096 0.705587 4.05753 94 109 142 
-1.59503 0.704268 2.82993 19 16 25 
-3.1344 0.392081 4.10558 24 28 55 
-3.33122 0.406132 4.26115 24 28 55 
-3.13449 0.681624 4.06699 15 15 27 
-3.11777 -0.509457 4.22013 56 67 99 
-3.5689 -1.95833 4.7916 81 96 129 
-4.35462 0.591453 5.07135 70 79 112 
-3.12703 0.685101 4.07523 65 68 87 
-3.12767 -1.28863 4.3497 55 68 102 
-3.58554 -1.97623 4.81719 87 99 137 
-3.10951 0.334502 4.12287 11 12 16 
-3.11944 0.470994 4.11604 22 27 56 
-4.0492 0.508192 4.86782 26 31 61 
-3.12108 0.399005 4.13283 22 27 57 
-3.1167 0.712145 4.08783 92 107 140 
-14.3304 -0.929092 13.3917 18 24 40 
-14.0501 -0.499239 13.113 59 48 54 
-3.11902 -1.25576 4.37182 59 49 58 
-3.13534 -0.159438 4.23798 19 22 31 
-4.32586 0.556059 5.10781 81 95 134 
-4.33938 0.51564 5.12743 82 98 131 
-3.11013 0.707406 4.1023 39 50 82 
-3.12564 0.601742 4.1308 14 19 23 
-3.11069 0.477822 4.14691 21 26 48 
-3.12719 0.586115 4.14706 15 16 21 
-4.33411 0.537611 5.14082 19 28 59 
-3.1081 0.635441 4.12568 68 74 90 
-4.33569 0.494392 5.15076 19 27 50 
-3.11353 0.56881 4.14198 67 72 91 
-3.11322 0.469782 4.16183 91 101 128 
-3.11379 0.640593 4.14445 68 75 103 
-3.11642 0.571544 4.15945 70 81 109 
-4.3334 0.731479 5.13681 65 71 93 
-4.32512 0.587597 5.15123 17 22 44 
-3.11148 0.557455 4.15995 65 73 94 
-3.09208 1.0749 4.07363 9 12 21 
-4.09658 -2.51631 5.40372 177 198 253 
-3.11328 0.508728 4.17248 74 79 99 
-3.09872 0.655307 4.14123 44 35 54 
-3.09883 -1.22363 4.411 66 54 58 
-3.1333 -0.946195 4.40204 98 112 139 
-4.3262 -1.43117 5.45502 47 63 97 
-14.2711 -0.641996 13.5485 16 19 38 
-4.33306 0.443369 5.20076 63 60 71 
-3.11951 -0.255078 4.29864 12 20 39 
-3.08933 0.649341 4.1569 84 78 88 
-3.12397 -0.955503 4.41249 47 64 108 
-3.12462 -0.997326 4.41959 40 58 96 
-4.05569 -2.50658 5.42053 26 47 100 
-3.08923 0.364031 4.21623 82 69 79 
-3.11755 -0.378937 4.34743 15 19 30 
-3.11914 -0.97107 4.43744 48 64 100 
-3.11829 -1.0332 4.44906 48 66 102 
-3.12524 -1.10189 4.46702 49 67 105 
-3.1225 -0.952994 4.4524 49 61 103 
-3.08087 0.732656 4.17903 88 95 124 
-3.08899 0.508235 4.2263 68 79 109 
-1.661 -0.763398 3.2119 57 70 114 
-3.09542 -0.118174 4.33109 89 86 103 
-3.11134 -1.05878 4.48306 109 125 159 
-4.14173 -2.56009 5.5683 166 185 228 
-3.08013 0.496962 4.24039 15 19 46 
-3.07932 0.480744 4.2434 33 47 86 
-4.14083 -2.65502 5.58878 187 200 255 
-3.4803 0.493978 4.58192 16 25 56 
-3.07566 0.460594 4.2452 16 25 56 
-4.1434 -2.82559 5.6226 190 204 253 
-3.09775 -1.20327 4.50738 37 25 37 
-3.10008 -0.388692 4.39297 83 75 90 
-4.13368 -2.5839 5.58698 180 201 255 
-3.07397 0.654711 4.22733 65 76 104 
-3.06635 0.586602 4.23337 60 74 101 
-3.07609 0.513881 4.25208 69 78 107 
-3.07405 0.448099 4.26475 68 87 120 
-3.07255 -1.2278 4.50528 55 43 47 
-3.07979 0.429413 4.27404 24 31 60 
-3.06684 0.730498 4.22427 29 42 74 
-4.11199 -2.54331 5.58374 156 189 234 
-4.10931 -2.56078 5.58662 175 205 255 
-4.10975 -2.606 5.59689 183 203 255 
-4.10769 -2.62635 5.60087 179 206 255 
-3.92907 -2.33607 5.40789 60 79 112 
-7.68204 -0.452211 8.33305 15 22 40 
-4.10316 -2.54813 5.59052 80 100 163 
-3.07281 0.433305 4.28629 16 26 53 
-3.0637 0.660138 4.25429 58 68 93 
-4.08668 -2.59467 5.59938 184 201 255 
-3.08743 -0.20827 4.40303 18 22 31 
-3.06466 0.519755 4.28069 66 76 101 
-3.07687 -1.19238 4.53979 35 29 41 
-3.06888 0.698307 4.26099 40 48 67 
-3.06986 -1.22357 4.53938 54 41 48 
-3.08626 -0.287573 4.41864 13 14 19 
-3.05194 0.486395 4.27983 83 97 136 
-4.05454 -2.60572 5.59029 179 202 252 
-3.05521 0.737445 4.25246 28 38 73 
-4.02096 -2.56045 5.56586 182 202 255 
-3.05966 0.508946 4.29885 17 21 48 
-3.067 0.614557 4.29067 14 20 32 
-4.02233 -2.64704 5.58654 183 198 255 
-3.05635 0.471469 4.30456 22 32 59 
-3.0544 0.598271 4.28817 72 74 97 
-3.08072 -0.249568 4.43504 19 24 46 
-4.00976 -2.6569 5.58604 96 111 176 
-3.079 -0.927443 4.54084 53 61 107 
-3.04475 0.483426 4.30635 67 84 114 
-3.05931 0.708918 4.28775 77 81 106 
-3.04923 0.525949 4.30612 66 71 100 
-3.9444 -2.44464 5.51389 37 36 96 
-3.06076 0.51163 4.32033 22 26 51 
-3.0901 -1.13303 4.59016 51 62 107 
-3.97272 -2.4412 5.54713 183 199 248 
-3.96503 -2.6117 5.56582 178 201 253 
-3.0604 0.538237 4.32307 73 78 100 
-3.06017 0.476932 4.33498 19 21 44 
-3.04328 0.684476 4.29077 43 39 56 
-3.94933 -2.63714 5.56302 180 202 252 
-3.04833 0.547412 4.31954 31 28 49 
-3.06095 0.433772 4.34862 75 73 87 
-3.93042 -2.68037 5.56037 178 204 253 
-3.05794 0.395728 4.35374 64 60 75 
-3.9015 -2.44546 5.50389 88 103 162 
-14.0018 -0.57738 14.0428 26 34 47 
-3.90626 -2.67198 5.55741 51 66 133 
-13.9687 -1.36647 14.1784 20 24 35 
-3.07477 -0.943605 4.58996 51 69 105 
-3.07829 -1.00694 4.60502 53 68 107 
-2.30238 -0.906913 3.91269 107 125 161 
-3.07564 -1.07359 4.61455 47 67 104 
-3.06653 -1.19421 4.63245 65 54 58 
-3.05962 -0.959078 4.60217 55 67 107 
-3.05466 -0.22791 4.49504 106 119 154 
-1.24114 -0.640884 2.95931 60 73 115 
-3.06066 -0.906817 4.60283 103 112 141 
-3.06153 -1.03002 4.63102 113 128 161 
-3.04277 -0.394452 4.52648 35 23 33 
-3.01868 -0.417339 4.54506 51 36 43 
-3.02293 -1.19642 4.67334 56 44 56 
-3.02406 0.922714 4.42533 85 105 142 
-12.704 -0.907254 13.6687 104 121 164 
-2.94133 -0.628702 4.66031 107 124 168 
-1.13942 -0.577538 2.98376 110 124 171 
-2.84181 0.572764 4.42571 76 92 125 
-2.86285 0.543344 4.46739 92 110 146 
-2.85195 0.542602 4.45956 91 110 143 
-2.84117 0.525819 4.46468 92 110 146 
-3.39834 -1.86358 5.36645 83 100 144 
-3.38447 -1.85646 5.37339 38 45 91 
-2.94184 -0.405299 4.72933 52 57 89 
-3.3643 -1.83813 5.36394 94 113 153 
-2.84228 0.548934 4.49535 96 110 145 
-2.94762 -1.17824 4.87921 62 74 116 
-3.91211 -2.32335 5.9838 92 114 153 
-4.10381 -0.219995 5.85432 46 36 34 
-11.8819 -0.312425 13.3761 14 17 24 
-2.90339 1.09538 4.53399 90 77 94 
-4.08776 -0.151147 5.88145 21 20 36 
-4.08699 -0.213634 5.89404 45 34 38 
-3.11847 -1.62805 5.18546 24 24 48 
-2.94984 -0.325892 4.81752 25 25 35 
-4.07815 -0.135235 5.8879 105 121 147 
-4.07789 -0.224593 5.90545 110 124 151 
-2.95185 -0.24794 4.81743 107 126 159 
-4.07882 -0.34594 5.92997 97 115 151 
-11.9748 -0.247665 13.6197 12 17 37 
-2.94083 -0.0180316 4.77998 99 114 153 
-4.06861 -0.145405 5.90019 14 20 42 
-2.89349 1.17208 4.55487 72 52 64 
-11.8961 -0.282702 13.6218 14 17 22 
-3.05034 -1.64561 5.17365 17 23 45 
-11.8723 -0.52226 13.6488 18 17 23 
-3.02534 -1.68488 5.16501 31 35 73 
-11.8585 -0.582163 13.7012 20 16 30 
-11.8451 -0.661838 13.7039 16 14 28 
-3.02016 -1.67462 5.17076 130 154 188 
-2.94184 -0.988656 4.9933 29 43 70 
-2.94483 -0.925177 4.98658 28 40 66 
-2.94466 -1.05779 5.01081 31 45 72 
-11.8507 -0.619114 13.7541 108 123 154 
-3.96384 -2.38726 6.24033 34 34 62 
-11.7957 -1.12292 13.8343 38 27 33 
-11.8148 -0.391257 13.7361 85 83 105 
-11.8817 -0.610436 13.8406 81 79 103 
-2.92647 -0.189038 4.88092 84 81 102 
-2.90309 -0.346231 4.89417 51 36 43 
-12.1181 -2.75933 14.5123 85 82 99 
-11.7925 -0.628661 13.8954 17 23 35 
-2.88929 -0.340473 4.91682 49 36 43 
-11.9811 -2.83535 14.4722 100 98 112 
-11.6736 -0.215608 13.7602 18 18 26 
-12.1682 -2.67966 14.7422 98 100 121 
-2.17007 -0.187064 4.20126 24 25 53 
-11.7413 -0.140627 13.9226 105 121 154 
-11.7608 -0.346113 13.9848 102 118 144 
-12.099 -2.71087 14.7398 27 36 69 
-11.7089 -0.297465 13.9774 16 21 40 
-2.91428 -1.00645 5.12714 109 127 163 
-11.717 -0.192741 14.0254 27 31 42 
-2.90741 -0.853311 5.10627 21 40 70 
-11.7446 -0.682399 14.1545 22 24 36 
-2.89587 -1.07811 5.15535 42 35 43 
-2.90151 -0.89512 5.13592 21 32 62 
-12.0849 -3.3502 15.0251 28 38 63 
-2.891 -0.933766 5.15369 41 51 87 
-2.87053 -1.06319 5.18398 41 29 41 
-11.9725 -2.78817 14.9814 77 74 95 
-11.535 -1.09757 14.288 52 39 46 
-2.78116 -1.12288 5.29823 96 114 154 
-3.80747 -2.32771 6.68128 182 204 254 
-2.76609 -0.27336 5.22715 49 36 45 
-3.69705 -2.20165 6.62468 87 101 138 
-3.17615 -1.72893 5.97254 86 105 147 
-2.79573 -0.90208 5.41792 29 41 67 
-3.67377 -2.18198 6.63818 82 101 141 
-1.06836 -0.104835 3.3516 26 28 40 
-2.78179 0.0838433 5.24637 113 127 166 
-2.76975 -1.00683 5.4409 44 38 50 
-2.77423 -0.74828 5.42623 21 34 68 
-2.77185 0.0553367 5.28455 16 19 26 
-1.41085 -0.471663 3.84195 102 108 134 
-2.76898 -0.86571 5.48606 32 37 67 
-2.73209 -0.241692 5.34277 54 42 46 
-2.76209 -0.790212 5.48302 116 133 163 
-1.05162 -0.475743 3.46357 115 130 159 
-2.71477 1.268 5.0597 88 67 82 
-2.75684 0.0178849 5.33362 82 80 102 
-2.75279 -0.99459 5.52151 40 29 45 
-1.04668 -0.562999 3.48024 40 29 45 
-2.76355 -0.842548 5.51409 71 76 98 
-2.74713 -0.741115 5.48409 83 79 96 
-2.72391 -0.769549 5.49124 108 106 119 
-2.70636 -0.240013 5.38211 50 38 40 
-2.64584 1.14501 5.12249 14 12 36 
-2.65693 1.15629 5.15566 85 98 130 
-2.7195 -0.0772999 5.45845 26 26 38 
-2.65078 1.13611 5.18072 85 104 144 
-2.71154 -0.820892 5.64117 113 129 162 
-2.68553 0.156917 5.42867 53 46 54 
-2.70927 1.22948 5.25862 6 11 41 
-2.60213 1.19885 5.13598 6 11 41 
-2.59689 1.21753 5.13803 89 110 165 
-2.59751 1.18568 5.14778 90 110 163 
-2.68837 -0.746101 5.62312 75 71 94 
-2.59099 1.20347 5.14957 5 14 55 
