ply                 
format ascii 1.0    
element vertex 1233
property float x    
property float y    
property float z    
property uchar red  
property uchar green
property uchar blue 
end_header          
0.295549 -0.401022 2.02467 11 10 8 
0.493866 -0.396709 2.01126 228 194 26 
-0.707887 -0.429589 2.20457 46 54 43 
0.358213 -0.398447 2.02744 211 213 212 
0.417662 -0.39854 2.02696 226 228 227 
0.425385 -0.394888 2.01245 245 245 245 
0.343121 -0.39601 2.02508 218 222 221 
-0.821409 -0.425045 2.19627 249 238 120 
0.167551 -0.417757 2.14902 40 13 6 
0.885162 -0.403496 2.0659 149 160 146 
0.846405 -0.415043 2.13314 83 87 86 
-0.991811 -0.411165 2.14607 23 32 27 
0.629855 -0.388416 2.00175 183 153 93 
0.8426 -0.415546 2.14569 16 18 17 
0.196294 -0.388734 2.02141 247 217 107 
0.277495 -0.388759 2.02498 158 180 230 
0.627898 -0.388027 2.02011 37 26 0 
0.356227 -0.387123 2.02433 6 12 12 
0.914455 -0.391689 2.04351 14 10 1 
0.423828 -0.386701 2.02592 238 247 244 
0.550699 -0.380074 2.00392 4 9 5 
0.938816 -0.387401 2.03874 186 151 109 
0.403004 -0.382361 2.02073 12 18 14 
-0.964998 -0.402926 2.1545 195 210 203 
0.641331 -0.382011 2.02424 178 153 96 
0.519685 -0.376763 2.0033 110 99 45 
-0.983028 -0.397714 2.14936 133 116 109 
0.611076 -0.376154 2.01181 31 24 0 
0.622296 -0.37679 2.01331 42 37 8 
-0.757906 -0.403932 2.18811 89 128 143 
0.420578 -0.375809 2.01706 18 23 19 
-0.782835 -0.402203 2.18372 226 239 229 
-0.642854 -0.404911 2.20118 203 195 174 
0.578414 -0.370795 1.99349 92 66 7 
-0.718269 -0.400313 2.18714 45 70 75 
-0.62474 -0.401484 2.20314 231 214 144 
-0.96316 -0.389055 2.14393 178 163 156 
-0.592542 -0.400947 2.20605 180 161 102 
0.124746 -0.412124 2.26239 94 65 49 
0.396622 -0.370173 2.01921 4 8 9 
0.931344 -0.373588 2.03097 181 148 117 
-0.981435 -0.387153 2.14266 143 120 112 
0.114373 -0.40788 2.26171 74 46 35 
0.619719 -0.363315 2.00146 180 151 93 
0.651696 -0.365514 2.02113 142 130 116 
-0.632754 -0.390507 2.19399 38 29 30 
0.5401 -0.359734 1.99674 222 224 223 
0.585079 -0.36132 2.00483 57 38 0 
0.644125 -0.36581 2.033 70 56 11 
0.514205 -0.358596 1.99704 238 204 115 
0.527058 -0.357188 1.99753 106 100 74 
0.595914 -0.359432 2.00958 176 147 67 
-0.967728 -0.376778 2.14846 177 159 147 
0.932364 -0.360127 2.02703 163 165 160 
0.799545 -0.38188 2.16086 59 60 55 
-0.956819 -0.373814 2.13946 40 33 27 
0.553158 -0.351886 1.99393 56 54 33 
-1.51539 -0.40811 2.36715 71 66 62 
-0.734353 -0.377622 2.18256 51 135 163 
0.939811 -0.354402 2.02308 20 20 20 
0.533289 -0.348171 1.99513 227 228 223 
0.542668 -0.345862 1.98936 202 204 203 
-0.666984 -0.37413 2.18197 254 190 204 
0.121042 -0.380716 2.24156 152 116 94 
0.530528 -0.339106 1.98513 62 62 52 
-0.826838 -0.363072 2.16559 232 227 136 
0.894896 -0.342857 2.02045 208 212 215 
-0.684725 -0.362741 2.17464 254 166 180 
0.590792 -0.336642 1.99759 31 24 0 
0.882043 -0.345981 2.05194 136 142 130 
0.563889 -0.339684 2.0202 229 222 196 
0.430739 -0.334906 2.00054 225 188 47 
0.507484 -0.332933 1.99337 229 198 108 
-0.766578 -0.355407 2.16479 102 199 232 
0.601086 -0.333606 2.0058 23 18 0 
-0.781737 -0.353102 2.16145 107 196 230 
-0.655973 -0.353491 2.17306 255 177 194 
0.87383 -0.33926 2.05779 131 132 127 
0.337789 -0.329189 2.01164 143 176 221 
0.549881 -0.326744 1.99068 1 3 0 
0.585807 -0.326455 1.99654 43 33 0 
0.354481 -0.325767 2.00601 137 165 205 
0.104056 -0.357562 2.23274 51 25 12 
-0.70217 -0.343881 2.15957 206 60 96 
0.36838 -0.321326 2.00198 17 44 55 
0.47102 -0.319031 1.98661 229 199 85 
0.86697 -0.3327 2.07197 108 113 107 
0.876868 -0.329091 2.05048 235 235 235 
-0.510944 -0.355643 2.25299 7 11 12 
0.524984 -0.31744 1.98776 56 53 34 
0.617717 -0.3193 2.00945 77 54 12 
0.864254 -0.329122 2.08358 105 107 102 
0.606611 -0.316265 2.00854 89 67 20 
0.534294 -0.310622 1.97987 210 208 213 
-0.9568 -0.324486 2.12084 50 43 37 
0.485127 -0.306084 1.97682 130 112 40 
0.549821 -0.307719 1.98438 22 14 1 
0.524018 -0.307136 1.98403 71 66 47 
-0.979836 -0.321795 2.11822 166 150 127 
0.196995 -0.306906 1.99686 10 12 9 
0.577808 -0.30735 1.99096 20 12 0 
0.502446 -0.302838 1.97885 219 183 61 
0.852897 -0.320067 2.08929 133 141 128 
0.586659 -0.303842 1.9961 31 23 2 
0.77696 -0.318034 2.09213 129 104 100 
-0.968683 -0.31501 2.11484 51 53 52 
-0.901366 -0.325732 2.19734 117 100 74 
0.492813 -0.297968 1.97961 125 112 34 
0.573434 -0.295515 1.9893 193 155 58 
-0.976386 -0.307092 2.10629 143 118 111 
0.778719 -0.30547 2.06661 186 168 156 
0.528922 -0.291534 1.96975 30 24 10 
0.478166 -0.290656 1.97484 115 95 36 
0.849151 -0.307798 2.10278 26 33 25 
-1.00387 -0.311284 2.16486 144 121 113 
-0.958181 -0.304223 2.10853 192 174 164 
-0.982452 -0.297671 2.10252 48 50 49 
-0.505056 -0.309748 2.19249 146 119 150 
-0.745713 -0.303049 2.14842 241 221 214 
-0.73512 -0.300546 2.14207 214 36 62 
0.540122 -0.281812 1.97314 180 178 179 
0.084157 -0.285229 2.0212 234 238 237 
0.0963338 -0.281441 2.00357 197 199 198 
-0.958327 -0.291747 2.10441 207 191 166 
-1.53494 -0.316875 2.31759 31 28 21 
-1.51598 -0.316385 2.33118 64 61 52 
-0.563641 -0.304297 2.22489 147 159 159 
0.830943 -0.291147 2.10025 115 97 97 
0.841683 -0.289091 2.08623 132 112 114 
0.0846817 -0.275403 2.01003 253 255 254 
0.496905 -0.269387 1.96265 209 171 70 
0.119053 -0.272992 2.00177 239 207 98 
-0.977513 -0.280982 2.09991 166 146 119 
-0.699846 -0.287159 2.14018 245 210 216 
-0.505366 -0.293167 2.18526 173 127 173 
0.0760961 -0.274692 2.02925 232 234 233 
-0.956106 -0.280012 2.09604 206 184 161 
-0.674053 -0.284238 2.1398 244 205 208 
0.846331 -0.278874 2.07228 27 30 23 
-0.534794 -0.287506 2.17195 85 48 82 
-0.662658 -0.281775 2.14062 255 203 203 
-0.639417 -0.281121 2.1385 202 35 55 
-0.66786 -0.280924 2.17892 185 87 100 
-0.619907 -0.276043 2.14504 255 214 208 
-0.505458 -0.281034 2.17978 179 132 176 
-0.715941 -0.266072 2.12655 252 201 208 
0.103146 -0.250829 1.98132 37 26 0 
0.847073 -0.261183 2.06958 142 139 124 
0.848413 -0.255802 2.05201 27 30 23 
-0.672115 -0.260731 2.13368 250 201 205 
-0.517008 -0.264898 2.17629 191 138 194 
0.464085 -0.24272 1.96059 227 194 101 
-0.642787 -0.257345 2.13302 248 217 215 
-0.630861 -0.255042 2.12603 205 38 66 
0.169472 -0.237846 1.97195 163 180 226 
0.848536 -0.248232 2.05919 132 141 122 
-0.74447 -0.249457 2.11745 237 231 195 
-0.915239 -0.248656 2.13991 121 122 44 
0.834775 -0.242068 2.07516 95 98 87 
-0.924955 -0.238267 2.12401 117 98 40 
-0.737358 -0.234846 2.11188 234 240 238 
-0.602574 -0.232003 2.1277 200 176 44 
-0.748548 -0.226484 2.12627 71 131 77 
0.0700861 -0.205013 1.97282 111 111 113 
0.538643 -0.204131 1.97117 100 76 40 
0.0840875 -0.201196 1.96462 239 203 109 
0.0736203 -0.186969 1.99102 36 22 9 
0.436053 -0.182257 1.94199 227 195 108 
0.81683 -0.178683 2.00732 213 193 168 
0.816545 -0.166224 2.01533 123 111 99 
-0.747071 -0.16329 2.07914 52 128 90 
0.869474 -0.160645 2.00549 154 166 146 
0.422356 -0.152339 1.93327 233 200 103 
-0.503616 -0.162212 2.12568 172 121 162 
0.519313 -0.149345 1.96397 81 61 36 
0.870722 -0.151674 1.98386 29 30 25 
0.54035 -0.14856 1.95741 178 174 173 
0.761574 -0.152428 2.0429 218 198 187 
0.513081 -0.144096 1.95534 202 194 192 
0.771041 -0.149763 2.0415 46 32 21 
0.815976 -0.148519 2.04714 15 16 20 
0.53167 -0.135246 1.95921 173 172 170 
0.508059 -0.133479 1.94741 231 230 228 
0.545208 -0.134971 1.96705 15 18 7 
0.737122 -0.132265 2.02251 211 228 210 
0.748516 -0.131876 2.01349 225 225 223 
0.0130467 -0.120043 1.93806 28 27 32 
-0.358809 -0.122447 2.0094 81 84 89 
0.673467 -0.123681 2.02557 199 237 196 
0.876446 -0.11661 1.95666 23 28 21 
0.11023 -0.113617 1.96485 15 14 10 
0.857631 -0.115765 1.9903 141 150 129 
0.49847 -0.108154 1.95395 72 79 89 
0.863862 -0.108527 1.94436 22 14 12 
-0.546467 -0.10981 2.07395 207 201 205 
0.94053 -0.106543 1.92433 205 206 210 
0.0317823 -0.102908 1.93426 255 209 129 
0.86614 -0.105789 1.97382 17 16 11 
0.692476 -0.103986 2.03754 25 39 26 
0.783103 -0.102535 2.00061 90 103 111 
0.938835 -0.0977435 1.91686 214 213 218 
-0.0828718 -0.100158 2.07016 211 209 214 
0.461851 -0.094414 1.91954 255 243 213 
0.61658 -0.100356 2.0651 25 27 14 
0.648593 -0.0989819 2.04783 32 33 15 
0.87822 -0.095503 1.94529 163 157 141 
-0.12701 -0.0954544 2.05379 210 210 212 
0.830741 -0.0968819 2.03766 5 6 8 
0.88858 -0.0926251 1.93105 243 242 238 
0.820373 -0.0960242 2.02816 7 8 12 
-0.499243 -0.0935106 2.08117 116 81 121 
0.0679223 -0.0881552 1.92583 194 142 58 
0.394603 -0.087956 1.90831 99 77 17 
-0.116916 -0.0914891 2.0524 215 210 214 
-0.0997984 -0.0908078 2.07436 206 200 202 
-0.756073 -0.0854936 2.0508 71 127 78 
0.692594 -0.0876878 2.02725 35 53 57 
0.937197 -0.084576 1.90924 161 167 157 
-0.822473 -0.0836611 2.03017 77 25 1 
0.383992 -0.0825919 1.9184 93 79 34 
0.0164257 -0.0845338 2.02448 39 40 42 
0.897048 -0.0833047 1.91544 212 218 208 
-0.148276 -0.0839326 2.03862 219 220 224 
0.876278 -0.0814302 1.94136 161 135 134 
0.854188 -0.080768 1.97217 176 171 151 
0.016341 -0.0783798 2.01513 235 239 242 
0.507645 -0.0757922 1.90775 196 212 235 
0.0261012 -0.0758829 2.02228 61 62 64 
-0.606431 -0.0739411 2.12773 4 13 10 
-0.23198 -0.0719378 2.02088 72 73 77 
-0.167491 -0.0727921 2.03298 212 213 215 
-0.300633 -0.0704351 2.00111 201 203 202 
0.579018 -0.0721369 1.99294 156 143 109 
0.859126 -0.0709101 1.96663 154 159 139 
-0.557529 -0.069593 2.05065 32 34 31 
0.381001 -0.0666848 1.93793 89 74 19 
0.47767 -0.0661216 1.94543 58 33 2 
0.0883742 -0.0647051 2.00231 238 238 236 
-0.80162 -0.0601651 2.02144 111 0 5 
-0.755233 -0.0600163 2.03027 87 135 75 
0.672207 -0.0635621 2.02676 22 28 40 
0.0756274 -0.0596588 1.9917 56 56 56 
-0.776036 -0.0578665 2.00998 53 44 27 
0.402052 -0.0578983 1.89821 124 92 45 
0.839455 -0.0602584 1.99515 179 178 160 
-0.0275512 -0.0590692 2.05547 47 49 48 
0.492778 -0.0571325 1.90006 224 219 223 
-0.125527 -0.0565203 2.03315 214 209 213 
-0.188457 -0.0546112 2.01946 118 117 122 
-0.237541 -0.0517136 2.02389 212 213 215 
0.882811 -0.0523136 1.93456 161 141 140 
0.0598989 -0.0505451 2.00298 240 242 241 
0.0732157 -0.0497789 2.00071 252 254 253 
-0.787911 -0.0471847 2.00497 184 52 73 
0.359488 -0.0471428 1.90669 221 161 51 
0.595853 -0.0454324 1.9823 217 167 170 
-0.0290969 -0.0421987 2.05657 95 95 95 
-0.373496 -0.0397623 1.97358 113 116 121 
-0.0153283 -0.0404308 2.05497 109 113 116 
-0.564704 -0.0375854 2.02037 188 192 191 
-0.0783567 -0.039022 2.04016 211 210 215 
-0.246998 -0.0364912 2.00117 196 194 199 
-0.939919 -0.0322416 1.99408 89 96 63 
-0.846273 -0.0309171 2.00036 255 247 94 
-0.792635 -0.0301938 2.00523 231 229 234 
0.898001 -0.0325193 1.8957 247 248 250 
0.18318 -0.0306989 1.93648 233 232 230 
0.642023 -0.0302273 1.93321 187 191 190 
0.0320283 -0.028044 1.9945 238 242 241 
0.341925 -0.0276842 1.85889 235 183 82 
-0.113798 -0.0252871 2.02527 110 109 114 
0.887607 -0.0275943 1.91197 238 238 238 
-0.823738 -0.0221548 2.00148 77 94 42 
-0.168163 -0.0216443 1.99818 149 147 150 
0.597742 -0.0232744 1.94282 122 122 120 
0.936121 -0.0224544 1.88125 151 152 112 
-0.578466 -0.0174437 2.00384 146 122 118 
-0.903679 -0.0157371 2.04634 63 66 13 
-0.894449 -0.0150053 2.05269 61 71 2 
0.252463 -0.0175687 1.88423 228 197 133 
-0.946532 -0.0128413 1.99055 180 183 162 
-0.0265185 -0.0151923 2.04267 200 209 204 
0.886577 -0.0149685 1.90295 203 201 162 
-0.020336 -0.00836478 2.03713 205 210 204 
0.34941 -0.0102674 1.926 212 156 59 
0.897651 -0.0101649 1.8852 224 228 203 
-0.659416 -0.00490982 2.00548 255 255 170 
0.28241 -0.00604022 1.87534 240 202 139 
0.617518 -0.00623546 1.90767 227 225 226 
-0.942409 -0.000744952 1.97792 211 202 185 
-0.346442 -0.00146689 1.96072 237 238 242 
-0.965633 0.00058915 1.97722 192 185 179 
0.294527 -0.0022486 1.87044 215 187 139 
-0.00463476 0.000653079 1.98593 203 212 207 
-0.863088 0.00372437 2.01602 212 204 155 
0.481235 0.00169777 2.03325 93 86 14 
0.321888 0.000553463 1.87488 137 147 182 
-0.00527693 0.00445088 2.03615 213 211 216 
-0.794514 0.00747678 2.05287 77 119 71 
0.8974 0.00163492 1.87976 226 209 215 
0.628399 0.0029498 1.90033 213 215 214 
-0.0201013 0.00674441 2.03215 203 219 208 
0.887056 0.00313404 1.91108 45 37 35 
0.388311 0.00961988 1.90258 204 166 85 
0.373501 0.0125823 1.89984 83 62 9 
-0.942084 0.0176214 1.97093 194 205 171 
-0.953696 0.0185125 1.97215 195 212 193 
-0.583134 0.0187661 1.97772 23 24 10 
-0.842058 0.0266791 2.02528 186 201 168 
-0.0416872 0.0249745 2.04068 220 219 224 
0.539133 0.0216451 1.89318 208 212 223 
-0.430665 0.0256805 1.90744 103 104 108 
-0.702935 0.0306259 2.05374 71 137 76 
-0.577556 0.0306471 1.97361 149 127 130 
-0.882301 0.0331229 2.01575 36 35 5 
-0.689632 0.0353266 2.0561 159 199 165 
-0.873857 0.0316627 1.86246 228 231 200 
-0.874711 0.0388291 2.03281 161 161 123 
-0.780282 0.0377263 2.00436 214 232 210 
0.398936 0.0322653 1.90825 185 133 47 
0.417932 0.0325209 1.91398 165 132 89 
-0.642241 0.0407726 2.05291 106 172 111 
0.590417 0.0324149 1.86503 233 233 235 
-0.689869 0.0459768 2.04754 71 155 77 
0.354109 0.0455049 2.03606 172 166 54 
0.501121 0.0446011 2.00716 81 102 83 
-0.662973 0.0523095 2.05358 113 135 114 
0.938845 0.0453767 1.86016 125 104 111 
0.123032 0.0541002 2.04216 159 130 88 
0.367165 0.055119 2.02245 182 183 81 
-0.432214 0.0522718 1.87961 86 87 89 
-0.537076 0.0571851 1.97412 175 133 181 
-0.966103 0.0585787 1.9557 216 222 222 
-0.518525 0.0579102 1.965 169 131 172 
0.898379 0.0508859 1.86084 236 219 225 
0.369683 0.0616749 2.01119 19 22 11 
0.404689 0.0591263 1.92717 208 162 110 
0.935257 0.0575933 1.84788 126 110 113 
-0.800994 0.0614656 1.81682 242 245 228 
-0.703519 0.0723401 2.03382 75 134 80 
-0.535119 0.0726215 1.96637 177 127 188 
0.400611 0.0727461 1.99951 25 29 32 
0.871618 0.0668148 1.89921 165 140 144 
0.379552 0.0746661 2.00099 34 38 50 
-0.790527 0.0791005 1.97645 107 149 109 
0.234973 0.0828647 2.05176 85 117 112 
0.899413 0.0719635 1.85327 236 225 229 
0.854451 0.081339 1.92327 152 154 141 
0.873024 0.0807641 1.90371 167 145 147 
-0.490426 0.0895773 1.96242 147 123 155 
0.866984 0.0848339 1.91866 26 26 26 
0.337471 0.0911686 1.99886 34 50 63 
0.0981785 0.0962378 1.98443 20 17 10 
0.939322 0.0871658 1.83812 23 22 18 
0.846897 0.094739 1.92053 171 145 146 
0.916132 0.0963281 1.83869 143 148 142 
0.310516 0.111966 2.04655 15 31 54 
-0.579492 0.108704 1.91489 153 159 157 
0.891684 0.10118 1.84436 169 181 167 
-0.729871 0.11787 2.00856 116 189 134 
-0.705674 0.118734 2.0046 93 153 99 
0.105104 0.11422 1.96424 170 96 85 
0.288073 0.115926 2.00311 12 41 73 
-0.579742 0.112749 1.90379 34 38 37 
-0.854157 0.124633 1.98711 162 171 152 
-0.725139 0.129331 2.00269 247 255 244 
-0.440824 0.122174 1.8592 12 22 31 
-0.497494 0.12972 1.94521 136 158 208 
0.266703 0.13531 1.98651 35 51 74 
-0.792434 0.137977 1.98237 73 82 61 
-0.786653 0.141615 2.00108 72 78 50 
-0.70105 0.141871 2.00614 117 170 118 
-0.426664 0.130597 1.86187 31 30 38 
-0.504263 0.138712 1.94166 172 163 194 
-0.806813 0.150302 2.03856 142 150 129 
-0.414162 0.135586 1.86316 165 147 173 
-0.811197 0.15725 2.04935 152 164 140 
0.336932 0.147329 1.96254 204 239 255 
-0.746405 0.167232 2.06175 99 151 112 
-0.251054 0.149991 1.87818 106 104 105 
-0.206298 0.159442 1.9138 169 160 155 
-0.241413 0.162572 1.92551 216 200 185 
-0.229256 0.168251 1.92486 108 89 75 
0.15129 0.181324 2.00749 221 166 171 
-0.0707956 0.175952 1.92976 151 130 113 
-0.25648 0.176296 1.92207 237 223 212 
-0.715291 0.18169 1.9564 208 223 204 
-0.219819 0.175426 1.90859 240 223 216 
-0.166899 0.175671 1.90676 89 72 64 
-0.148809 0.179678 1.9214 106 84 61 
0.262909 0.187618 2.0099 80 152 148 
-0.207366 0.177003 1.88872 208 196 184 
-0.767783 0.197859 2.03362 177 205 164 
0.0356577 0.195949 2.02851 141 138 147 
-0.958392 0.186002 1.89504 215 214 212 
0.10101 0.196492 2.00155 227 107 132 
-0.616221 0.19218 1.9391 141 150 133 
-0.625632 0.193734 1.9482 224 226 221 
-0.216558 0.189398 1.91499 232 221 217 
0.037551 0.1989 2.00019 19 21 20 
-0.210367 0.190674 1.90541 164 150 139 
-0.137243 0.19251 1.91831 108 87 66 
-0.479425 0.191662 1.89554 104 183 180 
-0.421728 0.198091 1.92705 197 158 177 
-0.623148 0.19961 1.93063 115 132 116 
0.279103 0.204757 1.99336 1 9 0 
0.288098 0.206874 2.01296 100 145 122 
-0.6706 0.2032 1.94164 249 251 240 
-0.192673 0.197519 1.8934 202 192 183 
0.0263351 0.206304 1.97372 171 152 171 
-0.117073 0.200416 1.9111 96 75 54 
-0.189255 0.202166 1.92002 88 75 66 
-0.420976 0.204101 1.9136 12 12 14 
-0.169226 0.204519 1.90322 111 84 57 
-0.192117 0.212302 1.90087 116 99 79 
-0.607754 0.21767 1.92219 125 130 123 
-0.157606 0.214839 1.90034 177 151 126 
-0.237474 0.217169 1.90869 169 155 142 
-0.632293 0.222312 1.92852 229 239 230 
-0.688663 0.236845 2.03269 220 254 219 
0.298474 0.234931 1.9826 117 121 122 
-0.706229 0.23515 1.95183 102 172 118 
0.260666 0.234944 1.9611 113 107 111 
-0.158509 0.22787 1.89491 167 140 111 
0.317795 0.239355 1.98576 9 40 34 
-0.681255 0.240807 1.96699 75 107 84 
-0.19221 0.229442 1.89138 97 83 70 
0.112287 0.247364 1.99814 152 142 169 
-0.183997 0.228405 1.83252 255 241 223 
-0.538087 0.240623 1.91394 223 228 222 
-0.198867 0.238403 1.90231 136 120 105 
-0.172077 0.237049 1.89046 105 81 57 
-0.116686 0.23862 1.88846 118 94 70 
-0.225099 0.241224 1.88244 245 230 207 
0.305779 0.255041 1.98778 12 31 35 
-0.069553 0.246169 1.8993 97 79 59 
-0.610613 0.257571 1.95935 81 122 88 
-0.188221 0.246675 1.88943 244 224 213 
-0.114313 0.247464 1.87983 171 146 116 
0.304133 0.260449 1.97732 80 155 160 
0.865538 0.238103 1.8097 139 152 135 
-0.128825 0.252756 1.88546 205 181 157 
-0.0644451 0.254305 1.8935 97 75 54 
-0.194711 0.253979 1.8843 245 230 223 
-0.184515 0.252915 1.87451 239 220 206 
0.292246 0.275515 2.01189 227 236 235 
-0.616219 0.27912 1.99933 77 112 82 
0.281412 0.274626 1.97239 233 237 236 
-0.674247 0.277095 1.94542 221 231 220 
-0.174926 0.267026 1.87525 227 210 200 
0.824048 0.263034 1.86456 148 157 140 
0.775341 0.273089 1.90566 157 156 128 
-0.125162 0.275825 1.87069 129 111 91 
0.818644 0.271959 1.85848 154 134 136 
-0.109749 0.278314 1.87643 98 80 56 
0.780186 0.279181 1.89403 68 114 137 
0.808284 0.274781 1.86518 146 131 134 
-0.580368 0.297371 1.98374 92 132 98 
-0.132784 0.281546 1.86423 210 191 174 
0.84349 0.271243 1.81243 18 17 22 
0.85019 0.270027 1.79797 147 153 143 
0.264772 0.301379 1.95599 52 71 67 
-0.168784 0.291125 1.88406 126 105 88 
0.258489 0.31465 1.9704 50 94 121 
-0.591889 0.323803 2.00761 195 196 198 
0.268271 0.313251 1.96137 0 24 20 
-0.186374 0.298711 1.86129 140 118 104 
0.230482 0.315516 1.95387 12 10 13 
-0.0205556 0.305075 1.88782 93 71 48 
-0.0411132 0.302732 1.86496 231 215 200 
-0.0976727 0.303502 1.86413 170 144 117 
0.196327 0.319056 1.95687 118 165 191 
0.238298 0.334478 2.03605 36 1 5 
0.361443 0.319691 1.95073 45 94 108 
-0.609363 0.334916 2.00297 19 25 21 
0.128619 0.325705 1.96294 81 173 214 
0.352682 0.322723 1.93969 82 99 93 
0.79624 0.306253 1.84663 96 178 226 
-0.183901 0.311605 1.85773 159 144 139 
-0.235957 0.315012 1.87198 105 112 120 
-0.154617 0.316321 1.85627 126 105 84 
-0.182518 0.319472 1.87034 241 228 220 
-0.17089 0.326764 1.89304 237 223 214 
-0.0631235 0.323766 1.85939 148 119 101 
-0.174002 0.325043 1.85494 129 115 106 
-0.310135 0.34369 1.94348 150 165 168 
-0.439863 0.346255 1.94358 228 221 211 
-0.145938 0.332649 1.84968 130 118 102 
-0.0497015 0.336063 1.85941 159 135 111 
-0.165764 0.33206 1.83137 244 233 229 
0.751451 0.333376 1.85284 110 151 183 
-0.0817438 0.340963 1.85581 99 71 50 
-0.152336 0.342071 1.85097 124 107 91 
-0.137828 0.342483 1.83128 225 209 193 
-0.164935 0.344224 1.83775 250 237 229 
-0.146473 0.34294 1.82563 245 232 223 
-0.137307 0.352815 1.83946 157 139 119 
0.208117 0.367592 1.91598 83 167 204 
0.731949 0.352703 1.84402 106 171 193 
-0.0247585 0.361076 1.86528 87 71 45 
-0.125629 0.357079 1.83768 98 72 49 
-0.0237016 0.374964 1.86275 159 150 141 
0.710656 0.367307 1.82909 110 164 166 
0.719761 0.368396 1.82028 104 166 177 
-0.353974 0.390634 1.89082 199 230 232 
-0.155709 0.376413 1.82358 86 64 51 
-0.142859 0.385618 1.83509 59 42 34 
-0.0904655 0.390499 1.85387 142 146 145 
-0.171956 0.402865 1.83202 123 115 112 
0.564352 0.402858 1.79177 67 126 170 
-0.273467 0.418875 1.84564 171 198 205 
-0.0922232 0.418956 1.84612 53 84 115 
-0.261678 0.415354 1.82719 163 205 204 
-0.252897 0.43211 1.81398 173 194 215 
-0.773055 0.431333 1.78205 92 79 107 
-0.765243 0.43801 1.78307 111 102 123 
0.391381 0.425909 1.72387 69 156 199 
0.379277 0.427481 1.72686 91 174 218 
0.502055 0.426683 1.71798 76 156 191 
0.13933 0.434578 1.73904 196 190 164 
0.672814 0.423973 1.70347 131 100 144 
0.707531 0.423853 1.70047 123 105 147 
-0.101781 0.436691 1.72407 192 198 172 
-0.24343 0.445307 1.74421 121 168 212 
0.146788 0.443484 1.73156 96 79 121 
-0.107096 0.444956 1.73024 77 96 139 
-0.287671 0.455118 1.73731 92 158 206 
-0.636574 0.468838 1.77262 63 123 159 
0.149326 0.455889 1.72498 53 84 151 
0.355417 0.455532 1.70991 78 164 215 
0.147699 0.469615 1.71335 188 186 171 
-0.15904 0.476469 1.71894 125 158 209 
-0.107766 0.47762 1.72162 174 181 165 
-0.429023 0.487301 1.73764 61 119 182 
-0.412233 0.484673 1.7309 82 101 169 
-0.326839 0.487526 1.73566 139 207 218 
0.562245 -0.384991 2.00132 54 52 31 
0.920295 -0.377142 2.03666 171 128 85 
0.3401 -0.323723 1.99966 10 29 43 
-0.559185 -0.342088 2.25536 150 175 182 
0.619049 -0.0433914 1.95647 217 217 219 
0.813518 -0.874269 2.25192 162 157 153 
0.828965 -0.862249 2.25075 146 144 147 
0.919352 -0.795215 2.21584 17 15 16 
0.926799 -0.77957 2.21201 46 41 37 
0.463418 -0.713042 2.08826 27 15 3 
-0.931707 -0.779648 2.30497 152 183 175 
-0.918168 -0.777428 2.29837 12 18 16 
0.902089 -0.690374 2.17134 33 29 30 
0.939905 -0.68812 2.16849 34 28 30 
0.315153 -0.724084 2.33064 206 226 233 
0.293063 -0.722322 2.32629 92 94 89 
0.357066 -0.719381 2.321 93 88 84 
0.275738 -0.714143 2.32812 88 84 72 
0.285193 -0.7143 2.33483 240 249 254 
0.595051 -0.628141 2.07376 211 170 26 
0.192903 -0.706305 2.37107 193 212 218 
0.665729 -0.607474 2.07909 196 138 39 
0.622737 -0.604845 2.07842 225 172 66 
0.484558 -0.553754 1.914 4 8 7 
0.89611 -0.604076 2.13567 139 127 115 
0.134543 -0.654145 2.34887 182 182 184 
0.72666 -0.581251 2.07967 217 150 43 
0.584945 -0.56051 2.01303 45 13 0 
0.695591 -0.563712 2.06029 210 153 46 
0.889167 -0.584819 2.14152 56 55 53 
0.475178 -0.561576 2.06494 6 7 2 
0.625563 -0.559476 2.05701 215 160 57 
0.644549 -0.55399 2.06728 98 73 6 
0.6328 -0.551212 2.05807 199 153 59 
0.0888539 -0.61981 2.34523 15 5 4 
0.146574 -0.600046 2.28179 163 24 55 
-0.330687 -0.577897 2.2021 184 192 195 
0.473118 -0.543848 2.06352 231 235 238 
-0.296142 -0.56791 2.20108 204 208 211 
-0.338616 -0.566735 2.20362 25 34 31 
0.883474 -0.549507 2.13429 182 199 189 
-0.541039 -0.610237 2.40032 53 66 57 
0.44952 -0.523764 2.05334 220 224 225 
0.574931 -0.522013 2.05004 37 12 0 
-0.394567 -0.549836 2.18514 184 192 195 
0.284702 -0.513767 2.04047 252 219 112 
-0.400265 -0.541494 2.17123 182 192 194 
-0.329617 -0.543612 2.18734 30 39 38 
0.605975 -0.512059 2.06077 225 176 55 
-0.278762 -0.546826 2.21593 197 199 211 
-0.0547446 -0.495059 2.00378 67 29 8 
0.469147 -0.506598 2.04784 11 17 17 
0.673274 -0.503079 2.04379 214 207 191 
0.708241 -0.505463 2.05467 93 72 15 
-0.331962 -0.528588 2.16362 29 39 40 
-0.372154 -0.531777 2.18248 63 72 79 
-0.0592777 -0.487235 1.99042 239 223 210 
-1.29519 -0.588713 2.43546 106 111 107 
-0.34094 -0.53211 2.19884 22 31 30 
-0.27924 -0.541812 2.23868 190 194 195 
-0.27729 -0.514312 2.13501 15 23 25 
0.520217 -0.491857 2.04668 215 178 9 
-0.273934 -0.520946 2.19732 191 192 194 
-0.337128 -0.514953 2.17594 185 190 194 
-0.356014 -0.514695 2.17998 33 39 39 
0.534502 -0.459888 1.97065 56 29 0 
0.27194 -0.476189 2.05168 30 21 4 
-0.280422 -0.510962 2.21978 188 192 195 
0.447062 -0.473121 2.04455 4 13 10 
0.692779 -0.472778 2.04371 82 61 14 
0.154565 -0.522152 2.28452 104 0 28 
0.670681 -0.468581 2.03863 201 151 38 
-0.294927 -0.496587 2.18182 22 34 32 
0.089723 -0.49126 2.17089 144 93 62 
0.242283 -0.455845 2.01631 179 145 38 
0.869808 -0.481838 2.1366 0 13 3 
-0.288192 -0.492236 2.19858 187 191 192 
-0.308122 -0.490018 2.1932 83 88 94 
0.871697 -0.476186 2.11532 166 195 177 
0.857083 -0.477714 2.13354 7 19 9 
-0.835737 -0.516001 2.34193 101 121 110 
-0.294863 -0.483925 2.18693 186 192 190 
-0.332796 -0.480312 2.19083 190 195 199 
0.606699 -0.449827 2.03531 240 230 205 
0.330718 -0.437714 2.03299 6 8 7 
0.64594 -0.428687 2.02894 22 16 0 
0.564751 -0.425784 2.0188 90 85 63 
0.548046 -0.42564 2.02899 231 220 190 
0.684461 -0.427779 2.04208 142 132 122 
-0.688175 -0.443731 2.14198 95 90 86 
0.516673 -0.41635 1.99203 50 29 0 
-0.699869 -0.441431 2.16574 184 185 169 
0.192552 -0.418885 2.0403 244 219 74 
0.665431 -0.412716 2.03551 76 54 13 
0.878009 -0.422079 2.07815 23 24 19 
0.937479 -0.415133 2.04972 186 145 91 
0.14651 -0.429085 2.15376 70 22 8 
0.308545 -0.40208 2.02308 222 224 223 
0.261646 -0.399434 2.02553 11 14 19 
0.647087 -0.390472 2.00235 75 56 14 
-0.787392 -0.420781 2.19758 238 216 133 
0.53224 -0.390635 2.01604 236 225 205 
0.592808 -0.387666 2.00758 78 57 0 
-0.638509 -0.421476 2.2129 13 12 10 
0.504642 -0.38174 1.98633 53 32 0 
0.233077 -0.386028 2.01428 7 7 19 
0.894589 -0.39394 2.04932 153 157 143 
-0.992105 -0.407464 2.15792 38 43 39 
0.539488 -0.380508 2.00335 232 228 227 
0.20713 -0.380439 2.0183 174 143 27 
0.835613 -0.403984 2.14384 99 106 98 
-0.612735 -0.412192 2.21401 185 173 151 
-0.601321 -0.408195 2.20989 14 17 8 
0.909259 -0.380913 2.03733 23 30 23 
0.657129 -0.377343 2.02472 153 141 125 
0.82465 -0.401085 2.16643 7 12 8 
0.186724 -0.366407 2.01736 149 117 16 
-0.708212 -0.390947 2.18842 135 188 228 
0.609705 -0.365599 2.02443 28 21 0 
0.807672 -0.391335 2.16836 7 7 7 
0.815618 -0.38985 2.16168 73 72 67 
0.399773 -0.361209 2.01311 224 226 225 
0.619499 -0.361716 2.03187 19 10 0 
0.906178 -0.358486 2.02746 104 110 100 
0.311589 -0.353071 2.01358 159 177 217 
0.590504 -0.34918 2.00422 186 160 73 
0.39478 -0.341815 2.00138 0 9 18 
0.883691 -0.349195 2.04027 144 155 139 
0.874299 -0.350974 2.05647 28 30 29 
0.549231 -0.337257 1.98952 33 37 23 
0.216697 -0.345561 2.04887 9 13 22 
0.132014 -0.374368 2.25012 165 132 113 
0.498318 -0.343971 2.0558 51 29 0 
0.143406 -0.329403 1.97536 255 227 125 
-0.530298 -0.359784 2.24686 170 191 196 
-0.546174 -0.357427 2.25036 53 72 70 
0.594614 -0.32271 2.00424 24 14 2 
0.586105 -0.317937 1.98711 15 11 0 
-0.63602 -0.336612 2.1681 204 40 77 
-0.915281 -0.334488 2.19708 103 76 46 
0.258805 -0.302947 1.99724 163 185 222 
-0.891202 -0.326527 2.19439 44 21 13 
-0.543631 -0.330867 2.23219 208 228 235 
-0.909758 -0.327351 2.21831 115 102 68 
0.783233 -0.306878 2.07957 191 173 159 
0.837157 -0.305315 2.10075 124 130 118 
-0.569029 -0.318471 2.24308 41 51 50 
0.394115 -0.285 1.97936 132 171 226 
0.485962 -0.282418 1.97638 99 79 16 
0.460264 -0.281236 1.97401 22 5 0 
-0.73512 -0.300546 2.14207 214 36 62 
0.260529 -0.278284 1.98887 55 64 81 
0.471449 -0.275743 1.96784 125 105 34 
0.233821 -0.276777 1.98822 169 184 225 
-0.601008 -0.292531 2.15262 234 207 12 
0.556143 -0.272026 1.97422 189 179 154 
-0.713522 -0.287753 2.13673 237 221 224 
0.487015 -0.268196 1.96822 218 173 48 
0.111736 -0.268883 1.99304 45 31 0 
0.17794 -0.270799 2.00611 34 13 0 
-0.571173 -0.293158 2.22155 168 167 165 
-0.979854 -0.274088 2.09037 50 55 51 
0.342679 -0.263597 1.99228 40 50 77 
-0.898434 -0.282223 2.17688 124 115 76 
0.190981 -0.280284 2.16111 3 8 14 
-0.639907 -0.275731 2.15745 240 223 231 
-0.957241 -0.265951 2.09352 196 174 160 
-0.547035 -0.272807 2.16032 58 52 54 
0.200053 -0.252872 1.98921 35 49 58 
0.532975 -0.247321 1.96597 76 65 47 
0.172653 -0.250679 2.00318 14 16 28 
-0.657425 -0.260401 2.1342 240 218 221 
-0.917513 -0.251634 2.11048 116 94 37 
-0.979167 -0.247311 2.08044 47 58 52 
-0.949261 -0.246923 2.08416 35 35 33 
0.407774 -0.235843 1.98176 0 18 22 
0.830407 -0.245584 2.0846 17 17 15 
0.160473 -0.232811 1.98984 26 9 0 
-0.977049 -0.232321 2.06898 53 71 55 
0.432701 -0.222726 1.9495 26 13 0 
-0.834585 -0.229157 2.09925 239 232 177 
0.734929 -0.227114 2.05802 208 191 183 
0.0840951 -0.209258 1.97739 38 32 8 
0.416021 -0.200707 1.90749 22 9 0 
0.434755 -0.198673 1.93947 140 116 46 
0.804116 -0.206509 2.01601 206 177 159 
0.571091 -0.199369 2.00615 131 101 65 
0.747031 -0.197875 2.05668 220 199 194 
0.0733824 -0.176224 1.95664 247 204 112 
0.754274 -0.186426 2.06105 224 196 192 
0.382898 -0.162586 1.81168 25 12 0 
0.447617 -0.17682 1.99981 142 113 43 
0.791673 -0.170861 1.99635 77 61 45 
0.86631 -0.168979 1.98937 21 22 16 
0.412131 -0.166593 1.98115 10 13 20 
0.409893 -0.163502 1.95626 28 15 0 
0.429752 -0.161456 1.93872 125 100 33 
0.779956 -0.165568 2.00729 65 50 43 
0.403833 -0.160451 1.9663 182 207 247 
0.816244 -0.160916 2.02756 129 119 107 
0.774876 -0.158161 2.03177 52 43 26 
-0.573984 -0.158318 2.11174 182 183 185 
0.0617074 -0.149239 1.97002 235 187 89 
0.117667 -0.145472 1.95261 245 206 105 
-0.500799 -0.149203 2.10675 162 108 158 
-0.599959 -0.150105 2.1647 2 11 10 
0.869747 -0.141341 1.98337 183 189 179 
-0.54211 -0.132675 2.03224 20 20 20 
0.131579 -0.127897 1.94169 28 42 55 
0.408378 -0.126659 1.8983 148 121 50 
0.11773 -0.120437 1.95331 182 199 219 
-0.0172179 -0.119183 1.95832 243 194 102 
0.720613 -0.124438 2.01478 115 189 140 
0.485592 -0.11857 1.93136 212 208 205 
-0.0289181 -0.117358 1.95907 241 204 162 
-0.534628 -0.11912 2.0605 129 82 126 
0.793312 -0.120537 2.03396 188 208 199 
0.329867 -0.110171 1.91723 166 190 236 
0.695587 -0.119123 2.07426 84 91 75 
0.380269 -0.10881 1.93117 12 12 14 
0.867646 -0.107026 1.96216 20 15 12 
0.86158 -0.103456 1.98958 165 136 141 
-0.103781 -0.103546 2.07273 210 204 206 
0.00390716 -0.0977053 2.02226 40 38 39 
-0.613967 -0.0974382 2.06103 229 226 209 
-0.0681599 -0.0992387 2.07949 207 207 209 
-0.544198 -0.0963406 2.05305 38 32 34 
0.367375 -0.0917319 1.88087 14 6 0 
0.830185 -0.0916188 2.01748 176 157 159 
0.49619 -0.0860222 1.91831 142 185 230 
0.378676 -0.0810049 1.89266 95 80 37 
-0.557793 -0.0839724 2.07669 31 31 31 
0.0880144 -0.0808388 1.94026 228 182 107 
0.219041 -0.079801 1.91324 191 204 236 
0.884172 -0.0791845 1.92719 200 202 189 
0.139871 -0.0734455 1.91651 209 217 236 
0.352576 -0.071157 1.82941 242 200 102 
-0.02772 -0.0767656 2.0746 60 59 64 
-0.393263 -0.0713153 1.95249 219 224 227 
-0.210508 -0.0739741 2.02954 214 215 219 
0.938233 -0.0678936 1.90568 159 165 155 
0.145207 -0.0658714 1.91047 28 24 23 
-0.186777 -0.0672659 2.02545 168 170 169 
0.371631 -0.0664257 1.94361 236 192 97 
-0.589603 -0.066465 2.07927 200 208 210 
-0.175187 -0.066466 2.03009 170 171 173 
0.0282346 -0.0659868 2.01841 247 249 248 
0.643035 -0.0666698 2.03745 173 173 87 
0.886322 -0.0636555 1.92516 200 204 190 
0.15133 -0.0558124 1.8984 223 209 183 
0.163208 -0.0559534 1.90052 48 27 0 
-0.562777 -0.0547929 2.0488 26 30 29 
-0.0921075 -0.0501689 2.04026 208 206 211 
-0.777231 -0.0428052 2.01104 231 233 230 
0.607499 -0.0421994 1.96598 211 206 203 
0.508888 -0.0400885 2.01715 72 64 15 
-0.856024 -0.0358852 2.00494 133 140 44 
0.233613 -0.0372576 1.89099 89 110 153 
0.346897 -0.038079 1.90456 0 3 13 
0.00104101 -0.0379731 2.06144 195 195 197 
0.938813 -0.0368576 1.89266 210 210 212 
0.797907 -0.0343912 1.98658 0 2 7 
-0.713945 -0.0305498 2.02466 223 236 227 
0.239312 -0.0300131 1.8857 0 6 18 
-0.565691 -0.0256308 2.01236 185 160 156 
-0.0892974 -0.0248417 2.06389 203 204 208 
-0.719615 -0.0219749 2.01537 227 238 230 
0.354945 -0.023764 1.88632 93 74 31 
-0.0971301 -0.0205928 2.00257 36 35 40 
0.035451 -0.0207024 1.98049 33 33 31 
-0.106352 -0.0194317 2.00783 49 48 53 
0.164101 -0.0194078 1.94172 253 253 253 
0.268851 -0.0176167 1.88175 0 0 18 
0.336775 -0.0151714 1.90025 4 2 16 
0.491472 -0.0145054 2.03967 7 1 3 
0.357845 -0.0133553 1.87342 67 45 4 
-0.728595 -0.00918359 1.98507 120 137 103 
0.153844 -0.0107735 1.92822 25 21 18 
0.937928 -0.0118374 1.88195 160 158 117 
-0.876608 -0.00156662 2.03785 84 93 30 
0.526494 -0.00313838 1.90383 189 150 153 
0.39763 0.00314249 1.90464 183 129 29 
-0.817155 0.00896136 2.04591 83 158 93 
-0.895375 0.0110729 2.05184 44 40 11 
-0.970364 0.0113883 1.97312 119 123 124 
-0.579484 0.0108854 1.98766 174 179 182 
-0.566789 0.0106174 1.99045 27 28 32 
-0.813854 0.0181054 2.03849 202 212 203 
-0.0207453 0.0154935 2.02608 86 155 92 
0.622798 0.012268 1.89329 11 14 19 
0.123303 0.0137266 1.87742 32 32 30 
0.612792 0.0131301 1.88711 213 215 214 
-0.964156 0.0196105 1.96831 210 214 213 
-0.0410965 0.0231656 2.01957 221 220 225 
-0.832665 0.0262628 2.04813 65 112 70 
-0.024363 0.0235125 2.01852 206 210 211 
-0.550159 0.026699 1.98461 41 40 45 
0.384255 0.0235415 1.90295 202 139 33 
-0.887764 0.0331023 2.02881 36 35 5 
-0.843424 0.0349064 2.07026 87 129 91 
-0.807088 0.0344206 2.01323 245 250 243 
0.557331 0.0286143 1.87796 243 244 239 
0.634455 0.0319163 1.96584 11 14 21 
-0.549291 0.0365322 1.97342 148 110 149 
-0.638228 0.0417211 2.04045 97 179 105 
-0.573705 0.0407754 1.93957 163 169 165 
0.580959 0.0374909 1.85865 221 219 222 
0.411832 0.0404629 1.91116 202 146 59 
0.579691 0.042056 1.9031 45 38 71 
-0.63397 0.0573364 2.04857 201 210 191 
-0.971716 0.0576381 1.96948 214 215 217 
-0.527601 0.057376 1.94316 172 125 180 
0.105552 0.0642312 2.07905 18 9 10 
0.401797 0.0640326 1.95527 19 27 48 
-0.574559 0.0762289 1.94335 23 23 25 
-0.788352 0.0866641 2.00609 251 255 243 
-0.731835 0.0916379 1.99989 109 165 116 
-0.582417 0.0903993 1.9503 22 24 21 
-0.689857 0.100096 2.01996 230 243 233 
0.0937772 0.101891 1.97288 183 57 61 
0.306814 0.107697 2.0135 37 48 68 
0.109316 0.108191 1.97575 163 69 67 
-0.843062 0.112502 1.95614 183 182 164 
0.0940656 0.110936 1.96721 243 183 175 
0.0952583 0.124316 1.96493 122 143 134 
-0.815615 0.136266 2.00545 62 77 48 
-0.798519 0.139998 1.9966 75 88 62 
-0.500789 0.137463 1.92935 171 162 193 
-0.742692 0.159155 2.05199 214 239 220 
-0.730033 0.16215 2.04026 249 255 244 
-0.349483 0.143668 1.79383 0 0 15 
-0.589321 0.158765 1.94703 232 233 227 
-0.193542 0.15514 1.91617 65 58 52 
-0.505011 0.161354 1.91577 94 176 187 
-0.166636 0.163308 1.92948 132 116 101 
-0.126273 0.164104 1.92584 149 131 117 
-0.499237 0.166701 1.89912 103 178 183 
-0.964168 0.172707 1.90399 194 201 183 
-0.964655 0.178103 1.89418 147 147 147 
-0.695042 0.18442 1.95495 177 204 173 
0.0787419 0.194839 2.00958 15 11 10 
0.102212 0.199882 2.02065 214 94 119 
-0.386575 0.207867 1.94808 6 0 26 
-0.162704 0.208021 1.93552 100 73 54 
-0.740648 0.229112 2.04541 151 166 161 
-0.589784 0.215663 1.92469 208 215 207 
-0.519222 0.31348 2.63988 109 100 147 
-0.179634 0.222207 1.90883 102 80 66 
0.288282 0.232957 2.00284 115 115 117 
-0.170339 0.221761 1.89826 174 148 125 
0.213585 0.232533 1.96164 32 10 13 
-0.733943 0.244393 2.02999 99 172 117 
-0.658343 0.241501 1.99215 53 112 66 
-0.378046 0.231638 1.91265 111 101 151 
-0.696471 0.236894 1.94261 212 248 220 
-0.218531 0.233365 1.89875 193 168 146 
-0.244965 0.23735 1.90699 152 140 140 
-0.216704 0.243093 1.89778 245 219 206 
-0.227054 0.2442 1.89682 243 228 205 
-0.538303 0.25886 1.91461 228 229 224 
0.290755 0.273196 1.99869 221 233 233 
-0.659584 0.273556 1.92679 123 183 132 
0.2878 0.290058 2.04106 234 238 241 
0.909116 0.248612 1.76932 5 6 10 
0.415809 0.282476 1.96303 16 97 142 
0.793182 0.273761 1.88804 44 45 40 
-0.188843 0.27851 1.8699 137 120 102 
0.854104 0.2732 1.78849 58 86 133 
-0.225197 0.288903 1.86563 106 96 97 
-0.537221 0.313211 1.96392 222 237 232 
0.244328 0.317416 1.97817 205 200 204 
-0.904666 0.301108 1.84094 234 235 229 
0.241305 0.337862 2.06024 34 0 3 
-0.624729 0.331571 1.99848 225 229 228 
-0.102627 0.316645 1.865 77 59 37 
-0.173017 0.317326 1.84371 152 138 127 
-0.11603 0.32953 1.86831 181 158 127 
-0.098773 0.33546 1.87153 162 132 106 
-0.0958594 0.341002 1.84322 167 143 117 
-0.672298 0.372679 1.98314 31 37 35 
-0.708008 0.371842 1.97567 37 37 35 
-0.0929518 0.351975 1.86409 101 77 53 
-0.293811 0.360098 1.90028 226 233 239 
-0.170684 0.351862 1.834 255 243 234 
0.77218 0.351934 1.81099 83 83 121 
-0.649699 0.400037 1.96255 43 131 181 
-0.179097 0.371956 1.81351 152 134 120 
-0.283417 0.392539 1.88567 187 199 211 
-0.169139 0.37488 1.80343 244 222 201 
-0.0796184 0.388172 1.8541 138 134 125 
0.67588 0.38711 1.82183 50 85 123 
-0.0827537 0.412068 1.87802 150 145 113 
-0.331187 0.410667 1.8606 206 226 233 
-0.156526 0.410508 1.83318 102 102 112 
-0.200945 0.419778 1.83635 235 245 244 
-0.27798 0.421372 1.81779 196 221 228 
-0.265927 0.428127 1.81997 184 218 227 
0.143871 0.431744 1.74934 88 76 112 
0.310438 0.426548 1.73317 39 88 131 
0.458522 0.426942 1.7195 58 162 201 
-0.733081 0.450062 1.77836 92 108 131 
-0.718993 0.453729 1.77451 70 100 134 
-0.291798 0.444095 1.74305 12 97 162 
-0.324457 0.446374 1.7438 75 97 146 
-0.474842 0.4599 1.76345 74 118 167 
-0.652482 0.467324 1.77129 99 108 137 
-0.458522 0.493011 1.7426 160 224 251 
-0.68697 0.502598 1.75301 111 86 108 
-0.673194 0.501707 1.74802 120 87 116 
-0.903162 -0.862976 2.33342 50 52 49 
0.554722 -0.686244 2.08157 218 167 62 
0.570418 -0.678124 2.07818 218 164 64 
0.582668 -0.653659 2.07934 213 175 12 
0.580859 -0.650573 2.10145 223 194 58 
0.257291 -0.718185 2.33476 102 92 80 
0.902211 -0.664283 2.15722 14 12 17 
0.936626 -0.663984 2.15541 11 9 12 
0.144847 -0.714696 2.38463 36 53 45 
0.667284 -0.630512 2.09564 138 96 36 
0.614265 -0.613641 2.05597 39 10 0 
0.27681 -0.683106 2.34836 66 68 67 
0.62167 -0.604148 2.06556 216 172 67 
0.935747 -0.624059 2.13639 14 12 13 
0.676463 -0.60249 2.07307 228 164 41 
0.129928 -0.677101 2.34397 241 253 251 
0.236835 -0.678015 2.34748 197 178 172 
0.609831 -0.59892 2.0675 48 22 0 
0.07633 -0.665841 2.33025 249 248 246 
0.255736 -0.6692 2.34452 54 53 49 
0.161269 -0.657322 2.34279 155 155 163 
0.0766159 -0.645481 2.31349 255 250 244 
0.23435 -0.651724 2.33402 128 114 113 
0.9037 -0.597801 2.13133 17 18 12 
0.0541772 -0.652729 2.35051 251 253 250 
0.936835 -0.595368 2.13143 178 138 86 
0.183173 -0.647643 2.33691 51 46 43 
0.576954 -0.554428 1.99141 41 11 0 
0.598545 -0.559053 2.04332 230 186 79 
0.171184 -0.638506 2.36151 120 128 115 
0.298934 -0.575578 2.12156 91 25 27 
0.607196 -0.57215 2.11747 47 20 1 
0.298087 -0.554934 2.08361 250 215 63 
0.897396 -0.566355 2.12625 211 173 126 
0.0875225 -0.623612 2.36256 20 11 12 
0.686163 -0.539584 2.04394 97 84 40 
-0.345627 -0.575755 2.20532 196 200 211 
0.698849 -0.536048 2.06197 211 199 173 
0.589782 -0.531021 2.06196 231 189 69 
-0.286675 -0.559774 2.20408 204 205 209 
0.568174 -0.517499 2.03064 41 15 0 
0.28617 -0.517622 2.05182 249 217 106 
0.609806 -0.518149 2.04885 226 176 41 
-0.296686 -0.55297 2.2072 32 33 37 
-0.40488 -0.538306 2.18584 183 184 188 
0.28334 -0.492095 2.02203 19 17 20 
0.57008 -0.495916 2.03776 238 197 89 
0.679911 -0.491902 2.04185 205 152 40 
0.716971 -0.492597 2.05932 162 150 138 
-0.341194 -0.517669 2.18985 186 190 199 
-0.278151 -0.524346 2.22393 194 194 196 
0.274587 -0.490287 2.07024 246 220 109 
-0.529992 -0.550685 2.36582 79 90 82 
0.87067 -0.4943 2.11959 172 196 183 
-0.293727 -0.507933 2.19951 28 36 38 
0.270206 -0.4723 2.03871 27 18 9 
-0.679946 -0.473923 2.06206 51 66 71 
0.592947 -0.505755 2.19558 42 15 0 
-0.358342 -0.495977 2.18247 178 186 189 
0.721591 -0.471134 2.06016 137 134 129 
-0.334116 -0.489454 2.17925 185 194 199 
0.242658 -0.458928 2.0342 186 153 58 
0.147113 -0.50132 2.23914 215 44 146 
0.058977 -0.470396 2.12235 133 84 52 
0.0714573 -0.465791 2.1211 102 18 33 
0.38716 -0.445282 2.03983 209 209 211 
-0.969511 -0.469101 2.18565 176 197 188 
0.536304 -0.428524 2.00979 238 207 90 
0.657192 -0.433517 2.034 177 150 83 
0.600661 -0.422741 2.02026 228 184 61 
0.869868 -0.439217 2.10576 125 133 118 
0.57535 -0.419712 2.01626 94 83 53 
0.525177 -0.419259 2.02282 35 19 0 
0.528765 -0.414578 2.05356 40 21 7 
0.565978 -0.401671 2.01216 94 80 35 
0.188814 -0.408473 2.11465 248 221 68 
0.265622 -0.389144 2.02056 149 170 215 
0.291011 -0.379644 2.01729 179 200 245 
-0.721639 -0.405137 2.19781 83 89 89 
0.229253 -0.377343 2.06644 25 15 5 
-0.656176 -0.391569 2.19265 84 22 35 
0.566512 -0.358583 1.99453 221 191 77 
-0.977849 -0.37028 2.13512 167 144 113 
0.460896 -0.326005 1.88095 37 18 1 
0.936095 -0.343955 2.01973 179 178 183 
0.701855 -0.362905 2.15867 0 0 0 
-0.929366 -0.358928 2.16596 16 14 15 
0.491244 -0.338579 2.01948 46 25 4 
0.439491 -0.32558 1.99478 18 21 14 
0.422259 -0.322586 1.99615 156 179 229 
0.210066 -0.332164 2.07673 24 20 8 
-0.520966 -0.351991 2.25058 148 172 176 
0.627904 -0.314974 2.0089 128 117 113 
0.133355 -0.305648 2.00326 255 228 113 
0.20058 -0.31262 2.0587 24 26 21 
0.78703 -0.316378 2.07693 8 8 6 
0.289588 -0.300707 2.00248 119 122 173 
0.498138 -0.289383 1.97401 221 184 54 
-0.872294 -0.319138 2.22146 29 31 7 
0.853155 -0.303458 2.08557 220 218 219 
-0.682716 -0.290007 2.14201 212 31 62 
-0.9082 -0.288632 2.17611 53 19 20 
-0.551493 -0.285272 2.18728 181 174 182 
-0.949419 -0.272186 2.09768 15 15 13 
-0.901468 -0.283643 2.1899 119 113 65 
-0.632874 -0.278868 2.14953 246 223 231 
-0.64729 -0.274795 2.13826 238 221 227 
-0.633279 -0.272079 2.13822 236 223 232 
0.187768 -0.25352 1.97646 147 169 226 
-0.972373 -0.257064 2.08628 164 143 114 
0.17985 -0.24774 1.98006 144 169 226 
-0.912368 -0.270946 2.21679 53 35 11 
0.53783 -0.245034 1.97615 76 63 29 
0.433543 -0.243462 1.96989 132 176 241 
-0.90082 -0.251916 2.17604 69 66 11 
0.719629 -0.225551 2.01245 220 202 190 
0.348397 -0.219602 1.96519 25 43 53 
-0.827011 -0.225401 2.08003 239 230 173 
-0.738357 -0.217756 2.10222 52 142 107 
-0.604962 -0.216128 2.10799 239 238 233 
0.743823 -0.214498 2.05897 224 210 201 
0.072796 -0.195312 1.96932 39 36 43 
0.743463 -0.197396 2.07647 29 22 63 
0.162158 -0.1737 1.95431 119 121 159 
0.402228 -0.171033 1.90964 24 19 15 
0.4349 -0.172521 1.93706 131 105 31 
0.785301 -0.163136 2.03682 49 36 27 
-0.569363 -0.142488 2.09104 185 185 187 
0.76598 -0.142181 2.02757 64 49 44 
0.730187 -0.139029 2.032 30 40 65 
0.5516 -0.132838 1.98351 22 25 16 
0.860546 -0.131165 1.95767 183 189 177 
-0.359985 -0.126777 1.9797 209 212 217 
-0.503401 -0.130825 2.09946 166 103 150 
0.016035 -0.119638 1.92078 30 26 27 
0.0350369 -0.111232 1.9466 50 46 45 
-0.166758 -0.1106 2.00545 223 223 225 
0.385793 -0.107468 1.90214 233 186 82 
-0.596054 -0.121726 2.29487 39 37 42 
0.502641 -0.107734 1.92649 189 201 217 
0.287177 -0.101199 1.91977 145 170 226 
-0.189934 -0.104051 2.03519 211 212 216 
-0.127675 -0.104743 2.05893 206 207 209 
0.528867 -0.10367 1.98204 62 71 78 
0.267744 -0.0877637 1.91782 39 56 66 
-0.61801 -0.091522 2.16554 15 20 13 
0.484494 -0.0825959 1.94687 92 105 122 
0.868335 -0.0869521 2.03212 23 22 20 
0.373045 -0.0766508 1.90143 222 178 91 
0.227498 -0.0761937 1.91078 37 52 73 
0.0372814 -0.0739801 2.02642 239 243 242 
0.870556 -0.073668 1.95643 163 131 134 
0.481297 -0.0699123 1.91601 229 228 226 
-0.617584 -0.0657064 2.03768 232 233 225 
-0.151945 -0.0591943 2.02889 216 215 220 
-0.69447 -0.0548263 1.99513 224 234 226 
0.896175 -0.0530183 1.90206 238 239 241 
0.935623 -0.0513173 1.89522 213 213 213 
0.0759084 -0.0497129 1.98803 245 247 246 
-0.779337 -0.0469374 2.02396 227 231 230 
-0.951655 -0.0403825 2.00807 203 213 178 
0.0178809 -0.0428082 2.00407 244 248 247 
-0.709111 -0.0317057 2.0083 228 230 225 
0.251807 -0.0324924 1.88602 96 125 191 
0.220393 -0.0298287 1.89054 239 200 121 
-0.520945 -0.0262736 2.02559 47 47 57 
0.525886 -0.0250936 1.91055 115 50 54 
0.162273 -0.0217895 1.91123 236 238 237 
-0.743654 -0.00761561 1.9811 71 98 55 
0.510878 -0.0104234 2.03264 83 76 8 
-0.783451 -0.00017292 2.08639 58 113 58 
-0.713084 -0.00172872 2.01113 81 141 81 
-0.869764 0.00510842 2.03101 201 193 146 
-0.5471 0.00600725 2.00084 171 121 174 
0.0102685 0.00622211 2.03828 208 209 213 
-0.166228 0.0063935 1.98956 213 212 218 
0.600177 0.00545848 1.88652 231 230 228 
0.931886 0.00437061 1.86817 130 105 111 
0.476149 0.0103161 2.02832 8 9 11 
-0.814889 0.0342719 2.03442 248 253 246 
-0.558882 0.0316459 1.97904 31 37 37 
-0.774273 0.0396459 2.01559 73 143 83 
-0.773122 0.0439525 2.04484 183 191 176 
0.345806 0.0496686 2.0404 16 18 31 
-0.684031 0.0553462 2.03879 213 225 213 
-0.510136 0.0531764 1.93235 171 120 176 
0.311376 0.059565 2.05278 70 104 106 
-0.739739 0.062313 2.02284 104 160 115 
-0.844342 0.0610488 1.85258 207 206 201 
0.881999 0.0631636 1.87562 27 23 22 
-0.73017 0.0768092 2.00411 175 192 174 
-0.694673 0.0787178 2.05181 226 240 227 
-0.774801 0.0786746 1.9918 97 168 112 
-0.725953 0.0764401 1.95314 79 155 90 
-0.579851 0.0773195 1.96013 23 23 25 
0.256705 0.0840325 2.02751 74 89 86 
-0.58068 0.0967402 1.93816 3 7 10 
0.88493 0.0930047 1.83555 72 73 75 
0.17444 0.115393 2.05141 61 129 114 
0.884111 0.104865 1.83657 164 172 149 
-0.606736 0.11793 1.95872 211 212 204 
0.901033 0.10951 1.83755 196 205 204 
0.192417 0.129385 2.03944 74 156 142 
-0.696291 0.137955 1.99584 114 190 126 
-0.78824 0.146692 2.01573 81 88 54 
-0.687222 0.147687 1.98127 252 255 244 
0.346855 0.145604 1.96765 38 74 134 
0.352696 0.154628 1.96492 226 245 255 
-0.550314 0.160167 1.90589 142 81 138 
0.639212 0.168881 1.99841 111 118 102 
-0.492073 0.163792 1.87668 88 173 176 
-0.0500839 0.173238 1.95274 2 0 1 
-0.937197 0.172749 1.90764 192 201 170 
-0.641228 0.180405 1.96161 151 175 149 
0.159725 0.184644 1.99805 19 17 20 
0.27664 0.193881 2.0074 90 172 158 
0.264626 0.195343 2.00002 12 20 23 
-0.544396 0.184315 1.86707 45 41 55 
-0.943593 0.186355 1.85036 133 134 129 
-0.958996 0.191818 1.88138 136 137 132 
-0.535148 0.209795 1.88143 61 49 63 
-0.674987 0.228851 1.98904 218 233 214 
0.215265 0.23207 1.97427 29 23 25 
-0.92507 0.225306 1.8837 25 25 25 
-0.00440496 0.238038 1.9613 147 146 162 
0.261816 0.236101 1.95 98 96 97 
-0.606553 0.239814 1.95211 145 151 141 
0.304878 0.245308 1.99551 107 107 109 
-0.0126739 0.243453 1.9395 115 113 124 
-0.672831 0.250176 1.96458 223 228 222 
-0.672067 0.263268 2.06169 73 106 77 
0.320882 0.254307 1.98308 82 169 176 
0.880809 0.230823 1.77785 161 174 167 
-0.916555 0.253834 1.84912 230 231 223 
-0.22336 0.260163 1.88074 234 220 209 
-0.0552823 0.26431 1.89335 171 143 106 
0.864469 0.24824 1.79433 155 135 137 
0.853354 0.252343 1.77234 24 18 20 
-0.050717 0.283763 1.88628 171 144 114 
0.785857 0.280814 1.88501 114 214 212 
-0.165625 0.287525 1.86893 129 107 86 
-0.179725 0.294225 1.88503 232 218 215 
0.235104 0.310787 1.96467 9 11 10 
0.255818 0.317026 1.95828 16 73 118 
-0.376227 0.312066 1.91036 176 178 177 
-0.0495725 0.314894 1.87768 89 71 57 
0.247014 0.350055 2.00523 53 105 152 
-0.163697 0.326702 1.85441 203 190 181 
0.766871 0.330775 1.83847 99 201 190 
0.780681 0.33527 1.82647 22 117 171 
-0.171558 0.358652 1.84875 223 209 200 
0.0330625 0.370378 1.87478 89 79 54 
-0.162829 0.366699 1.84225 171 146 124 
-0.129386 0.38594 1.8536 58 57 71 
-0.296677 0.422263 1.84627 182 193 211 
0.471737 0.43202 1.7122 24 96 168 
-0.328764 0.448586 1.75747 82 88 140 
-0.302838 0.45219 1.74657 107 183 197 
-0.325129 0.47038 1.70281 102 88 137 
-0.307952 0.483121 1.72665 101 183 197 
0.37881 -0.726933 2.32333 101 92 83 
0.370786 -0.389236 2.02557 18 19 21 
-1.00114 -0.402621 2.15187 203 199 196 
0.0741564 -0.283858 2.02427 28 28 28 
-0.573825 -0.064161 2.10054 35 39 38 
-0.577207 -0.0500882 2.09545 24 23 29 
0.893299 0.271934 1.86205 4 7 0 
0.815261 -0.816248 2.26617 192 213 206 
0.894972 -0.782435 2.24746 181 170 164 
0.776426 -0.789135 2.31037 125 130 133 
0.743012 -0.744762 2.23024 224 236 234 
0.515148 -0.691457 2.07869 19 9 7 
0.572212 -0.706174 2.15611 196 145 54 
0.336878 -0.726783 2.33093 100 92 81 
0.577774 -0.637687 2.07004 216 177 12 
0.2309 -0.710269 2.33013 241 241 239 
0.546323 -0.630255 2.06739 16 12 13 
0.571109 -0.635474 2.11595 25 16 7 
0.605916 -0.607355 2.0244 41 9 0 
0.602007 -0.613702 2.0601 228 191 14 
0.569462 -0.616576 2.07201 220 179 11 
0.626648 -0.624068 2.10041 44 16 2 
0.313711 -0.6878 2.3369 196 196 204 
0.34018 -0.683578 2.32559 105 72 93 
0.212022 -0.681398 2.35112 237 223 220 
0.905232 -0.62215 2.14396 19 19 19 
0.554947 -0.60004 2.07518 225 189 51 
0.129803 -0.666684 2.32235 245 255 255 
