ply                 
format ascii 1.0    
element vertex 1237
property float x    
property float y    
property float z    
property uchar red  
property uchar green
property uchar blue 
end_header          
-0.691304 -0.287979 2.1091 255 213 222 
-0.642008 -0.255956 2.10045 207 37 63 
-0.960566 -0.240462 2.04379 155 178 150 
-0.558407 -0.154076 2.07285 11 15 14 
0.734717 -0.138348 2.04933 20 39 53 
-0.746738 -0.0644146 2.00701 72 130 89 
0.945982 -0.0592125 1.91126 19 18 16 
0.88605 -0.0508999 1.94226 159 134 137 
0.894511 -0.0478262 1.93117 232 232 230 
0.903021 -0.0308854 1.90578 253 254 255 
0.946011 -0.0272116 1.89902 19 18 16 
-0.242423 -0.0216923 1.97573 200 200 202 
0.944873 0.0475812 1.87401 124 104 106 
0.902508 0.0620119 1.88032 75 75 75 
0.946499 0.0629031 1.87147 127 100 105 
0.752551 0.125482 2.03518 113 110 95 
0.106774 0.125703 1.99339 20 10 8 
0.74562 0.133663 2.03259 4 0 0 
0.63375 0.164974 2.02438 11 16 12 
0.660424 0.164777 2.02392 11 15 14 
-0.180636 0.205446 1.90922 183 154 122 
0.917385 0.237188 1.81174 104 107 96 
0.932698 0.237197 1.81402 15 15 15 
0.929967 0.24721 1.81061 7 7 5 
0.913099 0.250795 1.80934 109 93 94 
0.0595178 -0.632906 2.30942 223 215 213 
-0.942707 -0.456255 2.13581 72 90 78 
-0.935297 -0.273315 2.05973 20 19 15 
0.695377 -0.0750295 2.04842 198 192 80 
0.835924 -0.0735502 2.03512 10 11 15 
0.889361 -0.0762045 1.93027 192 194 181 
0.911656 -0.0253225 1.90183 13 19 17 
0.938486 -0.0138366 1.88623 150 147 104 
-0.0854537 0.169865 1.93595 110 90 63 
0.648761 0.233134 1.99714 13 19 15 
0.892896 0.328704 1.78083 73 163 172 
0.364295 -0.564803 2.049 17 17 19 
-0.874062 -0.269015 2.11667 53 37 14 
-0.616561 -0.25647 2.10183 241 224 232 
-0.616931 -0.166873 2.10166 255 255 250 
0.943028 -0.0466936 1.91216 206 206 204 
0.940936 -0.0141749 1.89673 152 149 104 
-0.568591 0.153258 1.89753 38 36 37 
0.677687 0.175527 2.02344 121 111 99 
0.961599 0.166612 1.85832 12 11 9 
-0.128112 0.190318 1.92825 163 136 109 
0.644029 0.246617 2.00113 82 170 158 
0.885319 0.286124 1.79895 33 56 90 
-0.704838 0.412231 1.93089 153 157 132 
-0.534973 -0.33232 2.18457 203 231 235 
0.894938 0.0660439 1.89061 47 47 47 
0.74879 0.241578 1.77962 26 26 24 
-0.326208 -0.544967 2.20174 187 190 197 
-0.600348 -0.309287 2.11303 232 213 12 
-0.746882 -0.269263 2.08305 230 231 233 
-0.718385 -0.259405 2.09559 215 31 65 
0.194626 -0.199096 1.94829 28 41 49 
0.862731 -0.199739 2.0187 33 39 25 
-0.381413 -0.120026 1.97944 219 220 225 
-0.620436 -0.0817006 2.02128 231 233 232 
-0.217499 0.152494 1.91643 29 25 24 
-0.937259 0.152962 1.88734 196 203 169 
-0.0125591 0.266814 1.97458 53 39 28 
0.724805 0.42409 1.77468 61 154 185 
-0.584949 -0.25954 2.10827 70 59 13 
0.842566 -0.122632 2.0302 140 148 124 
0.588117 -0.630601 2.05006 223 184 53 
0.570164 -0.590267 2.0477 232 202 68 
0.567084 -0.576929 2.04778 41 15 0 
0.560127 -0.542514 2.04706 81 44 0 
0.312041 -0.446711 2.0238 12 14 13 
-0.809657 -0.416166 2.14946 162 167 47 
-0.678872 -0.406796 2.15627 81 80 76 
-0.733726 -0.40446 2.14939 223 234 236 
-0.645055 -0.398512 2.15471 57 58 53 
-0.62936 -0.390514 2.16092 52 34 34 
-0.749529 -0.387955 2.14161 112 202 229 
-0.739732 -0.386385 2.14189 21 83 104 
-0.73919 -0.361189 2.12743 43 71 82 
-0.718263 -0.359151 2.13033 0 54 78 
-0.66993 -0.35243 2.13453 202 61 95 
-0.275206 -0.027765 1.98909 56 54 59 
-0.372456 -0.030057 1.96635 75 76 80 
0.155734 0.18011 2.0385 3 1 2 
0.634488 0.389516 1.93828 162 220 224 
-0.298938 -0.95328 2.28418 195 201 213 
-0.336537 -0.93035 2.27785 199 202 209 
-0.370773 -0.695402 2.37259 41 50 49 
0.515397 -0.659529 2.05455 211 216 212 
0.577506 -0.65657 2.05036 202 177 48 
0.510736 -0.649935 2.04271 15 17 14 
-0.433242 -0.680265 2.37146 95 119 106 
0.544261 -0.648497 2.04556 8 8 8 
0.438621 -0.645575 2.05159 212 212 212 
0.628403 -0.615379 2.04541 123 95 32 
0.329711 -0.627513 2.25533 122 0 57 
0.629218 -0.60468 2.04736 220 183 103 
0.486866 -0.605207 2.04969 212 214 213 
0.616082 -0.602054 2.05099 229 178 71 
0.628507 -0.588144 2.04423 115 87 24 
0.661066 -0.588628 2.05003 117 90 23 
0.708733 -0.586497 2.05872 206 151 51 
0.675638 -0.58324 2.04662 114 89 32 
-0.585486 -0.601133 2.34514 122 145 127 
0.474045 -0.575811 2.0329 17 19 18 
0.614554 -0.573114 2.04194 223 189 100 
0.480565 -0.564865 2.04688 223 229 229 
0.623065 -0.559457 2.04018 217 164 60 
0.568015 -0.556172 2.04538 233 207 34 
0.647864 -0.553469 2.03861 144 114 41 
0.35785 -0.552362 2.0374 233 234 236 
-0.357182 -0.556548 2.15569 189 199 200 
-0.293818 -0.556264 2.15615 27 28 32 
0.34949 -0.541683 2.03869 233 235 234 
0.413114 -0.540608 2.04276 11 12 14 
0.374502 -0.537345 2.03749 15 17 16 
0.433483 -0.53516 2.04052 9 9 11 
0.410228 -0.53107 2.04274 18 19 21 
0.662836 -0.515213 2.03394 6 6 0 
-0.285016 -0.519077 2.18724 32 33 37 
-0.362909 -0.511856 2.14235 187 191 192 
0.418311 -0.501001 2.03704 16 16 18 
0.33206 -0.494021 2.02955 11 13 12 
-0.356514 -0.493174 2.14544 190 194 195 
0.433382 -0.480949 2.03542 16 18 15 
0.345538 -0.47546 2.03084 17 17 19 
0.61481 -0.472653 2.02285 91 86 64 
0.113227 -0.449435 2.1321 44 9 5 
0.384974 -0.427403 2.02269 5 6 8 
0.231291 -0.423882 2.01489 185 151 62 
0.590456 -0.412866 2.00842 228 197 81 
-0.765198 -0.40777 2.14878 56 61 57 
-0.62515 -0.398965 2.1557 38 48 40 
-0.648873 -0.379701 2.15222 248 222 225 
-0.651444 -0.370561 2.14647 113 49 63 
-0.769605 -0.353381 2.12489 105 198 229 
-0.749068 -0.352308 2.12878 17 75 95 
-0.628404 -0.335848 2.14006 200 46 80 
-0.942495 -0.307994 2.08164 27 26 21 
-0.633726 -0.282559 2.11665 210 41 62 
-0.6788 -0.279515 2.10704 240 224 225 
-0.676416 -0.263614 2.10255 245 219 218 
-0.66922 -0.25824 2.09803 202 39 66 
-0.632921 -0.25178 2.09778 213 45 71 
-0.731161 -0.244194 2.0867 54 156 116 
-0.909084 -0.230592 2.08849 66 66 4 
0.516957 -0.143385 1.9647 202 193 188 
-0.262921 -0.0875059 2.0141 81 80 85 
-0.188845 -0.0786195 2.03187 150 149 154 
-0.246937 -0.0762459 2.01942 206 206 208 
0.635557 -0.059228 2.0745 178 185 92 
-0.210683 -0.0419459 2.01374 169 168 173 
-0.520605 -0.0374096 2.01449 65 5 39 
-0.095463 -0.0171211 2.03373 84 86 85 
-0.0277811 0.000909467 2.03937 202 216 203 
0.285861 -0.013798 1.88633 163 185 235 
0.856058 0.0415941 2.09594 216 214 202 
-0.930526 0.00998427 1.95552 19 22 15 
-0.830978 0.0584442 1.82076 185 190 170 
0.156602 0.182599 2.02852 136 136 136 
0.693965 0.263113 2.00651 171 179 182 
0.272318 0.321311 2.0053 50 70 69 
0.744748 0.399596 1.8909 113 162 169 
0.521111 0.501572 1.77317 55 97 155 
-0.29397 -0.959793 2.28967 51 51 51 
0.807459 -0.920592 2.21974 22 20 21 
0.537364 -0.634846 2.04561 16 20 19 
0.253688 -0.642791 2.27467 138 55 83 
0.650753 -0.584197 2.04565 207 154 42 
0.722912 -0.581767 2.05867 218 152 40 
0.48993 -0.568703 2.04156 15 17 12 
0.612999 -0.556765 2.03726 126 102 28 
0.48855 -0.554668 2.04176 9 9 7 
0.546675 -0.546261 2.04014 204 181 88 
0.625244 -0.541192 2.03702 105 89 40 
0.660466 -0.533904 2.03287 82 76 50 
-0.401252 -0.533712 2.14563 180 183 188 
-0.375525 -0.52326 2.14502 194 198 199 
0.700027 -0.491311 2.03753 88 71 17 
0.726722 -0.463145 2.062 30 32 27 
-0.593077 -0.407647 2.18003 8 6 0 
-0.931707 -0.381071 2.11083 17 17 17 
0.677226 -0.367497 2.0507 2 4 3 
-0.693439 -0.345285 2.13254 213 52 86 
-0.702995 -0.340159 2.12983 231 237 211 
-0.717005 -0.321633 2.11639 172 166 0 
-0.963107 -0.322959 2.07679 198 185 176 
-0.883224 -0.285571 2.13749 126 115 70 
-0.879808 -0.267434 2.13864 79 77 28 
-0.707902 -0.268589 2.09795 251 209 213 
-0.627542 -0.257346 2.10924 210 41 70 
0.291571 -0.251006 1.96958 137 129 178 
-0.818701 -0.230661 2.0545 246 238 189 
-0.128251 -0.104273 2.059 210 210 212 
-0.303689 -0.104769 2.01216 212 211 217 
0.421069 -0.0424548 1.91991 196 142 42 
0.351164 -0.030612 1.91096 28 8 0 
0.658401 -0.00978023 1.95631 112 108 107 
-0.441735 0.0246876 1.90709 102 103 105 
0.414702 0.0351177 1.92617 111 69 19 
-0.71401 0.0970871 1.9904 238 255 236 
0.750455 0.140863 2.04731 13 9 6 
0.635922 0.170448 2.03348 13 13 15 
0.613676 0.170972 2.0336 15 15 15 
0.57739 0.172274 2.03618 12 13 8 
0.715497 0.176904 2.03414 120 111 104 
-0.0855943 0.174126 1.9437 120 100 76 
-0.96178 0.176769 1.88424 134 138 139 
0.28342 0.287395 2.00306 233 241 243 
0.493386 0.499765 1.77044 45 104 172 
-0.361803 -0.929904 2.27786 154 134 125 
-0.323326 -0.956232 2.28722 112 125 133 
0.337295 -0.728962 2.32671 90 80 70 
0.206477 -0.702139 2.32289 253 253 253 
0.350579 -0.690904 2.3201 71 36 56 
0.298179 -0.680852 2.32345 126 140 140 
0.664461 -0.577981 2.04356 226 168 42 
-0.340606 -0.533079 2.15161 41 47 45 
0.0292775 -0.453237 2.03724 94 8 21 
0.336792 -0.449246 2.02623 16 17 19 
0.0158299 -0.448173 2.01214 89 6 24 
-0.613992 -0.422593 2.16961 14 16 15 
-0.769739 -0.398221 2.13877 231 237 223 
0.918454 -0.3817 2.01271 179 138 84 
-0.617341 -0.380845 2.15404 250 194 161 
-0.958922 -0.286149 2.06269 201 184 168 
-0.684883 -0.258848 2.09674 218 35 65 
0.75801 -0.176027 2.03664 240 229 211 
0.778349 -0.11389 2.03211 34 43 42 
0.729259 0.142427 2.04734 108 89 93 
-0.794583 0.136678 2.00764 185 188 181 
0.649679 0.178209 2.02849 112 119 101 
-0.105066 0.176245 1.94148 157 130 100 
-0.94707 0.185295 1.87703 201 197 194 
-0.941963 0.293801 1.83811 131 137 135 
-0.302557 -0.479441 2.16143 195 197 194 
0.317174 -0.361294 2.03398 145 164 204 
-0.548448 -0.109574 2.06109 192 193 188 
-0.0145116 0.253759 1.98366 130 109 114 
-0.893839 -0.860126 2.30687 44 44 44 
0.388898 -0.554932 2.04946 14 14 16 
0.501454 -0.542524 2.04024 16 14 15 
0.64876 -0.535192 2.03576 255 244 214 
0.586874 -0.512596 2.02849 125 100 16 
0.539013 -0.451347 2.02134 45 18 0 
0.335081 -0.433448 2.01795 15 15 17 
0.502613 -0.407881 2.0071 228 192 8 
0.460602 -0.404495 2.00674 245 212 57 
-0.591996 -0.394908 2.17587 215 191 5 
0.506045 -0.386577 1.99204 46 28 4 
-0.633683 -0.381041 2.15605 218 37 80 
0.379745 -0.358856 2.02619 20 19 24 
0.887317 -0.329532 2.09738 28 30 29 
-0.718128 -0.296926 2.10209 217 36 67 
-0.810214 -0.293789 2.08923 227 226 222 
-0.747127 -0.25548 2.1013 229 231 230 
0.829184 -0.243721 2.09485 5 7 4 
-0.730973 -0.216961 2.0806 49 144 110 
0.153995 -0.214352 1.95266 21 20 16 
0.414243 -0.1442 1.95001 181 145 49 
-0.831172 -0.128561 2.01376 248 237 113 
0.718406 -0.10805 2.00291 7 14 30 
0.657213 -0.0628077 2.0793 176 178 42 
0.66319 -0.0687418 2.04613 190 195 66 
-0.616069 -0.0712989 2.02363 232 232 234 
0.118136 -0.072269 1.91697 57 46 26 
0.395533 -0.0504036 1.91838 219 156 53 
-0.837672 -0.0359482 1.97841 255 249 92 
-0.516428 -0.0253397 2.00898 47 47 59 
-0.960606 0.00956164 1.95048 149 150 154 
0.198703 0.140037 2.07353 82 159 139 
0.908665 0.124791 1.8941 164 172 148 
0.682874 0.185036 2.04172 122 112 100 
-0.241982 0.168326 1.9228 203 189 178 
0.318112 0.23146 2.02431 86 169 153 
-0.473883 0.2163 1.91146 11 12 16 
0.718423 0.271257 2.01577 122 113 104 
-0.9577 0.223161 1.86183 138 142 141 
0.151962 -0.693524 2.33996 210 240 248 
-0.215159 -0.682332 2.36625 146 178 167 
-0.281883 -0.559985 2.15811 201 205 208 
-0.387894 -0.539349 2.14691 183 187 190 
-0.5947 -0.426813 2.17208 13 17 16 
-0.637091 -0.345945 2.14136 213 36 78 
-0.532689 -0.334585 2.17772 202 227 232 
0.642505 -0.319105 2.05476 140 129 125 
-0.648018 -0.287615 2.11696 213 29 55 
-0.723263 -0.210709 2.06004 40 146 106 
0.351423 -0.0665987 1.90869 72 84 98 
-0.936401 0.0245726 1.93231 215 224 203 
-0.945027 0.165113 1.90979 184 199 166 
0.515431 -0.574995 2.04558 18 17 15 
0.32945 -0.460185 2.02755 225 226 228 
0.730832 -0.450654 2.06536 37 37 27 
0.740026 -0.223275 2.09043 33 65 114 
0.73713 -0.217313 2.02411 227 213 204 
-0.715578 -0.202604 2.04584 43 147 110 
0.7627 -0.168045 1.95175 73 60 51 
-0.390649 -0.112733 2.01817 219 220 225 
-0.780566 -0.0569079 1.98173 206 32 57 
-0.540419 0.0148422 2.01683 198 131 184 
0.262075 0.221116 2.06259 20 20 22 
-0.255656 0.181453 1.93051 209 192 176 
-0.570046 0.210861 1.96057 43 35 59 
-0.97033 0.1989 1.86498 242 242 240 
0.579464 0.274557 2.00321 76 174 187 
0.0291361 0.396258 1.96724 96 84 68 
-0.319596 -0.566742 2.15647 75 83 85 
-0.59033 -0.429819 2.2063 15 16 18 
0.719097 -0.334414 2.02138 207 190 183 
0.320257 -0.286313 1.97632 88 88 122 
0.324751 -0.150122 1.9446 15 24 29 
0.077829 -0.0231536 1.96043 245 247 246 
0.776863 -0.293018 1.94631 86 72 72 
0.263975 -0.428218 2.01033 18 16 17 
0.720119 -0.173083 2.07795 42 89 109 
0.092129 -0.188525 1.97472 228 177 49 
0.263349 -0.123593 1.94398 187 191 226 
-1.83214 -1.08198 2.25657 44 48 51 
0.475108 -0.759764 2.27989 242 221 194 
0.434809 -0.687337 2.28539 229 221 200 
0.424661 -0.684907 2.24846 114 115 81 
0.37067 -0.624854 2.25717 229 202 172 
0.588897 -0.629821 2.0531 212 174 49 
0.370262 -0.636886 2.02302 140 142 139 
0.16179 -0.609974 2.30844 15 2 9 
0.21273 -0.610282 2.24641 162 121 135 
0.0897515 -0.588089 2.26507 13 2 6 
0.320534 -0.578098 2.2463 255 238 247 
0.569729 -0.590481 2.04633 229 193 55 
0.380187 -0.594353 2.06321 188 188 188 
-0.31259 -0.550804 2.17419 196 197 201 
0.409551 -0.535235 2.05363 208 209 213 
0.650045 -0.516632 2.04203 173 167 151 
0.661026 -0.514877 2.04758 170 167 162 
-1.38224 -0.558435 2.29955 135 133 134 
0.591815 -0.516678 2.03435 214 186 102 
0.636789 -0.51897 2.00334 66 68 54 
0.425906 -0.50965 2.08593 16 19 24 
0.535661 -0.512519 2.03934 216 185 58 
0.526786 -0.509311 2.02629 78 52 3 
-0.356659 -0.524946 2.14952 188 191 198 
0.642995 -0.49343 2.07655 21 23 20 
-0.355748 -0.522541 2.10378 189 193 194 
0.618352 -0.497284 2.00731 43 41 42 
-0.298457 -0.513794 2.12764 191 195 196 
0.414254 -0.497959 2.04279 235 241 241 
0.635339 -0.482275 2.03939 8 1 0 
0.589826 -0.47457 2.01777 18 16 1 
0.616419 -0.458176 2.06481 66 65 47 
0.519509 -0.462203 2.04096 39 3 0 
0.13473 -0.429677 2.1329 68 29 12 
0.570013 -0.412645 2.07125 29 18 0 
0.176842 -0.386838 2.214 199 161 142 
0.48128 -0.411382 1.99189 77 40 0 
0.124768 -0.373403 2.21458 53 24 10 
0.111768 -0.370309 2.22574 147 117 107 
0.291187 -0.408706 2.00972 241 246 242 
0.110544 -0.365925 2.21626 70 42 31 
-0.739788 -0.424815 2.11323 48 49 51 
-0.797518 -0.426847 2.10723 157 166 77 
0.409907 -0.390159 2.04823 237 243 241 
-0.668438 -0.418225 2.11202 23 22 18 
-0.63005 -0.409257 2.12745 25 27 24 
-0.724196 -0.413814 2.11367 233 244 248 
-0.635367 -0.41003 2.11063 41 42 37 
0.603166 -0.378106 2.00251 198 170 105 
-0.733625 -0.401604 2.10667 0 72 107 
-0.731888 -0.394161 2.11313 0 42 64 
-0.734773 -0.396649 2.08525 2 77 108 
-0.727479 -0.391258 2.10094 133 213 246 
0.195393 -0.369442 2.01017 243 214 120 
-0.728812 -0.386867 2.08863 0 41 82 
-1.36654 -0.374571 2.23385 96 95 93 
0.541652 -0.346347 2.03832 61 56 34 
-0.726137 -0.377933 2.11724 0 64 101 
0.539712 -0.361149 1.97112 20 18 19 
-0.698195 -0.385469 2.0617 0 32 62 
-0.703858 -0.370637 2.10726 0 67 110 
-0.720666 -0.366388 2.10344 10 35 42 
-0.648811 -0.366193 2.08919 194 40 74 
-0.659208 -0.36489 2.09045 208 58 93 
-0.743005 -0.367166 2.08813 120 205 234 
-0.734525 -0.364481 2.09779 228 242 243 
0.151768 -0.344951 2.03404 50 40 15 
0.618751 -0.317322 2.02517 178 154 94 
0.55975 -0.30337 2.04085 65 59 47 
0.134661 -0.314435 2.00884 66 53 11 
0.474481 -0.293735 2.01236 138 154 179 
0.0975691 -0.307876 2.00274 34 34 34 
0.550283 -0.261017 2.06106 87 80 62 
0.460979 -0.275788 2.0081 42 73 127 
0.544274 -0.248308 2.04136 230 226 197 
-0.649367 -0.274356 2.07648 161 85 98 
0.534309 -0.248926 1.99123 203 187 161 
-0.622621 -0.257847 2.10144 173 60 78 
0.0942183 -0.265205 1.97996 160 161 165 
-0.591482 -0.239421 2.06767 75 116 50 
0.0837245 -0.241707 1.96164 32 33 37 
0.0445115 -0.225324 2.00292 230 233 226 
0.370825 -0.218211 1.95339 15 9 43 
0.070371 -0.225823 1.96133 173 174 176 
0.036177 -0.201626 1.99563 223 225 224 
0.0573885 -0.202743 1.97751 163 168 171 
0.066613 -0.189145 1.95029 113 115 114 
0.0472723 -0.173156 1.96016 164 163 168 
0.690875 -0.0624491 2.13783 72 74 34 
0.841188 -0.0825775 2.04771 214 198 198 
0.0118379 -0.142212 1.93585 255 255 255 
-0.0879376 -0.107274 2.0323 141 142 137 
-0.0211398 -0.126909 1.97092 237 241 240 
-0.328477 -0.125505 2.00294 28 27 33 
0.698289 -0.0670521 2.0542 180 194 117 
-0.302053 -0.121419 1.99689 214 213 221 
-0.335778 -0.125604 1.98634 209 208 216 
-0.00447592 -0.121941 1.95683 20 18 21 
0.408833 -0.109912 1.94097 212 182 109 
-0.134056 -0.0935805 1.99753 54 53 58 
0.402137 -0.0946527 1.93551 194 163 96 
-0.276117 -0.0897846 2.00625 99 95 92 
-0.329962 -0.0975199 1.98731 124 124 126 
-0.316439 -0.0936817 1.99539 52 50 51 
0.035032 -0.0902317 1.9544 249 222 153 
-0.290312 -0.0886829 1.97717 63 65 64 
-0.189636 -0.062587 1.99921 139 139 137 
-0.303542 -0.0690583 1.98344 179 179 179 
0.0549062 -0.0411859 2.02143 98 100 97 
-0.606912 -0.071086 1.9955 56 123 72 
0.430261 -0.0606082 1.92537 101 46 0 
-0.180217 -0.0480053 1.99584 45 46 41 
-0.250265 -0.0621337 1.96392 127 124 135 
-0.197237 -0.0458849 2.00279 137 137 137 
0.429159 -0.0464367 1.92684 89 46 3 
-0.309473 -0.0594487 1.94161 22 19 28 
-0.242562 -0.0407135 1.97821 205 204 212 
-0.278835 -0.0422988 1.97495 214 211 218 
-0.178386 -0.0390906 1.97365 105 106 110 
-0.357635 -0.0434188 1.9686 104 102 105 
-0.325489 -0.0449547 1.96234 110 109 115 
-0.564924 -0.0379228 1.99591 28 24 23 
0.638123 -0.00988008 1.95635 104 102 103 
-0.570998 -0.0362281 1.98709 22 13 4 
-0.293297 -0.017533 1.9997 88 87 92 
0.610647 0.00466371 1.97519 66 68 67 
-0.194902 -0.0125627 1.9864 8 9 11 
0.410666 -0.00930616 1.94521 83 42 0 
-0.256287 -0.0188341 1.97058 51 51 51 
-0.259757 0.0135619 2.03129 17 17 19 
-0.572756 -0.0175516 1.98149 30 25 22 
0.400752 -0.00936797 1.92195 93 51 0 
-0.271108 -0.0166229 1.95688 65 63 76 
0.586769 0.00294112 1.93149 63 63 61 
-0.787914 -0.0397692 1.92725 255 255 168 
0.590102 0.0210395 1.95585 67 68 63 
-0.144555 0.0101154 1.9811 253 255 254 
0.357681 -0.00862821 1.89554 168 138 86 
0.638593 0.0187908 1.9348 205 205 207 
-0.392987 -0.0249823 1.90815 224 225 229 
0.575651 0.0121194 1.92049 72 71 69 
-0.830239 0.0023387 2.00094 218 247 217 
0.378275 0.00562253 1.91149 173 143 89 
-0.662249 0.00625998 1.9874 251 255 243 
-0.728581 0.0119306 1.98445 248 255 245 
-0.672972 0.0405653 2.02939 129 162 133 
0.326489 0.0196033 1.90633 20 11 12 
-0.864767 0.0161974 1.98324 103 112 57 
-0.613181 0.0423876 2.01932 223 228 205 
0.350537 0.0225762 1.88997 187 151 119 
0.107754 0.0152037 1.88729 253 255 252 
-0.775193 0.0267619 1.97642 95 114 95 
0.280353 0.100222 2.01946 158 172 181 
-0.68106 0.0701554 1.98636 110 169 121 
0.283074 0.107299 1.99857 18 41 72 
-0.674466 0.0832938 1.9955 133 167 142 
-0.736406 0.0707031 1.95923 93 133 96 
-0.730469 0.0706512 1.94999 216 245 214 
0.174171 0.137886 2.0188 109 109 111 
-0.472422 0.067971 1.91271 122 113 132 
-0.687865 0.121099 1.97292 98 166 109 
0.339536 0.1458 1.95745 178 195 213 
-0.575988 0.102825 1.90146 166 165 170 
-0.822345 0.0461295 1.79804 201 212 182 
-0.336115 0.188324 1.93507 15 10 42 
-0.424778 0.2183 1.93578 7 6 14 
-0.387536 0.212094 1.89647 6 2 39 
-0.686544 0.223133 1.92815 130 176 147 
-0.321932 0.233321 1.92925 12 0 36 
-0.59885 0.31334 1.97033 20 26 24 
-0.252413 0.266621 1.87274 217 211 225 
0.230901 0.32889 1.94972 171 171 179 
-0.291641 0.3835 1.88203 216 233 243 
-0.39563 0.437747 1.80271 89 149 199 
-1.25458 0.611875 1.83468 134 136 133 
-1.80661 -1.06872 2.24023 56 59 64 
-0.291954 -0.960902 2.25633 51 42 47 
-0.336276 -0.940681 2.22808 29 33 45 
-0.346079 -0.936969 2.25534 198 201 208 
-0.335447 -0.930805 2.2594 199 201 214 
-0.341336 -0.929591 2.23288 39 43 44 
0.792406 -0.802253 2.27144 181 204 194 
-0.857586 -0.882966 2.24009 43 43 43 
-0.846467 -0.847851 2.24894 142 137 133 
0.462082 -0.740142 2.27264 248 208 157 
-0.931092 -0.807304 2.22258 99 103 102 
0.457534 -0.730147 2.28473 249 223 174 
0.526109 -0.724662 2.28196 255 222 160 
-0.901918 -0.788921 2.22549 159 154 148 
0.250079 -0.71955 2.3697 19 23 22 
0.793905 -0.695092 2.31799 74 85 81 
-0.895893 -0.781079 2.20751 32 38 36 
0.212069 -0.714269 2.35779 146 163 155 
0.440114 -0.721639 2.08735 238 185 93 
0.440729 -0.71885 2.06994 56 43 26 
-1.78602 -0.819624 2.12378 66 70 73 
0.884836 -0.684019 2.20708 122 106 93 
0.882688 -0.689538 2.12088 40 38 39 
0.923091 -0.686886 2.12399 36 32 29 
0.196369 -0.702102 2.33304 123 143 134 
0.880114 -0.686457 2.14113 78 70 68 
0.429988 -0.686829 2.29259 73 83 74 
0.501252 -0.701728 2.06548 228 168 58 
0.130771 -0.691886 2.32223 2 20 20 
0.755057 -0.661373 2.3189 209 218 215 
-0.228448 -0.700091 2.3217 153 178 172 
0.743617 -0.65643 2.2991 23 28 24 
-0.882227 -0.733658 2.27213 61 82 75 
0.111512 -0.678707 2.33977 0 11 7 
-0.366822 -0.700756 2.33017 22 27 23 
0.741304 -0.653082 2.26747 209 220 216 
-0.324052 -0.696088 2.33335 153 172 166 
-0.337723 -0.695429 2.33662 148 171 161 
0.651994 -0.647793 2.33344 5 5 3 
0.112717 -0.674209 2.31294 221 225 226 
0.217083 -0.671203 2.28983 13 15 14 
-0.402404 -0.692152 2.34848 151 172 165 
0.314264 -0.667064 2.24924 131 2 69 
-0.615482 -0.691481 2.37868 65 77 77 
-0.842728 -0.705885 2.27009 10 20 19 
0.386818 -0.643814 2.29871 7 1 3 
0.151306 -0.651255 2.27446 7 11 14 
0.21951 -0.644909 2.29625 12 21 16 
0.581779 -0.654021 2.06564 220 184 61 
0.250304 -0.647659 2.24374 84 22 37 
0.366761 -0.640234 2.26473 145 8 76 
0.745118 -0.61969 2.28268 12 19 11 
0.231332 -0.635736 2.33314 133 149 139 
0.523374 -0.654414 2.0457 13 13 15 
0.351537 -0.634712 2.26606 142 0 83 
0.50331 -0.654442 2.01493 12 12 12 
0.540788 -0.64637 2.07295 14 15 19 
0.203989 -0.631091 2.32282 5 16 8 
0.160137 -0.631133 2.313 16 16 16 
0.209367 -0.630244 2.29751 144 149 145 
0.627403 -0.639366 2.05976 30 17 0 
0.523115 -0.643504 2.05299 22 24 21 
0.0840261 -0.624583 2.29287 12 2 3 
0.330745 -0.615692 2.27282 255 215 224 
0.333592 -0.61582 2.25414 71 60 58 
0.318885 -0.616932 2.23688 73 11 22 
0.596229 -0.625596 2.06194 215 178 28 
0.0892582 -0.619285 2.28558 150 144 158 
0.16498 -0.616697 2.27748 157 168 160 
0.519537 -0.628082 2.06314 9 13 14 
0.951684 -0.596211 2.1555 14 13 11 
0.18562 -0.615291 2.27283 116 29 61 
0.357015 -0.610669 2.22558 70 63 57 
0.152506 -0.611104 2.2785 191 176 195 
0.178421 -0.612052 2.25503 198 73 129 
0.77536 -0.590092 2.2157 16 19 10 
0.325028 -0.602362 2.27316 80 3 21 
-0.0679261 -0.614291 2.31322 86 92 80 
0.353405 -0.603482 2.24707 201 194 178 
0.341803 -0.598756 2.27141 67 46 27 
0.62964 -0.614322 2.05065 107 81 22 
-0.292321 -0.617633 2.33914 20 24 25 
-0.0329852 -0.616164 2.24831 218 220 217 
0.511217 -0.616833 2.05311 15 19 22 
0.194964 -0.603622 2.24678 134 83 102 
-0.357221 -0.61841 2.31987 113 133 122 
0.138686 -0.60724 2.22727 95 11 34 
-0.382471 -0.614648 2.31855 47 56 51 
0.610966 -0.605225 2.0336 228 179 76 
0.819451 -0.573802 2.19481 9 8 3 
-1.77629 -0.708081 2.07189 63 66 71 
0.329092 -0.584996 2.24763 56 44 44 
-0.522496 -0.615151 2.29822 12 21 18 
0.501642 -0.598315 2.06751 219 221 218 
0.66333 -0.598448 2.01775 113 92 35 
0.877329 -0.579112 2.08753 26 23 4 
0.34086 -0.575956 2.26878 72 52 43 
0.791422 -0.577521 2.11357 123 90 59 
0.188885 -0.586013 2.24435 227 62 128 
0.626999 -0.585065 2.0617 215 182 105 
0.681119 -0.579412 2.06493 106 84 34 
0.894506 -0.561291 2.11465 248 219 189 
0.325117 -0.567314 2.23888 223 169 141 
0.51449 -0.578884 2.06578 220 220 220 
0.493812 -0.581265 2.0467 12 16 17 
0.619957 -0.569544 2.05975 221 191 101 
0.248268 -0.550421 2.24114 182 88 124 
0.268784 -0.545639 2.2673 53 3 15 
0.509676 -0.565166 2.06859 219 223 224 
0.334704 -0.569629 2.08368 121 120 125 
0.627065 -0.556793 2.05281 216 165 58 
0.646237 -0.554242 2.03445 138 108 36 
0.221345 -0.536632 2.25304 183 62 116 
0.502448 -0.554689 2.05943 215 219 220 
-0.32423 -0.575038 2.16429 195 198 203 
0.311558 -0.564348 2.04298 61 55 41 
-1.76852 -0.656613 2.05079 225 230 233 
0.207047 -0.539008 2.22747 219 61 154 
0.602225 -0.5477 2.04827 124 100 26 
-0.34245 -0.571317 2.15318 201 206 212 
0.347096 -0.554286 2.06172 231 233 232 
0.565292 -0.544724 2.05054 227 192 26 
0.420674 -0.543011 2.09885 6 10 11 
-0.866446 -0.582414 2.19763 12 24 20 
0.604182 -0.538764 2.0522 227 191 103 
0.606235 -0.541205 2.0366 136 106 33 
0.755835 -0.531011 2.0605 10 2 0 
0.407885 -0.539912 2.09195 29 31 30 
-0.292966 -0.559401 2.13926 17 18 22 
0.303326 -0.548956 2.03765 34 27 8 
-0.344005 -0.558379 2.13639 29 34 38 
-0.285965 -0.555907 2.12165 23 24 28 
0.644809 -0.529199 2.04018 219 214 182 
0.351992 -0.539086 2.05126 230 232 231 
0.636547 -0.534516 1.99647 87 81 49 
0.641085 -0.521677 2.05353 249 238 210 
0.597969 -0.522586 2.05528 225 192 99 
0.409153 -0.532283 2.03746 22 24 21 
0.420536 -0.528885 2.05523 219 219 221 
0.476322 -0.516611 2.10794 20 20 22 
0.674117 -0.516157 2.04712 220 220 218 
0.683529 -0.514627 2.04987 40 32 13 
-0.396829 -0.544893 2.13498 187 191 194 
0.347202 -0.525295 2.05459 233 233 235 
0.417628 -0.520972 2.04825 16 20 23 
-0.342403 -0.541484 2.1175 27 31 32 
0.288409 -0.525729 2.04239 245 222 152 
0.420463 -0.51974 2.03376 226 230 233 
0.871383 -0.486417 2.10075 21 22 16 
-0.369593 -0.529749 2.15173 25 28 37 
-0.351404 -0.532376 2.13049 190 194 197 
0.461362 -0.512392 2.03382 11 15 16 
0.654949 -0.503024 2.03528 44 35 28 
0.662631 -0.494164 2.08099 178 177 175 
-0.389677 -0.540707 2.06933 35 39 40 
0.126 -0.503832 2.13999 25 0 2 
0.708003 -0.498417 2.02563 177 162 139 
0.313743 -0.508686 2.0462 175 173 174 
-0.368603 -0.520792 2.11502 34 35 39 
-0.35857 -0.521533 2.0955 180 184 187 
0.71991 -0.481826 2.05567 91 91 91 
0.393764 -0.498455 2.03616 13 13 15 
0.609894 -0.487404 2.03901 222 223 217 
0.0783086 -0.491304 2.12323 87 1 12 
0.455471 -0.481085 2.09491 5 4 9 
0.330578 -0.495579 2.02322 11 11 11 
0.866405 -0.459655 2.08322 28 29 23 
0.32693 -0.490297 2.03735 225 225 225 
0.614716 -0.472273 2.06709 37 35 22 
-0.361598 -0.50249 2.12176 23 27 30 
-0.285318 -0.493594 2.14618 194 197 202 
0.430197 -0.484271 2.02175 14 12 13 
-0.353808 -0.500182 2.11199 174 179 182 
0.579116 -0.474582 2.03138 255 247 212 
0.654991 -0.468132 2.03258 109 87 27 
-0.347503 -0.491328 2.11184 17 21 24 
0.385695 -0.47425 2.03998 13 18 22 
0.403116 -0.473345 2.0389 222 223 227 
-0.337535 -0.480438 2.15031 188 191 196 
-0.325748 -0.48504 2.12287 184 187 192 
0.0526666 -0.476214 2.08517 128 72 45 
0.0364783 -0.47619 2.07907 128 67 49 
0.32037 -0.461498 2.0743 14 14 16 
0.323348 -0.471289 2.02681 16 16 16 
0.59449 -0.461638 2.01602 219 220 215 
0.0797834 -0.462666 2.11329 145 70 65 
0.848559 -0.431927 2.10087 121 124 113 
0.10011 -0.455958 2.13041 94 8 7 
0.231448 -0.465546 2.0539 172 135 18 
0.594145 -0.457967 2.00416 49 45 33 
0.119582 -0.451002 2.12717 131 86 53 
0.834131 -0.420233 2.12522 7 12 8 
0.645154 -0.448803 2.02131 33 23 0 
0.595749 -0.447994 2.03101 228 227 225 
0.391388 -0.454779 2.02575 219 223 224 
0.577965 -0.435874 2.06136 108 101 82 
0.429758 -0.433228 2.07487 22 22 20 
0.20815 -0.444697 2.06003 246 219 80 
0.910196 -0.39274 2.14863 135 138 127 
0.366084 -0.439155 2.03679 207 208 212 
0.813898 -0.393576 2.15845 88 85 76 
0.569976 -0.42489 2.05642 35 27 14 
0.119086 -0.433545 2.10378 40 0 0 
0.306762 -0.439888 2.0355 228 229 231 
-0.824946 -0.4465 2.225 9 18 15 
0.774764 -0.395693 2.14705 3 3 1 
0.389138 -0.436305 2.027 10 11 13 
0.170377 -0.412695 2.17594 48 28 4 
0.445079 -0.435001 2.01459 23 25 24 
0.178228 -0.4083 2.17013 198 160 141 
0.875318 -0.407342 2.04226 142 150 137 
0.919067 -0.39278 2.1032 232 208 182 
0.376615 -0.425943 2.03965 20 21 23 
0.888664 -0.403228 2.04504 27 28 22 
0.19302 -0.410139 2.14155 21 15 19 
0.380248 -0.433091 2.00102 7 7 9 
0.360477 -0.426046 2.03521 207 208 210 
0.0292527 -0.436902 2.04332 162 118 73 
0.201154 -0.418429 2.08313 250 219 79 
0.894117 -0.400247 2.03059 15 20 16 
-0.77927 -0.448511 2.12314 231 226 207 
0.37624 -0.423882 2.01577 223 223 225 
0.294083 -0.423952 2.01594 17 19 16 
0.418631 -0.408296 2.05419 235 235 237 
0.229984 -0.425125 2.00988 162 130 45 
0.303941 -0.422053 2.00358 22 22 24 
0.122778 -0.377559 2.22439 167 130 112 
0.130997 -0.374816 2.23277 173 131 109 
0.137838 -0.378218 2.21525 69 38 20 
0.153362 -0.37415 2.23237 166 123 106 
0.614916 -0.405389 2.01011 192 160 75 
0.898388 -0.389689 2.0254 116 122 110 
0.686453 -0.387808 2.07197 136 128 125 
0.282777 -0.412844 2.02107 224 225 227 
-0.598258 -0.420304 2.14906 187 173 144 
-0.795886 -0.434079 2.1173 255 252 163 
0.415238 -0.398386 2.05561 230 234 235 
0.922215 -0.387846 1.99564 13 5 0 
-1.46278 -0.428836 2.24283 63 58 52 
-0.931156 -0.443429 2.08495 19 25 21 
-0.761325 -0.429264 2.11624 245 234 145 
0.348719 -0.395993 2.05334 14 14 16 
0.637753 -0.380248 2.06422 33 18 0 
0.282483 -0.409913 1.99649 30 30 28 
0.495914 -0.397613 2.00899 227 190 24 
-0.747691 -0.429331 2.09149 55 56 48 
-0.74551 -0.426476 2.10064 62 64 61 
-0.652634 -0.417516 2.12402 249 236 191 
-0.630978 -0.418704 2.10891 231 221 194 
-0.93834 -0.434615 2.08836 202 217 210 
0.291652 -0.406973 1.99125 13 15 14 
-0.607843 -0.409986 2.13192 234 215 123 
-0.75677 -0.415444 2.11874 51 52 47 
-0.615478 -0.410675 2.11164 34 35 37 
-0.759963 -0.41081 2.10758 235 251 225 
0.404315 -0.371526 2.06596 16 16 18 
-0.516607 -0.379059 2.18935 83 100 92 
0.922466 -0.357475 2.0318 148 149 143 
0.929521 -0.359379 2.02163 149 149 147 
0.665021 -0.362532 2.04911 148 139 130 
-0.688057 -0.401085 2.11496 148 192 227 
-0.96297 -0.422032 2.06629 43 52 49 
0.530314 -0.369336 2.03374 115 100 41 
0.29763 -0.373029 2.04385 186 208 249 
0.957397 -0.340966 2.06503 13 15 14 
-0.699763 -0.403362 2.08367 52 131 164 
0.206132 -0.381725 2.01029 164 131 26 
-0.643705 -0.385814 2.12894 249 227 229 
0.65977 -0.351921 2.04702 147 134 128 
-0.935846 -0.410009 2.07468 216 229 222 
0.167643 -0.373136 2.03404 255 239 152 
0.560465 -0.353967 2.03912 64 65 60 
-0.707356 -0.39211 2.08639 0 39 71 
-0.633767 -0.381315 2.11228 247 229 229 
-0.927429 -0.404108 2.06277 14 19 15 
0.389726 -0.36761 1.98767 24 23 28 
0.860122 -0.316282 2.1098 128 135 119 
-0.705502 -0.382203 2.09733 97 200 235 
-0.940048 -0.395225 2.07786 193 183 182 
-0.951849 -0.397671 2.06061 177 161 161 
-0.735067 -0.376858 2.09687 95 197 237 
-0.667532 -0.370569 2.11155 231 145 158 
0.518365 -0.342476 2.02802 144 121 41 
0.186455 -0.359561 2.00801 219 189 55 
0.533952 -0.359547 1.9497 205 207 204 
0.310915 -0.353257 2.00717 161 180 222 
-0.932607 -0.361717 2.15776 17 18 13 
-0.640411 -0.363079 2.10884 255 187 202 
-0.805426 -0.370376 2.10001 230 228 153 
-0.949309 -0.385705 2.04947 194 181 165 
-0.712259 -0.364617 2.09181 100 200 236 
0.565637 -0.326369 2.03683 30 24 12 
0.828 -0.291289 2.13025 79 82 73 
0.852002 -0.294685 2.10937 32 35 28 
-0.762062 -0.360612 2.09997 110 199 233 
-0.748625 -0.352253 2.12989 0 56 86 
0.399314 -0.339981 1.9905 173 191 237 
0.569398 -0.347738 1.92752 27 12 0 
0.80392 -0.290338 2.10023 7 5 8 
-0.624984 -0.339936 2.12615 207 45 82 
0.324576 -0.331984 2.00843 132 152 187 
0.549661 -0.328313 1.98345 16 15 0 
0.138434 -0.333609 2.01995 159 160 162 
0.342357 -0.323433 2.02889 145 172 217 
0.146003 -0.337321 2.00047 255 243 183 
0.598232 -0.313603 2.02206 42 24 4 
0.849477 -0.282127 2.10456 133 119 118 
0.326191 -0.332776 1.9868 0 22 43 
-0.485206 -0.328219 2.11966 142 100 138 
-0.891094 -0.340341 2.13174 104 64 64 
-0.849489 -0.331397 2.15353 55 42 33 
0.500501 -0.315606 2.00696 116 98 22 
0.851586 -0.279094 2.08997 40 37 30 
0.363831 -0.329923 1.97 21 46 66 
0.538195 -0.306831 2.02688 93 88 68 
0.139675 -0.323768 2.01786 74 69 49 
0.470003 -0.310304 2.00616 13 18 22 
0.100074 -0.311135 2.04883 52 40 50 
0.595528 -0.299006 2.02039 26 6 0 
-0.533035 -0.300792 2.16862 9 14 10 
0.106587 -0.315492 2.02267 44 46 43 
-0.885388 -0.321951 2.1331 54 35 29 
0.539371 -0.306359 1.96772 226 225 223 
0.517921 -0.297232 2.00017 218 176 66 
0.12972 -0.303665 2.02598 165 167 164 
-0.882657 -0.312983 2.12109 62 37 32 
0.859481 -0.253886 2.08465 40 42 31 
-0.531665 -0.290481 2.14545 99 63 91 
0.284473 -0.30259 1.98781 118 117 157 
-0.938327 -0.334128 2.04002 211 193 183 
0.132546 -0.302869 1.99863 255 238 168 
0.466308 -0.289573 1.99832 154 176 223 
0.815669 -0.249884 2.09071 8 7 5 
-0.947224 -0.335892 2.03021 188 177 171 
-0.726233 -0.311831 2.08128 236 226 224 
0.0906835 -0.291411 2.03751 238 243 236 
0.119036 -0.294198 2.02446 164 164 166 
-0.522941 -0.286691 2.13218 33 9 33 
0.487866 -0.283513 2.00248 115 96 30 
-0.807733 -0.313702 2.06687 245 235 137 
-0.56483 -0.27362 2.15936 210 213 206 
-0.935016 -0.314341 2.06063 23 19 18 
0.804675 -0.243881 2.06955 155 120 118 
-0.675466 -0.294225 2.08851 251 204 210 
0.106942 -0.286289 2.00996 109 113 114 
-0.921743 -0.298109 2.10564 112 88 50 
-0.867215 -0.300727 2.08912 137 135 76 
-0.660151 -0.293292 2.08601 253 204 207 
0.119762 -0.288023 1.9969 39 33 19 
-0.630553 -0.286454 2.10454 203 33 59 
-0.508609 -0.271306 2.1342 206 148 198 
-0.609775 -0.283212 2.09966 251 217 215 
-0.892597 -0.297526 2.08404 73 64 23 
-0.642638 -0.286617 2.08941 188 57 75 
0.273863 -0.271813 2.01663 142 140 187 
0.48294 -0.265796 2.00547 122 105 35 
0.502262 -0.268362 1.9941 118 94 32 
-0.922158 -0.295451 2.08608 18 15 10 
0.113478 -0.275163 2.01656 162 166 165 
0.327177 -0.266307 2.01424 150 148 198 
-0.548873 -0.270546 2.11235 43 34 39 
0.0758997 -0.266784 2.04069 244 246 245 
0.509031 -0.260588 2.00175 206 163 68 
-0.865687 -0.281676 2.09706 58 59 17 
0.113217 -0.275865 1.98997 32 33 19 
0.570369 -0.249695 2.01843 93 79 50 
0.0760057 -0.272156 1.9956 33 33 33 
0.101432 -0.263868 2.01694 149 153 154 
-0.699518 -0.2776 2.0686 248 203 210 
-0.668609 -0.27348 2.07321 252 217 223 
0.278861 -0.265582 1.97234 33 33 57 
0.475237 -0.250517 1.99989 107 82 15 
0.71805 -0.243042 1.99122 215 201 192 
0.530918 -0.243878 2.01135 212 169 64 
-0.691219 -0.275076 2.0601 205 33 59 
0.519096 -0.246189 1.99938 114 88 29 
0.0915807 -0.248524 2.04637 43 44 48 
-0.932759 -0.290695 2.0324 212 194 174 
-0.647623 -0.270152 2.06347 207 34 62 
-0.660053 -0.270565 2.06093 208 41 67 
-0.621785 -0.268079 2.04871 209 29 54 
-0.620217 -0.257814 2.07909 250 220 222 
-0.947431 -0.292261 2.00311 50 54 57 
-0.56399 -0.241536 2.10073 99 104 100 
-0.930212 -0.27919 2.02067 194 177 170 
-0.896784 -0.2672 2.05421 121 101 50 
0.818637 -0.199013 2.05844 164 129 123 
0.0872639 -0.244661 1.99527 170 174 177 
-0.722736 -0.254116 2.05834 60 153 108 
-0.599016 -0.237443 2.09287 249 218 93 
-0.594088 -0.240144 2.0833 206 187 66 
0.463935 -0.231799 1.97754 239 206 111 
-0.604313 -0.232939 2.08444 44 153 111 
-0.718479 -0.24787 2.04995 229 238 235 
0.0806233 -0.236131 1.98944 158 162 165 
-0.947225 -0.267601 2.0117 184 174 165 
-0.898316 -0.251676 2.05303 125 110 55 
-0.922265 -0.243757 2.06816 23 16 8 
-0.596725 -0.228716 2.07524 252 253 248 
-0.928834 -0.256046 2.02783 19 20 15 
-0.946403 -0.266413 1.99274 45 50 54 
0.548794 -0.206027 1.99991 171 161 134 
-0.720779 -0.24206 2.03678 75 111 50 
0.766468 -0.163751 2.10148 33 24 43 
0.757486 -0.17484 2.05363 229 211 199 
-0.572191 -0.204563 2.11726 165 174 173 
0.0605814 -0.221207 1.98049 154 158 161 
0.767287 -0.15428 2.09189 31 31 57 
0.0684243 -0.211413 1.98624 163 164 168 
0.360977 -0.201418 1.98382 30 29 47 
0.0529224 -0.211767 1.98327 144 148 151 
-0.804458 -0.231137 2.01528 167 154 109 
0.0607079 -0.206154 1.99213 39 43 46 
0.68635 -0.142482 2.10718 184 194 125 
0.367052 -0.197063 1.97333 165 158 210 
0.676969 -0.133482 2.1122 151 164 94 
0.349385 -0.196969 1.94801 148 150 199 
0.675134 -0.124758 2.12674 44 63 33 
0.0605579 -0.186471 2.00843 171 172 176 
0.697918 -0.128147 2.10993 179 188 123 
0.715924 -0.127363 2.10675 22 31 60 
0.0416586 -0.192353 1.98133 42 43 48 
0.676799 -0.141653 2.04922 47 107 37 
0.884302 -0.142815 2.02305 22 27 21 
0.839195 -0.12486 2.07559 217 217 207 
-0.572843 -0.173658 2.08195 44 46 35 
0.761836 -0.12648 2.05313 209 207 208 
0.0262221 -0.177177 1.98279 38 38 40 
0.0545801 -0.176107 1.9783 163 167 170 
0.703015 -0.112572 2.09327 42 64 25 
0.0453271 -0.177116 1.97027 64 68 71 
0.0358826 -0.177734 1.96187 53 54 59 
0.427518 -0.166939 1.95092 126 103 35 
0.544088 -0.134667 2.02321 45 30 1 
0.744749 -0.105113 2.08291 109 177 130 
0.687057 -0.105104 2.08485 88 128 58 
0.534591 -0.13318 2.0156 51 31 7 
0.0379881 -0.168543 1.95673 154 159 165 
0.79084 -0.10011 2.07535 26 36 38 
0.677202 -0.0894676 2.10406 51 67 31 
0.835624 -0.0878927 2.07005 2 7 13 
0.871287 -0.114049 1.99524 184 187 180 
0.515291 -0.12659 1.99258 223 209 200 
0.0291183 -0.154578 1.95839 144 148 151 
0.397492 -0.140689 1.95488 148 171 225 
0.628766 -0.0858142 2.08157 59 56 1 
0.891369 -0.10695 1.99631 31 36 30 
0.60428 -0.0854466 2.07853 90 87 42 
0.682342 -0.0800296 2.08302 195 195 83 
0.0323108 -0.151534 1.94711 28 29 31 
0.676528 -0.0708362 2.09672 193 194 75 
0.821242 -0.0832735 2.03982 8 14 26 
0.0187771 -0.145176 1.94554 183 185 184 
0.513615 -0.116407 1.96143 213 213 211 
0.899597 -0.088705 1.99697 39 44 38 
0.648489 -0.0536702 2.11455 21 28 0 
-0.323362 -0.125323 2.012 211 210 215 
0.811944 -0.113641 1.93577 42 46 49 
-0.534652 -0.117729 2.05162 38 35 44 
0.641344 -0.0723885 2.05882 177 179 70 
-0.363679 -0.137719 1.97567 212 213 217 
-0.00898879 -0.12618 1.96751 156 160 159 
0.0478434 -0.133091 1.93806 40 31 26 
0.411635 -0.114481 1.95689 120 96 24 
0.342305 -0.119246 1.94668 29 47 69 
-0.0174463 -0.134188 1.93681 46 47 42 
0.00421456 -0.147209 1.89983 157 161 164 
0.501619 -0.109954 1.95274 77 86 93 
0.829858 -0.085103 1.98892 152 145 129 
-0.358989 -0.121969 2.00047 54 54 56 
0.638255 -0.0565088 2.08208 162 168 62 
0.856098 -0.0863627 1.98001 150 145 125 
0.615821 -0.052751 2.08764 9 20 14 
-0.0944121 -0.0928029 2.03557 128 126 129 
0.12691 -0.11985 1.94269 209 217 238 
0.889676 -0.0869167 1.95297 42 44 39 
0.380552 -0.112062 1.93042 159 187 227 
-0.0158112 -0.110837 1.96281 250 224 167 
0.329623 -0.106367 1.94017 63 77 112 
-0.161765 -0.0838577 2.04181 207 207 215 
0.0147755 -0.103094 1.97328 19 19 17 
0.586131 -0.0670357 2.01485 152 142 117 
-0.148793 -0.0898468 2.0218 208 211 216 
0.75686 -0.0211428 2.10341 61 90 122 
0.225033 -0.102044 1.93544 73 75 96 
-0.0271245 -0.0543877 2.07792 138 138 138 
0.504369 -0.0588877 2.01275 139 146 162 
-0.350482 -0.0988204 1.98588 98 97 105 
0.27424 -0.108542 1.89982 69 77 113 
-0.184286 -0.0771599 2.02031 213 214 216 
0.302283 -0.105838 1.89563 47 71 109 
-0.222402 -0.0779428 2.0127 204 203 208 
-0.317471 -0.0924983 1.98122 203 204 208 
-0.286969 -0.0855771 1.99382 212 211 216 
0.0373212 -0.105456 1.91355 249 199 112 
-0.0972503 -0.0563023 2.04988 204 205 209 
0.620193 -0.0276612 2.05856 21 13 26 
0.284452 -0.0841245 1.94103 66 79 98 
-0.742703 -0.0902649 2.01452 81 122 62 
0.639173 -0.00806459 2.09507 6 13 21 
0.0357925 -0.0967397 1.91903 59 49 37 
0.609345 -0.0342948 2.02165 207 161 164 
-0.800612 -0.101018 1.96905 67 4 0 
-0.298474 -0.0744424 1.99077 201 207 207 
-0.114093 -0.0491608 2.0305 75 75 73 
0.90569 -0.0595374 1.91569 21 22 26 
0.666557 -0.00105265 2.07882 19 32 40 
-0.171509 -0.044367 2.04068 127 125 130 
0.515972 -0.0601038 1.93942 220 226 240 
0.0671528 -0.0512312 1.99865 60 61 53 
0.0751228 -0.0451882 2.00772 239 240 232 
-0.325448 -0.0717735 1.97495 101 101 103 
0.223854 -0.065465 1.94264 195 206 236 
-0.154044 -0.0508896 2.01027 231 230 235 
-0.396023 -0.0782972 1.95606 212 213 217 
0.14297 -0.0597277 1.94055 211 217 241 
0.655788 -0.0140809 2.00759 214 216 215 
0.380016 -0.0579262 1.92024 100 74 15 
-0.766764 -0.0685683 1.98265 69 43 26 
-0.347474 -0.0565227 1.97802 166 167 169 
0.410387 -0.0491763 1.93127 94 58 0 
0.666767 -0.00478964 2.01843 204 208 211 
0.0222704 -0.00386558 2.0687 33 31 32 
0.383385 -0.0562826 1.90683 121 92 26 
-0.790214 -0.0681773 1.9724 250 203 55 
-0.516376 -0.0471352 1.99275 64 29 49 
-0.225275 -0.0385465 1.9906 136 137 142 
0.512671 -0.0388802 1.92811 229 233 236 
-0.960011 -0.0712751 1.96675 42 55 48 
0.822835 0.0408921 2.09422 53 50 43 
-0.77506 -0.0620584 1.9697 191 55 67 
-0.034965 -0.00194935 2.05391 199 210 204 
0.525014 -0.0226612 1.95748 201 204 213 
-0.365697 -0.048449 1.96517 107 107 109 
-0.782556 -0.0684037 1.94807 51 39 15 
0.371893 -0.0453457 1.91069 106 81 27 
-0.295505 -0.042544 1.96902 210 207 214 
-0.39808 -0.0496051 1.95829 212 213 217 
0.565456 0.0558184 2.13543 21 43 57 
0.770339 0.0197992 2.02397 26 29 34 
0.779218 0.0212421 2.02428 250 250 250 
0.419915 -0.0244196 1.93564 186 144 62 
-0.803938 -0.0221433 2.03593 44 43 25 
0.176479 -0.0182491 1.95857 234 233 229 
0.81617 0.0229913 2.00449 49 48 43 
0.595403 0.00254697 1.96697 88 84 83 
0.521205 -0.0165737 1.92504 181 176 173 
-0.779674 -0.0390161 1.97324 228 230 216 
-0.562964 -0.0216758 1.99738 171 137 135 
-0.928218 -0.0509958 1.9499 195 215 180 
-0.835418 -0.0390084 1.96945 255 255 133 
0.392372 -0.0205812 1.91811 99 59 7 
-0.946867 -0.0530934 1.94308 163 181 157 
-0.575878 -0.0198153 1.99466 168 141 130 
-0.876848 -0.0288947 1.99339 96 119 51 
-0.238248 0.00819462 2.0278 10 12 11 
0.592364 0.00510135 1.95513 228 227 225 
-0.837785 -0.0399114 1.95993 253 251 200 
-0.915868 -0.0517089 1.93241 83 94 62 
0.223048 -0.0215565 1.90814 234 197 129 
0.583479 0.0128958 1.9561 137 136 134 
-0.560605 -0.0133622 1.98315 175 176 181 
0.61437 0.0195066 1.96867 115 116 111 
-0.655037 -0.00971789 1.98794 255 255 134 
-0.63874 0.00255015 2.01281 202 211 164 
0.150962 -0.0213249 1.89684 12 15 30 
-0.878221 -0.0119747 1.99579 83 104 39 
-0.613477 -0.00741128 1.98504 207 209 187 
0.605393 0.0155969 1.94077 158 158 156 
0.236683 -0.000736896 1.92934 46 31 50 
0.529246 -0.000542348 1.90564 159 126 133 
-0.87352 -0.00497386 2.00076 44 44 10 
-0.853495 -0.0136847 1.97937 41 35 0 
0.576257 0.0218406 1.95339 187 187 187 
0.525936 0.0441892 2.00353 168 175 191 
-0.82159 -0.00364786 1.99548 68 103 61 
-0.215914 0.00700238 1.97351 230 229 234 
0.286605 -0.0119298 1.89026 158 179 234 
0.598523 0.0283329 1.96113 232 232 224 
-0.559753 0.000744439 1.98251 187 186 191 
0.390475 -0.00182378 1.90561 191 138 34 
0.338118 -0.00536684 1.89593 15 7 5 
-0.928174 -0.0258703 1.94181 185 193 170 
-0.640633 0.0147095 2.01516 247 252 232 
-0.14207 0.00652385 1.95774 33 33 35 
-0.210036 0.00708571 1.96141 26 24 27 
-0.950983 -0.0234713 1.94592 133 147 134 
0.348099 -0.00739792 1.87987 84 61 20 
-0.840577 0.0102918 2.00849 81 98 56 
-0.828526 0.012257 2.00984 38 89 46 
-0.562823 0.00561137 1.97337 22 22 22 
0.328585 -0.00191573 1.88826 182 178 211 
-0.823381 0.0194842 2.02458 56 112 67 
-0.920881 -0.0212948 1.93604 23 23 21 
-0.574224 0.00601253 1.96945 187 187 189 
-0.608726 0.033174 2.03302 35 32 0 
0.126659 -0.000451817 1.90061 251 255 255 
0.37812 0.015787 1.91693 93 68 14 
-0.830605 0.0107282 1.99251 236 240 225 
-0.628373 0.0227022 2.00494 102 166 105 
-0.822097 0.0163945 2.00047 239 246 230 
0.314883 0.0101715 1.89431 20 15 12 
-0.716755 0.00842329 1.96601 87 146 90 
-0.866879 0.00812472 1.97302 52 47 15 
-0.682786 0.0357535 2.02198 87 147 95 
-0.636901 0.0413712 2.0328 99 170 104 
-0.57281 0.00934288 1.95467 22 17 11 
-0.654191 0.0395482 2.02713 87 99 79 
0.401031 0.0253262 1.91431 74 52 15 
-0.928597 -0.00661929 1.93799 222 210 198 
-0.798847 0.0205505 1.99014 252 252 250 
0.0910873 0.0590022 2.01163 31 30 28 
0.325214 0.00578532 1.87237 26 12 1 
-0.875373 0.0191049 1.98231 131 122 91 
-0.62712 0.0481373 2.02748 209 215 201 
-0.718471 0.0259943 1.98409 67 156 74 
-0.67616 0.0409149 2.01415 245 255 246 
-0.910096 0.00266702 1.94146 17 18 13 
-0.707303 0.0340038 1.99732 114 198 120 
-0.953275 -0.00202365 1.92985 60 66 66 
0.549931 0.0184682 1.86741 207 208 213 
-0.758794 0.0205277 1.9647 98 152 103 
0.360485 0.0289178 1.90111 198 146 62 
0.566094 0.0340168 1.89824 251 247 246 
-0.94194 -0.00106583 1.92741 84 93 98 
-0.573445 0.0261814 1.96186 144 116 113 
-0.731065 0.028438 1.975 249 255 244 
0.414873 0.0410622 1.91981 186 131 48 
-0.547078 0.0291692 1.96109 148 123 152 
0.104281 0.0760882 2.01868 28 35 28 
-0.725039 0.0372769 1.99146 251 252 220 
-0.926203 0.0040819 1.92785 201 217 191 
-0.761216 0.0444335 2.00289 100 136 98 
-0.561047 0.0303103 1.95631 171 171 173 
0.380006 0.0524252 1.93645 215 160 67 
-0.769559 0.0290082 1.96557 248 250 245 
-0.91245 0.0161384 1.9419 11 11 0 
0.407144 0.0575733 1.92177 245 212 171 
0.730699 0.129193 2.05291 6 8 7 
-0.769644 0.0409542 1.9623 247 250 241 
0.275412 0.0973008 2.00969 187 200 208 
-0.712436 0.0641898 1.99539 133 182 137 
-0.691946 0.0605468 1.98667 92 144 95 
-0.676917 0.0618629 1.98515 214 243 215 
0.265776 0.0891584 1.974 69 83 94 
0.872829 0.0795804 1.90905 167 149 149 
-0.732824 0.0544546 1.9574 248 255 244 
-0.70369 0.0652925 1.9767 249 255 248 
0.370535 0.105474 1.98718 194 216 230 
-0.766046 0.0599918 1.95534 210 230 205 
-0.686543 0.0839602 2.00216 94 165 105 
-0.658489 0.0868984 2.00557 97 108 91 
0.290909 0.126252 2.02479 35 56 83 
-0.785348 0.0686249 1.96083 100 142 102 
-0.729338 0.0751663 1.96877 60 143 71 
0.290555 0.122921 2.00096 170 186 202 
-0.526837 0.0707724 1.94039 64 45 75 
0.503891 0.150173 2.03818 239 197 159 
0.246999 0.137439 2.02222 98 164 154 
0.293928 0.116595 1.9751 179 192 208 
-0.70729 0.0861956 1.97101 252 255 250 
0.752106 0.165955 2.02877 15 21 17 
0.841665 0.0792992 1.84164 26 27 29 
-0.94601 0.053414 1.90104 164 181 162 
0.339012 0.155914 2.03164 209 226 246 
0.690439 0.163855 2.02354 9 15 15 
0.662672 0.168572 2.03204 9 10 12 
-0.609664 0.0918754 1.95444 223 226 217 
0.608648 0.161173 2.01698 11 13 12 
0.754851 0.163943 2.01188 125 126 110 
0.577737 0.170983 2.03573 4 10 8 
0.294493 0.149713 2.00391 29 48 62 
0.631611 0.180142 2.04174 83 85 82 
0.337876 0.139708 1.97367 200 216 232 
-0.611597 0.104943 1.96047 226 228 223 
0.280681 0.165146 2.02828 81 168 162 
0.347022 0.146023 1.98426 47 68 97 
0.560059 0.17332 2.027 101 102 94 
0.573557 0.182436 2.0456 103 107 93 
-0.720647 0.114707 1.98346 103 184 117 
0.480796 0.163741 2.00682 86 97 101 
-0.693526 0.104104 1.95791 94 154 103 
0.502099 0.190617 2.05772 1 9 11 
-0.600168 0.110461 1.95465 212 217 210 
0.339109 0.163479 1.99642 52 85 104 
-0.715597 0.123383 1.97703 253 255 249 
0.531055 0.202916 2.05551 8 14 10 
-0.730196 0.129575 1.98146 103 123 96 
-0.716742 0.143693 1.99261 202 218 205 
0.554659 0.211742 2.05181 110 113 102 
0.560471 0.210873 2.04253 6 12 12 
-0.764897 0.163606 2.02337 155 172 138 
-0.574294 0.100678 1.88235 32 32 34 
-0.458318 0.0861802 1.84052 28 28 36 
0.578825 0.221891 2.04764 109 116 109 
0.0793053 0.18737 2.00043 11 3 1 
0.42668 0.209602 2.02393 48 76 88 
0.069377 0.182525 1.98995 137 133 134 
0.59879 0.230906 2.04763 8 12 11 
-0.498464 0.128772 1.90557 102 181 175 
-0.718666 0.173113 2.00309 230 252 229 
0.0540583 0.167496 1.94643 121 107 94 
-0.695003 0.149778 1.95173 141 153 133 
0.0618217 0.153039 1.913 140 23 41 
0.0287947 0.189847 1.98434 123 121 143 
-0.227996 0.151623 1.90811 26 21 18 
-0.264636 0.155623 1.91439 23 22 20 
-0.444222 0.12898 1.87172 21 22 24 
-0.181352 0.153283 1.90067 158 143 124 
0.650647 0.25583 2.04814 1 9 11 
-0.257659 0.156692 1.90504 182 169 163 
0.768687 0.252644 2.03346 16 21 15 
-0.729944 0.185508 1.98545 162 187 147 
-0.643444 0.163193 1.93378 159 181 160 
-0.427315 0.137778 1.87208 30 31 33 
-0.371873 0.167875 1.92312 89 84 114 
-0.241901 0.17912 1.93972 207 193 180 
-0.206798 0.167101 1.91333 193 175 161 
0.670282 0.269238 2.06227 5 20 13 
-0.632173 0.163831 1.92989 128 149 132 
-0.198894 0.177475 1.91369 222 204 192 
0.705807 0.267138 2.03255 9 11 8 
0.724816 0.250501 1.99998 12 13 8 
-0.686397 0.175561 1.934 250 255 243 
0.696701 0.272137 2.03617 8 20 18 
0.768422 0.270729 2.02143 17 27 18 
0.692696 0.260048 2.00185 146 156 158 
-0.333866 0.202941 1.93802 40 31 58 
-0.657875 0.196803 1.94217 244 243 238 
0.725925 0.277347 2.01527 112 115 104 
0.744192 0.296073 2.03946 0 16 14 
-0.938333 0.140579 1.83642 171 190 162 
-0.919859 0.154983 1.86102 185 203 179 
-0.649976 0.203933 1.93936 148 153 147 
-0.692854 0.205966 1.9269 255 255 251 
0.754688 0.283402 1.99452 114 125 111 
-0.445923 0.158282 1.82519 194 185 188 
-0.656328 0.212096 1.93021 209 222 212 
0.764474 0.287906 1.99549 34 44 35 
-0.213156 0.207738 1.89656 214 200 189 
-0.181194 0.200601 1.87883 116 90 65 
-0.18388 0.257517 1.97937 123 97 72 
-0.669582 0.226123 1.9433 119 142 124 
-0.164234 0.220803 1.90746 112 88 60 
