ply                 
format ascii 1.0    
element vertex 243
property float x    
property float y    
property float z    
property uchar red  
property uchar green
property uchar blue 
end_header          
-0.185487 0.663401 1.70303 2 4 17 
-0.271404 0.0690755 1.81248 67 67 67 
-0.179435 0.617868 1.6868 16 12 11 
-0.0808391 0.0864168 1.70458 64 63 61 
0.0154313 -0.0316084 1.7062 53 49 40 
-0.181092 0.617984 1.68606 16 12 11 
-0.183141 0.653113 1.69967 40 39 57 
-0.195593 0.635531 1.69336 24 22 33 
-0.102105 0.0192834 1.69823 20 19 17 
-0.110188 -0.227585 1.77437 93 89 86 
-0.0242833 0.0341982 1.69323 65 63 64 
-0.00950042 0.0433077 1.69593 13 11 12 
-0.186014 0.689667 1.70393 26 26 28 
0.0979166 0.13898 1.73767 72 72 72 
-0.546343 0.910779 2.80912 12 13 7 
0.0324645 0.00270967 1.70659 74 68 68 
-0.173887 0.795084 1.69162 16 19 10 
-0.182628 0.682607 1.7017 17 17 19 
-0.0428327 -0.126715 1.74231 72 68 67 
-0.132938 -0.127189 1.75295 15 13 14 
-0.0737109 0.0875467 1.70265 64 62 63 
-0.0250464 -0.23899 1.78309 36 32 31 
-0.0501214 0.0993591 1.70091 48 47 45 
-0.119249 0.606153 1.66884 19 17 18 
-0.228433 0.1498 1.77254 34 32 33 
-0.0282674 -0.292359 1.79935 31 27 24 
-0.059802 0.0895476 1.70161 69 67 68 
-0.22553 -0.0998733 1.80355 35 31 28 
-0.166544 0.651513 1.69219 13 12 20 
-0.0412206 0.0254845 1.693 59 57 58 
0.0221771 -0.0329904 1.70737 38 33 27 
-0.0259657 0.500514 1.67345 57 55 56 
-0.114656 -0.433494 1.8629 69 65 62 
-0.160594 0.0383662 1.71489 54 53 51 
-0.250554 0.00521992 1.78819 16 16 14 
-0.137165 0.708771 1.66174 26 37 57 
-0.0867483 0.0487027 1.69381 32 31 29 
0.0405378 0.408682 1.69557 61 60 58 
0.053438 -0.0991975 1.74954 66 65 63 
-0.164721 0.692653 1.6863 28 24 23 
-0.0607445 0.319377 1.68594 54 52 53 
-0.208201 0.709605 1.71586 27 23 24 
0.0359064 -0.313678 1.82228 71 68 63 
0.100458 0.124249 1.73907 73 71 72 
-0.105139 -0.39565 1.83783 51 47 44 
-0.184778 0.611794 1.69092 65 61 60 
-0.0901919 0.219879 1.69562 28 24 21 
-0.0963429 -0.615376 1.92126 79 78 76 
-0.10901 0.222946 1.69981 57 55 56 
-0.159025 0.0352649 1.71529 56 55 53 
-0.149724 -0.0137406 1.70412 82 81 77 
-0.130822 0.606577 1.66763 71 71 71 
0.0980675 0.231453 1.73386 51 49 50 
-0.00579045 0.0685329 1.70228 14 13 11 
-0.155762 -0.283367 1.80661 52 36 36 
-0.012563 -0.096633 1.73442 55 51 50 
-0.0689267 0.0779525 1.70265 52 51 49 
-0.00832494 0.0298728 1.69826 38 36 37 
-0.0510338 0.0170327 1.69209 30 26 25 
-0.0780049 0.049423 1.69358 57 56 54 
-0.0699959 0.310099 1.68648 73 71 72 
-0.0219146 -0.0136116 1.6895 71 69 72 
-0.080123 0.897935 1.54973 74 71 62 
-0.20477 -0.0647022 1.7702 48 44 43 
-0.0777598 0.296543 1.69007 62 60 61 
-0.177897 0.48635 1.69417 54 54 56 
-0.204333 0.723397 1.71537 30 32 29 
-0.188957 0.0713303 1.73068 49 49 49 
-0.120834 0.346654 1.69384 56 56 56 
0.00494954 -0.199499 1.7727 80 76 73 
-0.119314 -0.45647 1.87498 64 60 57 
-0.107385 -0.233801 1.77443 47 44 39 
-0.12094 0.346775 1.69365 56 56 56 
-0.0109065 -0.350185 1.8272 56 52 43 
-0.106082 0.743219 1.64839 50 49 47 
-0.116086 0.347262 1.69484 70 68 69 
-0.0990255 -0.0117516 1.68945 85 84 80 
-0.111945 0.0325052 1.70007 50 48 49 
-0.0509705 0.0518515 1.69123 59 57 58 
-0.244215 0.0703769 1.77872 14 14 14 
0.0974922 0.114691 1.74132 65 65 65 
-0.105791 0.743582 1.64881 51 50 48 
-0.0749383 0.818102 1.62838 32 30 31 
-0.120978 -0.125176 1.7429 48 47 45 
-0.164369 0.0519867 1.71752 56 55 53 
-0.14096 0.334925 1.70402 49 48 46 
-0.220852 0.828197 1.69406 61 59 47 
-0.086254 0.100405 1.70335 52 51 49 
-0.113532 -0.107556 1.73329 54 53 51 
-0.0765901 0.155929 1.69982 29 25 24 
-0.139316 0.046757 1.70786 32 30 31 
-0.0136686 -0.136498 1.74839 31 29 30 
-0.0810999 -0.21837 1.76313 53 49 46 
-0.105844 -0.00171732 1.70003 19 18 14 
-0.130932 0.173267 1.71105 53 51 52 
-0.0217548 -0.34818 1.82002 43 39 30 
-0.0586015 -0.304143 1.79789 69 65 62 
-0.138922 0.0467989 1.70851 31 29 30 
-0.243143 0.0610371 1.77751 49 49 49 
-0.191281 0.370273 1.72912 34 30 29 
-0.149683 -0.319518 1.80346 67 63 60 
-0.168527 0.0534005 1.71934 45 44 42 
-0.20362 0.611942 1.70649 37 33 32 
-0.0223916 -0.301565 1.80392 60 56 53 
-0.0741394 0.264508 1.68994 36 34 35 
0.0131771 0.118982 1.70763 46 44 45 
-0.0660002 0.0275968 1.69333 50 49 47 
-0.150803 0.0415289 1.71137 58 57 55 
-0.164653 -0.154026 1.78722 36 34 35 
-0.0461856 -0.136167 1.74421 44 43 41 
-0.0564861 -0.0405627 1.69732 55 54 52 
-0.16685 -0.234237 1.81364 19 17 18 
-0.150464 -0.00477179 1.70728 49 48 46 
-0.0813199 -0.175516 1.74841 66 65 63 
-0.138194 0.0266059 1.70732 58 57 55 
-0.132806 0.0225977 1.70555 46 45 43 
-0.0478319 0.195303 1.69442 45 43 44 
-0.123255 -0.222702 1.77988 63 60 55 
-0.00208209 -0.153228 1.75756 43 42 40 
-0.0772623 -0.286205 1.78695 81 78 73 
-0.126179 0.363836 1.69732 49 45 44 
-0.100828 0.0673016 1.69647 53 52 50 
-0.0675349 0.0260151 1.69321 55 54 52 
-0.495339 0.916353 2.77 15 14 10 
-0.103149 0.0403024 1.69749 54 52 53 
-0.012696 -0.137009 1.74983 36 34 35 
-0.176556 0.39549 1.71497 54 54 52 
-0.0576608 -0.0164803 1.69084 79 79 79 
-0.0659019 0.245629 1.69095 23 21 22 
-0.0168238 0.00393392 1.69599 52 46 48 
-0.150408 0.713825 1.67034 58 59 61 
-0.067582 0.272932 1.69219 21 19 20 
-0.14955 -0.221821 1.7993 77 76 72 
-0.0174189 -0.00878553 1.68671 31 27 28 
-0.225249 0.661338 1.72892 50 46 45 
-0.125417 0.135231 1.71096 28 26 27 
-0.0302704 0.755206 1.63902 31 29 30 
-0.177921 -0.249869 1.82099 43 37 37 
-0.159464 0.267686 1.7164 34 32 33 
-0.184893 0.577022 1.69474 75 75 75 
-0.0715725 -0.0128167 1.68529 78 76 77 
-0.0746167 0.166882 1.69772 32 30 31 
-0.071896 -0.0126527 1.68511 78 76 77 
-0.0222396 0.0517969 1.69256 58 56 59 
-0.0530657 0.164627 1.69823 55 54 52 
-0.0637856 0.5098 1.67547 46 42 41 
-0.121605 0.254125 1.70254 54 52 53 
-0.198134 -0.027222 1.73661 41 37 28 
-0.0901637 0.895537 1.55602 37 35 23 
-0.143661 -0.183904 1.77755 46 45 43 
-0.0684602 0.144803 1.69807 51 50 48 
-0.187911 0.00658469 1.73291 48 47 45 
-0.191802 0.0621114 1.73476 39 35 34 
-0.0112142 0.226802 1.69649 45 43 44 
-0.123969 -0.0936762 1.72818 83 83 85 
-0.101602 0.825874 1.62915 31 30 28 
-0.197657 -0.0273827 1.73748 42 37 31 
-0.113242 0.0519027 1.69773 72 67 71 
-0.112493 0.0518714 1.69893 57 52 56 
-0.149568 -0.221961 1.79927 77 76 72 
-0.0647705 0.314547 1.68457 53 51 52 
-0.130606 0.342416 1.69968 28 28 28 
-0.181198 0.143156 1.73606 67 65 66 
-0.142829 -0.0205748 1.70756 78 74 71 
-0.171553 0.271976 1.72175 56 54 55 
-0.112519 -0.0240798 1.69727 70 66 63 
-0.084622 0.479699 1.67753 34 33 31 
-0.133153 0.00397767 1.70695 49 48 46 
-0.166673 0.57518 1.68269 60 59 57 
-0.112306 0.0546698 1.69798 50 48 49 
-0.103105 0.0404152 1.69756 54 52 53 
-0.119733 0.0111501 1.70104 43 42 40 
-0.0429712 0.599842 1.66756 58 57 55 
-0.033107 0.0976863 1.70252 34 32 33 
-0.0909556 0.81295 1.635 25 23 24 
0.030128 0.0249456 1.70653 45 44 42 
-0.0503189 0.142895 1.69991 53 53 53 
-0.0908082 0.743081 1.64733 30 29 27 
-0.0395149 0.0610554 1.69254 36 35 33 
-0.225941 0.669723 1.7261 45 41 42 
-0.107335 0.154802 1.70447 43 43 43 
-0.111508 0.0546221 1.69926 47 45 46 
-0.22668 0.669036 1.72473 50 48 49 
-0.135747 -0.282888 1.79224 54 53 49 
-0.0735403 -0.228723 1.7708 37 36 32 
-0.0437537 0.188673 1.69625 42 41 39 
-0.185507 -0.279226 1.82405 51 51 51 
-0.135603 0.030067 1.70819 57 56 54 
-0.0437638 0.188598 1.69624 42 41 39 
0.936038 1.84433 8.22577 43 43 41 
-0.0867232 0.825229 1.62403 33 32 30 
-0.156631 0.0083304 1.71591 46 45 41 
-0.114218 0.158335 1.7055 58 57 55 
-0.0854274 0.431431 1.68127 42 41 39 
-0.169866 -0.04918 1.73526 71 66 62 
-0.0354231 0.00365572 1.69462 58 54 53 
-0.0388826 0.200046 1.69575 40 36 35 
-0.0587146 0.768577 1.63303 25 24 22 
-0.0976323 0.715082 1.6517 32 30 31 
-0.125604 0.229557 1.70419 59 57 58 
-0.0383797 0.201974 1.69598 13 7 7 
-0.0454918 0.598743 1.66959 51 50 48 
-0.119315 0.846545 1.6111 29 23 23 
-0.0553269 0.0134874 1.69379 59 53 53 
-0.0196545 -0.00209671 1.69092 18 17 15 
-0.166221 0.275932 1.71895 63 61 62 
-0.0603225 -0.228294 1.77253 39 38 36 
-0.0699121 0.000323406 1.68995 23 19 18 
-0.189484 0.193439 1.73978 63 58 54 
-0.101063 0.248044 1.69853 36 34 35 
-0.112194 -0.0263843 1.69582 52 47 44 
-0.0717492 0.0259444 1.69476 58 57 55 
-0.118489 0.355641 1.69649 34 32 33 
-0.103003 0.705159 1.6476 46 45 43 
-0.150828 0.029185 1.71307 45 44 42 
-0.073825 0.199881 1.69649 18 16 17 
-0.0921903 -0.00797853 1.68858 44 43 38 
-0.0549904 0.10941 1.70057 58 57 55 
-0.0485233 -0.138559 1.7516 48 46 47 
-0.0962794 0.288007 1.69197 42 38 37 
-0.0434652 -0.000862818 1.69338 32 31 29 
0.0198749 -0.0637244 1.71979 84 79 76 
-0.160176 0.00446372 1.7154 49 48 46 
-0.156644 0.617379 1.67247 74 73 71 
-0.100052 0.566124 1.67526 25 24 22 
-0.146071 0.0155844 1.71065 51 50 48 
-0.171641 -0.00814553 1.71379 61 61 61 
0.0104925 0.223108 1.7022 27 25 26 
-0.112036 -0.0265069 1.69608 52 47 44 
-0.0144861 -0.0215844 1.69077 67 65 66 
-0.116223 0.698078 1.65645 26 24 25 
-0.0486855 0.885499 1.5709 58 57 53 
-0.187258 -0.137506 1.79164 45 43 44 
-0.140438 -0.112063 1.7571 56 50 52 
-0.121078 -0.286147 1.78312 51 50 45 
-0.050273 0.440863 1.67707 45 43 44 
-0.0148425 0.594522 1.67046 40 36 35 
-0.0711964 0.129474 1.70213 55 53 54 
-0.165512 -0.022118 1.71831 79 77 78 
-0.0768531 0.100976 1.70352 30 29 27 
-0.167893 0.84439 1.61198 59 56 47 
-0.0886334 0.355787 1.68598 30 30 28 
-0.164502 0.670441 1.6904 20 19 24 
