# .PCD v0.7 - Point Cloud Data file format
VERSION 0.7
FIELDS x y z rgb
SIZE 4 4 4 4
TYPE F F F U
COUNT 1 1 1 1
WIDTH 147
HEIGHT 1
VIEWPOINT 0 0 0 1 0 0 0
POINTS 147
DATA ascii
2.1850801 -2.4135101 18.028601 3553847
2.148 -2.37532 18.120899 4803918
2.1640699 -2.3659101 18.129999 4343367
2.54357 -2.2725699 17.5012 2962225
2.52266 -2.2425499 17.496799 3356471
2.52161 -2.2430201 17.5012 3356471
2.52057 -2.24349 17.5058 3356471
2.14766 -2.31637 18.233999 4343365
2.5214 -2.2041299 17.4118 3619642
2.5176499 -2.20575 17.4272 3619643
2.52754 -2.1877601 17.2903 3488055
2.99666 3.8956001 21.506701 5724246
2.99792 3.9309599 21.513599 5790038
3.00178 3.95998 21.4891 6118747
2.99225 3.9937301 21.4694 5921370
2.3461399 -2.5246201 17.885401 2434851
2.3796899 -2.52899 17.859301 2434852
2.33915 -2.50646 17.820999 2632230
2.3879499 -2.4841299 17.7596 2171679
2.3907101 -2.5030999 17.842899 2895661
2.49087 -2.46544 17.6532 2303524
2.50227 -2.4813399 17.6999 1974558
2.50388 -2.47772 17.697399 1974558
2.3181801 -2.4700799 17.830999 3421746
2.37518 -2.4674399 17.704901 2566438
2.4870701 -2.4482601 17.697901 1842714
2.4886899 -2.4446399 17.695499 1842714
2.30284 -2.43663 17.827499 3684919
2.3085001 -2.46065 17.8461 3487283
2.3085001 -2.46065 17.8461 3487283
2.336 -2.43997 17.7894 3355953
2.36731 -2.4477999 17.768801 3027245
2.4749401 -2.4329 17.6549 2698282
2.2133601 -2.43187 17.945801 3356211
2.4572401 -2.39568 17.655199 2435107
2.4885499 -2.4036901 17.632401 2171935
2.28672 -2.4035699 17.826599 3553589
2.3175399 -2.40255 17.7897 3750711
2.36678 -2.3949499 17.818001 2500644
2.3961999 -2.40288 17.797501 2435107
2.4721301 -2.3657999 17.627501 2566693
2.2985401 -2.3654101 17.792 3158574
2.4008601 -2.3364 17.6451 1448211
2.4426899 -2.35467 17.6514 2435363
2.47928 -2.32166 17.5357 2237985
2.4937799 -2.3350599 17.5679 2303523
2.4247501 -2.32023 17.651199 2435364
2.4908299 -2.2962201 17.516701 2171936
2.3899901 -2.28913 17.5478 2237728
2.4638901 -2.2892101 17.5352 2566950
2.37448 -2.25371 17.5425 3356210
2.44965 -2.2565501 17.532 3093295
2.47721 -2.26336 17.5105 2632744
2.41026 -2.23575 17.629299 2369571
2.3875799 -2.2258799 17.5182 3290674
2.41026 -2.23575 17.629299 2369571
2.48878 -2.23822 17.492201 2895915
2.4860599 -2.2193999 17.414 2764330
2.4186699 -2.1923399 17.5278 3882812
2.4039199 -2.1472499 17.4715 2698793
2.4589801 -2.1533501 17.4891 3422261
2.5313101 -2.4848599 17.6782 1185298
2.2541201 -2.4679799 17.9603 2237474
2.2572501 -2.4217701 17.868 2500901
2.2823801 -2.33252 17.792 2961452
2.51565 -2.24525 17.4732 2829610
2.4981799 -2.1928201 17.383101 4014400
2.5397201 -2.2234399 17.558701 2566953
2.47102 -2.1872499 17.414 3685432
2.5092299 -2.16065 17.3361 3356467
2.4983301 -2.1549699 17.426701 3027502
2.53654 -2.15997 17.6619 2041121
2.5253999 -2.1538601 17.651501 2238244
2.50723 -2.13923 17.616699 2830637
2.5146899 -2.14275 17.6152 2698795
2.5226099 -2.13274 17.705799 2041377
3.0520899 3.67149 21.717699 7894899
2.9797101 3.66113 21.5063 6250075
3.0032699 3.67907 21.580999 7829108
3.03475 3.69806 21.621 11908531
3.0708499 3.7053101 21.6618 6381660
3.0815001 3.7165501 21.719 6052955
2.9955299 3.7116699 21.5499 6644833
3.05247 3.73384 21.643801 8223866
3.0258701 3.72367 21.5828 12435132
3.07919 3.7511499 21.673599 6644577
2.9906001 3.73896 21.489401 6381404
3.04338 3.75752 21.5891 9869206
3.0654399 3.78316 21.624399 7697519
3.0071101 3.7885599 21.523899 7763573
3.03688 3.8008299 21.558901 11842996
3.06604 3.8150699 21.6222 6381918
2.9979401 3.8215201 21.4963 5921111
3.0725701 3.83044 21.6152 5987160
2.9760101 3.83728 21.4839 6579039
3.0050499 3.839 21.487 6908262
3.02634 3.83635 21.5254 13553612
3.0431399 3.86041 21.5516 10592930
3.07341 3.85695 21.573799 6250333
2.9828501 3.8683701 21.505199 6052696
3.0141599 3.865 21.484301 9211018
3.0437901 3.89151 21.538799 11119272
3.0735199 3.8856699 21.548401 6710369
3.08406 3.9201801 21.5243 6052955
2.9780099 3.9424 21.4342 6249817
3.0302 3.9700799 21.490999 13027525
3.06196 3.95469 21.4732 7960954
3.0933599 3.9506299 21.466299 6118747
3.05018 3.98367 21.4681 10461601
3.08023 3.98332 21.480101 5987418
3.09271 3.9815199 21.446899 5723731
2.9818001 4.01862 21.445801 6184281
3.0213599 4.0021 21.462299 11514030
3.0643101 4.01299 21.415501 7632242
2.9833 4.0511599 21.4541 6184284
3.01281 4.0525198 21.4526 12237755
3.0475399 4.0490599 21.431801 11645618
2.98599 4.0805101 21.447001 6118747
3.02859 4.0757198 21.434999 13817044
3.06498 4.0704598 21.4044 7960693
3.02829 4.1052399 21.4266 13750995
3.0929301 4.07516 21.3944 6316118
2.99559 4.1164699 21.4289 8487294
3.0618501 4.1020999 21.366699 8881797
3.0776999 4.10953 21.3986 7302761
2.98908 4.1540599 21.459999 6908001
3.0283501 4.1300998 21.393999 13619402
3.0606699 4.15097 21.3958 8026486
3.0924001 4.1310701 21.305599 6841948
3.00896 4.1799798 21.414101 10066322
3.0805099 4.1721601 21.368401 6908000
2.9988999 4.2216101 21.392 7105116
2.22844 -2.4033899 17.9261 3685433
2.26057 -2.4122601 17.8995 2435109
2.2455699 -2.37393 17.896799 3158832
2.2254 -2.35672 17.8871 3882814
2.2534201 -2.3247499 17.7157 4409159
2.2441599 -2.3023601 17.7078 4606538
2.2445199 -2.30585 17.870399 3685176
2.51689 -2.1686699 17.595699 2896173
2.5269699 -2.1802101 17.629999 2896174
3.0422201 4.1620302 21.364401 13947851
3.0499699 4.1731701 21.362 12171184
3.0229499 4.197 21.378 14210762
3.0808001 4.1930199 21.311001 7039067
2.29565 -2.3582499 17.7215 3290418
2.51003 -2.1703801 17.369101 3883070
