ply                 
format ascii 1.0    
element vertex 1287
property float x    
property float y    
property float z    
property uchar red  
property uchar green
property uchar blue 
end_header          
0.291264 -0.0131929 1.43347 28 20 7 
0.22921 -0.0121793 1.37342 100 93 83 
-0.00357818 -0.0103356 1.40467 97 90 80 
0.068679 0.00892495 1.35605 85 80 74 
-0.105775 0.0142868 1.49533 13 10 5 
0.35429 0.0274299 1.46141 18 8 0 
-0.0309797 0.0312134 1.40518 9 4 0 
-0.0924289 0.0359234 1.47577 24 20 11 
0.227186 0.0438463 1.35221 6 0 0 
-0.00633326 0.0652635 1.37215 8 1 0 
0.164522 0.0834153 1.31653 111 105 93 
-0.053673 0.102895 1.41832 13 8 2 
0.259503 0.131038 1.33062 18 8 0 
-0.0554043 0.168 1.38933 14 9 3 
0.100307 0.161737 1.28006 135 131 120 
0.335526 0.212571 1.36437 126 117 102 
-0.0706066 0.223096 1.39466 7 0 0 
-0.0272916 0.253126 1.31629 94 91 86 
0.116695 0.243161 1.25588 25 16 9 
0.174608 0.246473 1.26108 27 24 15 
-0.0790346 0.276299 1.34069 85 81 70 
0.263258 0.267579 1.26766 85 73 57 
0.11087 0.30459 1.23839 108 99 92 
0.163495 0.314656 1.23024 101 98 81 
-0.0604009 0.346484 1.30082 83 76 68 
0.0457915 0.34567 1.242 9 6 0 
0.00854552 0.365941 1.24666 20 15 11 
0.197301 0.362609 1.21189 123 115 104 
-0.0276463 0.387892 1.25432 26 23 16 
0.142593 0.382729 1.19708 14 4 2 
-0.0114264 0.400993 1.23168 118 113 107 
0.13883 0.401254 1.18796 91 84 76 
0.111699 0.405298 1.18895 19 10 5 
0.0917129 0.417733 1.18939 107 97 88 
-0.0151558 0.458145 1.20637 124 118 104 
0.119339 0.437885 1.1348 141 129 115 
-0.0610903 0.46375 1.18032 71 64 54 
-0.0182382 0.473614 1.15532 89 85 76 
0.0576893 0.467659 1.12303 97 95 82 
0.0304264 0.485667 1.13465 98 96 84 
0.119547 0.485618 1.1127 109 101 88 
-0.019592 0.505394 1.1425 153 143 131 
0.0239506 0.495417 1.11007 146 141 121 
0.121509 -1.44716 2.30884 124 117 107 
0.168418 -1.18563 2.10148 134 126 113 
0.168268 -1.1656 2.09424 99 96 89 
0.0886203 -1.08312 2.03163 133 129 117 
0.0818866 -0.877262 1.85255 92 89 84 
-0.0548483 -0.945193 2.0069 58 55 50 
0.0618509 -0.735003 1.73144 137 134 127 
0.22468 -0.45409 1.56733 119 116 111 
0.346076 -0.471679 1.6363 10 7 2 
0.0705845 -0.433968 1.55232 75 70 66 
-0.0136045 -0.437193 1.57276 104 101 96 
-0.0883616 -0.407666 1.65417 57 56 54 
0.146436 -0.36324 1.50549 120 115 111 
-0.0794111 -0.360051 1.60674 113 110 105 
0.00270299 -0.342969 1.54746 92 91 89 
-0.148346 -0.370567 1.70727 65 62 57 
-0.0556592 -0.331946 1.57079 0 1 0 
0.0547426 -0.314429 1.5163 74 70 69 
0.263312 -0.297868 1.50417 88 85 76 
-0.102118 -0.225071 1.58792 5 0 0 
0.0923169 -0.201052 1.43385 108 104 101 
0.101669 -0.182141 1.41597 85 80 76 
-0.0125917 -0.183991 1.48842 93 88 82 
0.000808519 -0.174579 1.47449 125 121 118 
-0.139334 -0.186354 1.65226 8 4 1 
-0.115143 -0.173297 1.59023 14 9 5 
0.0649588 -0.0989999 1.4085 11 8 3 
0.0314942 -0.0666531 1.41825 119 114 110 
-0.114513 -0.0211727 1.5445 7 2 0 
0.32593 0.0012582 1.44287 9 0 0 
0.0540861 0.0679958 1.34667 94 91 86 
0.208525 0.0666196 1.3338 146 137 122 
-0.0484458 0.0800205 1.41066 120 115 109 
0.242307 0.0953017 1.32212 9 5 0 
0.126565 0.108679 1.30149 119 112 102 
0.283555 0.118651 1.36996 41 33 22 
-0.162967 0.157845 1.57442 69 64 60 
0.24356 0.162799 1.3097 22 10 0 
0.11001 0.164343 1.28891 93 84 75 
0.288293 0.18494 1.34479 126 120 108 
0.175496 0.222267 1.26925 97 90 84 
0.27646 0.245941 1.28104 16 7 0 
0.269106 0.268307 1.28111 125 119 105 
0.229385 0.275356 1.28364 83 79 70 
0.301039 0.286596 1.2941 103 95 84 
0.135374 0.358272 1.22674 138 131 121 
0.138564 0.36192 1.2095 148 139 130 
-0.0512457 0.408971 1.25058 16 9 1 
-0.0951764 0.465256 1.2693 116 107 98 
0.00204305 0.462836 1.14937 18 14 5 
0.105394 0.264824 0.55532 134 122 106 
0.150018 -1.63036 2.39997 56 55 53 
0.0966704 -1.5778 2.44158 126 117 102 
-0.0127815 -0.626788 1.69649 24 21 12 
-0.0332237 -0.625795 1.71521 130 123 113 
-0.0244917 -0.60379 1.66515 25 17 6 
-0.035039 -0.609801 1.69749 26 16 6 
0.0999909 -0.448519 1.52651 100 92 89 
-0.0273424 -0.471134 1.60906 30 25 21 
-0.0804882 -0.462173 1.66195 1 0 0 
0.276273 -0.425398 1.58033 110 101 92 
0.0711288 -0.358448 1.54322 10 8 0 
0.204501 -0.0723141 1.37837 5 1 0 
0.00704752 -0.0156269 1.3977 111 108 99 
0.0661456 -0.00135177 1.3635 91 83 70 
0.0294926 0.134865 1.35711 119 110 103 
0.27602 0.188538 1.33483 112 103 88 
0.399612 0.244341 1.44396 34 25 10 
0.185036 0.327276 1.25829 147 139 128 
0.0972678 0.402662 1.19205 21 12 5 
0.0188801 0.459764 1.17173 125 115 106 
0.111826 -0.452466 1.53877 106 101 97 
0.0617132 -0.460441 1.58259 3 3 1 
-0.0121234 -0.427746 1.56061 88 85 80 
0.0309865 -0.430018 1.56519 74 74 66 
0.343431 -0.423 1.64586 80 75 71 
0.33542 -0.405747 1.62984 9 5 4 
-0.0596402 -0.393121 1.61909 1 1 3 
0.0977634 -0.239543 1.4399 100 96 87 
-0.0330107 -0.202406 1.51259 90 85 81 
-0.0745278 -0.204972 1.5514 1 0 0 
-0.0797001 -0.191441 1.56155 84 79 73 
0.300615 0.0427938 1.40096 127 117 105 
0.0563642 0.404681 1.18486 120 111 102 
0.0134631 0.199007 1.33453 19 15 6 
0.0800438 0.204319 1.29096 30 20 18 
-0.000838502 0.261474 1.28965 104 101 96 
-0.0340042 0.277535 1.30103 10 9 5 
-0.0570604 0.283002 1.31479 8 3 0 
0.012148 0.285882 1.27573 39 36 31 
-0.0568797 0.312479 1.30263 6 2 0 
-0.105215 0.335881 1.3404 101 97 88 
-0.155804 0.381377 1.40383 128 121 113 
-0.151711 0.379686 1.38753 136 132 123 
-0.0734829 0.392802 1.26624 27 16 10 
-0.00470247 0.430695 1.19608 140 133 125 
-0.0515582 0.456893 1.16192 171 167 155 
-0.0986536 0.480949 1.18572 153 145 132 
0.0227883 0.312762 1.25848 10 3 0 
-0.0658649 0.37418 1.27799 124 120 111 
-0.0507026 0.448507 1.21438 120 111 104 
-0.112262 0.501164 1.18565 116 108 97 
-0.051016 0.496926 1.13954 117 108 93 
-0.00155952 0.228859 1.32059 161 157 148 
-0.0936806 0.324147 1.33261 18 14 5 
-0.0211471 0.332212 1.27092 25 20 14 
-0.0882587 0.389915 1.28723 162 158 149 
-0.125364 0.439954 1.29205 116 107 98 
-0.120462 0.483266 1.26551 135 125 115 
0.0123852 0.446191 1.13964 119 116 107 
-0.0351234 0.45752 1.15122 96 92 83 
-0.00683921 0.308919 1.26841 155 150 146 
0.00750538 0.316913 1.26518 137 128 121 
0.0281694 0.430281 1.18462 22 13 6 
-0.155778 0.496419 1.315 160 152 141 
-0.0734501 0.465056 1.17097 62 52 42 
-0.0900955 0.502026 1.1687 33 29 17 
-0.0635205 0.498188 1.14935 12 4 0 
0.0261685 0.480835 1.11658 133 126 118 
-0.0270711 0.495325 1.12999 9 0 0 
0.135193 -0.765589 1.77151 123 118 112 
0.212675 -0.754841 1.76766 109 109 101 
0.223029 -0.749572 1.77178 6 1 0 
0.102024 -0.752631 1.76193 63 59 48 
0.252097 -0.736092 1.75945 119 116 109 
0.194605 -0.735985 1.75194 56 55 51 
0.242695 -0.726744 1.75241 111 107 96 
0.271212 -0.721881 1.75217 102 98 86 
0.105194 -0.731627 1.74674 38 34 25 
0.0642027 -0.733704 1.74589 35 30 24 
0.146033 -0.72752 1.74596 138 135 128 
0.0553764 -0.730608 1.74245 103 98 94 
0.274467 -0.712043 1.74633 26 22 13 
0.214264 -0.71352 1.74001 33 32 27 
0.0733479 -0.720668 1.73229 111 107 98 
0.238771 -0.708201 1.74075 101 97 96 
0.224699 -0.705546 1.73677 89 88 86 
0.267581 -0.69396 1.72969 145 143 131 
0.327056 -0.721014 1.82007 55 46 37 
0.209907 -0.691997 1.72514 125 120 116 
0.252941 -0.687344 1.72332 4 0 0 
0.182074 -0.685174 1.71932 48 44 33 
0.072944 -0.687722 1.71068 144 139 135 
0.222801 -0.671987 1.71075 124 120 117 
0.261897 -0.655499 1.69371 102 103 89 
0.236382 -0.656083 1.69675 114 111 106 
0.187903 -0.658192 1.69343 46 43 38 
0.258225 -0.641411 1.68082 57 53 42 
0.179461 -0.644162 1.6775 115 112 107 
0.0731422 -0.646106 1.66766 43 40 31 
0.250181 -0.621175 1.65725 57 50 40 
0.149178 -0.621239 1.64736 45 42 33 
0.14312 -0.596638 1.61262 41 38 33 
0.163747 -0.595588 1.62065 148 136 124 
0.190627 -0.582446 1.60889 113 110 105 
0.0888911 -0.58205 1.60588 103 99 90 
0.0618121 -0.567892 1.5979 71 67 58 
-0.0312368 -0.602847 1.69645 146 144 129 
0.130709 -0.541413 1.58852 87 81 81 
0.208209 -0.531885 1.59137 109 104 101 
0.167861 -0.52127 1.58285 4 1 0 
0.325962 -0.521337 1.63684 104 101 96 
0.269957 -0.512427 1.60814 20 16 7 
0.254123 -0.509028 1.59799 41 37 28 
0.176712 -0.5017 1.57344 87 82 78 
0.0738757 -0.512357 1.58768 32 28 25 
0.251133 -0.500625 1.59357 40 37 28 
0.383485 -0.511823 1.69023 11 6 2 
0.234563 -0.486469 1.58141 36 25 19 
0.283148 -0.488852 1.60284 38 35 28 
0.331546 -0.489533 1.63374 22 18 17 
0.307939 -0.482139 1.61605 129 127 115 
0.377102 -0.493471 1.67371 132 127 123 
0.0107387 -0.5013 1.61132 43 32 28 
0.29605 -0.476917 1.60798 11 7 0 
0.166025 -0.471427 1.56407 87 84 75 
0.386347 -0.486708 1.67889 24 21 14 
0.17537 -0.467882 1.56074 132 122 113 
-0.0745639 -0.516223 1.68012 5 0 0 
0.369879 -0.476824 1.65812 39 36 29 
0.408128 -0.485922 1.70534 130 125 121 
0.140192 -0.461318 1.55601 86 82 79 
0.283306 -0.461122 1.59325 16 7 0 
0.309192 -0.461502 1.61018 22 21 16 
-0.0657453 -0.500633 1.66869 6 6 4 
0.323822 -0.458883 1.61599 41 38 33 
0.253858 -0.452615 1.57644 15 11 2 
0.275896 -0.453802 1.58629 114 109 105 
0.391588 -0.469625 1.67933 12 7 4 
0.224083 -0.45105 1.564 50 43 37 
0.162761 -0.448455 1.55259 29 26 21 
0.15095 -0.447287 1.55076 12 7 3 
0.195084 -0.443893 1.55656 33 30 21 
0.239627 -0.440574 1.56358 30 27 22 
0.278693 -0.443324 1.58747 109 106 99 
0.249331 -0.437702 1.5663 51 48 43 
0.262011 -0.43722 1.57184 28 25 18 
0.342106 -0.444105 1.62345 20 17 12 
0.366972 -0.446754 1.64758 4 0 0 
-0.125463 -0.497564 1.72889 24 21 14 
-0.0834407 -0.482084 1.6771 72 71 67 
0.196346 -0.430978 1.55137 26 22 13 
0.248288 -0.428421 1.56191 103 99 90 
0.210919 -0.427267 1.54896 107 104 99 
0.379484 -0.441881 1.65757 3 0 0 
0.26586 -0.427476 1.57023 64 61 56 
0.129928 -0.428447 1.54481 20 16 7 
0.217898 -0.420633 1.55232 89 84 80 
0.0849905 -0.428251 1.55008 5 2 0 
0.252652 -0.418885 1.55952 108 105 96 
-0.109729 -0.475931 1.7032 75 71 68 
0.343889 -0.424637 1.619 102 97 91 
0.392014 -0.431752 1.66805 106 101 98 
0.129936 -0.414837 1.54067 108 108 98 
0.148509 -0.408253 1.53667 18 14 5 
0.106303 -0.410259 1.53991 14 10 0 
0.129852 -0.404191 1.52809 21 21 13 
0.222187 -0.398717 1.54125 19 16 9 
0.188047 -0.397769 1.53521 36 31 25 
0.107056 -0.399046 1.5334 126 123 116 
0.232964 -0.392103 1.54124 117 114 105 
0.0842704 -0.397318 1.53567 102 97 93 
0.166532 -0.390518 1.52965 92 92 84 
0.437642 -0.415116 1.72349 91 84 78 
0.199611 -0.38709 1.53095 114 111 106 
0.259096 -0.38836 1.55475 32 29 24 
0.270504 -0.387226 1.55356 99 96 89 
0.140178 -0.387944 1.52617 125 122 117 
0.307021 -0.391635 1.60148 111 105 93 
0.0391103 -0.400124 1.57372 83 79 80 
0.204472 -0.377787 1.52687 91 88 83 
0.288946 -0.382147 1.58147 126 117 108 
0.32669 -0.385826 1.61068 6 0 0 
0.333307 -0.386944 1.61937 88 81 73 
0.139278 -0.376594 1.51964 10 7 2 
0.207702 -0.366701 1.51695 120 116 113 
0.379778 -0.384731 1.66319 32 29 20 
0.329103 -0.375839 1.6095 8 4 0 
0.298564 -0.371116 1.58601 148 138 128 
-0.0233725 -0.39107 1.60762 88 84 81 
0.101124 -0.364613 1.51789 53 48 44 
0.229253 -0.35851 1.52786 40 35 32 
0.268731 -0.35494 1.53616 6 0 0 
0.0907995 -0.36175 1.52064 53 48 44 
0.336205 -0.362158 1.61191 14 11 2 
0.186779 -0.351032 1.51234 136 129 121 
0.206628 -0.349675 1.51718 116 112 103 
0.326143 -0.359302 1.60514 31 22 13 
-0.08934 -0.400171 1.67789 90 86 83 
-0.0207354 -0.380372 1.60447 10 9 7 
0.012677 -0.37294 1.57795 7 3 2 
0.3794 -0.363683 1.65423 140 132 121 
0.140662 -0.350145 1.50903 59 54 48 
0.0928605 -0.349859 1.51698 11 6 0 
0.198166 -0.339983 1.51114 141 132 123 
0.26374 -0.339461 1.53064 101 92 85 
0.372723 -0.354374 1.64323 143 135 122 
0.243467 -0.338948 1.52221 108 104 95 
0.330099 -0.345167 1.59876 103 95 84 
0.349999 -0.345696 1.61296 112 104 93 
0.221198 -0.333396 1.51044 117 112 106 
-0.0462641 -0.370157 1.62144 114 110 107 
0.264144 -0.329663 1.52713 95 91 79 
0.237305 -0.329408 1.51711 19 16 9 
-0.0850394 -0.376955 1.66385 94 93 89 
0.408827 -0.350344 1.69046 31 25 11 
0.359615 -0.339373 1.61849 37 29 18 
0.36603 -0.339746 1.62715 39 31 20 
0.344446 -0.336731 1.60701 130 120 111 
0.384737 -0.341898 1.65323 29 25 14 
-0.0408092 -0.360664 1.61527 6 3 0 
0.206589 -0.323502 1.50552 100 97 90 
0.320614 -0.328851 1.58501 130 120 110 
-0.123157 -0.380012 1.71708 95 91 88 
0.213511 -0.315952 1.50479 119 108 104 
0.396522 -0.331568 1.66094 129 125 114 
0.303165 -0.320426 1.56797 111 98 89 
0.242045 -0.31313 1.5097 118 109 102 
0.116931 -0.317921 1.49528 102 99 92 
0.326696 -0.318924 1.58513 51 42 33 
0.210385 -0.307905 1.49849 112 105 95 
0.254391 -0.305747 1.51227 131 127 118 
0.242653 -0.299504 1.50451 17 6 0 
0.326992 -0.307165 1.57888 115 106 97 
0.363773 -0.309701 1.61119 40 32 21 
0.369114 -0.302514 1.61583 46 37 28 
0.250063 -0.289879 1.5027 13 4 0 
0.235522 -0.288505 1.49841 111 107 98 
0.39197 -0.302023 1.64358 22 13 4 
0.321286 -0.288329 1.56626 95 87 76 
0.343424 -0.290227 1.58902 11 3 0 
0.3708 -0.291482 1.61113 16 8 0 
0.287019 -0.276398 1.53872 32 22 12 
0.251946 -0.264942 1.49231 13 6 0 
0.33987 -0.260813 1.56932 44 36 25 
0.354273 -0.259588 1.57859 34 26 13 
0.201332 -0.246379 1.46606 5 0 0 
0.187603 -0.246181 1.46851 86 84 72 
0.339999 -0.249221 1.56414 35 23 9 
0.359284 -0.243561 1.57907 47 37 27 
0.209757 -0.238297 1.4715 97 90 80 
0.372249 -0.242296 1.59318 39 31 20 
0.0764277 -0.239898 1.47282 15 12 5 
0.296449 -0.230578 1.52565 11 7 0 
-0.00974171 -0.243134 1.53805 128 125 118 
0.406344 -0.229542 1.63567 134 120 109 
0.339649 -0.222303 1.55013 37 27 17 
0.346932 -0.221345 1.55843 70 57 48 
-0.0596116 -0.243172 1.57996 106 102 99 
0.330211 -0.208993 1.53737 21 11 0 
0.329855 -0.194702 1.53062 130 121 106 
0.406523 -0.199546 1.6228 121 113 102 
0.226704 -0.187352 1.45216 93 86 76 
0.328022 -0.186295 1.52573 45 32 23 
0.361867 -0.187119 1.5588 110 97 81 
0.336937 -0.183266 1.53239 12 0 0 
0.189034 -0.170933 1.43509 85 78 68 
0.407679 -0.173173 1.61036 71 61 51 
0.0837757 -0.167548 1.43908 82 77 73 
0.362238 -0.148395 1.53869 31 16 0 
0.00203871 -0.164483 1.4996 42 39 32 
0.104459 -0.14688 1.42411 30 25 21 
0.288456 -0.135079 1.47601 41 33 22 
0.00278698 -0.150272 1.48608 79 76 71 
0.234748 -0.131913 1.42562 47 39 28 
0.422365 -0.132306 1.61857 46 35 17 
0.329409 -0.125959 1.5024 35 23 11 
0.302495 -0.124996 1.47956 82 72 60 
0.298762 -0.116242 1.47667 44 34 22 
0.25145 -0.114058 1.42616 95 86 79 
0.39945 -0.102457 1.5878 26 11 0 
0.34941 -0.0924014 1.50262 45 33 19 
0.359463 -0.0915642 1.51157 36 21 0 
0.396694 -0.0917889 1.58303 113 95 81 
-0.0202645 -0.107424 1.48488 20 14 2 
0.322976 -0.0820239 1.47815 19 7 0 
0.347976 -0.0792873 1.49315 52 42 33 
0.294038 -0.0619644 1.44923 45 37 24 
0.0858676 -0.0704598 1.39237 10 0 0 
0.352265 -0.0577781 1.49152 30 11 0 
0.385786 -0.0559122 1.55068 119 70 66 
0.0761078 -0.0684962 1.39526 89 82 74 
0.344759 -0.0506636 1.47923 107 92 69 
0.132633 -0.0603173 1.3799 93 88 82 
0.407796 -0.0446646 1.55528 43 27 4 
0.420241 -0.0420134 1.57608 73 58 37 
0.0943187 -0.049556 1.38165 6 2 0 
0.298797 -0.0390945 1.44064 52 42 30 
0.343414 -0.0337307 1.47193 38 23 0 
0.347408 -0.0182711 1.46742 135 122 106 
0.28586 -0.0214618 1.42594 66 56 47 
0.362004 -0.0156582 1.47857 36 23 4 
0.319318 -0.00739153 1.4417 51 37 24 
0.346531 0.0068069 1.45621 14 2 0 
0.290826 0.0038832 1.41312 41 27 16 
0.39467 0.0125669 1.53253 116 99 83 
0.0102898 -0.00251169 1.41802 91 87 78 
0.394896 0.0253323 1.52635 171 153 133 
0.258073 0.0158206 1.37004 17 10 0 
0.425387 0.0305745 1.5534 27 13 0 
0.31858 0.0216963 1.42463 145 135 123 
-0.00541834 0.0062735 1.42187 18 11 3 
0.117632 0.0100541 1.3488 21 16 10 
0.210402 0.0194593 1.35021 19 11 0 
0.304049 0.0336065 1.40946 126 114 100 
0.350042 0.037245 1.44635 45 32 15 
0.288354 0.0331892 1.39885 122 116 100 
0.0380044 0.0261286 1.39026 16 13 6 
0.282118 0.0396457 1.39301 65 56 47 
0.312625 0.0484197 1.40993 35 22 6 
0.358787 0.053083 1.44741 9 0 0 
0.368586 0.0552827 1.45735 120 107 98 
0.398194 0.0607116 1.4917 143 134 119 
0.230275 0.0449691 1.3429 114 104 95 
0.410439 0.0670041 1.50717 104 92 78 
0.301987 0.0565085 1.3981 78 66 52 
0.33758 0.0600514 1.42335 91 79 65 
0.287778 0.0567339 1.3936 76 64 52 
0.155847 0.0467085 1.33043 76 71 65 
0.258234 0.0572744 1.35255 103 95 84 
0.423827 0.0791388 1.52734 167 156 138 
0.38802 0.0740812 1.47162 149 140 123 
0.286461 0.0658428 1.38234 58 50 39 
0.342655 0.0804856 1.41766 49 39 27 
0.403734 0.0892379 1.48829 28 16 2 
0.355785 0.0848178 1.42801 22 14 3 
0.412701 0.0943722 1.50249 10 1 0 
0.304931 0.0818016 1.39162 28 18 6 
0.262506 0.0764369 1.34273 106 96 84 
0.428135 0.103074 1.52591 11 0 0 
0.345781 0.0909809 1.41545 15 5 0 
0.402579 0.100207 1.48205 20 13 0 
0.375103 0.0960728 1.44436 64 55 40 
0.22951 0.0808864 1.32922 14 6 0 
0.110766 0.0774599 1.3195 28 19 12 
0.321922 0.0948407 1.39462 141 131 122 
0.364071 0.103191 1.4278 30 20 8 
0.408198 0.114346 1.48293 148 138 128 
0.376951 0.110854 1.44008 52 42 30 
0.41314 0.117958 1.49068 79 70 53 
0.304485 0.103499 1.37549 153 143 131 
0.389509 0.115713 1.45492 19 9 0 
0.168347 0.0942132 1.31304 114 106 93 
0.283921 0.10439 1.36239 12 8 0 
0.398567 0.120713 1.46592 53 45 32 
0.354886 0.115155 1.4137 25 13 0 
0.384281 0.120308 1.44571 127 117 107 
0.0896185 0.0942795 1.31367 123 114 105 
0.415375 0.128935 1.48765 63 54 37 
0.244936 0.1064 1.32282 48 39 24 
0.346511 0.119518 1.40328 14 4 0 
0.378526 0.125863 1.43254 85 75 63 
0.365743 0.126238 1.4171 131 122 113 
0.389279 0.130462 1.44666 57 48 33 
0.309918 0.11955 1.37284 57 45 29 
0.204657 0.108528 1.30969 36 24 12 
0.226656 0.110744 1.31698 19 11 0 
0.283417 0.117652 1.35745 30 20 10 
0.425722 0.144105 1.50222 24 12 0 
0.371002 0.135759 1.4205 51 39 25 
0.317176 0.12856 1.37383 139 129 117 
0.136243 0.11391 1.30273 136 131 112 
0.236729 0.122035 1.31354 138 128 116 
0.2859 0.129968 1.35117 50 43 35 
0.329661 0.137197 1.37672 100 91 76 
0.263983 0.129546 1.31886 53 43 34 
0.378373 0.147917 1.42381 32 19 3 
0.338541 0.142615 1.38187 123 113 103 
0.236156 0.130807 1.30748 15 8 0 
0.397401 0.155477 1.44441 21 12 0 
0.224873 0.13105 1.3027 37 33 24 
0.389694 0.155191 1.43353 161 151 139 
0.33422 0.148291 1.37459 84 74 62 
0.287451 0.142619 1.34673 12 2 0 
0.425211 0.167546 1.48629 40 29 11 
0.18941 0.134027 1.30223 119 105 92 
0.341785 0.152061 1.38012 126 116 104 
0.37146 0.157682 1.41018 109 100 85 
0.211204 0.137406 1.29988 52 39 20 
0.260275 0.141558 1.31096 32 22 12 
0.361012 0.157738 1.39924 124 118 106 
0.201229 0.139729 1.2981 73 62 42 
0.0271696 0.139972 1.34185 22 18 9 
0.222141 0.143519 1.2982 53 44 29 
0.244668 0.145905 1.30672 102 92 80 
0.289042 0.152335 1.34139 30 20 10 
0.322827 0.157491 1.3647 40 31 16 
0.351043 0.165035 1.38277 38 31 15 
0.365285 0.171275 1.39586 135 123 111 
0.416931 0.185167 1.46763 41 31 19 
0.219216 0.152619 1.29303 25 18 10 
0.258638 0.157149 1.30297 24 20 8 
0.296538 0.165124 1.34269 53 41 27 
0.324194 0.169132 1.35973 162 150 136 
0.349243 0.175621 1.37822 129 115 102 
0.105356 0.152037 1.28491 111 107 96 
0.242822 0.161355 1.29521 20 6 0 
0.423879 0.194966 1.47294 51 41 29 
0.21458 0.161403 1.28819 114 107 91 
0.22867 0.162276 1.29066 39 29 19 
0.372817 0.184151 1.39725 62 53 38 
0.330417 0.178456 1.35948 138 126 114 
0.283306 0.173089 1.33355 43 37 25 
0.365795 0.187429 1.38995 26 14 0 
0.307552 0.178785 1.34247 155 146 131 
0.118425 0.162111 1.27961 43 39 28 
0.355707 0.187133 1.3778 126 116 106 
0.296843 0.178861 1.3348 71 65 51 
0.32119 0.182098 1.35006 154 142 128 
0.34926 0.188025 1.37057 141 133 122 
0.282219 0.179114 1.32514 129 125 113 
0.374252 0.194615 1.39832 168 156 142 
0.204749 0.172183 1.28212 50 42 23 
0.232385 0.174879 1.28643 131 122 105 
0.364593 0.195699 1.38341 40 30 18 
0.399905 0.206032 1.42585 8 1 0 
0.11582 0.171753 1.2783 16 7 0 
0.325538 0.19265 1.34998 30 27 12 
0.256683 0.18213 1.29106 9 0 0 
0.378797 0.204017 1.39599 52 43 28 
0.0618467 0.176919 1.31038 92 87 84 
0.357129 0.200576 1.37379 130 121 104 
0.267564 0.185079 1.29418 56 48 37 
0.335097 0.198206 1.35382 70 61 46 
0.219372 0.181561 1.28149 119 109 97 
0.294754 0.194547 1.32754 120 110 100 
0.237339 0.185667 1.28211 144 134 122 
0.346898 0.20307 1.35862 72 60 46 
0.252043 0.189865 1.28597 54 45 30 
0.304312 0.200786 1.3311 52 45 29 
0.207879 0.188482 1.27351 45 34 12 
0.191271 0.188311 1.27091 106 96 86 
0.228188 0.191209 1.2781 22 14 1 
0.368534 0.21614 1.38097 32 24 5 
0.218714 0.191805 1.27182 37 28 19 
0.1575 0.188859 1.26761 42 34 23 
0.3465 0.215231 1.35952 39 30 15 
0.196966 0.197024 1.27049 41 31 19 
0.256403 0.201488 1.28048 115 112 97 
0.232809 0.20033 1.27517 36 26 16 
0.130864 0.195231 1.26384 97 93 84 
0.318874 0.215625 1.33511 37 27 15 
0.414263 0.238198 1.43778 29 19 7 
-0.0177308 0.20393 1.34048 91 84 78 
0.332429 0.218924 1.34468 160 148 136 
0.341081 0.220818 1.35056 130 121 106 
0.176787 0.198758 1.26586 25 18 8 
0.216283 0.201766 1.27043 132 124 113 
0.151704 0.199198 1.2615 43 40 25 
0.377106 0.231089 1.38181 106 97 82 
0.309254 0.218247 1.32222 22 13 0 
0.185518 0.203117 1.26316 16 7 0 
0.244711 0.207761 1.27557 145 141 129 
0.361109 0.229034 1.36707 154 140 127 
0.285109 0.217583 1.30297 144 136 123 
0.112405 0.203859 1.26151 17 12 6 
0.320026 0.224479 1.32622 152 142 130 
0.218374 0.212191 1.26724 96 88 77 
0.344805 0.231683 1.3422 134 125 116 
0.23145 0.214477 1.26856 121 113 102 
0.135662 0.208607 1.25594 128 125 120 
0.334174 0.230727 1.33054 108 100 89 
0.280888 0.223151 1.29447 114 106 93 
0.120969 0.209979 1.25708 29 25 16 
0.146269 0.211086 1.25525 64 64 56 
0.161484 0.211545 1.25373 89 76 67 
0.297988 0.226877 1.30222 136 128 117 
0.308737 0.228647 1.30993 149 143 131 
0.408498 0.253363 1.41399 73 60 51 
0.366031 0.241224 1.35539 129 120 105 
0.38195 0.247051 1.37273 59 51 38 
0.174191 0.216286 1.25579 112 108 96 
0.276432 0.228186 1.28362 115 109 97 
0.291125 0.2312 1.29428 123 117 103 
0.109671 0.216568 1.25721 72 64 61 
0.236468 0.223271 1.26358 49 39 29 
0.223549 0.223025 1.2616 68 59 50 
0.0875431 0.219175 1.25936 104 100 91 
0.371927 0.249302 1.35424 144 136 125 
0.26174 0.228836 1.26977 71 61 49 
0.327079 0.239928 1.3121 7 0 0 
0.300866 0.235671 1.29344 157 155 143 
0.311179 0.237654 1.30235 22 16 4 
0.343257 0.245219 1.32624 15 8 0 
0.178483 0.225973 1.25412 26 20 6 
0.191873 0.227607 1.25534 99 89 80 
0.209846 0.228324 1.25651 115 106 97 
0.355836 0.25085 1.32954 38 32 18 
0.00831833 0.230364 1.29537 121 118 113 
0.163699 0.227548 1.24808 42 38 29 
0.341476 0.249595 1.31736 106 100 88 
0.242932 0.234724 1.26127 123 115 104 
0.329702 0.250013 1.30774 16 6 0 
0.0857045 0.230002 1.25158 95 92 87 
0.36784 0.259844 1.33694 144 134 122 
0.375775 0.261935 1.34505 82 69 60 
-0.0215934 0.245115 1.31264 24 21 16 
0.300439 0.252027 1.27884 82 72 62 
0.341943 0.260213 1.31055 20 11 0 
0.175432 0.239686 1.24463 16 11 5 
0.0451739 0.239973 1.26553 16 13 8 
0.14721 0.238902 1.24231 148 144 135 
0.247359 0.246516 1.257 116 106 96 
0.287337 0.250843 1.26979 40 36 24 
0.119854 0.239347 1.24404 143 141 129 
0.402306 0.277116 1.36742 142 136 124 
0.26911 0.249627 1.26313 100 92 81 
0.350315 0.263631 1.31454 146 134 122 
0.1597 0.241717 1.24183 99 95 86 
0.322367 0.258804 1.28917 75 69 55 
0.410778 0.281297 1.3735 46 36 24 
0.257667 0.252061 1.26158 48 40 29 
0.134217 0.242734 1.23972 10 8 0 
0.39295 0.278152 1.35604 40 32 19 
0.370137 0.271968 1.32708 89 77 65 
0.341147 0.267282 1.30238 108 100 87 
0.296217 0.261488 1.27552 93 89 77 
0.388967 0.280749 1.34343 33 25 12 
0.221708 0.253222 1.24773 37 29 18 
0.0630944 0.24852 1.25112 81 78 73 
0.305433 0.264794 1.28123 41 35 21 
0.240901 0.256254 1.25129 21 13 2 
0.427796 0.297764 1.39727 135 125 113 
0.111284 0.251418 1.23986 104 100 89 
0.183808 0.254431 1.24114 50 46 35 
0.377687 0.28285 1.33039 135 121 108 
0.141402 0.252948 1.23624 90 80 71 
0.175721 0.257356 1.23583 99 95 83 
0.34139 0.279057 1.299 21 17 6 
-0.0162769 0.262635 1.28607 4 3 0 
0.129422 0.257719 1.23524 77 73 64 
0.199703 0.263231 1.24367 92 89 80 
0.254887 0.268984 1.25164 162 155 137 
0.229293 0.266466 1.24306 66 62 50 
0.214717 0.266082 1.24156 14 10 0 
0.366302 0.292178 1.31846 129 119 109 
0.388343 0.297589 1.33643 40 31 14 
0.358096 0.290286 1.30887 28 16 2 
0.0722031 0.263897 1.23969 107 107 97 
0.325244 0.287186 1.28347 146 139 123 
0.16529 0.268743 1.22947 111 105 93 
0.292373 0.282348 1.26432 117 107 98 
-0.0387184 0.277352 1.29415 16 15 11 
0.0992231 0.267439 1.23128 21 16 10 
0.154061 0.270459 1.22881 27 20 14 
0.220605 0.275704 1.24006 125 117 114 
0.0111857 0.273417 1.26106 63 64 59 
0.209969 0.275557 1.23881 41 39 27 
0.12069 0.270244 1.23032 106 103 94 
0.377906 0.304789 1.32494 62 53 36 
0.386732 0.308835 1.33137 123 111 95 
-0.0901937 0.294364 1.34172 19 16 9 
-0.0131241 0.280512 1.27329 33 32 28 
0.311431 0.293372 1.27183 52 44 31 
0.364971 0.304544 1.3098 52 46 30 
0.134669 0.277222 1.22729 87 83 74 
0.230713 0.283439 1.23801 43 35 24 
0.342252 0.302332 1.29137 48 39 24 
0.204451 0.283963 1.2303 23 19 7 
0.172411 0.282655 1.22516 32 28 17 
0.329537 0.302303 1.28004 26 16 6 
0.357942 0.31023 1.30279 6 0 0 
0.31681 0.302162 1.27162 104 100 88 
-0.0427008 0.295272 1.29143 82 79 74 
0.388404 0.321042 1.3289 48 39 22 
0.401094 0.325474 1.34302 39 30 15 
0.269992 0.297102 1.24724 114 107 97 
0.350927 0.312958 1.29663 53 39 26 
0.308835 0.305581 1.26702 30 22 9 
0.280304 0.300676 1.2507 8 1 0 
0.261192 0.298557 1.24297 124 118 104 
0.145329 0.289068 1.2213 30 26 17 
0.225146 0.29476 1.22967 128 120 109 
0.240683 0.296557 1.23551 123 113 101 
0.119911 0.28984 1.22205 13 8 2 
0.339742 0.316027 1.28041 59 47 33 
0.192302 0.295353 1.21997 52 44 33 
0.32489 0.317497 1.27188 51 44 28 
0.355797 0.325448 1.2966 41 29 17 
0.206927 0.301668 1.22189 108 104 95 
0.182856 0.300575 1.21869 39 35 24 
0.256491 0.309492 1.23819 119 115 103 
0.0971039 0.300202 1.21857 41 37 28 
0.163293 0.30193 1.21656 115 111 102 
0.3742 0.335692 1.30959 41 31 19 
0.0646183 0.303586 1.22787 82 79 74 
0.0255849 0.306244 1.2426 41 37 28 
0.313279 0.322164 1.26146 66 57 48 
0.221447 0.309365 1.22369 32 30 18 
0.126209 0.305817 1.21442 94 85 78 
0.386117 0.344529 1.31784 156 149 133 
0.325558 0.330226 1.2677 33 29 17 
0.300694 0.325707 1.2513 19 11 0 
0.17993 0.311528 1.21037 92 88 77 
0.344348 0.337216 1.27985 155 143 131 
0.0356247 0.313887 1.23097 92 83 78 
0.0761572 0.312112 1.21913 10 5 2 
0.212126 0.316194 1.21513 14 10 0 
0.225804 0.320278 1.2197 107 100 90 
0.258395 0.324096 1.22957 109 103 91 
0.168152 0.318499 1.20705 106 104 92 
0.294691 0.335105 1.2424 130 127 112 
0.364857 0.351773 1.29122 60 50 38 
0.14384 0.321918 1.20475 98 96 83 
0.239081 0.329533 1.21805 157 153 141 
0.111609 0.32321 1.20743 18 14 5 
-0.0226089 0.332828 1.25607 85 80 74 
0.0911557 0.32526 1.21326 29 25 16 
-0.058836 0.342383 1.28495 98 94 83 
0.223491 0.331765 1.21087 117 113 104 
0.207259 0.332099 1.20835 43 40 31 
0.163528 0.329897 1.20332 133 129 117 
0.082119 0.33034 1.20736 20 15 11 
0.126819 0.330962 1.2012 147 144 135 
0.148526 0.332173 1.20007 92 89 82 
-0.0452169 0.349775 1.272 24 20 11 
0.289504 0.353373 1.22448 52 44 33 
0.298541 0.358275 1.22487 54 44 35 
-0.0833132 0.372219 1.29475 101 97 88 
0.0874271 0.348977 1.19094 87 82 78 
-0.0289389 0.3737 1.23266 128 125 116 
0.0660883 0.361743 1.18754 18 13 9 
0.212865 -0.769431 1.78066 38 37 33 
0.13858 -0.705287 1.73372 29 24 18 
0.118371 -0.699271 1.72225 99 95 92 
0.0861538 -0.633048 1.65134 108 104 93 
-0.0309246 -0.683285 1.78846 113 109 106 
-0.123048 -0.668955 1.88606 31 30 25 
0.309005 -0.524148 1.63706 72 68 65 
0.131765 -0.508628 1.57485 96 92 89 
0.363394 -0.510937 1.66464 16 13 8 
0.149672 -0.493571 1.57047 6 3 0 
0.078239 -0.490188 1.57415 88 83 79 
0.269054 -0.481227 1.59652 6 0 0 
0.191203 -0.463326 1.56523 3 0 0 
0.37835 -0.46324 1.66323 24 19 13 
-0.0510453 -0.487734 1.65004 7 3 0 
-0.0208473 -0.463753 1.61499 98 95 90 
0.427526 -0.445342 1.71659 122 119 112 
0.388829 -0.429853 1.66676 133 128 122 
0.350424 -0.380705 1.63177 149 145 134 
0.420715 -0.364816 1.71269 105 98 90 
0.324067 -0.301084 1.57074 28 19 10 
0.335244 -0.301367 1.58306 106 96 86 
-0.0145061 -0.312343 1.57292 27 23 20 
-0.0101305 -0.295331 1.56005 15 12 7 
0.396108 -0.272609 1.63871 123 115 102 
-0.101163 -0.302481 1.6519 94 93 88 
0.397968 -0.241656 1.62628 52 40 28 
0.220296 -0.195829 1.45396 31 22 13 
0.281676 -0.165263 1.48211 16 6 0 
0.360463 -0.129583 1.52946 35 19 6 
0.311184 -0.117199 1.48134 25 15 5 
0.289402 -0.0442872 1.43726 57 45 33 
0.0267126 -0.0512179 1.43061 5 1 0 
0.424683 0.0912703 1.5221 22 10 0 
0.338314 0.164345 1.37241 106 96 84 
0.382667 0.235838 1.39073 99 90 75 
0.0165163 0.207973 1.31738 93 90 83 
-0.0382208 0.25049 1.31847 116 112 109 
0.270805 0.259021 1.25869 104 100 91 
0.250048 0.258963 1.25419 37 28 11 
0.202748 0.255171 1.23724 100 96 85 
0.0743845 0.256577 1.2478 108 105 96 
0.307871 0.273191 1.27561 130 122 109 
0.277653 0.271816 1.26002 115 111 99 
0.18773 0.282855 1.23151 21 14 4 
0.294393 0.310006 1.25293 120 112 101 
0.156341 0.308862 1.21157 92 88 77 
0.340033 0.343299 1.27182 133 123 113 
0.324552 0.346414 1.26101 56 44 30 
0.0276663 0.332288 1.2287 101 98 93 
0.0123113 0.343272 1.22844 25 22 17 
0.18777 0.343257 1.19077 40 36 24 
0.23425 0.355982 1.19315 116 105 103 
0.230321 -0.845575 1.83681 29 22 12 
0.226573 -0.759057 1.77539 154 152 140 
0.0877633 -0.757648 1.76489 117 112 109 
0.325385 -0.763781 1.85639 49 42 32 
0.107973 -0.720908 1.73529 42 42 32 
0.22456 -0.584432 1.61297 132 127 107 
-0.0201727 -0.529001 1.6394 81 80 76 
0.389483 -0.494431 1.68795 51 44 36 
0.305947 -0.474992 1.60935 3 1 0 
0.319511 -0.473863 1.62019 6 1 0 
0.101143 -0.46975 1.5633 14 11 4 
0.102736 -0.457838 1.5661 27 24 19 
0.389363 -0.457217 1.67444 101 97 88 
-0.0430035 -0.462288 1.63014 5 1 0 
0.359244 -0.399417 1.64993 127 123 114 
0.236175 -0.381019 1.55467 5 2 0 
0.37529 -0.376734 1.65253 14 10 1 
0.429815 -0.357075 1.72698 33 25 14 
0.0879987 -0.334846 1.51087 92 89 80 
0.103427 -0.324664 1.50505 109 104 100 
0.296577 -0.314514 1.55722 134 124 115 
0.32556 -0.270803 1.5631 51 43 32 
0.290827 -0.265387 1.53891 110 100 88 
0.278368 -0.243954 1.51163 86 82 71 
-0.0010971 -0.205778 1.52536 112 104 102 
0.409248 -0.103732 1.58491 34 20 0 
-0.0281178 -0.0657611 1.47202 29 16 7 
0.0888733 0.00564773 1.35399 102 99 90 
0.0374742 0.0149774 1.39172 66 63 58 
0.418917 0.0799155 1.51508 16 4 0 
0.15393 0.110603 1.30746 21 10 4 
0.124827 0.120629 1.297 30 26 14 
0.251431 0.128336 1.31268 56 50 38 
-0.00994166 0.136479 1.36053 12 9 4 
-0.0577221 0.140672 1.40408 7 4 0 
0.137116 0.138094 1.29434 103 91 75 
0.173997 0.188117 1.27382 13 6 0 
0.141377 0.187859 1.26652 15 6 0 
0.383824 0.261916 1.35409 44 34 22 
0.145901 0.275357 1.22334 18 14 3 
0.419103 0.325958 1.36973 49 37 21 
0.197262 0.290835 1.22751 54 45 30 
0.153802 0.294876 1.21865 29 26 17 
0.333514 0.332038 1.27706 43 37 23 
0.0708231 0.326233 1.21109 119 116 111 
0.335765 0.35639 1.26918 34 24 12 
0.0137908 0.357918 1.21566 19 15 12 
0.195663 -0.49004 1.57727 4 2 3 
0.0367252 -0.474538 1.58781 2 1 0 
0.195853 -0.417544 1.5475 105 100 94 
0.302558 -0.33539 1.57287 39 27 15 
0.145105 -0.106352 1.40063 8 6 0 
0.220707 0.0597337 1.33915 44 34 24 
0.312782 0.157605 1.36269 24 14 4 
0.248242 0.321009 1.2222 33 27 15 
0.241179 0.345211 1.20589 126 120 106 
-0.0389999 0.388767 1.22645 22 17 14 
0.273638 -0.653074 1.69918 138 129 112 
0.141853 -0.520492 1.57834 3 2 0 
0.0976715 -0.507678 1.58508 7 3 0 
-0.0258684 -0.473046 1.61712 20 16 7 
-0.0559039 -0.439172 1.62724 0 0 0 
0.26786 -0.369308 1.54599 21 17 8 
0.386528 -0.389779 1.67039 4 4 4 
0.0185088 -0.340863 1.5519 9 8 6 
0.0452886 -0.16607 1.48217 4 0 1 
0.196144 -0.0659103 1.39872 94 87 77 
0.266845 0.0395259 1.37858 28 20 7 
0.284268 0.0814034 1.3656 121 113 102 
0.413613 -0.850915 2.07851 31 30 26 
0.212974 -0.471497 1.57081 34 28 30 
-0.0627801 -0.40229 1.65349 6 4 5 
0.461427 -0.357229 1.79938 4 2 3 
0.308316 0.194285 1.34049 43 31 17 
0.0945538 -0.786018 1.78401 40 37 28 
0.0744406 -0.77891 1.77461 19 18 14 
0.169516 -0.760894 1.7711 126 121 115 
0.0808576 -0.750318 1.75268 116 111 105 
0.0974449 -0.747641 1.75139 45 40 34 
0.112271 -0.742532 1.75141 35 26 19 
0.182578 -0.723064 1.74253 52 49 44 
0.0709606 -0.69821 1.71247 99 94 90 
0.128115 -0.693885 1.71674 37 30 22 
0.0923306 -0.688492 1.70751 134 130 121 
0.163702 -0.683297 1.71172 109 105 96 
0.0479883 -0.68816 1.70678 118 114 105 
0.174182 -0.671379 1.70343 117 112 108 
0.131018 -0.650011 1.67702 133 130 125 
0.0954101 -0.6432 1.65974 64 60 49 
0.0730883 -0.629944 1.64544 144 141 132 
0.117323 -0.626919 1.64658 29 24 18 
0.194882 -0.610711 1.63484 45 38 32 
0.295891 -0.572724 1.63209 49 41 30 
0.193612 -0.533885 1.58457 93 88 85 
0.343286 -0.519437 1.64914 88 81 75 
0.113757 -0.510126 1.57108 31 27 24 
0.284792 -0.505434 1.60578 126 122 113 
0.221424 -0.502101 1.57907 11 4 0 
0.313584 -0.494972 1.61872 136 133 124 
0.329989 -0.471835 1.62374 4 0 0 
-0.0503323 -0.503387 1.6513 7 4 0 
0.232015 -0.460566 1.56625 91 90 85 
-0.0266439 -0.493853 1.62892 90 85 82 
0.173663 -0.409869 1.53401 124 120 109 
0.127804 -0.392721 1.52713 8 1 0 
0.225864 -0.387331 1.53309 110 106 103 
0.346678 -0.400192 1.63334 92 85 79 
0.210099 -0.384876 1.52867 90 87 82 
0.163271 -0.380099 1.52078 96 95 90 
0.252927 -0.37266 1.53801 54 51 46 
0.0853408 -0.373243 1.52466 31 27 18 
0.237947 -0.347153 1.52316 26 19 11 
0.338067 -0.352454 1.60536 30 21 12 
0.081384 -0.349881 1.51427 120 115 111 
0.30853 -0.327096 1.57133 107 97 87 
0.315942 -0.267175 1.55132 49 40 31 
0.26246 -0.25323 1.4918 51 42 33 
0.0863305 -0.256545 1.47757 17 8 1 
-0.00183343 -0.246307 1.53246 92 88 85 
0.239053 -0.206779 1.46296 127 120 112 
0.330194 -0.172271 1.5214 22 12 0 
0.236772 -0.153925 1.43859 118 109 100 
0.267091 -0.136964 1.44225 47 42 36 
0.0980535 -0.130968 1.42114 4 0 0 
0.164191 -0.0838421 1.39327 24 15 6 
0.354183 -0.0724993 1.49911 17 5 0 
0.322678 -0.0480911 1.45899 66 54 38 
0.0894053 -0.0389162 1.37725 32 21 15 
0.241991 -0.0243286 1.38184 26 16 4 
0.186199 0.0128512 1.3526 113 105 94 
0.141499 0.0121924 1.34831 86 77 72 
0.237972 0.0276117 1.35662 119 110 103 
0.268811 0.0919668 1.3385 163 157 145 
0.328355 0.104919 1.39433 140 127 118 
0.259727 0.11774 1.32317 159 152 142 
0.314263 0.162038 1.35395 53 43 31 
-0.0172952 0.156698 1.3613 68 63 59 
0.253235 0.165232 1.29814 106 97 82 
0.316905 0.186398 1.34591 36 30 16 
0.245429 0.180447 1.28723 52 42 30 
-0.0438572 0.18579 1.37261 4 0 0 
0.298522 0.242086 1.2897 52 43 28 
0.0769594 0.229174 1.25906 88 83 79 
0.332167 0.254695 1.30376 36 26 16 
0.279562 0.247885 1.26858 63 54 45 
0.0298605 0.261276 1.2604 17 13 10 
0.303185 0.276623 1.27109 124 116 103 
-0.00185162 0.275308 1.27051 83 79 76 
0.222088 0.283165 1.23592 24 13 7 
0.0829972 0.282983 1.23195 16 13 8 
0.0303022 0.288347 1.24664 71 68 59 
0.173221 0.291916 1.2234 116 112 101 
0.162687 0.291067 1.21992 91 89 77 
-0.0382253 0.307118 1.28536 90 89 84 
0.0829115 0.297767 1.225 22 21 16 
0.28255 0.311537 1.24739 45 39 27 
-0.0790371 0.338265 1.31082 95 91 80 
0.286642 0.340187 1.23466 110 101 86 
0.31138 0.34511 1.24854 36 28 17 
0.23264 0.337621 1.21122 120 114 100 
-0.0156268 0.342473 1.25151 134 129 125 
0.295832 0.348565 1.23646 115 106 91 
0.166414 0.334789 1.19665 105 97 86 
0.3681 0.368662 1.28114 56 47 32 
0.306151 0.35449 1.23672 136 128 115 
0.119585 0.337448 1.19736 31 24 16 
0.14262 0.337884 1.195 113 103 93 
-0.00458989 0.34868 1.23776 139 134 130 
0.257635 0.35141 1.20692 31 24 16 
0.288123 0.356556 1.21913 178 171 155 
0.275108 0.355376 1.21575 119 112 102 
0.0397975 0.346591 1.21173 45 42 35 
0.360945 0.375729 1.26475 45 35 26 
0.116797 0.346802 1.18959 22 17 11 
0.313962 0.365527 1.22938 103 94 85 
0.194786 0.348116 1.18475 134 126 113 
0.351179 0.377185 1.25427 113 109 97 
-0.0248472 0.364763 1.23877 26 23 16 
0.180808 0.354793 1.17869 18 9 2 
0.219849 0.359062 1.18327 113 109 97 
0.273945 0.365433 1.19383 48 41 31 
0.205612 0.359062 1.17546 66 55 49 
0.154539 0.356584 1.1725 144 141 136 
0.371014 0.392188 1.25746 138 129 120 
0.226703 0.365411 1.17781 20 16 7 
0.249385 0.367621 1.18341 25 21 10 
0.281167 0.37423 1.19489 122 113 104 
0.13076 0.363261 1.16736 115 108 100 
0.267742 0.377934 1.1837 88 85 78 
0.304521 0.385246 1.20098 97 93 81 
0.232165 0.374959 1.17319 125 121 112 
0.256978 0.378717 1.17746 117 112 106 
-0.00316062 0.380593 1.20462 147 142 138 
0.110156 0.372485 1.16615 23 18 14 
0.161683 0.379018 1.15786 26 22 13 
0.218879 0.39042 1.16078 112 105 95 
0.14467 0.388367 1.15237 103 99 90 
0.186744 0.391274 1.15336 27 23 14 
0.197041 0.410544 1.14413 100 98 86 
0.110513 0.422667 1.14004 140 134 122 
0.134508 0.426612 1.12896 121 118 103 
0.149916 0.432683 1.0919 95 89 77 
0.139589 0.439869 1.08821 146 142 130 
0.112687 0.450785 1.08543 92 90 77 
0.183356 0.458692 1.07923 26 20 6 
0.16121 0.46099 1.07646 102 97 78 
0.128926 0.468224 1.07568 45 36 19 
0.117721 -0.685006 1.70636 38 33 27 
0.135866 -0.684281 1.70866 30 26 17 
0.235536 -0.529566 1.59339 112 111 107 
0.0761866 -0.421267 1.5418 102 99 90 
0.0157532 -0.321541 1.55284 85 84 80 
0.227063 0.236702 1.25685 124 115 106 
0.0991783 0.242054 1.24613 17 12 6 
-0.0509461 0.256582 1.32318 23 19 16 
0.139327 0.260958 1.23142 32 23 14 
-0.012839 0.328524 1.25393 109 104 98 
0.318335 0.361552 1.23903 31 23 12 
0.0431533 0.365125 1.19139 126 121 117 
-0.0717384 0.390394 1.25889 17 14 7 
0.286648 0.385492 1.18809 43 36 26 
0.0933535 0.391507 1.1602 17 12 6 
0.167767 0.408187 1.14411 31 26 20 
0.260084 -0.518219 1.60081 26 17 10 
0.403278 -0.511881 1.70954 103 100 93 
-0.0611504 -0.51627 1.67017 4 0 0 
0.395978 -0.459424 1.67984 47 43 32 
0.237072 -0.376554 1.53562 5 2 0 
0.247558 -0.363256 1.53152 28 23 19 
0.191751 -0.234398 1.46763 87 76 74 
0.222816 -0.226736 1.46949 97 92 86 
0.111882 -0.177531 1.43977 87 79 76 
0.238259 -0.0626728 1.39677 98 89 80 
0.333993 0.0391254 1.43065 141 131 119 
0.0160526 0.140892 1.34992 10 5 1 
0.00102866 0.291671 1.26308 74 73 69 
0.0451244 0.289693 1.24591 21 18 13 
0.10889 0.299716 1.21869 103 99 87 
0.294951 0.322613 1.24933 36 26 16 
0.233377 0.314359 1.22289 33 24 15 
0.208333 0.351134 1.18685 24 17 7 
0.302894 0.367227 1.21614 124 114 102 
0.259927 0.365379 1.1906 114 110 99 
0.1631 0.363964 1.1675 131 127 124 
0.184142 0.371128 1.16588 21 14 6 
0.137985 0.371208 1.16213 16 13 8 
0.364264 0.411978 1.23253 131 124 116 
0.133564 0.410895 1.14358 123 115 102 
0.121491 0.427026 1.13661 126 117 102 
0.116348 0.439241 1.09188 109 105 93 
0.152439 0.445239 1.08747 23 15 2 
0.11676 0.461592 1.08114 14 12 0 
0.01215 -0.465114 1.60311 16 11 5 
0.194827 0.115669 1.31481 19 7 0 
0.167927 0.347833 1.19163 115 107 96 
0.134714 0.352561 1.17914 136 132 120 
0.239929 0.367509 1.17944 123 116 110 
0.143207 0.363432 1.16721 145 141 132 
0.17474 0.415685 1.14184 22 17 13 
-0.0373995 -0.935005 2.01646 26 19 11 
0.167271 -0.320593 1.51676 101 94 86 
0.0601517 -0.449984 1.5482 0 2 0 
0.0318688 -0.437751 1.59486 70 69 64 
0.0879108 -1.68907 2.4883 122 121 119 
0.160069 -0.999481 1.89105 64 57 39 
0.185334 -0.966125 1.87994 56 49 31 
0.167387 -0.943577 1.86882 42 37 31 
0.186853 -0.940401 1.87074 41 37 34 
0.136531 -0.936581 1.86086 112 112 112 
0.154282 -0.907076 1.85307 137 124 116 
0.201908 -0.895334 1.85025 35 28 22 
0.187834 -0.895694 1.85163 94 83 79 
0.1946 -0.872341 1.84395 77 67 66 
0.171565 -0.865041 1.83814 62 43 36 
0.238847 -0.808222 1.81274 118 116 104 
0.224283 -0.729312 1.74987 41 33 30 
0.263865 -0.502269 1.59813 99 95 86 
0.146643 -0.417742 1.53469 52 47 43 
0.243085 -0.261698 1.48585 118 116 104 
0.126546 -0.259733 1.46773 104 97 89 
0.108575 -0.246219 1.46325 93 82 76 
0.257478 0.00198574 1.37638 39 27 13 
0.303633 0.0139231 1.42093 19 7 0 
0.25332 0.0274009 1.36452 24 20 11 
0.134532 0.0214051 1.34603 29 22 12 
0.266361 0.03762 1.36511 97 89 76 
0.212358 0.102664 1.31823 39 31 18 
0.155811 0.133706 1.30013 115 94 89 
0.121313 0.141406 1.29338 102 97 91 
0.151795 0.156218 1.28821 33 25 14 
0.126933 0.156703 1.28551 77 67 57 
0.0898625 0.166773 1.28649 74 72 60 
0.130218 0.172507 1.27933 97 89 76 
0.148139 0.173358 1.27979 91 85 73 
0.0983694 0.177886 1.28147 26 22 13 
0.115518 0.180871 1.27575 47 43 32 
0.265247 0.19514 1.29503 23 16 0 
0.196281 0.214272 1.26482 21 14 6 
0.153557 0.218297 1.25907 50 41 32 
0.139575 0.218941 1.25945 60 52 41 
0.153243 0.227774 1.25239 61 57 48 
0.0992886 0.228313 1.257 83 80 73 
0.10996 0.2312 1.25427 98 96 83 
0.153294 0.253589 1.24362 10 6 0 
0.118943 0.260379 1.24018 100 96 87 
0.0653742 0.294322 1.2377 47 44 39 
0.0873279 0.314203 1.22394 122 113 106 
0.315427 0.336003 1.26862 38 31 15 
0.157627 0.34362 1.20111 57 50 42 
0.0530515 0.358568 1.20276 32 24 21 
0.240958 0.364794 1.19837 167 163 152 
0.275278 0.370551 1.20799 61 54 44 
0.0593957 0.372866 1.18975 88 83 79 
0.245962 0.381247 1.184 34 27 21 
0.259119 0.388929 1.18684 41 37 26 
0.293732 0.396273 1.20094 105 101 89 
0.303019 0.398989 1.20524 131 125 113 
0.274005 0.397809 1.18851 138 135 120 
0.261111 0.407679 1.17799 13 9 0 
0.250426 0.409916 1.17262 22 17 11 
0.32404 0.42842 1.2055 25 22 13 
0.209796 0.417094 1.1598 89 84 78 
0.200865 0.427395 1.15285 103 94 85 
0.22158 0.432204 1.14966 132 126 112 
0.247657 0.435477 1.15611 132 130 118 
0.236382 0.435549 1.14486 129 121 110 
0.211452 0.426325 1.11304 171 164 145 
0.19511 0.43662 1.10733 105 102 85 
0.205883 0.448266 1.10394 113 109 98 
0.194586 0.450396 1.10088 128 124 112 
0.179971 0.452046 1.09948 18 10 0 
0.110319 0.456664 1.09904 92 90 77 
0.188808 0.459087 1.09698 144 136 123 
0.199398 0.460754 1.09659 118 117 99 
0.207281 0.473725 1.08999 134 127 108 
0.0930518 0.117568 1.30581 54 47 37 
0.100132 0.186374 1.27496 107 103 92 
0.126769 0.186872 1.2737 9 2 0 
0.11031 0.285062 1.23149 96 92 83 
0.13544 0.335278 1.20838 127 118 109 
0.0885851 0.361423 1.18925 108 104 95 
0.156783 0.366804 1.17941 95 92 87 
0.220543 0.402098 1.16771 31 27 16 
0.109227 0.476107 1.08672 122 116 102 
0.131402 -0.28635 1.48085 90 85 79 
0.248891 0.346718 1.22297 141 134 124 
0.216843 0.351071 1.20291 132 129 114 
0.193122 0.363292 1.1853 106 97 92 
0.232638 0.386868 1.17648 139 135 124 
0.17484 0.387753 1.16741 24 20 11 
0.152578 0.445084 1.10292 90 87 70 
0.155603 0.461283 1.09656 88 81 63 
0.179816 0.473884 1.08758 133 125 112 
0.215173 -0.481951 1.56884 102 92 83 
0.306811 0.413515 1.1988 21 16 10 
0.202157 0.406789 1.15957 96 93 88 
0.118548 0.428357 1.11003 53 41 29 
0.227808 0.466834 1.0998 99 96 77 
0.144868 -0.52925 1.58381 93 92 87 
0.135177 0.39338 1.16516 99 95 86 
0.214083 0.465424 1.09644 153 145 126 
0.316694 -0.357675 1.59317 32 19 10 
0.113498 -1.65855 2.53954 23 20 13 
0.107656 -1.72564 2.57237 35 31 32 
0.237732 -1.1246 2.06612 19 10 0 
0.201279 -1.11082 2.0359 106 101 97 
0.290788 -1.16957 2.18294 41 37 26 
0.210676 -1.08612 2.01545 139 135 126 
0.192942 -1.08525 2.01332 114 110 101 
0.102528 -1.10081 2.0211 61 55 41 
0.184679 -1.07764 2.00467 131 128 119 
0.225952 -1.06866 1.99914 63 53 43 
0.210389 -1.0655 1.99872 90 86 75 
0.304042 -1.14252 2.1817 131 124 114 
0.1938 -1.05901 1.9834 51 46 40 
0.0941795 -1.0615 1.98142 125 121 110 
0.212708 -1.03145 1.96644 139 135 126 
0.225391 -1.03126 1.9735 27 23 14 
0.225875 -1.02394 1.95978 38 34 25 
0.314148 -1.10418 2.15505 55 48 38 
0.0959915 -1.04458 1.96941 67 59 48 
0.296626 -1.07591 2.09681 26 22 13 
0.214267 -1.00503 1.94535 100 95 91 
0.248578 -1.00708 1.9669 14 10 7 
0.090876 -1.02192 1.95383 17 13 1 
0.0982862 -1.01434 1.94796 105 104 99 
0.156277 -0.960319 1.85544 57 48 33 
0.186827 -0.955426 1.85574 43 35 24 
0.274736 -1.01267 2.00435 32 23 14 
0.15661 -0.951406 1.84578 56 46 34 
0.211429 -0.941401 1.85062 113 109 97 
0.329923 -1.04584 2.11672 60 53 37 
0.158237 -0.938697 1.8468 44 40 31 
0.209651 -0.932055 1.8502 96 93 88 
0.167275 -0.929682 1.84082 109 105 94 
0.188586 -0.927865 1.84306 29 28 24 
0.286006 -0.977778 1.98702 43 39 30 
0.151801 -0.921756 1.83049 93 91 92 
0.336517 -1.01613 2.09147 63 54 39 
0.138534 -0.926726 1.83829 109 105 104 
0.274063 -0.954042 1.9453 35 31 22 
0.290852 -0.955283 1.9698 5 2 0 
0.153048 -0.897309 1.82302 109 104 98 
0.228712 -0.886817 1.82986 113 111 99 
0.156003 -0.897646 1.8314 137 124 116 
0.344689 -0.978783 2.07413 127 124 117 
0.181463 -0.891702 1.8303 20 13 7 
0.246731 -0.898192 1.86951 156 155 151 
0.14666 -0.892668 1.82954 43 32 26 
0.052688 -0.938027 1.90717 49 45 34 
0.253958 -0.885804 1.85636 136 135 131 
0.0958065 -0.891794 1.8213 95 93 81 
0.354138 -0.966894 2.07693 93 90 83 
0.259804 -0.870385 1.846 136 129 121 
0.0757458 -0.895841 1.84844 32 27 24 
0.127408 -0.871907 1.81632 41 31 22 
0.189497 -0.863411 1.82313 120 107 101 
0.253571 -0.860287 1.83692 133 130 123 
0.14255 -0.866129 1.81478 36 19 11 
0.0646447 -0.892789 1.8521 120 118 106 
0.356769 -0.938857 2.05588 109 105 94 
0.232025 -0.859574 1.83605 85 84 80 
0.256603 -0.851223 1.8313 153 151 139 
0.131185 -0.860337 1.81266 32 17 12 
0.176962 -0.855612 1.81731 49 32 24 
0.151412 -0.856305 1.8164 52 33 27 
0.370341 -0.934393 2.06946 194 199 192 
0.0834903 -0.873121 1.84039 82 83 78 
0.197472 -0.845741 1.81733 115 103 103 
0.130769 -0.84075 1.80027 119 100 94 
0.270091 -0.830507 1.82309 132 124 113 
0.148287 -0.832459 1.80397 110 97 89 
0.171049 -0.829127 1.80992 112 93 89 
0.150405 -0.825081 1.79668 140 130 121 
0.269306 -0.810458 1.80238 136 127 118 
0.298353 -0.819116 1.83967 22 21 16 
0.0627828 -0.83819 1.81121 24 21 16 
-0.0275835 -0.919819 1.98061 56 49 43 
0.217677 -0.80624 1.79387 102 99 94 
0.0753248 -0.821772 1.7937 30 27 22 
0.268396 -0.78991 1.78529 120 114 102 
0.117734 -0.809957 1.7896 58 50 39 
0.257843 -0.787194 1.78228 133 130 121 
0.407441 -0.895156 2.0954 22 20 7 
0.157201 -0.795321 1.77808 104 101 94 
-0.0602286 -0.911945 2.00927 27 27 19 
0.131707 -0.789014 1.77332 26 22 19 
0.00947513 -0.846266 1.87507 34 30 27 
0.182839 -0.779252 1.77146 27 24 15 
0.0820376 -0.793525 1.77606 36 32 23 
0.105194 -0.784103 1.7597 101 94 88 
0.330243 -0.799201 1.87584 106 105 101 
0.168772 -0.77453 1.76404 141 138 129 
-0.118757 -0.959765 2.1299 86 87 82 
0.158118 -0.769778 1.75998 97 94 89 
-0.0425586 -0.874401 1.95819 109 104 98 
0.097011 -0.777183 1.76348 37 37 27 
0.0554579 -0.785275 1.77284 113 110 103 
0.32175 -0.77703 1.84458 46 43 34 
0.416194 -0.843747 2.04748 39 39 37 
0.307367 -0.760562 1.8043 32 23 14 
0.339141 -0.785105 1.87544 118 117 113 
0.11303 -0.766747 1.75505 108 104 93 
0.322387 -0.767266 1.83315 36 32 23 
-0.102874 -0.90731 2.04997 45 43 31 
0.284969 -0.73372 1.74824 39 33 19 
-0.11263 -0.90117 2.0503 69 68 64 
0.296578 -0.728561 1.75824 32 26 14 
0.316826 -0.743743 1.80694 56 52 40 
0.157046 -0.737633 1.73783 103 100 95 
0.284159 -0.720059 1.73646 56 47 32 
0.294686 -0.71924 1.75055 9 5 0 
0.265296 -0.70884 1.71582 132 128 119 
0.0868657 -0.735889 1.73034 43 43 33 
0.0661654 -0.734212 1.72925 39 35 26 
0.0842429 -0.724533 1.71591 34 31 26 
0.148549 -0.716665 1.71899 149 146 137 
0.334649 -0.729898 1.82129 143 136 126 
0.398858 -0.76286 1.9371 105 96 87 
0.322429 -0.718354 1.79441 40 37 30 
0.0762711 -0.711686 1.71002 111 104 96 
0.196193 -0.691468 1.70359 119 116 109 
0.108605 -0.705562 1.71219 76 73 64 
0.309544 -0.688391 1.73823 35 31 20 
0.196166 -0.685289 1.6942 31 29 17 
0.289576 -0.671915 1.69963 81 72 65 
0.23182 -0.673611 1.68543 102 99 92 
0.312916 -0.681177 1.7452 26 22 13 
0.309748 -0.669567 1.72393 7 3 0 
0.100196 -0.684793 1.69516 25 21 10 
0.357026 -0.699659 1.82829 32 28 19 
0.42295 -0.736614 1.95667 73 73 61 
0.408537 -0.720048 1.91438 115 112 105 
0.225862 -0.659926 1.68325 37 33 30 
0.0760947 -0.678522 1.68702 136 133 128 
0.176144 -0.661666 1.67812 119 116 109 
0.398011 -0.708375 1.89205 30 25 19 
0.0642666 -0.676675 1.68359 50 47 40 
0.422431 -0.721319 1.9383 56 56 44 
0.208635 -0.648473 1.67039 38 35 30 
0.307183 -0.641564 1.68837 144 135 126 
0.189793 -0.647793 1.66558 49 44 40 
0.329849 -0.656965 1.74496 36 31 27 
0.112699 -0.657014 1.66876 116 112 101 
0.14704 -0.652106 1.66978 28 25 18 
0.0748468 -0.663638 1.67821 118 115 110 
0.203102 -0.636941 1.65608 111 108 101 
0.223563 -0.632825 1.65203 122 119 112 
0.397562 -0.683879 1.86641 114 111 104 
