ply                 
format ascii 1.0    
element vertex 1294
property float x    
property float y    
property float z    
property uchar red  
property uchar green
property uchar blue 
end_header          
-0.128167 -0.176361 1.74592 6 5 0 
0.252133 -0.139361 1.53926 118 108 99 
0.210025 -0.13978 1.52761 102 95 85 
0.128471 -0.142085 1.52245 38 34 23 
0.00942264 -0.15127 1.57949 23 23 13 
0.0944936 -0.139784 1.5227 36 32 23 
0.219432 -0.134613 1.5257 19 10 1 
0.148469 -0.136414 1.52327 89 85 74 
0.195035 -0.133844 1.52129 28 19 12 
0.319713 -0.134379 1.60224 136 130 118 
0.0961786 -0.135021 1.51127 104 99 95 
0.0648817 -0.137719 1.53756 27 22 18 
-0.120456 -0.162515 1.72817 5 1 0 
-0.0113509 -0.145879 1.60171 8 3 0 
0.0200853 -0.142346 1.57904 89 85 82 
0.00299536 -0.141653 1.58613 15 11 8 
0.0546691 -0.1366 1.55623 9 8 4 
0.11869 -0.130807 1.52065 98 89 82 
0.207649 -0.126386 1.52196 82 75 67 
0.250865 -0.125516 1.534 104 94 85 
0.171866 -0.127021 1.51854 105 95 93 
0.130446 -0.128372 1.5237 107 100 94 
0.109633 -0.127697 1.51626 104 97 89 
0.139443 -0.126632 1.51523 108 99 92 
0.168242 -0.124663 1.5086 17 12 6 
0.0186872 -0.134983 1.57102 92 88 85 
0.333683 -0.12428 1.60358 30 22 9 
0.0348121 -0.132502 1.56279 16 15 13 
0.240722 -0.120212 1.52792 41 32 23 
0.127071 -0.123489 1.51342 28 21 11 
0.0673295 -0.126689 1.5313 8 0 0 
-0.0985738 -0.145502 1.68732 5 0 0 
0.0916003 -0.122229 1.5164 3 0 0 
-0.076399 -0.14203 1.68104 89 79 78 
0.2623 -0.114663 1.52275 16 7 0 
0.315077 -0.117436 1.58724 114 108 94 
0.106432 -0.118529 1.50921 30 23 13 
0.00810685 -0.127621 1.57836 94 89 86 
0.0247776 -0.124362 1.56693 14 10 7 
0.178629 -0.114071 1.50849 20 13 3 
0.302994 -0.1145 1.58249 36 26 17 
0.143349 -0.113266 1.51364 99 90 81 
-0.106385 -0.136111 1.69324 23 19 16 
0.289179 -0.109013 1.55731 20 12 1 
-0.099409 -0.13213 1.67387 89 84 80 
-0.0197715 -0.12317 1.59502 17 13 4 
0.0614228 -0.115761 1.54161 105 98 90 
0.213681 -0.107584 1.51156 22 14 3 
0.297619 -0.108222 1.57399 55 45 35 
0.165196 -0.10824 1.50481 10 6 0 
0.0929326 -0.111803 1.52016 86 81 77 
-0.0889205 -0.128214 1.66287 76 69 63 
0.0729605 -0.111081 1.51722 32 27 21 
0.120165 -0.107434 1.50788 98 95 88 
0.266211 -0.102945 1.53133 22 13 4 
0.202791 -0.103528 1.50744 26 17 10 
-0.111956 -0.129872 1.70615 99 94 91 
-0.00393672 -0.116736 1.58289 113 109 106 
0.0152516 -0.114789 1.56492 82 76 76 
0.132391 -0.105509 1.50096 24 14 5 
0.227752 -0.101136 1.51527 16 7 0 
-0.158401 -0.135744 1.78934 9 0 1 
-0.140811 -0.131961 1.74788 19 15 12 
-0.125937 -0.12902 1.71881 24 19 16 
0.255304 -0.0978972 1.51835 16 6 0 
0.00503317 -0.110619 1.56856 96 91 87 
0.15472 -0.1001 1.4998 93 88 82 
-0.0179679 -0.11218 1.59115 40 35 29 
0.0446759 -0.105702 1.55208 90 85 82 
0.0618547 -0.104051 1.5384 77 72 69 
0.182524 -0.097099 1.5037 7 0 0 
0.105388 -0.098875 1.50557 91 80 78 
0.262387 -0.0933958 1.52675 18 11 3 
-0.105912 -0.118021 1.68248 22 18 9 
0.139294 -0.0954478 1.49601 93 85 72 
-0.136529 -0.120144 1.73512 6 5 1 
-0.00441781 -0.104961 1.57851 36 30 30 
0.209157 -0.0912976 1.50141 102 91 85 
0.246673 -0.0906226 1.51655 117 107 98 
0.296987 -0.089555 1.56611 40 36 24 
-0.124829 -0.114141 1.71022 114 109 105 
-0.0222251 -0.102651 1.58556 37 28 23 
0.00434992 -0.100357 1.56528 86 80 80 
0.0957233 -0.0926864 1.50627 12 9 4 
0.187093 -0.0891418 1.51121 26 17 10 
0.229516 -0.0868486 1.50679 24 15 6 
-0.149851 -0.115963 1.75823 3 0 0 
0.180845 -0.0866568 1.49645 80 71 66 
-0.114547 -0.110295 1.69241 99 89 87 
0.0318053 -0.0942715 1.55027 85 81 80 
0.291818 -0.0839496 1.55635 105 103 90 
0.058015 -0.09197 1.53913 79 75 72 
0.0532341 -0.0909373 1.52956 79 78 73 
0.0892046 -0.0859716 1.50135 33 26 18 
0.119448 -0.0848679 1.50306 8 5 0 
-0.0044318 -0.0931009 1.57087 39 31 29 
0.154036 -0.081357 1.49231 97 90 82 
0.131053 -0.0820089 1.4955 93 90 83 
-0.0208811 -0.0919987 1.58166 86 75 69 
0.0174849 -0.0881932 1.55194 13 7 7 
0.297972 -0.0770776 1.56212 112 102 93 
0.0712547 -0.0823863 1.5094 21 12 3 
-0.141401 -0.102614 1.73279 99 98 93 
0.226865 -0.0736349 1.50489 104 94 85 
0.255552 -0.0722528 1.50735 131 122 115 
-0.14875 -0.100781 1.75192 5 0 0 
0.210881 -0.0730457 1.49781 112 105 99 
-0.116065 -0.0933398 1.68388 9 6 0 
0.178771 -0.0720295 1.49575 15 6 0 
0.063589 -0.0769143 1.52104 93 89 78 
0.143977 -0.0722528 1.48764 30 27 18 
-0.0749856 -0.0887099 1.65403 144 139 135 
0.238892 -0.0680077 1.49935 91 87 78 
-0.135849 -0.0927004 1.72461 5 2 0 
0.0921148 -0.0727936 1.49477 3 1 0 
0.26984 -0.0647787 1.51359 51 44 34 
0.174261 -0.0671214 1.48554 8 0 0 
0.0301998 -0.074706 1.54294 74 71 66 
-0.087281 -0.0832926 1.63927 65 62 57 
0.103586 -0.0670782 1.49259 16 11 5 
-0.00452026 -0.0736222 1.56207 29 25 16 
0.0124175 -0.0727436 1.55573 94 89 86 
-0.038364 -0.0759835 1.59188 42 11 6 
0.252789 -0.0602214 1.50806 48 39 32 
0.203095 -0.0594049 1.49165 20 7 0 
0.26076 -0.05728 1.51373 53 43 34 
-0.131761 -0.080852 1.71328 104 102 90 
0.145509 -0.0594908 1.47841 82 75 65 
-0.160737 -0.0829396 1.78132 38 34 31 
0.0222214 -0.0662752 1.54626 78 73 70 
0.173556 -0.0566727 1.48209 95 86 81 
-0.15759 -0.0801216 1.76779 95 91 88 
0.00624421 -0.0657012 1.55104 78 73 67 
-0.0180771 -0.0666637 1.57262 96 92 83 
0.243179 -0.0531937 1.49536 33 23 13 
-0.126592 -0.0745611 1.69502 92 91 87 
0.10111 -0.0565751 1.49165 7 0 0 
0.210015 -0.051323 1.48538 45 36 27 
0.0427838 -0.059549 1.53225 20 19 14 
0.083072 -0.0559537 1.49587 83 74 69 
0.153386 -0.0509622 1.48013 22 15 7 
-0.0339496 -0.0612808 1.57053 11 0 0 
0.0304261 -0.0559559 1.53407 91 90 85 
0.0676175 -0.0535651 1.49303 91 82 75 
0.106392 -0.0503329 1.47957 90 87 78 
-0.102968 -0.0637551 1.66083 10 6 3 
0.240568 -0.0444447 1.4872 96 86 76 
0.318892 -0.0438196 1.55939 20 10 0 
-0.0954451 -0.0627054 1.64412 9 2 0 
0.171082 -0.0465648 1.47476 15 4 0 
-0.113038 -0.0621982 1.67087 8 3 0 
0.189598 -0.0438825 1.48052 24 17 1 
0.223468 -0.039403 1.48117 41 32 23 
0.208484 -0.0394092 1.47984 99 90 81 
0.113528 -0.0425596 1.48084 48 43 37 
0.24552 -0.0369437 1.49496 110 102 91 
0.263143 -0.0353083 1.49506 10 0 0 
0.128932 -0.0378836 1.47317 22 15 7 
0.144855 -0.0356893 1.47079 8 1 0 
0.0287671 -0.0413496 1.5294 7 2 0 
0.160339 -0.0343085 1.46828 10 1 0 
0.0985401 -0.0358929 1.4815 100 91 86 
-0.113847 -0.0477206 1.66574 53 48 44 
-0.0378066 -0.0425067 1.56886 31 2 0 
0.119466 -0.0336853 1.47193 84 75 70 
0.076675 -0.0358581 1.48841 14 7 0 
0.251743 -0.027302 1.48882 137 124 116 
0.0615954 -0.034657 1.50022 106 95 91 
0.20372 -0.027551 1.47567 87 78 71 
0.136063 -0.0282248 1.46983 90 83 75 
0.18989 -0.0265303 1.469 34 27 11 
0.021104 -0.032908 1.53215 103 98 94 
-0.096641 -0.0385283 1.63075 35 25 13 
0.235237 -0.022541 1.47809 35 25 15 
0.221167 -0.022335 1.48039 111 102 95 
0.101071 -0.0262107 1.47518 109 101 88 
-0.0150971 -0.0315104 1.55236 113 103 94 
0.00030371 -0.0290057 1.55232 6 2 0 
0.117263 -0.023154 1.4686 101 93 82 
0.0717577 -0.025193 1.47922 27 24 19 
0.151452 -0.0217505 1.46783 99 91 80 
0.275189 -0.0162972 1.49741 106 96 86 
0.353192 -0.0138743 1.57273 128 115 99 
-0.107592 -0.0302087 1.64947 34 26 15 
0.245623 -0.0134052 1.47772 101 89 77 
-0.137126 -0.0303554 1.69794 6 3 0 
0.0335148 -0.0213761 1.51971 87 82 78 
0.189925 -0.0142237 1.46672 99 95 84 
0.0844912 -0.0177269 1.47303 21 16 10 
0.171478 -0.0143284 1.46372 80 76 67 
0.0638986 -0.0180488 1.49533 4 0 0 
0.100171 -0.0165772 1.46868 17 8 3 
0.218225 -0.012066 1.47615 92 81 75 
0.0089007 -0.0205679 1.53181 35 34 30 
-0.00201933 -0.0203758 1.53923 87 87 79 
0.159294 -0.0119851 1.46542 114 103 97 
0.230594 -0.0084905 1.47564 76 72 63 
-0.143775 -0.0247131 1.70843 13 8 5 
-0.0995497 -0.0223011 1.63718 31 27 18 
-0.113172 -0.0219146 1.65955 25 18 10 
-0.0692138 -0.0196124 1.61718 74 45 37 
0.203611 -0.00771693 1.46977 120 111 104 
0.219958 -0.00707564 1.46624 72 65 57 
0.0406583 -0.0139094 1.50857 6 1 0 
-0.132708 -0.0200693 1.68693 24 18 18 
0.114685 -0.00918547 1.46263 76 67 58 
0.28873 -0.00182785 1.52354 25 21 10 
0.266805 -0.00117899 1.4812 19 9 0 
0.299908 -2.83039e-05 1.52772 31 18 9 
0.254579 -0.00115859 1.48161 22 10 0 
-0.106243 -0.0134032 1.64434 14 10 1 
0.102573 -0.00489607 1.46449 129 120 113 
0.153416 -0.0026307 1.45814 119 111 100 
0.202286 0.000731995 1.46153 115 105 95 
0.129581 -0.0017225 1.45926 94 90 81 
0.16509 -0.000467751 1.4555 18 11 3 
-0.136536 -0.0114026 1.7022 75 70 66 
0.0685374 -0.00364259 1.4782 5 0 0 
0.244341 0.00514491 1.47323 28 18 6 
-0.131628 -0.00743491 1.68275 7 2 0 
0.0132051 -0.00280518 1.51775 22 14 11 
0.255175 0.0099335 1.46803 37 27 17 
-0.0183947 1.30738e-05 1.54383 18 7 1 
0.337917 0.0148877 1.5494 11 3 0 
0.179347 0.00864285 1.45624 94 85 76 
0.138966 0.00728643 1.44885 66 61 57 
0.116147 0.00744494 1.45824 6 1 0 
0.100647 0.00750361 1.45849 88 85 78 
-0.102548 0.00206979 1.62848 4 0 0 
0.0763566 0.00773991 1.46827 36 27 18 
0.0214489 0.0062777 1.50984 96 91 87 
0.157406 0.0116366 1.45031 22 13 8 
0.0407419 0.00863133 1.50028 4 3 0 
0.0523867 0.00892332 1.49256 80 79 77 
0.0616835 0.00911908 1.48149 15 12 7 
0.173134 0.0134728 1.44953 83 80 71 
0.22478 0.0163215 1.46039 84 80 71 
0.200027 0.0160371 1.45291 93 82 76 
0.305197 0.0210289 1.51595 107 94 86 
-0.00178655 0.0101917 1.52177 30 21 16 
0.245427 0.0201169 1.46707 19 15 6 
-0.0213728 0.0125495 1.53656 16 7 0 
0.238391 0.0230134 1.45971 115 111 100 
0.0144541 0.0159008 1.51107 97 92 88 
0.102362 0.0183993 1.45243 18 10 7 
0.0681227 0.0181654 1.46405 95 90 84 
-0.124674 0.0167499 1.66061 83 79 76 
0.166933 0.0243016 1.44648 89 80 71 
0.148247 0.0247312 1.44338 88 77 71 
0.0907677 0.0230249 1.45239 30 23 15 
0.20267 0.028294 1.44834 23 14 5 
-0.149066 0.0207706 1.70946 22 15 9 
0.230206 0.0305807 1.461 104 93 87 
0.121624 0.0274674 1.44685 31 23 20 
-0.153318 0.0237669 1.72297 26 19 11 
0.188442 0.030726 1.44689 115 104 98 
-0.0942497 0.0233996 1.60843 74 71 66 
0.0931731 0.0273236 1.44155 83 78 72 
0.252516 0.0339729 1.46144 58 51 45 
0.0638585 0.0283957 1.4716 61 61 53 
0.216578 0.0339859 1.44942 31 27 16 
0.100661 0.0296523 1.45175 17 8 3 
0.175603 0.033603 1.44007 146 139 129 
-0.0558842 0.028529 1.57607 182 168 157 
0.0681838 0.0299965 1.45579 91 84 76 
0.336976 0.04354 1.53387 27 17 7 
0.261653 0.0384734 1.46328 51 44 36 
0.296687 0.0417921 1.50296 114 106 93 
0.0391073 0.0319764 1.48637 4 0 0 
0.0849438 0.0339125 1.44981 126 117 110 
-0.0854573 0.0330753 1.59182 83 78 72 
0.104416 0.0365169 1.44293 79 70 65 
-0.106899 0.0342775 1.62463 39 31 28 
0.0121231 0.0350706 1.50178 23 20 11 
-0.075305 0.0350219 1.59511 96 93 88 
0.126201 0.0386117 1.44036 10 7 0 
-0.127038 0.0374291 1.65759 3 0 0 
0.169289 0.0420832 1.43624 11 1 0 
0.308669 0.050029 1.50703 57 47 35 
0.24453 0.0467265 1.4531 42 32 22 
0.417198 0.0591252 1.62807 68 58 46 
0.289867 0.0506607 1.49772 40 34 22 
0.13739 0.0434661 1.44011 22 13 6 
0.186286 0.0454089 1.43818 109 100 93 
-0.0145992 0.0411344 1.51973 72 68 65 
0.199894 0.0472542 1.44086 112 99 91 
0.0213735 0.0436521 1.49642 137 133 122 
-0.0398438 0.0444507 1.5369 89 81 78 
0.350219 0.06014 1.53693 64 54 42 
-0.112105 0.0450033 1.62023 111 107 98 
0.212193 0.0517316 1.44262 26 19 9 
0.116768 0.0493673 1.44296 84 75 68 
0.0436639 0.0484001 1.48293 122 115 105 
0.251929 0.0555493 1.44867 115 108 100 
0.262178 0.0563479 1.45452 118 108 99 
-0.00867673 0.0479337 1.50442 105 102 97 
-0.138054 0.0507314 1.67047 29 25 22 
-0.0616951 0.0495451 1.55871 19 14 8 
0.0809246 0.0509636 1.44575 111 107 98 
0.196074 0.0553074 1.43276 93 84 79 
-0.116209 0.0523721 1.63357 26 21 17 
-0.017245 0.0510478 1.51565 102 99 90 
0.321651 0.0660536 1.51592 71 63 50 
0.00468211 0.0529591 1.50268 19 14 10 
0.185473 0.0573949 1.43342 34 26 15 
-0.0726325 0.0544768 1.56449 78 74 71 
0.225018 0.0610291 1.43804 107 103 91 
0.235364 0.0618884 1.44161 102 96 84 
0.124029 0.0571857 1.43022 112 105 97 
0.141141 0.0579405 1.43299 90 86 77 
0.336167 0.0697772 1.52319 68 56 42 
0.306585 0.0686535 1.49709 78 68 56 
0.170133 0.0603819 1.42997 48 37 31 
-0.101181 0.0584438 1.60487 5 2 0 
0.0954292 0.0584917 1.4378 76 67 62 
0.31534 0.0704843 1.5042 80 71 56 
-0.0533708 0.0587762 1.55177 106 102 93 
0.0351949 0.0587427 1.47473 92 83 76 
-0.0252254 0.0590809 1.5166 99 94 90 
-0.0822911 0.0601215 1.57934 16 12 9 
0.051854 0.0604151 1.47457 81 80 76 
0.0844127 0.0601057 1.43554 116 106 97 
0.365505 0.078121 1.54743 10 0 0 
0.297219 0.0725818 1.4854 131 125 113 
0.28637 0.072791 1.48356 44 37 27 
0.0250928 0.0624217 1.47758 110 101 94 
0.00211906 0.0629047 1.49461 98 93 89 
0.0717419 0.0624699 1.43855 79 69 60 
0.182023 0.0667092 1.4288 87 80 72 
0.209515 0.0682629 1.43475 116 109 99 
0.262008 0.070835 1.44906 137 127 117 
-0.112636 0.0657979 1.61184 14 6 3 
-0.0482648 0.0645613 1.53803 4 0 0 
0.111883 0.0661414 1.43045 120 111 104 
0.156504 0.0678828 1.42682 97 90 82 
0.198403 0.070194 1.42912 32 24 13 
0.33205 0.0801255 1.51151 51 43 32 
0.317077 0.0802495 1.49822 21 13 2 
0.173036 0.0727806 1.42977 129 120 115 
-0.121731 0.0732014 1.6277 88 85 80 
0.121318 0.0718201 1.42499 99 92 84 
0.00844131 0.0720879 1.48681 37 30 24 
-0.108369 0.0748297 1.60575 31 28 23 
-0.00587578 0.0728759 1.4997 97 91 79 
0.238945 0.0794148 1.43832 120 111 104 
-0.0652153 0.0744531 1.54825 102 98 89 
-0.0821952 0.0755881 1.56772 84 80 77 
0.103812 0.0746212 1.42606 38 31 21 
-0.00302632 0.0745692 1.48755 89 79 70 
0.0440228 0.0754225 1.46968 11 7 0 
0.206059 0.0794913 1.43031 96 86 77 
-0.017942 0.07552 1.50393 33 27 15 
0.220561 0.0804861 1.43094 49 38 34 
0.300008 0.0866557 1.48316 23 13 3 
0.020899 0.0759911 1.47865 29 25 14 
0.251935 0.0828234 1.43688 21 13 2 
0.313521 0.0886513 1.49127 119 109 97 
0.0648159 0.0761898 1.44823 79 72 64 
0.152219 0.0781338 1.42018 101 94 86 
0.26532 0.083915 1.43995 96 86 76 
0.329945 0.0903507 1.50523 13 5 0 
0.320253 0.0911988 1.49956 63 56 40 
0.132978 0.0800405 1.42096 29 21 18 
0.185855 0.0830006 1.42534 13 2 0 
-0.10024 0.0824858 1.5923 107 104 99 
0.161469 0.0832072 1.42468 18 14 5 
0.178227 0.0841643 1.41914 44 35 26 
0.0718593 0.0819818 1.43292 89 78 72 
0.228272 0.0883625 1.42341 24 11 2 
-0.0934063 0.0869163 1.57874 94 91 86 
-0.00762493 0.0851103 1.4888 95 91 82 
0.0390238 0.0856213 1.46851 33 28 24 
-0.116433 0.0907757 1.61824 24 20 9 
0.361086 0.103629 1.52754 136 128 117 
0.2102 0.0913339 1.42698 60 51 34 
-0.0344636 0.0897658 1.50898 64 59 53 
0.309233 0.102021 1.49642 34 23 17 
0.0428337 0.0897038 1.4584 86 83 78 
0.189864 0.092475 1.41778 108 104 92 
0.268044 0.0979987 1.43901 7 0 0 
0.305182 0.10231 1.47831 138 128 119 
0.203519 0.0946086 1.41513 22 13 6 
0.0160957 0.0921515 1.47317 80 69 63 
0.0679538 0.0910966 1.42641 21 14 4 
0.127933 0.0926832 1.41556 110 101 94 
0.0278082 0.0923962 1.46763 9 2 0 
0.0922168 0.092702 1.42299 21 12 7 
0.31648 0.106672 1.48711 26 18 7 
-0.0205835 0.0950163 1.50015 92 87 83 
0.226061 0.100567 1.42694 33 26 16 
0.0817891 0.0946458 1.42359 106 97 92 
0.00676838 0.0962765 1.47874 15 5 3 
-0.00612036 0.097646 1.4884 10 5 1 
0.256764 0.104769 1.43194 41 32 23 
-0.0743428 0.100798 1.54748 4 0 0 
0.178792 0.100604 1.41128 126 117 108 
0.212775 0.102437 1.4192 135 126 111 
0.30474 0.110492 1.46973 72 62 50 
-0.136185 0.106552 1.64298 22 12 10 
0.0500897 0.09901 1.45307 6 0 0 
0.139354 0.100073 1.41062 4 2 0 
0.151872 0.100763 1.41489 132 123 116 
0.16863 0.102371 1.40751 108 98 86 
-0.0516271 0.105326 1.53135 103 96 90 
0.104655 0.101626 1.40926 99 91 78 
-0.0916436 0.106369 1.56413 72 67 64 
0.382146 0.12353 1.54103 32 22 13 
0.344642 0.119546 1.49962 130 120 108 
0.205484 0.107616 1.41456 89 79 67 
-0.0217133 0.104938 1.49576 23 18 15 
0.37308 0.127524 1.52853 28 18 8 
-0.00523845 0.108418 1.48196 113 103 101 
0.317116 0.121313 1.47817 89 79 69 
-0.108181 0.114313 1.58998 8 4 0 
0.133291 0.109351 1.40453 106 99 89 
-0.084695 0.114086 1.55374 92 87 84 
0.118625 0.109777 1.41215 22 18 9 
0.160529 0.111317 1.40203 140 130 118 
0.020781 0.111497 1.4609 88 84 73 
0.242548 0.117003 1.42106 99 89 77 
-0.0746199 0.117625 1.54271 74 70 67 
-0.0278692 0.115391 1.49533 83 79 76 
0.149735 0.114389 1.40356 150 141 124 
-0.0580004 0.117333 1.52021 72 64 61 
0.128531 0.113815 1.39642 20 16 5 
0.227825 0.118771 1.40611 15 8 0 
0.285299 0.125147 1.45407 98 90 79 
0.327037 0.13004 1.48118 117 107 97 
0.0963982 0.114884 1.41022 81 70 64 
0.35388 0.133686 1.4999 53 46 30 
0.0644772 0.116146 1.43058 17 12 8 
0.0836446 0.116189 1.40881 108 101 91 
-0.00144834 0.11923 1.47252 109 101 98 
0.203845 0.1209 1.40501 160 151 134 
0.0725395 0.117905 1.41686 30 25 19 
0.314017 0.132711 1.46959 103 95 84 
0.0124603 0.120549 1.46569 94 85 78 
0.262577 0.126396 1.42045 152 148 137 
0.119691 0.119252 1.40089 132 129 120 
0.142543 0.120106 1.39927 153 141 127 
0.367238 0.140704 1.51583 55 49 35 
-0.103521 0.128375 1.57201 77 69 66 
0.216813 0.126475 1.40839 137 122 99 
-0.0515971 0.126059 1.50923 94 91 86 
0.192614 0.125973 1.40729 8 1 0 
-0.014171 0.125128 1.47827 94 86 83 
0.322078 0.137574 1.47523 125 117 104 
-0.120307 0.132552 1.59641 20 10 8 
0.101494 0.122569 1.40266 20 11 4 
0.302473 0.136831 1.46267 106 98 85 
-0.144204 0.137616 1.64528 4 0 0 
0.239276 0.13124 1.413 143 136 120 
-0.0841492 0.131619 1.54495 1 0 0 
-0.0369219 0.128577 1.49438 101 92 85 
0.386678 0.150117 1.53761 17 7 0 
0.043614 0.127746 1.44397 5 1 0 
0.0568797 0.127872 1.43914 79 73 73 
0.337191 0.143661 1.48616 47 37 28 
0.155226 0.129141 1.40275 134 120 109 
0.250136 0.133834 1.41357 116 106 96 
-0.111023 0.136157 1.58089 108 103 100 
0.0311202 0.130279 1.45419 8 3 0 
0.351051 0.148324 1.49716 41 31 19 
0.298292 0.142874 1.45272 19 15 3 
0.227095 0.135162 1.40159 92 85 77 
-0.0605731 0.136312 1.51987 9 4 0 
0.377521 0.153831 1.5215 124 114 102 
0.332111 0.148038 1.47636 46 37 28 
0.271424 0.140292 1.41741 42 32 22 
0.103828 0.131944 1.39283 32 26 14 
0.235663 0.13854 1.40587 35 28 18 
0.38552 0.157631 1.52886 25 18 2 
0.343756 0.15182 1.48171 116 108 95 
-0.00496966 0.136911 1.46981 16 8 5 
-0.107344 0.144089 1.56941 118 114 105 
-0.136368 0.149565 1.62735 10 2 0 
0.321864 0.151274 1.4661 124 116 105 
0.0530619 0.137725 1.43483 109 98 94 
0.0763999 0.134841 1.40086 90 83 75 
0.308674 0.150807 1.45846 54 44 34 
-0.0514388 0.142238 1.50911 28 25 18 
0.0883082 0.135969 1.39955 108 101 93 
0.134561 0.137401 1.39684 14 5 0 
0.218266 0.141299 1.40101 58 51 33 
-0.0419681 0.141873 1.49924 97 89 86 
0.0396564 0.139441 1.43915 21 12 7 
-0.0230375 0.141765 1.48381 4 1 0 
-0.0810806 0.146284 1.5366 20 15 11 
0.279199 0.148227 1.4279 15 5 0 
-0.122799 0.150742 1.59387 72 67 61 
0.291631 0.152223 1.44814 7 0 0 
-0.0922127 0.149037 1.55198 6 3 0 
0.103834 0.141117 1.4002 7 1 0 
0.156265 0.142625 1.39328 114 97 89 
0.064392 0.142864 1.42028 108 98 96 
0.368604 0.164645 1.4983 120 110 100 
0.120435 0.143147 1.39271 12 5 0 
0.192297 0.147026 1.3943 127 111 98 
0.328027 0.160146 1.46602 137 127 117 
0.350647 0.16345 1.48671 40 34 22 
0.342541 0.163195 1.48099 22 14 3 
-0.127027 0.158382 1.60212 91 84 78 
-0.143223 0.162652 1.63914 17 12 8 
0.217385 0.148972 1.39216 84 72 56 
0.202497 0.149107 1.39357 50 39 21 
-0.106594 0.156699 1.566 15 12 7 
0.0241967 0.149591 1.43742 10 2 0 
0.080612 0.146981 1.39661 15 8 0 
0.246926 0.155267 1.40133 104 94 84 
0.29745 0.163155 1.44504 21 8 0 
0.0914873 0.149189 1.39577 104 91 82 
0.13013 0.150317 1.3906 18 8 0 
0.316144 0.166053 1.46061 20 10 0 
0.055049 0.153324 1.4279 77 73 70 
0.113426 0.150429 1.3841 95 84 78 
-0.118685 0.166562 1.58825 40 35 31 
-0.113007 0.166554 1.57253 36 32 23 
-0.0137383 0.157225 1.4642 16 9 1 
0.0350117 0.156208 1.43425 67 62 58 
-0.00182975 0.158054 1.46098 14 9 5 
0.351581 0.174307 1.47796 27 15 3 
-0.141234 0.174458 1.62831 6 1 0 
-0.036361 0.161642 1.4818 23 16 8 
-0.0661627 0.164681 1.51228 5 0 0 
0.211821 0.161991 1.39044 21 13 2 
0.237754 0.16374 1.39859 106 96 87 
0.223999 0.162423 1.38899 23 13 4 
0.253427 0.165516 1.40217 115 107 96 
0.135239 0.159856 1.38675 40 31 14 
0.27475 0.168534 1.40975 13 6 0 
0.303752 0.174011 1.44298 31 23 12 
0.121856 0.160083 1.38229 158 149 142 
-0.132539 0.178345 1.60224 7 0 0 
0.330251 0.177967 1.45362 39 29 17 
0.111535 0.160553 1.38008 93 86 78 
0.283694 0.174074 1.43268 84 75 68 
0.064003 0.164077 1.42021 14 9 6 
0.355904 0.184934 1.48422 33 21 9 
-0.120234 0.179776 1.5823 74 71 66 
-0.139141 0.183679 1.61209 40 35 31 
0.0940564 0.163876 1.38473 40 35 29 
0.149251 0.166216 1.38197 29 19 7 
0.364128 0.188886 1.49183 36 24 8 
0.245128 0.171187 1.39019 24 12 0 
0.255327 0.173256 1.39434 42 32 23 
0.373554 0.191709 1.5004 127 115 101 
-0.0790703 0.178348 1.52324 110 110 102 
0.222345 0.17199 1.38499 118 108 98 
0.133083 0.167847 1.37758 49 37 25 
0.0803564 0.167924 1.38916 83 76 68 
0.233053 0.173561 1.38979 107 95 83 
-0.144066 0.191716 1.63461 29 24 20 
-0.0487142 0.17652 1.49142 94 84 85 
0.0305389 0.172697 1.42978 90 87 80 
0.287435 0.183759 1.43473 41 33 22 
0.335192 0.188433 1.45723 118 108 99 
0.102359 0.170243 1.38041 109 100 93 
0.31643 0.187423 1.44558 130 121 106 
0.327505 0.189381 1.44981 133 125 112 
0.355079 0.194782 1.47772 112 103 94 
0.211401 0.176709 1.38293 141 131 121 
0.372198 0.198161 1.49191 21 13 0 
-0.110179 0.189949 1.55886 18 10 7 
0.0667558 0.176458 1.41062 74 69 65 
-0.0320925 0.181305 1.47187 103 100 91 
-0.131355 0.194721 1.59451 104 99 96 
0.0464606 0.178472 1.41959 97 90 84 
0.0888235 0.176784 1.37897 76 71 67 
0.116959 0.177495 1.37131 22 18 9 
0.231717 0.183261 1.38161 113 105 92 
0.314957 0.195474 1.43872 19 12 2 
0.284317 0.19244 1.42473 95 89 77 
0.193954 0.182972 1.37433 91 78 69 
0.303545 0.195922 1.43479 58 48 36 
0.210278 0.18364 1.3739 151 143 120 
-0.0905612 0.195388 1.52707 89 85 76 
-0.0742602 0.193739 1.50884 81 76 70 
0.0194649 0.186623 1.43243 28 17 11 
0.148614 0.183333 1.37227 84 74 62 
-0.135632 0.205445 1.59981 77 74 67 
-0.105602 0.200092 1.55402 10 6 3 
-0.152855 0.211288 1.63827 21 16 12 
0.258996 0.190834 1.38688 102 93 84 
0.337052 0.204283 1.45752 41 31 22 
-0.120743 0.204504 1.57239 23 15 12 
0.330928 0.204104 1.44721 128 118 108 
0.360137 0.210136 1.47309 30 20 8 
-0.0276049 0.19522 1.46967 37 28 21 
0.0734168 0.186768 1.38248 73 63 61 
-0.0445814 0.196234 1.47365 7 0 0 
0.0343193 0.190611 1.41725 7 0 0 
0.0968048 0.187192 1.37527 111 103 100 
0.217578 0.193202 1.37955 44 36 23 
0.389884 0.219836 1.507 124 114 102 
0.12481 0.189523 1.36782 97 90 82 
0.241846 0.195537 1.37636 47 39 28 
0.298231 0.204779 1.42196 113 103 91 
0.262121 0.200237 1.3829 130 124 112 
0.33511 0.213037 1.4493 129 121 110 
0.408057 0.228612 1.52961 27 19 6 
0.320208 0.211614 1.43741 34 24 12 
0.225003 0.197837 1.3706 24 16 5 
0.346492 0.216288 1.45725 104 96 83 
0.209691 0.199656 1.37169 55 42 23 
0.100132 0.194364 1.36566 10 7 0 
0.31051 0.212939 1.43116 110 100 90 
0.113316 0.196119 1.36826 101 98 89 
0.19419 0.198866 1.36402 15 9 0 
0.177484 0.199372 1.36725 121 113 100 
0.0172592 0.201046 1.41502 10 7 0 
-0.0545561 0.208584 1.47746 80 76 75 
0.0699325 0.198307 1.38031 101 97 88 
0.233749 0.203489 1.3728 110 100 90 
0.250071 0.205451 1.37932 163 151 139 
0.157795 0.1999 1.36344 36 26 17 
0.370624 0.226605 1.48033 27 17 5 
0.0305667 0.203414 1.41384 7 0 0 
-0.0948221 0.216862 1.52532 8 0 0 
0.126418 0.19965 1.36243 30 23 15 
0.293099 0.215008 1.41548 33 20 11 
0.391568 0.234633 1.50505 40 28 14 
-0.0333166 0.211889 1.45599 95 86 79 
0.137165 0.203765 1.36232 114 105 96 
0.0914814 0.204274 1.37342 119 116 107 
0.172916 0.204674 1.3562 77 70 60 
0.342666 0.226584 1.44657 51 42 27 
0.418839 0.245326 1.54274 35 27 14 
0.202795 0.207914 1.36129 7 0 0 
0.259495 0.212707 1.37809 105 97 86 
0.284003 0.219463 1.41061 100 90 81 
0.106588 0.205243 1.36538 109 104 98 
0.118316 0.203923 1.35226 106 103 96 
0.182805 0.208564 1.36112 85 81 69 
0.30544 0.2235 1.41987 130 120 108 
0.348953 0.231408 1.45366 30 21 6 
0.218055 0.212847 1.36551 122 112 103 
0.127655 0.209027 1.3563 40 35 29 
0.0184534 0.215135 1.41675 16 5 0 
0.15179 0.210267 1.35573 30 26 15 
0.317841 0.228188 1.42195 62 54 43 
0.0576863 0.214052 1.39449 78 74 71 
0.0903272 0.210302 1.36386 11 7 0 
0.0412041 0.215257 1.40305 97 94 89 
0.22805 0.217003 1.36499 22 14 3 
0.247208 0.218914 1.37067 152 142 133 
-0.0375316 0.222537 1.45684 25 20 16 
0.328431 0.232897 1.42991 51 42 27 
-0.0940373 0.232174 1.51625 105 98 90 
0.273628 0.224651 1.38358 36 30 18 
0.358393 0.240487 1.45893 144 134 124 
-0.0583632 0.228132 1.47716 11 10 6 
0.289011 0.229257 1.40103 139 131 118 
0.422175 0.257465 1.53747 26 17 2 
0.111536 0.215114 1.35622 17 10 4 
0.141631 0.215816 1.35287 64 60 51 
0.404928 0.253416 1.51292 103 93 81 
-0.0687588 0.231127 1.48709 19 10 5 
0.00112924 0.222669 1.42326 8 4 0 
0.0250804 0.220864 1.40808 32 27 23 
0.0682252 0.217473 1.37996 10 3 0 
0.259087 0.224425 1.3741 20 12 0 
-0.113634 0.240196 1.54926 18 13 7 
-0.150133 0.252008 1.61747 7 4 0 
-0.0870174 0.234393 1.50314 26 19 11 
0.313584 0.234645 1.41323 25 17 6 
0.23673 0.223752 1.36508 107 97 87 
0.189909 0.221924 1.35742 13 6 0 
0.125427 0.220082 1.35296 104 100 89 
0.0945625 0.221138 1.36283 88 77 71 
0.152347 0.222415 1.35336 97 90 80 
0.304622 0.237306 1.40488 34 26 15 
0.378086 0.251312 1.46652 148 140 129 
0.0143922 0.227959 1.411 110 103 97 
0.284427 0.234687 1.39059 91 84 74 
-0.146701 0.256489 1.6046 114 111 104 
0.332343 0.244046 1.42095 37 28 21 
0.228534 0.230272 1.35917 54 48 36 
-0.0419496 0.236233 1.45157 33 29 18 
-0.0240011 0.234804 1.4325 78 73 70 
0.104331 0.225066 1.35174 31 24 18 
0.174975 0.228001 1.35154 108 98 89 
0.328707 0.244686 1.41033 35 29 17 
-0.0731348 0.242113 1.48064 112 105 97 
0.0466371 0.230097 1.38886 100 95 92 
0.070526 0.227563 1.3678 14 9 3 
0.056999 0.229497 1.37978 25 21 18 
0.16239 0.227615 1.34839 28 18 9 
-0.0114165 0.235704 1.42449 114 109 103 
0.141145 0.229347 1.35326 114 106 95 
0.131784 0.228214 1.34708 108 101 91 
0.299728 0.243155 1.39307 119 110 101 
0.117195 0.230239 1.34861 20 10 0 
0.237806 0.23702 1.35601 36 26 16 
0.0860808 0.230857 1.35357 102 97 91 
-0.0802946 0.250101 1.49093 18 9 4 
0.264595 0.240264 1.36394 67 57 45 
0.380131 0.262858 1.46263 119 111 100 
-0.0374436 0.242976 1.43999 82 77 71 
0.315176 0.249143 1.3966 30 23 13 
-0.0647198 0.248427 1.46644 17 9 7 
-0.00609425 0.240633 1.41237 143 136 128 
0.0329255 0.237801 1.38713 119 115 114 
0.218377 0.240069 1.35656 107 99 88 
-0.0270974 0.243754 1.4268 55 45 43 
0.074246 0.234925 1.35562 110 106 97 
0.179186 0.237405 1.34681 13 4 0 
0.201695 0.239481 1.35044 76 65 59 
0.0178609 0.2412 1.39783 7 0 0 
0.155948 0.236754 1.34472 50 43 37 
0.288265 0.249666 1.38222 34 25 16 
-0.100136 0.259693 1.51431 85 76 69 
0.0993961 0.2367 1.34992 97 88 83 
0.255806 0.244743 1.35977 34 25 16 
0.363503 0.264877 1.43718 48 39 30 
0.167847 0.239896 1.34319 31 28 19 
0.144806 0.240861 1.34857 29 19 10 
0.302469 0.253977 1.38551 27 17 7 
0.244937 0.245726 1.35203 116 106 96 
0.232948 0.247907 1.35267 25 21 10 
0.0486214 0.245203 1.36328 36 32 29 
0.380424 0.27433 1.44439 14 6 0 
0.0165287 0.249477 1.38683 100 97 92 
0.192447 0.248696 1.34713 16 8 5 
0.293124 0.258063 1.37507 117 107 98 
-0.0751478 0.262852 1.4691 31 28 23 
0.11227 0.245936 1.34585 109 100 93 
0.0788967 0.245521 1.34635 42 31 27 
0.338459 0.266552 1.39745 91 85 73 
-0.122426 0.278385 1.53902 7 4 0 
-0.0664665 0.264771 1.45639 102 97 93 
0.00230093 0.254029 1.38772 13 9 8 
0.0681706 0.249933 1.35457 79 75 74 
0.282058 0.259074 1.35953 49 45 34 
0.176252 0.251943 1.33964 12 8 0 
0.124222 0.250166 1.338 45 36 27 
0.305054 0.26491 1.37781 57 50 40 
0.347105 0.272366 1.40697 25 16 9 
0.14737 0.251645 1.33878 138 131 121 
0.250019 0.25871 1.35195 112 103 94 
-0.082845 0.271607 1.47284 106 101 97 
0.19926 0.256815 1.34526 56 46 34 
0.326814 0.270819 1.38395 62 53 44 
0.0203289 0.257331 1.37323 92 89 84 
0.0483457 0.255726 1.35307 17 8 1 
-0.132635 0.290929 1.5497 18 14 13 
0.376644 0.285094 1.42673 58 50 37 
-0.0601903 0.268453 1.42678 88 84 81 
0.0987695 0.25689 1.33789 100 91 82 
0.258925 0.266479 1.35262 46 38 27 
0.301972 0.271769 1.36859 136 134 121 
-0.0706446 0.274923 1.45012 89 85 82 
-0.0164564 0.265634 1.39719 3 0 0 
0.242529 0.265203 1.347 46 40 28 
-0.150332 0.300619 1.58338 71 69 72 
0.0716025 0.25981 1.34579 112 108 105 
0.223959 0.266134 1.34476 40 32 21 
0.314174 0.277257 1.38305 42 33 24 
0.393322 0.293433 1.44244 54 44 34 
0.158097 0.261556 1.33199 98 91 83 
0.384789 0.294177 1.43771 21 7 0 
0.340705 0.284239 1.39513 21 17 8 
0.140637 0.264837 1.33348 31 27 16 
0.184328 0.265456 1.32881 31 27 18 
-0.167057 0.308011 1.58851 69 59 50 
-0.0534072 0.277443 1.42299 15 11 8 
0.112671 0.265557 1.33639 45 46 32 
-0.164115 0.310279 1.57703 106 102 93 
-0.0967039 0.289133 1.46666 30 26 23 
0.169388 0.271043 1.33296 103 99 90 
0.193557 0.273411 1.34034 40 33 27 
0.263378 0.278373 1.35231 49 37 23 
-0.143837 0.305678 1.54969 3 0 0 
0.0248401 0.271146 1.35787 9 4 1 
-0.148186 0.31075 1.56738 72 68 67 
0.129922 0.269341 1.33037 16 7 0 
0.346986 0.292302 1.39732 43 36 28 
0.380161 0.299218 1.42268 19 6 0 
0.251291 0.280023 1.34513 41 32 17 
0.275475 0.283393 1.3558 15 8 0 
0.387627 0.303985 1.427 19 7 0 
0.119256 0.272195 1.32927 95 90 86 
0.229137 0.278134 1.33747 110 107 98 
0.152715 0.274142 1.33026 33 24 15 
0.216355 0.27836 1.33404 7 4 0 
0.405108 0.310982 1.44764 17 3 0 
-0.108819 0.298482 1.47695 101 97 88 
-0.00581809 0.281129 1.37434 85 81 78 
0.370866 0.303597 1.40898 108 97 91 
0.394933 0.310745 1.43424 27 17 7 
0.301261 0.291432 1.36183 33 24 15 
-0.0612918 0.290318 1.41772 89 81 79 
-0.01893 0.284517 1.38122 101 97 96 
0.0989169 0.277342 1.32794 25 20 14 
-0.121732 0.307243 1.49689 10 5 0 
-0.0765394 0.294494 1.42835 9 4 0 
0.0622269 0.278553 1.33313 49 45 36 
0.330415 0.300708 1.38143 135 127 114 
0.166012 0.282439 1.32609 102 93 84 
0.0378018 0.282828 1.34764 85 80 76 
0.0225817 0.285425 1.35651 98 88 86 
0.230421 0.287708 1.33159 120 110 98 
0.144094 0.280848 1.3145 104 94 84 
0.154551 0.284408 1.32679 18 11 1 
0.20734 0.287331 1.32995 33 30 23 
0.12014 0.283377 1.32461 110 105 99 
0.220733 0.288425 1.32607 47 42 36 
0.0902336 0.285041 1.3313 17 12 8 
-0.0404665 0.296976 1.39539 96 92 81 
-0.159572 0.332303 1.56084 19 14 10 
0.0608136 0.289235 1.34156 10 7 0 
0.0705023 0.288923 1.33266 18 14 5 
-0.0566581 0.302148 1.40431 6 1 0 
0.0455389 0.290909 1.33902 23 18 12 
0.134265 0.289063 1.3154 97 90 84 
0.310195 0.307971 1.36164 105 101 89 
0.00985736 0.296137 1.3589 101 100 96 
0.199099 0.2945 1.32063 125 117 106 
-0.106222 0.316078 1.45855 143 141 128 
0.208547 0.298468 1.32484 85 77 66 
-0.000667461 0.299486 1.36299 96 91 88 
0.320789 0.313194 1.36451 118 114 102 
-0.0815052 0.313843 1.43009 110 103 95 
0.0892557 0.297319 1.32708 79 74 70 
0.110915 0.296379 1.31626 93 89 80 
0.0692623 0.299605 1.33444 98 94 91 
-0.0200443 0.306543 1.37427 9 6 0 
0.359361 0.32802 1.39785 106 96 84 
0.170801 0.300407 1.3145 28 24 15 
0.0376765 0.302516 1.34183 77 74 69 
0.311934 0.31717 1.35503 35 25 15 
0.284154 0.314573 1.34717 9 0 0 
-0.119973 0.330869 1.47283 15 11 2 
0.214754 0.305717 1.31791 35 29 17 
0.2428 0.309168 1.32624 109 99 89 
0.0618082 0.302853 1.32698 21 17 8 
0.226979 0.307515 1.32097 117 107 97 
0.143427 0.303768 1.31587 111 104 98 
0.191378 0.306503 1.31856 49 43 31 
0.263535 0.314179 1.33739 43 35 22 
0.00795819 0.3086 1.35277 74 70 67 
0.11934 0.303225 1.31483 10 10 0 
-0.163225 0.351934 1.54881 27 22 16 
-0.0537838 0.318221 1.39582 20 13 7 
-0.148754 0.346032 1.51677 22 21 17 
0.082844 0.305845 1.32176 28 23 17 
0.0540601 0.309838 1.33515 15 10 6 
0.153744 0.307382 1.30877 25 22 15 
0.361485 0.337103 1.39203 35 23 11 
-0.100666 0.334673 1.44986 85 76 71 
0.236479 0.314776 1.32084 111 101 91 
-0.0330389 0.319429 1.37781 107 102 99 
0.351377 0.336426 1.38557 48 38 28 
0.329916 0.331589 1.36853 51 45 31 
-0.0141667 0.318132 1.36181 72 64 61 
0.208516 0.315081 1.3148 111 107 96 
0.186671 0.315314 1.31409 114 109 103 
0.16685 0.313906 1.30921 124 120 111 
0.259022 0.322181 1.32848 113 106 96 
0.130127 0.313664 1.31235 87 84 77 
0.31929 0.333066 1.35857 100 93 83 
0.0107301 0.318847 1.34996 22 17 14 
-0.134123 0.350151 1.48828 6 1 0 
0.0972997 0.313874 1.31371 97 93 84 
0.379872 0.349015 1.40394 45 35 23 
-0.145989 0.358346 1.51291 17 13 10 
0.0392715 0.31897 1.33371 78 73 69 
0.223134 0.322315 1.31409 31 22 13 
0.214632 0.322561 1.30954 28 24 13 
0.29029 0.33224 1.33681 104 97 87 
-0.166041 0.37147 1.54685 36 31 28 
-0.0999064 0.346669 1.43622 20 10 8 
0.245865 0.328088 1.31606 128 121 113 
0.330059 0.343828 1.36124 33 25 12 
-0.108508 0.352758 1.45222 6 1 0 
-0.0288042 0.333903 1.36939 7 4 0 
-0.00867801 0.332864 1.36019 103 98 92 
0.305347 0.340169 1.34255 45 36 27 
0.188367 0.327413 1.30901 21 12 5 
0.0840504 0.326206 1.31469 21 14 8 
0.118077 0.326236 1.31046 108 103 97 
0.178555 0.328018 1.30178 155 148 140 
0.400493 0.36846 1.42043 52 42 32 
0.0696713 0.329353 1.31832 93 85 82 
0.232579 0.333971 1.31282 47 38 31 
-0.0598032 0.348416 1.39227 44 44 34 
0.168506 0.332659 1.30021 103 96 86 
0.0244341 0.33515 1.33092 8 0 0 
0.00147025 0.339119 1.34531 41 31 30 
-0.0382433 0.34689 1.378 15 10 6 
0.298622 0.349196 1.33644 114 104 94 
0.219064 0.338447 1.30554 42 33 24 
0.379819 0.367812 1.38924 127 118 103 
0.146292 0.336257 1.3033 11 6 0 
-0.00751933 0.343983 1.35163 124 120 117 
0.127146 0.33559 1.303 77 70 64 
0.274591 0.347465 1.32264 124 115 106 
0.241225 0.342984 1.30853 156 148 137 
0.080846 0.337369 1.30681 13 5 2 
-0.131588 0.378429 1.47352 9 4 0 
0.289482 0.353508 1.32488 102 96 82 
0.225602 0.346038 1.30411 101 97 85 
0.316969 0.360764 1.34387 111 105 91 
-0.135804 0.383567 1.48399 29 25 16 
0.208662 0.345545 1.29844 44 41 32 
0.163932 0.343396 1.29319 134 127 119 
0.249452 0.351447 1.30878 121 114 106 
-0.0938081 0.371967 1.4246 4 0 0 
0.128294 0.344034 1.29516 116 112 109 
0.234438 0.351102 1.30155 114 107 97 
-0.0827178 0.370179 1.41038 14 9 5 
-0.0300062 0.35811 1.36117 87 80 74 
0.0137623 0.350556 1.32847 108 109 103 
-0.0122769 0.35472 1.34374 102 99 90 
0.409263 0.39506 1.4216 26 16 4 
0.0834771 0.34761 1.30093 26 15 9 
0.346479 0.3735 1.35301 146 138 127 
0.0963472 0.348062 1.29728 14 9 3 
0.153004 0.350309 1.29659 59 56 49 
0.298766 0.363624 1.32359 123 111 97 
0.312033 0.366052 1.32657 111 107 96 
-0.127979 0.390453 1.46536 102 98 89 
-0.0416787 0.364162 1.36346 104 97 89 
0.0716034 0.352778 1.30764 46 41 35 
-0.0649436 0.370354 1.38323 34 27 21 
0.216304 0.356145 1.29368 53 47 35 
0.289574 0.365147 1.31416 36 29 19 
0.119374 0.352727 1.29246 26 21 15 
0.142862 0.352896 1.28865 101 99 87 
0.264938 0.362777 1.30556 92 89 84 
-0.147835 0.403329 1.49439 100 90 88 
0.246486 0.360851 1.29465 30 23 15 
0.161161 0.354638 1.28225 113 109 100 
0.0579766 0.357082 1.30196 80 72 69 
0.0792895 0.356543 1.29666 89 81 79 
0.191143 0.358134 1.28085 19 8 2 
-0.0457497 0.375568 1.36669 31 28 21 
0.213417 0.360513 1.28382 19 11 0 
0.325629 0.380114 1.33114 52 43 34 
0.351048 0.385513 1.346 44 37 27 
0.233766 0.364958 1.28896 65 58 50 
0.0149201 0.365765 1.3162 33 26 20 
0.244344 0.367949 1.28526 38 26 14 
0.367365 0.393266 1.35034 57 51 39 
0.0853488 0.363453 1.2863 8 4 0 
0.376133 0.398364 1.36158 60 57 42 
0.168366 0.364465 1.27664 40 33 23 
0.115266 0.363709 1.27446 67 63 60 
-0.110032 0.403314 1.42775 111 109 97 
0.0441642 0.368357 1.29537 94 91 86 
0.178466 0.366258 1.27237 42 36 24 
-0.0697944 0.392864 1.38283 110 101 96 
0.00886052 0.373809 1.31154 21 16 12 
0.265476 0.374177 1.28183 36 33 24 
0.0816326 0.3677 1.27728 34 27 21 
-0.0248809 0.38215 1.33335 20 15 12 
-0.00907285 0.380683 1.3263 8 0 0 
0.242655 0.373309 1.27171 161 161 153 
0.154833 0.371221 1.26339 131 122 113 
0.225748 0.375151 1.26475 120 118 106 
0.13742 0.371805 1.26328 62 55 47 
-0.0658763 0.39793 1.36615 103 101 89 
0.0642767 0.37778 1.28195 24 17 9 
0.284365 0.388641 1.28571 113 109 97 
-0.100446 0.410589 1.39872 29 22 14 
-0.104863 0.41463 1.40907 26 19 13 
0.046441 0.380974 1.28673 121 116 112 
-0.035518 0.393685 1.3317 39 29 20 
0.218656 0.383489 1.26049 89 82 74 
-0.136899 0.433726 1.45388 116 109 101 
0.269333 0.390569 1.26879 84 82 70 
0.307341 0.398493 1.28846 84 77 69 
0.317258 0.400104 1.29151 100 97 88 
0.0593653 0.385871 1.27406 114 106 103 
0.234203 0.389394 1.26332 122 118 109 
0.398328 0.426043 1.35503 39 29 20 
0.211192 0.387471 1.25417 116 109 99 
-0.0788497 0.413016 1.3638 43 36 26 
0.006034 0.395532 1.2971 86 81 78 
0.195469 0.387681 1.24908 44 41 32 
-0.0703766 0.416749 1.35248 17 13 4 
0.166006 0.393906 1.24751 19 16 9 
-0.000900292 0.403563 1.29361 16 10 10 
-0.0379004 0.413373 1.31843 88 84 75 
0.0481688 0.399191 1.26442 105 100 97 
-0.090033 0.432203 1.36196 22 13 6 
-0.0250546 0.415489 1.30414 33 25 23 
-0.102768 0.440105 1.37774 92 87 83 
0.00815849 0.411917 1.27866 107 102 98 
0.0915923 0.406421 1.24917 16 7 0 
-0.0102305 0.427718 1.29364 21 13 11 
-0.0586379 0.44166 1.32565 107 97 95 
0.0613652 0.422055 1.25283 6 0 0 
0.0240273 0.429947 1.26721 91 84 74 
-0.0114014 0.43681 1.28215 86 82 71 
-0.0592616 0.450884 1.31635 24 20 9 
0.0274158 0.44043 1.25819 15 8 0 
0.00437052 0.452403 1.21357 103 97 85 
0.170135 0.307507 0.751753 121 112 105 
-0.0237133 -1.04039 2.18948 118 114 105 
-0.0552734 -0.912629 2.11461 91 84 76 
0.275976 -0.768776 1.88804 41 30 24 
0.202011 -0.748227 1.85965 12 11 7 
0.240533 -0.732293 1.85652 114 114 106 
0.136621 -0.71314 1.82607 24 19 15 
0.147272 -0.710937 1.83207 103 100 95 
0.173525 -0.699247 1.81714 31 28 21 
-0.0978078 -0.774587 2.03441 31 26 20 
0.330361 -0.686059 1.88621 21 18 11 
0.138632 -0.46649 1.65161 78 77 73 
0.0326903 -0.474496 1.69238 23 19 16 
0.24189 -0.446052 1.66438 4 0 0 
0.1593 -0.438716 1.63859 94 89 85 
0.427238 -0.477472 1.82862 5 2 0 
-0.0981567 -0.48588 1.79278 20 19 14 
0.403358 -0.452242 1.78393 113 109 100 
-0.0152515 -0.422765 1.70287 80 77 72 
-0.12228 -0.432529 1.80782 72 71 69 
0.133082 -0.364849 1.61037 83 78 74 
0.366807 -0.385564 1.7497 32 23 14 
0.378232 -0.359335 1.74972 130 126 115 
-0.0312864 -0.365963 1.71251 97 96 91 
-0.140034 -0.39452 1.84988 8 3 0 
0.0504601 -0.336969 1.64614 64 60 57 
0.19478 -0.310666 1.60008 18 16 4 
-0.0667728 -0.346153 1.73193 4 0 0 
0.130034 -0.310236 1.59115 91 86 80 
0.24359 -0.301567 1.60328 14 3 0 
-0.165391 -0.375647 1.90186 70 62 60 
0.0530036 -0.309416 1.63605 77 76 72 
0.0648506 -0.301437 1.59856 91 82 75 
0.389216 -0.314212 1.74319 49 40 25 
-0.0160775 -0.310985 1.67935 9 8 6 
0.227552 -0.27493 1.59246 22 20 8 
0.206789 -0.272942 1.58524 100 91 84 
-0.0600877 -0.304429 1.71327 78 78 76 
-0.103666 -0.311443 1.76399 8 3 0 
0.350413 -0.279276 1.69006 111 98 90 
-0.0875516 -0.298127 1.7288 17 13 10 
0.212276 -0.24927 1.5713 25 16 7 
0.304889 -0.243363 1.63422 125 115 105 
0.114983 -0.237795 1.55535 83 76 70 
-0.101802 -0.264897 1.74247 3 0 0 
0.131854 -0.228797 1.56773 93 85 74 
0.190923 -0.213688 1.55413 32 25 17 
0.310166 -0.209448 1.62908 4 2 0 
0.0785468 -0.211288 1.58163 121 112 103 
0.272724 -0.201249 1.57157 125 120 114 
0.0624111 -0.206939 1.57607 5 0 0 
0.0820005 -0.198724 1.54404 7 7 0 
-0.0133934 -0.193646 1.62499 82 77 74 
0.114555 -0.16626 1.53387 94 93 89 
0.323306 -0.149927 1.60998 33 20 11 
-0.0247201 -0.159451 1.62019 94 89 83 
-0.146251 -0.17164 1.77485 17 14 9 
0.227542 -0.126667 1.52738 24 13 7 
0.14917 -0.123988 1.52154 109 98 92 
-0.0754997 -0.135728 1.67048 95 83 83 
0.314287 -0.103733 1.58285 49 39 29 
0.328163 -0.079283 1.58516 10 0 0 
-0.122027 -0.0912964 1.69784 94 91 86 
0.296677 -0.0670404 1.55449 15 11 0 
0.226956 -0.064192 1.49979 86 79 69 
-0.00435053 -0.0643283 1.55604 11 2 0 
0.200714 -0.0468098 1.48437 85 79 63 
0.0341146 -0.0549636 1.54851 86 85 80 
-0.0956327 -0.0618173 1.63314 6 0 0 
0.10701 -0.0377419 1.47147 87 84 75 
0.191559 -0.0232666 1.48555 109 99 87 
0.117231 -0.0192258 1.45516 114 105 96 
0.332341 0.00299251 1.5487 122 112 100 
-0.109428 0.00456343 1.64112 16 11 7 
0.126568 0.0155918 1.45528 8 0 0 
0.260367 0.0216479 1.46609 20 11 4 
-0.165932 0.0101935 1.75514 8 0 0 
-0.115376 0.0234717 1.64105 97 94 89 
-0.00253887 0.0287673 1.51315 89 79 77 
0.288263 0.0596784 1.48552 39 31 20 
0.361275 0.0641176 1.54604 38 28 18 
-0.033401 0.0544699 1.53121 93 89 77 
0.347054 0.0720203 1.53035 20 10 0 
0.0273752 0.0757408 1.4638 4 0 0 
-0.132354 0.0844263 1.64084 10 5 0 
0.390795 0.111003 1.55547 127 117 105 
0.376567 0.112985 1.5344 45 37 26 
-0.174778 0.107228 1.75738 4 0 0 
0.0658575 0.10076 1.44206 86 81 77 
0.361717 0.153982 1.49954 131 121 109 
-0.101735 0.188984 1.54605 111 108 103 
0.131571 0.179833 1.37314 112 103 88 
0.270978 0.195867 1.39131 47 37 28 
-0.103842 0.208866 1.53992 14 10 0 
0.398427 0.226032 1.51683 52 44 31 
0.356119 0.221848 1.46425 26 14 0 
0.147275 0.199042 1.36377 18 9 0 
-0.00369757 0.211703 1.4361 87 82 79 
-0.122505 0.235628 1.57084 92 84 81 
0.389645 0.247808 1.49283 84 78 64 
0.221561 0.221338 1.35733 43 33 24 
0.0711743 0.228215 1.38181 94 90 87 
-0.0526427 0.238011 1.46452 16 10 10 
0.323187 0.250431 1.40361 27 20 10 
0.0627564 0.242746 1.3692 92 87 84 
0.416749 0.282959 1.49037 13 5 0 
0.37282 0.272261 1.43832 146 136 126 
-0.133377 0.278093 1.56492 13 9 6 
-0.0497103 0.260143 1.44578 104 100 97 
0.356111 0.2727 1.41812 88 82 70 
-0.158002 0.29006 1.59783 110 107 98 
0.27439 0.267437 1.35823 6 3 0 
0.204472 0.271624 1.33204 91 88 81 
0.313045 0.286866 1.37634 112 102 90 
0.0415095 0.274039 1.35513 111 106 102 
0.362122 0.311674 1.40335 104 98 86 
0.422793 0.331006 1.46958 51 41 29 
0.107278 0.28806 1.32397 27 20 12 
0.333697 0.319122 1.37468 24 14 2 
0.294473 0.316874 1.34876 110 103 95 
-0.019609 0.31783 1.37777 134 126 123 
0.249132 0.316223 1.32932 58 51 43 
0.138104 0.306376 1.30434 29 22 16 
-0.0423537 0.3296 1.37841 91 83 80 
0.349002 0.350421 1.37206 134 127 111 
0.0925056 0.324452 1.30046 17 10 2 
-0.142461 0.371683 1.49745 16 8 5 
0.407972 0.375609 1.4241 47 38 21 
0.412335 0.379327 1.43622 44 35 18 
0.338041 0.365874 1.35841 39 31 18 
-0.106035 0.379789 1.44286 102 97 93 
0.0985142 0.355032 1.28574 103 96 90 
-0.0327932 0.37238 1.35367 111 106 102 
0.255221 0.367375 1.29572 50 41 36 
0.033377 0.368831 1.2993 25 22 17 
0.0529438 0.374261 1.292 114 105 98 
-0.127325 0.416326 1.44593 108 105 96 
0.251476 0.381405 1.27231 8 1 0 
0.0767734 0.383075 1.2707 5 0 0 
0.18472 0.385531 1.25523 20 13 3 
0.28888 0.398393 1.27435 38 36 24 
-0.006636 0.398654 1.30379 129 125 122 
0.109751 0.388649 1.26014 32 23 18 
0.402823 0.438292 1.3519 98 96 84 
-0.0613652 0.419662 1.33035 29 24 20 
-0.0670415 0.423956 1.34166 24 19 15 
-0.0397435 0.433485 1.30891 26 19 13 
0.0426283 0.435383 1.24696 29 20 15 
0.0558099 -0.955914 2.02215 45 38 22 
0.0689015 -0.933025 1.99967 91 88 81 
0.00388793 -0.961502 2.08611 130 120 108 
-0.0623163 -1.00092 2.17778 86 83 74 
0.135885 -0.884121 1.96575 119 98 93 
-0.0207193 -0.942038 2.09185 31 24 14 
0.0427347 -0.869203 1.94641 113 111 99 
-0.0209134 -0.922319 2.07711 10 6 5 
-0.0114907 -0.890473 2.04391 19 14 10 
-0.0345649 -0.897526 2.06323 17 9 6 
0.227966 -0.7785 1.89322 146 142 139 
0.00265821 -0.813715 1.95631 31 24 16 
0.134753 -0.764276 1.85872 110 105 101 
0.43888 -0.936621 2.29966 116 117 112 
0.311325 -0.750135 1.92039 109 105 93 
0.363917 -0.682838 1.93227 6 3 0 
0.215313 -0.515412 1.6762 13 10 5 
0.339242 -0.520697 1.72431 82 78 75 
0.410022 -0.522909 1.82345 92 91 87 
0.333343 -0.500683 1.74287 19 16 9 
0.268805 -0.478978 1.66885 9 4 1 
0.295085 -0.478954 1.69167 6 2 0 
-0.022087 -0.509277 1.75654 27 19 16 
0.0120107 -0.492445 1.7073 23 20 15 
0.394333 -0.493256 1.80075 14 11 6 
0.0974004 -0.463039 1.66467 101 96 93 
0.325467 -0.465551 1.71849 81 80 75 
0.385271 -0.47332 1.77869 12 12 2 
0.419765 -0.475515 1.83949 30 27 18 
-0.0192755 -0.454096 1.7151 75 69 69 
0.211251 -0.421495 1.63398 36 33 28 
0.186959 -0.425487 1.6521 16 12 9 
0.383295 -0.444728 1.7578 77 73 70 
-0.080589 -0.443793 1.75606 2 1 0 
0.105643 -0.402558 1.6288 112 109 102 
0.396347 -0.422148 1.76432 92 88 79 
0.273029 -0.397877 1.65605 15 10 4 
0.268533 -0.366507 1.62537 138 133 127 
-0.130182 -0.416567 1.80784 81 78 73 
-0.0113982 -0.376724 1.69561 6 2 0 
0.0627801 -0.358126 1.6347 3 0 0 
-0.0687679 -0.382099 1.73464 3 0 0 
-0.04709 -0.374316 1.71218 82 79 72 
-0.0168406 -0.355019 1.68776 6 3 0 
0.193118 -0.326495 1.60062 98 94 83 
0.101374 -0.32441 1.59036 115 107 104 
0.0698479 -0.324669 1.60956 127 122 116 
-0.104271 -0.365425 1.77623 14 11 6 
-0.00859786 -0.339699 1.69786 30 27 22 
-0.122182 -0.365115 1.81337 97 96 91 
0.137399 -0.294013 1.58042 108 104 95 
0.196777 -0.29269 1.58818 4 0 0 
0.0589079 -0.299446 1.61475 89 84 80 
0.342812 -0.2998 1.69201 104 100 89 
0.346231 -0.28985 1.67615 20 14 0 
-0.196148 -0.362242 1.96102 49 47 48 
-0.193316 -0.353851 1.98817 70 70 68 
0.246118 -0.263517 1.58834 112 105 97 
0.027215 -0.270211 1.62846 37 33 30 
0.243414 -0.226737 1.56114 29 24 18 
-0.133382 -0.269939 1.77739 7 3 0 
0.176379 -0.223397 1.56006 27 20 10 
0.029455 -0.228454 1.60671 91 88 83 
0.0585671 -0.220225 1.5937 64 60 59 
0.129652 -0.203183 1.53963 31 27 18 
0.2621 -0.197185 1.57993 33 25 14 
0.304588 -0.19365 1.62051 42 34 23 
0.11599 -0.184056 1.53193 110 103 97 
-0.0843072 -0.208567 1.69517 3 0 0 
0.325828 -0.168126 1.62314 88 75 67 
0.0641687 -0.169778 1.55192 94 90 87 
-0.0858729 -0.190176 1.68283 90 87 82 
0.101895 -0.166486 1.54623 110 105 101 
-0.140189 -0.197408 1.77836 4 0 0 
0.416507 -0.168064 1.72521 107 98 83 
-0.00524919 -0.162639 1.5963 101 98 93 
0.187564 -0.143834 1.52644 16 7 0 
0.0253268 -0.150475 1.57123 72 68 65 
0.349942 -0.138671 1.642 13 3 0 
-0.132879 -0.165875 1.74401 120 115 112 
-0.0650788 -0.147359 1.67938 34 0 0 
0.223107 -0.114855 1.51947 89 82 76 
-0.130678 -0.141337 1.72947 26 21 18 
0.0153155 -0.111294 1.57725 79 75 74 
0.339243 -0.0891395 1.59999 33 19 6 
0.304247 -0.0857049 1.58309 16 9 0 
0.366068 -0.0799737 1.6253 53 46 30 
0.0894045 -0.0847825 1.52406 31 24 16 
0.167542 -0.0807437 1.51552 93 83 74 
-0.0942438 -0.083455 1.65671 3 0 0 
0.332107 -0.0611471 1.58662 12 2 0 
0.304154 -0.0516604 1.55215 58 49 40 
0.296215 -0.0370958 1.54299 36 28 17 
0.346299 -0.0349931 1.58358 113 103 93 
-0.00355504 -0.0354764 1.53758 6 0 0 
-0.121928 -0.0306517 1.67777 3 0 0 
0.0229505 -0.0208718 1.52466 91 88 81 
0.145117 -0.0154712 1.46127 10 6 0 
0.0686119 -0.00303265 1.48926 5 0 0 
0.364579 0.00911133 1.57244 38 26 12 
0.185854 0.00801069 1.47195 7 0 0 
0.238692 0.011324 1.46448 17 7 0 
0.029615 0.00915724 1.49833 7 2 0 
-0.0161248 0.0185957 1.5236 23 12 6 
0.26941 0.0322473 1.46706 54 47 37 
-0.165862 0.0218864 1.75533 4 3 0 
0.0559973 0.0289761 1.48868 14 9 6 
0.323556 0.0413103 1.52301 44 34 25 
0.274694 0.0567312 1.46017 7 0 0 
-0.0106106 0.0579182 1.5224 97 92 86 
0.221529 0.0664095 1.42722 44 35 28 
0.00467793 0.0623124 1.48235 50 46 37 
0.0532318 0.0758972 1.45218 90 85 82 
0.330074 0.109291 1.49765 12 4 0 
0.211833 0.106386 1.40251 144 134 122 
0.0988305 0.11339 1.39767 13 2 0 
0.136696 0.125519 1.39137 137 125 113 
-0.00468699 0.129017 1.46156 109 102 96 
0.291077 0.164237 1.43131 120 113 103 
0.10087 0.153386 1.38608 87 78 69 
0.0711706 0.162109 1.40292 5 3 0 
0.271229 0.176293 1.40064 18 11 1 
0.117446 0.175549 1.35717 36 32 23 
0.194513 0.185112 1.38538 119 106 97 
0.289431 0.204854 1.4165 101 92 77 
-0.06871 0.204674 1.49936 15 4 2 
0.273736 0.210592 1.39153 123 117 103 
-0.0828968 0.223843 1.50244 13 8 4 
-0.156399 0.24848 1.64017 15 11 8 
0.0114176 0.23048 1.4263 7 2 0 
0.138021 0.219336 1.33753 13 8 4 
-0.103414 0.246542 1.52022 9 5 0 
0.276585 0.237583 1.38112 113 106 96 
0.0576362 0.234583 1.36318 37 28 21 
0.341994 0.259887 1.4138 124 117 107 
0.311486 0.258095 1.38896 116 114 102 
0.391479 0.275314 1.45802 42 38 26 
0.197554 0.248675 1.33055 16 7 0 
-0.160411 0.295374 1.62356 86 83 78 
-0.100119 0.272154 1.49629 95 91 88 
0.269628 0.258804 1.35437 38 29 20 
0.00020137 0.259387 1.37615 9 5 2 
0.0728194 0.266784 1.33015 100 96 85 
0.107054 0.271775 1.31869 25 20 14 
0.381456 0.320017 1.41826 46 40 26 
0.347951 0.316666 1.38833 39 31 20 
0.188681 0.295049 1.32158 23 14 5 
-0.13088 0.332112 1.50494 100 95 92 
0.344847 0.328977 1.38223 45 35 23 
