ply                 
format ascii 1.0    
element vertex 1292
property float x    
property float y    
property float z    
property uchar red  
property uchar green
property uchar blue 
end_header          
0.289199 -0.218124 1.51747 32 29 20 
0.337137 -0.220431 1.5545 42 34 21 
-0.0222848 -0.2358 1.54742 4 0 0 
0.126005 -0.216034 1.45742 98 93 87 
0.201132 -0.21265 1.4585 101 96 90 
0.300111 -0.217354 1.52537 24 17 9 
-0.0831574 -0.246577 1.60825 17 8 3 
-0.0726584 -0.243404 1.58882 102 94 91 
0.0708386 -0.217862 1.46681 75 68 60 
-0.137232 -0.259317 1.69246 80 76 73 
0.219005 -0.209478 1.46264 99 90 85 
0.258766 -0.209862 1.47594 27 25 13 
-0.108715 -0.248835 1.63521 20 17 12 
0.149006 -0.21131 1.45609 95 91 82 
-0.00785608 -0.228581 1.53573 1 0 0 
-0.0629543 -0.236602 1.57941 11 7 4 
0.0399196 -0.220532 1.5008 20 19 14 
0.103602 -0.210522 1.45094 23 20 13 
0.181176 -0.207024 1.4509 13 6 0 
-0.160936 -0.263615 1.7555 14 10 7 
0.000407794 -0.224697 1.52518 30 29 27 
0.135288 -0.207976 1.45502 40 36 27 
0.354812 -0.214316 1.57322 20 10 0 
0.0826639 -0.210682 1.46063 38 33 29 
0.206831 -0.203945 1.4592 99 94 88 
0.28593 -0.20802 1.51281 33 29 20 
0.316186 -0.208839 1.53616 45 39 27 
0.251858 -0.202483 1.46871 15 10 4 
0.222247 -0.200743 1.45742 97 90 84 
0.167769 -0.202739 1.45533 119 111 100 
0.330989 -0.206533 1.54294 12 2 0 
-0.115174 -0.238622 1.65096 1 0 0 
0.00990275 -0.215163 1.51899 73 69 66 
0.117243 -0.200728 1.44797 89 78 74 
-0.0241703 -0.219119 1.54191 7 4 0 
0.229431 -0.196975 1.46263 42 33 24 
0.0251548 -0.211349 1.50606 88 88 86 
0.0933784 -0.20084 1.45809 61 56 52 
0.104499 -0.198438 1.44973 44 41 32 
0.175346 -0.194019 1.43854 32 23 16 
0.319906 -0.199097 1.52762 41 32 23 
-0.103877 -0.230541 1.62482 9 5 2 
0.200613 -0.194689 1.45565 68 64 55 
0.0808569 -0.200011 1.45896 107 107 97 
-0.112493 -0.231268 1.63703 24 20 17 
-0.0933833 -0.22773 1.61183 9 2 0 
-0.00814681 -0.21126 1.5257 102 98 87 
0.146358 -0.193262 1.44527 54 49 46 
0.303586 -0.194565 1.50981 54 46 35 
0.0676563 -0.198219 1.45865 46 39 29 
0.182599 -0.192037 1.45116 95 85 75 
0.243899 -0.190247 1.46508 8 0 0 
0.323007 -0.196785 1.54023 26 20 6 
-0.123397 -0.231995 1.66228 91 86 83 
0.160929 -0.190429 1.44509 102 92 90 
0.275514 -0.18922 1.48457 20 12 1 
0.133323 -0.190619 1.44752 26 23 18 
-0.0242662 -0.207967 1.53778 14 9 3 
0.23005 -0.185775 1.45513 83 76 68 
0.254645 -0.186439 1.46856 18 9 2 
0.0623832 -0.195211 1.47262 9 6 1 
0.109908 -0.189303 1.44881 66 63 54 
0.194469 -0.184827 1.44816 8 8 0 
0.211371 -0.18496 1.45561 7 0 0 
0.322865 -0.189355 1.52869 113 103 93 
-0.00370216 -0.201855 1.51522 120 116 105 
0.0458443 -0.195627 1.49063 87 84 79 
0.087205 -0.188985 1.4524 91 86 83 
0.124017 -0.185773 1.44441 85 81 72 
0.0975341 -0.184576 1.44705 89 86 79 
0.171173 -0.179735 1.44153 82 73 68 
-0.0957464 -0.211101 1.60996 95 88 80 
0.201164 -0.177618 1.44359 86 83 74 
-0.106891 -0.213236 1.62832 102 97 93 
0.211389 -0.176782 1.44563 5 5 0 
0.155379 -0.178322 1.44537 93 84 75 
-0.132891 -0.217725 1.66653 19 16 9 
0.227871 -0.175838 1.45441 8 0 0 
0.151653 -0.176225 1.42977 27 16 12 
0.293491 -0.177236 1.50682 92 86 74 
0.241509 -0.173682 1.45892 6 3 0 
0.130013 -0.175495 1.44247 103 94 89 
0.0686589 -0.178959 1.45248 89 87 88 
0.0800537 -0.177042 1.44699 59 54 51 
-0.144851 -0.213631 1.68865 4 0 0 
0.00145292 -0.186267 1.50783 118 114 111 
0.312981 -0.173031 1.51755 7 0 0 
-0.0394158 -0.19046 1.53884 28 4 2 
0.0599756 -0.177881 1.46653 63 58 55 
0.164655 -0.169624 1.43815 20 11 2 
-0.137276 -0.209478 1.67686 15 13 1 
0.0474142 -0.178649 1.48184 67 63 60 
0.17993 -0.166749 1.4357 28 24 13 
0.224185 -0.166278 1.44794 110 102 91 
0.203408 -0.16612 1.44068 26 19 13 
0.300975 -0.16879 1.50994 62 52 40 
-0.0139108 -0.183215 1.51739 23 14 9 
0.148102 -0.166457 1.43583 98 91 85 
0.242785 -0.164107 1.45456 33 24 15 
-0.100253 -0.195226 1.60999 22 19 10 
0.274367 -0.161619 1.47058 12 3 0 
0.0924357 -0.166049 1.44318 83 75 72 
0.258607 -0.160186 1.4551 19 8 2 
0.0916454 -0.164777 1.43238 84 79 76 
0.0088321 -0.173833 1.49525 3 2 0 
0.197236 -0.158719 1.43713 6 2 0 
-0.00485698 -0.175012 1.5087 39 39 31 
0.313364 -0.160681 1.50792 43 29 18 
0.135136 -0.160021 1.43526 115 110 104 
0.0238961 -0.169411 1.48814 80 79 75 
0.104517 -0.15914 1.43085 4 0 0 
0.184852 -0.154586 1.42836 24 19 13 
0.122749 -0.156945 1.43145 12 8 5 
0.153189 -0.155654 1.4368 103 94 89 
0.324358 -0.156273 1.52202 14 2 0 
-0.110784 -0.184697 1.62315 4 0 0 
-0.0213389 -0.168943 1.51055 20 17 12 
0.218978 -0.150304 1.44072 76 72 63 
0.283576 -0.152891 1.49464 10 0 0 
0.038545 -0.162159 1.47507 1 0 0 
0.225951 -0.15051 1.44837 107 98 93 
0.166814 -0.150459 1.4299 32 28 17 
0.342374 -0.152792 1.53171 33 23 13 
0.0576337 -0.159314 1.47106 89 85 82 
0.255598 -0.147067 1.44976 119 110 101 
0.0940695 -0.151055 1.43653 102 94 92 
-0.128974 -0.181994 1.6456 76 75 71 
0.156475 -0.146786 1.427 36 29 21 
0.0363183 -0.154449 1.46849 33 28 24 
0.0758329 -0.149875 1.43556 91 86 83 
-0.10473 -0.173902 1.60881 43 38 35 
0.175723 -0.143489 1.42758 14 7 1 
0.229213 -0.141321 1.43668 21 12 3 
0.236299 -0.142964 1.45272 35 26 17 
-0.122165 -0.175539 1.63444 6 5 0 
0.247459 -0.138961 1.4434 118 108 99 
0.206534 -0.139559 1.43217 102 95 85 
0.127184 -0.142105 1.42671 38 34 23 
0.0113064 -0.151269 1.47941 23 23 13 
0.0941092 -0.139978 1.42661 36 32 23 
0.215675 -0.134497 1.43038 19 10 1 
0.146619 -0.136513 1.42761 89 85 74 
0.191943 -0.13385 1.42606 28 19 12 
0.312815 -0.13369 1.50311 136 130 118 
0.0957653 -0.135366 1.41579 104 99 95 
0.0652536 -0.138029 1.44036 27 22 18 
-0.114744 -0.162149 1.61778 5 1 0 
-0.00892906 -0.146037 1.50013 8 3 0 
0.0216291 -0.142568 1.47912 89 85 82 
0.00501308 -0.141927 1.48559 15 11 8 
0.0552688 -0.136925 1.45789 9 8 4 
0.117623 -0.131166 1.42486 98 89 82 
0.204185 -0.126542 1.42672 82 75 67 
0.246187 -0.125504 1.43834 104 94 85 
0.169371 -0.1273 1.42327 105 95 93 
0.129041 -0.128748 1.42783 107 100 94 
0.108809 -0.128179 1.42058 104 97 89 
0.13782 -0.127043 1.41986 108 99 92 
0.165872 -0.12504 1.41381 17 12 6 
0.0202604 -0.135432 1.47144 92 88 85 
0.326339 -0.12381 1.50436 30 22 9 
0.0359364 -0.132991 1.46387 16 15 13 
0.23632 -0.120393 1.4325 41 32 23 
0.125774 -0.124034 1.41806 28 21 11 
0.0676064 -0.127306 1.4344 8 0 0 
-0.0936048 -0.145709 1.57964 5 0 0 
0.0912419 -0.122923 1.42056 3 0 0 
-0.0721336 -0.142291 1.57401 89 79 78 
0.257326 -0.114922 1.4277 16 7 0 
0.308316 -0.117266 1.48885 114 108 94 
0.10568 -0.119286 1.41385 30 23 13 
0.00993858 -0.128295 1.47824 94 89 86 
0.0261445 -0.1251 1.46761 14 10 7 
0.175938 -0.114692 1.41373 20 13 3 
0.296579 -0.114469 1.4843 36 26 17 
0.141567 -0.114021 1.41828 99 90 81 
-0.101202 -0.136609 1.58501 23 19 16 
0.28326 -0.109241 1.46043 20 12 1 
-0.0944513 -0.132777 1.5669 89 84 80 
-0.0171767 -0.124019 1.49358 17 13 4 
0.0617901 -0.116675 1.44406 105 98 90 
0.210017 -0.108239 1.4168 22 14 3 
0.291369 -0.108401 1.4762 55 45 35 
0.162848 -0.109072 1.4101 10 6 0 
0.0924814 -0.112763 1.42403 86 81 77 
-0.0842931 -0.128969 1.55661 76 69 63 
0.0730594 -0.112137 1.42106 32 27 21 
0.119003 -0.108445 1.41267 98 95 88 
0.261028 -0.103481 1.43575 22 13 4 
0.199416 -0.104341 1.41283 26 17 10 
-0.106625 -0.130547 1.59707 99 94 91 
-0.00180836 -0.117749 1.48233 113 109 106 
0.0168568 -0.115832 1.46556 82 76 76 
0.130916 -0.10654 1.40618 24 14 5 
0.223667 -0.101902 1.42036 16 7 0 
-0.151535 -0.13617 1.67452 9 0 1 
-0.134546 -0.132557 1.63587 19 15 12 
-0.120159 -0.12973 1.60872 24 19 16 
0.250453 -0.0986362 1.42337 16 6 0 
0.00690732 -0.111806 1.46886 96 91 87 
0.152636 -0.1012 1.40526 93 88 82 
-0.0154622 -0.113349 1.48992 40 35 29 
0.0454421 -0.106928 1.45371 90 85 82 
0.0621704 -0.105289 1.4409 77 72 69 
0.179673 -0.0981668 1.40912 7 0 0 
0.104592 -0.100171 1.41026 91 80 78 
0.257286 -0.0942122 1.43135 18 11 3 
-0.100798 -0.119091 1.57476 22 18 9 
0.13761 -0.0967326 1.40149 93 85 72 
-0.13044 -0.121126 1.62385 6 5 1 
-0.00231143 -0.106317 1.47809 36 30 30 
0.205584 -0.0924234 1.40708 102 91 85 
0.242029 -0.0915933 1.4216 117 107 98 
0.290705 -0.0902608 1.46864 40 36 24 
-0.119134 -0.115327 1.60057 114 109 105 
-0.0196195 -0.104117 1.4845 37 28 23 
0.00621111 -0.101842 1.46567 86 80 80 
0.0951601 -0.0941825 1.41081 12 9 4 
0.184052 -0.0903899 1.41622 26 17 10 
0.225358 -0.0880045 1.41226 24 15 6 
-0.143336 -0.117065 1.64532 3 0 0 
0.17802 -0.0880217 1.40217 80 71 66 
-0.109193 -0.111608 1.58397 99 89 87 
0.0328928 -0.0958636 1.45179 85 81 80 
0.285709 -0.0848479 1.45938 105 103 90 
0.058387 -0.0935565 1.44153 79 75 72 
0.0537601 -0.092588 1.43244 79 78 73 
0.0888058 -0.0876833 1.40607 33 26 18 
0.118225 -0.086497 1.40797 8 5 0 
-0.00235665 -0.094811 1.47083 39 31 29 
0.151916 -0.0829724 1.39805 97 90 82 
0.129535 -0.0836863 1.40089 93 90 83 
-0.0183498 -0.0937751 1.48082 86 75 69 
0.0189505 -0.0900026 1.45318 13 7 7 
0.291625 -0.0781279 1.46481 112 102 93 
0.0713053 -0.0842456 1.41351 21 12 3 
-0.135208 -0.104165 1.62147 99 98 93 
0.222726 -0.075157 1.41038 104 94 85 
0.250633 -0.0736961 1.41284 131 122 115 
-0.142324 -0.102375 1.63934 5 0 0 
0.207197 -0.0746575 1.40359 112 105 99 
-0.110715 -0.0951944 1.57582 9 6 0 
0.175939 -0.0737934 1.40141 15 6 0 
0.0637949 -0.07893 1.42442 93 89 78 
0.142103 -0.0741571 1.39351 30 27 18 
-0.0709305 -0.0906276 1.54833 144 139 135 
0.234437 -0.069643 1.40517 91 87 78 
-0.12988 -0.0945644 1.61389 5 2 0 
0.0916031 -0.0748631 1.39981 3 1 0 
0.264469 -0.0663553 1.41876 51 44 34 
0.171571 -0.0690514 1.39171 8 0 0 
0.0312723 -0.0768652 1.44477 74 71 66 
-0.0828411 -0.0854368 1.53412 65 62 57 
0.102749 -0.0692641 1.39784 16 11 5 
-0.00250063 -0.0759026 1.46243 29 25 16 
0.0139591 -0.0749999 1.45664 94 89 86 
-0.0353918 -0.0782633 1.49014 42 11 6 
0.247878 -0.061995 1.4134 48 39 32 
0.199583 -0.0614202 1.39763 20 7 0 
0.255591 -0.0590924 1.41878 53 43 34 
-0.125957 -0.0830914 1.60318 104 102 90 
0.143572 -0.0617448 1.38471 82 75 65 
-0.153974 -0.0850911 1.66672 38 34 31 
0.0234787 -0.0686948 1.44779 78 73 70 
0.17085 -0.0588883 1.38835 95 86 81 
-0.150942 -0.0823768 1.65404 95 91 88 
0.00794527 -0.0681858 1.45209 78 73 67 
-0.0157085 -0.0691736 1.47218 96 92 83 
0.238556 -0.0552124 1.40131 33 23 13 
-0.120973 -0.0770112 1.58607 92 91 87 
0.100298 -0.0590552 1.39686 7 0 0 
0.206311 -0.0535361 1.39169 45 36 27 
0.0434683 -0.0621032 1.43472 20 19 14 
0.0827317 -0.0585119 1.40068 83 74 69 
0.151196 -0.053411 1.38634 22 15 7 
-0.0311295 -0.0640044 1.46993 11 0 0 
0.0314389 -0.058653 1.43628 91 90 85 
0.0676957 -0.0562502 1.39782 91 82 75 
0.105453 -0.0529795 1.38545 90 87 78 
-0.0981315 -0.0665127 1.55423 10 6 3 
0.236018 -0.046719 1.39354 96 86 76 
0.311818 -0.0457028 1.46208 20 10 0 
-0.0908343 -0.0654932 1.53855 9 2 0 
0.168427 -0.0490701 1.38134 15 4 0 
-0.107888 -0.0650216 1.56347 8 3 0 
0.18642 -0.0463804 1.38693 24 17 1 
0.219374 -0.0418867 1.38772 41 32 23 
0.204791 -0.0419534 1.38638 99 90 81 
0.112359 -0.0453861 1.38665 48 43 37 
0.240761 -0.0393885 1.40085 110 102 91 
0.257909 -0.0377273 1.40103 10 0 0 
0.127362 -0.0407872 1.37952 22 15 7 
0.14286 -0.0385923 1.37735 8 1 0 
0.0297797 -0.0444686 1.43177 7 2 0 
0.157939 -0.0371912 1.37508 10 1 0 
0.0977444 -0.0389572 1.38714 100 91 86 
-0.10872 -0.0509992 1.55857 53 48 44 
-0.0349409 -0.0457903 1.46823 31 2 0 
0.118133 -0.0367396 1.37824 84 75 70 
0.0764477 -0.0389985 1.39346 14 7 0 
0.246804 -0.0299878 1.39501 137 124 116 
0.0617417 -0.0378738 1.40448 106 95 91 
0.200117 -0.0304353 1.38233 87 78 71 
0.134274 -0.0313636 1.37636 90 83 75 
0.186674 -0.0295036 1.37591 34 27 11 
0.0222942 -0.0362896 1.43421 103 98 94 
-0.0920703 -0.04207 1.52583 35 25 13 
0.230768 -0.0254315 1.38476 35 25 15 
0.217057 -0.0252844 1.38686 111 102 95 
0.100187 -0.0295346 1.38113 109 101 88 
-0.012914 -0.0350466 1.45292 113 103 94 
0.00203022 -0.0325552 1.45308 6 2 0 
0.115956 -0.0265043 1.37503 101 93 82 
0.0716465 -0.0286541 1.38465 27 24 19 
0.149234 -0.0250045 1.37454 99 91 80 
0.269527 -0.0191764 1.40318 106 96 86 
0.34492 -0.0164358 1.47455 128 115 99 
-0.102719 -0.0340216 1.54328 34 26 15 
0.240838 -0.0164989 1.38441 101 89 77 
-0.131319 -0.0342191 1.58844 6 3 0 
0.0343376 -0.0250483 1.42256 87 82 78 
0.186664 -0.0175279 1.3737 99 95 84 
0.0840238 -0.021348 1.3789 21 16 10 
0.168715 -0.0177059 1.37074 80 76 67 
0.063928 -0.0217197 1.39982 4 0 0 
0.0992914 -0.020172 1.3749 17 8 3 
0.214165 -0.0153063 1.38278 92 81 75 
0.01039 -0.0243461 1.43372 35 34 30 
-0.000233107 -0.0241944 1.44061 87 87 79 
0.156836 -0.0154723 1.37226 114 103 97 
0.226187 -0.0117777 1.38229 76 72 63 
-0.137775 -0.0287684 1.59821 13 8 5 
-0.0949526 -0.0263381 1.5318 31 27 18 
-0.108153 -0.0259918 1.55261 25 18 10 
-0.0655487 -0.0236338 1.51332 74 45 37 
0.199946 -0.0111378 1.37664 120 111 104 
0.21587 -0.0104514 1.37332 72 65 57 
0.0412786 -0.0177735 1.41208 6 1 0 
-0.127081 -0.0242507 1.57813 24 18 18 
0.113408 -0.012928 1.36928 76 67 58 
0.282481 -0.00502307 1.42783 25 21 10 
0.261382 -0.00451283 1.38772 19 9 0 
0.293323 -0.00322488 1.43183 31 18 9 
0.249475 -0.0045417 1.38804 22 10 0 
-0.101471 -0.0177302 1.5384 14 10 1 
0.101593 -0.00880125 1.37088 129 120 113 
0.1511 -0.00639843 1.36526 119 111 100 
0.198655 -0.00292692 1.36878 115 105 95 
0.127888 -0.00560928 1.36616 94 90 81 
0.162469 -0.00424856 1.36285 18 11 3 
-0.130821 -0.0158562 1.59241 75 70 66 
0.0684285 -0.00770676 1.38354 5 0 0 
0.239524 0.00154525 1.38004 28 18 6 
-0.126081 -0.0120112 1.57417 7 2 0 
0.014532 -0.0070818 1.42041 22 14 11 
0.250075 0.00624539 1.37513 37 27 17 
-0.0162216 -0.00444988 1.44468 18 7 1 
0.330074 0.0114446 1.45231 11 3 0 
0.176306 0.00467608 1.36358 94 85 76 
0.137022 0.00318767 1.3563 66 61 57 
0.114774 0.00325595 1.36502 6 1 0 
0.0996867 0.00325047 1.36514 88 85 78 
-0.0979381 -0.00272791 1.52344 4 0 0 
0.0760178 0.00338832 1.37418 36 27 18 
0.0225247 0.00177217 1.41295 96 91 87 
0.154954 0.00749722 1.35781 22 13 8 
0.0412905 0.00413209 1.40413 4 3 0 
0.0526307 0.00445782 1.39692 80 79 77 
0.0617006 0.00467859 1.38652 15 12 7 
0.170265 0.0093478 1.35718 83 80 71 
0.220492 0.0123355 1.36774 84 80 71 
0.196424 0.0119541 1.36052 93 82 76 
0.29843 0.0172674 1.42057 107 94 86 
-9.09673e-05 0.00548892 1.42396 30 21 16 
0.240539 0.0161155 1.37411 19 15 6 
-0.0191483 0.0077086 1.43771 16 7 0 
0.233713 0.0189023 1.3671 115 111 100 
0.0156867 0.0110965 1.41402 97 92 88 
0.10133 0.0138543 1.35935 18 10 7 
0.0679765 0.0134926 1.37007 95 90 84 
-0.119431 0.0114321 1.55334 83 79 76 
0.164188 0.0198591 1.35416 89 80 71 
0.146004 0.0201994 1.3511 88 77 71 
0.0900256 0.0183067 1.35919 30 23 15 
0.19896 0.0238912 1.35612 23 14 5 
-0.14305 0.0152517 1.5989 22 15 9 
0.225702 0.0262336 1.36824 104 93 87 
0.120061 0.0227543 1.3542 31 23 20 
-0.147172 0.0181415 1.61153 26 19 11 
0.185103 0.0261996 1.35465 115 104 98 
-0.089957 0.0179756 1.50452 74 71 66 
0.0923835 0.0224945 1.34894 83 78 72 
0.247403 0.0296251 1.36873 58 51 45 
0.0637649 0.0234267 1.37708 61 61 53 
0.212474 0.0294882 1.3572 31 27 16 
0.0996302 0.0247958 1.35868 17 8 3 
0.172617 0.0289447 1.34811 146 139 129 
-0.0527553 0.0230987 1.47451 182 168 157 
0.0680106 0.024996 1.36218 91 84 76 
0.329109 0.0392879 1.43745 27 17 7 
0.256264 0.0340414 1.37047 51 44 36 
0.290124 0.0374212 1.40814 114 106 93 
0.0396424 0.0268106 1.39081 4 0 0 
0.0843191 0.0288716 1.3566 126 117 110 
-0.0814595 0.0273899 1.48894 83 78 72 
0.103284 0.0314862 1.35029 79 70 65 
-0.102261 0.0284761 1.51958 39 31 28 
0.0133666 0.0297103 1.40511 23 20 11 
-0.0716314 0.0293233 1.4922 96 93 88 
0.124491 0.0336148 1.34803 10 7 0 
-0.121789 0.0314564 1.55036 3 0 0 
0.166447 0.0371707 1.3444 11 1 0 
0.301714 0.0454801 1.41198 57 47 35 
0.239613 0.0420015 1.36074 42 32 22 
0.406291 0.0547496 1.5263 68 58 46 
0.283476 0.0460182 1.40312 40 34 22 
0.135366 0.0383854 1.34785 22 13 6 
0.182976 0.0404781 1.34632 109 100 93 
-0.0126506 0.0354931 1.42175 72 68 65 
0.196207 0.0423305 1.34894 112 99 91 
0.0223344 0.0380872 1.4001 137 133 122 
-0.0371982 0.0386083 1.43764 89 81 78 
0.341874 0.0554756 1.44026 64 54 42 
-0.107335 0.0388485 1.51528 111 107 98 
0.208156 0.0467391 1.35065 26 19 9 
0.115253 0.0440404 1.35035 84 75 68 
0.0440156 0.0427954 1.38756 122 115 105 
0.246797 0.0506167 1.35653 115 108 100 
0.25674 0.0514356 1.3621 118 108 99 
-0.00689647 0.0421197 1.40731 105 102 97 
-0.132494 0.0442962 1.56223 29 25 22 
-0.0584477 0.0434632 1.45796 19 14 8 
0.0803515 0.0454418 1.35269 111 107 98 
0.192485 0.0501507 1.34118 93 84 79 
-0.111348 0.0459769 1.5278 26 21 17 
-0.01525 0.0451089 1.4178 102 99 90 
0.314204 0.0611122 1.42031 71 63 50 
0.00606535 0.0470597 1.40579 19 14 10 
0.18215 0.0521389 1.34175 34 26 15 
-0.0690793 0.0482015 1.46325 78 74 71 
0.220621 0.0558389 1.34631 107 103 91 
0.230674 0.0567176 1.34973 102 96 84 
0.122333 0.051677 1.3383 112 105 97 
0.13898 0.0524837 1.34104 90 86 77 
0.32825 0.0647875 1.42718 68 56 42 
0.299648 0.0635808 1.40243 78 68 56 
0.167213 0.0549816 1.33836 48 37 31 
-0.0967968 0.0519255 1.50092 5 2 0 
0.0944605 0.0528256 1.34524 76 67 62 
0.308115 0.0653961 1.4092 80 71 56 
-0.0504 0.0524591 1.45149 106 102 93 
0.0357603 0.0528096 1.37961 92 83 76 
-0.0230319 0.0528765 1.41858 99 94 90 
-0.0784779 0.0536355 1.4771 16 12 9 
0.0519525 0.0545085 1.37964 81 80 76 
0.0837387 0.0543486 1.34299 116 106 97 
0.356564 0.0730068 1.45008 10 0 0 
0.290586 0.0673653 1.39134 131 125 113 
0.280044 0.0675268 1.38959 44 37 27 
0.0259178 0.0563434 1.38223 110 101 94 
0.00355198 0.0567123 1.39811 98 93 89 
0.0713893 0.0565937 1.34572 79 69 60 
0.178768 0.061189 1.3373 87 80 72 
0.205506 0.0628145 1.34307 116 109 99 
0.256534 0.0655312 1.35684 137 127 117 
-0.107922 0.0590033 1.50729 14 6 3 
-0.0454486 0.0580962 1.43854 4 0 0 
0.11047 0.0603393 1.33838 120 111 104 
0.153921 0.0622241 1.33525 97 90 82 
0.194702 0.0646484 1.33767 32 24 13 
0.32427 0.0748335 1.41608 51 43 32 
0.30979 0.0748984 1.40348 21 13 2 
0.169985 0.0670587 1.33812 129 120 115 
-0.116768 0.066139 1.52213 88 85 80 
0.11965 0.0659053 1.33325 99 92 84 
0.00967582 0.0656627 1.39074 37 30 24 
-0.103819 0.0677791 1.50159 31 28 23 
-0.0042632 0.0663633 1.40279 97 91 79 
0.234094 0.0737877 1.34654 120 111 104 
-0.0619429 0.06762 1.44794 102 98 89 
-0.0784323 0.0686408 1.46609 84 80 77 
0.102592 0.0685551 1.33412 38 31 21 
-0.00147831 0.0680224 1.39131 89 79 70 
0.0442898 0.0690638 1.37488 11 7 0 
0.202112 0.0737283 1.3388 96 86 77 
-0.0160001 0.0688754 1.40661 33 27 15 
0.216224 0.0747559 1.33945 49 38 34 
0.293244 0.081064 1.38915 23 13 3 
0.0217855 0.0695123 1.38314 29 25 14 
0.246733 0.0771576 1.3452 21 13 2 
0.306331 0.0830556 1.39685 119 109 97 
0.0645672 0.0699058 1.35476 79 72 64 
0.149729 0.0721821 1.32888 101 94 86 
0.25974 0.0782725 1.34814 96 86 76 
0.322209 0.084767 1.41007 13 5 0 
0.312813 0.0855546 1.40467 63 56 40 
0.130982 0.0739553 1.32948 29 21 18 
0.182443 0.0770599 1.33397 13 2 0 
-0.0959617 0.0752405 1.48897 107 104 99 
0.158696 0.0771573 1.33318 18 14 5 
0.175036 0.0781623 1.32804 44 35 26 
0.0714397 0.0755731 1.3403 89 78 72 
0.223732 0.0824547 1.33231 24 11 2 
-0.0893474 0.0795728 1.47626 94 91 86 
-0.00598905 0.0782427 1.39239 95 91 82 
0.0393912 0.078957 1.3737 33 28 24 
-0.111696 0.0831966 1.51321 24 20 9 
0.352267 0.0977815 1.43111 136 128 117 
0.206105 0.0852705 1.33561 60 51 34 
-0.0321046 0.0826331 1.41112 64 59 53 
0.302058 0.0960328 1.40161 34 23 17 
0.0431045 0.0829437 1.36411 86 83 78 
0.186337 0.0862989 1.32676 108 104 92 
0.262331 0.0919874 1.34719 7 0 0 
0.298227 0.0963086 1.38448 138 128 119 
0.199638 0.0884345 1.32432 22 13 6 
0.0170654 0.0851964 1.37782 80 69 63 
0.0676201 0.0844217 1.33403 21 14 4 
0.126034 0.0862364 1.32426 110 101 94 
0.0284622 0.0854898 1.3727 9 2 0 
0.0912391 0.0860964 1.33105 21 12 7 
0.309139 0.100588 1.39279 26 18 7 
-0.0186346 0.0878024 1.40295 92 87 83 
0.221506 0.09432 1.33558 33 26 16 
0.0810782 0.0879375 1.33147 106 97 92 
0.00797241 0.089161 1.38299 15 5 3 
-0.00457426 0.0904265 1.39196 10 5 1 
0.251352 0.098531 1.34041 41 32 23 
-0.0708881 0.0931381 1.44694 4 0 0 
0.175544 0.0941656 1.3205 126 117 108 
0.208592 0.0960865 1.32815 135 126 111 
0.297808 0.104269 1.37632 72 62 50 
-0.130873 0.0983729 1.53611 22 12 10 
0.0501374 0.0920252 1.35909 6 0 0 
0.137141 0.0934774 1.31961 4 2 0 
0.149315 0.0942034 1.32377 132 123 116 
0.165656 0.0958438 1.31686 108 98 86 
-0.0488542 0.0976512 1.43201 103 96 90 
0.103352 0.0948362 1.31805 99 91 78 
-0.0876965 0.0984514 1.4624 72 67 64 
0.372527 0.117186 1.44373 32 22 13 
0.336379 0.113204 1.40459 130 120 108 
0.201491 0.101099 1.32369 89 79 67 
-0.0197592 0.0974297 1.39868 23 18 15 
0.363786 0.121042 1.4319 28 18 8 
-0.00374778 0.1009 1.38586 113 103 101 
0.30974 0.114833 1.38426 89 79 69 
-0.103767 0.10606 1.48655 8 4 0 
0.13122 0.102484 1.31376 106 99 89 
-0.0809829 0.105979 1.45269 92 87 84 
0.116912 0.102829 1.32088 22 18 9 
0.157748 0.104517 1.31155 140 130 118 
0.0215706 0.104024 1.36617 88 84 73 
0.237511 0.110384 1.33 99 89 77 
-0.0712152 0.109468 1.44238 74 70 67 
-0.0257773 0.107555 1.39818 83 79 76 
0.147215 0.107459 1.31292 150 141 124 
-0.0550673 0.109279 1.42133 72 64 61 
0.126595 0.106811 1.30601 20 16 5 
0.22324 0.112055 1.31575 15 8 0 
0.278907 0.118453 1.36135 98 90 79 
0.319324 0.123352 1.38707 117 107 97 
0.0952564 0.107699 1.31885 81 70 64 
0.345286 0.126983 1.40479 53 46 30 
0.0641242 0.108767 1.33787 17 12 8 
0.0828397 0.10891 1.31739 108 101 91 
-8.84653e-05 0.111427 1.3769 109 101 98 
0.199876 0.114024 1.31456 160 151 134 
0.0720006 0.110523 1.32492 30 25 19 
0.306721 0.12591 1.37607 103 95 84 
0.0134367 0.112779 1.37059 94 85 78 
0.256967 0.119604 1.32942 152 148 137 
0.117947 0.112058 1.31015 132 129 120 
0.140203 0.112993 1.30878 153 141 127 
0.358124 0.133836 1.41981 55 49 35 
-0.0992948 0.119731 1.46962 77 69 66 
0.212469 0.119505 1.31783 137 122 99 
-0.0488733 0.117789 1.41101 94 91 86 
0.188909 0.118914 1.31666 8 1 0 
-0.0124819 0.11709 1.38216 94 86 83 
0.314498 0.130661 1.38138 125 117 104 
-0.115581 0.123675 1.49237 20 10 8 
0.100209 0.115201 1.31166 20 11 4 
0.295511 0.129876 1.36947 106 98 85 
-0.138737 0.128413 1.53801 4 0 0 
0.234297 0.124229 1.32225 143 136 120 
-0.0805086 0.122994 1.44431 1 0 0 
-0.0346154 0.120315 1.39712 101 92 85 
0.376809 0.143027 1.44034 17 7 0 
0.0437475 0.119938 1.35031 5 1 0 
0.0566621 0.120126 1.34585 79 73 73 
0.329098 0.136627 1.39172 47 37 28 
0.152502 0.121838 1.31212 134 120 109 
0.244857 0.126798 1.32283 116 106 96 
-0.106591 0.127225 1.47781 108 103 100 
0.0315636 0.122332 1.35984 8 3 0 
0.342476 0.141198 1.4021 41 31 19 
0.29147 0.135745 1.36 19 15 3 
0.222473 0.128005 1.31136 92 85 77 
-0.0576341 0.127688 1.42091 9 4 0 
0.368 0.146616 1.42507 124 114 102 
0.324197 0.140872 1.38241 46 37 28 
0.26553 0.133163 1.32648 42 32 22 
0.102475 0.124343 1.30233 32 26 14 
0.230781 0.131325 1.31544 35 28 18 
0.375704 0.150329 1.43202 25 18 2 
0.335466 0.144586 1.38747 116 108 95 
-0.00357335 0.128591 1.37424 16 8 5 
-0.103053 0.134949 1.46704 118 114 105 
-0.131202 0.14005 1.52125 10 2 0 
0.314276 0.143988 1.37265 124 116 105 
0.0529201 0.129691 1.34168 109 98 94 
0.0757348 0.127027 1.30971 90 83 75 
0.301497 0.143493 1.36542 54 44 34 
-0.0487789 0.133494 1.41082 28 25 18 
0.0873258 0.12818 1.30855 108 101 93 
0.132364 0.129787 1.30633 14 5 0 
0.213849 0.13394 1.31075 58 51 33 
-0.0395702 0.133194 1.40158 97 89 86 
0.0397917 0.132141 1.35266 21 12 7 
-0.0211667 0.1332 1.38723 4 1 0 
-0.0775802 0.137245 1.43642 20 15 11 
0.272999 0.140899 1.33639 15 5 0 
-0.118056 0.141291 1.48985 72 67 61 
0.284965 0.144813 1.35558 7 0 0 
-0.0883955 0.139843 1.45078 6 3 0 
0.102418 0.133261 1.30928 7 1 0 
0.153491 0.134969 1.30306 114 97 89 
0.0639611 0.134755 1.32798 108 98 96 
0.359439 0.157119 1.40308 120 110 100 
0.118598 0.135317 1.30227 12 5 0 
0.188561 0.13941 1.30423 127 111 98 
0.320226 0.152637 1.37254 137 127 117 
0.342067 0.155905 1.39211 40 34 22 
0.334225 0.155634 1.38669 22 14 3 
-0.122183 0.148666 1.49756 91 84 78 
-0.137883 0.152674 1.5322 17 12 8 
0.212996 0.141412 1.3023 84 72 56 
0.198489 0.14148 1.30357 50 39 21 
-0.102366 0.147179 1.46376 15 12 7 
0.0247943 0.141083 1.34379 10 2 0 
0.0797976 0.138861 1.30567 15 8 0 
0.241691 0.14765 1.31108 104 94 84 
0.290593 0.155471 1.35261 21 8 0 
0.0903773 0.141058 1.30493 104 91 82 
0.128017 0.142343 1.30033 18 8 0 
0.308669 0.158338 1.36736 20 10 0 
0.0548085 0.144872 1.33507 77 73 70 
0.111772 0.142381 1.29404 95 84 78 
-0.114127 0.156651 1.48455 40 35 31 
-0.108619 0.156692 1.4698 36 32 23 
-0.0121597 0.148284 1.36873 16 9 1 
0.0352919 0.147573 1.34089 67 62 58 
-0.000586521 0.149153 1.3658 14 9 5 
0.342978 0.166473 1.38379 27 15 3 
-0.135999 0.164133 1.52199 6 1 0 
-0.0341765 0.152436 1.38509 23 16 8 
-0.0631546 0.155201 1.41357 5 0 0 
0.207526 0.15406 1.30058 21 13 2 
0.232731 0.155858 1.30839 106 96 87 
0.219391 0.154533 1.29925 23 13 4 
0.247968 0.157647 1.31185 115 107 96 
0.132965 0.151651 1.29667 40 31 14 
0.268673 0.16066 1.31909 13 6 0 
0.296682 0.166054 1.35061 31 23 12 
0.119947 0.151816 1.29234 158 149 142 
-0.127588 0.167976 1.49751 7 0 0 
0.322374 0.169985 1.3607 39 29 17 
0.109901 0.152227 1.29016 93 86 78 
0.277224 0.16605 1.34081 84 75 68 
0.0634967 0.155379 1.32781 14 9 6 
0.347079 0.176802 1.38962 33 21 9 
-0.115673 0.169457 1.47888 74 71 66 
-0.133997 0.173091 1.50665 40 35 31 
0.0928525 0.155372 1.29442 40 35 29 
0.146602 0.157909 1.29219 29 19 7 
0.355003 0.180661 1.39681 36 24 8 
0.239919 0.163145 1.30041 24 12 0 
0.249823 0.165197 1.3044 42 32 23 
0.364092 0.183425 1.40491 127 115 101 
-0.0757347 0.168376 1.42369 110 110 102 
0.217753 0.163839 1.29539 118 108 98 
0.130864 0.159428 1.28792 49 37 25 
0.0794847 0.159239 1.2985 83 76 68 
0.228152 0.165406 1.29998 107 95 83 
-0.138799 0.180818 1.52779 29 24 20 
-0.0462398 0.166807 1.394 94 84 85 
0.0308878 0.16358 1.33651 90 87 80 
0.280802 0.175478 1.34269 41 33 22 
0.327096 0.180167 1.36403 118 108 99 
0.100924 0.161612 1.29037 109 100 93 
0.308933 0.179139 1.35302 130 121 106 
0.319666 0.181074 1.35702 133 125 112 
0.346263 0.186375 1.3834 112 103 94 
0.207082 0.168388 1.29337 141 131 121 
0.362793 0.189699 1.39683 21 13 0 
-0.105957 0.179406 1.45686 18 10 7 
0.0661515 0.167444 1.3187 74 69 65 
-0.0300915 0.171566 1.37568 103 100 91 
-0.126496 0.183858 1.49016 104 99 96 
0.0463745 0.169287 1.32699 97 90 84 
0.0877219 0.167912 1.28886 76 71 67 
0.115142 0.168749 1.28182 22 18 9 
0.226845 0.174852 1.29217 113 105 92 
0.307499 0.18697 1.34647 19 12 2 
0.277782 0.183923 1.33316 95 89 77 
0.1901 0.174422 1.28511 91 78 69 
0.296417 0.187367 1.34272 58 48 36 
0.205998 0.17514 1.28476 151 143 120 
-0.0869425 0.184838 1.4271 89 85 76 
-0.071111 0.183354 1.41008 81 76 70 
0.0200589 0.177057 1.33888 28 17 11 
0.145944 0.174574 1.2829 84 74 62 
-0.130678 0.194216 1.49508 77 74 67 
-0.101557 0.189273 1.45232 10 6 3 
-0.147368 0.199711 1.53104 21 16 12 
0.253344 0.18232 1.2972 102 93 84 
0.328821 0.195578 1.36422 41 31 22 
-0.116249 0.193433 1.46942 23 15 12 
0.322929 0.195398 1.35444 128 118 108 
0.351137 0.201323 1.37895 30 20 8 
-0.0257823 0.185103 1.37357 37 28 21 
0.0726717 0.177545 1.29203 73 63 61 
-0.0422754 0.185989 1.37713 7 0 0 
0.0345226 0.18103 1.32461 7 0 0 
0.0954613 0.178082 1.28536 111 103 100 
0.213039 0.184467 1.29011 44 36 23 
0.379749 0.210779 1.41095 124 114 102 
0.122748 0.180492 1.27848 97 90 82 
0.236678 0.186846 1.28716 47 39 28 
0.291274 0.195978 1.33049 113 103 91 
0.256364 0.191489 1.29339 130 124 112 
0.32694 0.204093 1.35638 129 121 110 
0.39719 0.219315 1.43226 27 19 6 
0.31253 0.202679 1.34513 34 24 12 
0.220293 0.189025 1.28164 24 16 5 
0.337938 0.207278 1.3639 104 96 83 
0.205363 0.190726 1.28258 55 42 23 
0.0987019 0.185089 1.27623 10 7 0 
0.303125 0.203941 1.33918 110 100 90 
0.111525 0.186857 1.27881 101 98 89 
0.190303 0.189904 1.27524 15 9 0 
0.174013 0.190316 1.27821 121 113 100 
0.0178958 0.191089 1.32229 10 7 0 
-0.0520104 0.197919 1.38058 80 76 75 
0.0692389 0.188752 1.28987 101 97 88 
0.228772 0.194557 1.28371 110 100 90 
0.244624 0.196519 1.28994 163 151 139 
0.154849 0.190751 1.2745 36 26 17 
0.361188 0.217342 1.3857 27 17 5 
0.0308303 0.193461 1.32129 7 0 0 
-0.0911485 0.205642 1.42529 8 0 0 
0.12429 0.190363 1.27333 30 23 15 
0.286268 0.205917 1.32429 33 20 11 
0.381314 0.225152 1.40899 40 28 14 
-0.0313705 0.20128 1.36049 95 86 79 
0.134741 0.194417 1.2733 114 105 96 
0.0902127 0.194675 1.28349 119 116 107 
0.169585 0.195475 1.26768 77 70 60 
0.334232 0.21729 1.35373 51 42 27 
0.407463 0.235538 1.44453 35 27 14 
0.198657 0.198751 1.27264 7 0 0 
0.253767 0.203613 1.28873 105 97 86 
0.277423 0.210224 1.31964 100 90 81 
0.104944 0.195705 1.27597 109 104 98 
0.116416 0.1945 1.26361 106 103 96 
0.17918 0.199294 1.27237 85 81 69 
0.298204 0.214208 1.3284 130 120 108 
0.340275 0.221985 1.36041 30 21 6 
0.213478 0.203609 1.2767 122 112 103 
0.125478 0.199504 1.26749 40 35 29 
0.0189982 0.204783 1.32387 16 5 0 
0.148983 0.200822 1.26708 30 26 15 
0.310238 0.218813 1.3304 62 54 43 
0.0572181 0.203977 1.30316 78 74 71 
0.0890936 0.200551 1.27439 11 7 0 
0.0411556 0.205049 1.31113 97 94 89 
0.223196 0.207694 1.27621 22 14 3 
0.241817 0.209622 1.28165 152 142 133 
-0.0355064 0.211599 1.36123 25 20 16 
0.320469 0.223415 1.33793 51 42 27 
-0.0904363 0.220514 1.41667 105 98 90 
0.267447 0.215284 1.29394 36 30 18 
0.349367 0.230826 1.36534 144 134 124 
-0.0557786 0.216875 1.38019 11 10 6 
0.282301 0.219787 1.31051 139 131 118 
0.41067 0.247338 1.43947 26 17 2 
0.109752 0.205349 1.26728 17 10 4 
0.139075 0.206184 1.26431 64 60 51 
0.394131 0.243413 1.41631 103 93 81 
-0.0658903 0.219705 1.38946 19 10 5 
0.00211314 0.212 1.32984 8 4 0 
0.0254388 0.210407 1.31572 32 27 23 
0.0675002 0.207385 1.28946 10 3 0 
0.253341 0.215026 1.28492 20 12 0 
-0.109479 0.22811 1.44756 18 13 7 
-0.144878 0.239191 1.51134 7 4 0 
-0.0836257 0.222731 1.40435 26 19 11 
0.306114 0.225091 1.32208 25 17 6 
0.231617 0.214297 1.27628 107 97 87 
0.186057 0.212333 1.26884 13 6 0 
0.123272 0.210256 1.26425 104 100 89 
0.0931755 0.211113 1.27339 88 77 71 
0.149483 0.212654 1.26481 97 90 80 
0.297432 0.227665 1.31414 34 26 15 
0.368401 0.241396 1.37249 148 140 129 
0.0150112 0.217238 1.31835 110 103 97 
0.277873 0.225072 1.30058 91 84 74 
-0.141571 0.243576 1.49923 114 111 104 
0.324263 0.234278 1.32934 37 28 21 
0.223638 0.220624 1.27065 54 48 36 
-0.0398395 0.22488 1.35611 33 29 18 
-0.0223716 0.223634 1.33827 78 73 70 
0.102708 0.215007 1.26293 31 24 18 
0.171507 0.218191 1.26316 108 98 89 
0.320789 0.234913 1.31928 35 29 17 
-0.0701671 0.230349 1.38322 112 105 97 
0.0464174 0.219534 1.29767 100 95 92 
0.0697329 0.217233 1.2779 14 9 3 
0.0565261 0.21902 1.28914 25 21 18 
0.159261 0.217764 1.26009 28 18 9 
-0.010133 0.224593 1.33082 114 109 103 
0.138541 0.219345 1.2646 114 106 95 
0.129449 0.218208 1.25866 108 101 91 
0.292705 0.233357 1.30289 119 110 101 
0.115225 0.220107 1.26001 20 10 0 
0.232649 0.22723 1.26763 36 26 16 
0.0849048 0.220543 1.26449 102 97 91 
-0.0771525 0.238036 1.39284 18 9 4 
0.258679 0.230475 1.2752 67 57 45 
0.370339 0.252615 1.36868 119 111 100 
-0.0354722 0.231478 1.34518 82 77 71 
0.307689 0.239231 1.30624 30 23 13 
-0.0620094 0.236556 1.36987 17 9 7 
-0.00495691 0.229438 1.31937 143 136 128 
0.0330511 0.22695 1.29584 119 115 114 
0.213707 0.230113 1.26806 107 99 88 
-0.025403 0.232315 1.33277 55 45 43 
0.0733588 0.224436 1.26632 110 106 97 
0.175588 0.227372 1.25864 13 4 0 
0.197491 0.229485 1.2622 76 65 59 
0.0183608 0.230152 1.30584 7 0 0 
0.152961 0.226637 1.25654 50 43 37 
0.28158 0.239672 1.29255 34 25 16 
-0.0964457 0.247168 1.41465 85 76 69 
0.0978582 0.226301 1.2611 97 88 83 
0.250121 0.234807 1.27119 34 25 16 
0.354347 0.254591 1.34461 48 39 30 
0.164547 0.229755 1.25515 31 28 19 
0.142074 0.230573 1.2601 29 19 10 
0.295364 0.24391 1.29567 27 17 7 
0.23957 0.235735 1.26381 116 106 96 
0.22788 0.237807 1.26437 25 21 10 
0.0483527 0.234282 1.27333 36 32 29 
0.370686 0.263806 1.35135 14 6 0 
0.0170564 0.238215 1.29537 100 97 92 
0.188453 0.238416 1.25895 16 8 5 
0.286304 0.247869 1.28571 117 107 98 
-0.0721832 0.250485 1.37219 31 28 23 
0.110371 0.23536 1.25729 109 100 93 
0.0778716 0.234793 1.25755 42 31 27 
0.330235 0.256228 1.30692 91 85 73 
-0.11813 0.265099 1.43764 7 4 0 
-0.0637543 0.252434 1.36029 102 97 93 
0.00319966 0.242563 1.29607 13 9 8 
0.067386 0.239006 1.26521 79 75 74 
0.275617 0.248853 1.27096 49 45 34 
0.172693 0.241519 1.25175 12 8 0 
0.122022 0.239551 1.2499 45 36 27 
0.297865 0.254565 1.28829 57 50 40 
0.338557 0.261888 1.31593 25 16 9 
0.144563 0.241102 1.25079 138 131 121 
0.24446 0.24839 1.26369 112 103 94 
-0.0796874 0.258926 1.37561 106 101 97 
0.195062 0.24635 1.25717 56 46 34 
0.318974 0.260375 1.29411 62 53 44 
0.0207522 0.245896 1.28244 92 89 84 
0.0480682 0.244538 1.26359 17 8 1 
-0.128066 0.277161 1.44753 18 14 13 
0.367078 0.274301 1.33458 58 50 37 
-0.0576392 0.256116 1.3323 88 84 81 
0.0972024 0.245968 1.24959 100 91 82 
0.253091 0.25598 1.2643 46 38 27 
0.294888 0.261251 1.27952 136 134 121 
-0.0678408 0.262281 1.35428 89 85 82 
-0.0150975 0.253705 1.30478 3 0 0 
0.237159 0.254687 1.25893 46 40 28 
-0.145238 0.286343 1.47903 71 69 72 
0.0707118 0.248651 1.25687 112 108 105 
0.219079 0.255522 1.25674 40 32 21 
0.306644 0.266586 1.29319 42 33 24 
0.38313 0.282408 1.34939 54 44 34 
0.154996 0.250811 1.24435 98 91 83 
0.37487 0.283118 1.34492 21 7 0 
0.332347 0.273438 1.30464 21 17 8 
0.137967 0.25392 1.24566 31 27 16 
0.180548 0.254733 1.24144 31 27 18 
-0.161446 0.293381 1.48361 69 59 50 
-0.0510816 0.264896 1.32877 15 11 8 
0.110711 0.254476 1.24823 45 46 32 
-0.158603 0.29562 1.47278 106 102 93 
-0.0931901 0.275865 1.36954 30 26 23 
0.165951 0.260093 1.24529 103 99 90 
0.18945 0.262478 1.25237 40 33 27 
0.257372 0.267568 1.26395 49 37 23 
-0.138958 0.29137 1.44727 3 0 0 
0.0251206 0.259394 1.26788 9 4 1 
-0.143196 0.296215 1.46393 72 68 67 
0.12752 0.258255 1.2426 16 7 0 
0.3384 0.281289 1.30667 43 36 28 
0.370444 0.288041 1.33064 19 6 0 
0.245632 0.269146 1.25711 41 32 17 
0.269107 0.272487 1.26727 15 8 0 
0.377649 0.292686 1.33472 19 7 0 
0.117122 0.260985 1.24149 95 90 86 
0.224101 0.267238 1.24978 110 107 98 
0.149705 0.263036 1.24263 33 24 15 
0.211666 0.267412 1.24647 7 4 0 
0.394442 0.299465 1.35418 17 3 0 
-0.104979 0.284828 1.37908 101 97 88 
-0.00477323 0.268882 1.28316 85 81 78 
0.361479 0.292306 1.31764 108 97 91 
0.384655 0.299247 1.34151 27 17 7 
0.294136 0.280386 1.273 33 24 15 
-0.0587794 0.277363 1.32363 89 81 79 
-0.0175473 0.272083 1.28955 101 97 96 
0.0972917 0.265888 1.24004 25 20 14 
-0.117538 0.293185 1.39772 10 5 0 
-0.0736093 0.281294 1.3335 9 4 0 
0.0615421 0.266863 1.24469 49 45 36 
0.322337 0.289448 1.29155 135 127 114 
0.162638 0.271181 1.23869 102 93 84 
0.0377113 0.270851 1.25824 85 80 76 
0.0228702 0.273265 1.2665 98 88 86 
0.225335 0.276573 1.24414 120 110 98 
0.141336 0.269563 1.22757 104 94 84 
0.151461 0.273041 1.23928 18 11 1 
0.202861 0.276111 1.24251 33 30 23 
0.117951 0.271879 1.23701 110 105 99 
0.215921 0.277245 1.23886 47 42 36 
0.0887929 0.273326 1.24315 17 12 8 
-0.0385463 0.284016 1.30268 96 92 81 
-0.154285 0.317027 1.45749 19 14 10 
0.0600999 0.277221 1.25264 10 7 0 
0.0695589 0.276997 1.24427 18 14 5 
-0.0543074 0.288917 1.31094 6 1 0 
0.045231 0.278775 1.25009 23 18 12 
0.131719 0.277503 1.22832 97 90 84 
0.302743 0.296494 1.27271 105 101 89 
0.0104443 0.283602 1.26862 101 100 96 
0.194843 0.283079 1.2336 125 117 106 
-0.102511 0.301963 1.36163 143 141 128 
0.20401 0.286968 1.23761 85 77 66 
0.000186489 0.286783 1.27237 96 91 88 
0.313011 0.301602 1.27542 118 114 102 
-0.0785027 0.300041 1.33503 110 103 95 
0.0878026 0.285276 1.23908 79 74 70 
0.108938 0.284505 1.22896 93 89 80 
0.0683033 0.287376 1.24592 98 94 91 
-0.0187024 0.293496 1.28286 9 6 0 
0.350242 0.316033 1.30698 106 96 84 
0.167273 0.288723 1.22763 28 24 15 
0.0375251 0.290012 1.25266 77 74 69 
0.304429 0.305465 1.26639 35 25 15 
0.277449 0.302866 1.25892 9 0 0 
-0.115907 0.31618 1.37492 15 11 2 
0.210056 0.294069 1.23102 35 29 17 
0.237321 0.297519 1.23901 109 99 89 
0.0610528 0.290514 1.23875 21 17 8 
0.221942 0.29586 1.23395 117 107 97 
0.140581 0.291855 1.22876 111 104 98 
0.187276 0.294732 1.23155 49 43 31 
0.257431 0.302437 1.24961 43 35 22 
0.00856094 0.295723 1.26274 74 70 67 
0.117121 0.291213 1.22763 10 10 0 
-0.157889 0.336053 1.44603 27 22 16 
-0.0515652 0.30457 1.30288 20 13 7 
-0.143857 0.330539 1.416 22 21 17 
0.0815389 0.293549 1.23393 28 23 17 
0.0534597 0.297242 1.24642 15 10 6 
0.150645 0.295444 1.22206 25 22 15 
0.352295 0.324883 1.3014 35 23 11 
-0.0971868 0.320071 1.35343 85 76 71 
0.231163 0.302963 1.23383 111 101 91 
-0.031388 0.305927 1.28603 107 102 99 
0.342511 0.324212 1.29528 48 38 28 
0.321773 0.319502 1.27915 51 45 31 
-0.01301 0.304826 1.27104 72 64 61 
0.203949 0.30316 1.22799 111 107 96 
0.182669 0.303296 1.22724 114 109 103 
0.163385 0.301851 1.22252 124 120 111 
0.253045 0.310232 1.2411 113 106 96 
0.127595 0.301432 1.2253 87 84 77 
0.311488 0.320936 1.26969 100 93 83 
0.0112233 0.305708 1.26005 22 17 14 
-0.129694 0.334728 1.38927 6 1 0 
0.0956099 0.301462 1.22637 97 93 84 
0.370019 0.336463 1.31259 45 35 23 
-0.141224 0.342506 1.41236 17 13 10 
0.0390317 0.306042 1.24489 78 73 69 
0.218159 0.310263 1.22733 31 22 13 
0.209897 0.310481 1.22298 28 24 13 
0.283391 0.320099 1.24899 104 97 87 
-0.160681 0.354956 1.44406 36 31 28 
-0.0964818 0.331756 1.34048 20 10 8 
0.240266 0.315966 1.22924 128 121 113 
0.321891 0.33142 1.27215 33 25 12 
-0.10486 0.337555 1.35551 6 1 0 
-0.0273132 0.320038 1.27802 7 4 0 
-0.00772751 0.319185 1.26953 103 98 92 
0.297981 0.32785 1.25445 45 36 27 
0.184289 0.31509 1.22235 21 12 5 
0.0826521 0.31339 1.22717 21 14 8 
0.115809 0.313608 1.22338 108 103 97 
0.174757 0.31566 1.21544 155 148 140 
0.389832 0.355339 1.32807 52 42 32 
0.0686256 0.31636 1.23049 93 85 82 
0.227313 0.321647 1.2261 47 38 31 
-0.0575205 0.333867 1.29934 44 44 34 
0.164952 0.320137 1.21389 103 96 86 
0.0245338 0.321704 1.24207 8 0 0 
0.00214658 0.325372 1.25548 41 31 30 
-0.0365511 0.332575 1.28608 15 10 6 
0.291422 0.336621 1.24858 114 104 94 
0.214162 0.325972 1.21913 42 33 24 
0.369965 0.354771 1.29854 127 118 103 
0.14328 0.323521 1.21669 11 6 0 
-0.00662753 0.330024 1.26137 124 120 117 
0.12463 0.322776 1.21629 77 70 64 
0.268112 0.334898 1.23545 124 115 106 
0.235715 0.330466 1.22201 156 148 137 
0.0795086 0.324256 1.21961 13 5 2 
-0.127336 0.362217 1.37527 9 4 0 
0.282568 0.340822 1.23756 102 96 82 
0.220501 0.333386 1.21774 101 97 85 
0.309175 0.347901 1.25559 111 105 91 
-0.131447 0.367135 1.38512 29 25 16 
0.204027 0.332855 1.2123 44 41 32 
0.160475 0.330583 1.20713 134 127 119 
0.243686 0.338727 1.22222 121 114 106 
-0.090652 0.356392 1.3295 4 0 0 
0.125739 0.331024 1.20881 116 112 109 
0.229101 0.338362 1.21533 114 107 97 
-0.0798701 0.354783 1.31617 14 9 5 
-0.0285614 0.343581 1.27015 87 80 74 
0.0140946 0.336622 1.23956 108 109 103 
-0.0112813 0.340458 1.2538 102 99 90 
0.398197 0.381179 1.32902 26 16 4 
0.0820462 0.334249 1.21398 26 15 9 
0.337761 0.360339 1.26418 146 138 127 
0.0945923 0.334773 1.21062 14 9 3 
0.149784 0.337247 1.21029 59 56 49 
0.291564 0.350696 1.23629 123 111 97 
0.304444 0.353087 1.23911 111 107 96 
-0.123881 0.373933 1.36757 102 98 89 
-0.0399329 0.349379 1.27217 104 97 89 
0.0704419 0.339191 1.22027 46 41 35 
-0.0625848 0.355171 1.29064 34 27 21 
0.211444 0.343214 1.20774 53 47 35 
0.282662 0.352181 1.22733 36 29 19 
0.117023 0.339449 1.20617 26 21 15 
0.13992 0.339741 1.20267 101 99 87 
0.258731 0.34982 1.21914 92 89 84 
-0.143173 0.386161 1.39472 100 90 88 
0.240825 0.34792 1.20875 30 23 15 
0.15777 0.34155 1.19668 113 109 100 
0.0571704 0.343324 1.21475 80 72 69 
0.0779438 0.342934 1.20988 89 81 79 
0.186979 0.345095 1.19547 19 8 2 
-0.0439373 0.360423 1.27517 31 28 21 
0.208659 0.347492 1.19835 19 11 0 
0.317585 0.366795 1.24342 52 43 34 
0.342187 0.372055 1.25747 44 37 27 
0.228441 0.351884 1.20329 65 58 50 
0.0151875 0.351462 1.22788 33 26 20 
0.238751 0.354848 1.19977 38 26 14 
0.357983 0.379616 1.26153 57 51 39 
0.0838486 0.34973 1.20005 8 4 0 
0.366405 0.384545 1.27215 60 57 42 
0.16477 0.351166 1.19134 40 33 23 
0.113035 0.350186 1.189 67 63 60 
-0.106508 0.386684 1.33218 111 109 97 
0.0436924 0.354235 1.20834 94 91 86 
0.174626 0.352979 1.18732 42 36 24 
-0.0673797 0.376998 1.29015 110 101 96 
0.00926875 0.359268 1.22338 21 16 12 
0.259328 0.361006 1.19654 36 33 24 
0.0802376 0.353873 1.19143 34 27 21 
-0.0236254 0.367077 1.24372 20 15 12 
-0.00823421 0.365783 1.2372 8 0 0 
0.237148 0.36011 1.18686 161 161 153 
0.151605 0.357732 1.17865 131 122 113 
0.2207 0.361867 1.18021 120 118 106 
0.13463 0.358214 1.17845 62 55 47 
-0.0635751 0.382013 1.27436 103 101 89 
0.0632765 0.363568 1.19571 24 17 9 
0.277632 0.375124 1.20016 113 109 97 
-0.0972121 0.39392 1.30476 29 22 14 
-0.101523 0.397777 1.31452 26 19 13 
0.0458806 0.366555 1.20011 121 116 112 
-0.0340112 0.378234 1.24203 39 29 20 
0.21377 0.369968 1.17609 89 82 74 
-0.132678 0.415876 1.35648 116 109 101 
0.263076 0.37702 1.18406 84 82 70 
0.299942 0.384775 1.20276 84 77 69 
0.309574 0.386366 1.20567 100 97 88 
0.0584814 0.371446 1.18815 114 106 103 
0.228882 0.375768 1.17881 122 118 109 
0.387869 0.411513 1.26575 39 29 20 
0.206505 0.373835 1.17003 116 109 99 
-0.0762284 0.396581 1.27193 43 36 26 
0.00646251 0.380432 1.20957 86 81 78 
0.191202 0.373992 1.16514 44 41 32 
-0.0680032 0.400322 1.26131 17 13 4 
0.16246 0.379928 1.16351 19 16 9 
-0.000310061 0.388211 1.20616 16 10 10 
-0.0363821 0.397403 1.22934 88 84 75 
0.047547 0.384379 1.17884 105 100 97 
-0.0871568 0.415138 1.26999 22 13 6 
-0.0238756 0.399608 1.2159 33 25 23 
-0.0995651 0.422659 1.28481 92 87 83 
0.00850382 0.396458 1.19201 107 102 98 
0.0898688 0.391727 1.16464 16 7 0 
-0.00948361 0.411645 1.20604 21 13 11 
-0.0566599 0.424724 1.23591 107 97 95 
0.0603409 0.406757 1.16786 6 0 0 
0.0239068 0.414147 1.18122 91 84 74 
-0.0106371 0.420528 1.19508 86 82 71 
-0.0572887 0.433721 1.22704 24 20 9 
0.0271854 0.424409 1.17264 15 8 0 
0.00478807 0.436126 1.12996 103 97 85 
0.168941 0.297455 0.689088 121 112 105 
-0.0185432 -1.00965 2.05714 118 114 105 
-0.0493864 -0.88643 1.98547 91 84 76 
0.271841 -0.749428 1.77656 41 30 24 
0.200009 -0.729785 1.74902 12 11 7 
0.237378 -0.714241 1.74628 114 114 106 
0.136459 -0.696001 1.71651 24 19 15 
0.146775 -0.693801 1.72228 103 100 95 
0.172291 -0.682539 1.70841 31 28 21 
-0.0908841 -0.75335 1.90878 31 26 20 
0.324231 -0.66869 1.77434 21 18 11 
0.137993 -0.457292 1.55061 78 77 73 
0.0349225 -0.464956 1.58792 23 19 16 
0.238302 -0.437046 1.56334 4 0 0 
0.158027 -0.430277 1.53831 94 89 85 
0.417562 -0.465876 1.71901 5 2 0 
-0.0920553 -0.475376 1.68048 20 19 14 
0.394574 -0.44174 1.67679 113 109 100 
-0.0118375 -0.414632 1.59686 80 77 72 
-0.1156 -0.423555 1.69401 72 71 69 
0.132305 -0.358574 1.51101 83 78 74 
0.358952 -0.37723 1.644 32 23 14 
0.369892 -0.351656 1.64378 130 126 115 
-0.0276219 -0.359413 1.60542 97 96 91 
-0.132902 -0.386459 1.7329 8 3 0 
0.0517498 -0.331447 1.5438 64 60 57 
0.192147 -0.305718 1.50156 18 16 4 
-0.0621197 -0.340137 1.62312 4 0 0 
0.129177 -0.305519 1.49256 91 86 80 
0.239587 -0.296681 1.50481 14 3 0 
-0.157454 -0.367917 1.78106 70 62 60 
0.0541366 -0.304698 1.53417 77 76 72 
0.0657203 -0.297086 1.49887 91 82 75 
0.380355 -0.307762 1.63731 49 40 25 
-0.013025 -0.306161 1.57415 9 8 6 
0.223907 -0.270846 1.49433 22 20 8 
0.203726 -0.26901 1.48737 100 91 84 
-0.0557717 -0.299712 1.60541 78 78 76 
-0.0979946 -0.306355 1.6525 8 3 0 
0.342851 -0.274201 1.587 111 98 90 
-0.0824145 -0.293571 1.61957 17 13 10 
0.209023 -0.246001 1.4741 25 16 7 
0.298767 -0.239673 1.53397 125 115 105 
0.114351 -0.2352 1.45822 83 76 70 
-0.0963423 -0.261313 1.63207 3 0 0 
0.130685 -0.226347 1.47004 93 85 74 
0.188157 -0.211496 1.45753 32 25 17 
0.303755 -0.206672 1.52892 4 2 0 
0.0787158 -0.209415 1.48254 121 112 103 
0.267623 -0.199032 1.47439 125 120 114 
0.0630268 -0.205253 1.47712 5 0 0 
0.0821352 -0.197312 1.44701 7 7 0 
-0.0107711 -0.192378 1.52232 82 77 74 
0.113704 -0.165647 1.43751 94 93 89 
0.316338 -0.148778 1.51052 33 20 11 
-0.0218825 -0.159205 1.51742 94 89 83 
-0.139673 -0.17093 1.66132 17 14 9 
0.223524 -0.126729 1.43197 24 13 7 
0.147254 -0.124421 1.42592 109 98 92 
-0.0712768 -0.136204 1.56408 95 83 83 
0.307501 -0.103949 1.4846 49 39 29 
0.320854 -0.0801116 1.48666 10 0 0 
-0.116499 -0.093207 1.58886 94 91 86 
0.290362 -0.0683832 1.45754 15 11 0 
0.222795 -0.0659742 1.4055 86 79 69 
-0.00235953 -0.0668818 1.45666 11 2 0 
0.197239 -0.0491809 1.39066 85 79 63 
0.0349854 -0.0576533 1.44995 86 85 80 
-0.0910064 -0.0646477 1.52814 6 0 0 
0.106027 -0.0407357 1.37771 87 84 75 
0.188213 -0.0263027 1.39158 109 99 87 
0.115951 -0.0226953 1.36221 114 105 96 
0.324719 -0.00014231 1.45171 122 112 100 
-0.104613 -0.000329194 1.5352 16 11 7 
0.124895 0.0112238 1.36229 8 0 0 
0.255081 0.017665 1.37324 20 11 4 
-0.159309 0.0049724 1.64158 8 0 0 
-0.110444 0.017974 1.53501 97 94 89 
-0.000876714 0.023528 1.41571 89 79 77 
0.281938 0.0547807 1.39151 39 31 20 
0.352537 0.0593838 1.44885 38 28 18 
-0.0309768 0.0483659 1.43235 93 89 77 
0.338777 0.0670097 1.43395 20 10 0 
0.0281157 0.0692999 1.36913 4 0 0 
-0.127089 0.0769608 1.53426 10 5 0 
0.380895 0.10504 1.45746 127 117 105 
0.367212 0.106927 1.43754 45 37 26 
-0.168187 0.0987841 1.64312 4 0 0 
0.0654979 0.0938058 1.34883 86 81 77 
0.352797 0.146733 1.40432 131 121 109 
-0.0977626 0.178535 1.44487 111 108 103 
0.129356 0.171089 1.28364 112 103 88 
0.264963 0.187258 1.30142 47 37 28 
-0.0998708 0.197808 1.43896 14 10 0 
0.387947 0.216807 1.42021 52 44 31 
0.347224 0.212703 1.3705 26 14 0 
0.144602 0.189864 1.27474 18 9 0 
-0.00256163 0.201301 1.34202 87 82 79 
-0.118068 0.223589 1.46784 92 84 81 
0.379461 0.237965 1.39736 84 78 64 
0.216893 0.211901 1.2689 43 33 24 
0.0703226 0.21785 1.29123 94 90 87 
-0.0502462 0.22652 1.36825 16 10 10 
0.315431 0.240493 1.31287 27 20 10 
0.0621044 0.231955 1.27908 92 87 84 
0.4056 0.272179 1.39478 13 5 0 
0.363355 0.261792 1.34564 146 136 126 
-0.128744 0.264682 1.46194 13 9 6 
-0.0474597 0.248071 1.3505 104 100 97 
0.347243 0.262216 1.3265 88 82 70 
-0.152622 0.276029 1.49257 110 107 98 
0.268115 0.256958 1.26966 6 3 0 
0.200132 0.260815 1.24457 91 88 81 
0.305534 0.275939 1.28676 112 102 90 
0.0413364 0.262307 1.26543 111 106 102 
0.352977 0.300145 1.31228 104 98 86 
0.411338 0.318876 1.37477 51 41 29 
0.105406 0.276375 1.23631 27 20 12 
0.325478 0.307378 1.28505 24 14 2 
0.287475 0.305138 1.26044 110 103 95 
-0.0183274 0.304449 1.28612 134 126 123 
0.243438 0.304396 1.24191 58 51 43 
0.135426 0.294403 1.21776 29 22 16 
-0.0404793 0.315747 1.28646 91 83 80 
0.340215 0.337851 1.28239 134 127 111 
0.0909383 0.311774 1.21371 17 10 2 
-0.137853 0.355513 1.39776 16 8 5 
0.397026 0.36228 1.33147 47 38 21 
0.401158 0.365855 1.34293 44 35 18 
0.329562 0.352883 1.26936 39 31 18 
-0.102554 0.363828 1.3466 102 97 93 
0.096711 0.341608 1.19964 103 96 90 
-0.0313137 0.357459 1.26296 111 106 102 
0.249295 0.35429 1.20974 50 41 36 
0.0331782 0.35462 1.21198 25 22 17 
0.0522264 0.360039 1.20518 114 105 98 
-0.123335 0.399113 1.34914 108 105 96 
0.245702 0.368019 1.18741 8 1 0 
0.0754603 0.368836 1.18509 5 0 0 
0.180707 0.371829 1.17097 20 13 3 
0.282048 0.384679 1.18934 38 36 24 
-0.00589179 0.383361 1.21579 129 125 122 
0.107604 0.374481 1.17524 32 23 18 
0.39219 0.42343 1.26269 98 96 84 
-0.0592307 0.4033 1.24037 29 24 20 
-0.0647762 0.407385 1.25104 24 19 15 
-0.0382383 0.416986 1.22024 26 19 13 
0.042049 0.419644 1.1621 29 20 15 
0.0584481 -0.93008 1.90153 45 38 22 
0.0711069 -0.908109 1.88045 91 88 81 
0.0080375 -0.934512 1.96049 130 120 108 
-0.055947 -0.971243 2.04494 86 83 74 
0.135984 -0.861004 1.84914 119 98 93 
-0.0158446 -0.915337 1.96502 31 24 14 
0.0456192 -0.846533 1.82947 113 111 99 
-0.0160885 -0.896498 1.95135 10 6 5 
-0.00703225 -0.865968 1.92015 19 14 10 
-0.0293523 -0.872432 1.93768 17 9 6 
0.225204 -0.758864 1.78099 146 142 139 
0.00654302 -0.792365 1.83766 31 24 16 
0.134749 -0.745474 1.74759 110 105 101 
