ply                 
format ascii 1.0    
element vertex 1287
property float x    
property float y    
property float z    
property uchar red  
property uchar green
property uchar blue 
end_header          
0.39548 -0.46033 1.69797 47 43 32 
0.236024 -0.377132 1.55299 5 2 0 
0.246544 -0.363745 1.5489 28 23 19 
0.190397 -0.234276 1.48489 87 76 74 
0.221588 -0.226515 1.48675 97 92 86 
0.110108 -0.177248 1.45701 87 79 76 
0.236982 -0.0615199 1.41395 98 89 80 
0.33288 0.0408432 1.44808 141 131 119 
0.0134196 0.142795 1.36757 10 5 1 
-0.00178006 0.294572 1.2807 74 73 69 
0.0426099 0.29265 1.26333 21 18 13 
0.106763 0.302828 1.23584 103 99 87 
0.293578 0.325884 1.26626 36 26 16 
0.231817 0.317607 1.2398 33 24 15 
0.206678 0.354618 1.20368 24 17 7 
0.301547 0.370761 1.23294 124 114 102 
0.258464 0.36894 1.20736 114 110 99 
0.16125 0.367536 1.18437 131 127 124 
0.182385 0.374746 1.18271 21 14 6 
0.13601 0.374822 1.17904 16 13 8 
0.363028 0.415682 1.24933 131 124 116 
0.13154 0.414747 1.16048 123 115 102 
0.119392 0.430977 1.15352 126 117 102 
0.114297 0.443355 1.10858 109 105 93 
0.150573 0.449384 1.10406 23 15 2 
0.114697 0.465844 1.09782 14 12 0 
0.0100344 -0.46671 1.62057 16 11 5 
0.193228 0.117755 1.33194 19 7 0 
0.166076 0.351276 1.20859 115 107 96 
0.132716 0.356042 1.19611 136 132 120 
0.238403 0.371098 1.1962 123 116 110 
0.14126 0.366995 1.18412 145 141 132 
0.172916 0.419564 1.15862 22 17 13 
-0.039799 -0.939713 2.0353 26 19 11 
0.165844 -0.321019 1.53411 101 94 86 
0.0583578 -0.451317 1.56544 0 2 0 
0.0298209 -0.439163 1.61235 70 69 64 
0.0857192 -1.70446 2.51857 122 121 119 
0.158628 -1.00634 1.91437 64 57 39 
0.184045 -0.972657 1.90324 56 49 31 
0.165952 -0.949918 1.89196 42 37 31 
0.185551 -0.946705 1.89398 41 37 34 
0.134879 -0.942888 1.88382 112 112 112 
0.152725 -0.913108 1.87603 137 124 116 
0.200682 -0.9012 1.87334 35 28 22 
0.186504 -0.901587 1.87469 94 83 79 
0.193296 -0.878026 1.86698 77 67 66 
0.170095 -0.870684 1.86103 62 43 36 
0.237816 -0.813254 1.83561 118 116 104 
0.223148 -0.733591 1.77208 41 33 30 
0.262931 -0.504442 1.61907 99 95 86 
0.144942 -0.4194 1.55484 52 47 43 
0.241851 -0.26203 1.50591 118 116 104 
0.124618 -0.260239 1.48744 104 97 89 
0.10652 -0.246663 1.48292 93 82 76 
0.256135 0.00356608 1.39578 39 27 13 
0.302444 0.015577 1.44082 19 7 0 
0.251937 0.0291514 1.38384 24 20 11 
0.132493 0.0229491 1.36509 29 22 12 
0.265035 0.039454 1.38446 97 89 76 
0.210716 0.104885 1.3372 39 31 18 
0.153831 0.136062 1.31896 115 94 89 
0.11913 0.14377 1.31216 102 97 91 
0.149783 0.158725 1.30697 33 25 14 
0.124779 0.159182 1.30424 77 67 57 
0.0874644 0.169264 1.30526 74 72 60 
0.128073 0.175099 1.29803 97 89 76 
0.146098 0.175979 1.2985 91 85 73 
0.0960183 0.180466 1.30021 26 22 13 
0.11328 0.183501 1.29443 47 43 32 
0.263806 0.198032 1.31395 23 16 0 
0.194489 0.217229 1.28347 21 14 6 
0.151526 0.221231 1.27767 50 41 32 
0.13746 0.221863 1.27806 60 52 41 
0.151211 0.230777 1.27095 61 57 48 
0.0969233 0.231248 1.27562 83 80 73 
0.107662 0.23417 1.27287 98 96 83 
0.151242 0.256761 1.26214 10 6 0 
0.116687 0.26356 1.2587 100 96 87 
0.062743 0.297668 1.25629 47 44 39 
0.0848349 0.317712 1.24242 122 113 106 
0.314075 0.339806 1.2875 38 31 15 
0.155556 0.347396 1.2194 57 50 42 
0.0503294 0.362361 1.22117 32 24 21 
0.239317 0.368769 1.21664 167 163 152 
0.273787 0.374579 1.22636 61 54 44 
0.0567237 0.376771 1.20806 88 83 79 
0.244353 0.385337 1.20217 34 27 21 
0.257559 0.393069 1.20505 41 37 26 
0.292308 0.400468 1.21928 105 101 89 
0.301629 0.403204 1.22363 131 125 113 
0.272503 0.40201 1.20675 138 135 120 
0.259549 0.411936 1.19615 13 9 0 
0.248818 0.414183 1.19073 22 17 11 
0.322703 0.432813 1.22393 25 22 13 
0.20799 0.421387 1.17782 89 84 78 
0.19901 0.431748 1.17082 103 94 85 
0.219835 0.436601 1.1676 132 126 112 
0.246028 0.439901 1.17411 132 130 118 
0.23472 0.439979 1.16277 129 121 110 
0.209751 0.430722 1.13066 171 164 145 
0.193318 0.441074 1.12493 105 102 85 
0.204136 0.452792 1.12151 113 109 98 
0.192784 0.454934 1.11843 128 124 112 
0.178091 0.456587 1.11704 18 10 0 
0.108048 0.461212 1.11664 92 90 77 
0.18697 0.463674 1.11452 144 136 123 
0.197613 0.465354 1.11413 118 117 99 
0.205532 0.478407 1.10748 134 127 108 
0.0907037 0.11972 1.32466 54 47 37 
0.0977947 0.189019 1.29366 107 103 92 
0.124595 0.189557 1.29238 9 2 0 
0.107984 0.2884 1.24997 96 92 83 
0.133238 0.338977 1.22673 127 118 109 
0.0861114 0.365275 1.20751 108 104 95 
0.154723 0.370746 1.19754 95 92 87 
0.218801 0.406304 1.18577 31 27 16 
0.106949 0.480784 1.10425 122 116 102 
0.129516 -0.287047 1.50065 90 85 79 
0.247268 0.350568 1.24144 141 134 124 
0.215085 0.354941 1.22121 132 129 114 
0.191256 0.367234 1.20347 106 97 92 
0.230966 0.390988 1.1946 139 135 124 
0.172875 0.391846 1.18546 24 20 11 
0.150553 0.449572 1.1205 90 87 70 
0.153583 0.465871 1.11411 88 81 63 
0.177928 0.47856 1.10507 133 125 112 
0.213948 -0.483998 1.5894 102 92 83 
0.305428 0.417818 1.21715 21 16 10 
0.200329 0.41102 1.17757 96 93 88 
0.116342 0.432728 1.12768 53 41 29 
0.226153 0.471477 1.11736 99 96 77 
0.143225 -0.531787 1.6043 93 92 87 
0.132986 0.397483 1.18322 99 95 86 
0.212368 0.470057 1.11397 153 145 126 
0.315867 -0.358755 1.61435 32 19 10 
0.115108 -1.63601 2.50644 23 20 13 
0.109386 -1.70203 2.5384 35 31 32 
0.237066 -1.12623 2.07786 19 10 0 
0.200588 -1.11261 2.04788 106 101 97 
0.290032 -1.17073 2.19356 41 37 26 
0.209992 -1.0879 2.02765 139 135 126 
0.192231 -1.08707 2.02552 114 110 101 
0.101686 -1.10284 2.03309 61 55 41 
0.183955 -1.0795 2.01694 131 128 119 
0.22529 -1.07042 2.01151 63 53 43 
0.209696 -1.06729 2.01109 90 86 75 
0.303252 -1.14362 2.19237 131 124 114 
0.193092 -1.06087 1.99587 51 46 40 
0.0933016 -1.06358 1.99377 125 121 110 
0.212016 -1.03325 1.97911 139 135 126 
0.22471 -1.03301 1.98613 27 23 14 
0.225205 -1.02571 1.97253 38 34 25 
0.313356 -1.10529 2.16604 55 48 38 
0.0951022 -1.04666 1.98187 67 59 48 
0.295891 -1.07721 2.10838 26 22 13 
0.213567 -1.00683 1.95822 100 95 91 
0.247909 -1.00874 1.97964 14 10 7 
0.0899564 -1.024 1.96644 17 13 1 
0.0973746 -1.0164 1.96063 105 104 99 
0.155511 -0.962356 1.86894 57 48 33 
0.186126 -0.957384 1.86929 43 35 24 
0.27405 -1.01418 2.0168 32 23 14 
0.155843 -0.953441 1.85935 56 46 34 
0.210771 -0.943278 1.86425 113 109 97 
0.329128 -1.04694 2.12815 60 53 37 
0.157452 -0.94069 1.86039 44 40 31 
0.208973 -0.933911 1.86385 96 93 88 
0.166505 -0.931645 1.85447 109 105 94 
0.187862 -0.929772 1.85673 29 28 24 
0.285313 -0.979234 1.99966 43 39 30 
0.150994 -0.923751 1.8442 93 91 92 
0.335734 -1.01724 2.10318 63 54 39 
0.137693 -0.928746 1.85192 109 105 104 
0.273391 -0.95558 1.95829 35 31 22 
0.290164 -0.956723 1.98262 5 2 0 
0.152214 -0.899248 1.83682 109 104 98 
0.228039 -0.888549 1.84372 113 111 99 
0.155166 -0.899563 1.84514 137 124 116 
0.34389 -0.979867 2.08605 127 124 117 
0.180681 -0.893551 1.8441 20 13 7 
0.246051 -0.899831 1.88312 156 155 151 
0.145795 -0.894593 1.84329 43 32 26 
0.0516011 -0.940085 1.92016 49 45 34 
0.253297 -0.887421 1.87008 136 135 131 
0.0948217 -0.893833 1.83501 95 93 81 
0.353322 -0.967928 2.08883 93 90 83 
0.25915 -0.871968 1.85981 136 129 121 
0.0746927 -0.897873 1.86194 32 27 24 
0.126476 -0.873838 1.83016 41 31 22 
0.188699 -0.865177 1.83703 120 107 101 
0.252902 -0.861875 1.8508 133 130 123 
0.14165 -0.868016 1.82866 36 19 11 
0.0635574 -0.894826 1.86556 120 118 106 
0.355957 -0.939892 2.06802 109 105 94 
0.231305 -0.861211 1.84992 85 84 80 
0.255937 -0.85279 1.84524 153 151 139 
0.130249 -0.862234 1.82654 32 17 12 
0.176128 -0.857393 1.83124 49 32 24 
0.150516 -0.858143 1.83029 52 33 27 
0.369504 -0.935352 2.08148 194 199 192 
0.0824269 -0.875093 1.85399 82 83 78 
0.196675 -0.847451 1.8313 115 103 103 
0.129815 -0.842613 1.81425 119 100 94 
0.269438 -0.832 1.83712 132 124 113 
0.147361 -0.834257 1.81798 110 97 89 
0.170167 -0.830859 1.82392 112 93 89 
0.149481 -0.826866 1.81074 140 130 121 
0.268657 -0.811933 1.81657 136 127 118 
0.297714 -0.820483 1.85363 22 21 16 
0.0616389 -0.840154 1.82501 24 21 16 
-0.0288888 -0.921812 1.99291 56 49 43 
0.216903 -0.807834 1.80807 102 99 94 
0.0742022 -0.823695 1.80765 30 27 22 
0.267742 -0.791356 1.79962 120 114 102 
0.116708 -0.811773 1.80367 58 50 39 
0.257163 -0.78866 1.79662 133 130 121 
0.406503 -0.895903 2.10722 22 20 7 
0.156271 -0.797035 1.79231 104 101 94 
-0.0616036 -0.913914 2.02127 27 27 19 
0.130704 -0.790766 1.78755 26 22 19 
0.00817497 -0.848233 1.88832 34 30 27 
0.181962 -0.780875 1.78579 27 24 15 
0.080904 -0.79538 1.79017 36 32 23 
0.104125 -0.785911 1.77396 101 94 88 
0.329563 -0.800381 1.8896 106 105 101 
0.167859 -0.776178 1.7784 141 138 129 
-0.120131 -0.961635 2.14064 86 87 82 
0.157173 -0.771439 1.77435 97 94 89 
-0.0439507 -0.876368 1.9707 109 104 98 
0.0959043 -0.778979 1.77772 37 37 27 
0.0542426 -0.787158 1.78693 113 110 103 
0.321083 -0.778224 1.85859 46 43 34 
0.415301 -0.844494 2.05981 39 39 37 
0.306725 -0.761805 1.81859 32 23 14 
0.338456 -0.78623 1.88923 118 117 113 
0.11196 -0.768493 1.76939 108 104 93 
0.321729 -0.76845 1.84724 36 32 23 
-0.104315 -0.909251 2.06153 45 43 31 
0.284337 -0.735012 1.76288 39 33 19 
-0.114091 -0.903114 2.06184 69 68 64 
0.295949 -0.729798 1.77284 32 26 14 
0.316172 -0.744914 1.82124 56 52 40 
0.156075 -0.739226 1.75238 103 100 95 
0.283525 -0.721325 1.75119 56 47 32 
0.294052 -0.720463 1.76521 9 5 0 
0.264629 -0.710138 1.73067 132 128 119 
0.0856968 -0.737619 1.7448 43 43 33 
0.0649349 -0.735975 1.74368 39 35 26 
0.0830619 -0.726248 1.73046 34 31 26 
0.147544 -0.71823 1.73366 149 146 137 
0.333981 -0.730972 1.83553 143 136 126 
0.398092 -0.763694 1.95047 105 96 87 
0.321773 -0.719459 1.80883 40 37 30 
0.0750513 -0.713379 1.72461 111 104 96 
0.195311 -0.692872 1.71845 119 116 109 
0.10747 -0.707175 1.72684 76 73 64 
0.308924 -0.6895 1.75302 35 31 20 
0.195288 -0.686682 1.70912 31 29 17 
0.28895 -0.673056 1.71464 81 72 65 
0.231048 -0.674898 1.70046 102 99 92 
0.312278 -0.68225 1.75997 26 22 13 
0.309126 -0.670632 1.73883 7 3 0 
0.0990195 -0.68637 1.70992 25 21 10 
0.356341 -0.700593 1.84254 32 28 19 
0.422121 -0.73731 1.96992 73 73 61 
0.407771 -0.720802 1.92798 115 112 105 
0.225052 -0.661183 1.6983 37 33 30 
0.0748423 -0.680129 1.70178 136 133 128 
0.175188 -0.663035 1.69313 119 116 109 
0.397265 -0.709157 1.90584 30 25 19 
0.0629777 -0.678299 1.69835 50 47 40 
0.421624 -0.72201 1.95171 56 56 44 
0.207772 -0.649738 1.68551 38 35 30 
0.306581 -0.642577 1.7035 144 135 126 
0.188876 -0.649098 1.68069 49 44 40 
0.329216 -0.657927 1.75977 36 31 27 
0.111545 -0.658497 1.68372 116 112 101 
0.145987 -0.653506 1.6848 28 25 18 
0.0735747 -0.665204 1.69304 118 115 110 
0.202225 -0.638188 1.67127 111 108 101 
0.222753 -0.634018 1.66728 122 119 112 
0.396838 -0.684636 1.88042 114 111 104 
0.0402545 -0.664706 1.69301 22 19 12 
0.342065 -0.653577 1.77315 35 30 24 
0.132254 -0.643336 1.67074 117 112 106 
0.260628 -0.623603 1.65902 50 46 34 
0.401192 -0.687187 1.89626 50 43 33 
0.430214 -0.703004 1.9517 56 56 44 
0.358421 -0.658375 1.80254 4 0 0 
0.426685 -0.696153 1.93615 42 36 24 
0.270206 -0.617096 1.65385 124 120 111 
0.392987 -0.673034 1.86686 107 102 96 
0.210817 -0.620983 1.6528 44 40 29 
0.410376 -0.679598 1.89721 113 106 96 
0.089256 -0.636188 1.65204 59 55 44 
0.0550108 -0.645803 1.66923 111 107 104 
0.224819 -0.615364 1.64892 55 51 39 
0.132246 -0.62823 1.65213 155 152 143 
0.339323 -0.629281 1.73778 69 66 57 
0.0865329 -0.626674 1.64499 113 106 96 
0.118115 -0.621834 1.64495 29 25 14 
0.429189 -0.671406 1.91876 143 139 128 
0.100717 -0.610968 1.62482 116 112 103 
0.11856 -0.60663 1.62772 26 22 13 
0.349811 -0.606177 1.71736 60 57 48 
0.143875 -0.591562 1.60949 19 14 10 
0.223064 -0.576227 1.60264 62 58 47 
0.193582 -0.577204 1.60171 21 18 11 
0.129781 -0.585116 1.60509 25 21 20 
0.427272 -0.638732 1.88808 16 12 3 
0.173501 -0.573954 1.59519 131 128 121 
0.435975 -0.638979 1.89495 122 118 109 
0.0500051 -0.599027 1.63115 119 116 107 
0.310743 -0.567299 1.63922 55 51 39 
0.376012 -0.578882 1.71426 97 94 85 
0.167328 -0.556148 1.57571 116 112 103 
0.297289 -0.547667 1.62095 17 17 7 
0.0764868 -0.56599 1.5951 61 58 53 
-0.016521 -0.593867 1.67585 36 34 22 
0.415521 -0.557792 1.75246 55 52 45 
-0.10983 -0.650181 1.84843 8 5 0 
0.212351 -0.527694 1.57934 90 87 82 
0.0411322 -0.554573 1.60104 59 52 42 
0.191747 -0.528311 1.58092 8 5 0 
0.132135 -0.534824 1.58003 86 85 81 
0.181486 -0.527151 1.57683 7 2 0 
0.0950238 -0.537947 1.58462 3 0 0 
0.149543 -0.52916 1.58353 9 5 4 
0.219262 -0.520105 1.58292 36 33 28 
0.370692 -0.514421 1.6628 79 74 68 
0.107818 -0.521262 1.58085 25 24 19 
0.196135 -0.506767 1.57162 18 13 9 
0.125931 -0.514185 1.57215 17 13 10 
0.0671665 -0.526808 1.59237 108 105 98 
0.0576187 -0.527659 1.5978 81 77 74 
0.223384 -0.498835 1.56801 127 127 119 
0.165609 -0.503004 1.5681 84 83 78 
0.209751 -0.496047 1.56299 30 27 20 
0.0793363 -0.515123 1.5808 57 53 50 
0.104372 -0.510056 1.57182 108 105 100 
0.0349 -0.526385 1.60856 86 83 76 
0.113998 -0.506974 1.5745 32 29 24 
0.409956 -0.50435 1.70213 79 78 74 
0.18589 -0.488507 1.55871 32 28 25 
0.40177 -0.501025 1.69539 82 79 74 
0.0695978 -0.506454 1.58122 36 33 26 
0.362279 -0.490102 1.64577 117 114 109 
0.108527 -0.496622 1.56721 82 78 75 
0.0803866 -0.502599 1.5767 104 101 96 
0.199865 -0.483282 1.56215 18 14 13 
0.377917 -0.489752 1.66864 8 5 0 
0.35995 -0.483476 1.63879 123 121 109 
0.0464673 -0.504897 1.58862 29 21 18 
0.147553 -0.485622 1.5637 76 70 70 
0.0327723 -0.508068 1.59827 94 89 85 
0.133368 -0.48209 1.56389 85 82 77 
0.022157 -0.50142 1.59924 39 32 26 
0.0799345 -0.484133 1.56762 84 82 70 
0.0340148 -0.49659 1.59587 29 26 19 
0.409625 -0.480175 1.69883 3 0 0 
0.187486 -0.466128 1.55513 7 0 0 
0.0919862 -0.479122 1.56406 101 97 98 
0.161997 -0.469489 1.56102 69 64 61 
0.340376 -0.462256 1.61626 92 90 78 
0.135417 -0.467902 1.55201 77 73 72 
0.105031 -0.473701 1.56338 21 18 13 
0.164265 -0.462897 1.54922 70 66 65 
0.197129 -0.4598 1.55227 34 30 27 
0.381465 -0.465641 1.65373 25 21 12 
0.0193594 -0.491021 1.59891 128 124 115 
0.409218 -0.470101 1.69224 37 34 25 
0.436643 -0.477049 1.732 55 46 37 
0.119149 -0.466277 1.55573 4 1 0 
0.0663541 -0.47468 1.56954 25 22 13 
0.00337741 -0.492778 1.61231 114 111 104 
0.0924956 -0.469041 1.5616 118 116 104 
0.204188 -0.451312 1.54396 22 17 13 
0.0821133 -0.467574 1.55527 21 21 11 
0.264897 -0.449988 1.57132 21 17 6 
0.407693 -0.463223 1.68321 13 10 1 
0.101663 -0.46373 1.55492 6 1 0 
0.39586 -0.46054 1.67181 52 49 40 
0.29056 -0.44846 1.58208 14 10 7 
0.120163 -0.454511 1.54258 16 9 1 
0.390088 -0.453919 1.66441 10 9 4 
0.0531348 -0.467 1.57323 29 29 19 
0.140883 -0.450398 1.5465 103 100 95 
0.0265524 -0.473926 1.58958 25 22 17 
0.12193 -0.45253 1.55286 121 113 110 
0.0821847 -0.45639 1.55678 105 102 97 
0.464179 -0.472236 1.78856 119 114 108 
0.126926 -0.44628 1.54363 92 87 81 
0.040401 -0.464538 1.5798 89 88 83 
0.109619 -0.449009 1.54904 32 31 26 
0.397422 -0.446595 1.67201 44 41 32 
-0.0299266 -0.484115 1.62908 109 105 102 
0.177554 -0.437329 1.54217 100 99 94 
0.393018 -0.441059 1.65917 18 15 6 
-0.00725066 -0.470453 1.60779 42 38 35 
0.404447 -0.439167 1.67019 32 27 21 
0.0935086 -0.441953 1.54445 31 28 23 
0.127046 -0.437038 1.53905 13 8 4 
0.00820364 -0.463401 1.59841 40 37 32 
0.0274857 -0.4544 1.57591 75 72 67 
-0.00194801 -0.461245 1.59678 36 32 29 
0.464329 -0.454526 1.78387 38 34 25 
0.425333 -0.43863 1.70375 133 130 121 
0.172531 -0.422988 1.53547 99 94 90 
0.0835775 -0.435573 1.5512 44 41 36 
0.129632 -0.426632 1.53821 18 10 7 
0.0696606 -0.430722 1.5504 17 17 9 
0.0867001 -0.423357 1.54325 9 4 0 
0.436687 -0.424602 1.71239 40 37 28 
0.388561 -0.40927 1.64626 97 93 84 
-0.0408901 -0.451202 1.62564 92 91 87 
0.139472 -0.408745 1.53045 33 28 24 
0.071455 -0.415357 1.54533 117 110 100 
0.101002 -0.407135 1.53058 7 0 0 
0.13385 -0.400013 1.52486 101 96 93 
0.317385 -0.393287 1.59716 76 72 63 
0.452507 -0.409451 1.73892 119 115 104 
0.0852921 -0.40141 1.53318 104 100 91 
0.262435 -0.383153 1.53777 12 8 0 
0.0701303 -0.404032 1.54356 6 0 0 
-0.0776688 -0.442698 1.64691 95 94 90 
0.00290431 -0.42064 1.5853 4 3 0 
0.10856 -0.394209 1.52652 127 123 114 
0.144539 -0.385805 1.5172 90 83 77 
0.415107 -0.395955 1.69557 68 69 64 
0.46554 -0.405839 1.76728 9 6 0 
0.160793 -0.381081 1.51715 3 0 0 
0.340614 -0.376203 1.58994 111 104 94 
0.0518581 -0.401724 1.56776 11 10 6 
0.392108 -0.384047 1.65286 96 92 83 
-0.0954823 -0.440446 1.6726 81 77 74 
0.179743 -0.3758 1.51585 30 27 20 
0.082776 -0.387446 1.52452 20 16 13 
0.121534 -0.379268 1.51863 108 105 96 
-0.109541 -0.439866 1.68939 97 92 86 
0.0269704 -0.401251 1.57835 82 78 75 
0.428336 -0.380727 1.69223 85 81 72 
0.140214 -0.372303 1.51482 12 9 4 
0.10465 -0.373648 1.52075 121 117 108 
0.33344 -0.366255 1.60507 7 5 0 
0.0429373 -0.388125 1.56742 11 10 8 
0.179338 -0.360073 1.51154 107 102 96 
0.383192 -0.36547 1.64585 45 38 28 
0.389467 -0.366425 1.6548 21 14 4 
0.243302 -0.352909 1.51845 34 29 23 
0.0767362 -0.370951 1.52412 9 6 0 
0.399882 -0.365559 1.6682 42 33 24 
-0.111808 -0.422452 1.68978 83 83 81 
0.10578 -0.359583 1.5107 116 112 101 
0.141442 -0.354491 1.50812 7 2 0 
0.363229 -0.354275 1.61909 119 115 104 
0.0862008 -0.361454 1.51502 46 43 36 
0.158915 -0.350815 1.50239 106 103 94 
0.427311 -0.36384 1.70884 4 0 0 
0.122242 -0.35452 1.50735 20 17 12 
0.417613 -0.356923 1.69306 98 89 80 
0.448025 -0.365948 1.75807 24 18 6 
0.392771 -0.350745 1.65867 51 43 32 
0.124901 -0.345471 1.50193 110 107 100 
0.379473 -0.344779 1.63389 123 119 108 
0.429534 -0.354305 1.71207 113 104 89 
-0.0296815 -0.381361 1.61021 13 9 6 
0.0145561 -0.369028 1.57333 8 7 3 
0.0633978 -0.354324 1.52892 34 31 26 
0.226552 -0.330395 1.50092 29 24 18 
0.0946502 -0.345152 1.50899 11 6 0 
-0.00674546 -0.369264 1.59098 1 0 0 
0.140093 -0.337593 1.50205 101 96 92 
0.2841 -0.328121 1.5404 99 90 81 
0.223666 -0.324551 1.49277 11 6 0 
0.132271 -0.331559 1.49924 109 105 96 
-0.0613576 -0.376242 1.63528 6 3 0 
-0.0413978 -0.370196 1.61446 87 84 79 
-0.0151967 -0.362892 1.59194 1 0 0 
0.0822815 -0.33576 1.50879 137 132 126 
0.424721 -0.336364 1.69767 55 49 37 
0.0672758 -0.335876 1.51523 89 80 73 
0.147252 -0.322577 1.4886 100 93 83 
0.0905723 -0.329548 1.50027 90 85 79 
0.394341 -0.326346 1.64923 133 129 118 
-0.045235 -0.360928 1.61089 12 8 5 
-0.0304804 -0.358272 1.60194 60 56 53 
0.0761036 -0.328819 1.50491 87 82 78 
0.36551 -0.317966 1.60761 116 108 97 
0.429233 -0.327485 1.70181 57 50 40 
0.178159 -0.313562 1.48987 4 0 0 
0.282171 -0.310964 1.53168 94 85 78 
0.225223 -0.309482 1.49409 107 103 94 
0.129266 -0.315453 1.49002 112 109 104 
0.283322 -0.308892 1.54349 31 21 9 
0.161541 -0.31103 1.48815 99 96 91 
0.38564 -0.311925 1.62944 116 110 98 
-0.0782006 -0.3611 1.64703 93 89 86 
0.0873448 -0.317714 1.49798 34 31 26 
0.277009 -0.303413 1.52566 20 9 3 
0.111747 -0.312385 1.49232 4 1 0 
0.344487 -0.305427 1.58437 25 21 12 
0.362365 -0.30622 1.60916 49 39 27 
0.412803 -0.311597 1.66688 24 15 6 
-0.0325405 -0.342944 1.59494 0 0 0 
0.176872 -0.301277 1.48298 87 82 78 
0.440011 -0.314242 1.71875 125 114 108 
-0.020926 -0.334414 1.57924 23 22 18 
0.0697763 -0.312025 1.50183 104 101 96 
0.162265 -0.296305 1.48109 79 76 71 
0.340709 -0.294368 1.57575 20 11 4 
0.423162 -0.304111 1.68446 107 97 87 
0.00798383 -0.323606 1.55769 18 17 13 
0.417666 -0.301226 1.67252 126 116 106 
0.0989695 -0.300791 1.49068 19 15 6 
0.408914 -0.297576 1.6541 122 113 104 
0.0726705 -0.301126 1.49733 3 0 0 
0.122416 -0.294006 1.48464 82 75 69 
0.36904 -0.287102 1.60158 5 1 0 
0.413662 -0.293277 1.66281 23 15 4 
0.39258 -0.288523 1.62914 101 93 82 
0.380297 -0.281156 1.61106 24 14 5 
0.172642 -0.277097 1.47047 15 5 0 
0.117346 -0.283506 1.4818 35 26 19 
-0.0140711 -0.309582 1.57068 13 9 6 
0.184937 -0.274623 1.46926 109 105 96 
0.343482 -0.273667 1.57434 130 120 108 
0.352825 -0.273611 1.57797 34 26 15 
0.257538 -0.266143 1.47622 43 33 24 
0.376345 -0.273624 1.59592 23 17 5 
0.0726792 -0.28589 1.49176 27 22 16 
0.232771 -0.268549 1.48143 24 20 11 
0.141149 -0.276018 1.47569 7 0 0 
0.419965 -0.27787 1.66703 50 38 26 
0.379376 -0.2671 1.60484 35 29 15 
0.435099 -0.276592 1.69762 43 31 19 
0.400858 -0.267673 1.62666 28 18 8 
0.0495483 -0.283995 1.51996 24 20 17 
0.231069 -0.259852 1.47534 20 16 5 
-0.000614546 -0.292991 1.55131 3 0 0 
0.423258 -0.268209 1.66644 39 25 14 
-0.0109896 -0.293428 1.56385 12 8 5 
0.412376 -0.265053 1.64636 115 103 89 
0.353664 -0.259798 1.57671 36 26 17 
0.0725682 -0.27187 1.4847 102 97 94 
0.118441 -0.265428 1.4693 104 101 92 
0.280609 -0.256281 1.51762 83 75 64 
0.27052 -0.253423 1.49286 121 111 102 
-0.0204404 -0.289696 1.56257 15 11 8 
0.0842986 -0.265928 1.47524 3 0 0 
-0.0818662 -0.302899 1.62885 13 9 8 
0.364014 -0.252096 1.58776 51 43 32 
0.379803 -0.252201 1.59595 36 26 14 
0.281991 -0.246733 1.51414 111 104 94 
0.0441127 -0.269259 1.51933 77 73 70 
0.143994 -0.251291 1.46865 111 100 96 
0.170951 -0.246306 1.46246 92 83 78 
0.0029341 -0.272206 1.53679 22 18 15 
0.359798 -0.243647 1.57689 38 30 19 
0.0881102 -0.253047 1.47102 5 2 0 
0.157907 -0.244767 1.46156 125 120 114 
0.391214 -0.244066 1.61397 106 96 86 
0.0194433 -0.264342 1.52904 9 6 1 
0.133879 -0.244667 1.46141 20 17 10 
0.310775 -0.234903 1.51143 138 130 111 
0.318642 -0.236422 1.52529 58 49 32 
0.441251 -0.248098 1.70114 48 38 26 
0.0314421 -0.259727 1.5183 5 2 0 
0.402103 -0.237664 1.61817 29 20 5 
-0.075132 -0.278195 1.61239 5 1 0 
0.272239 -0.229714 1.48804 26 18 7 
0.114443 -0.239705 1.45793 89 86 79 
0.432723 -0.239428 1.67801 45 35 23 
0.26061 -0.226418 1.47185 35 26 17 
0.33784 -0.225645 1.54435 23 13 3 
0.280531 -0.225048 1.5045 97 93 84 
0.356922 -0.224883 1.5544 123 113 101 
0.175552 -0.227892 1.4538 138 133 127 
0.409264 -0.228307 1.63018 55 43 31 
0.149065 -0.229362 1.45592 16 7 0 
0.0777987 -0.236987 1.46898 15 12 7 
0.119347 -0.229441 1.45785 7 2 0 
0.133992 -0.224478 1.45438 107 100 92 
-0.000412311 -0.244349 1.53069 93 92 87 
0.27114 -0.21228 1.47092 132 122 113 
0.276108 -0.214067 1.48356 100 90 80 
-0.0187023 -0.247134 1.54367 31 27 24 
-0.0913754 -0.260115 1.62142 6 3 0 
-0.0489571 -0.251184 1.57671 21 17 14 
0.427099 -0.217801 1.65781 21 11 0 
0.203349 -0.20644 1.44845 102 98 86 
0.146713 -0.210843 1.44963 114 105 96 
-0.0496238 -0.242731 1.56991 96 92 89 
0.171655 -0.206818 1.44507 12 8 0 
0.337211 -0.200314 1.53056 139 131 120 
0.0980275 -0.209 1.44842 83 80 75 
0.423846 -0.201552 1.64237 30 18 4 
0.115225 -0.206571 1.4464 17 13 2 
0.00465018 -0.22275 1.5111 8 4 1 
0.431599 -0.200885 1.65351 29 17 5 
0.280089 -0.191707 1.48984 122 113 106 
0.166705 -0.195467 1.43997 89 85 74 
0.0503592 -0.211126 1.49095 82 78 75 
0.30963 -0.189442 1.50464 62 52 43 
0.149356 -0.195933 1.43685 86 79 73 
0.350541 -0.188503 1.53597 55 41 28 
0.193779 -0.191636 1.44162 24 17 9 
-0.0190479 -0.217303 1.52745 18 14 11 
0.113292 -0.195859 1.443 97 95 83 
0.207225 -0.187217 1.44006 98 89 80 
0.185946 -0.187376 1.43607 12 7 1 
-0.10074 -0.230766 1.62427 3 0 0 
0.426696 -0.185637 1.6371 43 35 22 
0.00680003 -0.207017 1.50777 28 23 19 
0.161443 -0.184062 1.42967 87 78 69 
0.350305 -0.178798 1.54017 53 38 17 
0.14329 -0.184545 1.43713 114 110 101 
0.279278 -0.177211 1.48444 111 101 92 
0.0900572 -0.188312 1.44609 102 99 94 
0.37238 -0.173558 1.55515 25 0 0 
0.0299742 -0.197109 1.49498 68 64 65 
0.0540265 -0.193527 1.48031 101 97 94 
-0.00503706 -0.198039 1.51086 107 103 94 
0.185556 -0.174087 1.43228 115 105 96 
0.234792 -0.17085 1.44071 120 111 106 
0.405622 -0.170633 1.6065 102 96 84 
0.0420037 -0.189631 1.48557 89 90 85 
0.170449 -0.174036 1.43373 113 106 96 
-0.0128527 -0.196478 1.51831 28 23 17 
0.417344 -0.167824 1.61716 33 17 2 
0.213481 -0.166211 1.43325 121 114 106 
0.444258 -0.165182 1.6663 50 40 28 
0.00498829 -0.185987 1.5026 104 103 99 
0.231132 -0.160031 1.43348 120 112 101 
0.434432 -0.162168 1.64479 38 26 12 
-0.0107072 -0.186613 1.51309 103 100 95 
0.138934 -0.161983 1.42573 95 90 87 
0.216794 -0.153514 1.4263 100 92 89 
0.0831277 -0.164962 1.43543 10 5 1 
0.277282 -0.150655 1.4735 111 102 97 
0.098341 -0.161472 1.43388 103 95 92 
0.250653 -0.148869 1.43263 17 8 0 
0.0186274 -0.170714 1.48737 1 0 0 
0.199874 -0.148277 1.4254 121 114 106 
0.112746 -0.154411 1.42767 109 104 101 
-0.0935969 -0.181739 1.59747 14 13 9 
0.278446 -0.141061 1.4679 72 64 61 
0.0897879 -0.152909 1.43262 5 2 0 
0.24113 -0.140506 1.43177 19 9 0 
0.428543 -0.14026 1.63296 51 41 29 
0.143542 -0.146855 1.41856 111 109 97 
0.0052399 -0.161796 1.489 38 34 31 
0.184606 -0.141723 1.41954 96 87 78 
-0.0176405 -0.164444 1.50877 19 14 10 
0.425985 -0.136232 1.622 20 10 1 
0.0391754 -0.154857 1.47005 33 27 27 
0.156534 -0.140964 1.41852 119 117 105 
0.10505 -0.144808 1.4243 26 18 15 
0.257332 -0.132218 1.43145 94 87 79 
0.213059 -0.13303 1.42015 93 84 79 
0.130291 -0.138988 1.4172 106 99 93 
0.166682 -0.133841 1.4121 4 0 0 
-0.0173424 -0.15372 1.50492 10 5 1 
0.446997 -0.126006 1.66461 8 0 0 
0.194086 -0.128275 1.41439 6 0 0 
0.0734645 -0.138359 1.4282 19 16 7 
0.369071 -0.119725 1.52809 46 6 0 
-0.00823537 -0.147899 1.49524 22 19 14 
0.231919 -0.122912 1.42079 115 105 95 
0.269982 -0.120576 1.43433 157 151 139 
0.119965 -0.130889 1.41692 115 106 101 
0.0987586 -0.12943 1.42063 8 0 0 
0.131072 -0.125532 1.41059 13 4 0 
0.242382 -0.115753 1.42024 100 90 81 
0.109297 -0.125344 1.41517 119 119 107 
0.0245189 -0.133948 1.46636 12 11 7 
0.366574 -0.110665 1.52362 39 14 0 
-0.102826 -0.149992 1.59212 3 0 0 
0.426789 -0.109985 1.61522 65 51 38 
0.0057196 -0.131773 1.475 102 98 95 
0.349519 -0.104772 1.51156 23 9 0 
0.344931 -0.103119 1.49243 57 47 37 
0.143303 -0.113889 1.40993 103 94 85 
0.277951 -0.106041 1.45705 120 118 105 
0.118636 -0.114708 1.40877 102 91 85 
0.318094 -0.102126 1.47263 125 122 115 
-0.0682215 -0.137036 1.56525 102 83 79 
0.0410384 -0.122659 1.45471 80 80 80 
0.181524 -0.108883 1.40835 4 0 0 
0.166001 -0.109084 1.40376 13 6 0 
0.418555 -0.0973957 1.59681 140 127 111 
0.285897 -0.0994973 1.45464 28 18 8 
0.0725785 -0.112559 1.41989 132 124 121 
0.233936 -0.0966836 1.40858 19 6 0 
0.127318 -0.104363 1.40323 6 0 0 
0.0107823 -0.114889 1.46797 95 92 87 
0.43344 -0.0886659 1.62009 120 107 91 
0.463659 -0.0911388 1.70898 10 0 0 
0.30192 -0.0893882 1.46091 70 60 50 
0.365869 -0.0868231 1.51516 38 12 0 
0.417144 -0.083394 1.58764 126 110 94 
0.264959 -0.0864992 1.41623 50 41 36 
0.112632 -0.0971371 1.4012 95 92 85 
0.0910721 -0.0956906 1.40656 10 7 2 
0.43856 -0.0772122 1.61962 28 15 0 
0.355877 -0.0787157 1.51466 132 123 106 
-0.0991002 -0.113996 1.57657 28 21 13 
0.279807 -0.0784064 1.44158 99 95 86 
0.398088 -0.0740778 1.56638 105 89 66 
0.0354992 -0.0960897 1.45008 81 77 74 
0.45808 -0.0720772 1.67532 12 0 0 
0.120278 -0.0861761 1.39741 3 0 0 
0.131392 -0.0836787 1.39621 90 87 82 
0.445548 -0.0686455 1.63845 21 8 0 
0.148168 -0.0821959 1.39546 4 0 0 
0.00306126 -0.0945559 1.46755 91 87 84 
0.0828373 -0.0859391 1.40412 98 94 83 
0.430327 -0.0656645 1.6062 47 31 18 
0.0716451 -0.0854255 1.41005 107 100 90 
0.214265 -0.0734457 1.39066 79 72 62 
0.439764 -0.0614623 1.62346 119 110 93 
0.418519 -0.0604666 1.57217 142 131 113 
0.144541 -0.0742856 1.39004 6 2 0 
0.11754 -0.0758043 1.39402 15 10 6 
0.349746 -0.0597955 1.49108 110 95 76 
-0.0680202 -0.0914377 1.54692 140 130 129 
0.183924 -0.0690105 1.3919 94 86 75 
0.4246 -0.0561985 1.58522 146 137 120 
0.104729 -0.0729903 1.39083 116 108 105 
0.0907895 -0.0724834 1.39841 35 31 20 
0.38404 -0.0543192 1.55216 112 68 59 
0.0171596 -0.0773802 1.45151 17 13 10 
0.126906 -0.0679285 1.38856 90 85 79 
0.281434 -0.0530739 1.43366 123 113 101 
0.0761524 -0.0671144 1.39989 96 88 85 
0.28124 -0.0532815 1.44342 127 114 105 
0.231156 -0.0550534 1.38934 120 108 96 
0.271393 -0.05164 1.41012 13 4 0 
0.405479 -0.0432143 1.55023 37 22 1 
0.132224 -0.0587551 1.38666 101 90 86 
-0.0137925 -0.0697681 1.4712 87 80 70 
0.111173 -0.0589368 1.38561 101 92 85 
-0.0907647 -0.0721703 1.54821 103 100 95 
0.151036 -0.0516449 1.38059 16 12 3 
0.0831084 -0.0560196 1.39189 97 92 88 
0.137936 -0.0514843 1.38204 77 73 62 
0.0372896 -0.0574805 1.43099 107 104 97 
0.193785 -0.0460487 1.38102 95 87 74 
0.0506159 -0.055146 1.42572 8 4 1 
0.434192 -0.0273805 1.5919 139 126 110 
0.281988 -0.0358279 1.43162 33 25 14 
0.174037 -0.0404486 1.37982 12 4 1 
0.410914 -0.0250637 1.54695 32 19 0 
0.138618 -0.0420215 1.37114 28 20 17 
0.072928 -0.0459484 1.39098 92 88 79 
0.278227 -0.0315307 1.41815 104 98 86 
0.113558 -0.0391749 1.37931 79 76 67 
0.413566 -0.0175761 1.55601 145 132 115 
0.421955 -0.0163548 1.56903 54 41 25 
0.0455838 -0.0413005 1.42088 92 88 85 
0.0199623 -0.0426157 1.43582 20 17 12 
0.206157 -0.0271044 1.37662 119 109 100 
0.102781 -0.0335923 1.38089 27 23 14 
0.364846 -0.01476 1.49049 106 84 71 
-0.00037841 -0.0394636 1.44617 3 0 0 
-0.090302 -0.043861 1.53447 18 8 0 
0.260866 -0.0206993 1.38493 139 129 119 
0.143625 -0.0280649 1.36859 18 9 0 
0.00771848 -0.0339186 1.43529 88 84 81 
0.0732794 -0.0291001 1.38683 14 5 0 
0.0843618 -0.0267183 1.38186 111 106 100 
0.420992 -0.00304255 1.5592 51 36 17 
0.4129 -0.00199454 1.54378 152 140 116 
0.426586 -0.000397448 1.57408 58 49 32 
0.437078 0.000868399 1.59715 133 117 102 
0.276738 -0.0108452 1.4127 13 3 0 
0.0364624 -0.0255448 1.42038 87 83 80 
0.154494 -0.0183056 1.37008 17 10 4 
-0.091552 -0.0322925 1.52589 85 76 69 
0.274896 -0.00543319 1.3999 17 9 0 
0.04333 -0.0181443 1.41339 13 9 6 
0.429369 0.0092256 1.57475 51 38 21 
0.0892403 -0.0156443 1.37965 85 80 76 
0.433977 0.0108146 1.58516 141 129 113 
0.0278244 -0.0176992 1.42187 31 26 22 
0.115252 -0.0131573 1.36999 72 63 56 
0.421606 0.0118842 1.55412 60 44 28 
0.129968 -0.0102351 1.36827 41 32 25 
0.278507 0.000274524 1.41136 13 4 0 
0.22547 -0.00213258 1.37099 19 11 0 
0.392561 0.0136429 1.53005 141 124 108 
0.194523 0.000256189 1.36575 106 97 88 
0.276227 0.00605806 1.40123 121 111 101 
0.419309 0.0235195 1.54297 33 24 9 
0.433377 0.0251544 1.57095 143 131 117 
0.102567 -0.000485043 1.36929 85 80 74 
0.00977001 -0.00168733 1.4258 91 86 82 
0.392984 0.0262943 1.52777 172 155 139 
0.281554 0.0171789 1.41147 40 30 18 
0.377628 0.027083 1.50597 126 81 75 
0.0434069 0.00335778 1.40416 3 0 0 
0.0877121 0.00523602 1.36692 21 18 9 
0.441747 0.036616 1.59439 142 135 119 
0.12658 0.0118884 1.35763 102 99 90 
-0.00555388 0.00688265 1.42792 27 20 10 
-0.0172758 0.00670233 1.43974 23 16 10 
0.339688 0.0293085 1.44463 147 135 123 
0.0756794 0.0115988 1.363 111 106 100 
0.101227 0.0135944 1.36231 104 99 95 
0.425554 0.0409965 1.55309 56 43 26 
0.363885 0.0359818 1.46159 19 9 0 
0.409488 0.0407531 1.52606 61 46 23 
0.352323 0.036838 1.44957 31 22 7 
0.420695 0.0452675 1.54486 52 38 25 
0.438656 0.0489171 1.58233 40 28 14 
0.140082 0.0220192 1.35146 86 83 74 
0.156274 0.0230545 1.35114 17 13 4 
0.121546 0.0221518 1.35552 18 15 6 
0.0307905 0.0200205 1.40461 96 93 86 
0.0445502 0.0227441 1.39762 88 84 81 
0.0896573 0.0234867 1.35193 15 11 2 
0.0727193 0.0237268 1.36508 110 101 96 
0.169657 0.0297522 1.34459 35 26 17 
-0.0524796 0.0227986 1.47858 146 127 120 
0.358668 0.0465992 1.45324 51 43 30 
0.434374 0.058691 1.56212 52 40 24 
0.127236 0.0311004 1.34837 86 82 71 
-0.0998883 0.0266305 1.51787 38 35 28 
0.108871 0.0313592 1.35086 100 96 87 
-0.0699869 0.0280676 1.49353 74 71 66 
0.370394 0.0545208 1.46619 126 114 102 
0.0116868 0.0302519 1.41153 3 0 0 
0.320917 0.0520248 1.41825 65 56 41 
0.0838982 0.0348503 1.35626 1 0 0 
0.136727 0.0378474 1.34709 12 8 0 
0.294759 0.0507504 1.40447 85 75 63 
0.396773 0.0620509 1.50231 132 124 111 
0.411147 0.0642401 1.51978 22 15 0 
0.023465 0.0371643 1.40229 142 138 129 
0.419783 0.068421 1.52987 58 42 29 
-0.0779527 0.0384562 1.48455 20 17 12 
0.114866 0.0436117 1.34505 35 31 22 
0.0452108 0.0421867 1.39012 117 113 104 
0.20375 0.0491813 1.34492 105 98 88 
0.408771 0.0716501 1.50835 138 126 114 
0.0817829 0.0448059 1.35361 117 113 101 
0.38646 0.0698252 1.48195 59 46 27 
0.441822 0.0791603 1.57653 45 32 16 
0.399668 0.0744744 1.49199 65 58 42 
0.430667 0.0796058 1.55226 82 68 55 
0.42135 0.0795659 1.52501 161 149 135 
0.375701 0.0752621 1.46303 122 110 98 
0.0936063 0.0528647 1.34831 12 5 0 
0.426476 0.0837448 1.53877 162 149 133 
-0.0216957 0.0520241 1.42544 95 92 87 
0.401786 0.0818447 1.4999 3 2 0 
0.133517 0.0574892 1.33919 81 72 63 
0.410853 0.0850688 1.51254 42 31 13 
0.296074 0.0705919 1.39274 9 0 0 
0.0267166 0.0560525 1.39236 113 106 98 
0.435599 0.0910682 1.55475 128 116 104 
0.114477 0.059629 1.3402 17 13 4 
0.390988 0.0840916 1.47381 27 14 0 
0.0145424 0.059509 1.3961 120 111 102 
0.41864 0.0904768 1.52019 150 138 126 
0.0809904 0.0610905 1.34929 13 4 0 
0.0348067 0.0614216 1.38241 97 92 86 
0.277186 0.0744309 1.37897 134 130 119 
0.37644 0.0857693 1.45826 11 1 0 
0.171665 0.0687722 1.33423 125 118 108 
-0.0630393 0.0652577 1.45824 7 3 0 
0.409885 0.097072 1.51012 118 106 92 
0.203469 0.0727303 1.33363 106 98 87 
0.103593 0.068204 1.34007 38 31 23 
0.433098 0.10237 1.54421 53 40 31 
-0.082953 0.0697308 1.47533 7 3 0 
0.370171 0.093205 1.44929 128 120 107 
0.426403 0.104401 1.53491 14 6 0 
0.282115 0.085827 1.38701 142 133 126 
0.353326 0.0935884 1.43256 101 91 79 
0.396941 0.100518 1.48696 66 56 46 
0.122713 0.0742095 1.33334 108 104 93 
0.159938 0.0761967 1.32866 3 3 0 
0.404862 0.102751 1.49278 85 75 63 
-0.0517202 0.0744814 1.44286 58 54 51 
0.0797889 0.0750724 1.34422 41 34 24 
0.36314 0.0978536 1.43527 64 54 42 
0.10951 0.0790194 1.33204 15 11 0 
0.321726 0.0977719 1.42051 39 29 19 
0.434348 0.11429 1.54587 129 119 109 
0.383267 0.105388 1.46017 138 128 116 
0.0441902 0.0824492 1.37304 93 88 82 
0.404379 0.113357 1.48664 34 25 10 
0.418474 0.115774 1.50952 121 112 97 
0.276607 0.0966707 1.37206 106 103 94 
0.0182286 0.0844358 1.383 73 68 62 
0.0286591 0.0848622 1.38138 5 0 0 
0.0916236 0.0857094 1.33797 18 11 3 
0.23317 0.0924757 1.33199 53 49 40 
-0.0183608 0.0870361 1.40821 95 90 86 
0.38936 0.11378 1.46409 115 108 98 
0.0827816 0.0865963 1.33056 94 90 81 
-0.000854748 0.0884733 1.39662 20 15 12 
0.00838506 0.0883529 1.39067 8 3 0 
0.0769967 0.0874051 1.33966 114 107 101 
0.186734 0.0933247 1.32661 9 0 0 
0.433205 0.126426 1.53988 134 125 110 
0.376968 0.117828 1.44752 36 26 16 
-0.0366414 0.0951838 1.41622 78 75 70 
0.397638 0.122932 1.471 131 122 105 
0.407677 0.126297 1.49128 112 104 93 
0.00855802 0.097087 1.38422 4 0 0 
0.00254289 0.0982067 1.39294 11 6 2 
0.38267 0.124974 1.45506 143 134 125 
0.372645 0.123357 1.43919 24 16 5 
-0.0123215 0.100441 1.39943 14 9 5 
0.414084 0.133538 1.49984 56 44 28 
-0.0573393 0.103603 1.43456 13 9 6 
0.424833 0.136778 1.52145 41 33 12 
0.117214 0.102421 1.32422 13 10 5 
0.345317 0.122101 1.41113 135 123 111 
0.432821 0.140335 1.52965 133 121 105 
0.364311 0.127259 1.42582 120 111 102 
-0.00120616 0.106122 1.38727 123 119 110 
0.393526 0.134765 1.46042 122 112 100 
0.405759 0.13786 1.4807 45 36 21 
0.00910035 0.107882 1.37958 34 29 25 
0.0725235 0.109111 1.33086 112 107 101 
0.305273 0.127522 1.38421 141 132 117 
0.372359 0.135961 1.43638 39 29 17 
0.420999 0.146562 1.50459 141 133 114 
0.410744 0.145318 1.48721 141 129 113 
0.385006 0.141071 1.45031 46 36 24 
-0.0665685 0.118428 1.43857 16 13 8 
-0.0301132 0.119212 1.4084 101 101 91 
0.111789 0.11863 1.31978 117 113 102 
0.340063 0.138311 1.40052 15 8 0 
-0.0264136 0.122748 1.39869 15 12 7 
0.370057 0.146744 1.42949 11 0 0 
-0.0576298 0.126892 1.429 10 7 2 
0.403776 0.155261 1.47484 53 45 34 
0.0908526 0.122983 1.32073 36 32 21 
0.411587 0.158104 1.48218 146 136 124 
-0.0420579 0.129124 1.41021 83 76 70 
0.35551 0.148496 1.41392 143 135 124 
-0.0695246 0.132132 1.4371 108 105 100 
-0.00305275 0.129099 1.38097 72 69 60 
0.377494 0.153436 1.43238 75 66 49 
0.336247 0.148003 1.39527 47 37 25 
0.427002 0.166733 1.50985 118 105 89 
0.437172 0.169751 1.5286 131 122 107 
-0.0839474 0.136772 1.4523 79 76 71 
0.0321184 0.131419 1.35849 3 1 0 
0.0202563 0.132467 1.36367 76 71 67 
0.126815 0.131298 1.31074 132 122 110 
0.291401 0.145482 1.36125 12 2 0 
0.382909 0.159577 1.43971 28 18 8 
0.423412 0.16825 1.49478 41 32 15 
0.106935 0.131378 1.31116 88 81 71 
0.414044 0.169995 1.48664 34 22 6 
0.36179 0.159463 1.41667 63 55 44 
0.275225 0.147581 1.34789 7 0 0 
0.0906536 0.13607 1.31497 121 112 103 
-0.00306217 0.140506 1.37665 22 17 13 
0.444712 0.181941 1.53985 15 2 0 
0.024967 0.141588 1.35771 8 3 0 
-0.0769342 0.148682 1.44063 17 14 9 
0.368983 0.167282 1.4162 53 41 29 
0.432249 0.182763 1.51268 143 131 117 
-0.0443707 0.148238 1.40377 72 69 64 
0.390915 0.174178 1.4443 50 42 29 
0.346118 0.166723 1.39433 8 0 0 
0.400794 0.178769 1.45718 122 113 98 
0.361769 0.172329 1.41203 56 47 32 
0.425994 0.18749 1.50191 34 22 10 
0.0358831 0.150697 1.35126 85 80 74 
-0.0124247 0.152529 1.3778 11 8 1 
0.406157 0.183344 1.46552 34 24 14 
0.43844 0.193103 1.52394 30 19 1 
-0.0887615 0.161238 1.45051 92 89 84 
-0.00339111 0.154261 1.37019 4 0 0 
-0.0610181 0.159224 1.41688 31 28 23 
0.279331 0.167952 1.34937 22 15 9 
0.368632 0.181327 1.41158 107 98 83 
0.347805 0.180855 1.3954 133 123 111 
-0.0535264 0.167402 1.40575 5 2 0 
0.416632 0.198185 1.47757 31 22 7 
-0.0820341 0.172076 1.43796 36 33 28 
0.030651 0.163426 1.34779 101 96 90 
0.329173 0.180628 1.37491 129 120 105 
0.391726 0.193637 1.43768 36 24 10 
0.424912 0.202797 1.48629 13 3 0 
0.43255 0.206308 1.50355 49 42 26 
0.364641 0.189761 1.40761 21 12 0 
-0.0283978 0.17021 1.38371 109 106 99 
0.296885 0.179095 1.3514 62 52 42 
0.372141 0.191519 1.41439 132 122 110 
0.353016 0.188807 1.39105 33 23 11 
0.439316 0.211547 1.51497 39 27 15 
0.309664 0.183096 1.35655 137 134 119 
-0.0103699 0.173795 1.36875 8 3 0 
0.363473 0.198163 1.40206 28 21 5 
0.0145024 0.176493 1.35153 96 91 87 
0.401037 0.205718 1.4374 23 13 1 
0.405776 0.208049 1.45102 51 41 29 
0.424341 0.214042 1.48421 131 123 112 
0.355361 0.198133 1.3933 55 49 33 
-0.0741343 0.185882 1.42214 73 70 63 
0.324307 0.195136 1.368 26 16 4 
0.0598809 0.17871 1.32568 87 83 74 
0.297213 0.192116 1.34824 38 21 11 
0.0387969 0.180762 1.33774 23 20 11 
0.346996 0.20186 1.38697 100 91 74 
-0.0465523 0.187279 1.38895 4 0 0 
0.394808 0.213345 1.43586 27 18 3 
0.00831021 0.184988 1.35259 18 13 7 
0.411428 0.218109 1.45982 58 48 36 
-0.0654883 0.193395 1.40731 12 7 3 
0.360397 0.207309 1.38896 68 61 45 
0.376177 0.212239 1.41479 24 17 0 
0.387748 0.215568 1.42528 49 40 25 
-0.0131154 0.190859 1.36728 10 7 0 
0.404538 0.22101 1.44588 38 26 12 
0.347431 0.209617 1.37819 27 17 5 
0.317267 0.204876 1.3501 34 22 8 
-0.0925005 0.205321 1.43673 13 8 2 
0.0736499 0.188798 1.30026 108 105 100 
0.275274 0.202716 1.33151 20 14 2 
0.317203 0.209414 1.35911 52 40 26 
0.367245 0.21807 1.39561 26 17 2 
0.397904 0.227246 1.43767 138 128 118 
0.252313 0.20091 1.30327 153 141 129 
0.391376 0.227446 1.42784 127 117 107 
0.304335 0.212371 1.34595 145 138 122 
0.408168 0.235464 1.454 25 17 4 
0.345067 0.221127 1.37247 116 107 98 
0.135309 0.198171 1.27991 49 45 36 
0.319159 0.218969 1.35503 131 119 105 
0.331212 0.221873 1.36408 150 141 124 
0.434986 0.251629 1.49398 49 41 30 
0.376006 0.233956 1.40091 106 96 84 
0.382253 0.238155 1.42355 26 16 4 
0.400959 0.239622 1.42527 54 44 32 
0.367112 0.232707 1.39078 115 107 88 
0.359842 0.231494 1.38263 142 135 119 
0.024719 0.211441 1.33054 32 27 21 
0.283704 0.220681 1.32305 162 152 140 
-0.0756367 0.223667 1.40811 18 11 1 
0.235101 0.214069 1.29544 33 25 14 
0.346108 0.232051 1.36932 66 57 48 
0.385051 0.241721 1.41379 56 47 32 
0.0436313 0.212809 1.3205 104 100 99 
0.270889 0.220793 1.31315 102 92 83 
0.307867 0.226421 1.33715 17 7 0 
0.0118103 0.218489 1.33517 9 3 3 
0.330528 0.232425 1.35084 20 11 2 
0.368289 0.242612 1.38066 51 41 29 
0.307451 0.231507 1.3285 146 136 126 
0.0879903 0.216254 1.28006 35 30 26 
0.416149 0.259605 1.44735 65 57 44 
0.384822 0.249783 1.39876 141 135 121 
0.349451 0.245149 1.35848 45 37 26 
0.241759 0.228564 1.28649 63 55 44 
0.0386788 0.227843 1.31028 103 99 96 
0.138659 0.223292 1.27163 43 35 22 
0.369542 0.25131 1.37598 25 17 4 
0.330349 0.243396 1.33692 137 128 119 
0.0233158 0.229555 1.31362 76 72 69 
0.41925 0.267283 1.43595 47 40 24 
0.012443 0.232444 1.32025 103 99 96 
-0.0149169 0.237762 1.33829 26 23 16 
0.266618 0.237869 1.29368 53 45 34 
0.409832 0.268193 1.41909 47 41 27 
0.367422 0.257225 1.36618 37 29 16 
0.354713 0.253879 1.3485 39 35 23 
0.133321 0.231523 1.26884 14 4 0 
0.309248 0.247244 1.31669 115 109 97 
0.44805 0.288566 1.50111 51 41 29 
0.100758 0.231663 1.2703 102 97 91 
0.342203 0.253901 1.33903 49 40 31 
0.32848 0.252903 1.32552 19 10 1 
0.0226665 0.240605 1.30706 12 8 5 
0.372393 0.265619 1.36835 35 25 15 
0.0026209 0.2438 1.31713 86 85 81 
-0.0203783 0.249604 1.33008 22 17 14 
0.240458 0.247464 1.28148 121 119 106 
0.299046 0.255826 1.30887 111 102 93 
0.313596 0.256035 1.30892 30 26 14 
0.321247 0.258156 1.31869 17 13 1 
0.34936 0.263542 1.33731 101 92 77 
0.268615 0.25115 1.28796 95 91 79 
0.333844 0.261274 1.32565 96 86 76 
0.285829 0.25574 1.29675 44 35 26 
0.360882 0.267491 1.34359 62 56 42 
0.3996 0.280456 1.39335 80 71 62 
0.301732 0.260156 1.29838 15 8 0 
0.385291 0.279691 1.37447 157 147 135 
0.409862 0.284745 1.39388 44 34 25 
0.344784 0.269683 1.32856 61 48 40 
0.37109 0.27577 1.34942 124 114 102 
-0.0384642 0.26212 1.33703 114 110 101 
0.270836 0.260197 1.28352 96 92 81 
0.336341 0.269758 1.32019 117 106 100 
0.377079 0.280956 1.36045 60 50 38 
0.306963 0.267795 1.30506 13 10 0 
0.226148 0.260046 1.27405 44 35 26 
0.435783 0.302702 1.43854 19 16 1 
0.238729 0.261248 1.27753 20 12 0 
0.434559 0.299609 1.42411 30 27 12 
0.392147 0.288048 1.37026 134 124 112 
0.425322 0.300147 1.41804 18 6 0 
-0.00685559 0.263949 1.30742 101 100 96 
0.279141 0.267664 1.28745 104 96 83 
0.0858005 0.259299 1.26951 6 2 0 
0.407277 0.294463 1.38269 124 115 98 
-0.0385408 0.270008 1.32913 62 54 51 
0.376708 0.286655 1.3513 156 143 127 
0.41102 0.298176 1.39327 9 0 0 
0.243582 0.270712 1.27806 47 35 21 
0.340359 0.284012 1.32464 16 9 0 
0.458313 0.32695 1.49121 148 140 129 
0.226768 0.272883 1.27543 53 47 35 
0.394528 0.298744 1.36728 45 28 10 
0.330645 0.285197 1.3112 50 41 32 
0.369637 0.29312 1.34211 108 98 88 
0.301813 0.281895 1.298 122 112 100 
0.427952 0.313122 1.41293 42 32 20 
-0.0429476 0.281543 1.32668 93 92 88 
0.387546 0.302087 1.36013 22 13 0 
0.355053 0.296632 1.33654 116 108 97 
0.324044 0.291482 1.30655 155 145 133 
0.409161 0.312382 1.38357 71 59 43 
0.294462 0.288372 1.29386 109 100 93 
0.233364 0.282963 1.26449 173 166 150 
0.355257 0.302669 1.32724 99 91 78 
0.346235 0.302309 1.32019 146 143 128 
0.385876 0.313296 1.35438 125 113 97 
0.432119 0.330177 1.41677 120 108 92 
0.36409 0.309568 1.33499 53 46 28 
0.372433 0.311671 1.34201 135 128 112 
0.30473 0.300448 1.29492 125 117 106 
-0.0440985 0.300024 1.32138 24 21 16 
0.32844 0.308535 1.30971 25 21 9 
0.356945 0.315042 1.32647 6 0 0 
0.315556 0.307812 1.29919 113 105 94 
0.207853 0.296268 1.2572 106 102 91 
-0.0867439 0.314977 1.35624 107 103 100 
0.377275 0.322593 1.34258 30 21 4 
0.387804 0.326762 1.35667 45 33 19 
0.399984 0.328896 1.36139 36 26 14 
0.340312 0.315717 1.31201 125 115 103 
0.307498 0.310403 1.29092 25 17 6 
0.417933 0.341966 1.38921 46 37 20 
0.262487 0.308015 1.26967 127 123 112 
0.411705 0.340906 1.3802 41 34 16 
0.240415 0.309536 1.2656 32 24 13 
-0.00809857 0.311768 1.29084 88 89 84 
0.288885 0.315832 1.27862 109 105 94 
0.344219 0.327015 1.31122 19 10 0 
0.352094 0.33003 1.3214 134 125 108 
0.254396 0.314414 1.26189 119 115 103 
0.313262 0.325647 1.29237 112 105 95 
0.373256 0.340514 1.33279 38 29 14 
0.30595 0.326568 1.28543 124 116 103 
-0.00522472 0.322037 1.28772 74 70 69 
0.38742 0.346768 1.34934 43 33 23 
0.177466 0.316896 1.24534 102 98 87 
0.324365 0.336008 1.29853 122 114 103 
-0.0276942 0.330452 1.3016 39 34 28 
0.211267 0.321427 1.25086 21 17 6 
0.294305 0.330957 1.27743 34 30 19 
-0.0596794 0.336974 1.32422 19 16 11 
0.425429 0.366055 1.39313 13 10 0 
-0.0801721 0.344285 1.34413 101 97 86 
0.387379 0.356394 1.34661 59 53 39 
-0.0372772 0.336326 1.30301 5 2 0 
0.340596 0.343826 1.30392 24 16 3 
0.353211 0.347417 1.31523 163 153 141 
0.398082 0.361034 1.35786 51 43 30 
0.302494 0.33997 1.27817 150 144 132 
-0.0631283 0.347687 1.32242 19 14 8 
0.274706 0.337132 1.2625 106 102 91 
0.293134 0.342168 1.27239 130 122 109 
0.210606 0.333035 1.24363 32 29 20 
0.364048 0.358317 1.31935 52 44 31 
0.41474 0.37492 1.3739 114 104 92 
0.236654 0.33716 1.25022 164 158 146 
0.374768 0.362682 1.33034 146 137 122 
0.321083 0.350574 1.28673 127 117 107 
0.443844 0.39382 1.42777 174 164 152 
0.389931 0.371147 1.34522 34 22 8 
0.220497 0.340749 1.24751 115 111 102 
0.330427 0.355466 1.29259 40 30 18 
-0.0810127 0.361463 1.33429 11 7 0 
0.2574 0.344414 1.25505 38 33 27 
0.310026 0.352379 1.27887 25 16 7 
0.400383 0.375848 1.35427 54 47 31 
0.24455 0.345062 1.24783 117 115 103 
0.275409 0.348372 1.25728 49 45 36 
0.294277 0.355996 1.26632 115 107 96 
-0.103295 0.3785 1.36195 16 13 8 
0.358661 0.369764 1.30743 150 137 128 
0.232859 0.350186 1.24121 80 72 61 
0.305225 0.35994 1.26681 34 27 11 
0.341236 0.367556 1.29232 167 157 145 
0.403814 0.387353 1.35292 96 87 72 
0.411864 0.391365 1.36375 32 24 13 
0.467494 0.427346 1.47991 28 19 10 
0.367373 0.376163 1.31073 38 28 16 
0.426377 0.400708 1.38085 52 42 32 
0.290154 0.363154 1.25288 45 37 24 
0.127331 0.351852 1.22161 88 84 73 
0.322012 0.369757 1.2703 47 40 30 
0.255479 0.359703 1.23911 6 0 0 
0.303234 0.366711 1.25962 126 123 108 
0.238055 0.358244 1.23372 115 107 94 
0.273291 0.362928 1.24541 115 111 99 
0.33517 0.374398 1.28053 126 118 105 
0.413292 0.398811 1.34961 52 44 31 
0.377398 0.387413 1.31117 29 26 11 
0.394526 0.39555 1.33305 56 49 30 
0.360187 0.383771 1.29537 24 20 8 
0.40671 0.399193 1.34138 91 79 63 
0.18482 0.360832 1.22218 40 27 18 
0.231064 0.363358 1.22748 108 100 89 
0.316952 0.374572 1.25695 105 101 90 
0.284969 0.3715 1.2429 132 125 115 
0.383529 0.394888 1.31306 64 56 45 
-0.0657666 0.387637 1.30121 105 100 96 
0.403055 0.402655 1.32992 57 45 31 
0.454887 0.433283 1.42304 30 21 12 
-0.0867383 0.394812 1.31975 31 26 22 
0.326252 0.379886 1.25569 30 26 15 
-0.103602 0.40071 1.33478 35 30 24 
0.363507 0.391338 1.28674 124 115 106 
0.220391 0.370659 1.21406 8 4 0 
0.370255 0.399521 1.28512 143 135 124 
0.251251 0.377114 1.21928 152 148 137 
0.307651 0.38847 1.24104 134 130 119 
-0.0283183 0.392617 1.25858 103 100 95 
0.0111866 0.386611 1.23734 9 6 1 
0.461303 0.446606 1.40386 46 42 33 
0.423458 0.428254 1.33959 37 28 19 
-0.0764897 0.40846 1.29325 34 26 23 
0.265682 0.387461 1.21746 94 90 87 
0.22955 0.384003 1.2059 108 108 98 
0.303077 0.393814 1.23198 93 89 78 
0.31361 0.397257 1.23987 106 102 93 
0.254544 0.389624 1.21524 115 111 100 
0.277303 0.392466 1.2186 128 124 113 
0.451043 0.447534 1.37519 46 41 37 
0.474571 0.469859 1.42887 24 15 6 
-0.13715 0.444548 1.35437 25 20 17 
0.405974 0.432479 1.30035 97 93 82 
0.34286 0.414897 1.24638 28 21 11 
0.398373 0.433745 1.29259 139 137 125 
0.211958 0.400981 1.20135 115 110 104 
0.409731 0.439616 1.30502 82 78 69 
0.259965 0.406046 1.20559 91 87 76 
0.182856 0.402281 1.19046 16 11 5 
0.336239 0.423664 1.24348 27 27 19 
0.47637 0.487422 1.41253 104 100 89 
0.417767 0.452102 1.30898 98 89 80 
0.273483 0.417276 1.20737 94 87 79 
0.309991 0.422754 1.22355 99 95 86 
0.371226 0.438073 1.26267 42 35 25 
0.319383 0.426487 1.2299 138 131 121 
0.239275 0.413465 1.19412 109 106 99 
0.384986 0.446514 1.27181 111 108 93 
0.394284 0.449879 1.28004 158 154 143 
0.16536 0.416518 1.18674 169 167 155 
0.325815 0.434424 1.22676 108 99 92 
0.465618 0.494643 1.37965 26 22 10 
0.156067 0.424189 1.18439 136 133 128 
0.271316 0.431511 1.20184 16 13 4 
0.192455 0.43164 1.18414 16 11 5 
0.0798445 0.443583 1.18908 112 104 93 
0.127953 0.442078 1.17576 120 117 102 
0.124301 0.440159 1.14436 39 32 16 
0.226069 -1.11704 2.05527 45 32 23 
0.236784 -1.10166 2.05092 49 37 25 
0.0653332 -1.13867 2.08457 99 94 88 
0.177508 -0.945483 1.85827 20 15 11 
0.266005 -0.944232 1.93291 20 16 7 
0.0679984 -0.914503 1.881 39 32 24 
0.220432 -0.868051 1.83869 76 69 53 
0.251442 -0.87791 1.87573 21 18 9 
