ply                 
format ascii 1.0    
element vertex 1274
property float x    
property float y    
property float z    
property uchar red  
property uchar green
property uchar blue 
end_header          
0.13146 -0.632983 1.66351 39 35 26 
0.208974 -0.629636 1.67162 41 32 27 
0.116407 -0.611089 1.63468 28 28 20 
0.12801 -0.589065 1.61126 38 33 30 
0.0418139 -0.60244 1.63746 33 28 24 
0.164872 -0.590258 1.62004 143 137 121 
0.263103 -0.578893 1.6317 97 94 85 
0.0596056 -0.580884 1.6138 49 45 36 
0.0691085 -0.573763 1.60784 44 39 36 
0.165644 -0.563068 1.59156 92 87 81 
0.128012 -0.552951 1.59091 79 78 74 
0.155691 -0.537129 1.59129 81 76 73 
0.174239 -0.534476 1.59393 23 20 15 
0.216523 -0.534499 1.59975 25 20 16 
0.271219 -0.532765 1.62374 34 33 29 
-0.101633 -0.592772 1.75865 94 90 79 
0.0648003 -0.53065 1.59888 117 112 106 
0.205681 -0.522473 1.59509 108 105 98 
0.0554349 -0.530615 1.60156 74 69 66 
0.180811 -0.520035 1.58861 1 0 0 
0.0739203 -0.524385 1.59322 13 8 2 
0.10714 -0.520816 1.58801 3 0 0 
0.19587 -0.514073 1.58723 106 105 100 
0.0331396 -0.529079 1.61145 89 84 80 
0.214434 -0.510954 1.59107 12 9 2 
0.224205 -0.511311 1.59371 40 37 30 
0.308033 -0.519656 1.63848 35 34 30 
0.10229 -0.511016 1.58276 98 95 90 
0.0376747 -0.521159 1.60605 13 8 2 
0.0885708 -0.508983 1.58111 10 5 2 
0.0100701 -0.5244 1.62029 4 0 0 
0.0519259 -0.515202 1.59667 33 29 20 
0.14157 -0.502182 1.57614 59 56 51 
0.0644696 -0.508341 1.58483 19 15 6 
0.0777544 -0.506046 1.58282 94 91 82 
0.236187 -0.502526 1.5976 31 22 13 
0.106054 -0.501878 1.57727 77 76 74 
0.304869 -0.510134 1.63437 9 2 0 
0.058132 -0.508821 1.59202 17 12 6 
0.206361 -0.497383 1.58086 113 104 95 
0.043483 -0.509394 1.59752 26 21 15 
0.0299021 -0.511866 1.60531 100 97 92 
0.231619 -0.496184 1.59089 121 112 105 
0.0214863 -0.511903 1.61012 9 6 0 
0.321143 -0.508078 1.6448 36 36 26 
0.191087 -0.492377 1.57645 85 84 79 
-0.0188302 -0.52067 1.63542 3 0 0 
0.274344 -0.498001 1.6114 32 29 20 
0.178009 -0.489884 1.57575 58 54 51 
0.21636 -0.491175 1.58534 26 22 13 
0.110423 -0.491231 1.57405 65 62 53 
0.205524 -0.486441 1.57761 63 60 51 
0.00520409 -0.50903 1.61983 32 28 17 
0.040311 -0.498919 1.59393 27 25 12 
0.127187 -0.487715 1.57125 15 8 0 
0.156027 -0.484945 1.56934 76 67 62 
0.329723 -0.500244 1.64633 14 13 9 
0.0300186 -0.496835 1.59659 116 112 103 
0.349725 -0.500148 1.65992 95 90 84 
0.249508 -0.485205 1.59573 65 55 53 
0.278621 -0.485253 1.60625 107 106 102 
-0.0343982 -0.510565 1.64128 24 21 16 
0.0731175 -0.484222 1.57247 100 100 92 
0.0889036 -0.482482 1.57112 108 104 103 
0.260785 -0.48054 1.59844 4 0 0 
0.00116267 -0.494777 1.61379 128 121 115 
-0.0199151 -0.498619 1.62538 24 22 10 
0.232594 -0.473497 1.5839 28 19 10 
0.132902 -0.473638 1.56751 85 81 78 
0.185242 -0.47103 1.56806 7 2 0 
0.339642 -0.487773 1.64899 4 0 0 
-0.0319241 -0.500706 1.63402 83 82 80 
0.224142 -0.471832 1.57888 116 106 97 
0.0416078 -0.481491 1.58587 98 95 86 
0.0776763 -0.474045 1.57288 18 14 11 
0.0901248 -0.472726 1.57027 112 107 101 
0.119676 -0.469831 1.56471 88 83 79 
-0.0607935 -0.503988 1.65889 99 94 91 
0.110358 -0.465378 1.56343 112 108 99 
0.0566771 -0.471431 1.57678 12 9 4 
-0.00135193 -0.483143 1.60997 98 94 85 
0.27306 -0.466397 1.59844 16 7 0 
0.0240067 -0.476209 1.59283 29 26 21 
0.156197 -0.460693 1.56175 77 71 71 
0.220431 -0.461732 1.57527 111 108 99 
0.260174 -0.463762 1.59099 15 11 0 
0.200975 -0.458913 1.56706 18 13 9 
0.125188 -0.459839 1.56133 110 106 103 
-0.0324283 -0.485871 1.62934 105 101 98 
0.293451 -0.463819 1.60881 11 8 1 
0.0790449 -0.460478 1.56504 86 86 78 
-0.00932413 -0.474762 1.61135 95 93 81 
0.184675 -0.45158 1.56254 83 78 74 
0.209122 -0.449979 1.56655 113 110 101 
-0.0520038 -0.484633 1.6447 3 0 0 
0.0074326 -0.468114 1.59839 36 36 34 
0.0635804 -0.456733 1.57123 87 88 82 
0.107317 -0.449833 1.55814 93 90 83 
0.129605 -0.447917 1.55593 95 92 85 
-0.00368497 -0.467308 1.60361 27 23 20 
-0.0596109 -0.479652 1.64917 88 84 81 
0.0147232 -0.460225 1.59325 3 2 0 
0.20568 -0.439393 1.5608 86 81 78 
0.345579 -0.455531 1.6413 9 5 2 
0.0856935 -0.443651 1.55813 13 6 0 
0.0964996 -0.443194 1.5579 5 2 0 
0.15236 -0.437268 1.55159 7 0 0 
-0.0576779 -0.471402 1.64487 17 13 10 
0.223542 -0.435511 1.56579 90 85 82 
-0.016931 -0.458116 1.60899 34 33 28 
0.0609661 -0.442526 1.57059 110 111 105 
0.332881 -0.444165 1.628 90 89 87 
0.170491 -0.428085 1.55041 95 90 86 
0.142909 -0.427347 1.548 23 14 7 
0.070604 -0.430588 1.55526 26 23 18 
0.152899 -0.425116 1.54854 100 95 91 
-0.0409633 -0.450463 1.61884 3 2 0 
-0.109756 -0.473451 1.69672 86 83 76 
0.102448 -0.422411 1.54966 41 30 24 
-0.0699523 -0.451415 1.64717 12 8 5 
0.0869424 -0.415108 1.54539 34 27 19 
-0.0145674 -0.431952 1.59792 94 91 86 
0.19546 -0.408152 1.54595 118 115 110 
0.0942383 -0.408066 1.54341 91 87 78 
0.154242 -0.401173 1.53853 83 80 73 
0.242561 -0.39663 1.55619 18 15 10 
-0.111985 -0.440026 1.68665 99 95 94 
0.114183 -0.378656 1.53377 111 102 95 
0.22534 -0.373719 1.53915 78 74 71 
0.158731 -0.371338 1.52494 91 88 79 
0.187749 -0.36902 1.52792 118 113 109 
0.0738309 -0.374065 1.53358 13 10 1 
0.216984 -0.367029 1.5347 38 34 31 
0.00242415 -0.383582 1.58798 63 62 57 
0.241707 -0.35803 1.53796 45 42 37 
0.150964 -0.346517 1.51433 14 7 1 
0.00543636 -0.352873 1.569 97 96 92 
-0.0218457 -0.344299 1.58748 93 89 86 
-0.0368389 -0.33453 1.59437 26 16 17 
0.112179 -0.306957 1.49735 92 89 80 
0.264123 -0.297675 1.52114 85 81 72 
-0.0222029 -0.294637 1.56616 28 24 21 
-0.0162321 -0.284126 1.55771 59 54 50 
0.304284 -0.262938 1.55332 46 38 27 
-0.00353894 -0.27332 1.5453 84 83 78 
-0.0136526 -0.271075 1.55267 103 98 94 
0.0434533 -0.249866 1.51001 77 75 76 
0.157463 -0.238663 1.47125 105 98 90 
0.327364 -0.23906 1.56179 16 6 0 
0.147007 -0.231613 1.4676 15 4 0 
0.0688499 -0.232345 1.47408 86 81 75 
0.31521 -0.230992 1.54834 117 107 98 
0.15265 -0.205868 1.45434 22 18 7 
0.349938 -0.212536 1.5701 49 39 29 
0.0485197 -0.211836 1.49344 67 63 60 
0.0307751 -0.213028 1.50019 20 15 12 
0.0929982 -0.198602 1.45607 4 1 0 
0.0398114 -0.203767 1.49417 73 68 65 
-0.0149526 -0.203783 1.52153 10 6 0 
0.141708 -0.186463 1.44734 104 99 93 
0.251473 -0.18392 1.46984 21 17 8 
0.0517002 -0.194475 1.48386 93 88 85 
0.182525 -0.18065 1.44922 25 21 10 
0.0407295 -0.190287 1.48754 79 79 77 
0.238414 -0.17483 1.4609 20 16 5 
0.0960295 -0.176602 1.44885 90 83 75 
0.218044 -0.16737 1.45146 19 10 1 
0.153734 -0.16432 1.43736 31 20 14 
0.251082 -0.161883 1.46014 101 91 82 
0.143325 -0.161034 1.43793 99 95 84 
0.302731 -0.161264 1.51226 109 99 87 
0.209058 -0.156934 1.44442 39 35 26 
0.13411 -0.15809 1.43576 30 26 15 
0.249736 -0.151627 1.45611 32 23 14 
0.337122 -0.15153 1.53476 120 112 101 
0.0529269 -0.15603 1.46803 44 40 37 
-0.0138017 -0.160716 1.50147 1 0 0 
0.296691 -0.145786 1.50076 27 15 3 
0.115897 -0.147097 1.43165 103 98 94 
0.148013 -0.145695 1.43164 33 23 14 
0.164572 -0.141651 1.42902 39 34 30 
0.210954 -0.139239 1.43525 34 25 16 
0.182655 -0.136388 1.43082 12 3 0 
0.147346 -0.137227 1.42715 89 85 74 
0.040149 -0.145491 1.4699 62 57 54 
0.125566 -0.137692 1.42787 7 0 0 
0.334595 -0.13465 1.5254 32 24 11 
-0.00494917 -0.141681 1.48952 12 8 5 
0.0454455 -0.136961 1.46284 76 75 73 
0.314223 -0.128433 1.50658 165 159 143 
0.200439 -0.125254 1.42961 106 95 89 
0.291236 -0.122877 1.48626 58 55 40 
0.342233 -0.121437 1.52534 54 45 30 
0.323861 -0.118051 1.50743 13 7 0 
-0.00528583 -0.130638 1.48376 110 107 102 
0.0325329 -0.122684 1.4613 113 108 105 
0.187738 -0.111583 1.41844 37 28 19 
0.223452 -0.108668 1.42633 20 13 7 
0.0626438 -0.117246 1.4419 105 98 90 
0.14223 -0.111935 1.41742 6 0 0 
0.0932975 -0.112824 1.41872 86 81 77 
0.0905917 -0.0991884 1.41168 4 1 0 
0.111308 -0.098072 1.40831 115 112 107 
0.151083 -0.0950261 1.40679 82 79 74 
0.332193 -0.0922011 1.50421 48 36 24 
0.167283 -0.0920779 1.41014 16 12 3 
0.223748 -0.0899174 1.41741 89 80 71 
0.141216 -0.0911887 1.40636 11 2 0 
0.23771 -0.0880121 1.42426 14 4 0 
0.10335 -0.0909883 1.4073 8 1 0 
0.310213 -0.0860687 1.48753 121 111 99 
0.307134 -0.0787013 1.47969 126 116 107 
0.118178 -0.0822988 1.40297 5 2 0 
0.200369 -0.0759008 1.40832 88 77 71 
0.214023 -0.0750296 1.40866 109 99 97 
0.3045 -0.0677859 1.47338 16 3 0 
0.134261 -0.0713093 1.39743 26 21 17 
0.338443 -0.065951 1.49951 20 10 0 
0.106276 -0.0692581 1.39832 5 2 0 
0.256484 -0.0598216 1.42028 53 43 34 
0.050479 -0.0681541 1.43274 86 80 80 
0.122413 -0.0606652 1.39553 18 11 1 
0.229583 -0.0544818 1.40682 51 41 31 
0.33713 -0.0513711 1.49178 110 96 83 
0.0835512 -0.0591496 1.40057 83 74 69 
0.0370583 -0.0566954 1.43291 13 12 7 
0.0098087 -0.0578539 1.44751 87 83 72 
0.308848 -0.0435887 1.4651 45 38 32 
0.338775 -0.041766 1.48795 43 36 20 
0.251638 -0.0427276 1.41058 148 138 129 
0.169293 -0.0426259 1.3888 102 90 92 
0.212907 -0.0392001 1.39458 35 22 13 
0.332712 -0.0301812 1.47383 129 120 111 
0.0441657 -0.041249 1.42441 93 89 86 
0.16316 -0.0300676 1.38184 8 1 0 
0.220031 -0.0262023 1.39252 105 96 87 
0.25744 -0.0247444 1.40429 92 78 69 
0.104562 -0.0301923 1.38193 107 98 89 
0.320394 -0.0216407 1.46424 40 30 18 
0.301842 -0.0218259 1.4531 66 57 40 
0.197489 -0.0225845 1.3862 10 0 0 
0.228354 -0.0194995 1.39165 54 47 37 
0.341844 -0.0130503 1.47684 40 28 16 
0.0938627 -0.0179769 1.37918 20 16 7 
0.180601 -0.0111286 1.37667 112 102 93 
0.0204652 -0.018188 1.4216 127 120 114 
0.228754 -0.00860551 1.38844 30 23 13 
0.292389 -0.00307859 1.43775 109 95 82 
0.146523 -0.00563937 1.36843 10 3 0 
0.218894 -0.00195641 1.38344 85 76 67 
0.317536 0.00750497 1.45213 32 22 12 
0.077259 -0.0025342 1.37695 92 86 74 
0.332261 0.0109082 1.46137 11 3 0 
0.0877514 0.000294057 1.37449 36 29 23 
0.12148 0.00283353 1.36967 93 89 86 
-0.0298932 0.00980989 1.44757 8 0 0 
0.232049 0.0218184 1.37622 32 23 16 
0.16533 0.0238598 1.36107 96 87 80 
0.118658 0.0225201 1.35737 114 107 99 
0.153851 0.0272518 1.35898 17 10 2 
0.197811 0.0303252 1.36334 128 117 113 
0.182682 0.0302701 1.35917 41 37 26 
0.345096 0.0459211 1.45778 130 124 110 
0.113497 0.0332588 1.35534 13 8 2 
-0.0253917 0.0319349 1.43413 84 80 77 
0.0861853 0.0339679 1.35818 5 0 0 
0.194339 0.039017 1.35779 33 29 18 
0.256101 0.0426965 1.37482 26 22 11 
0.333262 0.0499741 1.44618 56 46 36 
0.2389 0.043279 1.36856 114 105 96 
0.00683496 0.0367975 1.41199 19 14 8 
0.176621 0.0441999 1.35481 25 16 7 
0.157243 0.0436593 1.35236 7 2 0 
0.116118 0.0434034 1.35199 84 75 68 
0.0769554 0.0452379 1.35276 128 119 114 
0.213981 0.0513342 1.35865 86 77 70 
0.245689 0.0554058 1.36613 21 12 5 
0.139874 0.0517923 1.34294 90 86 77 
0.176363 0.0542685 1.34661 53 44 39 
0.105886 0.0520199 1.34928 112 103 98 
-0.00674144 0.05162 1.40946 101 96 90 
0.359401 0.0729712 1.4617 10 0 0 
0.23406 0.0624424 1.3607 137 131 119 
0.0929134 0.0581993 1.34974 27 20 10 
0.245926 0.0658264 1.36412 117 107 95 
0.131014 0.0600926 1.34374 117 114 105 
0.21079 0.0683458 1.35013 104 96 85 
0.233002 0.0713522 1.35639 115 111 102 
0.171508 0.0691584 1.34263 109 102 94 
0.195134 0.0707552 1.34651 83 78 74 
0.293979 0.0845838 1.40018 120 110 108 
0.15901 0.0766368 1.33762 12 5 0 
0.147133 0.0772323 1.33448 27 18 13 
0.169651 0.0844144 1.3357 105 102 87 
0.259986 0.090603 1.36092 32 22 10 
0.215281 0.0879372 1.34269 115 106 97 
0.154261 0.085428 1.33439 19 15 6 
0.347062 0.10348 1.43679 8 0 0 
0.233465 0.093422 1.34511 52 48 37 
0.223226 0.0941687 1.34483 33 26 16 
0.245472 0.0964744 1.35052 116 106 96 
0.194021 0.0939165 1.33599 27 17 8 
0.0909802 0.09223 1.33528 75 64 58 
0.121102 0.0955341 1.32658 38 31 23 
-0.0323467 0.0961019 1.41051 13 8 4 
0.363594 0.117497 1.44621 48 38 26 
0.255602 0.113155 1.34742 58 51 41 
0.0489288 0.106578 1.36202 82 74 72 
0.108046 0.105574 1.32787 6 0 0 
0.235807 0.11505 1.34093 102 92 82 
0.339123 0.126906 1.41573 122 112 102 
0.294151 0.123334 1.3835 116 110 98 
0.0177724 0.119283 1.36911 109 102 94 
0.216883 0.125683 1.3275 121 111 101 
0.00917763 0.122493 1.3735 10 5 0 
0.0333597 0.125703 1.35872 105 96 89 
0.113892 0.126621 1.31586 152 142 133 
0.0172909 0.131012 1.36388 36 31 25 
0.303323 0.149359 1.3796 17 4 0 
0.317073 0.151217 1.38804 27 17 7 
0.105065 0.13604 1.31255 122 114 103 
0.00817593 0.154117 1.36108 97 93 84 
0.2041 0.160162 1.31112 68 55 38 
0.00388668 0.163671 1.35726 104 93 89 
0.373447 0.209642 1.41826 48 38 26 
-0.0145146 0.191347 1.35927 124 115 108 
0.0131483 0.19045 1.34405 76 71 67 
0.0294321 0.190947 1.33916 86 76 74 
0.0541063 0.194952 1.32276 20 17 12 
0.382206 0.225835 1.42324 44 34 22 
0.00812338 0.199924 1.34356 90 85 81 
0.115894 0.197299 1.28906 33 29 20 
0.0781934 0.202442 1.29524 37 33 24 
0.298766 0.222453 1.34015 129 119 107 
0.177005 0.212601 1.28665 80 73 63 
0.252476 0.222659 1.29937 114 103 97 
0.28295 0.242884 1.30784 126 118 107 
0.134165 0.231146 1.27365 89 75 66 
-0.00504204 0.244304 1.31988 13 8 4 
0.0265956 0.24172 1.29935 94 86 84 
0.08353 0.246772 1.27261 21 18 13 
0.0426954 0.252496 1.28249 75 67 64 
0.357769 0.280847 1.34452 124 118 104 
0.192611 0.25797 1.2699 58 56 44 
0.367142 0.284291 1.35144 113 103 93 
-0.00726301 0.258725 1.30498 110 102 99 
0.0905811 0.258812 1.26637 112 108 97 
0.00566581 0.263729 1.29463 82 74 72 
0.0635304 0.261073 1.27187 128 121 111 
-0.0274062 0.270333 1.31264 78 72 72 
0.0204673 0.267045 1.28707 86 83 78 
0.197225 0.277193 1.26352 91 82 75 
0.143431 0.275587 1.25721 104 94 84 
0.0077922 0.279549 1.29118 79 75 72 
0.244047 0.293424 1.27 40 36 25 
-0.00366408 0.291602 1.29269 99 95 92 
0.0273075 0.294632 1.27508 87 84 79 
0.00871116 0.306652 1.27847 10 5 2 
0.0515151 0.31271 1.25695 35 26 21 
0.00815538 0.3175 1.27667 115 110 107 
0.159763 0.31729 1.24327 102 94 83 
-0.0256703 0.326365 1.29366 116 112 103 
0.0326485 0.320876 1.26101 91 82 75 
0.0185946 0.328577 1.26594 101 98 91 
0.249556 0.336522 1.25326 20 16 5 
0.0551835 0.334696 1.24923 20 16 13 
0.192723 0.341811 1.239 34 27 17 
0.0799471 0.33922 1.2422 15 7 5 
0.1091 0.340283 1.23202 108 104 95 
0.066167 0.355921 1.22885 16 8 5 
0.146442 0.362924 1.20783 40 34 22 
0.122441 0.366707 1.20799 111 104 98 
0.179657 -0.677493 1.71532 25 22 15 
0.113197 -0.669159 1.70222 19 14 11 
0.0309265 -0.67204 1.7046 40 39 37 
0.130005 -0.520295 1.58497 4 3 0 
0.0163689 -0.494374 1.60535 110 106 97 
0.175335 -0.445844 1.5571 100 100 92 
0.100451 -0.43462 1.55092 9 4 0 
-0.0709217 -0.461738 1.65065 4 0 0 
-0.112994 -0.454682 1.69446 93 92 87 
0.347263 -0.368213 1.6345 10 6 0 
0.317732 -0.18654 1.52901 8 2 0 
0.239829 -0.164536 1.45774 33 24 15 
0.0126409 -0.141399 1.47965 92 88 85 
0.157526 -0.126377 1.41957 33 24 15 
0.334137 -0.114562 1.51549 129 121 108 
0.077173 -0.103146 1.42145 4 0 0 
0.184994 -0.0976905 1.41322 88 83 77 
0.0385515 -0.0934983 1.44822 87 83 80 
0.184104 -0.0819232 1.40734 6 0 0 
-0.0345849 -0.0946755 1.49433 36 7 0 
0.227479 -0.0779923 1.41558 96 86 77 
0.0796272 -0.0380545 1.39125 72 69 62 
0.0475618 -0.0328961 1.41818 5 4 0 
0.267716 -0.0192203 1.40749 34 26 15 
0.209447 -0.0207034 1.38594 16 6 0 
0.25589 -0.013802 1.40074 88 78 69 
0.326006 0.0205356 1.45287 38 30 19 
0.301549 0.0254991 1.43407 112 104 93 
0.0751636 0.0156112 1.36927 102 99 84 
0.354143 0.0491154 1.46479 127 117 108 
0.137284 0.0392349 1.35234 78 69 62 
0.398818 0.0934801 1.50316 32 23 14 
-0.0508337 0.0763189 1.43345 125 120 116 
0.00484597 0.0980935 1.38584 14 9 5 
0.0711505 0.117241 1.32911 22 17 13 
0.00214589 0.133952 1.37354 90 85 81 
0.1461 0.150036 1.30686 53 40 21 
-0.0271467 0.220873 1.3538 99 89 88 
0.360481 0.248188 1.37789 22 14 1 
0.240608 0.281406 1.27222 27 17 7 
0.272366 0.328017 1.27001 23 21 9 
0.0571195 0.32351 1.24932 81 71 69 
0.108898 0.353956 1.22097 15 11 0 
0.228367 0.36706 1.21655 11 7 0 
0.106583 0.374625 1.20117 105 100 96 
0.0691244 -0.602705 1.62624 121 117 106 
0.103953 -0.564265 1.59281 106 102 93 
0.274885 -0.522829 1.62202 95 92 83 
0.240809 -0.516617 1.60371 24 19 13 
-0.0962946 -0.555083 1.71582 29 25 13 
-0.0500658 -0.498732 1.64139 5 2 0 
0.0728919 -0.446951 1.55928 29 28 24 
0.272214 -0.441738 1.58871 19 16 7 
0.160221 -0.420498 1.54129 35 28 20 
0.329051 -0.416817 1.62474 87 86 81 
-0.00141366 -0.423354 1.59134 7 3 2 
0.294549 -0.413455 1.61311 30 27 22 
0.12334 -0.382042 1.52775 30 25 19 
-0.134406 -0.431285 1.7155 91 88 81 
0.061267 -0.231484 1.49431 75 71 68 
0.0286267 -0.198806 1.49752 54 54 54 
0.000157717 -0.17678 1.50165 98 95 88 
0.0185712 -0.111904 1.46107 79 75 74 
0.174382 -0.10166 1.41374 94 91 82 
0.00719525 -0.0928862 1.46291 94 88 88 
0.175459 -0.0742839 1.39676 23 14 5 
0.322295 -0.0558894 1.48328 20 10 0 
0.219479 -0.0565389 1.40548 107 97 87 
0.0522358 -0.0508614 1.42281 77 72 69 
0.0977723 -0.0393488 1.38372 98 89 84 
0.199337 -0.0328686 1.387 116 105 99 
0.30963 -0.000662389 1.45065 45 35 23 
0.289422 0.0223315 1.42675 31 18 9 
0.206116 0.0773622 1.34482 17 7 0 
0.0654056 0.0843645 1.36227 92 83 74 
0.333053 0.117583 1.41378 16 6 0 
0.0281301 0.110266 1.36768 104 96 93 
-0.0126418 0.130019 1.38447 10 0 0 
0.355751 0.151244 1.41934 8 0 0 
0.327112 0.213842 1.37286 24 11 2 
0.333035 0.276141 1.31896 14 10 1 
0.0777926 0.308578 1.25057 104 95 90 
0.234577 0.322263 1.25574 50 43 33 
0.0420251 0.324468 1.25668 82 75 69 
0.284393 0.340361 1.27037 131 123 112 
0.198938 0.330425 1.24113 19 11 8 
0.0416356 -0.722861 1.74033 126 118 107 
0.199483 -0.466503 1.57397 88 85 80 
0.0597604 -0.446427 1.58583 70 71 66 
0.0427334 -0.41891 1.59062 72 71 66 
0.0624068 -0.343023 1.54421 25 25 17 
0.0326159 -0.256464 1.51544 80 76 75 
0.249909 -0.0691066 1.41844 127 120 110 
0.0876513 0.133446 1.31307 24 15 6 
-0.0188426 0.256728 1.32273 115 112 107 
0.128365 0.347502 1.22155 124 116 105 
0.177242 0.352738 1.22214 22 13 4 
-0.0281306 -0.476876 1.63613 12 7 1 
-0.083044 -0.461705 1.66915 4 0 0 
0.0701873 -0.386883 1.52691 12 9 4 
0.206199 -0.055921 1.39621 114 105 96 
0.0746356 -0.00877043 1.38391 10 3 0 
0.185178 0.24562 1.26682 109 99 90 
0.0935028 0.3724 1.19425 77 72 69 
0.185133 -0.498196 1.58058 87 88 82 
-0.0353668 -0.527694 1.66116 88 85 80 
0.13226 -0.183331 1.4384 79 76 69 
0.128135 -1.81238 2.5682 192 195 202 
0.127202 -1.79896 2.5654 229 236 246 
0.140466 -1.79592 2.5695 229 233 242 
0.123522 -1.77923 2.55013 215 220 223 
0.121685 -1.66346 2.42559 109 106 99 
0.0757079 -1.68298 2.46763 95 99 98 
0.156388 -1.65556 2.4336 54 52 40 
0.114238 -1.65096 2.43125 37 33 24 
0.0830242 -1.66751 2.46128 124 123 119 
0.0952637 -1.65394 2.45703 33 29 18 
0.193773 -1.66532 2.4809 104 102 105 
0.120987 -1.58654 2.41862 143 135 124 
0.118214 -1.57381 2.4107 6 0 0 
0.169479 -1.53714 2.38377 94 89 86 
0.149026 -1.52549 2.37568 24 20 9 
0.144324 -1.51456 2.36865 37 33 24 
0.14956 -1.43487 2.30799 11 6 2 
0.0850276 -1.29374 2.20614 129 124 120 
0.0787526 -1.2871 2.20868 25 22 17 
0.114131 -1.24683 2.16482 113 109 106 
0.165593 -1.24715 2.16637 123 120 115 
0.177888 -1.2481 2.16869 130 125 119 
0.179041 -1.24044 2.15932 71 64 56 
0.0834899 -1.24353 2.16793 150 140 128 
0.150515 -1.22792 2.14712 42 37 33 
0.187406 -1.22863 2.14809 12 7 1 
0.0808079 -1.22572 2.15322 13 4 0 
0.0747684 -1.23165 2.16505 130 126 117 
0.197569 -1.22101 2.14538 40 36 24 
0.188287 -1.21543 2.13824 24 15 6 
0.0270623 -1.27934 2.25328 111 108 101 
0.14867 -1.2077 2.13337 41 32 25 
0.12593 -1.20267 2.1292 136 132 121 
0.0564227 -1.22666 2.17403 24 19 13 
0.190123 -1.18657 2.11958 40 33 23 
0.187458 -1.1817 2.11387 125 116 109 
0.171592 -1.17535 2.11086 22 17 11 
0.0209356 -1.23183 2.22352 32 25 17 
0.120764 -1.15871 2.09067 38 34 25 
0.0700337 -1.17254 2.11927 61 57 46 
0.0742217 -1.16754 2.10957 42 35 25 
0.0462296 -1.18485 2.15016 4 0 0 
0.0483147 -1.16417 2.13033 110 107 98 
0.068366 -1.13181 2.08082 25 17 6 
0.0606057 -1.12195 2.07093 17 10 0 
0.0660609 -1.11325 2.06492 70 60 50 
0.0778753 -1.09481 2.04228 144 136 125 
0.0743435 -1.08701 2.0357 44 36 23 
0.0879343 -1.08095 2.02779 123 119 110 
0.124137 -1.08442 2.03235 39 36 27 
0.103329 -1.07973 2.02995 133 129 117 
0.0940557 -1.06585 2.01525 144 140 131 
0.0497443 -1.08997 2.06311 135 127 116 
0.104966 -1.06668 2.02108 144 135 126 
0.158907 -1.001 1.90122 61 53 34 
0.112974 -1.05703 2.00993 130 127 118 
0.0678013 -1.05381 2.00982 125 118 102 
0.078326 -1.03782 1.99081 45 39 27 
0.111579 -1.03889 1.99659 35 31 22 
0.0956221 -1.03416 1.99018 112 109 104 
0.087435 -1.03585 1.99509 131 129 117 
0.0779173 -1.0154 1.97723 143 137 125 
0.0388446 -1.03855 2.02469 54 45 36 
0.0866308 -1.00971 1.96908 33 29 20 
0.0419709 -1.03228 2.01569 28 19 10 
0.0550898 -1.01844 1.99218 18 10 0 
0.0565116 -1.01309 1.98271 134 126 113 
0.159205 -0.962814 1.88529 113 107 93 
-0.00930492 -1.06977 2.10273 31 23 12 
0.0303578 -1.03218 2.03002 22 13 4 
0.0406134 -1.02273 2.0121 24 22 9 
0.136587 -0.949826 1.87516 28 24 13 
0.150787 -0.949404 1.8771 23 19 10 
0.0196033 -1.02989 2.04273 114 105 98 
0.0396732 -1.01283 2.00976 36 27 18 
0.0599523 -0.986031 1.95736 115 109 97 
0.166494 -0.945795 1.88078 34 34 24 
0.135436 -0.938979 1.87245 110 108 109 
0.062543 -0.972354 1.94216 56 46 36 
0.147749 -0.936191 1.86976 104 103 101 
0.0346535 -1.00288 2.00728 119 110 101 
0.00484458 -1.01803 2.04485 124 117 107 
0.0288578 -0.98985 1.99728 109 102 92 
0.0490501 -0.947608 1.93312 56 52 40 
0.0630885 -0.937701 1.91329 113 105 94 
0.148626 -0.91068 1.86014 103 102 97 
0.0645404 -0.92639 1.90179 43 35 24 
0.0939162 -0.903332 1.85774 11 7 0 
0.024346 -0.948863 1.95712 128 123 117 
0.138637 -0.898508 1.85635 55 45 35 
0.0557682 -0.921365 1.90521 111 102 93 
0.0413761 -0.930929 1.92707 88 84 75 
0.229418 -0.900398 1.86724 9 6 0 
0.125091 -0.892848 1.85358 40 27 19 
0.0608622 -0.907434 1.88886 123 118 112 
0.017346 -0.941814 1.96333 51 47 36 
0.123515 -0.883173 1.84847 46 32 23 
0.044286 -0.905844 1.90002 34 27 19 
0.091377 -0.895441 1.87675 76 68 65 
0.146712 -0.886138 1.85687 46 31 24 
0.0534906 -0.893564 1.87533 116 107 98 
-0.0240954 -0.960269 2.01904 117 113 102 
0.139064 -0.878746 1.84926 38 21 14 
0.127889 -0.872821 1.84714 35 21 12 
0.0549902 -0.882039 1.87199 124 117 107 
0.0690412 -0.874408 1.8591 114 110 107 
0.00112 -0.926011 1.9699 15 8 0 
0.145909 -0.846793 1.8417 94 81 73 
0.0317983 -0.856463 1.87421 10 6 0 
-0.0232016 -0.887281 1.95121 104 96 93 
0.0545061 -0.830896 1.82615 117 108 99 
-0.038965 -0.898509 1.98297 41 34 26 
0.0412137 -0.832445 1.83693 101 92 83 
0.0141505 -0.8544 1.89068 97 93 90 
-0.0334248 -0.882076 1.95571 109 104 98 
0.114884 -0.824021 1.82692 65 57 44 
0.0623578 -0.817889 1.81828 116 112 101 
0.243562 -0.829055 1.8399 143 136 126 
-0.00805739 -0.860956 1.91526 1 0 0 
0.0302751 -0.828609 1.84794 27 22 16 
0.0765869 -0.807109 1.80774 114 111 104 
-0.0169416 -0.860551 1.9289 25 20 14 
0.0610817 -0.802799 1.7988 29 24 18 
0.206924 -0.818706 1.83316 104 100 97 
0.154651 -0.810646 1.81989 113 113 105 
0.195646 -0.813024 1.82725 92 89 82 
0.239201 -0.812501 1.83014 98 98 90 
-0.0274689 -0.852156 1.93223 61 58 53 
-0.00857246 -0.830855 1.89019 32 27 23 
0.0421365 -0.79626 1.81046 40 36 27 
0.0749379 -0.789002 1.79303 31 27 18 
0.143993 -0.794639 1.80675 109 104 98 
0.0915759 -0.789299 1.79579 112 109 100 
-0.0278271 -0.837736 1.91217 120 117 112 
-0.069273 -0.871641 1.99074 135 131 122 
0.0432241 -0.789626 1.80292 132 128 117 
0.00102522 -0.810396 1.86643 102 97 91 
0.217394 -0.78267 1.80392 42 40 28 
0.135267 -0.770377 1.78819 130 127 122 
0.159411 -0.770847 1.7872 23 23 13 
0.0232579 -0.782645 1.81815 122 119 110 
0.0446683 -0.767875 1.78724 28 24 13 
0.213456 -0.774019 1.79955 35 32 23 
0.0871797 -0.759554 1.77351 125 121 112 
-0.0444766 -0.822047 1.9212 107 104 97 
0.169345 -0.764666 1.7856 139 136 127 
0.156568 -0.758512 1.7772 108 108 98 
0.0973559 -0.755162 1.77358 47 45 33 
-0.0218697 -0.793689 1.86589 19 14 11 
0.023201 -0.766467 1.80228 9 5 0 
-0.0440485 -0.80424 1.8999 133 131 118 
0.134674 -0.749415 1.76918 114 110 101 
0.0285941 -0.75819 1.79426 66 58 47 
0.111696 -0.745333 1.76373 36 33 24 
0.155005 -0.749939 1.7734 106 103 96 
0.00495834 -0.768644 1.82058 51 47 36 
-0.00237813 -0.771581 1.83137 14 11 2 
0.00661212 -0.760958 1.8097 48 42 30 
0.0776657 -0.736207 1.75 15 12 7 
0.1977 -0.740687 1.76532 43 39 38 
-0.0939494 -0.826917 1.97517 136 132 123 
-0.0663016 -0.805496 1.92552 122 119 114 
0.189856 -0.742511 1.77236 112 109 104 
-0.0158936 -0.763543 1.83813 42 37 31 
0.0293205 -0.733078 1.7651 56 48 35 
0.224951 -0.734405 1.7692 30 27 20 
-0.0422473 -0.775464 1.87531 28 26 14 
0.20774 -0.729647 1.76321 103 99 98 
0.0126585 -0.737171 1.78573 63 55 44 
0.0366477 -0.715675 1.74192 50 46 37 
-0.0173563 -0.749768 1.83103 4 1 0 
0.0222674 -0.719595 1.76219 56 53 48 
-0.0665588 -0.773936 1.89738 102 101 96 
0.146107 -0.713549 1.74751 118 115 108 
0.0108012 -0.724829 1.77862 9 6 0 
0.0701882 -0.701418 1.72543 92 89 82 
-0.0139039 -0.736676 1.8191 138 135 128 
0.240653 -0.713404 1.75958 98 97 93 
0.195631 -0.707457 1.74857 119 116 109 
0.0495666 -0.692482 1.71793 51 44 36 
0.0207991 -0.706232 1.7534 32 27 21 
0.0878713 -0.693993 1.72277 12 9 4 
0.127629 -0.697504 1.73078 31 28 23 
-0.0508918 -0.748467 1.86029 112 109 100 
0.00608368 -0.709801 1.76529 136 130 118 
0.210427 -0.699301 1.74125 106 103 96 
0.0610466 -0.684802 1.70771 54 51 46 
0.251194 -0.702129 1.75022 106 101 97 
0.26668 -0.699883 1.74565 148 143 137 
0.193659 -0.695057 1.74023 26 21 15 
-0.09581 -0.758787 1.90679 24 20 9 
-0.0161773 -0.716325 1.79918 117 114 109 
0.019207 -0.693591 1.74299 110 110 100 
0.158385 -0.68782 1.72778 117 113 102 
-0.0919627 -0.761362 1.9153 27 23 11 
0.251631 -0.692865 1.74135 126 119 111 
0.0704178 -0.673104 1.70357 41 38 33 
0.276128 -0.689125 1.74162 125 121 110 
-0.0815767 -0.747522 1.89521 111 106 100 
-0.0301153 -0.714141 1.8116 19 15 12 
-0.0237034 -0.70845 1.7989 42 39 32 
0.240335 -0.683541 1.73243 119 115 104 
-0.0344638 -0.716699 1.82221 21 18 13 
0.196204 -0.68132 1.7278 121 116 113 
0.222477 -0.681755 1.73302 29 26 17 
0.108854 -0.668933 1.70402 105 102 93 
0.0107437 -0.683288 1.74712 137 134 129 
-0.0498869 -0.715111 1.83168 21 18 13 
0.223734 -0.675519 1.72572 131 128 119 
-0.00702408 -0.689652 1.77049 28 25 20 
0.0539169 -0.652553 1.67941 132 129 122 
0.0011004 -0.679971 1.75193 100 97 92 
0.199329 -0.663651 1.71165 44 41 34 
-0.0957554 -0.730819 1.89101 31 28 19 
0.077495 -0.64881 1.67784 47 43 31 
0.03139 -0.651483 1.68712 76 73 68 
0.028052 -0.653661 1.69609 54 50 41 
0.199224 -0.652805 1.7004 44 41 36 
-0.064627 -0.704662 1.83784 20 17 12 
0.114553 -0.643312 1.6776 23 20 15 
-0.000794822 -0.650607 1.71849 14 14 6 
-0.0806514 -0.696697 1.84632 111 108 103 
0.14696 -0.626243 1.6603 109 106 101 
-0.0629293 -0.684647 1.81886 23 20 15 
-0.0192856 -0.659857 1.75346 31 28 23 
-0.0901882 -0.699626 1.86059 12 9 4 
-0.00948675 -0.642852 1.71909 124 121 116 
0.093748 -0.612021 1.63949 68 66 53 
0.224205 -0.624841 1.67313 127 124 115 
-0.112594 -0.704011 1.89135 126 122 119 
-0.0982922 -0.690281 1.86323 57 54 49 
-0.0633026 -0.667362 1.80816 3 0 0 
0.164083 -0.606784 1.64366 116 113 108 
-0.100246 -0.675732 1.8543 5 4 0 
0.191817 -0.587306 1.62729 122 117 113 
0.226617 -0.587482 1.6294 127 124 117 
-0.0873722 -0.653238 1.82016 125 122 113 
-0.117409 -0.664154 1.86217 30 27 18 
-0.0871865 -0.646603 1.81402 113 110 101 
-0.106216 -0.654735 1.83776 5 2 0 
-0.10981 -0.65604 1.84893 26 23 18 
0.0615007 -0.572215 1.61327 66 62 53 
0.110065 -0.565678 1.59443 89 89 79 
-0.1224 -0.657543 1.85671 34 31 24 
-0.0832398 -0.633117 1.79455 41 35 23 
-0.0858173 -0.621524 1.77987 21 14 4 
-0.0842697 -0.604279 1.75629 116 108 97 
-0.0374465 -0.57626 1.67203 118 112 100 
0.0396061 -0.549495 1.61004 77 73 64 
-0.0400455 -0.566408 1.66224 63 59 48 
0.0930809 -0.546583 1.60357 3 2 0 
0.142963 -0.546431 1.6042 43 40 31 
-0.110957 -0.599929 1.77628 116 112 101 
0.148128 -0.540523 1.59926 36 33 26 
-0.109175 -0.594836 1.76572 63 59 48 
0.194158 -0.537984 1.60419 100 97 92 
-0.0918775 -0.581748 1.73854 36 28 17 
0.219667 -0.529501 1.60594 34 31 26 
0.0255248 -0.525742 1.6184 40 39 35 
0.11353 -0.514163 1.59005 37 38 33 
-0.117582 -0.558348 1.73559 58 52 38 
0.132561 -0.51125 1.58827 89 85 82 
0.164523 -0.509888 1.58375 74 70 67 
0.27686 -0.519414 1.62636 112 110 98 
0.0118147 -0.514832 1.61691 94 90 81 
0.222541 -0.50665 1.60115 4 0 0 
0.28444 -0.517516 1.63601 107 104 95 
-0.042198 -0.517535 1.65112 8 1 0 
-0.00841211 -0.506289 1.62397 102 100 88 
0.307104 -0.513097 1.64209 1 0 0 
0.181944 -0.486954 1.57618 53 53 43 
0.296392 -0.50284 1.63414 120 116 113 
-0.0110625 -0.496362 1.62492 32 32 22 
0.0680642 -0.477554 1.57645 15 12 3 
0.318369 -0.495078 1.64174 12 11 6 
0.00384693 -0.482455 1.60716 34 31 26 
-0.0910485 -0.503303 1.68363 98 93 90 
0.0601084 -0.469123 1.57397 86 83 78 
-0.112993 -0.506932 1.70663 96 92 89 
0.23634 -0.471737 1.59146 10 6 0 
-0.102698 -0.500542 1.69396 25 20 17 
-0.0782425 -0.491828 1.66739 80 79 77 
0.089508 -0.460852 1.56526 30 26 23 
0.121125 -0.453558 1.56317 117 114 109 
0.205506 -0.45519 1.57265 127 123 120 
-0.0399583 -0.470146 1.62801 69 64 60 
-0.112672 -0.490281 1.70451 13 7 7 
-0.0828073 -0.476842 1.66188 75 74 72 
0.294374 -0.464501 1.61679 104 101 92 
-0.121942 -0.486451 1.7101 37 32 26 
0.11318 -0.442234 1.55726 110 105 101 
-0.136823 -0.490993 1.73347 15 11 2 
0.177116 -0.442145 1.56245 104 101 96 
0.0864349 -0.438819 1.55768 47 40 32 
-0.00392302 -0.448135 1.59571 71 68 63 
-0.103532 -0.469391 1.68399 1 0 0 
-0.146329 -0.485618 1.74552 9 6 0 
-0.0861664 -0.459745 1.65966 104 103 99 
0.112406 -0.431181 1.55831 104 99 93 
-0.139217 -0.474269 1.72723 17 14 5 
0.271021 -0.436062 1.58638 53 48 44 
0.178021 -0.42656 1.55421 30 25 21 
-0.117779 -0.462835 1.69834 86 81 77 
0.356769 -0.450935 1.65356 4 1 0 
0.0507142 -0.428118 1.58721 98 93 87 
-0.165219 -0.475395 1.77294 3 0 0 
-0.15303 -0.465578 1.74817 16 12 9 
-0.140293 -0.455461 1.72733 86 82 73 
-0.17576 -0.470406 1.79737 7 3 0 
0.273471 -0.411402 1.58341 44 39 33 
0.0374245 -0.408505 1.57877 75 71 68 
0.222453 -0.402843 1.55594 104 100 97 
0.049606 -0.403878 1.57147 12 11 7 
0.254559 -0.399674 1.56509 111 108 103 
0.266923 -0.394688 1.5676 38 34 23 
-0.0138456 -0.402387 1.6073 18 17 13 
0.10161 -0.377381 1.52835 37 33 30 
-0.0242681 -0.387749 1.59924 105 102 97 
0.167926 -0.370684 1.52867 91 87 84 
0.125652 -0.369074 1.5248 90 80 78 
-0.158604 -0.418028 1.7446 83 79 76 
-0.0709276 -0.393158 1.64313 77 72 68 
0.054664 -0.368719 1.55664 66 62 63 
0.259852 -0.365998 1.54484 112 109 104 
0.187248 -0.36027 1.52517 26 23 18 
0.110124 -0.357473 1.51837 17 9 6 
0.314923 -0.378206 1.61526 41 37 26 
-0.0829684 -0.386641 1.65539 106 103 98 
0.420241 -0.406393 1.73961 70 66 65 
0.0695916 -0.355204 1.52849 12 12 0 
0.254321 -0.35748 1.54805 104 100 91 
-0.120649 -0.387706 1.69893 19 16 9 
0.124018 -0.343794 1.51297 100 99 94 
0.17168 -0.342389 1.51293 109 106 101 
0.304159 -0.359855 1.59882 42 32 20 
0.0616262 -0.343021 1.53029 44 41 32 
-0.130283 -0.381667 1.70866 3 0 0 
0.0360296 -0.346611 1.5518 53 51 52 
0.136763 -0.335359 1.50913 106 101 95 
0.209644 -0.33652 1.51823 41 36 32 
0.229982 -0.338706 1.52688 22 17 13 
0.187048 -0.333331 1.51434 104 100 89 
0.127594 -0.331233 1.50747 99 90 81 
-0.0519448 -0.350767 1.60726 3 0 0 
0.291844 -0.346086 1.58221 129 123 111 
-0.124756 -0.367915 1.69797 100 97 92 
0.251737 -0.328503 1.53415 46 42 31 
0.192749 -0.322581 1.51126 100 96 87 
0.0845892 -0.320626 1.50793 39 35 32 
-0.0822516 -0.345664 1.63587 115 114 110 
-0.109918 -0.35213 1.6741 4 0 0 
-0.0035921 -0.329384 1.56527 29 25 22 
0.226587 -0.320659 1.52069 106 102 93 
0.174587 -0.316615 1.50518 150 143 133 
-0.0898804 -0.343928 1.64515 20 17 12 
0.159978 -0.314833 1.50251 104 99 93 
0.064844 -0.314727 1.514 108 105 100 
-0.0894901 -0.335663 1.63697 82 79 74 
0.174567 -0.304867 1.49794 83 80 75 
0.0964194 -0.304077 1.5023 7 1 1 
0.07193 -0.302902 1.50116 5 0 0 
-0.0844242 -0.328676 1.63048 15 12 7 
0.155518 -0.299835 1.49625 6 0 0 
0.313412 -0.317596 1.58585 44 38 26 
-0.0778318 -0.317742 1.62019 3 0 0 
0.214915 -0.294886 1.5017 40 36 25 
0.187099 -0.291981 1.49523 131 127 116 
-0.11314 -0.321798 1.66323 22 18 15 
-0.0912591 -0.314992 1.63105 12 11 7 
-0.0365866 -0.302835 1.57634 77 73 70 
0.0705491 -0.287465 1.49605 28 23 17 
0.139547 -0.286657 1.48971 7 3 0 
0.115238 -0.285837 1.49115 13 10 5 
0.307063 -0.300019 1.57497 131 121 112 
-0.0678258 -0.305726 1.6096 71 67 66 
-0.0323169 -0.29739 1.56733 14 11 6 
0.159691 -0.283922 1.49276 110 102 100 
0.353159 -0.307136 1.61719 92 88 77 
0.0542336 -0.2873 1.51977 87 84 79 
0.218057 -0.283241 1.5007 25 21 10 
0.185168 -0.27939 1.49349 99 93 81 
0.170397 -0.275987 1.48347 105 96 87 
-0.153745 -0.319943 1.736 20 16 13 
0.0624822 -0.274961 1.49974 26 22 13 
0.0702404 -0.273753 1.49217 118 114 105 
0.243363 -0.273951 1.5051 31 22 13 
0.232211 -0.27275 1.50357 13 9 0 
0.204381 -0.270105 1.49086 108 101 91 
0.0871476 -0.267965 1.48588 91 87 76 
0.332738 -0.28764 1.59239 9 1 0 
0.217621 -0.268372 1.49732 107 100 94 
-0.0735661 -0.282205 1.60139 95 91 88 
0.2299 -0.263999 1.49735 24 17 7 
0.292284 -0.273799 1.55416 114 106 95 
-0.151343 -0.302029 1.72392 5 1 0 
-0.119005 -0.287885 1.65859 16 11 5 
0.173007 -0.256733 1.48115 19 11 0 
0.190173 -0.257239 1.48535 88 79 72 
0.102379 -0.255526 1.47824 96 87 80 
-0.0972866 -0.279742 1.62389 17 12 6 
-0.0231901 -0.268148 1.5543 9 4 0 
0.133281 -0.253676 1.47304 36 27 18 
0.305216 -0.263392 1.55632 51 43 32 
0.0707042 -0.250188 1.48097 14 4 2 
0.153945 -0.248312 1.47265 115 108 98 
0.231907 -0.252399 1.49251 38 28 18 
-0.0377671 -0.258419 1.55656 26 22 19 
0.130769 -0.24407 1.47122 152 143 136 
0.367422 -0.26725 1.61704 113 106 96 
0.299992 -0.251644 1.54795 132 124 113 
0.231685 -0.241217 1.48621 46 37 28 
0.0524142 -0.242344 1.50315 4 0 0 
-0.134425 -0.268399 1.67553 79 75 72 
0.0370077 -0.241325 1.50938 73 69 68 
0.253375 -0.239586 1.49865 99 90 81 
0.218329 -0.236841 1.48529 101 91 81 
-0.0944792 -0.255031 1.61486 95 90 86 
0.0679734 -0.231277 1.46857 88 86 74 
0.0901911 -0.231148 1.46982 9 4 0 
0.173582 -0.230816 1.4702 142 140 128 
0.132148 -0.228451 1.46506 45 32 26 
0.162072 -0.228146 1.46383 107 103 92 
-0.0521814 -0.241979 1.56116 107 102 98 
0.101768 -0.227333 1.46298 105 101 90 
-0.157217 -0.264956 1.72561 97 96 91 
0.302851 -0.235921 1.54388 29 22 16 
0.091496 -0.221415 1.46266 19 14 8 
0.209259 -0.223087 1.47441 115 111 102 
-0.0218279 -0.230271 1.53027 23 19 18 
0.198627 -0.221488 1.47155 133 129 120 
0.135971 -0.218826 1.46046 20 11 4 
-0.00723413 -0.226975 1.52272 8 4 1 
0.229322 -0.221095 1.47942 104 100 91 
0.148383 -0.218001 1.46219 21 12 3 
0.317024 -0.231728 1.55397 119 113 97 
0.0644814 -0.217825 1.47038 13 9 0 
-0.075481 -0.232649 1.58421 5 0 0 
0.040373 -0.220338 1.49697 14 10 7 
0.254922 -0.218726 1.48684 37 31 19 
0.244181 -0.217637 1.48453 143 139 127 
-0.13067 -0.241172 1.66107 17 13 10 
0.0831439 -0.21096 1.45987 36 31 28 
0.198708 -0.211076 1.46284 92 88 79 
-0.0846264 -0.228519 1.59107 8 4 0 
0.291895 -0.220111 1.52849 28 24 15 
0.105379 -0.209205 1.45416 6 3 0 
0.302989 -0.219436 1.53695 7 0 0 
0.0103517 -0.213688 1.50663 83 79 76 
0.183445 -0.207455 1.46134 95 91 82 
0.22072 -0.209189 1.47086 20 16 5 
-0.0220054 -0.216228 1.52857 83 79 76 
0.0619654 -0.208461 1.47609 109 105 102 
0.208596 -0.206947 1.46451 4 0 0 
0.253927 -0.209625 1.48303 35 31 22 
-0.120732 -0.228796 1.63626 105 101 98 
0.0664542 -0.2039 1.46069 40 32 21 
0.168344 -0.203203 1.45594 117 110 102 
-0.134261 -0.227726 1.65769 37 34 29 
0.288091 -0.209631 1.52127 59 55 44 
0.00358233 -0.206867 1.50806 11 7 0 
0.356822 -0.215714 1.57981 25 12 3 
0.146842 -0.197487 1.44997 79 75 66 
0.192039 -0.198032 1.45534 81 77 66 
0.0688699 -0.197354 1.45442 149 142 132 
0.111207 -0.197405 1.45302 104 97 89 
0.228398 -0.199566 1.46991 106 96 87 
0.306616 -0.208172 1.53688 19 11 0 
-0.11091 -0.21482 1.61188 48 44 35 
0.201528 -0.195571 1.4586 77 67 65 
-0.138511 -0.221404 1.6682 16 11 8 
0.317645 -0.205062 1.54287 149 143 129 
-0.0106249 -0.20034 1.5108 35 31 19 
-0.0940859 -0.209341 1.59391 93 89 77 
0.170185 -0.191818 1.45187 87 83 72 
-0.104549 -0.210229 1.6031 111 106 102 
-0.149991 -0.218996 1.68826 21 17 14 
0.0922524 -0.188037 1.4487 80 75 71 
0.254996 -0.191084 1.47403 28 24 13 
0.235272 -0.189354 1.46505 46 37 28 
0.359459 -0.204429 1.58152 115 106 91 
0.195834 -0.186042 1.45424 13 6 0 
-0.110903 -0.203106 1.6128 6 0 0 
0.100783 -0.182138 1.44598 14 9 5 
-0.0386123 -0.190197 1.52882 29 0 0 
0.314758 -0.190749 1.53366 13 5 0 
0.0711286 -0.179086 1.44799 25 22 17 
0.200204 -0.178655 1.44786 19 15 6 
0.213375 -0.178471 1.45521 17 12 6 
0.0605102 -0.178153 1.46613 80 76 73 
0.230003 -0.176623 1.4586 13 6 0 
0.133146 -0.172543 1.43913 103 99 87 
0.0341067 -0.176971 1.48345 4 0 0 
0.239062 -0.174993 1.46314 13 4 0 
0.257896 -0.175357 1.46987 27 23 11 
-0.112183 -0.18801 1.60447 103 96 90 
0.0120041 -0.173378 1.4891 73 69 66 
0.177249 -0.168922 1.44364 25 16 7 
0.306816 -0.177543 1.52568 125 115 103 
-0.100422 -0.183839 1.59425 44 37 29 
0.205321 -0.167747 1.45008 20 16 5 
0.297146 -0.175203 1.5151 61 52 37 
0.144842 -0.165367 1.43503 23 16 8 
0.218154 -0.167183 1.45179 20 10 1 
-0.122779 -0.185744 1.62661 94 91 84 
0.0244014 -0.169403 1.48423 80 78 79 
-0.136495 -0.186687 1.65582 24 20 17 
0.120705 -0.163978 1.43848 7 4 0 
0.31763 -0.17364 1.53015 160 151 136 
0.128914 -0.160002 1.4343 18 14 5 
0.252247 -0.162216 1.46407 111 102 93 
0.339235 -0.170779 1.54531 16 6 0 
-0.102689 -0.172036 1.58829 35 31 28 
0.153044 -0.15548 1.43133 105 101 98 
0.110718 -0.155381 1.43527 110 106 97 
0.240042 -0.158345 1.46099 30 22 9 
0.137687 -0.15425 1.42941 104 97 87 
0.0913511 -0.15286 1.43617 17 12 9 
0.319765 -0.162653 1.527 86 72 61 
-0.175851 -0.18428 1.74978 107 104 95 
0.0190512 -0.155918 1.47741 29 25 22 
0.0630998 -0.15363 1.4517 92 89 84 
0.188508 -0.152294 1.43973 111 107 98 
0.218515 -0.151078 1.44584 30 20 11 
0.312067 -0.158789 1.52055 144 135 120 
0.301329 -0.157528 1.51185 119 107 93 
0.288152 -0.154722 1.50355 121 108 99 
0.331437 -0.157074 1.53492 13 5 0 
0.0657701 -0.14709 1.43808 96 93 86 
0.257798 -0.14856 1.459 122 114 103 
0.153652 -0.144652 1.42894 23 19 8 
0.191908 -0.143184 1.43317 22 12 3 
0.323262 -0.152348 1.52511 29 19 7 
0.221447 -0.143238 1.43909 32 23 14 
0.129505 -0.140805 1.42388 34 25 16 
-0.132245 -0.158192 1.6277 6 2 0 
0.207944 -0.140744 1.43831 102 98 86 
0.0159484 -0.143034 1.47246 8 5 0 
0.243444 -0.139814 1.45231 46 38 25 
0.0540766 -0.139774 1.45797 98 95 90 
0.146731 -0.136715 1.42432 107 100 90 
0.254058 -0.139161 1.45476 34 30 18 
0.312268 -0.144617 1.51272 14 7 0 
0.343385 -0.146419 1.5396 36 24 10 
0.182131 -0.135785 1.42858 7 0 0 
-0.0597881 -0.146126 1.55466 35 0 0 
0.192788 -0.134494 1.42853 23 14 5 
0.0247047 -0.137304 1.46792 6 2 0 
0.301556 -0.141128 1.50545 143 133 123 
-0.108805 -0.146305 1.58507 122 119 114 
0.333902 -0.141746 1.5315 129 122 112 
-0.150924 -0.150634 1.66763 14 13 8 
0.112639 -0.129664 1.42454 7 0 0 
0.216028 -0.130096 1.43685 8 1 0 
0.138504 -0.127649 1.42154 121 111 102 
0.00209677 -0.131682 1.47543 131 128 123 
0.315712 -0.135174 1.51412 131 125 113 
0.0679522 -0.127555 1.43117 4 0 0 
0.328606 -0.134693 1.52169 33 29 20 
0.129179 -0.125227 1.42376 121 114 104 
0.105882 -0.123374 1.41944 112 103 96 
0.0148461 -0.126597 1.46791 45 42 37 
0.146557 -0.120384 1.4166 61 58 53 
-0.0993247 -0.132183 1.56919 5 0 0 
0.173632 -0.119913 1.42339 23 16 6 
-0.110136 -0.128395 1.57511 12 7 3 
0.0655938 -0.116602 1.42914 10 3 0 
0.126411 -0.115204 1.41371 25 16 7 
0.308954 -0.123021 1.50319 34 24 12 
-0.00126495 -0.117412 1.4724 121 118 113 
0.255265 -0.116092 1.44629 91 82 75 
0.0736041 -0.112698 1.42146 44 39 36 
0.102652 -0.112642 1.41737 6 0 0 
0.00859586 -0.114524 1.46488 85 81 78 
0.164329 -0.110322 1.41809 14 6 0 
-0.115697 -0.120392 1.58318 105 102 97 
-0.0148005 -0.112937 1.47854 46 43 34 
-0.138652 -0.122725 1.62588 9 0 0 
0.153336 -0.106037 1.41467 16 7 0 
0.33987 -0.113657 1.5226 132 123 108 
0.129318 -0.105422 1.41323 24 18 6 
-0.100794 -0.114945 1.5598 94 87 79 
0.201536 -0.105639 1.4236 44 33 27 
0.213216 -0.106276 1.42653 112 104 93 
-0.00720435 -0.108557 1.47329 86 81 77 
0.0625774 -0.105622 1.43801 92 89 84 
0.0254473 -0.105138 1.452 8 4 1 
0.263029 -0.104556 1.44364 20 16 5 
0.0947149 -0.101432 1.40766 48 43 39 
0.228612 -0.103243 1.43 7 0 0 
-0.134066 -0.113791 1.61927 110 107 102 
0.00320333 -0.102643 1.45876 91 86 83 
0.0465289 -0.101842 1.44476 77 74 69 
0.322667 -0.105963 1.50657 56 46 37 
0.180962 -0.0990563 1.41493 4 0 0 
0.253182 -0.100056 1.43538 13 4 0 
0.347812 -0.104851 1.52448 48 39 24 
-0.100621 -0.10554 1.55652 15 10 4 
0.306791 -0.09942 1.48836 32 23 8 
0.208274 -0.0938638 1.4211 98 89 80 
0.243793 -0.092605 1.4287 116 106 97 
-0.139794 -0.101614 1.61974 8 4 1 
0.321383 -0.095319 1.49861 60 50 41 
0.333967 -0.0957266 1.51084 14 2 0 
0.288719 -0.0929391 1.47666 107 104 89 
0.0895337 -0.088462 1.40914 45 38 30 
-0.106301 -0.0958866 1.56049 108 103 99 
-0.00836764 -0.0906135 1.4671 86 76 74 
-0.0132112 -0.0901448 1.4746 8 1 0 
0.179009 -0.0858983 1.41064 10 1 0 
-0.0329368 -0.0888001 1.48461 13 0 0 
0.130335 -0.0842559 1.40373 98 94 85 
0.153225 -0.0839426 1.40499 100 96 87 
-0.0696804 -0.0903092 1.53572 181 176 172 
0.31112 -0.0882921 1.49009 70 60 50 
0.100787 -0.0824952 1.40414 15 11 2 
0.0652876 -0.0821174 1.41898 19 10 1 
0.0238834 -0.0828688 1.44733 16 13 6 
0.0535329 -0.0807523 1.43233 89 85 82 
0.0851108 -0.0783374 1.40644 33 24 15 
0.330369 -0.0833458 1.49968 44 32 20 
0.227218 -0.0780383 1.41797 102 92 83 
-0.117338 -0.0839626 1.57233 107 104 95 
0.242938 -0.0764017 1.42315 104 95 86 
0.293862 -0.0791198 1.47314 112 108 96 
0.314344 -0.0792695 1.48642 50 40 30 
0.0292057 -0.0761498 1.44262 5 2 0 
0.213621 -0.0745789 1.4071 71 66 60 
0.0120094 -0.0752916 1.44699 21 18 13 
0.204619 -0.0719774 1.41019 8 4 0 
0.143679 -0.0704402 1.39842 9 5 0 
0.301653 -0.0739296 1.47879 21 13 2 
0.239118 -0.0688559 1.41546 96 89 79 
-0.0150535 -0.0693595 1.46652 97 88 81 
0.172687 -0.0668929 1.40009 90 88 76 
0.329225 -0.0686638 1.49547 61 49 35 
0.0448681 -0.0650701 1.42783 65 61 58 
0.0150283 -0.0638237 1.44381 40 35 31 
0.315558 -0.0654115 1.48126 24 12 0 
0.341146 -0.0660933 1.50722 31 22 7 
-0.139666 -0.0670111 1.61639 20 16 13 
0.256143 -0.0597217 1.41917 46 38 27 
0.178247 -0.0576183 1.39838 8 1 0 
0.304454 -0.0602748 1.47401 15 3 0 
-0.114432 -0.0629173 1.56448 7 2 0 
0.152362 -0.054186 1.39198 24 20 9 
0.0735435 -0.0533762 1.396 9 5 0 
0.141832 -0.0523055 1.38922 90 81 72 
0.333977 -0.055291 1.49248 115 103 91 
0.0146187 -0.0526436 1.44079 14 11 6 
0.199651 -0.0501801 1.40089 94 84 72 
0.232823 -0.0489173 1.40983 85 79 67 
0.031321 -0.0482771 1.42308 15 12 7 
0.188047 -0.0471599 1.39479 21 16 0 
0.306169 -0.0497282 1.47095 23 13 3 
0.112878 -0.0458982 1.38237 53 49 38 
0.331092 -0.0466813 1.48525 54 45 30 
0.207499 -0.0428573 1.40033 121 112 103 
0.252692 -0.0426504 1.41398 141 133 122 
0.128478 -0.0414647 1.3856 15 6 0 
0.018023 -0.0407853 1.43413 84 81 74 
0.296622 -0.0423773 1.46578 45 39 27 
0.0096875 -0.0409016 1.43897 13 8 2 
0.0713016 -0.0389729 1.38764 27 17 8 
-0.0947028 -0.0414397 1.53537 140 132 119 
0.117381 -0.0374482 1.38608 99 94 88 
-0.151621 -0.0415465 1.62919 118 115 110 
0.262712 -0.0367871 1.41447 130 119 113 
0.32521 -0.0355111 1.47722 47 37 25 
0.238536 -0.0330248 1.4033 101 91 79 
0.135842 -0.0322036 1.38643 96 87 80 
-0.140546 -0.0345277 1.59933 121 118 113 
0.189313 -0.0304355 1.39058 45 37 26 
-0.0913417 -0.0312946 1.5159 10 0 0 
0.0318619 -0.0298191 1.42224 97 91 91 
0.251187 -0.029043 1.40636 62 49 41 
0.336517 -0.0284511 1.48108 36 26 17 
0.0833215 -0.0267471 1.38333 108 99 92 
0.150454 -0.0256399 1.38064 98 91 81 
-0.106311 -0.0264287 1.53615 19 11 0 
-0.0115904 -0.02462 1.44262 89 85 74 
0.000358849 -0.0244635 1.43664 99 96 87 
0.242697 -0.023396 1.40276 28 18 8 
0.0999707 -0.0208201 1.37719 15 8 2 
-0.0912994 -0.0216011 1.51269 6 0 0 
0.303883 -0.0215838 1.45914 69 60 45 
0.3191 -0.0199099 1.4692 52 43 28 
0.190306 -0.0182061 1.38571 118 110 99 
0.11095 -0.0174797 1.37651 80 71 64 
-0.138483 -0.0182601 1.59096 12 7 3 
0.145551 -0.015427 1.37626 122 118 109 
0.215447 -0.016017 1.38766 89 81 70 
0.253817 -0.0160668 1.40116 15 2 0 
0.0549628 -0.014042 1.4054 75 76 71 
0.240508 -0.0137568 1.39813 85 75 65 
0.162938 -0.0123499 1.37807 25 15 13 
0.0247951 -0.0116235 1.41574 104 95 90 
0.2017 -0.0117797 1.38476 122 113 104 
0.182597 -0.0107213 1.37675 118 110 97 
0.129866 -0.0104578 1.37746 39 29 20 
-0.118024 -0.00935175 1.54906 5 0 0 
0.29099 -0.00780627 1.44313 51 43 30 
-0.014547 -0.00698087 1.43848 82 72 63 
0.252099 -0.0052613 1.39924 26 16 4 
0.26346 -0.00385536 1.40457 121 111 101 
0.0650126 -0.00263718 1.39102 143 134 125 
0.328585 -0.00267001 1.47046 140 130 120 
-0.113417 -0.00129099 1.53936 19 14 10 
-0.0964618 -0.000781276 1.50962 12 8 0 
-0.150592 0.00128271 1.60991 22 14 11 
0.111983 0.000495828 1.37165 11 6 0 
0.130365 0.000412292 1.36975 14 10 1 
0.242441 0.00101951 1.39313 28 18 6 
0.0946258 0.00169737 1.37298 12 7 3 
0.1575 0.00141817 1.37123 85 76 69 
0.261842 0.00220401 1.39757 54 44 34 
0.0764789 0.0028379 1.37335 27 18 9 
0.0417957 0.00361561 1.40297 3 0 0 
0.178028 0.0042065 1.37232 89 81 70 
-0.101517 0.00635061 1.51392 29 24 18 
0.356401 0.00676323 1.49064 10 0 0 
0.318369 0.00766749 1.45451 45 35 23 
-0.117496 0.0109829 1.53793 104 101 96 
0.22546 0.0094983 1.38036 89 82 72 
0.116148 0.0100829 1.36716 100 91 84 
0.196401 0.0101822 1.37153 46 37 30 
0.29516 0.0106886 1.4411 63 51 39 
0.311377 0.0123248 1.44788 46 36 26 
0.126414 0.011945 1.37071 104 95 86 
0.13753 0.0117686 1.36624 101 92 85 
0.155284 0.0116149 1.37061 136 127 118 
0.0979304 0.0128557 1.36513 86 84 72 
0.170213 0.0132093 1.36629 5 2 0 
0.027136 0.0151318 1.40713 81 72 65 
0.243263 0.0155875 1.38611 22 15 5 
-0.0869462 0.0180551 1.49147 17 12 6 
0.36061 0.0177714 1.49275 50 38 22 
0.260116 0.0173214 1.3965 8 0 0 
-0.152095 0.0234657 1.60844 5 0 0 
0.230083 0.0202539 1.37719 28 20 7 
0.345918 0.0226786 1.47218 66 56 46 
0.218339 0.0221775 1.37873 36 26 14 
0.291464 0.0234851 1.43057 39 29 17 
0.146029 0.02252 1.36315 115 106 97 
0.00337753 0.0246517 1.41466 90 87 82 
0.0563074 0.0239674 1.39694 18 14 11 
0.082 0.0232276 1.36554 99 92 82 
-0.100716 0.0275397 1.50679 23 18 14 
-0.0104495 0.0253465 1.42304 29 19 17 
0.0718898 0.0238169 1.36621 102 94 81 
0.106463 0.0246198 1.3627 121 112 103 
0.304692 0.0270492 1.43832 16 6 0 
0.320454 0.0274501 1.45121 121 111 99 
0.174934 0.028676 1.36125 143 134 125 
0.190052 0.0303857 1.36176 112 103 94 
0.125856 0.0332097 1.35716 6 0 0 
0.0229638 0.0355953 1.40067 103 99 90 
0.334168 0.0370105 1.45745 134 124 114 
0.105769 0.0349477 1.35714 91 84 74 
0.170133 0.0368507 1.35721 13 3 0 
0.291703 0.0394395 1.42512 141 132 123 
0.307959 0.0397692 1.43367 131 121 109 
0.0690072 0.0391577 1.3708 89 82 74 
-0.0420126 0.0441401 1.43429 29 24 21 
0.044614 0.0422715 1.38899 136 132 121 
0.31597 0.0442588 1.43964 129 120 105 
-0.141221 0.0497058 1.56366 7 4 0 
-0.0518735 0.0463264 1.44459 79 74 70 
0.115724 0.0434432 1.35012 79 70 65 
0.190717 0.0441511 1.35893 72 66 54 
-0.122619 0.0525672 1.53518 21 21 11 
0.00527723 0.0470051 1.40386 87 80 72 
-0.0913217 0.0510426 1.48869 10 7 0 
-0.064307 0.0498656 1.45607 142 138 129 
-0.136043 0.0564186 1.5573 28 25 20 
-0.0342306 0.0527197 1.42607 80 75 71 
0.0965357 0.0501114 1.35177 73 69 60 
0.261034 0.0515527 1.38103 126 118 107 
-0.0220178 0.0542131 1.4157 98 93 87 
0.160914 0.0512591 1.35335 19 15 6 
0.124001 0.0515713 1.34982 114 108 96 
0.0525634 0.0538716 1.38137 80 77 72 
0.139478 0.0518044 1.34122 101 97 88 
0.187888 0.053643 1.35174 145 135 125 
0.0771856 0.0550671 1.35347 105 97 86 
-0.12232 0.0656763 1.53019 93 88 84 
-0.0854255 0.0624584 1.47833 19 14 10 
0.323317 0.0620628 1.43863 48 39 24 
0.344892 0.0626674 1.4547 60 51 36 
0.111867 0.0601691 1.34819 136 132 121 
0.3153 0.0651991 1.43077 133 126 110 
0.380518 0.0688058 1.49359 36 24 10 
0.0102099 0.0649267 1.38936 35 24 18 
-0.134554 0.0745061 1.55005 31 27 18 
0.261172 0.0659038 1.37742 148 138 128 
0.141834 0.0648867 1.34535 10 6 0 
