ply                 
format ascii 1.0    
element vertex 1286
property float x    
property float y    
property float z    
property uchar red  
property uchar green
property uchar blue 
end_header          
0.378817 -0.271604 1.61466 44 34 24 
0.378431 -0.273609 1.62825 34 24 12 
0.443858 -0.281693 1.73114 71 59 45 
0.384501 -0.272158 1.63771 48 39 24 
0.271279 -0.269861 1.5375 19 13 1 
0.424463 -0.273182 1.68786 35 23 9 
0.275785 -0.270244 1.54887 115 107 96 
0.396464 -0.269797 1.64876 66 54 40 
0.441673 -0.27266 1.71516 138 124 115 
0.124119 -0.276517 1.49572 127 120 110 
0.374564 -0.262343 1.6179 126 116 104 
0.266523 -0.259922 1.51634 126 118 105 
0.270492 -0.26117 1.52685 36 29 13 
0.275594 -0.261108 1.54424 20 7 0 
0.368277 -0.258382 1.60842 134 126 115 
0.363083 -0.256836 1.6008 68 56 44 
-0.0949508 -0.321051 1.65356 24 20 17 
0.283741 -0.255143 1.54712 71 61 51 
0.379726 -0.252479 1.61887 56 44 30 
0.320935 -0.252665 1.57751 130 116 103 
0.365493 -0.246473 1.6065 63 56 40 
0.275382 -0.247591 1.53975 107 98 89 
0.428869 -0.246961 1.68419 53 41 25 
0.349122 -0.240294 1.58273 55 43 31 
0.378809 -0.240387 1.61521 123 113 101 
-0.0397949 -0.285317 1.58665 16 12 9 
0.268359 -0.235547 1.51107 35 25 13 
0.439388 -0.238587 1.69767 47 35 21 
0.415093 -0.234393 1.66001 42 26 11 
0.335711 -0.231543 1.56891 33 21 7 
0.35484 -0.232389 1.59012 128 121 105 
0.450364 -0.238096 1.72945 68 56 40 
0.271285 -0.233786 1.53142 98 87 81 
0.328521 -0.229634 1.55856 63 52 34 
0.374136 -0.229505 1.60239 121 114 96 
-0.0467003 -0.274989 1.58652 12 8 5 
0.436505 -0.228499 1.69106 109 96 80 
0.271141 -0.221083 1.51859 110 100 90 
0.425486 -0.220092 1.67261 71 61 51 
0.265978 -0.219238 1.50545 135 125 113 
0.319469 -0.215359 1.55061 39 26 10 
0.433855 -0.21364 1.68138 24 10 0 
0.439527 -0.213967 1.69687 124 112 100 
0.117117 -0.226743 1.49154 58 49 40 
0.443987 -0.21341 1.71443 69 55 44 
0.275523 -0.209903 1.52642 125 117 106 
0.291024 -0.20782 1.53643 38 30 19 
0.424251 -0.206862 1.66826 43 29 18 
0.403321 -0.203591 1.63766 51 41 29 
0.295854 -0.202644 1.52399 146 134 118 
0.16253 -0.213981 1.48328 30 20 11 
0.270699 -0.203168 1.51582 35 28 18 
0.431411 -0.199927 1.67499 58 44 33 
0.425586 -0.191299 1.66028 115 103 89 
0.274277 -0.1935 1.51457 117 104 95 
0.370131 -0.18848 1.58379 140 114 99 
-0.0262476 -0.229866 1.55522 20 16 13 
0.3448 -0.184408 1.55778 53 40 21 
0.438317 -0.18344 1.67544 114 105 88 
0.420269 -0.180723 1.65235 154 141 132 
0.275279 -0.182262 1.51176 121 114 104 
0.418725 -0.177991 1.64004 128 116 104 
0.44278 -0.175691 1.68248 66 57 40 
0.446574 -0.17667 1.69548 22 6 0 
0.273374 -0.178845 1.52332 28 19 10 
0.427102 -0.171765 1.65249 29 20 3 
0.371225 -0.171533 1.5853 46 10 0 
0.431023 -0.17062 1.66292 110 100 90 
0.275304 -0.171723 1.51207 18 10 0 
0.304771 -0.168232 1.52849 12 0 0 
0.416474 -0.165134 1.63535 55 40 17 
0.285585 -0.168296 1.51347 86 74 58 
0.423405 -0.161649 1.64702 64 48 32 
0.0998393 -0.181901 1.47898 76 72 61 
0.434721 -0.154989 1.65894 54 39 20 
0.273262 -0.154917 1.50061 101 93 80 
0.181085 -0.161873 1.46515 144 135 126 
0.3629 -0.149187 1.56951 43 27 2 
0.422382 -0.147246 1.6441 62 47 26 
0.25291 -0.151658 1.4842 17 9 0 
0.2748 -0.146748 1.49484 27 18 11 
0.297087 -0.146388 1.52494 85 76 59 
0.452378 -0.140746 1.69554 57 45 29 
0.416251 -0.13839 1.62334 66 48 24 
0.276397 -0.141559 1.50383 83 76 70 
0.448612 -0.134786 1.67711 30 18 6 
0.327369 -0.138655 1.55701 31 25 9 
0.33512 -0.132646 1.54112 10 1 0 
0.438942 -0.128015 1.66538 131 120 102 
0.438555 -0.125852 1.65559 64 53 35 
0.22207 -0.13652 1.46052 156 142 133 
0.267893 -0.131302 1.47163 107 101 89 
0.367868 -0.123777 1.55581 54 12 0 
0.151103 -0.139016 1.44058 37 31 19 
0.320364 -0.122372 1.52865 150 140 128 
0.355943 -0.118601 1.54163 43 28 9 
0.423721 -0.115654 1.62798 150 138 116 
0.347145 -0.117172 1.53433 74 61 45 
0.260754 -0.122168 1.47 79 71 60 
0.435764 -0.114243 1.65724 126 119 103 
0.376418 -0.115593 1.59324 114 61 55 
0.233625 -0.123546 1.47597 25 15 5 
0.27257 -0.119798 1.49368 93 86 76 
0.434219 -0.110725 1.64103 65 54 34 
0.282291 -0.118132 1.49002 119 109 100 
0.313737 -0.113794 1.5224 31 21 11 
0.44479 -0.10646 1.66577 41 28 11 
0.223259 -0.118245 1.45428 143 140 135 
0.182322 -0.121049 1.44569 110 102 89 
0.399133 -0.105889 1.60427 113 99 72 
0.453265 -0.102616 1.68472 52 40 24 
0.273292 -0.109651 1.49108 133 127 115 
0.425596 -0.0964666 1.62397 65 52 35 
0.449115 -0.0947441 1.67074 38 25 8 
0.281283 -0.103097 1.49092 31 23 10 
-0.0973654 -0.147002 1.58606 26 21 17 
0.440571 -0.0917876 1.65226 40 27 8 
0.166414 -0.111055 1.4503 110 104 92 
0.393969 -0.0924541 1.59623 126 103 89 
0.432293 -0.088871 1.63612 162 146 120 
0.364731 -0.0895847 1.53959 45 24 3 
0.417579 -0.0858028 1.6075 136 121 100 
-0.0215341 -0.1273 1.50932 30 27 20 
0.45929 -0.0809994 1.69037 44 32 18 
0.439643 -0.0797346 1.64472 20 3 0 
0.273665 -0.0901356 1.48348 91 84 74 
0.39805 -0.0761522 1.58716 109 92 64 
0.417289 -0.0746562 1.60173 66 51 30 
0.366283 -0.07658 1.54053 55 17 4 
0.334355 -0.0786567 1.51482 39 26 10 
0.281442 -0.0805724 1.48057 69 63 49 
0.276895 -0.0802312 1.4711 90 88 76 
0.350846 -0.0732296 1.52343 27 15 3 
0.439546 -0.0671633 1.64339 56 43 26 
0.450684 -0.061942 1.67125 48 30 16 
0.418968 -0.0626056 1.59917 142 129 113 
0.26959 -0.0737021 1.45691 54 46 35 
0.254879 -0.0744318 1.44383 135 125 113 
0.456055 -0.0559535 1.68211 46 38 19 
0.348568 -0.0582538 1.52294 36 18 0 
0.383856 -0.0557782 1.56596 126 76 65 
0.448199 -0.0430898 1.65033 75 60 41 
0.448539 -0.0433296 1.6733 74 58 42 
0.405613 -0.0448035 1.57274 24 6 0 
0.266665 -0.0536601 1.44153 35 26 11 
0.450995 -0.038364 1.65811 16 0 0 
0.425884 -0.036908 1.60766 55 40 19 
0.435202 -0.028743 1.61383 135 120 97 
0.279176 -0.0423527 1.47126 36 28 15 
0.406182 -0.0288348 1.56777 20 5 0 
0.411169 -0.0262945 1.57653 22 7 0 
0.214018 -0.043739 1.42395 56 46 36 
0.338752 -0.0309676 1.49787 160 144 121 
0.421422 -0.0219443 1.59323 73 59 32 
0.457787 -0.0172282 1.67156 138 122 97 
0.43075 -0.0185342 1.5986 76 65 43 
0.326432 -0.0270709 1.49376 29 19 7 
0.312831 -0.027844 1.4845 27 15 0 
0.394241 -0.0192183 1.56808 85 69 56 
0.437514 -0.0129533 1.6127 43 30 13 
0.457382 -0.0110034 1.66285 44 28 3 
0.414391 -0.0136813 1.57615 77 62 43 
0.285309 -0.0253625 1.45852 63 50 33 
0.343347 -0.0179327 1.49866 145 133 117 
0.331306 -0.0186492 1.48037 26 13 0 
0.43093 -0.00864753 1.60129 152 140 118 
0.359386 -0.0115869 1.50794 63 47 22 
0.421652 -0.00376617 1.57928 88 70 48 
0.357853 -0.00817671 1.4968 49 38 20 
0.36521 -0.00423396 1.51187 50 9 0 
0.442218 0.00441662 1.61991 34 23 3 
0.375217 -0.000868582 1.54 48 0 0 
0.271725 -0.0115419 1.44982 19 9 0 
0.349069 -0.00300777 1.49156 146 133 117 
0.44512 0.00956656 1.63056 85 74 52 
0.433005 0.0112648 1.59994 42 29 10 
0.448728 0.0141313 1.6391 139 127 105 
0.422312 0.0114331 1.57581 103 88 59 
0.338949 0.00386391 1.47974 69 57 41 
0.447169 0.0192781 1.62265 150 133 115 
0.457893 0.0216279 1.65584 48 37 19 
0.392468 0.0133348 1.55437 135 112 96 
0.365178 0.012282 1.50754 61 19 5 
0.286175 0.00509058 1.44806 42 26 13 
0.449995 0.0256766 1.63513 79 64 43 
0.185771 -0.00444657 1.39839 126 116 106 
0.421245 0.0220385 1.56334 120 107 91 
0.439064 0.0243056 1.61407 61 48 31 
0.271077 0.00539594 1.44815 83 75 64 
0.434486 0.0249523 1.59553 154 141 122 
0.442574 0.0312092 1.61968 152 138 112 
0.431463 0.0299932 1.5843 70 55 36 
0.351032 0.0194988 1.48365 38 27 9 
0.270539 0.0113607 1.42381 119 107 93 
0.392825 0.0265042 1.55683 153 136 120 
0.437174 0.0329332 1.60093 71 60 40 
0.392888 0.0292566 1.54569 164 145 130 
0.27784 0.01716 1.4381 58 45 36 
0.434798 0.0385115 1.59037 52 41 19 
0.312155 0.0233239 1.45357 61 49 35 
0.33751 0.0264697 1.46467 52 39 30 
0.22529 0.0165442 1.4141 129 122 112 
0.269147 0.0209266 1.42763 69 59 47 
0.454745 0.0462708 1.63203 52 36 13 
0.442288 0.0474879 1.60211 43 28 7 
0.362668 0.0363288 1.49002 30 18 2 
0.131997 0.0118053 1.37321 103 93 84 
0.270053 0.0297359 1.40985 150 140 128 
0.383247 0.0439818 1.50961 108 100 81 
0.419834 0.05326 1.55893 76 65 47 
0.27324 0.0353556 1.42808 90 85 79 
0.324226 0.0422052 1.45549 84 72 58 
0.341494 0.0442913 1.46997 50 42 29 
0.435512 0.0589831 1.57871 65 53 29 
0.375235 0.0512086 1.50038 138 128 116 
0.430037 0.0606271 1.56871 144 133 113 
0.392787 0.0564317 1.51413 59 50 33 
0.280472 0.046068 1.42936 40 31 16 
0.365957 0.0570267 1.48712 133 121 109 
0.382753 0.0591656 1.50161 14 0 0 
0.308587 0.0504694 1.4432 42 27 8 
0.399821 0.0627158 1.52176 153 148 129 
0.270282 0.0466906 1.42233 105 98 88 
0.441829 0.0729644 1.58965 143 128 105 
0.420567 0.0687765 1.54847 89 69 45 
0.349846 0.0585151 1.4702 146 134 118 
0.408453 0.0684761 1.53238 116 104 90 
0.392447 0.0675097 1.50763 133 121 109 
0.437114 0.0781317 1.58124 144 131 112 
0.246589 0.0506647 1.39129 119 112 102 
0.334503 0.0619889 1.45305 96 83 67 
0.358513 0.065608 1.4762 139 127 113 
0.272015 0.0567363 1.4169 125 121 109 
0.374326 0.0707133 1.49522 51 36 15 
0.428908 0.0814565 1.55868 50 37 20 
0.297562 0.0639028 1.43032 72 60 46 
0.394981 0.0777778 1.50134 29 16 0 
0.398572 0.0786097 1.51354 128 120 101 
0.413916 0.0836175 1.53373 87 76 56 
0.37188 0.0776263 1.48219 141 128 109 
0.40411 0.0844573 1.52273 149 138 118 
0.275875 0.0670683 1.41977 107 98 91 
0.41939 0.0918217 1.54418 140 129 111 
0.440298 0.0961151 1.57491 48 35 19 
0.383008 0.0856832 1.49221 126 114 98 
0.397381 0.0894982 1.51461 60 47 31 
0.375844 0.0871419 1.48291 8 0 0 
0.449758 0.103936 1.59662 37 23 10 
0.272839 0.0763059 1.41009 120 118 105 
0.43383 0.101933 1.56294 124 111 94 
0.346074 0.0881907 1.45078 53 44 29 
0.27152 0.0791106 1.3945 46 37 22 
0.285117 0.0823144 1.42216 100 91 74 
0.378915 0.0957215 1.4916 72 63 48 
0.405298 0.10036 1.52161 23 13 0 
0.424979 0.104783 1.5535 7 2 0 
0.427409 0.104999 1.54355 10 3 0 
0.301364 0.0855155 1.42453 105 95 83 
0.372452 0.0954675 1.47257 134 125 110 
0.380967 0.0976784 1.48316 36 26 14 
0.414594 0.103421 1.52374 109 100 85 
0.451235 0.113524 1.60019 29 16 0 
0.386928 0.101536 1.49279 140 130 118 
0.443037 0.112391 1.57435 98 85 68 
0.275423 0.0860851 1.41231 123 112 106 
0.351999 0.0984848 1.45654 167 155 139 
0.435593 0.115626 1.56139 153 140 124 
0.448841 0.12038 1.59271 47 34 17 
0.406559 0.11159 1.51485 143 133 121 
0.406949 0.112804 1.5052 92 82 70 
-0.0240218 0.0719192 1.42835 102 95 87 
0.361912 0.105992 1.45728 32 24 5 
0.366791 0.107716 1.46615 32 25 9 
0.380792 0.113431 1.48293 42 33 16 
0.446334 0.129423 1.58742 126 114 90 
0.391119 0.116776 1.4888 23 14 0 
0.411176 0.12121 1.5199 46 34 18 
0.434443 0.127911 1.55489 134 122 100 
0.354286 0.11372 1.45668 26 14 0 
0.272836 0.102228 1.39869 120 116 105 
0.376673 0.117536 1.46669 116 106 94 
0.445901 0.133187 1.57314 75 61 34 
0.321129 0.110441 1.42438 33 19 6 
0.408234 0.127875 1.50644 130 118 102 
0.339076 0.116114 1.44138 89 76 60 
0.382812 0.123126 1.47175 108 99 84 
0.355427 0.119962 1.44709 133 117 104 
0.412415 0.131645 1.51706 53 42 24 
0.270477 0.10777 1.38989 99 92 82 
0.398213 0.128317 1.4864 31 24 6 
0.42594 0.135818 1.5306 142 131 109 
0.464453 0.150891 1.63801 128 114 103 
0.429283 0.141638 1.54243 58 45 28 
0.275584 0.114735 1.3958 118 110 99 
0.228475 0.10779 1.36295 108 100 87 
0.343803 0.124597 1.4357 158 149 134 
0.387323 0.133575 1.47406 68 60 49 
0.387088 0.134564 1.48396 72 64 53 
0.413184 0.13793 1.50034 158 142 126 
0.370948 0.12986 1.45006 11 3 0 
0.437563 0.147233 1.55584 33 20 1 
0.453688 0.15429 1.59345 132 123 106 
0.427247 0.146465 1.52356 96 83 64 
0.298933 0.126571 1.40132 96 87 72 
0.211671 0.116207 1.35607 128 119 102 
0.371664 0.140029 1.45547 129 120 105 
0.411597 0.149187 1.50107 68 56 34 
0.303664 0.130601 1.41051 61 52 37 
0.272538 0.126713 1.38983 131 124 114 
0.313743 0.132341 1.40574 131 119 105 
0.338399 0.141174 1.42524 15 3 0 
0.280632 0.135125 1.39343 56 50 38 
0.272003 0.13431 1.37561 26 17 8 
0.350569 0.147511 1.43067 54 47 31 
0.374135 0.152397 1.45368 109 101 80 
0.446657 0.17261 1.56931 73 61 37 
0.379727 0.154418 1.4616 126 118 99 
0.323664 0.144094 1.40767 111 102 85 
0.411324 0.162218 1.50089 59 50 35 
0.39587 0.159052 1.47408 32 23 8 
0.404508 0.162025 1.48589 63 51 35 
0.425733 0.168747 1.526 65 53 37 
0.441381 0.172481 1.54482 58 45 26 
0.309943 0.145617 1.40385 155 142 126 
0.334793 0.150571 1.41517 38 29 14 
0.357382 0.157207 1.42879 116 109 93 
0.272829 0.147902 1.3828 110 103 95 
0.424549 0.177 1.5126 52 37 18 
0.319113 0.156657 1.41127 149 140 123 
0.367134 0.164285 1.43881 90 78 66 
0.26919 0.148498 1.37103 10 2 0 
0.448681 0.187779 1.55705 144 129 106 
0.288269 0.155654 1.38547 77 63 50 
0.401052 0.176489 1.47577 143 134 119 
0.43373 0.185534 1.52594 171 155 140 
-0.0444124 0.137233 1.41773 21 16 12 
0.275391 0.155679 1.37401 19 12 6 
0.212577 0.147343 1.34038 31 19 7 
0.247846 0.150995 1.34355 149 139 129 
0.317056 0.163632 1.39835 28 21 2 
0.34504 0.16942 1.41255 17 5 0 
0.268853 0.157773 1.36251 115 105 95 
0.428825 0.190648 1.51399 130 117 100 
0.0297142 0.142522 1.37052 95 90 86 
0.439877 0.195165 1.53424 46 34 12 
0.285041 0.162377 1.37541 39 32 16 
0.358939 0.174855 1.42832 142 134 115 
0.369147 0.175974 1.42871 140 128 112 
0.29278 0.166677 1.38654 87 75 59 
0.346564 0.180271 1.40982 140 124 108 
0.320022 0.176976 1.39286 95 82 65 
0.3647 0.186241 1.43131 155 144 124 
0.273664 0.173614 1.37205 141 134 126 
0.397035 0.198649 1.45964 147 136 116 
0.264774 0.173333 1.34127 72 66 54 
0.350618 0.190628 1.40519 145 131 120 
0.31812 0.187617 1.38591 156 148 135 
0.327465 0.18974 1.39452 144 132 116 
0.356987 0.196318 1.414 39 28 10 
0.425472 0.217451 1.50009 139 131 112 
0.251233 0.18487 1.3479 113 103 91 
0.315885 0.196814 1.38112 125 119 103 
0.322448 0.199035 1.3898 38 31 15 
0.256386 0.184836 1.32874 46 34 20 
0.333386 0.200004 1.38985 154 145 128 
0.321876 0.201653 1.3998 145 138 120 
0.346005 0.205419 1.40535 119 112 96 
-0.0173784 0.177092 1.38083 34 26 23 
0.433546 0.229087 1.5103 56 47 30 
0.361502 0.210288 1.4135 150 142 119 
0.24503 0.189778 1.33463 54 44 32 
0.29228 0.199806 1.36761 62 52 40 
0.345252 0.208594 1.39112 68 60 39 
0.397894 0.223081 1.45237 113 105 86 
0.273872 0.199599 1.35559 9 0 0 
0.355798 0.213615 1.40114 68 60 39 
0.408721 0.22814 1.46697 92 84 63 
0.231395 0.192828 1.32335 139 132 116 
0.311841 0.20763 1.38011 17 5 0 
0.301043 0.208907 1.36491 35 24 4 
0.391872 0.229471 1.43486 133 125 106 
0.241494 0.20163 1.32313 167 158 143 
0.154568 0.194751 1.3126 115 106 91 
0.274051 0.214928 1.35135 105 93 77 
0.308454 0.220127 1.3647 30 21 6 
0.180166 0.20318 1.30875 92 90 78 
0.319566 0.223845 1.37261 81 69 53 
0.248031 0.210651 1.32213 146 138 125 
-0.114598 0.217592 1.46436 4 0 0 
0.269468 0.220066 1.33251 138 134 123 
0.364526 0.239799 1.40154 70 59 41 
0.221475 0.214961 1.31515 116 108 95 
0.345695 0.234967 1.37787 68 56 40 
0.236845 0.218848 1.31621 30 22 9 
0.319194 0.23414 1.36711 64 56 45 
0.277158 0.230075 1.34091 64 56 43 
0.302102 0.236423 1.35374 68 60 47 
0.332112 0.243704 1.36846 133 121 109 
0.286346 0.236532 1.32626 67 59 46 
0.27155 0.236643 1.32624 143 135 122 
0.259956 0.236506 1.31189 139 130 113 
0.296887 0.243577 1.333 160 150 138 
0.265391 0.243865 1.31834 112 105 89 
0.307375 0.251445 1.33288 113 109 98 
0.236442 0.242269 1.30417 140 128 114 
0.165806 0.238228 1.2971 114 110 98 
0.20407 0.241484 1.29748 42 35 25 
0.282784 0.255764 1.3313 42 34 23 
-0.0250318 0.242488 1.34736 13 10 1 
0.153432 0.242275 1.29121 29 25 14 
0.311972 0.260136 1.32292 62 60 47 
0.34354 0.268866 1.34954 115 103 91 
0.296982 0.261241 1.32201 62 54 43 
0.236628 0.256388 1.30084 123 115 102 
0.163281 0.252487 1.28962 45 41 30 
0.216538 0.257774 1.29334 140 133 125 
0.247903 0.261082 1.29586 76 66 54 
0.305021 0.272579 1.32142 32 30 15 
0.213273 0.277085 1.28277 46 42 33 
0.203351 0.285871 1.27979 40 40 32 
0.337163 0.315896 1.33184 71 59 43 
0.177991 0.295981 1.28228 35 29 17 
0.265147 0.31834 1.28729 109 100 91 
0.143905 0.307853 1.26615 41 38 29 
0.162681 0.309721 1.26647 53 43 33 
0.311237 0.329422 1.30394 54 47 31 
0.228162 0.315752 1.26527 141 137 126 
0.250336 0.322245 1.28463 124 121 106 
0.244634 0.331477 1.27449 126 116 106 
0.298698 0.339303 1.2943 67 57 45 
0.402399 0.390482 1.36237 121 112 95 
0.470046 0.434125 1.49272 41 33 22 
0.20661 0.364358 1.24247 60 50 41 
0.132973 0.361431 1.23932 114 108 96 
0.466046 0.450715 1.45657 28 18 6 
0.463824 0.457305 1.42703 59 52 42 
0.405024 0.428588 1.32347 131 123 112 
0.309471 0.404381 1.25298 60 56 45 
0.243234 0.391577 1.22113 47 43 34 
0.165729 0.395199 1.20534 90 87 78 
0.323071 0.417753 1.24964 100 96 85 
0.410541 0.448685 1.32309 79 72 62 
0.210448 0.403916 1.20179 138 135 126 
0.371188 0.445037 1.27454 45 37 24 
0.41345 0.46458 1.32181 47 43 31 
0.153742 0.413546 1.19657 35 31 22 
0.394706 0.45849 1.29558 133 126 110 
0.162971 0.420446 1.18905 161 157 148 
0.135503 0.217069 0.654024 172 170 171 
0.0213517 0.43466 1.19819 36 28 17 
0.191045 0.43444 1.18386 13 8 2 
0.118278 0.23887 0.68586 186 182 183 
-0.0414607 0.454409 1.23456 96 92 81 
0.242428 0.450985 1.19592 138 136 123 
0.233347 0.448158 1.18904 121 114 104 
0.0715779 0.449032 1.1807 90 78 64 
0.230703 0.450385 1.15482 76 72 60 
0.33503 0.473678 1.19757 101 95 81 
0.00935544 0.453622 1.15673 133 130 121 
0.197992 0.452343 1.14255 101 92 83 
0.0765165 0.451548 1.14172 104 100 91 
0.130832 0.45906 1.13287 138 135 120 
0.269138 0.4771 1.15217 24 20 8 
0.0615815 0.490774 1.11063 144 141 122 
0.292202 -0.954329 1.95719 149 142 136 
0.299384 -0.90984 1.92681 7 3 0 
0.229746 -0.869809 1.83746 16 15 10 
0.357321 -0.917197 2.00294 113 109 98 
0.29452 -0.821051 1.83855 135 132 123 
0.0937052 -0.840782 1.81276 91 82 73 
0.294259 -0.799565 1.81781 132 128 119 
0.189006 -0.767361 1.76202 122 118 109 
0.23452 -0.751907 1.74811 108 103 97 
0.338053 -0.786182 1.87423 127 123 120 
0.140996 -0.755271 1.74948 127 118 111 
0.225365 -0.729852 1.73533 137 134 125 
0.291865 -0.705704 1.74612 135 130 111 
0.291197 -0.694527 1.72614 129 126 109 
-0.0829466 -0.822159 1.95105 103 103 103 
0.193313 -0.654812 1.67838 143 138 134 
0.318555 -0.653358 1.73012 45 41 30 
0.34756 -0.653425 1.77395 35 27 16 
0.161397 -0.625334 1.65279 133 130 121 
0.353291 -0.626014 1.7505 63 59 50 
0.296084 -0.550372 1.61442 13 10 1 
0.236322 -0.541855 1.61018 45 41 38 
0.202522 -0.532685 1.58603 3 2 0 
-0.132618 -0.664448 1.87136 194 193 191 
0.311908 -0.485191 1.63008 132 128 119 
0.0963914 -0.49896 1.58528 7 7 0 
0.379118 -0.473193 1.66313 31 27 16 
0.396114 -0.45755 1.68391 136 132 123 
0.469183 -0.47225 1.79972 33 31 19 
0.138061 -0.441337 1.57888 10 3 0 
0.108483 -0.438629 1.55195 9 9 1 
0.341516 -0.412865 1.63348 110 110 102 
0.466319 -0.410036 1.77095 9 0 0 
0.272359 -0.387213 1.5766 37 28 23 
0.402028 -0.384442 1.70224 39 31 20 
0.277139 -0.35577 1.57792 118 109 102 
-0.0833337 -0.408294 1.6654 14 13 9 
0.41766 -0.316224 1.69379 44 36 25 
0.304075 -0.285041 1.55819 102 94 83 
0.286469 -0.287192 1.56868 56 46 36 
0.436328 -0.290153 1.71515 40 26 13 
0.432647 -0.244551 1.69403 58 47 29 
-0.0595603 -0.288139 1.60182 16 12 11 
0.304471 -0.227589 1.55024 51 43 30 
0.455339 -0.227554 1.73424 32 20 6 
0.471619 -0.220164 1.79912 52 42 30 
0.340096 -0.195805 1.56799 34 22 10 
0.295181 -0.180388 1.53185 145 131 118 
0.369346 -0.157245 1.59146 37 0 0 
0.274027 -0.159952 1.5107 6 0 0 
0.444837 -0.122005 1.67105 49 35 24 
0.448292 -0.123292 1.69796 122 108 95 
0.274025 -0.117379 1.48342 122 119 110 
0.301761 -0.115651 1.50841 54 42 30 
0.28719 -0.113673 1.50133 157 145 131 
0.419031 -0.0999397 1.61264 148 132 109 
0.462669 -0.101413 1.71601 63 51 35 
0.104332 -0.107816 1.44422 20 13 3 
0.230041 -0.0901873 1.45137 11 0 0 
0.286375 -0.0786483 1.4633 107 99 86 
0.323172 -0.0538901 1.50034 57 41 28 
0.459514 -0.0317548 1.68164 146 133 116 
0.273633 -0.0433078 1.45765 14 6 0 
0.299805 -0.00266721 1.46356 56 48 35 
0.270505 -0.00364457 1.43611 123 116 100 
0.244255 0.00167174 1.42065 121 109 95 
0.457572 0.0508838 1.64846 120 105 82 
0.351167 0.0378927 1.47825 56 44 28 
0.448793 0.0636366 1.60781 53 38 17 
0.340213 0.0596508 1.46606 64 51 34 
0.273224 0.063549 1.42893 88 81 71 
0.449312 0.0934839 1.59893 133 120 103 
0.385242 0.0822413 1.50453 144 133 113 
0.285169 0.0886911 1.40517 58 51 35 
0.249852 0.0850529 1.38094 64 52 38 
0.40212 0.11978 1.49448 50 38 22 
0.414376 0.140298 1.51067 46 33 16 
0.389838 0.143376 1.47381 158 147 127 
0.434116 0.156405 1.53459 128 115 96 
0.376644 0.144471 1.46335 42 33 16 
0.177502 0.120493 1.35447 89 74 69 
0.384706 0.164742 1.45117 37 25 9 
0.282078 0.202813 1.37188 142 130 114 
0.366879 0.22246 1.41706 21 14 0 
0.324819 0.217183 1.38907 131 122 105 
0.284238 0.21239 1.36281 10 0 0 
0.40455 0.236335 1.45493 85 76 61 
0.0668931 0.209045 1.31027 6 1 0 
0.0458318 0.215183 1.32448 121 116 110 
0.211932 0.229188 1.30382 113 105 92 
0.343651 0.25901 1.36599 20 17 2 
0.329335 0.262736 1.33813 17 10 0 
0.319624 0.270207 1.33143 138 130 117 
0.174318 0.266623 1.29139 76 72 60 
0.286088 0.321875 1.29532 121 113 102 
-0.0837011 0.345745 1.33856 36 32 23 
0.41666 0.398722 1.37699 39 33 19 
0.187796 0.361131 1.23387 155 152 135 
0.325332 0.388829 1.27721 28 24 12 
0.364637 0.401289 1.29719 13 4 0 
0.462767 0.454213 1.40991 107 101 89 
0.324666 0.434926 1.24555 103 99 87 
0.376682 0.453253 1.28056 142 138 126 
0.46856 0.509527 1.41019 26 18 7 
0.0229484 0.441176 1.21175 14 7 0 
0.400974 0.487529 1.2897 79 73 59 
0.217307 0.44963 1.15198 79 77 62 
0.293762 -0.943043 1.92174 109 102 94 
0.260647 -0.910574 1.8778 59 49 47 
0.262548 -0.896035 1.86387 113 105 102 
0.353702 -0.954464 2.04561 111 106 100 
0.304054 -0.912581 1.94428 18 14 5 
0.356524 -0.90498 1.99362 25 18 10 
0.240535 -0.841871 1.80913 137 126 120 
0.0294584 -0.920482 1.91232 15 4 0 
0.2313 -0.829851 1.79808 29 25 13 
0.414143 -0.93062 2.11636 98 99 91 
0.179805 -0.806766 1.78823 31 26 20 
0.367963 -0.843273 1.95503 32 27 21 
0.152467 -0.787622 1.76808 24 17 9 
0.305513 -0.764796 1.81119 27 21 9 
0.114391 -0.785159 1.78482 14 9 3 
0.260189 -0.72768 1.72913 120 113 103 
0.323994 -0.753027 1.82462 40 31 26 
0.243096 -0.70047 1.70461 90 87 80 
0.272827 -0.676395 1.69857 140 133 123 
0.358741 -0.703148 1.82471 124 120 109 
0.396896 -0.710562 1.89101 38 33 30 
0.340817 -0.668665 1.76569 135 131 122 
0.419646 -0.656785 1.86352 22 18 9 
0.197498 -0.534268 1.6169 79 75 74 
0.376901 -0.500857 1.67422 119 112 102 
0.436367 -0.476488 1.73124 47 34 25 
0.365447 -0.451148 1.6544 15 12 5 
0.442548 -0.463098 1.74641 122 118 107 
0.235391 -0.445221 1.59474 16 9 0 
0.454746 -0.453425 1.76874 30 21 12 
0.457009 -0.431879 1.75832 8 3 0 
0.436853 -0.426573 1.72833 40 32 21 
0.242392 -0.403043 1.57435 30 27 18 
0.259843 -0.388535 1.5577 8 4 0 
0.278093 -0.392575 1.59285 102 98 86 
0.131478 -0.403916 1.56912 7 2 0 
0.058315 -0.396994 1.56644 3 0 0 
0.469692 -0.383668 1.78848 112 109 94 
0.405495 -0.367293 1.70096 26 17 8 
0.0758036 -0.361402 1.55007 12 9 0 
0.188397 -0.33432 1.50558 119 112 102 
0.265335 -0.332328 1.55152 8 3 0 
0.382484 -0.328876 1.65128 27 18 9 
0.13819 -0.337364 1.53101 135 131 120 
0.401757 -0.307998 1.67646 17 9 0 
0.23364 -0.305478 1.5382 10 0 0 
0.454426 -0.30702 1.76281 56 46 34 
0.360499 -0.29239 1.61375 101 91 82 
0.36752 -0.286571 1.605 124 111 103 
0.21294 -0.288782 1.52112 12 3 0 
-0.0573973 -0.324953 1.61569 10 8 9 
0.455969 -0.275587 1.75692 138 128 118 
0.3794 -0.251794 1.59471 139 129 119 
0.390255 -0.253773 1.6365 55 47 34 
0.265747 -0.244647 1.51697 30 20 10 
0.29171 -0.234957 1.55495 50 44 32 
0.389846 -0.215357 1.60983 8 0 0 
0.41086 -0.218514 1.67362 37 23 10 
0.463507 -0.205137 1.74848 45 36 21 
0.448087 -0.194452 1.71178 43 26 16 
0.211634 -0.1916 1.49692 19 6 0 
0.452207 -0.182458 1.72189 53 40 24 
0.445588 -0.164122 1.69605 49 40 25 
0.443447 -0.156092 1.67974 142 129 110 
0.282852 -0.150666 1.52324 33 20 4 
0.279932 -0.131617 1.48574 101 92 83 
0.292174 -0.119037 1.51116 13 3 0 
0.42083 -0.0698167 1.59016 144 131 112 
0.430321 -0.0679094 1.61558 71 55 32 
0.297048 -0.0720027 1.45022 104 94 82 
0.435699 -0.0601513 1.63042 143 128 107 
0.431223 -0.0576508 1.62157 73 58 35 
0.440095 -0.0508768 1.62994 81 65 49 
0.331324 -0.057328 1.50682 50 34 18 
0.261803 -0.0407934 1.44103 142 132 123 
0.447179 -0.0208803 1.64425 37 21 5 
0.274831 -0.0325833 1.45871 114 102 90 
0.270285 -0.0266979 1.44666 35 27 16 
0.415301 -0.00733604 1.5663 151 139 115 
0.33607 -0.0075874 1.48792 18 6 0 
0.404634 0.00535432 1.56848 48 32 6 
0.455404 0.0380508 1.6662 130 117 98 
0.406422 0.0429284 1.53841 128 116 92 
0.404556 0.0529307 1.53557 65 54 34 
0.367978 0.0681212 1.48848 66 53 34 
0.429917 0.0930906 1.57463 151 138 121 
0.279326 0.0726743 1.43299 12 4 0 
0.321165 0.0902488 1.4611 20 6 0 
0.403733 0.102694 1.51143 144 136 117 
0.313982 0.103759 1.43104 26 16 7 
0.275602 0.104995 1.41719 107 97 87 
0.399011 0.136238 1.50216 49 39 27 
0.377305 0.132638 1.46296 10 0 0 
0.437821 0.154376 1.5636 35 22 3 
0.341478 0.140389 1.43433 78 71 53 
0.435193 0.161957 1.54269 26 13 0 
-0.0654999 0.1152 1.43624 15 12 7 
0.346293 0.149499 1.41971 50 47 30 
0.12147 0.173309 1.32526 82 69 53 
0.289064 0.216683 1.37518 10 0 0 
0.326313 0.22578 1.38244 61 49 33 
0.43273 0.260193 1.51262 43 34 17 
0.423495 0.261883 1.47697 65 53 39 
0.207555 0.21886 1.30722 23 13 3 
0.288517 0.239016 1.34017 48 40 27 
0.352697 0.271655 1.36778 115 106 91 
0.258195 0.25363 1.30752 134 127 111 
0.0128771 0.24311 1.31581 102 97 93 
-0.0725212 0.253978 1.37901 27 23 14 
0.293894 0.268081 1.335 123 115 102 
0.448284 0.315919 1.46682 55 45 35 
0.400373 0.299978 1.39043 131 120 102 
0.41537 0.314077 1.44093 25 14 0 
0.281667 0.281224 1.29887 30 24 10 
0.253636 0.29273 1.28362 66 60 46 
0.462005 0.386199 1.48732 51 42 25 
0.348794 0.360494 1.31905 60 48 36 
0.175943 0.364384 1.22825 52 46 34 
0.109696 0.364546 1.23366 10 7 0 
0.401462 0.410734 1.34304 135 122 105 
0.0936247 0.36518 1.22632 3 0 0 
0.286707 0.389238 1.25577 130 124 112 
0.00389576 0.39248 1.24307 89 86 77 
0.458612 0.468232 1.39604 111 107 98 
0.385053 0.434702 1.29518 76 74 62 
0.342559 0.425549 1.26922 35 27 16 
0.273586 0.411838 1.22446 127 119 106 
0.283359 0.418238 1.22828 148 144 133 
0.0984648 0.409438 1.19859 22 17 11 
0.340631 0.445688 1.25056 38 30 19 
0.167891 0.433177 1.18605 18 15 8 
0.116014 0.445092 1.18373 130 123 104 
0.0107523 0.455727 1.20623 154 145 128 
-0.0204346 0.459513 1.21275 125 123 110 
0.269106 0.445594 1.16384 56 44 28 
0.293191 0.459859 1.17377 96 93 86 
0.172455 0.455109 1.14221 108 105 90 
0.0350393 0.481765 1.14038 22 15 5 
0.292641 -0.950117 1.94775 127 123 114 
0.137462 -0.897158 1.83581 50 37 29 
0.303719 -0.900297 1.91185 20 15 9 
0.027112 -0.92638 1.92412 20 9 5 
0.376579 -0.900213 2.01425 226 230 229 
0.13654 -0.820093 1.76759 41 27 18 
0.334781 -0.830562 1.89926 124 119 113 
0.257491 -0.742591 1.76444 145 139 127 
0.338206 -0.681821 1.77703 27 23 14 
0.178366 -0.668843 1.68916 109 105 96 
0.401442 -0.460114 1.70132 47 40 34 
0.344196 -0.443185 1.63863 2 2 0 
0.385623 -0.435204 1.68439 143 139 130 
0.326578 -0.423927 1.62959 6 2 0 
0.388765 -0.409657 1.68318 7 0 0 
0.444784 -0.411426 1.73393 1 2 0 
0.314023 -0.377257 1.62424 16 8 0 
0.351792 -0.352351 1.63514 39 29 17 
0.459687 -0.356315 1.80364 3 0 0 
0.419997 -0.335537 1.69467 152 143 134 
0.435799 -0.324125 1.72345 32 23 14 
0.19916 -0.315808 1.54396 65 56 49 
0.241325 -0.239935 1.4876 95 88 78 
0.389646 -0.211291 1.58279 10 5 1 
0.219983 -0.212854 1.51176 117 110 100 
0.26158 -0.167675 1.48297 15 11 2 
0.324021 -0.0610303 1.51896 147 133 120 
0.359701 -0.0143362 1.54213 17 0 0 
0.425342 0.01621 1.59553 76 58 44 
0.427827 0.0174816 1.58397 56 43 26 
0.365825 0.0276026 1.5026 67 39 27 
0.0964111 0.0126559 1.40908 5 2 0 
0.323251 0.054992 1.45531 84 71 54 
0.231218 0.0763743 1.38931 129 121 108 
0.294625 0.104718 1.413 12 5 0 
0.304229 0.132089 1.43339 26 17 2 
0.456343 0.205294 1.58935 197 185 169 
0.419988 0.211543 1.49367 57 45 31 
0.0874856 0.197731 1.30088 132 129 120 
0.145665 0.214989 1.31149 103 96 88 
0.128329 0.219253 1.30154 26 23 16 
0.20996 0.273024 1.29249 55 53 41 
0.427964 0.325731 1.44853 107 95 79 
0.394804 0.371144 1.37116 67 59 40 
-0.0658108 0.344131 1.32597 111 106 100 
0.382093 0.407215 1.31331 38 30 19 
0.46322 0.468202 1.43776 9 4 0 
0.295525 0.411463 1.24159 143 135 124 
0.303369 0.427639 1.23863 20 16 4 
-0.0112794 0.437703 1.21743 154 145 138 
0.181105 0.445064 1.20923 117 113 104 
0.250134 0.484386 1.14118 129 123 107 
0.243511 -0.837398 1.80067 115 106 101 
0.295901 -0.654513 1.6857 64 57 47 
0.379019 -0.500388 1.69114 18 9 0 
0.404258 -0.492094 1.71284 30 26 17 
0.0962039 -0.484923 1.57344 80 77 72 
0.13076 -0.4726 1.56341 3 0 0 
0.401462 -0.429596 1.67783 15 11 10 
0.327782 -0.433916 1.67625 9 6 1 
0.429678 -0.383569 1.70245 92 86 74 
0.400097 -0.376856 1.68375 124 120 109 
-0.0122817 -0.412849 1.61697 4 2 3 
0.426907 -0.369082 1.6979 2 2 2 
0.253148 -0.345886 1.61616 16 11 5 
0.160783 -0.318418 1.50195 115 106 97 
0.149201 -0.331624 1.56861 113 104 95 
0.265199 -0.302642 1.54787 73 69 60 
0.112681 -0.319764 1.54104 92 87 81 
0.420689 -0.120828 1.61965 54 39 18 
0.333009 -0.0406996 1.50505 124 114 102 
0.233345 -0.0482125 1.4468 36 26 16 
0.263497 -0.00374525 1.42949 11 0 0 
0.421842 0.094241 1.56581 59 51 32 
0.207098 0.161423 1.34399 127 121 105 
0.303973 0.200076 1.36986 46 34 20 
0.275567 0.233821 1.357 55 47 34 
0.308941 0.255191 1.34823 24 20 8 
0.324337 0.282465 1.33128 64 55 46 
0.252256 0.36143 1.2621 125 121 110 
0.261033 0.365818 1.25801 35 31 20 
0.383752 0.430438 1.30548 132 130 117 
0.167435 0.47936 1.14751 124 123 105 
0.125129 -0.676793 1.69616 61 58 53 
0.391662 -0.427364 1.69372 114 110 98 
0.429041 -0.415996 1.71539 3 0 0 
0.331582 -0.386228 1.54882 2 1 0 
0.324997 -0.41345 1.66233 4 3 1 
0.478473 -0.335344 1.86259 7 2 0 
0.28238 -0.164578 1.52841 124 114 102 
0.254037 -0.0125013 1.439 40 26 15 
0.322734 0.383095 1.29371 134 128 116 
0.492963 0.49798 1.48052 19 10 1 
0.389802 0.438052 1.30914 20 17 8 
0.326836 0.508153 1.17521 122 120 107 
0.147987 -1.7347 2.4785 41 45 46 
0.274217 -1.20944 2.1861 60 51 44 
0.281826 -1.18665 2.17457 139 130 121 
0.288406 -1.15747 2.15731 44 40 29 
0.216924 -1.0648 1.9907 42 32 22 
0.301732 -1.12486 2.14341 154 147 137 
0.187538 -1.05236 1.98033 35 31 22 
0.205563 -1.04516 1.97503 83 76 68 
0.207105 -1.02775 1.9609 20 14 2 
0.329445 -1.02522 2.09036 42 32 20 
0.250047 -0.940912 1.89775 129 120 113 
0.136008 -0.927494 1.83882 129 124 118 
0.18642 -0.889169 1.82759 108 97 95 
0.200655 -0.888318 1.83172 37 29 26 
0.15055 -0.874282 1.82231 56 39 29 
0.249339 -0.849002 1.82914 131 127 115 
0.149213 -0.856776 1.81557 74 51 45 
0.0705297 -0.858304 1.82691 146 143 136 
0.214165 -0.776797 1.77206 36 32 21 
0.172526 -0.76499 1.75939 132 128 117 
0.210912 -0.74435 1.74663 158 154 151 
0.104407 -0.758702 1.75218 99 94 90 
0.221552 -0.731045 1.73821 48 45 40 
0.202399 -0.725917 1.73068 16 11 7 
0.0962034 -0.745216 1.74457 47 38 31 
0.061946 -0.735905 1.73314 143 138 135 
0.208522 -0.704299 1.71921 41 38 31 
0.264805 -0.6899 1.71023 165 162 153 
0.0615138 -0.724782 1.7254 127 123 114 
0.250049 -0.683258 1.70707 121 116 110 
0.0992885 -0.708734 1.71376 70 62 59 
0.230378 -0.683397 1.70455 40 35 29 
0.241538 -0.672272 1.6928 122 117 111 
0.199658 -0.681152 1.70268 145 141 130 
0.146524 -0.690475 1.70492 50 46 37 
0.277046 -0.663005 1.69464 46 43 28 
0.248637 -0.6635 1.69318 37 33 24 
0.0593841 -0.694591 1.70302 139 130 121 
0.213334 -0.604001 1.62779 39 35 23 
0.15152 -0.598015 1.61325 117 114 107 
0.0922447 -0.606644 1.62044 96 88 77 
0.260288 -0.538508 1.60104 66 63 58 
0.216522 -0.532365 1.58342 22 17 13 
0.17054 -0.530669 1.57727 23 22 17 
0.325154 -0.518697 1.62661 138 134 131 
0.235279 -0.519981 1.58563 50 45 39 
0.370413 -0.518884 1.66193 84 79 75 
0.244276 -0.515 1.5873 98 88 79 
0.312713 -0.509148 1.61648 41 38 33 
0.224287 -0.507729 1.57744 137 133 122 
0.283468 -0.503769 1.59902 134 127 117 
0.262706 -0.498981 1.58634 117 110 104 
0.239982 -0.499746 1.58165 12 5 0 
0.348434 -0.496741 1.63444 92 87 81 
0.206753 -0.496274 1.56738 137 128 123 
0.145368 -0.50104 1.56531 66 63 54 
0.183719 -0.494175 1.56359 60 56 53 
0.0886062 -0.50992 1.57632 18 13 7 
0.398465 -0.490589 1.68413 16 13 4 
0.229296 -0.482491 1.56879 7 0 0 
0.190325 -0.485639 1.56355 6 0 0 
0.336356 -0.474593 1.61888 11 7 0 
0.112078 -0.492566 1.56464 34 29 23 
0.324318 -0.471449 1.60923 27 24 15 
0.232959 -0.470954 1.56476 15 6 0 
0.0499134 -0.502363 1.58606 80 75 71 
0.40952 -0.474835 1.69269 57 53 44 
0.370911 -0.461168 1.64012 3 1 0 
0.291419 -0.458828 1.5881 104 96 93 
0.331341 -0.459092 1.61423 60 57 52 
0.0783616 -0.473664 1.564 41 30 26 
0.222535 -0.445732 1.55185 129 126 119 
0.17039 -0.445944 1.54769 115 110 106 
0.205973 -0.439452 1.54952 101 96 93 
0.26078 -0.435303 1.56344 4 0 0 
0.425829 -0.4429 1.70334 149 145 134 
0.043891 -0.461538 1.57382 6 3 0 
0.390063 -0.428952 1.65301 107 102 96 
0.129384 -0.439301 1.54468 95 92 87 
0.0112056 -0.457392 1.5867 103 100 91 
0.248773 -0.410009 1.54874 98 94 91 
0.269604 -0.408093 1.56117 38 33 27 
0.224382 -0.407269 1.54085 101 93 90 
0.214885 -0.403303 1.53733 25 17 14 
0.249092 -0.399435 1.54525 36 33 26 
0.316971 -0.398655 1.60487 65 60 54 
0.345241 -0.398243 1.62472 92 88 77 
0.23182 -0.390829 1.53488 113 110 105 
0.333682 -0.393861 1.61043 100 95 89 
0.305013 -0.391629 1.59035 45 36 27 
0.41607 -0.401258 1.70231 71 65 65 
0.373588 -0.38814 1.64218 5 2 0 
0.282474 -0.384348 1.5743 119 115 103 
0.302451 -0.382679 1.58231 53 47 35 
0.184748 -0.385716 1.52466 30 25 21 
0.22785 -0.379745 1.52869 37 33 30 
0.359486 -0.377381 1.62719 38 30 19 
0.315184 -0.374683 1.58988 131 123 112 
0.375616 -0.375161 1.64543 23 14 5 
0.297292 -0.369481 1.57735 165 159 147 
0.163123 -0.373771 1.51699 114 107 99 
0.389969 -0.370718 1.65839 24 17 7 
0.179142 -0.366016 1.51798 23 18 14 
0.348329 -0.359848 1.60725 71 62 53 
0.252705 -0.355723 1.53143 116 113 106 
0.363467 -0.358695 1.62396 128 120 107 
0.324712 -0.356437 1.59108 46 33 25 
0.184784 -0.355531 1.51199 118 114 105 
0.41833 -0.360705 1.6935 115 106 97 
0.281819 -0.348672 1.56164 9 0 0 
0.158262 -0.352808 1.51098 135 126 121 
0.302333 -0.345347 1.56939 76 64 52 
0.203202 -0.344521 1.51134 9 2 0 
-0.0162466 -0.391593 1.60185 96 92 89 
0.311575 -0.342387 1.5757 66 54 40 
0.382971 -0.339575 1.63885 31 21 11 
0.353673 -0.337662 1.61207 16 8 0 
0.209507 -0.336683 1.50904 33 30 23 
0.283262 -0.333441 1.55224 112 99 91 
0.219802 -0.333471 1.51149 139 136 127 
0.375193 -0.332366 1.62664 139 129 117 
0.337906 -0.328218 1.59083 115 107 96 
0.262564 -0.32163 1.51836 47 38 29 
0.301942 -0.318409 1.55753 126 114 102 
0.254669 -0.315109 1.51601 16 7 0 
0.325376 -0.316657 1.57313 57 47 35 
0.35541 -0.317563 1.6001 138 132 118 
0.240897 -0.312395 1.50617 131 118 112 
0.433582 -0.321768 1.69924 121 112 103 
0.17587 -0.317886 1.4984 17 10 0 
0.282642 -0.312855 1.54898 33 23 13 
0.317067 -0.310605 1.56631 24 17 7 
0.34462 -0.309526 1.59056 28 15 7 
0.263043 -0.30514 1.5099 20 13 5 
0.325682 -0.305383 1.56779 133 123 111 
0.210173 -0.306489 1.50005 13 4 0 
0.313603 -0.302484 1.56 7 0 0 
-0.134448 -0.390734 1.72977 82 78 75 
0.389413 -0.302999 1.62796 7 1 0 
0.174686 -0.305266 1.49032 94 89 83 
0.305974 -0.298167 1.55394 143 133 121 
0.329046 -0.293221 1.56681 112 104 93 
0.24884 -0.289523 1.50165 12 3 0 
0.393361 -0.292509 1.63312 106 98 87 
0.15605 -0.297669 1.48879 70 66 63 
0.187739 -0.292946 1.48632 125 121 112 
0.320083 -0.287139 1.56006 105 97 86 
0.332136 -0.283239 1.56767 18 10 0 
0.265984 -0.279897 1.50599 15 6 0 
0.241111 -0.280742 1.49486 33 20 11 
0.343593 -0.276852 1.57609 141 128 119 
0.15663 -0.28526 1.48433 21 14 6 
0.361232 -0.27577 1.58899 113 106 96 
0.318755 -0.274378 1.55252 130 120 110 
0.375164 -0.272529 1.6042 29 21 8 
0.314745 -0.26659 1.54722 55 45 35 
0.390045 -0.267394 1.62159 47 33 22 
0.386382 -0.266307 1.61264 131 119 105 
0.216519 -0.26745 1.48132 121 113 102 
0.203651 -0.266385 1.48136 6 0 0 
0.229479 -0.263983 1.48613 14 4 0 
0.338629 -0.259632 1.56265 36 27 12 
0.269731 -0.256956 1.49871 126 118 105 
0.37081 -0.257606 1.59136 34 26 15 
0.254824 -0.24933 1.48758 21 12 3 
0.392016 -0.2497 1.61386 55 47 34 
0.341971 -0.247773 1.56115 37 23 12 
0.0229697 -0.281493 1.53712 100 96 93 
0.322515 -0.239389 1.53969 32 16 1 
-0.0803849 -0.299855 1.62149 14 10 7 
0.160824 -0.249114 1.47124 30 22 11 
0.261459 -0.234544 1.48629 33 23 13 
0.396588 -0.235197 1.61584 34 20 11 
0.31089 -0.233153 1.53401 33 23 11 
0.148911 -0.241798 1.46766 89 82 74 
0.289744 -0.231691 1.52006 126 122 113 
0.103131 -0.245233 1.4716 101 95 83 
0.136024 -0.240385 1.4678 23 19 8 
0.338509 -0.22145 1.54514 26 14 0 
0.429042 -0.221477 1.66975 36 22 9 
0.34937 -0.214754 1.55353 154 144 132 
0.281529 -0.211603 1.50714 46 37 28 
0.304971 -0.207765 1.5188 7 0 0 
0.444529 -0.210786 1.6897 42 28 17 
0.201528 -0.209504 1.45771 114 105 96 
0.358549 -0.201826 1.55685 16 4 0 
0.437357 -0.204705 1.66536 67 50 40 
0.405127 -0.200832 1.61562 51 41 29 
0.341252 -0.199405 1.54147 32 23 8 
0.350767 -0.198794 1.54986 59 50 35 
0.234498 -0.198877 1.46135 69 59 50 
0.358643 -0.188989 1.55552 26 9 0 
0.211709 -0.193031 1.45433 104 100 89 
0.328658 -0.185568 1.52417 112 103 86 
0.31096 -0.182431 1.51235 68 58 46 
0.350732 -0.181257 1.54376 54 40 14 
0.223817 -0.186618 1.45425 29 19 7 
0.34026 -0.180333 1.52999 11 0 0 
0.278759 -0.179887 1.49198 121 114 104 
0.158542 -0.187206 1.44385 103 94 85 
0.241136 -0.178736 1.45474 62 52 42 
0.146614 -0.187691 1.44567 90 85 79 
0.256947 -0.175748 1.45892 23 19 8 
0.295996 -0.175255 1.50118 76 62 49 
0.35531 -0.164053 1.54082 133 117 92 
0.328688 -0.1643 1.51639 153 139 126 
0.238363 -0.166933 1.44888 22 12 3 
0.219456 -0.166132 1.44637 24 15 6 
0.302445 -0.161733 1.50134 139 127 103 
0.334417 -0.154287 1.51868 38 26 12 
0.285326 -0.155976 1.48166 8 0 0 
0.245764 -0.157306 1.44773 45 35 23 
0.31568 -0.150579 1.50451 29 16 0 
0.208345 -0.157086 1.43802 48 37 31 
0.292525 -0.146698 1.4869 22 9 0 
0.333852 -0.144053 1.5134 66 54 40 
0.347401 -0.138244 1.5201 126 117 102 
0.239851 -0.143062 1.44432 17 7 0 
0.250552 -0.13934 1.44092 57 48 39 
0.140733 -0.149308 1.42995 122 118 107 
0.317499 -0.133216 1.49562 43 33 21 
0.339022 -0.130323 1.51184 10 1 0 
0.164148 -0.141997 1.4249 59 55 46 
0.345802 -0.12035 1.51216 28 12 0 
0.250194 -0.125146 1.43739 15 5 0 
0.269285 -0.122847 1.44584 161 153 140 
0.29478 -0.121921 1.47745 81 72 55 
0.229311 -0.125549 1.43136 153 143 133 
0.431866 -0.11397 1.62183 41 28 11 
0.322626 -0.114277 1.49389 62 52 42 
0.308448 -0.113593 1.48265 134 121 112 
0.335664 -0.111059 1.50054 45 34 16 
0.435449 -0.10715 1.63284 149 137 121 
0.327074 -0.104145 1.48359 51 45 33 
0.327184 -0.104373 1.49451 11 3 0 
0.231899 -0.106385 1.42395 90 80 71 
0.285568 -0.101365 1.46628 31 23 10 
0.215086 -0.106015 1.41893 126 113 104 
0.301038 -0.0991473 1.47342 28 12 0 
0.337753 -0.094689 1.49401 41 28 12 
0.395627 -0.0913266 1.57776 126 103 89 
0.30902 -0.0941192 1.47695 38 26 14 
0.320483 -0.0901986 1.48389 136 124 110 
0.110712 -0.108886 1.41728 25 18 12 
0.264223 -0.0881643 1.42801 54 48 36 
0.310043 -0.0840288 1.47213 26 13 0 
0.399489 -0.0757164 1.57118 109 92 64 
0.418839 -0.0737186 1.58112 66 51 30 
0.343239 -0.0766464 1.49254 28 14 3 
0.305414 -0.0765665 1.46645 34 24 12 
0.325524 -0.0752852 1.47874 66 53 37 
0.441621 -0.0604468 1.62752 65 50 31 
0.223537 -0.0754303 1.40881 133 119 106 
0.254121 -0.0601884 1.4129 49 39 29 
0.270931 -0.0528078 1.41914 35 26 11 
0.219226 -0.0569876 1.40116 125 112 104 
0.308622 -0.0438698 1.45501 61 52 37 
0.31784 -0.0418802 1.46034 160 148 134 
0.322688 -0.0359019 1.46678 41 29 13 
0.232518 -0.0405732 1.39817 60 51 36 
0.315686 -0.0243379 1.45553 151 136 117 
0.303614 -0.0216533 1.44389 169 160 145 
0.260126 -0.0213302 1.39842 148 134 121 
0.351743 -0.00297002 1.47056 146 133 117 
-0.0172746 -0.0358506 1.45767 8 1 0 
0.413298 0.0080572 1.5397 42 28 2 
0.322052 0.000258609 1.44649 119 110 95 
0.316799 0.00693085 1.44129 39 27 13 
0.332261 0.027554 1.44519 34 20 7 
0.365127 0.0357806 1.46923 30 18 2 
0.37472 0.0489219 1.4763 116 104 92 
0.296576 0.0430674 1.41041 96 83 75 
0.382555 0.0587737 1.48035 159 147 133 
0.375567 0.0665384 1.46965 48 33 12 
0.356699 0.0778923 1.44595 46 38 19 
0.395325 0.0850711 1.48624 145 131 118 
0.368519 0.0821287 1.45448 14 4 0 
0.362637 0.0871531 1.44714 133 124 109 
0.436504 0.114344 1.54766 153 140 124 
0.426223 0.119236 1.52369 40 28 12 
0.435352 0.126561 1.54135 134 122 100 
0.287204 0.102051 1.38776 33 23 13 
0.142365 0.0858875 1.33677 116 109 101 
0.438735 0.145341 1.53763 33 20 1 
0.393675 0.136189 1.46429 50 38 24 
0.442472 0.175065 1.53505 50 37 20 
0.378296 0.170095 1.43075 71 62 45 
0.361877 0.208551 1.3934 86 77 60 
0.429746 0.229154 1.48602 62 49 32 
0.370471 0.222838 1.40167 61 53 32 
0.348147 0.221167 1.38281 107 97 85 
0.0103342 0.201632 1.34712 96 91 87 
0.446347 0.260661 1.51148 16 10 0 
0.431692 0.27118 1.4699 40 31 16 
0.396628 0.261109 1.40236 22 15 0 
0.393358 0.265381 1.39069 66 57 42 
0.448833 0.303152 1.46443 47 41 29 
0.166768 0.259392 1.27035 99 95 83 
0.430385 0.314677 1.41432 50 41 26 
0.426134 0.323305 1.4034 69 56 37 
0.244341 0.298028 1.26437 139 133 119 
0.399774 0.350641 1.35842 69 62 44 
0.219119 0.317127 1.25138 43 36 26 
0.414728 0.369018 1.37556 45 38 22 
0.160746 0.320037 1.23791 139 136 121 
0.223437 0.329325 1.25094 130 117 108 
0.44036 0.403036 1.40548 60 48 34 
0.283983 0.354011 1.2633 94 87 69 
0.377902 0.400922 1.29319 59 52 36 
0.302874 0.387489 1.23131 145 142 127 
0.366265 0.45598 1.24885 123 123 113 
0.383294 0.487852 1.20244 99 95 84 
0.290095 0.464903 1.14887 122 120 107 
0.132376 0.472739 1.12364 91 84 66 
0.301599 0.489614 1.14356 40 33 17 
0.245487 -1.09951 2.03818 61 52 35 
0.24472 -1.00339 1.95099 111 103 100 
0.250385 -0.605453 1.63364 68 58 48 
0.103337 -0.564655 1.58599 120 115 109 
0.34161 -0.51666 1.63766 96 88 85 
0.30469 -0.506037 1.60889 3 0 0 
0.320363 -0.453543 1.59715 103 100 93 
0.176153 -0.460501 1.55194 83 75 73 
0.356025 -0.452288 1.62766 51 46 40 
0.330166 -0.416098 1.59678 6 1 0 
0.442734 -0.408267 1.71551 107 100 92 
0.466536 -0.409415 1.76678 9 0 0 
0.087803 -0.396198 1.53333 112 108 99 
0.469378 -0.392866 1.77227 93 88 82 
0.400588 -0.369824 1.67052 56 49 39 
0.370915 -0.351292 1.62676 144 135 126 
0.289844 -0.338647 1.55879 135 127 116 
0.198032 -0.335188 1.50528 148 139 130 
0.417231 -0.323972 1.68055 131 123 112 
0.423715 -0.295945 1.67687 47 37 25 
0.414906 -0.286519 1.66038 55 43 29 
0.18281 -0.278358 1.47737 126 117 110 
0.0811479 -0.284921 1.49015 7 0 0 
0.304145 -0.262941 1.53931 43 31 17 
0.11532 -0.269186 1.47883 120 111 104 
0.231486 -0.252171 1.48022 34 24 14 
0.372624 -0.24583 1.58976 136 129 113 
0.442472 -0.250784 1.70103 60 48 32 
0.399291 -0.24447 1.62263 136 126 114 
0.325474 -0.223614 1.53654 129 120 105 
0.301196 -0.22247 1.51886 124 114 104 
0.343579 -0.209386 1.5451 128 116 102 
0.267643 -0.198421 1.47089 26 22 10 
0.25649 -0.19543 1.46723 25 17 6 
-0.0590787 -0.228484 1.57332 10 6 3 
0.431416 -0.150045 1.63834 58 47 29 
0.235465 -0.154032 1.44361 130 120 111 
0.203531 -0.139505 1.43064 128 122 110 
0.357895 -0.117697 1.52481 15 0 0 
0.199643 -0.127167 1.4252 110 101 92 
0.420018 -0.0991396 1.59922 148 132 109 
0.443659 -0.0791157 1.639 22 6 0 
0.240705 -0.0851057 1.41698 31 21 12 
0.205234 -0.0834175 1.40639 18 9 0 
0.397918 -0.0660972 1.56848 24 4 0 
0.122715 -0.0480632 1.38473 95 88 82 
0.420997 0.0196899 1.54858 69 56 40 
0.438641 0.022197 1.58964 53 41 25 
0.332693 0.04928 1.43655 75 64 46 
0.209294 0.0525673 1.35367 124 116 105 
0.387135 0.100479 1.47332 121 111 99 
0.345291 0.104328 1.42018 151 139 125 
0.416177 0.157976 1.4884 21 11 0 
0.324601 0.1889 1.37297 142 133 118 
0.421207 0.267809 1.4435 139 127 111 
0.346359 0.25514 1.34728 20 17 2 
0.425535 0.28344 1.42926 50 37 18 
0.408404 0.290221 1.39344 151 138 122 
0.337959 0.365285 1.29681 73 61 47 
0.15681 0.390954 1.19101 25 21 12 
0.086998 0.404209 1.19424 19 15 4 
0.378724 0.447696 1.26443 142 138 126 
0.265407 0.430855 1.19666 118 114 103 
0.388511 0.465044 1.20521 39 30 13 
0.300905 0.476399 1.15286 96 91 71 
0.288745 0.486602 1.13809 126 123 106 
0.275326 0.486844 1.13516 123 119 108 
0.425631 0.527516 1.17378 70 64 50 
0.415365 0.526105 1.1557 124 118 104 
0.318845 0.505517 1.1009 139 141 92 
0.249051 -1.078 2.02367 132 122 110 
0.239879 -1.04769 1.98499 51 43 32 
0.293465 -1.06838 2.07716 46 38 27 
0.175571 -0.890679 1.82908 121 111 99 
0.12638 -0.86112 1.81287 42 28 17 
0.0888873 -0.8296 1.79258 98 94 85 
0.229277 -0.745555 1.74938 109 105 96 
0.120425 -0.700116 1.70648 123 119 110 
0.274507 -0.518637 1.59854 109 100 91 
0.258814 -0.515436 1.59148 16 9 0 
0.376538 -0.434295 1.63499 57 56 51 
0.455192 -0.450966 1.7592 30 21 12 
0.258993 -0.390905 1.54618 136 131 127 
0.196749 -0.386275 1.52489 117 110 102 
0.126647 -0.390756 1.51901 7 2 0 
0.399673 -0.382477 1.68118 11 5 0 
0.246879 -0.36892 1.53191 31 27 18 
0.301151 -0.357824 1.57368 51 39 27 
0.407353 -0.361939 1.6769 26 17 8 
0.143019 -0.362962 1.51669 36 29 23 
0.401782 -0.316467 1.65082 137 130 120 
0.417421 -0.313007 1.6751 55 47 36 
0.194933 -0.305714 1.48941 31 22 15 
0.455009 -0.304821 1.75018 56 46 34 
0.352392 -0.283795 1.58375 122 112 102 
0.397651 -0.283336 1.63403 50 42 29 
0.193402 -0.281107 1.48664 108 103 97 
0.257418 -0.266379 1.49334 47 37 27 
0.419186 -0.248492 1.65611 53 42 24 
0.390517 -0.214625 1.60279 8 0 0 
0.357823 -0.142578 1.53342 25 10 0 
0.42183 -0.120224 1.61245 48 33 12 
0.221048 -0.0985572 1.4153 54 44 35 
0.324739 -0.0612513 1.47465 120 110 98 
0.408886 -0.0396209 1.55152 135 120 91 
0.407149 -0.0286758 1.54819 37 22 0 
0.430888 0.0767848 1.55618 158 146 122 
0.437539 0.105978 1.55482 126 115 97 
0.293802 0.0955597 1.38193 8 0 0 
0.401839 0.191806 1.44988 132 120 104 
0.107861 0.176664 1.2892 15 6 0 
0.0287946 0.239467 1.30541 145 140 137 
0.372174 0.343177 1.33621 153 141 125 
0.0914104 0.316932 1.24795 39 35 26 
0.00346784 0.354579 1.26215 29 26 21 
-0.0276624 0.363813 1.28161 137 133 124 
0.344854 0.381107 1.28336 40 32 19 
0.179531 0.424248 1.17966 145 140 134 
0.369505 0.468493 1.1977 44 44 36 
0.306372 0.468366 1.1567 138 137 119 
0.109411 0.456487 1.13181 101 93 80 
0.114625 0.478943 1.1207 37 30 14 
0.325038 0.500026 1.15165 107 105 92 
0.213575 0.480596 1.10244 10 5 0 
0.236862 0.489135 1.11987 130 123 107 
0.108296 0.48636 1.11388 112 109 90 
0.19148 0.486079 1.1128 154 147 131 
0.279679 0.497101 1.12167 145 139 115 
0.159704 -1.7642 2.50845 141 145 148 
0.12849 -1.72328 2.4615 218 218 220 
0.322504 -0.909787 1.97166 3 0 0 
0.107682 -0.464811 1.54293 33 32 28 
0.458022 -0.43171 1.75946 11 6 2 
0.00234256 -0.44952 1.59136 2 0 1 
0.152291 -0.397337 1.52144 138 133 129 
0.192688 -0.374834 1.52283 61 57 54 
0.250464 -0.363347 1.5239 118 114 105 
0.143921 -0.316945 1.49319 11 6 2 
0.207651 -0.29584 1.48961 86 83 74 
0.400603 -0.26203 1.63951 130 121 104 
0.408238 -0.239863 1.63606 73 59 46 
0.419149 -0.181908 1.62962 36 28 15 
0.268292 -0.172771 1.465 33 25 14 
0.230945 -0.0353565 1.38537 26 12 0 
0.393952 0.0379091 1.52716 68 51 33 
-0.0381214 0.267415 1.32952 101 94 88 
0.403884 0.370895 1.35926 66 53 36 
0.28717 0.450172 1.18556 135 132 117 
0.146042 0.437944 1.13355 165 157 134 
0.376363 0.514594 1.15299 50 48 23 
0.320709 0.50455 1.11982 171 172 141 
0.103497 -1.5516 2.37129 79 68 64 
0.301499 -0.71712 1.76459 70 64 50 
0.272198 -0.646787 1.67887 157 145 131 
0.278828 -0.475392 1.58391 11 7 0 
0.347122 -0.436494 1.62315 3 2 0 
0.430122 -0.381885 1.69528 92 86 74 
-0.0751537 -0.4324 1.63844 5 1 0 
0.286073 -0.368698 1.56768 128 125 120 
0.182081 -0.0977234 1.40819 34 30 21 
0.268615 0.0195656 1.3916 56 48 37 
0.21041 0.366569 1.21277 51 44 34 
0.367714 0.511605 1.16959 55 53 38 
0.129249 -1.64968 2.39521 139 136 129 
0.198558 -1.00477 1.92918 55 51 50 
0.393504 -0.422283 1.67269 114 110 98 
0.328691 -0.391647 1.57025 2 1 0 
