ply                 
format ascii 1.0    
element vertex 73
property float x    
property float y    
property float z    
property uchar red  
property uchar green
property uchar blue 
end_header          
0.132887 -1.60659 2.4325 36 32 23 
-0.0807967 -0.470375 1.63088 98 93 90 
0.00917333 -0.359216 1.54869 122 118 115 
-0.110236 -0.342508 1.64387 4 0 0 
6.60243e-05 -0.257038 1.51019 83 82 78 
-0.00175669 -0.25657 1.51112 3 0 0 
-0.016132 -0.189783 1.49138 68 65 58 
-0.00920531 -0.150788 1.46854 19 14 10 
-0.0114516 -0.149537 1.46803 5 1 0 
-0.00884127 -0.147218 1.4679 89 84 80 
0.0207684 -0.0542665 1.41583 16 9 1 
0.0388001 -0.0334819 1.3993 4 0 0 
-0.1049 -0.0172514 1.50431 98 93 89 
-0.0104047 -0.0147003 1.41437 14 7 0 
0.0310482 -0.00828398 1.3924 110 101 96 
-0.0863202 0.00772447 1.4704 13 8 2 
-0.0125873 0.027013 1.39855 63 60 55 
-0.0438691 0.0711973 1.40038 77 72 66 
-0.0767167 0.154876 1.40004 128 125 118 
-0.00410957 0.165423 1.33489 6 1 0 
-0.00959583 0.181044 1.33246 18 11 1 
-0.00626164 0.182406 1.33181 105 95 93 
0.0144804 0.190369 1.31739 4 1 0 
0.0768479 0.196246 1.2748 6 2 0 
-0.00262935 0.233099 1.29421 136 132 123 
0.000928307 0.250401 1.27579 105 100 96 
-0.0323129 0.265833 1.28945 81 78 73 
-0.0511211 0.298966 1.29059 31 26 20 
-0.0968257 0.320849 1.32754 111 106 100 
-0.0599236 0.318163 1.29192 13 6 0 
-0.0440296 0.431029 1.20938 100 93 83 
-0.0449195 0.440181 1.15919 153 147 133 
-0.109019 0.468161 1.19901 96 89 79 
-0.00234045 -0.255439 1.51086 15 12 7 
-0.0937152 -0.13818 1.54085 120 117 112 
-0.00279933 -0.124854 1.45545 5 0 0 
0.0924898 -0.103933 1.39866 6 1 0 
0.0385256 -0.0333115 1.39897 4 0 0 
0.0186908 0.12897 1.33859 4 0 0 
-0.0315327 0.139928 1.36407 84 75 70 
0.0113549 0.155758 1.33209 10 6 0 
0.0161116 0.180702 1.31819 7 0 0 
0.0178082 0.190233 1.31554 91 80 74 
-0.0147899 0.196501 1.33063 99 90 85 
0.0768448 0.196258 1.27479 6 2 0 
0.0857243 0.24017 1.25263 7 4 0 
-0.00412474 0.277148 1.26924 6 3 0 
-0.102283 0.483167 1.18395 99 89 77 
-0.113232 0.488942 1.19485 82 73 58 
-0.00113137 -0.256498 1.51251 3 0 0 
0.0461034 -0.205875 1.46833 14 11 6 
0.0374556 -0.199483 1.47094 15 12 7 
0.0777272 -0.0966599 1.39778 5 0 0 
-0.00913818 -0.0234912 1.4163 19 15 6 
0.0128281 0.116984 1.34419 22 13 6 
-0.020358 0.256474 1.28559 95 90 87 
-0.0375577 0.267147 1.29201 137 132 126 
-0.0174206 0.318215 1.25999 38 34 25 
-0.0294545 0.440958 1.14844 85 76 67 
0.116186 0.435194 1.11944 117 114 99 
-0.0978864 0.466171 1.1872 121 113 102 
-0.0441075 0.479602 1.13826 135 125 115 
0.100152 -0.0819007 1.38758 105 101 92 
-0.0436868 0.0775225 1.39764 120 115 109 
-0.0298719 0.0929887 1.38213 13 10 1 
-0.0173173 0.318343 1.26004 38 34 25 
0.0432881 0.411883 1.1742 4 0 0 
-0.0641916 0.448748 1.16972 56 48 37 
-0.0164394 0.467297 1.13074 106 96 86 
-0.0820338 0.483926 1.1664 49 41 30 
0.0877789 0.410639 1.16769 13 6 0 
0.00765677 -0.420431 1.55533 1 1 1 
0.00206636 -0.395726 1.56219 88 85 78 
