ply                 
format ascii 1.0    
element vertex 341
property float x    
property float y    
property float z    
property uchar red  
property uchar green
property uchar blue 
end_header          
0.441152 0.22166 2.7924 209 135 158 
0.0618912 0.244917 2.70428 158 131 112 
0.194098 0.263066 2.77551 106 60 44 
0.180388 0.265794 2.77362 80 33 15 
0.202275 0.257503 2.67509 70 27 11 
0.233253 0.268094 2.76813 82 47 27 
0.214844 0.269951 2.76777 50 13 0 
0.229333 0.266652 2.73204 178 145 126 
0.244821 0.270022 2.75678 75 38 19 
0.250297 0.273245 2.77604 96 51 32 
-0.0617446 -0.100228 2.95991 58 59 64 
0.240734 -0.0943164 3.0929 253 177 177 
0.241294 -0.0847341 3.08605 86 48 47 
0.137592 -0.0736643 3.08258 82 64 44 
0.197295 0.286922 2.75308 56 23 8 
0.292951 0.287762 2.74831 213 167 151 
0.227461 -0.0548271 3.06079 141 75 77 
0.278777 0.304289 2.73214 139 124 117 
0.269532 0.407746 2.63338 118 114 103 
0.195203 0.317919 2.72418 38 12 0 
0.227602 0.066765 2.79654 81 36 7 
0.251394 0.07917 2.8018 68 23 0 
0.296494 0.162999 2.79634 127 118 113 
0.206494 0.0883594 2.80313 62 17 0 
0.227513 0.35159 2.69035 138 146 131 
-0.00700374 0.101016 2.79166 59 15 0 
0.00571548 0.106501 2.79311 184 139 120 
0.00964071 0.106287 2.79158 58 2 0 
-0.00794955 0.109304 2.79226 48 5 0 
0.00378189 0.109133 2.79102 38 0 0 
-0.00183347 0.110321 2.79349 54 13 0 
0.299342 0.157458 2.79461 154 149 145 
0.468464 0.358277 2.66621 68 53 34 
0.470552 0.355297 2.66717 183 166 146 
0.193621 0.328502 2.71599 42 16 0 
0.119178 0.0984712 2.79927 97 9 0 
0.233995 0.0874684 2.80409 142 106 94 
0.366063 0.380793 2.65288 132 118 109 
0.223845 0.0725544 2.79862 77 26 0 
0.135082 0.406534 2.65062 52 16 2 
0.201704 0.259472 2.67956 95 49 34 
0.231304 0.363302 2.67999 119 132 123 
0.256917 0.340019 2.7028 129 143 120 
0.00569401 0.0980463 2.78997 59 11 0 
0.263344 0.308594 2.73027 28 8 0 
0.199842 0.184816 2.78328 255 255 251 
0.300546 0.298418 2.73912 146 119 112 
0.00295206 0.108695 2.78938 48 4 0 
0.000726807 0.107692 2.79354 176 137 120 
0.196392 0.0719567 2.79412 59 12 0 
-0.00517771 0.108255 2.79131 187 147 121 
0.227205 0.0661159 2.79814 54 10 0 
0.269216 0.404717 2.63359 104 94 84 
0.470062 0.35203 2.67057 41 2 0 
0.300743 -0.0427185 3.04808 76 47 31 
0.215543 -0.0605139 3.0705 88 44 35 
-0.218061 -0.971995 3.84874 73 35 0 
0.241175 -0.0851145 3.08513 83 41 42 
0.240456 -0.0944171 3.09221 253 177 177 
0.327073 0.457046 2.58651 76 5 21 
0.404003 -0.11091 2.93079 80 81 85 
0.437534 -0.133872 2.9408 70 74 77 
0.405967 -0.142938 2.94383 70 71 75 
0.220702 0.516416 2.52406 74 101 82 
0.160253 0.434234 2.62418 221 160 139 
0.141759 -0.0817211 3.08806 200 184 169 
0.154174 0.426996 2.63328 107 46 28 
0.128317 0.08589 2.79265 235 168 141 
0.467998 0.358449 2.66557 68 53 34 
0.150968 0.311198 2.73077 141 153 133 
0.365917 0.381085 2.65479 132 118 109 
0.251918 -0.072254 3.07406 248 172 174 
0.470556 0.35551 2.6675 183 166 146 
0.227718 0.351561 2.69075 138 146 131 
0.263149 0.308737 2.72992 28 8 0 
0.044187 0.261603 2.6893 242 218 206 
0.181151 0.270032 2.77003 70 25 4 
-0.00634099 0.100254 2.78998 49 7 0 
0.211954 0.0698929 2.7988 52 7 0 
0.0399278 0.246261 2.70561 140 112 101 
-0.0109749 0.0885723 2.78907 48 0 0 
0.328721 0.461395 2.5821 98 27 41 
0.260265 0.315462 2.72458 30 11 4 
0.223725 0.0726867 2.80008 77 26 0 
0.182479 -0.0686291 3.07642 236 241 234 
0.309303 0.156527 2.80256 150 145 141 
-0.364752 -0.465917 3.05337 5 2 0 
0.214632 0.0676631 2.79745 54 9 0 
0.197701 0.0717527 2.79691 35 0 0 
0.206504 0.0885405 2.80246 62 17 0 
0.00348854 0.109371 2.79098 38 0 0 
0.225469 0.521537 2.52255 203 211 198 
0.207775 0.264682 2.75336 70 27 11 
0.297373 0.285182 2.74989 41 3 0 
0.298126 0.288731 2.74408 43 9 0 
0.234838 0.0871813 2.80401 127 90 81 
0.228754 0.352123 2.69258 151 159 144 
0.444687 0.383953 2.64756 174 169 150 
0.141659 -0.0730245 3.07986 205 187 167 
0.254697 -0.0800679 3.07985 112 59 55 
-0.174559 -0.682615 3.65762 26 8 0 
0.00067319 0.108083 2.79249 184 143 125 
0.390498 0.209896 2.81204 246 94 145 
-0.217798 -0.971678 3.85053 89 52 7 
0.00164019 0.645765 2.43407 140 140 138 
0.405874 -0.143418 2.94672 70 71 75 
0.263631 0.33893 2.70313 10 18 5 
0.1924 0.327693 2.71442 39 17 3 
0.450342 0.378188 2.64989 134 119 112 
0.293174 0.286503 2.74946 198 153 134 
0.21862 0.251873 2.78513 124 61 44 
0.222992 0.06132 2.79493 177 139 116 
0.333157 0.456325 2.58951 186 168 156 
0.118897 0.0982447 2.79915 98 9 0 
0.111902 0.106067 2.79914 105 22 6 
-0.00219399 0.111235 2.79351 109 65 36 
0.222015 0.517368 2.52666 87 114 95 
-0.354491 1.52184 3.31061 220 184 158 
0.223408 0.0639157 2.79026 105 67 44 
0.304093 0.36941 2.62226 16 5 0 
0.247779 0.53531 2.51984 5 16 8 
0.268571 -0.0515796 3.05813 228 200 189 
-0.0143285 0.186939 2.75953 137 114 100 
0.469309 0.352303 2.67096 48 8 8 
0.266777 0.404996 2.63009 184 170 157 
0.474179 0.355822 2.67142 198 185 153 
0.203694 -0.140504 3.13569 95 64 44 
0.205521 0.0890032 2.8 87 40 22 
0.297511 0.284244 2.7512 61 23 0 
-0.180937 -1.02207 3.82109 87 25 0 
0.00938315 0.104996 2.7957 58 2 0 
0.11736 0.0957533 2.79528 126 28 19 
-0.209272 1.27667 3.52006 210 184 159 
0.182898 -0.0687047 3.07564 236 241 234 
0.0752565 0.114415 2.8018 213 108 113 
-0.0864481 -0.154048 2.99722 186 190 191 
-0.362322 -0.464804 3.04469 6 3 0 
0.20683 0.0881918 2.80086 88 41 23 
0.301118 0.376417 2.62052 232 227 224 
0.469514 0.351717 2.67206 48 8 8 
0.283537 0.346116 2.65092 226 207 203 
0.460912 0.347302 2.67877 218 102 147 
0.00028646 0.645 2.43271 137 137 135 
0.453618 0.377745 2.6477 98 84 75 
-0.180503 -1.0213 3.82196 94 28 0 
0.239886 -0.0913651 3.09645 255 206 202 
0.226982 0.0648682 2.79636 49 5 0 
-0.953284 1.10068 3.73539 206 175 147 
0.427859 0.210444 2.80353 204 115 147 
-0.460432 1.66499 3.1752 211 181 155 
0.211066 -0.139575 3.13412 100 66 41 
-0.207917 1.27777 3.51771 225 201 175 
0.406695 -0.144273 2.95195 98 99 103 
0.467281 -1.03119 3.52713 97 31 41 
-0.230686 1.34249 3.44408 234 208 185 
0.450192 -0.877745 3.3652 246 243 234 
-0.224029 1.76052 3.08062 212 182 144 
0.0552571 1.68622 3.11474 227 192 160 
-0.0151085 1.67324 3.14755 240 210 182 
0.421294 -0.0944012 2.91515 221 220 226 
0.20734 0.088462 2.80203 43 0 0 
0.241347 -0.0880807 3.07989 197 149 147 
-0.179806 -1.02219 3.81914 87 24 0 
0.46437 0.352095 2.67106 51 20 28 
0.421741 0.336768 2.68321 227 106 149 
0.246443 0.503562 2.55245 213 159 115 
-0.225764 1.75897 3.07508 215 185 149 
0.0542535 1.68305 3.11172 225 189 157 
-0.375007 1.68743 3.14702 213 188 158 
0.229268 0.521851 2.52696 217 218 210 
0.394847 -0.158874 2.97886 106 105 111 
-0.205648 1.27975 3.52003 228 204 176 
-0.624644 1.56507 3.26184 213 185 148 
0.33916 -0.0448055 3.04289 49 21 7 
0.206615 0.48923 2.56573 213 199 173 
0.253485 0.438839 2.61279 226 195 164 
0.238456 -0.0522929 3.0627 137 86 82 
0.193697 0.499548 2.48641 98 99 94 
0.576327 0.0612028 2.82367 233 138 146 
0.250411 0.449297 2.60125 181 149 136 
0.225199 -0.0731786 3.08172 245 171 172 
0.243623 0.340568 2.70316 165 143 132 
0.207306 0.549791 2.50845 6 24 0 
0.00874057 0.208387 2.7426 150 127 113 
0.200167 0.517365 2.57408 98 99 94 
0.192562 0.545454 2.51628 37 57 20 
0.465256 0.404396 2.62136 170 165 143 
0.214529 0.496058 2.55932 249 219 185 
0.157237 -0.0708419 3.08208 172 147 142 
0.232115 -0.0814164 3.0849 254 193 192 
0.0429625 -0.5173 3.48742 61 54 48 
-0.040259 0.0452239 2.91229 188 167 148 
0.453033 0.452873 2.57064 200 167 148 
0.23229 -0.0816733 3.06767 247 200 194 
0.31499 0.437613 2.60686 52 39 22 
0.249074 0.448402 2.59821 182 158 148 
0.270916 0.33669 2.70021 27 45 23 
-0.00692216 -0.100261 2.96254 205 204 209 
0.445941 0.379752 2.64484 33 16 9 
0.0208462 0.23447 2.7148 116 84 73 
0.0123294 0.231579 2.72436 103 75 61 
0.195964 0.508732 2.52715 102 112 103 
-0.00233771 -0.118044 2.9602 88 89 94 
0.298992 0.288261 2.74468 42 1 0 
0.139997 -0.084187 3.10526 238 214 212 
0.0562937 -0.513207 3.49909 173 151 137 
0.203431 0.48857 2.56028 237 220 204 
0.0463402 -0.51453 3.49331 71 58 52 
0.271698 0.403079 2.63162 204 195 188 
-0.228243 -0.632152 3.62151 129 110 104 
-0.17306 -0.683134 3.65971 37 22 15 
0.0473664 0.218433 2.7358 97 60 51 
0.049775 0.251637 2.70122 255 242 227 
-0.00896049 -0.144473 2.97829 89 89 101 
-0.0550381 -0.0488477 2.97173 200 200 200 
0.452358 0.454012 2.56854 162 146 131 
-0.145885 0.414689 2.64807 148 113 111 
0.397773 0.255331 2.71665 202 133 152 
0.260336 -0.0795226 3.09238 114 57 63 
0.314709 0.387511 2.61315 74 24 1 
0.23847 -0.100726 3.11653 255 225 225 
-0.21172 -0.976367 3.87346 81 51 0 
-0.174804 0.227824 2.83028 60 46 35 
0.1891 0.453142 2.60014 203 153 152 
-0.175813 0.171643 2.87452 219 209 199 
0.212576 -0.139561 3.14747 255 243 233 
-0.163906 0.231212 2.83114 62 51 45 
0.42353 0.378944 2.64984 27 7 6 
0.295345 0.328758 2.70484 20 33 5 
0.240541 0.524289 2.50834 102 114 104 
0.257619 0.39776 2.64248 145 137 118 
0.440584 0.161434 2.85385 164 114 117 
0.111052 0.220956 2.82661 54 39 62 
0.260401 0.315793 2.72475 28 14 1 
0.324342 0.456157 2.58145 88 33 38 
-0.0899419 -0.0905175 2.97442 142 142 150 
0.222346 0.4874 2.56686 169 174 154 
0.0804343 0.0986698 2.79878 107 25 4 
-0.174874 -0.691123 3.67235 98 81 73 
-0.085479 0.426164 2.64683 57 5 0 
0.351315 -0.116752 2.96106 242 239 246 
0.28455 -0.0860691 3.09694 233 164 159 
-0.357074 -0.490013 3.06239 247 243 232 
-0.0118707 -0.0259111 2.96182 134 185 188 
0.250042 0.43694 2.60804 238 198 163 
0.295395 0.355338 2.62785 74 44 42 
0.331298 0.368326 2.62374 60 10 22 
-0.0445872 0.193603 2.85336 44 0 0 
0.11548 0.161913 2.81833 247 185 144 
-0.0225009 0.128123 2.88614 102 65 23 
0.506502 0.355824 2.65475 178 99 128 
0.475536 0.354681 2.66808 216 190 157 
0.353647 -0.042252 3.06464 42 21 0 
0.25299 0.338276 2.69573 94 98 84 
0.00240686 0.205793 2.73968 220 188 173 
-0.00451606 0.196657 2.75825 231 199 184 
0.437106 0.395206 2.63881 192 179 170 
0.302956 0.321547 2.71718 225 153 103 
-0.27248 -0.933007 3.86454 159 106 28 
0.0497542 -0.739979 3.71472 66 54 40 
0.0398146 0.253189 2.69808 96 64 51 
0.303477 0.369308 2.62085 71 57 56 
0.415575 -0.143807 2.96631 110 109 115 
-0.125778 0.471025 2.60309 140 132 130 
-0.104423 0.443865 2.62739 64 15 1 
0.249465 -0.0893036 3.10855 254 204 203 
0.430055 0.210754 2.8091 202 118 141 
0.150087 -0.0700111 3.0557 247 222 215 
0.369953 -0.835726 3.38121 72 33 36 
-0.0241953 -0.119524 2.97774 89 86 93 
-0.221333 0.296456 2.7676 201 196 190 
-0.221094 0.292975 2.75548 159 152 144 
0.352657 -0.116209 2.971 99 96 103 
0.243303 0.339915 2.70259 170 139 118 
0.264146 -0.0707711 3.08332 252 196 195 
0.24615 0.537229 2.51018 232 227 233 
0.508721 -1.09983 3.57211 13 8 2 
0.291925 0.353392 2.63762 43 28 23 
0.387595 -0.217717 3.02518 173 208 246 
0.400639 -0.0999167 2.93256 65 65 67 
0.114819 0.167428 2.80965 241 178 147 
0.476592 -0.866213 3.36921 10 9 4 
0.469728 -0.887371 3.38948 9 6 1 
0.453912 -0.894245 3.38879 79 84 77 
0.471144 -1.02499 3.54518 196 128 127 
0.342806 -0.092968 2.97038 3 1 6 
0.46483 0.418264 2.60308 87 27 52 
0.41607 0.366193 2.6585 52 15 22 
0.434435 -0.923657 3.41094 133 128 122 
0.444308 -0.12689 2.93679 126 127 131 
0.362293 -0.834787 3.36841 72 31 37 
0.278992 0.394725 2.63638 93 83 81 
0.335919 0.447709 2.59184 100 24 50 
0.213856 0.514964 2.51945 219 224 217 
-0.269154 -0.938647 3.88078 167 106 25 
0.514657 -1.11858 3.56985 83 81 69 
0.250401 -0.0751884 3.09557 255 202 203 
-0.177276 -1.0263 3.83803 69 13 0 
0.440116 0.222226 2.7946 222 112 147 
0.474115 0.411026 2.617 38 0 0 
0.363524 -0.827968 3.38349 173 128 131 
-0.365341 -0.464456 3.04563 16 8 0 
0.297827 0.375967 2.61417 241 231 229 
0.42911 0.392217 2.6282 178 164 155 
-0.263536 -0.94482 3.86687 255 212 150 
0.529636 -1.12948 3.60392 83 81 69 
0.461871 0.348737 2.66238 65 6 24 
0.291923 0.292648 2.73135 170 124 111 
0.470255 0.373398 2.64294 200 182 168 
0.402415 -0.172362 2.98796 215 218 225 
0.428262 -0.899074 3.38228 136 136 128 
0.0239547 0.712007 2.36057 178 164 151 
0.446775 -0.877521 3.3936 247 246 242 
-0.15347 -0.927163 3.73885 100 81 66 
-0.0783736 0.414923 2.6521 43 15 3 
0.337221 0.459984 2.58458 198 188 179 
0.33532 -0.111899 2.96664 180 175 181 
0.556293 -1.09786 3.56084 8 5 0 
0.322171 0.3923 2.62489 57 21 0 
0.268739 -0.286572 3.1563 9 5 4 
0.278758 -0.254798 3.1036 229 228 234 
0.392203 -0.169002 2.97505 219 222 229 
0.391563 -0.160525 2.96638 66 69 74 
0.334546 -0.120403 2.97466 136 134 145 
-0.00215787 -0.192365 3.04928 215 202 193 
0.283061 0.34923 2.63025 34 18 19 
-0.0976188 0.447155 2.63767 47 18 10 
0.41915 0.336202 2.68333 234 119 160 
-0.177636 -1.02497 3.82725 69 16 0 
0.428495 0.20016 2.80421 61 5 6 
0.270819 -0.0905834 3.08339 131 44 52 
0.273316 -0.0825459 3.11749 245 197 193 
-0.210494 -0.983468 3.88738 63 28 0 
-0.0631834 0.286915 2.74233 224 214 212 
0.263333 0.398385 2.62283 200 176 164 
0.44351 -0.875953 3.36838 224 223 219 
0.42441 -0.874186 3.38473 18 17 15 
0.309917 0.382166 2.6209 249 237 237 
0.358493 -0.278939 3.08869 221 225 228 
0.252601 0.390593 2.62643 136 118 104 
0.439535 0.334667 2.69283 55 10 30 
