ply                 
format ascii 1.0    
element vertex 1274
property float x    
property float y    
property float z    
property uchar red  
property uchar green
property uchar blue 
end_header          
0.582382 -0.186544 4.05262 73 74 79 
0.623296 -0.170254 4.02528 37 40 47 
0.514046 -0.159826 3.95419 130 131 136 
0.629218 0.807176 3.2174 44 6 21 
0.489092 0.527278 3.67865 37 0 0 
0.300677 0.390574 3.9197 71 25 10 
0.622244 0.795281 3.20226 255 161 199 
0.295337 0.709133 3.59562 226 206 179 
0.31066 -0.0677517 4.25579 87 38 41 
-0.0958183 -0.152569 4.36584 247 247 255 
-0.0757431 0.403367 4.08651 29 0 0 
0.599912 -0.1357 4.03486 246 246 254 
0.374804 -0.0685696 4.32095 117 89 75 
0.627896 0.695505 3.55666 32 0 0 
0.351974 -0.0557929 4.24233 255 159 160 
0.432133 0.531092 3.65953 14 3 0 
0.494068 0.51731 3.56977 126 42 66 
0.376876 -0.118732 4.31534 238 200 197 
-0.313357 0.428937 4.03683 59 21 20 
0.36595 -0.114357 4.34441 101 53 49 
0.675528 0.620809 3.2571 234 151 179 
-0.128861 0.435376 4.0785 214 220 220 
0.164827 0.378294 3.99515 60 13 0 
0.424186 -0.0442832 4.3297 107 48 42 
0.316079 -0.102045 4.29359 252 181 179 
0.644857 0.516132 3.55203 194 178 153 
-0.150323 -0.100986 4.53117 5 4 9 
0.13842 0.377498 4.02028 92 43 11 
0.261764 -0.0983433 4.36848 239 242 233 
0.294134 -0.0877878 4.36301 69 52 36 
0.354296 -0.0836688 4.30183 241 207 198 
0.502989 0.538265 3.68097 205 112 141 
0.432454 -0.0258578 4.08246 86 11 18 
0.0103786 0.358473 3.96216 254 227 218 
0.383641 -0.0720518 4.30011 224 197 186 
0.393525 -0.0703012 4.29099 217 194 176 
0.403102 -0.0698594 4.27946 104 78 61 
0.426614 -0.0611014 4.27474 131 102 86 
0.474775 -0.0588787 4.20771 34 6 0 
0.431343 0.547141 3.69091 208 203 199 
0.480049 0.634064 3.51768 57 0 16 
0.448158 -0.0327794 4.17935 228 194 185 
0.475902 0.651005 3.55097 179 170 165 
0.607063 0.307794 3.7728 212 123 151 
0.484179 0.64327 3.53163 93 36 53 
0.64113 0.494876 3.59142 70 58 46 
0.007861 0.322738 3.98046 255 246 235 
0.678612 0.717231 3.31058 188 113 143 
0.455385 0.640652 3.54538 46 0 9 
0.0870902 0.983754 3.52014 143 141 142 
0.464497 0.559342 3.68259 29 0 0 
0.000437964 0.315924 3.97576 250 228 214 
0.0200984 0.310844 3.95248 232 204 193 
0.0424563 0.954705 3.60987 142 142 132 
-0.0168699 0.296317 3.93817 203 177 164 
0.491111 0.839732 3.46289 103 17 20 
0.36649 0.661225 3.7286 178 142 130 
0.637437 0.627918 3.56027 98 18 45 
0.444065 0.620227 3.52477 130 45 40 
-0.042736 0.532574 3.90093 188 190 185 
0.785301 0.0834424 3.7683 234 127 133 
-0.0738609 0.965425 3.62591 166 146 135 
0.531945 0.629449 3.60247 33 11 14 
-0.459563 -0.752193 4.57238 100 47 41 
0.372023 0.569844 3.71371 137 116 99 
0.439735 0.552488 3.61221 232 222 210 
0.0720541 0.307547 4.10016 48 36 56 
0.000432371 0.303516 4.04045 237 211 196 
0.301044 0.0882072 3.7219 105 63 47 
0.430736 0.124386 3.99588 237 196 192 
0.369461 0.120915 4.05835 43 0 0 
-0.0957451 0.606667 3.89665 103 86 76 
0.465727 0.120863 4.06148 243 153 145 
0.231616 0.636612 3.71426 162 99 81 
-0.0348108 0.291577 4.02947 226 202 190 
0.481402 0.996751 3.13215 221 116 156 
-0.0356302 0.293666 4.12653 229 203 190 
0.462598 0.610553 3.63331 66 19 9 
0.395296 0.583607 3.71662 177 167 166 
0.482687 0.58348 3.71649 67 3 0 
0.675211 0.566149 3.62004 47 0 0 
-0.258817 0.279566 4.24122 229 220 213 
0.438848 0.167875 3.97951 113 23 0 
0.453571 0.242917 3.81619 230 218 206 
0.153692 0.15535 3.91235 125 24 16 
0.645669 0.580921 3.52241 58 1 18 
-0.0726665 0.263835 4.18009 22 0 0 
0.644621 0.563266 3.56351 170 166 141 
0.733987 0.192689 3.82609 255 229 216 
0.417696 0.590257 3.63355 117 113 102 
-0.404211 0.632009 3.9348 55 1 15 
0.164224 0.246049 4.10555 237 173 138 
0.619479 -1.27133 4.65238 92 88 79 
0.594972 -1.28718 4.70756 130 126 117 
0.45525 0.193629 3.90969 235 175 147 
0.682806 0.641101 3.22618 140 11 68 
0.752182 0.280452 3.67684 201 151 152 
0.53754 0.895275 3.28329 112 93 86 
0.290894 0.334426 4.0518 187 134 120 
0.0127783 0.504049 3.83031 223 219 194 
-0.168618 0.100132 4.28806 53 0 0 
0.717848 0.219362 3.81566 54 5 0 
0.66179 0.569985 3.56133 82 18 18 
0.630551 0.611356 3.52322 202 134 155 
0.226463 0.630406 3.70584 213 150 132 
0.387653 0.485538 3.77458 14 29 10 
0.432971 0.407621 3.79378 54 23 5 
0.0548413 0.636724 3.82466 223 224 219 
0.463858 0.79162 3.5054 247 235 235 
0.399326 0.499823 3.64548 35 21 18 
0.666149 0.599129 3.62859 58 1 18 
0.360541 0.822991 3.63771 229 234 230 
0.042268 0.625526 3.72818 56 61 54 
0.657162 0.694291 3.27544 60 9 14 
0.615368 0.313245 3.82305 212 123 151 
0.219153 0.727749 3.71228 254 248 234 
-0.0257099 0.535679 3.90381 254 250 238 
0.547524 0.72872 3.46249 47 5 6 
0.416265 0.782998 3.45599 37 6 4 
0.447577 -0.0287913 4.0769 226 162 152 
0.556396 0.918535 3.08514 33 10 16 
-0.214079 0.551707 4.04798 198 199 201 
0.427213 0.792454 3.52486 204 179 182 
0.403438 0.500257 3.70654 228 207 204 
0.141446 0.38578 4.10605 92 43 11 
0.307797 0.745809 3.53139 208 218 210 
-0.0737682 0.970343 3.64479 166 146 135 
0.627383 -0.17647 4.10256 230 233 240 
0.0565748 0.304823 3.98914 76 61 66 
-0.296314 -0.542348 5.04085 36 32 21 
0.545902 0.840674 3.43741 229 171 151 
-0.028412 0.520639 3.86315 245 243 230 
-0.000132406 0.300418 4.01057 239 213 198 
0.388903 0.587481 3.69992 180 176 167 
0.568019 0.91176 3.12309 255 178 199 
0.220365 0.699747 3.60027 130 73 62 
0.402121 -0.0734758 4.26934 80 54 37 
-0.508025 -0.752269 4.54988 8 8 0 
-0.0550964 0.621857 3.93795 76 70 58 
0.513494 -1.22672 4.79809 80 21 23 
0.680983 0.570249 3.64974 59 0 6 
0.520035 -1.22409 4.76099 192 129 138 
0.285178 0.40516 3.81928 50 21 7 
0.653234 0.767949 3.26853 50 9 23 
0.447942 0.624361 3.54139 103 39 30 
0.579249 -1.25634 4.72689 58 54 45 
0.347206 0.741531 3.58532 125 141 130 
0.371078 0.668388 3.7693 178 142 130 
0.526489 0.881568 3.52617 251 196 155 
0.770162 0.254778 3.81867 246 248 247 
0.469088 0.801166 3.50684 233 207 208 
0.446337 0.782416 3.5719 29 20 13 
0.457772 0.76995 3.46164 44 0 10 
0.354643 0.116874 3.92564 60 18 4 
0.468765 0.80819 3.44847 48 13 11 
0.379661 -0.11965 4.34054 235 191 190 
0.280364 0.671913 3.75555 206 164 150 
-0.106463 0.412532 3.96197 97 106 101 
-0.261542 0.283889 4.31183 232 217 210 
0.464123 0.559278 3.66578 33 0 0 
-0.0213616 0.251828 4.03758 106 95 91 
0.428763 0.529032 3.64288 15 4 0 
0.682385 0.505677 3.49482 51 10 18 
0.33567 -0.119143 4.40062 251 190 189 
0.659473 0.533316 3.57912 62 32 24 
0.604142 0.526785 3.53502 148 142 126 
0.470879 0.795586 3.42708 234 201 168 
0.570043 0.741992 3.38583 108 26 40 
0.530496 0.661747 3.53292 54 0 9 
0.431755 0.463358 3.80771 200 147 105 
0.255406 0.739901 3.64133 66 99 78 
0.346022 0.717663 3.54681 204 175 145 
0.635708 -0.172925 4.09735 44 47 54 
0.343891 0.741098 3.66189 182 144 131 
0.478651 -0.176231 4.18941 114 112 125 
0.71588 0.188032 3.74315 250 208 194 
0.438358 0.0935349 4.0471 252 183 178 
0.366472 -0.114368 4.37583 132 72 72 
0.539526 0.597744 3.57387 167 131 143 
0.469913 0.620922 3.6896 42 1 0 
0.0120939 0.365578 4.02714 246 219 210 
0.450956 0.193708 3.87355 245 191 163 
0.452915 0.46521 3.79517 120 28 5 
-0.0588629 0.529141 3.78411 183 180 173 
-0.389633 0.659686 4.03003 197 118 137 
0.592174 0.293832 3.80218 206 113 144 
-0.0121931 0.311164 4.03622 254 232 218 
0.0733131 0.321198 4.25269 11 0 19 
0.634566 0.723878 3.37017 183 100 128 
-0.0301889 0.29572 4.01918 255 235 223 
0.634001 0.480974 3.61274 222 98 148 
0.375171 0.421897 4.11231 64 28 4 
0.311727 0.728969 3.66674 236 211 180 
-0.0725843 0.266129 4.20681 16 0 0 
-0.12817 0.42717 3.99281 175 184 181 
0.540614 0.557378 3.68597 217 94 141 
-0.594768 -0.773653 4.7251 87 80 70 
0.223069 1.00847 3.51273 222 143 162 
0.417678 0.408833 3.80864 68 31 13 
0.276996 0.419672 3.86195 43 7 0 
0.601088 0.784896 3.1386 61 6 25 
0.507583 -1.29859 4.81101 94 48 48 
0.520547 0.782592 3.43689 144 57 66 
0.043608 0.589357 3.84279 182 187 180 
0.301548 0.441356 3.88129 95 68 59 
0.340475 0.587884 3.80082 4 27 1 
-0.0953375 -0.211796 4.34095 97 96 104 
-0.017659 -0.213741 4.45793 72 72 80 
-0.047501 0.277362 4.22195 41 22 16 
0.363643 0.419785 3.77822 50 16 6 
0.484055 0.648367 3.63357 56 0 4 
0.699964 0.64342 3.37389 238 144 178 
-0.120366 -0.353499 4.67572 157 149 147 
0.435588 0.169567 3.96797 89 3 0 
0.349881 -0.0547168 4.21747 255 169 169 
0.516018 0.974957 3.33074 218 160 174 
0.517361 0.779545 3.35338 146 58 83 
0.449648 0.599615 3.55869 48 19 3 
0.367137 0.662825 3.74652 191 153 134 
0.626529 0.617139 3.50713 117 52 72 
0.659469 0.731132 3.26377 60 7 27 
0.261425 0.63743 3.58385 193 149 124 
-0.720483 -0.734402 4.70527 56 28 24 
0.661196 0.529059 3.64176 144 129 106 
-0.568036 -0.70896 4.5311 5 0 0 
0.419959 -0.0228057 3.95709 68 3 9 
0.523619 0.540406 3.58723 236 127 168 
0.6187 0.520979 3.54888 147 129 119 
0.663181 0.48935 3.40948 46 5 13 
0.580301 0.513802 3.58291 179 165 154 
0.296196 0.706273 3.5796 230 210 183 
0.351132 0.713991 3.55529 21 17 0 
0.655763 0.496585 3.56196 20 7 0 
0.384504 0.748675 3.68959 151 178 133 
0.705084 0.498104 3.63506 170 89 108 
0.634515 0.482267 3.56611 40 5 9 
0.362296 0.754609 3.60382 36 35 5 
0.328679 0.769666 3.65623 101 130 108 
0.553927 0.73485 3.50182 38 7 5 
-0.516164 -0.761419 4.6092 8 7 2 
-0.0288169 0.517376 3.84169 239 237 224 
0.651284 0.493962 3.7118 212 107 148 
0.347699 -0.109913 4.19327 167 101 103 
-0.153106 -0.102872 4.63562 5 4 9 
0.657744 0.711439 3.24162 43 0 12 
0.469362 0.790815 3.49668 240 211 215 
0.268609 -0.0829693 4.37098 93 69 57 
0.108433 0.490431 3.95178 15 20 13 
0.565736 0.45037 3.71324 59 0 9 
0.353577 -0.0812656 4.49963 170 99 105 
0.314063 -0.0734908 4.3483 78 66 54 
0.484936 0.813949 3.54117 46 15 13 
-0.248207 0.291894 4.09516 85 50 46 
0.466911 0.821355 3.54797 43 4 9 
0.484344 0.815938 3.51611 230 197 156 
0.175918 0.274398 4.12614 248 242 230 
0.77051 0.246003 3.79308 23 13 11 
0.22187 0.703524 3.61654 120 57 48 
0.167505 0.261473 4.10287 221 167 133 
0.594654 -0.241532 4.40725 107 106 112 
0.467332 0.249476 3.93713 245 235 226 
-0.263299 -0.509249 4.89165 52 38 37 
0.427055 0.599511 3.68816 139 126 117 
-0.0499504 0.267044 4.10802 26 11 8 
0.061295 0.3917 3.90325 237 213 201 
-0.0758406 0.409514 4.13262 26 0 0 
0.755103 -0.478242 4.45151 17 8 11 
-0.282916 -0.523131 4.85182 48 41 31 
0.618497 -1.278 4.67426 95 91 82 
0.538185 0.552211 3.59893 67 0 24 
0.648038 -1.27087 4.70419 9 12 3 
-0.177355 0.123755 4.14448 49 28 25 
0.455073 0.184008 3.95256 72 7 13 
0.447389 0.115681 3.94782 232 163 158 
0.626274 0.319718 3.90002 214 109 142 
0.636569 -0.427093 4.29734 156 150 154 
0.559236 0.92276 3.09824 46 21 27 
0.405128 0.771963 3.42788 70 49 54 
0.644228 0.569545 3.50143 219 119 155 
0.332007 0.576736 3.72722 12 30 6 
0.530559 0.535652 3.76743 221 158 143 
-0.434578 -0.495964 4.98946 127 72 77 
0.253388 0.486055 3.84494 145 158 138 
0.500827 0.529753 3.58428 156 147 138 
0.162423 0.241973 4.06881 157 90 45 
0.52854 -1.25406 4.68696 221 219 206 
0.645021 -0.176727 4.1523 64 67 74 
0.103703 0.346794 3.79571 253 220 213 
0.70065 0.466717 3.71151 195 59 63 
0.427617 0.740291 3.53533 125 25 49 
0.0976779 0.486074 3.94779 3 19 9 
0.403186 0.0873932 3.93077 186 32 34 
-0.00537245 0.284741 3.86227 236 209 198 
-0.118248 -0.348687 4.5653 212 203 194 
0.626329 0.562038 3.62803 159 140 126 
0.381053 -0.369125 4.29396 219 220 224 
0.416288 0.586172 3.60821 128 120 109 
0.557255 0.584207 3.59849 43 21 33 
0.552692 0.855239 3.50207 241 191 140 
0.673639 0.491561 3.38076 44 3 0 
0.626742 0.506236 3.47681 208 184 158 
0.565529 -0.230563 4.22275 104 103 111 
0.512303 0.535946 3.68661 52 0 6 
-0.387738 0.650556 3.96192 222 88 125 
0.768343 -0.487901 4.53761 27 22 19 
0.511535 0.519327 3.65366 217 139 135 
0.489586 -0.366941 4.1601 219 219 227 
0.69175 0.512413 3.56153 71 13 28 
-0.28365 -0.519008 4.80468 124 116 105 
0.0948166 0.45972 3.73589 3 10 3 
0.490177 0.533077 3.69806 38 0 4 
0.420032 0.520119 3.60695 24 19 16 
0.472857 0.638015 3.43637 49 29 31 
0.46698 -0.158152 4.07633 217 215 226 
-0.148116 -0.23346 4.47926 217 221 224 
0.31496 0.766407 3.64112 210 212 207 
-0.694749 -0.593872 4.58963 119 84 78 
0.457364 -0.16474 4.06948 62 60 71 
-0.500714 -0.71739 4.4868 11 10 6 
0.469015 0.626979 3.51506 57 0 7 
0.372761 -0.119454 4.35054 232 197 191 
0.71028 0.505216 3.67428 203 96 122 
0.367594 -0.106592 4.39938 254 186 185 
0.701254 0.489646 3.64821 29 0 0 
0.57108 -0.233562 4.19766 46 45 50 
0.348111 0.767224 3.5086 4 17 7 
0.328474 -0.0809568 4.26344 179 93 104 
0.633903 0.484295 3.57644 47 16 22 
0.05315 0.645028 3.87448 204 206 201 
-0.026641 0.530207 3.92143 250 246 234 
0.362105 -0.0617918 4.28033 234 196 183 
0.526968 0.586588 3.50194 128 95 106 
-0.1198 0.432334 4.21977 186 195 190 
0.418178 0.791457 3.49991 49 10 13 
0.632022 0.586021 3.50605 222 144 166 
-0.543281 -0.722194 4.48163 129 130 116 
0.460891 0.788566 3.45806 229 205 205 
0.578026 0.465719 3.60711 225 105 150 
-0.518855 -0.768203 4.64789 8 8 0 
0.457663 0.806782 3.48914 76 41 45 
0.432509 0.412474 3.81285 69 46 32 
-0.272024 0.317817 4.04736 224 215 216 
0.422567 0.0907288 3.94714 254 188 190 
-0.183771 0.129863 4.31156 43 19 17 
0.571553 0.459239 3.76288 48 0 6 
0.525302 0.230566 3.98598 253 212 182 
0.353916 0.642585 3.64038 184 140 115 
0.425079 0.449894 3.74889 120 50 24 
0.46821 0.569056 3.65169 76 73 54 
0.441523 0.188342 3.78607 245 191 163 
0.664677 0.601472 3.64083 39 2 10 
0.523529 -1.24013 4.63672 221 219 206 
0.561766 0.192492 4.0325 208 54 66 
0.613978 0.70733 3.27817 143 54 84 
0.198093 -0.109016 4.32701 58 41 25 
0.357678 0.554418 3.60065 143 118 98 
0.526052 0.544226 3.5448 49 13 25 
-0.257353 0.74692 3.86475 36 35 31 
-0.0316273 0.218223 3.91839 143 106 87 
0.0776552 1.00282 3.81168 124 122 123 
0.620314 0.558187 3.60818 115 97 83 
0.599431 0.300663 3.86192 215 93 140 
-0.156671 0.473433 4.00669 209 213 216 
0.779009 0.0805687 3.7383 170 90 93 
0.270796 0.661978 3.72817 203 157 133 
0.512338 0.77159 3.38623 145 60 67 
-0.312894 -0.320297 4.55492 155 155 157 
0.728821 -0.469091 4.33029 26 22 19 
-0.128369 0.887045 3.83844 255 230 240 
0.315363 -0.095514 4.23684 248 203 197 
0.0571938 0.380489 3.80255 255 232 220 
0.353945 -0.0726238 4.58637 251 210 204 
0.638822 0.489574 3.48937 26 16 6 
-0.0704524 0.304639 4.07841 192 159 152 
0.479122 0.82436 3.46686 57 32 28 
-0.510742 -0.708346 4.51462 18 18 10 
0.360407 0.747964 3.56111 48 32 6 
0.690749 0.710403 3.3999 222 132 167 
0.571992 0.928067 3.15935 255 154 184 
0.600873 0.665799 3.42868 19 8 6 
-0.560302 -0.778123 4.68543 10 11 5 
-0.49709 -0.726197 4.44594 7 6 2 
-0.593749 -0.749013 4.80744 17 17 9 
0.467749 0.657791 3.54507 26 13 7 
0.440161 0.783504 3.37565 61 26 32 
0.494468 0.658648 3.67282 46 11 18 
0.443037 0.620814 3.49483 54 8 11 
0.585337 -1.25784 4.71837 28 24 15 
0.706396 -0.488268 4.29636 24 25 20 
0.45219 0.194373 3.82714 227 202 197 
0.348059 0.614057 3.57354 171 134 107 
0.432286 0.761256 3.48158 26 15 11 
0.564217 0.454453 3.69551 29 3 4 
0.50237 -0.373909 4.25074 232 232 240 
0.444016 0.618907 3.80175 155 135 124 
-0.424745 -0.226849 4.34711 4 0 2 
0.596955 0.47655 3.69398 226 75 130 
-0.0979107 0.605953 3.95314 51 34 26 
-0.025553 0.507177 3.75795 248 244 232 
0.361841 0.815544 3.62076 227 227 225 
0.38666 -0.127903 4.35914 149 67 73 
0.621092 0.475585 3.51409 39 12 21 
-0.143223 -0.0923873 4.33769 16 17 19 
0.652941 0.519957 3.54069 44 33 31 
0.304407 -0.0749846 4.31189 63 67 52 
0.423563 0.804926 3.55678 63 24 29 
0.16861 0.00841702 4.13154 21 3 3 
0.461351 -0.0363458 4.21987 222 183 168 
0.42895 -0.0194526 4.02252 64 0 0 
-0.174224 0.613334 3.84248 247 238 229 
0.646781 0.401725 3.655 42 17 13 
0.573526 0.507007 3.60853 126 50 80 
-0.157743 -0.0780384 4.13111 113 103 102 
0.452798 0.42744 3.95804 50 8 0 
0.692247 0.504872 3.44662 21 9 9 
-0.149727 0.0580444 4.21305 29 18 16 
-0.252276 0.725987 3.76497 32 31 26 
0.635683 0.813869 3.27644 215 113 153 
0.274897 0.411036 3.89507 177 144 113 
0.496579 0.518296 3.5549 51 23 20 
0.637113 -0.139955 4.23341 21 21 29 
0.220363 0.446475 3.82294 25 22 5 
0.698928 0.506817 3.6362 213 77 113 
-0.184573 0.13456 4.39655 66 46 45 
0.357367 0.119108 3.97569 47 7 0 
-0.731338 -0.625135 4.81523 121 84 76 
0.37513 0.135941 4.00022 178 117 86 
-0.278318 0.269292 4.2716 114 97 87 
0.21814 -0.11548 4.60502 97 74 68 
0.546429 -1.28082 4.80013 239 235 223 
0.440658 0.21793 3.89769 251 228 214 
0.523932 0.527622 3.71265 223 166 147 
-0.384856 0.644971 3.92382 226 86 125 
0.640386 0.59381 3.54687 222 144 166 
0.445026 0.597869 3.54501 62 43 26 
0.654122 0.435337 3.5225 45 19 20 
0.723391 0.585913 3.40931 239 120 162 
0.513992 0.788073 3.4628 249 181 146 
0.831094 -0.512972 4.81104 53 42 40 
0.115102 0.611361 3.75432 200 173 162 
0.70303 0.647759 3.85903 196 137 159 
0.749787 0.275008 4.10221 154 146 143 
0.383291 0.256855 4.02178 123 116 110 
0.397021 0.253876 4.05879 136 127 120 
0.352319 0.258355 4.02379 129 114 109 
0.802992 0.297582 4.1568 144 139 136 
0.773012 0.270889 4.13841 207 206 204 
0.691193 0.87612 3.49291 42 0 13 
0.350446 0.27614 4.0033 121 106 109 
0.484539 0.582972 3.82005 39 9 0 
0.658724 -0.143057 4.31352 102 102 110 
0.33537 0.282394 4.00428 132 125 115 
0.760827 0.51873 3.93448 179 157 143 
0.472963 0.585802 3.82877 232 226 210 
0.649933 0.319073 4.11684 221 124 155 
-0.0352147 0.505552 3.70647 236 238 227 
-0.525809 -0.698308 4.26756 238 238 226 
0.797982 0.250904 4.19863 133 126 118 
0.473657 0.224284 4.06968 255 225 206 
0.679667 0.340229 4.14396 180 129 148 
0.0372079 0.906289 3.42176 131 130 128 
0.624947 -0.220074 4.37481 92 92 100 
0.558387 0.834864 3.6285 114 19 39 
-0.0224126 0.16162 3.8904 63 9 0 
0.7067 0.60866 3.8584 177 165 141 
-0.00274663 0.163377 3.93634 59 11 0 
-0.015446 0.161826 3.93944 186 137 123 
0.0837547 0.365695 3.89132 243 213 202 
0.0374513 0.560241 3.64413 225 243 227 
-0.536963 -0.655648 4.19626 19 16 7 
0.0669212 -0.764092 5.02406 204 188 175 
0.722804 0.632607 3.8796 205 123 146 
0.465988 0.588156 3.81285 60 58 46 
0.479813 0.805998 3.61106 30 0 6 
-0.261255 0.302612 3.76043 196 188 186 
0.370867 0.7969 3.62492 219 219 221 
0.0777875 0.331698 3.85211 130 101 85 
-0.0022132 0.147185 3.9224 47 5 0 
0.690004 0.661448 3.80951 216 153 174 
0.409061 0.594237 3.78966 160 155 151 
0.720102 0.796533 3.56446 64 0 14 
0.678663 -0.180412 4.32394 35 35 43 
0.503801 0.605211 3.83428 71 23 1 
0.301911 -0.205762 4.50021 255 231 210 
-0.530611 -0.712205 4.30373 17 19 8 
-0.244409 -0.475444 4.5905 63 54 47 
0.0925645 0.346962 3.82889 101 68 53 
0.101178 0.34764 3.83401 127 97 86 
0.109187 0.34737 3.82682 248 218 208 
0.355769 0.266408 4.03179 145 135 126 
0.623261 0.977576 3.35533 66 0 17 
0.0362198 0.549952 3.66431 250 253 236 
0.158836 0.371379 3.9307 73 19 0 
0.127801 0.367595 3.87437 56 17 2 
0.719721 0.781441 3.55367 48 0 5 
0.358229 0.408948 3.97202 44 3 0 
-0.031482 0.490413 3.66494 235 235 223 
0.443918 0.760372 3.62636 73 0 14 
0.728995 0.614199 3.89598 172 171 125 
0.714602 0.444874 4.02608 199 120 141 
0.570781 -0.172469 4.3336 86 86 94 
0.576005 0.779881 3.69487 164 138 137 
0.608382 -0.168309 4.28987 82 81 86 
0.740289 0.759979 3.58417 56 0 15 
0.375016 0.421053 4.08142 179 142 126 
0.328089 0.102842 4.03453 78 33 10 
0.491791 0.758388 3.65596 255 252 252 
0.285569 0.474339 3.91501 38 13 0 
0.483126 0.754146 3.65119 237 225 225 
0.508941 1.04504 3.27444 182 100 138 
0.49255 0.749282 3.64942 255 251 249 
0.593811 0.758261 3.67566 80 13 22 
0.358485 0.741893 3.66637 210 172 159 
0.41285 0.454733 3.94133 145 126 122 
0.0821056 0.357643 3.80152 126 96 86 
0.727235 0.60768 3.86044 40 0 0 
0.310982 0.106921 4.04314 47 4 0 
0.558483 0.661137 3.75844 51 0 15 
0.74723 0.742146 3.59702 67 4 23 
-0.150382 0.0591338 4.001 43 31 19 
0.202151 0.705379 3.6092 255 227 211 
0.449211 0.483093 3.93292 202 157 134 
0.434438 0.491607 3.90438 142 149 133 
0.448118 -0.0540849 4.45994 118 80 69 
0.491172 0.585307 3.85323 48 0 0 
0.473105 -0.0341526 4.3705 249 207 193 
0.776098 0.543195 3.93751 186 114 136 
0.727257 0.599689 3.88416 74 10 10 
0.656102 0.595941 3.88551 200 159 163 
-0.522262 -0.685833 4.22947 144 142 129 
0.447551 -0.0621094 4.45158 73 39 29 
0.413447 0.518916 3.82822 172 173 159 
-0.0716776 0.526541 3.69168 216 222 212 
0.706282 0.529164 3.89327 37 0 0 
0.334591 0.523821 3.86574 134 141 125 
0.277021 -0.077281 4.38646 98 45 51 
0.330771 -0.0709721 4.44496 66 26 18 
-0.0377969 0.523919 3.69597 210 213 206 
0.422488 0.521706 3.79504 27 8 4 
0.397342 -0.0726489 4.43857 231 191 181 
0.0100147 0.49152 3.70414 239 237 214 
0.718421 0.824536 3.55438 120 20 56 
0.626636 -1.34022 4.99327 34 27 19 
0.634676 0.555755 3.88791 179 156 148 
0.677606 -1.36583 5.01972 105 104 100 
0.173654 0.661419 3.74649 214 180 178 
0.443254 0.559961 3.77086 202 194 191 
0.319336 0.298413 4.06806 253 244 245 
0.51105 0.690875 3.75083 150 151 143 
0.758384 0.556104 3.78013 57 0 8 
0.231865 -0.102839 4.45947 214 189 184 
-0.028394 0.518994 3.68848 216 219 210 
0.684027 0.573369 3.90236 153 139 128 
0.484475 0.679715 3.73711 72 5 14 
-0.0290681 0.50886 3.68766 250 255 248 
0.205049 -0.119441 4.43605 218 200 190 
0.451825 0.551268 3.78807 64 54 45 
0.194842 -0.127817 4.4232 34 24 15 
0.0448983 0.521669 3.73347 228 222 200 
0.360023 -0.126255 4.49295 64 31 26 
0.447677 0.24042 4.0412 255 254 246 
0.550282 0.572522 3.87052 149 128 123 
0.720467 0.580009 3.86755 58 7 12 
0.49048 0.262749 4.02634 103 12 11 
0.430317 0.266069 4.03303 150 140 138 
0.683992 0.886767 3.47645 71 1 12 
0.329553 0.26701 4.02457 122 115 109 
0.414922 0.267743 4.03039 114 103 101 
0.666139 0.872422 3.42444 60 8 12 
0.676823 0.868602 3.46816 47 0 7 
0.423802 0.260832 4.02676 154 142 142 
0.569412 0.701313 3.74973 83 11 33 
0.764118 0.72654 3.64436 130 3 48 
0.714877 0.814717 3.55788 122 24 49 
0.594763 -0.203867 4.35238 254 254 255 
0.0678411 0.321584 3.83992 146 122 98 
0.610833 0.994475 3.34833 72 0 24 
0.583069 -0.198906 4.3099 77 77 85 
0.616034 0.998663 3.37699 254 157 192 
0.649143 -0.144598 4.26677 52 52 60 
0.672894 0.57247 3.86943 31 21 12 
0.0495265 0.297496 3.91362 43 31 35 
0.413363 0.268923 4.04052 255 248 246 
0.414607 -0.0700235 4.44678 203 174 158 
-0.0175569 0.489161 3.72919 70 65 36 
0.300419 -0.0872743 4.37159 171 153 141 
0.739506 0.547761 3.94427 45 12 7 
0.366831 0.732637 3.63503 5 5 0 
0.384106 0.593027 3.7899 53 34 1 
0.202035 0.711161 3.64009 110 68 54 
0.464137 0.479097 3.90586 218 145 100 
-0.0220878 0.152885 3.88297 183 140 108 
0.19634 0.56293 3.78763 46 6 0 
-0.15604 0.456379 3.78469 147 153 139 
-0.345757 0.414228 3.76025 152 148 145 
0.280248 0.476181 3.89092 158 132 117 
0.254678 0.783434 3.55362 83 81 56 
0.324613 0.329533 4.05124 112 59 55 
0.586963 0.773721 3.66578 54 8 8 
-0.385666 -0.873115 5.0692 151 137 124 
0.0632888 0.374762 3.80843 162 139 125 
0.0446873 0.32936 3.83737 255 230 214 
0.584668 0.70911 3.73708 112 0 19 
-0.0911205 0.326499 3.86483 156 119 111 
0.743314 0.779352 3.57925 194 129 151 
0.048311 0.368339 3.77396 135 108 97 
0.497413 0.643909 3.83509 74 8 0 
0.174477 0.594604 3.74628 178 141 135 
0.6945 0.694571 3.80705 120 100 93 
0.191493 0.595515 3.75228 37 6 0 
0.00440034 0.305373 3.81001 154 133 116 
0.700856 0.569781 3.88689 106 81 61 
0.0601416 0.346177 3.82453 250 218 203 
0.034832 0.328342 3.8 247 219 207 
0.71551 0.545581 3.94694 71 53 33 
0.525278 0.890031 3.5634 131 30 60 
0.247436 0.287989 3.96558 155 144 138 
0.0597874 0.362476 3.80543 250 218 205 
0.72567 0.546077 3.98072 186 158 144 
0.292992 0.419955 3.91332 43 3 0 
0.399441 -0.389293 4.54555 20 20 18 
0.419365 0.544642 3.78271 129 129 129 
-0.00959396 0.295993 3.83836 243 220 206 
0.22829 0.319606 3.88445 255 226 208 
0.00255727 0.30486 3.84192 151 132 115 
-0.0941422 0.306413 3.89648 119 105 102 
0.0477676 0.319284 3.83022 132 100 89 
0.879911 0.0961107 4.1987 56 0 3 
0.328705 0.346427 3.97862 187 146 160 
0.250811 0.303686 3.98011 146 140 144 
0.267046 0.782625 3.58147 8 37 19 
0.21662 0.656091 3.70643 200 158 133 
0.663274 0.730109 3.71849 50 4 4 
0.39665 0.467949 3.98959 37 17 8 
0.834298 0.252582 4.1949 147 137 125 
0.404804 0.776785 3.5865 242 202 177 
0.589901 0.316679 4.11245 246 111 143 
0.464494 0.177508 4.14721 101 14 5 
0.291765 0.287985 3.97038 171 166 160 
0.396999 0.794645 3.62904 73 83 74 
0.587137 0.804837 3.66255 117 19 42 
-0.206516 0.497785 3.66933 121 121 123 
0.384354 0.274943 4.00251 157 148 143 
0.719222 0.612793 3.82664 63 0 0 
0.533812 0.570637 3.86577 156 105 114 
-0.0253301 0.132584 3.94575 60 5 0 
-0.0512687 0.264313 3.94469 69 35 23 
0.0321098 0.351765 3.79437 138 110 96 
-0.0860806 0.515355 3.67694 209 200 191 
0.473293 0.813436 3.5844 182 174 171 
0.551389 0.426951 3.92519 253 243 234 
0.378436 0.742631 3.66535 64 78 27 
0.35889 0.50734 3.88241 140 117 103 
0.0748753 0.364224 3.80419 134 104 94 
0.00718363 0.293509 3.83434 212 185 164 
0.250519 0.387847 3.94864 71 23 3 
0.0483034 0.367047 3.80477 252 225 208 
0.676613 0.713112 3.76241 136 109 114 
0.28646 0.454175 3.89873 43 13 2 
0.143023 0.50912 3.81451 167 153 140 
0.514458 -0.0600694 4.4596 153 124 110 
0.174346 0.127541 3.96188 97 14 0 
0.378168 0.506514 3.88677 126 136 111 
0.406052 0.505112 3.91323 27 42 19 
0.0825126 0.345789 3.82417 157 124 107 
0.381637 0.490676 3.90651 31 8 0 
0.40561 0.487811 3.93428 143 126 116 
0.51591 0.549808 3.84554 49 0 4 
-0.0962405 0.390825 3.79799 252 255 250 
0.30185 0.45041 3.93268 63 37 12 
-0.350404 -0.903547 5.02735 139 121 111 
0.0726224 0.335704 3.81214 127 96 78 
0.292136 0.816861 3.6325 81 87 59 
0.436997 0.424873 3.95542 77 36 8 
0.478992 0.608895 3.83922 108 104 79 
0.0413707 0.358762 3.79531 141 115 100 
-0.27593 -0.504035 4.6643 85 76 69 
0.737229 0.497995 3.97005 192 113 134 
0.339064 0.28275 4.02027 183 176 166 
0.45982 0.476294 3.88205 209 136 83 
0.303692 0.448073 3.9446 54 26 2 
0.694874 0.780882 3.64181 186 97 119 
0.442307 0.444137 3.93806 151 117 107 
0.715041 0.836368 3.5474 57 0 21 
0.444845 0.763887 3.63918 92 5 24 
0.443824 0.433477 3.96899 31 0 0 
0.644828 0.51878 3.95359 210 121 153 
0.383675 0.425062 4.134 45 6 0 
0.054356 -1.12029 5.44114 77 61 48 
0.0617978 0.366086 3.76931 249 219 208 
0.60966 -0.216235 4.29706 79 79 89 
0.307223 0.396692 3.98318 71 24 4 
0.380688 0.508999 3.90838 126 136 111 
0.567142 0.773114 3.67741 179 158 157 
0.0518801 0.3542 3.71868 226 197 181 
0.709794 0.531429 3.91735 38 0 0 
0.771638 0.541145 3.92435 198 114 140 
0.0554308 0.345914 3.78857 134 102 87 
0.00638696 0.345457 3.8178 246 218 206 
0.736727 0.545575 3.93269 45 12 7 
0.392149 -0.423579 4.63918 35 30 24 
0.322135 0.377663 4.01266 60 0 0 
0.417333 0.519805 3.84204 191 192 178 
-0.0898323 0.343219 3.92857 164 135 119 
0.688239 0.678052 3.76606 138 75 83 
0.33687 0.525277 3.8816 134 141 125 
0.424447 0.523033 3.80996 91 65 64 
0.16794 0.147249 3.97845 121 29 16 
0.295137 0.809406 3.60393 27 43 14 
0.281861 0.803617 3.59645 18 33 2 
0.33517 0.352416 4.0368 187 146 160 
0.0490633 0.319942 3.84272 164 135 121 
0.721927 0.567507 3.91105 184 172 156 
0.0595408 0.31725 3.88471 143 121 108 
0.00200102 0.303793 3.82087 151 132 115 
-0.00379098 0.306337 3.86064 255 229 216 
0.0157312 0.301816 3.82486 246 213 198 
0.697636 0.567303 3.8707 106 81 61 
0.0680527 0.322119 3.85192 146 122 98 
0.726573 0.82113 3.57726 142 34 70 
0.0486893 0.519779 3.7758 245 234 216 
0.493553 0.761118 3.67003 255 252 252 
0.678678 0.569442 3.87855 153 139 128 
-0.00429028 0.287156 3.80444 255 234 220 
-0.0130537 0.289109 3.8531 142 114 100 
-0.0344293 0.286157 3.88233 248 226 212 
0.0671702 0.295368 3.95176 11 0 16 
-0.178922 0.494756 3.6438 248 250 247 
0.375685 0.739485 3.65141 77 88 45 
0.67177 0.336899 4.10919 158 92 119 
0.56695 1.01566 3.3098 211 114 145 
-0.0778292 0.279147 3.8905 61 14 8 
-0.0272191 0.277996 3.87853 101 75 62 
-0.0391604 0.274858 3.87066 232 202 191 
0.672717 0.580178 3.88621 158 148 138 
0.553097 0.575755 3.88889 149 128 123 
-0.0375475 0.515076 3.6847 183 186 179 
0.0106018 0.521396 3.69073 207 212 208 
0.757762 0.517052 3.90298 37 17 6 
0.447895 0.564606 3.80345 202 194 191 
-0.0354939 0.514856 3.64157 68 71 64 
0.85108 0.315855 4.11474 154 122 107 
-1.49255 -2.6786 6.13045 255 248 192 
-1.4434 -2.6442 6.10614 249 216 163 
-0.0721226 0.524013 3.67769 216 222 212 
0.484071 0.838506 3.62451 57 4 10 
-0.0334852 0.527728 3.68739 252 250 253 
0.545438 0.293274 4.12336 247 133 158 
-0.376627 -0.863234 5.04783 55 44 38 
0.391695 0.807445 3.63485 198 198 200 
-0.0232869 0.241819 3.89087 125 107 105 
0.493369 0.587307 3.86442 48 0 0 
0.448606 0.244312 4.02542 182 179 174 
0.649462 0.597248 3.86163 52 0 5 
0.343183 0.256227 4.02966 142 129 123 
0.386022 0.258368 4.04387 123 116 110 
0.398382 0.754709 3.69239 34 19 0 
0.486803 0.259165 4.03646 245 220 213 
0.467856 0.860336 3.54796 223 145 171 
0.393272 0.251913 4.02872 136 127 120 
0.47835 0.802682 3.59765 38 0 5 
0.76643 0.269074 4.11678 198 198 198 
0.703337 0.609779 3.86917 18 0 0 
0.31317 -0.215471 4.59584 143 115 91 
0.751585 0.745845 3.6087 145 59 88 
0.474984 0.237629 4.06923 155 145 133 
0.0350551 0.547884 3.65075 186 190 175 
0.810059 0.2535 4.2103 165 126 111 
0.204431 0.724439 3.66561 180 142 139 
0.471687 0.219201 4.04048 94 46 26 
0.724382 0.803809 3.55814 75 29 42 
0.299661 -0.209079 4.53654 111 83 62 
0.714416 0.625632 3.83892 205 123 146 
-0.0168138 0.161452 3.90892 188 137 120 
0.491993 0.83675 3.63153 206 149 158 
0.376263 0.805418 3.66116 232 230 233 
-0.0217594 0.153943 3.90019 183 140 108 
0.397805 0.604777 3.78792 87 88 80 
-0.00132375 0.148519 3.9477 47 5 0 
0.581852 -0.33014 4.42587 162 201 255 
0.627049 -1.40053 4.96696 138 131 123 
0.175228 0.155059 3.98796 95 17 0 
0.584867 0.892772 3.57097 216 133 159 
0.71576 0.637151 3.84816 58 0 12 
0.177697 0.14505 3.96808 102 20 0 
0.445482 0.624862 3.83395 144 126 116 
-0.0916855 -0.205207 4.19597 95 93 107 
0.715112 0.793685 3.54994 56 0 8 
-0.164529 0.0917913 3.95831 52 12 4 
0.579116 0.954083 3.4877 132 97 91 
0.209889 0.768052 3.56762 36 4 0 
0.370904 0.118734 4.04727 78 32 8 
0.494895 0.642194 3.82166 73 5 0 
0.579747 0.645256 3.7887 88 36 49 
0.291706 0.103902 4.03424 181 135 120 
0.61091 -0.169336 4.34487 244 243 248 
0.665684 0.89742 3.44836 98 9 31 
0.495227 -0.171571 4.34455 41 41 43 
0.688496 0.675004 3.8042 90 14 27 
0.367118 0.734584 3.64583 26 18 0 
-0.0172397 0.150607 3.94248 56 19 0 
-0.210334 -1.45464 5.5216 254 247 218 
0.628965 0.803912 3.66393 103 23 32 
0.498605 0.676272 3.74554 49 26 18 
-0.342904 -1.45673 5.61307 85 49 0 
0.490297 1.08071 3.31003 136 18 68 
0.491101 0.689628 3.74624 85 17 16 
0.408979 -0.0788721 4.44524 217 189 178 
0.478188 -0.0350251 4.40792 249 207 193 
0.322585 -0.0389562 4.19392 244 114 152 
0.443524 -0.041661 4.42254 235 161 158 
0.724764 0.785507 3.57452 48 0 5 
0.638595 0.799534 3.6621 220 144 148 
0.518511 -0.0604699 4.44809 48 21 4 
0.292107 -0.0730453 4.41962 95 39 48 
0.604459 0.985595 3.34425 141 88 106 
0.287851 -0.0755757 4.43681 252 191 196 
-0.430064 -1.36461 5.49816 156 96 26 
0.331042 -0.0767438 4.45399 158 130 116 
0.326924 -0.0813097 4.43143 65 33 22 
0.289066 -0.0834024 4.3767 200 184 169 
0.668852 0.734217 3.7458 43 3 4 
0.378933 -0.102838 4.48372 253 188 186 
0.197244 -0.121151 4.39066 81 63 53 
0.759802 0.722361 3.62298 149 18 68 
-0.351969 -0.915518 5.09011 154 140 131 
0.355106 -0.125059 4.45259 64 31 26 
-0.0968023 -0.143159 4.14888 231 231 239 
0.362609 -0.134394 4.50287 229 174 171 
0.358157 -0.140339 4.49509 240 164 166 
0.511771 1.04731 3.2842 215 113 160 
0.203677 0.708815 3.62895 229 186 167 
-0.0769458 0.899436 3.37994 166 138 134 
0.342382 0.727704 3.67431 133 153 125 
-0.00927701 -0.164494 4.19372 95 95 105 
-0.0496515 -0.167864 4.1859 236 235 241 
-0.0552353 -0.169931 4.17561 128 133 139 
0.641133 -0.141057 4.26003 240 239 245 
0.535862 0.896881 3.57904 248 182 156 
0.391122 0.790617 3.59191 167 178 164 
0.489278 0.665802 3.73573 232 113 155 
0.229907 0.320834 3.89752 255 226 208 
0.593053 0.639708 3.82144 76 41 48 
0.189042 0.594084 3.73874 42 13 0 
0.398896 0.469725 4.00335 37 17 8 
-0.0278028 0.130658 3.87726 69 15 0 
-0.259532 0.691692 3.49436 129 11 43 
0.0739734 0.329476 3.82086 151 122 106 
0.718581 0.600558 3.82151 40 0 0 
0.131927 0.368724 3.90996 63 18 0 
0.387479 -0.418726 4.52952 24 23 19 
0.399271 -0.0674222 4.41596 213 179 169 
-0.005314 0.91836 3.36624 139 142 133 
0.596182 0.76385 3.69631 56 0 6 
0.209142 0.705497 3.60058 249 251 238 
0.35913 -0.0801032 4.4763 145 79 83 
0.389043 -0.119907 4.42563 247 198 193 
0.32939 -0.0818536 4.46414 65 33 22 
0.390444 -0.422434 4.62681 35 30 24 
0.461877 0.576432 3.76674 248 242 228 
-0.0965256 -0.141782 4.13686 232 232 240 
0.489181 0.755579 3.64239 255 254 253 
0.736716 0.763084 3.60562 57 0 14 
0.437316 -0.0452105 4.43119 96 28 19 
0.736762 0.757215 3.56549 80 12 37 
0.307539 0.417599 3.97044 240 204 180 
0.4603 0.42707 3.98178 53 3 0 
-0.353285 -0.920199 5.11438 154 140 131 
0.445373 0.434569 3.98444 72 39 22 
-0.115986 0.385293 3.78995 200 202 197 
0.324067 0.762973 3.61779 72 98 73 
-0.0327974 0.287816 3.91392 255 239 223 
0.406419 0.592288 3.77668 163 153 151 
-0.0306672 0.519298 3.67662 231 234 227 
-0.029198 0.275961 3.85576 111 85 72 
-0.0383001 0.51387 3.66936 223 225 220 
0.726743 0.788624 3.58694 58 2 13 
0.682846 0.877564 3.49886 32 3 5 
0.734327 0.788696 3.57972 62 2 27 
0.699667 0.831251 3.50964 237 153 179 
-0.524477 -0.693883 4.24658 255 255 244 
0.674451 0.582309 3.89744 152 142 132 
0.541208 0.569272 3.85218 197 191 179 
0.714767 0.575131 3.84346 44 2 6 
0.502653 0.689498 3.80116 178 163 144 
-0.512365 -0.671133 4.20479 182 182 174 
0.488661 0.682823 3.76202 59 4 7 
0.807307 -0.545277 4.79581 47 40 32 
0.615745 -1.33105 4.98615 95 86 77 
0.623198 -1.33669 4.97975 38 31 23 
-0.179883 0.50044 3.68389 248 250 247 
0.614621 -1.33827 4.97435 225 216 207 
0.643546 -1.37154 5.16575 61 54 46 
-0.0445239 0.507094 3.71506 255 255 248 
0.565645 0.665575 3.79469 32 2 10 
0.369957 0.635331 3.71883 173 146 125 
0.730388 0.769464 3.57359 252 189 200 
0.71923 0.537625 3.95784 37 0 0 
0.384904 0.800857 3.6054 215 213 218 
0.489121 0.822259 3.65385 243 225 225 
0.337513 0.101609 4.06358 65 16 0 
0.734032 0.546829 3.92203 31 0 0 
0.293518 0.111058 4.08081 45 0 0 
-0.0935725 -0.199523 4.20814 245 243 255 
0.355683 0.762345 3.65387 31 41 30 
0.579565 0.637847 3.80727 186 128 143 
0.768065 0.532976 3.94931 40 0 3 
0.734583 0.604267 3.91297 79 3 13 
0.290516 0.431521 3.97705 44 12 1 
0.326053 -0.102595 4.44163 245 164 161 
0.572544 0.588184 3.8625 166 92 117 
0.37531 -0.102078 4.45919 253 187 188 
0.630026 0.981856 3.37186 56 4 17 
-0.105667 -0.183128 4.21801 251 251 255 
0.724974 0.818336 3.56459 148 38 75 
0.703393 0.807184 3.51968 113 15 40 
0.442139 0.823804 3.62564 54 18 28 
0.58997 0.636809 3.80829 76 41 48 
0.538141 0.557677 3.84239 61 0 10 
-0.274539 -1.00743 5.19737 145 125 114 
0.290238 0.422418 3.96934 208 173 153 
0.322681 0.0920051 3.98257 193 149 124 
0.482161 0.744465 3.64157 251 241 242 
0.802982 0.25191 4.18478 133 101 88 
0.734692 0.539189 3.96133 54 30 4 
0.556894 0.584521 3.91146 119 102 95 
0.319555 -0.0881317 4.4601 72 45 38 
0.549233 0.824591 3.58504 127 40 49 
0.703565 0.529473 3.96028 206 112 146 
0.394544 0.502876 3.88795 130 144 118 
0.107776 0.482667 3.85374 4 0 0 
0.434016 0.428802 3.9768 195 151 122 
-0.429968 -1.36234 5.48334 160 90 20 
0.511306 -0.0613129 4.48369 49 20 4 
0.566281 -0.172366 4.3011 99 99 107 
0.684909 0.672959 3.79006 90 14 27 
0.509695 -0.136222 4.32258 42 42 44 
-0.433372 -0.696952 4.24393 91 43 39 
0.381778 -0.118202 4.49298 126 76 75 
-0.175455 0.119784 4.00704 51 21 21 
0.47476 0.660911 3.74248 119 24 32 
0.307428 0.45635 3.89559 60 24 10 
0.488125 0.686131 3.72425 85 17 16 
-0.0772035 0.383081 3.88899 29 0 0 
0.611592 -0.21669 4.31196 79 79 89 
0.621896 0.80023 3.64307 107 23 38 
0.683145 0.683253 3.75717 144 114 103 
0.588408 -0.209268 4.31397 100 100 110 
0.466962 0.480473 3.92138 247 165 107 
0.681869 0.571689 3.89006 153 139 126 
0.0833443 0.334834 3.81648 108 71 62 
0.515642 -1.30736 5.02738 84 32 36 
0.72685 0.492741 3.92216 205 115 141 
0.434228 -0.0545623 4.42078 119 86 67 
0.642136 0.585891 3.85159 54 6 20 
0.50474 0.675884 3.75993 127 108 101 
0.224033 0.768668 3.57612 143 151 127 
0.318888 0.807177 3.53913 15 29 12 
-0.00898132 -0.163648 4.2043 83 83 93 
-0.570694 -0.672796 4.25656 92 85 75 
0.644182 0.577231 3.8994 35 16 10 
0.259243 0.400867 3.94182 96 60 36 
0.207595 0.735693 3.62236 181 128 122 
0.472467 0.864845 3.57277 221 130 163 
0.0371911 0.552307 3.6756 250 253 236 
0.731005 0.622296 3.88312 63 0 0 
-0.0172574 0.433548 3.78962 248 232 209 
0.491886 0.66978 3.75272 224 112 148 
0.592522 0.810794 3.69227 117 19 42 
0.117499 0.614153 3.77332 210 181 165 
0.705352 0.541629 3.91375 36 21 2 
-0.416669 0.667468 3.34065 118 33 62 
0.67171 0.737185 3.75659 50 4 4 
0.388474 0.444489 3.99064 51 24 17 
0.630233 -1.40598 4.98531 125 118 110 
0.355413 0.771132 3.58569 99 107 96 
0.0544055 0.38032 3.76294 244 220 208 
0.311647 0.395441 3.94063 64 19 0 
0.683158 0.656991 3.77752 207 139 162 
0.291667 0.716808 3.66063 174 135 120 
0.483705 1.07073 3.2807 134 16 66 
0.654168 0.815507 3.73447 206 124 136 
0.527703 0.698433 3.75198 52 8 21 
0.514494 -0.059432 4.4201 38 10 0 
0.39243 0.793186 3.6015 175 183 170 
0.162753 0.378858 3.91672 163 123 98 
0.100608 0.641469 3.42955 112 110 111 
0.761258 0.27768 4.16254 145 134 132 
0.279417 0.325252 3.93296 198 131 115 
0.757233 0.550322 3.96214 123 14 45 
0.675903 0.60319 3.87064 140 132 121 
0.325175 -0.038739 4.2307 244 114 152 
0.336194 0.804991 3.54223 0 10 2 
0.664124 -0.182508 4.29768 247 246 254 
0.401001 0.60871 3.82 181 180 175 
0.613351 0.992236 3.36586 225 125 161 
0.496168 0.821025 3.63376 254 191 210 
0.0504326 0.294956 3.88117 30 17 24 
0.486311 0.816971 3.629 246 228 228 
-0.383246 -0.867106 5.03472 151 137 124 
0.711738 0.841474 3.55553 255 182 207 
0.491028 0.259362 4.07549 242 228 217 
0.495476 0.84595 3.61175 44 4 4 
0.736926 0.773358 3.59466 245 189 198 
0.611396 -1.30325 4.93125 123 119 110 
0.421671 -0.072035 4.43715 96 67 51 
0.382308 -0.418244 4.56179 119 112 104 
0.629951 -1.34284 5.00954 21 14 6 
0.688384 0.636158 3.78479 211 135 161 
-0.344215 -1.4485 5.57054 75 41 3 
0.71464 0.565408 3.88561 205 188 162 
0.195454 0.33205 3.93469 252 245 227 
0.643172 0.561615 3.89774 166 153 144 
-0.349807 -0.907222 5.14774 202 187 182 
0.718871 0.538109 3.93086 199 168 148 
-0.0709648 0.0699314 4.06175 109 92 85 
-0.149371 0.0573892 4.02992 35 26 17 
-0.340232 -0.914743 5.09423 33 22 18 
-0.523443 -0.702077 4.23775 54 56 45 
0.105342 0.346 3.81521 243 211 200 
0.548223 0.565342 3.89666 49 0 4 
-0.512145 -0.670159 4.19044 186 186 178 
0.865717 0.278277 4.20234 38 2 4 
0.13131 0.367299 3.8989 65 17 0 
0.475727 -0.0348677 4.38957 240 202 189 
0.50261 0.704566 3.69602 25 14 12 
0.453105 0.789537 3.61276 78 70 67 
0.461826 0.806928 3.67179 9 0 0 
0.467742 0.581325 3.8013 248 242 228 
0.364075 0.791998 3.61576 17 21 20 
0.327422 -0.0714297 4.42974 91 52 45 
0.397986 -0.0734541 4.42817 221 183 172 
0.772993 -1.70016 5.3588 2 1 0 
0.82026 -0.511047 4.7729 23 13 14 
0.460666 0.482238 3.89162 45 13 2 
0.496387 0.836564 3.60133 255 210 190 
0.202993 -0.104388 4.39619 229 201 197 
0.499414 0.601259 3.82364 53 15 2 
0.39551 -0.122065 4.48223 237 184 180 
-0.101083 -0.144809 4.2033 51 51 59 
0.353234 -0.135266 4.45425 252 197 194 
0.453454 0.483081 3.96007 194 131 98 
0.73209 0.735581 3.55717 213 139 164 
0.501931 0.699453 3.78792 31 3 0 
0.500937 0.685737 3.7772 189 172 156 
0.739623 0.766817 3.62384 57 0 14 
-0.113977 0.39164 3.822 220 222 217 
0.493226 0.685645 3.78726 53 3 6 
0.577809 -0.197304 4.28544 161 161 169 
-0.0456578 0.504452 3.6974 238 240 229 
0.714887 0.809583 3.52417 126 16 53 
0.684714 0.864838 3.47843 255 154 196 
0.592731 0.779196 3.69947 42 0 1 
0.589408 0.645887 3.85109 197 134 153 
0.458242 0.424507 3.96955 77 23 11 
0.800809 -1.75784 5.43397 114 111 96 
0.430939 0.798527 3.5785 87 77 76 
0.310485 0.459212 3.9316 63 29 17 
0.595488 -0.147828 4.41766 118 117 123 
0.52528 0.695561 3.7409 59 5 21 
0.604005 -0.167439 4.32185 226 225 230 
-0.274397 -1.00157 5.16607 135 113 102 
0.0683792 0.300709 4.01436 44 36 49 
0.225977 0.635091 3.77999 115 51 24 
-0.0769607 0.381557 3.87292 29 0 0 
0.487115 -0.0323483 4.3731 232 170 155 
0.49036 0.751745 3.68236 218 208 207 
0.431499 -0.0449388 4.38882 104 34 24 
-0.0150723 0.293311 3.81066 255 238 224 
0.420086 0.782832 3.5897 239 210 202 
0.285999 0.477664 3.82954 67 34 17 
0.690109 0.674297 3.81457 108 35 55 
0.71858 0.579584 3.96465 55 40 19 
0.498242 -0.167642 4.31701 195 194 200 
0.604953 0.479275 3.94642 79 7 31 
-0.0734748 0.25407 4.02711 23 2 0 
0.108462 0.484755 3.87419 4 0 0 
-0.434753 -0.701823 4.27862 102 44 42 
0.713276 0.622896 3.82783 221 127 154 
0.572373 1.02423 3.33391 237 137 173 
0.541765 -1.2785 4.99226 76 27 31 
0.585805 0.631337 3.7887 36 11 15 
0.482121 0.607282 3.82473 25 17 0 
0.488967 0.744138 3.63112 230 219 217 
0.560507 0.764755 3.63835 179 158 157 
0.711864 0.615291 3.88548 171 163 140 
0.652099 -1.38593 5.08745 149 144 138 
0.489971 0.126517 4.23601 237 131 133 
0.765886 0.694864 3.63595 247 135 175 
0.65851 0.726452 3.70563 42 11 6 
0.382524 0.774065 3.65816 88 21 0 
-0.00545651 0.161244 3.90992 47 0 0 
0.434141 0.750215 3.58055 125 30 50 
0.521986 0.887588 3.54788 134 33 65 
0.452648 0.130458 4.16155 250 194 179 
0.567247 -1.33665 4.99722 240 233 223 
0.733994 0.49716 3.95427 192 113 134 
0.448827 0.432243 4.03203 65 28 2 
0.762013 0.536544 3.922 206 108 131 
0.00401259 0.310851 3.83318 255 246 228 
0.763732 0.552293 3.98999 110 6 33 
0.348775 0.824228 3.63564 7 20 10 
0.479989 0.202149 4.08509 244 161 127 
0.358761 0.759431 3.68131 131 121 109 
0.706765 -1.56569 5.25205 184 125 129 
0.279045 0.812225 3.4912 50 17 8 
0.0860986 0.338461 3.8582 108 71 62 
0.16171 0.160499 4.03652 101 23 0 
0.00864673 0.297937 3.88244 212 185 164 
0.867719 0.319532 4.17533 191 120 114 
0.60432 -0.216444 4.27253 124 124 134 
0.583377 0.960833 3.51766 120 90 79 
0.00874722 0.486207 3.69158 255 253 232 
0.539851 -1.26729 5.00895 176 122 122 
0.518449 -0.0628984 4.52707 56 27 11 
0.333826 0.724381 3.70692 130 151 120 
0.512023 0.869895 3.58494 110 24 33 
0.70779 -1.37134 5.06762 15 15 5 
0.39461 -0.0723279 4.47175 106 78 64 
0.405161 -0.0750122 4.47244 226 190 178 
0.372485 -0.0860151 4.47896 244 205 198 
0.348367 0.760297 3.66319 18 24 20 
-0.16879 -0.119141 4.15297 33 33 43 
0.402863 -0.1241 4.54955 237 184 180 
0.358763 -0.136449 4.52148 245 202 196 
0.52432 0.560529 3.89052 59 0 13 
0.409703 0.612981 3.85906 163 153 151 
-0.479442 -0.702073 4.25175 111 107 95 
-0.512902 -0.676263 4.13912 255 255 244 
0.65261 -0.142929 4.29434 48 48 56 
0.167555 0.258513 4.06496 219 166 135 
0.772239 -1.69306 5.33722 1 0 0 
0.795238 -1.68665 5.27916 170 171 165 
0.422925 0.520173 3.85154 218 195 189 
-1.49624 -2.68667 6.14061 255 247 193 
0.493674 0.677951 3.7328 195 178 162 
0.837914 -0.521868 4.86007 18 6 6 
0.166827 0.267023 3.97689 253 239 236 
0.494933 -0.181309 4.30685 100 99 107 
-0.435106 -1.38658 5.56515 148 71 1 
0.689225 -0.458114 4.59017 168 159 162 
0.101645 0.648217 3.45689 105 105 107 
-0.117643 -0.321864 4.26073 204 199 193 
0.393166 0.447624 4.01962 61 33 22 
0.637175 0.509108 3.9188 229 109 155 
-0.101171 -0.143186 4.16688 85 85 93 
0.690823 0.687017 3.78969 178 144 135 
-0.0755743 0.88883 3.34168 163 137 122 
0.525327 0.557924 3.82569 213 114 142 
0.546311 0.565636 3.88324 41 7 8 
0.366339 -0.129419 4.53153 76 39 33 
0.786894 0.244408 4.12038 187 150 134 
0.102821 0.473329 3.79995 5 4 0 
-0.1144 0.395796 3.85165 220 222 217 
0.653716 0.720593 3.68271 35 7 4 
0.633563 0.813602 3.70646 118 31 47 
-0.341363 -1.42979 5.5022 69 36 0 
0.430025 0.811973 3.59917 66 47 53 
0.481514 0.6732 3.72678 53 0 5 
0.493782 0.749541 3.66099 179 168 166 
0.485224 0.668608 3.78245 56 3 0 
0.52992 -1.259 4.91806 82 23 29 
0.462825 -0.0405054 4.40219 232 180 169 
0.572895 0.639646 3.76285 37 0 5 
0.344302 0.816328 3.59557 23 33 25 
0.302593 0.424521 3.99296 36 0 0 
0.72575 0.542304 3.99317 38 0 0 
0.55167 0.824976 3.59566 124 33 48 
0.490879 0.586232 3.84092 49 5 0 
0.462709 0.4318 4.0058 50 1 0 
0.642226 -0.143513 4.29151 230 229 235 
0.738793 0.740396 3.57649 255 195 224 
-0.351682 -0.910778 5.17822 200 185 178 
0.516796 -1.31462 5.04463 86 31 36 
0.494991 -0.0351765 4.41679 220 179 161 
0.439006 0.819623 3.60644 41 0 9 
-0.203975 0.502714 3.69727 149 149 151 
-0.05031 0.26178 3.96462 41 16 9 
0.672636 0.338679 4.13055 216 129 164 
0.572053 0.629935 3.75527 197 134 153 
-0.287197 -1.27601 5.40527 98 72 35 
0.583046 -1.36546 5.09658 241 237 226 
0.41683 0.778605 3.57257 239 210 202 
0.72996 0.761237 3.5906 37 2 6 
-0.284341 -1.49568 5.43847 85 32 0 
0.538828 0.898938 3.59505 248 182 156 
0.689997 0.886437 3.53506 42 0 8 
0.69733 0.679085 3.84412 74 0 20 
0.56678 0.581346 3.83698 219 124 158 
0.526448 -1.33907 4.95073 94 50 47 
0.77819 0.703332 3.67981 179 96 126 
-0.35319 -0.92585 5.15344 182 167 160 
0.556672 0.760394 3.61405 179 158 157 
0.718433 -1.58776 5.31427 191 139 143 
0.426478 -0.0770562 4.47715 116 87 69 
0.665227 -0.179463 4.26051 70 70 78 
0.699855 0.626221 3.78888 43 7 19 
0.651752 0.319865 4.12997 221 124 155 
0.740126 0.676906 3.54281 239 106 153 
0.725794 0.620203 3.86297 61 0 0 
0.438584 0.759545 3.61589 108 15 33 
-0.059955 0.51443 3.67629 240 245 238 
-0.559354 -0.655753 4.15882 92 85 75 
0.341027 0.0990644 4.09397 59 11 0 
0.506798 0.673555 3.77648 42 0 4 
0.659315 0.737225 3.76543 88 56 57 
0.695832 0.665731 3.8335 238 149 179 
0.755465 0.50205 3.964 185 73 85 
0.0459361 0.522561 3.7549 241 235 213 
0.405324 0.511768 3.95781 135 151 124 
0.443463 0.429748 3.99941 77 36 8 
0.39199 -0.0558483 4.48787 130 56 53 
0.394714 0.746627 3.65106 33 18 0 
0.0153753 0.302736 3.84489 240 207 192 
-0.345436 -0.880029 4.99125 213 199 190 
0.60442 0.477318 3.92977 76 4 26 
0.592837 0.779707 3.70988 45 15 17 
0.664193 -1.33896 5.00627 224 224 214 
0.384366 -0.117612 4.53583 122 63 65 
0.389181 -0.109336 4.54614 244 199 194 
0.532022 -1.35353 5.00711 95 47 45 
0.341499 -0.10801 4.53101 255 193 193 
0.614035 0.974447 3.3405 131 53 77 
0.732525 0.581563 3.91807 41 11 19 
0.779859 0.54544 3.97308 221 125 153 
0.557795 0.580121 3.92602 161 144 137 
-0.146499 -0.0910724 4.1213 75 74 72 
0.318078 0.767796 3.65142 214 214 204 
0.507399 0.842247 3.67153 44 25 29 
0.455064 0.569258 3.83826 244 235 230 
0.463043 0.815399 3.52383 82 47 51 
0.465329 0.0967288 4.26454 244 166 164 
-0.0694136 0.0689857 4.07773 161 143 131 
0.42863 0.80878 3.58721 75 45 53 
0.481619 0.123973 4.19434 243 148 152 
-0.535427 -0.661948 4.23427 31 27 18 
0.34359 0.793475 3.51067 188 197 194 
-0.285902 -1.25496 5.31544 98 75 41 
0.431597 -0.385793 4.64284 108 109 114 
0.458367 -0.0243391 4.24987 68 31 22 
0.773913 0.528909 3.95871 28 2 1 
0.555683 0.243221 4.17278 254 199 143 
-0.434303 -1.38287 5.53721 145 66 0 
0.837353 -0.526029 4.87837 31 26 22 
0.477325 0.253877 4.00709 240 231 222 
0.723052 0.762393 3.54423 161 95 107 
-0.345275 -1.44085 5.52947 81 43 7 
0.166968 0.264715 3.99365 255 250 247 
0.716596 -1.34311 5.01556 3 0 0 
0.633727 -1.35363 5.0442 34 27 19 
0.700713 0.629541 3.80312 50 25 31 
-0.127371 0.404175 3.80382 213 218 211 
0.657267 0.333082 4.06762 206 94 140 
0.299131 0.423298 3.97684 55 21 12 
0.665693 0.72784 3.73377 23 0 2 
0.44575 0.446832 3.99322 159 111 99 
-0.261547 0.298965 3.77602 219 214 211 
0.777954 -1.76509 5.51933 95 88 80 
0.876058 -1.75214 5.47377 21 23 12 
0.575949 0.68977 3.73524 55 0 15 
0.632372 0.79132 3.64424 226 174 152 
0.535784 -1.25954 4.96199 179 128 127 
0.0544288 0.374337 3.73523 232 209 195 
0.629443 0.551671 3.89704 45 0 11 
-0.236009 0.269523 3.77125 75 39 39 
0.747006 0.494727 3.92707 183 65 77 
-0.562468 -0.663162 4.20736 92 88 76 
0.576184 -1.3488 5.03162 230 228 216 
0.207238 -0.114589 4.50829 84 54 46 
0.455641 0.12942 4.1762 252 205 199 
0.446725 -0.0405542 4.30379 231 181 170 
-0.282126 -1.48586 5.40784 91 30 1 
0.68524 0.518442 3.87933 160 84 110 
-0.269714 0.316125 3.78608 182 173 166 
