ply                 
format ascii 1.0    
element vertex 367
property float x    
property float y    
property float z    
property uchar red  
property uchar green
property uchar blue 
end_header          
0.505533 0.235899 3.12972 209 135 158 
0.134087 0.249423 3.04528 158 131 112 
0.263175 0.270446 3.11434 106 60 44 
0.249711 0.27278 3.11255 80 33 15 
0.270654 0.264962 3.01601 70 27 11 
0.301244 0.276264 3.10691 82 47 27 
0.283222 0.277641 3.10665 50 13 0 
0.297219 0.274674 3.0716 178 145 126 
0.312422 0.278392 3.09574 75 38 19 
0.317818 0.281717 3.11457 96 51 32 
0.0229793 -0.0900338 3.29671 58 59 64 
0.319198 -0.0769439 3.42567 253 177 177 
0.319475 -0.0675761 3.41895 86 48 47 
0.217841 -0.0592063 3.41601 82 64 44 
0.265592 0.293759 3.09233 56 23 8 
0.358946 0.296832 3.08719 213 167 151 
0.305087 -0.0387143 3.39419 141 75 77 
0.344609 0.312591 3.0714 139 124 117 
0.332501 0.4131 2.97465 118 114 103 
0.262637 0.323898 3.06401 38 12 0 
0.300654 0.079604 3.13506 81 36 7 
0.323631 0.0922891 3.14008 68 23 0 
0.365663 0.175203 3.13438 127 118 113 
0.279575 0.100205 3.14159 62 17 0 
0.293172 0.357446 3.03069 138 146 131 
0.0707306 0.1075 3.13135 59 15 0 
0.0830285 0.113158 3.1327 184 139 120 
0.0868572 0.113039 3.13119 58 2 0 
0.0696151 0.11557 3.13192 48 5 0 
0.0810663 0.115678 3.13066 38 0 0 
0.0755642 0.116711 3.13306 54 13 0 
0.368564 0.169856 3.13268 154 149 145 
0.528096 0.369617 3.00585 68 53 34 
0.530211 0.366761 3.00678 183 166 146 
0.260791 0.334171 3.05598 42 16 0 
0.194044 0.10801 3.13821 97 9 0 
0.306458 0.0999864 3.14239 142 106 94 
0.427498 0.389134 2.99329 132 118 109 
0.296862 0.0851726 3.1371 77 26 0 
0.201398 0.408776 2.99218 52 16 2 
0.270079 0.266881 3.02039 95 49 34 
0.296531 0.368941 3.02051 119 132 123 
0.322233 0.34688 3.04274 129 143 120 
0.0831887 0.104896 3.12964 59 11 0 
0.329427 0.316425 3.06964 28 8 0 
0.270678 0.194193 3.12203 255 255 251 
0.36605 0.307393 3.07814 146 119 112 
0.080257 0.115227 3.12906 48 4 0 
0.0781262 0.114204 3.1331 176 137 120 
0.270039 0.0839323 3.13283 59 12 0 
0.0723407 0.11461 3.13099 187 147 121 
0.300292 0.0789638 3.13662 54 10 0 
0.332265 0.410137 2.97486 104 94 84 
0.529834 0.363569 3.01012 41 2 0 
0.376336 -0.0251748 3.38135 76 47 31 
0.293636 -0.0445371 3.40378 88 44 35 
-0.104431 -0.946071 4.17195 73 35 0 
0.319361 -0.0679521 3.41804 83 41 42 
0.318924 -0.0770499 3.425 253 177 177 
0.387195 0.462445 2.92844 76 5 21 
0.47805 -0.089549 3.26598 80 81 85 
0.511423 -0.111177 3.27566 70 74 77 
0.480814 -0.120774 3.2788 70 71 75 
0.281579 0.517665 2.86782 74 101 82 
0.225151 0.436333 2.96615 221 160 139 
0.222137 -0.0669733 3.42138 200 184 169 
0.219445 0.429152 2.97509 107 46 28 
0.203225 0.0959277 3.1317 235 168 141 
0.527632 0.369772 3.00523 68 53 34 
0.219648 0.316306 3.07068 141 153 133 
0.427362 0.389421 2.99516 132 118 109 
0.329486 -0.0551476 3.40711 248 172 174 
0.530213 0.366969 3.00711 183 166 146 
0.293376 0.357423 3.03108 138 146 131 
0.329231 0.316558 3.0693 28 8 0 
0.116322 0.265256 3.03068 242 218 206 
0.250334 0.276928 3.10903 70 25 4 
0.0713859 0.106767 3.1297 49 7 0 
0.285314 0.0822933 3.13735 52 7 0 
0.112622 0.250218 3.04668 140 112 101 
0.0671316 0.0952509 3.12885 48 0 0 
0.388673 0.466716 2.92412 98 27 41 
0.326221 0.323042 3.06408 30 11 4 
0.296752 0.0853018 3.13853 77 26 0 
0.261551 -0.0532375 3.40975 236 241 234 
0.378367 0.1692 3.14042 150 145 141 
-0.263871 -0.454262 3.39019 5 2 0 
0.287973 0.0801766 3.13601 54 9 0 
0.271339 0.0837694 3.13556 35 0 0 
0.279576 0.100381 3.14093 62 17 0 
0.0807741 0.115904 3.13062 38 0 0 
0.286101 0.52277 2.86631 203 211 198 
0.276352 0.272293 3.09258 70 27 11 
0.363334 0.294421 3.08871 41 3 0 
0.363948 0.29789 3.08303 43 9 0 
0.307288 0.0997257 3.1423 127 90 81 
0.294386 0.358002 3.03286 151 159 144 
0.504145 0.394067 2.98769 174 169 150 
0.221783 -0.0584893 3.41333 205 187 167 
0.332424 -0.0627095 3.41279 112 59 55 
-0.0697128 -0.661667 3.98321 26 8 0 
0.0780643 0.114582 3.13211 184 143 125 
0.456473 0.223259 3.14922 246 94 145 
-0.104171 -0.945756 4.17371 89 52 7 
0.0642666 0.638345 2.78075 140 140 138 
0.480755 -0.12124 3.28163 70 71 75 
0.328816 0.345977 3.04303 10 18 5 
0.259608 0.333349 3.05445 39 17 3 
0.509819 0.38858 2.98994 134 119 112 
0.359201 0.295611 3.08831 198 153 134 
0.287447 0.260121 3.12366 124 61 44 
0.296271 0.0741752 3.13351 177 139 116 
0.393171 0.461895 2.93135 186 168 156 
0.193775 0.107782 3.13809 98 9 0 
0.186759 0.115254 3.1381 105 22 6 
0.0751965 0.117595 3.13312 109 65 36 
0.282855 0.518633 2.87035 87 114 95 
-0.299578 1.48959 3.6398 220 184 158 
0.296585 0.0767107 3.12893 105 67 44 
0.367067 0.376469 2.96366 16 5 0 
0.307529 0.536731 2.86353 5 16 8 
0.345169 -0.0345762 3.39138 228 200 189 
0.0613681 0.191148 3.09981 137 114 100 
0.529095 0.363818 3.0105 48 8 8 
0.329855 0.410341 2.97145 184 170 157 
0.53377 0.36737 3.01093 198 185 153 
0.284359 -0.122897 3.4679 95 64 44 
0.278588 0.100805 3.13852 87 40 22 
0.3635 0.293513 3.09 61 23 0 
-0.0670464 -0.994204 4.14463 87 25 0 
0.0866602 0.111781 3.13522 58 2 0 
0.192309 0.105305 3.13431 126 28 19 
-0.150731 1.25447 3.84531 210 184 159 
0.261957 -0.0533027 3.40899 236 241 234 
0.150795 0.122546 3.14087 213 108 113 
0.00032755 -0.143138 3.33347 186 190 191 
-0.261566 -0.45312 3.38166 6 3 0 
0.279892 0.100045 3.13936 88 41 23 
0.363987 0.383233 2.96196 232 227 224 
0.529317 0.363254 3.01158 48 8 8 
0.347738 0.353323 2.99183 226 207 203 
0.52107 0.358759 3.0182 218 102 147 
0.0629563 0.637562 2.77943 137 137 135 
0.513012 0.388219 2.98778 98 84 75 
-0.0666347 -0.993446 4.14548 94 28 0 
0.318323 -0.0740743 3.42916 255 206 202 
0.300093 0.0777368 3.13489 49 5 0 
-0.873528 1.06534 4.06061 206 175 147 
0.492892 0.224658 3.1407 204 115 147 
-0.407122 1.62612 3.50716 211 181 155 
0.291533 -0.121818 3.46632 100 66 41 
-0.149442 1.25556 3.84299 225 201 175 
0.481614 -0.122049 3.28675 98 99 103 
0.565861 -0.987752 3.85246 97 31 41 
-0.173623 1.31794 3.77062 234 208 185 
0.544354 -0.837885 3.69315 246 243 234 
-0.178837 1.72462 3.41313 212 182 144 
0.0960247 1.65899 3.44535 227 192 160 
0.0277469 1.64482 3.47791 240 210 182 
0.494445 -0.0730369 3.25054 221 220 226 
0.280391 0.100323 3.1405 43 0 0 
0.319566 -0.0708546 3.41291 197 149 147 
-0.0659467 -0.994296 4.1427 87 24 0 
0.524278 0.363498 3.01063 51 20 28 
0.483103 0.347558 3.02276 227 106 149 
0.307183 0.505822 2.89547 213 159 115 
-0.180524 1.72303 3.4077 215 185 149 
0.0951011 1.65585 3.4424 225 189 157 
-0.324308 1.64995 3.47908 213 188 158 
0.289828 0.523181 2.87061 217 218 210 
0.470568 -0.136558 3.31321 106 105 111 
-0.147258 1.25757 3.84526 228 204 176 
-0.564862 1.525 3.59307 213 185 148 
0.413877 -0.026302 3.37596 49 21 7 
0.268749 0.490943 2.90877 213 199 173 
0.315982 0.443016 2.95463 226 195 164 
0.315766 -0.035955 3.39585 137 86 82 
0.255407 0.500458 2.83132 98 99 94 
0.641585 0.0824447 3.15995 233 138 146 
0.312661 0.453116 2.94335 181 149 136 
0.303424 -0.0566454 3.41458 245 171 172 
0.309247 0.347106 3.04321 165 143 132 
0.267639 0.549879 2.8527 6 24 0 
0.0832861 0.212593 3.08307 150 127 113 
0.261845 0.518276 2.91693 98 99 94 
0.253402 0.545322 2.86044 37 57 20 
0.523584 0.414443 2.96203 170 165 143 
0.276272 0.497776 2.90247 249 219 185 
0.236952 -0.0559601 3.41524 172 147 142 
0.310397 -0.0645279 3.41768 254 193 192 
0.138228 -0.494712 3.81412 61 54 48 
0.0402596 0.0524749 3.24961 188 167 148 
0.510158 0.461324 2.91243 200 167 148 
0.310464 -0.0648024 3.40079 247 200 194 
0.37601 0.443262 2.94854 52 39 22 
0.311456 0.452253 2.94051 182 158 148 
0.336017 0.343981 3.04025 27 45 23 
0.0763967 -0.0887802 3.2986 205 204 209 
0.505593 0.39005 2.98527 33 16 9 
0.0943283 0.238276 3.05578 116 84 73 
0.0861319 0.235273 3.06517 103 75 61 
0.257781 0.509672 2.87126 102 112 103 
0.0812811 -0.106044 3.29631 88 89 94 
0.364843 0.297469 3.08367 42 1 0 
0.220361 -0.0694141 3.43771 238 214 212 
0.150804 -0.490363 3.82457 173 151 137 
0.265732 0.490266 2.90361 237 220 204 
0.141067 -0.49189 3.81894 71 58 52 
0.334811 0.408639 2.97312 204 195 188 
-0.124087 -0.613238 3.9458 129 110 104 
-0.0687209 -0.661814 3.98317 37 22 15 
0.120711 0.223296 3.07621 97 60 51 
0.122096 0.255692 3.04236 255 242 227 
0.0755282 -0.131988 3.31408 89 89 101 
0.0282342 -0.0396862 3.30774 200 200 200 
0.509627 0.462496 2.91057 162 146 131 
-0.0730131 0.41006 2.99107 148 113 111 
0.461932 0.267596 3.05588 202 133 152 
0.337803 -0.0620408 3.42459 114 57 63 
0.377066 0.394419 2.9549 74 24 1 
0.31707 -0.0832407 3.44836 255 225 225 
-0.0985979 -0.949587 4.19345 81 51 0 
-0.0959503 0.227392 3.16954 60 46 35 
0.252806 0.455455 2.94267 203 153 152 
-0.0953975 0.172607 3.21287 219 209 199 
0.292852 -0.121758 3.47882 255 243 233 
-0.0853859 0.230962 3.17032 62 51 45 
0.483756 0.38874 2.99027 27 7 6 
0.360088 0.336828 3.04469 20 33 5 
0.300817 0.525866 2.85266 102 114 104 
0.321252 0.403139 2.9838 145 137 118 
0.506828 0.177206 3.19 164 114 117 
0.183337 0.227467 3.16472 54 39 62 
0.326385 0.323386 3.06432 28 14 1 
0.384661 0.461572 2.92378 88 33 38 
-0.00486691 -0.0812018 3.31056 142 142 150 
0.284262 0.489594 2.90995 169 174 154 
0.156163 0.107277 3.13781 107 25 4 
-0.0702457 -0.669669 3.99559 98 81 73 
-0.0143342 0.422697 2.98957 57 5 0 
0.42681 -0.096461 3.29568 242 239 246 
0.361656 -0.0678607 3.42896 233 164 159 
-0.25597 -0.477485 3.39804 247 243 232 
0.0698112 -0.0162817 3.29783 134 185 188 
0.312729 0.441115 2.95013 238 198 163 
0.359054 0.36259 2.9694 74 44 42 
0.393782 0.376113 2.9652 60 10 22 
0.032122 0.197119 3.19159 44 0 0 
0.189008 0.169899 3.15669 247 185 144 
0.055405 0.133767 3.22365 102 65 23 
0.56537 0.368154 2.99471 178 99 128 
0.535236 0.366334 3.00788 216 190 157 
0.427973 -0.023464 3.39698 42 21 0 
0.318447 0.345093 3.03596 94 98 84 
0.0771324 0.209898 3.08022 220 188 173 
0.0706855 0.200853 3.09842 231 199 184 
0.496562 0.404911 2.9794 192 179 170 
0.367764 0.329999 3.05673 225 153 103 
-0.15912 -0.908556 4.18484 159 106 28 
0.150928 -0.712275 4.0365 66 54 40 
0.112317 0.256964 3.03934 96 64 51 
0.366575 0.376403 2.9625 71 57 56 
0.490284 -0.121375 3.30059 110 109 115 
-0.0549401 0.4654 2.94696 140 132 130 
-0.0333378 0.43947 2.97064 64 15 1 
0.327503 -0.0718309 3.44048 254 204 203 
0.495096 0.225035 3.1462 202 118 141 
0.229608 -0.0553985 3.38912 247 222 215 
0.464502 -0.798441 3.70807 72 33 36 
0.0600563 -0.107979 3.31357 89 86 93 
-0.143291 0.293149 3.10836 201 196 190 
-0.143032 0.28973 3.09653 159 152 144 
0.428171 -0.0958854 3.30541 99 96 103 
0.308989 0.346478 3.0427 170 139 118 
0.341268 -0.0534127 3.41569 252 196 195 
0.305996 0.538632 2.85441 232 227 233 
0.607719 -1.05364 3.89514 13 8 2 
0.355769 0.360632 2.97897 43 28 23 
0.465042 -0.194169 3.35843 173 208 246 
0.474443 -0.0788947 3.26757 65 65 67 
0.188184 0.175251 3.14819 241 178 147 
0.569473 -0.82579 3.69594 10 9 4 
0.563384 -0.846642 3.71587 9 6 1 
0.548064 -0.853725 3.71525 79 84 77 
0.569008 -0.98128 3.86877 196 128 127 
0.417992 -0.0734134 3.30481 3 1 6 
0.522867 0.427989 2.94431 87 27 52 
0.476827 0.376136 2.99878 52 15 22 
0.529835 -0.882939 3.73708 133 128 122 
0.517784 -0.104211 3.27155 126 127 131 
0.456904 -0.797694 3.69554 72 31 37 
0.342158 0.40067 2.97776 93 83 81 
0.396226 0.453631 2.93388 100 24 50 
0.275054 0.51616 2.86364 219 224 217 
-0.155654 -0.914008 4.20081 167 106 25 
0.613952 -1.07184 3.89292 83 81 69 
0.328008 -0.0580349 3.42775 255 202 203 
-0.0638987 -0.99761 4.15854 69 13 0 
0.504563 0.236446 3.13196 222 112 147 
0.532193 0.42118 2.95789 38 0 0 
0.458045 -0.791005 3.71033 173 128 131 
-0.264719 -0.452732 3.38165 16 8 0 
0.36086 0.382751 2.95599 241 231 229 
0.488757 0.401775 2.96907 178 164 155 
-0.15008 -0.919907 4.18711 255 212 150 
0.629102 -1.0822 3.92634 83 81 69 
0.521994 0.360192 3.00239 65 6 24 
0.357754 0.301552 3.07067 170 124 111 
0.529477 0.38442 2.98331 200 182 168 
0.478229 -0.149553 3.32187 215 218 225 
0.523036 -0.85903 3.70897 136 136 128 
0.084234 0.703379 2.70915 178 164 151 
0.540722 -0.837541 3.71998 247 246 242 
-0.0434333 -0.900032 4.06096 100 81 66 
-0.00710678 0.411909 2.9947 43 15 3 
0.397163 0.465624 2.92677 198 188 179 
0.411098 -0.092089 3.3012 180 175 181 
0.654171 -1.05061 3.88391 8 5 0 
0.384309 0.399302 2.96633 57 21 0 
0.351266 -0.264097 3.48742 9 5 4 
0.359999 -0.232866 3.43572 229 228 234 
0.468087 -0.146526 3.30927 219 222 229 
0.467209 -0.138271 3.30078 66 69 74 
0.410591 -0.100404 3.30908 136 134 145 
0.0836761 -0.178519 3.38359 215 202 193 
0.34717 0.356341 2.97181 34 18 19 
-0.0267225 0.442871 2.98065 47 18 10 
0.480696 0.346989 3.02308 234 119 160 
-0.0643373 -0.996311 4.14794 69 16 0 
0.49379 0.21464 3.14144 61 5 6 
0.348257 -0.0726152 3.41575 131 44 52 
0.350713 -0.0646525 3.44913 245 197 193 
-0.0971622 -0.956516 4.20713 63 28 0 
0.0111961 0.287539 3.08299 224 214 212 
0.326704 0.403836 2.96458 200 176 164 
0.537325 -0.836071 3.69525 224 223 219 
0.518703 -0.83479 3.71136 18 17 15 
0.37256 0.389108 2.9625 249 237 237 
0.438424 -0.254604 3.42082 221 225 228 
0.31643 0.395984 2.96816 136 118 104 
0.500702 0.345998 3.03228 55 10 30 
-0.175301 0.0573822 2.11923 141 131 139 
-0.572618 -0.311764 1.92957 211 192 177 
-0.516951 -0.334585 1.88536 127 126 132 
-0.74303 -0.526718 2.13102 194 184 172 
-0.628262 -0.577313 2.17088 72 58 47 
-0.428165 -0.263037 1.82901 44 0 3 
-0.730726 -0.668657 2.21928 139 99 48 
-0.552306 -0.303585 1.92146 80 46 36 
-0.580083 -0.309537 1.92905 234 208 207 
-0.71379 -0.557805 2.15431 32 17 14 
-0.651543 -0.21368 1.8073 255 240 223 
-0.735671 -0.538042 2.13958 117 107 98 
-0.537037 -0.305959 1.92172 142 109 90 
-0.718047 -0.224887 1.85624 177 168 161 
-0.54859 -0.311485 1.92619 82 46 34 
-0.660707 -0.237603 1.86298 174 155 140 
-0.502393 -0.341072 1.8813 127 126 132 
-0.560203 -0.327922 1.94456 235 208 199 
-0.785211 -0.48419 1.9398 4 0 0 
-0.7377 0.17873 2.12348 202 173 157 
-0.703623 -0.653841 2.18119 213 207 195 
-0.716923 -0.688428 2.20872 90 29 0 
-0.682299 -0.499457 2.10646 156 115 87 
-0.509627 -0.390142 1.93287 77 78 80 
-0.521316 -0.335013 1.89092 121 118 127 
-0.520593 -0.331103 1.88651 217 216 222 
