ply                 
format ascii 1.0    
element vertex 1273
property float x    
property float y    
property float z    
property uchar red  
property uchar green
property uchar blue 
end_header          
0.361264 -0.0898313 4.39251 250 211 204 
0.440878 0.558837 3.68928 241 234 228 
0.0456303 -0.811755 5.14559 59 55 46 
0.5637 0.581266 3.70583 45 4 18 
0.68065 0.519074 3.7582 47 4 21 
0.456569 0.572349 3.69059 252 244 233 
0.618689 0.49838 3.77793 229 101 150 
0.376483 0.583831 3.71543 145 127 103 
0.161673 0.258079 3.9725 255 214 166 
-0.27184 0.258904 4.06012 96 77 73 
0.368657 0.648387 3.68161 229 187 147 
0.219175 0.447055 3.85891 196 172 138 
0.676882 0.431729 3.83048 232 89 151 
0.56081 0.62765 3.65659 135 84 99 
0.428062 0.43633 3.85356 157 106 102 
0.535423 -0.417115 4.43964 63 64 68 
-0.273557 0.312233 3.87981 224 219 215 
0.0923338 0.478463 3.80918 7 12 8 
0.621379 0.552044 3.74243 165 151 124 
0.433579 0.539217 3.66457 21 11 9 
0.509099 0.55702 3.74501 46 14 19 
-0.306636 -1.36046 5.53733 109 78 34 
0.31082 -0.081718 4.38347 77 62 65 
0.525807 0.205261 4.06056 244 190 166 
0.455849 0.481531 3.80518 57 11 0 
0.400013 0.486117 3.84706 130 119 115 
0.284368 0.485488 3.80588 62 23 8 
0.437829 0.476375 3.80734 211 174 145 
0.368793 0.474814 3.79299 148 129 125 
0.369773 0.487671 3.81584 142 123 117 
0.296006 0.718789 3.57657 214 198 172 
0.206503 -0.10508 4.35729 127 103 93 
0.386191 0.476433 3.78549 18 0 0 
0.362814 0.664794 3.64985 183 151 138 
0.197445 -0.106397 4.27394 244 225 208 
0.481589 0.670646 3.64153 53 17 17 
0.29105 -0.0887144 4.29346 69 52 36 
0.433205 0.493845 3.85015 110 132 111 
-0.160382 0.468182 3.77079 248 252 253 
0.275549 -0.0860327 4.30073 84 63 44 
0.292196 -0.0872517 4.37699 182 165 149 
0.186809 -0.11634 4.27931 125 106 89 
0.282913 -0.0813172 4.31399 62 39 25 
0.322746 -0.0828044 4.35392 68 34 25 
-0.552069 -0.738414 4.34427 11 12 4 
0.190955 -0.113801 4.3664 239 218 201 
-0.11318 -0.0734453 4.14726 187 188 183 
0.203396 0.717569 3.59647 253 217 205 
0.282207 -0.0767502 4.32667 251 207 204 
0.319492 -0.0768215 4.29193 217 176 172 
0.346538 -0.0780889 4.34876 133 84 79 
-0.575712 -0.744113 4.42675 72 68 57 
0.409028 -0.0735304 4.35704 214 191 173 
0.492718 -0.066073 4.27585 45 17 6 
0.374179 -0.120738 4.38756 101 53 49 
0.320521 -0.0722294 4.30468 83 37 39 
-0.170965 0.469809 3.82346 198 190 187 
0.198628 -0.121458 4.32796 204 188 175 
0.343341 -0.125128 4.29447 86 46 44 
0.43025 -0.0634315 4.26864 87 58 42 
0.364788 0.64438 3.64516 224 190 162 
0.497459 -0.0613846 4.2884 159 131 119 
0.433173 -0.0599664 4.35717 79 50 34 
0.481321 -0.0590685 4.22045 73 45 33 
0.261246 0.498033 3.83589 131 127 116 
-0.555084 -0.730087 4.38084 137 140 123 
0.193044 -0.13128 4.3808 42 34 31 
0.421631 -0.053929 4.20331 117 88 72 
0.295646 0.802568 3.48309 4 24 0 
0.354269 -0.135729 4.38159 232 170 173 
0.746965 0.51349 3.8111 174 160 134 
0.323491 -0.0417111 4.16401 213 104 125 
0.30049 0.452654 3.78217 58 30 19 
0.346461 -0.140531 4.34934 250 176 177 
0.373752 0.642425 3.68971 138 131 115 
0.688412 0.772205 3.3749 64 2 15 
0.216338 0.456826 3.82309 22 23 7 
0.479637 0.680191 3.65657 73 5 20 
0.403132 0.449278 3.82503 142 123 117 
0.63526 -0.145985 4.13863 67 67 75 
0.390758 0.440311 3.76434 23 5 1 
0.382264 0.501856 3.78722 16 30 17 
0.310607 0.722105 3.56504 235 209 182 
0.671863 0.627331 3.65337 201 136 156 
-0.101973 -0.147923 4.19282 254 254 255 
0.338193 0.400732 3.85911 196 161 142 
-0.0236772 0.492439 3.6976 246 245 227 
0.743245 0.68606 3.49422 219 149 173 
0.221171 0.723698 3.64349 100 63 44 
0.705923 0.774827 3.439 62 19 29 
-0.156197 0.0598441 4.07797 30 12 10 
0.727962 0.764519 3.40207 89 42 58 
0.44887 0.240883 3.95399 246 239 231 
0.568986 1.00847 3.22228 231 159 183 
0.72889 0.68002 3.45282 91 11 38 
0.681335 0.787737 3.35958 100 14 39 
0.875765 0.0734694 4.01322 48 4 5 
-0.566688 -0.684425 4.29723 221 221 213 
0.667136 0.675279 3.62044 133 113 102 
0.00951468 0.504472 3.72804 226 222 197 
0.361353 0.789187 3.50892 220 219 224 
0.610479 -0.169189 4.19729 111 110 118 
0.321892 0.0901546 3.93017 174 136 117 
0.692405 0.435226 3.85949 197 135 150 
-0.0134033 -0.1672 4.12324 94 92 105 
-0.120589 0.429037 3.83229 245 251 251 
0.53863 0.420098 3.78608 121 101 94 
0.438417 0.431174 3.88315 31 0 0 
0.29615 0.422745 3.81654 85 53 42 
0.475893 -0.168755 4.15263 52 50 61 
0.328223 0.0996121 3.95172 78 32 9 
0.687992 0.609866 3.65986 197 118 147 
0.315861 0.0993088 3.89368 78 35 16 
-0.0584855 -0.174458 4.18068 110 110 118 
0.418942 0.419668 3.80426 209 166 147 
0.2811 0.101064 3.91058 174 132 116 
0.382346 0.779089 3.47922 62 83 66 
0.299272 0.103492 3.90316 54 9 0 
-0.118759 0.420323 3.81782 92 96 97 
0.296599 0.284394 3.86056 127 124 117 
0.657738 -0.181517 4.18263 203 206 213 
0.437343 0.427888 3.91243 41 4 0 
0.287732 0.113673 3.93898 53 6 0 
0.456959 0.424809 3.90614 106 34 0 
0.363019 0.794403 3.54844 21 23 22 
0.726871 0.705884 3.4605 115 13 53 
0.758945 0.708043 3.47281 127 6 57 
-0.186341 0.52027 3.75985 244 249 245 
0.326636 0.263203 3.89588 169 162 152 
0.325474 0.517269 3.74795 139 147 134 
0.358418 0.115053 3.90162 68 23 4 
0.698175 0.750504 3.36341 50 0 12 
-0.112276 -0.185749 4.16212 228 227 235 
0.292333 0.411072 3.84027 60 31 15 
-0.0370975 0.516932 3.72281 216 212 200 
0.382621 0.591041 3.62616 115 111 100 
0.667692 0.858021 3.35143 255 171 209 
0.306193 -0.209212 4.44153 113 77 51 
0.563556 -0.197979 4.1425 77 78 83 
0.484583 0.829032 3.48314 247 202 196 
0.371428 0.424455 4.03972 170 137 120 
0.70347 0.763247 3.42192 51 5 15 
-0.206125 0.518073 3.71535 232 233 235 
0.341125 0.408907 3.92194 86 50 34 
0.175301 0.604887 3.73152 181 152 144 
0.70571 0.596126 3.70219 35 5 0 
0.677737 0.593791 3.68405 24 13 0 
0.706585 0.532754 3.83506 40 11 0 
0.307151 0.398289 3.86411 52 10 0 
0.494869 0.600818 3.72857 73 3 0 
-0.118871 0.394975 3.81869 204 210 206 
0.307733 0.392975 3.85426 62 18 7 
-0.0224526 0.151112 3.89837 58 13 0 
0.396726 0.585463 3.65545 154 145 146 
0.0784497 0.344102 3.74963 138 105 86 
0.208463 0.744191 3.59269 175 141 129 
0.245964 0.733842 3.54215 94 112 96 
0.0777544 0.359269 3.77683 236 205 187 
0.702762 0.52622 3.77874 193 173 146 
-0.00369152 0.160041 3.91017 184 138 122 
-0.0682332 0.606126 3.77716 148 140 127 
-0.0109621 0.161328 3.91064 177 140 124 
-0.006628 0.162098 3.86019 44 0 0 
0.256081 0.391846 3.87031 77 32 13 
-0.0153239 0.165936 3.91884 51 9 0 
0.354884 0.776422 3.52225 97 114 106 
0.289876 0.406747 4.04912 107 60 44 
0.0220261 0.344962 3.80384 247 221 208 
0.500217 0.709489 3.62028 28 17 23 
-0.0497136 0.530098 3.73971 134 136 131 
0.714769 0.743243 3.42178 78 7 25 
-0.0624944 0.58466 3.67863 53 47 35 
-0.0816034 0.388634 3.86455 41 6 4 
0.464864 0.22131 3.96506 239 201 182 
0.0464511 0.372185 3.74731 126 98 86 
0.700565 0.583693 3.70276 85 12 19 
0.460948 0.232692 3.92225 131 123 121 
-0.0314545 0.514978 3.66146 226 222 210 
0.771917 0.678506 3.5012 193 122 140 
0.415692 0.519636 3.70351 39 24 21 
0.15044 0.235261 3.85648 210 149 120 
0.0520672 0.362885 3.74304 249 220 212 
0.414567 0.238022 3.90928 124 117 111 
0.784719 0.247535 4.07388 151 133 123 
0.160244 0.377805 3.9354 56 6 0 
0.317068 0.375457 3.92906 78 19 5 
0.743789 0.526057 3.73479 205 136 155 
0.133402 0.370995 3.8809 68 19 0 
-0.286131 -0.520104 4.67869 83 74 65 
0.383898 0.24187 3.87875 117 108 103 
0.407811 0.246231 3.92698 133 130 123 
0.157723 0.251072 3.95314 222 166 129 
0.382123 0.246897 3.90178 107 98 93 
-0.277161 0.25858 4.02151 233 219 210 
-0.0204324 0.577513 3.68601 247 241 227 
0.0320602 0.360584 3.82395 141 117 105 
0.370816 0.248254 3.90482 98 84 83 
0.315134 0.362394 3.89193 216 172 187 
0.0572402 0.354865 3.80926 121 92 76 
0.481831 0.580143 3.74463 59 14 11 
0.329941 0.249945 3.86892 130 116 113 
0.550068 0.686982 3.59048 53 0 11 
0.346064 0.256048 3.93358 119 110 105 
0.427868 0.256911 3.94857 93 84 77 
0.107352 0.350148 3.79046 248 218 208 
0.606445 0.96462 3.227 44 0 6 
-0.2624 0.264503 4.00088 244 227 220 
-0.0222259 0.502437 3.72464 217 213 201 
0.356736 0.258067 3.93788 255 251 246 
0.442314 0.25714 3.93526 82 79 70 
0.102451 0.355688 3.85724 117 87 79 
0.0950301 0.349873 3.79831 225 193 178 
0.476483 0.256101 3.91725 255 242 228 
0.314374 0.7562 3.50689 70 91 76 
0.714813 0.535129 3.76992 25 0 0 
0.710635 0.577239 3.76184 65 9 10 
0.345597 0.261126 3.94409 255 253 248 
0.694094 0.807174 3.39476 122 35 67 
-0.0289419 0.539631 3.76264 220 217 202 
0.343516 0.260372 3.89044 125 116 111 
0.00244758 0.352649 3.82317 238 211 202 
0.391309 0.262189 3.92084 127 120 112 
-0.253294 0.271195 3.97754 253 228 221 
0.173975 0.702126 3.64699 170 132 119 
0.702253 0.755587 3.41055 166 116 128 
0.395411 0.259922 3.86428 255 254 246 
0.813272 0.264762 3.95322 241 242 237 
0.524451 0.995055 3.31096 218 160 174 
0.557007 0.767748 3.56609 171 153 149 
0.309737 0.267864 3.91709 126 120 104 
0.308539 0.270562 3.88363 146 143 134 
0.653201 0.569091 3.73718 144 138 122 
0.477127 0.745241 3.56127 254 243 239 
0.524852 0.412076 3.7052 121 97 93 
0.349343 0.282626 3.93603 107 98 93 
0.433965 0.555167 3.66334 208 203 199 
0.535836 0.288958 4.0089 226 114 136 
0.659759 -1.36158 4.81957 92 88 79 
-0.0346809 0.277512 3.82574 109 83 70 
0.332652 0.281111 3.88139 129 118 114 
0.0691534 0.333539 3.77343 95 66 50 
-0.0932828 0.350324 3.93901 169 145 133 
0.188929 0.163714 2.39259 106 97 92 
0.44857 0.234131 3.93946 134 129 123 
0.0702158 0.335296 3.82318 255 233 219 
0.669847 0.573681 3.79639 31 18 2 
0.450051 0.576903 3.66052 35 32 23 
0.778554 0.290358 3.98368 163 157 157 
0.595356 0.982708 3.2249 83 9 32 
0.659511 -0.444981 4.37721 167 162 166 
-0.0740874 0.539393 3.70514 235 226 217 
0.529834 0.562953 3.73271 169 160 153 
0.629748 0.578794 3.69712 159 125 123 
0.609205 -1.34695 4.85703 228 224 215 
0.828655 0.277022 3.97628 69 8 5 
0.192839 0.336 3.89422 255 244 232 
0.379141 0.261967 3.80667 156 149 141 
0.0332826 0.287441 3.83058 38 34 33 
0.29482 0.29109 3.87373 141 138 131 
0.621985 0.552799 3.78805 37 5 10 
-0.0146797 0.289231 3.80615 121 98 84 
0.484025 0.765035 3.59072 56 45 41 
0.396164 0.270838 3.93871 135 128 120 
0.568212 0.697217 3.59588 92 1 18 
0.672035 0.56786 3.78547 137 120 112 
0.382535 0.268744 3.93462 112 107 101 
0.0442288 0.293564 3.79727 27 9 9 
0.0568907 0.322671 3.79651 100 67 58 
0.0458548 0.322367 3.80428 109 77 66 
0.592267 0.974868 3.21529 255 180 205 
-0.0105616 0.303889 3.87187 241 218 204 
0.536985 -1.27824 4.85403 74 22 24 
0.488571 0.761324 3.58526 234 225 220 
0.832431 0.310514 3.96706 192 150 151 
0.728681 0.531775 3.59169 71 12 8 
0.696613 0.553647 3.7328 176 168 149 
0.437989 0.541911 3.6513 32 21 15 
0.585539 0.969235 3.20504 141 89 101 
0.730401 0.733695 3.47003 49 0 11 
-0.00751367 0.309766 3.8469 243 220 206 
0.000905147 0.30998 3.83843 127 105 91 
0.05877 0.317678 3.89476 241 213 212 
0.25373 -0.0999989 4.26138 223 228 221 
0.770507 0.212539 3.93861 244 200 189 
0.384373 0.741535 3.54352 33 0 0 
0.350053 -0.0837129 4.35039 155 101 99 
0.376244 0.467649 3.82433 29 10 3 
0.574383 0.310713 3.96893 243 102 137 
-0.159915 0.461104 3.75905 130 129 134 
-0.152339 0.461924 3.85241 223 236 226 
0.460899 -0.0352814 4.2321 228 194 185 
0.00672654 0.301547 3.87283 209 186 172 
0.48869 0.710437 3.58667 70 28 38 
0.675718 0.555842 3.70968 70 44 27 
0.661282 0.704141 3.63136 158 129 134 
0.61769 0.558434 3.71449 57 39 17 
-0.417833 -0.308045 4.32022 245 243 254 
0.46698 0.812603 3.496 185 177 175 
0.423593 0.606324 3.64216 119 117 104 
0.533291 0.561768 3.71982 130 117 108 
0.318861 0.107093 3.91118 76 23 0 
0.0835024 0.366854 3.83778 144 115 97 
0.713853 0.61321 3.74186 80 3 11 
0.17066 0.126999 3.89884 108 25 11 
-0.0283946 0.132684 3.91252 60 2 0 
0.480396 0.609403 3.75368 33 26 0 
0.191257 0.602989 3.72163 55 17 4 
0.269499 0.400406 3.93541 75 28 12 
0.371756 0.740135 3.57016 60 71 28 
0.65857 0.890133 3.3313 137 18 60 
0.282353 0.682642 3.59014 148 157 140 
0.0603629 0.369699 3.74653 253 227 214 
0.721805 0.707056 3.42071 117 20 63 
0.320585 0.26315 3.90793 135 124 118 
0.0401232 0.364181 3.7869 131 105 92 
0.696633 0.535791 3.79789 66 51 32 
0.387797 0.754735 3.58361 216 150 115 
0.437218 0.241927 3.91613 172 165 157 
0.631303 0.580575 3.7301 41 0 0 
0.0883668 0.354362 3.75958 144 116 95 
-0.589767 -0.702154 4.34965 188 184 175 
0.484708 1.0437 3.11945 242 192 204 
0.658727 0.731151 3.63855 56 6 7 
-0.12815 0.412387 3.8 221 227 227 
0.172595 0.61267 3.70462 169 132 124 
0.267294 0.793066 3.54623 4 28 4 
0.371393 0.777459 3.57748 229 224 195 
0.697338 0.530044 3.787 182 164 144 
0.333643 0.728258 3.61076 30 53 24 
-0.00230762 0.150588 3.89097 145 96 79 
0.269929 0.463593 3.82032 51 14 6 
0.342008 0.741743 3.58804 154 124 114 
-0.596982 -0.731785 4.34262 103 96 86 
0.371192 0.503223 3.78915 132 144 122 
0.345623 0.31283 3.89494 90 23 32 
0.574543 0.79443 3.55324 226 139 148 
0.700252 0.573609 3.82321 102 74 53 
0.372205 0.572143 3.65266 141 118 102 
-0.00351656 0.149548 3.95581 55 5 0 
0.622494 0.787289 3.52143 211 131 142 
0.292964 0.44468 3.81113 67 40 21 
0.637053 0.89843 3.26207 112 6 46 
0.654973 0.89262 3.34312 126 27 55 
0.770297 0.205824 3.91605 255 243 234 
0.381301 0.778568 3.58417 109 42 0 
0.0582636 0.366579 3.78508 232 202 192 
0.372729 0.591226 3.73292 127 105 92 
0.309458 0.428032 3.87284 151 116 112 
0.392446 0.495781 3.76606 29 48 28 
0.0581909 0.31659 3.8804 241 213 212 
-0.0586256 -0.173111 4.15931 104 104 112 
0.631981 -0.145486 4.11596 67 67 75 
0.688171 0.815577 3.37738 51 0 15 
0.18838 -0.112337 4.32758 238 217 200 
0.65488 0.86142 3.29654 62 2 14 
0.558102 0.697312 3.63759 53 0 11 
0.475117 0.661365 3.57529 194 167 160 
0.599046 0.984015 3.24647 255 163 194 
-0.0347989 0.28108 3.86134 109 83 70 
0.445494 0.571981 3.63143 31 28 23 
-0.113897 0.415139 3.88908 97 106 101 
-0.549325 -0.72605 4.32581 245 248 231 
0.477978 0.256657 3.93193 255 242 228 
0.435111 0.253047 3.87991 82 79 70 
-0.0362056 0.536224 3.71994 78 79 71 
-0.0459736 0.520951 3.67987 254 255 251 
-0.00254066 0.162164 3.93165 173 126 98 
-0.0197676 0.161904 3.87615 185 144 124 
0.460523 0.485942 3.84193 57 11 0 
0.463729 0.216546 3.94314 114 56 34 
0.304644 0.414268 3.89828 210 178 163 
-0.34292 0.439795 3.84402 230 221 212 
0.711148 0.605385 3.72847 213 168 162 
0.388378 0.596327 3.68241 101 91 81 
-0.115203 0.406411 3.87291 183 194 188 
0.825577 0.276082 3.96349 69 8 5 
0.442636 0.482048 3.84876 211 174 145 
0.0682625 0.328992 3.86796 105 76 70 
0.682258 -1.35453 4.84536 8 9 1 
-0.557611 -0.746868 4.3902 11 12 4 
-0.565006 -0.727804 4.32863 95 91 80 
0.620054 0.505193 3.76857 196 123 143 
-0.275757 -0.436133 4.49651 182 178 179 
0.490323 1.02188 3.12487 221 116 156 
-0.0464415 0.517238 3.72199 220 223 216 
0.703494 0.530778 3.82759 41 2 0 
-0.0311928 0.516064 3.67716 241 237 225 
-0.00765092 0.162419 3.88089 47 5 0 
0.423495 0.523334 3.70385 91 61 61 
-0.0542045 0.52564 3.69647 248 249 244 
0.657792 0.855195 3.33126 66 3 22 
0.492206 0.840063 3.52654 246 207 192 
0.701707 0.557009 3.75726 176 168 149 
0.697322 0.775107 3.37982 55 0 15 
0.691699 0.777697 3.39492 49 0 4 
0.304224 0.0985613 3.88688 52 6 0 
0.321272 0.0971638 3.88353 57 12 0 
0.65827 0.573357 3.75682 173 166 148 
0.465164 0.792081 3.46875 36 0 9 
0.286276 -0.206547 4.35471 93 68 46 
-0.1705 0.0938793 4.02182 52 11 9 
0.0376025 0.576887 3.67808 208 213 206 
0.497902 0.603464 3.75276 83 11 0 
0.354848 0.777481 3.45619 176 176 178 
0.577831 -0.16693 4.09738 254 255 255 
0.717836 0.75209 3.4675 62 0 11 
0.484318 0.756622 3.56229 253 244 239 
0.683155 0.635849 3.70234 200 137 156 
0.720535 0.724387 3.4242 81 13 36 
0.469688 0.743341 3.51371 255 245 243 
0.485673 0.74738 3.55962 255 252 248 
0.6266 -0.142393 4.12827 241 241 249 
0.374068 0.742269 3.56187 197 200 153 
0.3478 -0.133945 4.3225 255 201 203 
0.475462 0.673184 3.62516 73 5 20 
0.347669 -0.126858 4.34336 79 38 36 
0.31584 -0.081662 4.28198 69 42 33 
0.38177 -0.075733 4.25353 203 173 163 
0.367509 0.24899 3.85722 136 125 121 
0.373485 0.785534 3.45877 202 200 205 
0.384583 -0.0792639 4.24335 224 197 186 
0.00307446 0.317472 3.91461 132 110 97 
0.057826 0.328378 3.8641 100 67 58 
0.680256 0.79228 3.33467 125 45 74 
-0.00383662 0.298878 3.89128 252 226 213 
0.738881 0.681324 3.47352 219 149 173 
-0.0158804 0.290622 3.81339 133 110 96 
0.313377 -0.0904311 4.37348 86 42 31 
0.500094 -0.0614707 4.30712 159 131 119 
0.342598 -0.139337 4.307 250 176 177 
0.358162 0.656421 3.6092 183 151 138 
-0.551099 -0.722646 4.33979 155 158 141 
0.343173 0.274415 3.9092 120 111 106 
0.654807 0.868921 3.31645 231 133 158 
0.322285 0.0896963 3.93539 174 136 117 
0.707389 0.760782 3.4049 50 0 12 
0.324542 0.766304 3.52352 206 214 203 
0.377631 0.428449 4.07848 58 16 0 
0.200918 -0.126929 4.42757 74 61 55 
0.697901 0.617399 3.70312 219 119 155 
0.538107 -1.28477 4.86814 76 26 27 
0.487268 0.689815 3.65117 38 0 0 
0.699767 0.519309 3.73976 94 70 42 
0.372181 0.249761 3.92096 98 84 83 
0.384049 0.248077 3.91724 107 98 93 
0.783866 0.246335 4.02812 180 140 128 
0.104589 0.486821 3.80469 19 20 12 
0.468237 0.566608 3.65663 29 0 0 
0.307157 0.71678 3.5399 219 196 165 
-0.569272 -0.686491 4.31684 255 255 248 
0.657191 -0.443824 4.36437 167 162 166 
-0.185749 0.517508 3.73878 244 249 245 
0.294158 0.809203 3.51349 142 161 133 
0.686292 0.794392 3.38326 100 14 39 
-0.0814457 0.39259 3.90483 29 0 0 
0.529504 0.286449 3.97411 224 101 129 
-0.0742642 0.540758 3.71326 235 226 217 
-0.206018 0.533482 3.80609 218 222 223 
-0.112215 -0.0734158 4.10097 160 161 156 
0.324681 0.515338 3.73637 139 147 134 
0.691848 0.605427 3.732 147 142 122 
0.474819 0.602734 3.71669 33 26 0 
-0.0248747 0.488362 3.67038 241 240 222 
0.724271 0.493821 3.84829 194 118 144 
0.297354 0.390288 3.85305 71 25 10 
0.484985 0.666817 3.65899 223 116 144 
0.569336 0.640061 3.67866 62 29 38 
0.322533 -0.0403631 4.10966 105 0 3 
-0.00732178 0.305587 3.78716 240 217 203 
0.474136 -0.173719 4.18975 21 18 27 
0.371025 0.638757 3.67029 138 131 115 
0.0148286 0.308226 3.84203 221 193 182 
0.583908 0.777919 3.59925 54 10 9 
0.0549569 0.305744 3.8931 13 0 0 
0.320377 0.34303 3.86491 188 151 159 
0.302553 0.455447 3.80916 48 21 12 
0.493541 0.676724 3.66276 18 0 0 
0.675071 0.680715 3.66112 150 128 115 
0.0331805 0.285224 3.80399 2 2 4 
0.311011 0.370273 3.873 118 56 41 
0.0527947 0.364365 3.76172 249 220 212 
0.506216 0.674629 3.61543 190 121 142 
-0.689953 -0.701082 4.33836 103 84 77 
0.628596 0.309694 3.94366 158 95 112 
0.0588502 0.372375 3.72457 136 109 98 
0.739779 0.538749 3.63847 60 0 0 
0.416622 0.239224 3.93052 124 117 111 
0.31675 0.758832 3.52259 73 98 79 
0.284155 0.754868 3.56263 99 98 93 
0.565091 0.77749 3.61076 149 134 129 
-0.0124595 0.30085 3.83366 255 232 218 
0.291944 0.129123 3.90305 102 59 40 
-0.0783539 0.283613 4.00262 181 131 124 
0.774978 0.237926 4.01105 56 0 0 
0.401045 0.447487 3.81284 116 95 90 
-0.0366243 0.291067 3.87978 255 234 222 
0.169804 0.277373 3.98823 255 249 228 
-0.017174 0.444097 3.80032 253 235 213 
-0.13023 0.436591 3.75672 220 232 228 
0.758876 0.239253 3.94862 151 133 123 
0.389745 0.791723 3.53393 53 76 58 
0.300971 0.286632 3.90053 136 133 126 
0.175729 0.144869 3.93213 89 13 0 
0.456784 0.425686 3.91021 116 47 8 
0.804051 0.244085 3.99653 140 123 116 
0.441693 0.24186 3.93453 150 143 135 
-0.119438 0.421757 3.84271 88 92 93 
0.429934 0.257885 3.9695 93 84 77 
0.787887 0.244241 4.02141 103 25 21 
-0.021457 0.148654 3.84845 47 4 0 
-0.0394792 0.52592 3.69012 228 229 221 
0.17264 0.153834 3.94232 101 27 2 
0.464407 0.234619 3.9509 131 123 121 
-0.0121816 -0.169927 4.19494 119 117 130 
0.294685 0.42006 3.79812 77 45 34 
-0.127556 0.420746 3.77039 233 245 243 
0.773382 0.213263 3.95123 244 200 189 
0.320944 -0.108819 4.29954 241 169 170 
-0.179248 0.476073 3.77526 168 168 166 
0.791384 0.211517 4.01306 215 201 192 
0.470291 0.194536 4.01305 68 0 0 
0.257613 0.503855 3.86313 151 158 140 
0.206189 0.723722 3.62995 255 227 217 
0.179596 0.401375 3.85741 150 131 117 
0.360831 -0.101524 4.27604 243 171 172 
-0.0742541 -0.197395 4.21158 58 57 65 
0.00804858 0.499912 3.69977 216 212 187 
0.0544648 0.378821 3.74763 154 127 116 
0.683361 0.776168 3.53163 179 116 137 
0.387543 -0.0683434 4.2737 212 189 173 
0.569525 0.633391 3.70165 159 129 139 
0.0543212 0.386348 3.748 242 218 206 
-0.0249142 0.154134 3.85862 180 135 106 
0.706793 0.544778 3.8534 66 51 32 
0.635026 0.584285 3.75574 41 5 7 
0.465536 0.820224 3.46082 48 0 3 
0.373216 -0.415022 4.42439 63 58 54 
0.705984 0.633469 3.74281 101 1 37 
0.342214 0.729322 3.59156 65 96 62 
0.062452 -0.0921858 4.18572 196 118 140 
-0.0288878 0.134979 3.94799 54 0 0 
0.51655 0.558308 3.71101 170 103 120 
0.373005 0.490587 3.83648 148 127 122 
0.708551 0.753716 3.3835 171 107 131 
0.629507 0.796119 3.56061 211 131 142 
0.513721 0.882854 3.44494 126 35 53 
0.373646 0.44914 3.76255 28 8 0 
0.0615646 0.373123 3.77965 253 227 214 
0.452251 0.250111 3.93583 140 135 129 
0.434364 0.818603 3.52585 58 37 36 
0.124821 0.368051 3.81321 69 28 8 
-0.000655261 0.152398 3.92696 179 126 95 
0.333319 0.726238 3.59717 30 53 24 
0.0326819 0.32946 3.76063 238 210 196 
-0.0380582 0.54778 3.72567 232 232 208 
0.572166 0.791101 3.5389 226 139 148 
-0.443821 0.72027 3.519 103 16 48 
0.432735 0.439548 3.82501 153 125 121 
0.00829084 0.502414 3.75316 255 255 230 
0.617737 -1.34438 4.79876 143 139 130 
0.261796 -0.10209 4.3609 239 242 233 
0.367432 0.582812 3.68347 127 105 92 
0.741287 0.520724 3.77213 37 6 4 
0.799348 0.211808 4.11384 250 180 178 
0.6096 0.947266 3.22134 215 152 171 
0.475873 0.627071 3.65206 61 0 0 
0.0359322 0.565534 3.69434 195 197 183 
0.175959 0.677785 3.60954 55 18 10 
0.305549 -0.209138 4.43638 104 68 42 
-0.0235189 -0.2088 4.20748 85 85 93 
0.551478 -0.172132 4.16011 109 110 115 
0.632138 -0.143625 4.164 241 241 249 
0.341278 -0.124498 4.26839 79 38 36 
0.36356 -0.117637 4.28651 111 60 57 
0.717141 0.727821 3.43144 255 187 215 
0.341065 -0.0768295 4.29047 133 84 79 
0.423667 -0.0564661 4.29059 119 87 72 
-0.154217 0.0589381 4.04882 28 4 2 
0.460669 0.222494 3.95015 255 232 208 
0.152475 0.235812 3.88223 237 173 138 
0.368639 0.2482 3.89263 132 121 119 
0.19333 0.3366 3.90742 255 244 232 
0.107228 0.352908 3.8176 244 214 206 
0.134319 0.377755 3.93794 75 30 1 
0.155211 0.369871 3.84232 88 42 19 
-0.119978 0.401446 3.87912 204 210 206 
0.682236 0.429974 3.81467 216 134 156 
0.434403 0.473013 3.77936 211 174 145 
0.624334 0.508577 3.79533 196 123 143 
0.674897 0.513703 3.76344 207 122 155 
0.604276 -1.3212 4.82671 78 74 65 
0.411402 0.518031 3.75179 213 204 197 
-0.0315976 0.51785 3.68945 241 237 225 
0.612711 0.544594 3.73829 37 5 10 
0.447525 0.55258 3.72171 32 21 15 
0.533947 0.567322 3.75714 174 165 158 
0.702186 0.592911 3.68783 32 2 0 
-0.572719 -0.702059 4.37486 5 0 0 
-0.574242 -0.739664 4.40348 77 73 61 
0.471976 0.669132 3.60848 85 10 31 
-0.545019 -0.72841 4.28603 11 12 4 
0.371483 0.7347 3.5319 216 222 176 
0.582378 0.7553 3.56878 55 0 5 
0.554488 0.764345 3.54848 179 166 160 
0.358649 0.791606 3.53121 9 16 9 
0.467482 0.794984 3.47959 40 2 13 
0.5253 1.00008 3.32341 218 165 175 
0.675288 -1.34242 4.80061 8 9 1 
0.313634 0.400863 3.92243 62 18 7 
0.166633 0.150499 3.84168 123 53 27 
-0.112493 0.417673 3.91142 93 99 95 
0.298461 0.415759 3.8148 48 16 5 
0.466951 0.658064 3.64338 98 13 20 
0.278859 0.42254 3.82531 47 11 0 
-0.012862 0.305703 3.90139 245 223 209 
-0.0800775 0.385306 3.8337 39 9 9 
0.368836 0.65126 3.6856 228 194 167 
-0.154444 0.463874 3.87291 234 244 235 
-0.285315 -0.517153 4.65956 48 41 31 
0.104915 0.48401 3.79228 12 12 4 
0.478184 0.680708 3.61268 78 17 25 
-0.21379 0.520784 3.75065 136 138 137 
-0.0472469 0.511128 3.67319 235 240 234 
-0.244528 0.703976 3.59706 42 29 20 
0.0998418 0.355611 3.83714 120 87 78 
-0.0512365 -0.226055 4.26586 66 66 74 
0.421131 0.521558 3.68395 52 26 25 
0.717601 0.53925 3.78608 26 0 0 
0.00363647 0.34868 3.78066 254 227 218 
0.664183 0.56225 3.74655 137 120 112 
0.0825125 0.339795 3.80402 123 90 73 
0.719057 0.582393 3.80261 42 0 0 
0.549992 0.571644 3.70474 197 112 145 
0.47189 0.571766 3.68147 30 1 0 
0.679666 0.62081 3.64132 65 4 22 
0.187702 0.644413 3.19037 99 103 89 
0.388634 -0.124566 4.38247 235 191 190 
0.0037921 0.319397 3.86193 255 246 235 
0.589184 -0.2143 4.13028 70 71 76 
-0.579206 -0.697346 4.38848 255 255 248 
0.0139845 0.307797 3.84324 232 204 193 
-0.100859 -0.146765 4.15304 254 254 255 
0.570342 0.642762 3.69476 39 8 16 
0.0053461 0.297223 3.80446 249 226 212 
0.190105 -0.108165 4.29759 81 63 43 
0.551579 0.656258 3.6632 28 3 7 
0.670315 0.665355 3.66262 83 23 35 
0.486931 0.666973 3.605 26 8 0 
-0.455738 -0.733088 4.33069 80 39 33 
0.34504 -0.137547 4.33927 253 187 188 
0.506099 0.718156 3.67082 27 10 16 
0.650643 0.722286 3.59843 47 0 0 
-0.0232023 0.278318 3.84592 243 217 204 
0.321414 0.761273 3.4972 203 214 200 
0.614971 -0.169846 4.22615 140 139 147 
0.701728 0.737467 3.40226 63 0 6 
0.329723 -0.106233 4.44055 255 198 193 
0.696045 0.765957 3.40049 86 29 44 
-0.148231 -0.096314 4.18209 5 4 9 
0.377991 0.77751 3.45537 195 206 198 
0.699467 0.788162 3.43311 51 0 7 
0.694004 0.772294 3.36555 55 0 15 
0.35001 0.816891 3.51987 210 216 212 
-0.0534538 0.270131 4.00192 42 13 7 
0.676184 0.800952 3.32335 51 0 15 
0.372239 0.787995 3.46951 225 222 229 
0.664181 0.8535 3.31557 59 1 25 
0.799394 0.246999 3.96953 150 136 133 
0.749425 0.236347 3.90003 151 133 123 
0.39507 0.607844 3.72785 163 159 148 
0.599142 0.950056 3.18094 48 0 15 
0.605572 0.998723 3.29947 159 103 116 
0.374271 0.582111 3.57657 147 139 128 
0.294435 -0.0908819 4.25263 225 202 188 
0.555471 1.01147 3.20766 255 162 200 
0.475478 0.196095 4.05419 68 0 0 
0.474356 0.809532 3.51295 242 209 216 
0.467876 0.814817 3.52026 92 90 91 
0.689744 0.603436 3.72422 170 166 141 
0.465545 0.594066 3.66268 17 6 0 
0.29271 0.130228 3.90955 57 15 0 
0.360546 0.117171 3.9423 69 23 7 
0.667959 0.587515 3.64219 27 19 0 
0.308363 0.101206 3.94568 52 6 0 
0.324771 0.0977675 3.9185 60 15 0 
-0.168392 0.0936706 3.98447 52 11 9 
0.0566957 0.394762 3.83084 242 218 206 
0.443841 0.258007 3.94971 82 79 70 
0.656603 0.845194 3.3049 254 158 195 
0.68297 0.850095 3.29706 244 160 175 
0.301711 0.414707 3.87913 208 179 163 
0.638132 0.593525 3.74594 48 0 1 
0.457608 0.586616 3.72134 45 41 32 
0.0560977 0.38292 3.78468 154 127 116 
0.796476 0.25087 4.09034 120 90 80 
0.487515 -0.17433 4.25349 38 36 47 
0.593706 0.955362 3.18777 255 181 204 
0.785326 0.215927 4.004 229 192 184 
0.526168 0.566248 3.77129 200 114 139 
0.807214 0.208958 4.09963 253 187 175 
-0.345584 0.444746 3.88538 230 220 211 
0.553985 0.987443 3.14525 46 0 14 
0.52839 0.553601 3.73368 52 0 6 
0.26933 -0.0736657 4.215 252 192 192 
-0.0153787 0.163343 3.84063 108 64 37 
0.371988 -0.0708677 4.2557 184 155 141 
0.370744 -0.41324 4.40551 63 58 54 
0.703951 0.52283 3.75823 63 42 13 
0.855601 0.0710421 3.94017 40 7 2 
-0.098044 -0.200486 4.11693 234 233 241 
0.283384 0.489011 3.88012 29 7 0 
0.317112 0.0909335 3.9031 180 142 121 
0.385103 0.784092 3.50192 62 83 66 
-0.113371 -0.0733832 4.13033 187 188 183 
-0.128919 0.416965 3.83589 221 227 227 
0.247041 0.783185 3.49663 122 138 109 
0.389873 0.252019 3.97677 107 98 93 
0.747675 0.263496 3.96475 191 191 191 
0.0576182 0.375765 3.87718 247 217 209 
0.684987 0.778853 3.54136 185 111 136 
0.22441 0.779867 3.54657 143 153 129 
0.311713 -0.10537 4.21199 252 181 179 
-0.302309 0.808585 3.53843 255 210 231 
0.342495 0.277811 3.87935 168 159 154 
0.54708 0.24175 4.02397 255 152 100 
-0.118697 0.413707 3.76967 94 100 100 
0.343896 0.750677 3.5182 9 29 18 
0.307003 -0.0126108 4.14694 65 0 0 
0.330671 0.522791 3.78691 153 161 146 
0.587388 0.618319 3.67991 62 2 28 
0.555649 0.840338 3.565 137 45 60 
-0.0612302 0.296545 3.79005 253 234 219 
0.841538 0.313699 4.00582 192 150 151 
0.502496 0.86481 3.47645 96 13 9 
0.564628 0.628772 3.67198 159 129 139 
0.676982 0.557615 3.72013 96 70 55 
0.625264 -1.36116 4.84907 145 141 132 
0.425043 0.495257 3.83533 10 32 11 
0.283208 0.409972 3.93675 51 15 0 
0.0346145 0.290988 3.87067 38 34 33 
0.565305 0.945797 3.37061 136 109 102 
-0.0377598 0.552789 3.7583 244 243 223 
-0.204542 0.527267 3.76584 243 244 246 
0.570445 0.62396 3.64894 93 46 62 
0.151607 0.156425 3.86964 111 25 8 
0.308381 0.366512 3.84041 118 56 41 
0.382592 0.502819 3.80098 12 20 7 
0.470176 0.829651 3.49595 41 0 1 
0.515228 0.690374 3.62727 59 13 24 
0.695166 0.538374 3.80563 60 46 35 
0.0431574 0.524661 3.69506 240 244 217 
0.437437 0.168416 3.91535 87 0 0 
0.283823 0.331833 3.94623 195 139 124 
0.202289 0.443204 3.83575 42 41 21 
0.528134 0.56307 3.69161 116 109 101 
0.437142 0.127345 4.00541 252 194 172 
0.166318 0.389167 3.94879 171 139 114 
0.485204 0.125333 4.15395 251 150 142 
0.272514 0.491031 3.81891 150 129 124 
0.594838 0.476471 3.83747 48 0 6 
0.698088 0.700137 3.51512 177 94 122 
0.389188 0.0331213 3.95822 219 114 92 
0.481902 0.653215 3.58349 82 0 16 
0.546426 0.825513 3.54377 148 56 67 
0.279886 0.703267 3.51546 178 142 128 
0.383487 0.749194 3.55382 227 146 101 
0.439564 0.444612 3.87286 144 119 114 
-0.573712 -0.6902 4.34728 255 255 248 
0.715302 0.48885 3.80792 219 128 159 
-0.583012 -0.716924 4.45993 24 20 11 
0.518487 0.891325 3.47463 126 35 53 
-0.447563 0.726377 3.54614 103 16 48 
0.565765 0.855383 3.58654 144 61 77 
0.665863 0.800546 3.30492 235 157 173 
0.687798 0.798801 3.39765 104 15 43 
0.648571 -0.182156 4.15892 242 245 252 
0.47627 0.838506 3.5372 46 0 7 
-0.554253 -0.729629 4.43642 135 135 127 
0.540551 0.985877 3.13132 220 129 164 
-0.286889 -0.519584 4.68556 48 41 31 
0.818377 -0.517543 4.68834 27 17 18 
-0.255049 -0.491824 4.60202 67 54 48 
0.281896 0.80282 3.50605 126 150 116 
-0.558217 -0.715357 4.25062 76 69 59 
0.68517 0.519573 3.81473 222 98 148 
-0.185476 0.514514 3.72401 207 213 209 
0.329225 0.519866 3.76359 137 150 133 
0.478371 0.810544 3.55303 44 0 10 
0.726316 0.774846 3.41561 54 10 27 
0.304051 0.455525 3.83548 41 18 10 
0.214431 0.448035 3.77356 57 54 37 
0.377985 0.802565 3.52653 223 218 225 
0.671325 -0.453507 4.44361 169 163 167 
-0.554139 -0.743542 4.36799 22 23 15 
-0.0331038 -0.205125 4.14718 241 241 249 
0.239273 0.383694 3.71921 62 17 0 
0.417519 0.52327 3.73673 35 20 17 
0.707583 0.534045 3.81744 197 180 150 
-0.544908 -0.704387 4.31834 191 191 179 
0.450951 0.79909 3.55122 16 7 0 
-0.0377621 0.536678 3.6633 196 196 172 
0.432754 0.436892 3.82561 152 119 114 
0.385724 -0.426356 4.499 30 28 29 
-0.334102 0.438578 3.81695 54 40 31 
0.357001 0.787827 3.51904 6 13 6 
0.633318 -1.35041 4.74322 147 143 134 
0.502571 0.551009 3.74646 37 0 3 
0.681418 0.775131 3.52593 179 116 137 
0.349297 0.767478 3.4897 90 105 98 
0.682194 0.859316 3.32154 45 0 12 
-0.174584 -0.123342 4.17021 41 41 49 
0.414525 0.514422 3.63433 35 16 12 
0.713487 0.523962 3.70194 102 9 28 
0.718427 0.747221 3.43033 45 0 9 
0.223631 0.724246 3.64522 130 73 62 
0.711408 0.747509 3.44759 63 0 6 
0.436325 0.432845 3.898 99 61 50 
0.332437 -0.122192 4.33005 226 150 152 
0.280889 0.425317 3.85673 47 11 0 
0.722806 0.541798 3.80868 26 0 0 
0.579788 0.770835 3.5765 33 0 0 
0.559094 0.770231 3.57649 171 153 149 
0.447913 0.419305 3.85186 66 21 0 
0.517828 0.98556 3.28207 202 157 164 
-0.116802 -0.1866 4.19673 102 101 109 
0.710819 0.711383 3.37664 54 10 25 
0.576765 0.750394 3.54581 67 0 9 
0.335778 0.748358 3.53188 91 61 50 
0.640028 0.836866 3.26074 48 0 16 
0.488879 0.750746 3.58058 255 244 240 
-0.0513832 -0.219122 4.10245 208 209 214 
-0.110597 0.408263 3.84147 97 106 101 
0.372776 0.73608 3.54353 211 224 178 
0.351991 0.737821 3.55988 207 173 138 
0.347771 0.393328 3.7832 85 48 22 
-0.0229743 -0.210945 4.24153 72 72 80 
0.340345 0.740153 3.57782 189 151 140 
0.29174 -0.211453 4.42386 121 94 73 
0.572315 -0.19953 4.20292 85 86 91 
0.608686 -0.197834 4.15949 73 74 79 
0.65612 -0.181846 4.15601 37 40 47 
0.532426 -0.168349 4.03166 130 131 136 
0.66893 0.860121 3.3383 44 6 21 
0.506579 0.547882 3.74084 37 0 0 
0.300051 0.393625 3.88029 71 25 10 
0.660895 0.846749 3.3206 255 161 199 
0.294763 0.716785 3.55423 226 206 179 
0.309124 -0.0703363 4.20745 87 38 41 
-0.0998737 -0.15024 4.17027 247 247 255 
-0.0795794 0.39004 3.88244 29 0 0 
0.627721 -0.144539 4.14439 246 246 254 
0.377255 -0.0718218 4.30221 117 89 75 
0.667153 0.739892 3.6886 32 0 0 
0.355133 -0.0588677 4.23675 255 159 160 
0.442527 0.546659 3.6886 14 3 0 
0.512511 0.538411 3.63664 126 42 66 
0.381917 -0.123589 4.3221 238 200 197 
-0.305263 0.407207 3.76008 59 21 20 
0.369404 -0.118761 4.33752 101 53 49 
0.726601 0.668376 3.41952 234 151 179 
-0.130658 0.418691 3.85144 214 220 220 
0.158678 0.374187 3.88494 60 13 0 
0.430448 -0.0474273 4.33512 107 48 42 
0.316894 -0.105645 4.27025 252 181 179 
0.68782 0.550689 3.70244 194 178 153 
-0.152538 -0.0996915 4.31115 5 4 9 
0.133049 0.374562 3.92078 92 43 11 
0.259393 -0.101158 4.31275 239 242 233 
0.292527 -0.0906667 4.31279 69 52 36 
0.35699 -0.0872741 4.29023 241 207 198 
0.520827 0.559106 3.74107 205 112 141 
0.443243 -0.0285451 4.12652 86 11 18 
0.00438455 0.349457 3.7991 254 227 218 
0.390249 -0.0760045 4.31954 224 197 186 
0.39864 -0.0739387 4.2942 217 194 176 
0.409661 -0.0736704 4.29371 104 78 61 
0.436839 -0.0650873 4.31466 131 102 86 
0.487094 -0.0628386 4.25149 34 6 0 
0.441209 0.562584 3.71547 208 203 199 
0.497527 0.659876 3.57789 57 0 16 
0.456917 -0.035647 4.20211 228 194 185 
0.492042 0.676027 3.60326 179 170 165 
0.639095 0.323651 3.8921 212 123 151 
0.50214 0.669818 3.59336 93 36 53 
0.681428 0.52616 3.73201 70 58 46 
0.00185394 0.314215 3.81428 255 246 235 
0.728231 0.770557 3.46441 188 113 143 
0.46818 0.662054 3.5817 46 0 9 
0.0795595 0.963421 3.36313 143 141 142 
0.477844 0.577869 3.7229 29 0 0 
-0.00526097 0.308503 3.82106 250 228 214 
0.0139726 0.303387 3.79776 232 204 193 
0.0355863 0.931752 3.43809 142 142 132 
-0.0225433 0.286961 3.75631 203 177 164 
0.506284 0.870177 3.49789 103 17 20 
0.369413 0.672169 3.70704 178 142 130 
0.678873 0.669286 3.70218 98 18 45 
0.457089 0.641732 3.5664 130 45 40 
-0.0475538 0.516874 3.7142 188 190 185 
0.851402 0.0890019 3.98933 234 127 133 
-0.0776751 0.928829 3.40469 166 146 135 
0.555376 0.658987 3.68413 33 11 14 
-0.450641 -0.724133 4.29093 100 47 41 
0.377047 0.581827 3.71275 137 116 99 
0.450324 0.568773 3.64039 232 222 210 
0.0656283 0.301593 3.95808 48 36 56 
-0.00525419 0.296209 3.88166 237 211 196 
0.299798 0.0878021 3.69147 105 63 47 
0.441402 0.126706 4.03718 237 196 192 
0.373196 0.121653 4.05475 43 0 0 
-0.0987936 0.585087 3.68316 103 86 76 
0.478227 0.123132 4.10685 243 153 145 
0.227519 0.636848 3.63855 162 99 81 
-0.0399415 0.282473 3.84419 226 202 190 
0.495001 1.03177 3.15633 221 116 156 
-0.0406905 0.284337 3.93403 229 203 190 
0.476744 0.632029 3.67768 66 19 9 
0.401665 0.596962 3.72111 177 167 166 
0.498608 0.604922 3.76816 67 3 0 
0.721264 0.604846 3.77467 47 0 0 
-0.254941 0.266922 3.9824 229 220 213 
0.448815 0.171281 4.01232 113 23 0 
0.464252 0.248932 3.85031 230 218 206 
0.147487 0.152939 3.81298 125 24 16 
0.687707 0.619211 3.66495 58 1 18 
-0.076677 0.254612 3.97408 22 0 0 
0.684739 0.598776 3.69892 170 166 141 
0.788728 0.205801 4.01724 255 229 216 
0.426617 0.606464 3.65329 117 113 102 
-0.387552 0.593311 3.61481 55 1 15 
0.158397 0.243162 4.00062 237 173 138 
0.649961 -1.34675 4.77387 92 88 79 
0.619063 -1.3536 4.79566 130 126 117 
0.466585 0.19823 3.94863 235 175 147 
0.737381 0.692897 3.39874 140 11 68 
0.813842 0.302444 3.88374 201 151 152 
0.559648 0.936246 3.34347 112 93 86 
0.290653 0.337136 4.01602 187 134 120 
0.00685305 0.492823 3.67578 223 219 194 
-0.169562 0.0954847 4.06289 53 0 0 
0.773214 0.235061 4.0151 54 5 0 
0.706537 0.608765 3.71262 82 18 18 
0.668906 0.649314 3.65206 202 134 155 
0.222071 0.630003 3.62717 213 150 132 
0.393577 0.496049 3.78002 14 29 10 
0.442951 0.418686 3.8229 54 23 5 
0.0481094 0.622757 3.66517 223 224 219 
0.478003 0.820102 3.54247 247 235 235 
0.4068 0.512325 3.66193 35 21 18 
0.712567 0.640975 3.78736 58 1 18 
0.36396 0.838409 3.61649 229 234 230 
0.0355528 0.610714 3.56774 56 61 54 
0.702928 0.743731 3.41951 60 9 14 
0.649951 0.330319 3.95417 212 123 151 
0.214544 0.726874 3.62644 254 248 234 
-0.0308856 0.522075 3.73206 254 250 238 
0.571582 0.763285 3.53795 47 5 6 
0.425722 0.806333 3.47376 37 6 4 
0.456492 -0.0314558 4.1023 226 162 152 
0.582421 0.965732 3.15793 33 10 16 
-0.21141 0.526325 3.78539 198 199 201 
0.435574 0.813542 3.53149 204 179 182 
0.411008 0.512641 3.722 228 207 204 
0.135725 0.381938 3.99495 92 43 11 
0.307715 0.754798 3.49333 208 218 210 
-0.0775846 0.934058 3.42385 166 146 135 
0.659877 -0.188349 4.2313 230 233 240 
0.0499454 0.297985 3.83982 76 61 66 
-0.295735 -0.529841 4.79255 36 32 21 
0.56982 0.880724 3.50808 229 171 151 
-0.0336093 0.506206 3.68575 245 243 230 
-0.0060606 0.291808 3.83604 239 213 198 
0.394992 0.600806 3.70363 180 176 167 
0.595625 0.959969 3.20095 255 178 199 
0.215908 0.699567 3.52227 130 73 62 
0.408599 -0.0773618 4.28333 80 54 37 
-0.49316 -0.717321 4.22992 8 8 0 
-0.0595066 0.602653 3.73922 76 70 58 
0.529759 -1.28138 4.8579 80 21 23 
0.730507 0.611576 3.81946 59 0 6 
0.537586 -1.28081 4.82863 192 129 138 
0.283622 0.407646 3.77445 50 21 7 
0.697891 0.821852 3.40631 50 9 23 
0.460966 0.645808 3.58179 103 39 30 
0.607609 -1.33111 4.85169 58 54 45 
0.349758 0.754285 3.56361 125 141 130 
0.374407 0.679888 3.74923 178 142 130 
0.546631 0.919063 3.57998 251 196 155 
0.834171 0.274684 4.03564 246 248 247 
0.48217 0.828067 3.53545 233 207 208 
0.456758 0.805533 3.58853 29 20 13 
0.469912 0.795012 3.48834 44 0 10 
0.357372 0.117491 3.91872 60 18 4 
0.482755 0.836909 3.48285 48 13 11 
0.385445 -0.124738 4.35331 235 191 190 
0.278116 0.675672 3.69514 206 164 150 
-0.109209 0.397297 3.74918 97 106 101 
-0.257968 0.271632 4.05635 232 217 210 
0.477313 0.577679 3.7052 33 0 0 
-0.0267863 0.24461 3.86562 106 95 91 
0.438897 0.544395 3.67111 15 4 0 
0.734465 0.544142 3.67222 51 10 18 
0.335723 -0.122812 4.36282 251 190 189 
0.702018 0.56795 3.72257 62 32 24 
0.637554 0.556656 3.65117 148 142 126 
0.485628 0.824932 3.46623 234 201 168 
0.598497 0.781349 3.47663 108 26 40 
0.554084 0.693273 3.61401 54 0 9 
0.441756 0.476157 3.8352 200 147 105 
0.251962 0.742025 3.5707 66 99 78 
0.34882 0.730542 3.52921 204 175 145 
0.670607 -0.18509 4.23676 44 47 54 
0.34538 0.75177 3.62976 182 144 131 
0.492779 -0.184707 4.24734 114 112 125 
0.76955 0.200979 3.93334 250 208 194 
0.448001 0.0945417 4.0785 252 183 178 
0.370316 -0.118901 4.37205 132 72 72 
0.563742 0.62621 3.65871 167 131 143 
0.483921 0.642186 3.73055 42 1 0 
0.00611253 0.356397 3.86069 246 219 210 
0.463251 0.198787 3.92093 245 191 163 
0.466485 0.48079 3.8432 120 28 5 
-0.0632921 0.51242 3.59622 183 180 173 
-0.373894 0.61944 3.70188 197 118 137 
0.621494 0.308 3.91226 206 113 144 
-0.0179 0.301535 3.85062 254 232 218 
0.0674977 0.316296 4.11993 11 0 19 
0.676106 0.772489 3.50467 183 100 128 
-0.0354053 0.287062 3.84155 255 235 223 
0.675048 0.512158 3.76063 222 98 148 
0.378414 0.427942 4.09279 64 28 4 
0.311458 0.736905 3.62334 236 211 180 
-0.0766225 0.25734 4.00682 16 0 0 
-0.129847 0.409746 3.76229 175 184 181 
0.564839 0.583586 3.77318 217 94 141 
-0.575165 -0.73669 4.38298 87 80 70 
0.217336 1.00442 3.4099 222 143 162 
0.425177 0.418149 3.82232 68 31 13 
0.276244 0.423353 3.82511 43 7 0 
0.637218 0.834428 3.25093 61 6 25 
0.519858 -1.34808 4.83984 94 48 48 
0.541981 0.818043 3.50304 144 57 66 
0.0372756 0.577435 3.69095 182 187 180 
0.301215 0.445399 3.84412 95 68 59 
0.343115 0.597615 3.78275 4 27 1 
-0.0994059 -0.207361 4.13491 97 96 104 
-0.023539 -0.211263 4.28069 72 72 80 
-0.0521924 0.269589 4.0407 41 22 16 
0.366819 0.426497 3.76766 50 16 6 
0.499262 0.671586 3.67777 56 0 4 
0.753349 0.692896 3.54116 238 144 178 
-0.124169 -0.346794 4.46541 157 149 147 
0.446852 0.173532 4.01174 89 3 0 
0.350443 -0.0574084 4.18684 255 169 169 
0.53344 1.01318 3.36828 218 160 174 
0.538045 0.814216 3.41579 146 58 83 
0.46214 0.619417 3.59599 48 19 3 
0.370597 0.674596 3.72897 191 153 134 
0.663986 0.654912 3.63232 117 52 72 
0.705177 0.783047 3.40517 60 7 27 
0.259445 0.642186 3.53534 193 149 124 
-0.690529 -0.694387 4.33382 56 28 24 
0.70599 0.564882 3.7974 144 129 106 
-0.546469 -0.670756 4.18062 5 0 0 
0.428432 -0.0251718 3.98715 68 3 9 
0.545576 0.5646 3.66598 236 127 168 
0.655757 0.552665 3.67914 147 129 119 
0.709101 0.523477 3.56358 46 5 13 
0.610812 0.541583 3.69299 179 165 154 
0.295678 0.714023 3.53923 230 210 183 
0.354735 0.728039 3.54354 21 17 0 
0.69757 0.528428 3.70393 20 7 0 
0.390734 0.766481 3.68889 151 178 133 
0.757599 0.534855 3.81148 170 89 108 
0.674576 0.5129 3.70759 40 5 9 
0.364816 0.767 3.57843 36 35 5 
0.328972 0.778868 3.61446 101 130 108 
0.578736 0.770171 3.5797 38 7 5 
-0.502585 -0.728779 4.29975 8 7 2 
-0.0339988 0.503495 3.66883 239 237 224 
0.694981 0.526906 3.86904 212 107 148 
0.350671 -0.114047 4.18879 167 101 103 
-0.155399 -0.101807 4.41759 5 4 9 
0.703448 0.762096 3.38355 43 0 12 
0.483794 0.819416 3.53426 240 211 215 
0.266162 -0.0856227 4.31298 93 69 57 
0.102448 0.484803 3.83345 15 20 13 
0.592423 0.472139 3.81093 59 0 9 
0.355303 -0.0848062 4.47325 170 99 105 
0.316159 -0.0769208 4.33785 78 66 54 
0.501094 0.845077 3.58466 46 15 13 
-0.244815 0.278838 3.84718 85 50 46 
0.480006 0.849009 3.57617 43 4 9 
0.498569 0.844287 3.54769 230 197 156 
0.170257 0.271564 4.02295 248 242 230 
0.836842 0.265895 4.01911 23 13 11 
0.217025 0.702293 3.5328 120 57 48 
0.161487 0.258281 3.99437 221 167 133 
0.625853 -0.257527 4.54556 107 106 112 
0.479406 0.255992 3.97665 245 235 226 
-0.26393 -0.498443 4.66184 52 38 37 
0.436566 0.616281 3.70913 139 126 117 
-0.0546571 0.259449 3.93132 26 11 8 
0.054512 0.383072 3.75316 237 213 201 
-0.0796877 0.396697 3.93235 26 0 0 
0.802349 -0.512291 4.62262 17 8 11 
-0.282159 -0.509719 4.60432 48 41 31 
0.649035 -1.35405 4.79683 95 91 82 
0.562886 0.578883 3.68895 67 0 24 
0.674224 -1.33547 4.78816 9 12 3 
-0.177894 0.118311 3.92389 49 28 25 
0.467977 0.188824 4.00307 72 7 13 
0.458211 0.117672 3.9865 232 163 158 
0.659525 0.336125 4.02139 214 109 142 
0.666872 -0.451799 4.41347 156 150 154 
0.585158 0.969769 3.1698 46 21 27 
0.413109 0.793089 3.43845 70 49 54 
0.686062 0.607013 3.64329 219 119 155 
0.333647 0.585139 3.70356 12 30 6 
0.55305 0.559489 3.84884 221 158 143 
-0.428285 -0.4816 4.71599 127 72 77 
0.250692 0.487888 3.78633 145 158 138 
0.51842 0.550269 3.6436 156 147 138 
0.157222 0.239878 3.97711 157 90 45 
0.541543 -1.30165 4.71604 221 219 206 
0.681926 -0.189544 4.3008 64 67 74 
0.0970372 0.341325 3.6762 253 220 213 
0.753072 0.501085 3.89306 195 59 63 
0.437337 0.761969 3.55337 125 25 49 
0.0914492 0.479404 3.82139 3 19 9 
0.410907 0.0882048 3.95711 186 32 34 
-0.0111064 0.27767 3.70995 236 209 198 
-0.122336 -0.342974 4.37388 212 203 194 
0.662932 0.595401 3.75382 159 140 126 
0.385324 -0.379612 4.29556 219 220 224 
0.425363 0.602555 3.62983 128 120 109 
0.584822 0.614343 3.69756 43 21 33 
0.577807 0.897091 3.57739 241 191 140 
0.723806 0.528286 3.54898 44 3 0 
0.665174 0.537777 3.60985 208 184 158 
0.58975 -0.243763 4.32398 104 103 111 
0.532358 0.558435 3.758 52 0 6 
-0.372397 0.611385 3.64311 222 88 125 
0.818649 -0.523977 4.72215 27 22 19 
0.532062 0.541604 3.72862 217 139 135 
0.503619 -0.382352 4.21531 219 219 227 
0.74465 0.551353 3.74147 71 13 28 
-0.283663 -0.507383 4.57545 124 116 105 
0.0878326 0.451482 3.6044 3 10 3 
0.505917 0.552117 3.74845 38 0 4 
0.429369 0.534687 3.63218 24 19 16 
0.489895 0.663995 3.49547 49 29 31 
0.476302 -0.164521 4.10197 217 215 226 
-0.1508 -0.22866 4.26775 217 221 224 
0.314404 0.774201 3.59375 210 212 207 
-0.666739 -0.562391 4.23758 119 84 78 
0.470994 -0.172755 4.13039 62 60 71 
-0.486513 -0.684679 4.17655 11 10 6 
0.485094 0.651361 3.56977 57 0 7 
0.376712 -0.124077 4.34701 232 197 191 
0.76365 0.542751 3.85388 203 96 122 
0.370651 -0.110772 4.38684 254 186 185 
0.752924 0.525364 3.82296 29 0 0 
0.596993 -0.247426 4.30771 46 45 50 
0.350021 0.779388 3.48198 4 17 7 
0.328346 -0.0839606 4.22811 179 93 104 
0.675126 0.515896 3.72409 47 16 22 
0.0468072 0.632848 3.72329 204 206 201 
-0.0318966 0.514346 3.73233 250 246 234 
0.365913 -0.0651008 4.27825 234 196 183 
0.550671 0.614742 3.58733 128 95 106 
-0.122152 0.417588 4.00111 186 195 190 
0.42656 0.813032 3.50892 49 10 13 
0.67142 0.623205 3.63995 222 144 166 
-0.523519 -0.683868 4.13931 129 130 116 
0.473748 0.815223 3.48791 229 205 205 
0.609111 0.491261 3.72315 225 105 150 
-0.504497 -0.734218 4.32904 8 8 0 
0.469462 0.832505 3.51202 76 41 45 
0.443318 0.424379 3.84794 69 46 32 
-0.266861 0.302617 3.78806 224 215 216 
0.430736 0.0915815 3.97208 254 188 190 
-0.184014 0.124087 4.07946 43 19 17 
0.601496 0.483571 3.87769 48 0 6 
0.547851 0.23983 4.08078 253 212 182 
0.35733 0.654523 3.62782 184 140 115 
0.435964 0.463414 3.78566 120 50 24 
0.481349 0.587616 3.68944 76 73 54 
0.451888 0.192735 3.8226 245 191 163 
0.707659 0.64066 3.78392 39 2 10 
0.538004 -1.29072 4.67886 221 219 206 
0.584454 0.199361 4.11773 208 54 66 
0.653089 0.75389 3.40629 143 54 84 
0.193748 -0.111198 4.2499 58 41 25 
0.361728 0.565395 3.59709 143 118 98 
0.548275 0.568824 3.62391 49 13 25 
-0.252105 0.710682 3.5962 36 35 31 
-0.0369279 0.211722 3.75095 143 106 87 
0.070405 0.980917 3.635 124 122 123 
0.657628 0.592246 3.7393 115 97 83 
0.631041 0.315991 3.98317 215 93 140 
-0.157163 0.454003 3.77115 209 213 216 
0.848678 0.0863241 3.97573 170 90 93 
0.267792 0.664315 3.66166 203 157 133 
0.532722 0.805717 3.44881 145 60 67 
-0.309311 -0.310379 4.30113 155 155 157 
0.776848 -0.50392 4.51219 26 22 19 
-0.129765 0.850296 3.59337 255 230 240 
0.317205 -0.099223 4.22634 248 203 197 
0.0505326 0.372555 3.66189 255 232 220 
0.358307 -0.0765536 4.58594 251 210 204 
0.681652 0.522598 3.6403 26 16 6 
-0.0745946 0.295177 3.88922 192 159 152 
0.494632 0.855426 3.50746 57 32 28 
-0.497768 -0.678692 4.21817 18 18 10 
0.364032 0.762414 3.5463 48 32 6 
0.741523 0.763265 3.5579 222 132 167 
0.599836 0.977108 3.23719 255 154 184 
0.637121 0.707202 3.5528 19 8 6 
-0.543578 -0.742805 4.35773 10 11 5 
-0.484956 -0.696027 4.15628 7 6 2 
-0.574214 -0.713525 4.46034 17 17 9 
0.48249 0.681731 3.59029 26 13 7 
0.450253 0.806897 3.39312 61 26 32 
0.511376 0.683767 3.72473 46 11 18 
0.45457 0.64057 3.52682 54 8 11 
0.611702 -1.32808 4.82636 28 24 15 
0.74785 -0.521175 4.45069 24 25 20 
0.464606 0.199565 3.87533 227 202 197 
0.351916 0.626423 3.56832 171 134 107 
0.442512 0.78429 3.50167 26 15 11 
0.59331 0.478302 3.80703 29 3 4 
0.514393 -0.387987 4.28724 232 232 240 
0.453743 0.635674 3.81845 155 135 124 
-0.412992 -0.217245 4.05899 4 0 2 
0.628017 0.501754 3.80477 226 75 130 
-0.100927 0.585317 3.74179 51 34 26 
-0.0308997 0.493027 3.5863 248 244 232 
0.364097 0.828496 3.59032 227 227 225 
0.39018 -0.132525 4.34844 149 67 73 
0.661124 0.506469 3.65899 39 12 21 
-0.145493 -0.0909644 4.12022 16 17 19 
0.697905 0.555873 3.69727 44 33 31 
0.304842 -0.0780992 4.28543 63 67 52 
0.431412 0.825591 3.55967 63 24 29 
0.163591 0.00677161 4.04875 21 3 3 
0.472091 -0.0394747 4.25457 222 183 168 
0.437493 -0.0217866 4.05004 64 0 0 
-0.173953 0.588189 3.61085 247 238 229 
0.690805 0.428712 3.8168 42 17 13 
0.602132 0.533115 3.71111 126 50 80 
-0.159206 -0.0765392 3.91087 113 103 102 
0.465498 0.44064 4.00032 50 8 0 
0.746044 0.544015 3.62604 21 9 9 
-0.151466 0.0548695 3.99702 29 18 16 
-0.247102 0.689969 3.50118 32 31 26 
0.676735 0.868217 3.40261 215 113 153 
0.274049 0.41447 3.85678 177 144 113 
0.515666 0.539978 3.62494 51 23 20 
0.674043 -0.150689 4.38651 21 21 29 
0.215924 0.445605 3.74652 25 22 5 
0.75293 0.545554 3.82152 213 77 113 
-0.184328 0.12812 4.14547 66 46 45 
0.35851 0.119222 3.95236 47 7 0 
-0.699401 -0.590305 4.42892 121 84 76 
0.378335 0.136841 3.9916 178 117 86 
-0.272805 0.256066 3.99527 114 97 87 
0.214442 -0.118161 4.52579 97 74 68 
0.563721 -1.33736 4.85622 239 235 223 
0.450331 0.222799 3.92739 251 228 214 
0.544778 0.54995 3.78591 223 166 147 
-0.368919 0.604616 3.59996 226 86 125 
0.682322 0.633146 3.69103 222 144 166 
