ply                 
format ascii 1.0    
element vertex 1259
property float x    
property float y    
property float z    
property uchar red  
property uchar green
property uchar blue 
end_header          
-0.678301 -0.700277 3.96056 46 46 48 
-0.689878 -0.704 3.96189 237 236 241 
-0.606229 -0.740978 4.22468 227 196 178 
-0.650005 -0.768853 4.25996 102 72 64 
-0.788883 -0.984255 4.44712 118 43 47 
-1.16185 -1.33092 4.90821 164 107 113 
-0.258041 -1.21472 4.61371 212 202 200 
-0.658306 -0.798573 4.26572 124 96 82 
-1.11807 -1.57267 5.00791 50 19 14 
-0.855112 -0.380446 3.85367 59 55 52 
-1.12941 -1.43678 4.89804 7 0 0 
-1.0109 -1.04307 4.54033 69 42 31 
-1.11305 -1.30068 4.80788 189 103 132 
-0.909127 -1.46641 4.95333 91 110 91 
-0.558299 -0.797585 4.26977 82 72 62 
-0.94851 -0.974121 4.46686 219 70 72 
-0.984962 -1.25504 4.72124 53 79 50 
-1.15258 -0.970463 4.46027 154 142 126 
-0.498909 -0.847143 4.34412 210 196 187 
0.661132 0.10397 3.33222 134 47 2 
0.442113 -0.349166 3.82739 200 184 171 
0.715437 0.0820844 3.25521 139 56 14 
-0.160901 -1.00585 4.22386 210 210 212 
-0.396358 -0.7397 4.12168 41 36 33 
-0.67042 -1.22263 4.7006 46 27 10 
-0.66767 -1.21779 4.6543 211 193 183 
-0.641899 -0.755033 4.26694 221 186 167 
-1.04051 -1.16944 4.64602 213 153 179 
-0.634947 -0.804444 4.25858 222 193 179 
-1.07043 -1.06591 4.57374 230 87 140 
-0.44554 -0.79592 4.25722 240 217 203 
-0.675829 -1.43792 4.94422 34 36 31 
0.419808 -0.311809 3.77226 137 95 70 
-0.418274 -1.46326 4.40875 114 68 71 
-1.20093 -1.27469 4.77306 198 168 140 
0.163402 -0.21464 3.66542 155 124 103 
-1.14942 -1.37302 4.88467 49 3 6 
0.388001 -0.353227 3.78638 89 53 29 
-0.64267 0.231711 3.26633 135 110 103 
0.278436 -0.335103 3.76311 161 115 81 
0.253592 -0.232434 3.6773 81 62 58 
-0.304064 0.0854243 3.39282 81 69 57 
-0.706452 -1.21609 4.61174 145 136 131 
-0.51529 -0.823304 4.30653 105 78 57 
-0.188385 -1.24853 4.68014 112 102 92 
0.148406 0.0116435 3.44299 93 80 64 
-0.547842 -1.51955 5.00101 51 41 31 
-1.17369 -1.39203 4.90913 110 13 44 
-1.26816 -1.4205 4.92014 100 32 33 
-0.78989 -1.18111 4.58227 212 204 201 
-1.09233 -1.48798 5.00067 224 83 117 
-0.741541 -1.21087 4.60632 180 171 162 
-0.94603 -1.25661 4.75925 25 39 13 
-1.04785 -1.5237 5.02255 73 63 51 
0.189357 -0.286544 3.7304 180 134 110 
-1.19205 -1.29785 4.8022 74 23 30 
-1.22808 -1.52634 5.03529 144 47 64 
-0.668015 -0.84402 4.33802 45 11 0 
-1.25197 -1.42154 4.92098 71 12 18 
-0.661892 -1.52109 5.01446 161 105 72 
-1.22379 -1.29645 4.79998 141 126 119 
0.103423 -0.270229 3.7209 74 37 10 
0.193527 -0.273522 3.71248 84 52 27 
-1.13114 -1.41452 4.92419 137 84 100 
-0.929206 -1.26832 4.77423 15 36 3 
-0.495875 -0.84685 4.32841 100 74 57 
-0.19275 -1.15022 4.58548 144 135 128 
-0.90318 -0.852102 4.09406 119 118 123 
0.269014 -0.207508 3.65189 172 138 110 
-0.891418 -0.901593 4.17128 240 240 240 
-0.83272 -1.42146 4.91801 209 147 106 
-1.13916 -1.37264 4.87921 204 107 142 
0.447556 -0.381389 3.80953 78 55 41 
-0.872182 -1.53635 4.99249 238 242 219 
-0.919307 -0.867422 4.1072 65 64 69 
-0.692398 -0.711092 3.95587 221 221 223 
0.125833 -0.671587 4.02412 26 25 21 
0.192774 -0.240788 3.6794 65 44 27 
-1.0268 -1.55021 5.02418 208 219 211 
-1.17017 -1.55379 5.03091 233 199 164 
-0.557776 -1.37096 4.70538 222 191 173 
-0.715304 -1.21348 4.60513 167 160 150 
-0.972774 -1.41121 4.90357 222 183 154 
-1.26382 -1.37234 4.87118 135 116 102 
-1.04212 -1.57388 5.06304 144 107 80 
-1.08847 -1.39539 4.90181 209 126 152 
-0.777607 -1.1753 4.57486 156 145 139 
-0.56957 -1.3625 4.70412 237 206 188 
-1.19412 -1.27412 4.77791 143 128 121 
-0.800884 -1.20655 4.70012 78 32 9 
-1.18088 -1.28742 4.79716 80 31 27 
-0.989428 -1.48936 4.98395 29 48 18 
-1.2102 -1.22587 4.73004 37 32 2 
-0.955046 -1.25261 4.75367 24 40 14 
-0.484595 -0.853913 4.33357 141 153 151 
-0.915185 -1.26719 4.73876 52 33 27 
-1.07659 -1.39164 4.89973 86 0 5 
-1.22962 -1.14347 4.65644 175 107 108 
-0.600911 -1.38841 4.72252 152 125 106 
-1.2488 -1.3449 4.84021 195 91 126 
-0.584347 -1.38221 4.71443 156 129 108 
-1.21866 -1.52577 5.02401 129 47 51 
-0.582773 -1.35417 4.69416 140 109 88 
-1.21815 -1.25811 4.77122 72 62 37 
-1.24248 -1.2641 4.77095 81 11 13 
-0.732737 -1.20156 4.60053 176 169 161 
-1.06266 -1.55388 5.0199 205 194 188 
-1.1979 -1.41627 4.91424 96 0 31 
-1.03321 -1.53935 5.00944 108 112 85 
-0.922118 -1.53205 5.00553 90 101 69 
-1.02999 -1.49898 4.9891 204 171 126 
-0.772989 -0.865128 4.15308 148 146 149 
-1.26453 -1.16922 4.67038 166 106 98 
-1.23439 -1.29644 4.79902 66 58 39 
-0.726585 -1.50619 4.98788 80 0 0 
-0.640889 -0.824695 4.32167 221 192 178 
-1.25487 -1.22263 4.72334 208 106 128 
-1.20413 -1.42677 4.93421 103 0 26 
-1.20604 -1.52563 5.01507 243 179 144 
-0.893798 -1.32309 4.81696 112 129 111 
-0.550857 -1.36092 4.69662 136 108 87 
-1.22668 -1.53355 5.02437 131 48 58 
-0.907481 -1.28156 4.77971 113 127 102 
-0.46375 -1.31858 4.6494 233 204 188 
-1.01958 -1.49591 4.98683 21 8 0 
-0.392085 -1.24758 4.7024 134 110 108 
-0.52681 -1.20149 4.67646 170 162 173 
-0.928617 -1.2732 4.76723 42 69 38 
-1.14464 -1.38729 4.88873 61 0 10 
-1.25281 -1.35037 4.85523 94 0 25 
-0.634467 -1.34351 4.68567 211 190 171 
-1.25146 -1.42412 4.91735 43 0 0 
-1.20434 -1.47486 4.9825 72 17 23 
-0.990894 -1.4149 4.91079 100 124 98 
-1.04418 -1.53013 5.00727 27 19 8 
-1.07263 -1.53617 5.01859 86 70 37 
-1.2576 -1.29357 4.7864 38 10 0 
-1.20819 -1.29323 4.79771 153 140 124 
-0.598651 -0.817655 4.31419 131 76 69 
-0.908964 -1.34924 4.84199 124 99 77 
-0.784138 -1.22694 4.71849 71 41 17 
-0.593431 -0.755045 4.24513 253 198 191 
-1.25904 -1.49413 4.9897 130 30 58 
-0.836503 -0.856084 4.10996 229 227 230 
-1.15094 -1.20907 4.72007 57 2 23 
-0.95175 -1.49671 4.991 207 179 139 
-0.982729 -1.25463 4.71154 67 89 51 
-1.19559 -1.22036 4.72943 151 78 98 
-1.21583 -1.46893 4.96642 122 50 62 
-1.12895 -1.30359 4.817 61 0 18 
-0.940227 -1.20303 4.6893 74 24 0 
-1.242 -1.26269 4.75881 77 14 25 
-1.10488 -1.4235 4.9145 56 27 31 
-0.899482 -1.43783 4.92996 140 34 36 
-0.345089 -1.14816 4.49598 21 25 10 
-0.830092 -1.28101 4.77906 66 42 32 
-1.20945 -1.18812 4.70197 230 97 140 
-1.17171 -1.20552 4.71697 82 0 23 
-1.33329 -1.50756 4.9539 173 79 105 
-0.946445 -0.980215 4.4531 219 70 72 
-1.26473 -1.23459 4.72251 131 54 74 
-1.05548 -1.3485 4.81092 57 19 0 
-0.854611 -0.996592 4.50762 233 200 147 
-1.04872 -1.05865 4.5637 236 85 138 
-0.788538 -1.30552 4.78471 115 133 95 
-0.760221 -1.18637 4.5817 136 127 122 
-0.864856 -1.123 4.52139 137 129 126 
-1.17044 -1.01184 4.50425 153 150 143 
-0.751463 -1.20234 4.60517 116 107 100 
-0.955208 -1.2437 4.7419 165 147 127 
-0.611232 -1.35153 4.68743 226 199 178 
-0.662997 -0.822768 4.3036 102 72 62 
-0.694764 -0.805464 4.29095 82 51 30 
-0.991998 -1.30484 4.72934 122 77 74 
-0.695363 -0.796058 4.2797 95 64 44 
-1.00483 -1.49589 4.99153 190 153 126 
-0.195229 -1.24685 4.68663 89 71 57 
-0.878783 -0.863265 4.10701 242 240 245 
-0.889505 -1.32489 4.813 134 150 139 
-1.10414 -1.57219 5.01644 190 164 167 
-0.978864 -1.34671 4.76189 243 189 189 
-1.03538 -1.54949 5.03518 41 46 39 
-0.998453 -1.27963 4.71912 110 72 69 
-0.377186 -1.13819 4.59351 67 75 62 
-0.983959 -1.55475 5.01864 36 57 42 
-0.90066 -1.26459 4.76091 131 103 92 
-0.97047 -1.5538 5.01822 27 43 32 
-0.936163 -1.21276 4.71025 142 110 99 
-0.92064 -1.26321 4.76596 119 109 100 
-0.951967 -1.55128 5.01822 40 58 46 
-0.961585 -1.55326 5.01062 138 155 145 
-0.675857 -1.26819 4.74615 23 45 24 
-0.997838 -1.54928 5.00911 130 148 136 
-0.807098 -1.26937 4.76243 41 5 0 
-0.946444 -1.2581 4.75619 37 57 22 
-0.837347 -1.25936 4.75611 130 98 87 
-0.921671 -1.54699 5.0041 112 139 122 
-0.590892 -1.37265 4.71219 234 205 187 
-0.86483 -1.13619 4.54616 136 131 125 
-0.70355 -1.34491 4.83146 54 46 25 
-0.771614 -1.20233 4.70542 185 138 118 
-0.416963 -1.54417 4.99598 120 100 89 
-0.963949 -1.53123 5.00751 189 177 153 
-0.8558 -0.844903 4.09403 82 81 89 
-0.782778 -1.27434 4.76762 147 115 104 
-0.926426 -1.53069 5.00025 145 146 130 
-0.578681 -1.37312 4.70385 234 205 191 
-0.749841 -1.28011 4.76359 37 24 16 
-0.812126 -1.23158 4.71905 139 111 100 
-0.50918 -1.52221 4.99563 131 97 70 
-0.804582 -1.25747 4.75267 53 21 6 
-0.513077 -1.5153 4.9863 177 126 83 
-0.683792 -1.2353 4.71817 149 120 102 
-0.64308 -0.801319 4.24389 199 173 156 
-0.824094 -0.887766 4.13572 253 251 252 
-0.994083 -1.49639 4.99395 118 86 71 
-0.879271 -1.31169 4.80207 131 148 129 
-0.545507 -1.36899 4.70398 122 95 76 
-0.349967 -1.1793 4.60891 45 6 0 
-0.662092 -1.23806 4.71571 43 15 0 
-0.993537 -1.49153 4.98324 114 127 109 
-0.90602 -1.23031 4.72707 147 119 108 
-1.04039 -1.57654 5.05501 149 114 94 
-0.912934 -1.25037 4.75426 111 86 81 
-0.783351 -1.25079 4.75373 132 106 91 
-0.810526 -1.28329 4.77506 43 17 4 
-0.69192 -1.25344 4.74587 34 48 25 
-0.826547 -1.22893 4.7439 44 16 2 
-1.03834 -1.26485 4.67983 115 96 92 
-0.684397 -1.24459 4.725 138 120 108 
-1.02712 -1.58079 5.07073 149 100 59 
-0.25379 -1.30018 4.76491 80 65 62 
-0.826053 -1.23925 4.73133 147 119 105 
-0.887963 -1.23958 4.72978 148 128 117 
-1.37408 -1.50292 4.85673 44 2 16 
-0.673873 -1.22233 4.62101 175 170 166 
-0.479592 -1.5986 5.06011 123 105 95 
-0.982284 -1.32927 4.74613 102 49 43 
-0.899834 -1.18024 4.6812 95 41 13 
-0.315171 -1.06009 4.37626 7 32 39 
-1.00862 -0.978622 4.47738 172 94 94 
-0.812402 -1.28849 4.78422 36 8 0 
-0.200618 -1.06638 4.35128 43 35 32 
-0.989244 -1.31691 4.73173 99 43 44 
-0.582051 -1.17375 4.65321 72 60 72 
-0.802486 -1.43804 4.94018 70 12 11 
-0.569734 -1.34849 4.68605 145 116 98 
-0.781985 -1.40367 4.89506 63 22 0 
-0.296928 -1.04377 4.36207 0 12 15 
-1.08783 -1.39954 4.89599 181 134 152 
-0.842157 -1.43639 4.93389 195 133 112 
-0.973606 -1.23716 4.73961 183 129 95 
-0.278182 -0.986513 4.23385 233 233 233 
-0.891552 -1.24595 4.74188 127 103 91 
-1.25017 -1.42774 4.9156 57 8 14 
-0.96258 -0.947259 4.29018 145 90 87 
0.0890541 -1.01989 4.23329 196 194 197 
-0.977691 -1.42615 4.91959 165 143 129 
-1.19661 -1.41887 4.92307 143 33 72 
-0.787738 -1.41201 4.90082 54 21 2 
-0.26015 -1.02242 4.24703 126 127 129 
-0.234286 -1.0338 4.26204 143 142 147 
-0.985346 -1.31968 4.74235 213 165 165 
-1.10886 -1.41134 4.91178 163 156 138 
-0.488972 -1.54728 5.03013 70 33 17 
-0.549874 -1.17715 4.65342 96 77 97 
-0.546356 -1.51859 4.99967 38 31 15 
-0.809512 -1.2981 4.78826 49 22 5 
-0.85048 -1.14285 4.55027 196 186 177 
0.633346 0.109216 3.20079 119 83 35 
-0.856048 -1.12873 4.53584 115 101 98 
-1.06603 -1.30443 4.79161 58 39 41 
-0.907275 -0.89496 4.15473 221 221 221 
-1.09315 -1.40839 4.90401 160 142 130 
-0.643619 -0.809063 4.29202 233 207 194 
0.44418 -0.227061 3.66322 167 158 149 
-1.00076 -1.29872 4.71979 103 54 47 
-1.03355 -1.56866 5.05274 179 187 189 
-0.896557 -1.45297 4.94703 193 158 139 
-0.91255 -2.08085 3.87498 76 56 45 
-1.05643 -1.55517 5.04104 45 29 32 
-1.16746 -1.5625 5.01816 221 187 150 
-0.794036 -1.22299 4.71376 77 43 15 
-0.749993 -1.21071 4.70754 50 8 0 
-0.848806 -1.2022 4.69526 102 58 31 
-0.2117 -1.01252 4.2313 78 78 80 
-0.655682 -1.50767 4.99791 163 120 86 
-0.544973 -1.19715 4.67931 24 8 21 
-0.193498 -1.05324 4.29088 219 218 223 
-1.07392 -1.53916 5.01338 74 66 30 
-0.867247 -1.54305 5.0064 235 218 202 
-0.264434 -1.05205 4.29169 232 231 236 
-0.997674 -1.53712 5.00563 99 103 78 
0.429252 -0.240252 3.65023 89 79 70 
-0.955075 -1.53644 5.00416 132 135 106 
-0.915615 -1.36055 4.86615 12 36 0 
-0.571764 -1.18638 4.67265 83 69 86 
-0.88002 -1.5362 4.9926 124 128 101 
-0.616629 -1.36659 4.69933 173 144 128 
-0.795995 -1.27982 4.77044 88 48 36 
-0.833312 -0.889803 4.16422 212 210 213 
-0.999006 -1.51862 5.01271 166 139 120 
-0.751138 -1.28734 4.77384 126 155 125 
0.715184 -0.304688 3.36638 148 73 6 
-0.596081 -0.2165 3.13315 81 43 42 
-0.772608 -1.41243 4.91084 150 113 95 
-0.691937 -0.76582 4.27945 228 192 178 
-0.783679 -1.16087 4.56164 170 155 150 
-0.643914 -0.794977 4.2539 220 193 176 
-1.21196 -1.19066 4.69207 192 110 133 
-0.362711 -1.11817 4.57386 16 5 0 
-0.983969 -1.57149 5.06602 120 142 106 
-0.756431 -1.27561 4.75692 57 30 11 
-0.591048 -0.725205 3.99916 58 54 51 
-1.09121 -1.49361 4.99237 223 105 139 
-1.01877 -1.49715 4.98614 26 10 0 
-0.396721 -1.22668 4.67226 135 102 97 
-0.596929 -1.16871 4.65309 78 64 79 
-0.544307 -1.33801 4.69717 174 148 131 
-0.65412 -1.496 4.98674 162 124 103 
-1.04817 -1.23204 4.65288 141 121 110 
-0.778815 -1.20944 4.69953 124 76 56 
-1.07247 -1.55275 5.02087 87 100 72 
-0.913837 -1.28109 4.72171 32 16 3 
-0.614165 -0.766443 4.24702 253 174 169 
-1.03745 -0.994291 4.50065 170 119 118 
-0.893082 -1.22844 4.72708 41 19 5 
-0.819109 -1.23072 4.72753 159 131 120 
-1.21828 -1.22739 4.72516 91 82 39 
-0.967053 -1.24299 4.74693 108 120 84 
-1.07329 -1.39728 4.89263 83 28 23 
-1.03486 -1.49608 4.98427 42 49 7 
-0.595763 -0.215297 3.1208 82 21 26 
-0.804255 -1.46276 4.93588 64 25 8 
-0.971576 -1.39939 4.90106 143 129 116 
-0.774308 -1.38382 4.86512 67 28 13 
-1.01383 -0.985231 4.4867 151 102 88 
-0.886918 -1.53026 4.99839 184 168 153 
-0.646748 -1.49338 4.96761 113 129 102 
-1.21847 -1.52673 5.02253 139 54 61 
-0.778191 -1.12828 4.43949 113 51 2 
-1.04622 -1.49376 4.99334 73 22 0 
-0.962653 -1.4935 4.98862 207 181 154 
-1.26641 -1.42606 4.91267 72 20 22 
0.336505 -0.299444 3.72913 90 53 26 
-0.538166 -1.35344 4.68776 109 81 60 
-0.397869 -1.22542 4.68997 31 0 0 
-0.792271 -1.18792 4.66482 124 46 8 
-1.26375 -1.17281 4.6662 179 109 111 
-0.844203 -0.865429 4.12954 71 69 72 
-0.242562 -1.01927 4.23149 94 92 97 
-0.769891 -1.2215 4.7042 41 5 0 
-1.10129 -1.2184 4.72533 50 28 31 
-0.872144 -1.53386 5.00117 213 208 188 
-0.91641 -1.27456 4.77759 22 36 13 
-0.689043 -0.8296 4.29887 93 63 52 
0.633515 0.104285 3.19052 82 47 0 
-0.276486 -1.01102 4.23915 222 221 227 
-0.653448 -0.969884 4.30048 108 0 0 
-0.620591 -1.35767 4.6906 132 101 83 
-1.08388 -1.29847 4.80002 169 169 159 
-0.55831 -0.870624 4.35047 175 98 90 
-0.568271 -1.37213 4.70703 122 92 81 
-0.479388 -0.853178 4.31231 225 215 203 
-0.957928 -1.34293 4.78683 162 139 133 
-1.20063 -1.52165 5.01515 117 12 29 
-0.581848 -0.816036 4.28748 88 55 40 
-0.494692 -0.805623 4.27732 232 204 192 
-0.500663 -1.51794 5.0016 57 15 0 
-0.798851 -0.955542 4.40007 251 154 147 
0.440995 -0.237404 3.6537 167 158 149 
-1.25181 -1.35405 4.8539 89 0 29 
-1.25581 -1.49283 4.98432 139 40 61 
-0.511059 -0.703382 4.16032 117 87 63 
-1.09972 -1.42215 4.91132 67 20 30 
0.415224 -0.338635 3.75806 152 117 95 
-0.72274 -1.44328 4.93102 190 161 145 
-1.22712 -1.44685 4.95438 93 31 32 
-0.344264 -1.11242 4.54042 6 0 0 
-0.353842 -1.15759 4.59105 58 79 62 
0.41167 -0.262188 3.70568 155 126 108 
-0.350582 -1.17286 4.6181 37 2 0 
-0.879982 -1.2241 4.7138 39 17 4 
0.410586 -0.272844 3.72199 155 124 103 
-1.33212 -1.4994 4.95109 157 98 116 
-0.500237 -0.704527 4.1563 115 84 64 
-1.13065 -1.50876 4.9719 130 128 107 
-0.69546 -0.849483 4.31757 226 196 168 
-1.25037 -1.35916 4.84391 89 0 29 
-0.826424 -0.851062 4.10942 74 72 73 
-0.996615 -1.54812 5.02075 86 113 98 
-0.873019 -1.5233 4.99883 69 16 12 
-1.37852 -1.5781 4.90832 203 113 141 
-0.697925 -1.22371 4.61269 136 129 119 
-0.340908 -1.02849 4.34491 12 48 48 
-0.575119 -1.34012 4.66815 101 72 54 
-0.395146 -0.290244 3.17963 84 34 33 
-0.839891 -1.44144 4.92115 206 146 122 
-1.02544 -1.54747 5.02632 215 216 208 
-0.885816 -0.898195 4.16484 241 240 245 
-0.914191 -1.37168 4.85187 20 31 15 
-1.25319 -1.21181 4.70921 84 38 23 
-1.09836 -1.39319 4.89324 91 17 42 
-0.727483 -1.50691 4.98622 46 3 0 
-0.493231 -1.56536 5.04333 120 85 81 
-0.527532 -1.50129 4.97174 166 84 88 
-0.761733 -1.39244 4.88247 210 171 142 
0.357774 0.0335197 3.33394 151 75 0 
-1.13834 -1.03511 4.51404 22 2 0 
0.400314 -0.29922 3.72022 70 41 25 
-1.22621 -1.53524 5.02177 146 55 73 
-1.16248 -1.09917 4.61005 126 76 77 
-0.555352 -1.37192 4.69629 104 77 58 
0.54296 0.129157 3.17903 127 57 0 
-0.78672 -1.2312 4.73116 185 159 124 
-0.998836 -1.24394 4.73706 14 1 0 
-0.813205 -1.2517 4.73846 44 22 8 
-0.822693 -1.25918 4.74613 46 10 0 
-0.781801 -1.23083 4.7109 51 23 0 
-0.499198 -1.33589 4.66083 207 178 160 
0.432159 -0.22673 3.65697 35 24 20 
0.446593 -0.216676 3.66894 175 166 157 
-0.682962 -1.53796 5.01572 175 93 33 
0.40809 -0.227507 3.68361 177 137 111 
-0.585187 -0.763778 4.23761 255 188 184 
-0.704506 -0.835068 4.31734 75 52 46 
-0.960004 -1.5474 5.03222 23 36 26 
-0.799503 -1.20835 4.68942 95 48 22 
-0.478576 -0.81917 4.27941 187 160 151 
-0.701152 -1.23436 4.64278 98 88 86 
-1.14836 -1.35017 4.84611 205 130 151 
-0.915487 -0.867562 4.12243 111 112 114 
-0.658826 -0.790969 4.25061 229 200 182 
-1.144 -1.39255 4.88128 71 24 34 
0.417009 -0.284441 3.74186 177 138 109 
-0.587902 -0.751736 4.22633 107 67 59 
-0.64003 -0.735008 4.21568 238 180 168 
-0.995111 -1.44111 4.93503 94 123 103 
-0.75647 -0.871858 4.14892 219 217 218 
-0.795791 -0.964184 4.45795 203 185 173 
-1.18135 -0.96995 4.47199 152 142 130 
-0.203325 -1.07436 4.3441 117 108 103 
-1.20383 -1.53332 5.00631 231 179 132 
-1.20245 -1.47408 4.96532 143 128 125 
-1.14345 -1.49443 4.97286 106 84 97 
-0.949059 -1.50327 4.97827 207 179 139 
-0.649633 -1.51636 4.96432 54 3 0 
-1.00841 -1.51463 4.99555 106 125 106 
-0.621117 -0.733006 4.23147 166 123 114 
-0.503074 -1.54048 5.00857 154 119 99 
0.164572 -0.292045 3.72556 131 93 72 
-0.718141 -0.845167 4.3265 214 187 170 
-0.357621 -1.17667 4.59053 62 85 75 
-0.900457 -0.855143 4.10357 237 235 238 
-0.642509 -0.722064 4.2328 227 181 165 
-0.659162 -1.21589 4.70411 192 117 86 
-1.04524 -1.36861 4.8239 61 54 26 
-0.594114 -0.77005 4.23271 237 140 147 
-0.0184832 -0.279776 3.72724 39 29 20 
-0.648485 -0.775306 4.25072 136 106 95 
-1.32953 -1.50898 4.93965 175 85 110 
-0.546118 -1.4399 4.91234 78 69 60 
-0.503843 -1.51133 4.9765 52 25 16 
-0.353825 -1.11963 4.55793 18 14 5 
-0.87176 -1.53758 5.01607 225 218 202 
-0.569856 -0.829725 4.3158 252 198 186 
-0.382516 -1.1397 4.61099 9 0 0 
-0.871916 -1.54198 4.9839 212 216 193 
0.345018 -0.161679 3.59102 129 97 74 
-1.00623 -1.55311 5.01641 179 175 172 
0.454942 -0.288462 3.69564 72 50 37 
-0.909051 -1.35215 4.83797 138 110 89 
-0.168418 -1.00824 4.23571 202 201 206 
-0.547345 -1.45657 4.88901 64 57 39 
0.644687 0.0602872 3.3046 176 73 0 
-0.301935 -1.04298 4.26191 253 253 255 
-1.11233 -1.20932 4.72024 57 32 38 
-0.669299 -0.796568 4.26269 175 148 131 
-0.654733 -0.763088 4.28623 225 196 180 
0.0344353 -0.983628 4.19648 216 214 215 
-0.817835 -0.965847 4.43316 175 22 16 
0.694647 0.0497652 3.27633 189 121 38 
-1.05505 -1.35343 4.8042 88 41 13 
-1.15974 -1.15406 4.64519 233 107 145 
0.430836 -0.355191 3.8072 61 51 39 
-0.641642 -1.34654 4.72149 35 25 13 
-1.01023 -1.50872 4.97824 175 121 83 
-0.910388 -0.998058 4.47395 233 208 151 
-0.861777 -0.887763 4.1582 34 34 36 
-0.236994 -1.044 4.27463 179 179 181 
-0.240207 -1.00196 4.23657 218 217 222 
-0.286108 -1.03917 4.27405 103 103 105 
-1.13798 -1.37498 4.87619 211 122 154 
-1.06633 -1.34339 4.8466 138 88 53 
0.710563 0.063067 3.24186 159 65 1 
-0.206471 -1.02573 4.2556 98 97 102 
-0.536956 -1.22568 4.69674 123 112 118 
-1.20336 -0.961834 4.32656 19 0 0 
0.394027 -0.161811 3.59973 139 98 66 
-0.494652 -1.3887 4.83994 150 136 127 
-1.33203 -1.44431 4.88711 188 58 102 
-0.870305 -1.29508 4.80243 164 119 96 
0.399122 -0.327416 3.75322 88 60 46 
-0.311287 -1.00721 4.27298 72 72 74 
-1.15934 -1.20651 4.71679 61 35 46 
0.170401 -0.325362 3.75786 137 91 57 
-0.994042 -1.20467 4.69233 242 165 197 
-0.864366 -0.963064 4.38994 184 53 58 
-1.22429 -1.18202 4.68076 111 2 5 
0.396213 -0.268448 3.68109 182 123 79 
-1.30902 -1.07547 4.52833 148 43 37 
-1.05252 -1.05171 4.53518 36 26 24 
-0.566361 -0.788709 4.34089 251 208 192 
-1.06505 -1.32082 4.78172 60 44 55 
-1.01593 -1.50004 4.9969 201 150 103 
0.701928 0.0689302 3.22601 233 183 86 
0.597591 -0.0991148 3.48945 120 58 0 
-1.09911 -1.244 4.6924 62 30 41 
0.40099 -0.357778 3.78121 66 53 44 
-0.606056 -0.75641 4.23625 171 90 87 
-0.439784 -1.50123 4.93507 242 240 227 
-1.2324 -0.968597 4.42926 40 0 0 
-0.383981 -1.17658 4.62088 67 87 75 
-1.13456 -0.938382 4.44034 36 8 7 
-0.823014 -0.951198 4.42802 232 198 199 
-1.05581 -1.18594 4.63697 55 35 37 
0.650282 0.102723 3.20538 222 161 78 
-0.629748 -0.731127 4.2144 197 73 81 
-0.577518 -0.727374 4.20486 202 66 76 
-1.10187 -1.20059 4.67461 239 205 203 
-1.05331 -1.36025 4.79578 72 40 17 
-0.669927 -1.23025 4.68742 35 32 13 
-1.27794 -1.48031 4.97939 194 119 123 
-0.683765 -0.820423 4.32101 174 145 127 
-1.26405 -1.36816 4.86877 168 146 125 
-0.769374 -0.753009 3.99678 173 249 255 
-0.527164 -0.808658 4.29689 219 192 181 
-0.469161 -0.815717 4.30364 214 196 184 
-0.566173 -0.819404 4.30953 255 212 199 
-1.25248 -1.34532 4.84399 113 0 35 
-1.25105 -1.33614 4.8355 182 81 115 
-0.599771 -0.803378 4.29799 140 69 67 
-0.645876 -0.803213 4.30196 231 206 186 
-0.637973 -0.808627 4.3098 123 94 78 
-0.657871 -0.814692 4.31147 160 128 115 
-0.616092 -0.773355 4.27659 249 212 206 
-0.694781 -1.72866 4.97606 68 68 58 
-0.748184 -1.71115 4.96313 104 104 96 
-0.693532 -0.807864 4.30713 121 90 70 
-0.592695 -0.849323 4.19111 152 92 91 
0.439459 -0.28185 3.7068 87 74 65 
-0.634218 -0.838232 4.33326 105 67 46 
-0.700234 -1.42085 4.90396 91 101 92 
-0.540885 -1.34132 4.6737 207 174 157 
-0.684922 -1.74761 4.99253 183 182 180 
-0.681608 -1.72498 4.97324 154 153 149 
-0.75814 -1.7126 4.96496 129 129 119 
-0.710642 -1.32251 4.81208 81 92 84 
-0.837674 -1.15464 4.5573 191 182 175 
-1.29136 -1.5586 5.05486 107 64 71 
-0.774496 -1.32393 4.81545 99 124 102 
-0.777836 -1.74213 4.99064 192 191 189 
-0.738822 -1.70683 4.9565 186 185 181 
-0.577645 -0.819527 4.31086 94 51 44 
-0.704729 -1.71312 4.9616 151 150 148 
-1.2471 -1.57657 5.08144 156 43 86 
-1.25183 -1.32069 4.83037 220 110 145 
-0.9609 -1.49818 4.99185 224 182 142 
-0.670501 -0.77734 4.27624 142 110 97 
-0.902515 -1.23965 4.74041 48 21 12 
0.270554 -1.05642 3.85035 152 153 147 
-1.22225 -1.45355 4.95834 58 26 27 
0.381572 -1.06526 3.87188 111 104 96 
0.296301 -1.07279 3.8687 93 90 83 
-0.504019 -1.58635 5.05527 81 123 122 
-0.16381 -1.01688 4.21484 226 226 224 
-0.463219 -1.61474 5.09012 133 89 80 
-0.674456 -1.74779 4.98144 100 99 94 
-0.683994 -1.73236 4.96959 86 85 80 
-0.831849 -0.938192 4.07463 171 167 168 
-0.480473 -0.82396 4.30911 152 125 106 
-0.666505 -0.802544 4.30036 106 78 66 
-0.608951 -1.56848 5.03154 37 31 15 
-0.485787 -0.793944 4.28128 220 197 183 
-0.509919 -1.52521 4.98748 166 146 113 
-0.489492 -1.57224 5.03063 178 132 119 
-0.595821 -0.78868 4.283 249 216 201 
-0.910077 -1.2539 4.75137 125 107 95 
-0.575266 -1.3615 4.69416 234 203 183 
-0.494646 -0.798468 4.28441 228 200 186 
-0.470284 -1.3285 4.65586 216 184 169 
-0.579564 -1.21349 4.69851 182 169 178 
-0.768501 -1.36408 4.85141 138 96 82 
-0.599512 -0.82811 4.3233 229 143 144 
-0.865104 -0.927888 4.07669 251 251 251 
-0.546716 -1.52484 4.98806 39 36 21 
-0.694062 -1.73911 4.97532 159 158 154 
-0.920456 -1.274 4.77081 122 142 117 
-0.48077 -1.59908 5.05453 119 106 98 
-1.08692 -1.39739 4.89621 209 126 152 
-0.490664 -1.55337 5.01429 72 33 16 
-0.695829 -0.783289 4.28199 93 62 44 
-0.82859 -1.4336 4.91796 105 44 15 
-0.983698 -1.48954 4.98004 103 125 89 
-0.970311 -1.58121 5.06623 65 32 13 
-0.701447 -1.72369 4.96275 168 167 163 
-1.0978 -1.39261 4.89398 85 7 33 
-0.824397 -1.4251 4.91091 100 51 19 
-0.725203 -1.50752 4.98388 80 0 0 
-0.745614 -1.71428 4.95364 119 116 111 
-0.653513 -1.51298 4.98725 214 156 118 
-0.970554 -1.4092 4.905 220 181 150 
-0.722929 -1.44529 4.92523 182 145 129 
-0.791249 -1.69657 4.94213 112 112 102 
-0.802962 -1.69971 4.95407 76 76 68 
-0.4521 -1.60819 5.06124 123 73 66 
-0.430079 -1.60728 5.05744 143 100 93 
-0.836538 -1.28135 4.77618 92 60 45 
-0.514066 -1.56227 5.02251 80 115 111 
-0.502163 -1.54821 4.99837 78 52 39 
-0.439852 -1.6263 5.07848 52 26 11 
-0.734793 -1.72428 4.97083 198 197 193 
-0.54803 -0.793142 4.27991 236 213 197 
-0.4315 -1.61803 5.0673 47 17 9 
-0.528692 -1.555 5.01618 8 39 44 
-0.88265 -1.53325 4.99295 145 137 114 
-0.60602 -0.735504 4.22755 226 195 177 
-0.463391 -1.62534 5.08133 129 89 87 
-0.684716 -0.704008 3.94609 86 86 86 
-1.22994 -1.26285 4.75793 183 154 120 
-0.545948 -1.60916 5.06618 19 28 33 
-0.757751 -1.28542 4.76832 40 44 29 
-1.04393 -1.56732 5.05985 56 54 59 
-0.893706 -1.32521 4.81488 122 134 122 
-0.803183 -1.26578 4.75614 139 105 96 
-0.838165 -1.26166 4.74658 72 44 30 
-0.95401 -1.25452 4.75179 32 57 18 
-0.782653 -1.27994 4.77084 48 18 7 
-0.793944 -1.25695 4.7509 36 6 0 
-0.993454 -1.49245 4.98136 114 127 109 
-0.561207 -1.33916 4.68525 155 127 115 
-0.903402 -1.2849 4.78047 21 38 19 
-0.793778 -1.30465 4.79536 97 103 89 
-0.811716 -1.29053 4.78058 36 8 0 
-1.23167 -1.58295 5.08501 236 159 153 
-0.776487 -1.40557 4.88835 120 85 65 
-0.841239 -1.44079 4.92497 195 133 112 
-0.787988 -1.24674 4.74248 57 29 15 
-1.11689 -1.40349 4.90428 185 117 142 
-0.97773 -1.42642 4.91901 165 143 129 
-0.786908 -1.4146 4.89587 54 21 2 
-0.771641 -1.41596 4.90245 155 119 103 
-0.975914 -1.35106 4.75651 160 105 108 
-1.18427 -1.53399 5.03141 56 17 0 
-0.735423 -1.31749 4.80815 17 44 29 
-0.773172 -0.880052 4.14218 133 133 135 
-0.820623 -1.49979 4.9821 91 53 30 
-0.796761 -1.48938 4.96884 78 31 21 
-0.626371 -1.19396 4.68694 101 84 100 
-0.796192 -1.44799 4.92916 145 109 97 
-1.206 -1.47196 4.97126 145 121 119 
-0.793107 -1.47403 4.95114 144 102 88 
-0.853676 -1.44238 4.92462 105 57 21 
-0.588104 -0.797568 4.2869 131 104 93 
-0.576308 -0.81364 4.31009 121 82 65 
-0.590998 -1.38559 4.71593 130 101 83 
-0.896238 -1.45476 4.94328 193 158 139 
-0.765813 -1.19971 4.60467 166 159 153 
-0.573832 -1.3803 4.71027 126 97 83 
-0.893027 -1.18361 4.68623 61 30 12 
-0.911813 -1.54843 5.00814 188 209 190 
-0.72735 -1.51402 4.98299 164 116 106 
-0.58314 -1.34413 4.68182 152 120 107 
-0.78277 -1.25981 4.74939 54 31 15 
-0.775374 -1.42793 4.9105 143 96 78 
-0.576904 -1.35181 4.6868 146 117 99 
-0.986889 -1.41447 4.91203 108 131 115 
-0.886127 -1.59971 5.08332 173 128 99 
-1.05147 -1.56314 5.05278 102 103 107 
-0.968385 -1.48595 4.97501 126 153 110 
-0.837766 -1.2486 4.74314 125 98 79 
-0.789737 -1.20614 4.7022 122 79 45 
-0.805137 -1.51041 4.98851 91 46 27 
-0.892538 -1.56479 5.04637 110 91 74 
-0.692966 -1.29278 4.78193 105 144 117 
-1.26455 -1.17337 4.66487 179 109 111 
-0.723958 -1.20435 4.60698 155 148 140 
-1.22884 -1.52922 5.03228 156 64 79 
-1.22114 -1.52435 5.02538 139 54 61 
-0.605584 -0.77778 4.27401 184 89 85 
-0.863124 -0.846451 4.14692 234 234 234 
-1.09183 -1.49293 4.99254 223 105 139 
-1.25821 -1.49182 4.98569 139 40 61 
-0.774318 -1.38528 4.86505 65 26 11 
-1.33062 -1.50426 4.94071 159 90 111 
-1.16558 -1.57481 5.07511 174 122 135 
-0.765869 -1.42331 4.88392 102 59 42 
-0.77149 -1.38776 4.8763 141 102 85 
-0.694241 -0.800328 4.30184 88 57 36 
-0.706214 -0.82628 4.32868 138 111 104 
-1.03875 -1.49506 4.98732 48 48 10 
-0.662849 -1.52888 4.9976 139 93 67 
-0.880053 -1.53772 4.98836 124 128 101 
-0.996714 -1.53599 5.00468 82 85 64 
-0.907002 -1.56665 5.04483 112 130 92 
-0.914379 -1.37031 4.85414 20 31 15 
-0.76058 -1.3942 4.87956 210 171 142 
-1.04723 -0.99749 4.51061 176 108 109 
-1.25959 -1.56294 5.05956 235 176 144 
-0.578752 -0.780313 4.27795 255 194 186 
-1.08797 -1.41118 4.90384 76 25 24 
-0.624869 -0.739281 4.23846 215 175 165 
-0.904379 -1.55569 5.01264 28 48 36 
-0.63338 -0.830341 4.33534 86 63 49 
-0.600092 -0.800234 4.2887 255 200 191 
-0.843294 -1.42741 4.90956 124 62 39 
-0.930312 -1.55004 5.0095 191 200 195 
-1.26988 -1.36394 4.85457 54 16 27 
-1.00022 -1.55776 5.02501 23 44 29 
-0.669642 -0.771254 4.27578 90 61 43 
-0.955376 -1.50748 4.973 216 187 147 
-0.884638 -1.31014 4.79877 55 80 50 
-0.748903 -1.33353 4.81536 30 44 44 
-0.698174 -1.4253 4.89737 97 118 103 
-0.60866 -0.802378 4.31488 239 210 196 
-0.579508 -0.728432 4.22575 251 176 170 
-0.638289 -0.723591 4.22146 245 175 163 
-0.583468 -1.37469 4.70382 173 142 122 
-0.481179 -1.60493 5.04983 169 152 145 
-0.764794 -1.20485 4.70064 164 129 110 
-0.440263 -0.772394 4.26094 202 212 204 
-0.698756 -0.766089 4.27626 105 74 46 
-0.440483 -0.795099 4.27982 227 207 198 
-0.450228 -0.784266 4.26815 102 74 62 
-0.510853 -0.686049 4.17391 128 97 68 
-0.515663 -0.785036 4.27649 249 237 225 
-0.554633 -0.781447 4.27993 124 92 77 
-0.696938 -0.778177 4.28508 96 65 44 
-0.589718 -0.782488 4.28259 152 104 94 
-0.60298 -0.78411 4.28299 146 97 90 
-0.480777 -0.788655 4.28203 81 55 42 
-0.541317 -0.792292 4.28365 89 66 50 
-0.462999 -0.794912 4.28184 224 195 177 
-0.494618 -0.79371 4.28658 247 219 205 
-0.587255 -0.798972 4.29144 71 39 26 
-0.497565 -0.690213 4.17385 138 111 82 
-0.345959 -1.10816 4.54494 8 2 0 
-0.686319 -0.795222 4.29819 77 47 23 
-0.643201 -0.795324 4.30161 230 205 183 
-0.576075 -0.801965 4.30601 85 59 42 
-0.549661 -0.810494 4.30265 97 68 52 
-0.632917 -0.808525 4.30922 95 58 42 
-0.649369 -0.766324 4.26885 231 202 186 
-0.692801 -0.809061 4.31419 86 59 40 
-0.479132 -0.819409 4.31142 137 106 88 
-0.630485 -0.815333 4.31904 120 83 65 
-0.527746 -0.829473 4.3239 197 170 161 
-0.504977 -0.834995 4.32957 217 187 177 
-1.0144 -1.37731 4.78925 93 83 74 
-0.594961 -1.36954 4.69636 193 163 139 
-0.599589 -1.38753 4.71671 233 202 181 
-0.558068 -1.37786 4.70424 144 117 98 
-0.583043 -1.36486 4.69864 129 98 78 
-0.568126 -1.36473 4.68734 239 208 188 
-0.619667 -1.35097 4.68411 134 100 88 
-0.599999 -1.34776 4.68055 231 200 180 
-0.589787 -1.33849 4.67277 123 92 72 
-0.896058 -1.45708 4.94208 182 150 129 
-0.91745 -1.2592 4.75519 124 100 96 
-0.864504 -1.14267 4.5541 151 140 134 
-0.501989 -1.19232 4.67762 11 12 7 
-0.792912 -1.16335 4.56559 255 251 249 
-0.656136 -1.51857 4.9814 163 116 86 
-0.450798 -1.26562 4.54379 91 42 10 
-0.774026 -1.1935 4.59997 114 107 101 
-0.500816 -1.51882 4.96618 117 74 67 
-0.944903 -1.49445 4.98279 140 119 98 
-0.6441 -0.755211 4.2838 182 151 131 
-1.22505 -1.1409 4.64718 159 100 94 
-0.496024 -0.835067 4.33477 225 198 181 
-0.598344 -0.820028 4.32722 255 178 172 
-0.654881 -1.50604 4.96981 163 124 109 
-0.509875 -1.52574 4.98856 131 97 70 
-0.53348 -1.17648 4.66313 42 29 39 
-0.72911 -1.51747 4.97882 149 116 97 
-0.971744 -1.41104 4.89981 202 166 134 
-0.492615 -1.18894 4.67172 18 14 5 
0.0852667 -1.02312 4.23048 117 111 113 
-1.09269 -1.40957 4.90106 157 139 125 
-0.973711 -1.23728 4.73944 150 100 77 
-0.702779 -1.34969 4.82545 51 37 28 
-0.893494 -1.25054 4.75031 137 113 109 
-0.593325 -1.3599 4.69096 182 151 130 
-1.10755 -1.30357 4.80416 145 76 97 
-0.796847 -1.27375 4.76702 151 125 100 
-0.983519 -1.55486 5.01848 38 69 53 
-0.265923 -1.03261 4.25122 158 156 159 
-0.903087 -1.56551 5.04814 99 115 79 
-0.841927 -1.44346 4.92481 192 124 105 
-0.781971 -1.40981 4.88537 68 36 15 
-1.01043 -0.969616 4.48659 169 89 88 
-0.626301 -1.18575 4.50316 123 38 9 
-0.902021 -1.24529 4.74679 68 40 19 
-0.82981 -1.24085 4.7373 135 105 94 
-0.769016 -1.39367 4.87844 79 40 11 
-0.813718 -1.20358 4.70348 109 59 34 
-0.827728 -1.43489 4.91576 115 51 23 
-0.544843 -1.35263 4.6793 126 94 81 
-1.21014 -1.2302 4.72682 58 48 21 
-0.56342 -1.19664 4.68542 199 185 200 
-0.997456 -1.52892 5.00091 112 89 83 
-1.17977 -1.29267 4.79066 95 38 45 
-0.667272 -1.53412 4.99251 121 95 68 
-0.51197 -1.36337 4.69185 240 193 175 
-0.78711 -1.41703 4.89402 65 30 11 
-0.809287 -1.29718 4.78954 37 8 0 
-0.771513 -1.26525 4.75597 57 26 6 
-0.771872 -1.4236 4.89575 147 111 97 
-0.471112 -0.799067 4.29203 135 100 80 
-0.66552 -0.793426 4.3062 141 109 94 
-0.544254 -0.818954 4.3171 202 164 151 
-0.638422 -0.820369 4.32455 206 180 165 
-0.661076 -0.824121 4.33183 100 77 63 
-0.547721 -0.83273 4.33024 255 182 180 
-0.812852 -1.16978 4.58082 130 119 117 
-0.918678 -1.20059 4.70085 176 135 115 
-1.19244 -1.22139 4.72865 199 125 150 
-1.1393 -1.22313 4.73438 166 125 141 
-0.955777 -1.24182 4.74291 192 142 115 
-0.916233 -1.27821 4.77503 22 39 7 
-0.620908 -1.36057 4.68922 150 119 101 
-0.545319 -1.37193 4.70168 138 111 90 
-0.59485 -1.37882 4.7067 233 202 181 
-1.08524 -1.30069 4.79657 171 153 151 
-0.887423 -1.23708 4.72848 61 33 22 
-1.02538 -1.55401 5.01854 155 169 152 
-0.88478 -1.54778 5.00383 219 218 198 
-0.960407 -1.54901 5.01246 211 224 207 
-0.225818 -1.25164 4.70469 67 60 52 
-0.572091 -0.759625 4.25925 255 189 183 
-0.90875 -1.22318 4.72325 118 104 93 
-0.60399 -0.82864 4.33185 255 174 173 
-0.506398 -0.821935 4.32492 235 208 191 
-0.901265 -1.26577 4.76439 46 17 9 
-0.73852 -1.21053 4.701 81 36 5 
-0.648919 -0.96628 4.30633 227 104 133 
-0.749256 -1.28092 4.76501 35 25 13 
-0.515309 -0.815321 4.31367 87 59 47 
-0.99836 -0.938788 4.40929 163 95 92 
-1.20386 -1.24965 4.74614 50 34 11 
-0.876497 -1.32114 4.80578 124 125 107 
-0.805858 -1.51208 4.98703 59 21 2 
-1.21748 -1.26269 4.76542 130 109 78 
-0.801978 -1.25536 4.7453 47 24 10 
-0.818831 -1.50608 4.98246 146 111 92 
-1.25303 -1.30482 4.80518 89 25 39 
-0.489983 -1.57722 5.0264 192 135 126 
-0.977833 -1.49163 4.97596 59 86 43 
-0.800873 -1.4519 4.92098 89 35 25 
-0.946328 -1.2577 4.75686 29 41 17 
-0.549341 -0.796502 4.28811 61 44 36 
-1.09716 -1.23064 4.71207 53 18 22 
-0.257068 -1.03923 4.25754 234 232 235 
-0.5686 -1.37554 4.7027 121 89 76 
-0.491539 -1.55905 5.00946 67 33 21 
-0.478132 -0.835172 4.32876 241 227 216 
-0.238996 -1.30577 4.75883 80 67 58 
-0.685513 -0.767759 4.2771 138 108 82 
-0.479973 -1.32707 4.65486 200 169 149 
-0.513521 -1.52483 4.97272 145 99 65 
-0.615026 -1.34227 4.68171 122 90 75 
-0.99302 -1.50094 4.98747 114 89 69 
-0.522122 -1.1893 4.67272 99 110 114 
-0.98612 -1.41901 4.90387 85 113 88 
-0.913169 -1.26613 4.7651 38 20 10 
-0.802463 -1.46052 4.93498 75 31 18 
-0.889837 -1.29014 4.78165 125 99 82 
-1.23556 -1.23351 4.74084 48 2 12 
-0.447903 -0.779451 4.28478 122 94 83 
-0.692299 -0.789288 4.29218 125 94 76 
-0.565371 -0.803147 4.30708 79 63 40 
-0.50608 -0.825016 4.31488 111 82 64 
-0.705401 -0.818179 4.32767 95 79 64 
-0.308981 -1.04749 4.26878 214 212 215 
-0.925585 -1.55303 5.00493 187 201 186 
-0.271329 -1.04468 4.27147 111 110 115 
-1.06395 -1.39094 4.87963 112 56 23 
-0.878359 -1.31367 4.79836 133 148 119 
-0.527344 -0.806537 4.29768 252 225 208 
-0.920258 -1.28135 4.76581 121 149 109 
-1.09811 -1.42187 4.91151 63 19 32 
-0.976997 -1.42773 4.91756 100 81 67 
-0.610328 -0.742218 4.2402 158 101 90 
-0.723345 -1.44995 4.92157 195 167 145 
0.32022 -1.08994 3.85844 255 247 238 
-0.650531 -1.51679 4.97056 107 47 10 
-1.26632 -1.23366 4.71994 111 46 66 
-1.03859 -1.53897 5.00765 192 185 159 
-0.561592 -0.776808 4.26739 177 78 72 
-1.03526 -1.50014 4.98028 64 68 33 
-0.756824 -1.28116 4.75499 62 33 17 
-0.616151 -1.36882 4.6957 132 104 82 
-0.0392669 -1.17742 4.60956 149 140 131 
-0.398958 -1.28616 4.7477 36 0 0 
-0.354433 -1.15793 4.60846 64 100 74 
-0.89503 -1.25848 4.75667 116 88 77 
-0.795222 -1.30495 4.78876 133 154 115 
-0.873273 -1.53557 4.98227 72 22 21 
-0.800149 -0.947447 4.40852 248 177 175 
-0.26075 -1.06542 4.29082 187 187 189 
-0.211227 -1.00993 4.23528 62 60 65 
-0.471883 -0.80896 4.30701 235 217 203 
-0.694698 -0.79537 4.30517 89 59 35 
-0.598926 -0.797984 4.29878 161 65 67 
-0.812855 -1.25132 4.73919 47 26 9 
-0.65917 -0.763991 4.27413 221 192 176 
-1.01829 -1.49919 4.98278 36 29 3 
-1.16565 -1.28287 4.77683 61 47 36 
-0.583186 -1.52013 4.9856 61 36 14 
-0.72385 -1.27235 4.7561 35 41 13 
-0.958341 -1.55539 5.02035 33 39 35 
-0.889276 -1.54542 4.99474 233 231 216 
-0.905173 -1.55666 5.00937 29 40 34 
-0.206535 -1.03304 4.24967 143 142 147 
-1.04409 -1.52779 5.01078 49 30 24 
-0.808532 -1.29257 4.77578 48 29 25 
-0.634072 -1.35169 4.68043 222 196 179 
-1.15958 -1.2726 4.76522 162 154 133 
-0.490564 -1.33833 4.65575 230 197 180 
-0.577147 -0.776399 4.27963 253 209 196 
-0.536967 -0.799166 4.29463 96 75 58 
-1.09995 -1.39414 4.89534 66 15 34 
-0.338846 -1.13392 4.55632 42 68 43 
-1.13751 -1.22223 4.73007 221 141 170 
-0.842608 -0.905421 4.1626 151 151 151 
-0.981865 -1.26919 4.71437 92 116 80 
-1.03179 -1.39388 4.877 175 148 118 
-0.555613 -0.797759 4.29768 89 75 66 
-0.571849 -0.81353 4.3313 255 205 195 
-0.52444 -0.780019 4.28146 244 216 194 
-1.15644 -1.34398 4.84277 97 35 58 
-0.931988 -1.21338 4.71159 127 98 80 
-0.333369 -1.16294 4.50239 0 5 0 
-0.463286 -1.53576 4.9801 59 42 35 
-0.405055 -0.839055 4.31327 215 184 164 
-0.202889 -1.07219 4.34834 9 4 0 
-0.038705 -0.277948 3.73024 90 57 38 
-0.758691 -0.85669 4.1693 230 224 224 
-1.08439 -1.41517 4.89715 67 7 15 
-0.277699 -1.35949 4.7328 48 33 28 
0.278693 -1.05076 3.80433 78 75 68 
-0.592682 -0.815751 4.2196 164 110 108 
-0.393206 -1.21853 4.63654 63 15 1 
0.353765 -1.03241 3.83295 105 98 92 
-0.527626 -0.792262 4.27092 242 213 195 
-0.574869 -0.747591 4.23716 255 207 196 
-0.687905 -1.74458 4.99004 169 168 166 
-0.833399 -1.19706 4.69479 110 68 44 
-0.730444 -1.72829 4.97733 107 106 101 
-0.411806 -1.2069 4.94544 73 22 5 
-0.791779 -1.72524 4.9766 198 197 193 
-1.19514 -1.29918 4.80395 60 7 17 
-0.217113 -1.04325 4.24515 93 93 101 
-0.702952 -1.76174 4.99918 189 188 184 
-0.985515 -1.37496 4.77416 62 49 40 
-0.65313 -0.820553 4.24965 239 216 198 
-0.264701 -1.07137 4.21525 202 201 207 
-0.684064 -1.75371 4.99271 195 194 192 
-0.747993 -1.71565 4.96042 152 148 145 
-0.80435 -1.70286 4.94935 148 148 140 
-0.450345 -1.62361 5.07486 131 88 81 
-0.896305 -1.56865 5.05056 56 34 11 
-0.860966 -0.867095 4.11496 223 221 222 
-0.55257 -1.52824 4.99162 95 51 52 
-1.13183 -1.42944 4.92381 7 0 0 
-0.518555 -1.56364 5.02319 79 125 123 
-0.237262 -1.10667 4.20833 193 192 197 
-0.945389 -1.55244 5.01564 32 53 34 
-0.59823 -1.20873 4.69583 76 65 73 
-0.502617 -1.51443 4.97945 133 100 85 
-0.961748 -1.4949 4.98578 203 182 153 
-0.98908 -1.57258 5.06189 28 49 18 
-0.774253 -1.40841 4.89414 114 85 67 
-1.16884 -1.40774 4.90894 94 9 38 
-0.940535 -1.56825 5.0575 61 84 42 
-0.816693 -1.48981 4.97046 71 30 10 
-0.838231 -1.46088 4.94222 190 156 129 
-0.590153 -1.15932 4.64771 158 145 163 
-0.778331 -1.39615 4.8813 87 43 18 
-0.966261 -1.57197 5.06153 58 84 49 
-1.11861 -1.40506 4.90335 171 103 126 
-0.773446 -1.43395 4.91156 94 45 15 
-0.886245 -1.6004 5.08345 167 122 93 
-0.736596 -1.32196 4.80764 27 51 38 
-0.754424 -1.33438 4.82327 13 41 27 
-1.22412 -1.58344 5.09043 136 36 62 
-0.796155 -1.47486 4.95452 141 99 85 
-1.25813 -1.56283 5.06046 235 176 144 
-1.09582 -1.40897 4.90595 149 131 109 
-1.15621 -1.53606 5.02028 130 86 87 
-0.970572 -1.58068 5.07057 82 51 31 
-0.817763 -1.42608 4.91259 123 60 45 
-1.13577 -1.50886 4.9752 183 176 157 
-1.2659 -1.36869 4.86827 122 121 91 
-0.759178 -1.68422 4.92854 205 201 198 
-1.08332 -1.30267 4.80175 56 43 34 
-0.542604 -1.1638 4.65165 156 143 160 
-0.591025 -0.724546 3.97076 136 136 138 
-0.248081 -1.03047 4.24641 255 253 255 
-0.896153 -1.45599 4.9436 182 150 129 
-0.973099 -1.41257 4.9039 210 182 145 
-0.898317 -1.27047 4.76739 102 80 69 
-0.744394 -1.28813 4.76617 125 143 117 
-1.04588 -1.49753 4.99007 152 77 20 
-0.525181 -1.50581 4.96744 153 94 96 
-0.803807 -1.50955 4.99012 64 23 3 
0.439293 -0.278827 3.71073 93 82 76 
-0.890093 -1.32537 4.81468 119 129 105 
-1.10002 -1.29728 4.79352 50 6 19 
-1.10787 -1.30422 4.80375 145 76 97 
-0.924809 -1.54986 5.0096 153 174 157 
-0.652473 -0.805751 4.25731 208 181 164 
-0.901313 -1.24815 4.74562 72 43 27 
-1.2221 -1.2981 4.7998 152 139 133 
-0.83812 -1.26252 4.75753 51 22 6 
-1.20859 -1.29727 4.79637 140 126 117 
-0.978498 -1.49002 4.97819 59 86 43 
-1.23463 -1.23388 4.73699 51 2 6 
-0.949147 -1.25739 4.75258 115 128 98 
-0.533739 -1.1787 4.66235 36 23 33 
-0.905323 -1.56684 5.04713 118 141 95 
0.44973 -0.276138 3.70807 198 188 178 
-0.769524 -1.39681 4.87656 82 43 12 
-0.912876 -1.24551 4.74485 130 112 108 
-0.955695 -1.55257 5.00845 126 145 126 
-1.12571 -1.3046 4.80875 101 15 44 
-0.995811 -1.55321 5.02423 32 42 33 
0.43291 -0.221301 3.66041 99 85 82 
-0.956259 -1.5391 4.99889 121 132 98 
-1.01901 -1.40972 4.9049 104 51 0 
-0.986742 -1.41859 4.90815 92 132 106 
0.698275 0.0695019 3.28153 156 78 3 
-0.909968 -1.28122 4.77921 118 133 104 
-0.829926 -1.43823 4.91699 108 37 17 
-1.00781 -1.51305 4.99816 105 127 104 
-2.77495 1.80683 4.24903 77 44 9 
-0.304047 -1.04443 4.27348 131 131 133 
-1.04449 -1.3676 4.8254 71 79 56 
-0.890117 -1.5426 4.99881 233 231 216 
-1.1966 -1.41773 4.91728 64 0 16 
-2.86871 0.587297 5.42619 83 57 34 
-2.38111 1.03887 4.95363 227 193 158 
-1.14788 -1.26375 4.76544 79 8 26 
-1.15908 -1.20867 4.71436 51 24 33 
-1.14646 -1.37197 4.87295 32 12 14 
-0.865173 -1.12999 4.53098 119 109 100 
-0.839016 -1.14183 4.5453 121 111 102 
-1.17262 -1.54272 5.05188 72 11 6 
-1.05857 -1.55403 5.04366 6 4 5 
-0.44137 -1.26365 4.54642 66 12 0 
0.444217 -0.365525 3.80337 196 181 174 
-1.04292 -1.57304 5.06219 140 110 84 
-1.22164 -1.12233 4.63141 136 123 117 
-0.703038 -1.16953 4.43407 67 22 0 
-0.307883 -1.01463 4.25647 209 207 210 
-0.695783 -1.23251 4.63318 251 247 238 
-1.3301 -1.87727 5.20518 194 121 151 
0.349598 -1.01573 3.81957 252 246 232 
-0.837685 -1.2693 4.74585 61 29 14 
-0.755016 -0.770994 4.26724 80 53 34 
-0.8675 -1.54231 5.01163 124 72 59 
-0.796084 -1.16776 4.66365 68 0 18 
-0.598051 -1.36058 4.70273 248 218 194 
-0.787672 -1.45872 4.94638 149 106 90 
-0.591471 -1.34455 4.69395 255 225 200 
-1.39605 -1.83896 5.1747 114 61 57 
-0.37146 -1.12755 4.58189 55 41 15 
-0.549982 -1.33399 4.6745 121 90 70 
-0.631895 -1.20323 4.43336 113 40 7 
-0.770506 -1.21149 4.69837 195 152 118 
-0.612812 -1.20431 4.69296 107 90 106 
-0.441708 -1.2689 4.53584 185 131 105 
-0.271735 -1.03341 4.25115 230 228 233 
-0.554096 -1.32485 4.6662 214 179 160 
-0.382511 -1.19105 4.65314 64 16 0 
-0.726654 -1.15412 4.4546 156 114 90 
-1.21838 -1.26577 4.76274 99 75 49 
-1.05242 -1.42817 4.93449 21 45 29 
-0.619005 -1.18134 4.66926 105 89 102 
-0.753468 -0.851271 4.1531 45 46 50 
-0.52752 -1.33091 4.67216 148 114 87 
-0.682977 -1.79077 5.03208 227 225 213 
-0.75399 -1.14602 4.44265 156 119 103 
-0.723143 -1.16135 4.39221 60 10 0 
-0.799856 -1.49807 4.98043 45 0 0 
-1.02802 -1.57075 5.06474 107 114 96 
-0.745829 -0.771109 4.26211 80 49 29 
-0.771844 -1.14 4.43324 158 125 106 
-0.598854 -1.20071 4.50664 144 50 25 
-0.93406 -1.49353 4.98292 190 137 119 
-0.790852 -1.47627 4.96498 75 27 7 
-1.373 -1.34098 4.69904 170 118 120 
-0.78156 -1.44893 4.9397 55 10 0 
-0.551299 -1.54974 5.01461 147 98 104 
-1.11011 -1.31061 4.81295 107 96 92 
-0.388773 -1.36848 4.82149 124 91 86 
-1.0016 -1.55877 5.04855 0 46 17 
-0.761618 -1.39801 4.88563 59 19 0 
-0.614151 -1.17569 4.65581 103 84 103 
0.407826 -0.123996 3.57399 45 32 24 
-0.997017 -1.53518 5.00429 134 127 108 
-0.914318 -1.54618 5.01064 156 180 158 
-0.0172071 -0.270976 3.7285 78 69 60 
-0.0270227 -0.268917 3.73009 201 187 176 
-1.03666 -1.54617 5.03063 75 77 72 
-1.38615 -1.56768 4.91901 202 108 142 
-1.2072 -1.46946 4.97298 151 122 116 
-0.456012 -1.56579 5.02719 62 0 0 
-1.23236 -1.58356 5.08421 255 180 175 
-0.666791 -0.815059 4.29593 141 114 95 
-0.702509 -1.36097 4.82188 161 135 122 
-1.18633 -1.29581 4.79823 64 7 14 
-1.07832 -1.28893 4.78972 73 8 12 
-0.614442 -1.35583 4.70813 141 112 94 
-0.736428 -1.15247 4.41041 197 153 124 
-0.726979 -1.16464 4.41978 77 28 0 
-0.721516 -1.15937 4.42758 101 52 19 
-0.616338 -1.21061 4.48408 134 50 26 
-0.493428 -1.32041 4.66326 114 83 55 
-0.912153 -1.2324 4.72461 107 82 78 
-0.745489 -1.21591 4.70705 51 9 0 
-0.456673 -1.26258 4.52698 85 29 4 
-0.772365 -1.78437 5.24287 136 135 117 
-0.490306 -1.17277 4.65503 128 140 138 
-0.0391822 -1.1786 4.6087 139 129 119 
-0.620615 -1.19734 4.48532 141 48 33 
-0.510949 -1.35843 4.69557 242 188 162 
-0.75699 -1.37327 4.86765 157 114 97 
-0.466386 -1.50575 4.97642 50 0 0 
-0.812207 -1.49069 4.97978 139 106 87 
-1.01253 -1.57581 5.06904 128 101 82 
-0.269818 -1.04196 4.27077 125 124 129 
-0.990498 -1.44077 4.93617 92 117 96 
-0.761644 -1.71452 4.96138 143 139 136 
-0.765034 -1.39233 4.89799 56 13 0 
-0.452987 -1.54484 5.00704 144 93 98 
-0.525329 -0.646467 3.96154 67 60 52 
-0.756843 -1.77724 5.24361 111 107 106 
-0.778177 -1.74172 4.99238 225 221 220 
0.344321 -1.03449 3.82953 39 35 24 
-1.07492 -1.29879 4.78829 43 0 0 
-0.788506 -1.17691 4.67624 211 168 152 
-0.616283 -1.1958 4.59386 253 196 143 
-0.24558 -1.02982 4.24663 241 239 242 
-1.14966 -0.971602 4.47109 137 133 122 
0.446673 -0.213306 3.66178 179 164 157 
-0.639385 -1.48761 4.96355 8 29 0 
0.414164 -0.120611 3.56582 130 119 115 
-0.843555 -0.88246 4.11769 182 181 186 
-0.874647 -1.13175 4.52743 142 131 125 
-1.22214 -1.59187 5.07737 150 35 68 
-0.714324 -1.16459 4.43827 98 49 6 
-0.984891 -1.39389 4.89866 100 123 103 
-1.24828 -1.21102 4.70933 171 146 116 
0.436489 -0.210617 3.66144 39 28 26 
-1.21632 -1.58056 5.07812 161 46 77 
-1.06806 -1.55134 5.02151 98 127 107 
-1.03583 -1.50249 4.99315 129 67 0 
-0.812855 -1.47906 4.96986 65 17 0 
0.432607 -0.359963 3.79722 80 67 61 
0.330507 -1.05689 3.86385 15 8 0 
-1.0012 -1.54852 5.01846 220 226 212 
-1.04558 -1.53406 5.00665 27 1 0 
0.143828 0.015602 3.43932 133 117 104 
-1.07085 -1.5505 5.03392 18 4 0 
-0.896124 -1.24498 4.73485 29 10 6 
0.439761 -0.374786 3.80172 185 170 163 
-0.824012 -1.50622 4.98416 68 20 0 
-0.511597 -0.707896 4.16924 126 92 67 
-0.546174 -1.2101 4.67535 57 44 54 
-1.22557 -1.46231 4.96706 61 13 11 
-1.2357 -1.29777 4.79777 37 24 8 
-0.973823 -1.2404 4.73809 90 50 40 
-1.0193 -1.38903 4.86057 141 124 96 
-1.09406 -1.40423 4.89063 44 0 1 
-0.417939 -1.506 4.90385 143 146 137 
-0.899033 -1.5598 5.04026 106 121 102 
-1.28997 -1.6958 5.17941 133 114 107 
-0.760154 -1.38945 4.87206 76 30 7 
-0.752579 -1.37364 4.85708 78 35 18 
-1.06289 -1.59138 5.04176 155 156 158 
-0.569743 -1.54498 5.00693 98 118 125 
-1.18341 -1.53965 5.0286 70 40 12 
-0.589567 -1.64053 5.10392 151 139 125 
-0.950323 -1.56554 5.04885 26 76 25 
-0.374277 -1.1753 4.61982 78 102 89 
-1.17814 -1.61171 5.0993 55 0 7 
-0.809987 -1.65083 4.98196 212 207 203 
-0.672957 -1.74028 4.99526 226 225 221 
-0.941916 -1.0188 4.51512 252 172 77 
-1.25974 -1.31253 4.82144 67 0 23 
-0.737685 -1.68725 4.97355 233 230 225 
-0.703825 -1.78936 5.23983 175 162 130 
-1.20773 -1.52926 5.01678 243 191 141 
-0.307344 -1.04309 4.27114 153 151 154 
-1.20481 -1.48018 4.97407 43 0 5 
-1.27884 -1.48708 4.97335 205 114 131 
-1.02116 -1.40014 4.9111 164 82 34 
-1.24867 -1.48291 4.99978 139 29 54 
-0.643201 -0.99857 4.3304 63 0 6 
-1.14081 -1.31569 4.8237 191 85 123 
-0.205201 -1.02576 4.25058 144 143 148 
-1.17506 -1.01338 4.50937 121 121 111 
-0.659848 -1.22027 4.72055 206 155 110 
-1.04505 -1.36218 4.84321 17 7 0 
0.453179 -0.222903 3.66129 49 31 17 
-0.330786 -1.11292 4.52673 74 87 78 
-0.997187 -1.43312 4.92876 22 49 30 
-0.450558 -1.53165 4.98925 30 22 9 
-1.04973 -1.43824 4.93108 21 21 21 
-1.25931 -1.30006 4.78716 42 5 0 
-1.25881 -1.30804 4.81104 221 102 140 
-0.705237 -1.75238 5.00382 232 229 222 
-0.925355 -1.20918 4.70155 152 107 76 
-1.05113 -1.3263 4.82887 35 7 0 
-0.40104 -1.49846 4.90414 192 185 177 
0.340031 -1.01236 3.82006 23 19 8 
-0.445012 -1.51878 4.90213 196 193 184 
0.27293 -1.04586 3.85537 234 234 226 
-0.52017 -1.50572 4.9438 164 118 105 
-0.999186 -1.75482 5.23894 219 143 145 
-1.05802 -1.19222 4.63016 60 30 40 
-0.986445 -1.67198 5.14082 28 16 20 
-0.916692 -1.47551 4.9575 20 28 15 
0.415857 -0.360657 3.78773 180 131 98 
-0.448372 -0.808237 4.26428 189 162 151 
-0.947914 -1.06446 4.55925 226 84 132 
-0.451418 -1.52047 4.99726 40 31 22 
0.35079 -0.144928 3.588 132 93 62 
-1.0752 -1.0736 4.57269 219 93 130 
-0.696262 -1.79556 5.02798 226 223 218 
-0.91617 -1.48774 4.94947 19 26 10 
-0.998107 -1.76521 5.23254 227 156 150 
-1.06349 -1.39129 4.86972 59 18 0 
-1.04447 -1.37298 4.837 26 13 0 
-0.647401 -1.49732 4.9622 143 167 131 
-1.02957 -1.51416 4.97653 207 199 150 
-1.06152 -1.35332 4.83423 40 13 0 
0.426845 -0.233965 3.67718 168 160 149 
-1.19448 -1.22355 4.72744 174 89 112 
0.317198 -1.04469 3.85039 99 95 83 
0.374678 -1.02134 3.83907 104 100 89 
-1.20605 -1.26902 4.76908 196 177 145 
-1.18704 -1.57078 5.05758 187 77 102 
-1.1979 -1.28249 4.7769 154 141 122 
-0.981717 -1.55975 5.00931 200 213 195 
-1.03584 -1.55627 5.02867 22 29 22 
-0.689383 -1.18032 4.45516 152 27 23 
-0.508751 -0.676591 4.17719 100 66 41 
