ply                 
format ascii 1.0    
element vertex 1250
property float x    
property float y    
property float z    
property uchar red  
property uchar green
property uchar blue 
end_header          
-0.578097 -0.786026 4.13502 141 60 59 
-0.471202 -0.793952 4.13147 195 166 148 
-0.527226 -0.795094 4.13645 105 72 57 
-0.514167 -0.808498 4.15344 222 196 179 
-0.536061 -0.808547 4.15268 255 217 204 
-0.560295 -0.809984 4.1589 145 122 108 
-0.554062 -0.810334 4.15366 95 67 53 
-0.592855 -0.835683 4.18269 228 140 139 
-0.515758 -0.835467 4.17493 196 168 154 
-0.574826 -0.845455 4.19279 246 208 197 
-0.562236 -0.855608 4.20663 69 28 22 
-0.596549 -0.864466 4.21233 193 123 123 
-0.546831 -0.865797 4.21141 201 132 127 
-0.803233 -0.809371 3.88982 171 169 170 
-0.807724 -0.825629 3.92013 64 64 66 
-0.805848 -0.826142 3.91747 74 74 76 
-0.526953 -0.917369 4.26886 167 122 116 
-0.461196 -0.917176 4.26175 117 104 95 
-0.642583 -0.971794 4.15609 159 8 17 
-0.948993 -1.06317 4.44621 238 94 119 
-3.43097 -1.4079 5.64147 47 43 44 
-1.17065 -1.15738 4.55588 203 108 128 
-0.695074 -1.3686 4.74444 65 36 18 
-1.17409 -1.18067 4.58153 103 13 38 
-1.28136 -1.38197 4.78786 102 47 50 
-1.05365 -1.19447 4.57335 175 106 125 
-0.961358 -1.25463 4.65342 180 131 90 
-1.2091 -1.29111 4.70275 156 140 117 
-0.900457 -1.3023 4.70566 62 46 20 
0.182183 -0.207393 3.48191 166 128 115 
-0.482026 -0.798349 4.13965 204 176 164 
-0.468156 -0.799919 4.13986 150 120 96 
0.25576 -0.316588 3.59229 124 72 48 
-0.43843 -1.23684 4.48068 78 29 0 
0.249831 -0.219066 3.49095 156 125 107 
-0.955206 -1.26857 4.66746 108 117 88 
-3.45936 -1.47351 5.38901 62 55 63 
-1.39559 -1.5203 4.7706 179 88 123 
0.11998 -0.230001 3.51487 96 60 38 
0.19528 -0.300217 3.58013 157 127 101 
-0.347822 0.585009 2.67334 169 153 130 
-0.923133 -1.38692 4.79308 50 68 44 
-0.581547 -0.907075 4.26272 192 148 139 
0.442674 -0.23242 3.27895 168 97 7 
-1.01677 -1.55753 4.96755 132 137 117 
-0.606108 -1.59642 4.99588 43 25 13 
0.131326 -0.29109 3.57684 104 57 27 
-1.00083 -1.0689 4.45593 172 0 3 
-3.46724 -1.39881 5.8078 85 74 72 
-0.734301 -1.53117 4.94482 59 1 0 
0.094359 -0.328605 3.61522 150 124 99 
-0.881664 -1.54658 4.95246 78 27 24 
-0.674449 -0.881594 4.2424 88 63 41 
-1.27085 -1.23004 4.62936 94 12 1 
-1.16044 -1.37293 4.7766 92 52 61 
0.544656 -0.183725 3.32641 193 123 11 
0.625852 -0.337374 3.21482 195 131 8 
-0.999343 -1.0743 4.45808 245 81 116 
-0.580046 -0.912286 4.26528 180 128 115 
-0.547658 -0.866731 4.21617 201 132 127 
-0.617699 -0.862607 4.22125 66 31 11 
-0.62533 -0.854666 4.2092 174 146 125 
-0.807645 -0.825669 3.91886 64 64 66 
-0.467841 -0.841797 4.18477 235 223 211 
-0.494942 -0.834444 4.17563 230 201 187 
-0.0580957 -0.845923 3.9754 147 142 120 
-0.0692191 -0.847456 3.98301 149 146 127 
-0.593691 -0.834399 4.18084 255 184 178 
-0.588232 -0.820362 4.16511 149 87 90 
-0.455541 -0.816409 4.14866 222 203 189 
-0.602749 -0.814348 4.16222 222 167 160 
-0.449696 -0.798679 4.14096 211 182 168 
-0.537464 -0.798018 4.14432 105 83 70 
-0.535211 -0.791883 4.14044 239 211 197 
-0.556421 -0.786232 4.1285 82 56 39 
-0.496 -0.686822 4.01981 117 86 57 
0.585279 -0.314627 3.22917 211 180 136 
-0.00472505 -0.267592 3.55927 92 82 70 
-0.377682 -0.161185 2.84796 247 151 155 
-0.429239 -0.148272 2.83506 251 160 159 
-0.434257 -0.14562 2.83294 124 53 59 
-0.436723 -0.141983 2.83353 108 53 59 
-0.591372 0.495872 2.79348 128 112 97 
-0.443093 -0.127368 2.83606 235 146 148 
0.151522 0.015797 3.26408 80 65 44 
-0.287 0.0850713 3.21019 75 63 39 
-0.424155 0.157767 2.53079 242 153 155 
-1.19221 -1.56969 4.9988 55 31 7 
-0.204436 0.235834 3.04921 54 34 23 
-0.455709 -0.797968 4.1364 106 78 64 
-1.27821 -1.5887 5.01081 245 166 151 
-0.94997 -1.06538 4.45273 238 94 119 
-0.966958 -1.55951 4.95608 147 138 107 
0.135628 -0.322274 3.60804 79 42 16 
-0.643019 0.222635 3.08151 109 86 68 
-1.34975 -1.5269 4.88659 159 79 104 
-1.01106 -1.54102 4.96456 157 121 95 
-0.278717 -1.19824 4.38011 209 146 131 
-0.370839 -0.16377 2.85097 235 139 140 
-0.264426 -1.43494 4.63108 81 56 51 
-0.331566 0.59844 2.65744 134 121 105 
-1.39562 -1.57214 4.82267 223 102 143 
-3.47107 -1.4172 5.78661 37 35 38 
-0.607365 -0.848444 4.20648 105 27 25 
-3.42865 -1.40768 5.63743 47 43 44 
-0.626441 -1.61315 5.00912 160 112 98 
0.146564 -0.291131 3.57355 89 50 21 
-1.2714 -1.44568 4.8623 85 15 25 
0.0828243 -0.239537 3.52073 169 142 113 
0.137772 -0.232707 3.5131 78 33 4 
-0.522512 -1.34636 4.57116 218 182 160 
0.354169 -0.350392 3.61745 84 38 14 
0.188451 -0.326391 3.60496 167 134 103 
-0.504555 -1.35294 4.57336 228 195 176 
-1.17934 -1.36007 4.76876 134 37 68 
-3.49024 -1.67657 5.466 141 141 143 
-1.39589 -1.5221 4.77695 192 92 128 
-0.479293 -0.9099 4.25762 16 9 1 
-0.346412 0.135099 2.53009 171 92 95 
0.736096 -0.119822 3.21992 145 96 0 
-0.307659 0.487582 2.77907 146 130 115 
-0.50112 -0.858549 4.20433 175 155 144 
-0.734105 -1.53102 4.94322 59 1 0 
0.1796 -0.194927 3.47105 145 109 87 
0.344457 -0.359781 3.63247 152 119 100 
-1.28854 -1.08376 4.44221 86 0 0 
0.189284 -0.332197 3.61624 161 127 115 
0.160435 -0.207783 3.483 92 57 29 
0.187718 -0.314484 3.5946 154 119 99 
0.451031 -0.214853 3.29785 219 143 68 
0.175776 -0.242052 3.51956 169 134 114 
-1.08185 -1.55281 4.96681 107 42 20 
0.131046 -0.291221 3.57387 92 51 23 
-0.783451 -1.10803 4.3143 63 17 0 
0.0839336 -0.258192 3.54378 127 105 91 
-1.28767 -1.44623 4.87061 92 22 22 
0.681659 -0.256345 3.2079 141 54 0 
0.134137 -0.284519 3.56733 153 131 108 
0.141884 -0.284474 3.56717 146 121 99 
-0.48191 -0.798032 4.13553 190 162 151 
-1.18721 -1.173 4.58433 203 74 79 
0.246464 -0.308448 3.58142 109 67 42 
0.0952794 -0.334475 3.61929 154 128 111 
-0.999811 -1.0689 4.4507 172 0 13 
-0.470347 -0.909896 4.258 114 111 102 
-0.425714 -0.143667 2.83292 215 159 158 
-0.449589 -0.144739 2.83337 225 168 161 
-1.01745 -1.55676 4.96095 151 156 136 
-0.466371 -0.913741 4.26295 20 13 3 
-0.640081 -0.891644 4.24775 60 31 13 
-0.594234 -0.894388 4.25125 133 84 77 
-0.587571 -0.859614 4.21162 82 42 30 
-0.057343 -0.847357 3.9804 144 139 119 
-0.606622 -0.914072 4.27164 176 125 108 
-0.0986975 -0.853294 3.98778 158 150 127 
-0.489269 -0.845076 4.1859 90 62 48 
-0.604726 -0.845139 4.19363 102 23 19 
-0.494001 -0.838037 4.17217 199 173 158 
-0.615321 -0.84241 4.20221 253 189 177 
-0.630383 -0.837844 4.18939 238 210 189 
-0.542241 -0.806103 4.15044 89 61 50 
-0.617683 0.220474 3.08783 85 62 46 
-0.950466 -1.06671 4.4488 250 101 139 
0.397479 -0.665242 3.87336 193 124 117 
-0.600929 -1.59211 4.98998 21 2 0 
-0.611261 -1.58998 4.99118 117 99 85 
-0.88051 -1.56269 4.94981 231 225 203 
0.586662 -0.315465 3.23261 188 157 113 
-0.280962 0.0844265 3.21186 85 70 49 
-0.287003 0.0829111 3.21862 74 62 40 
0.581544 -0.312212 3.23416 71 41 0 
0.592553 -0.308952 3.23401 105 77 27 
-3.48813 -1.6919 5.45833 61 59 60 
0.134406 -0.321898 3.60867 85 50 28 
0.210918 -0.320657 3.59876 78 32 9 
-3.42461 -1.44055 5.51249 143 141 146 
0.151432 0.0144932 3.26865 99 84 65 
-0.960755 -1.25132 4.64727 205 142 88 
0.0842534 -0.255092 3.53991 166 136 112 
-0.96076 -1.26532 4.67225 40 26 0 
-1.27184 -1.44674 4.86266 87 25 26 
0.176768 -0.240654 3.5263 171 134 107 
0.215684 -0.222247 3.50034 176 141 113 
-1.20191 -1.30928 4.71259 167 111 114 
0.351998 -1.01161 3.64636 26 18 5 
-0.436112 -0.132865 2.83344 99 57 59 
0.39828 -0.157504 3.29127 106 67 0 
-0.456639 -0.143362 2.83327 133 49 49 
-0.410774 -0.145208 2.84395 234 167 158 
-0.417175 -0.146239 2.83288 117 59 58 
-1.28813 -1.08353 4.4451 66 0 0 
-0.479491 -0.911272 4.26148 19 12 2 
0.770418 -0.131087 3.12841 239 178 85 
-0.783001 -1.10654 4.3099 65 19 0 
-3.5046 -1.69484 5.48563 69 67 68 
0.519492 -0.213503 3.31363 151 54 0 
0.682199 -0.256203 3.21459 141 54 0 
0.480662 -0.258719 3.27527 174 110 13 
0.675929 -0.248817 3.22754 136 62 0 
-3.45625 -1.46106 5.37676 116 114 115 
-0.501575 -0.871959 4.20928 170 156 143 
-0.307218 0.486308 2.77678 133 117 102 
0.0778742 -0.202352 3.48921 163 132 112 
-0.50046 -0.858573 4.20905 174 156 144 
-0.447099 -1.23635 4.46973 95 50 19 
0.545209 -0.183095 3.32788 193 125 14 
-1.23614 -1.18951 4.59822 151 14 8 
0.46125 -0.227976 3.29713 181 116 16 
-0.0590423 -0.847064 3.97674 110 105 83 
-0.593162 -0.894632 4.25148 179 135 126 
-0.625393 -0.85341 4.20354 174 146 125 
-0.606567 -0.847346 4.19985 105 27 25 
-1.24127 -1.25159 4.6428 176 153 135 
-0.494939 -0.837574 4.18018 226 198 184 
-0.464128 -0.829273 4.16478 89 70 56 
-1.20784 -1.28879 4.68396 192 168 140 
-1.27788 -1.38935 4.79053 188 148 140 
0.580884 -0.312823 3.23217 71 41 0 
-0.6261 -1.6145 5.00989 148 109 94 
-0.442751 -0.155974 2.82883 223 121 119 
-0.416717 -0.145579 2.83464 116 62 62 
-0.446792 -0.128223 2.83757 133 58 63 
-0.606019 -1.61615 5.02501 91 6 0 
-0.446501 -0.145472 2.83075 114 53 50 
-0.650518 0.228946 3.08011 81 55 38 
0.454768 -0.184346 3.31213 247 186 93 
0.483889 -0.165907 3.3114 97 45 0 
-0.462263 -0.126542 2.84113 192 87 91 
-0.614092 -1.59722 4.99431 136 119 101 
-0.774754 -1.10829 4.30536 73 28 0 
0.0806606 -0.224506 3.50619 172 134 98 
0.519856 -0.213624 3.31557 151 54 0 
-0.500508 -0.916546 4.2563 140 123 115 
-1.35314 -1.53319 4.89697 193 90 120 
-0.527848 -0.916297 4.26652 156 103 97 
-1.00735 -1.53775 4.94647 124 102 79 
-1.04601 -1.53064 4.94246 226 161 107 
-3.48228 -1.69028 5.44684 107 105 106 
-0.54623 -0.906506 4.25837 204 130 127 
-0.575733 -0.900325 4.25207 59 6 0 
0.134042 -0.285982 3.56161 153 117 85 
-3.47809 -1.66932 5.44499 136 136 138 
0.182975 -0.298267 3.57987 178 131 101 
-1.27771 -1.24506 4.63926 201 117 133 
0.185267 -0.312213 3.58672 174 130 103 
0.236867 -0.319197 3.59289 86 44 28 
0.210805 -0.321852 3.5944 101 51 24 
0.343951 -0.358012 3.62484 152 119 100 
-1.19413 -1.26201 4.66105 163 144 130 
-3.49849 -1.6732 5.64315 65 63 64 
0.620851 -0.343381 3.21727 118 66 18 
-1.27104 -1.40257 4.8148 91 35 38 
-0.281094 0.0853842 3.21421 89 74 53 
-0.49667 -0.688167 4.02208 123 92 63 
-1.18746 -1.17209 4.58043 217 74 80 
0.479334 -0.258219 3.27591 169 99 3 
-0.503869 -0.873795 4.21617 173 155 141 
-0.483503 -0.129588 2.85237 241 163 159 
-0.497728 -0.846898 4.18797 84 61 47 
-0.746875 0.483446 2.81615 65 48 38 
-0.429227 -0.137336 2.83736 102 56 58 
-0.429523 -0.128777 2.83906 224 164 164 
-3.48131 -1.66782 5.61575 47 46 51 
-0.618495 -0.889055 4.25147 66 35 17 
-3.48812 -1.67506 5.458 184 184 182 
-1.05688 -1.54982 4.96079 56 41 20 
-0.968342 -1.55886 4.95621 147 138 107 
-1.03944 -1.5959 4.97872 189 114 75 
0.450185 -0.2164 3.29037 241 180 117 
0.455544 -0.183399 3.31711 247 190 103 
0.182525 -0.191097 3.46672 182 137 114 
-1.19682 -1.26073 4.66625 175 154 137 
-0.549646 -0.885528 4.23588 207 133 130 
-0.498921 -0.915485 4.25901 144 131 123 
0.185356 -0.210381 3.48679 178 129 97 
0.0822081 -0.242756 3.52955 168 137 109 
0.735178 -0.161708 3.2203 151 88 0 
-0.618771 0.222147 3.08921 104 81 65 
-0.910362 -1.46295 4.88293 150 62 58 
-3.01795 -1.32533 7.61052 112 72 36 
-1.10134 -1.58588 4.9618 87 77 68 
0.197009 -0.297267 3.57789 171 126 93 
-0.49465 -0.855771 4.20405 176 162 151 
-0.528097 -0.881513 4.21629 180 110 102 
-0.55502 -0.88568 4.23729 208 141 133 
-0.412135 -0.148158 2.83018 218 154 145 
-0.436542 -0.128402 2.84092 125 48 54 
-1.07917 -1.10526 4.50328 86 4 16 
-1.01152 -1.52611 4.92841 74 50 24 
-1.27706 -1.44607 4.86267 81 28 24 
0.285498 -0.224238 3.13185 208 134 1 
-0.903267 -1.4748 4.89113 210 142 123 
0.474373 -0.204314 3.31249 241 177 87 
0.184917 -0.21081 3.48471 174 130 103 
-0.509417 -0.872895 4.2123 182 147 128 
-0.502762 -0.845265 4.15869 48 26 13 
-0.67168 -1.57843 4.97572 184 86 49 
-0.430561 -0.1421 2.83596 120 44 54 
-0.476426 -0.813673 4.15846 90 61 43 
-3.43327 -1.3893 5.63923 26 19 26 
-1.05891 -1.5557 4.98379 61 55 31 
-0.49011 -0.14538 2.83785 189 104 99 
-0.969529 -1.36337 4.72486 159 126 121 
-3.47786 -1.63062 5.61531 47 41 53 
-1.25835 -1.35512 4.76292 84 0 23 
-2.10778 -0.101946 6.22411 206 173 140 
0.0978503 -0.334857 3.62354 166 138 117 
0.679606 -0.257521 3.20863 150 67 0 
-0.450874 -0.137529 2.84046 212 170 171 
-3.50115 -1.61956 6.02599 29 26 33 
-3.4463 -1.40763 5.75981 34 29 33 
-0.413801 -0.148246 2.838 214 154 146 
-0.463676 -0.251921 2.92141 224 214 205 
0.15071 0.0123773 3.26907 108 92 76 
-0.453991 -0.816009 4.15436 210 196 187 
-0.694196 -1.81727 4.96795 209 206 197 
0.353007 -1.02951 3.6764 160 148 136 
0.69683 -0.000329518 3.1746 183 129 41 
-0.392257 0.0138329 2.62563 78 68 59 
0.67392 -0.0689306 3.24096 253 206 152 
-0.389286 0.0261853 2.61304 48 35 27 
0.771814 -0.124412 3.13252 120 44 0 
-0.411135 0.0626577 2.5785 131 121 109 
-0.281724 0.0720993 2.6001 87 18 21 
-0.41771 -0.132804 2.85318 156 92 92 
-0.722866 -1.82755 4.97186 103 101 89 
-0.692139 -1.79323 4.94629 174 175 170 
-0.702366 -1.78106 4.93272 168 167 165 
-0.38426 -0.13972 2.85019 255 131 136 
-1.23358 -1.83225 5.08824 210 171 176 
-1.2158 -1.81788 5.05393 227 191 193 
-0.376895 -0.143311 2.85905 254 144 147 
-0.290092 0.082953 2.5817 88 19 12 
-0.278459 0.0852492 2.59577 237 149 147 
-0.391756 -0.148106 2.85166 247 143 140 
-0.803499 -1.72409 4.88479 97 94 87 
-0.488372 -1.8091 5.1693 251 203 203 
-0.761635 -1.70305 4.86513 167 164 159 
-0.36413 -0.150675 2.86268 245 151 151 
-0.4789 -0.155974 2.8385 169 79 78 
-0.351143 -0.159596 2.87436 255 141 150 
-0.387883 -0.160711 2.85463 135 50 47 
-0.362973 -0.163321 2.8668 241 146 154 
-0.395332 -0.162316 2.84696 227 123 122 
-0.290033 0.0948809 2.57099 200 111 117 
-0.344716 -0.165396 2.88373 238 138 140 
-0.354161 -0.163894 2.85845 147 55 60 
-1.26706 -1.758 5.15633 240 221 215 
-0.373948 -0.168591 2.86603 136 61 58 
-0.373687 -0.171782 2.85016 220 150 148 
-0.288235 0.101751 2.58194 238 162 164 
0.173209 -0.212378 3.49921 173 141 116 
-0.345538 -0.174428 2.87657 108 27 26 
-0.281042 0.107551 2.58683 229 128 134 
0.0799726 -0.22187 3.50182 162 134 113 
-0.306244 0.112081 2.55675 196 106 105 
-0.347914 -0.188209 2.87932 103 28 22 
-0.321739 0.118127 2.54647 245 144 150 
-0.310182 0.11989 2.56705 163 95 96 
-1.34218 -1.65603 5.04695 182 89 120 
0.189014 -0.251373 3.53104 156 128 107 
-0.364548 0.126667 2.53341 130 42 41 
-0.0144769 -0.268536 3.55982 222 206 193 
-0.347245 0.133339 2.53799 185 106 111 
-0.324398 0.136013 2.55305 116 70 72 
-1.42174 -1.55091 4.79698 116 42 65 
0.182753 -0.277867 3.55837 165 129 107 
-0.426372 0.145754 2.53432 123 52 56 
-0.465446 0.147622 2.5576 228 175 171 
-0.349809 0.150113 2.53943 135 63 66 
-0.442088 -0.252748 2.91897 255 249 236 
0.527847 -0.284209 3.26362 131 47 0 
-0.441721 0.209122 2.59388 122 62 61 
-0.927004 -1.5549 4.93236 114 114 88 
-0.479604 -0.299579 2.96873 212 203 186 
-0.592081 0.243916 3.06154 67 38 34 
-1.00501 -1.55534 4.93862 115 113 92 
-0.602355 0.244732 3.05905 63 34 28 
-1.17586 -1.56054 4.96918 172 150 137 
-0.515539 -0.588723 3.81627 65 54 48 
0.175073 -0.646087 3.93247 132 128 119 
-1.19845 -1.55564 4.97081 69 27 13 
-0.601647 -0.636182 3.74461 238 236 239 
-0.487624 -0.683302 4.01542 195 163 138 
-0.541239 0.330084 2.94978 62 32 24 
-1.15221 -1.51939 4.89439 221 205 192 
-0.544128 0.334357 2.96979 69 39 29 
-0.406857 -0.741902 3.98296 55 48 42 
-0.559226 -0.772287 4.12593 249 160 156 
-0.557631 -0.784072 4.12537 106 69 51 
-0.576632 -0.78412 4.12494 141 60 59 
-0.568557 -0.788376 4.13178 94 62 51 
-0.47675 -0.794541 4.13515 91 62 48 
-0.57377 -0.796265 4.14124 91 51 43 
-0.530163 -0.803732 4.1582 104 73 55 
-0.582195 -0.803745 4.14878 159 99 91 
-0.595435 -0.803465 4.14705 113 34 37 
-0.55266 -0.810268 4.15219 95 67 53 
-0.463058 -0.824765 4.16707 133 107 92 
-0.491725 -0.826298 4.16672 149 113 97 
-0.588328 -0.830694 4.17931 254 165 169 
-0.900247 -1.46729 4.85983 180 127 111 
-0.627291 -0.840318 4.18882 241 210 192 
-0.511221 -0.840775 4.17067 227 200 193 
-0.607532 -0.851516 4.2221 102 23 19 
-0.478882 -0.843606 4.1779 153 124 108 
-0.633727 -0.850722 4.20269 94 64 53 
-0.647103 -0.850414 4.20088 78 49 31 
-0.66786 -0.851419 4.19793 41 18 2 
-0.560256 -0.853704 4.19665 69 28 22 
-0.640251 -0.858206 4.2169 181 152 138 
-0.585535 -0.859667 4.21103 93 55 42 
-0.616782 -0.861419 4.21876 72 35 16 
-0.674651 -0.861944 4.21229 75 46 28 
-0.594827 -0.863501 4.20673 193 123 123 
-0.806907 -0.810213 3.90757 148 146 147 
-0.625192 -0.881587 4.23514 164 148 125 
-0.611623 -0.886388 4.23649 71 32 15 
-0.591431 -0.890604 4.23507 179 132 124 
-1.11471 -1.43263 4.82169 89 41 37 
-0.542325 -0.900022 4.24461 199 119 120 
-0.0670514 -0.845521 3.97717 143 138 116 
-0.0988405 -0.85061 3.98688 152 144 121 
-0.108899 -0.851801 3.98553 148 140 117 
-0.494935 -0.913573 4.25226 117 107 97 
-0.501601 -0.91789 4.26443 140 123 115 
-0.451546 -0.918729 4.25517 140 115 111 
-0.459997 -0.923268 4.26952 45 27 23 
-0.823321 -0.868272 3.97334 125 120 124 
-1.12536 -1.41576 4.8179 145 69 82 
2.23407 0.618977 3.64816 60 62 48 
-0.559854 -1.32948 4.54182 235 198 172 
-0.642596 -0.971164 4.15375 159 8 17 
-0.649299 -0.979737 4.17756 218 66 78 
-1.15025 -1.02698 4.3566 192 181 177 
-1.01529 -1.047 4.41664 207 70 77 
-1.07558 -1.06912 4.44839 202 118 131 
-0.561474 -1.12108 4.37237 140 83 30 
-0.693276 -1.36494 4.73174 65 36 18 
-1.21845 -1.1956 4.59392 161 68 89 
-3.38443 -1.43977 5.45474 71 61 62 
-1.21384 -1.23271 4.62263 84 45 40 
-1.2703 -1.23652 4.61082 201 117 133 
-1.07235 -1.21834 4.50922 102 91 85 
-3.44628 -1.49917 5.5073 85 76 81 
0.321941 -1.05623 3.70881 132 129 120 
-0.955753 -1.25861 4.64859 40 26 0 
-1.26637 -1.36549 4.77824 118 0 34 
0.327528 -1.04192 3.66796 251 248 229 
0.335466 -1.04615 3.68304 186 184 163 
-0.92597 -1.27664 4.65987 22 28 0 
-1.20559 -1.28764 4.68982 156 140 117 
-0.877285 -1.55502 4.93941 203 185 165 
-0.510494 -0.779222 4.1166 151 162 148 
0.0762181 -0.201228 3.4761 160 134 119 
-0.395667 -0.137618 2.84911 214 105 108 
-0.987636 -1.30976 4.61606 199 149 142 
0.356378 -1.02941 3.66647 237 224 215 
-0.50437 -0.786568 4.12446 218 215 206 
-0.677014 -1.56711 4.94649 65 13 0 
0.401119 -1.03373 3.64955 122 112 100 
-0.938225 -1.30089 4.66881 57 83 74 
-0.420101 -0.258968 2.9298 193 181 169 
-0.438683 -1.23595 4.47774 78 29 0 
-0.887405 -1.55601 4.93672 154 146 125 
-4.39859 -3.16282 9.4883 174 169 163 
-0.901546 -1.4804 4.87452 78 32 17 
-0.289537 0.313078 2.73456 197 144 128 
-1.17909 -1.57309 4.97593 245 219 204 
-1.213 -1.2627 4.65341 83 61 38 
-0.995318 -1.31469 4.60934 174 116 114 
0.778596 -0.12223 3.16012 114 24 0 
-1.38965 -1.51701 4.76145 182 85 120 
-0.298026 0.114383 2.56939 199 89 92 
-0.377724 -1.20754 4.51085 103 49 37 
-0.377325 -1.2108 4.53583 167 105 94 
-0.543917 -0.851112 4.19913 130 42 38 
0.405108 -0.674126 3.88008 116 99 92 
0.565117 -0.275904 3.26788 122 24 0 
-1.25341 -1.20962 4.59713 63 9 0 
0.361023 -0.310535 3.22592 116 75 43 
-0.524289 -1.36148 4.56796 211 180 159 
-1.12792 -1.44389 4.84189 61 21 19 
-1.32728 -1.66345 5.04162 75 22 30 
-0.0277477 -1.16077 4.48731 249 242 234 
-0.501486 -0.871482 4.21867 160 150 140 
-1.18595 -1.18566 4.57536 92 1 16 
-0.632523 -0.873257 4.21636 127 99 77 
-0.646923 -0.686301 3.75851 179 174 178 
-0.664149 -0.877669 4.23015 100 73 54 
-0.778521 -1.10268 4.29048 63 17 0 
-0.637113 -0.884279 4.23317 133 106 87 
-0.396982 -1.55789 4.88781 173 144 146 
-0.283814 -1.55993 4.7554 86 39 33 
-0.73294 -1.56832 4.96113 109 65 56 
-1.34353 -1.89954 5.16178 225 135 161 
-0.297508 -1.0282 4.10066 156 154 155 
-0.606136 -1.63524 5.00416 82 46 48 
-0.585802 -0.670638 3.7485 233 231 234 
-0.2735 0.0657363 2.616 225 123 119 
-0.284885 -1.54637 4.7401 133 99 90 
-0.57218 -1.63626 5.02435 113 103 94 
0.17372 -0.634457 3.90488 173 164 155 
-0.480393 -0.909034 4.25226 11 4 0 
-1.01626 -1.55499 4.96009 132 137 117 
-3.44191 -1.54471 5.28796 66 63 74 
-1.03976 -1.52756 4.93965 208 160 114 
-0.279639 -1.53352 4.72707 85 45 37 
-1.28572 -1.08049 4.43208 86 0 0 
-3.44067 -1.40316 5.73144 63 59 60 
-1.03601 -1.5981 4.98861 180 121 81 
0.152159 -0.952828 3.96808 139 134 138 
-0.997949 -1.06602 4.44378 172 0 3 
-3.45016 -1.39224 5.77985 85 74 72 
0.0866892 -0.270568 3.55726 139 113 96 
-0.954594 -1.05877 4.43442 223 65 80 
-0.709437 -1.8601 5.00217 149 129 131 
-1.14755 -1.04087 4.36815 117 108 101 
-1.0645 -1.0531 4.43505 171 73 72 
-0.729363 -1.52175 4.91404 59 1 0 
-1.00965 -1.04059 4.41019 134 0 7 
-1.07627 -1.54696 4.95038 114 58 33 
-0.63461 -1.60401 4.99645 108 52 53 
-0.87986 -1.54399 4.9439 78 27 24 
-0.442086 -0.0840363 2.88048 189 85 84 
-1.00206 -1.52114 4.93151 170 138 113 
-0.672949 -0.881401 4.24028 88 63 41 
-0.33352 0.144213 2.54977 186 115 119 
-0.863619 -0.90034 3.99412 165 153 157 
-1.16138 -1.37355 4.77889 92 52 61 
-0.985431 -1.64149 5.06272 167 34 3 
-0.282139 -1.6003 4.77917 59 36 30 
-0.43347 -1.65337 5.02882 103 42 49 
-0.28304 0.325854 2.77012 110 116 80 
-0.896573 -1.0652 4.42938 129 4 10 
-0.234503 -1.01572 4.08141 162 157 161 
-0.424514 -1.6279 5.00082 146 100 87 
0.116971 -0.992564 4.02985 144 140 141 
-1.41669 1.50449 4.43219 201 158 123 
-1.21714 -1.60271 5.02368 180 71 77 
-1.25662 -1.37229 4.76016 159 55 78 
-1.22317 -1.25417 4.63402 174 144 120 
-0.580661 -0.913314 4.27007 180 128 115 
-0.597318 -1.60661 4.99335 113 0 1 
-0.485558 -0.681481 3.99807 159 127 102 
-0.600197 -0.853734 4.21386 156 91 85 
-0.596986 -0.87197 4.23157 193 119 118 
-0.527985 -0.858725 4.20424 182 139 133 
-0.626535 -0.855399 4.21327 174 146 125 
-0.619212 -0.847725 4.19287 83 50 31 
-0.640821 -0.891069 4.24323 50 23 4 
-0.805083 -0.827887 3.92178 74 74 76 
-0.574135 -0.84322 4.18059 246 208 197 
-0.578645 -0.898393 4.2537 77 18 14 
-0.535766 -0.841938 4.18344 251 174 164 
-0.468847 -0.843817 4.19476 235 223 211 
-0.49385 -0.835411 4.17905 230 201 187 
-0.661378 -0.911652 4.27952 162 140 119 
-0.588078 -0.81973 4.16214 149 87 90 
-0.565576 -0.817995 4.16221 114 65 58 
-0.849971 -0.854097 3.9244 136 135 133 
-0.621825 -0.810153 4.15846 121 83 64 
-0.535177 -0.806209 4.14867 227 193 183 
-0.447634 -0.796647 4.12959 211 182 168 
-0.545188 -0.783143 4.11242 187 159 147 
-0.497223 -0.688769 4.03092 117 86 57 
-0.693948 -1.82203 4.98095 204 201 192 
-1.22571 -1.82963 5.098 255 245 240 
-0.941918 -1.2126 4.59594 87 24 0 
-0.335971 -0.209048 2.89351 104 4 4 
-0.962496 -1.25488 4.66388 217 146 84 
-0.35822 -0.1797 2.86798 242 168 167 
-0.353008 -0.170834 2.8664 238 162 164 
-1.16979 -1.27893 4.67558 165 139 122 
-1.25914 -1.29028 4.68599 93 3 13 
-1.26551 -1.32551 4.72527 87 10 28 
-1.27973 -1.38032 4.78081 102 47 50 
-1.28074 -1.39241 4.80848 200 160 152 
-1.11701 -1.41154 4.81213 92 26 30 
-0.390798 0.0280069 2.62457 56 45 39 
-3.50399 -1.62065 5.31321 52 47 53 
-3.51389 -1.63079 5.3009 53 51 56 
-0.353358 0.147261 2.52996 131 41 41 
-1.05456 -1.54524 4.94962 58 36 12 
-0.486489 -1.56684 4.91836 89 62 53 
-1.19082 -1.58117 4.98086 84 35 28 
-0.812699 -0.854491 3.9426 133 131 136 
-0.871958 -1.55617 4.89951 234 216 194 
-0.714658 -1.84132 4.9802 199 195 192 
-0.597851 -0.846433 4.19591 225 148 142 
-1.26974 -1.57948 4.9809 245 166 151 
-0.405003 -0.740281 3.97212 55 48 42 
0.166823 -0.63094 3.92761 123 113 104 
-0.947241 -1.06253 4.44071 238 94 119 
-3.4006 -1.36342 5.58577 73 61 61 
-0.614374 -0.877424 4.23176 99 62 43 
-0.963204 -1.55377 4.93756 147 138 107 
-1.1219 -1.41216 4.80076 111 43 54 
-1.05643 -1.59119 5.00758 158 144 117 
-0.36095 0.152109 2.54093 121 36 31 
-1.34468 -1.52247 4.87167 159 79 104 
0.163902 -0.231099 3.513 77 40 14 
-1.23596 -1.26605 4.64945 216 172 147 
-0.277648 -1.19494 4.36769 209 146 131 
-0.265082 -1.43756 4.63977 81 56 51 
-0.382695 -0.162703 2.83412 205 129 129 
-0.356616 0.128834 2.54003 241 137 136 
-0.326726 0.127966 2.54428 124 78 78 
-1.25639 -1.34857 4.73402 209 95 131 
-1.26161 -1.3604 4.76133 118 0 34 
-0.302029 0.126555 2.5607 216 112 113 
-0.488447 0.0436538 2.63249 115 104 84 
-0.282399 0.0546161 2.60876 221 144 138 
-0.300279 0.127137 2.57451 145 36 41 
0.0936717 -0.31425 3.60289 163 132 101 
-0.45924 -0.914742 4.24605 86 73 65 
-0.496971 -0.924328 4.28169 18 0 0 
-1.39146 -1.56707 4.80724 223 102 143 
-0.547897 -0.775663 4.11982 192 118 105 
-3.53105 -2.00713 5.48097 154 154 166 
-3.412 -1.4002 5.60826 47 43 44 
-0.622459 -1.60537 4.9841 160 112 98 
-1.174 -1.14626 4.51762 93 0 0 
-1.23014 -1.18946 4.57008 208 95 91 
-1.26528 -1.439 4.83961 85 15 25 
0.251351 -0.224233 3.50873 169 134 114 
-1.0004 -1.53078 4.91707 100 85 64 
0.324962 -1.03201 3.67428 183 179 167 
-0.483495 -1.57752 4.92555 126 98 87 
-1.25361 -1.33924 4.72278 136 28 60 
-0.989927 -1.34385 4.6653 142 82 81 
-0.607427 -1.58211 4.97163 114 90 80 
-0.629444 -0.651485 3.72498 112 110 115 
0.353265 -0.349569 3.60946 84 38 14 
-1.33677 -1.65043 5.02589 137 63 88 
-1.19314 -1.30117 4.68227 186 123 131 
-1.25603 -1.26354 4.66139 147 55 78 
-1.17547 -1.35556 4.75296 134 37 68 
-1.01344 -1.04476 4.39634 153 38 41 
-1.4171 -1.51871 4.76572 93 43 54 
-0.604931 -0.910831 4.25952 175 126 109 
-0.599668 -1.67404 5.06163 147 72 79 
-0.288508 0.359094 2.786 218 142 146 
-0.816593 -0.898558 4.00255 146 136 137 
-0.997488 -1.30908 4.59888 166 112 110 
-0.668605 -0.890698 4.24132 78 51 30 
-0.308004 0.488703 2.78635 146 130 115 
0.359331 -1.02825 3.65011 132 119 111 
-0.360061 -0.69946 3.98571 57 50 44 
-0.356627 -0.699194 4.01325 142 135 127 
-3.49171 -1.62456 5.2061 203 198 205 
-0.426405 0.388786 2.75851 144 58 59 
-0.284682 -1.55798 4.74408 70 29 25 
0.35712 -0.0692303 3.24939 184 122 45 
-0.690552 -1.75817 4.91015 153 150 141 
-0.391077 0.14314 2.54201 249 127 122 
-0.667837 -0.857 4.16651 169 141 119 
-0.942297 -1.30975 4.70263 68 98 88 
0.681012 -0.0648087 3.24678 184 100 2 
-1.19966 -1.42694 4.84255 149 14 57 
-0.534471 -1.38572 4.60993 242 213 195 
-0.437682 -1.23318 4.46289 77 31 0 
-0.499264 -0.856248 4.19266 175 155 144 
-1.2612 -1.74797 5.1028 227 194 201 
-1.13226 -1.42381 4.82527 99 18 37 
0.188749 -0.330893 3.60222 161 127 115 
-1.07943 -1.45744 4.86297 143 74 33 
-1.15736 -1.39696 4.81196 159 80 101 
-0.685389 -1.77172 4.92408 143 143 135 
-1.21893 -1.3103 4.7071 155 129 112 
-0.423507 -0.243179 2.88969 255 250 233 
-1.18826 -1.22305 4.6158 83 11 33 
-0.484606 0.0400832 2.6095 157 146 128 
-1.19927 -1.23033 4.62923 148 90 102 
-0.561282 -1.11884 4.36015 152 95 42 
-0.691496 -1.74325 4.8916 82 78 77 
-1.24762 -1.21218 4.61178 188 105 113 
-0.456408 0.16747 2.56421 188 123 117 
-0.620855 -1.58827 4.97729 29 9 0 
0.100435 -0.278943 3.57259 91 56 34 
0.444384 -0.232491 3.2868 171 100 8 
-0.0298481 -1.16425 4.50221 251 244 236 
-1.25241 -1.22024 4.60377 171 127 102 
-0.426648 -0.0732774 2.89094 190 92 91 
-1.35252 -1.6469 5.01444 166 74 97 
-1.18116 -1.16739 4.56207 203 74 79 
0.76985 -0.0787034 3.07774 155 70 0 
-3.45105 -1.45952 5.36937 124 123 121 
-1.2061 -1.54791 4.97679 205 108 119 
-0.878679 -1.33133 4.71601 123 115 94 
-3.38118 -1.99755 5.9226 61 56 60 
-0.872566 -1.53239 4.93902 205 132 113 
-0.734435 -1.57285 4.97453 109 65 56 
-3.43518 -2.2454 6.0983 29 26 33 
-0.922051 -1.38647 4.78638 37 56 36 
-0.442316 -1.22114 4.41864 77 32 3 
-0.995083 -1.06404 4.43026 172 0 13 
0.273936 -0.175986 3.09849 181 109 0 
0.54608 -0.183571 3.3359 193 125 14 
-0.566465 -0.641384 3.74346 149 146 153 
-0.471477 -0.911847 4.2672 114 111 102 
-1.28232 -1.44141 4.81296 222 131 140 
-2.32904 0.0286647 6.05945 233 199 162 
-0.441281 -1.64525 5.02976 143 93 82 
-3.41238 -1.43215 5.51685 125 123 137 
-0.412248 0.0412835 2.57545 255 252 240 
-0.338652 -0.195709 2.8897 93 4 0 
-1.16884 -1.16669 4.55677 128 21 51 
2.2334 0.616113 3.63529 238 242 228 
-1.01539 -1.55296 4.94906 151 156 136 
-0.708112 -1.83136 4.97083 107 102 96 
-0.725884 -1.83328 4.98321 90 86 77 
-0.662574 -1.81954 4.95333 160 156 155 
-0.593674 -0.893066 4.24524 133 84 77 
-0.581855 -0.886435 4.23527 200 160 152 
-0.698266 -1.80445 4.95363 88 87 82 
-3.42863 -2.16068 5.9127 58 56 67 
-0.806301 -0.818712 3.91533 219 219 221 
-0.547591 -0.885234 4.24092 212 134 132 
-0.54504 -0.862398 4.19336 201 132 127 
-0.619498 -0.863461 4.22871 66 31 11 
-1.23558 -1.83728 5.10322 235 199 203 
-3.43761 -2.17235 6.03144 51 45 55 
-0.642831 -0.906918 4.2475 152 126 103 
-0.739301 -1.72837 4.88275 178 174 165 
-0.516716 -0.846523 4.20243 227 200 193 
-0.467844 -0.842572 4.18313 233 223 211 
-0.497699 -0.828963 4.15794 91 62 48 
-0.589706 -0.82921 4.16793 255 198 195 
-0.881692 -0.766475 3.85636 145 145 145 
-0.446967 -0.810973 4.14461 90 79 77 
-0.536531 -0.795769 4.12969 93 75 63 
-0.546603 -0.783374 4.13283 248 211 193 
-0.448056 0.161483 2.55254 219 151 152 
-0.636514 -0.976134 4.16604 242 106 130 
-0.655867 -0.692002 3.77184 130 128 131 
-1.14806 -1.02355 4.3396 168 161 151 
-3.38172 -1.32851 5.55835 65 55 56 
0.397268 -0.664701 3.86995 193 124 117 
-0.595466 -0.634972 3.70507 126 124 129 
0.195215 -0.655682 3.91764 75 64 58 
0.168677 -0.628484 3.87531 42 35 25 
-1.11892 -1.59782 5.00021 225 214 210 
-0.00717667 -0.975001 4.01279 124 122 123 
-0.76923 -0.572692 3.74578 157 154 147 
-0.878717 -1.56691 4.93881 244 232 210 
-0.954918 -1.5604 4.92495 246 247 231 
-0.894021 -1.56242 4.93172 246 244 231 
-1.18904 -1.5634 4.98002 56 30 5 
-3.51166 -1.63113 5.18051 110 106 120 
-3.47608 -1.31007 5.15134 107 102 108 
0.587642 -0.316256 3.24115 188 157 113 
-0.876556 -1.10461 4.37084 255 231 212 
-3.50623 -1.62981 5.22881 208 203 209 
-1.17712 -1.14881 4.53266 90 0 0 
-0.446759 -0.258551 2.92688 246 243 228 
-1.22691 -1.1866 4.57838 93 0 0 
-3.49618 -1.62385 5.27157 72 70 73 
-3.40387 -1.44264 5.50002 53 46 54 
-3.43883 -0.440719 5.04927 121 113 111 
-3.51248 -1.56854 5.17753 151 144 160 
-1.23882 -1.46683 4.87151 99 23 35 
-1.19796 -1.22656 4.61343 163 95 110 
-0.687661 -1.43685 4.80471 20 26 16 
-0.954542 -1.24355 4.61806 205 142 88 
0.115485 -0.262923 3.54826 92 43 11 
-1.2466 -1.24882 4.63207 92 34 32 
-1.23929 -1.25976 4.66471 73 58 37 
-0.344471 -0.204472 2.88584 229 138 135 
-1.01063 -1.26016 4.65131 31 1 0 
-1.23181 -1.26385 4.63542 229 181 158 
-0.504955 -1.34827 4.55759 232 199 180 
0.19858 -0.232766 3.51865 85 49 27 
-0.365054 -0.181574 2.85788 212 121 120 
-0.897104 -1.29699 4.68259 56 51 19 
-0.692125 -1.3828 4.72233 27 4 0 
-1.26105 -1.39068 4.77477 91 35 38 
-1.10143 -1.30396 4.67772 101 52 56 
-0.480609 -0.129676 2.88631 198 100 97 
-0.979862 -1.33127 4.6233 156 96 96 
-1.26064 -1.32286 4.70871 137 36 68 
-0.368983 -0.1586 2.87429 237 149 148 
-1.16311 -1.36273 4.76405 170 99 115 
-0.543446 -0.151904 2.87458 155 55 55 
-0.44734 0.24284 2.63144 133 70 65 
0.162047 -0.189998 3.47227 172 141 113 
-1.1501 -1.35316 4.73939 143 81 94 
-1.41743 -1.59552 4.83109 114 35 56 
0.407863 -0.693518 3.85146 69 56 48 
-3.46438 -2.25301 6.16865 22 21 26 
-3.50703 -0.910285 5.18078 142 136 146 
-1.04668 -1.61047 5.02489 192 120 80 
-1.15951 -1.37753 4.76483 26 0 0 
-0.681171 -1.57432 4.9732 72 17 0 
-1.40637 -1.79999 5.05484 47 0 20 
0.16036 -0.208303 3.47612 94 62 37 
-0.759881 -0.762902 3.85077 103 107 154 
-1.39414 -1.60368 4.8405 205 101 134 
-0.782681 -1.10693 4.311 65 19 0 
-0.600967 -1.6112 5.00937 113 0 1 
0.388853 -0.927797 3.60169 131 89 91 
-1.1606 -1.38876 4.78575 48 9 12 
-1.41078 -1.69098 4.94273 193 83 120 
-1.29994 -1.26034 4.66582 148 54 44 
0.478805 -0.256183 3.28523 166 96 0 
-2.30471 0.0439556 5.97676 223 190 159 
-1.0017 -1.31468 4.62238 166 112 110 
-0.499375 -0.857617 4.20373 174 156 144 
-0.869146 -1.33919 4.70343 195 123 109 
0.0919112 -0.300954 3.60089 157 125 104 
-0.433898 -0.920187 4.25203 107 48 42 
1.61777 1.35711 4.43543 107 76 45 
-0.296576 0.394675 2.80835 190 120 122 
-3.55168 -2.03007 5.47872 140 139 147 
-0.87248 -1.32346 4.70817 70 45 25 
-0.403431 -1.24365 4.57485 200 153 125 
-3.45838 -2.04972 5.72023 83 84 89 
0.167115 -0.630839 3.88908 43 39 30 
-0.467967 -0.131117 2.86271 225 160 158 
-0.210761 -0.989221 4.03825 212 210 211 
-3.41233 -1.39087 5.59234 43 34 35 
-1.04837 -1.19168 4.54995 200 125 145 
-0.630475 -0.849577 4.18449 74 44 33 
-0.615922 -0.8468 4.17143 81 53 29 
-0.488909 -0.844829 4.17704 100 74 61 
-0.584424 -0.845509 4.19114 133 65 62 
-1.23372 -1.24421 4.61517 176 153 135 
-0.537803 -0.818141 4.15857 125 45 34 
-1.20263 -1.28334 4.66409 192 168 140 
-0.7208 -1.84806 5.00797 205 200 194 
0.326402 -1.0232 3.6624 109 102 94 
-0.715915 -1.83067 4.98518 193 190 181 
-0.689536 -1.78979 4.90675 91 90 85 
-3.43942 -1.54845 5.35481 29 28 34 
-0.503431 0.107564 2.59621 124 61 54 
-1.23292 -1.82744 5.11004 255 243 236 
-1.18321 -1.55616 4.95321 56 30 5 
-1.00224 -1.55243 4.92433 138 135 118 
-1.17776 -1.5831 4.99072 247 230 222 
-1.12719 -1.56408 4.92085 254 253 251 
-1.09846 -1.57754 4.9432 77 67 58 
-1.11002 -1.58705 4.95478 196 185 181 
-0.478586 -0.155649 2.8513 157 55 53 
-1.15977 -1.15275 4.5271 226 119 145 
-1.05137 -1.06194 4.444 227 118 149 
-0.205413 -0.99382 3.99559 138 136 141 
-1.01182 -1.04687 4.42772 101 0 2 
-0.479392 -0.232213 2.91165 184 167 157 
-0.804607 -1.71061 4.87155 168 164 153 
-0.476954 0.150304 2.56904 212 171 169 
-0.60515 -1.6153 5.02194 91 6 0 
-3.3895 -2.00174 5.94809 46 43 52 
-0.64975 -0.913042 4.28574 141 115 92 
-1.18221 -1.15415 4.55547 79 0 0 
-0.695697 -1.73363 4.8777 165 161 160 
-0.609624 -1.58557 4.95766 136 119 101 
-1.06151 -1.59879 5.00223 98 48 25 
-0.595305 -1.58016 4.94996 21 2 0 
-1.17446 -1.16455 4.52903 219 74 79 
-0.968814 -1.57581 4.95103 153 161 140 
-1.05158 -1.56576 4.93721 250 243 227 
-3.42308 -1.39351 5.64543 30 21 24 
-2.02 1.08699 4.871 104 69 47 
-0.511846 -0.25376 2.92464 126 118 107 
-0.935166 -1.54605 4.92457 171 165 139 
-0.300554 0.287923 2.69697 205 134 130 
-1.23719 -1.19268 4.58273 222 85 79 
-1.4051 -1.8149 5.07173 193 93 127 
-0.397339 -1.50425 4.8469 140 122 110 
-3.41592 -1.4517 5.50675 61 52 53 
-1.36639 -1.83865 5.12213 184 75 114 
-0.959536 -1.51566 4.91578 214 186 149 
-0.917126 -1.54873 4.93431 161 147 121 
-0.529669 -0.881111 4.22432 190 127 118 
-0.592678 -0.868765 4.215 194 124 122 
-0.662271 -0.861996 4.20612 165 137 125 
-0.901319 -1.45524 4.84726 135 52 44 
-0.512261 -0.258789 2.93915 128 121 111 
0.668613 -0.0573599 3.22544 247 204 125 
0.209928 -0.321225 3.58835 101 51 24 
0.150623 -0.322758 3.60092 106 56 31 
-3.48056 -1.34369 5.12774 91 92 97 
0.191219 -0.64679 3.89864 188 171 164 
0.185953 -0.327825 3.58475 178 130 107 
-3.37454 -1.39651 5.45084 42 44 59 
0.695357 -0.310036 3.17084 144 60 0 
-1.1437 -1.42906 4.83539 178 74 109 
-0.377103 0.416532 2.77219 188 108 109 
-0.978616 -1.3774 4.75346 182 141 139 
-1.23948 -1.27112 4.66112 229 178 157 
-3.474 -1.51965 5.5294 62 63 65 
-1.07571 -1.11669 4.49783 133 38 68 
-3.55087 -2.01812 5.51153 154 154 166 
-0.682383 -1.80994 4.96279 71 71 61 
-0.517096 -0.808344 4.14958 237 211 188 
-0.892841 -1.28995 4.66209 56 42 15 
-0.486942 -0.691379 4.02622 125 91 64 
0.403797 -0.674351 3.86791 108 90 86 
-0.61832 -1.57768 4.93245 36 2 0 
-1.21264 -1.26316 4.64344 85 58 31 
-1.04185 -1.11971 4.49894 156 90 117 
-2.30048 0.32535 5.67777 121 87 60 
-0.423818 0.234506 2.60797 204 125 120 
0.100494 -0.279136 3.55833 99 64 44 
-0.666744 -0.885765 4.21934 91 64 43 
-1.26791 -1.22692 4.61431 87 0 0 
-1.10008 -1.59826 4.95145 142 130 132 
0.159444 -0.208516 3.50096 82 51 30 
0.193248 -0.271814 3.5562 160 126 101 
-0.669323 -1.76536 4.90742 146 145 140 
-1.21434 -1.30302 4.69337 174 149 129 
-0.63922 -0.877042 4.22326 74 45 27 
-1.04434 -1.55928 4.95554 166 152 125 
-0.460426 -0.802702 4.12084 232 199 180 
-0.553053 -0.817292 4.16245 255 207 195 
-0.557357 -0.841166 4.17268 255 213 206 
-0.648625 -0.870648 4.22266 168 140 119 
-0.944753 -1.22165 4.61596 74 21 0 
-3.41678 -1.4364 5.49705 143 141 146 
-0.445553 -0.154795 2.84487 244 163 159 
-3.4098 -1.43778 5.56675 57 51 55 
-1.26804 -1.30113 4.71113 77 0 3 
-3.42712 -1.39116 5.7355 47 38 39 
-1.07389 -1.07601 4.46522 231 116 145 
-0.905244 -0.862712 3.94857 132 128 129 
2.16688 0.472333 3.61823 244 247 240 
-0.435792 -0.252294 2.9287 39 30 21 
-3.45584 -2.18225 6.21877 49 38 42 
-3.46045 -1.56654 5.35257 62 57 64 
-3.48899 -1.67129 5.62775 47 46 51 
-1.27436 -1.44361 4.86026 72 22 25 
-0.52923 -0.854084 4.19141 193 145 141 
-1.27433 -1.43448 4.81726 116 42 39 
-0.494018 -0.839996 4.19872 245 216 200 
-0.596492 -0.812632 4.13793 255 220 209 
-0.765329 -0.366532 3.64103 45 34 32 
-0.548057 -0.786175 4.14626 248 211 193 
-3.47477 -1.61761 5.24545 32 32 40 
0.18455 -0.660407 3.86777 32 27 24 
-1.10876 -1.54861 4.89697 255 251 245 
-0.877552 -1.55945 4.9239 237 232 210 
0.183674 -0.647699 3.91295 201 191 179 
-0.292583 0.081967 2.59425 209 136 130 
-0.598258 -1.59055 4.9908 24 3 0 
-1.38448 -1.50693 4.73772 226 103 147 
-1.00069 -1.51014 4.88091 74 50 24 
-1.05395 -1.56836 4.94898 254 247 229 
-0.770755 -1.75264 4.90979 85 81 78 
-1.35621 -1.53772 4.90569 197 83 117 
-1.32987 -1.64381 5.00634 182 89 120 
-0.966502 -1.25383 4.67173 220 141 72 
-1.35386 -1.91005 5.18344 224 131 158 
-0.210017 -1.00314 4.05126 166 164 167 
-1.08252 -1.12138 4.52794 85 6 28 
-0.707808 -1.78707 4.9557 186 185 183 
-0.755363 -1.7268 4.87832 75 72 63 
-0.545291 -0.878701 4.20312 207 133 130 
-0.283328 -1.67046 4.86937 71 46 42 
0.202302 -0.330537 3.6231 176 127 94 
-0.696643 -1.43664 4.82122 90 105 86 
0.178526 -0.264175 3.53719 174 130 101 
-0.995696 -1.24712 4.61923 58 41 25 
-1.32191 -1.89247 5.14647 44 17 26 
-1.21717 -1.542 4.93358 253 196 143 
-0.354588 -0.161391 2.89042 209 98 105 
-3.40809 -0.576078 5.25666 203 199 198 
-3.46583 -1.31739 5.26311 150 146 147 
-1.10662 -1.39206 4.78562 247 171 155 
-0.974275 -1.37458 4.71483 222 178 175 
-0.942095 -1.55385 4.93986 194 188 162 
-0.416949 -0.0254305 2.67431 243 237 221 
-0.382219 0.314102 2.68227 192 122 122 
-3.40665 -1.86561 5.6459 48 42 52 
-0.801756 -1.7603 4.94159 179 175 172 
-0.278859 -1.2309 4.38795 162 106 105 
-1.3752 -1.85168 5.16048 174 77 110 
-0.447047 0.211672 2.61026 145 54 51 
-1.8538 0.919176 5.04574 110 77 46 
-0.957073 -1.51186 4.89917 216 186 148 
-2.9639 -1.30157 7.47377 112 72 36 
-1.2774 -1.24335 4.57549 206 54 51 
-2.31028 0.327535 5.69463 103 69 42 
-1.31853 -1.09249 4.43328 183 51 62 
-0.301708 0.290752 2.70891 196 143 137 
-0.811849 -0.404539 3.63563 100 99 97 
-1.28815 -1.2405 4.61566 77 0 0 
-1.05007 -1.53636 4.96509 226 161 107 
-2.01669 1.27676 4.68976 120 90 56 
0.174404 -0.639159 3.89212 132 128 119 
-0.548612 -0.802212 4.15886 82 69 61 
-0.604423 -0.845367 4.18646 102 28 25 
-0.553389 -0.865547 4.23087 203 153 142 
-3.3988 -1.37508 5.58473 26 19 26 
-1.04775 -1.19545 4.54054 214 146 157 
-1.11289 -1.40778 4.77792 70 22 22 
-0.464032 0.0532688 2.60496 28 26 14 
-1.09653 -1.57683 4.93407 87 77 68 
-1.24803 -1.74653 5.0927 255 251 251 
-3.43367 -2.16826 6.17429 49 38 42 
0.17095 -0.241286 3.51453 175 124 97 
-3.51459 -2.20523 6.34433 18 13 20 
-0.47674 -0.803148 4.14645 202 175 156 
-0.515977 -0.805635 4.1186 177 149 127 
-0.612878 -0.871561 4.222 194 148 133 
-0.616326 -0.886274 4.21988 106 77 59 
-0.631178 -0.885913 4.21785 75 44 24 
-0.527256 -0.915411 4.26915 168 113 108 
-0.61805 -1.64059 5.04149 131 91 89 
-3.41258 -1.33524 5.60655 34 33 41 
-1.08956 -1.11266 4.49975 225 75 76 
-1.04703 -1.60009 4.99398 189 104 65 
-1.08054 -1.17144 4.54153 65 7 29 
0.683802 -0.0582727 3.23472 204 118 5 
-0.925512 -1.18469 4.54712 156 105 58 
-1.21484 -1.24 4.64326 73 46 39 
-1.23794 -1.24669 4.63668 209 186 154 
-1.26207 -1.23339 4.58667 174 89 108 
-1.28924 -1.24453 4.6276 77 0 0 
-0.277054 -1.19058 4.38453 53 33 22 
-0.924829 -1.54873 4.91679 98 98 70 
-0.968027 -1.55854 4.96146 141 130 102 
-1.09286 -1.56648 5.00011 105 60 41 
-0.883446 -1.53944 4.93013 71 20 17 
-3.45314 -1.56381 5.34026 62 57 64 
-3.4588 -1.66139 5.41007 170 170 168 
-3.45175 -0.585454 5.33084 211 203 201 
-3.48655 -1.64465 5.50057 64 64 72 
-1.28439 -1.26281 4.65038 82 11 17 
-3.38911 -1.94332 6.05547 38 31 38 
0.167872 -0.287893 3.58001 81 65 52 
-0.545339 -0.902809 4.22787 190 117 111 
-0.571555 -0.894763 4.22515 61 6 1 
0.0671804 -0.832543 3.97913 177 175 176 
-1.09642 -1.3811 4.74482 247 171 155 
-3.31241 0.0853009 6.04719 214 185 151 
-0.280066 -1.40026 4.70778 143 95 85 
0.0869445 -0.255969 3.53482 173 134 105 
-1.89384 0.668413 5.31142 227 189 152 
-1.34592 -1.89294 5.14236 235 126 157 
-0.346458 -0.191364 2.86494 156 87 80 
-1.04558 -1.16895 4.54837 202 129 159 
0.476775 -0.205068 3.32201 241 177 87 
-0.801864 -1.75229 4.92121 139 138 134 
-0.664036 -1.51525 4.88274 218 170 148 
-2.08576 -0.0989046 6.15698 209 174 142 
-0.298253 0.088131 2.55544 154 55 60 
-1.40613 -1.68101 4.9241 234 95 137 
-2.00835 1.07698 4.84383 107 71 49 
-0.507897 -0.869703 4.19717 182 147 128 
-0.946746 -1.55974 4.96567 187 180 154 
-1.37567 -1.64589 4.92502 185 59 97 
0.212527 -0.225386 3.51476 182 134 98 
-3.3816 -1.91356 5.42711 118 118 130 
0.137052 -0.630768 3.9306 108 95 87 
0.515752 -0.216008 3.29521 165 59 0 
-3.38662 -2.00004 5.80039 43 49 63 
-1.4067 -1.80235 5.07056 37 5 20 
-1.3137 -1.86788 5.13271 170 70 108 
0.696287 -0.310942 3.18646 155 66 0 
-0.760873 -0.368622 3.6073 69 57 57 
-0.512013 -0.852482 4.23864 90 67 59 
-0.60396 -0.863007 4.22018 88 20 19 
-0.807379 -0.396 3.6421 167 163 164 
0.671813 -0.053896 3.24095 251 214 146 
-3.45783 -2.08974 6.36249 21 16 22 
0.476738 -0.212655 3.29532 249 209 147 
-0.50684 0.114047 2.61269 143 30 34 
-3.42506 -1.23256 5.34859 206 204 209 
-3.44668 -2.17627 6.20137 35 26 29 
-1.13548 -1.58701 4.94611 84 73 71 
-1.14208 -0.671157 3.9345 37 36 31 
0.395723 -0.666061 3.84852 188 143 137 
-0.396048 -0.762967 4.07952 11 9 10 
-3.47212 -1.68351 5.28711 194 192 195 
-0.522534 -0.802214 4.14321 99 74 52 
-0.463994 -0.804529 4.13395 225 194 173 
-0.599642 -0.824551 4.18667 255 218 210 
0.0131173 -0.987084 3.98059 131 126 130 
0.0669956 -0.827091 3.9559 177 175 176 
-0.590293 -0.901236 4.27407 161 112 107 
-0.831371 -0.82927 3.90735 233 231 234 
-0.55396 -0.911112 4.278 205 138 130 
0.163385 -0.194624 3.44206 183 129 93 
-0.88943 -1.54152 4.93957 91 29 30 
-1.05741 -1.53623 4.95468 236 143 76 
-3.40468 -1.38958 5.6918 33 27 29 
-3.39451 -1.37354 5.57495 26 19 26 
-1.06634 -1.14732 4.52987 243 178 210 
-0.921433 -1.176 4.5115 134 75 31 
-0.913791 -1.19006 4.52756 233 184 151 
-1.33853 -1.4486 4.74763 204 64 111 
-1.27822 -1.23924 4.59623 83 16 7 
-1.19677 -1.26059 4.65961 166 147 132 
-1.25381 -1.31947 4.68965 187 77 116 
-0.460883 0.0516372 2.59116 23 19 8 
-0.420265 -1.23688 4.44171 166 122 87 
-3.49778 -1.57562 5.44481 28 27 33 
-3.47723 -1.62977 5.61304 47 41 53 
-1.33383 -1.60163 4.95552 88 18 44 
0.497625 -0.185389 3.31677 238 180 57 
-0.768412 -0.945424 4.10141 231 48 50 
-0.709648 -1.77337 4.92145 121 120 116 
-1.0361 -1.60975 5.0176 82 34 0 
-0.967119 -1.21313 4.59619 255 181 196 
-2.78576 -1.04829 7.23107 112 83 51 
-2.02673 1.068 4.89519 136 102 74 
-2.03106 0.727281 5.24015 143 107 73 
-0.359429 -0.715861 3.94751 19 15 14 
0.323621 -1.02809 3.63542 244 241 222 
-0.420443 -0.132936 2.82907 203 167 167 
-1.07139 -1.15433 4.56135 239 180 212 
-3.45536 -1.5977 5.94502 29 26 33 
-0.00988721 -0.267811 3.59 228 214 203 
-3.4465 -1.51328 5.4956 35 42 52 
-0.373784 0.127752 2.54303 205 116 108 
-3.40424 -1.96358 5.82883 55 59 71 
-0.365437 0.134857 2.55058 161 14 24 
-3.4042 -1.95265 5.84134 39 43 55 
0.268187 -1.04987 3.71157 216 214 199 
-0.420908 0.0484006 2.59424 185 175 165 
-3.35451 -1.84238 5.5527 42 41 47 
-0.52288 -0.901748 4.24308 174 138 124 
-0.836129 -0.83185 3.93127 231 229 232 
-0.528521 -0.885557 4.24413 186 134 120 
-0.479946 -0.843123 4.19793 244 215 197 
-0.549422 -0.836258 4.18923 211 53 67 
-0.625386 -1.61806 5.02246 160 112 98 
-0.560219 -0.825388 4.18874 255 217 200 
-1.27029 -1.58961 5.00634 245 174 146 
-0.35324 -0.709719 3.99873 165 160 156 
-1.14392 -0.673376 3.94588 37 36 31 
0.432867 -0.183475 3.30196 189 98 7 
-3.49675 -1.69871 5.47617 44 43 48 
-3.46717 -1.70111 5.48471 41 36 42 
-1.00683 -1.55829 4.95059 115 113 92 
-3.40068 -1.70942 5.37739 134 127 134 
-3.37061 -1.43277 5.43098 71 61 62 
-0.592734 -1.58481 4.9593 27 0 0 
0.290908 -0.224567 3.15877 215 140 13 
3.14758 0.253946 5.50606 33 28 25 
-3.3991 -1.22318 5.30845 213 208 212 
-0.46056 -0.242852 2.9038 233 221 209 
-3.40373 -1.97338 5.97396 32 31 36 
-1.24449 -1.60223 5.00586 235 152 144 
-1.33111 -1.18263 4.50679 159 80 76 
-2.07927 0.160395 5.85663 118 83 55 
-1.36274 -1.43203 4.6371 115 20 50 
-0.983673 -1.20163 4.56375 254 175 207 
-3.21685 0.426895 5.67442 221 186 144 
-0.441405 -1.22947 4.43843 111 65 32 
-0.596675 -0.852363 4.20036 172 105 97 
-3.13066 1.64764 4.44397 122 87 47 
-0.391653 0.0232122 2.59928 71 62 53 
0.643219 0.0573553 3.12265 170 82 0 
-0.506102 0.100374 2.5881 117 53 53 
-0.632753 0.7123 5.75769 237 152 155 
-0.343802 0.128461 2.52241 142 70 73 
-0.349251 0.147759 2.52651 153 74 77 
-0.614084 -1.61231 5.01803 80 38 22 
-0.362527 -0.177953 2.84115 223 152 150 
-0.556443 -0.173421 2.88586 119 40 43 
0.395314 -0.160156 3.27448 142 103 38 
-0.609236 -1.59825 5.01626 65 50 43 
-1.19393 -1.5854 5.00131 87 48 31 
-1.1433 -1.57992 4.98413 208 205 198 
-0.878118 -1.57086 4.95574 222 205 189 
-0.968668 -1.5611 4.96959 147 143 114 
-1.01757 -1.55791 4.9718 152 150 137 
-0.395813 -1.53938 4.87388 122 112 103 
-1.06122 -1.55279 4.9825 58 31 10 
-0.484335 -0.689354 4.01751 114 83 54 
-1.15899 -1.53355 4.93319 221 210 192 
-1.01414 -1.54588 4.97986 124 101 83 
-0.560383 -0.763151 4.10736 250 167 161 
-0.438606 -0.783267 4.12283 106 87 80 
-0.548384 -0.786356 4.13351 183 154 140 
-0.575378 -0.789881 4.14303 246 207 190 
-0.527968 -0.79462 4.14014 127 94 77 
-0.582976 -0.800552 4.1461 176 118 114 
-0.537581 -0.80202 4.14198 188 156 145 
-0.599316 -0.810359 4.15672 239 185 175 
-0.623765 -0.811533 4.1708 129 83 67 
-0.539138 -0.814223 4.15942 119 71 57 
-0.455743 -0.816503 4.1615 207 184 178 
-0.492823 -0.826986 4.16359 148 116 105 
-0.587994 -0.83043 4.17678 255 173 176 
-0.907082 -1.47623 4.90308 193 145 122 
-3.02898 1.54382 4.55263 101 71 35 
-1.24908 -1.47288 4.91105 120 30 40 
-0.536735 -0.833959 4.17757 127 36 35 
-0.515695 -0.835447 4.17629 180 154 141 
-0.679013 -0.83555 4.19064 156 128 107 
-0.664554 -0.838943 4.19378 229 201 180 
-0.572287 -0.840885 4.18852 225 158 152 
-0.614263 -0.841908 4.20068 247 196 177 
-0.628217 -0.84062 4.19277 243 210 191 
-0.660489 -0.843565 4.20862 77 50 33 
-0.634296 -0.850978 4.20567 82 53 37 
-0.527376 -0.85931 4.20369 133 96 80 
-1.12497 -1.44388 4.87421 96 51 46 
-0.675476 -0.86269 4.21945 71 45 22 
-0.546704 -0.865598 4.22251 181 100 97 
-1.21764 -1.43955 4.8811 122 0 25 
-0.532538 -0.875852 4.23223 179 115 105 
-0.546849 -0.878827 4.24457 173 89 89 
-0.544734 -0.901708 4.26036 184 113 109 
-0.502918 -0.919185 4.27559 122 115 99 
-0.894081 -0.89673 3.9996 238 234 233 
-0.943864 -1.02099 4.41071 243 135 96 
-1.28344 -1.38242 4.79577 84 41 48 
-0.695293 -1.38324 4.77304 169 151 137 
-0.56323 -1.33645 4.57613 218 186 163 
-0.173284 -1.14903 4.51091 169 160 145 
-0.173915 -1.14837 4.48703 178 169 152 
-0.695751 -1.36918 4.75266 77 48 32 
-1.27206 -1.37033 4.80244 115 0 34 
-1.055 -1.19502 4.5848 174 113 131 
-1.22212 -1.19975 4.61175 201 94 122 
-0.883316 -1.23743 4.64965 102 60 38 
-1.22333 -1.23882 4.65815 95 49 51 
-1.22955 -1.24651 4.66451 186 171 140 
-1.27662 -1.30917 4.72908 80 12 13 
-1.20579 -1.311 4.73533 161 110 109 
-2.344 1.49697 4.58929 223 189 152 
-2.77586 1.62404 4.44888 151 113 77 
-0.826985 -1.30315 4.71919 109 64 43 
-0.889521 -1.55427 4.96337 98 67 47 
0.543217 0.0283813 3.15768 155 99 0 
0.53997 0.024371 3.1449 167 106 0 
-2.0668 1.61716 4.45281 166 131 103 
-1.16646 -1.27935 4.70512 105 42 50 
-2.32041 1.082 5.01174 104 64 39 
-1.03834 -1.52529 4.96016 110 88 41 
-0.88579 -1.56639 4.98938 201 181 157 
-2.26905 1.43769 4.61965 127 85 47 
-0.444946 -1.23043 4.47374 79 32 4 
-0.889995 -1.5613 4.95861 156 151 122 
-0.88252 -1.5471 4.95797 81 29 18 
-0.504786 -0.821543 4.17115 102 70 55 
-3.11588 1.55148 4.56264 146 108 71 
-1.2702 -1.22973 4.63609 77 9 0 
0.679268 -0.065625 3.23925 179 105 10 
-0.27753 -1.61177 4.82557 100 62 59 
-3.08557 1.63711 4.45174 210 174 138 
-0.333019 0.128958 2.53072 116 74 76 
-0.940976 -1.22557 4.62399 109 70 55 
-3.44806 -1.37811 5.66951 81 76 73 
-1.25335 -1.21548 4.62986 168 97 105 
-1.24601 -1.20395 4.61944 158 69 71 
-2.08162 1.47799 4.5894 115 75 40 
