ply                 
format ascii 1.0    
element vertex 1251
property float x    
property float y    
property float z    
property uchar red  
property uchar green
property uchar blue 
end_header          
-0.453584 0.180832 2.73997 242 153 155 
-1.16258 -1.52341 5.02342 55 31 7 
-0.222514 0.248643 3.25121 54 34 23 
-0.466881 -0.794043 4.26606 106 78 64 
-1.24439 -1.54129 5.03321 245 166 151 
-0.944537 -1.05119 4.54711 238 94 119 
-0.948439 -1.51521 4.98853 147 138 107 
0.11939 -0.323342 3.78195 79 42 16 
-0.669904 0.233923 3.28164 109 86 68 
-1.3175 -1.48663 4.9259 159 79 104 
-0.990325 -1.49703 4.99521 157 121 95 
-0.291804 -1.18278 4.4881 209 146 131 
-0.394737 -0.158387 3.05648 235 139 140 
-0.276841 -1.40634 4.7114 81 56 51 
-0.355596 0.635192 2.86976 134 121 105 
-1.3645 -1.53304 4.87106 223 102 143 
-3.24708 -1.35064 5.65467 37 35 38 
-0.614913 -0.842893 4.32858 105 27 25 
-3.22334 -1.34662 5.53409 47 43 44 
-0.621579 -1.56463 5.03676 160 112 98 
0.130667 -0.291974 3.74972 89 50 21 
-1.24287 -1.40894 4.90479 85 15 25 
0.0671831 -0.239971 3.70006 169 142 113 
0.122418 -0.232989 3.69298 78 33 4 
-0.527533 -1.32213 4.65644 218 182 160 
0.338008 -0.351274 3.7913 84 38 14 
0.172308 -0.327395 3.77924 167 134 103 
-0.510091 -1.32847 4.65855 228 195 176 
-1.15747 -1.32925 4.82402 134 37 68 
-3.30222 -1.60636 5.39493 141 141 143 
-1.36645 -1.48631 4.83109 192 92 128 
-0.48873 -0.902341 4.37536 16 9 1 
-0.372404 0.157251 2.73929 171 92 95 
0.732722 -0.115691 3.41626 145 96 0 
-0.329872 0.515561 2.98907 146 130 115 
-0.510731 -0.852762 4.32724 175 155 144 
-0.725637 -1.48806 4.97877 59 1 0 
0.165505 -0.194575 3.66295 145 109 87 
0.328035 -0.360716 3.80529 152 119 100 
-1.27432 -1.06975 4.53591 86 0 0 
0.173008 -0.333241 3.78974 161 127 115 
0.145488 -0.207686 3.66474 92 57 29 
0.171684 -0.315425 3.76953 154 119 99 
0.441929 -0.213158 3.49054 219 143 68 
0.160518 -0.242376 3.69915 169 134 114 
-1.05805 -1.50837 4.99677 107 42 20 
0.115114 -0.292085 3.74998 92 51 23 
-0.785883 -1.09638 4.42593 63 17 0 
0.0681195 -0.258844 3.72166 127 105 91 
-1.25816 -1.40918 4.91182 92 22 22 
0.678311 -0.254597 3.40509 141 54 0 
0.11827 -0.285328 3.74385 153 131 108 
0.126036 -0.285273 3.74371 146 121 99 
-0.492658 -0.794152 4.26516 190 162 151 
-1.17089 -1.15307 4.66201 203 74 79 
0.23069 -0.309256 3.75733 109 67 42 
0.0789185 -0.335653 3.79239 154 128 111 
-0.993094 -1.05473 4.54506 172 0 13 
-0.479964 -0.90232 4.37575 114 111 102 
-0.451501 -0.13718 3.03882 215 159 158 
-0.47617 -0.138672 3.03895 225 168 161 
-0.996625 -1.51237 4.99229 151 156 136 
-0.476016 -0.906005 4.38022 20 13 3 
-0.646349 -0.884747 4.36564 60 31 13 
-0.601382 -0.887329 4.369 133 84 77 
-0.595434 -0.853789 4.33337 82 42 30 
-0.0746054 -0.845021 4.12724 144 139 119 
-0.613212 -0.906327 4.38729 176 125 108 
-0.115538 -0.850845 4.13382 158 150 127 
-0.49932 -0.83978 4.31071 90 62 48 
-0.612537 -0.839851 4.31708 102 23 19 
-0.504134 -0.833073 4.29832 199 173 158 
-0.622778 -0.837029 4.32468 253 189 177 
-0.637777 -0.832761 4.31311 238 210 189 
-0.55178 -0.801966 4.27835 89 61 50 
-0.643925 0.231584 3.28777 85 62 46 
-0.945138 -1.05259 4.54366 250 101 139 
0.377077 -0.66469 4.02976 193 124 117 
-0.597433 -1.5451 5.02034 21 2 0 
-0.607295 -1.543 5.02126 117 99 85 
-0.865838 -1.51848 4.98383 231 225 203 
0.581555 -0.314843 3.42904 188 157 113 
-0.299768 0.0904706 3.40683 85 70 49 
-0.30584 0.0890573 3.41344 74 62 40 
0.576304 -0.311543 3.43052 71 41 0 
0.587461 -0.308215 3.43032 105 77 27 
-3.30121 -1.62118 5.38864 61 59 60 
0.11816 -0.322968 3.78256 85 50 28 
0.194871 -0.321599 3.77349 78 32 9 
-3.23313 -1.38172 5.43217 143 141 146 
0.138557 0.0192489 3.46167 99 84 65 
-0.950082 -1.22733 4.71906 205 142 88 
0.0684704 -0.255709 3.71804 166 136 112 
-0.94942 -1.24018 4.74092 40 26 0 
-1.24329 -1.40995 4.90511 87 25 26 
0.161428 -0.241007 3.70545 171 134 107 
0.200809 -0.222291 3.68114 176 141 113 
-1.18102 -1.28182 4.77478 167 111 114 
0.337177 -1.0159 3.82259 26 18 5 
-0.462252 -0.126381 3.03915 99 57 59 
0.388505 -0.155031 3.48405 106 67 0 
-0.483445 -0.137258 3.03884 133 49 49 
-0.435991 -0.139205 3.04953 234 167 158 
-0.442694 -0.139823 3.03882 117 59 58 
-1.2738 -1.06946 4.53844 66 0 0 
-0.488879 -0.903619 4.37882 19 12 2 
0.770999 -0.126125 3.32863 239 178 85 
-0.785541 -1.09503 4.42201 65 19 0 
-3.31374 -1.62281 5.41113 69 67 68 
0.510604 -0.212063 3.50538 151 54 0 
0.678877 -0.254348 3.41172 141 54 0 
0.472654 -0.25748 3.46936 174 110 13 
0.672052 -0.246913 3.42409 136 62 0 
-3.27731 -1.40577 5.31965 116 114 115 
-0.511135 -0.865893 4.33178 170 156 143 
-0.329435 0.514336 2.98682 133 117 102 
0.0624326 -0.202369 3.67036 163 132 112 
-0.510021 -0.852703 4.33148 174 156 144 
-0.455306 -1.21766 4.56666 95 50 19 
0.536312 -0.181103 3.51905 193 125 14 
-1.21782 -1.16881 4.67397 151 14 8 
0.452346 -0.226442 3.48999 181 116 16 
-0.0762768 -0.844794 4.1239 110 105 83 
-0.600329 -0.887564 4.36922 179 135 126 
-0.632662 -0.84786 4.32591 174 146 125 
-0.614242 -0.841924 4.32265 105 27 25 
-1.22137 -1.22795 4.71335 176 153 135 
-0.504949 -0.832484 4.30548 226 198 184 
-0.474865 -0.82451 4.29175 89 70 56 
-1.1877 -1.26283 4.74971 192 168 140 
-1.25161 -1.35695 4.84239 188 148 140 
0.575685 -0.312162 3.42858 71 41 0 
-0.621243 -1.56589 5.03743 148 109 94 
-0.469182 -0.150231 3.03444 223 121 119 
-0.442232 -0.139505 3.04033 116 62 62 
-0.473215 -0.121643 3.04321 133 58 63 
-0.6018 -1.56684 5.05042 91 6 0 
-0.473018 -0.139399 3.03639 114 53 50 
-0.677564 0.240215 3.28016 81 55 38 
0.445089 -0.182606 3.50376 247 186 93 
0.474678 -0.163633 3.50325 97 45 0 
-0.489127 -0.119967 3.04666 192 87 91 
-0.609971 -1.54985 5.024 136 119 101 
-0.777584 -1.09686 4.41803 73 28 0 
0.0651157 -0.22477 3.68637 172 134 98 
0.511126 -0.211951 3.50748 151 54 0 
-0.50954 -0.908935 4.37415 140 123 115 
-1.32035 -1.49231 4.93485 193 90 120 
-0.536175 -0.908523 4.38312 156 103 97 
-0.987303 -1.49459 4.97977 124 102 79 
-1.02442 -1.4879 4.97599 226 161 107 
-3.29698 -1.62014 5.37925 107 105 106 
-0.554276 -0.899066 4.3757 204 130 127 
-0.583258 -0.893136 4.36987 59 6 0 
0.118236 -0.286775 3.7385 153 117 85 
-3.293 -1.60038 5.37758 136 136 138 
0.167088 -0.299113 3.75571 178 131 101 
-1.25668 -1.22173 4.70996 201 117 133 
0.169324 -0.313126 3.76219 174 130 103 
0.220935 -0.320085 3.76808 86 44 28 
0.194818 -0.322787 3.76942 101 51 24 
0.327667 -0.358935 3.79819 152 119 100 
-1.17518 -1.23749 4.72964 163 144 130 
-3.29095 -1.59585 5.54045 65 63 64 
0.616856 -0.343179 3.41451 118 66 18 
-1.24416 -1.36891 4.86351 91 35 38 
-0.299889 0.0913968 3.40908 89 74 53 
-0.508505 -0.687006 4.16199 123 92 63 
-1.17128 -1.15229 4.65861 217 74 80 
0.471284 -0.25698 3.46993 169 99 3 
-0.513296 -0.867582 4.33795 173 155 141 
-0.510875 -0.123263 3.05763 241 163 159 
-0.507222 -0.841812 4.31228 84 61 47 
-0.782414 0.509604 3.02487 65 48 38 
-0.455071 -0.130692 3.04326 102 56 58 
-0.45538 -0.122206 3.04473 224 164 164 
-3.27781 -1.59192 5.51816 47 46 51 
-0.625131 -0.882104 4.36904 66 35 17 
-3.30112 -1.60529 5.38843 184 184 182 
-1.03433 -1.50571 4.99179 56 41 20 
-0.949758 -1.51457 4.98863 147 138 107 
-1.01729 -1.54945 5.00777 189 114 75 
0.441257 -0.214675 3.48345 241 180 117 
0.445743 -0.181696 3.50843 247 190 103 
0.167865 -0.190741 3.64941 182 137 114 
-1.17758 -1.23609 4.73413 175 154 137 
-0.557919 -0.878838 4.35543 207 133 130 
-0.507947 -0.907836 4.37657 144 131 123 
0.170494 -0.210298 3.66834 178 129 97 
0.0664921 -0.243258 3.70831 168 137 109 
0.731994 -0.158245 3.41682 151 88 0 
-0.645004 0.233255 3.2891 104 81 65 
-0.895825 -1.42466 4.92517 150 62 58 
-2.66721 -1.21255 7.03262 112 72 36 
-1.07702 -1.5405 4.99277 87 77 68 
0.18117 -0.298085 3.75388 171 126 93 
-0.504382 -0.850021 4.32701 176 162 151 
-0.537071 -0.875214 4.338 180 110 102 
-0.563166 -0.878968 4.35667 208 141 133 
-0.437559 -0.14212 3.03594 218 154 145 
-0.462599 -0.121849 3.04654 125 48 54 
-1.06869 -1.08904 4.59113 86 4 16 
-0.991792 -1.48406 4.96418 74 50 24 
-1.24829 -1.4093 4.90504 81 28 24 
0.277228 -0.221779 3.33159 208 134 1 
-0.888846 -1.43582 4.93239 210 142 123 
0.465165 -0.202552 3.50446 241 177 87 
0.17008 -0.210716 3.6664 174 130 103 
-0.518788 -0.866771 4.33445 182 147 128 
-0.512933 -0.840444 4.28625 48 26 13 
-0.665359 -1.53251 5.00754 184 86 49 
-0.456499 -0.135942 3.0416 120 44 54 
-0.487003 -0.809231 4.2859 90 61 43 
-3.22716 -1.32929 5.53524 26 19 26 
-1.03558 -1.51045 5.01143 61 55 31 
-0.51792 -0.139437 3.04321 189 104 99 
-0.956751 -1.3338 4.78752 159 126 121 
-3.27422 -1.55694 5.51759 47 41 53 
-1.23372 -1.32469 4.81835 84 0 23 
-1.9433 -0.131875 5.9832 206 173 140 
0.0814523 -0.336041 3.79634 166 138 117 
0.676225 -0.255796 3.40588 150 67 0 
-0.477396 -0.131294 3.04599 212 170 171 
-3.2524 -1.53051 5.84835 29 26 33 
-3.22683 -1.34256 5.63311 34 29 33 
-0.439185 -0.142289 3.04364 214 154 146 
-0.489581 -0.24997 3.12488 224 214 205 
0.137825 0.0170993 3.46209 108 92 76 
-0.466301 -0.814038 4.29473 210 196 187 
-0.690103 -1.76988 5.02117 209 206 197 
0.337397 -1.03295 3.84994 160 148 136 
0.695007 0.00613628 3.37995 183 129 41 
-0.418112 0.0289023 2.82572 78 68 59 
0.669776 -0.0646396 3.44365 253 206 152 
-0.415156 0.0419625 2.81319 48 35 27 
0.772948 -0.119591 3.33733 120 44 0 
-0.43824 0.0805144 2.77864 131 121 109 
-0.303576 0.0900571 2.80185 87 18 21 
-0.442158 -0.126094 3.05242 156 92 92 
-0.717614 -1.77966 5.02441 103 101 89 
-0.688451 -1.74753 5.00218 174 175 170 
-0.698502 -1.73633 4.9902 168 167 165 
-0.407741 -0.133146 3.04952 255 131 136 
-1.20471 -1.77955 5.12248 210 171 176 
-1.18873 -1.7671 5.09259 227 191 193 
-0.400086 -0.136937 3.05838 254 144 147 
-0.312378 0.101708 2.78326 88 19 12 
-0.300222 0.103824 2.79776 237 149 147 
-0.415434 -0.141805 3.05077 247 143 140 
-0.796676 -1.6831 4.94715 97 94 87 
-0.490321 -1.75382 5.19903 251 203 203 
-0.756669 -1.66346 4.93013 167 164 159 
-0.386913 -0.144545 3.06197 245 151 151 
-0.505272 -0.149852 3.03675 169 79 78 
-0.373459 -0.153841 3.0736 255 141 150 
-0.411405 -0.154813 3.05351 135 50 47 
-0.385676 -0.157605 3.06586 241 146 154 
-0.419134 -0.15639 3.04573 227 123 122 
-0.312389 0.114344 2.7726 200 111 117 
-0.366779 -0.159901 3.08292 238 138 140 
-0.376665 -0.158096 3.05753 147 55 60 
-1.23438 -1.7055 5.18176 240 221 215 
-0.396966 -0.163031 3.0649 136 61 58 
-0.396812 -0.166149 3.0489 220 150 148 
-0.310477 0.121268 2.78396 238 162 164 
0.158408 -0.213078 3.68872 173 141 116 
-0.367658 -0.169118 3.07555 108 27 26 
-0.302982 0.127209 2.78913 229 128 134 
0.0645586 -0.222749 3.69054 162 134 113 
-0.329362 0.13254 2.75835 196 106 105 
-0.370065 -0.183324 3.078 103 28 22 
-0.345566 0.139045 2.74787 245 144 150 
-0.333417 0.140447 2.76903 163 95 96 
-1.30973 -1.61159 5.08592 182 89 120 
0.173965 -0.252549 3.71881 156 128 107 
-0.390261 0.148185 2.7344 130 42 41 
-0.0307543 -0.270205 3.74499 222 206 193 
-0.372214 0.155059 2.73938 185 106 111 
-0.348325 0.157536 2.75501 116 70 72 
-1.39516 -1.51868 4.86497 116 42 65 
0.167371 -0.279372 3.7446 165 129 107 
-0.454699 0.167997 2.73535 123 52 56 
-0.495137 0.169367 2.75893 228 175 171 
-0.374906 0.172514 2.74124 135 63 66 
-0.466424 -0.250093 3.11574 255 249 236 
0.521211 -0.283591 3.46198 131 47 0 
-0.470176 0.232563 2.79761 122 62 61 
-0.914384 -1.5179 4.98876 114 114 88 
-0.504324 -0.298511 3.16424 212 203 186 
-0.618955 0.256394 3.26604 67 38 34 
-0.98924 -1.51815 4.99368 115 113 92 
-0.629499 0.257283 3.26355 63 34 28 
-1.15257 -1.52223 5.01929 172 150 137 
-0.530812 -0.591365 3.98126 65 54 48 
0.155737 -0.647221 4.09423 132 128 119 
-1.1742 -1.51746 5.02055 69 27 13 
-0.617571 -0.639148 3.91238 238 236 239 
-0.50089 -0.684177 4.16693 195 163 138 
-0.568707 0.347816 3.15757 62 32 24 
-1.13201 -1.48493 4.95366 221 205 192 
-0.571389 0.351613 3.17747 69 39 29 
-0.421214 -0.742452 4.13669 55 48 42 
-0.570315 -0.77128 4.26812 249 160 156 
-0.56875 -0.782918 4.26751 106 69 51 
-0.587486 -0.782985 4.26697 141 60 59 
-0.579437 -0.787109 4.27332 94 62 51 
-0.488911 -0.793083 4.277 91 62 48 
-0.584449 -0.794796 4.28194 91 51 43 
-0.541284 -0.801945 4.29783 104 73 55 
-0.59265 -0.802101 4.28878 159 99 91 
-0.605717 -0.801855 4.28709 113 34 37 
-0.563512 -0.808474 4.29206 95 67 53 
-0.475105 -0.822528 4.30627 133 107 92 
-0.503335 -0.824068 4.30574 149 113 97 
-0.59828 -0.828334 4.31666 254 165 169 
-0.890164 -1.43553 4.92519 180 127 111 
-0.636485 -0.837737 4.32508 241 210 192 
-0.522484 -0.838311 4.30912 227 200 193 
-0.616577 -0.84834 4.35573 102 23 19 
-0.490573 -0.840985 4.31598 153 124 108 
-0.642611 -0.847821 4.33771 94 64 53 
-0.655793 -0.847551 4.33596 78 49 31 
-0.676254 -0.848594 4.33309 41 18 2 
-0.570433 -0.850775 4.33263 69 28 22 
-0.648813 -0.855018 4.35068 181 152 138 
-0.595109 -0.85649 4.34565 93 55 42 
-0.625718 -0.858141 4.35252 72 35 16 
-0.682702 -0.858785 4.34616 75 46 28 
-0.604301 -0.860325 4.34158 193 123 123 
-0.818994 -0.811359 4.06259 148 146 147 
-0.633747 -0.877784 4.36736 164 148 125 
-0.620398 -0.88248 4.36865 71 32 15 
-0.60058 -0.886632 4.36745 179 132 124 
-1.09788 -1.40324 4.88992 89 41 37 
-0.552222 -0.895729 4.37647 199 119 120 
-0.0844849 -0.845026 4.13261 143 138 116 
-0.116008 -0.84998 4.14142 152 144 121 
-0.12597 -0.851187 4.14008 148 140 117 
-0.505597 -0.908919 4.38374 117 107 97 
-0.512011 -0.91299 4.39479 140 123 115 
-0.462959 -0.913911 4.38664 140 115 111 
-0.471127 -0.918177 4.39973 45 27 23 
-0.833892 -0.86823 4.12345 125 120 124 
-1.10823 -1.38702 4.88653 145 69 82 
2.21441 0.618603 3.84767 60 62 48 
-0.565839 -1.31057 4.64407 235 198 172 
-0.652085 -0.967275 4.2915 159 8 17 
-0.658324 -0.975349 4.31336 218 66 78 
-1.14581 -1.01908 4.47359 192 181 177 
-1.01218 -1.03753 4.52914 207 70 77 
-1.07017 -1.05862 4.55737 202 118 131 
-0.569451 -1.11067 4.49157 140 83 30 
-0.692671 -1.33997 4.81331 65 36 18 
-1.20494 -1.17911 4.68694 161 68 89 
-3.22448 -1.39279 5.42337 71 61 62 
-1.19958 -1.21455 4.71249 84 45 40 
-1.25477 -1.21857 4.70143 201 117 133 
-1.06545 -1.20313 4.61144 102 91 85 
-3.27816 -1.44755 5.46742 85 76 81 
0.305782 -1.05912 3.88025 132 129 120 
-0.948521 -1.23897 4.73757 40 26 0 
-1.24551 -1.33953 4.85049 118 0 34 
0.312033 -1.04556 3.8415 251 248 229 
0.319738 -1.04952 3.85592 186 184 163 
-0.919392 -1.25621 4.7478 22 28 0 
-1.1895 -1.2663 4.77246 156 140 117 
-0.86642 -1.51776 4.99534 203 185 165 
-0.522376 -0.778181 4.25977 151 162 148 
0.0609783 -0.201745 3.66615 160 134 119 
-0.419497 -0.13098 3.04839 214 105 108 
-0.980316 -1.2896 4.70785 199 149 142 
0.340945 -1.03302 3.84043 237 224 215 
-0.516252 -0.78535 4.26702 218 215 206 
-0.673742 -1.5291 5.00303 65 13 0 
0.386101 -1.03764 3.82453 122 112 100 
-0.931084 -1.27957 4.75559 57 83 74 
-0.443741 -0.256538 3.12662 193 181 169 
-0.448412 -1.22073 4.58755 78 29 0 
-0.876209 -1.51881 4.99289 154 146 125 
-3.75364 -2.75078 8.49086 174 169 163 
-0.891103 -1.44776 4.93813 78 32 17 
-0.311407 0.336828 2.94358 197 144 128 
-1.15548 -1.5341 5.02513 245 219 204 
-1.19781 -1.24298 4.73995 83 61 38 
-0.987952 -1.29458 4.70173 174 116 114 
0.778907 -0.117692 3.36447 114 24 0 
-1.36544 -1.48695 4.83373 182 85 120 
-0.320745 0.134675 2.77138 199 89 92 
-0.388738 -1.19213 4.61805 103 49 37 
-0.388191 -1.19474 4.64063 167 105 94 
-0.554332 -0.848177 4.33505 130 42 38 
0.385058 -0.67523 4.0464 116 99 92 
0.55891 -0.27515 3.46648 122 24 0 
-1.2388 -1.1927 4.68942 63 9 0 
0.352651 -0.310283 3.42375 116 75 43 
-0.530938 -1.34108 4.66779 211 180 159 
-1.11005 -1.41354 4.90769 61 21 19 
-1.29566 -1.61893 5.08138 75 22 30 
-0.0476313 -1.14672 4.59949 249 242 234 
-0.512389 -0.867959 4.35317 160 150 140 
-1.17395 -1.16982 4.67052 92 1 16 
-0.641225 -0.869838 4.3501 127 99 77 
-0.662525 -0.689157 3.92462 179 174 178 
-0.672097 -0.874025 4.36254 100 73 54 
-0.783374 -1.09442 4.41527 63 17 0 
-0.645488 -0.880469 4.36544 133 106 87 
-0.404875 -1.52202 4.95338 173 144 146 
-0.296285 -1.52839 4.83674 86 39 33 
-0.727266 -1.52981 5.0155 109 65 56 
-1.30753 -1.84116 5.18559 225 135 161 
-0.312271 -1.0243 4.24435 156 154 155 
-0.604877 -1.59282 5.05412 82 46 48 
-0.601686 -0.673533 3.91576 233 231 234 
-0.294952 0.0831376 2.81795 225 123 119 
-0.297379 -1.51573 4.82314 133 99 90 
-0.572037 -1.59307 5.07206 113 103 94 
0.154697 -0.635827 4.06853 173 164 155 
-0.491314 -0.904438 4.38384 11 4 0 
-0.999506 -1.51711 5.0125 132 137 117 
-3.29507 -1.49745 5.27886 66 63 74 
-1.02259 -1.49132 4.99442 208 160 114 
-0.292348 -1.50368 4.81164 85 45 37 
-1.27575 -1.07018 4.5409 86 0 0 
-3.25123 -1.35067 5.65741 63 59 60 
-1.01779 -1.55773 5.0373 180 121 81 
0.133009 -0.951526 4.12474 139 134 138 
-0.994549 -1.05563 4.55377 172 0 3 
-3.25556 -1.33917 5.69806 85 74 72 
0.07088 -0.272126 3.74303 139 113 96 
-0.952468 -1.04867 4.54564 223 65 80 
-0.704244 -1.80983 5.05113 149 129 131 
-1.14283 -1.0325 4.48407 117 108 101 
-1.05972 -1.04319 4.54545 171 73 72 
-0.724587 -1.48639 4.97417 59 1 0 
-1.00683 -1.03136 4.52336 134 0 7 
-1.05741 -1.50971 5.00353 114 58 33 
-0.6323 -1.563 5.04722 108 52 53 
-0.868786 -1.50697 4.99931 78 27 24 
-0.467048 -0.0762741 3.08062 189 85 84 
-0.986541 -1.48536 4.98755 170 138 113 
-0.680579 -0.877569 4.37174 88 63 41 
-0.357859 0.166146 2.7518 186 115 119 
-0.87335 -0.899783 4.14223 165 153 157 
-1.14409 -1.34725 4.85178 92 52 61 
-0.967484 -1.59692 5.10253 167 34 3 
-0.294577 -1.56678 4.85784 59 36 30 
-0.438929 -1.60933 5.07699 103 42 49 
-0.304535 0.349011 2.97967 110 116 80 
-0.89595 -1.05502 4.54142 129 4 10 
-0.250118 -1.01225 4.22705 162 157 161 
-0.430548 -1.58578 5.05257 146 100 87 
0.0975759 -0.98996 4.18178 144 140 141 
-1.40072 1.44787 4.56293 201 158 123 
-1.19057 -1.56104 5.06667 180 71 77 
-1.2367 -1.34661 4.83442 159 55 78 
-1.20829 -1.23516 4.72253 174 144 120 
-0.589539 -0.908471 4.39945 180 128 115 
-0.596534 -1.56558 5.04473 113 0 1 
-0.499026 -0.682495 4.1508 159 127 102 
-0.609483 -0.850622 4.34819 156 91 85 
-0.606083 -0.868343 4.36434 193 119 118 
-0.538602 -0.8556 4.3398 182 139 133 
-0.635386 -0.852292 4.34747 174 146 125 
-0.628479 -0.84498 4.3288 83 50 31 
-0.648979 -0.887015 4.37459 50 23 4 
-0.816889 -0.82876 4.07573 74 74 76 
-0.584295 -0.840654 4.31784 246 208 197 
-0.587776 -0.89403 4.38458 77 18 14 
-0.546498 -0.839323 4.32072 251 174 164 
-0.480537 -0.840984 4.3316 235 223 211 
-0.505297 -0.832908 4.31701 230 201 187 
-0.668602 -0.906765 4.40757 162 140 119 
-0.598266 -0.817726 4.30094 149 87 90 
-0.576106 -0.815992 4.30115 114 65 58 
-0.861374 -0.854802 4.07757 136 135 133 
-0.63155 -0.80835 4.2974 121 83 64 
-0.546332 -0.804494 4.28896 227 193 183 
-0.460263 -0.795195 4.27203 211 182 168 
-0.556638 -0.782123 4.25561 187 159 147 
-0.510221 -0.689489 4.18125 117 86 57 
-0.689673 -1.77397 5.03268 204 201 192 
-1.19687 -1.77662 5.13107 255 245 240 
-0.936322 -1.19545 4.69066 87 24 0 
-0.35767 -0.204875 3.0919 104 4 4 
-0.954684 -1.23498 4.75124 217 146 84 
-0.380755 -0.174467 3.06674 242 168 167 
-0.375415 -0.165322 3.06537 238 162 164 
-1.15526 -1.25819 4.76004 165 139 122 
-1.24149 -1.269 4.76862 93 3 13 
-1.24639 -1.30219 4.80348 87 10 28 
-1.25834 -1.35383 4.85259 102 47 50 
-1.2584 -1.36476 4.87712 200 160 152 
-1.10034 -1.3831 4.88152 92 26 30 
-0.416631 0.0436453 2.82498 56 45 39 
-3.35168 -1.5689 5.29938 52 47 53 
-3.36235 -1.57899 5.28867 53 51 56 
-0.378668 0.169753 2.73145 131 41 41 
-1.03657 -1.50806 5.00303 58 36 12 
-0.490819 -1.5297 4.97968 89 62 53 
-1.1666 -1.54173 5.02935 84 35 28 
-0.824011 -0.854939 4.09491 133 131 136 
-0.862149 -1.5202 4.96019 234 216 194 
-0.709599 -1.79262 5.03178 199 195 192 
-0.607424 -0.843652 4.33175 225 148 142 
-1.24237 -1.54014 5.02879 245 166 151 
-0.419458 -0.740937 4.12658 55 48 42 
0.147585 -0.632209 4.08976 123 113 104 
-0.94514 -1.05224 4.55137 238 94 119 
-3.22711 -1.31708 5.53511 73 61 61 
-0.623167 -0.873725 4.36437 99 62 43 
-0.94907 -1.51665 4.99307 147 138 107 
-1.10539 -1.38403 4.87135 111 43 54 
-1.03688 -1.55044 5.05382 158 144 117 
-0.386503 0.174548 2.74275 121 36 31 
-1.31807 -1.48872 4.93208 159 79 104 
0.148904 -0.232043 3.70164 77 40 14 
-1.2202 -1.24634 4.73619 216 172 147 
-0.291701 -1.18305 4.48893 209 146 131 
-0.278526 -1.41302 4.7339 81 56 51 
-0.406224 -0.156638 3.03291 205 129 129 
-0.381952 0.150306 2.74129 241 137 136 
-0.350789 0.149342 2.74583 124 78 78 
-1.23732 -1.32433 4.81127 209 95 131 
-1.24147 -1.33506 4.83551 118 0 34 
-0.324978 0.147536 2.76277 216 112 113 
-0.517928 0.0596415 2.83268 115 104 84 
-0.30421 0.0717103 2.81026 221 144 138 
-0.323083 0.147841 2.7769 145 36 41 
0.0775287 -0.316241 3.78609 163 132 101 
-0.470597 -0.910123 4.37823 86 73 65 
-0.507286 -0.919065 4.41059 18 0 0 
-1.3656 -1.534 4.87431 223 102 143 
-0.559219 -0.774663 4.2625 192 118 105 
-3.36343 -1.92998 5.44202 154 154 166 
-3.23588 -1.35117 5.55384 47 43 44 
-0.620804 -1.56473 5.03647 160 112 98 
-1.16409 -1.13265 4.61878 93 0 0 
-1.21707 -1.17367 4.66541 208 95 91 
-1.24253 -1.40895 4.90466 85 15 25 
0.236932 -0.225013 3.69819 169 134 114 
-0.985319 -1.49514 4.9748 100 85 64 
0.309345 -1.0355 3.84764 183 179 167 
-0.487874 -1.53979 4.98606 126 98 87 
-1.23499 -1.31557 4.80131 136 28 60 
-0.98133 -1.32146 4.75183 142 82 81 
-0.606515 -1.5427 5.02565 114 90 80 
-0.645611 -0.654582 3.89338 112 110 115 
0.337821 -0.351446 3.7935 84 38 14 
-1.30528 -1.60696 5.06756 137 63 88 
-1.17771 -1.27964 4.76574 186 123 131 
-1.23927 -1.24363 4.7468 147 55 78 
-1.15849 -1.33055 4.82872 134 37 68 
-1.01091 -1.03571 4.51071 153 38 41 
-1.39182 -1.48848 4.83736 93 43 54 
-0.613504 -0.9062 4.38964 175 126 109 
-0.597944 -1.62811 5.1044 147 72 79 
-0.310155 0.382891 2.99632 218 142 146 
-0.826617 -0.897866 4.15047 146 136 137 
-0.990321 -1.28939 4.69234 166 112 110 
-0.676298 -0.8867 4.37266 78 51 30 
-0.330479 0.516851 2.99942 146 130 115 
0.344193 -1.03216 3.82483 132 119 111 
-0.37486 -0.700299 4.13995 57 50 44 
-0.371288 -0.699816 4.1656 142 135 127 
-3.35053 -1.57626 5.20681 203 198 205 
-0.452891 0.41432 2.96853 144 58 59 
-0.297163 -1.52687 4.82663 70 29 25 
0.347953 -0.0653799 3.4502 184 122 45 
-0.687467 -1.71507 4.9704 153 150 141 
-0.417856 0.165137 2.74342 249 127 122 
-0.676736 -0.854489 4.3041 169 141 119 
-0.934235 -1.28731 4.78576 68 98 88 
0.6768 -0.0605275 3.44944 184 100 2 
-1.17916 -1.39716 4.9078 149 14 57 
-0.540373 -1.36352 4.70534 242 213 195 
-0.447558 -1.21838 4.57411 77 31 0 
-0.510479 -0.853282 4.32935 175 155 144 
-1.23052 -1.69794 5.1352 227 194 201 
-1.11469 -1.39461 4.89302 99 18 37 
0.172915 -0.332842 3.78583 161 127 115 
-1.06273 -1.42599 4.92666 143 74 33 
-1.13926 -1.36901 4.88111 159 80 101 
-0.682287 -1.72762 4.98269 143 143 135 
-1.2019 -1.28789 4.78773 155 129 112 
-0.447627 -0.24002 3.08675 255 250 233 
-1.17497 -1.20531 4.70666 83 11 33 
-0.514213 0.0563636 2.80919 157 146 128 
-1.18522 -1.21207 4.71853 148 90 102 
-0.569415 -1.10872 4.48046 152 95 42 
-0.688654 -1.70135 4.954 82 78 77 
-1.2327 -1.19485 4.70264 188 105 113 
-0.485696 0.189902 2.76623 188 123 117 
-0.619342 -1.54846 5.0305 29 9 0 
0.0845544 -0.280623 3.75766 91 56 34 
0.435936 -0.231364 3.48479 171 100 8 
-0.0497444 -1.1498 4.61297 251 244 236 
-1.23763 -1.2029 4.69539 171 127 102 
-0.451087 -0.0653358 3.09142 190 92 91 
-1.32079 -1.60398 5.05742 166 74 97 
-1.16969 -1.15231 4.65869 203 74 79 
0.772711 -0.0722461 3.28395 155 70 0 
-3.2956 -1.41399 5.34955 124 123 121 
-1.18135 -1.50982 5.02579 205 108 119 
-0.872366 -1.30787 4.79807 123 115 94 
-3.18179 -1.90183 5.81648 61 56 60 
-0.861867 -1.49592 4.99511 205 132 113 
-0.728479 -1.53373 5.02728 109 65 56 
-3.21772 -2.12557 5.96149 29 26 33 
-0.912775 -1.35945 4.86019 37 56 36 
-0.452453 -1.20765 4.53393 77 32 3 
-0.992101 -1.05394 4.54153 172 0 13 
0.266018 -0.172342 3.30015 181 109 0 
0.537736 -0.182127 3.53376 193 125 14 
-0.582466 -0.644324 3.91149 149 146 153 
-0.482416 -0.906985 4.39759 114 111 102 
-1.25986 -1.41207 4.88083 222 131 140 
-2.18284 -0.0127981 5.93516 233 199 162 
-0.446417 -1.6015 5.07781 143 93 82 
-3.24489 -1.38382 5.476 125 123 137 
-0.439385 0.0583274 2.77501 255 252 240 
-0.360466 -0.191128 3.08833 93 4 0 
-1.15788 -1.15173 4.654 128 21 51 
2.2149 0.61625 3.83559 238 242 228 
-0.998947 -1.51552 5.00281 151 156 136 
-0.703453 -1.78338 5.02362 107 102 96 
-0.720334 -1.78475 5.03439 90 86 77 
-0.659929 -1.77268 5.00861 160 156 155 
-0.602646 -0.888916 4.37675 133 84 77 
-0.591171 -0.882521 4.36774 200 160 152 
-0.694241 -1.75809 5.00861 88 87 82 
-3.22803 -2.05529 5.80778 58 56 67 
-0.818232 -0.819718 4.06978 219 219 221 
-0.55744 -0.881237 4.37318 212 134 132 
-0.555505 -0.859371 4.32963 201 132 127 
-0.628243 -0.860024 4.36162 66 31 11 
-1.20616 -1.78377 5.13553 235 199 203 
-3.2256 -2.06058 5.90633 51 45 55 
-0.650892 -0.902552 4.37838 152 126 103 
-0.734857 -1.6873 4.94586 178 174 165 
-0.527544 -0.843598 4.33834 227 200 193 
-0.479661 -0.839897 4.3209 233 223 211 
-0.50931 -0.826806 4.2976 91 62 48 
-0.599791 -0.827007 4.30618 255 198 195 
-0.894425 -0.76844 4.01436 145 145 145 
-0.459468 -0.80917 4.2858 90 79 77 
-0.547891 -0.794399 4.27151 93 75 63 
-0.557786 -0.782143 4.27449 248 211 193 
-0.477121 0.183947 2.75422 219 151 152 
-0.645911 -0.971975 4.30286 242 106 130 
-0.671232 -0.694757 3.9371 130 128 131 
-1.14419 -1.01602 4.45813 168 161 151 
-3.21172 -1.2848 5.51217 65 55 56 
0.377443 -0.665929 4.03697 193 124 117 
-0.611963 -0.638159 3.87492 126 124 129 
0.175915 -0.656822 4.08037 75 64 58 
0.150015 -0.630054 4.04081 42 35 25 
-1.09705 -1.5571 5.04686 225 214 210 
-0.0252109 -0.97292 4.16514 124 122 123 
-0.784831 -0.575865 3.9131 157 154 147 
-0.867824 -1.52926 4.99477 244 232 210 
-0.941412 -1.52347 4.98199 246 247 231 
-0.882687 -1.52516 4.98841 246 244 231 
-1.1649 -1.52464 5.0287 56 30 5 
-3.37204 -1.5834 5.18432 110 106 120 
-3.33956 -1.27734 5.1614 107 102 108 
0.582537 -0.315946 3.43993 188 157 113 
-0.877736 -1.09475 4.48802 255 231 212 
-3.36216 -1.58052 5.2264 208 203 209 
-1.16666 -1.13481 4.6323 90 0 0 
-0.471132 -0.256115 3.1235 246 243 228 
-1.21364 -1.17069 4.67288 93 0 0 
-3.34849 -1.57341 5.26369 72 70 73 
-3.23859 -1.39424 5.46183 53 46 54 
-3.31011 -0.447421 5.07865 121 113 111 
-3.37279 -1.52366 5.18209 151 144 160 
-1.21603 -1.43489 4.933 99 23 35 
-1.18445 -1.20878 4.70437 163 95 110 
-0.686122 -1.40761 4.87798 20 26 16 
-0.948074 -1.22507 4.71027 205 142 88 
0.0998872 -0.264357 3.73477 92 43 11 
-1.23109 -1.23003 4.72067 92 34 32 
-1.22292 -1.23986 4.74989 73 58 37 
-0.366462 -0.200109 3.08425 229 138 135 
-1.00167 -1.24045 4.73961 31 1 0 
-1.21664 -1.24455 4.72366 229 181 158 
-0.512232 -1.32845 4.65861 232 199 180 
0.183722 -0.233732 3.7073 85 49 27 
-0.387855 -0.176301 3.05652 212 121 120 
-0.890915 -1.2754 4.76824 56 51 19 
-0.691721 -1.35758 4.80487 27 4 0 
-1.24052 -1.36402 4.84727 91 35 38 
-1.08901 -1.28242 4.76234 101 52 56 
-0.506526 -0.123333 3.08525 198 100 97 
-0.972609 -1.31035 4.71429 156 96 96 
-1.24223 -1.30004 4.78872 137 36 68 
-0.391811 -0.152834 3.07342 237 149 148 
-1.14621 -1.33719 4.83865 170 99 115 
-0.571249 -0.146126 3.07257 155 55 55 
-0.47567 0.266656 2.83661 133 70 65 
0.147459 -0.190308 3.66309 172 141 113 
-1.13437 -1.32858 4.81681 143 81 94 
-1.3898 -1.56074 4.89511 114 35 56 
0.388384 -0.694745 4.01936 69 56 48 
-3.23839 -2.12918 6.01908 22 21 26 
-3.36421 -0.895072 5.1893 142 136 146 
-1.0271 -1.56841 5.06903 192 120 80 
-1.14273 -1.35151 4.83927 26 0 0 
-0.677335 -1.53517 5.0265 72 17 0 
-1.37127 -1.74988 5.09194 47 0 20 
0.145737 -0.208788 3.66655 94 62 37 
-0.773408 -0.764847 4.01004 103 107 154 
-1.36702 -1.56833 4.90366 205 101 134 
-0.787058 -1.09818 4.43401 65 19 0 
-0.599837 -1.56946 5.05881 113 0 1 
0.374545 -0.932072 3.77983 131 89 91 
-1.14316 -1.36182 4.85786 48 9 12 
-1.37941 -1.64908 4.99362 193 83 120 
-1.28165 -1.24043 4.75042 148 54 44 
0.470905 -0.255347 3.48313 166 96 0 
-2.16545 0.002577 5.868 223 190 159 
-0.993814 -1.29423 4.71341 166 112 110 
-0.510474 -0.854497 4.33956 174 156 144 
-0.863416 -1.31584 4.78687 195 123 109 
0.0757664 -0.302893 3.78434 157 125 104 
-0.445657 -0.915379 4.38389 107 48 42 
1.54646 1.30359 4.56828 107 76 45 
-0.318419 0.418939 3.01944 190 120 122 
-3.38325 -1.95185 5.43981 140 139 147 
-0.866527 -1.30044 4.79115 70 45 25 
-0.413322 -1.22588 4.67543 200 153 125 
-3.27275 -1.9597 5.64601 83 84 89 
0.148306 -0.632314 4.05362 43 39 30 
-0.493787 -0.124522 3.06166 225 160 158 
-0.226734 -0.986742 4.18732 212 210 211 
-3.23762 -1.34279 5.54038 43 34 35 
-1.04095 -1.17617 4.64858 200 125 145 
-0.639684 -0.846917 4.321 74 44 33 
-0.625552 -0.844331 4.30909 81 53 29 
-0.500455 -0.842216 4.31515 100 74 61 
-0.59428 -0.84279 4.32747 133 65 62 
-1.21914 -1.22594 4.70561 176 153 135 
-0.5488 -0.816156 4.29799 125 45 34 
-1.18746 -1.26278 4.74951 192 168 140 
-0.715053 -1.79798 5.05617 205 200 194 
0.310966 -1.02688 3.83633 109 102 94 
-0.710713 -1.78212 5.03614 193 190 181 
-0.686558 -1.74578 4.96725 91 90 85 
-3.28629 -1.49889 5.3364 29 28 34 
-0.534079 0.12677 2.79711 124 61 54 
-1.20338 -1.77403 5.14152 255 243 236 
-1.16011 -1.51854 5.00519 56 30 5 
-0.986937 -1.51581 4.98111 138 135 118 
-1.15377 -1.54326 5.03811 247 230 222 
-1.10723 -1.52723 4.97705 254 253 251 
-1.07899 -1.53946 4.99692 77 67 58 
-1.08979 -1.54826 5.00702 196 185 181 
-0.504804 -0.149657 3.04962 157 55 53 
-1.14996 -1.13877 4.62743 226 119 145 
-1.04667 -1.05166 4.55361 227 118 149 
-0.221483 -0.992018 4.14749 138 136 141 
-1.00849 -1.03719 4.53922 101 0 2 
-0.504837 -0.228981 3.10856 184 167 157 
-0.797986 -1.67055 4.93547 168 164 153 
-0.506982 0.171885 2.77061 212 171 169 
-0.603688 -1.57298 5.06977 91 6 0 
-3.18733 -1.90471 5.83777 46 43 52 
-0.657098 -0.908031 4.41332 141 115 92 
-1.1709 -1.13954 4.65282 79 0 0 
-0.692915 -1.69257 4.94169 165 161 160 
-0.608813 -1.54652 5.01335 136 119 101 
-1.04192 -1.55794 5.04907 98 48 25 
-0.59514 -1.54154 5.00664 21 2 0 
-1.16422 -1.15025 4.62898 219 74 79 
-0.954167 -1.53748 5.00483 153 161 140 
-1.03406 -1.52827 4.99205 250 243 227 
-3.24278 -1.34388 5.58522 30 21 24 
-1.96154 1.01974 4.94281 104 69 47 
-0.537976 -0.251243 3.12087 126 118 107 
-0.922403 -1.50962 4.98185 171 165 139 
-0.32297 0.311829 2.90502 205 134 130 
-1.22351 -1.17652 4.67672 222 85 79 
-1.36947 -1.76355 5.10671 193 93 127 
-0.405499 -1.47145 4.91733 140 122 110 
-3.24929 -1.4026 5.46729 61 52 53 
-1.33064 -1.78433 5.15097 184 75 114 
-0.946017 -1.48056 4.97402 214 186 149 
-0.904834 -1.51188 4.99058 161 147 121 
-0.540022 -0.877379 4.35804 190 127 118 
-0.602076 -0.865402 4.34917 194 124 122 
-0.670629 -0.858906 4.34059 165 137 125 
-0.891464 -1.42425 4.9141 135 52 44 
-0.538215 -0.256512 3.13527 128 121 111 
0.664843 -0.0526718 3.42867 247 204 125 
0.194331 -0.323058 3.77292 101 51 24 
0.13468 -0.324712 3.78447 106 56 31 
-3.3461 -1.31002 5.14026 91 92 97 
0.172167 -0.648108 4.06266 188 171 164 
0.17032 -0.329687 3.76917 178 130 107 
-3.21526 -1.35189 5.42028 42 44 59 
0.694046 -0.309135 3.37158 144 60 0 
-1.12543 -1.3994 4.90188 178 74 109 
-0.401854 0.442632 2.9832 188 108 109 
-0.968209 -1.35161 4.83051 182 141 139 
-1.22325 -1.251 4.74666 229 178 157 
-3.30226 -1.46626 5.48587 62 63 65 
-1.06893 -1.10412 4.60179 133 38 68 
-3.37928 -1.93908 5.46801 154 154 166 
-0.678824 -1.76301 5.01675 71 71 61 
-0.528512 -0.80658 4.28994 237 211 188 
-0.887236 -1.26908 4.74996 56 42 15 
-0.500103 -0.692098 4.17691 125 91 64 
0.383994 -0.675547 4.03503 108 90 86 
-0.617506 -1.53976 4.99108 36 2 0 
-1.19779 -1.24367 4.73102 85 58 31 
-1.03593 -1.10703 4.60304 156 90 117 
-2.1793 0.270114 5.62247 121 87 60 
-0.45147 0.258635 2.81271 204 125 120 
0.0847445 -0.280727 3.74399 99 64 44 
-0.674819 -0.882141 4.35251 91 64 43 
-1.25233 -1.20915 4.7047 87 0 0 
-1.08034 -1.55918 5.00412 142 130 132 
0.144529 -0.209219 3.69033 82 51 30 
0.17793 -0.273264 3.74262 160 126 101 
-0.667068 -1.72212 4.96811 146 145 140 
-1.19789 -1.28117 4.77551 174 149 129 
-0.647705 -0.873479 4.35637 74 45 27 
-1.02661 -1.52141 5.00828 166 152 125 
-0.472951 -0.801275 4.26378 232 199 180 
-0.563773 -0.815289 4.30149 255 207 195 
-0.567882 -0.838713 4.31069 255 213 206 
-0.656956 -0.8672 4.35581 168 140 119 
-0.938602 -1.20379 4.70857 74 21 0 
-3.25103 -1.38843 5.45926 143 141 146 
-0.470869 -0.148674 3.04342 244 163 159 
-3.23792 -1.38779 5.5186 57 51 55 
-1.24929 -1.2789 4.791 77 0 3 
-3.23804 -1.33926 5.66084 47 38 39 
-1.06805 -1.06503 4.5726 231 116 145 
-0.91564 -0.863091 4.09972 132 128 129 
2.15073 0.473215 3.81816 244 247 240 
-0.459865 -0.249694 3.12552 39 30 21 
-3.22553 -2.06095 6.0604 49 38 42 
-3.30651 -1.51617 5.33422 62 57 64 
-3.30783 -1.60636 5.56864 47 46 51 
-1.25059 -1.4128 4.92288 72 22 25 
-0.539978 -0.851195 4.32805 193 145 141 
-1.25199 -1.40524 4.88478 116 42 39 
-0.505255 -0.837188 4.33508 245 216 200 
-0.606886 -0.811005 4.2786 255 220 209 
-0.783116 -0.369653 3.81631 45 34 32 
-0.559055 -0.784769 4.28685 248 211 193 
-3.33049 -1.56826 5.241 32 32 40 
0.165929 -0.661863 4.03359 32 27 24 
-1.09016 -1.51306 4.95616 255 251 245 
-0.867015 -1.52256 4.98166 237 232 210 
0.164505 -0.648937 4.07605 201 191 179 
-0.314905 0.100424 2.79603 209 136 130 
-0.59746 -1.55018 5.04252 24 3 0 
-1.36132 -1.47793 4.81269 226 103 147 
-0.986484 -1.47635 4.94292 74 50 24 
-1.03604 -1.5304 5.0024 254 247 229 
-0.764696 -1.70975 4.96943 85 81 78 
-1.32798 -1.50236 4.96199 197 83 117 
-1.29934 -1.60128 5.0505 182 89 120 
-0.95837 -1.23377 4.75823 220 141 72 
-1.31666 -1.85033 5.20434 224 131 158 
-0.225971 -1.0003 4.19926 166 164 167 
-1.07472 -1.1081 4.62893 85 6 28 
-0.703367 -1.74121 5.01038 186 185 183 
-0.750409 -1.68596 4.94179 75 72 63 
-0.555634 -0.875306 4.33849 207 133 130 
-0.295411 -1.6316 4.93775 71 46 42 
0.186238 -0.332562 3.80576 176 127 94 
-0.694528 -1.40691 4.89257 90 105 86 
0.163361 -0.265475 3.72444 174 130 101 
-0.987997 -1.22854 4.71101 58 41 25 
-1.28739 -1.83502 5.17243 44 17 26 
-1.19333 -1.50553 4.98766 253 196 143 
-0.37689 -0.155864 3.08962 209 98 105 
-3.26121 -0.576189 5.25762 203 199 198 
-3.31899 -1.28156 5.25843 150 146 147 
-1.09104 -1.36498 4.85811 247 171 155 
-0.964963 -1.34995 4.7961 222 178 175 
-0.928721 -1.51665 4.99525 194 188 162 
-0.443209 -0.0126816 2.87415 243 237 221 
-0.407744 0.339318 2.89023 192 122 122 
-3.23011 -1.78918 5.58432 48 42 52 
-0.79395 -1.71592 4.99726 179 175 172 
-0.292801 -1.21785 4.50711 162 106 105 
-1.33771 -1.79528 5.18431 174 77 110 
-0.475538 0.234797 2.81432 145 54 51 
-1.79288 0.851466 5.09307 110 77 46 
-0.944039 -1.47742 4.95938 216 186 148 
-2.66915 -1.21448 7.04153 112 72 36 
-1.26289 -1.22607 4.66956 206 54 51 
-2.1874 0.271755 5.63648 103 69 42 
-1.30773 -1.08191 4.54162 183 51 62 
-0.324105 0.314422 2.91713 196 143 137 
-0.829804 -0.407768 3.81035 100 99 97 
-1.27194 -1.22234 4.70566 77 0 0 
-1.03183 -1.499 5.01671 226 161 107 
-1.96907 1.21162 4.78633 120 90 56 
0.155525 -0.640566 4.05644 132 128 119 
-0.559446 -0.800455 4.29834 82 69 61 
-0.614021 -0.842724 4.32302 102 28 25 
-0.563257 -0.861998 4.36405 203 153 142 
-3.22559 -1.32811 5.53424 26 19 26 
-1.04061 -1.18006 4.64007 214 146 157 
-1.09735 -1.38044 4.85115 70 22 22 
-0.492924 0.0701786 2.80503 28 26 14 
-1.07738 -1.53909 4.98889 87 77 68 
-1.21823 -1.69693 5.12646 255 251 251 
-3.20884 -2.04995 6.02388 49 38 42 
0.155988 -0.242299 3.70305 175 124 97 
-3.26833 -2.07629 6.16218 18 13 20 
-0.48879 -0.801457 4.28739 202 175 156 
-0.527752 -0.804242 4.26131 177 149 127 
-0.621835 -0.86808 4.35545 194 148 133 
-0.625255 -0.882596 4.35335 106 77 59 
-0.639884 -0.882279 4.35139 75 44 24 
-0.537138 -0.910502 4.39895 168 113 108 
-0.615811 -1.59664 5.0867 131 91 89 
-3.23619 -1.28994 5.55258 34 33 41 
-1.08238 -1.10017 4.60349 225 75 76 
-1.02823 -1.55947 5.04192 189 104 65 
-1.07246 -1.15664 4.64087 65 7 29 
0.680005 -0.0537148 3.43787 204 118 5 
-0.921511 -1.16935 4.647 156 105 58 
-1.1999 -1.22117 4.731 73 46 39 
-1.22253 -1.22784 4.72489 209 186 154 
-1.2476 -1.21611 4.67983 174 89 108 
-1.2726 -1.22599 4.71638 77 0 0 
-0.291063 -1.17838 4.50426 53 33 22 
-0.912641 -1.51245 4.97506 98 98 70 
-0.953137 -1.52047 5.01406 141 130 102 
-1.072 -1.52689 5.04706 105 60 41 
-0.872527 -1.50302 4.98717 71 20 17 
-3.30078 -1.51399 5.32376 62 57 64 
-3.30003 -1.60446 5.38332 170 170 168 
-3.29561 -0.584906 5.32128 211 203 201 
-3.31749 -1.58549 5.46061 64 64 72 
-1.26712 -1.2432 4.73668 82 11 17 
-3.1769 -1.84556 5.92675 38 31 38 
0.152184 -0.28959 3.76508 81 65 52 
-0.555383 -0.898708 4.36106 190 117 111 
-0.581181 -0.890846 4.35844 61 6 1 
0.0485201 -0.832022 4.13553 177 175 176 
-1.08234 -1.35551 4.82192 247 171 155 
-3.09336 0.0388765 5.92146 214 185 151 
-0.292864 -1.37474 4.79483 143 95 85 
0.0713187 -0.257298 3.72173 173 134 105 
-1.81719 0.603289 5.31808 227 189 152 
-1.31049 -1.83566 5.16869 235 126 157 
-0.368657 -0.186428 3.06354 156 87 80 
-1.03826 -1.15404 4.64732 202 129 159 
0.467913 -0.203833 3.5194 241 177 87 
-0.794435 -1.70898 4.9793 139 138 134 
-0.662183 -1.48107 4.947 218 170 148 
-1.95279 -0.131544 6.01468 209 174 142 
-0.321012 0.107627 2.7565 154 55 60 
-1.37561 -1.64012 4.97724 234 95 137 
-1.95201 1.01152 4.91916 107 71 49 
-0.518923 -0.866492 4.33335 182 147 128 
-0.932592 -1.52148 5.01792 187 180 154 
-1.34621 -1.60617 4.97845 185 59 97 
0.197787 -0.226259 3.70364 182 134 98 
-3.22681 -1.84339 5.39743 118 118 130 
0.118011 -0.632052 4.09239 108 95 87 
0.508071 -0.214648 3.49361 165 59 0 
-3.19795 -1.90942 5.71428 43 49 63 
-1.371 -1.75152 5.10566 37 5 20 
-1.27996 -1.81197 5.16056 170 70 108 
0.694539 -0.310145 3.38704 155 66 0 
-0.779338 -0.371637 3.78418 69 57 57 
-0.522518 -0.849009 4.37156 90 67 59 
-0.613092 -0.859671 4.35388 88 20 19 
-0.825192 -0.399221 3.81667 167 163 164 
0.667611 -0.0493741 3.44381 251 214 146 
-3.2136 -1.96847 6.17719 21 16 22 
0.468517 -0.211289 3.49353 249 209 147 
-0.537421 0.133157 2.81405 143 30 34 
-3.27175 -1.19883 5.33297 206 204 209 
-3.21832 -2.05603 6.04567 35 26 29 
-1.1145 -1.54852 4.99916 84 73 71 
-1.1508 -0.673235 4.08691 37 36 31 
0.376312 -0.667424 4.01676 188 143 137 
-0.409784 -0.762387 4.22631 11 9 10 
-3.32431 -1.62969 5.27676 194 192 195 
-0.53394 -0.800603 4.28405 99 74 52 
-0.476347 -0.802942 4.27588 225 194 173 
-0.609311 -0.822202 4.32341 255 218 210 
-0.00490867 -0.985418 4.13503 131 126 130 
0.0485126 -0.826873 4.11379 177 175 176 
-0.59894 -0.896552 4.40316 161 112 107 
-0.843282 -0.83032 4.06197 233 231 234 
-0.563241 -0.906175 4.40694 205 138 130 
0.149162 -0.194689 3.63396 183 129 93 
-0.878078 -1.50473 4.99543 91 29 30 
-1.03916 -1.49921 5.00748 236 143 76 
-3.22102 -1.33889 5.62415 33 27 29 
-3.22239 -1.32688 5.52585 26 19 26 
-1.05894 -1.13335 4.63061 243 178 210 
-0.91837 -1.16166 4.61491 134 75 31 
-0.910567 -1.17502 4.62939 233 184 151 
-1.31644 -1.42103 4.82226 204 64 111 
-1.26297 -1.22157 4.68826 83 16 7 
-1.18187 -1.24076 4.74561 166 147 132 
-1.23624 -1.29725 4.77176 187 77 116 
-0.489805 0.0687486 2.79094 23 19 8 
-0.430724 -1.2225 4.55499 166 122 87 
-3.33299 -1.52187 5.41305 28 27 33 
-3.29801 -1.56769 5.55653 47 41 53 
-1.30482 -1.56238 5.00585 88 18 44 
0.489141 -0.183831 3.51485 238 180 57 
-0.777025 -0.94277 4.24235 231 48 50 
-0.705678 -1.72932 4.98013 121 120 116 
-1.01714 -1.56797 5.06272 82 34 0 
-0.960795 -1.19597 4.6907 255 181 196 
-2.52604 -0.992334 6.85717 112 83 51 
-1.96655 1.00035 4.96354 136 102 74 
-1.95101 0.661404 5.25746 143 107 73 
-0.374463 -0.716876 4.10414 19 15 14 
0.308643 -1.03231 3.81055 244 241 222 
-0.445196 -0.125948 3.02818 203 167 167 
-1.06298 -1.13952 4.65893 239 180 212 
-3.24628 -1.52679 5.8352 29 26 33 
-0.0263105 -0.269672 3.77384 228 214 203 
-3.27944 -1.4612 5.45717 35 42 52 
-0.399808 0.149093 2.74421 205 116 108 
-3.21159 -1.87394 5.73805 55 59 71 
-0.391069 0.156339 2.75217 161 14 24 
-3.21032 -1.86313 5.74848 39 43 55 
0.251955 -1.05274 3.88258 216 214 199 
-0.448221 0.0653692 2.7943 185 175 165 
-3.18918 -1.77072 5.50508 42 41 47 
-0.533142 -0.897435 4.3752 174 138 124 
-0.847488 -0.832604 4.08435 231 229 232 
-0.538671 -0.881495 4.37625 186 134 120 
-0.491427 -0.840276 4.33447 244 215 197 
-0.559871 -0.833673 4.32605 211 53 67 
-0.623087 -1.57561 5.06998 160 112 98 
-0.570501 -0.822976 4.32561 255 217 200 
-1.24207 -1.54904 5.05108 245 174 146 
-0.36802 -0.710358 4.15201 165 160 156 
-1.15227 -0.675372 4.09759 37 36 31 
0.423852 -0.181813 3.5 189 98 7 
-3.32981 -1.63759 5.43956 44 43 48 
-3.30108 -1.63956 5.44705 41 36 42 
-0.990689 -1.5206 5.0042 115 113 92 
-3.24838 -1.65122 5.35544 134 127 134 
-3.21363 -1.38683 5.40322 71 61 62 
-0.592552 -1.54571 5.01486 27 0 0 
0.2824 -0.222421 3.35878 215 140 13 
2.92685 0.211432 5.49764 33 28 25 
-3.25086 -1.19078 5.29856 213 208 212 
-0.485563 -0.23983 3.10062 233 221 209 
-3.19793 -1.877 5.85895 32 31 36 
-1.21736 -1.56119 5.05082 235 152 144 
-1.31747 -1.16848 4.60755 159 80 76 
-1.96267 0.112821 5.77045 118 83 55 
-1.34383 -1.40822 4.72313 115 20 50 
-0.977682 -1.18552 4.66145 254 175 207 
-3.03656 0.364324 5.61634 221 186 144 
-0.451395 -1.21533 4.55187 111 65 32 
-0.603899 -0.847363 4.3156 172 105 97 
-3.01417 1.55081 4.48318 122 87 47 
-0.419198 0.0408985 2.81275 71 62 53 
0.639477 0.0643413 3.31786 170 82 0 
-0.538574 0.121411 2.80151 117 53 53 
-0.605055 0.605286 5.54737 237 152 155 
-0.369981 0.152535 2.73632 142 70 73 
-0.375617 0.172545 2.74038 153 74 77 
-0.60855 -1.56245 5.031 80 38 22 
-0.386519 -0.171723 3.05091 223 152 150 
-0.585876 -0.167791 3.09402 119 40 43 
0.38514 -0.158413 3.46472 142 103 38 
-0.603912 -1.54898 5.0292 65 50 43 
-1.16193 -1.53753 5.01252 87 48 31 
-1.11424 -1.53294 4.99842 208 205 198 
-0.86188 -1.52527 4.97637 222 205 189 
-0.947931 -1.51534 4.98711 147 143 114 
-0.994534 -1.51219 4.98856 152 150 137 
-0.40154 -1.49796 4.90999 122 112 103 
-1.03582 -1.50685 4.99707 58 31 10 
-0.495982 -0.688909 4.15136 114 83 54 
-1.13081 -1.49035 4.95472 221 210 192 
-0.990936 -1.50027 4.99505 124 101 83 
-0.572503 -0.761485 4.25838 250 167 161 
-0.44981 -0.780313 4.24652 106 87 80 
-0.557491 -0.783334 4.25569 183 154 140 
-0.583845 -0.786706 4.26407 246 207 190 
-0.537361 -0.791361 4.26175 127 94 77 
-0.59128 -0.797181 4.26694 176 118 114 
-0.546789 -0.798635 4.26348 188 156 145 
-0.607155 -0.806704 4.27643 239 185 175 
-0.630878 -0.807681 4.28877 129 83 67 
-0.548073 -0.810402 4.27907 119 71 57 
-0.466226 -0.812523 4.2812 207 184 178 
-0.5026 -0.822854 4.28312 148 116 105 
-0.595748 -0.826148 4.29449 255 173 176 
-0.890576 -1.4361 4.92996 193 145 122 
-2.90623 1.44415 4.57556 101 71 35 
-1.21738 -1.43275 4.93425 120 30 40 
-0.54548 -0.829552 4.29542 127 36 35 
-0.524871 -0.831013 4.29439 180 154 141 
-0.68472 -0.831072 4.30647 156 128 107 
-0.670496 -0.834344 4.30934 229 201 180 
-0.580174 -0.836235 4.30507 225 158 152 
-0.621094 -0.837096 4.31564 247 196 177 
-0.634913 -0.835969 4.30861 243 210 191 
-0.666223 -0.838651 4.32248 77 50 33 
-0.640651 -0.845957 4.32011 82 53 37 
-0.535966 -0.854064 4.31888 133 96 80 
-1.09987 -1.40609 4.90358 96 51 46 
-0.68074 -0.85729 4.33227 71 45 22 
-0.554615 -0.859956 4.33546 181 100 97 
-1.18829 -1.40171 4.90867 122 0 25 
-0.540622 -0.869852 4.34423 179 115 105 
-0.55444 -0.87258 4.35506 173 89 89 
-0.552179 -0.894768 4.36931 184 113 109 
-0.511113 -0.911599 4.38312 122 115 99 
-0.901463 -0.894965 4.13703 238 234 233 
-0.938326 -1.009 4.5008 243 135 96 
-1.25444 -1.34962 4.83516 84 41 48 
-0.690232 -1.35082 4.81965 169 151 137 
-0.566281 -1.31205 4.65157 218 186 163 
-0.188596 -1.13079 4.59319 169 160 145 
-0.189241 -1.13079 4.5726 178 169 152 
-0.691046 -1.33791 4.80208 77 48 32 
-1.24315 -1.3377 4.84064 115 0 34 
-1.04132 -1.17438 4.65347 174 113 131 
-1.2018 -1.17833 4.67562 201 94 122 
-0.873715 -1.21355 4.71072 102 60 38 
-1.20133 -1.21492 4.71596 95 49 51 
-1.20712 -1.2222 4.7215 186 171 140 
-1.25019 -1.28096 4.7773 80 12 13 
-1.18184 -1.28248 4.7831 161 110 109 
-2.25025 1.39634 4.60509 223 189 152 
-2.67421 1.52771 4.48708 151 113 77 
-0.817857 -1.27511 4.77154 109 64 43 
-0.872486 -1.50896 4.9823 98 67 47 
0.537053 0.0342565 3.35172 155 99 0 
0.53416 0.0304628 3.33969 167 106 0 
-1.99495 1.51928 4.4876 166 131 103 
-1.14497 -1.25275 4.75711 105 42 50 
-2.19866 0.981469 4.9598 104 64 39 
-1.01456 -1.48125 4.97796 110 88 41 
-0.868268 -1.51957 5.0043 201 181 157 
-2.17714 1.33834 4.63107 127 85 47 
-0.452698 -1.21166 4.56179 79 32 4 
-0.873106 -1.51594 4.97849 156 151 122 
-0.865911 -1.50227 4.97766 81 29 18 
-0.514215 -0.817394 4.28964 102 70 55 
-2.98799 1.45076 4.58414 146 108 71 
-1.24739 -1.2068 4.6967 77 9 0 
0.672814 -0.0623238 3.42958 179 105 10 
-0.288393 -1.57009 4.87177 100 62 59 
-2.97025 1.54018 4.48977 210 174 138 
-0.358628 0.152827 2.74459 116 74 76 
-0.930057 -1.20285 4.68824 109 70 55 
-3.22346 -1.31695 5.53123 81 76 73 
-1.23129 -1.19312 4.69118 168 97 105 
-1.22456 -1.18222 4.6821 158 69 71 
-2.00055 1.37796 4.60436 115 75 40 
-0.560293 -0.724765 4.19748 242 198 195 
-0.429767 -0.133578 3.04147 198 106 109 
-0.681841 -0.834873 4.3157 202 169 150 
-1.21848 -1.1747 4.67296 188 84 83 
-0.705283 -1.32301 4.80926 70 76 48 
0.158358 -0.279578 3.73037 142 115 98 
-3.19732 -1.28827 5.48865 102 93 88 
0.318121 -0.280868 3.72422 152 124 110 
-0.562241 -0.840606 4.30351 253 196 187 
-1.2526 -1.40878 4.88986 102 43 35 
-0.550792 -0.84567 4.30879 125 41 41 
0.269319 -0.267814 3.70704 134 102 87 
-1.16365 -1.16076 4.69134 104 10 37 
0.318317 -0.267987 3.71374 166 131 111 
-1.02139 -1.51856 4.98193 161 162 130 
-2.70482 1.42378 4.58261 157 118 77 
-0.567525 -1.10931 4.48165 147 89 41 
-0.96346 -1.59115 5.0813 170 26 0 
-2.44779 1.41766 4.58326 194 164 130 
-0.592575 -0.878657 4.34584 182 137 131 
-0.644998 -0.878952 4.35351 139 111 100 
-0.684815 -1.343 4.8126 43 27 12 
-3.2692 -1.58857 5.50023 60 58 61 
-0.589079 -0.885303 4.35269 199 150 145 
-0.294498 -1.52683 4.83048 99 41 39 
-1.2146 -1.56362 5.035 218 109 138 
-0.67484 -1.53146 5.01398 65 6 0 
-0.283242 -1.34649 4.64806 66 21 15 
-1.008 -1.56613 5.05584 160 106 72 
-0.485478 -0.901847 4.36198 26 21 17 
-1.01029 -1.55872 5.04332 70 35 0 
-0.993351 -1.05471 4.54738 168 0 10 
-0.324728 0.585852 2.92145 147 134 118 
-1.93758 1.15144 4.79952 195 168 138 
-2.44661 1.41626 4.59237 116 82 54 
-1.14205 -1.35256 4.83792 31 0 2 
-0.891211 -1.02134 4.51145 255 188 169 
0.259094 -0.18517 3.63187 162 130 115 
-1.15206 -1.53822 5.02278 248 230 216 
-2.81527 1.47706 4.54122 133 96 54 
-1.14155 -1.36222 4.8539 43 0 5 
-0.524193 -1.3318 4.66294 213 178 158 
0.260203 -0.192286 3.6453 149 114 95 
0.16565 -0.194931 3.65806 158 126 103 
-0.652094 -0.9667 4.28709 168 5 24 
-2.51628 1.4551 4.53533 133 89 52 
-2.21103 1.17981 4.78465 113 77 43 
-1.16148 -1.27755 4.77233 152 55 72 
-2.80029 1.53787 4.48242 224 196 159 
-0.895967 -1.02145 4.49957 245 115 83 
-3.2769 -1.5848 5.5171 103 94 97 
-2.04722 1.16491 4.80796 191 157 119 
-1.95296 1.35419 4.60846 186 142 113 
-0.521632 -0.776795 4.24574 170 162 151 
-2.37282 1.51564 4.48522 148 112 78 
-0.373809 -0.700516 4.13989 74 63 57 
-3.01441 1.42144 4.59385 143 104 63 
-2.76417 0.830201 5.11102 134 100 63 
-1.13758 -1.34074 4.81764 98 56 66 
-0.593782 -0.67978 3.91653 175 173 178 
-1.93029 1.41183 4.57905 142 104 57 
-2.7323 1.48213 4.51261 165 127 78 
-0.604367 -0.629975 3.87906 172 174 169 
-2.53759 1.27427 4.71585 101 64 38 
-2.7897 1.44586 4.55546 234 197 155 
-2.26173 1.4139 4.57029 215 182 147 
-0.667 -0.690852 3.91094 162 162 164 
0.0756793 -0.312479 3.77246 125 106 91 
-2.38198 1.02377 4.92862 236 202 167 
-3.07297 0.819197 5.1355 123 88 58 
-3.12121 0.0850983 5.77854 170 142 121 
-0.595077 -1.15801 4.50413 134 58 26 
0.31014 -0.117836 3.3882 225 152 58 
-1.82514 1.41419 4.55481 103 68 38 
-0.562083 -0.25962 3.14263 110 98 86 
-0.996273 -1.04275 4.52834 197 77 76 
-0.908335 -0.873111 4.09548 170 165 169 
0.73404 0.00688358 3.34435 182 85 0 
-2.24391 1.26687 4.70894 112 82 58 
-0.674588 -0.637874 3.86265 237 237 237 
-2.47564 1.47008 4.52313 212 174 137 
-2.9064 0.706658 5.20399 221 180 148 
-0.836385 -1.40629 4.89318 136 60 36 
-0.818342 -0.825433 4.06667 68 66 69 
-0.644848 -0.9694 4.29332 226 87 120 
-0.652104 -0.84563 4.31914 69 43 30 
-0.545771 -0.837751 4.3046 255 178 174 
