ply                 
format ascii 1.0    
element vertex 1257
property float x    
property float y    
property float z    
property uchar red  
property uchar green
property uchar blue 
end_header          
-1.24714 -1.33996 4.85579 118 0 34 
0.311889 -1.04989 3.84296 251 248 229 
0.319621 -1.05386 3.85738 186 184 163 
-0.920501 -1.25737 4.75244 22 28 0 
-1.19102 -1.2668 4.77755 156 140 117 
-0.867643 -1.51934 5.00028 203 185 165 
-0.52254 -0.77979 4.26299 151 162 148 
0.0621743 -0.204086 3.66737 160 134 119 
-0.420018 -0.132281 3.04949 214 105 108 
-0.981673 -1.29068 4.71255 199 149 142 
0.340879 -1.0374 3.84184 237 224 215 
-0.516412 -0.786983 4.27024 218 215 206 
-0.67468 -1.53117 5.00768 65 13 0 
0.386074 -1.04215 3.82585 122 112 100 
-0.932254 -1.28074 4.76027 57 83 74 
-0.444477 -0.257965 3.12793 193 181 169 
-0.448967 -1.22309 4.59125 78 29 0 
-0.877455 -1.52037 4.99784 154 146 125 
-3.75503 -2.74477 8.50338 174 169 163 
-0.892296 -1.4492 4.94302 78 32 17 
-0.31077 0.336025 2.94407 197 144 128 
-1.15714 -1.53497 5.03055 245 219 204 
-1.19934 -1.24344 4.74501 83 61 38 
-0.989344 -1.29566 4.70644 174 116 114 
0.781042 -0.121778 3.36406 114 24 0 
-1.36764 -1.48732 4.83924 182 85 120 
-0.320923 0.13348 2.77176 199 89 92 
-0.389073 -1.19457 4.62168 103 49 37 
-0.388493 -1.19718 4.64429 167 105 94 
-0.554588 -0.849787 4.33845 130 42 38 
0.386292 -0.679007 4.04786 116 99 92 
0.560447 -0.278926 3.46666 122 24 0 
-1.24035 -1.193 4.69447 63 9 0 
0.353671 -0.313632 3.42422 116 75 43 
-0.53178 -1.34338 4.67176 211 180 159 
-1.11155 -1.41439 4.91287 61 21 19 
-1.29763 -1.61954 5.08711 75 22 30 
-0.0473336 -1.14995 4.60254 249 242 234 
-0.512594 -0.869697 4.35653 160 150 140 
-1.17538 -1.17025 4.67544 92 1 16 
-0.641649 -0.871262 4.35367 127 99 77 
-0.663292 -0.690428 3.9276 179 174 178 
-0.672559 -0.875373 4.36617 100 73 54 
-0.784462 -1.09582 4.41924 63 17 0 
-0.645918 -0.881892 4.36904 133 106 87 
-0.405459 -1.52478 4.95756 173 144 146 
-0.296915 -1.53149 4.84061 86 39 33 
-0.728266 -1.53174 5.02026 109 65 56 
-1.30987 -1.84203 5.19152 225 135 161 
-0.312722 -1.02684 4.24733 156 154 155 
-0.605772 -1.59514 5.05875 82 46 48 
-0.602329 -0.674932 3.91862 233 231 234 
-0.295131 0.0818087 2.81838 225 123 119 
-0.298003 -1.51882 4.82699 133 99 90 
-0.57285 -1.59546 5.07666 113 103 94 
0.155675 -0.638959 4.07036 173 164 155 
-0.491521 -0.906274 4.38723 11 4 0 
-1.0009 -1.51835 5.01767 132 137 117 
-3.29926 -1.49279 5.28785 66 63 74 
-1.02399 -1.49247 4.99959 208 160 114 
-0.292955 -1.50677 4.81546 85 45 37 
-1.27733 -1.07026 4.54579 86 0 0 
-3.25428 -1.34572 5.66668 63 59 60 
-1.01927 -1.55897 5.04254 180 121 81 
0.133272 -0.95511 4.12682 139 134 138 
-0.995633 -1.05638 4.55822 172 0 3 
-3.25851 -1.33416 5.70737 85 74 72 
0.0720519 -0.274579 3.74438 139 113 96 
-0.953483 -1.04952 4.55001 223 65 80 
-0.705828 -1.81224 5.05597 149 129 131 
-1.14422 -1.03288 4.48866 117 108 101 
-1.06089 -1.04376 4.54999 171 73 72 
-0.72555 -1.48829 4.97885 59 1 0 
-1.00793 -1.03206 4.52778 134 0 7 
-1.0589 -1.51079 5.00877 114 58 33 
-0.633177 -1.5652 5.05188 108 52 53 
-0.86998 -1.50852 5.00426 78 27 24 
-0.46746 -0.0773501 3.08181 189 85 84 
-0.987885 -1.4866 4.99265 170 138 113 
-0.681048 -0.878898 4.3754 88 63 41 
-0.358058 0.165088 2.75219 186 115 119 
-0.874593 -0.90078 4.14591 165 153 157 
-1.14559 -1.34795 4.85693 92 52 61 
-0.968865 -1.59831 5.10778 167 34 3 
-0.295262 -1.56994 4.86175 59 36 30 
-0.439564 -1.61208 5.08139 103 42 49 
-0.303794 0.348225 2.9802 110 116 80 
-0.896898 -1.05603 4.54571 129 4 10 
-0.250466 -1.01493 4.2299 162 157 161 
-0.431156 -1.58853 5.05693 146 100 87 
0.0977827 -0.993493 4.18401 144 140 141 
-1.39617 1.452 4.56655 201 158 123 
-1.19227 -1.56184 5.07221 180 71 77 
-1.23837 -1.34708 4.8397 159 55 78 
-1.20984 -1.23558 4.72758 174 144 120 
-0.589888 -0.910062 4.40301 180 128 115 
-0.597366 -1.56788 5.04933 113 0 1 
-0.499109 -0.684054 4.15381 159 127 102 
-0.609812 -0.852093 4.3517 156 91 85 
-0.606422 -0.869845 4.36787 193 119 118 
-0.538843 -0.857259 4.34318 182 139 133 
-0.635762 -0.853703 4.35102 174 146 125 
-0.628859 -0.846405 4.33231 83 50 31 
-0.649415 -0.888436 4.37821 50 23 4 
-0.817984 -0.829811 4.07921 74 74 76 
-0.584612 -0.842186 4.32127 246 208 197 
-0.588112 -0.895609 4.38812 77 18 14 
-0.546745 -0.840944 4.32408 251 174 164 
-0.480661 -0.842766 4.33487 235 223 211 
-0.505468 -0.834623 4.3203 230 201 187 
-0.66906 -0.908154 4.41127 162 140 119 
-0.59858 -0.819194 4.30435 149 87 90 
-0.576378 -0.817512 4.30453 114 65 58 
-0.862603 -0.855786 4.08113 136 135 133 
-0.631901 -0.809721 4.30085 121 83 64 
-0.54655 -0.806074 4.29227 227 193 183 
-0.460346 -0.79698 4.27518 211 182 168 
-0.556875 -0.783656 4.25889 187 159 147 
-0.510286 -0.691018 4.18431 117 86 57 
-0.69118 -1.77636 5.03747 204 201 192 
-1.19898 -1.77769 5.13675 255 245 240 
-0.937411 -1.1965 4.69524 87 24 0 
-0.358191 -0.206438 3.09299 104 4 4 
-0.95579 -1.23602 4.75593 217 146 84 
-0.381284 -0.175931 3.06782 242 168 167 
-0.375915 -0.166783 3.06644 238 162 164 
-1.15672 -1.25876 4.76507 165 139 122 
-1.2431 -1.26937 4.7738 93 3 13 
-1.24802 -1.30258 4.80871 87 10 28 
-1.26003 -1.35425 4.85792 102 47 50 
-1.26007 -1.36519 4.88248 200 160 152 
-1.1018 -1.38395 4.88665 92 26 30 
-0.417107 0.0425488 2.82564 56 45 39 
-3.35608 -1.56418 5.30849 52 47 53 
-3.36681 -1.57427 5.29778 53 51 56 
-0.37893 0.168745 2.73184 131 41 41 
-1.03802 -1.50919 5.00824 58 36 12 
-0.491512 -1.53225 4.98403 89 62 53 
-1.16829 -1.54258 5.0348 84 35 28 
-0.825148 -0.856007 4.09844 133 131 136 
-0.863434 -1.52181 4.96508 234 216 194 
-0.711184 -1.79499 5.03661 199 195 192 
-0.607761 -0.845125 4.33523 225 148 142 
-1.24417 -1.5408 5.03436 245 166 151 
-0.419596 -0.742801 4.12945 55 48 42 
0.148596 -0.635307 4.09163 123 113 104 
-0.946141 -1.05311 4.55574 238 94 119 
-3.23028 -1.31219 5.54421 73 61 61 
-0.623547 -0.875193 4.36792 99 62 43 
-0.950423 -1.51802 4.99813 147 138 107 
-1.10688 -1.38487 4.87648 111 43 54 
-1.03834 -1.55161 5.0591 158 144 117 
-0.386747 0.173571 2.74317 121 36 31 
-1.32003 -1.48915 4.93764 159 79 104 
0.150236 -0.234637 3.70278 77 40 14 
-1.22178 -1.24675 4.74129 216 172 147 
-0.292082 -1.18578 4.49224 209 146 131 
-0.279024 -1.41604 4.73758 81 56 51 
-0.406812 -0.158023 3.03398 205 129 129 
-0.38225 0.149276 2.74172 241 137 136 
-0.351028 0.148236 2.74621 124 78 78 
-1.23898 -1.32478 4.81651 209 95 131 
-1.24311 -1.3355 4.84079 118 0 34 
-0.325146 0.146371 2.76313 216 112 113 
-0.518527 0.058824 2.83352 115 104 84 
-0.304447 0.0703813 2.8107 221 144 138 
-0.323223 0.146677 2.77728 145 36 41 
0.0786775 -0.318767 3.7875 163 132 101 
-0.470793 -0.912021 4.38158 86 73 65 
-0.507507 -0.920872 4.41404 18 0 0 
-1.36785 -1.53442 4.87989 223 102 143 
-0.559431 -0.776174 4.26578 192 118 105 
-3.3684 -1.92567 5.45137 154 154 166 
-3.23911 -1.3463 5.56298 47 43 44 
-0.621687 -1.56698 5.0411 160 112 98 
-1.16552 -1.13307 4.6236 93 0 0 
-1.2186 -1.174 4.6704 208 95 91 
-1.24423 -1.40947 4.91004 85 15 25 
0.238426 -0.227812 3.69918 169 134 114 
-0.986707 -1.4964 4.97989 100 85 64 
0.30923 -1.0398 3.84911 183 179 167 
-0.488576 -1.54235 4.99041 126 98 87 
-1.23664 -1.31602 4.80653 136 28 60 
-0.982687 -1.32257 4.7566 142 82 81 
-0.60734 -1.54496 5.03024 114 90 80 
-0.64632 -0.655851 3.89627 112 110 115 
0.33934 -0.354669 3.79452 84 38 14 
-1.30726 -1.60754 5.07329 137 63 88 
-1.17925 -1.28018 4.77082 186 123 131 
-1.24085 -1.24398 4.75194 147 55 78 
-1.16 -1.3312 4.83386 134 37 68 
-1.01205 -1.03641 4.51513 153 38 41 
-1.39406 -1.48879 4.84292 93 43 54 
-0.613903 -0.907733 4.39323 175 126 109 
-0.598827 -1.63048 5.10909 147 72 79 
-0.30931 0.382182 2.99686 218 142 146 
-0.827765 -0.898972 4.15409 146 136 137 
-0.991721 -1.29045 4.69704 166 112 110 
-0.676781 -0.888054 4.37631 78 51 30 
-0.329332 0.516417 2.9999 146 130 115 
0.344108 -1.03655 3.82621 132 119 111 
-0.374801 -0.702199 4.14275 57 50 44 
-0.371177 -0.701712 4.16842 142 135 127 
-3.35512 -1.57161 5.21582 203 198 205 
-0.452261 0.414003 2.96924 144 58 59 
-0.297808 -1.52997 4.83049 70 29 25 
0.349607 -0.0682827 3.45058 184 122 45 
-0.688937 -1.71741 4.97509 153 150 141 
-0.418176 0.164222 2.7439 249 127 122 
-0.677262 -0.855821 4.30766 169 141 119 
-0.935375 -1.28846 4.79048 68 98 88 
0.679035 -0.0642286 3.44928 184 100 2 
-1.18073 -1.39782 4.91309 149 14 57 
-0.541219 -1.36582 4.70938 242 213 195 
-0.44813 -1.22075 4.57779 77 31 0 
-0.510686 -0.855012 4.33268 175 155 144 
-1.23248 -1.69881 5.14092 227 194 201 
-1.11618 -1.39543 4.89819 99 18 37 
0.174185 -0.335631 3.7871 161 127 115 
-1.06416 -1.42698 4.93179 143 74 33 
-1.14074 -1.36973 4.88629 159 80 101 
-0.683757 -1.72999 4.98739 143 143 135 
-1.20346 -1.28838 4.79287 155 129 112 
-0.448399 -0.241424 3.088 255 250 233 
-1.17642 -1.20577 4.71163 83 11 33 
-0.514854 0.055522 2.80999 157 146 128 
-1.18669 -1.21251 4.72354 148 90 102 
-0.570079 -1.11065 4.48417 152 95 42 
-0.690121 -1.70368 4.95867 82 78 77 
-1.23423 -1.19516 4.7077 188 105 113 
-0.486033 0.189204 2.76684 188 123 117 
-0.620193 -1.55069 5.03511 29 9 0 
0.0857537 -0.283118 3.75901 91 56 34 
0.437397 -0.234755 3.48516 171 100 8 
-0.0494345 -1.15302 4.61605 251 244 236 
-1.2392 -1.20321 4.70045 171 127 102 
-0.451426 -0.0664275 3.09259 190 92 91 
-1.32281 -1.60452 5.06317 166 74 97 
-1.1711 -1.15273 4.66358 203 74 79 
0.774811 -0.0762712 3.2834 155 70 0 
-3.29946 -1.40916 5.35859 124 123 121 
-1.18298 -1.51058 5.03125 205 108 119 
-0.873437 -1.30921 4.80272 123 115 94 
-3.18574 -1.89773 5.82594 61 56 60 
-0.86303 -1.49748 5.00004 205 132 113 
-0.72947 -1.53566 5.03205 109 65 56 
-3.22195 -2.1216 5.97118 29 26 33 
-0.913925 -1.36074 4.86499 37 56 36 
-0.453077 -1.21 4.53756 77 32 3 
-0.993199 -1.0547 4.54596 172 0 13 
0.267016 -0.175291 3.3005 181 109 0 
0.539575 -0.185661 3.53401 193 125 14 
-0.583013 -0.645723 3.91429 149 146 153 
-0.48259 -0.908841 4.40098 114 111 102 
-1.26164 -1.41256 4.88621 222 131 140 
-2.1806 -0.0083897 5.9425 233 199 162 
-0.447044 -1.60421 5.08223 143 93 82 
-3.24836 -1.37902 5.48508 125 123 137 
-0.439952 0.0572919 2.77563 255 252 240 
-0.360964 -0.192661 3.08942 93 4 0 
-1.15927 -1.15218 4.65887 128 21 51 
2.22205 0.610085 3.83304 238 242 228 
-1.00036 -1.51676 5.00796 151 156 136 
-0.70502 -1.78577 5.02842 107 102 96 
-0.721912 -1.78708 5.03923 90 86 77 
-0.661429 -1.77517 5.01332 160 156 155 
-0.603007 -0.890454 4.38029 133 84 77 
-0.591514 -0.884081 4.37125 200 160 152 
-0.695759 -1.76046 5.01337 88 87 82 
-3.23241 -2.05129 5.81733 58 56 67 
-0.819318 -0.820754 4.07324 219 219 221 
-0.557716 -0.882876 4.37665 212 134 132 
-0.555801 -0.860999 4.33303 201 132 127 
-0.628601 -0.861458 4.36518 66 31 11 
-1.2083 -1.78483 5.14124 235 199 203 
-3.2298 -2.05654 5.91597 51 45 55 
-0.651362 -0.903992 4.38201 152 126 103 
-0.736376 -1.6895 4.9506 178 174 165 
-0.52774 -0.845266 4.3417 227 200 193 
-0.479801 -0.841685 4.32416 233 223 211 
-0.509507 -0.82851 4.30087 91 62 48 
-0.60012 -0.828483 4.30961 255 198 195 
-0.895609 -0.769228 4.01786 145 145 145 
-0.45956 -0.810974 4.28897 90 79 77 
-0.548117 -0.795966 4.2748 93 75 63 
-0.557993 -0.783664 4.27779 248 211 193 
-0.477479 0.183213 2.75481 219 151 152 
-0.646676 -0.973578 4.30641 242 106 130 
-0.672005 -0.69601 3.94011 130 128 131 
-1.14559 -1.01639 4.46268 168 161 151 
-3.21485 -1.27991 5.52121 65 55 56 
0.378671 -0.669676 4.03841 193 124 117 
-0.612608 -0.639492 3.87773 126 124 129 
0.176898 -0.660037 4.08219 75 64 58 
0.150952 -0.633177 4.04261 42 35 25 
-1.09864 -1.55814 5.05223 225 214 210 
-0.0251962 -0.976129 4.16753 124 122 123 
-0.785541 -0.57665 3.9162 157 154 147 
-0.869078 -1.53085 4.99972 244 232 210 
-0.942789 -1.52488 4.98704 246 247 231 
-0.883965 -1.52672 4.99337 246 244 231 
-1.16654 -1.52546 5.03414 56 30 5 
-3.37672 -1.57872 5.19334 110 106 120 
-3.34353 -1.27231 5.17027 107 102 108 
0.583971 -0.319863 3.44005 188 157 113 
-0.878847 -1.09589 4.49223 255 231 212 
-3.36674 -1.57583 5.23545 208 203 209 
-1.16807 -1.13522 4.63715 90 0 0 
-0.47192 -0.257474 3.12486 246 243 228 
-1.21514 -1.17102 4.67787 93 0 0 
-3.35296 -1.56873 5.27276 72 70 73 
-3.24211 -1.38948 5.47089 53 46 54 
-3.31219 -0.441259 5.08709 121 113 111 
-3.37734 -1.51889 5.1911 151 144 160 
-1.2177 -1.4355 4.93838 99 23 35 
-1.18594 -1.20923 4.70936 163 95 110 
-0.687003 -1.40952 4.88247 20 26 16 
-0.949219 -1.22613 4.7149 205 142 88 
0.101113 -0.266872 3.73605 92 43 11 
-1.23267 -1.23039 4.72576 92 34 32 
-1.22446 -1.24024 4.75501 73 58 37 
-0.366999 -0.201644 3.08535 229 138 135 
-1.00289 -1.24139 4.74436 31 1 0 
-1.21823 -1.24497 4.72873 229 181 158 
-0.513029 -1.33079 4.66253 232 199 180 
0.185119 -0.236412 3.70839 85 49 27 
-0.388419 -0.177755 3.0576 212 121 120 
-0.891989 -1.27666 4.77287 56 51 19 
-0.692617 -1.35944 4.80927 27 4 0 
-1.24221 -1.36451 4.85257 91 35 38 
-1.09042 -1.2832 4.76727 101 52 56 
-0.507114 -0.124392 3.08653 198 100 97 
-0.973993 -1.31148 4.719 156 96 96 
-1.24387 -1.30045 4.79393 137 36 68 
-0.392295 -0.15423 3.07452 237 149 148 
-1.14771 -1.33787 4.84378 170 99 115 
-0.572027 -0.14707 3.07396 155 55 55 
-0.475676 0.266093 2.83726 133 70 65 
0.148825 -0.192843 3.66416 172 141 113 
-1.13587 -1.32929 4.8219 143 81 94 
-1.39211 -1.56113 4.90076 114 35 56 
0.38953 -0.698576 4.02078 69 56 48 
-3.24255 -2.12514 6.02886 22 21 26 
-3.36725 -0.889397 5.19811 142 136 146 
-1.02856 -1.56962 5.07432 192 120 80 
-1.14425 -1.35222 4.8444 26 0 0 
-0.678252 -1.53723 5.03119 72 17 0 
-1.37365 -1.7505 5.09784 47 0 20 
0.147061 -0.211349 3.66763 94 62 37 
-0.774392 -0.765931 4.01334 103 107 154 
-1.3693 -1.56878 4.90928 205 101 134 
-0.788128 -1.09957 4.438 65 19 0 
-0.60066 -1.57176 5.06343 113 0 1 
0.374682 -0.936387 3.78105 131 89 91 
-1.14468 -1.36253 4.86302 48 9 12 
-1.38174 -1.64958 4.99939 193 83 120 
-1.28328 -1.24066 4.75563 148 54 44 
0.472365 -0.258865 3.48346 166 96 0 
-2.16327 0.00693792 5.87525 223 190 159 
-0.995194 -1.29529 4.71814 166 112 110 
-0.510667 -0.856224 4.3429 174 156 144 
-0.864513 -1.31722 4.7915 195 123 109 
0.0769419 -0.305392 3.78575 157 125 104 
-0.445816 -0.917346 4.3872 107 48 42 
1.55522 1.30036 4.56719 107 76 45 
-0.317459 0.41832 3.02001 190 120 122 
-3.3883 -1.94752 5.4492 140 139 147 
-0.867584 -1.30178 4.79578 70 45 25 
-0.41368 -1.22829 4.67918 200 153 125 
-3.27728 -1.95555 5.65544 83 84 89 
0.149257 -0.63543 4.05544 43 39 30 
-0.494397 -0.125623 3.06289 225 160 158 
-0.22705 -0.989464 4.19007 212 210 211 
-3.24086 -1.33791 5.54951 43 34 35 
-1.04223 -1.17695 4.65326 200 125 145 
-0.640101 -0.848321 4.32452 74 44 33 
-0.625961 -0.845771 4.31257 81 53 29 
-0.500644 -0.84396 4.31844 100 74 61 
-0.594602 -0.844297 4.33093 133 65 62 
-1.22072 -1.22633 4.71066 176 153 135 
-0.549034 -0.817744 4.30132 125 45 34 
-1.189 -1.26329 4.75458 192 168 140 
-0.716616 -1.80034 5.06103 205 200 194 
0.310856 -1.03117 3.83777 109 102 94 
-0.712266 -1.78447 5.04097 193 190 181 
-0.688107 -1.74817 4.97195 91 90 85 
-3.29036 -1.49422 5.34543 29 28 34 
-0.534602 0.126094 2.79788 124 61 54 
-1.20548 -1.77508 5.14723 255 243 236 
-1.16177 -1.51938 5.0106 56 30 5 
-0.988368 -1.5171 4.98622 138 135 118 
-1.15543 -1.54413 5.04355 247 230 222 
-1.10888 -1.52823 4.98235 254 253 251 
-1.08059 -1.54054 5.0022 77 67 58 
-1.09141 -1.54932 5.01233 196 185 181 
-0.505517 -0.15078 3.05086 157 55 53 
-1.15136 -1.13924 4.63225 226 119 145 
-1.04783 -1.05228 4.55814 227 118 149 
-0.221873 -0.99478 4.15018 138 136 141 
-1.00958 -1.03789 4.54367 101 0 2 
-0.505642 -0.230216 3.10993 184 167 157 
-0.799582 -1.67257 4.94029 168 164 153 
-0.507392 0.17121 2.77127 212 171 169 
-0.604505 -1.57526 5.07441 91 6 0 
-3.19125 -1.90059 5.84726 46 43 52 
-0.65753 -0.909448 4.417 141 115 92 
-1.17229 -1.13994 4.6577 79 0 0 
-0.694389 -1.69488 4.94636 165 161 160 
-0.609673 -1.54878 5.01792 136 119 101 
-1.04341 -1.55912 5.05436 98 48 25 
-0.595978 -1.54383 5.01118 21 2 0 
-1.16566 -1.1507 4.63382 219 74 79 
-0.955557 -1.53886 5.00992 153 161 140 
-1.03558 -1.52945 4.99725 250 243 227 
-3.24594 -1.33897 5.5944 30 21 24 
-1.95823 1.02476 4.94812 104 69 47 
-0.538871 -0.252431 3.12233 126 118 107 
-0.923717 -1.51105 4.98686 171 165 139 
-0.322482 0.310996 2.90549 205 134 130 
-1.22503 -1.17683 4.68173 222 85 79 
-1.37185 -1.76419 5.11263 193 93 127 
-0.406023 -1.47414 4.92145 140 122 110 
-3.25283 -1.39782 5.47638 61 52 53 
-1.33294 -1.78507 5.15688 184 75 114 
-0.947311 -1.48189 4.97905 214 186 149 
-0.906111 -1.51336 4.99557 161 147 121 
-0.540286 -0.879062 4.36145 190 127 118 
-0.602428 -0.866916 4.35267 194 124 122 
-0.671091 -0.860243 4.34418 165 137 125 
-0.892643 -1.42566 4.91895 135 52 44 
-0.539098 -0.257703 3.13675 128 121 111 
0.667042 -0.0563386 3.4285 247 204 125 
0.195639 -0.325888 3.77413 101 51 24 
0.135903 -0.327394 3.7858 106 56 31 
-3.35019 -1.30503 5.14913 91 92 97 
0.173135 -0.651306 4.06446 188 171 164 
0.171565 -0.332471 3.77043 178 130 107 
-3.21873 -1.34714 5.42925 42 44 59 
0.695578 -0.313343 3.37142 144 60 0 
-1.12693 -1.4002 4.90708 178 74 109 
-0.401041 0.442243 2.98383 188 108 109 
-0.969479 -1.35276 4.83537 182 141 139 
-1.22483 -1.2514 4.75177 229 178 157 
-3.30598 -1.46142 5.49507 62 63 65 
-1.07017 -1.10475 4.60644 133 38 68 
-3.38424 -1.93472 5.47742 154 154 166 
-0.680315 -1.76543 5.0215 71 71 61 
-0.528704 -0.808207 4.29322 237 211 188 
-0.888322 -1.27034 4.75456 56 42 15 
-0.500165 -0.693658 4.17996 125 91 64 
0.385206 -0.679328 4.03647 108 90 86 
-0.618402 -1.542 4.99564 36 2 0 
-1.19933 -1.24413 4.73608 85 58 31 
-1.03712 -1.10774 4.60764 156 90 117 
-2.17694 0.274807 5.62934 121 87 60 
-0.451496 0.25799 2.81329 204 125 120 
0.0859206 -0.283228 3.74532 99 64 44 
-0.675324 -0.8835 4.35613 91 64 43 
-1.25392 -1.20943 4.70979 87 0 0 
-1.08198 -1.56028 5.00941 142 130 132 
0.14589 -0.211768 3.69145 82 51 30 
0.17928 -0.275982 3.74379 160 126 101 
-0.668527 -1.72453 4.97277 146 145 140 
-1.19945 -1.28166 4.78063 174 149 129 
-0.648138 -0.87489 4.35995 74 45 27 
-1.02806 -1.52259 5.01348 166 152 125 
-0.473085 -0.803043 4.26694 232 199 180 
-0.564023 -0.816838 4.30485 255 207 195 
-0.56818 -0.840286 4.31408 255 213 206 
-0.65739 -0.868577 4.3594 168 140 119 
-0.939683 -1.20484 4.71318 74 21 0 
-3.25455 -1.38363 5.46833 143 141 146 
-0.471531 -0.149881 3.0446 244 163 159 
-3.24131 -1.38299 5.52771 57 51 55 
-1.25089 -1.27926 4.79622 77 0 3 
-3.24103 -1.33431 5.67008 47 38 39 
-1.06924 -1.06561 4.57719 231 116 145 
-0.916938 -0.863944 4.1034 132 128 129 
2.15741 0.466963 3.81579 244 247 240 
-0.460614 -0.251069 3.12686 39 30 21 
-3.22943 -2.05682 6.07019 49 38 42 
-3.31065 -1.51147 5.34328 62 57 64 
-3.31174 -1.60167 5.57797 47 46 51 
-1.25228 -1.4133 4.9283 72 22 25 
-0.540231 -0.85285 4.33142 193 145 141 
-1.25374 -1.40574 4.89016 116 42 39 
-0.505405 -0.838902 4.33839 245 216 200 
-0.607237 -0.812451 4.282 255 220 209 
-0.783487 -0.37014 3.81919 45 34 32 
-0.559248 -0.786286 4.29017 248 211 193 
-3.33497 -1.56363 5.25001 32 32 40 
0.166803 -0.665083 4.03536 32 27 24 
-1.09179 -1.5141 4.9614 255 251 245 
-0.868275 -1.52415 4.98659 237 232 210 
0.165481 -0.652112 4.07788 201 191 179 
-0.315114 0.0991657 2.79645 209 136 130 
-0.59826 -1.55246 5.04711 24 3 0 
-1.36354 -1.47831 4.81818 226 103 147 
-0.987886 -1.47759 4.94797 74 50 24 
-1.03754 -1.53157 5.00761 254 247 229 
-0.766275 -1.71189 4.97424 85 81 78 
-1.32994 -1.50278 4.96761 197 83 117 
-1.30133 -1.60188 5.0562 182 89 120 
-0.959467 -1.2348 4.76294 220 141 72 
-1.31901 -1.85117 5.21031 224 131 158 
-0.226299 -1.00304 4.20202 166 164 167 
-1.07592 -1.1087 4.63362 85 6 28 
-0.704855 -1.74354 5.01515 186 185 183 
-0.751957 -1.68812 4.94654 75 72 63 
-0.555953 -0.876956 4.34191 207 133 130 
-0.296117 -1.63482 4.94178 71 46 42 
0.187565 -0.335374 3.80703 176 127 94 
-0.695394 -1.4088 4.89708 90 105 86 
0.164675 -0.268151 3.72561 174 130 101 
-0.989211 -1.22951 4.7157 58 41 25 
-1.28971 -1.83593 5.17832 44 17 26 
-1.19504 -1.50628 4.99309 253 196 143 
-0.377328 -0.157295 3.09072 209 98 105 
-3.26319 -0.57026 5.26623 203 199 198 
-3.32275 -1.27653 5.26737 150 146 147 
-1.09249 -1.36583 4.86319 247 171 155 
-0.966286 -1.35113 4.8009 222 178 175 
-0.930038 -1.51807 5.00029 194 188 162 
-0.443784 -0.0137908 2.87497 243 237 221 
-0.407359 0.338734 2.8908 192 122 122 
-3.23431 -1.78493 5.59359 48 42 52 
-0.79554 -1.71799 5.00216 179 175 172 
-0.293238 -1.22063 4.51046 162 106 105 
-1.33999 -1.796 5.19027 174 77 110 
-0.475661 0.23417 2.81496 145 54 51 
-1.78947 0.855878 5.09839 110 77 46 
-0.945348 -1.47876 4.96439 216 186 148 
-2.66843 -1.21009 7.05113 112 72 36 
-1.2646 -1.22637 4.67463 206 54 51 
-2.18501 0.276474 5.64338 103 69 42 
-1.3094 -1.08194 4.54656 183 51 62 
-0.323591 0.313601 2.91762 196 143 137 
-0.830358 -0.408206 3.81331 100 99 97 
-1.27359 -1.2226 4.71079 77 0 0 
-1.03322 -1.50012 5.02192 226 161 107 
-1.96557 1.21688 4.79134 120 90 56 
0.156473 -0.643713 4.05826 132 128 119 
-0.559658 -0.801991 4.30168 82 69 61 
-0.614383 -0.844184 4.3265 102 28 25 
-0.563511 -0.863595 4.36751 203 153 142 
-3.22879 -1.32325 5.54334 26 19 26 
-1.04191 -1.18086 4.64474 214 146 157 
-1.09885 -1.3813 4.85623 70 22 22 
-0.493502 0.069307 2.80578 28 26 14 
-1.079 -1.54017 4.99415 87 77 68 
-1.2202 -1.69783 5.13215 255 251 251 
-3.21277 -2.04587 6.03361 49 38 42 
0.15731 -0.244927 3.70419 175 124 97 
-3.27213 -2.07203 6.17213 18 13 20 
-0.488909 -0.803175 4.2906 202 175 156 
-0.527987 -0.80588 4.26455 177 149 127 
-0.622214 -0.869546 4.35899 194 148 133 
-0.625679 -0.884078 4.3569 106 77 59 
-0.640334 -0.883726 4.35496 75 44 24 
-0.537407 -0.912227 4.40243 168 113 108 
-0.616675 -1.59892 5.09138 131 91 89 
-3.23927 -1.28498 5.5617 34 33 41 
-1.08362 -1.10075 4.60816 225 75 76 
-1.02973 -1.56068 5.04718 189 104 65 
-1.07375 -1.15732 4.64559 65 7 29 
0.682244 -0.0574168 3.43768 204 118 5 
-0.922591 -1.17042 4.65149 156 105 58 
-1.20139 -1.22158 4.73605 73 46 39 
-1.22408 -1.22822 4.72997 209 186 154 
-1.24925 -1.21642 4.68489 174 89 108 
-1.27424 -1.22624 4.72152 77 0 0 
-0.291405 -1.1811 4.50759 53 33 22 
-0.913959 -1.51392 4.98004 98 98 70 
-0.954467 -1.52183 5.01915 141 130 102 
-1.07347 -1.52794 5.05238 105 60 41 
-0.873738 -1.50457 4.99211 71 20 17 
-3.30493 -1.50931 5.3328 62 57 64 
-3.30428 -1.59988 5.39245 170 170 168 
-3.29754 -0.578877 5.33002 211 203 201 
-3.32157 -1.5808 5.46984 64 64 72 
-1.26876 -1.24348 4.74184 82 11 17 
-3.18049 -1.84134 5.93629 38 31 38 
0.153489 -0.292263 3.76633 81 65 52 
-0.555719 -0.900386 4.36451 190 117 111 
-0.581544 -0.892449 4.36193 61 6 1 
0.0489531 -0.835191 4.13771 177 175 176 
-1.08381 -1.35639 4.82694 247 171 155 
-3.09229 0.045585 5.93019 214 185 151 
-0.293185 -1.37762 4.79859 143 95 85 
0.0724912 -0.259736 3.72304 173 134 105 
-1.81403 0.607475 5.32385 227 189 152 
-1.31285 -1.83652 5.17461 235 126 157 
-0.369201 -0.187944 3.0646 156 87 80 
-1.03948 -1.15479 4.65199 202 129 159 
0.469553 -0.20724 3.51975 241 177 87 
-0.796041 -1.71105 4.98417 139 138 134 
-0.663083 -1.48312 4.95156 218 170 148 
-1.95038 -0.127842 6.0218 209 174 142 
-0.321283 0.10638 2.75687 154 55 60 
-1.37795 -1.64063 4.98299 234 95 137 
-1.94875 1.01649 4.92444 107 71 49 
-0.51917 -0.868221 4.3367 182 147 128 
-0.933887 -1.52289 5.02299 187 180 154 
-1.34841 -1.60669 4.98414 185 59 97 
0.19922 -0.228962 3.70471 182 134 98 
-3.23149 -1.83933 5.40651 118 118 130 
0.118977 -0.635077 4.09431 108 95 87 
0.509712 -0.218183 3.49388 165 59 0 
-3.20213 -1.90535 5.72366 43 49 63 
-1.37336 -1.75213 5.11157 37 5 20 
-1.28223 -1.81288 5.16642 170 70 108 
0.696096 -0.31435 3.3869 155 66 0 
-0.779766 -0.37215 3.78701 69 57 57 
-0.522661 -0.850683 4.37496 90 67 59 
-0.613439 -0.861146 4.35741 88 20 19 
-0.825705 -0.399653 3.81963 167 163 164 
0.669847 -0.0530358 3.44365 251 214 146 
-3.21705 -1.96419 6.18706 21 16 22 
0.470097 -0.214721 3.49385 249 209 147 
-0.537904 0.132507 2.81485 143 30 34 
-3.2751 -1.19376 5.34189 206 204 209 
-3.22223 -2.05193 6.05543 35 26 29 
-1.11617 -1.54952 5.0045 84 73 71 
-1.15203 -0.673199 4.09086 37 36 31 
0.3775 -0.67118 4.01819 188 143 137 
-0.409784 -0.764264 4.2293 11 9 10 
-3.32885 -1.62514 5.28581 194 192 195 
-0.534136 -0.802209 4.28733 99 74 52 
-0.476469 -0.804699 4.27906 225 194 173 
-0.609613 -0.823639 4.32687 255 218 210 
-0.0049424 -0.988712 4.13736 131 126 130 
0.0489209 -0.830044 4.11594 177 175 176 
-0.599268 -0.898099 4.40674 161 112 107 
-0.844449 -0.831315 4.06547 233 231 234 
-0.563528 -0.907825 4.41047 205 138 130 
0.150471 -0.197249 3.63498 183 129 93 
-0.879288 -1.50626 5.00039 91 29 30 
-1.04058 -1.50032 5.0127 236 143 76 
-3.22406 -1.334 5.63334 33 27 29 
-3.22559 -1.32202 5.53494 26 19 26 
-1.06018 -1.13403 4.63529 243 178 210 
-0.919483 -1.16274 4.61935 134 75 31 
-0.911674 -1.17613 4.63385 233 184 151 
-1.31843 -1.42142 4.82767 204 64 111 
-1.26464 -1.22186 4.69336 83 16 7 
-1.18336 -1.24125 4.75065 166 147 132 
-1.2379 -1.29767 4.77694 187 77 116 
-0.490405 0.0678612 2.79166 23 19 8 
-0.431312 -1.22492 4.55861 166 122 87 
-3.33703 -1.51707 5.42224 28 27 33 
-3.30183 -1.56298 5.56582 47 41 53 
-1.30681 -1.56292 5.0115 88 18 44 
0.49086 -0.187257 3.51516 238 180 57 
-0.778039 -0.944028 4.24603 231 48 50 
-0.707193 -1.73164 4.98487 121 120 116 
-1.0186 -1.56921 5.06798 82 34 0 
-0.961924 -1.19697 4.69532 255 181 196 
-2.52495 -0.988077 6.86632 112 83 51 
-1.96325 1.00536 4.96889 136 102 74 
-1.94801 0.66598 5.26334 143 107 73 
-0.374506 -0.718821 4.1069 19 15 14 
0.308472 -1.03661 3.81197 244 241 222 
-0.445785 -0.127185 3.02928 203 167 167 
-1.06419 -1.14019 4.66365 239 180 212 
-3.2494 -1.522 5.84469 29 26 33 
-0.0252445 -0.271869 3.77538 228 214 203 
-3.28317 -1.45643 5.46631 35 42 52 
-0.400135 0.148106 2.74467 205 116 108 
-3.21566 -1.86977 5.74746 55 59 71 
-0.391349 0.155347 2.75262 161 14 24 
-3.21434 -1.85895 5.7579 39 43 55 
0.251759 -1.0569 3.88419 216 214 199 
-0.448752 0.0643755 2.79497 185 175 165 
-3.19343 -1.76659 5.5142 42 41 47 
-0.533414 -0.89916 4.37864 174 138 124 
-0.848627 -0.833582 4.08789 231 229 232 
-0.538911 -0.88318 4.37969 186 134 120 
-0.491563 -0.842029 4.33777 244 215 197 
-0.560117 -0.83525 4.32944 211 53 67 
-0.62394 -1.57784 5.07465 160 112 98 
-0.570738 -0.82451 4.32902 255 217 200 
-1.24384 -1.5497 5.05668 245 174 146 
-0.367953 -0.712286 4.15482 165 160 156 
-1.1535 -0.675331 4.10157 37 36 31 
0.425438 -0.185082 3.50039 189 98 7 
-3.33406 -1.63296 5.4488 44 43 48 
-3.30529 -1.63499 5.45626 41 36 42 
-0.992096 -1.52187 5.00934 115 113 92 
-3.25272 -1.64686 5.36447 134 127 134 
-3.21721 -1.38214 5.41219 71 61 62 
-0.593382 -1.54801 5.01941 27 0 0 
0.283403 -0.225472 3.35922 215 140 13 
2.93684 0.203501 5.49635 33 28 25 
-3.25423 -1.18576 5.30741 213 208 212 
-0.486376 -0.241135 3.10196 233 221 209 
-3.20176 -1.87281 5.86846 32 31 36 
-1.21912 -1.56194 5.05638 235 152 144 
-1.31924 -1.16858 4.61262 159 80 76 
-1.96011 0.116809 5.77721 118 83 55 
-1.34602 -1.40857 4.72845 115 20 50 
-0.978865 -1.18647 4.66605 254 175 207 
-3.03519 0.371246 5.62452 221 186 144 
-0.452005 -1.21769 4.55553 111 65 32 
-0.604276 -0.848869 4.31916 172 105 97 
-3.01276 1.55957 4.49072 122 87 47 
-0.419706 0.039802 2.81344 71 62 53 
0.64171 0.0608936 3.31746 170 82 0 
-0.539114 0.120748 2.80237 117 53 53 
-0.599777 0.60678 5.55247 237 152 155 
-0.370263 0.151487 2.73677 142 70 73 
-0.375854 0.171548 2.74084 153 74 77 
-0.60943 -1.56475 5.03574 80 38 22 
-0.387076 -0.173175 3.05197 223 152 150 
-0.586692 -0.168728 3.0955 119 40 43 
0.386639 -0.161561 3.46506 142 103 38 
-0.604755 -1.55128 5.03393 65 50 43 
-1.16367 -1.53846 5.01823 87 48 31 
-1.11592 -1.53399 5.00403 208 205 198 
-0.86317 -1.52693 4.98149 222 205 189 
-0.949317 -1.51677 4.9924 147 143 114 
-0.995985 -1.5135 4.99394 152 150 137 
-0.402141 -1.50072 4.91417 122 112 103 
-1.03731 -1.50804 5.00253 58 31 10 
-0.49608 -0.690491 4.15444 114 83 54 
-1.13249 -1.49131 4.96029 221 210 192 
-0.992342 -1.50157 5.00043 124 101 83 
-0.572316 -0.762841 4.25737 250 167 161 
-0.449889 -0.782117 4.24968 106 87 80 
-0.557741 -0.784876 4.25906 183 154 140 
-0.584132 -0.788185 4.2675 246 207 190 
-0.537586 -0.792963 4.26509 127 94 77 
-0.5916 -0.798658 4.27038 176 118 114 
-0.547044 -0.800225 4.26684 188 156 145 
-0.607507 -0.808154 4.27992 239 185 175 
-0.631251 -0.809069 4.29232 129 83 67 
-0.548332 -0.812001 4.28246 119 71 57 
-0.46635 -0.814324 4.28444 207 184 178 
-0.502806 -0.824583 4.28643 148 116 105 
-0.596097 -0.827649 4.29799 255 173 176 
-0.891778 -1.43757 4.93505 193 145 122 
-2.90471 1.45247 4.58309 101 71 35 
-1.21909 -1.43341 4.93994 120 30 40 
-0.545753 -0.831181 4.29884 127 36 35 
-0.525115 -0.832695 4.29777 180 154 141 
-0.685207 -0.832358 4.31015 156 128 107 
-0.670963 -0.835669 4.313 229 201 180 
-0.580503 -0.837786 4.30856 225 158 152 
-0.621476 -0.838543 4.31922 247 196 177 
-0.635326 -0.837384 4.3122 243 210 191 
-0.66667 -0.839987 4.32615 77 50 33 
-0.641078 -0.847369 4.32374 82 53 37 
-0.536241 -0.855747 4.32232 133 96 80 
-1.10139 -1.40702 4.90901 96 51 46 
-0.68124 -0.858618 4.33599 71 45 22 
-0.554908 -0.861594 4.33896 181 100 97 
-1.18993 -1.40241 4.91426 122 0 25 
-0.5409 -0.871538 4.34772 179 115 105 
-0.554728 -0.874231 4.35858 173 89 89 
-0.552493 -0.896455 4.37286 184 113 109 
-0.511377 -0.913407 4.38662 122 115 99 
-0.902757 -0.895902 4.14085 238 234 233 
-0.939325 -1.00987 4.50527 243 135 96 
-1.25619 -1.35011 4.84076 84 41 48 
-0.691096 -1.3527 4.8242 169 151 137 
-0.567142 -1.31424 4.65564 218 186 163 
-0.188505 -1.13364 4.59646 169 160 145 
-0.189187 -1.13366 4.57584 178 169 152 
-0.691911 -1.33977 4.8066 77 48 32 
-1.24485 -1.33819 4.84621 115 0 34 
-1.04262 -1.17519 4.65837 174 113 131 
-1.20333 -1.17875 4.68085 201 94 122 
-0.874736 -1.21481 4.71542 102 60 38 
-1.20288 -1.21538 4.72126 95 49 51 
-1.20869 -1.22266 4.72681 186 171 140 
-1.25187 -1.28138 4.78279 80 12 13 
-1.1834 -1.28306 4.78847 161 110 109 
-2.2476 1.40295 4.6115 223 189 152 
-2.67223 1.53557 4.49402 151 113 77 
-0.818829 -1.27657 4.77623 109 64 43 
-0.873744 -1.51057 4.98744 98 67 47 
0.539095 0.0310226 3.35157 155 99 0 
0.536168 0.0272243 3.33952 167 106 0 
-1.99176 1.52544 4.49333 166 131 103 
-1.14645 -1.25339 4.76237 105 42 50 
-2.19627 0.98734 4.96682 104 64 39 
-1.01598 -1.48247 4.98335 110 88 41 
-0.869507 -1.52119 5.00947 201 181 157 
-2.17445 1.34467 4.63741 127 85 47 
-0.453287 -1.21402 4.5655 79 32 4 
-0.874388 -1.51756 4.98363 156 151 122 
-0.867151 -1.50388 4.98278 81 29 18 
-0.514416 -0.819083 4.29299 102 70 55 
-2.98659 1.4593 4.59184 146 108 71 
-1.24903 -1.20714 4.70205 77 9 0 
0.674976 -0.0660275 3.42932 179 105 10 
-0.289056 -1.57326 4.87569 100 62 59 
-2.96877 1.5488 4.49725 210 174 138 
-0.358875 0.151755 2.74504 116 74 76 
-0.931182 -1.20397 4.693 109 70 55 
-3.22719 -1.31226 5.54145 81 76 73 
-1.23288 -1.19349 4.69649 168 97 105 
-1.22613 -1.18259 4.68738 158 69 71 
-1.9975 1.38392 4.61033 115 75 40 
-0.560506 -0.726229 4.20075 242 198 195 
-0.430322 -0.134861 3.04259 198 106 109 
-0.682317 -0.836168 4.31939 202 169 150 
-1.22003 -1.17507 4.67822 188 84 83 
-0.706123 -1.32481 4.81382 70 76 48 
0.15963 -0.282261 3.73155 142 115 98 
-3.20102 -1.28362 5.49875 102 93 88 
0.319647 -0.283948 3.7251 152 124 110 
-0.562554 -0.842209 4.30697 253 196 187 
-1.25439 -1.40934 4.89554 102 43 35 
-0.55109 -0.847307 4.31224 125 41 41 
0.270766 -0.27076 3.70798 134 102 87 
-1.16505 -1.16123 4.69652 104 10 37 
0.319857 -0.27105 3.7146 166 131 111 
-1.02292 -1.51982 4.98734 161 162 130 
-2.70297 1.43156 4.5898 157 118 77 
-0.56819 -1.11126 4.48543 147 89 41 
-0.96489 -1.59261 5.08676 170 26 0 
-2.44549 1.42479 4.59 194 164 130 
-0.592957 -0.880229 4.34942 182 137 131 
-0.645454 -0.880393 4.3572 139 111 100 
-0.685664 -1.34488 4.81712 43 27 12 
-3.27368 -1.58422 5.51051 60 58 61 
-0.58946 -0.886891 4.35628 199 150 145 
-0.295136 -1.52994 4.83435 99 41 39 
-1.21645 -1.56445 5.04084 218 109 138 
-0.67578 -1.53357 5.01881 65 6 0 
-0.283737 -1.34943 4.65161 66 21 15 
-1.00948 -1.56746 5.06135 160 106 72 
-0.485713 -0.903711 4.3654 26 21 17 
-1.01179 -1.56003 5.04881 70 35 0 
-0.994469 -1.0555 4.55202 168 0 10 
-0.323554 0.585556 2.922 147 134 118 
-1.93461 1.15691 4.80576 195 168 138 
-2.44429 1.42339 4.59911 116 82 54 
-1.14362 -1.35333 4.84332 31 0 2 
-0.892143 -1.02234 4.51584 255 188 169 
0.2606 -0.187982 3.6327 162 130 115 
-1.15377 -1.53917 5.02849 248 230 216 
-2.81356 1.4852 4.54853 133 96 54 
-1.14311 -1.363 4.85932 43 0 5 
-0.525014 -1.33412 4.66695 213 178 158 
0.261716 -0.195106 3.64615 149 114 95 
0.167019 -0.197518 3.65909 158 126 103 
-0.652889 -0.968296 4.29071 168 5 24 
-2.5141 1.46245 4.54209 133 89 52 
-2.20851 1.186 4.79134 113 77 43 
-1.16302 -1.27818 4.77765 152 55 72 
-2.79852 1.54606 4.48959 224 196 159 
-0.896927 -1.02245 4.50396 245 115 83 
-3.28135 -1.58042 5.52742 103 94 97 
-2.0444 1.17068 4.8144 191 157 119 
-1.94987 1.35998 4.61435 186 142 113 
-0.521823 -0.778418 4.24902 170 162 151 
-2.37031 1.52273 4.49162 148 112 78 
-0.373752 -0.702422 4.14274 74 63 57 
-3.01311 1.42999 4.60161 143 104 63 
-2.76288 0.837262 5.11933 134 100 63 
-1.13915 -1.34151 4.823 98 56 66 
-0.594427 -0.681212 3.91942 175 173 178 
-1.92707 1.41766 4.58485 142 104 57 
-2.73048 1.49007 4.51972 165 127 78 
-0.604974 -0.631315 3.8819 172 174 169 
-2.53555 1.28142 4.72299 101 64 38 
-2.788 1.45388 4.56276 234 197 155 
-2.25912 1.42056 4.57666 215 182 147 
-0.667804 -0.692126 3.91396 162 162 164 
0.0768034 -0.314997 3.77386 125 106 91 
-2.37988 1.03016 4.9359 236 202 167 
-3.07222 0.827014 5.14442 123 88 58 
-3.12111 0.0920012 5.78874 170 142 121 
-0.595865 -1.15995 4.508 134 58 26 
0.311483 -0.120761 3.38854 225 152 58 
-1.82177 1.41975 4.56037 103 68 38 
-0.562996 -0.260755 3.14417 110 98 86 
-0.9974 -1.04352 4.53296 197 77 76 
-0.909661 -0.874013 4.09925 170 165 169 
0.736335 0.00311354 3.34383 182 85 0 
-2.24137 1.27327 4.71555 112 82 58 
-0.67536 -0.639062 3.8656 237 237 237 
-2.47337 1.47736 4.5298 212 174 137 
-2.9055 0.713888 5.21274 221 180 148 
-0.837492 -1.40786 4.89811 136 60 36 
-0.819453 -0.826491 4.07022 68 66 69 
-0.645626 -0.971015 4.29694 226 87 120 
-0.652551 -0.847014 4.32278 69 43 30 
-0.546048 -0.839389 4.30803 255 178 174 
-0.472098 -0.830949 4.30343 67 65 52 
-0.514295 0.542195 5.33414 128 32 34 
2.15466 0.455533 3.78595 246 244 245 
-0.505529 0.532013 5.31385 148 66 68 
-0.577175 -0.804191 4.27333 83 48 44 
-0.953286 -1.23147 4.73775 202 144 98 
-1.18944 -1.26484 4.76721 170 150 126 
-1.24323 -1.26902 4.77243 107 19 31 
-1.07921 -1.53874 4.99781 100 100 98 
-1.09986 -1.55504 5.01144 142 137 133 
-2.19877 0.988921 4.97399 104 64 39 
-0.570263 -1.59294 5.06401 97 90 74 
-1.36421 -1.53317 4.87161 212 93 131 
-0.610605 -1.56723 5.05076 83 46 28 
-1.02306 -1.56329 5.06252 174 116 70 
-0.600612 -1.54916 5.02194 46 27 23 
-1.24694 -1.5422 5.0421 245 168 148 
-1.37111 -1.556 4.91329 141 61 96 
-0.582156 0.592205 5.49705 232 146 147 
-0.326106 -0.220641 1.87288 93 45 43 
-1.30746 -1.60964 5.07453 123 47 77 
-1.07335 -1.51703 5.00042 188 151 125 
-1.17294 -1.51469 5.01259 57 19 10 
-0.569393 -0.827572 4.29697 247 171 171 
-3.3088 -1.5123 5.27944 64 59 63 
0.72957 -0.165143 3.40247 170 116 18 
-1.31846 -1.43114 4.8656 164 73 104 
-0.479362 -0.797822 4.26955 166 135 115 
-0.582225 -0.829501 4.30006 204 120 118 
-1.97279 1.46608 4.52476 97 55 30 
-1.24424 -1.40968 4.911 74 18 27 
-0.441319 -0.78031 4.22438 196 172 168 
-0.293745 -1.59398 4.89142 63 40 34 
-0.763523 -0.752364 3.98699 180 238 255 
-1.07912 -1.38117 4.87598 186 131 128 
-0.815866 -0.810587 4.0461 142 140 141 
-2.79791 1.46468 4.53171 207 172 132 
0.205096 -0.267688 3.71305 102 50 28 
-3.27572 -1.41253 5.32756 72 66 76 
-0.993608 -1.0607 4.56052 251 88 117 
0.156551 -0.293094 3.75109 93 56 38 
-1.24313 -1.32815 4.83265 187 85 122 
-0.570553 -0.74668 4.21368 249 172 164 
0.174549 -0.335559 3.79338 163 125 104 
-1.18191 -1.28253 4.77939 157 102 105 
0.384559 -0.677348 4.02446 102 84 74 
-1.22137 -1.56653 5.06853 225 139 140 
-0.832033 -1.26654 4.76532 66 33 14 
-0.770152 -1.25764 4.74536 96 60 38 
-1.82781 1.42659 4.57732 111 81 47 
-1.20842 -1.24717 4.75516 89 62 35 
-0.568364 -0.76868 4.24594 255 191 175 
-0.560455 -0.774813 4.25504 186 81 78 
-2.66813 1.52629 4.49508 251 223 184 
-0.207961 -1.23894 4.66807 107 92 73 
-0.573124 -0.783533 4.26027 227 174 160 
-0.947637 -1.23781 4.72945 38 37 7 
-0.459766 -0.796769 4.25818 223 196 179 
-0.492324 -0.796658 4.25799 175 148 131 
-2.26231 1.42437 4.58368 201 168 135 
-2.00601 1.37649 4.61144 227 188 145 
-0.873813 -1.21553 4.70512 82 44 21 
-0.401716 -1.21471 4.67109 63 15 1 
-0.596784 -0.81775 4.28896 157 95 96 
-3.22346 -1.3193 5.53275 33 29 30 
-2.67635 1.53901 4.50206 151 113 77 
-0.656556 -0.829369 4.30736 120 87 68 
-0.477481 -0.839311 4.30012 244 230 219 
-3.23633 -1.32765 5.66584 72 66 68 
-0.380548 -1.18316 4.62778 76 27 13 
-0.496144 -0.84333 4.30383 100 68 57 
-0.674912 -0.848962 4.32743 33 13 2 
-0.633714 -0.851618 4.33092 171 145 130 
-2.36209 1.53703 4.49275 235 195 159 
-0.594181 -0.855222 4.32807 84 47 31 
-1.08658 -1.5223 4.99736 167 148 134 
-0.651644 -0.860883 4.33847 69 40 22 
-0.678047 -0.860676 4.30579 163 135 111 
-0.602891 -0.866875 4.33916 180 114 102 
-0.628971 -0.876731 4.34993 163 141 120 
-0.60074 -0.889376 4.35017 125 81 72 
-0.324686 0.146009 2.7632 210 108 121 
-0.612112 -0.908156 4.39034 165 114 95 
-0.470234 -0.916977 4.37781 27 10 3 
-3.23533 -1.34522 5.63555 48 42 42 
0.321727 -1.05523 3.86386 192 179 170 
-0.775504 -0.94721 4.2725 203 65 65 
-0.635632 0.649431 5.65447 112 66 68 
-2.22408 1.37813 4.62253 109 80 48 
-2.97707 1.55494 4.51207 210 174 138 
-0.910002 -1.06065 4.55394 223 88 121 
-0.673398 -0.874947 4.35538 79 51 39 
-2.16978 1.34807 4.62942 123 84 41 
-0.389873 0.174317 2.74666 153 77 79 
-0.435502 -0.12539 3.04618 221 125 127 
-1.00102 -1.47979 4.97102 167 132 100 
-2.16137 0.00335778 5.86022 215 182 147 
-3.25315 -1.55459 5.48032 94 84 85 
0.213916 -0.527367 3.94689 239 226 210 
-0.939912 -1.28052 4.78702 2 29 14 
-2.46724 1.12399 4.86702 144 111 76 
-3.12716 0.0946535 5.80207 175 147 126 
-0.474465 -0.796927 4.2621 208 176 161 
-2.4376 1.4159 4.57345 205 175 141 
-2.31535 1.09687 4.90752 112 83 49 
-2.30402 1.08413 4.8774 124 90 55 
-1.15966 -1.16145 4.67099 135 36 67 
-1.80857 1.4067 4.58294 178 144 106 
0.453561 -0.384454 3.81685 170 140 116 
-3.05388 0.500377 5.4355 179 149 121 
-2.14237 -0.0150428 5.82921 216 183 148 
-3.23099 -1.37404 5.45474 119 116 123 
-2.50445 1.3687 4.63066 136 97 66 
-2.00902 0.759778 5.16363 129 95 67 
-2.69796 1.37885 4.61613 186 145 99 
-1.81278 1.34573 4.62528 132 91 69 
-2.47536 1.06679 4.90817 191 159 121 
0.156074 -0.19365 3.65109 184 143 115 
0.25539 -0.23434 3.67692 87 51 29 
-0.558369 0.571417 5.43267 218 139 135 
0.586957 -0.320364 3.4168 144 112 61 
-0.602974 0.610099 5.5637 237 161 161 
0.379234 -0.354256 3.78139 96 54 29 
0.378443 -0.670884 4.03155 183 121 122 
-1.85339 1.35766 4.6174 217 178 139 
-0.606207 -1.56007 5.04405 131 105 88 
-0.630722 -0.821873 4.31134 150 108 92 
-0.50952 -0.82774 4.29463 100 72 58 
-0.592294 -0.841651 4.31391 109 36 29 
-0.570836 -0.852413 4.33385 81 44 35 
-1.36739 -1.48632 4.83036 166 77 109 
-0.624527 -0.858631 4.33648 99 60 45 
-0.0750572 -0.848182 4.12409 142 134 115 
-1.09544 -1.51496 4.98224 245 232 216 
-0.911859 -1.51443 4.97103 111 110 80 
-0.823728 -0.855221 4.09106 158 154 155 
-0.667221 -0.903496 4.38054 152 129 113 
-1.05891 -1.50916 4.99729 118 43 12 
-0.674608 -1.50215 4.97911 50 0 0 
-0.930926 -1.17633 4.669 157 82 25 
-1.23137 -1.22965 4.72122 84 33 30 
-0.809529 -1.24004 4.73042 79 37 15 
-1.15737 -1.25908 4.76717 143 115 101 
-1.16353 -1.26712 4.77406 50 33 23 
-1.24673 -1.30193 4.80454 77 0 20 
-0.512756 -1.33133 4.6648 229 196 161 
-1.25399 -1.35932 4.8525 191 168 152 
-1.10164 -1.40578 4.88959 48 13 11 
-3.25999 -1.42525 5.3838 87 81 85 
-0.62563 -0.869258 4.33836 78 45 26 
-0.0903945 -0.846174 4.1279 27 20 14 
-0.508309 -0.85888 4.3292 86 71 66 
-2.5412 1.28587 4.73533 101 64 38 
-1.97743 1.50593 4.49319 110 80 52 
-1.07791 -1.38081 4.86803 153 104 100 
-0.510588 -0.131634 3.05176 137 46 45 
-0.283992 -1.38275 4.68371 64 26 25 
-0.409473 0.0465981 2.82025 202 193 184 
-0.644193 -0.654467 3.87716 133 134 139 
-0.464398 0.181351 2.74551 150 39 45 
-1.13041 -1.30515 4.81693 176 90 119 
-0.636472 0.652258 5.66255 116 74 76 
-1.36917 -1.57058 4.91536 197 92 125 
-1.06173 -1.42795 4.91643 149 82 37 
-3.22996 -1.34421 5.62241 48 42 42 
0.349469 -1.0241 3.82829 117 108 101 
-0.545081 -0.790575 4.2587 227 205 191 
-0.804807 -1.27782 4.76251 78 48 24 
-1.22432 -1.24921 4.75393 186 152 127 
-1.82343 1.45133 4.53892 126 91 61 
-0.997359 -1.23717 4.72344 27 13 0 
-0.388769 -1.22857 4.69067 37 0 0 
-0.651425 -0.8812 4.37248 146 119 110 
0.190562 -0.282874 3.72904 90 56 44 
-3.22546 -1.3318 5.56117 41 36 42 
-3.24943 -1.34514 5.66019 67 61 61 
-1.10673 -1.38829 4.85951 81 10 28 
0.440934 -0.381579 3.80332 111 83 59 
-1.17025 -1.15892 4.66081 201 76 80 
-3.31124 -1.61744 5.40795 81 76 83 
-1.01822 -1.52958 5.00128 245 242 225 
-2.67239 1.52879 4.5032 248 220 181 
-2.75882 0.733952 5.20616 145 116 84 
-0.516308 -1.32208 4.66274 219 183 157 
-2.73779 1.4981 4.533 152 113 70 
-3.0395 1.53031 4.51845 128 90 53 
-0.961149 -1.34337 4.77738 218 179 180 
-2.51038 1.45822 4.53198 137 93 56 
-1.9575 1.2052 4.77391 153 119 84 
-2.75076 0.794809 5.16958 218 186 145 
-1.13953 -1.33268 4.84022 156 96 108 
-2.15134 -0.00758411 5.87288 217 179 143 
-2.08467 1.50847 4.49164 145 106 73 
-2.4947 1.28362 4.73599 202 167 135 
-1.70521 0.583604 5.27181 103 74 44 
-2.64463 1.28815 4.71767 218 182 148 
-3.23569 -1.23672 5.62026 76 63 57 
-2.73078 0.895885 5.09713 220 181 138 
-0.935357 -1.00699 4.49 245 139 97 
-0.491243 -0.127379 3.04066 226 162 163 
-0.421079 0.0279868 2.82951 56 46 44 
-0.406923 -0.745757 4.10841 170 169 167 
0.430927 -0.376072 3.79497 174 151 145 
0.421653 -0.366778 3.79387 64 50 41 
-0.508047 -0.689435 4.1569 123 88 58 
-0.551739 -0.79768 4.29172 96 76 67 
-0.527402 -0.806464 4.27542 216 186 175 
-0.562775 -0.808072 4.27006 101 67 58 
-0.549154 -0.815361 4.2908 116 54 43 
-0.471349 -0.816668 4.27153 239 212 201 
-0.538728 -0.822117 4.28258 204 165 148 
-0.0298427 -0.274206 3.737 192 174 162 
-0.652757 -0.830282 4.299 122 89 72 
-0.63722 -0.835358 4.29749 240 205 186 
-0.525363 -0.842125 4.30368 230 208 187 
-0.665486 -0.844392 4.31522 44 22 11 
-1.37217 -1.53716 4.89465 210 90 128 
-0.631756 -0.877635 4.35966 162 140 119 
-0.601381 -0.889157 4.36786 164 121 114 
-0.652477 -0.905719 4.38232 137 106 88 
-0.623546 -1.56864 5.05081 141 82 66 
-1.08902 -1.54845 5.00687 222 221 219 
-1.97848 1.47096 4.53655 101 59 34 
-0.616994 0.630888 5.59769 118 61 67 
-0.601288 0.626474 5.57247 151 81 91 
-0.637869 0.642689 5.64709 126 54 58 
-0.925318 -1.51353 4.99838 162 150 134 
-1.32055 -1.49215 4.93079 183 82 112 
-1.06179 -1.51145 5.00893 118 43 12 
-1.15479 -1.14058 4.63672 206 113 134 
-0.347178 0.156925 2.74824 118 62 61 
-0.450395 0.163309 2.73953 232 153 149 
-0.356759 0.165632 2.75732 122 47 51 
-0.931088 -1.20293 4.70587 157 114 97 
-3.22575 -1.33407 5.52377 32 32 32 
-1.26039 -1.22234 4.72782 200 105 125 
-0.952157 -1.22846 4.72933 214 144 92 
-0.951948 -1.24159 4.75838 41 31 4 
-1.22789 -1.22951 4.70469 71 18 24 
-1.23907 -1.25134 4.76764 97 20 28 
-0.939283 -1.28268 4.77063 0 4 0 
-1.24914 -1.27994 4.77424 81 20 17 
-3.22284 -1.37765 5.41503 149 145 146 
-1.24259 -1.31223 4.81269 221 99 140 
-0.528084 -1.32606 4.65748 214 179 159 
-1.24747 -1.36828 4.87298 98 39 43 
-1.1426 -1.03258 4.4805 107 105 93 
-0.962798 -1.3438 4.78945 199 161 160 
-1.00729 -1.03642 4.53622 99 5 0 
-3.26513 -1.40992 5.30662 100 93 101 
-1.01551 -1.52793 4.9882 238 236 221 
-1.158 -1.32908 4.82448 119 20 49 
-1.17081 -1.13725 4.65012 119 2 0 
-2.72625 1.31079 4.70555 109 76 43 
-1.16878 -1.15312 4.64925 209 76 77 
-1.19396 -1.56201 5.06035 157 42 75 
-1.10486 -1.2894 4.78651 155 77 99 
-0.790084 -1.2925 4.78598 122 118 91 
-0.509247 -0.911068 4.37328 136 128 115 
-3.2633 -1.44434 5.34307 156 153 160 
-1.35869 -1.35799 4.69773 168 65 69 
0.37289 -1.06106 3.86148 123 119 107 
0.169186 -0.300513 3.76346 178 129 99 
0.176137 -0.258719 3.71244 178 143 115 
-0.694507 -1.40849 4.88978 90 102 92 
-2.23406 1.26446 4.69021 111 81 55 
-2.15322 0.00299606 5.84495 219 189 155 
-0.39404 -1.19553 4.64325 58 9 0 
-1.2426 -1.20635 4.71246 174 127 111 
-0.597231 -0.801266 4.28198 141 80 77 
0.665891 -0.0575301 3.4174 245 204 140 
-2.76891 0.839992 5.12631 126 92 55 
-1.99393 1.38085 4.60346 114 74 39 
-0.21012 -1.24129 4.67993 110 94 78 
-2.89764 1.46155 4.58614 201 171 135 
-2.15139 1.32953 4.66995 113 76 34 
-0.388985 -1.24916 4.70201 84 47 41 
-1.01686 -1.03954 4.54135 202 79 71 
-2.46571 1.07502 4.90573 118 87 58 
0.0846279 -0.295458 3.75364 130 85 62 
-0.828226 -1.27024 4.77298 59 27 6 
-2.84216 0.679815 5.23356 116 78 39 
-2.75428 0.731013 5.19116 145 115 81 
-2.16411 0.270837 5.59201 102 71 42 
-3.327 -1.19485 5.22146 45 41 58 
-0.30223 0.0537947 2.8438 213 122 121 
-0.960843 -1.33402 4.81088 145 111 109 
-3.10381 1.29681 4.70847 189 160 126 
0.262547 -0.324283 3.76063 101 63 40 
-0.622886 -1.55177 5.04039 17 0 0 
-1.91371 1.24924 4.71515 121 88 53 
-0.99613 -1.26581 4.71089 217 185 170 
0.399222 -0.352768 3.78085 96 54 30 
-3.06271 0.504743 5.44822 178 149 119 
-3.06382 0.691004 5.23352 192 164 127 
-1.00144 -1.04558 4.54536 178 68 67 
-0.543768 -0.840744 4.31627 255 189 181 
-0.575374 -0.853552 4.3246 87 45 31 
-0.582974 -0.895092 4.36813 74 10 11 
-0.47433 -0.826671 4.29189 76 64 50 
-0.566008 -0.816356 4.28882 248 211 202 
-0.459753 -0.809864 4.27208 122 107 100 
-0.540027 -0.806334 4.27618 244 211 194 
-1.97191 1.42166 4.58604 84 56 32 
-1.15103 -1.01948 4.48763 136 133 126 
-1.21995 -1.56535 5.05929 222 133 137 
-0.660395 0.693246 5.75498 147 49 62 
-0.886333 -1.52498 4.98555 246 240 224 
-0.406211 -0.747037 4.09534 194 193 191 
-3.26654 -1.58496 5.4965 57 57 67 
0.309678 -1.04075 3.84769 211 206 200 
-1.02287 -1.4883 4.96543 212 155 100 
-0.988078 -1.4949 4.99342 184 142 120 
-3.21689 -1.28041 5.527 43 38 44 
0.309863 -1.06244 3.8802 89 84 78 
-0.678268 -0.705258 3.92782 61 59 64 
-1.80986 1.25075 4.72268 99 73 40 
-0.940805 -1.19877 4.70573 88 25 0 
0.411015 -0.359761 3.79347 176 131 92 
-0.451308 -0.240368 3.1052 253 242 222 
-1.26796 -1.42563 4.92265 215 142 125 
-0.422728 -1.39967 4.78108 191 191 179 
-1.14654 -1.25103 4.75406 94 46 46 
-1.18818 -1.26331 4.74979 197 171 146 
-1.15154 -0.669541 4.09634 33 28 24 
-3.26692 -1.45283 5.36058 67 65 68 
-3.23046 -1.3906 5.4412 66 57 58 
-1.13061 -1.36092 4.84359 169 72 105 
-2.31185 1.09067 4.89052 111 81 47 
-1.95479 1.37242 4.64321 200 156 119 
-1.85153 1.35663 4.60949 227 188 147 
-2.77097 1.5065 4.54127 208 169 114 
-1.81231 1.3473 4.61325 98 63 43 
-2.15552 0.00267284 5.85347 223 192 161 
-2.15608 -0.00420199 5.88293 225 189 157 
-1.96672 1.47544 4.53736 214 173 141 
-2.53291 1.2781 4.71372 104 67 41 
-2.23738 1.26717 4.69761 97 71 48 
-3.05926 0.0447706 5.86443 201 168 133 
-2.66348 1.51193 4.51247 125 92 57 
-2.7274 0.894011 5.08685 226 187 144 
-2.05629 1.20883 4.76204 104 79 49 
-1.27417 -1.23284 4.7133 201 44 55 
-2.1431 1.3234 4.64778 113 76 34 
-3.05396 0.42384 5.50929 192 165 138 
0.364221 -1.03129 3.83553 103 93 91 
0.250793 -0.235662 3.66847 75 49 36 
0.147435 -0.233869 3.69255 84 52 39 
-2.96028 0.81656 5.11599 117 82 54 
-2.95922 -0.446535 6.2596 227 186 134 
-3.23927 -1.30533 5.68747 35 26 31 
-0.603507 -0.85596 4.33167 80 20 10 
-0.565338 -0.786492 4.2519 81 71 62 
-3.22628 -1.32336 5.54143 27 25 28 
-1.13155 -1.21019 4.71067 213 120 151 
-3.21349 -1.33172 5.53564 37 36 44 
-3.25783 -0.568518 5.16319 180 173 181 
-3.26332 -1.44941 5.41531 104 104 116 
-0.461924 -0.147855 3.03071 139 39 41 
-1.09047 -1.52291 5.00999 160 131 117 
-0.460025 0.167463 2.73644 160 80 81 
-0.401794 0.152997 2.72848 197 116 113 
-0.611345 -1.5515 5.02305 128 109 94 
-1.36487 -1.35995 4.72474 202 77 73 
-1.81084 1.41529 4.58573 213 178 140 
-0.654388 -0.811132 4.29182 110 82 60 
-0.490485 -0.799471 4.26777 176 147 129 
