ply                 
format ascii 1.0    
element vertex 1255
property float x    
property float y    
property float z    
property uchar red  
property uchar green
property uchar blue 
end_header          
-3.23816 -1.23498 5.62079 76 63 57 
-2.73027 0.898563 5.09736 220 181 138 
-0.93626 -1.00756 4.48698 245 139 97 
-0.491645 -0.128087 3.03649 226 162 163 
-0.421415 0.0271501 2.82531 56 46 44 
-0.407563 -0.746811 4.10469 170 169 167 
0.430609 -0.378116 3.79056 174 151 145 
0.421347 -0.36881 3.78947 64 50 41 
-0.5086 -0.690369 4.15333 123 88 58 
-0.552372 -0.798627 4.28828 96 76 67 
-0.52805 -0.807438 4.27195 216 186 175 
-0.563433 -0.808997 4.2666 101 67 58 
-0.549809 -0.816314 4.28736 116 54 43 
-0.472001 -0.817716 4.26801 239 212 201 
-0.539394 -0.823081 4.27912 204 165 148 
-0.0300778 -0.275624 3.73288 192 174 162 
-0.653447 -0.831103 4.29562 122 89 72 
-0.637914 -0.8362 4.2941 240 205 186 
-0.526042 -0.84312 4.30022 230 208 187 
-0.666189 -0.845206 4.31187 44 22 11 
-1.37377 -1.53754 4.89225 210 90 128 
-0.632475 -0.878521 4.35633 162 140 119 
-0.602104 -0.890089 4.36451 164 121 114 
-0.653227 -0.906593 4.37902 137 106 88 
-0.624826 -1.57015 5.04816 141 82 66 
-1.0905 -1.5493 5.00446 222 221 219 
-1.97671 1.47278 4.53548 101 59 34 
-0.615197 0.63071 5.59773 118 61 67 
-0.599495 0.626265 5.57243 151 81 91 
-0.636054 0.642561 5.64729 126 54 58 
-0.926683 -1.51458 4.99587 162 150 134 
-1.32207 -1.49261 4.92845 183 82 112 
-1.0632 -1.51232 5.00654 118 43 12 
-1.15588 -1.14097 4.63399 206 113 134 
-0.347423 0.155939 2.74401 118 62 61 
-0.45059 0.162457 2.73537 232 153 149 
-0.356983 0.164654 2.7531 122 47 51 
-0.932165 -1.20368 4.70307 157 114 97 
-3.22825 -1.33234 5.52401 32 32 32 
-1.2616 -1.22267 4.72526 200 105 125 
-0.953265 -1.2292 4.72656 214 144 92 
-0.953063 -1.24235 4.75565 41 31 4 
-1.22909 -1.22986 4.70207 71 18 24 
-1.2403 -1.25172 4.76511 97 20 28 
-0.94044 -1.28348 4.76789 0 4 0 
-1.2504 -1.28033 4.77171 81 20 17 
-3.22532 -1.37587 5.41501 149 145 146 
-1.24389 -1.31266 4.8102 221 99 140 
-0.529209 -1.32735 4.65425 214 179 159 
-1.24883 -1.36877 4.87056 98 39 43 
-1.14359 -1.03288 4.4776 107 105 93 
-0.964034 -1.3446 4.78671 199 161 160 
-1.00823 -1.03692 4.5333 99 5 0 
-3.2676 -1.40803 5.30639 100 93 101 
-1.01693 -1.52885 4.98572 238 236 221 
-1.15928 -1.32964 4.82194 119 20 49 
-1.1719 -1.13763 4.64742 119 2 0 
-2.72506 1.31358 4.70518 109 76 43 
-1.16989 -1.15351 4.64654 209 76 77 
-1.19549 -1.56276 5.0581 157 42 75 
-1.10608 -1.28999 4.7839 155 77 99 
-0.791195 -1.29351 4.78315 122 118 91 
-0.509976 -0.912129 4.36987 136 128 115 
-3.26584 -1.44249 5.34289 156 153 160 
-1.3601 -1.3582 4.69511 168 65 69 
0.371691 -1.06304 3.85684 123 119 107 
0.168937 -0.302201 3.75922 178 129 99 
0.175903 -0.260406 3.70817 178 143 115 
-0.695685 -1.40973 4.88699 90 102 92 
-2.23268 1.26657 4.68949 111 81 55 
-2.15355 0.00422391 5.84614 219 189 155 
-0.394961 -1.19696 4.63998 58 9 0 
-1.24378 -1.20669 4.70987 174 127 111 
-0.597882 -0.802149 4.27856 141 80 77 
0.665628 -0.0598308 3.41268 245 204 140 
-2.76851 0.842687 5.1266 126 92 55 
-1.99228 1.38268 4.60247 114 74 39 
-0.211019 -1.243 4.67657 110 94 78 
-2.89629 1.46458 4.58572 201 171 135 
-2.1499 1.33156 4.66916 113 76 34 
-0.389941 -1.25065 4.6988 84 47 41 
-1.01781 -1.04004 4.53844 202 79 71 
-2.46475 1.07741 4.90548 118 87 58 
0.0843773 -0.297031 3.74945 130 85 62 
-0.829327 -1.27119 4.77017 59 27 6 
-2.84204 0.682511 5.23406 116 78 39 
-2.75403 0.733623 5.19153 145 115 81 
-2.16409 0.272339 5.59271 102 71 42 
-3.32922 -1.19271 5.22123 45 41 58 
-0.302573 0.0527893 2.83952 213 122 121 
-0.962059 -1.33483 4.80819 145 111 109 
-3.10281 1.30008 4.70833 189 160 126 
0.262265 -0.326095 3.75632 101 63 40 
-0.624149 -1.55327 5.03773 17 0 0 
-1.9122 1.25094 4.71426 121 88 53 
-0.997305 -1.26649 4.70809 217 185 170 
0.398922 -0.354767 3.77646 96 54 30 
-3.06307 0.507624 5.44926 178 149 119 
-3.06384 0.694 5.23416 192 164 127 
-1.00239 -1.0461 4.54244 178 68 67 
-0.544442 -0.84172 4.31284 255 189 181 
-0.576067 -0.854492 4.3212 87 45 31 
-0.583701 -0.89605 4.36477 74 10 11 
-0.474985 -0.827726 4.28839 76 64 50 
-0.566668 -0.817286 4.28538 248 211 202 
-0.460394 -0.810927 4.26855 122 107 100 
-0.540676 -0.807292 4.27271 244 211 194 
-1.9702 1.42347 4.58502 84 56 32 
-1.152 -1.01976 4.48475 136 133 126 
-1.2215 -1.56607 5.05706 222 133 137 
-0.658488 0.693226 5.75553 147 49 62 
-0.8877 -1.52607 4.98299 246 240 224 
-0.40686 -0.748087 4.0916 194 193 191 
-3.26932 -1.5833 5.49655 57 57 67 
0.308494 -1.04264 3.84309 211 206 200 
-1.02425 -1.48919 4.96295 212 155 100 
-0.989448 -1.49585 4.99096 184 142 120 
-3.21934 -1.27865 5.52728 43 38 44 
0.308678 -1.06434 3.87562 89 84 78 
-0.678967 -0.705874 3.92411 61 59 64 
-1.8083 1.25232 4.72175 99 73 40 
-0.941879 -1.19951 4.70294 88 25 0 
0.410718 -0.361779 3.78907 176 131 92 
-0.451836 -0.241105 3.10099 253 242 222 
-1.26938 -1.42614 4.9203 215 142 125 
-0.423846 -1.4012 4.77794 191 191 179 
-1.14774 -1.25154 4.75145 94 46 46 
-1.1894 -1.26375 4.74719 197 171 146 
-1.15217 -0.669591 4.09314 33 28 24 
-3.26948 -1.45099 5.36043 67 65 68 
-3.23297 -1.38884 5.44123 66 57 58 
-1.13192 -1.36153 4.84105 169 72 105 
-2.31078 1.09287 4.89015 111 81 47 
-1.95315 1.37421 4.64227 200 156 119 
-1.84985 1.35826 4.60842 227 188 147 
-2.76949 1.50937 4.54071 208 169 114 
-1.81062 1.34888 4.61216 98 63 43 
-2.15586 0.00390253 5.85469 223 192 161 
-2.15643 -0.00298121 5.88422 225 189 157 
-1.96494 1.47724 4.53628 214 173 141 
-2.53167 1.28062 4.71322 104 67 41 
-2.236 1.26929 4.6969 97 71 48 
-3.06038 0.0472386 5.86627 201 168 133 
-2.66193 1.51464 4.51179 125 92 57 
-2.72688 0.896679 5.08706 226 187 144 
-2.05491 1.21072 4.76132 104 79 49 
-1.2754 -1.23314 4.71072 201 44 55 
-2.1416 1.32541 4.64694 113 76 34 
-3.05444 0.426646 5.51043 192 165 138 
0.363039 -1.03325 3.83088 103 93 91 
0.250552 -0.237439 3.66412 75 49 36 
0.147218 -0.235513 3.68829 84 52 39 
-2.96002 0.819485 5.11636 117 82 54 
-2.961 -0.444776 6.26217 227 186 134 
-3.24186 -1.30367 5.68811 35 26 31 
-0.604205 -0.856866 4.3283 80 20 10 
-0.565978 -0.787401 4.24843 81 71 62 
-3.22879 -1.32163 5.54172 27 25 28 
-1.1327 -1.21068 4.708 213 120 151 
-3.21599 -1.33001 5.5359 37 36 44 
-3.2593 -0.566114 5.16314 180 173 181 
-3.2659 -1.44762 5.41528 104 104 116 
-0.462368 -0.148595 3.02652 139 39 41 
-1.09191 -1.52376 5.00761 160 131 117 
-0.460212 0.166621 2.73229 160 80 81 
-0.402031 0.152084 2.72429 197 116 113 
-0.612611 -1.55301 5.02034 128 109 94 
-1.36628 -1.36017 4.72217 202 77 73 
-1.80907 1.41689 4.58461 213 178 140 
-0.655057 -0.811945 4.28845 110 82 60 
-0.49112 -0.80049 4.26427 176 147 129 
-3.2555 -1.53515 5.49242 45 36 55 
-1.22124 -1.22577 4.71054 192 177 144 
-2.24101 1.27385 4.70377 89 64 42 
-0.774872 -0.984824 4.36943 103 17 2 
-3.23731 -1.3809 5.51642 48 39 44 
-1.18913 -1.29031 4.8041 200 127 138 
0.162142 -0.268758 3.72801 178 124 88 
-0.465937 -0.917278 4.36012 87 66 61 
-1.23521 -1.32695 4.81037 90 0 30 
-2.84033 1.15146 4.85989 128 89 60 
-3.06779 0.619485 5.34457 222 188 150 
0.0787183 -0.270992 3.72201 84 56 34 
-0.519869 -0.869469 4.33495 181 149 136 
-1.27038 -1.23271 4.6849 216 37 40 
-0.78508 -1.29121 4.76113 89 89 63 
-2.47599 1.06454 4.91607 218 184 146 
-0.417625 -0.164635 3.03756 207 112 110 
-1.95855 1.46732 4.51625 209 168 138 
-1.04381 -1.15766 4.66426 213 139 174 
-2.37477 1.02821 4.93015 243 209 172 
-0.89963 -1.42743 4.90985 100 52 42 
-0.998001 -1.4877 4.99057 65 43 19 
-0.501022 -1.31813 4.65394 228 193 171 
-1.85398 1.36434 4.62261 237 195 155 
-3.04715 0.421318 5.49591 201 174 147 
-2.77225 0.847021 5.1385 120 86 48 
-3.27259 -1.56027 5.37838 46 40 52 
-2.91903 0.810442 5.15338 213 174 141 
-3.07087 0.801543 5.14792 188 157 136 
-2.9727 0.827035 5.14283 124 88 62 
-2.96489 -0.445386 6.26845 227 186 134 
-0.651406 -0.842718 4.29857 147 118 104 
-0.374801 -0.720525 4.09806 25 19 19 
-0.0185387 -0.275559 3.71006 101 83 73 
-0.524765 -0.785716 4.23381 242 213 195 
-0.488771 -0.812219 4.27845 90 61 47 
-0.44788 0.173653 2.73272 156 24 35 
-0.501385 -0.137965 3.03094 171 32 39 
-0.435318 0.0563614 2.78004 199 192 174 
0.172015 -0.651933 4.04937 211 192 185 
-1.07007 -1.54172 4.98404 82 77 71 
-1.06191 -1.06385 4.56281 228 85 131 
-1.28475 -1.51224 4.95188 222 82 127 
-3.27666 -1.1918 5.34129 197 195 198 
-0.91556 -1.51362 4.96035 157 153 128 
-3.2063 -1.27075 5.50056 42 40 51 
-3.21811 -1.29866 5.64018 43 32 36 
-0.402275 0.163027 2.72648 229 161 160 
-3.23643 -1.32297 5.55133 30 28 31 
-3.26892 -1.54908 5.50319 59 49 58 
-1.19598 -1.26618 4.7533 209 178 149 
-1.21802 -1.43966 4.92799 90 25 23 
-1.26275 -1.42742 4.89689 223 159 132 
-1.21337 -1.28532 4.78308 170 150 126 
-3.24753 -1.53339 5.56105 28 26 37 
-0.958549 -1.33505 4.77587 158 118 116 
-1.11122 -1.40376 4.86523 38 12 15 
-3.24648 -1.51955 5.83496 25 23 36 
-3.29157 -1.45313 5.40221 55 55 67 
-1.07533 -1.10065 4.62678 79 7 19 
-1.04101 -1.15676 4.65262 213 139 174 
-0.386365 -1.22969 4.65123 36 11 7 
-1.9317 1.26063 4.70319 203 161 119 
-2.0131 1.37673 4.62784 223 184 141 
-3.04069 0.415856 5.48119 201 174 147 
-2.2435 1.28027 4.69385 72 45 15 
-2.74061 0.853017 5.12006 231 203 156 
-1.03379 -1.49331 4.98556 233 135 74 
-1.93729 -0.130381 5.97248 205 172 139 
-2.24474 0.942486 5.01731 104 68 44 
0.242129 -0.229374 3.66819 161 122 81 
-3.08389 0.415847 5.52431 180 151 111 
0.4325 -0.304327 3.42731 192 112 0 
-1.96375 1.4173 4.55817 121 94 73 
0.401094 -0.20564 3.47675 155 71 7 
-0.564411 -0.880965 4.35004 199 142 131 
-3.25806 -0.569257 5.15455 204 193 197 
-0.399564 -0.754557 4.09583 213 212 208 
-0.478062 -0.129032 3.05796 207 176 171 
-3.07763 0.415917 5.51597 183 153 115 
-0.449218 0.0499464 2.80064 93 87 75 
-2.26137 1.28194 4.73468 98 70 46 
-0.528906 -0.798423 4.26068 102 80 57 
-0.539314 -0.808793 4.26059 241 208 193 
-0.65344 -0.81123 4.29685 136 105 84 
-0.56557 -0.819095 4.26148 245 206 199 
-0.488018 -0.837983 4.2835 248 215 198 
-2.98494 0.361104 5.52302 217 180 136 
-0.644497 -0.901733 4.35207 166 133 114 
-0.966546 -1.3449 4.75248 219 174 169 
-3.26268 -1.52511 5.86812 27 24 33 
-1.98166 1.4006 4.57805 214 178 142 
-1.05173 -1.03809 4.5306 84 5 8 
-2.75602 0.83902 5.09924 126 92 55 
-1.08379 -1.05846 4.55823 66 14 3 
-3.22438 -1.38692 5.48288 43 42 48 
-3.2125 -1.34193 5.41104 47 50 59 
-2.23415 0.938167 4.99492 95 59 37 
-2.82087 1.14116 4.8207 127 90 63 
-1.94748 -0.129179 6.00282 205 172 139 
-1.0754 -1.08986 4.62297 94 3 21 
0.0826159 -0.340512 3.79247 162 127 108 
0.276123 -0.296714 3.74308 171 139 118 
-0.994596 -1.52315 5.00541 115 113 92 
-1.1576 -1.25809 4.76467 141 122 107 
-0.209204 -1.24284 4.67592 127 111 98 
-0.953984 -1.52347 5.001 172 168 139 
-1.07421 -1.52077 5.01338 171 125 110 
-1.25361 -1.35545 4.85909 205 145 145 
-0.912109 -1.35656 4.84873 50 68 44 
-0.687357 -1.71209 4.97489 148 144 145 
-0.300785 -1.64032 4.94328 116 90 89 
-0.681942 -0.878683 4.36736 88 63 41 
-1.08385 -1.54462 5.00985 83 74 67 
-0.751559 -1.69711 4.96529 95 92 87 
-0.947843 -1.05582 4.55177 250 101 139 
-0.611186 -1.54987 5.0335 117 99 85 
-3.31275 -1.42081 5.38067 96 90 94 
-3.34473 -1.62685 5.45638 69 67 68 
-3.33163 -1.5198 5.30633 88 84 85 
-1.0915 -1.54883 5.00514 196 185 181 
-1.16456 -1.26966 4.77417 65 42 28 
-3.3316 -1.62683 5.43244 107 105 106 
-3.33913 -1.61241 5.44943 136 136 138 
-3.28535 -1.52283 5.90096 46 40 44 
-0.741857 -1.6955 4.96134 197 193 184 
-0.958275 -1.3297 4.80426 104 77 70 
-3.33275 -1.61163 5.43695 170 170 168 
0.0764283 -0.304514 3.76755 157 121 99 
-3.31498 -1.56727 5.58609 47 41 53 
-3.4293 -1.62769 5.24517 62 64 77 
-1.25201 -1.54658 5.05457 235 153 142 
-1.06883 -1.52418 5.01131 116 98 74 
-1.24643 -1.36644 4.86251 105 38 47 
-3.37642 -1.29835 5.18632 159 157 160 
-1.18682 -1.28545 4.79636 161 110 109 
-0.701303 -1.70635 4.97685 160 156 155 
-0.878149 -1.52093 4.99257 156 151 122 
0.324419 -0.32059 3.76554 149 122 105 
0.321674 -0.306314 3.74822 137 110 89 
-1.22773 -1.18412 4.69083 158 69 71 
-0.83733 -1.42644 4.91771 199 123 89 
-0.686394 -0.843066 4.33213 117 86 68 
-1.37819 -1.57898 4.94748 194 88 124 
0.164378 -0.260551 3.72003 140 110 86 
-0.730115 -1.53293 5.01733 111 68 49 
-0.67742 -1.53701 5.02493 65 6 0 
-0.516669 -1.32096 4.65397 197 161 137 
0.263892 -0.215456 3.66441 161 126 98 
-0.858817 -1.50317 4.99436 114 49 43 
-0.808109 -1.28546 4.77971 124 89 67 
-0.986941 -1.30746 4.729 170 111 113 
-0.984888 -1.30293 4.72107 220 164 165 
-0.802826 -1.27226 4.7691 148 105 88 
-0.647221 -0.971768 4.29375 226 87 120 
-1.1003 -1.55591 5.00818 142 137 133 
-0.611901 -1.5996 5.07724 124 75 78 
-3.41177 -1.61414 5.24687 30 30 42 
-3.34021 -1.51872 5.32378 64 59 63 
-0.528382 -1.32553 4.65693 227 190 171 
0.189694 -0.271898 3.72566 112 62 35 
0.360188 -0.325254 3.76779 103 58 35 
0.325572 -0.332835 3.77081 154 125 109 
-1.37686 -1.57592 4.93728 194 88 124 
-0.820372 -1.27692 4.77312 109 64 43 
-1.1577 -1.25878 4.75761 143 115 101 
-0.790867 -1.71416 4.98122 147 143 140 
-0.597273 -1.16265 4.50472 130 46 20 
-0.687151 -0.851509 4.34327 99 68 48 
-0.596556 -0.857945 4.34205 84 47 31 
-1.22609 -1.00799 4.51024 105 68 60 
-1.24528 -1.0189 4.51159 76 0 0 
-0.692062 -1.72186 4.98334 152 147 144 
-1.25946 -1.41388 4.9177 75 24 20 
-0.8447 -1.43229 4.92604 143 70 37 
-0.760435 -1.6695 4.93889 168 165 158 
0.191337 -0.295417 3.74824 90 52 31 
0.276047 -0.300046 3.75491 165 134 114 
0.364618 -0.355754 3.79714 95 51 24 
-3.40262 -1.58378 5.22754 118 121 136 
-3.38104 -1.56566 5.21188 180 188 191 
-0.631968 -0.822956 4.31025 150 108 92 
-1.20307 -1.51055 5.01765 242 164 141 
-0.931648 -1.17734 4.66717 157 82 25 
-1.21589 -1.57371 5.07574 165 51 85 
-0.503854 -1.31865 4.6471 228 193 171 
-3.2853 -1.44099 5.46815 57 52 58 
-1.37043 -1.53915 4.89729 187 83 118 
-0.818351 -0.830161 4.07383 98 96 101 
-0.926389 -1.51709 4.9992 173 162 142 
-1.02644 -1.49177 4.98702 205 157 109 
-0.704412 -1.33382 4.81292 170 146 122 
-0.573601 -1.59497 5.06993 105 98 82 
0.270333 -0.261282 3.709 129 101 89 
-3.28318 -1.44547 5.42749 191 191 199 
-0.742851 -1.69942 4.98048 196 187 182 
-0.612701 -1.57144 5.05287 99 62 46 
-3.36909 -1.27655 5.20689 61 55 67 
-1.25195 -1.28195 4.78007 81 20 17 
-0.518414 -0.853854 4.32906 52 29 21 
-0.94961 -1.48542 4.99487 191 173 127 
-3.36035 -1.19865 5.26738 45 41 58 
-1.05186 -1.0373 4.53641 100 0 0 
-1.0695 -1.06301 4.56163 212 104 138 
0.425331 -0.367467 3.81256 72 55 47 
-1.18142 -1.23984 4.74449 150 137 118 
-1.12096 -1.2971 4.80038 97 19 43 
-0.632361 -1.34081 4.68472 217 195 172 
-1.0224 -1.04251 4.54895 215 71 63 
-1.10959 -1.29349 4.79762 168 82 107 
-0.59552 -0.793492 4.28009 250 216 204 
-3.27956 -1.4459 5.45707 39 41 54 
-0.99027 -1.4984 5.00064 184 142 120 
-0.794607 -1.68912 4.94493 90 86 83 
0.151179 -0.196015 3.66279 173 128 97 
-0.902043 -1.42989 4.92291 100 52 42 
-0.377284 -0.715016 4.13708 51 44 38 
-0.642808 -0.812276 4.30012 127 95 74 
-0.472086 -0.830887 4.28919 76 70 54 
-0.552269 -0.860064 4.32697 145 61 59 
-1.06385 -1.0655 4.57427 228 85 131 
-1.26692 -1.43108 4.91485 223 159 132 
-0.964444 -1.33933 4.80015 158 118 116 
-1.2546 -1.36056 4.85386 175 146 132 
0.271154 -0.320987 3.75862 178 126 89 
0.275239 -0.328555 3.78845 178 116 77 
-1.0411 -1.15655 4.65275 213 139 174 
-3.32266 -1.19966 5.42121 191 187 184 
-1.06178 -1.13708 4.63818 241 177 211 
-0.875182 -1.02728 4.53749 239 197 199 
-0.611421 -1.56783 5.04627 70 36 26 
0.0701653 -0.257509 3.74051 146 118 97 
-0.607094 -1.56236 5.05635 110 82 71 
-0.0198756 -0.265281 3.75875 103 88 81 
-1.05944 -1.54419 5.03667 107 107 105 
-1.25574 -1.54485 5.07552 228 147 128 
-1.16796 -1.54151 5.04688 85 55 44 
-0.879272 -1.53338 5.01074 167 161 139 
0.169502 -0.277918 3.75223 151 119 94 
0.186592 -0.280032 3.75492 171 130 98 
-1.00116 -1.51677 5.0231 132 130 109 
-0.927601 -1.51532 5.02069 145 140 118 
0.373492 -0.2838 3.74425 143 121 100 
0.399173 -0.287602 3.74507 93 53 28 
-1.3769 -1.48847 4.86225 171 88 118 
0.41171 -0.294821 3.75661 150 119 99 
0.174961 -0.314346 3.79093 141 103 80 
0.327372 -0.331958 3.78873 140 113 102 
0.43811 -0.369277 3.83081 217 200 190 
-0.473756 -0.250277 3.10683 171 164 146 
-0.614512 -0.84199 4.34541 91 23 20 
1.03157 1.66735 4.21326 199 168 137 
-0.911526 -1.35732 4.83943 24 48 26 
-0.681613 -0.631176 3.92055 247 246 251 
-0.961043 -1.33448 4.80315 166 131 127 
-0.529995 -1.3256 4.65947 197 162 142 
-0.56847 -1.31534 4.66674 197 161 145 
-0.462732 -1.3143 4.62939 210 173 154 
-0.41899 0.028888 2.78259 56 45 39 
-1.25334 -1.30424 4.82221 96 3 32 
-0.995071 -1.29898 4.73171 164 106 105 
-1.18884 -1.28395 4.80686 156 110 113 
-0.635208 -1.26412 4.71717 76 49 20 
-0.825368 -1.24819 4.76376 68 32 18 
-1.17652 -1.24006 4.74946 101 89 77 
-0.955382 -1.23258 4.74393 185 122 79 
-0.56357 -0.722996 4.22664 239 198 192 
-0.762949 -0.747265 4.00723 144 198 245 
-1.21139 -1.22321 4.73535 163 155 119 
-0.589785 -0.729439 4.23655 125 36 38 
-0.804887 -1.21863 4.71661 86 49 22 
-0.588754 -0.739997 4.24823 121 73 69 
-0.610909 -0.74004 4.24831 161 107 95 
-0.610487 -0.748498 4.26779 231 153 151 
-0.394109 -1.20752 4.65552 81 29 16 
-0.574114 -0.759707 4.27162 255 166 165 
-0.392359 -0.146728 3.04788 204 123 122 
-0.451899 -0.780078 4.28624 108 81 70 
-0.569988 -0.780377 4.28614 109 75 63 
-0.606168 -0.781195 4.29501 135 65 67 
-0.581057 -0.784768 4.28687 99 65 53 
-0.517628 -0.786766 4.27776 188 174 161 
-0.451893 -0.790997 4.29604 210 184 171 
-0.491615 -0.791119 4.29587 106 78 66 
-0.540192 -0.791741 4.2893 97 69 57 
-0.639492 -0.791345 4.29746 172 141 123 
-0.570949 -1.11217 4.49964 157 101 54 
-0.656462 -0.793583 4.30667 228 201 180 
-0.659209 -0.803073 4.31728 234 206 192 
-0.478433 -0.805597 4.29683 182 150 135 
-0.560318 -0.806229 4.31045 222 188 179 
0.312712 -1.06461 3.88413 118 114 103 
-0.947491 -1.04919 4.55996 221 77 102 
-0.460892 -0.80947 4.30305 93 93 85 
-0.689644 -0.811108 4.3282 130 99 79 
0.314994 -1.04982 3.84877 172 166 150 
-0.696375 -0.813168 4.32025 230 205 183 
-0.600228 -0.814369 4.32079 157 110 104 
-0.632214 -0.818814 4.32154 127 88 73 
-0.684248 -0.822002 4.33973 177 145 130 
-0.705983 -0.821938 4.34044 84 60 48 
-0.696181 -0.824899 4.34057 80 60 53 
-0.791125 -1.01397 4.42963 106 24 0 
-0.940258 -1.01033 4.50741 251 127 91 
-0.533272 -0.829326 4.3342 98 76 63 
-1.17054 -0.998455 4.51418 112 108 97 
-0.693906 -0.831239 4.33372 230 203 186 
-0.549057 -0.833737 4.33498 219 139 132 
-0.478762 -0.836515 4.33546 231 214 204 
-0.857741 -0.983615 4.50206 104 6 0 
-0.912913 -0.978076 4.49219 246 120 79 
-0.680381 -0.837752 4.34458 91 63 52 
-0.668399 -0.839178 4.3449 71 43 31 
-0.595617 -0.839957 4.35338 109 50 42 
-0.869897 -0.85692 4.11092 169 164 170 
-0.655564 -0.846457 4.34616 65 40 33 
-0.590278 -0.907482 4.40541 153 95 94 
-0.919131 -0.864664 4.12126 124 119 125 
-0.4836 -0.904831 4.3962 85 76 67 
-0.636593 -0.849574 4.36468 166 140 125 
-0.588904 -0.895826 4.4026 105 54 53 
-0.591417 -0.893386 4.39337 111 50 49 
-0.861776 -0.889629 4.14399 152 150 155 
-0.544069 -0.869644 4.37002 159 92 83 
-0.650087 -0.851038 4.36512 169 146 130 
-0.607747 -0.864854 4.37771 183 115 114 
-0.581275 -0.852855 4.35729 74 41 34 
-0.607396 -0.860199 4.35871 150 96 94 
-0.514511 -0.858468 4.35903 84 75 58 
-0.596966 -0.854406 4.35716 70 33 27 
-0.626022 -0.85535 4.36613 80 42 29 
-0.637899 -0.866944 4.36916 106 79 60 
-0.493034 -0.901475 4.4041 63 56 46 
-1.46919 1.53001 4.47032 118 89 55 
-1.02883 -1.57791 5.11017 77 16 0 
-0.946065 -1.27909 4.78738 48 80 59 
-1.05433 -1.55796 5.0746 145 130 125 
-0.895159 -1.02141 4.53324 253 195 171 
-0.997953 -1.05496 4.5705 176 0 13 
-1.18608 -1.5085 5.04543 204 103 119 
-1.21014 -1.21397 4.725 189 148 130 
-0.932411 -1.17736 4.67179 152 83 26 
-0.39343 -1.1955 4.66178 90 28 17 
-0.392758 -1.20164 4.66928 136 76 66 
-0.4549 -1.21553 4.57471 80 39 11 
0.100602 -0.989466 4.19144 149 147 150 
-1.65702 1.2641 4.76521 94 62 37 
-0.826399 -1.26984 4.77454 57 28 14 
-0.640364 -0.684043 3.93595 171 169 174 
-0.80936 -1.28052 4.77592 62 34 20 
-0.60706 -0.67645 3.9542 128 127 132 
-1.20356 -1.28815 4.78948 99 86 78 
-1.14963 -1.35512 4.87124 37 7 7 
0.215532 -0.571138 4.02232 170 158 146 
-0.688182 -1.34603 4.81822 69 55 46 
0.817495 1.60109 4.31109 179 147 122 
-0.602026 -1.15765 4.50709 182 97 77 
-1.01891 -1.571 5.10127 129 81 59 
-0.446576 -1.2213 4.55675 72 28 0 
-0.52337 -0.74896 4.25978 94 113 111 
-0.549583 -0.84227 4.34854 220 134 133 
-1.2666 -1.41102 4.92516 158 64 78 
-0.560723 -0.842855 4.33916 226 148 144 
0.31891 -1.04358 3.84057 250 249 229 
-0.678388 -1.5362 5.03452 77 21 0 
-0.596047 -0.87898 4.3832 169 132 116 
-0.869901 -1.52172 4.99488 219 207 181 
-0.997466 -1.52027 5.03224 103 103 77 
-0.87915 -1.51879 5.00691 150 138 112 
-1.20315 -1.50795 5.02377 234 162 137 
-0.996678 -1.50448 5.02032 117 91 74 
-1.20106 -1.23058 4.74012 84 67 49 
-1.3265 -1.43331 4.89619 124 46 72 
-0.707743 -1.332 4.82666 131 131 107 
-1.26409 -1.41157 4.93786 81 25 26 
-1.25054 -1.41159 4.93771 73 18 24 
-0.989769 -1.48596 4.99356 156 118 95 
-1.10796 -1.38398 4.89705 115 17 55 
-1.25038 -1.36441 4.87743 127 61 71 
-0.587266 -0.730208 4.25595 254 196 192 
-0.912595 -1.35645 4.84935 36 60 36 
0.814054 1.68615 4.22088 204 173 145 
-0.695084 -1.34304 4.82807 76 54 43 
-0.662162 -0.769686 4.28775 233 207 192 
-0.505475 -1.31917 4.65356 214 179 157 
-0.981718 -1.31803 4.74528 129 78 74 
-1.15562 -1.31854 4.82654 98 13 46 
-1.24477 -1.31131 4.8336 160 87 106 
-0.657579 -0.778355 4.28954 167 136 116 
-0.555975 -0.784806 4.29246 110 83 72 
-0.794169 -1.29207 4.78672 113 119 85 
-1.24479 -1.26955 4.77613 89 8 17 
-0.440789 -0.796507 4.29608 98 89 84 
-1.16591 -1.26806 4.78885 70 40 32 
-0.208367 -1.2412 4.68703 117 101 85 
-1.23288 -1.22852 4.72711 78 23 26 
-0.770721 -1.2567 4.75754 121 86 58 
-0.659563 -0.829976 4.32519 108 80 68 
-1.22974 -1.18286 4.69839 149 59 61 
-0.604749 -0.830927 4.33545 255 166 169 
-0.67378 -0.838609 4.32758 191 162 154 
-0.193073 -1.13947 4.59839 110 103 87 
-0.498793 -0.84287 4.33824 99 71 60 
-0.887992 -1.10804 4.51981 188 178 166 
-0.642968 -0.847591 4.35032 72 47 27 
-0.584426 -0.828148 4.32438 205 114 113 
-1.09499 -1.39575 4.91215 158 136 115 
-0.539611 -0.854281 4.35233 141 112 106 
0.242488 -0.322193 3.78887 91 50 30 
-0.863876 -0.880849 4.13224 126 121 127 
-1.24687 -1.0177 4.51733 80 0 0 
-0.351619 -1.00998 4.33794 49 26 34 
-0.679255 -0.885614 4.39324 81 56 34 
0.324526 -0.219748 3.68271 92 53 22 
0.412649 -0.291877 3.76792 150 119 99 
0.333152 -0.293238 3.74817 109 68 40 
-0.386103 -0.987209 4.29928 209 114 148 
-0.498225 -0.90454 4.39631 77 64 55 
0.170485 -0.206108 3.68214 141 111 85 
-0.683799 -0.875877 4.37841 90 62 41 
-0.283593 -1.38373 4.69838 71 32 25 
-1.38002 -1.55723 4.94189 152 72 101 
-1.00205 -1.04337 4.55383 157 67 66 
-1.22481 -1.12139 4.63384 136 75 72 
-0.888386 -1.12732 4.53654 188 180 167 
-1.14429 -1.35395 4.84027 37 7 7 
-0.37544 -1.22282 4.67544 93 59 60 
-1.08462 -1.29201 4.79342 98 95 86 
-0.996918 -1.29348 4.71033 166 115 114 
-1.33276 -1.60602 5.10904 154 50 83 
-0.610618 -0.751758 4.25826 243 153 153 
-0.506586 -0.691079 4.19057 182 149 114 
-0.646424 -0.771404 4.27555 236 204 189 
-0.494212 -1.53991 5.01725 58 28 17 
-0.549813 -0.794782 4.29501 75 57 47 
-0.58477 -0.798034 4.3083 201 164 155 
-0.595477 -0.800114 4.30893 178 113 109 
-0.527893 -0.804003 4.3106 219 192 181 
-0.578922 -0.813651 4.32492 110 68 54 
-0.928661 -1.5159 5.01045 169 163 139 
-0.507294 -0.824746 4.31541 113 85 71 
-1.32711 -1.48933 4.95858 145 77 102 
-0.583754 -0.835604 4.34321 246 189 180 
-1.20215 -1.46316 5.00229 112 44 55 
-0.608142 -0.847299 4.35877 193 135 133 
-0.572813 -0.852201 4.34754 58 24 15 
-0.626025 -0.869487 4.37696 91 56 36 
0.178312 -0.254361 3.73565 169 133 99 
-0.649707 -0.879953 4.3797 149 125 113 
-0.604813 -0.887706 4.39134 155 108 98 
-1.08259 -1.38393 4.88524 203 113 138 
0.391761 -0.339577 3.42528 218 203 198 
-1.25885 -1.35851 4.86717 179 152 135 
-0.959689 -1.33622 4.78927 172 132 130 
-1.24874 -1.32917 4.85137 182 81 115 
-0.567868 -1.31705 4.65614 215 182 163 
-0.464484 -1.31288 4.65395 211 174 156 
-1.19155 -1.26531 4.7683 156 137 107 
0.414027 -0.326379 3.78589 172 136 110 
-1.22469 -1.22757 4.73357 190 176 141 
-0.365886 -0.206426 3.06547 204 125 120 
-0.931559 -1.20324 4.69992 154 116 93 
0.406023 -0.348262 3.80751 74 37 11 
-1.06459 -1.5122 5.02646 116 54 29 
-0.447662 -1.2214 4.56778 72 28 0 
0.383933 -0.350261 3.80821 89 53 29 
-0.947777 -1.48319 4.98977 194 164 128 
-1.17422 -1.13565 4.65727 98 0 0 
0.401735 -0.319366 3.77122 91 53 32 
-0.283979 -1.3516 4.6553 75 31 28 
-0.760347 -1.26783 4.76735 102 74 53 
-0.691573 -1.3552 4.81985 131 119 107 
-0.865203 -1.036 4.52845 211 124 114 
0.117528 -0.29015 3.77587 95 53 29 
0.128355 -0.284985 3.76201 130 105 85 
-1.2242 -1.00043 4.51143 86 11 5 
-0.819018 -0.818094 4.08234 188 188 188 
-0.909774 -0.87395 4.11656 160 158 161 
-0.283778 -1.38484 4.6832 71 34 28 
-0.810206 -1.27924 4.78819 62 36 23 
-1.23281 -1.19452 4.70553 188 94 118 
-1.27514 -1.07033 4.53629 74 0 4 
0.272576 -0.253795 3.72598 141 107 95 
-1.82167 1.65197 4.37198 111 75 51 
-1.80618 1.42909 4.59526 221 187 142 
-0.893169 -1.17692 4.66983 127 71 24 
-0.506583 -0.834238 4.3183 191 168 154 
-0.674242 -0.859173 4.36694 155 128 117 
-0.694144 -0.823934 4.32699 73 53 46 
-0.477577 -0.82369 4.3224 102 89 73 
-0.550393 -0.812213 4.30952 102 50 39 
0.337203 -1.02139 3.83832 28 26 14 
-0.455332 -0.794366 4.2757 131 103 89 
-1.16132 -1.14094 4.65701 198 99 128 
-1.22631 -1.25148 4.75245 196 159 133 
-1.23986 -1.25171 4.76577 105 23 37 
-1.25723 -1.28151 4.80567 62 12 13 
-1.12585 -1.48646 4.98408 255 252 241 
-1.2537 -1.30342 4.83456 66 12 28 
-1.24485 -1.3138 4.82458 216 102 136 
-1.10408 -1.39971 4.91238 151 134 116 
-1.33478 -1.42903 4.92128 173 67 103 
-0.957249 -1.53782 5.02275 132 155 135 
-0.870294 -1.53353 4.99773 204 178 161 
-0.612287 -1.59757 5.08582 126 66 68 
-0.773093 -0.756616 4.01132 133 191 254 
-0.126982 -0.854626 4.1528 111 106 84 
-0.608599 -0.795717 4.29589 210 125 132 
-0.46379 -0.795703 4.29091 228 199 185 
-1.14614 -1.36353 4.8763 37 0 0 
-1.26426 -1.35206 4.86183 78 30 44 
-1.20731 -1.18004 4.69593 207 98 130 
-1.20749 -1.50853 5.03784 226 143 129 
-1.10367 -1.20059 4.63951 143 54 82 
-0.932849 -1.20387 4.71222 148 112 88 
-0.87891 -1.21436 4.71348 89 48 30 
-1.26243 -1.22206 4.71764 113 39 62 
-0.654617 -0.858229 4.38151 75 46 30 
-0.559262 -0.862443 4.35243 205 141 132 
-0.814536 -1.24112 4.74866 63 32 14 
-0.574643 -0.826231 4.32562 255 197 183 
-1.10768 -1.29205 4.79848 179 94 123 
-1.24923 -1.27064 4.79098 79 0 8 
1.01887 1.66998 4.23374 180 150 116 
0.226193 -0.321448 3.7923 80 42 23 
0.197321 -0.321652 3.79212 86 50 36 
0.120365 -0.322042 3.80471 76 48 34 
-1.14734 -1.25416 4.75191 101 61 61 
-1.13189 -1.02972 4.49764 115 96 90 
0.258396 -0.227132 3.70493 72 45 24 
-1.02106 -1.53187 5.01642 241 243 230 
-1.01959 -1.04113 4.55165 188 62 65 
0.405214 -0.266412 3.72789 175 142 111 
0.417433 -0.354954 3.82457 172 128 99 
-0.674284 -1.51325 5.00839 47 12 0 
-1.32258 -1.43416 4.86669 155 64 95 
-1.01054 -1.48498 4.9998 169 127 87 
-0.482473 -1.30946 4.65738 182 145 127 
-0.50302 -1.31924 4.64302 210 175 153 
-0.681485 -0.88502 4.40335 92 67 45 
-0.950526 -1.48506 4.9983 198 160 124 
-1.34986 -1.34508 4.74796 137 65 79 
-1.03083 -1.56854 5.08266 187 102 63 
-0.565015 -0.768965 4.27629 191 83 83 
-0.519806 -1.32422 4.65164 215 180 158 
-0.817965 -0.807705 4.06215 194 193 198 
-0.50838 -0.160732 3.02048 198 111 104 
-0.559369 -0.161945 3.05958 235 158 152 
-0.891927 -1.43967 4.93519 174 127 99 
0.0681287 -0.223743 3.70497 166 119 93 
0.254776 -0.230226 3.69566 74 51 43 
-0.0397331 -0.267057 3.759 70 42 21 
0.335188 -0.287756 3.75849 90 55 36 
-1.08206 -1.39574 4.89554 145 59 72 
-1.08269 -1.38292 4.89495 206 107 127 
-0.448955 -1.36348 4.78791 228 218 206 
-0.957266 -1.51873 5.02005 128 123 94 
-1.14646 -1.33654 4.85145 175 98 116 
-0.458838 -0.77744 4.27963 89 72 64 
-0.679093 -0.848503 4.35188 32 14 2 
-0.629326 -0.857418 4.35398 67 40 23 
-1.25424 -1.28058 4.7893 62 12 13 
-0.652353 -0.859341 4.3724 75 46 30 
0.394974 -1.03197 3.82859 111 103 100 
-1.19597 -1.26475 4.78716 156 137 107 
0.325217 -1.02627 3.84151 237 235 220 
-0.940662 -1.00648 4.51646 240 168 109 
-0.611076 -1.54977 5.03503 105 97 78 
-1.13807 -1.01946 4.50091 187 167 160 
-0.66154 -0.782512 4.29819 124 93 73 
-1.05298 -1.03684 4.53798 83 0 0 
-1.04964 -1.04867 4.56229 205 102 132 
-1.13422 -1.21331 4.72136 190 114 144 
-1.04269 -1.18451 4.6412 218 158 168 
-1.15994 -1.15649 4.66098 101 8 35 
-1.18015 -1.20384 4.72068 138 42 79 
-1.10164 -1.28001 4.78273 235 140 148 
-0.583366 -0.843614 4.32211 227 194 177 
-0.542792 -0.822139 4.31617 217 175 163 
-0.58484 -0.824298 4.33817 250 185 179 
-0.65552 -0.827982 4.33945 115 86 72 
-0.510199 -0.84212 4.34266 93 71 60 
-1.06735 -1.51673 5.01279 108 66 44 
-0.353489 -1.0117 4.34933 44 23 30 
-0.583323 -0.7311 4.27298 255 206 197 
-1.07124 -1.06154 4.56883 228 102 140 
-1.1018 -1.38641 4.88667 64 13 28 
-0.884613 -1.09916 4.5255 255 236 212 
-1.17198 -1.1391 4.64971 92 3 0 
-1.1634 -1.16161 4.67554 90 0 26 
-0.939967 -1.19926 4.68908 121 57 11 
-0.879089 -1.22202 4.70531 56 24 9 
-1.22975 -1.22625 4.75529 188 175 133 
-0.270734 -1.23186 4.58827 45 24 21 
-0.998508 -1.2374 4.7311 32 14 0 
-1.15762 -1.26045 4.75819 138 114 102 
-1.15084 -0.671722 4.09944 19 20 15 
-0.77345 -1.26871 4.78034 146 114 91 
-1.07994 -1.30404 4.82723 43 17 28 
-1.15332 -1.31554 4.83523 71 2 30 
-1.14524 -1.32166 4.78874 53 2 21 
-0.683534 -1.5366 5.00626 35 5 3 
-1.11103 -1.29194 4.80928 186 91 123 
-0.948242 -1.28432 4.80185 15 32 24 
-1.26175 1.52417 4.4843 207 178 146 
-0.89817 -1.42694 4.92533 141 47 45 
0.365194 -1.03322 3.84034 125 117 106 
-1.27601 -1.2218 4.70928 76 0 0 
-0.808971 -1.22205 4.70469 110 75 53 
-0.454255 -1.22071 4.58939 66 29 2 
-0.902266 -1.01821 4.51513 204 95 62 
0.156237 -0.287186 3.77215 75 49 32 
-0.509287 -0.690162 4.17196 171 138 105 
-0.285091 -1.40127 4.69213 99 66 61 
-1.03213 -1.4935 5.01241 224 144 81 
-1.03988 -1.15787 4.65122 213 135 175 
0.334084 -1.06802 3.86534 209 201 188 
-0.960051 -1.538 5.03612 129 152 132 
-0.682055 -1.53717 5.02476 43 6 0 
-0.659284 -1.49952 4.94884 71 48 34 
-0.99068 -1.49789 5.00697 183 138 109 
-0.668566 -0.777153 4.29036 127 103 93 
-0.460644 -0.783215 4.26254 98 71 64 
-0.902204 -1.42886 4.93387 128 47 44 
-0.532713 -0.844959 4.31047 238 201 185 
-1.02619 -1.36262 4.78721 238 225 209 
-0.566296 -0.88057 4.37067 193 149 136 
-0.597612 -0.884927 4.37191 154 118 104 
-0.644278 -0.883523 4.39755 67 40 29 
0.414042 -0.318657 3.8071 179 127 90 
0.0378327 -0.986853 4.19291 87 89 88 
-0.443956 0.0595205 2.74465 31 26 22 
-1.54944 1.42024 4.63062 226 191 163 
0.287679 -1.01293 3.79645 15 17 12 
0.310206 -1.04173 3.85949 153 157 142 
0.274623 -1.0449 3.8886 44 44 34 
0.091666 -1.03535 4.25879 193 188 182 
0.347928 -1.04996 3.84083 121 117 108 
0.702198 -0.312154 3.39406 153 68 0 
-1.1703 -1.16157 4.68909 67 2 10 
-1.04169 -1.15704 4.66584 217 132 174 
0.159521 -0.265681 3.73028 169 115 81 
-0.864401 -1.49339 5.0055 190 123 96 
-0.816811 -1.25824 4.74363 168 119 86 
-0.527226 -0.854786 4.3479 51 34 24 
-0.461369 0.0685165 2.74398 25 22 13 
0.423537 -0.181742 3.50842 166 85 3 
-1.22408 -1.44212 4.96769 71 30 36 
-0.58332 -0.766977 4.26286 247 220 211 
-0.401802 -0.736395 4.19328 33 28 32 
-0.500454 -0.84958 4.34645 171 159 143 
-0.563599 -0.795183 4.30131 84 72 72 
-0.62989 -1.34293 4.68378 236 204 189 
-0.53613 -0.882399 4.32457 184 132 119 
-1.83848 1.43947 4.60851 91 62 30 
-1.16678 -1.16518 4.66723 69 0 9 
-1.06534 -1.06345 4.58539 232 81 134 
-1.00005 -1.48912 5.00113 51 23 0 
-0.917669 -1.11748 4.52993 169 114 109 
-1.06236 -1.13827 4.62988 238 162 200 
-1.04973 -1.05339 4.55144 233 87 136 
-0.893455 -1.27533 4.77945 40 27 8 
0.0737548 -0.26512 3.74715 72 63 56 
-0.614803 0.254648 3.24282 67 38 34 
-0.659258 -0.975156 4.30231 218 66 78 
-0.87204 -1.53534 5.00749 244 232 210 
0.138608 0.0131685 3.43426 104 89 66 
-0.74277 -1.77595 5.04323 148 146 147 
-1.22794 -1.18495 4.69596 158 69 71 
-0.196732 -1.24529 4.68268 150 132 120 
0.693622 -0.00352281 3.34338 174 117 38 
-0.505076 -1.31961 4.65244 228 193 171 
0.422681 -0.367414 3.7955 72 55 47 
0.214028 -0.533981 3.94527 245 233 219 
-0.483418 -1.31185 4.64575 192 155 136 
-1.06624 -1.5129 5.0373 116 54 29 
-1.26265 -1.35179 4.86989 104 46 58 
-1.10982 -1.29188 4.81432 179 94 123 
-0.795215 -1.29175 4.7969 113 119 85 
-0.824885 -1.24815 4.76089 68 32 18 
-0.563577 -0.723816 4.21838 239 198 192 
-0.579716 -0.728544 4.23037 255 157 158 
-0.610282 -0.740974 4.23825 161 107 95 
-0.614105 -0.756982 4.25432 255 168 167 
-0.454124 -0.787064 4.27232 190 163 154 
-0.451205 -0.79223 4.2806 210 184 171 
-0.656203 -0.794292 4.29777 228 201 180 
-0.478154 -0.806525 4.29011 182 150 135 
-0.695662 -0.825494 4.33185 80 60 53 
-0.532844 -0.829884 4.32668 98 76 63 
-0.681684 -0.829613 4.33522 147 115 100 
-0.580995 -0.853332 4.35006 74 41 34 
-0.903271 -1.02293 4.53232 243 112 84 
-0.759868 -1.2667 4.77014 119 87 64 
-0.97121 -1.23095 4.7395 159 97 48 
-0.523084 -0.750382 4.24381 94 113 111 
-1.24336 -1.20319 4.71441 170 129 111 
-0.920027 -1.51763 5.01888 89 91 67 
-1.00851 -1.48313 5.00962 162 134 95 
-0.708338 -1.33216 4.83267 131 131 107 
-1.25044 -1.41141 4.93536 73 18 24 
-0.590121 -0.729326 4.22865 140 37 41 
-0.588897 -0.740423 4.24049 121 73 69 
-0.660548 -0.771112 4.27097 233 207 192 
-0.656969 -0.77935 4.27694 167 136 116 
-0.539712 -0.792388 4.28493 97 69 57 
-0.639004 -0.792066 4.29217 172 141 123 
-0.46909 -0.795755 4.28432 168 140 128 
-0.439686 -0.797704 4.28111 98 89 84 
-1.16579 -1.26792 4.78663 70 40 32 
-0.584648 -0.798435 4.29861 201 164 155 
-1.24058 -1.25298 4.77538 93 16 22 
-0.853896 -0.985889 4.49628 82 0 0 
-0.272005 -1.04631 4.25939 161 159 162 
-0.809394 -1.27904 4.77805 59 30 16 
-0.659444 -0.785551 4.28679 144 113 93 
-0.997459 -1.29365 4.7172 166 115 114 
-1.3354 -1.60628 5.11303 154 50 83 
-0.646723 -0.771692 4.27192 236 204 189 
-0.997734 -1.52177 5.0329 126 127 96 
-0.614274 -0.810829 4.30722 199 149 148 
-0.543387 -0.820489 4.31648 227 188 173 
-0.674087 -0.857668 4.36385 142 120 109 
-1.07424 -1.05877 4.57232 205 104 134 
-1.20568 -1.21656 4.73192 56 28 24 
-0.63878 -0.776893 4.27987 119 81 72 
-1.24734 -1.31402 4.8341 216 102 136 
-0.952081 -1.53461 4.97795 132 155 135 
-0.881377 -1.51849 5.01361 135 119 93 
-0.491571 -1.32483 4.65488 224 189 170 
-0.52964 -1.32763 4.66342 196 161 139 
-0.207437 -1.02843 4.24264 146 145 151 
-0.744003 -1.27329 4.77386 171 166 137 
-1.04447 -1.51291 5.03263 52 46 32 
-1.33281 -1.4313 4.91407 181 73 109 
-0.614783 -0.810428 4.32838 243 202 198 
-0.889256 -1.52793 5.01002 247 239 226 
-0.759117 -1.27448 4.781 55 52 35 
-0.815079 -1.24209 4.74398 71 40 22 
-0.584739 -0.825515 4.32052 250 185 179 
-0.524846 -0.784608 4.28286 229 208 191 
-1.05347 -1.03969 4.54709 59 16 10 
-0.684058 -1.53853 5.03369 35 5 3 
-1.03345 -1.49433 5.02574 224 144 81 
-0.678688 -1.52797 5.0277 185 101 37 
-1.12579 -1.2999 4.8211 50 3 23 
-0.898419 -1.27636 4.78505 40 44 21 
-0.831499 -1.27185 4.78422 60 28 13 
-1.04545 -1.19191 4.64176 227 185 186 
0.436405 -0.294532 3.67922 218 201 193 
-0.580452 -0.730764 4.22615 246 167 163 
-0.695223 -1.75029 5.04908 199 198 196 
-1.02547 -1.48357 5.02704 128 88 37 
-0.610234 -0.744819 4.23092 150 97 89 
-0.593644 -0.804473 4.29377 164 101 96 
-0.609599 -0.754271 4.24583 255 180 175 
-0.694649 -1.72172 5.01323 155 154 150 
-0.700275 -1.71437 5.0086 164 164 156 
-1.16199 -1.33519 4.85716 189 115 130 
-0.688553 -1.70847 5.00546 195 195 187 
-0.76912 -0.764472 3.98334 181 241 255 
-0.643955 -0.774479 4.26273 228 197 179 
-0.660315 -0.775571 4.26449 237 208 192 
-0.442995 -0.781054 4.24788 171 168 159 
-0.803716 -1.68633 4.96747 107 106 101 
-0.687187 -0.784016 4.26749 96 63 32 
-0.306107 0.067611 3.37583 81 69 57 
-0.845174 -1.13256 4.53926 172 163 154 
-0.763063 -1.66537 4.96504 197 195 196 
-0.502614 -0.697542 4.17062 147 121 88 
-0.449193 -0.791975 4.2701 139 113 96 
-0.68786 -0.819259 4.31441 219 190 174 
-0.582589 -0.81312 4.30164 158 111 95 
-0.491826 -1.55416 5.06124 176 126 115 
-0.674189 -1.22309 4.62402 255 253 244 
-0.689388 -0.789215 4.28845 94 62 41 
-1.32454 -1.60792 5.13814 153 68 97 
-0.838668 -1.192 4.70543 174 132 107 
-0.656056 -0.79764 4.29108 244 214 190 
-0.925506 -1.19406 4.70262 82 36 12 
-1.20751 -1.17734 4.70191 162 94 117 
-1.23626 -1.19324 4.71519 200 113 129 
-0.482241 -1.58154 5.09146 126 111 106 
-0.733446 -1.21297 4.6211 140 131 126 
-0.643567 -0.800878 4.29612 229 202 183 
-0.664931 -0.802447 4.29621 130 101 83 
-1.23524 -1.56455 5.12856 246 168 156 
-0.768842 -1.17761 4.57686 138 129 122 
-0.613716 -1.56186 5.08246 61 48 32 
-0.290392 -1.57446 4.90279 48 20 16 
-0.399101 -1.21676 4.70271 60 6 0 
-0.779637 -1.21713 4.72238 59 27 6 
-0.806042 -1.21601 4.72986 56 22 0 
-1.10818 -1.55296 5.05657 183 167 167 
-0.819658 -1.16489 4.57162 156 143 135 
-1.23297 -1.22529 4.74226 83 24 28 
-1.09508 -1.54427 5.04867 208 203 197 
-0.971384 -1.2297 4.74298 155 104 57 
-0.899133 -1.53704 5.04153 38 55 37 
-0.705131 -0.826672 4.32164 101 74 63 
-0.218742 -1.24236 4.69553 213 199 186 
-0.882912 -1.53112 5.03779 135 132 113 
-1.00131 -1.23569 4.74408 26 6 0 
-0.697627 -0.829403 4.32893 119 95 83 
-0.41802 -1.52606 5.02345 136 107 89 
-0.958988 -1.52052 5.03372 164 164 130 
-0.814509 -1.1454 4.5437 132 124 111 
-0.949513 -1.24317 4.76692 113 128 99 
-0.824736 -1.24892 4.75867 60 28 5 
-1.04856 -1.51143 5.04873 46 38 27 
-1.24153 -1.25101 4.78916 68 0 2 
0.137244 -0.0110547 3.42287 106 93 77 
-1.20713 -1.50547 5.0447 244 165 150 
-0.99864 -1.50482 5.03426 108 94 68 
-0.80904 -1.26399 4.7832 72 36 12 
-1.19198 -1.26426 4.78328 164 151 134 
-0.631416 -0.846527 4.33351 65 32 13 
-0.810155 -1.27495 4.78259 47 21 6 
-0.890799 -1.27572 4.79956 125 103 82 
-0.997774 -1.29323 4.71855 148 96 98 
-1.25597 -1.28397 4.79779 63 20 3 
-1.08052 -1.28829 4.81081 114 109 90 
-1.08869 -1.28852 4.8207 138 132 118 
-1.03082 -1.48309 5.01573 199 166 113 
-0.993649 -1.48293 5.01732 169 130 101 
-0.568963 -1.31586 4.66249 248 212 198 
-0.990054 -1.30575 4.73923 147 92 87 
-0.507446 -1.31933 4.65892 230 194 168 
-1.02054 -1.48008 5.01413 54 30 0 
-1.01197 -1.4809 5.0051 176 140 88 
-0.948335 -1.48072 5.00737 209 179 141 
-0.517895 -1.32074 4.65964 239 203 179 
-0.580941 -0.855951 4.34461 53 23 13 
-0.684618 -0.861585 4.3537 68 39 21 
-0.597003 -1.32871 4.69095 160 130 106 
0.399872 -0.365108 3.76605 73 37 13 
-1.24504 -1.31065 4.84228 188 109 131 
-1.13335 -1.01765 4.50313 195 168 149 
-0.655919 -0.863311 4.3591 66 38 26 
-0.524683 -1.33708 4.67286 222 190 169 
-0.617648 -1.34085 4.6906 122 95 68 
-0.606807 -0.869546 4.35823 193 122 120 
-0.341689 -1.0298 4.33567 0 43 46 
-1.24962 -1.32626 4.86614 170 71 102 
-0.431432 -1.33619 4.80913 255 254 245 
-0.556224 -1.36072 4.70036 119 87 64 
-1.14327 -0.961879 4.46895 141 134 116 
-1.10714 -1.39865 4.92481 144 133 113 
-1.19927 -1.39997 4.9417 133 7 54 
-1.38167 -1.55753 4.94332 170 90 119 
-0.67711 -1.5362 5.051 58 2 0 
-0.393505 -1.23846 4.71227 128 94 92 
-0.887795 -1.21811 4.73707 134 109 89 
-0.611058 -1.55002 5.07389 40 33 17 
-1.09277 -1.52694 5.05005 234 225 210 
-0.455549 -1.52683 5.03274 47 13 12 
-1.18594 -1.5162 5.06584 61 24 5 
-1.00456 -1.51517 5.04148 143 150 116 
0.391902 -0.305786 3.70241 80 48 25 
-1.24376 -1.20329 4.71424 158 133 102 
-0.977769 -1.41425 4.95348 49 54 31 
-0.697308 -1.21532 4.61557 157 152 149 
-1.22833 -1.18437 4.69698 149 76 70 
-0.73286 -1.4871 5.02222 50 2 0 
-0.991263 -1.29756 4.73196 155 106 102 
-0.753524 -1.19321 4.60201 201 192 183 
-0.736475 -1.18909 4.59918 176 169 159 
-0.446037 -0.804424 4.27505 192 179 170 
-0.912837 -1.35509 4.85812 25 46 15 
-0.589105 -1.37162 4.72217 229 198 170 
-0.412699 -1.52688 5.01399 66 31 12 
-1.07111 -1.52045 5.05296 133 118 95 
-1.20478 -1.50157 5.05368 145 30 47 
-0.552177 -0.848321 4.33801 117 37 30 
-0.393883 -1.4698 4.942 90 75 72 
-0.665669 0.217357 3.25439 83 60 46 
-0.283354 -1.35084 4.65843 60 19 13 
-0.56959 -1.36378 4.71205 139 104 82 
-0.707808 -1.33129 4.83655 153 164 147 
-1.21784 -1.22332 4.75513 104 92 54 
-1.01279 -1.23687 4.68528 150 114 100 
-0.534227 -1.35237 4.69465 136 100 84 
-0.515052 -1.54308 5.06273 78 106 107 
-0.929443 -1.53418 5.03826 174 191 173 
-1.17714 -1.27525 4.80439 59 19 17 
-0.706769 -1.53112 5.05603 54 8 0 
-0.561829 -1.34141 4.67455 158 127 107 
-0.911462 -1.21682 4.73517 111 97 86 
-0.575533 -1.37073 4.71714 181 150 129 
-0.757187 -1.3178 4.83286 22 60 35 
-1.31462 -1.62972 5.16467 53 0 12 
-0.40272 -1.52893 5.02629 104 70 68 
-1.23757 -1.21541 4.73606 110 52 38 
-0.761725 -1.21311 4.6395 102 75 56 
-0.984788 -1.47265 5.00996 102 127 85 
-1.19679 -1.23971 4.76025 116 103 86 
-0.902628 -1.0216 4.53553 255 134 108 
-0.994547 -1.4765 5.00222 95 99 64 
-1.25566 -1.47576 5.01054 161 66 74 
-1.09378 -1.47571 5.02693 224 83 117 
0.68551 -0.00963468 3.30797 175 132 53 
-1.055 -1.03158 4.5482 153 9 8 
-0.495306 -1.31384 4.65488 205 169 145 
-0.705085 -1.70314 4.99168 112 111 107 
-0.522963 -0.756567 4.23194 91 112 107 
-0.865606 -1.29089 4.81382 190 109 105 
-0.708264 -1.23004 4.6284 203 196 188 
-0.703483 -1.29168 4.7843 17 52 32 
-0.974141 -1.59423 5.13229 144 0 0 
-0.69385 -1.28424 4.79341 95 131 103 
-0.68383 -1.72898 5.01859 182 181 179 
-0.289399 -1.50778 4.81692 59 25 16 
-0.809009 -1.28203 4.7988 118 96 82 
-0.906038 -1.27167 4.78451 112 121 92 
-0.888279 -1.19508 4.71565 94 44 17 
-1.19063 -1.50652 5.06872 202 103 123 
-1.41396 -1.58414 4.97392 77 19 18 
-1.02178 -1.57117 5.12462 134 82 69 
-1.15896 -1.09382 4.61176 149 75 74 
-0.84634 -1.4242 4.94742 126 62 18 
-1.01625 -1.5592 5.11625 131 105 78 
-1.224 -1.56649 5.12356 144 43 61 
-0.383729 -1.60793 5.07207 100 70 70 
-0.573469 -1.35015 4.70041 153 123 97 
-0.4527 -1.58668 5.10679 125 64 61 
-0.502572 -1.52862 5.04459 102 72 64 
-0.687445 -1.73395 5.04146 183 182 180 
-0.559314 -1.3429 4.69322 247 216 196 
-0.560482 -0.817019 4.30303 174 93 90 
-0.748743 -1.69919 4.97474 104 104 96 
-0.874007 -0.88788 4.11857 226 226 228 
-0.637957 -0.841363 4.3236 253 219 194 
-0.89851 -1.23777 4.76305 147 119 107 
-0.296069 -1.68328 5.03582 34 4 6 
-1.03465 -1.10381 4.61722 168 119 138 
-0.586036 -0.740778 4.21777 235 180 173 
-0.563971 -0.727627 4.21493 243 202 196 
-0.451028 -1.6033 5.12457 150 97 89 
-0.606838 -0.782466 4.26687 183 123 113 
-0.808049 -1.16697 4.57014 185 175 166 
-0.799487 -1.17147 4.57547 149 139 130 
-0.694049 -0.78356 4.27738 111 81 57 
-0.613228 -1.56622 5.06672 40 21 7 
-0.994878 -1.05984 4.57389 253 103 140 
-0.932676 -1.1763 4.68007 140 64 2 
-1.03944 -1.54682 5.09765 172 182 171 
-0.946635 -1.04851 4.56511 236 118 142 
-0.848393 -1.18653 4.70857 96 49 21 
-0.702701 -1.20551 4.61224 165 157 154 
-1.06051 -1.54264 5.0561 41 38 29 
-0.445589 -1.54259 5.05717 115 82 73 
-0.646905 -0.796716 4.28279 118 92 67 
-0.492852 -1.53466 5.062 72 25 19 
-0.873506 -1.52996 5.02919 228 223 203 
-0.934677 -1.20216 4.71599 160 120 108 
-1.01119 -1.03228 4.54433 119 0 0 
-0.873202 -1.51941 5.02135 237 237 213 
-0.28023 -1.07064 4.34623 55 55 53 
-0.634824 -0.855597 4.34026 183 156 147 
-1.25204 -1.20661 4.72487 37 0 0 
0.428642 -0.293648 3.69104 75 62 53 
-0.877169 -1.21305 4.72932 93 61 38 
-0.792187 -1.21725 4.71362 67 35 14 
-0.63076 -1.21918 4.72435 63 0 0 
-1.21107 -1.2223 4.74373 181 166 135 
-0.989606 -1.22371 4.74533 132 51 32 
-0.894811 -1.23114 4.745 46 23 9 
-1.33033 -1.48696 4.96811 158 99 117 
-0.959892 -1.48078 5.01327 203 178 137 
-1.22259 -1.23375 4.74169 43 31 17 
-0.602583 -1.2383 4.73296 66 0 0 
-1.38025 -1.48674 4.8748 171 96 129 
-1.20282 -1.4615 4.99949 78 11 18 
-0.940253 -1.00779 4.51864 255 169 115 
-0.833098 -0.895387 4.13023 155 151 150 
-0.495977 -0.850288 4.30865 85 62 44 
-0.72196 -1.26102 4.76888 84 96 58 
-0.759744 -1.26624 4.77153 91 63 41 
-0.895889 -1.43932 4.9586 203 157 133 
-0.990731 -1.27023 4.74459 156 132 122 
-0.272839 -1.04999 4.24793 123 121 124 
-0.865574 -0.861781 4.08997 157 155 160 
-0.915791 -1.26602 4.78716 37 56 24 
-1.16407 -1.26791 4.78806 85 55 47 
-0.815647 -0.890996 4.12655 147 147 149 
-1.10074 -1.28397 4.80607 92 21 37 
-1.25036 -1.41102 4.93672 71 12 18 
-1.26768 -1.41006 4.93579 100 32 33 
-1.18926 -1.28949 4.80669 74 23 30 
-1.1109 -1.28923 4.82236 199 106 135 
-0.501726 -1.32709 4.66176 235 201 176 
-0.983028 -1.31572 4.76275 135 81 79 
-0.62765 -1.33703 4.69665 171 143 122 
-1.24927 -1.32042 4.85535 116 23 52 
-0.598058 -1.37641 4.71509 222 188 163 
-1.05774 -1.32682 4.83374 83 33 10 
-1.24709 -1.34732 4.87908 142 36 58 
-0.693061 -1.35234 4.83673 137 123 112 
-0.557702 -1.35185 4.67981 131 103 81 
-0.594695 -1.3661 4.71061 227 193 166 
-0.66848 -0.70326 3.9024 91 90 95 
-0.574857 -1.32965 4.66996 126 95 74 
-0.909927 -1.54641 5.07979 123 133 106 
-0.911465 -0.980026 4.48304 253 139 87 
-0.90002 -1.22316 4.72453 51 26 4 
-0.573787 -1.34134 4.69127 169 135 108 
-0.707408 -1.74144 5.04506 207 205 206 
-0.880004 -1.29477 4.82191 130 141 109 
-1.07817 -1.28009 4.79893 48 35 19 
-0.646562 -0.776541 4.27296 245 216 200 
-1.16031 -1.3389 4.84533 220 152 165 
-0.753464 -1.27155 4.77881 38 33 13 
-1.26207 -1.35642 4.88505 191 177 150 
-0.68626 -0.799036 4.29682 119 84 64 
-1.22745 -1.24919 4.7655 211 178 147 
-0.599747 -0.832104 4.31335 255 189 182 
-1.08766 -1.39421 4.92577 76 11 19 
-0.812698 -1.24031 4.748 58 26 5 
-0.671595 -0.864061 4.34497 166 142 132 
-0.954962 -1.23142 4.74876 192 146 110 
-0.420358 -0.867016 4.3435 171 144 133 
-1.05853 -1.55588 5.09803 155 148 140 
-0.493753 -1.55103 5.07359 174 126 114 
-1.20524 -1.2162 4.73287 53 25 21 
-1.07423 -1.54213 5.07214 117 102 83 
-1.13546 -1.21365 4.73448 192 127 149 
-1.21577 -1.44163 4.98796 72 14 26 
-1.18841 -1.21202 4.7305 189 116 136 
-0.49304 -1.53729 5.04873 61 16 11 
-0.680735 -1.53345 5.06778 45 1 0 
-0.023925 -0.284128 3.71425 65 50 43 
-0.0334081 -0.282534 3.71807 199 183 168 
-0.696393 -0.818934 4.30524 238 214 190 
-1.00891 -1.48183 5.01426 197 152 113 
0.430092 -0.388911 3.78183 180 165 160 
-1.40824 -1.51848 4.90655 87 33 46 
-1.06315 -1.50813 5.04725 134 81 50 
-0.663363 -1.50917 5.03537 161 105 72 
-0.656827 -0.976397 4.30168 210 67 85 
-0.933307 -1.51315 5.04152 171 171 143 
-0.755211 -1.32153 4.82202 17 49 28 
-1.00939 -1.49444 5.02397 104 108 91 
0.0631168 -0.998685 4.1766 107 104 111 
-0.283749 -1.3527 4.6468 60 19 13 
-0.262473 -1.02876 4.22388 128 127 132 
-0.914363 -1.47025 4.99423 25 18 0 
-1.20076 -1.45763 4.986 132 82 85 
-1.22007 -1.28922 4.79875 141 126 119 
-0.297743 -1.0642 4.36077 26 38 36 
-0.905543 -0.878802 4.09773 133 132 137 
-0.621095 -1.54081 5.06065 93 74 67 
-1.16945 -0.999467 4.51382 145 141 132 
-0.660265 -1.34172 4.82065 35 32 23 
-0.828001 -1.16035 4.5579 186 177 172 
-1.2371 -1.2201 4.72128 124 37 45 
-1.39372 -1.65054 5.05636 188 85 128 
-0.583827 -1.36244 4.70799 232 200 177 
-1.202 -1.55737 5.10809 161 46 77 
-0.410942 -1.23308 4.71975 73 22 5 
-1.04637 -1.56007 5.10195 189 112 66 
-0.836482 -1.26999 4.79021 63 28 9 
-0.965817 -1.23767 4.75166 128 145 109 
-1.20746 -1.23704 4.75728 157 143 116 
-1.1099 -1.38201 4.91459 72 0 20 
-1.09427 -1.38198 4.91505 81 15 27 
-0.571811 -1.1138 4.49868 109 53 4 
-0.574785 -1.59303 5.11498 122 118 107 
-0.732672 -1.50095 5.02634 46 0 0 
-1.07316 -1.53717 5.0504 131 125 109 
-0.405033 -1.21387 4.67991 49 6 0 
-0.804825 -1.68496 4.98867 74 73 68 
-1.07398 -1.3837 4.91163 85 7 7 
0.172027 -0.269966 3.69191 169 126 107 
-0.986527 -1.23311 4.74936 91 108 74 
-0.996358 -1.26248 4.73139 190 166 154 
-0.699124 -0.83131 4.34004 231 200 180 
-1.20453 -1.22777 4.75027 65 54 32 
-0.695924 -0.822909 4.28972 230 206 180 
-0.606348 -0.854117 4.3328 140 79 74 
-0.887337 -1.22063 4.72541 134 109 89 
-1.22994 -1.56807 5.13965 145 34 67 
-0.90813 -0.899374 4.13138 94 85 90 
-0.795095 -1.2902 4.79899 142 155 125 
-0.474486 -1.31192 4.658 126 90 66 
