ply                 
format ascii 1.0    
element vertex 1251
property float x    
property float y    
property float z    
property uchar red  
property uchar green
property uchar blue 
end_header          
0.61876 -0.350628 3.40928 118 66 18 
-1.24864 -1.3712 4.87107 91 35 38 
-0.298504 0.0892169 3.40647 89 74 53 
-0.509115 -0.690207 4.16351 123 92 63 
-1.17499 -1.15409 4.66479 217 74 80 
0.473387 -0.263523 3.46533 169 99 3 
-0.514245 -0.871331 4.34038 173 155 141 
-0.511939 -0.12531 3.05448 241 163 159 
-0.508106 -0.845487 4.3146 84 61 47 
-0.781414 0.51024 3.0221 65 48 38 
-0.456074 -0.13302 3.03989 102 56 58 
-0.456343 -0.124508 3.04137 224 164 164 
-3.2906 -1.58632 5.53625 47 46 51 
-0.626441 -0.885401 4.37198 66 35 17 
-3.31411 -1.59955 5.40569 184 184 182 
-1.03832 -1.50949 4.99945 56 41 20 
-0.953473 -1.51876 4.99601 147 138 107 
-1.02137 -1.55347 5.01547 189 114 75 
0.443517 -0.220962 3.47899 241 180 117 
0.448269 -0.187893 3.50405 247 190 103 
0.170023 -0.195647 3.64644 182 137 114 
-1.18152 -1.23817 4.74076 175 154 137 
-0.559022 -0.882423 4.35809 207 133 130 
-0.508952 -0.911741 4.37919 144 131 123 
0.172633 -0.215261 3.66545 178 129 97 
0.0683092 -0.24783 3.70591 168 137 109 
0.735058 -0.165717 3.41121 151 88 0 
-0.644233 0.232874 3.287 104 81 65 
-0.899096 -1.42874 4.93202 150 62 58 
-2.67462 -1.20857 7.06173 112 72 36 
-1.08132 -1.54421 5.00056 87 77 68 
0.183225 -0.303307 3.75134 171 126 93 
-0.505254 -0.853752 4.32936 176 162 151 
-0.538133 -0.878881 4.34051 180 110 102 
-0.564284 -0.882531 4.35935 208 141 133 
-0.438592 -0.144553 3.03251 218 154 145 
-0.463572 -0.124116 3.04321 125 48 54 
-1.07191 -1.09107 4.59662 86 4 16 
-0.995592 -1.48794 4.97154 74 50 24 
-1.25287 -1.41174 4.91286 81 28 24 
0.278499 -0.227434 3.32704 208 134 1 
-0.892121 -1.43997 4.93926 210 142 123 
0.467618 -0.208901 3.50001 241 177 87 
0.17221 -0.215679 3.6635 174 130 103 
-0.519761 -0.870492 4.33688 182 147 128 
-0.513899 -0.844106 4.28841 48 26 13 
-0.66802 -1.53804 5.01415 184 86 49 
-0.457534 -0.138272 3.03824 120 44 54 
-0.487747 -0.812908 4.28799 90 61 43 
-3.23871 -1.32286 5.55337 26 19 26 
-1.03956 -1.51426 5.01922 61 55 31 
-0.51911 -0.1415 3.04005 189 104 99 
-0.960177 -1.33722 4.79376 159 126 121 
-3.28686 -1.55121 5.53567 47 41 53 
-1.23806 -1.32686 4.82562 84 0 23 
-1.9437 -0.125702 6.00121 206 173 140 
0.0831767 -0.340909 3.7943 166 138 117 
0.678673 -0.263285 3.40042 150 67 0 
-0.478447 -0.133517 3.04271 212 170 171 
-3.26472 -1.52495 5.86879 29 26 33 
-3.23839 -1.33622 5.65194 34 29 33 
-0.440202 -0.14471 3.04024 214 154 146 
-0.490975 -0.252375 3.12195 224 214 205 
0.140225 0.0127885 3.45838 108 92 76 
-0.466913 -0.817709 4.29622 210 196 187 
-0.693744 -1.77583 5.02698 209 206 197 
0.33694 -1.04097 3.84746 160 148 136 
0.698584 -0.000756008 3.37407 183 129 41 
-0.418931 0.0266184 2.82165 78 68 59 
0.673201 -0.0715617 3.43812 253 206 152 
-0.415945 0.0396844 2.80907 48 35 27 
0.776022 -0.127194 3.33122 120 44 0 
-0.439003 0.0783959 2.77447 131 121 109 
-0.303936 0.087376 2.79731 87 18 21 
-0.443097 -0.128463 3.04913 156 92 92 
-0.721388 -1.78552 5.03032 103 101 89 
-0.692037 -1.75341 5.00788 174 175 170 
-0.702107 -1.74211 4.99588 168 167 165 
-0.408637 -0.135688 3.04612 255 131 136 
-1.21002 -1.78324 5.13029 210 171 176 
-1.19399 -1.7708 5.1002 227 191 193 
-0.400955 -0.139517 3.05499 254 144 147 
-0.312758 0.0990763 2.77869 88 19 12 
-0.300524 0.101154 2.79319 237 149 147 
-0.416384 -0.144334 3.04741 247 143 140 
-0.800511 -1.68823 4.95288 97 94 87 
-0.492669 -1.76069 5.20519 251 203 203 
-0.760319 -1.6687 4.93566 167 164 159 
-0.387775 -0.1472 3.05856 245 151 151 
-0.506511 -0.152006 3.03363 169 79 78 
-0.374297 -0.156571 3.07018 255 141 150 
-0.412396 -0.157388 3.05016 135 50 47 
-0.386584 -0.160294 3.06247 241 146 154 
-0.420172 -0.15894 3.04238 227 123 122 
-0.312743 0.111731 2.768 200 111 117 
-0.367603 -0.16267 3.07951 238 138 140 
-0.377577 -0.160832 3.05409 147 55 60 
-1.23934 -1.70882 5.18995 240 221 215 
-0.397927 -0.165684 3.06154 136 61 58 
-0.397832 -0.168821 3.04551 220 150 148 
-0.310763 0.118671 2.77937 238 162 164 
0.160572 -0.217963 3.68564 173 141 116 
-0.368546 -0.17191 3.07214 108 27 26 
-0.30321 0.124595 2.78452 229 128 134 
0.0664166 -0.22724 3.68775 162 134 113 
-0.329712 0.130029 2.75375 196 106 105 
-0.371015 -0.186138 3.07462 103 28 22 
-0.345951 0.136611 2.74328 245 144 150 
-0.333709 0.13798 2.76445 163 95 96 
-1.31478 -1.6142 5.09383 182 89 120 
0.176096 -0.257599 3.71581 156 128 107 
-0.390739 0.145959 2.72991 130 42 41 
-0.0292135 -0.274374 3.74271 222 206 193 
-0.372609 0.152772 2.73484 185 106 111 
-0.348612 0.15516 2.75043 116 70 72 
-1.4006 -1.52051 4.87201 116 42 65 
0.169445 -0.284456 3.74174 165 129 107 
-0.455222 0.166102 2.73104 123 52 56 
-0.495676 0.167676 2.75478 228 175 171 
-0.375222 0.170277 2.73669 135 63 66 
-0.467802 -0.252616 3.1128 255 249 236 
0.523319 -0.29043 3.45714 131 47 0 
-0.470267 0.230929 2.7934 122 62 61 
-0.917814 -1.52194 4.99501 114 114 88 
-0.505878 -0.300956 3.16159 212 203 186 
-0.618014 0.255919 3.26346 67 38 34 
-0.99293 -1.52185 5.00017 115 113 92 
-0.628587 0.256854 3.26099 63 34 28 
-1.15681 -1.52522 5.02638 172 150 137 
-0.531501 -0.594135 3.98155 65 54 48 
0.157255 -0.653213 4.09298 132 128 119 
-1.17849 -1.52034 5.02771 69 27 13 
-0.618921 -0.641694 3.91271 238 236 239 
-0.501389 -0.687309 4.16792 195 163 138 
-0.567519 0.347231 3.15442 62 32 24 
-1.13616 -1.48786 4.96036 221 205 192 
-0.570136 0.35107 3.17438 69 39 29 
-0.421807 -0.746134 4.13737 55 48 42 
-0.571146 -0.774351 4.26978 249 160 156 
-0.569628 -0.786034 4.26917 106 69 51 
-0.588427 -0.786017 4.26868 141 60 59 
-0.580353 -0.790188 4.27503 94 62 51 
-0.489552 -0.796588 4.27847 91 62 48 
-0.585392 -0.797876 4.28371 91 51 43 
-0.542076 -0.805238 4.29954 104 73 55 
-0.593633 -0.805166 4.2906 159 99 91 
-0.606746 -0.80486 4.28895 113 34 37 
-0.564421 -0.81169 4.29382 95 67 53 
-0.475751 -0.826184 4.30783 133 107 92 
-0.504081 -0.827602 4.30739 149 113 97 
-0.599323 -0.831453 4.31864 254 165 169 
-0.893303 -1.43938 4.93103 180 127 111 
-0.637671 -0.840712 4.3272 241 210 192 
-0.523346 -0.841804 4.31085 227 200 193 
-0.617663 -0.851434 4.35793 102 23 19 
-0.491325 -0.84463 4.31764 153 124 108 
-0.643828 -0.850799 4.33991 94 64 53 
-0.657056 -0.850469 4.33819 78 49 31 
-0.677596 -0.851424 4.33538 41 18 2 
-0.571442 -0.854088 4.33461 69 28 22 
-0.650047 -0.857989 4.35295 181 152 138 
-0.596188 -0.859708 4.34775 93 55 42 
-0.626886 -0.861225 4.35475 72 35 16 
-0.684076 -0.861616 4.34853 75 46 28 
-0.605438 -0.863515 4.3437 193 123 123 
-0.821325 -0.81348 4.06418 148 146 147 
-0.634989 -0.880894 4.36968 164 148 125 
-0.621613 -0.885665 4.37093 71 32 15 
-0.601753 -0.88992 4.36968 179 132 124 
-1.1017 -1.40603 4.89618 89 41 37 
-0.553252 -0.899264 4.3786 199 119 120 
-0.0844893 -0.850545 4.13234 143 138 116 
-0.116108 -0.855372 4.14127 152 144 121 
-0.12611 -0.856538 4.13996 148 140 117 
-0.506512 -0.912705 4.38577 117 107 97 
-0.512935 -0.916759 4.39689 140 123 115 
-0.463748 -0.917905 4.38856 140 115 111 
-0.471926 -0.922147 4.40174 45 27 23 
-0.836366 -0.870448 4.12535 125 120 124 
-1.11203 -1.3897 4.89281 145 69 82 
2.22704 0.60712 3.83838 60 62 48 
-0.568026 -1.31541 4.6476 235 198 172 
-0.653987 -0.9706 4.2936 159 8 17 
-0.660223 -0.97867 4.31557 218 66 78 
-1.14909 -1.02033 4.47793 192 181 177 
-1.01497 -1.03944 4.53335 207 70 77 
-1.07318 -1.06034 4.56188 202 118 131 
-0.570096 -1.11361 4.48824 140 83 30 
-0.694975 -1.34436 4.81802 65 36 18 
-1.20863 -1.18062 4.69247 161 68 89 
-3.23513 -1.38601 5.43853 71 61 62 
-1.20335 -1.21621 4.71815 84 45 40 
-1.25877 -1.21999 4.7072 201 117 133 
-1.06895 -1.20536 4.61624 102 91 85 
-3.2892 -1.44073 5.48298 85 76 81 
0.305214 -1.06707 3.878 132 129 120 
-0.95147 -1.24185 4.74262 40 26 0 
-1.24967 -1.34142 4.85697 118 0 34 
0.311416 -1.05351 3.83908 251 248 229 
0.319174 -1.0575 3.85353 186 184 163 
-0.92229 -1.25928 4.75282 22 28 0 
-1.19333 -1.26819 4.77838 156 140 117 
-0.869658 -1.52202 5.00149 203 185 165 
-0.523105 -0.781492 4.26126 151 162 148 
0.062843 -0.206174 3.66327 160 134 119 
-0.420414 -0.133466 3.04503 214 105 108 
-0.98367 -1.2925 4.71287 199 149 142 
0.340467 -1.04106 3.83792 237 224 215 
-0.516974 -0.78871 4.26852 218 215 206 
-0.676311 -1.53428 5.00866 65 13 0 
0.385683 -1.0459 3.82183 122 112 100 
-0.934106 -1.28267 4.76069 57 83 74 
-0.445062 -0.259172 3.12365 193 181 169 
-0.449954 -1.2258 4.59045 78 29 0 
-0.879494 -1.52303 4.99905 154 146 125 
-3.7699 -2.7497 8.53028 174 169 163 
-0.894267 -1.45165 4.94404 78 32 17 
-0.310263 0.334853 2.9391 197 144 128 
-1.15977 -1.53712 5.03226 245 219 204 
-1.20164 -1.24475 4.74574 83 61 38 
-0.991369 -1.29747 4.70675 174 116 114 
0.782105 -0.1253 3.35842 114 24 0 
-1.3707 -1.4888 4.84052 182 85 120 
-0.321029 0.132141 2.76677 199 89 92 
-0.389862 -1.19737 4.6209 103 49 37 
-0.389261 -1.2 4.64359 167 105 94 
-0.55527 -0.851554 4.33698 130 42 38 
0.387013 -0.682355 4.04432 116 99 92 
0.561175 -0.282133 3.46153 122 24 0 
-1.24266 -1.19411 4.69508 63 9 0 
0.354051 -0.31646 3.41931 116 75 43 
-0.533075 -1.34618 4.67134 211 180 159 
-1.11392 -1.41631 4.91408 61 21 19 
-1.30069 -1.62162 5.08922 75 22 30 
-0.0474331 -1.15335 4.60125 249 242 234 
-0.513229 -0.871586 4.35507 160 150 140 
-1.17753 -1.17144 4.67589 92 1 16 
-0.642502 -0.872891 4.35237 127 99 77 
-0.664199 -0.691647 3.92516 179 174 178 
-0.67346 -0.876951 4.36495 100 73 54 
-0.78594 -1.09755 4.41834 63 17 0 
-0.646785 -0.883535 4.36779 133 106 87 
-0.40657 -1.52838 4.95798 173 144 146 
-0.297953 -1.53523 4.84045 86 39 33 
-0.729999 -1.53475 5.02135 109 65 56 
-1.31334 -1.84463 5.19403 225 135 161 
-0.313468 -1.02934 4.24529 156 154 155 
-0.607337 -1.59855 5.05983 82 46 48 
-0.603133 -0.676253 3.91607 233 231 234 
-0.295277 0.080416 2.81343 225 123 119 
-0.299034 -1.52252 4.82679 133 99 90 
-0.574329 -1.59895 5.07776 113 103 94 
0.156181 -0.641787 4.06718 173 164 155 
-0.492162 -0.908275 4.38583 11 4 0 
-1.00318 -1.52077 5.01912 132 137 117 
-3.30655 -1.4907 5.29346 66 63 74 
-1.02628 -1.49478 5.00101 208 160 114 
-0.293965 -1.51045 4.81521 85 45 37 
-1.27953 -1.07101 4.54594 86 0 0 
-3.26159 -1.34364 5.67396 63 59 60 
-1.02165 -1.56146 5.04411 180 121 81 
0.133189 -0.958358 4.12386 139 134 138 
-0.997299 -1.05768 4.55804 172 0 3 
-3.26585 -1.33208 5.71486 85 74 72 
0.072701 -0.276757 3.74045 139 113 96 
-0.955065 -1.05089 4.54974 223 65 80 
-0.708032 -1.81587 5.05713 149 129 131 
-1.14614 -1.0338 4.48845 117 108 101 
-1.06265 -1.0449 4.54987 171 73 72 
-0.727228 -1.49118 4.97979 59 1 0 
-1.00959 -1.03328 4.52752 134 0 7 
-1.06129 -1.51308 5.01027 114 58 33 
-0.634748 -1.56849 5.05297 108 52 53 
-0.871976 -1.51118 5.00548 78 27 24 
-0.467742 -0.0783937 3.07743 189 85 84 
-0.990091 -1.48896 4.99399 170 138 113 
-0.681962 -0.880467 4.37422 88 63 41 
-0.358137 0.163828 2.74722 186 115 119 
-0.876038 -0.901917 4.14434 165 153 157 
-1.14793 -1.34963 4.85798 92 52 61 
-0.971172 -1.60103 5.10953 167 34 3 
-0.296348 -1.57377 4.86166 59 36 30 
-0.440787 -1.61588 5.08233 103 42 49 
-0.303217 0.347069 2.97526 110 116 80 
-0.898396 -1.05752 4.54535 129 4 10 
-0.251112 -1.01753 4.22773 162 157 161 
-0.43234 -1.59228 5.05777 146 100 87 
0.0976527 -0.996747 4.18125 144 140 141 
-1.39352 1.45605 4.56622 201 158 123 
-1.195 -1.56401 5.07412 180 71 77 
-1.2409 -1.34857 4.84081 159 55 78 
-1.21216 -1.23685 4.72826 174 144 120 
-0.590686 -0.911875 4.40179 180 128 115 
-0.598869 -1.57125 5.05036 113 0 1 
-0.499556 -0.685635 4.15172 159 127 102 
-0.610576 -0.853756 4.35035 156 91 85 
-0.607201 -0.871548 4.36656 193 119 118 
-0.539509 -0.859071 4.34171 182 139 133 
-0.636573 -0.855315 4.3497 174 146 125 
-0.629661 -0.848014 4.33092 83 50 31 
-0.650292 -0.890085 4.37699 50 23 4 
-0.819257 -0.830941 4.07738 74 74 76 
-0.585344 -0.843875 4.31979 246 208 197 
-0.588893 -0.897397 4.38685 77 18 14 
-0.547411 -0.842709 4.32256 251 174 164 
-0.481212 -0.84467 4.3333 235 223 211 
-0.506057 -0.83646 4.31872 230 201 187 
-0.66998 -0.909806 4.41018 162 140 119 
-0.599304 -0.820813 4.30284 149 87 90 
-0.577064 -0.819173 4.30299 114 65 58 
-0.863989 -0.856863 4.07937 136 135 133 
-0.632664 -0.811257 4.29938 121 83 64 
-0.547176 -0.807775 4.29066 227 193 183 
-0.460835 -0.798837 4.2734 211 182 168 
-0.557506 -0.785293 4.25719 187 159 147 
-0.510734 -0.692592 4.18232 117 86 57 
-0.693299 -1.77994 5.03854 204 201 192 
-1.20211 -1.78033 5.1389 255 245 240 
-0.939153 -1.19823 4.69545 87 24 0 
-0.358647 -0.207788 3.08853 104 4 4 
-0.957603 -1.23782 4.75637 217 146 84 
-0.381723 -0.177219 3.06335 242 168 167 
-0.376333 -0.168076 3.06195 238 162 164 
-1.15896 -1.2602 4.76581 165 139 122 
-1.24551 -1.27066 4.77468 93 3 13 
-1.2505 -1.30394 4.80972 87 10 28 
-1.2626 -1.35572 4.85913 102 47 50 
-1.26266 -1.36669 4.88377 200 160 152 
-1.1041 -1.38581 4.88775 92 26 30 
-0.417383 0.0413867 2.82088 56 45 39 
-3.36364 -1.56216 5.31427 52 47 53 
-3.37441 -1.57223 5.30353 53 51 56 
-0.379032 0.167518 2.72689 131 41 41 
-1.04036 -1.51152 5.00971 58 36 12 
-0.492787 -1.53571 4.98467 89 62 53 
-1.17095 -1.54472 5.03654 84 35 28 
-0.826468 -0.857165 4.09667 133 131 136 
-0.865472 -1.52448 4.96615 234 216 194 
-0.713382 -1.79856 5.0377 199 195 192 
-0.608524 -0.846776 4.33383 225 148 142 
-1.24699 -1.54278 5.0362 245 166 151 
-0.420067 -0.744625 4.1272 55 48 42 
0.149131 -0.638119 4.08851 123 113 104 
-0.947714 -1.0545 4.55549 238 94 119 
-3.23735 -1.31001 5.55088 73 61 61 
-0.624365 -0.87687 4.36664 99 62 43 
-0.952609 -1.52053 4.99944 147 138 107 
-1.1092 -1.38672 4.87754 111 43 54 
-1.04074 -1.55406 5.06076 158 144 117 
-0.38683 0.172368 2.73823 121 36 31 
-1.32296 -1.49081 4.93921 159 79 104 
0.150998 -0.236932 3.69864 77 40 14 
-1.22413 -1.24802 4.74203 216 172 147 
-0.292827 -1.18869 4.49092 209 146 131 
-0.279917 -1.41953 4.73704 81 56 51 
-0.407269 -0.159255 3.02949 205 129 129 
-0.382383 0.148054 2.73679 241 137 136 
-0.351145 0.146952 2.74124 124 78 78 
-1.24148 -1.3262 4.81753 209 95 131 
-1.24563 -1.33695 4.84191 118 0 34 
-0.325238 0.145042 2.75814 216 112 113 
-0.518811 0.0578773 2.82889 115 104 84 
-0.30463 0.0689989 2.80576 221 144 138 
-0.323297 0.145351 2.7723 145 36 41 
0.079308 -0.321007 3.78367 163 132 101 
-0.471418 -0.914072 4.38013 86 73 65 
-0.508178 -0.922873 4.41275 18 0 0 
-1.37098 -1.53603 4.88131 223 102 143 
-0.560044 -0.777796 4.2641 192 118 105 
-3.37677 -1.92454 5.45772 154 154 166 
-3.24628 -1.3442 5.56975 47 43 44 
-0.623247 -1.57028 5.04213 160 112 98 
-1.1676 -1.13419 4.62387 93 0 0 
-1.22083 -1.17511 4.67089 208 95 91 
-1.24686 -1.41111 4.91141 85 15 25 
0.2393 -0.230278 3.69492 169 134 114 
-0.988939 -1.49878 4.98118 100 85 64 
0.308785 -1.04341 3.84525 183 179 167 
-0.489858 -1.54584 4.99107 126 98 87 
-1.23912 -1.31743 4.80752 136 28 60 
-0.98472 -1.32448 4.75708 142 82 81 
-0.608837 -1.54824 5.03121 114 90 80 
-0.647164 -0.657054 3.89373 112 110 115 
0.340234 -0.35748 3.79037 84 38 14 
-1.31032 -1.60956 5.07536 137 63 88 
-1.18157 -1.28162 4.7716 186 123 131 
-1.24322 -1.24521 4.75274 147 55 78 
-1.16235 -1.3328 4.83485 134 37 68 
-1.01373 -1.03762 4.51483 153 38 41 
-1.39717 -1.49022 4.84424 93 43 54 
-0.614746 -0.90949 4.39201 175 126 109 
-0.600399 -1.63402 5.11035 147 72 79 
-0.308648 0.381067 2.99192 218 142 146 
-0.829131 -0.900203 4.15248 146 136 137 
-0.993746 -1.29224 4.69732 166 112 110 
-0.677705 -0.889646 4.37513 78 51 30 
-0.328406 0.515417 2.99492 146 130 115 
0.343675 -1.04021 3.82225 132 119 111 
-0.37511 -0.704057 4.14047 57 50 44 
-0.371451 -0.703582 4.16621 142 135 127 
-3.3626 -1.56952 5.2212 203 198 205 
-0.451647 0.413173 2.96445 144 58 59 
-0.298857 -1.53369 4.8303 70 29 25 
0.350521 -0.070859 3.44563 184 122 45 
-0.690991 -1.72082 4.97594 153 150 141 
-0.418291 0.163079 2.73901 249 127 122 
-0.678183 -0.85734 4.30626 169 141 119 
-0.937227 -1.29042 4.79102 68 98 88 
0.680283 -0.0674658 3.4439 184 100 2 
-1.1832 -1.39957 4.91439 149 14 57 
-0.542538 -1.36867 4.7091 242 213 195 
-0.449125 -1.22345 4.57694 77 31 0 
-0.511313 -0.856874 4.33114 175 155 144 
-1.23553 -1.70123 5.14315 227 194 201 
-1.11852 -1.39729 4.89935 99 18 37 
0.174899 -0.338085 3.78314 161 127 115 
-1.06644 -1.42903 4.93301 143 74 33 
-1.1431 -1.37149 4.88744 159 80 101 
-0.685814 -1.73344 4.98827 143 143 135 
-1.20583 -1.28979 4.79377 155 129 112 
-0.448995 -0.242619 3.08367 255 250 233 
-1.17862 -1.20704 4.71221 83 11 33 
-0.515166 0.0545569 2.80535 157 146 128 
-1.18891 -1.21378 4.72417 148 90 102 
-0.571164 -1.11287 4.48319 152 95 42 
-0.692165 -1.70704 4.95946 82 78 77 
-1.23651 -1.19629 4.70834 188 105 113 
-0.486101 0.188219 2.76205 188 123 117 
-0.621723 -1.55396 5.03612 29 9 0 
0.0864235 -0.285332 3.75509 91 56 34 
0.438122 -0.237666 3.48022 171 100 8 
-0.0495258 -1.15643 4.6148 251 244 236 
-1.24152 -1.20434 4.70107 171 127 102 
-0.451664 -0.0674927 3.08819 190 92 91 
-1.3259 -1.6065 5.06521 166 74 97 
-1.17321 -1.15389 4.66399 203 74 79 
0.775799 -0.0797615 3.27763 155 70 0 
-3.30667 -1.40694 5.36451 124 123 121 
-1.18562 -1.51263 5.033 205 108 119 
-0.8752 -1.31134 4.80321 123 115 94 
-3.19399 -1.8973 5.83381 61 56 60 
-0.864994 -1.50013 5.00124 205 132 113 
-0.731203 -1.53869 5.03319 109 65 56 
-3.23082 -2.12182 5.97977 29 26 33 
-0.915824 -1.36292 4.86576 37 56 36 
-0.454102 -1.21265 4.5366 77 32 3 
-0.994865 -1.05599 4.54574 172 0 13 
0.267393 -0.177838 3.29547 181 109 0 
0.540592 -0.188719 3.52901 193 125 14 
-0.583737 -0.647044 3.91171 149 146 153 
-0.483208 -0.910868 4.39962 114 111 102 
-1.26431 -1.41415 4.88752 222 131 140 
-2.18274 -0.0049396 5.94992 233 199 162 
-0.448266 -1.60799 5.08318 143 93 82 
-3.25553 -1.37692 5.4915 125 123 137 
-0.440261 0.0561631 2.77086 255 252 240 
-0.361399 -0.193997 3.08495 93 4 0 
-1.16136 -1.15336 4.65924 128 21 51 
2.22747 0.604742 3.82626 238 242 228 
-1.00264 -1.51917 5.00937 151 156 136 
-0.707195 -1.78932 5.02948 107 102 96 
-0.724115 -1.79062 5.04036 90 86 77 
-0.663506 -1.77877 5.01427 160 156 155 
-0.60381 -0.892201 4.37902 133 84 77 
-0.592293 -0.885838 4.36994 200 160 152 
-0.697878 -1.76397 5.01436 88 87 82 
-3.24104 -2.05113 5.82517 58 56 67 
-0.820579 -0.821867 4.0714 219 219 221 
-0.558431 -0.884701 4.37531 212 134 132 
-0.556512 -0.862779 4.33155 201 132 127 
-0.629403 -0.863102 4.36389 66 31 11 
-1.21146 -1.78747 5.14341 235 199 203 
-3.23853 -2.05651 5.9243 51 45 55 
-0.65227 -0.905663 4.38081 152 126 103 
-0.738493 -1.69273 4.95142 178 174 165 
-0.528366 -0.84708 4.3402 227 200 193 
-0.480359 -0.843587 4.32255 233 223 211 
-0.51011 -0.830324 4.29923 91 62 48 
-0.600861 -0.830116 4.30812 255 198 195 
-0.896916 -0.770102 4.01596 145 145 145 
-0.460061 -0.812858 4.28722 90 79 77 
-0.548743 -0.797644 4.27313 93 75 63 
-0.558607 -0.785304 4.27614 248 211 193 
-0.477568 0.182202 2.74999 219 151 152 
-0.647783 -0.975342 4.30499 242 106 130 
-0.672924 -0.697221 3.93771 130 128 131 
-1.14749 -1.01727 4.46239 168 161 151 
-3.22179 -1.27767 5.52776 65 55 56 
0.379385 -0.672994 4.03486 193 124 117 
-0.613392 -0.64074 3.8751 126 124 129 
0.177409 -0.66294 4.07901 75 64 58 
0.151421 -0.635983 4.03936 42 35 25 
-1.10118 -1.56047 5.05394 225 214 210 
-0.0255004 -0.979102 4.16489 124 122 123 
-0.786393 -0.577471 3.91388 157 154 147 
-0.871119 -1.53356 5.00092 244 232 210 
-0.94498 -1.52741 4.98829 246 247 231 
-0.886034 -1.52938 4.99457 246 244 231 
-1.16917 -1.52758 5.03588 56 30 5 
-3.38423 -1.57659 5.19866 110 106 120 
-3.3504 -1.26958 5.17547 107 102 108 
0.584591 -0.323161 3.43487 188 157 113 
-0.88043 -1.09746 4.49168 255 231 212 
-3.37427 -1.57374 5.24093 208 203 209 
-1.17015 -1.13634 4.63746 90 0 0 
-0.472527 -0.258627 3.12061 246 243 228 
-1.21736 -1.17213 4.67838 93 0 0 
-3.36049 -1.56668 5.27837 72 70 73 
-3.24927 -1.3874 5.47724 53 46 54 
-3.31739 -0.436775 5.0919 121 113 111 
-3.38474 -1.51663 5.19641 151 144 160 
-1.22031 -1.43727 4.93982 99 23 35 
-1.18816 -1.21048 4.70994 163 95 110 
-0.68853 -1.41227 4.883 20 26 16 
-0.951027 -1.2279 4.71519 205 142 88 
0.101801 -0.269101 3.73206 92 43 11 
-1.23501 -1.2316 4.72646 92 34 32 
-1.22679 -1.2415 4.7558 73 58 37 
-0.367461 -0.202976 3.08089 229 138 135 
-1.00481 -1.2431 4.74482 31 1 0 
-1.22057 -1.24624 4.72942 229 181 158 
-0.514273 -1.3336 4.66205 232 199 180 
0.185927 -0.238778 3.70422 85 49 27 
-0.388877 -0.179032 3.05312 212 121 120 
-0.893747 -1.27867 4.77328 56 51 19 
-0.694121 -1.36203 4.80954 27 4 0 
-1.24478 -1.36602 4.85373 91 35 38 
-1.09258 -1.28482 4.76793 101 52 56 
-0.507515 -0.125386 3.08223 198 100 97 
-0.976012 -1.31336 4.71933 156 96 96 
-1.24634 -1.30181 4.79489 137 36 68 
-0.39269 -0.15548 3.07006 237 149 148 
-1.15004 -1.33952 4.84479 170 99 115 
-0.572531 -0.147953 3.06974 155 55 55 
-0.475511 0.265156 2.83246 133 70 65 
0.149612 -0.195094 3.65993 172 141 113 
-1.13817 -1.33093 4.82281 143 81 94 
-1.39533 -1.56275 4.90229 114 35 56 
0.390171 -0.701953 4.01717 69 56 48 
-3.25154 -2.12539 6.03779 22 21 26 
-3.37351 -0.885803 5.20347 142 136 146 
-1.03096 -1.57214 5.07602 192 120 80 
-1.1466 -1.35391 4.8454 26 0 0 
-0.679881 -1.54036 5.03226 72 17 0 
-1.37712 -1.7527 5.10007 47 0 20 
0.147813 -0.213617 3.66342 94 62 37 
-0.775528 -0.767044 4.01127 103 107 154 
-1.37248 -1.57047 4.91081 205 101 134 
-0.789605 -1.10131 4.43717 65 19 0 
-0.602164 -1.57514 5.06452 113 0 1 
0.374417 -0.939974 3.77694 131 89 91 
-1.14704 -1.36425 4.86409 48 9 12 
-1.38507 -1.65147 5.00126 193 83 120 
-1.28573 -1.24181 4.7565 148 54 44 
0.473074 -0.261872 3.47848 166 96 0 
-2.16532 0.0103732 5.88227 223 190 159 
-0.997222 -1.29709 4.7185 166 112 110 
-0.511286 -0.858091 4.34139 174 156 144 
-0.866283 -1.31937 4.79194 195 123 109 
0.0775947 -0.307613 3.78192 157 125 104 
-0.446404 -0.919457 4.38574 107 48 42 
1.56307 1.29829 4.56328 107 76 45 
-0.316703 0.417257 3.01508 190 120 122 
-3.39676 -1.94639 5.45556 140 139 147 
-0.869326 -1.30391 4.79624 70 45 25 
-0.414519 -1.23113 4.67863 200 153 125 
-3.2857 -1.95489 5.66259 83 84 89 
0.149738 -0.638239 4.05222 43 39 30 
-0.494815 -0.12665 3.05854 225 160 158 
-0.227657 -0.992056 4.18776 212 210 211 
-3.248 -1.33577 5.55622 43 34 35 
-1.04416 -1.17841 4.65346 200 125 145 
-0.640932 -0.849908 4.32313 74 44 33 
-0.626775 -0.84738 4.31113 81 53 29 
-0.501247 -0.84582 4.31684 100 74 61 
-0.595345 -0.845971 4.32949 133 65 62 
-1.22304 -1.22755 4.7113 176 153 135 
-0.549679 -0.819461 4.29973 125 45 34 
-1.19131 -1.26466 4.75532 192 168 140 
-0.718815 -1.80393 5.06223 205 200 194 
0.310413 -1.03476 3.83389 109 102 94 
-0.714442 -1.78802 5.04209 193 190 181 
-0.690222 -1.75164 4.97278 91 90 85 
-3.29769 -1.4922 5.35128 29 28 34 
-0.53479 0.125195 2.79322 124 61 54 
-1.20861 -1.77771 5.14943 255 243 236 
-1.16439 -1.52147 5.01223 56 30 5 
-0.990639 -1.51952 4.98753 138 135 118 
-1.15806 -1.54632 5.04531 247 230 222 
-1.11142 -1.53043 4.9838 254 253 251 
-1.08309 -1.54283 5.0037 77 67 58 
-1.09394 -1.55162 5.01388 196 185 181 
-0.506006 -0.151805 3.04653 157 55 53 
-1.15343 -1.1404 4.63252 226 119 145 
-1.04958 -1.05347 4.55803 227 118 149 
-0.222531 -0.997376 4.14776 138 136 141 
-1.01124 -1.03912 4.54346 101 0 2 
-0.506233 -0.231283 3.1057 184 167 157 
-0.801802 -1.67564 4.94115 168 164 153 
-0.507502 0.170263 2.76652 212 171 169 
-0.606014 -1.57865 5.07555 91 6 0 
-3.19954 -1.90018 5.85523 46 43 52 
-0.658429 -0.911127 4.41592 141 115 92 
-1.17438 -1.14107 4.65809 79 0 0 
-0.696436 -1.69821 4.9471 165 161 160 
-0.611194 -1.55206 5.01885 136 119 101 
-1.04584 -1.56157 5.05601 98 48 25 
-0.597467 -1.54712 5.01207 21 2 0 
-1.16778 -1.15185 4.63412 219 74 79 
-0.957786 -1.54141 5.01128 153 161 140 
-1.03796 -1.53181 4.99866 250 243 227 
-3.25314 -1.33685 5.60133 30 21 24 
-1.95755 1.02962 4.95022 104 69 47 
-0.539519 -0.253445 3.11817 126 118 107 
-0.925842 -1.51359 4.98809 171 165 139 
-0.322076 0.309812 2.90052 205 134 130 
-1.22728 -1.17794 4.68226 222 85 79 
-1.37534 -1.76643 5.11491 193 93 127 
-0.407074 -1.47762 4.92174 140 122 110 
-3.26003 -1.39575 5.48276 61 52 53 
-1.33637 -1.78747 5.15929 184 75 114 
-0.949433 -1.48432 4.98028 214 186 149 
-0.908198 -1.51595 4.99681 161 147 121 
-0.540981 -0.880912 4.36004 190 127 118 
-0.603208 -0.868617 4.35131 194 124 122 
-0.671979 -0.861792 4.34289 165 137 125 
-0.894587 -1.42805 4.91989 135 52 44 
-0.539743 -0.258718 3.13261 128 121 111 
0.668253 -0.0595502 3.42309 247 204 125 
0.19638 -0.328375 3.77011 101 51 24 
0.136584 -0.32976 3.78189 106 56 31 
-3.35712 -1.30234 5.15425 91 92 97 
0.173632 -0.654186 4.06124 188 171 164 
0.172257 -0.334918 3.76643 178 130 107 
-3.22571 -1.34499 5.43539 42 44 59 
0.696191 -0.316867 3.36598 144 60 0 
-1.12931 -1.40205 4.90829 178 74 109 
-0.400325 0.441336 2.97897 188 108 109 
-0.971492 -1.35479 4.8361 182 141 139 
-1.22719 -1.25267 4.75255 229 178 157 
-3.31345 -1.45941 5.50161 62 63 65 
-1.07203 -1.106 4.60652 133 38 68 
-3.39269 -1.93361 5.4839 154 154 166 
-0.682405 -1.76899 5.02251 71 71 61 
-0.529306 -0.809948 4.29159 237 211 188 
-0.890074 -1.27234 4.7549 56 42 15 
-0.500607 -0.695256 4.17794 125 91 64 
0.385906 -0.682672 4.0329 108 90 86 
-0.619948 -1.54523 4.99649 36 2 0 
-1.20164 -1.24544 4.73677 85 58 31 
-1.03892 -1.10907 4.60768 156 90 117 
-2.17843 0.278894 5.63506 121 87 60 
-0.451361 0.256987 2.80844 204 125 120 
0.0865704 -0.285444 3.74138 99 64 44 
-0.676254 -0.885082 4.35489 91 64 43 
-1.25627 -1.21055 4.71047 87 0 0 
-1.08451 -1.56262 5.01093 142 130 132 
0.146676 -0.214029 3.68729 82 51 30 
0.180056 -0.278379 3.73971 160 126 101 
-0.670555 -1.72798 4.97358 146 145 140 
-1.2018 -1.28306 4.78148 174 149 129 
-0.649003 -0.876514 4.35868 74 45 27 
-1.03041 -1.52496 5.01495 166 152 125 
-0.473614 -0.804882 4.26515 232 199 180 
-0.564687 -0.818524 4.30329 255 207 195 
-0.568888 -0.842003 4.31255 255 213 206 
-0.658258 -0.870172 4.35814 168 140 119 
-0.941433 -1.2066 4.71345 74 21 0 
-3.26172 -1.38151 5.47468 143 141 146 
-0.472002 -0.150975 3.04022 244 163 159 
-3.24852 -1.38094 5.53432 57 51 55 
-1.25333 -1.28056 4.79719 77 0 3 
-3.2483 -1.33224 5.67737 47 38 39 
-1.07104 -1.06678 4.57717 231 116 145 
-0.918403 -0.864929 4.10177 132 128 129 
2.1624 0.461548 3.8091 244 247 240 
-0.461198 -0.252239 3.12259 39 30 21 
-3.23831 -2.05698 6.07933 49 38 42 
-3.31806 -1.50945 5.34915 62 57 64 
-3.31955 -1.60004 5.58488 47 46 51 
-1.25493 -1.41494 4.92975 72 22 25 
-0.540902 -0.854648 4.32992 193 145 141 
-1.25639 -1.40734 4.89147 116 42 39 
-0.505985 -0.840751 4.33686 245 216 200 
-0.607983 -0.814036 4.28043 255 220 209 
-0.784 -0.370699 3.81659 45 34 32 
-0.559858 -0.78793 4.28856 248 211 193 
-3.34243 -1.56159 5.25551 32 32 40 
0.167218 -0.667965 4.03208 32 27 24 
-1.09428 -1.51628 4.96276 255 251 245 
-0.870311 -1.52683 4.98774 237 232 210 
0.165985 -0.65498 4.0747 201 191 179 
-0.315259 0.0978117 2.7915 209 136 130 
-0.599736 -1.55579 5.04813 24 3 0 
-1.36657 -1.47977 4.81937 226 103 147 
-0.990104 -1.47991 4.94914 74 50 24 
-1.03993 -1.53394 5.00907 254 247 229 
-0.768477 -1.71513 4.97519 85 81 78 
-1.3329 -1.50447 4.9693 197 83 117 
-1.30438 -1.60389 5.05819 182 89 120 
-0.961279 -1.23659 4.76341 220 141 72 
-1.3225 -1.85379 5.21291 224 131 158 
-0.226918 -1.00566 4.19975 166 164 167 
-1.07779 -1.10996 4.63379 85 6 28 
-0.706958 -1.747 5.01617 186 185 183 
-0.754106 -1.69131 4.94737 75 72 63 
-0.556688 -0.878764 4.34046 207 133 130 
-0.297241 -1.63883 4.94198 71 46 42 
0.188328 -0.337853 3.8031 176 127 94 
-0.696924 -1.41154 4.89768 90 105 86 
0.165421 -0.270512 3.72151 174 130 101 
-0.991101 -1.2312 4.71605 58 41 25 
-1.29313 -1.83855 5.18074 44 17 26 
-1.19771 -1.50827 4.99471 253 196 143 
-0.377701 -0.158574 3.08626 209 98 105 
-3.26871 -0.56617 5.27173 203 199 198 
-3.32968 -1.27391 5.27295 150 146 147 
-1.09475 -1.36766 4.86419 247 171 155 
-0.968313 -1.35314 4.80151 222 178 175 
-0.93218 -1.52062 5.00158 194 188 162 
-0.444137 -0.014909 2.87031 243 237 221 
-0.406957 0.337725 2.88592 192 122 122 
-3.24226 -1.78389 5.60043 48 42 52 
-0.797792 -1.72121 5.00325 179 175 172 
-0.294033 -1.22361 4.50919 162 106 105 
-1.34344 -1.79844 5.19283 174 77 110 
-0.475584 0.233207 2.81016 145 54 51 
-1.78879 0.860197 5.10097 110 77 46 
-0.947471 -1.48118 4.96557 216 186 148 
-2.67487 -1.20965 7.06594 112 72 36 
-1.26702 -1.22748 4.6752 206 54 51 
-2.18653 0.28059 5.64918 103 69 42 
-1.31167 -1.08264 4.54676 183 51 62 
-0.323167 0.312428 2.91266 196 143 137 
-0.83101 -0.408719 3.81077 100 99 97 
-1.27601 -1.2237 4.71149 77 0 0 
-1.03553 -1.50245 5.02343 226 161 107 
-1.96449 1.22195 4.79273 120 90 56 
0.156952 -0.646548 4.05504 132 128 119 
-0.560289 -0.803662 4.30011 82 69 61 
-0.615162 -0.845817 4.32508 102 28 25 
-0.564207 -0.865374 4.36614 203 153 142 
-3.23587 -1.32109 5.55 26 19 26 
-1.04385 -1.18232 4.64491 214 146 157 
-1.10116 -1.38314 4.85722 70 22 22 
-0.49378 0.0683035 2.80109 28 26 14 
-1.08149 -1.54246 4.99562 87 77 68 
-1.22322 -1.70026 5.13432 255 251 251 
-3.22155 -2.04599 6.04254 49 38 42 
0.158061 -0.247248 3.70005 175 124 97 
-3.28126 -2.07225 6.18188 18 13 20 
-0.489439 -0.804988 4.2889 202 175 156 
-0.528611 -0.807611 4.26283 177 149 127 
-0.623027 -0.871213 4.35768 194 148 133 
-0.626528 -0.885761 4.35559 106 77 59 
-0.641208 -0.885378 4.35366 75 44 24 
-0.538123 -0.914149 4.40114 168 113 108 
-0.61824 -1.60235 5.09261 131 91 89 
-3.24633 -1.28273 5.56847 34 33 41 
-1.0855 -1.10197 4.60826 225 75 76 
-1.03213 -1.56315 5.04878 189 104 65 
-1.0757 -1.15868 4.6458 65 7 29 
0.683486 -0.0606574 3.43228 204 118 5 
-0.924284 -1.17211 4.65152 156 105 58 
-1.20366 -1.22285 4.73674 73 46 39 
-1.2264 -1.22944 4.73068 209 186 154 
-1.25162 -1.21755 4.68547 174 89 108 
-1.27666 -1.22735 4.72226 77 0 0 
-0.292122 -1.18401 4.50631 53 33 22 
-0.916075 -1.51648 4.98123 98 98 70 
-0.956655 -1.52435 5.02055 141 130 102 
-1.0759 -1.53026 5.05406 105 60 41 
-0.875743 -1.5072 4.99329 71 20 17 
-3.31231 -1.50728 5.33861 62 57 64 
-3.31188 -1.5981 5.39851 170 170 168 
-3.30322 -0.574741 5.33583 211 203 201 
-3.32925 -1.57901 5.47627 64 64 72 
-1.2712 -1.24465 4.74265 82 11 17 
-3.18874 -1.84089 5.94473 38 31 38 
0.154234 -0.294624 3.76234 81 65 52 
-0.556478 -0.90224 4.36313 190 117 111 
-0.582333 -0.894237 4.36057 61 6 1 
0.049003 -0.838099 4.13487 177 175 176 
-1.08606 -1.35819 4.8278 247 171 155 
-3.09691 0.0510269 5.9387 214 185 151 
-0.293957 -1.38105 4.79829 143 95 85 
0.07314 -0.261901 3.71905 173 134 105 
-1.81391 0.61147 5.32756 227 189 152 
-1.31632 -1.83908 5.17705 235 126 157 
-0.36966 -0.189265 3.06011 156 87 80 
-1.04136 -1.15622 4.65218 202 129 159 
0.470428 -0.210182 3.51483 241 177 87 
-0.798294 -1.71423 4.98519 139 138 134 
-0.664646 -1.48611 4.95231 218 170 148 
-1.9521 -0.125181 6.02938 209 174 142 
-0.321461 0.105024 2.75189 154 55 60 
-1.38126 -1.6425 4.98479 234 95 137 
-1.94807 1.02129 4.92643 107 71 49 
-0.519832 -0.870088 4.33519 182 147 128 
-0.936031 -1.52546 5.02437 187 180 154 
-1.3516 -1.60856 4.98591 185 59 97 
0.200054 -0.231349 3.70051 182 134 98 
-3.23935 -1.83824 5.4125 118 118 130 
0.119472 -0.637828 4.09124 108 95 87 
0.51056 -0.221222 3.48885 165 59 0 
-3.21034 -1.9048 5.73104 43 49 63 
-1.37683 -1.75434 5.11386 37 5 20 
-1.28559 -1.81545 5.16879 170 70 108 
0.696736 -0.317874 3.38148 155 66 0 
-0.780303 -0.372722 3.78433 69 57 57 
-0.523256 -0.852526 4.37356 90 67 59 
-0.614222 -0.862818 4.35608 88 20 19 
-0.82633 -0.400164 3.81709 167 163 164 
0.671098 -0.0562452 3.43827 251 214 146 
-3.22585 -1.96426 6.19685 21 16 22 
0.470912 -0.217676 3.48888 249 209 147 
-0.538064 0.131625 2.81019 143 30 34 
-3.28186 -1.1911 5.34773 206 204 209 
-3.23107 -2.05207 6.0645 35 26 29 
-1.11876 -1.55176 5.00605 84 73 71 
-1.15347 -0.673434 4.08948 37 36 31 
0.378175 -0.674494 4.01458 188 143 137 
-0.410176 -0.766162 4.22732 11 9 10 
-3.33644 -1.62328 5.29145 194 192 195 
-0.53474 -0.803928 4.28568 99 74 52 
-0.476994 -0.806536 4.27731 225 194 173 
-0.610344 -0.825249 4.32544 255 218 210 
-0.00528323 -0.991733 4.13462 131 126 130 
0.0489502 -0.832939 4.11304 177 175 176 
-0.600055 -0.899874 4.40554 161 112 107 
-0.845773 -0.83239 4.06364 233 231 234 
-0.564271 -0.90969 4.40924 205 138 130 
0.151206 -0.199513 3.6307 183 129 93 
-0.881302 -1.50889 5.00161 91 29 30 
-1.04291 -1.50262 5.01419 236 143 76 
-3.23125 -1.33194 5.64043 33 27 29 
-3.23266 -1.31987 5.54156 26 19 26 
-1.06207 -1.13537 4.63545 243 178 210 
-0.921178 -1.1644 4.61928 134 75 31 
-0.913371 -1.17785 4.63381 233 184 151 
-1.32127 -1.42287 4.82884 204 64 111 
-1.26704 -1.22297 4.69399 83 16 7 
-1.18562 -1.24259 4.75137 166 147 132 
-1.24036 -1.29903 4.77782 187 77 116 
-0.490699 0.0668451 2.78696 23 19 8 
-0.432305 -1.22765 4.55769 166 122 87 
-3.34459 -1.51507 5.42848 28 27 33 
-3.30954 -1.56126 5.57266 47 41 53 
-1.30981 -1.56481 5.01332 88 18 44 
0.491789 -0.190223 3.51019 238 180 57 
-0.779346 -0.945459 4.2446 231 48 50 
-0.709304 -1.73504 4.98578 121 120 116 
-1.02098 -1.57174 5.06965 82 34 0 
-0.963712 -1.19865 4.69556 255 181 196 
-2.53038 -0.987065 6.87974 112 83 51 
-1.96263 1.01022 4.97109 136 102 74 
-1.94809 0.670334 5.26692 143 107 73 
-0.374888 -0.720697 4.10453 19 15 14 
0.307972 -1.0402 3.80803 244 241 222 
-0.446209 -0.12832 3.02483 203 167 167 
-1.06608 -1.14154 4.66391 239 180 212 
-3.25718 -1.52051 5.85281 29 26 33 
-0.0246651 -0.273843 3.77165 228 214 203 
-3.29055 -1.45443 5.47269 35 42 52 
-0.400274 0.14692 2.73977 205 116 108 
-3.22387 -1.86913 5.75499 55 59 71 
-0.391461 0.15415 2.74771 161 14 24 
-3.22254 -1.85829 5.76548 39 43 55 
0.251262 -1.06043 3.88048 216 214 199 
-0.449031 0.0632751 2.79021 185 175 165 
-3.20118 -1.76553 5.52064 42 41 47 
-0.53412 -0.901062 4.37727 174 138 124 
-0.849945 -0.834658 4.08612 231 229 232 
-0.539594 -0.885044 4.37833 186 134 120 
-0.492127 -0.843911 4.33621 244 215 197 
-0.560787 -0.836979 4.32795 211 53 67 
-0.625496 -1.5812 5.07582 160 112 98 
-0.571405 -0.8262 4.32754 255 217 200 
-1.24667 -1.55172 5.0586 245 174 146 
-0.368259 -0.714175 4.15257 165 160 156 
-1.15493 -0.675567 4.10022 37 36 31 
0.426278 -0.187916 3.49548 189 98 7 
-3.34185 -1.63124 5.45514 44 43 48 
-3.31301 -1.63334 5.46259 41 36 42 
-0.994369 -1.52431 5.01075 115 113 92 
-3.26025 -1.64526 5.37033 134 127 134 
-3.22424 -1.38006 5.41823 71 61 62 
-0.594865 -1.55132 5.02032 27 0 0 
0.283788 -0.228085 3.35427 215 140 13 
2.94862 0.197031 5.49502 33 28 25 
-3.26089 -1.18311 5.31308 213 208 212 
-0.486984 -0.24225 3.0977 233 221 209 
-3.21005 -1.87232 5.87657 32 31 36 
-1.22192 -1.56403 5.05827 235 152 144 
-1.32168 -1.16944 4.61305 159 80 76 
-1.96137 0.120104 5.78345 118 83 55 
-1.34892 -1.40988 4.72931 115 20 50 
-0.980684 -1.18808 4.66621 254 175 207 
-3.03874 0.377316 5.63131 221 186 144 
-0.453024 -1.22036 4.55462 111 65 32 
-0.605151 -0.850616 4.31856 172 105 97 
-3.01451 1.56808 4.49505 122 87 47 
-0.419978 0.0386064 2.80842 71 62 53 
0.642997 0.0578438 3.31221 170 82 0 
-0.539288 0.119824 2.79748 117 53 53 
-0.596871 0.60924 5.56005 237 152 155 
-0.370371 0.150196 2.73156 142 70 73 
-0.37592 0.17028 2.73566 153 74 77 
-0.61111 -1.5684 5.03817 80 38 22 
-0.387515 -0.174463 3.04733 223 152 150 
-0.587215 -0.169598 3.0912 119 40 43 
0.38747 -0.164282 3.46045 142 103 38 
-0.606399 -1.5549 5.03636 65 50 43 
-1.16661 -1.54091 5.02136 87 48 31 
-1.11875 -1.53651 5.00701 208 205 198 
-0.865408 -1.52992 4.98401 222 205 189 
-0.95173 -1.51958 4.9951 147 143 114 
-0.9985 -1.51621 4.99671 152 150 137 
-0.403332 -1.50452 4.91572 122 112 103 
-1.03991 -1.51067 5.00542 58 31 10 
-0.496603 -0.692141 4.1531 114 83 54 
-1.13529 -1.49366 4.96309 221 210 192 
-0.994824 -1.50427 5.00324 124 101 83 
-0.57293 -0.764462 4.25563 250 167 161 
-0.450423 -0.784038 4.24862 106 87 80 
-0.558459 -0.786586 4.25818 183 154 140 
-0.584896 -0.78985 4.26668 246 207 190 
-0.53828 -0.794729 4.26421 127 94 77 
-0.592395 -0.800327 4.26959 176 118 114 
-0.547767 -0.801985 4.26597 188 156 145 
-0.60834 -0.809809 4.27918 239 185 175 
-0.632118 -0.810682 4.29167 129 83 67 
-0.549066 -0.813784 4.28165 119 71 57 
-0.466943 -0.816278 4.28354 207 184 178 
-0.503482 -0.82648 4.28558 148 116 105 
-0.596933 -0.829368 4.2973 255 173 176 
-0.89394 -1.44027 4.93742 193 145 122 
-2.90653 1.46067 4.58775 101 71 35 
-1.222 -1.43545 4.94279 120 30 40 
-0.546506 -0.833008 4.29809 127 36 35 
-0.525835 -0.834566 4.29698 180 154 141 
-0.686202 -0.833909 4.30963 156 128 107 
-0.671937 -0.837256 4.31247 229 201 180 
-0.581323 -0.839557 4.30789 225 158 152 
-0.622361 -0.840237 4.31865 247 196 177 
-0.63624 -0.839045 4.31162 243 210 191 
-0.667635 -0.841595 4.32567 77 50 33 
-0.642012 -0.84904 4.32321 82 53 37 
-0.537005 -0.857644 4.32164 133 96 80 
-1.10398 -1.40921 4.91155 96 51 46 
-0.682259 -0.860232 4.33556 71 45 22 
-0.555701 -0.863471 4.33838 181 100 97 
-1.19271 -1.40442 4.91696 122 0 25 
-0.54168 -0.873463 4.34715 179 115 105 
-0.555529 -0.876137 4.35808 173 89 89 
-0.553321 -0.898411 4.3724 184 113 109 
-0.51215 -0.915483 4.38616 122 115 99 
-0.904346 -0.897043 4.1399 238 234 233 
-0.941011 -1.01131 4.50585 243 135 96 
-1.25905 -1.35181 4.8432 84 41 48 
-0.69272 -1.35553 4.82578 169 151 137 
-0.568562 -1.31711 4.65625 218 186 163 
-0.188868 -1.13689 4.59639 169 160 145 
-0.189577 -1.13689 4.57568 178 169 152 
-0.693524 -1.34256 4.8081 77 48 32 
-1.24766 -1.3399 4.84868 115 0 34 
-1.04476 -1.17683 4.65972 174 113 131 
-1.2058 -1.18009 4.68253 201 94 122 
-0.876564 -1.21691 4.71679 102 60 38 
-1.20541 -1.21682 4.72311 95 49 51 
-1.21124 -1.22411 4.7287 186 171 140 
-1.2546 -1.28291 4.78497 80 12 13 
-1.18599 -1.28473 4.79059 161 110 109 
-2.24795 1.40977 4.61549 223 189 152 
-2.67323 1.54335 4.49794 151 113 77 
-0.820618 -1.27896 4.7778 109 64 43 
-0.875972 -1.51351 4.99001 98 67 47 
0.540282 0.0281632 3.34652 155 99 0 
0.53732 0.0243609 3.33445 167 106 0 
-1.99121 1.53186 4.49644 166 131 103 
-1.14891 -1.25505 4.76433 105 42 50 
-2.19749 0.993467 4.97259 104 64 39 
-1.01849 -1.48506 4.98612 110 88 41 
-0.871733 -1.52419 5.01215 201 181 157 
-2.17475 1.35124 4.64143 127 85 47 
-0.454367 -1.21685 4.56559 79 32 4 
-0.876633 -1.52051 4.98618 156 151 122 
-0.869354 -1.50682 4.98533 81 29 18 
-0.515096 -0.82095 4.29218 102 70 55 
-2.9886 1.4677 4.59663 146 108 71 
-1.25164 -1.20846 4.70387 77 9 0 
0.676256 -0.0692321 3.4243 179 105 10 
-0.29018 -1.57739 4.87683 100 62 59 
-2.97044 1.55721 4.50155 210 174 138 
-0.358971 0.150447 2.73983 116 74 76 
-0.933121 -1.20591 4.69435 109 70 55 
-3.23566 -1.31051 5.55077 81 76 73 
-1.23543 -1.19481 4.69827 168 97 105 
-1.22865 -1.18389 4.68912 158 69 71 
-1.99728 1.3902 4.61401 115 75 40 
-0.561165 -0.727818 4.19966 242 198 195 
-0.430722 -0.136039 3.03798 198 106 109 
-0.683307 -0.837735 4.3189 202 169 150 
-1.22253 -1.17637 4.67991 188 84 83 
-0.707734 -1.32754 4.81539 70 76 48 
0.160381 -0.284615 3.728 142 115 98 
-3.20929 -1.28181 5.50778 102 93 88 
0.320597 -0.286628 3.72133 152 124 110 
-0.563351 -0.844024 4.30627 253 196 187 
-1.25734 -1.41122 4.89822 102 43 35 
-0.551872 -0.849156 4.31154 125 41 41 
0.27165 -0.273326 3.70422 134 102 87 
-1.1674 -1.16263 4.69823 104 10 37 
0.320816 -0.273715 3.7108 166 131 111 
-1.02551 -1.52248 4.99012 161 162 130 
-2.70434 1.43932 4.59422 157 118 77 
-0.569365 -1.11362 4.48537 147 89 41 
-0.967435 -1.59565 5.08995 170 26 0 
-2.44626 1.43202 4.59411 194 164 130 
-0.593847 -0.882065 4.34892 182 137 131 
-0.646434 -0.882126 4.3568 139 111 100 
-0.687266 -1.3477 4.81867 43 27 12 
-3.28264 -1.58308 5.51953 60 58 61 
-0.590351 -0.888748 4.3558 199 150 145 
-0.296233 -1.53393 4.83532 99 41 39 
-1.21956 -1.56687 5.04415 218 109 138 
-0.67757 -1.53699 5.02127 65 6 0 
-0.284656 -1.35292 4.6518 66 21 15 
-1.0121 -1.57033 5.06447 160 106 72 
-0.486439 -0.905812 4.36481 26 21 17 
-1.0144 -1.56287 5.05188 70 35 0 
-0.996327 -1.05694 4.55287 168 0 10 
-0.32259 0.584579 2.91709 147 134 118 
-1.93474 1.16276 4.81036 195 168 138 
-2.44507 1.43063 4.60328 116 82 54 
-1.14623 -1.35527 4.84562 31 0 2 
-0.893755 -1.02391 4.51641 255 188 169 
0.261518 -0.190436 3.62874 162 130 115 
-1.15669 -1.54165 5.03166 248 230 216 
-2.81506 1.49324 4.55289 133 96 54 
-1.14574 -1.36497 4.86169 43 0 5 
-0.526377 -1.33711 4.66755 213 178 158 
0.262642 -0.197568 3.64223 149 114 95 
0.167842 -0.19979 3.65533 158 126 103 
-0.6541 -0.97013 4.28999 168 5 24 
-2.51491 1.46983 4.54605 133 89 52 
-2.20929 1.19246 4.7962 113 77 43 
-1.16555 -1.27987 4.77969 152 55 72 
-2.7998 1.55411 4.49364 224 196 159 
-0.898555 -1.024 4.50448 245 115 83 
-3.29035 -1.57928 5.53656 103 94 97 
-2.0448 1.17681 4.81919 191 157 119 
-1.94958 1.36611 4.61799 186 142 113 
-0.522476 -0.780187 4.24806 170 162 151 
-2.37064 1.52988 4.49516 148 112 78 
-0.374108 -0.704335 4.14118 74 63 57 
-3.01525 1.43839 4.60649 143 104 63 
-2.76609 0.844274 5.12666 134 100 63 
-1.14173 -1.34342 4.82519 98 56 66 
-0.595285 -0.68259 3.91732 175 173 178 
-1.92661 1.42385 4.58832 142 104 57 
-2.73173 1.4979 4.52383 165 127 78 
-0.605782 -0.632595 3.87971 172 174 169 
-2.53693 1.28868 4.7279 101 64 38 
-2.7895 1.46182 4.56715 234 197 155 
-2.25945 1.42739 4.58049 215 182 147 
-0.668792 -0.693369 3.91194 162 162 164 
0.0774407 -0.317222 3.77054 125 106 91 
-2.38149 1.03673 4.94173 236 202 167 
-3.07636 0.834647 5.15229 123 88 58 
-3.12759 0.0978859 5.8006 170 142 121 
-0.597169 -1.16236 4.50805 134 58 26 
0.312186 -0.123311 3.38382 225 152 58 
-1.82105 1.42569 4.56359 103 68 38 
-0.563642 -0.261727 3.13993 110 98 86 
-0.99925 -1.04492 4.53373 197 77 76 
-0.911241 -0.875089 4.09815 170 165 169 
0.737648 -0.000174074 3.33852 182 85 0 
-2.24202 1.27991 4.72006 112 82 58 
-0.676292 -0.640207 3.86344 237 237 237 
-2.47405 1.48467 4.53365 212 174 137 
-2.90944 0.720916 5.22076 221 180 148 
-0.839496 -1.41058 4.90023 136 60 36 
-0.820819 -0.827667 4.06892 68 66 69 
-0.646826 -0.972872 4.29624 226 87 120 
-0.653506 -0.848661 4.32226 69 43 30 
-0.546809 -0.841233 4.30731 255 178 174 
-0.472715 -0.832927 4.3026 67 65 52 
-0.511423 0.544037 5.34002 128 32 34 
2.16026 0.450397 3.78066 246 244 245 
-0.502667 0.533784 5.31958 148 66 68 
-0.577953 -0.805899 4.27252 83 48 44 
-0.955301 -1.23346 4.73934 202 144 98 
-1.19201 -1.26645 4.76924 170 150 126 
-1.24593 -1.27053 4.77456 107 19 31 
-1.08197 -1.54134 5.00071 100 100 98 
-1.10269 -1.55764 5.01443 142 137 133 
-2.20001 0.995069 4.97981 104 64 39 
-0.571881 -1.59675 5.06653 97 90 74 
-1.36763 -1.53505 4.87424 212 93 131 
-0.61228 -1.57089 5.05328 83 46 28 
-1.0257 -1.56612 5.06567 174 116 70 
-0.602253 -1.55277 5.02429 46 27 23 
-1.25008 -1.54452 5.04547 245 168 148 
-1.37459 -1.55796 4.91614 141 61 96 
-0.579265 0.59452 5.50419 232 146 147 
-0.327851 -0.222349 1.86717 93 45 43 
-1.31086 -1.61202 5.07811 123 47 77 
-1.07605 -1.5196 5.00333 188 151 125 
-1.17587 -1.51707 5.01571 57 19 10 
-0.570182 -0.829344 4.29624 247 171 171 
-3.31736 -1.51066 5.28716 64 59 63 
0.730636 -0.168575 3.39727 170 116 18 
-1.32159 -1.4329 4.8682 164 73 104 
-0.479959 -0.799716 4.26861 166 135 115 
-0.583039 -0.831252 4.29937 204 120 118 
-1.97232 1.47237 4.52799 97 55 30 
-1.24716 -1.41159 4.91375 74 18 27 
-0.441859 -0.782236 4.2232 196 172 168 
-0.294902 -1.59815 4.89264 63 40 34 
-0.764715 -0.753517 3.98533 180 238 255 
-1.08162 -1.38332 4.87834 186 131 128 
-0.817211 -0.811738 4.0447 142 140 141 
-2.79937 1.4726 4.53595 207 172 132 
0.205908 -0.270117 3.70939 102 50 28 
-3.28412 -1.41075 5.33557 72 66 76 
-0.99547 -1.06216 4.56141 251 88 117 
0.157307 -0.295453 3.74761 93 56 38 
-1.24592 -1.32983 4.83505 187 85 122 
-0.571258 -0.748287 4.21265 249 172 164 
0.175307 -0.338008 3.79 163 125 104 
-1.1845 -1.2842 4.78146 157 102 105 
0.385297 -0.680727 4.02149 102 84 74 
-1.22449 -1.56898 5.07199 225 139 140 
-0.833839 -1.26886 4.76685 66 33 14 
-0.771821 -1.26006 4.74671 96 60 38 
-1.82709 1.43259 4.58064 111 81 47 
-1.211 -1.24869 4.75716 89 62 35 
-0.569081 -0.770337 4.24503 255 191 175 
-0.561163 -0.7765 4.25415 186 81 78 
-2.66914 1.53404 4.49899 251 223 184 
-0.208488 -1.2424 4.6683 107 92 73 
-0.573866 -0.78521 4.25942 227 174 160 
-0.949656 -1.23982 4.73098 38 37 7 
-0.460338 -0.798697 4.25716 223 196 179 
-0.492952 -0.79852 4.25702 175 148 131 
-2.26264 1.43123 4.58754 201 168 135 
-2.00583 1.38276 4.61514 227 188 145 
-0.875646 -1.21762 4.70644 82 44 21 
-0.402591 -1.21773 4.67161 63 15 1 
-0.59761 -0.819447 4.28824 157 95 96 
-3.23192 -1.31757 5.542 33 29 30 
-2.67737 1.54683 4.50603 151 113 77 
-0.657496 -0.830972 4.30679 120 87 68 
-0.478127 -0.84129 4.29928 244 230 219 
-3.24506 -1.32603 5.67597 72 66 68 
-0.381362 -1.18613 4.62808 76 27 13 
-0.496828 -0.84528 4.30303 100 68 57 
-0.675907 -0.850569 4.32696 33 13 2 
-0.634637 -0.853315 4.33041 171 145 130 
-2.36237 1.5442 4.49629 235 195 159 
-0.595042 -0.857003 4.32749 84 47 31 
-1.08932 -1.52485 5.00027 167 148 134 
-0.652612 -0.862563 4.33801 69 40 22 
-0.679086 -0.862287 4.30523 163 135 111 
-0.603781 -0.868663 4.33864 180 114 102 
-0.629919 -0.878488 4.34949 163 141 120 
-0.601661 -0.891212 4.34968 125 81 72 
-0.324761 0.144641 2.75799 210 108 121 
-0.613058 -0.91002 4.39003 165 114 95 
-0.470946 -0.919138 4.37725 27 10 3 
-3.24403 -1.34362 5.64547 48 42 42 
0.3213 -1.05892 3.86021 192 179 170 
-0.776901 -0.948752 4.27189 203 65 65 
-0.632686 0.652229 5.66287 112 66 68 
-2.22444 1.38486 4.62654 109 80 48 
-2.97878 1.56342 4.51647 210 174 138 
-0.911701 -1.06227 4.55469 223 88 121 
-0.674419 -0.876614 4.35502 79 51 39 
-2.17006 1.35463 4.63339 123 84 41 
-0.389934 0.173082 2.7415 153 77 79 
-0.435883 -0.126551 3.04159 221 125 127 
-1.00349 -1.48239 4.9737 167 132 100 
-2.16478 0.00702416 5.87132 215 182 147 
-3.26195 -1.55338 5.48913 94 84 85 
0.214578 -0.530168 3.94392 239 226 210 
-0.941965 -1.28268 4.7888 2 29 14 
-2.46887 1.13091 4.87259 144 111 76 
-3.13368 0.100567 5.81404 175 147 126 
-0.475059 -0.798826 4.26111 208 176 161 
-2.43835 1.42306 4.57746 205 175 141 
-2.31667 1.10348 4.91314 112 83 49 
-2.30529 1.09063 4.88283 124 90 55 
-1.16201 -1.16284 4.67257 135 36 67 
-1.80785 1.41262 4.58627 178 144 106 
0.454646 -0.387531 3.81318 170 140 116 
-3.05894 0.507252 5.44506 179 149 121 
-2.14573 -0.0114927 5.84004 216 183 148 
-3.23941 -1.37237 5.46347 119 116 123 
-2.5055 1.37597 4.63505 136 97 66 
-2.01024 0.765098 5.17027 129 95 67 
-2.69945 1.3865 4.62067 186 145 99 
-1.81219 1.35157 4.62881 132 91 69 
-2.47714 1.07362 4.91397 191 159 121 
0.156879 -0.195896 3.64732 184 143 115 
0.256278 -0.236833 3.67309 87 51 29 
-0.555494 0.573546 5.43931 218 139 135 
0.58757 -0.323668 3.41175 144 112 61 
-0.600063 0.61259 5.57136 237 161 161 
0.380215 -0.357144 3.7777 96 54 29 
0.379198 -0.674243 4.02862 183 121 122 
-1.85287 1.3636 4.62094 217 178 139 
-0.607864 -1.56372 5.04653 131 105 88 
-0.631598 -0.823517 4.31075 150 108 92 
-0.510205 -0.829633 4.29381 100 72 58 
-0.593138 -0.843408 4.31328 109 36 29 
-0.571645 -0.854239 4.33327 81 44 35 
-1.37073 -1.48806 4.83282 166 77 109 
-0.625443 -0.860361 4.33598 99 60 45 
-0.0752398 -0.850919 4.122 142 134 115 
-1.09819 -1.51746 4.98509 245 232 216 
-0.914191 -1.51729 4.97357 111 110 80 
-0.825142 -0.856439 4.08983 158 154 155 
-0.668267 -0.905236 4.38027 152 129 113 
-1.06156 -1.51174 5.00017 118 43 12 
-0.676365 -1.50547 4.98137 50 0 0 
-0.932825 -1.17821 4.67025 157 82 25 
-1.23398 -1.23106 4.7231 84 33 30 
-0.811258 -1.24233 4.73177 79 37 15 
-1.15987 -1.26074 4.76916 143 115 101 
-1.16605 -1.26879 4.77609 50 33 23 
-1.24948 -1.30353 4.80681 77 0 20 
-0.514091 -1.33434 4.66537 229 196 161 
-1.25686 -1.36105 4.85499 191 168 152 
-1.10424 -1.40795 4.89203 48 13 11 
-3.26846 -1.42359 5.39211 87 81 85 
-0.626567 -0.871005 4.33786 78 45 26 
-0.0905926 -0.848878 4.12585 27 20 14 
-0.509022 -0.860842 4.32851 86 71 66 
-2.5426 1.29318 4.74031 101 64 38 
-1.97688 1.51227 4.49627 110 80 52 
-1.08042 -1.38296 4.87035 153 104 100 
-0.511025 -0.132645 3.04728 137 46 45 
-0.284942 -1.38634 4.68402 64 26 25 
-0.40972 0.0453885 2.81523 202 193 184 
-0.645104 -0.655698 3.875 133 134 139 
-0.464474 0.180267 2.74044 150 39 45 
-1.13291 -1.30699 4.81911 176 90 119 
-0.633517 0.655077 5.67102 116 74 76 
-1.37266 -1.57258 4.91821 197 92 125 
-1.06427 -1.43028 4.91894 149 82 37 
