ply                 
format ascii 1.0    
element vertex 1257
property float x    
property float y    
property float z    
property uchar red  
property uchar green
property uchar blue 
end_header          
-0.554331 -0.877997 4.35321 173 89 89 
-0.552106 -0.900432 4.36779 184 113 109 
-0.510644 -0.917612 4.38178 122 115 99 
-0.904771 -0.898959 4.1309 238 234 233 
-0.942865 -1.0145 4.50391 243 135 96 
-1.2645 -1.35862 4.84834 84 41 48 
-0.693008 -1.36203 4.83027 169 151 137 
-0.567477 -1.32265 4.65678 218 186 163 
-0.184815 -1.1408 4.59599 169 160 145 
-0.185535 -1.14074 4.57481 178 169 152 
-0.693794 -1.34889 4.8122 77 48 32 
-1.25306 -1.34662 4.85398 115 0 34 
-1.04779 -1.18161 4.66087 174 113 131 
-1.21026 -1.18503 4.68425 201 94 122 
-0.878341 -1.22207 4.71911 102 60 38 
-1.21001 -1.22215 4.7257 95 49 51 
-1.21591 -1.22951 4.7314 186 171 140 
-1.25984 -1.28896 4.78888 80 12 13 
-1.19064 -1.29079 4.7946 161 110 109 
-2.26725 1.42954 4.61925 223 189 152 
-2.69538 1.56268 4.49846 151 113 77 
-0.822018 -1.28475 4.78139 109 64 43 
-0.878217 -1.52204 4.99822 98 67 47 
0.545183 0.0299393 3.32654 155 99 0 
0.542159 0.0260746 3.31433 167 106 0 
-2.00698 1.55184 4.49721 166 131 103 
-1.15316 -1.26078 4.76777 105 42 50 
-2.21934 1.01192 4.98624 104 64 39 
-1.02214 -1.49341 4.99438 110 88 41 
-0.873995 -1.53291 5.0209 201 181 157 
-2.19348 1.37071 4.64591 127 85 47 
-0.452348 -1.22136 4.56433 79 32 4 
-0.878859 -1.52908 4.99426 156 151 122 
-0.87153 -1.51527 4.99344 81 29 18 
-0.513571 -0.822372 4.28608 102 70 55 
-3.01501 1.48709 4.59966 146 108 71 
-1.25655 -1.2137 4.70604 77 9 0 
0.681948 -0.067379 3.40525 179 105 10 
-0.286664 -1.58563 4.88173 100 62 59 
-2.99542 1.57642 4.50213 210 174 138 
-0.356143 0.148995 2.71477 116 74 76 
-0.935314 -1.21095 4.69619 109 70 55 
-3.27033 -1.3204 5.57723 81 76 73 
-1.24021 -1.19992 4.70034 168 97 105 
-1.23334 -1.18889 4.691 158 69 71 
-2.01402 1.41001 4.61785 115 75 40 
-0.559894 -0.728639 4.19194 242 198 195 
-0.427918 -0.136361 3.0151 198 106 109 
-0.682961 -0.839373 4.31334 202 169 150 
-1.22713 -1.18129 4.68158 188 84 83 
-0.708169 -1.33379 4.81972 70 76 48 
0.165162 -0.283118 3.71282 142 115 98 
-3.24306 -1.29121 5.53294 102 93 88 
0.326091 -0.28505 3.70608 152 124 110 
-0.562152 -0.845629 4.30042 253 196 187 
-1.26296 -1.41871 4.90456 102 43 35 
-0.550598 -0.850792 4.30578 125 41 41 
0.276869 -0.271759 3.68871 134 102 87 
-1.17166 -1.16746 4.70035 104 10 37 
0.326276 -0.272102 3.6954 166 131 111 
-1.02918 -1.53116 4.99836 161 162 130 
-2.72789 1.45865 4.59723 157 118 77 
-0.568219 -1.11728 4.48265 147 89 41 
-0.970812 -1.60539 5.10056 170 26 0 
-2.46729 1.45155 4.59719 194 164 130 
-0.592894 -0.883973 4.34386 182 137 131 
-0.645865 -0.88407 4.35191 139 111 100 
-0.687498 -1.35411 4.82301 43 27 12 
-3.31623 -1.59597 5.54417 60 58 61 
-0.589379 -0.890706 4.35087 199 150 145 
-0.292796 -1.54165 4.83934 99 41 39 
-1.22529 -1.57627 5.05374 218 109 138 
-0.677942 -1.54577 5.03015 65 6 0 
-0.28122 -1.35857 4.65205 66 21 15 
-1.01586 -1.57975 5.0745 160 106 72 
-0.48473 -0.907838 4.36002 26 21 17 
-1.01815 -1.57217 5.0616 70 35 0 
-0.99872 -1.06057 4.55187 168 0 10 
-0.320221 0.584276 2.89244 147 134 118 
-1.9523 1.18207 4.81955 195 168 138 
-2.46621 1.45027 4.60663 116 82 54 
-1.15067 -1.36205 4.85076 31 0 2 
-0.895268 -1.02718 4.51465 255 188 169 
0.266464 -0.188705 3.61221 162 130 115 
-1.16178 -1.55074 5.04098 248 230 216 
-2.83921 1.51255 4.55481 133 96 54 
-1.15024 -1.37189 4.8672 43 0 5 
-0.524943 -1.34282 4.66827 213 178 158 
0.267632 -0.19583 3.62588 149 114 95 
0.172466 -0.19809 3.63916 158 126 103 
-0.653325 -0.972537 4.2836 168 5 24 
-2.53606 1.48912 4.54785 133 89 52 
-2.22977 1.2117 4.80488 113 77 43 
-1.16998 -1.28585 4.78344 152 55 72 
-2.82306 1.57336 4.49401 224 196 159 
-0.900061 -1.02725 4.50246 245 115 83 
-3.32433 -1.59221 5.56174 103 94 97 
-2.06369 1.19627 4.82858 191 157 119 
-1.96584 1.38574 4.62196 186 142 113 
-0.520977 -0.781327 4.24117 170 162 151 
-2.38993 1.54936 4.49572 148 112 78 
-0.371619 -0.704904 4.13238 74 63 57 
-3.04201 1.45755 4.6098 143 104 63 
-2.79631 0.86157 5.14465 134 100 63 
-1.14606 -1.35003 4.82986 98 56 66 
-0.593729 -0.683149 3.90472 175 173 178 
-1.94247 1.44383 4.59154 142 104 57 
-2.75467 1.51698 4.52499 165 127 78 
-0.604257 -0.632938 3.86657 172 174 169 
-2.56028 1.30799 4.73456 101 64 38 
-2.81353 1.48098 4.56943 234 197 155 
-2.27849 1.44692 4.58331 215 182 147 
-0.667567 -0.694017 3.89926 162 162 164 
0.0819352 -0.315839 3.75597 125 106 91 
-2.40522 1.05528 4.95442 236 202 167 
-3.11077 0.851759 5.17101 123 88 58 
-3.1705 0.107976 5.8401 170 142 121 
-0.596216 -1.16641 4.50571 134 58 26 
0.316572 -0.122029 3.3642 225 152 58 
-1.83563 1.44553 4.56623 103 68 38 
-0.560969 -0.261963 3.11798 110 98 86 
-1.00161 -1.04843 4.53234 197 77 76 
-0.911586 -0.876847 4.08844 170 165 169 
0.743094 0.00163542 3.3185 182 85 0 
-2.26217 1.29935 4.72661 112 82 58 
-0.67505 -0.640626 3.85005 237 237 237 
-2.49469 1.50402 4.53515 212 174 137 
-2.94244 0.737133 5.24151 221 180 148 
-0.841258 -1.41787 4.90646 136 60 36 
-0.820633 -0.829109 4.05873 68 66 69 
-0.646013 -0.975301 4.28996 226 87 120 
-0.65295 -0.850357 4.31674 69 43 30 
-0.545503 -0.842812 4.30148 255 178 174 
-0.470904 -0.83441 4.29668 67 65 52 
-0.512968 0.560778 5.36603 128 32 34 
2.17791 0.458206 3.76842 246 244 245 
-0.504045 0.55023 5.34486 148 66 68 
-0.576835 -0.807244 4.26608 83 48 44 
-0.95781 -1.23884 4.74217 202 144 98 
-1.19665 -1.2723 4.77279 170 150 126 
-1.25105 -1.27645 4.77825 107 19 31 
-1.08619 -1.55025 5.00918 100 100 98 
-1.10714 -1.56676 5.02322 142 137 133 
-2.22198 1.01362 4.99369 104 64 39 
-0.571223 -1.6062 5.07636 97 90 74 
-1.37384 -1.54346 4.87967 212 93 131 
-0.612033 -1.58008 5.06287 83 46 28 
-1.02962 -1.57552 5.07576 174 116 70 
-0.601871 -1.56166 5.03318 46 27 23 
-1.25616 -1.55375 5.05519 245 168 148 
-1.38107 -1.56674 4.92254 141 61 96 
-0.582162 0.613193 5.53614 232 146 147 
-0.324293 -0.225663 1.8433 93 45 43 
-1.31758 -1.622 5.0885 123 47 77 
-1.08027 -1.52834 5.01195 188 151 125 
-1.18112 -1.52589 5.02471 57 19 10 
-0.569028 -0.83085 4.29022 247 171 171 
-3.34792 -1.52174 5.30515 64 59 63 
0.736334 -0.167094 3.37787 170 116 18 
-1.32758 -1.44047 4.87376 164 73 104 
-0.478187 -0.800968 4.26208 166 135 115 
-0.581976 -0.83278 4.29341 204 120 118 
-1.98812 1.49211 4.5296 97 55 30 
-1.25277 -1.41914 4.92048 74 18 27 
-0.439799 -0.783333 4.21582 196 172 168 
-0.291416 -1.60663 4.89786 63 40 34 
-0.764081 -0.754514 3.97381 180 238 255 
-1.08558 -1.39042 4.88419 186 131 128 
-0.816951 -0.81308 4.03412 142 140 141 
-2.82307 1.49149 4.53744 207 172 132 
0.210846 -0.268566 3.69395 102 50 28 
-3.31549 -1.421 5.35519 72 66 76 
-0.997883 -1.06584 4.56058 251 88 117 
0.162121 -0.293965 3.73271 93 56 38 
-1.25125 -1.33642 4.84005 187 85 122 
-0.570051 -0.749241 4.20514 249 172 164 
0.180315 -0.336622 3.77572 163 125 104 
-1.1891 -1.29022 4.78525 157 102 105 
0.392135 -0.68074 4.01057 102 84 74 
-1.23041 -1.57853 5.08233 225 139 140 
-0.835334 -1.27455 4.77021 66 33 14 
-0.772728 -1.26559 4.74959 96 60 38 
-1.8419 1.4527 4.58371 111 81 47 
-1.21577 -1.25438 4.76048 89 62 35 
-0.567894 -0.77144 4.23811 255 191 175 
-0.559933 -0.777641 4.2474 186 81 78 
-2.69123 1.55327 4.49952 251 223 184 
-0.204507 -1.24728 4.66925 107 92 73 
-0.57272 -0.786415 4.25275 227 174 160 
-0.952073 -1.24523 4.73359 38 37 7 
-0.458422 -0.799925 4.25041 223 196 179 
-0.491252 -0.799764 4.25027 175 148 131 
-2.2818 1.45088 4.59055 201 168 135 
-2.02266 1.40249 4.61901 227 188 145 
-0.877379 -1.22275 4.70852 82 44 21 
-0.400261 -1.22253 4.67275 63 15 1 
-0.596638 -0.820899 4.28208 157 95 96 
-3.26637 -1.32751 5.56816 33 29 30 
-2.69967 1.56629 4.50675 151 113 77 
-0.656954 -0.832543 4.301 120 87 68 
-0.476341 -0.842827 4.29328 244 230 219 
-3.2818 -1.33655 5.70647 72 66 68 
-0.37885 -1.19057 4.6283 76 27 13 
-0.49517 -0.846855 4.2971 100 68 57 
-0.675514 -0.852294 4.32154 33 13 2 
-0.633964 -0.855039 4.32504 171 145 130 
-2.38163 1.56387 4.49686 235 195 159 
-0.594085 -0.858728 4.32205 84 47 31 
-1.09365 -1.53363 5.0088 167 148 134 
-0.652068 -0.864363 4.33278 69 40 22 
-0.678648 -0.864067 4.29935 163 135 111 
-0.602893 -0.870478 4.3334 180 114 102 
-0.629223 -0.880392 4.34445 163 141 120 
-0.600753 -0.893184 4.34462 125 81 72 
-0.321971 0.143306 2.73301 210 108 121 
-0.612289 -0.91217 4.38577 165 114 95 
-0.469129 -0.921259 4.37268 27 10 3 
-3.28019 -1.35424 5.6749 48 42 42 
0.327289 -1.06047 3.84603 192 179 170 
-0.776906 -0.951067 4.26522 203 65 65 
-0.636832 0.673036 5.70091 112 66 68 
-2.24358 1.4045 4.63061 109 80 48 
-3.00408 1.58288 4.51742 210 174 138 
-0.913431 -1.0659 4.55369 223 88 121 
-0.67405 -0.878534 4.35011 79 51 39 
-2.18866 1.37405 4.63767 123 84 41 
-0.387096 0.171599 2.71641 153 77 79 
-0.433094 -0.126858 3.01874 221 125 127 
-1.00695 -1.49066 4.98164 167 132 100 
-2.19334 0.0165789 5.91351 215 182 147 
-3.29492 -1.56579 5.51291 94 84 85 
0.220207 -0.529512 3.93189 239 226 210 
-0.944466 -1.28859 4.79268 2 29 14 
-2.49296 1.14989 4.88329 144 111 76 
-3.17691 0.110756 5.85405 175 147 126 
-0.473246 -0.800065 4.25444 208 176 161 
-2.45907 1.44229 4.58011 205 175 141 
-2.33949 1.12269 4.92511 112 83 49 
-2.32758 1.10937 4.89387 124 90 55 
-1.16609 -1.1676 4.67409 135 36 67 
-1.82249 1.43259 4.5895 178 144 106 
0.461109 -0.386168 3.79924 170 140 116 
-3.09667 0.52186 5.47282 179 149 121 
-2.1736 -0.00235031 5.88099 216 183 148 
-3.27246 -1.38266 5.48699 119 116 123 
-2.52751 1.39528 4.6392 136 97 66 
-2.03134 0.782345 5.18983 129 95 67 
-2.72318 1.40554 4.62436 186 145 99 
-1.82714 1.37132 4.63316 132 91 69 
-2.50172 1.09229 4.92586 191 159 121 
0.161438 -0.194209 3.63103 184 143 115 
0.261335 -0.235189 3.65716 87 51 29 
-0.557885 0.591424 5.46887 218 139 135 
0.592867 -0.322707 3.39242 144 112 61 
-0.603441 0.632047 5.60583 237 161 161 
0.386182 -0.355742 3.76324 96 54 29 
0.386024 -0.674225 4.01782 183 121 122 
-1.86818 1.38335 4.62505 217 178 139 
-0.607568 -1.57281 5.05596 131 105 88 
-0.630898 -0.82503 4.30505 150 108 92 
-0.508641 -0.831108 4.28773 100 72 58 
-0.592156 -0.84503 4.30757 109 36 29 
-0.57054 -0.855939 4.32794 81 44 35 
-1.37683 -1.49593 4.83737 166 77 109 
-0.62471 -0.862131 4.33071 99 60 45 
-0.0708424 -0.852141 4.11257 142 134 115 
-1.10255 -1.52611 4.99325 245 232 216 
-0.916738 -1.52579 4.98135 111 110 80 
-0.825007 -0.858049 4.07998 158 154 155 
-0.667878 -0.90737 4.37582 152 129 113 
-1.06564 -1.52039 5.00873 118 43 12 
-0.676673 -1.51381 4.98932 50 0 0 
-0.93497 -1.18297 4.67159 157 82 25 
-1.2388 -1.23652 4.72566 84 33 30 
-0.812487 -1.24769 4.73435 79 37 15 
-1.16423 -1.26652 4.77271 143 115 101 
-1.17048 -1.27467 4.77978 50 33 23 
-1.25475 -1.30981 4.81118 77 0 20 
-0.512556 -1.34002 4.66605 229 196 161 
-1.26233 -1.36797 4.8604 191 168 152 
-1.10842 -1.41531 4.89816 48 13 11 
-3.30051 -1.43419 5.41336 87 81 85 
-0.625832 -0.872846 4.33261 78 45 26 
-0.0862846 -0.850101 4.11649 27 20 14 
-0.507468 -0.862547 4.32307 86 71 66 
-2.56618 1.31268 4.74731 101 64 38 
-1.99248 1.53205 4.49706 110 80 52 
-1.08433 -1.39003 4.876 153 104 100 
-0.508279 -0.132987 3.02449 137 46 45 
-0.281489 -1.39234 4.68491 64 26 25 
-0.406835 0.0443 2.79071 202 193 184 
-0.643727 -0.656165 3.86177 133 134 139 
-0.461567 0.178719 2.71535 150 39 45 
-1.1372 -1.3133 4.82373 176 90 119 
-0.637699 0.675998 5.70938 116 74 76 
-1.37911 -1.58148 4.92462 197 92 125 
-1.06816 -1.43791 4.92567 149 82 37 
-3.27451 -1.35318 5.66125 48 42 42 
0.355078 -1.02915 3.80985 117 108 101 
-0.544446 -0.793554 4.25108 227 205 191 
-0.807809 -1.28597 4.76724 78 48 24 
-1.23184 -1.25641 4.75923 186 152 127 
-1.83711 1.47725 4.54413 126 91 61 
-1.00231 -1.24448 4.7275 27 13 0 
-0.387188 -1.23662 4.69281 37 0 0 
-0.651913 -0.884898 4.36758 146 119 110 
0.196265 -0.283783 3.71023 90 56 44 
-3.26886 -1.34031 5.5976 41 36 42 
-3.29496 -1.35426 5.70054 67 61 61 
-1.11344 -1.39749 4.86724 81 10 28 
0.448332 -0.383281 3.78548 111 83 59 
-1.17674 -1.165 4.66365 201 76 80 
-3.35241 -1.62895 5.43781 81 76 83 
-1.02447 -1.54111 5.01269 245 242 225 
-2.69568 1.55594 4.50792 248 220 181 
-2.7934 0.757314 5.23457 145 116 84 
-0.516136 -1.33068 4.66397 219 183 157 
-2.76229 1.52533 4.5387 152 113 70 
-3.06733 1.55807 4.52407 128 90 53 
-0.965917 -1.35197 4.78258 218 179 180 
-2.53215 1.48467 4.53741 137 93 56 
-1.9752 1.23075 4.78671 153 119 84 
-2.78474 0.818871 5.19672 218 186 145 
-1.14653 -1.34119 4.84763 156 96 108 
-2.18326 0.00545936 5.92673 217 179 143 
-2.10096 1.53469 4.49552 145 106 73 
-2.5191 1.31038 4.74799 202 167 135 
-1.72362 0.603683 5.30159 103 74 44 
-2.67068 1.31486 4.72913 218 182 148 
-3.28057 -1.24404 5.65941 76 63 57 
-2.76345 0.920922 5.12168 220 181 138 
-0.938808 -1.01156 4.48824 245 139 97 
-0.488901 -0.128792 3.01324 226 162 163 
-0.418461 0.025746 2.80009 56 46 44 
-0.405095 -0.748484 4.09725 170 169 167 
0.438225 -0.37774 3.77699 174 151 145 
0.428907 -0.368377 3.7759 64 50 41 
-0.506952 -0.691625 4.14708 123 88 58 
-0.551195 -0.800739 4.28489 96 76 67 
-0.526645 -0.809613 4.26815 216 186 175 
-0.562313 -0.811175 4.2627 101 67 58 
-0.548601 -0.818565 4.2839 116 54 43 
-0.470125 -0.819978 4.26405 239 212 201 
-0.538085 -0.825381 4.27546 204 165 148 
-0.0253861 -0.27474 3.7186 192 174 162 
-0.65311 -0.833459 4.29242 122 89 72 
-0.637442 -0.838597 4.29084 240 205 186 
-0.524639 -0.845596 4.29699 230 208 187 
-0.665983 -0.847685 4.30902 44 22 11 
-1.38203 -1.54761 4.90341 210 90 128 
-0.632047 -0.881315 4.35443 162 140 119 
-0.601421 -0.892991 4.36275 164 121 114 
-0.653006 -0.909638 4.37761 137 106 88 
-0.625135 -1.58149 5.06294 141 82 66 
-1.09615 -1.56009 5.0185 222 221 219 
-1.99401 1.49724 4.54178 101 59 34 
-0.61776 0.653579 5.64145 118 61 67 
-0.601722 0.648835 5.61507 151 81 91 
-0.639106 0.666086 5.69316 126 54 58 
-0.930445 -1.52501 5.00959 162 150 134 
-1.33005 -1.50243 4.94072 183 82 112 
-1.0686 -1.52276 5.02074 118 43 12 
-1.16101 -1.14643 4.63891 206 113 134 
-0.344445 0.154166 2.71796 118 62 61 
-0.447591 0.160633 2.70935 232 153 149 
-0.354007 0.162933 2.7271 122 47 51 
-0.935261 -1.20995 4.70943 157 114 97 
-3.26847 -1.34245 5.55876 32 32 32 
-1.26817 -1.22912 4.73252 200 105 125 
-0.95664 -1.23578 4.73352 214 144 92 
-0.95653 -1.24914 4.76336 41 31 4 
-1.23519 -1.23632 4.70866 71 18 24 
-1.24682 -1.25858 4.77337 97 20 28 
-0.943776 -1.29071 4.77581 0 4 0 
-1.25703 -1.28748 4.78009 81 20 17 
-3.26349 -1.38615 5.44581 149 145 146 
-1.25061 -1.32025 4.81954 221 99 140 
-0.528032 -1.33464 4.65857 214 179 159 
-1.25585 -1.37713 4.88145 98 39 43 
-1.14797 -1.03704 4.47878 107 105 93 
-0.967625 -1.35247 4.795 199 161 160 
-1.0116 -1.04125 4.53572 99 5 0 
-3.30437 -1.41827 5.33348 100 93 101 
-1.02168 -1.53937 4.99919 238 236 221 
-1.16513 -1.33746 4.83146 119 20 49 
-1.17726 -1.14309 4.65272 119 2 0 
-2.75319 1.33776 4.71673 109 76 43 
-1.1752 -1.15911 4.65178 209 76 77 
-1.20262 -1.57395 5.07383 157 42 75 
-1.11123 -1.2973 4.79242 155 77 99 
-0.792988 -1.30091 4.79131 122 118 91 
-0.508485 -0.915233 4.36811 136 128 115 
-3.30309 -1.45332 5.3711 156 153 160 
-1.36729 -1.36576 4.70134 168 65 69 
0.378719 -1.0664 3.84352 123 119 107 
0.174866 -0.301417 3.74529 178 129 99 
0.181734 -0.259507 3.69338 178 143 115 
-0.696602 -1.41868 4.89763 90 102 92 
-2.25445 1.29008 4.70044 111 81 55 
-2.18487 0.0161375 5.89756 219 189 155 
-0.392489 -1.20309 4.64418 58 9 0 
-1.25011 -1.21295 4.71674 174 127 111 
-0.597068 -0.804275 4.27497 141 80 77 
0.672758 -0.0588773 3.39317 245 204 140 
-2.80255 0.864422 5.1519 126 92 55 
-2.01034 1.4068 4.61076 114 74 39 
-0.206675 -1.24969 4.68144 110 94 78 
-2.92489 1.4892 4.59368 201 171 135 
-2.17051 1.35576 4.67947 113 76 34 
-0.387425 -1.25745 4.70441 84 47 41 
-1.02129 -1.04441 4.541 202 79 71 
-2.4919 1.10061 4.92332 118 87 58 
0.0897731 -0.296237 3.73539 130 85 62 
-0.831508 -1.27833 4.77807 59 27 6 
-2.8784 0.702583 5.26301 116 78 39 
-2.78855 0.754179 5.21898 145 115 81 
-2.19336 0.287961 5.63438 102 71 42 
-3.36616 -1.19998 5.24621 45 41 58 
-0.299584 0.0514667 2.81426 213 122 121 
-0.965721 -1.34269 4.8171 145 111 109 
-3.13559 1.32399 4.72013 189 160 126 
0.268736 -0.325467 3.74227 101 63 40 
-0.624443 -1.56437 5.05226 17 0 0 
-1.93023 1.27467 4.72596 121 88 53 
-1.00102 -1.27334 4.71449 217 185 170 
0.406293 -0.354275 3.76267 96 54 30 
-3.1059 0.52642 5.48611 178 149 119 
-3.10357 0.714234 5.26323 192 164 127 
-1.00573 -1.05053 4.54507 178 68 67 
-0.543211 -0.844192 4.30992 255 189 181 
-0.57511 -0.857068 4.31847 87 45 31 
-0.582854 -0.899004 4.36299 74 10 11 
-0.473148 -0.83008 4.28488 76 64 50 
-0.565598 -0.81954 4.2819 248 211 202 
-0.458425 -0.813138 4.26461 122 107 100 
-0.539377 -0.809464 4.26893 244 211 194 
-1.98788 1.44794 4.59281 84 56 32 
-1.15651 -1.02383 4.48614 136 133 126 
-1.22893 -1.57728 5.07279 222 133 137 
-0.662226 0.718747 5.80636 147 49 62 
-0.890955 -1.53657 4.99624 246 240 224 
-0.40438 -0.749765 4.08389 194 193 191 
-3.30872 -1.59665 5.5296 57 57 67 
0.315125 -1.04587 3.82961 211 206 200 
-1.02904 -1.49919 4.97589 212 155 100 
-0.99394 -1.50607 5.00467 184 142 120 
-3.2597 -1.28804 5.56232 43 38 44 
0.31542 -1.06774 3.86268 89 84 78 
-0.678128 -0.707216 3.91339 61 59 64 
-1.82509 1.27621 4.7337 99 73 40 
-0.94508 -1.20574 4.70932 88 25 0 
0.418215 -0.361304 3.77551 176 131 92 
-0.449059 -0.2418 3.07843 253 242 222 
-1.27683 -1.43527 4.93247 215 142 125 
-0.421672 -1.40967 4.78525 191 191 179 
-1.15322 -1.25837 4.75923 94 46 46 
-1.19528 -1.27067 4.75486 197 171 146 
-1.15515 -0.670612 4.08623 33 28 24 
-3.30706 -1.462 5.38924 67 65 68 
-3.27164 -1.39939 5.47289 66 57 58 
-1.13752 -1.36974 4.85099 169 72 105 
-2.33569 1.11617 4.90746 111 81 47 
-1.97114 1.39877 4.65178 200 156 119 
-1.86623 1.3822 4.61689 227 188 147 
-2.79599 1.53399 4.54724 208 169 114 
-1.82655 1.37275 4.62075 98 63 43 
-2.18731 0.0158464 5.90647 223 192 161 
-2.1882 0.00895687 5.93724 225 189 157 
-1.98211 1.50177 4.54258 214 173 141 
-2.55746 1.3045 4.72496 104 67 41 
-2.2579 1.29291 4.70806 97 71 48 
-3.10871 0.0600766 5.91902 201 168 133 
-2.68679 1.53897 4.51745 125 92 57 
-2.75985 0.918897 5.11098 226 187 144 
-2.07519 1.23438 4.77451 104 79 49 
-1.28201 -1.23964 4.71758 201 44 55 
-2.16185 1.34924 4.65657 113 76 34 
-3.09791 0.444451 5.54949 192 165 138 
0.369932 -1.03641 3.81717 103 93 91 
0.256673 -0.236535 3.64856 75 49 36 
0.152835 -0.234526 3.67319 84 52 39 
-2.99659 0.840702 5.14131 117 82 54 
-3.01218 -0.440519 6.33082 227 186 134 
-3.28521 -1.31397 5.72903 35 26 31 
-0.603497 -0.859462 4.32575 80 20 10 
-0.564862 -0.789401 4.24416 81 71 62 
-3.26936 -1.33166 5.57714 27 25 28 
-1.13787 -1.21699 4.71469 213 120 151 
-3.25624 -1.34014 5.57106 37 36 44 
-3.29651 -0.56522 5.18751 180 173 181 
-3.30439 -1.45883 5.44595 104 104 116 
-0.459567 -0.149368 3.00317 139 39 41 
-1.09763 -1.53431 5.02183 160 131 117 
-0.457209 0.16478 2.70624 160 80 81 
-0.399034 0.150201 2.69817 197 116 113 
-0.612738 -1.56402 5.03433 128 109 94 
-1.3737 -1.36785 4.72913 202 77 73 
-1.82481 1.44134 4.59238 213 178 140 
-0.65473 -0.814145 4.28512 110 82 60 
-0.489405 -0.802612 4.26027 176 147 129 
-3.29481 -1.54785 5.52546 45 36 55 
-1.22731 -1.23221 4.71735 192 177 144 
-2.26307 1.29763 4.71517 89 64 42 
-0.77563 -0.988462 4.36775 103 17 2 
-3.27737 -1.39165 5.55078 48 39 44 
-1.19526 -1.29768 4.81327 200 127 138 
0.16795 -0.267854 3.71357 178 124 88 
-0.464051 -0.920419 4.35809 87 66 61 
-1.24182 -1.33468 4.81967 90 0 30 
-2.87195 1.17513 4.87635 128 89 60 
-3.10926 0.639401 5.37762 222 188 150 
0.0840202 -0.270114 3.70749 84 56 34 
-0.518443 -0.872187 4.33247 181 149 136 
-1.2768 -1.23913 4.69107 216 37 40 
-0.78675 -1.29851 4.76868 89 89 63 
-2.5034 1.08766 4.93425 218 184 146 
-0.414766 -0.165398 3.01429 207 112 110 
-1.97543 1.49144 4.52198 209 168 138 
-1.04794 -1.16337 4.66982 213 139 174 
-2.40093 1.05095 4.94875 243 209 172 
-0.902874 -1.43661 4.9213 100 52 42 
-1.0026 -1.49782 5.00431 65 43 19 
-0.49957 -1.32535 4.65824 228 193 171 
-1.87054 1.38854 4.63151 237 195 155 
-3.09022 0.438923 5.53436 201 174 147 
-2.80655 0.868949 5.16425 120 86 48 
-3.3101 -1.57273 5.40747 46 40 52 
-2.95559 0.831873 5.17962 213 174 141 
-3.10953 0.822749 5.174 188 157 136 
-3.00994 0.848636 5.16877 124 88 62 
-3.01626 -0.441129 6.33743 227 186 134 
-0.651051 -0.845168 4.29541 147 118 104 
-0.372096 -0.722017 4.09049 25 19 19 
-0.0138228 -0.274736 3.69538 101 83 73 
-0.523297 -0.787702 4.22918 242 213 195 
-0.487046 -0.814442 4.27475 90 61 47 
-0.444881 0.171815 2.70665 156 24 35 
-0.498646 -0.138704 3.00766 171 32 39 
-0.432338 0.0547546 2.75448 199 192 174 
0.178688 -0.65303 4.04054 211 192 185 
-1.07541 -1.55234 4.99747 82 77 71 
-1.06588 -1.06846 4.56597 228 85 131 
-1.29241 -1.52237 4.96473 222 82 127 
-3.31499 -1.19941 5.37018 197 195 198 
-0.919071 -1.52388 4.97301 157 153 128 
-3.24605 -1.27994 5.53468 42 40 51 
-3.26031 -1.30872 5.67931 43 32 36 
-0.399281 0.161156 2.70036 229 161 160 
-3.27729 -1.33306 5.58712 30 28 31 
-3.30856 -1.56201 5.53658 59 49 58 
-1.20195 -1.27314 4.76114 209 178 149 
-1.22491 -1.44898 4.94028 90 25 23 
-1.26999 -1.43647 4.90837 223 159 132 
-1.21966 -1.29257 4.79171 170 150 126 
-3.28792 -1.54641 5.59654 28 26 37 
-0.962051 -1.34278 4.78388 158 118 116 
-1.11666 -1.41248 4.8757 38 12 15 
-3.29161 -1.5337 5.88082 25 23 36 
-3.33016 -1.46435 5.43243 55 55 67 
-1.07967 -1.10574 4.63153 79 7 19 
-1.04506 -1.16244 4.65787 213 139 174 
-0.383802 -1.23616 4.65562 36 11 7 
-1.94987 1.28435 4.71454 203 161 119 
-2.03166 1.40109 4.6369 223 184 141 
-3.08341 0.433269 5.51908 201 174 147 
-2.26546 1.304 4.70489 72 45 15 
-2.77416 0.874854 5.1451 231 203 156 
-1.03877 -1.50346 4.99916 233 135 74 
-1.96559 -0.120594 6.0289 205 172 139 
-2.27 0.96485 5.03877 104 68 44 
0.248222 -0.228412 3.65272 161 122 81 
-3.12803 0.43355 5.56389 180 151 111 
0.43849 -0.304389 3.408 192 112 0 
-1.98105 1.44132 4.56513 121 94 73 
0.407243 -0.205137 3.4582 155 71 7 
-0.563383 -0.883784 4.34792 199 142 131 
-3.29512 -0.568411 5.17866 204 193 197 
-0.397031 -0.756282 4.08819 213 212 208 
-0.475319 -0.129661 3.03489 207 176 171 
-3.12153 0.433566 5.55522 183 153 115 
-0.446254 0.0484355 2.77523 93 87 75 
-2.28408 1.30623 4.74708 98 70 46 
-0.527498 -0.80052 4.25664 102 80 57 
-0.537987 -0.81097 4.25653 241 208 193 
-0.653117 -0.81343 4.29371 136 105 84 
-0.564454 -0.821347 4.25745 245 206 199 
-0.486281 -0.840411 4.27987 248 215 198 
-3.02725 0.377826 5.56237 217 180 136 
-0.644151 -0.904707 4.35002 166 133 114 
-0.970032 -1.35264 4.75982 219 174 169 
-3.30862 -1.53949 5.91525 27 24 33 
-1.99934 1.42464 4.58558 214 178 142 
-1.0555 -1.04242 4.533 84 5 8 
-2.78945 0.860426 5.12354 126 92 55 
-1.08796 -1.06302 4.56131 66 14 3 
-3.26364 -1.39762 5.51599 43 42 48 
-3.25054 -1.35175 5.44177 47 50 59 
-2.25898 0.960235 5.0156 95 59 37 
-2.8516 1.16423 4.8359 127 90 63 
-1.97628 -0.119259 6.06061 205 172 139 
-1.07974 -1.09485 4.62764 94 3 21 
0.0880948 -0.33988 3.77914 162 127 108 
0.282735 -0.296452 3.73052 171 139 118 
-0.998532 -1.53293 5.01584 115 113 92 
-1.16272 -1.26468 4.77037 141 122 107 
-0.204774 -1.24931 4.67863 127 111 98 
-0.95746 -1.53324 5.01127 172 168 139 
-1.07905 -1.53053 5.02412 171 125 110 
-1.26 -1.36314 4.86683 205 145 145 
-0.914875 -1.3643 4.8558 50 68 44 
-0.687747 -1.72353 4.98374 148 144 145 
-0.29708 -1.65106 4.95105 116 90 89 
-0.681875 -0.88165 4.36507 88 63 41 
-1.08877 -1.55459 5.02047 83 74 67 
-0.752626 -1.70835 4.97405 95 92 87 
-0.950426 -1.06032 4.55309 250 101 139 
-0.6109 -1.56008 5.04402 117 99 85 
-3.34832 -1.43034 5.40442 96 90 94 
-3.38117 -1.63906 5.48194 69 67 68 
-3.3661 -1.53021 5.32799 88 84 85 
-1.09648 -1.55882 5.01564 196 185 181 
-1.16978 -1.27637 4.78007 65 42 28 
-3.36752 -1.63894 5.45731 107 105 106 
-3.37545 -1.62442 5.47481 136 136 138 
-3.32752 -1.53542 5.9399 46 40 44 
-0.742816 -1.70671 4.97001 197 193 184 
-0.961424 -1.33707 4.81045 104 77 70 
-3.3688 -1.62359 5.46196 170 170 168 
0.0818378 -0.304211 3.75544 157 121 99 
-3.35302 -1.57928 5.61534 47 41 53 
-3.46361 -1.63907 5.26498 62 64 77 
-1.25896 -1.55671 5.06638 235 153 142 
-1.07361 -1.53397 5.02194 116 98 74 
-1.25277 -1.37423 4.87042 105 38 47 
-3.41037 -1.30595 5.20522 159 157 160 
-1.19238 -1.29232 4.80296 161 110 109 
-0.701866 -1.71774 4.98559 160 156 155 
-0.880791 -1.53066 5.00254 156 151 122 
0.331615 -0.319867 3.75458 149 122 105 
0.328801 -0.305533 3.73706 137 110 89 
-1.23341 -1.18983 4.69546 158 69 71 
-0.839443 -1.43503 4.9262 199 123 89 
-0.686402 -0.845563 4.32996 117 86 68 
-1.386 -1.58898 4.95686 194 88 124 
0.1704 -0.259527 3.70859 140 110 86 
-0.731173 -1.54289 5.02766 111 68 49 
-0.677906 -1.54705 5.03537 65 6 0 
-0.515234 -1.32791 4.65671 197 161 137 
0.270421 -0.214285 3.65225 161 126 98 
-0.861267 -1.51274 5.0044 114 49 43 
-0.809742 -1.29237 4.78553 124 89 67 
-0.990226 -1.3144 4.73386 170 111 113 
-0.988134 -1.30981 4.72576 220 164 165 
-0.804393 -1.27903 4.77472 148 105 88 
-0.646771 -0.975253 4.2906 226 87 120 
-1.10538 -1.56598 5.01867 142 137 133 
-0.611685 -1.61045 5.08862 124 75 78 
-3.44593 -1.62538 5.26671 30 30 42 
-3.37487 -1.52922 5.34566 64 59 63 
-0.527059 -1.33253 4.65974 227 190 171 
0.195893 -0.270937 3.71428 112 62 35 
0.367632 -0.324559 3.75685 103 58 35 
0.332787 -0.332183 3.75991 154 125 109 
-1.3846 -1.58585 4.94643 194 88 124 
-0.822122 -1.28374 4.77883 109 64 43 
-1.16284 -1.26532 4.7634 143 115 101 
-0.79238 -1.72562 4.99016 147 143 140 
-0.596535 -1.16794 4.505 130 46 20 
-0.687606 -0.853983 4.34548 99 68 48 
-0.595795 -0.860582 4.33996 84 47 31 
-1.23124 -1.01188 4.51159 105 68 60 
-1.2506 -1.02288 4.51296 76 0 0 
-0.692526 -1.73342 4.99217 152 147 144 
-1.2661 -1.42227 4.92673 75 24 20 
-0.846905 -1.44096 4.93472 143 70 37 
-0.761583 -1.68039 4.94697 168 165 158 
0.197598 -0.294558 3.73714 90 52 31 
0.282894 -0.299206 3.74385 165 134 114 
0.372176 -0.355205 3.78656 95 51 24 
-3.4365 -1.59462 5.24694 118 121 136 
-3.41449 -1.57624 5.23088 180 188 191 
-0.631492 -0.825294 4.30768 150 108 92 
-1.20937 -1.5202 5.02864 242 164 141 
-0.934345 -1.183 4.67101 157 82 25 
-1.22249 -1.58419 5.08793 165 51 85 
-0.502293 -1.32557 4.6497 228 193 171 
-3.32152 -1.45107 5.49405 57 52 58 
-1.37798 -1.5486 4.90564 187 83 118 
-0.818948 -0.832456 4.06739 98 96 101 
-0.929578 -1.5268 5.00939 173 162 142 
-1.03072 -1.50118 4.99714 205 157 109 
-0.705006 -1.34128 4.81921 170 146 122 
-0.572951 -1.60575 5.08111 105 98 82 
0.277017 -0.260294 3.69737 129 101 89 
-3.31878 -1.45548 5.45224 191 191 199 
-0.743865 -1.71076 4.98938 196 187 182 
-0.612483 -1.58193 5.06378 99 62 46 
-3.40332 -1.28396 5.22634 61 55 67 
-1.25811 -1.28873 4.78639 81 20 17 
-0.516971 -0.856467 4.32668 52 29 21 
-0.953074 -1.49481 5.0051 191 173 127 
-3.3956 -1.2053 5.28856 45 41 58 
-1.05546 -1.04151 4.53804 100 0 0 
-1.07332 -1.06747 4.56373 212 104 138 
0.433362 -0.36697 3.80216 72 55 47 
-1.18678 -1.24617 4.75007 150 137 118 
-1.12584 -1.3041 4.80696 97 19 43 
-0.632056 -1.34799 4.68817 217 195 172 
-1.02576 -1.04679 4.5508 215 71 63 
-1.11435 -1.30046 4.80414 168 82 107 
-0.594716 -0.795596 4.27701 250 216 204 
-3.31553 -1.45601 5.48263 39 41 54 
-0.994183 -1.50792 5.01101 184 142 120 
-0.796109 -1.70019 4.95313 90 86 83 
0.156993 -0.194721 3.65067 173 128 97 
-0.904857 -1.43852 4.93159 100 52 42 
-0.374661 -0.716563 4.13152 51 44 38 
-0.642417 -0.814524 4.2974 127 95 74 
-0.470235 -0.833312 4.2861 76 70 54 
-0.551112 -0.862719 4.32456 145 61 59 
-1.06766 -1.07 4.57661 228 85 131 
-1.27361 -1.43963 4.92377 223 159 132 
-0.967674 -1.34675 4.80643 158 118 116 
-1.26099 -1.36826 4.8616 175 146 132 
0.277966 -0.32028 3.74759 178 126 89 
0.282172 -0.327832 3.77783 178 116 77 
-1.04484 -1.16198 4.65646 213 139 174 
-3.35958 -1.20665 5.44648 191 187 184 
-1.0657 -1.14231 4.64166 241 177 211 
-0.877047 -1.03161 4.53816 239 197 199 
-0.611068 -1.57852 5.05334 70 36 26 
0.0759395 -0.255221 3.73214 146 118 97 
-0.606708 -1.57304 5.06361 110 82 71 
-0.0147314 -0.26304 3.75059 103 88 81 
-1.0637 -1.55455 5.04415 107 107 105 
-1.26216 -1.55534 5.08395 228 147 128 
-1.17338 -1.55186 5.05468 85 55 44 
-0.881639 -1.54356 5.01761 167 161 139 
0.176011 -0.275775 3.74393 151 119 94 
0.19323 -0.277903 3.74663 171 130 98 
-1.00482 -1.52684 5.03039 132 130 109 
-0.930498 -1.52538 5.02783 145 140 118 
0.381469 -0.281704 3.73579 143 121 100 
0.407338 -0.285534 3.73661 93 53 28 
-1.38388 -1.49758 4.86732 171 88 118 
0.419996 -0.292799 3.74825 150 119 99 
0.18157 -0.312454 3.78298 141 103 80 
0.335092 -0.330203 3.78067 140 113 102 
0.446746 -0.367792 3.82309 217 200 190 
-0.471635 -0.248568 3.09349 171 164 146 
-0.613921 -0.844465 4.34357 91 23 20 
1.05117 1.69516 4.21668 199 168 137 
-0.914038 -1.36531 4.84397 24 48 26 
-0.68122 -0.631582 3.91385 247 246 251 
-0.963985 -1.34214 4.80722 166 131 127 
-0.528678 -1.33278 4.66087 197 162 142 
-0.567516 -1.32245 4.66833 197 161 145 
-0.460793 -1.32131 4.6303 210 173 154 
-0.416605 0.031306 2.76762 56 45 39 
-1.25922 -1.31165 4.82697 96 3 32 
-0.998211 -1.3061 4.73475 164 106 105 
-1.19407 -1.29115 4.81138 156 110 113 
-0.634942 -1.27096 4.71975 76 49 20 
-0.826994 -1.25501 4.76732 68 32 18 
-1.18151 -1.2467 4.75315 101 89 77 
-0.958236 -1.23918 4.74733 185 122 79 
-0.562503 -0.72436 4.22343 239 198 192 
-0.7632 -0.748561 4.00138 144 198 245 
-1.21669 -1.22965 4.73887 163 155 119 
-0.588941 -0.730862 4.23347 125 36 38 
-0.80626 -1.22506 4.71947 86 49 22 
-0.587907 -0.741519 4.24528 121 73 69 
-0.609999 -0.742654 4.23896 161 107 95 
-0.609835 -0.750107 4.2651 231 153 151 
-0.391567 -1.21375 4.65708 81 29 16 
-0.573153 -0.761416 4.26894 255 166 165 
-0.389876 -0.144589 3.03418 204 123 122 
-0.449902 -0.781987 4.28363 108 81 70 
-0.568995 -0.782272 4.28361 109 75 63 
-0.605489 -0.783103 4.29262 135 65 67 
-0.580535 -0.786926 4.28258 99 65 53 
-0.516183 -0.788711 4.27506 188 174 161 
-0.449896 -0.793008 4.29354 210 184 171 
-0.489956 -0.793126 4.29338 106 78 66 
-0.538943 -0.793737 4.28676 97 69 57 
-0.639094 -0.793336 4.29509 172 141 123 
-0.569983 -1.11716 4.4993 157 101 54 
-0.656217 -0.795601 4.30444 228 201 180 
-0.658993 -0.805184 4.31517 234 206 192 
-0.476513 -0.808246 4.2905 182 150 135 
-0.559249 -0.808369 4.30818 222 188 179 
0.319947 -1.06793 3.87564 118 114 103 
-0.950042 -1.05374 4.56097 221 77 102 
-0.458969 -0.811639 4.30061 93 93 85 
-0.689698 -0.813296 4.32623 130 99 79 
0.322164 -1.05297 3.83997 172 166 150 
-0.696475 -0.815361 4.31818 230 205 183 
-0.599505 -0.816585 4.31867 157 110 104 
-0.631763 -0.821064 4.31943 127 88 73 
-0.684262 -0.824296 4.3379 177 145 130 
-0.706186 -0.824228 4.33864 84 60 48 
-0.696298 -0.827217 4.33875 80 60 53 
-0.792067 -1.01797 4.4287 106 24 0 
-0.943738 -1.01324 4.51932 251 127 91 
-0.531977 -0.831691 4.33218 98 76 63 
-1.17505 -1.00244 4.51481 112 108 97 
-0.693991 -0.833598 4.33179 230 203 186 
-0.547897 -0.836138 4.33297 219 139 132 
-0.476996 -0.838951 4.3334 231 214 204 
-0.859419 -0.987503 4.5023 104 6 0 
-0.915073 -0.98189 4.49234 246 120 79 
-0.680359 -0.840181 4.34279 91 63 52 
-0.668274 -0.841621 4.3431 71 43 31 
-0.59487 -0.842431 4.35164 109 50 42 
-0.871052 -0.859124 4.10618 169 164 170 
-0.655324 -0.848966 4.34434 65 40 33 
-0.589497 -0.910596 4.40423 153 95 94 
-0.92068 -0.866931 4.11667 124 119 125 
-0.481879 -0.907923 4.39484 85 76 67 
-0.636207 -0.852138 4.3631 166 140 125 
-0.588114 -0.898839 4.40142 105 54 53 
-0.590643 -0.896363 4.39207 111 50 49 
-0.862905 -0.892122 4.1396 152 150 155 
-0.542875 -0.872394 4.36841 159 92 83 
-0.649818 -0.853613 4.36356 169 146 130 
-0.607115 -0.867567 4.37627 183 115 114 
-0.580401 -0.855441 4.35557 74 41 34 
-0.606746 -0.862846 4.357 150 96 94 
-0.513058 -0.861112 4.35728 84 75 58 
-0.596227 -0.857004 4.35544 70 33 27 
-0.625542 -0.857965 4.36455 80 42 29 
-0.63752 -0.869658 4.36761 106 79 60 
-0.491401 -0.904551 4.40286 63 56 46 
-1.48019 1.55524 4.47592 118 89 55 
-1.03292 -1.58889 5.11884 77 16 0 
-0.948881 -1.28622 4.79135 48 80 59 
-1.05862 -1.5686 5.0827 145 130 125 
-0.897204 -1.02567 4.53388 253 195 171 
-1.00099 -1.05957 4.5717 176 0 13 
-1.19172 -1.51855 5.05334 204 103 119 
-1.21541 -1.2203 4.72839 189 148 130 
-0.934944 -1.18328 4.67417 152 83 26 
-0.390885 -1.20164 4.66348 90 28 17 
-0.390205 -1.20786 4.67107 136 76 66 
-0.4529 -1.22158 4.57508 80 39 11 
0.107031 -0.99292 4.18673 149 147 150 
-1.67129 1.28749 4.77598 94 62 37 
-0.828035 -1.27688 4.77819 57 28 14 
-0.639662 -0.684837 3.92932 171 169 174 
-0.810826 -1.28766 4.77955 62 34 20 
-0.606136 -0.677211 3.94776 128 127 132 
-1.20975 -1.29505 4.79986 99 86 78 
-1.15457 -1.36316 4.87657 37 7 7 
0.222789 -0.571223 4.01646 170 158 146 
-0.688487 -1.35389 4.82224 69 55 46 
0.834713 1.62842 4.31587 179 147 122 
-0.60132 -1.16301 4.50677 182 97 77 
-1.02288 -1.58188 5.10978 129 81 59 
-0.444494 -1.22734 4.55682 72 28 0 
-0.521977 -0.750575 4.25693 94 113 111 
-0.548433 -0.844763 4.34669 220 134 133 
-1.27281 -1.41972 4.93134 158 64 78 
-0.559663 -0.845335 4.3372 226 148 144 
0.32609 -1.04667 3.8317 250 249 229 
-0.678728 -1.54654 5.04156 77 21 0 
-0.595311 -0.881821 4.38178 169 132 116 
-0.872153 -1.53174 5.0015 219 207 181 
-1.0011 -1.53041 5.03966 103 103 77 
-0.881521 -1.52883 5.01376 150 138 112 
-1.20891 -1.51791 5.03132 234 162 137 
-1.0003 -1.51442 5.02758 117 91 74 
-1.20627 -1.2371 4.74369 84 67 49 
-1.33319 -1.44209 4.90192 124 46 72 
-0.708257 -1.33977 4.83086 131 131 107 
-1.27032 -1.42033 4.94428 81 25 26 
-1.25663 -1.42035 4.94411 73 18 24 
-0.993273 -1.49564 5.0004 156 118 95 
-1.11253 -1.39237 4.90268 115 17 55 
-1.25634 -1.37253 4.88296 127 61 71 
-0.586417 -0.731657 4.25313 254 196 192 
-0.915139 -1.36447 4.85407 36 60 36 
0.830948 1.71408 4.2243 204 173 145 
-0.69547 -1.35091 4.83226 76 54 43 
-0.661958 -0.771485 4.28532 233 207 192 
-0.503933 -1.32629 4.65487 214 179 157 
-0.984745 -1.32535 4.74849 129 78 74 
-1.16054 -1.32611 4.83124 98 13 46 
-1.2506 -1.31882 4.83853 160 87 106 
-0.657333 -0.780229 4.28709 167 136 116 
-0.554865 -0.786747 4.28999 110 83 72 
-0.795497 -1.29934 4.79049 113 119 85 
-1.25049 -1.27651 4.78022 89 8 17 
-0.438696 -0.798564 4.29356 98 89 84 
-1.17088 -1.27507 4.79307 70 40 32 
-0.204078 -1.24783 4.68882 117 101 85 
-1.23835 -1.23499 4.73051 78 23 26 
-0.771802 -1.26358 4.76091 121 86 58 
-0.659345 -0.832317 4.32313 108 80 68 
-1.23515 -1.18885 4.70145 149 59 61 
-0.604069 -0.833299 4.33349 255 166 169 
-0.673681 -0.841021 4.32554 191 162 154 
-0.18869 -1.14501 4.59912 110 103 87 
-0.497198 -0.84536 4.33621 99 71 60 
-0.889871 -1.113 4.52003 188 178 166 
-0.642624 -0.850116 4.34855 72 47 27 
-0.583564 -0.830484 4.32225 205 114 113 
-1.09945 -1.4043 4.918 158 136 115 
-0.538373 -0.856878 4.35051 141 112 106 
0.249586 -0.320364 3.78085 91 50 30 
-0.865006 -0.883259 4.12772 126 121 127 
-1.25207 -1.02184 4.51804 80 0 0 
-0.348737 -1.01382 4.33542 49 26 34 
-0.679252 -0.888514 4.39201 81 56 34 
0.332032 -0.21722 3.67374 92 53 22 
0.42098 -0.289824 3.75969 150 119 99 
0.340836 -0.291213 3.73974 109 68 40 
-0.383514 -0.99079 4.29632 209 114 148 
-0.496633 -0.907627 4.39496 77 64 55 
0.176898 -0.203484 3.67323 141 111 85 
-0.683824 -0.878672 4.37699 90 62 41 
-0.280004 -1.39156 4.69995 71 32 25 
-1.38723 -1.56725 4.94811 152 72 101 
-1.00509 -1.04785 4.55481 157 67 66 
-1.23004 -1.12668 4.63604 136 75 72 
-0.890286 -1.13247 4.53696 188 180 167 
-1.1491 -1.36187 4.84508 37 7 7 
-0.372722 -1.22924 4.67725 93 59 60 
-1.08878 -1.29925 4.79757 98 95 86 
-1.00003 -1.30048 4.71307 166 115 114 
-1.34002 -1.61719 5.11795 154 50 83 
-0.609958 -0.753383 4.25544 243 153 153 
-0.505035 -0.692159 4.18692 182 149 114 
-0.646072 -0.773205 4.27293 236 204 189 
-0.492651 -1.55025 5.02377 58 28 17 
-0.548648 -0.79681 4.29254 75 57 47 
-0.583912 -0.800101 4.30604 201 164 155 
-0.594998 -0.803238 4.29911 178 113 109 
-0.526547 -0.806128 4.30832 219 192 181 
-0.57802 -0.81587 4.32284 110 68 54 
-0.931549 -1.52592 5.01744 169 163 139 
-0.505767 -0.827052 4.31313 113 85 71 
-1.33394 -1.49884 4.9652 145 77 102 
-0.582898 -0.838028 4.34133 246 189 180 
-1.20788 -1.47263 5.00961 112 44 55 
-0.607505 -0.849838 4.3571 193 135 133 
-0.571859 -0.854769 4.34567 58 24 15 
-0.62555 -0.872235 4.3755 91 56 36 
0.184865 -0.252052 3.7272 169 133 99 
-0.649435 -0.882789 4.37828 149 125 113 
-0.604156 -0.890631 4.39003 155 108 98 
-1.08688 -1.39229 4.89064 203 113 138 
0.398864 -0.338078 3.4138 218 203 198 
-1.26486 -1.36654 4.87254 179 152 135 
-0.962586 -1.34385 4.79311 172 132 130 
-1.25464 -1.3369 4.85656 182 81 115 
-0.566899 -1.32414 4.65756 215 182 163 
-0.462568 -1.31996 4.65523 211 174 156 
-1.19671 -1.27222 4.77224 156 137 107 
0.422387 -0.324583 3.77777 172 136 110 
-1.23011 -1.23404 4.73706 190 176 141 
-0.363276 -0.204547 3.05186 204 125 120 
-0.93412 -1.20946 4.70268 154 116 93 
0.414368 -0.346622 3.79959 74 37 11 
-1.06892 -1.52223 5.03389 116 54 29 
-0.445593 -1.22748 4.56802 72 28 0 
0.392113 -0.348637 3.8003 89 53 29 
-0.950847 -1.49283 4.99651 194 164 128 
-1.17904 -1.14113 4.65977 98 0 0 
0.409966 -0.317524 3.76297 91 53 32 
-0.28041 -1.35903 4.65631 75 31 28 
-0.761335 -1.27484 4.77084 102 74 53 
-0.691907 -1.36315 4.82387 131 119 107 
-0.866955 -1.04038 4.52895 211 124 114 
0.123697 -0.288082 3.76782 95 53 29 
0.134579 -0.282887 3.75381 130 105 85 
-1.22918 -1.00441 4.51206 86 11 5 
-0.819761 -0.819983 4.07728 188 188 188 
-0.911233 -0.876279 4.11188 160 158 161 
-0.280196 -1.39262 4.68454 71 34 28 
-0.811702 -1.2864 4.79204 62 36 23 
-1.23826 -1.20062 4.70868 188 94 118 
-1.28059 -1.07494 4.53718 74 0 4 
0.279793 -0.251486 3.71741 141 107 95 
-1.83643 1.6778 4.37571 111 75 51 
-1.82166 1.45357 4.60287 221 187 142 
-0.89533 -1.18284 4.67216 127 71 24 
-0.505049 -0.836626 4.31603 191 168 154 
-0.674181 -0.861813 4.3654 155 128 117 
-0.694227 -0.826225 4.32498 73 53 46 
-0.4758 -0.826 4.3202 102 89 73 
-0.549298 -0.814509 4.30644 102 50 39 
0.344516 -1.02435 3.82946 28 26 14 
-0.453357 -0.796378 4.27292 131 103 89 
-1.166 -1.14647 4.65946 198 99 128 
-1.23177 -1.25822 4.75619 196 159 133 
-1.2455 -1.25848 4.76973 105 23 37 
-1.26313 -1.28867 4.81023 62 12 13 
-1.13072 -1.49608 4.99092 255 252 241 
-1.25963 -1.31087 4.83955 66 12 28 
-1.25065 -1.3213 4.82935 216 102 136 
-1.10863 -1.4083 4.91823 151 134 116 
-1.34164 -1.43786 4.92745 173 67 103 
-0.960435 -1.54808 5.0299 132 155 135 
-0.872546 -1.54367 5.00436 204 178 161 
-0.611962 -1.60868 5.09348 126 66 68 
-0.773419 -0.757984 4.0055 133 191 254 
-0.122358 -0.856981 4.14808 111 106 84 
-0.607934 -0.797747 4.29347 210 125 132 
-0.461892 -0.797743 4.28834 228 199 185 
-1.15105 -1.37166 4.88167 37 0 0 
-1.27032 -1.36002 4.86714 78 30 44 
-1.2125 -1.186 4.69895 207 98 130 
-1.21333 -1.51855 5.04566 226 143 129 
-1.1077 -1.20659 4.64148 143 54 82 
-0.935445 -1.21014 4.71516 148 112 88 
-0.880987 -1.22073 4.71637 89 48 30 
-1.26817 -1.22843 4.72094 113 39 62 
-0.654401 -0.860887 4.38016 75 46 30 
-0.55819 -0.865105 4.3506 205 141 132 
-0.816038 -1.24783 4.75198 63 32 14 
-0.573699 -0.828554 4.32352 255 197 183 
-1.11208 -1.2993 4.80275 179 94 123 
-1.25501 -1.27766 4.79531 79 0 8 
1.03843 1.698 4.23752 180 150 116 
0.233179 -0.31961 3.78433 80 42 23 
0.204094 -0.319815 3.78415 86 50 36 
0.126592 -0.320201 3.7969 76 48 34 
-1.15204 -1.26094 4.75555 101 61 61 
-1.13598 -1.03393 4.49794 115 96 90 
0.265478 -0.22464 3.6962 72 45 24 
-1.02489 -1.54204 5.02355 241 243 230 
-1.02279 -1.04558 4.55262 188 62 65 
0.413393 -0.264194 3.71929 175 142 111 
0.425909 -0.353357 3.81683 172 128 99 
-0.674567 -1.52328 5.01506 47 12 0 
-1.32912 -1.44284 4.8719 155 64 95 
-1.01428 -1.49467 5.00679 169 127 87 
-0.480726 -1.31651 4.65875 182 145 127 
-0.501451 -1.32632 4.64417 210 175 153 
-0.681514 -0.887931 4.40227 92 67 45 
-0.95364 -1.49476 5.00518 198 160 124 
-1.35637 -1.35257 4.75153 137 65 79 
-1.03489 -1.57932 5.09085 187 102 63 
-0.563976 -0.770758 4.27364 191 83 83 
-0.518391 -1.33137 4.6529 215 180 158 
-0.818675 -0.809491 4.05688 194 193 198 
-0.506395 -0.158713 3.00666 198 111 104 
-0.557635 -0.159875 3.046 235 158 152 
-0.89436 -1.44873 4.94107 174 127 99 
0.0738421 -0.221235 3.69629 166 119 93 
0.261806 -0.227767 3.68682 74 51 43 
-0.0347339 -0.264829 3.75084 70 42 21 
0.342921 -0.285681 3.75019 90 55 36 
-1.08635 -1.40423 4.90109 145 59 72 
-1.087 -1.3913 4.90053 206 107 127 
-0.446919 -1.37143 4.79114 228 218 206 
-0.960465 -1.52881 5.02723 128 123 94 
-1.15134 -1.34435 4.85649 175 98 116 
-0.456899 -0.779319 4.27694 89 72 64 
-0.679062 -0.851032 4.35016 32 14 2 
-0.628863 -0.860032 4.35223 67 40 23 
-1.26006 -1.28768 4.7936 62 12 13 
-0.652106 -0.861995 4.37092 75 46 30 
0.402624 -1.03498 3.81955 111 103 100 
-1.20123 -1.27172 4.79141 156 137 107 
0.332454 -1.02926 3.83267 237 235 220 
-0.943098 -1.01058 4.51692 240 168 109 
-0.610718 -1.56025 5.04197 105 97 78 
-1.14223 -1.0236 4.50126 187 167 160 
-0.661335 -0.784429 4.29586 124 93 73 
-1.05645 -1.04122 4.53879 83 0 0 
-1.05314 -1.0532 4.56342 205 102 132 
-1.13875 -1.21965 4.72461 190 114 144 
-1.04618 -1.19039 4.64319 218 158 168 
-1.16461 -1.16216 4.66347 101 8 35 
-1.18513 -1.21008 4.72399 138 42 79 
-1.10595 -1.28711 4.78675 235 140 148 
-0.582486 -0.846073 4.31992 227 194 177 
-0.54157 -0.82442 4.31392 217 175 163 
-0.583994 -0.826622 4.33624 250 185 179 
-0.655284 -0.830328 4.33759 115 86 72 
-0.508705 -0.844609 4.3407 93 71 60 
-1.07166 -1.52675 5.01996 108 66 44 
-0.350622 -1.01558 4.34696 44 23 30 
-0.582453 -0.732576 4.27038 255 206 197 
-1.07493 -1.06619 4.57006 228 102 140 
-1.10628 -1.39479 4.89212 64 13 28 
-0.886481 -1.10406 4.52581 255 236 212 
-1.17674 -1.14459 4.65206 92 3 0 
-1.16813 -1.16737 4.67822 90 0 26 
-0.942587 -1.20541 4.69168 121 57 11 
-0.881145 -1.22842 4.70805 56 24 9 
-1.23529 -1.23278 4.75915 188 175 133 
-0.26707 -1.23811 4.58862 45 24 21 
-1.00174 -1.24399 4.73431 32 14 0 
-1.16242 -1.2673 4.76193 138 114 102 
-1.15432 -0.672505 4.09503 19 20 15 
-0.774585 -1.27576 4.78406 146 114 91 
-1.08413 -1.3115 4.83189 43 17 28 
-1.15824 -1.32311 4.84009 71 2 30 
-1.14995 -1.32913 4.79282 53 2 21 
-0.683895 -1.54683 5.0128 35 5 3 
-1.11549 -1.29923 4.81374 186 91 123 
-0.951104 -1.29155 4.80603 15 32 24 
-1.27034 1.54962 4.4903 207 178 146 
-0.900659 -1.43585 4.9311 141 47 45 
0.372684 -1.03626 3.83145 125 117 106 
-1.28184 -1.22814 4.71247 76 0 0 
-0.810361 -1.22847 4.70735 110 75 53 
-0.452252 -1.22684 4.58996 66 29 2 
-0.904342 -1.0224 4.51551 204 95 62 
0.162685 -0.285098 3.76405 75 49 32 
-0.50775 -0.691219 4.16807 171 138 105 
-0.281518 -1.40922 4.69356 99 66 61 
-1.0361 -1.50331 5.01962 224 144 81 
-1.04339 -1.16355 4.65342 213 135 175 
0.341407 -1.07131 3.85665 209 201 188 
-0.963294 -1.54831 5.04351 129 152 132 
-0.682421 -1.54748 5.03162 43 6 0 
-0.65936 -1.5092 4.95451 71 48 34 
-0.994214 -1.50773 5.01402 183 138 109 
-0.668414 -0.779018 4.28793 127 103 93 
-0.458713 -0.78512 4.25961 98 71 64 
-0.904749 -1.43782 4.93978 128 47 44 
-0.531394 -0.847417 4.3081 238 201 185 
-1.0297 -1.37045 4.79099 238 225 209 
-0.565291 -0.883407 4.36907 193 149 136 
-0.596878 -0.887797 4.37033 154 118 104 
-0.643976 -0.886417 4.39637 67 40 29 
0.422476 -0.316787 3.79924 179 127 90 
0.04377 -0.99028 4.18827 87 89 88 
-0.441655 0.0619681 2.72953 31 26 22 
-1.56198 1.44508 4.63908 226 191 163 
0.294568 -1.01575 3.78723 15 17 12 
0.31738 -1.04486 3.85081 153 157 142 
0.281632 -1.0481 3.88023 44 44 34 
0.0981197 -1.03929 4.25481 193 188 182 
0.355291 -1.05309 3.83192 121 117 108 
0.711094 -0.310497 3.38226 153 68 0 
-1.17514 -1.16737 4.692 67 2 10 
-1.04526 -1.16275 4.66828 217 132 174 
0.16592 -0.263461 3.72178 169 115 81 
-0.866641 -1.5032 5.0124 190 123 96 
-0.818314 -1.26508 4.74682 168 119 86 
-0.525878 -0.857383 4.346 51 34 24 
-0.45913 0.0709914 2.72885 25 22 13 
0.431251 -0.179123 3.49784 166 85 3 
-1.22996 -1.45126 4.97449 71 30 36 
-0.582427 -0.768735 4.26005 247 220 211 
-0.399378 -0.737854 4.1895 33 28 32 
-0.498875 -0.852136 4.34452 171 159 143 
-0.562555 -0.797221 4.29893 84 72 72 
-0.629504 -1.35031 4.68561 236 204 189 
-0.534834 -0.885182 4.32229 184 132 119 
-1.85445 1.46419 4.61639 91 62 30 
-1.17152 -1.17094 4.66978 69 0 9 
-1.06902 -1.06816 4.58685 232 81 134 
-1.00368 -1.49886 5.00811 51 23 0 
-0.919827 -1.12253 4.5303 169 114 109 
-1.06605 -1.14372 4.63182 238 162 200 
-1.05319 -1.05794 4.55241 233 87 136 
-0.895745 -1.28242 4.78324 40 27 8 
0.079563 -0.262884 3.73884 72 63 56 
-0.61389 0.256165 3.23045 67 38 34 
-0.658917 -0.979354 4.301 218 66 78 
-0.874152 -1.54405 5.01387 244 232 210 
0.144609 0.0156366 3.42609 104 89 66 
-0.743093 -1.78673 5.04741 148 146 147 
-1.23362 -1.19061 4.70033 158 69 71 
-0.192518 -1.25139 4.68412 150 132 120 
0.703325 -0.00132701 3.33525 174 117 38 
-0.503436 -1.32634 4.654 228 193 171 
0.431228 -0.366918 3.79031 72 55 47 
0.221164 -0.534587 3.94119 245 233 219 
-0.48162 -1.31886 4.64618 192 155 136 
-1.06996 -1.52266 5.04045 116 54 29 
-1.26844 -1.35971 4.8738 104 46 58 
-1.11411 -1.29914 4.81761 179 94 123 
-0.796438 -1.29899 4.799 113 119 85 
-0.826413 -1.25493 4.76309 68 32 18 
-0.562728 -0.724865 4.21854 239 198 192 
-0.579023 -0.729648 4.23062 255 157 158 
-0.609862 -0.74219 4.23859 161 107 95 
-0.61372 -0.758369 4.25473 255 168 167 
-0.452288 -0.788777 4.27255 190 163 154 
-0.449347 -0.794003 4.28086 210 184 171 
-0.656212 -0.796081 4.29842 228 201 180 
-0.476513 -0.808246 4.2905 182 150 135 
-0.696042 -0.827607 4.33273 80 60 53 
-0.531725 -0.832067 4.32723 98 76 63 
-0.681932 -0.831778 4.33607 147 115 100 
-0.580311 -0.855755 4.35078 74 41 34 
-0.905599 -1.02715 4.53438 243 112 84 
-0.76077 -1.27366 4.77212 119 87 64 
-0.97413 -1.2375 4.74215 159 97 48 
-0.521872 -0.751713 4.24403 94 113 111 
-1.249 -1.20939 4.71793 170 129 111 
-0.92229 -1.52737 5.02125 89 91 67 
-1.01169 -1.49256 5.01252 162 134 95 
-0.708739 -1.33984 4.83445 131 131 107 
-1.25607 -1.42002 4.93929 73 18 24 
-0.589521 -0.730426 4.22892 140 37 41 
-0.588287 -0.741641 4.24081 121 73 69 
-0.660592 -0.772639 4.27154 233 207 192 
-0.656979 -0.780958 4.27754 167 136 116 
-0.53865 -0.794158 4.28534 97 69 57 
-0.638852 -0.793825 4.29278 172 141 123 
-0.467391 -0.79757 4.2846 168 140 128 
-0.43772 -0.799526 4.28136 98 89 84 
-1.17064 -1.27488 4.79008 70 40 32 
-0.584001 -0.800276 4.29914 201 164 155 
-1.2462 -1.25978 4.77907 93 16 22 
-0.855759 -0.989721 4.4981 82 0 0 
-0.268335 -1.0502 4.25896 161 159 162 
-0.810748 -1.28612 4.7802 59 30 16 
-0.659481 -0.787233 4.28743 144 113 93 
-1.00045 -1.30066 4.7197 166 115 114 
-1.34168 -1.61705 5.11718 154 50 83 
-0.646641 -0.773232 4.27246 236 204 189 
-1.00075 -1.53159 5.03562 126 127 96 
-0.613892 -0.812785 4.30785 199 149 148 
-0.542361 -0.822574 4.31699 227 188 173 
-0.674263 -0.860148 4.36476 142 120 109 
-1.07823 -1.06337 4.57494 205 104 134 
-1.21093 -1.22293 4.73536 56 28 24 
-0.638631 -0.778491 4.28045 119 81 72 
-1.25298 -1.32151 4.83789 216 102 136 
-0.95453 -1.54435 4.98022 132 155 135 
-0.883267 -1.52821 5.01578 135 119 93 
-0.489836 -1.33197 4.65533 224 189 170 
-0.528235 -1.33481 4.66401 196 161 139 
-0.203242 -1.03215 4.24208 146 145 151 
-0.744754 -1.28032 4.77579 171 166 137 
-1.04796 -1.52266 5.03561 52 46 32 
-1.33918 -1.44001 4.91817 181 73 109 
-0.614434 -0.81243 4.32908 243 202 198 
-0.8912 -1.5377 5.01224 247 239 226 
-0.760011 -1.28155 4.78296 55 52 35 
-0.816499 -1.24877 4.74611 71 40 22 
-0.584087 -0.827635 4.32113 250 185 179 
-0.523657 -0.786312 4.28323 229 208 191 
-1.05725 -1.04408 4.54956 59 16 10 
-0.684151 -1.54844 5.03505 35 5 3 
-1.03687 -1.5039 5.0288 224 144 81 
-0.67874 -1.5378 5.02901 185 101 37 
-1.13022 -1.30725 4.82443 50 3 23 
-0.900627 -1.28343 4.78753 40 44 21 
-0.833086 -1.27888 4.78651 60 28 13 
-1.049 -1.19785 4.64438 227 185 186 
0.446676 -0.287879 3.68092 218 201 193 
-0.579906 -0.730508 4.22898 246 167 163 
-0.694516 -1.763 5.04322 199 198 196 
-1.02823 -1.4941 5.02625 128 88 37 
-0.61029 -0.742662 4.23934 150 97 89 
-0.593359 -0.80527 4.29634 164 101 96 
-0.609194 -0.753549 4.25014 255 180 175 
-0.693977 -1.73406 5.00792 155 154 150 
