ply                 
format ascii 1.0    
element vertex 1222
property float x    
property float y    
property float z    
property uchar red  
property uchar green
property uchar blue 
end_header          
-0.186689 -0.506703 1.57361 173 105 82 
-0.245648 -0.505953 1.57484 148 107 79 
-0.162437 -0.504441 1.57424 150 113 95 
-0.160524 -0.502689 1.57394 74 33 15 
-0.168767 -0.502297 1.57409 54 21 2 
-0.17774 -0.499939 1.57482 124 49 30 
-0.163301 -0.499581 1.57357 137 110 93 
-0.16087 -0.498035 1.57418 126 95 77 
-0.294979 -0.498287 1.57597 180 131 150 
-0.164323 -0.497043 1.57417 120 85 65 
-0.163074 -0.49566 1.57492 65 31 6 
-0.157567 -0.493324 1.5733 60 19 0 
-0.161471 -0.490571 1.57428 73 32 4 
-0.156281 -0.490266 1.57379 198 156 131 
-0.192796 -0.489761 1.57526 133 57 44 
-0.163131 -0.488173 1.5743 143 102 84 
-0.164484 -0.487059 1.5743 68 25 9 
-0.162864 -0.487104 1.57379 137 98 81 
-0.162063 -0.484346 1.57464 144 111 96 
-0.156066 -0.484301 1.57427 69 31 12 
-0.15663 -0.482188 1.57448 143 107 93 
-0.161189 -0.475443 1.57435 64 30 20 
-0.156514 -0.474647 1.57385 117 84 79 
-0.224126 -0.473986 1.57595 129 158 112 
-0.189888 -0.472453 1.5752 130 44 29 
-0.184974 -0.471872 1.57463 188 108 99 
-0.135508 -0.459692 1.57441 148 169 138 
-0.0904258 -0.442395 1.52925 136 110 93 
-0.0899143 -0.440585 1.52994 223 196 179 
-0.0919338 -0.439469 1.52982 122 96 81 
-0.212621 -0.451252 1.5751 134 150 139 
-0.164269 -0.451621 1.57516 99 131 108 
-0.0803916 -0.438176 1.52993 172 146 129 
-0.151571 -0.449832 1.57476 25 58 39 
-0.0931392 -0.436775 1.52952 154 126 112 
-0.0789345 -0.436775 1.52965 126 97 83 
-0.166553 -0.447866 1.57522 76 86 77 
-0.146386 -0.448041 1.57512 99 112 105 
-0.147667 -0.44704 1.57518 17 44 29 
-0.0726401 -0.433823 1.52991 136 108 94 
-0.0947654 -0.433355 1.53008 130 98 85 
-0.072135 -0.432317 1.52998 225 198 179 
-0.168174 -0.444871 1.57516 87 100 91 
-0.0933082 -0.43184 1.52939 231 199 186 
-0.230858 -0.444577 1.57571 76 91 84 
-0.141744 -0.443537 1.57509 79 96 88 
-0.0809942 -0.43108 1.52966 135 106 88 
-0.0671297 -0.431222 1.52981 122 95 76 
-0.0686674 -0.430687 1.52965 231 204 185 
-0.169912 -0.441869 1.57528 80 100 89 
-0.0737761 -0.428893 1.52961 229 200 182 
-0.14264 -0.441235 1.5745 16 49 32 
-0.0827836 -0.428676 1.52993 120 92 70 
-0.0798229 -0.428295 1.52957 117 89 68 
-0.0703888 -0.427272 1.52925 226 199 180 
-0.0633356 -0.427068 1.52982 222 194 180 
-0.180812 -0.438637 1.57464 99 30 25 
-0.138347 -0.4374 1.57453 29 67 52 
-0.0622969 -0.425035 1.52923 110 81 67 
-0.080044 -0.423532 1.52967 227 198 180 
-0.178965 -0.435688 1.57591 49 22 5 
-0.0621901 -0.4224 1.52898 235 207 186 
-0.0948036 -0.421511 1.5304 226 199 178 
-0.0752568 -0.421098 1.52971 120 93 74 
-0.212867 -0.431264 1.57616 123 97 82 
-0.066733 -0.418779 1.53011 117 91 74 
-0.0758485 -0.418138 1.53006 231 202 184 
-0.0738384 -0.417933 1.53092 126 100 85 
-0.218223 -0.430212 1.57695 21 38 19 
-0.183127 -0.429978 1.57547 73 43 19 
-0.139278 -0.428327 1.5753 28 75 55 
-0.0867184 -0.414898 1.53112 229 198 180 
-0.0650513 -0.414045 1.53046 195 167 156 
-0.191431 -0.425401 1.5757 121 93 81 
-0.17783 -0.425745 1.5758 161 126 107 
-0.16802 -0.42503 1.57531 48 18 7 
-0.0683135 -0.41296 1.53039 205 175 164 
-0.0670802 -0.412945 1.53065 119 89 79 
-0.215858 -0.424561 1.57603 98 89 74 
-0.0601496 -0.411436 1.52996 125 96 80 
-0.220398 -0.42351 1.57616 99 89 80 
-0.181826 -0.422957 1.57581 44 11 0 
-0.174848 -0.423373 1.5755 59 25 15 
-0.185384 -0.421323 1.57542 72 42 31 
-0.0495274 -0.408968 1.52982 212 185 168 
-0.173478 -0.420586 1.57566 46 17 9 
-0.181179 -0.420531 1.57634 73 31 6 
-0.177925 -0.419537 1.57553 41 5 0 
-0.217074 -0.419567 1.57613 42 14 3 
-0.215459 -0.419564 1.57625 161 134 123 
-0.0498521 -0.406763 1.52982 107 80 61 
-0.172258 -0.417432 1.57565 58 29 21 
-0.055474 -0.40558 1.53047 219 188 168 
-0.176518 -0.416449 1.57553 134 100 91 
-0.192736 -0.415121 1.57577 125 95 84 
-0.236868 -0.414791 1.57678 37 57 22 
-0.0406521 -0.402099 1.53002 220 191 175 
-0.191494 -0.413544 1.57634 72 44 30 
-0.177492 -0.41315 1.57645 53 21 6 
-0.167595 -0.412816 1.57562 54 31 15 
-0.240148 -0.412307 1.57632 14 34 0 
-0.169784 -0.411716 1.57592 41 13 1 
-0.214214 -0.410423 1.57633 122 104 90 
-0.129892 -0.409673 1.57528 37 55 33 
-0.214879 -0.408642 1.57635 30 7 0 
-0.246393 -0.407412 1.57684 137 153 117 
-0.213016 -0.404056 1.57655 152 127 120 
-0.247855 -0.403859 1.57638 183 129 95 
-0.214244 -0.402891 1.57587 24 1 0 
-0.212738 -0.401479 1.57636 134 114 103 
-0.21986 -0.398069 1.5764 147 119 108 
-0.144835 -0.391592 1.57568 47 9 0 
-0.172964 -0.39113 1.57529 92 57 27 
0.0785331 -0.386582 1.56457 173 155 141 
0.0766785 -0.386299 1.5649 130 114 99 
-0.162305 -0.388278 1.57556 32 0 0 
-0.232433 -0.387682 1.57643 142 110 99 
-0.157887 -0.385436 1.57587 61 24 6 
-0.211837 -0.385044 1.57646 182 144 125 
-0.0949069 -0.38281 1.57507 120 94 93 
-0.228933 -0.382154 1.57534 76 38 25 
-0.0983785 -0.382264 1.57532 110 84 85 
-0.0929837 -0.382056 1.5752 189 172 178 
-0.187003 -0.381388 1.57606 71 25 1 
-0.229223 -0.381463 1.57675 25 0 0 
-0.181706 -0.381128 1.57638 194 140 114 
-0.232543 -0.379586 1.57637 57 25 2 
-0.0971693 -0.379164 1.57519 89 71 83 
-0.0829265 -0.378917 1.57528 125 111 124 
-0.122035 -0.369128 1.5478 110 100 98 
-0.138412 -0.36881 1.54715 237 228 221 
-0.119348 -0.367561 1.5479 255 242 239 
-0.0899804 -0.374598 1.57499 174 164 173 
-0.141121 -0.366644 1.54717 134 125 118 
-0.118402 -0.366667 1.54768 143 132 126 
-0.0800283 -0.373064 1.57518 185 171 184 
-0.125264 -0.363938 1.54724 129 119 117 
-0.127283 -0.362688 1.54723 123 112 106 
-0.217625 -0.369081 1.57667 119 55 17 
-0.131971 -0.361772 1.54697 120 113 103 
-0.0797515 -0.367421 1.57485 81 67 84 
-0.13804 -0.356038 1.54713 255 255 246 
-0.364934 -0.36075 1.57577 107 0 0 
-0.137392 -0.354307 1.54731 165 160 154 
-0.09164 -0.360086 1.57582 101 87 104 
-0.0706676 -0.359849 1.57497 96 77 97 
-0.141914 -0.352957 1.54716 255 254 250 
-0.089669 -0.358985 1.57529 157 143 160 
-0.0732497 -0.357723 1.57508 177 159 173 
-0.0905551 -0.356786 1.57556 76 62 77 
-0.164264 -0.34889 1.54796 111 104 98 
-0.16246 -0.348888 1.54756 255 254 248 
-0.145948 -0.34869 1.54694 103 95 92 
-0.0892752 -0.353795 1.57525 94 80 95 
-0.0873523 -0.352697 1.57504 163 150 168 
-0.173437 -0.342234 1.54795 118 113 107 
-0.175602 -0.339143 1.54784 255 252 248 
-0.173956 -0.338809 1.54759 128 118 109 
-0.183133 -0.335726 1.54785 177 169 166 
-0.179629 -0.335258 1.54786 131 115 116 
-0.184133 -0.334129 1.548 138 131 125 
-0.176496 -0.328878 1.54736 144 130 127 
-0.168541 -0.328048 1.54646 170 155 150 
-0.178073 -0.327624 1.54732 121 107 104 
-0.172305 -0.327375 1.54668 117 112 109 
-0.174844 -0.327021 1.54695 112 101 99 
-0.181776 -0.325082 1.54766 128 119 112 
-0.178812 -0.324051 1.54728 129 120 111 
-0.181964 -0.322855 1.54737 249 235 232 
-0.179194 -0.323069 1.54739 159 148 142 
-0.209332 -0.315603 1.54806 136 129 123 
-0.207177 -0.303101 1.54769 134 129 123 
-0.260825 -0.298668 1.57713 165 0 1 
-0.0844463 -0.151386 1.57335 89 61 40 
-0.133129 -0.150364 1.5746 104 73 55 
-0.0728095 -0.146647 1.57317 101 75 58 
-0.0749774 -0.144693 1.57316 92 71 54 
-0.0866032 -0.144014 1.5733 75 43 30 
-0.133859 -0.143912 1.57433 89 58 37 
-0.0624223 -0.143787 1.57251 229 207 194 
-0.121741 -0.143368 1.57435 98 75 61 
-0.134068 -0.142274 1.57455 82 51 30 
-0.0872654 -0.141948 1.57306 223 190 181 
-0.121812 -0.140742 1.57415 83 54 38 
-0.0915825 -0.140392 1.57287 147 78 73 
-0.0694826 -0.140746 1.57239 113 90 74 
-0.0395997 -0.14013 1.57166 158 131 114 
-0.134179 -0.13887 1.5744 85 54 33 
-0.0721026 -0.138063 1.57247 71 54 44 
-0.0381632 -0.136537 1.57145 89 61 47 
-0.0732884 -0.135505 1.5723 235 218 208 
-0.069216 -0.135712 1.57241 77 56 39 
-0.0359823 -0.135559 1.57113 211 183 171 
-0.0875391 -0.135134 1.57314 242 219 205 
-0.043754 -0.134196 1.57142 77 55 44 
-0.07388 -0.133065 1.57255 114 86 74 
-0.0704284 -0.133074 1.57247 165 139 116 
-0.0898211 -0.132559 1.57272 123 78 72 
-0.0859801 -0.132333 1.57301 94 60 48 
-0.0771862 -0.131273 1.57268 213 191 178 
-0.0587996 -0.131362 1.57202 227 219 206 
-0.0839122 -0.13116 1.57294 238 204 194 
-0.0791366 -0.130024 1.57268 130 94 80 
-0.0818219 -0.130215 1.57292 78 48 38 
-0.135269 -0.129485 1.57394 104 72 57 
-0.13027 -0.126905 1.57403 133 100 85 
-0.0631636 -0.124137 1.57207 207 215 200 
-0.0820659 -0.123413 1.57217 255 196 184 
-0.06506 -0.112654 1.57069 100 119 115 
-0.0615787 -0.112118 1.57062 79 98 96 
-0.0603204 -0.110858 1.5711 71 76 79 
-0.0888249 -0.103011 1.57103 246 191 186 
-0.0619343 -0.0808999 1.57007 199 164 132 
-0.0298835 0.0668513 1.57053 139 126 109 
-0.171655 -0.600401 1.50466 93 92 90 
-0.245697 -0.598679 1.57495 133 148 125 
-0.295642 -0.573371 1.56341 121 92 86 
-0.174095 -0.551762 1.57316 65 27 14 
-0.243077 -0.55172 1.57472 154 132 108 
-0.198125 -0.549722 1.57535 113 33 24 
-0.280438 -0.536257 1.57283 19 54 24 
-0.214315 -0.526826 1.57348 205 171 144 
-0.174177 -0.522823 1.57405 76 34 18 
-0.25166 -0.521055 1.57493 21 48 29 
-0.313336 -0.513157 1.57567 30 0 12 
-0.33547 -0.513526 1.57493 158 43 76 
-0.191649 -0.510106 1.57397 107 45 22 
-0.311484 -0.508078 1.57353 167 87 114 
-0.294863 -0.503807 1.57517 72 28 29 
-0.297379 -0.503301 1.57497 170 154 138 
-0.246382 -0.503316 1.57511 215 177 141 
-0.177745 -0.49986 1.57503 133 51 37 
-0.162202 -0.487907 1.57378 145 104 86 
-0.185484 -0.486405 1.57469 191 102 96 
-0.163571 -0.485365 1.57467 61 24 8 
-0.184996 -0.471997 1.57429 188 108 99 
-0.190241 -0.472516 1.57437 141 59 38 
-0.185731 -0.469761 1.57496 109 18 15 
-0.263273 -0.460647 1.55281 29 16 8 
-0.176136 -0.457442 1.57443 182 84 85 
-0.207024 -0.448103 1.57583 134 140 126 
-0.084684 -0.43513 1.52958 110 81 65 
-0.0645306 -0.432225 1.5297 226 200 183 
-0.202389 -0.439449 1.57527 173 117 102 
-0.0529972 -0.426108 1.52902 224 176 154 
-0.131651 -0.431833 1.57562 16 61 40 
-0.0971754 -0.420221 1.53185 123 96 75 
-0.212761 -0.431337 1.57604 159 128 110 
-0.151333 -0.429357 1.57535 18 51 24 
-0.189909 -0.426682 1.57559 73 45 33 
-0.0602255 -0.408737 1.53003 216 187 171 
-0.0556934 -0.406066 1.52987 210 179 159 
-0.23671 -0.414998 1.57637 37 57 22 
-0.240097 -0.412222 1.57655 14 34 0 
-0.212461 -0.396706 1.57592 124 102 91 
-0.177928 -0.397712 1.57589 61 30 10 
-0.219924 -0.396533 1.57581 38 9 1 
-0.222273 -0.396013 1.57658 138 118 109 
-0.172834 -0.391336 1.57489 60 26 0 
-0.208968 -0.391976 1.57803 41 13 0 
-0.133204 -0.373536 1.54709 85 75 73 
-0.196041 -0.379719 1.57603 82 35 7 
-0.136559 -0.370486 1.54742 166 157 152 
-0.119892 -0.366307 1.54808 86 78 75 
-0.0926574 -0.365354 1.57558 97 80 99 
-0.0872834 -0.354446 1.57508 73 59 76 
-0.259782 -0.3027 1.57648 235 101 128 
-0.260322 -0.300155 1.57617 125 0 0 
-0.276511 -0.261159 1.57615 170 119 118 
-1.13215 -0.326413 2.79231 213 179 142 
-0.15041 -0.150332 1.57268 119 97 73 
-0.0798107 -0.146449 1.57304 72 51 34 
-0.0422966 -0.142377 1.57178 202 175 166 
-0.087365 -0.142064 1.57285 244 210 200 
-0.072811 -0.14089 1.57273 229 212 204 
-0.0616065 -0.138761 1.5729 171 147 137 
-0.0883597 -0.138315 1.57308 79 61 49 
-0.0721249 -0.138186 1.57227 71 54 44 
-0.0383955 -0.13639 1.57149 89 61 47 
-0.0925069 -0.134551 1.5733 244 213 195 
-0.0593387 -0.131403 1.57247 227 219 206 
-0.0805478 -0.130901 1.57266 89 69 60 
-0.0774773 -0.126827 1.57273 169 81 69 
-0.145143 -0.118593 1.57075 98 68 44 
-0.0602232 -0.110808 1.57121 71 76 79 
-0.0894504 -0.106851 1.57192 108 68 60 
-0.088494 -0.102847 1.57099 246 191 186 
-1.03033 0.0753437 2.31755 208 175 134 
0.337725 0.138869 1.5578 55 46 37 
0.228753 0.170364 1.56057 124 96 72 
-0.0626156 -0.607765 1.56988 3 28 33 
-0.244353 -0.601923 1.57461 49 23 6 
-0.0276167 -0.562337 1.56969 42 25 18 
-0.174925 -0.557127 1.5734 69 27 5 
-0.29124 -0.54641 1.57292 156 10 31 
-0.291347 -0.545936 1.57436 148 6 22 
-0.177246 -0.538305 1.57361 90 39 20 
-0.176045 -0.53319 1.57333 88 41 21 
-0.175002 -0.527325 1.57286 67 26 8 
-0.214319 -0.52674 1.57373 205 171 144 
-0.207189 -0.525344 1.57386 105 33 21 
-0.215695 -0.516194 1.57455 129 44 37 
-0.162523 -0.511108 1.57349 63 16 0 
-0.191632 -0.510086 1.57403 107 45 22 
-0.311445 -0.506902 1.57707 61 4 23 
-0.305585 -0.498035 1.57751 99 15 48 
-0.157312 -0.490815 1.57425 210 171 142 
-0.18544 -0.48618 1.57532 185 102 94 
-0.178946 -0.483618 1.57493 178 117 99 
-0.187504 -0.468105 1.57475 233 140 135 
-0.189058 -0.459234 1.57694 140 51 47 
-0.156135 -0.453911 1.57513 8 38 30 
-0.087625 -0.440498 1.52961 106 77 59 
-0.167143 -0.446392 1.57482 98 109 101 
-0.202569 -0.439113 1.576 174 115 99 
-0.168135 -0.439386 1.57521 20 38 12 
-0.137255 -0.438492 1.57466 88 114 103 
-0.0663001 -0.423507 1.52933 113 86 65 
-0.212775 -0.431064 1.5767 167 136 118 
-0.0826007 -0.41981 1.53175 236 207 189 
-0.150587 -0.426299 1.57561 131 153 130 
-0.0560742 -0.406823 1.53056 214 186 164 
-0.237672 -0.412944 1.576 146 160 134 
-0.0401987 -0.398783 1.53131 198 166 153 
-0.174995 -0.408575 1.57678 46 18 7 
-0.216703 -0.403214 1.57611 43 22 17 
-0.213231 -0.401961 1.57712 152 132 121 
-0.222071 -0.400433 1.57597 133 113 102 
-0.232281 -0.387355 1.57724 159 123 107 
-0.126791 -0.365486 1.54712 144 134 125 
-0.142098 -0.363378 1.54801 106 102 93 
-0.0774091 -0.363129 1.57563 99 87 99 
-0.172881 -0.327931 1.54685 123 113 111 
-0.997231 -0.298788 2.32239 204 166 129 
-0.0929546 -0.142641 1.57301 129 45 58 
-0.111341 -0.139156 1.57295 107 81 64 
-0.0805568 -0.13089 1.57268 89 69 60 
-0.119208 -0.127966 1.57413 228 200 179 
-0.077534 -0.125705 1.57255 190 77 73 
-0.114184 -0.1255 1.57454 231 202 184 
-0.0830368 -0.122919 1.57108 252 196 183 
-0.0908318 -0.113768 1.57242 255 184 185 
-0.0664329 -0.112261 1.57115 86 102 99 
-0.0986152 -0.108122 1.5726 158 101 90 
-1.02869 -0.153128 2.32136 159 126 93 
-0.118646 0.00831341 1.49019 199 198 203 
-1.05784 0.065786 2.31117 120 87 42 
-1.03007 0.0753518 2.31779 206 171 131 
0.230264 0.154559 1.56123 120 89 69 
0.235333 0.16159 1.56139 126 90 64 
0.310146 0.163249 1.55935 61 35 22 
0.228888 0.170437 1.56067 124 96 72 
0.234611 0.17038 1.561 131 104 87 
-1.03055 0.266902 2.32544 226 188 151 
0.232968 0.187278 1.5605 113 88 57 
0.199938 0.190209 1.56117 57 27 16 
0.341332 0.190859 1.55935 49 41 30 
0.231752 0.198468 1.56035 131 94 67 
0.201322 0.208874 1.561 52 29 13 
0.209651 0.209599 1.56016 54 27 20 
0.25802 0.219805 1.55967 156 118 97 
0.268313 0.22751 1.5574 160 121 90 
0.268416 0.229679 1.55966 171 131 105 
-0.0241324 -0.606371 1.56927 54 5 1 
-0.0406787 -0.576922 1.56999 181 119 98 
-0.0557474 -0.559641 1.57081 183 123 63 
-0.201171 -0.526429 1.5734 184 120 95 
-0.228026 -0.490347 1.57455 21 38 30 
-0.315321 -0.483966 1.57341 223 113 152 
-0.153199 -0.449771 1.57453 92 132 108 
-0.156363 -0.430529 1.57816 130 157 116 
-0.0449797 -0.408235 1.5296 219 190 174 
-0.175104 -0.408549 1.57679 46 18 7 
-0.216781 -0.403218 1.57606 42 21 18 
-0.226533 -0.382772 1.57773 93 50 34 
-0.328327 -0.364665 1.57318 57 21 31 
-0.276337 -0.298519 1.57632 215 90 132 
-0.257815 -0.287098 1.57607 190 74 75 
-0.997258 -0.298845 2.32208 211 173 134 
-0.0609081 -0.130995 1.57112 231 214 194 
-0.0906944 -0.113506 1.57285 252 184 183 
-1.03489 -0.164722 2.31954 107 75 36 
-0.111029 -0.10008 1.57298 238 184 172 
-1.15452 -0.0249674 2.31662 91 63 41 
-1.06678 0.0505962 2.31603 205 177 153 
0.326311 0.165647 1.55929 72 53 39 
0.213777 0.174885 1.5614 50 33 17 
0.140186 0.181838 1.56092 53 27 14 
0.135328 0.18564 1.56893 154 123 105 
0.14418 0.18464 1.56268 169 152 144 
0.232702 0.198794 1.5605 132 91 63 
0.346375 0.219817 1.5584 44 26 12 
0.35206 0.222285 1.5603 124 91 72 
0.325179 0.230032 1.55992 132 96 72 
0.264597 0.265429 1.56034 35 25 16 
-0.0553955 -0.582811 1.57063 73 113 115 
-0.0575781 -0.572282 1.57052 70 105 99 
-0.0558594 -0.559702 1.57056 183 123 63 
-0.168914 -0.522646 1.57497 122 90 77 
-0.239613 -0.516364 1.57588 35 46 30 
-0.157164 -0.47462 1.57766 90 57 50 
-0.160224 -0.453899 1.57504 82 129 109 
-0.161254 -0.421146 1.57311 146 108 85 
-0.181036 -0.402137 1.57515 155 114 92 
-0.250587 -0.303483 1.57693 113 0 15 
-0.281483 -0.297249 1.57865 204 109 141 
0.0719754 -0.195713 1.49137 195 194 199 
0.0923829 -0.179772 1.49366 214 214 216 
0.192234 -0.169949 1.49164 70 67 74 
-0.0643337 -0.137812 1.5697 105 81 71 
0.208953 -0.129145 1.48739 144 139 145 
0.329368 0.18101 1.55816 166 122 87 
0.292947 0.207025 1.55998 155 110 81 
0.349423 0.205222 1.55757 205 187 175 
0.33627 0.214071 1.56125 205 190 183 
0.286437 0.259115 1.55792 120 87 68 
0.320304 0.259666 1.55811 144 100 65 
0.455069 0.43352 1.5217 162 67 3 
0.179036 -0.171569 1.48887 43 43 41 
-1.043 0.0451019 2.3194 197 169 132 
0.189634 0.177585 1.56369 124 87 58 
-0.0649569 -0.628712 1.57021 37 4 0 
-0.00263927 -0.603714 1.55857 85 61 57 
-0.251013 -0.602489 1.57571 66 43 25 
-0.267482 -0.596916 1.57547 34 54 29 
-0.278435 -0.592864 1.57573 100 101 105 
-0.0291161 -0.587024 1.56836 137 81 80 
-0.111345 -0.567892 1.57199 128 46 0 
-0.0856262 -0.564139 1.57269 125 22 3 
-0.131418 -0.562781 1.57221 185 67 79 
-0.0704343 -0.56271 1.57094 137 67 65 
-0.142787 -0.559901 1.57174 83 9 8 
-0.127214 -0.528036 1.57328 29 84 53 
-0.214399 -0.492726 1.57481 127 60 43 
-0.247739 -0.448159 1.54924 151 95 96 
-0.296988 -0.435843 1.5764 111 89 76 
-0.255031 -0.424298 1.55239 136 80 79 
0.0571742 -0.428598 1.57068 147 134 125 
-0.267288 -0.394592 1.55204 170 154 141 
-0.12649 -0.397016 1.57583 144 116 102 
-0.084471 -0.389112 1.57571 139 126 135 
-0.0097807 -0.388899 1.57391 47 7 0 
-0.171174 -0.380292 1.57781 67 23 0 
-0.00437619 -0.377309 1.57117 25 0 0 
-0.0601482 -0.373719 1.57571 165 162 171 
0.00876079 -0.36479 1.56215 121 68 64 
-0.162457 -0.337863 1.54821 255 250 244 
0.0118894 -0.335845 1.562 64 78 63 
-0.197372 -0.324974 1.54869 112 109 102 
-0.197294 -0.313305 1.54846 134 124 115 
-0.238959 -0.295747 1.57854 214 120 146 
0.0800099 -0.215568 1.49784 226 227 231 
0.12916 -0.159861 1.49126 0 0 2 
-0.122757 -0.166499 1.57576 43 14 0 
-0.0440736 -0.165787 1.57333 102 93 88 
-0.105937 -0.163472 1.5743 88 49 32 
-0.0722543 -0.159794 1.57392 119 41 39 
-0.0565359 -0.15412 1.57287 230 201 183 
-0.0430033 -0.153529 1.57194 232 206 189 
-0.210899 -0.114351 1.51117 244 244 244 
0.31855 0.145233 1.55402 75 39 17 
0.185398 0.200058 1.55781 129 93 77 
-0.0393024 -0.620334 1.56871 59 63 66 
-0.245268 -0.620334 1.57486 118 0 0 
-0.0258083 -0.616372 1.56798 119 78 74 
-0.209062 -0.61186 1.57392 174 125 95 
-0.0399383 -0.593037 1.56854 104 73 70 
-0.267563 -0.579643 1.56952 212 218 208 
-0.189601 -0.580515 1.57453 57 20 2 
-0.235778 -0.576146 1.56822 213 223 212 
-0.076701 -0.572526 1.57094 86 95 90 
-0.2604 -0.561145 1.57545 117 125 110 
-0.141554 -0.519391 1.57333 191 162 146 
-0.204539 -0.456152 1.57507 181 119 106 
-0.143484 -0.418926 1.57591 34 45 15 
-0.224835 -0.413113 1.57728 97 80 73 
-0.172721 -0.367911 1.57538 124 46 8 
0.012603 -0.309934 1.56185 17 5 0 
-0.190719 -0.226798 1.56695 255 145 138 
0.0478203 -0.196516 1.4955 103 101 106 
0.188329 -0.155684 1.4901 106 105 110 
-0.107873 -0.148503 1.57379 98 59 44 
0.30148 0.143583 1.55501 73 41 20 
0.191302 0.14599 1.55909 121 95 82 
0.29835 0.260656 1.55245 61 29 8 
0.468382 0.357479 1.52 173 85 0 
-0.0560761 -0.614533 1.56877 10 40 50 
-0.0508546 -0.605475 1.57049 4 31 40 
-0.0683495 -0.586092 1.56982 10 39 47 
-0.0442761 -0.569451 1.56986 135 68 52 
-0.0196698 -0.565847 1.56797 28 18 6 
-0.203465 -0.563511 1.56805 66 13 9 
-0.352069 -0.547931 1.57942 164 56 69 
-0.170503 -0.54146 1.56994 74 28 13 
-0.370623 -0.477302 1.57585 61 13 27 
-0.31164 -0.445403 1.57609 117 47 73 
0.067854 -0.432048 1.56998 108 100 89 
0.0651801 -0.396012 1.56325 66 57 50 
-0.22926 -0.367254 1.57737 66 0 0 
0.0385623 -0.31758 1.53083 202 146 121 
0.016568 -0.222675 1.52335 2 28 29 
0.226471 -0.172217 1.49214 72 63 68 
-0.0879259 -0.166059 1.57521 247 220 211 
-0.0960911 -0.159877 1.57491 251 203 191 
-0.0406504 -0.123094 1.57106 143 168 162 
-0.647642 0.246123 2.32811 198 168 130 
0.294093 0.173979 1.55447 151 116 94 
0.292316 0.193201 1.55448 155 119 95 
0.326774 0.204442 1.55436 171 126 87 
-0.652088 0.335164 2.33201 185 152 117 
0.266564 0.240188 1.55365 151 121 93 
0.464892 0.373275 1.52172 175 78 10 
0.470589 0.382016 1.51831 125 39 0 
-0.523833 0.620083 2.33349 164 130 103 
-0.459143 0.738336 2.32597 77 43 18 
-0.222732 -0.574351 1.56493 90 121 103 
-0.359507 -0.57166 1.57955 223 108 147 
-0.333076 -0.350878 1.57573 73 15 13 
0.0281527 -0.295879 1.54415 56 82 69 
-0.291264 -0.295561 1.57669 209 91 91 
-0.269109 -0.291709 1.57605 206 86 85 
0.0281485 -0.19536 1.49625 158 156 157 
-0.937721 -0.27813 2.3238 116 86 52 
0.202953 -0.159156 1.48739 145 143 148 
0.353744 0.194535 1.55365 163 136 119 
-0.361714 -0.596007 1.57597 227 183 122 
-0.212747 -0.543163 1.57454 143 96 68 
-0.131505 -0.505607 1.5769 90 113 97 
0.0128228 -0.345919 1.56293 25 0 0 
0.0169501 -0.211894 1.52177 41 57 56 
0.334609 0.199422 1.54981 217 200 192 
0.30918 0.219255 1.55131 178 128 79 
0.311807 0.265439 1.55271 135 89 56 
-0.958618 0.595933 2.31289 93 66 37 
0.166248 -0.161514 1.48572 208 208 208 
-0.792517 0.372498 2.31831 88 54 26 
-0.373535 -0.750683 1.52214 164 43 86 
-0.383923 -0.74491 1.52218 160 51 92 
-0.256519 -0.705825 1.56751 147 48 69 
-0.379111 -0.674034 1.56658 208 135 152 
-0.122058 -0.65392 1.49874 229 226 217 
0.120637 -0.596992 2.27082 114 30 56 
-0.0574591 -0.627941 1.56937 165 103 104 
-0.384897 -0.641952 1.56573 134 111 105 
0.0388369 -0.621054 1.51916 133 40 58 
-0.124104 -0.627923 1.50002 237 234 229 
-0.0501111 -0.619967 1.56853 12 63 66 
-0.0300231 -0.617795 1.56782 121 76 73 
-0.0631929 -0.617601 1.56931 90 86 83 
-0.0398683 -0.611988 1.56802 103 113 105 
-0.12135 -0.617913 1.50149 221 220 218 
-0.129224 -0.610457 1.50181 77 80 63 
-0.0723137 -0.599207 1.57074 130 81 84 
-0.0470692 -0.59645 1.56964 105 124 120 
-0.274611 -0.599326 1.57233 146 116 90 
-0.0294953 -0.586999 1.56797 150 95 90 
-0.371724 -0.601603 1.57061 166 58 94 
-0.253652 -0.593052 1.57721 20 80 42 
-0.263736 -0.589387 1.57555 10 47 14 
-0.218983 -0.583017 1.57255 82 98 87 
-0.329383 -0.587515 1.57744 72 11 6 
-0.0787163 -0.573023 1.57131 109 108 103 
-0.400328 -0.58972 1.55091 182 55 100 
-0.204483 -0.575575 1.56576 103 45 33 
-0.256112 -0.574418 1.56543 148 172 140 
-0.07047 -0.562799 1.57012 171 91 92 
-0.082895 -0.561364 1.57189 123 106 98 
-0.0342972 -0.552306 1.57019 50 0 0 
-0.012949 -0.549618 1.56708 116 62 38 
-0.347806 -0.560945 1.57711 158 16 64 
-0.098028 -0.545342 1.5721 134 121 102 
-0.110054 -0.545736 1.57265 143 167 131 
-0.274507 -0.549898 1.57647 67 103 55 
-0.42101 -0.559925 1.52449 212 99 145 
-0.405116 -0.548643 1.54117 155 72 102 
-0.228666 -0.533735 1.57156 91 114 98 
-0.126465 -0.528067 1.57278 21 79 54 
-0.279426 -0.519276 1.5743 21 45 29 
-0.117014 -0.508262 1.56724 21 21 9 
-0.117857 -0.497479 1.56618 21 22 6 
-0.218309 -0.49435 1.5737 159 120 103 
-0.258406 -0.491638 1.57545 21 53 30 
-0.269102 -0.491343 1.57603 25 28 0 
-0.260472 -0.478629 1.577 83 110 91 
-0.00227393 -0.466001 1.56446 124 91 86 
-0.321641 -0.479353 1.5749 125 100 104 
0.0115625 -0.456116 1.55265 18 0 0 
-0.0271206 -0.456039 1.55951 99 86 78 
-0.219626 -0.463077 1.57345 1 14 0 
-0.364107 -0.465285 1.57456 167 50 92 
-0.590109 -0.332225 2.33321 55 8 18 
-0.294677 -0.443016 1.57528 119 116 97 
0.0152951 -0.428612 1.55108 33 0 0 
-0.282835 -0.442951 1.56928 38 12 13 
-0.250204 -0.442082 1.54834 164 106 104 
-0.346723 -0.440719 1.57448 20 5 0 
-0.335917 -0.439307 1.57377 86 18 29 
-0.129318 -0.42265 1.57425 34 90 55 
-0.250709 -0.432087 1.5524 96 49 43 
-0.329646 -0.430914 1.5743 46 17 11 
-0.0272495 -0.420635 1.52968 41 12 4 
-0.00093866 -0.406268 1.56618 51 0 0 
-0.256866 -0.417641 1.5509 206 157 152 
-0.344898 -0.410464 1.57371 49 29 4 
-0.109023 -0.373203 1.57437 106 89 107 
-0.102503 -0.36314 1.57419 183 166 182 
-0.281843 -0.37497 1.55015 184 151 142 
0.0215164 -0.349836 1.54695 157 93 83 
0.0276128 -0.346093 1.53881 68 14 2 
-0.0242206 -0.354349 1.51199 66 12 0 
-0.0308189 -0.348278 1.5058 85 29 4 
-0.351941 -0.348572 1.57676 147 0 0 
-0.0988994 -0.339211 1.54355 156 77 0 
0.00385483 -0.323879 1.56438 36 21 0 
-0.334236 -0.33732 1.57555 135 0 0 
-0.0713654 -0.330845 1.51027 137 45 22 
-0.0994834 -0.320862 1.51978 148 69 36 
-0.0837121 -0.321509 1.50353 135 39 15 
-0.0945331 -0.319993 1.51012 127 37 11 
-0.0978259 -0.312133 1.5002 142 57 26 
-0.112155 -0.310105 1.50918 145 28 18 
-0.101454 -0.305033 1.49284 123 58 18 
-0.117512 -0.301864 1.50215 233 100 101 
-0.126451 -0.298323 1.50578 147 30 23 
-0.15225 -0.291243 1.51409 154 105 88 
-0.136233 -0.292715 1.50419 67 22 0 
-0.16464 -0.286006 1.51788 121 85 69 
-0.132099 -0.289351 1.49399 65 14 0 
-0.148544 -0.285795 1.5027 102 54 18 
-0.144433 -0.280982 1.4947 169 129 104 
-0.241528 -0.256491 1.57484 106 34 45 
0.00656992 -0.236763 1.5401 0 26 32 
-0.267127 -0.241014 1.57368 130 81 76 
-0.264133 -0.221985 1.56254 171 91 92 
-0.259749 -0.215156 1.55647 158 77 76 
-0.254435 -0.198049 1.52977 125 60 68 
0.0558906 -0.1859 1.49199 88 85 94 
-0.245603 -0.186132 1.52459 158 94 95 
-1.06437 0.0479851 2.32049 130 93 49 
0.119339 -0.163327 1.48919 16 17 19 
-0.0289001 -0.142406 1.5694 161 186 180 
-0.0266213 -0.123629 1.56981 156 151 145 
-1.05105 0.133642 2.33257 209 177 138 
-0.0546867 -0.0719899 1.57068 253 221 200 
-0.197475 -0.102958 1.49334 149 147 150 
-0.338333 -0.069935 1.56316 121 111 101 
0.301409 -0.0731796 1.37164 105 103 90 
-0.167344 -0.0352157 1.49413 8 10 9 
-0.090747 -0.0206841 1.50006 223 222 227 
-0.808705 0.349179 2.34126 118 78 43 
-1.03727 0.376731 2.33931 127 89 50 
-1.06993 0.557853 2.34355 231 191 156 
0.230852 0.242894 1.57015 171 127 100 
-0.927992 0.617786 2.34336 179 145 117 
-1.16633 0.600285 2.35301 211 173 128 
-1.09802 0.655146 2.34382 166 138 99 
0.45805 0.395165 1.54867 190 151 82 
-1.16061 0.755949 2.349 199 164 124 
-0.613872 0.875974 2.35102 217 172 133 
-0.136323 -0.712677 1.56632 164 138 111 
-0.668965 -0.715192 2.29784 153 115 79 
-0.137319 -0.695671 1.56798 108 49 69 
-0.0277615 -0.671378 1.56551 151 31 69 
-0.13523 -0.671112 1.49723 231 230 228 
-0.0201152 -0.644946 1.56074 224 100 137 
-0.715949 -0.628115 2.31135 116 85 54 
-0.00292871 -0.630001 1.55631 193 68 112 
-0.088597 -0.632078 1.57003 166 70 72 
-0.620216 -0.601712 2.30444 199 166 125 
-0.459313 -0.626495 1.65592 137 62 67 
-0.0796865 -0.608361 1.56851 53 9 0 
-0.691199 -0.579841 2.30109 118 85 52 
-0.150827 -0.61091 1.50249 110 106 95 
-0.407105 -0.612374 1.54096 163 74 102 
-0.0625515 -0.589625 1.57021 5 41 57 
-0.188344 -0.57541 1.57231 52 15 6 
-0.010958 -0.565824 1.56485 44 0 0 
-0.240795 -0.576925 1.56539 226 228 214 
-0.221795 -0.573633 1.56626 95 128 101 
-0.273638 -0.573824 1.56537 230 226 201 
-0.0439258 -0.560617 1.57176 214 137 111 
-0.223856 -0.561694 1.57369 207 106 98 
-0.650686 -0.491494 2.31291 175 140 118 
0.000558932 -0.5319 1.56066 99 79 80 
-0.25846 -0.543796 1.57547 24 89 55 
-0.635085 -0.468688 2.31264 125 91 64 
-0.342982 -0.542002 1.57584 152 142 132 
-0.645239 -0.456847 2.32326 211 179 138 
-0.340107 -0.511549 1.57563 50 0 15 
-0.729386 -0.424939 2.31236 183 154 114 
-0.369893 -0.498506 1.57282 78 0 10 
-0.65983 -0.39497 2.3238 170 142 105 
-0.77197 -0.371204 2.32159 207 169 124 
-0.686273 -0.365201 2.32148 90 58 33 
-0.318721 -0.469141 1.57459 182 113 134 
-0.923943 -0.361347 2.31564 222 182 146 
-0.777292 -0.323112 2.31766 149 109 73 
-0.875388 -0.308289 2.31434 221 189 151 
-0.113365 -0.389037 1.57397 48 0 0 
-0.895034 -0.276396 2.32027 145 109 75 
-0.302413 -0.38583 1.57637 37 0 1 
-1.04385 -0.252375 2.30755 214 179 139 
-0.167944 -0.364469 1.57824 137 119 133 
-1.0306 -0.219433 2.31839 227 197 161 
-0.85633 -0.185301 2.31963 165 136 104 
-1.02514 -0.188264 2.32338 162 128 80 
-0.325991 -0.328502 1.5755 117 0 0 
-0.306441 -0.300139 1.57474 159 58 50 
-0.961862 -0.0822567 2.32362 199 169 135 
-0.261848 -0.250592 1.57476 147 0 0 
-0.878599 -0.0232478 2.3259 198 154 107 
-0.925381 -0.0265475 2.32239 229 199 163 
-0.839955 -0.0021478 2.32888 146 104 66 
0.0465096 -0.207304 1.49496 104 104 106 
-0.980042 0.00213538 2.32686 214 176 129 
-1.02739 3.03577e-05 2.32562 131 95 63 
-0.11329 -0.195658 1.52348 228 98 136 
-1.07509 0.0188537 2.31567 217 187 153 
0.116176 -0.126556 1.49389 99 97 102 
0.256083 -0.104714 1.48251 165 129 129 
-0.0788737 -0.0980799 1.56935 242 206 194 
-0.926464 0.164312 2.33503 175 148 121 
-0.928328 0.173804 2.33635 188 161 134 
-0.999957 0.196863 2.33579 209 176 135 
0.352352 -0.0922689 1.37718 240 222 210 
0.213126 -0.0183691 1.53243 52 47 41 
0.307263 -0.0643628 1.37359 255 255 243 
-0.17561 -0.0472928 1.4938 15 14 19 
-0.650468 0.361113 2.33205 120 87 52 
-1.19735 0.335329 2.33801 129 103 80 
-0.911598 0.38407 2.33907 107 77 43 
-1.07091 0.424559 2.34583 201 168 117 
-1.16794 0.423906 2.33929 116 80 44 
-1.00508 0.445201 2.34053 147 110 68 
0.255222 0.165844 1.5684 81 52 34 
-1.05127 0.470928 2.35442 133 96 51 
-1.11698 0.471313 2.34809 100 71 37 
0.31339 0.189268 1.56831 93 59 47 
-1.05185 0.505148 2.35223 197 159 112 
-1.13714 0.529361 2.34588 193 160 125 
0.343967 0.236285 1.57494 80 65 68 
-0.999902 0.550033 2.33921 145 107 62 
-1.14423 0.539875 2.33369 216 186 150 
-1.18171 0.5523 2.34226 151 109 67 
-1.09235 0.594035 2.34345 171 136 94 
-1.04419 0.65748 2.34389 232 195 153 
-1.18567 0.70574 2.3451 183 152 123 
-0.534234 0.788503 2.3519 111 77 50 
-1.05015 0.724934 2.34143 157 119 74 
-1.17728 0.720366 2.34665 106 80 45 
-1.00172 0.750903 2.34994 241 206 164 
-1.14562 0.735734 2.34993 222 187 145 
-1.09082 0.741476 2.34759 154 124 86 
-1.1284 0.754448 2.35324 235 204 175 
-1.03477 0.766922 2.35067 151 114 72 
-1.07706 0.76623 2.34983 231 194 149 
-1.05263 0.773502 2.35522 222 193 151 
-1.25058 0.756812 2.34721 74 44 20 
-1.15446 0.778709 2.34985 159 125 90 
-0.320705 -0.750329 1.51952 222 88 141 
-0.605222 -0.743346 2.32062 194 155 122 
-0.644891 -0.735231 2.31226 222 188 151 
-0.60811 -0.715347 2.30459 222 188 143 
-0.717028 -0.705396 2.29413 215 182 141 
-0.608623 -0.698112 2.30672 154 122 83 
0.0214832 -0.68185 1.51908 123 0 53 
-0.645905 -0.68654 2.31132 129 95 58 
-0.711541 -0.649414 2.29594 144 114 80 
-0.137349 -0.658988 1.49867 92 92 84 
-0.146276 -0.652056 1.49965 228 227 223 
-0.625525 -0.632343 2.30198 115 88 59 
-0.856064 -0.635292 2.31101 228 199 157 
-0.125798 -0.639289 1.4993 229 230 224 
-0.805499 -0.617257 2.30497 148 110 71 
-0.419329 -0.646952 1.52304 236 94 152 
-0.699573 -0.598959 2.30623 218 188 154 
-0.419016 -0.629307 1.52334 249 110 139 
-0.142477 -0.61882 1.50054 92 91 89 
-0.830516 -0.586394 2.30233 160 118 78 
-0.732425 -0.578748 2.314 228 191 147 
-0.854728 -0.577769 2.31204 229 190 149 
-0.651516 -0.568203 2.3137 237 205 166 
-0.349852 -0.609665 1.57172 150 37 65 
-0.709315 -0.550974 2.31148 134 94 59 
-0.15469 -0.592094 1.50395 236 237 232 
-0.282175 -0.591331 1.57127 139 135 134 
-0.0267461 -0.576085 1.57068 52 11 5 
-0.693288 -0.539513 2.30384 208 173 133 
-0.266618 -0.582448 1.5668 17 22 16 
-0.0310801 -0.5668 1.57765 45 17 13 
-0.290149 -0.57977 1.57124 199 214 193 
-0.915926 -0.528254 2.30343 212 181 152 
-0.664691 -0.511472 2.30247 194 157 112 
-0.111862 -0.557413 1.57217 229 151 85 
-0.185508 -0.539789 1.57768 149 52 43 
-0.729522 -0.479259 2.3072 197 163 128 
-0.221581 -0.540814 1.56196 16 25 4 
-0.624917 -0.468149 2.31205 86 56 30 
-0.215169 -0.539141 1.57177 56 24 3 
-0.0991155 -0.533222 1.56062 163 155 119 
-0.730863 -0.457359 2.30429 211 178 135 
-0.656349 -0.44554 2.32124 180 147 112 
-0.206693 -0.512012 1.57654 117 50 21 
-0.363492 -0.513002 1.56656 53 0 1 
-0.129685 -0.496341 1.57244 65 72 65 
-0.81131 -0.422432 2.30932 206 174 136 
-0.798443 -0.408762 2.31152 136 102 67 
-0.788278 -0.398518 2.30891 238 214 188 
-0.822107 -0.393606 2.31371 200 165 133 
-0.0107984 -0.470189 1.55453 32 0 3 
-0.126005 -0.472826 1.56495 130 124 112 
-0.99024 -0.39707 2.31883 224 195 155 
-0.305009 -0.475751 1.57412 197 35 95 
-0.848116 -0.372959 2.32585 204 168 132 
0.000613843 -0.452668 1.56288 112 82 80 
-0.943895 -0.371009 2.31431 199 164 124 
-0.669625 -0.354192 2.31796 177 144 111 
-0.909352 -0.367638 2.31173 199 163 127 
-0.696643 -0.346558 2.3176 98 65 34 
-0.27869 -0.457945 1.57016 33 4 0 
-0.809306 -0.353821 2.31406 194 164 136 
-0.728067 -0.345558 2.32063 220 186 149 
-0.840038 -0.336651 2.3245 119 89 51 
-1.03741 -0.341599 2.31688 120 86 58 
-0.367122 -0.443083 1.57468 91 16 20 
-0.982831 -0.333064 2.32025 238 197 151 
-1.01918 -0.329606 2.32264 132 101 70 
-0.972768 -0.319025 2.31709 112 76 40 
-0.83698 -0.30965 2.3223 211 173 134 
-0.875486 -0.302109 2.33833 209 170 127 
-0.3932 -0.428399 1.55526 142 70 94 
-0.770343 -0.295279 2.31017 198 156 114 
-0.972923 -0.300872 2.33119 226 183 140 
-0.933097 -0.298473 2.31322 207 175 137 
-0.732808 -0.272527 2.32457 142 113 71 
-0.979235 -0.280014 2.31711 213 174 133 
-0.729605 -0.253033 2.32363 107 77 53 
-0.954769 -0.262765 2.31437 207 173 135 
-0.279486 -0.39122 1.54808 183 149 140 
-0.887797 -0.251144 2.31644 185 146 117 
-0.000683588 -0.362287 1.5669 33 2 0 
-0.900167 -0.22556 2.31769 215 182 149 
-0.924824 -0.176858 2.32273 212 179 136 
0.023061 -0.313454 1.54951 0 29 3 
-0.989198 -0.161346 2.32794 194 160 123 
-0.962466 -0.159747 2.32573 125 86 55 
-0.268347 -0.306612 1.57651 175 4 46 
-0.929996 -0.147339 2.31998 184 150 113 
-1.04002 -0.148787 2.33336 219 187 148 
-1.01086 -0.136898 2.32421 152 113 72 
-0.923738 -0.127426 2.32515 203 165 126 
-0.851275 -0.118541 2.32269 189 157 119 
-1.00551 -0.127557 2.32552 164 125 82 
-0.906361 -0.107145 2.33048 214 178 142 
-0.883798 -0.106441 2.3198 119 84 54 
-1.0353 -0.101531 2.32499 231 197 160 
-0.976902 -0.0975689 2.32882 128 96 58 
-1.10791 -0.103095 2.33407 209 177 139 
-1.14638 -0.106815 2.32579 198 163 121 
-0.906445 -0.072901 2.32771 224 190 145 
-0.852679 -0.0682941 2.32598 110 81 51 
-0.873991 -0.0665925 2.33195 207 166 122 
-0.923594 -0.0703071 2.32593 218 183 143 
-1.00185 -0.0664781 2.32927 126 91 61 
-0.986997 -0.061684 2.32253 210 176 139 
-1.03012 -0.061697 2.32246 200 170 134 
-0.632693 -0.0278978 2.32776 140 107 66 
-0.974487 -0.0521082 2.32412 213 171 121 
-1.10454 -0.0588145 2.325 187 157 121 
0.0890566 -0.227418 1.50748 67 65 70 
-0.791059 -0.0269515 2.32619 196 162 124 
-0.913286 -0.0303798 2.33287 225 193 155 
-0.851473 -0.00509928 2.32157 205 172 139 
0.0593849 -0.214522 1.49515 240 240 242 
-1.05413 -0.0228082 2.31492 216 186 152 
-1.14035 -0.024476 2.32217 134 102 63 
-0.896869 -0.00188819 2.3322 110 76 41 
-1.00842 -0.00973395 2.32899 217 181 133 
-0.110093 -0.212603 1.52508 65 0 5 
-0.899045 7.58792e-07 2.32239 213 180 149 
-1.17141 -0.0161716 2.33294 222 190 143 
0.0628804 -0.200896 1.49456 114 115 120 
-1.03836 0.00137429 2.32133 210 180 146 
-0.799852 0.0249559 2.33234 175 145 109 
-1.04716 0.0084882 2.31986 201 164 112 
-1.06292 0.0114676 2.31814 132 95 53 
-0.841681 0.0367935 2.33251 186 156 122 
-0.301643 -0.200214 1.54062 39 1 0 
-1.08576 0.0154398 2.31405 112 71 41 
0.069104 -0.184207 1.49331 143 142 147 
-0.922121 0.0469624 2.33575 109 80 50 
-1.18763 0.0203089 2.31761 197 168 134 
-0.940281 0.044069 2.32812 117 82 44 
-0.845999 0.0550735 2.33384 212 173 132 
-0.646788 0.0718039 2.3339 175 139 107 
0.0392791 -0.179388 1.48958 55 50 56 
-0.981481 0.0493297 2.33025 204 167 123 
-1.11247 0.0344263 2.31468 201 167 129 
-1.0223 0.0492472 2.32203 219 181 136 
-0.965233 0.0577741 2.32856 188 159 119 
-0.978961 0.0626523 2.32772 215 174 130 
-1.10941 0.0543464 2.31605 197 165 127 
-1.06132 0.0696468 2.31874 136 101 61 
0.208177 -0.141565 1.48777 161 155 159 
-0.829677 0.0970301 2.33384 113 77 41 
-1.10731 0.070596 2.32089 143 113 77 
-0.985831 0.0846002 2.33292 129 91 55 
-1.04677 0.0800245 2.32872 229 199 163 
-0.783515 0.118876 2.33255 142 104 67 
-1.16473 0.0846632 2.32228 90 63 36 
-1.11657 0.0989816 2.33356 116 82 47 
-1.07624 0.10958 2.33583 211 178 145 
-1.1732 0.102373 2.32941 162 130 89 
-0.978162 0.116657 2.3279 125 88 46 
-1.08715 0.117468 2.33111 193 160 127 
-0.916924 0.133518 2.33535 208 176 137 
-1.1593 0.118058 2.33502 91 62 44 
-1.10504 0.125963 2.33461 221 187 142 
-1.00737 0.130586 2.32983 130 91 50 
-0.124679 -0.0981513 1.57392 156 124 103 
-0.914464 0.160237 2.33408 161 127 89 
-0.939681 0.169954 2.34026 181 149 110 
-0.983252 0.167346 2.32992 197 158 115 
-1.09886 0.167661 2.33916 130 100 64 
-1.14529 0.175248 2.33987 98 71 42 
-1.10838 0.196222 2.33515 203 165 128 
-1.12144 0.201551 2.33457 105 75 51 
-0.98687 0.213719 2.33635 176 143 112 
-0.829169 0.23229 2.33377 115 82 51 
-0.903673 0.258121 2.34206 98 68 34 
-1.00357 0.248117 2.33371 198 163 135 
-0.814145 0.267002 2.33758 99 65 37 
-0.838691 0.277212 2.33708 176 143 108 
-0.927543 0.28021 2.33751 110 80 52 
-0.865487 0.285174 2.33349 187 156 127 
-0.0836464 -0.0280932 1.5072 70 69 65 
0.276527 -0.0393412 1.40687 251 229 215 
-0.855387 0.29211 2.33303 186 151 113 
-0.921357 0.288844 2.33907 178 145 112 
-0.964664 0.286086 2.33725 160 126 89 
-0.927994 0.289897 2.33193 168 138 102 
-0.933479 0.304765 2.33853 193 165 126 
-0.67272 0.329206 2.32262 169 135 98 
-0.653223 0.335741 2.33291 181 146 114 
-0.688004 0.343635 2.34014 161 127 92 
-0.813658 0.334979 2.33342 100 67 34 
-0.68348 0.361123 2.33222 110 76 41 
-1.15045 0.35164 2.3414 119 83 47 
-0.954713 0.372199 2.34149 129 95 58 
-1.10629 0.360219 2.33688 108 77 49 
-0.723444 0.400496 2.33704 184 142 104 
-0.850472 0.398337 2.33916 101 67 32 
-0.835705 0.398598 2.33734 167 131 99 
-1.12726 0.371588 2.34078 191 161 125 
-0.752483 0.408223 2.33784 84 53 32 
-1.19861 0.371694 2.34494 73 46 25 
-0.127888 0.0342792 1.4911 128 127 132 
-1.10558 0.389272 2.34386 213 180 137 
-1.05299 0.412318 2.33866 155 122 79 
-1.11166 0.419599 2.3451 120 89 61 
-1.17751 0.429083 2.34909 188 155 120 
-1.19085 0.428207 2.34559 189 154 112 
-0.986173 0.449375 2.34479 218 179 136 
-0.91918 0.465219 2.3528 109 76 43 
-0.977461 0.457126 2.33335 132 93 52 
-0.934176 0.469203 2.34699 189 159 123 
-1.14704 0.451443 2.34702 144 105 64 
-1.04805 0.465321 2.34627 134 97 53 
-1.16691 0.455352 2.34443 133 99 72 
-1.0761 0.463808 2.33483 121 91 57 
-0.967492 0.490952 2.34511 213 173 137 
-1.19648 0.471091 2.34351 219 184 144 
-1.06486 0.493053 2.34248 203 167 133 
-1.19604 0.482209 2.34377 194 160 122 
-1.14384 0.487561 2.34053 213 179 142 
0.273906 0.20025 1.56551 167 120 92 
-1.167 0.493355 2.34296 169 125 90 
-1.06136 0.506705 2.34441 176 134 94 
-1.26289 0.509983 2.33984 93 67 44 
0.245434 0.225767 1.56968 162 124 103 
0.292929 0.231672 1.56617 165 123 101 
-1.12506 0.540963 2.34324 197 163 126 
-0.959326 0.409306 2.07393 237 199 163 
-0.911126 0.581706 2.34249 122 87 49 
0.21981 0.24167 1.56898 85 58 39 
-1.15989 0.568065 2.34697 225 188 146 
-1.06624 0.589988 2.34456 163 124 85 
-1.26853 0.579973 2.34204 152 125 98 
-0.959422 0.622907 2.35045 126 93 58 
-1.20411 0.600064 2.34392 191 155 123 
-1.17254 0.608405 2.35135 238 198 146 
-0.491312 0.690837 2.34867 100 70 44 
0.33489 0.292807 1.56971 31 10 7 
-1.18855 0.610721 2.34284 220 185 147 
-1.06999 0.652562 2.35037 232 194 147 
-0.522521 0.717236 2.35075 189 155 120 
-1.10267 0.663452 2.35529 160 132 92 
-0.529723 0.72688 2.34865 174 140 102 
-1.22448 0.920546 2.74163 103 65 28 
-0.553637 0.744824 2.35363 120 89 60 
-0.536414 0.751269 2.35323 177 144 109 
-1.07744 0.702666 2.35246 167 134 91 
-1.03697 0.72034 2.35126 210 177 136 
-1.00419 0.719952 2.34415 216 179 135 
-0.470122 0.805419 2.35015 76 45 25 
-0.529198 0.811573 2.3488 187 155 130 
-1.15737 0.746529 2.34183 226 196 162 
-1.17126 0.769875 2.35372 152 113 70 
-0.0477528 0.335664 1.53574 147 60 66 
-1.17383 0.776899 2.34701 113 86 59 
-1.22148 0.77795 2.34748 79 47 22 
-0.559713 0.875719 2.358 210 170 134 
-1.27948 0.79867 2.3558 77 51 24 
-1.28864 0.79639 2.3476 68 44 18 
-0.359056 -0.726065 1.54644 52 0 21 
-0.705081 -0.724589 2.29577 135 100 68 
-0.272879 -0.715553 1.56533 192 67 123 
-0.714442 -0.721254 2.31396 193 164 122 
-0.333001 -0.702129 1.57211 221 87 146 
-0.711739 -0.696057 2.29637 141 107 72 
-0.413245 -0.693303 1.52103 165 52 95 
-0.646322 -0.678174 2.30622 152 117 77 
-0.639716 -0.669437 2.30017 205 169 133 
-0.659123 -0.669061 2.29845 133 101 63 
-0.837911 -0.674325 2.2929 215 183 145 
-0.629668 -0.662079 2.30864 202 168 131 
-0.755883 -0.661721 2.29504 211 170 126 
-0.419809 -0.665354 1.52292 228 93 151 
-0.0576937 -0.640379 1.56876 60 10 21 
-0.665275 -0.618537 2.30503 187 153 116 
0.0261595 -0.624351 1.52073 235 113 152 
-0.811123 -0.606704 2.30941 206 168 123 
-0.666206 -0.595633 2.29758 203 158 116 
0.0259056 -0.614026 1.51751 205 58 100 
-0.200388 -0.613487 1.56941 159 103 76 
-0.628106 -0.575072 2.3033 90 63 34 
-0.781136 -0.577321 2.3124 193 151 113 
-0.67924 -0.573941 2.30449 157 116 72 
-0.63111 -0.571166 2.29452 182 153 121 
-0.744082 -0.570631 2.31296 129 96 61 
-0.418364 -0.613573 1.52417 240 93 147 
-0.700246 -0.561113 2.30412 201 167 132 
-0.672768 -0.553901 2.30833 218 174 127 
-0.620574 -0.548855 2.3086 198 164 126 
-0.652594 -0.546118 2.31043 185 151 116 
-0.712682 -0.541692 2.31342 223 177 128 
-0.908583 -0.540272 2.30795 119 86 55 
-0.741032 -0.496562 2.30966 124 88 56 
-0.366982 -0.553394 1.5698 156 37 75 
-0.768685 -0.470545 2.30852 212 180 141 
-0.811218 -0.47135 2.30266 213 180 145 
-0.415363 -0.549244 1.52543 231 93 145 
-0.777193 -0.464589 2.30531 120 80 44 
-0.10062 -0.525409 1.55368 84 77 49 
-0.979944 -0.470336 2.3142 220 177 132 
-0.897689 -0.456673 2.30652 154 119 89 
-0.68124 -0.438095 2.31163 179 147 109 
-0.253788 -0.507077 1.57558 93 137 101 
-0.630099 -0.417159 2.3148 183 153 119 
-0.710366 -0.400315 2.31944 120 87 52 
-0.667762 -0.380199 2.32203 177 142 102 
-1.02969 -0.394854 2.32654 233 193 144 
-0.986156 -0.39101 2.32882 230 196 159 
-0.837859 -0.381621 2.31311 122 88 60 
-0.760235 -0.363614 2.31606 196 166 132 
-0.840261 -0.366423 2.3147 145 110 78 
-0.739818 -0.349691 2.31148 208 165 112 
-0.412901 -0.460421 1.52508 217 88 145 
-0.708929 -0.280686 2.32542 129 96 61 
-0.355548 -0.417119 1.57494 211 189 165 
-0.691809 -0.274422 2.32757 191 159 121 
-0.905653 -0.272346 2.33353 238 208 172 
-1.01408 -0.282769 2.31039 219 187 138 
-0.346669 -0.398167 1.57994 21 12 3 
-0.911067 -0.252113 2.32374 203 173 145 
-0.899697 -0.250173 2.32056 217 183 145 
-0.957911 -0.247501 2.32146 218 174 135 
-0.285412 -0.355116 1.55252 244 185 215 
-0.801081 -0.198951 2.31409 181 143 104 
0.0248847 -0.326219 1.55266 30 12 0 
-0.998662 -0.187728 2.32872 230 188 146 
-0.992679 -0.182812 2.31998 146 110 76 
-0.27628 -0.329793 1.57577 192 141 146 
-1.0378 -0.161211 2.32363 133 97 65 
-0.942502 -0.137706 2.31785 206 166 130 
-0.978209 -0.134836 2.31848 209 176 135 
-1.07109 -0.138022 2.32713 210 179 151 
-0.967055 -0.125563 2.32651 129 90 47 
-1.0481 -0.119793 2.33154 223 185 136 
-0.801021 -0.0818634 2.33007 99 66 35 
-0.885522 -0.084045 2.31416 100 67 32 
-0.957493 -0.0738398 2.33435 136 102 67 
-1.11079 -0.082956 2.33415 114 81 48 
-0.849542 -0.0565072 2.32261 130 101 71 
-0.937734 -0.0475038 2.32295 190 155 117 
0.0383062 -0.234323 1.51675 169 167 168 
-0.906213 -0.0430421 2.3267 215 180 138 
-0.995508 -0.0394876 2.32493 218 179 140 
-0.00464121 -0.220966 1.53388 65 104 103 
-1.04292 -0.0353774 2.33269 236 206 168 
-0.851213 -0.0130426 2.33271 187 153 118 
-0.35989 -0.23322 1.55715 43 1 5 
-1.07882 -0.025883 2.32545 237 204 169 
-0.998445 -0.00940249 2.30842 136 104 66 
-1.0656 -0.00407497 2.32571 132 97 57 
-0.905827 0.0428552 2.33061 154 116 77 
-1.04421 0.0538109 2.32071 209 178 132 
-0.902113 0.087433 2.33255 214 179 137 
-0.886542 0.0874468 2.33297 199 169 131 
-1.14232 0.0837784 2.33384 135 92 57 
-0.920412 0.114487 2.33727 114 85 53 
-1.15142 0.107054 2.32672 173 142 113 
-1.08953 0.14421 2.34171 226 197 157 
-0.969316 0.221524 2.33689 106 72 44 
0.266032 -0.0718169 1.36786 106 97 88 
-1.05393 0.260323 2.33984 200 157 125 
-0.889946 0.27275 2.33673 177 145 106 
-1.0788 0.261562 2.32814 107 74 39 
-0.870248 0.290121 2.34673 187 156 127 
-0.723646 0.314207 2.33495 132 98 60 
-0.892831 0.319276 2.33175 110 80 42 
-0.0837621 -0.00348932 1.4967 170 169 174 
-0.892428 0.331161 2.33644 186 151 119 
-0.124718 -0.00443386 1.48934 156 156 158 
-0.715925 0.388614 2.34734 174 139 107 
-0.881566 0.366354 2.336 116 87 53 
-0.82773 0.372895 2.32838 58 34 10 
-0.725432 0.405588 2.34473 185 143 105 
-0.820712 0.402491 2.34156 82 47 15 
-0.966227 0.424879 2.33679 208 174 136 
-1.26957 0.412569 2.35091 60 32 18 
-1.14806 0.417141 2.33976 215 179 127 
-1.16403 0.429644 2.34727 208 169 128 
-1.04502 0.447203 2.34538 123 88 50 
-0.891636 0.459948 2.34359 146 108 69 
-1.22245 0.458315 2.3454 123 95 73 
-1.08763 0.471647 2.34186 204 174 140 
0.198001 0.190295 1.57567 74 56 44 
-1.24508 0.487638 2.34499 144 120 94 
-1.057 0.499045 2.3336 175 132 97 
0.188256 0.221632 1.57022 151 116 88 
0.260412 0.239506 1.56745 97 56 36 
0.327998 0.25352 1.57066 127 86 66 
-0.931885 0.584552 2.34802 227 192 150 
-1.19604 0.551136 2.33239 189 156 123 
-1.19335 0.578683 2.35022 104 76 54 
-1.17816 0.637037 2.34139 220 182 145 
-1.31761 0.628028 2.33808 150 126 88 
-1.32567 0.646302 2.34515 64 38 15 
-1.36064 0.640859 2.33928 71 41 15 
-0.992671 0.692843 2.34035 225 186 145 
-1.00275 0.716617 2.35318 138 99 60 
-1.01581 0.714879 2.3439 135 94 50 
-1.37147 0.680707 2.34579 138 112 85 
-1.15103 0.724079 2.34209 206 176 142 
-1.19042 0.740082 2.34365 168 133 95 
-1.21301 0.757116 2.35099 151 123 99 
-1.1907 0.784718 2.34819 172 133 100 
-1.27048 0.786524 2.34711 139 114 92 
-0.378609 -0.7271 1.52924 186 76 115 
-0.088894 -0.705703 1.56789 222 88 147 
-0.739329 -0.688001 2.30506 221 179 137 
-0.75415 -0.664813 2.31222 133 100 65 
-0.660062 -0.654296 2.31051 221 187 152 
-0.823104 -0.656082 2.28995 131 96 56 
-0.641804 -0.645361 2.30192 203 166 139 
-0.658708 -0.611878 2.31097 119 85 57 
-0.648063 -0.608924 2.31431 218 185 142 
-0.765693 -0.600798 2.3082 142 106 72 
-0.389837 -0.625288 1.56057 215 78 134 
-0.166832 -0.617556 1.50204 236 235 231 
-0.660152 -0.561061 2.31116 191 162 120 
-0.640113 -0.491588 2.31014 210 172 135 
-0.0239997 -0.540881 1.5598 128 111 85 
-0.673569 -0.47814 2.3099 180 149 120 
-0.61922 -0.475777 2.30429 181 147 110 
-0.698732 -0.467788 2.31625 202 172 144 
0.0402176 -0.522796 1.54721 166 94 80 
-0.396972 -0.535319 1.55499 108 32 60 
0.0104273 -0.504892 1.55323 132 84 72 
-0.415995 -0.526695 1.52762 229 86 148 
-0.681119 -0.41795 2.30881 108 78 50 
-0.22688 -0.500953 1.56593 32 21 3 
-0.0532611 -0.490594 1.54968 165 160 118 
-0.961054 -0.415093 2.31257 218 178 127 
-0.897081 -0.395187 2.31771 219 185 139 
-0.215642 -0.47484 1.58153 44 17 0 
-0.27644 -0.470867 1.57184 16 19 12 
-0.109544 -0.460168 1.55166 15 23 10 
-0.850253 -0.360246 2.31372 211 181 143 
0.0045624 -0.441947 1.56057 133 73 65 
-0.650507 -0.338749 2.33356 117 83 55 
-0.30522 -0.442506 1.57712 224 107 149 
-0.357816 -0.439712 1.57643 37 24 8 
-0.301309 -0.432452 1.57797 231 156 135 
0.021741 -0.413857 1.54328 125 72 68 
-1.04686 -0.312004 2.31919 134 99 67 
-0.69778 -0.279232 2.33784 96 64 39 
-0.654074 -0.268955 2.32664 180 147 112 
-0.68365 -0.169718 2.32764 104 75 41 
-1.06669 -0.148921 2.33201 92 64 40 
-1.00777 -0.126983 2.33937 215 180 140 
-0.24136 -0.234701 1.58399 62 12 13 
-0.893959 -0.0437556 2.31596 208 169 126 
-1.15418 -0.0490805 2.33019 207 169 132 
-0.874005 -0.00794174 2.3324 210 167 122 
-1.09146 -0.020902 2.32798 138 108 74 
-0.749244 0.00817304 2.33242 182 145 103 
-1.14348 -0.0149109 2.31708 184 152 111 
0.0307699 -0.205983 1.49585 87 85 88 
-0.845772 0.0211836 2.33018 114 80 52 
-0.773484 0.032578 2.31856 192 152 101 
-0.982904 0.0240609 2.32853 116 83 48 
-0.343269 -0.203407 1.54218 193 43 29 
-1.14549 0.0185624 2.32124 225 183 135 
-0.823552 0.0492629 2.32705 118 84 49 
-1.12981 0.0195161 2.31049 139 104 66 
-0.636008 0.0713049 2.33329 115 79 43 
-0.345936 -0.191216 1.53205 200 87 83 
0.216046 -0.145061 1.47976 120 115 121 
-1.13524 0.0741664 2.32047 134 98 66 
-1.01712 0.111802 2.33134 213 173 121 
