ply                 
format ascii 1.0    
element vertex 459
property float x    
property float y    
property float z    
property uchar red  
property uchar green
property uchar blue 
end_header          
-0.239501 -0.625202 1.55472 189 65 67 
-0.167275 -0.596929 1.48545 177 178 172 
-0.0358009 -0.601896 1.54815 127 109 97 
-0.206528 -0.593988 1.55303 46 25 8 
-0.227294 -0.592554 1.5537 117 148 104 
-0.211095 -0.591928 1.55343 118 133 102 
-0.206194 -0.591372 1.55336 143 116 95 
-0.249853 -0.588561 1.55351 61 88 71 
-0.300273 -0.578065 1.54791 250 248 233 
-0.06558 -0.576904 1.55008 118 77 85 
-0.329467 -0.573454 1.55536 220 109 126 
-0.334117 -0.570445 1.55514 128 14 40 
-0.0968838 -0.564599 1.55077 171 104 59 
-0.173591 -0.55757 1.55291 73 36 18 
-0.235146 -0.554997 1.55364 156 118 81 
-0.235301 -0.553411 1.55357 205 174 143 
-0.230106 -0.552815 1.55395 95 84 52 
-0.195922 -0.552415 1.55347 124 51 32 
-0.250589 -0.551636 1.55436 55 65 38 
-0.248585 -0.551662 1.55459 114 127 109 
-0.246513 -0.550861 1.55426 28 48 21 
-0.168221 -0.549388 1.55305 89 46 37 
-0.1752 -0.547161 1.55278 71 30 10 
-0.167631 -0.544842 1.55279 151 109 97 
-0.164903 -0.538944 1.55372 66 23 7 
-0.263117 -0.535179 1.5554 20 63 33 
-0.190166 -0.534386 1.55324 92 23 8 
-0.162709 -0.533265 1.55315 91 44 34 
-0.247366 -0.534115 1.55468 74 101 86 
-0.244115 -0.533376 1.55555 51 72 53 
-0.164286 -0.531478 1.5528 133 91 79 
-0.163424 -0.523914 1.55304 145 109 95 
-0.161016 -0.522848 1.55321 90 49 29 
-0.191224 -0.520311 1.55317 105 57 21 
-0.21603 -0.518588 1.55396 169 111 107 
-0.157914 -0.513672 1.55357 49 1 0 
-0.177974 -0.513173 1.55413 193 137 112 
-0.157053 -0.511066 1.55356 64 19 0 
-0.181397 -0.508265 1.55327 173 105 82 
-0.239448 -0.507538 1.55458 148 107 79 
-0.157516 -0.506037 1.55386 150 113 95 
-0.155635 -0.504313 1.55356 74 33 15 
-0.163753 -0.503928 1.55373 54 21 2 
-0.172593 -0.501612 1.55447 124 49 30 
-0.158375 -0.501254 1.55322 137 110 93 
-0.155982 -0.499734 1.55382 126 95 77 
-0.28802 -0.500006 1.55579 180 131 150 
-0.159384 -0.498759 1.55382 120 85 65 
-0.158155 -0.497399 1.55457 65 31 6 
-0.152736 -0.495096 1.55296 60 19 0 
-0.156583 -0.49239 1.55395 73 32 4 
-0.151473 -0.492088 1.55346 198 156 131 
-0.187435 -0.491601 1.55496 133 57 44 
-0.158221 -0.490031 1.55398 143 102 84 
-0.159556 -0.488935 1.55398 68 25 9 
-0.157961 -0.488977 1.55347 137 98 81 
-0.157174 -0.486265 1.55433 144 111 96 
-0.151268 -0.486218 1.55394 69 31 12 
-0.151826 -0.48414 1.55416 143 107 93 
-0.156326 -0.477503 1.55407 64 30 20 
-0.151723 -0.476717 1.55356 117 84 79 
-0.218313 -0.476085 1.55575 129 158 112 
-0.184597 -0.474568 1.55496 130 44 29 
-0.179759 -0.473993 1.55439 188 108 99 
-0.131047 -0.461993 1.55414 148 169 138 
-0.086758 -0.444852 1.50943 136 110 93 
-0.0862542 -0.443071 1.51012 223 196 179 
-0.088245 -0.441973 1.51001 122 96 81 
-0.207021 -0.453706 1.55497 134 150 139 
-0.159391 -0.454057 1.55495 99 131 108 
-0.0768768 -0.440698 1.51009 172 146 129 
-0.146885 -0.452292 1.55454 25 58 39 
-0.0894357 -0.439322 1.50972 154 126 112 
-0.0754433 -0.439318 1.50982 126 97 83 
-0.161647 -0.450361 1.55502 76 86 77 
-0.141778 -0.450528 1.55489 99 112 105 
-0.143041 -0.449543 1.55495 17 44 29 
-0.0692449 -0.436412 1.51008 136 108 94 
-0.0910397 -0.435958 1.51028 130 98 85 
-0.0687487 -0.434929 1.51014 225 198 179 
-0.163248 -0.447413 1.55497 87 100 91 
-0.0896077 -0.434466 1.5096 231 199 186 
-0.224993 -0.447142 1.55562 76 91 84 
-0.137211 -0.446093 1.55486 79 96 88 
-0.077478 -0.433714 1.50985 135 106 88 
-0.0638194 -0.43385 1.50997 122 95 76 
-0.0653351 -0.433323 1.50982 231 204 185 
-0.164965 -0.444459 1.5551 80 100 89 
-0.0703697 -0.431559 1.50979 229 200 182 
-0.138098 -0.443825 1.55428 16 49 32 
-0.0792422 -0.431349 1.51013 120 92 70 
-0.076327 -0.430972 1.50976 117 89 68 
-0.0670352 -0.429962 1.50943 226 199 180 
-0.0600852 -0.42976 1.50998 222 194 180 
-0.175708 -0.441278 1.5545 99 30 25 
-0.133872 -0.440049 1.55432 29 67 52 
-0.0590655 -0.427758 1.5094 110 81 67 
-0.0765492 -0.426285 1.50988 227 198 180 
-0.173891 -0.438378 1.55576 49 22 5 
-0.0589635 -0.425163 1.50916 235 207 186 
-0.0910889 -0.424302 1.51063 226 199 178 
-0.0718354 -0.423888 1.50992 120 93 74 
-0.207295 -0.434032 1.55608 123 97 82 
-0.063439 -0.421603 1.5103 117 91 74 
-0.0724201 -0.420975 1.51027 231 202 184 
-0.0704379 -0.420774 1.51111 126 100 85 
-0.212571 -0.433 1.55687 21 38 19 
-0.178001 -0.432756 1.55534 73 43 19 
-0.134799 -0.431117 1.55511 28 75 55 
-0.0831292 -0.417791 1.51134 229 198 180 
-0.0617855 -0.416943 1.51065 195 167 156 
-0.186188 -0.428252 1.5556 121 93 81 
-0.172787 -0.428588 1.55568 161 126 107 
-0.163125 -0.42788 1.55518 48 18 7 
-0.0650008 -0.415876 1.51059 205 175 164 
-0.0637849 -0.415861 1.51085 119 89 79 
-0.210252 -0.427434 1.55597 98 89 74 
-0.0569598 -0.414372 1.51016 125 96 80 
-0.214726 -0.426401 1.55611 99 89 80 
-0.176729 -0.425844 1.5557 44 11 0 
-0.169854 -0.42625 1.55538 59 25 15 
-0.180237 -0.424235 1.55533 72 42 31 
-0.0464964 -0.411938 1.51 212 185 168 
-0.168507 -0.423507 1.55555 46 17 9 
-0.176094 -0.423456 1.55624 73 31 6 
-0.17289 -0.422475 1.55543 41 5 0 
-0.211458 -0.422518 1.55609 42 14 3 
-0.209867 -0.422515 1.5562 161 134 123 
-0.0468182 -0.409768 1.51 107 80 61 
-0.16731 -0.4204 1.55554 58 29 21 
-0.0523566 -0.408606 1.51067 219 188 168 
-0.171509 -0.419434 1.55543 134 100 91 
-0.187489 -0.418131 1.5557 125 95 84 
-0.230963 -0.417823 1.55678 37 57 22 
-0.0377559 -0.405174 1.5102 220 191 175 
-0.186268 -0.416579 1.55627 72 44 30 
-0.172472 -0.416187 1.55635 53 21 6 
-0.162722 -0.415853 1.55552 54 31 15 
-0.234198 -0.415377 1.55634 14 34 0 
-0.16488 -0.414771 1.55583 41 13 1 
-0.208655 -0.413513 1.55632 122 104 90 
-0.125573 -0.412744 1.55513 37 55 33 
-0.209314 -0.41176 1.55633 30 7 0 
-0.240358 -0.410561 1.55688 137 153 117 
-0.207485 -0.407244 1.55654 152 127 120 
-0.241805 -0.407061 1.55644 183 129 95 
-0.208697 -0.406096 1.55587 24 1 0 
-0.207216 -0.404705 1.55636 134 114 103 
-0.214238 -0.40135 1.55643 147 119 108 
-0.140322 -0.394943 1.5556 47 9 0 
-0.168044 -0.394497 1.55526 92 57 27 
0.0798808 -0.389901 1.54421 173 155 141 
0.0780527 -0.389624 1.54453 130 114 99 
-0.157543 -0.391685 1.55552 32 0 0 
-0.226642 -0.391125 1.5565 142 110 99 
-0.153193 -0.388884 1.55583 61 24 6 
-0.206355 -0.38852 1.55651 182 144 125 
-0.0911195 -0.386271 1.55493 120 94 93 
-0.223203 -0.385679 1.55544 76 38 25 
-0.0945418 -0.385735 1.55519 110 84 85 
-0.0892241 -0.385527 1.55506 189 172 178 
-0.18189 -0.384908 1.55608 71 25 1 
-0.223489 -0.385 1.55684 25 0 0 
-0.17667 -0.384651 1.55639 194 140 114 
-0.226763 -0.383152 1.55647 57 25 2 
-0.0933535 -0.382681 1.55507 89 71 83 
-0.0793121 -0.382431 1.55513 125 111 124 
-0.117936 -0.372767 1.52803 110 100 98 
-0.134075 -0.37246 1.52741 237 228 221 
-0.11529 -0.371223 1.52812 255 242 239 
-0.0862715 -0.378179 1.55487 174 164 173 
-0.136747 -0.370328 1.52744 134 125 118 
-0.114359 -0.370342 1.5279 143 132 126 
-0.0764609 -0.376663 1.55504 185 171 184 
-0.121125 -0.367656 1.52748 129 119 117 
-0.123116 -0.366426 1.52748 123 112 106 
-0.212083 -0.3728 1.55677 119 55 17 
-0.127737 -0.365525 1.52724 120 113 103 
-0.0761943 -0.371103 1.55473 81 67 84 
-0.133725 -0.359881 1.52742 255 255 246 
-0.357198 -0.364653 1.55616 107 0 0 
-0.133088 -0.358176 1.5276 165 160 154 
-0.0879206 -0.363882 1.55573 101 87 104 
-0.0672445 -0.363638 1.55484 96 77 97 
-0.137546 -0.356848 1.52747 255 254 250 
-0.0859797 -0.362796 1.5552 157 143 160 
-0.0697923 -0.361545 1.55496 177 159 173 
-0.086855 -0.36063 1.55548 76 62 77 
-0.159572 -0.352854 1.52831 111 104 98 
-0.157796 -0.35285 1.52791 255 254 248 
-0.141527 -0.352647 1.52726 103 95 92 
-0.0855969 -0.357682 1.55517 94 80 95 
-0.0837026 -0.356599 1.55497 163 150 168 
-0.16862 -0.346302 1.52834 118 113 107 
-0.170757 -0.343258 1.52824 255 252 248 
-0.169137 -0.342928 1.52799 128 118 109 
-0.178183 -0.339896 1.52827 177 169 166 
-0.174731 -0.339433 1.52827 131 115 116 
-0.17917 -0.338323 1.52842 138 131 125 
-0.171654 -0.333147 1.52779 144 130 127 
-0.163818 -0.332325 1.52688 170 155 150 
-0.17321 -0.331912 1.52775 121 107 104 
-0.167528 -0.331663 1.52711 117 112 109 
-0.170029 -0.331316 1.52738 112 101 99 
-0.176861 -0.32941 1.5281 128 119 112 
-0.173943 -0.328393 1.52772 129 120 111 
-0.17705 -0.327217 1.52782 249 235 232 
-0.17432 -0.327426 1.52783 159 148 142 
-0.204026 -0.320087 1.52858 136 129 123 
-0.201922 -0.307768 1.52823 134 129 123 
-0.254773 -0.303444 1.55749 165 0 1 
-0.0810487 -0.158085 1.55366 89 61 40 
-0.129083 -0.157113 1.555 104 73 55 
-0.0695707 -0.1534 1.55346 101 75 58 
-0.0717121 -0.151473 1.55346 92 71 54 
-0.0831851 -0.150812 1.55363 75 43 30 
-0.129811 -0.150748 1.55475 89 58 37 
-0.0593245 -0.15057 1.55279 229 207 194 
-0.117855 -0.150201 1.55474 98 75 61 
-0.130019 -0.149131 1.55497 82 51 30 
-0.0838413 -0.148774 1.55339 223 190 181 
-0.117929 -0.14761 1.55455 83 54 38 
-0.0881035 -0.147242 1.55321 147 78 73 
-0.0662956 -0.147575 1.55269 113 90 74 
-0.036685 -0.146945 1.55188 158 131 114 
-0.130133 -0.145772 1.55483 85 54 33 
-0.0688836 -0.144929 1.55278 71 54 44 
-0.0353922 -0.143398 1.55169 89 61 47 
-0.0700569 -0.142406 1.55262 235 218 208 
-0.0660375 -0.142607 1.55271 77 56 39 
-0.0332417 -0.142432 1.55137 211 183 171 
-0.0841184 -0.142051 1.55348 242 219 205 
-0.0409125 -0.141093 1.55168 77 55 44 
-0.0706426 -0.139999 1.55286 114 86 74 
-0.0672363 -0.140005 1.55279 165 139 116 
-0.0863741 -0.139512 1.55308 123 78 72 
-0.0825832 -0.139285 1.55335 94 60 48 
-0.0739069 -0.138233 1.553 213 191 178 
-0.0557626 -0.138307 1.55231 227 219 206 
-0.0805439 -0.138126 1.55328 238 204 194 
-0.0758329 -0.137001 1.55301 130 94 80 
-0.0784821 -0.137192 1.55326 78 48 38 
-0.131221 -0.136513 1.55439 104 72 57 
-0.126292 -0.133962 1.55447 133 100 85 
-0.0600766 -0.13118 1.55238 207 215 200 
-0.078732 -0.130481 1.55252 255 196 184 
-0.0619636 -0.119851 1.55103 100 119 115 
-0.0585283 -0.119319 1.55095 79 98 96 
-0.0572861 -0.118074 1.55143 71 76 79 
-0.085427 -0.110353 1.55143 246 191 186 
-0.0589114 -0.0885067 1.55045 199 164 132 
-0.0274037 0.0574288 1.55092 139 126 109 
-0.166559 -0.600114 1.48477 93 92 90 
-0.239323 -0.598709 1.55432 133 148 125 
-0.28851 -0.573787 1.54309 121 92 86 
-0.16893 -0.552582 1.55265 65 27 14 
-0.236833 -0.552548 1.55428 154 132 108 
-0.192589 -0.550584 1.55485 113 33 24 
-0.273631 -0.537338 1.55252 19 54 24 
-0.208566 -0.528061 1.5531 205 171 144 
-0.169052 -0.524122 1.55363 76 34 18 
-0.245338 -0.522393 1.55462 21 48 29 
-0.306054 -0.514633 1.55547 30 0 12 
-0.327833 -0.514995 1.55477 158 43 76 
-0.186276 -0.511613 1.55362 107 45 22 
-0.304242 -0.509631 1.55337 167 87 114 
-0.287895 -0.505433 1.55498 72 28 29 
-0.290372 -0.504936 1.55479 170 154 138 
-0.240175 -0.504945 1.55485 215 177 141 
-0.172597 -0.501535 1.55468 133 51 37 
-0.157308 -0.489767 1.55346 145 104 86 
-0.180239 -0.488296 1.5544 191 102 96 
-0.158659 -0.487269 1.55435 61 24 8 
-0.179781 -0.474116 1.55405 188 108 99 
-0.184946 -0.474628 1.55414 141 59 38 
-0.180507 -0.471916 1.55473 109 18 15 
-0.256891 -0.46291 1.53296 29 16 8 
-0.171075 -0.459789 1.55422 182 84 85 
-0.201512 -0.450607 1.55568 134 140 126 
-0.0811087 -0.437701 1.50976 110 81 65 
-0.0612584 -0.434836 1.50985 226 200 183 
-0.196961 -0.442086 1.55515 173 117 102 
-0.0499031 -0.42881 1.50918 224 176 154 
-0.127278 -0.434567 1.55541 16 61 40 
-0.093423 -0.423036 1.51207 123 96 75 
-0.20719 -0.434104 1.55596 159 128 110 
-0.146677 -0.432135 1.55517 18 51 24 
-0.184687 -0.429513 1.55549 73 45 33 
-0.0570368 -0.411715 1.51024 216 187 171 
-0.0525742 -0.409083 1.51007 210 179 159 
-0.230808 -0.418025 1.55637 37 57 22 
-0.234149 -0.415294 1.55656 14 34 0 
-0.206951 -0.400005 1.55594 124 102 91 
-0.172924 -0.400983 1.55585 61 30 10 
-0.214304 -0.399837 1.55585 38 9 1 
-0.216618 -0.399327 1.55661 138 118 109 
-0.167916 -0.3947 1.55486 60 26 0 
-0.203515 -0.395349 1.55804 41 13 0 
-0.128938 -0.377111 1.52733 85 75 73 
-0.190799 -0.383269 1.55607 82 35 7 
-0.132247 -0.37411 1.52768 166 157 152 
-0.115827 -0.369988 1.5283 86 78 75 
-0.0889188 -0.369073 1.55547 97 80 99 
-0.0836329 -0.358322 1.555 73 59 76 
-0.253738 -0.307417 1.55683 235 101 128 
-0.254275 -0.304909 1.55653 125 0 0 
-0.270302 -0.266483 1.55663 170 119 118 
-1.1248 -0.332217 2.77883 213 179 142 
-0.146135 -0.157097 1.55315 119 97 73 
-0.0764802 -0.15321 1.55335 72 51 34 
-0.0394656 -0.149164 1.55202 202 175 166 
-0.08394 -0.148889 1.55318 244 210 200 
-0.0695792 -0.147719 1.55304 229 212 204 
-0.0585231 -0.14561 1.55318 171 147 137 
-0.0849249 -0.145191 1.55342 79 61 49 
-0.0689061 -0.145051 1.55258 71 54 44 
-0.0356216 -0.143253 1.55173 89 61 47 
-0.0890209 -0.141478 1.55366 244 213 195 
-0.0562933 -0.138347 1.55276 227 219 206 
-0.0772248 -0.137868 1.553 89 69 60 
-0.0741985 -0.133845 1.55306 169 81 69 
-0.140983 -0.125778 1.55126 98 68 44 
-0.05719 -0.118024 1.55153 71 76 79 
-0.0860378 -0.114141 1.55231 108 68 60 
-0.0851006 -0.11019 1.5514 246 191 186 
-1.02078 0.0678732 2.30004 208 175 134 
0.335747 0.128896 1.53725 55 46 37 
0.228033 0.159925 1.54031 124 96 72 
-0.0591047 -0.607633 1.54903 3 28 33 
-0.237996 -0.601895 1.55398 49 23 6 
-0.0246645 -0.562964 1.54896 42 25 18 
-0.16974 -0.557858 1.55287 69 27 5 
-0.284239 -0.547321 1.55259 156 10 31 
-0.284346 -0.546861 1.55402 148 6 22 
-0.172052 -0.539349 1.55315 90 39 20 
-0.170877 -0.534317 1.55288 88 41 21 
-0.169859 -0.528547 1.55244 67 26 8 
-0.20857 -0.527978 1.55335 205 171 144 
-0.201553 -0.526604 1.55348 105 33 21 
-0.209942 -0.517607 1.55421 129 44 37 
-0.157593 -0.512594 1.5531 63 16 0 
-0.186259 -0.511594 1.55368 107 45 22 
-0.304208 -0.508485 1.55687 61 4 23 
-0.29846 -0.499764 1.55733 99 15 48 
-0.152487 -0.492629 1.55391 210 171 142 
-0.180196 -0.488076 1.55502 185 102 94 
-0.173804 -0.485552 1.55464 178 117 99 
-0.182256 -0.470287 1.55452 233 140 135 
-0.183797 -0.461561 1.55672 140 51 47 
-0.151376 -0.45631 1.5549 8 38 30 
-0.0840004 -0.442984 1.50978 106 77 59 
-0.162231 -0.44891 1.55462 98 109 101 
-0.197138 -0.441757 1.55588 174 115 99 
-0.163217 -0.442014 1.55504 20 38 12 
-0.132794 -0.441123 1.55445 88 114 103 
-0.0630105 -0.426255 1.50952 113 86 65 
-0.207204 -0.433836 1.55661 167 136 118 
-0.079066 -0.422626 1.51195 236 207 189 
-0.145945 -0.429124 1.55544 131 153 130 
-0.0529466 -0.40983 1.51076 214 186 164 
-0.231759 -0.416003 1.55602 146 160 134 
-0.0373076 -0.401911 1.51149 198 166 153 
-0.170017 -0.411682 1.55669 46 18 7 
-0.211119 -0.406415 1.55612 43 22 17 
-0.2077 -0.405182 1.55711 152 132 121 
-0.216412 -0.403678 1.55599 133 113 102 
-0.226492 -0.390805 1.55731 159 123 107 
-0.122628 -0.369181 1.52736 144 134 125 
-0.137712 -0.367113 1.52828 106 102 93 
-0.0738869 -0.366875 1.5555 99 87 99 
-0.168094 -0.332212 1.52728 123 113 111 
-0.986019 -0.304299 2.30268 204 166 129 
-0.0894547 -0.149463 1.55336 129 45 58 
-0.107602 -0.146038 1.55334 107 81 64 
-0.0772336 -0.137858 1.55301 89 69 60 
-0.115374 -0.135 1.55455 228 200 179 
-0.074256 -0.132738 1.55289 190 77 73 
-0.110419 -0.132561 1.55494 231 202 184 
-0.0796935 -0.129996 1.55144 252 196 183 
-0.0873923 -0.120968 1.5528 255 184 185 
-0.0633175 -0.119463 1.55149 86 102 99 
-0.0950794 -0.115402 1.55301 158 101 90 
-1.01802 -0.159533 2.3026 159 126 93 
-0.11517 -0.000745402 1.47154 199 198 203 
-1.04799 0.0582949 2.29356 120 87 42 
-1.02052 0.0678809 2.30027 206 171 131 
0.229536 0.144312 1.54097 120 89 69 
0.234546 0.151266 1.5411 126 90 64 
0.308487 0.15297 1.53886 61 35 22 
0.228166 0.159998 1.5404 124 96 72 
0.233826 0.159951 1.54072 131 104 87 
-1.02197 0.258866 2.30887 226 188 151 
0.232192 0.176645 1.54022 113 88 57 
0.199545 0.179511 1.54097 57 27 16 
0.339316 0.18029 1.53875 49 41 30 
0.230983 0.187702 1.54006 131 94 67 
0.200903 0.197959 1.54079 52 29 13 
0.20913 0.198679 1.53993 54 27 20 
0.256938 0.208815 1.5393 156 118 97 
0.267094 0.216427 1.537 160 121 90 
0.267213 0.218586 1.53925 171 131 105 
-0.0212058 -0.606263 1.54838 54 5 1 
-0.0375217 -0.57731 1.54923 181 119 98 
-0.0523761 -0.560318 1.55012 183 123 63 
-0.195627 -0.527669 1.55302 184 120 95 
-0.222126 -0.492181 1.55431 21 38 30 
-0.308071 -0.485914 1.55334 223 113 152 
-0.14849 -0.452231 1.55431 92 132 108 
-0.151626 -0.433296 1.55796 130 157 116 
-0.0420166 -0.411215 1.50978 219 190 174 
-0.170125 -0.411656 1.5567 46 18 7 
-0.211197 -0.406419 1.55607 42 21 18 
-0.220837 -0.38629 1.5578 93 50 34 
-0.321139 -0.36849 1.55352 57 21 31 
-0.27006 -0.303305 1.55672 215 90 132 
-0.251828 -0.292039 1.55646 190 74 75 
-0.986043 -0.304354 2.30236 211 173 134 
-0.0578466 -0.137947 1.55142 231 214 194 
-0.0872559 -0.120708 1.55323 252 184 183 
-1.02409 -0.171071 2.30068 107 75 36 
-0.107338 -0.107475 1.55342 238 184 172 
-1.14354 -0.0321388 2.29862 91 63 41 
-1.05685 0.0431757 2.29838 205 177 153 
0.324469 0.155356 1.53875 72 53 39 
0.213233 0.164382 1.54117 50 33 17 
0.140492 0.171174 1.54091 53 27 14 
0.135734 0.174972 1.54887 154 123 105 
0.144448 0.173958 1.54264 169 152 144 
0.231924 0.188026 1.5402 132 91 63 
0.344285 0.208911 1.53777 44 26 12 
0.349923 0.211369 1.53963 124 91 72 
0.323337 0.218997 1.53933 132 96 72 
0.263427 0.253924 1.53991 35 25 16 
-0.0520116 -0.583103 1.54987 73 113 115 
-0.0541701 -0.572748 1.54979 70 105 99 
-0.052487 -0.560377 1.54988 183 123 63 
-0.163868 -0.52395 1.55453 122 90 77 
-0.233486 -0.517781 1.55555 35 46 30 
-0.152357 -0.4767 1.55734 90 57 50 
-0.155404 -0.456299 1.55481 82 129 109 
-0.156466 -0.424049 1.553 146 108 85 
-0.175982 -0.40534 1.55511 155 114 92 
-0.244675 -0.308184 1.55726 113 0 15 
-0.275133 -0.302057 1.55903 204 109 141 
0.0729901 -0.201774 1.47208 195 194 199 
0.0931208 -0.186043 1.47431 214 214 216 
0.191611 -0.176289 1.47207 70 67 74 
-0.0612248 -0.144679 1.55002 105 81 71 
0.208074 -0.136047 1.46784 144 139 145 
0.327478 0.170536 1.53761 166 122 87 
0.291475 0.196222 1.53951 155 110 81 
0.347296 0.194483 1.53694 205 187 175 
0.334319 0.203238 1.54062 205 190 183 
0.285005 0.247689 1.53744 120 87 68 
0.318493 0.248271 1.53753 144 100 65 
0.451346 0.419963 1.5007 162 67 3 
0.178571 -0.177899 1.46936 43 43 41 
-1.03324 0.0377428 2.30175 197 169 132 
0.189383 0.167039 1.54351 124 87 58 
