ply                 
format ascii 1.0    
element vertex 1311
property float x    
property float y    
property float z    
property uchar red  
property uchar green
property uchar blue 
end_header          
-0.113489 0.481551 1.17456 17 13 96 
0.00221263 0.0292387 1.18931 51 50 55 
-0.106877 0.065648 1.1957 2 2 6 
-0.030272 0.062736 1.18912 0 0 0 
0.0290739 -0.0282738 1.20866 75 71 68 
-0.0127652 -0.0677567 1.21145 0 0 0 
-0.0465147 -0.444409 1.34364 0 0 0 
0.00339456 -0.180762 1.26283 0 0 0 
0.122176 -0.0132231 1.30556 67 66 62 
-0.0441038 -0.383307 1.32275 0 0 0 
-0.157052 0.0841267 1.23151 0 0 0 
0.0904183 0.110773 1.24183 255 39 37 
-0.0572556 -0.195295 1.243 0 0 0 
0.0399818 -0.200533 1.28692 27 254 37 
-0.176237 0.599342 1.13915 4 3 32 
-0.0439742 -0.0849245 1.20736 0 0 0 
0.0280431 -0.231739 1.29309 0 0 0 
0.0947776 0.195454 1.23601 45 46 255 
0.00781257 0.0451038 1.18898 255 21 21 
-0.103342 -0.29395 1.30695 0 0 0 
-0.130526 0.452018 1.1821 0 0 0 
0.0480998 0.00425139 1.21007 0 0 0 
-0.0390607 0.213697 1.17807 61 60 58 
-0.00193852 -0.166489 1.25551 0 0 0 
-0.134955 0.293225 1.2005 0 0 0 
-0.146577 0.0420148 1.21301 0 0 0 
-0.0466919 0.164031 1.18228 74 73 69 
-0.00214287 0.289258 1.17674 2 1 1 
-0.186749 0.597645 1.17483 10 48 12 
-0.140637 0.553186 1.17028 0 0 0 
0.0606115 -0.0555359 1.24018 50 46 255 
-0.0520255 0.42896 1.15634 0 0 0 
-0.0739273 0.373433 1.16019 65 63 254 
-0.00821544 0.0720747 1.19242 31 29 254 
-0.00437715 0.223005 1.18169 0 0 0 
-0.149886 0.127441 1.2224 0 0 0 
-0.124338 0.28689 1.1956 0 0 0 
0.0138711 -0.217936 1.28077 40 36 33 
-0.107003 0.611063 1.07046 10 9 78 
-0.116148 -0.18733 1.26158 0 0 0 
-0.115424 0.508224 1.17558 39 37 38 
0.00214197 -0.146301 1.24745 254 58 58 
0.0595555 0.207599 1.20929 29 30 255 
-0.0531426 0.446081 1.15359 31 254 26 
-0.0405434 0.536961 1.14097 55 53 54 
-0.0494502 -0.219592 1.25546 1 1 1 
-0.0673574 -0.317579 1.30042 0 0 0 
-0.169802 0.0604107 1.22858 0 0 0 
0.0586499 0.038065 1.21523 0 0 0 
-0.0107937 0.199725 1.18249 55 254 55 
-0.103974 0.176969 1.19171 3 1 0 
0.0355487 -0.180403 1.27452 22 23 254 
0.040994 0.180404 1.20292 255 40 36 
-0.124265 0.371745 1.17768 0 0 0 
0.0455691 0.10999 1.21205 63 63 254 
-0.0731911 0.460705 1.15501 66 254 69 
-0.0952469 0.30111 1.18642 65 66 59 
-0.126766 0.126635 1.20652 0 0 0 
-0.0278986 0.585501 1.13235 254 57 54 
-0.143904 -0.068498 1.23899 0 0 0 
-0.0136774 0.0503227 1.18869 255 11 11 
-0.0405501 0.150516 1.18273 35 33 254 
-0.0399654 0.180099 1.18065 48 254 50 
0.0704666 0.451658 1.19376 51 254 53 
0.0680912 0.608258 1.13575 37 253 45 
-0.122086 0.154823 1.19977 0 0 0 
-0.0490962 0.0947594 1.18723 71 254 69 
-0.0557013 -0.487818 1.35681 0 0 0 
-0.0635502 -0.148304 1.23681 19 21 22 
0.0704966 0.594965 1.13942 31 26 251 
-0.0388251 0.405306 1.16471 0 0 0 
-0.111758 -0.00309946 1.18994 0 0 0 
-0.0932504 -0.369037 1.3289 0 0 0 
-0.0291035 0.00122751 1.18315 254 26 24 
-0.083947 -0.33848 1.314 0 0 0 
-0.068785 0.594463 1.11086 61 58 51 
0.0450063 -0.0922175 1.24811 58 59 255 
-0.0315681 -0.148811 1.23622 0 0 0 
-0.094053 -0.0273601 1.19577 64 63 68 
-0.0867255 -0.134804 1.24095 0 0 0 
-0.121542 -0.136708 1.25452 0 0 0 
-0.0698881 -0.460091 1.35355 0 0 0 
0.0171332 -0.105812 1.23993 0 0 0 
-0.0373916 -0.0673309 1.20195 66 62 59 
0.0893526 0.166111 1.23665 62 58 55 
-0.0915043 0.515727 1.16553 39 40 254 
-0.00718476 0.00521956 1.18721 55 36 37 
-0.00479468 -0.0292496 1.19075 254 62 59 
-0.0529934 -0.0953743 1.21198 254 66 63 
-0.0902387 0.0673511 1.19623 0 0 0 
-0.0138213 0.121233 1.18766 0 0 0 
-0.0776165 -0.181391 1.24598 0 0 0 
-0.0658007 -0.590712 1.3861 0 0 0 
-0.0522689 -0.253692 1.26938 0 0 0 
0.0388525 0.449218 1.17408 16 254 10 
-0.13769 0.182836 1.21052 0 0 0 
-0.00351422 -0.201674 1.26707 43 254 40 
0.0218126 0.0504927 1.19905 254 10 9 
-0.0710806 -0.432184 1.34364 0 0 0 
-0.0438714 0.562253 1.13384 254 39 38 
-0.0247434 0.0983078 1.1883 47 47 47 
-0.109733 -0.126723 1.24676 0 0 0 
-0.139262 0.475967 1.17883 0 0 0 
0.0493836 0.585749 1.15173 1 1 1 
-0.0694778 -0.0409288 1.19405 55 254 57 
-0.134788 -0.141906 1.26156 0 0 0 
0.0141788 0.0769103 1.20124 38 36 37 
-0.00146996 0.13958 1.18861 254 52 48 
-0.0988496 -0.0458046 1.20788 113 122 89 
0.00119638 -0.293999 1.30718 253 63 60 
-0.0526266 -0.513875 1.36858 0 0 0 
0.0916511 0.129829 1.24126 35 255 37 
-0.0795581 -0.388882 1.33148 0 0 0 
-0.0324922 0.0361765 1.18218 0 0 0 
0.0409581 -0.0211136 1.20831 56 52 49 
-0.0103162 -0.0904739 1.22525 0 0 0 
-0.0319631 0.127117 1.18536 28 254 20 
0.0913323 0.0964102 1.24172 37 38 255 
-0.0795807 0.433315 1.15762 0 0 0 
-0.0458701 0.0200246 1.18286 0 0 0 
-0.0257984 0.211052 1.17976 0 0 0 
-0.166789 0.22588 1.2309 0 0 0 
-0.11397 -0.0224683 1.20148 0 0 0 
-0.160131 0.604184 1.14476 137 32 31 
-0.143532 -0.0334554 1.22125 0 0 0 
-0.0991237 -0.355101 1.32751 0 0 0 
0.0894473 0.181375 1.23606 40 41 255 
0.0231359 0.335214 1.18058 36 37 254 
0.0546242 0.297058 1.19961 46 255 46 
-0.0960217 0.344745 1.16725 0 0 0 
-0.0378112 -0.293756 1.28872 0 0 0 
-0.0497983 0.0511138 1.18653 14 12 13 
-0.00603531 0.266029 1.17688 34 32 35 
-0.00476441 0.360858 1.17071 43 254 47 
-0.154354 0.140273 1.22586 0 0 0 
0.0261862 -0.00948069 1.19142 254 66 66 
-0.067697 -0.53444 1.38004 0 0 0 
0.00863129 0.112996 1.19388 0 0 0 
-0.0942133 0.423607 1.16392 254 47 47 
0.0323456 -0.116683 1.25125 32 31 29 
-0.00639175 0.525051 1.14673 16 18 254 
-0.0691846 0.0507478 1.18553 0 0 0 
0.012993 -0.00757305 1.1886 77 76 72 
-0.0868351 -0.322604 1.30832 0 0 0 
-0.135878 0.595015 1.15639 49 234 50 
0.049047 -0.0442581 1.22579 71 69 255 
-0.130088 0.48532 1.18157 0 0 0 
0.00365171 -0.097551 1.23078 254 29 28 
0.0896621 0.0831461 1.24282 57 255 62 
-0.0466278 -0.399959 1.3279 0 0 0 
0.0290875 0.314634 1.18714 0 0 0 
-0.0618984 0.144604 1.1845 0 0 0 
-0.038939 -0.199827 1.25097 0 0 0 
0.0201851 0.151198 1.19355 20 255 31 
-0.143953 0.0564623 1.21239 0 0 0 
-0.125543 0.58676 1.1601 24 20 19 
-0.0956852 -0.227801 1.25326 0 0 0 
-0.0625241 0.261247 1.17599 0 0 0 
-0.0696044 0.336532 1.17258 36 34 254 
-0.0125561 -0.0094036 1.18206 0 0 0 
-0.0247532 0.167979 1.18223 255 74 71 
-0.0325959 -0.033226 1.18587 0 0 0 
0.0224535 -0.135497 1.25083 56 52 254 
-0.114946 0.310672 1.19363 0 0 0 
-0.143687 0.195406 1.21343 0 0 0 
0.0308814 0.591232 1.12207 60 61 55 
0.0940226 0.260798 1.22965 46 46 44 
-0.0848875 0.197845 1.18511 43 254 55 
0.0803708 0.0408814 1.23357 255 48 46 
-0.0567508 -0.172183 1.24076 32 36 230 
-0.178386 0.0158102 1.24255 0 0 0 
-0.145474 -0.0503968 1.23158 0 0 0 
0.0346172 0.0863499 1.2068 30 254 11 
0.010674 -0.251135 1.29554 47 40 254 
-0.074154 0.519056 1.15066 36 254 34 
-0.0902107 0.156504 1.18798 62 252 71 
-0.0754962 0.156281 1.18684 66 65 254 
-0.133153 -0.120986 1.25388 0 0 0 
0.0566442 0.194697 1.21162 30 255 35 
0.0267981 0.100292 1.20231 0 0 0 
-0.0707948 0.0209727 1.18443 73 254 78 
-0.0270824 -0.206214 1.25648 61 59 254 
-0.067948 0.405014 1.15714 254 47 46 
-0.118032 -0.218689 1.2604 0 0 0 
-0.0180738 0.0212924 1.18393 0 0 0 
-0.0668392 -0.500846 1.36673 0 0 0 
-0.00610881 0.577864 1.13499 6 6 20 
-0.0920517 0.497032 1.16546 52 52 52 
-0.0881546 0.611304 1.06217 3 38 5 
-0.0617404 0.518757 1.14722 43 43 43 
-0.1527 0.283881 1.21492 0 0 0 
-0.0737719 0.505232 1.15309 44 211 50 
-0.0487379 0.477015 1.14933 0 0 0 
-0.0195584 0.366981 1.16671 24 254 22 
-0.137519 0.326569 1.20338 0 0 0 
-0.00724245 0.0384445 1.18684 1 1 1 
0.0826826 0.575608 1.173 24 254 26 
-0.0653482 0.168096 1.184 0 0 0 
-0.132414 0.221982 1.20276 0 0 0 
0.0172861 0.350039 1.1765 68 69 254 
-0.0516214 0.351782 1.16694 64 60 59 
-0.174586 0.00297914 1.22993 0 0 0 
0.0142333 -0.0396404 1.20788 70 65 254 
0.0874121 0.0663951 1.24432 41 39 255 
0.0152058 0.463606 1.15757 105 254 64 
-0.0248092 -0.331122 1.31236 0 0 0 
-0.0965154 -0.11611 1.23776 0 0 0 
-0.0189634 -0.236347 1.27431 77 74 67 
0.04164 0.0353272 1.20517 32 33 255 
-0.0751832 -0.128435 1.2335 0 0 0 
-0.0258187 0.539078 1.13954 61 59 254 
-0.0232745 0.188507 1.18042 65 64 60 
0.0453304 0.350643 1.19062 26 22 19 
-0.0766379 0.174235 1.18486 68 254 78 
-0.0839416 0.0500322 1.18628 0 0 0 
-0.0619445 -0.26433 1.27841 0 0 0 
-0.0656301 -0.3574 1.31514 0 0 0 
-0.0592916 0.247209 1.17635 254 44 40 
-0.0254342 -0.25151 1.27768 15 16 11 
0.00833502 0.166283 1.18932 0 0 0 
-0.0405316 0.594545 1.10968 254 76 75 
-0.0584744 0.182018 1.18121 71 254 65 
-0.030493 -0.107237 1.22158 4 3 2 
-0.0816927 0.317378 1.1749 69 68 66 
-0.0362227 -0.0097887 1.18122 0 0 0 
-0.126637 0.554207 1.17529 68 59 253 
-0.0172165 -0.110341 1.22643 77 255 72 
-0.12958 0.273761 1.19935 0 0 0 
-0.0926462 0.407286 1.16309 254 52 51 
0.0137819 0.535004 1.14906 254 12 11 
-0.035494 -0.230065 1.26345 0 0 0 
-0.118399 0.574626 1.17205 48 39 225 
-0.13175 0.604444 1.12362 40 40 33 
-0.0531355 -0.297556 1.28514 0 0 0 
-0.0509635 0.0383359 1.17979 0 0 0 
-0.0151751 0.236809 1.17781 40 255 36 
-0.0246589 -0.135255 1.23198 36 254 29 
0.0821766 0.594272 1.14812 23 254 24 
-0.0318931 0.456442 1.15364 254 67 67 
0.032768 -0.101046 1.24654 46 45 255 
-0.105834 -0.0324028 1.20526 77 82 82 
0.0133492 0.131676 1.19514 42 253 41 
-0.0959792 0.286958 1.18635 250 68 68 
-0.15501 0.195572 1.2201 0 0 0 
-0.0131419 -0.0421362 1.19612 87 84 79 
-0.0295763 0.525454 1.14518 2 1 4 
-0.0817958 -0.0707126 1.21778 63 61 62 
-0.0508679 -0.0152006 1.17953 0 0 0 
-0.162077 0.12544 1.23181 0 0 0 
-0.103243 0.156374 1.19164 18 3 4 
-0.112623 0.406974 1.16866 2 0 0 
0.0356848 0.262842 1.20067 41 39 254 
-0.0251785 0.504143 1.14585 254 61 60 
-0.158573 0.476573 1.19387 0 0 0 
0.0328142 0.589156 1.13978 24 254 29 
-0.0813788 0.483214 1.16042 69 67 254 
-0.0288892 0.0790689 1.18973 34 254 40 
0.010622 0.308676 1.1796 254 54 53 
-0.0313477 0.115078 1.18791 54 254 75 
-0.0374224 0.49944 1.14522 0 0 0 
-0.109431 -0.0781973 1.22976 0 0 0 
0.0170068 0.576909 1.14282 254 34 33 
-0.0300434 0.306291 1.1718 49 48 46 
-0.0139958 0.412725 1.16739 254 57 57 
0.0640408 0.2542 1.20994 255 29 27 
-0.158015 0.0332763 1.22236 0 0 0 
-0.0582358 0.0633461 1.19161 22 22 22 
-0.0665599 0.118656 1.18821 0 0 0 
0.0465805 0.0197587 1.20861 33 31 254 
-0.0521407 -0.353787 1.30687 0 0 0 
-0.0663573 -0.118756 1.22749 61 62 255 
0.0249793 0.363612 1.17941 254 44 44 
-0.0551955 0.298625 1.17295 50 49 47 
0.0919693 0.247436 1.23243 31 29 30 
-0.040646 0.609298 1.10893 48 253 62 
0.0078597 0.200072 1.18753 29 30 255 
0.094699 0.394114 1.22064 38 254 45 
-0.0868704 -0.405927 1.33995 0 0 0 
-0.126891 0.246785 1.19902 0 0 0 
-0.0874569 0.337693 1.17493 76 254 83 
-0.0854785 0.277326 1.18003 0 0 0 
0.0978523 0.36861 1.22285 50 48 254 
-0.138137 0.263938 1.205 0 0 0 
-0.0120145 0.160327 1.18389 0 0 0 
-0.153991 0.166123 1.22321 0 0 0 
0.0589044 0.159275 1.21569 254 21 20 
-0.0927577 0.595034 1.12642 27 26 24 
-0.112866 0.251359 1.18817 0 0 0 
-0.00525423 0.54382 1.14021 15 16 11 
-0.00864511 0.348473 1.16978 42 42 254 
0.0549548 -0.0405082 1.26094 64 62 255 
-0.101563 0.319783 1.181 10 11 8 
-0.0205339 0.273 1.17479 0 0 0 
-0.026504 0.153961 1.18295 255 45 44 
-0.155597 0.066316 1.22884 0 0 0 
-0.16292 -0.00456162 1.22458 0 0 0 
-0.0231343 0.249563 1.17509 25 254 32 
-0.170279 0.205356 1.23628 0 0 0 
-0.0215379 0.291556 1.17431 62 254 65 
-0.0060137 0.186278 1.18424 0 0 0 
0.0259798 0.549013 1.14728 34 37 254 
-0.0933582 0.567925 1.1643 254 30 28 
-0.133125 -0.191663 1.26874 0 0 0 
-0.190186 0.26204 1.26124 0 0 0 
-0.195778 0.0795871 1.27735 0 0 0 
-0.183301 0.241129 1.24911 0 0 0 
-0.186439 0.597924 1.1754 35 30 231 
-0.161715 0.144145 1.23209 0 0 0 
-0.16562 0.112066 1.23639 0 0 0 
-0.1172 -0.267274 1.29931 0 0 0 
-0.160313 0.186082 1.22682 0 0 0 
-0.216734 0.0608619 1.31561 0 0 0 
-0.0845753 -0.173185 1.24743 26 254 41 
-0.144416 0.0981627 1.21839 255 58 57 
-0.164638 -0.0596374 1.24353 0 0 0 
-0.177751 0.099289 1.2503 0 0 0 
-0.131407 -0.0171608 1.20579 40 42 254 
-0.0661571 -0.378515 1.32033 0 0 0 
-0.188841 0.137075 1.26525 0 0 0 
-0.177747 0.186944 1.24586 0 0 0 
-0.12019 0.0660688 1.20596 10 10 254 
-0.210365 0.0848782 1.43169 0 0 0 
-0.132423 -0.167027 1.26702 0 0 0 
-0.210659 0.06408 1.28476 0 0 0 
-0.0691465 0.543716 1.14248 30 254 29 
-0.204048 0.597069 1.1949 12 2 2 
-0.148879 0.18704 1.21743 14 52 17 
-0.140416 0.0716708 1.21875 33 31 254 
-0.154552 0.112507 1.22697 0 0 0 
-0.16644 0.127464 1.23615 0 0 0 
-0.166179 0.173517 1.23297 0 0 0 
-0.160499 0.0993406 1.23264 0 0 0 
-0.136111 0.241383 1.20468 36 254 43 
-0.166047 0.362872 1.22221 0 0 0 
-0.104832 -0.315374 1.31378 0 0 0 
-0.200906 0.0963997 1.28587 0 0 0 
-0.178147 0.263708 1.24243 0 0 0 
-0.0285716 0.130846 1.18583 24 22 23 
-0.156705 0.242179 1.21941 0 0 0 
-0.179131 -0.024545 1.24525 0 0 0 
-0.1498 0.260372 1.21338 21 4 5 
-0.145195 0.205827 1.21332 63 59 56 
-0.117354 -0.114892 1.2446 89 91 97 
-0.179403 0.0778189 1.25485 0 0 0 
-0.0870582 -0.218368 1.25068 23 23 23 
-0.0411222 0.0133497 1.18269 71 70 68 
-0.151678 0.291901 1.21339 0 0 0 
-0.186643 0.189629 1.25648 0 0 0 
-0.15679 0.392301 1.21169 1 0 0 
-0.21097 0.0151168 1.28946 0 0 0 
-0.145578 0.318244 1.20713 92 0 0 
0.0563274 -0.205351 1.29562 254 34 20 
-0.0549869 0.460817 1.15071 0 0 0 
-0.140458 0.122913 1.21509 54 50 252 
-0.076434 -0.283921 1.29152 0 0 0 
-0.13005 0.201542 1.20321 63 254 69 
-0.14056 0.252988 1.20713 42 33 254 
-0.142106 0.488603 1.18454 254 70 69 
-0.156985 0.155019 1.22611 2 1 1 
-0.174181 0.59673 1.16014 42 33 254 
-0.1396 0.224728 1.20767 65 62 53 
-0.173852 0.11048 1.24579 0 0 0 
-0.161941 0.288803 1.2209 0 0 0 
-0.124593 0.084664 1.20896 59 58 54 
-0.0361318 0.0687679 1.18874 255 55 54 
-0.170215 0.00556148 1.23101 6 5 3 
-0.190329 0.0156174 1.2569 0 0 0 
-0.0837796 -0.0875914 1.22368 52 50 254 
-0.155613 -0.157483 1.29263 0 0 0 
-0.16182 -0.138383 1.29921 0 0 0 
-0.144994 0.15628 1.21684 27 23 20 
-0.167248 0.531192 1.19734 9 254 21 
-0.19706 0.051169 1.26444 0 0 0 
-0.171662 0.389838 1.22933 0 0 0 
-0.153145 -0.080129 1.24764 0 0 0 
-0.127407 0.0434383 1.2021 254 45 41 
-0.198209 0.599033 1.17936 8 78 13 
-0.180722 0.0462621 1.24345 0 0 0 
-0.196515 0.32129 1.27502 0 0 0 
-0.0641244 -0.402308 1.33045 0 0 0 
-0.151295 0.366144 1.20857 0 0 0 
-0.153748 0.125254 1.22505 0 0 0 
-0.156124 0.213916 1.22272 0 0 0 
-0.206052 0.508244 1.2569 0 0 0 
-0.151787 0.496955 1.18783 40 254 40 
-0.173798 0.377426 1.23005 0 0 0 
-0.160912 0.349955 1.21587 0 0 0 
-0.170189 0.209801 1.23438 0 0 0 
-0.188875 0.0464716 1.25326 0 0 0 
-0.1915 0.401519 1.25377 0 0 0 
-0.0620717 -0.062724 1.20258 53 51 254 
-0.024366 0.234367 1.17789 27 21 21 
-0.08055 0.593488 1.13136 46 254 59 
-0.170787 0.312029 1.23162 0 0 0 
-0.0213771 0.0847203 1.18885 255 37 33 
-0.183452 -0.00213882 1.24271 0 0 0 
-0.160758 0.589971 1.17576 39 35 34 
-0.155081 0.314125 1.21465 0 0 0 
-0.200035 0.557145 1.22487 3 0 0 
-0.192518 0.435387 1.25098 0 0 0 
-0.191227 -0.00794393 1.25172 0 0 0 
-0.0562448 -0.117232 1.22148 94 254 86 
-0.14245 0.453374 1.18029 65 64 62 
-0.113329 -0.205344 1.25917 2 1 2 
-0.161433 0.475107 1.19623 2 2 2 
-0.19943 0.00951399 1.26909 0 0 0 
-0.172029 0.331254 1.22931 0 0 0 
0.0388496 0.254545 1.20114 44 255 45 
-0.0268651 0.403483 1.166 35 254 34 
-0.0155793 0.0586575 1.19289 44 42 255 
-0.0553304 -0.138675 1.22989 49 254 50 
-0.199491 0.593767 1.22463 12 2 2 
-0.106565 -0.144457 1.25237 51 53 57 
-0.170613 0.293831 1.23097 0 0 0 
-0.126308 0.592957 1.15378 254 25 24 
-0.123569 -0.247932 1.29506 0 0 0 
-0.175843 0.475731 1.20893 0 0 0 
-0.179735 0.367601 1.23921 0 0 0 
-0.203515 0.29538 1.29493 0 0 0 
-0.164543 0.509457 1.19825 14 13 9 
-0.165878 0.265208 1.22676 0 0 0 
-0.165857 0.0828341 1.23837 0 0 0 
-0.168001 0.239494 1.23131 0 0 0 
-0.117407 0.418184 1.17166 49 254 59 
-0.0543272 0.327533 1.1709 47 255 43 
-0.0573488 0.0402663 1.18252 48 48 48 
-0.104991 0.477367 1.17124 76 72 255 
-0.124627 0.022182 1.20114 0 0 0 
-0.0628826 -0.342247 1.30723 0 0 0 
-0.139961 0.00564674 1.20699 0 0 0 
-0.042011 -0.60476 1.38 0 0 0 
-0.0875621 -0.353206 1.32181 0 0 0 
-0.0728835 0.00572684 1.18617 0 0 0 
0.00994098 0.179394 1.18918 217 55 55 
-0.107195 0.140844 1.19738 0 0 0 
-0.116465 0.00740766 1.1972 25 140 2 
-0.0835277 -0.0231507 1.19118 60 60 60 
-0.0352745 0.164059 1.18258 40 254 56 
-0.0545602 -0.592034 1.38125 0 0 0 
-0.135964 0.0514259 1.20701 0 0 0 
-0.101452 0.510251 1.16944 37 38 254 
-0.107647 -0.108587 1.23892 0 0 0 
-0.0446798 -0.142017 1.22563 56 55 51 
-0.0811331 0.243744 1.18126 254 73 73 
-0.140818 0.616249 1.08496 3 1 1 
0.00321576 0.00453475 1.1897 0 0 0 
-0.0706675 -0.342989 1.31273 0 0 0 
-0.136496 -0.0586997 1.23369 0 0 0 
-0.0426492 -0.0324828 1.18544 75 255 68 
-0.021146 -0.00720643 1.1778 0 0 0 
-0.0836543 0.605331 1.0962 252 56 53 
-0.090645 -0.154253 1.24797 0 0 0 
-0.0988748 -0.338533 1.31989 0 0 0 
-0.0800457 0.0901137 1.1919 60 58 59 
-0.0656908 -0.00963753 1.18088 61 254 63 
-0.117173 0.380645 1.17439 0 0 0 
-0.121902 0.611126 1.08827 30 106 30 
-0.0588603 0.124242 1.18573 41 254 43 
0.00482187 -0.00863751 1.18342 250 68 68 
-0.0442781 0.0304085 1.18241 0 0 0 
-0.0705255 0.301151 1.17517 254 65 64 
-0.0733854 -0.150761 1.23879 0 0 0 
-0.0575192 0.0279886 1.1845 0 0 0 
-0.0557159 -0.244399 1.26826 0 0 0 
-0.116394 0.236808 1.19365 0 0 0 
-0.111544 0.593146 1.14936 27 25 26 
0.0161591 0.328518 1.17946 23 21 22 
-0.0993208 0.0278398 1.19137 62 254 54 
-0.109257 0.167098 1.19485 1 1 1 
-0.0577589 -0.672846 1.40687 0 0 0 
-0.0922043 0.533077 1.16549 34 254 33 
-0.0547028 -0.62369 1.40788 0 0 0 
-0.057683 -0.647939 1.44041 0 0 0 
0.0284796 -0.0479613 1.21907 77 255 49 
-0.03859 -0.549476 1.38578 0 0 0 
-0.0999099 0.521561 1.16869 37 254 30 
-0.18482 0.34429 1.24809 0 0 0 
-0.0765085 -0.550866 1.38961 0 0 0 
-0.16439 -0.266858 1.40142 0 0 0 
-0.158981 -0.182375 1.32082 0 0 0 
-0.116597 0.438347 1.1583 41 42 254 
-0.180709 -0.186635 1.39222 0 0 0 
-0.0505765 -0.155085 1.23208 62 60 63 
-0.21366 0.0799956 1.32261 0 0 0 
-0.105616 0.446864 1.17786 30 28 29 
-0.168655 0.191761 1.23339 0 0 0 
-0.134473 0.315702 1.20188 75 72 253 
-0.187353 0.0998084 1.26372 0 0 0 
0.00896236 -0.328192 1.32539 41 40 254 
-0.0634372 -0.525931 1.37467 0 0 0 
-0.0757581 -0.589891 1.39135 0 0 0 
-0.00352874 -0.0605412 1.21034 44 42 255 
0.0313731 -0.261486 1.30286 11 8 254 
-0.199217 0.110667 1.2849 0 0 0 
-0.098099 -0.178475 1.25531 34 255 36 
0.054876 0.222292 1.20558 23 24 255 
-0.0833511 0.548121 1.15139 21 22 254 
-0.226725 0.599969 1.26124 0 0 0 
0.00173182 -0.11784 1.23852 255 43 42 
-0.141402 -0.0974799 1.2474 0 0 0 
-0.198022 0.178261 1.28966 0 0 0 
-0.111315 -0.0413232 1.21144 62 63 254 
-0.000650703 -0.238537 1.28342 60 254 63 
-0.19394 0.0914068 1.28083 0 0 0 
-0.000341391 0.0202471 1.1902 255 38 38 
-0.172183 0.0699422 1.24372 0 0 0 
-0.174336 0.244836 1.23791 0 0 0 
-0.11895 -0.054792 1.22263 55 56 254 
-0.184417 0.0570462 1.25168 0 0 0 
-0.0701557 -0.194141 1.24133 254 57 53 
-0.18461 0.142049 1.25653 0 0 0 
-0.169014 0.0934363 1.24344 0 0 0 
-0.197272 0.0851274 1.28771 0 0 0 
-0.0789652 -0.0445984 1.20075 44 42 43 
-0.125494 0.522023 1.17535 45 44 42 
-0.124534 -0.126869 1.25146 0 0 0 
-0.213642 0.529001 1.27495 0 0 0 
-0.117912 0.0532108 1.20112 12 10 254 
-0.0965383 0.236171 1.18664 254 55 47 
-0.0350752 0.0480478 1.18264 255 9 7 
0.101591 0.112505 1.25441 255 59 59 
-0.19813 0.600535 1.20274 8 7 38 
0.0197914 -0.245123 1.29776 56 53 254 
-0.210287 -0.0381057 1.32973 0 0 0 
-0.018492 0.224853 1.17718 49 255 53 
-0.190314 0.0715742 1.2649 0 0 0 
-0.182369 0.10776 1.25594 0 0 0 
-0.177211 0.159154 1.24683 0 0 0 
-0.113794 0.180129 1.19445 35 17 15 
-0.0327797 -0.246426 1.27083 60 56 55 
-0.0371768 -0.32652 1.30252 0 0 0 
-0.16258 -0.238283 1.41493 0 0 0 
0.138494 0.254441 1.39392 38 36 37 
-0.115927 -0.298647 1.31074 0 0 0 
-0.0638581 -0.452567 1.34738 0 0 0 
-0.0834885 0.527814 1.15538 254 41 39 
-0.178542 0.12394 1.24387 0 0 0 
-0.207784 0.122349 1.30565 0 0 0 
-0.0910588 0.267159 1.17973 60 56 53 
-0.0900256 -0.0412273 1.20232 50 51 254 
0.0197227 -0.00143828 1.19576 255 38 38 
-0.220782 0.548368 1.28131 0 0 0 
-0.162914 0.0515146 1.22959 8 5 3 
-0.0927123 -0.388552 1.33585 0 0 0 
-0.0318333 -0.188302 1.24815 48 254 48 
-0.106538 -0.00790957 1.18953 254 59 57 
0.00361879 -0.264135 1.29719 42 39 254 
-0.196449 0.000541125 1.25265 0 0 0 
-0.110913 -0.385145 1.36664 0 0 0 
0.0747743 -0.0779091 1.25502 32 31 29 
-0.185909 0.415369 1.40562 0 0 0 
0.0442355 -0.113433 1.25231 44 43 41 
-0.137562 -0.22075 1.30242 0 0 0 
-0.159141 -0.103898 1.25991 0 0 0 
-0.133095 -0.00454929 1.19969 52 56 254 
-0.00239254 0.593779 1.1137 254 26 27 
-0.0591838 -0.469705 1.35372 0 0 0 
-0.145618 0.166481 1.21598 250 75 71 
-0.204471 0.0578398 1.28473 0 0 0 
-0.0254134 -0.226172 1.26651 254 57 53 
-0.188098 0.357876 1.24991 0 0 0 
-0.143416 0.523082 1.18091 42 43 254 
-0.148216 -0.233737 1.33579 0 0 0 
-0.21356 0.0567739 1.29373 0 0 0 
-0.0747806 -0.327265 1.30573 0 0 0 
-0.219157 0.0317776 1.32051 0 0 0 
-0.0815593 0.117337 1.18993 56 52 53 
-0.0233817 -0.259956 1.2818 51 47 44 
0.0341441 -0.0739414 1.23677 6 6 6 
-0.136765 0.467666 1.18339 71 254 74 
-0.132215 -0.103389 1.24673 1 1 1 
-0.167698 0.146734 1.23739 0 0 0 
-0.048675 -0.305204 1.29124 0 0 0 
-0.157469 -0.000237989 1.21648 73 73 73 
-0.196927 0.444228 1.25954 0 0 0 
-0.193306 0.411975 1.25825 0 0 0 
-0.067874 -0.29206 1.28813 0 0 0 
-0.135822 0.11424 1.21166 254 42 41 
-0.205565 0.628622 1.19149 0 0 0 
-0.0199104 0.590808 1.11928 31 26 254 
-0.0473129 0.593359 1.10848 54 254 47 
-0.125614 0.541677 1.1784 32 33 254 
-0.190329 0.124978 1.26795 0 0 0 
-0.156419 0.253601 1.21958 0 0 0 
-0.0693504 0.4228 1.15608 254 54 52 
0.0599903 -0.100794 1.26435 32 255 32 
-0.096883 0.168321 1.18876 254 65 64 
-0.0849234 0.566948 1.15981 29 254 32 
-0.0331331 -0.125598 1.22896 46 45 40 
-0.0914993 0.483861 1.16528 50 254 51 
-0.00774175 -0.0488981 1.2001 54 52 255 
-0.082278 0.601411 1.11114 254 9 11 
-0.167561 -0.23848 1.37842 0 0 0 
-0.0591447 0.456445 1.15452 254 39 39 
-0.103752 0.292326 1.18936 26 254 39 
-0.0313591 -0.38362 1.32777 0 0 0 
-0.0281208 0.596183 1.1113 61 56 254 
-0.179261 0.0355501 1.23212 0 0 0 
0.0020811 0.212227 1.18615 28 29 255 
-0.0759932 0.5932 1.11601 26 254 25 
-0.0786038 -0.368265 1.32073 0 0 0 
-0.0815892 -0.469888 1.36117 0 0 0 
-0.136151 -0.194991 1.28141 0 0 0 
0.021962 -0.210896 1.28126 35 33 254 
-0.101172 0.40734 1.16479 19 254 27 
-0.0504003 -0.560923 1.41283 0 0 0 
-0.0109013 0.411961 1.16277 11 9 254 
-0.00888915 0.541987 1.14039 16 15 14 
-0.202635 0.0979575 1.30054 0 0 0 
-0.207458 0.270315 1.30316 0 0 0 
-0.139036 0.399371 1.18372 254 68 64 
-0.0994644 -0.149903 1.2584 91 86 92 
-0.162612 -0.0927899 1.2587 0 0 0 
-0.169065 -0.212963 1.37676 0 0 0 
-0.149963 -0.102952 1.25435 0 0 0 
-0.204371 0.0303118 1.27693 0 0 0 
-0.0793473 0.579963 1.14729 27 25 254 
-0.0560605 -0.426002 1.33396 0 0 0 
-0.180139 -0.134318 1.34126 0 0 0 
-0.115263 -0.277273 1.30328 0 0 0 
-0.0493207 -0.325158 1.298 0 0 0 
-0.0592465 0.428126 1.15424 39 37 38 
-0.0273553 0.181205 1.18128 72 68 65 
-0.163145 0.401724 1.21443 0 0 0 
-0.177923 0.304487 1.23775 0 0 0 
-0.203727 0.25508 1.29834 0 0 0 
-0.18802 0.309347 1.25456 0 0 0 
-0.151467 0.325821 1.21199 0 0 0 
-0.0740542 -0.482162 1.36421 0 0 0 
-0.172793 0.276963 1.24203 0 0 0 
-0.211985 0.153983 1.31796 0 0 0 
-0.0558165 -0.0558632 1.19394 59 254 59 
-0.16804 -0.247367 1.42771 0 0 0 
-0.175559 -0.0606371 1.27524 0 0 0 
-0.136026 0.528919 1.1742 254 44 42 
0.0104911 0.0107534 1.19315 0 0 0 
-0.0118313 -0.0197365 1.18553 51 50 48 
-0.120577 0.596012 1.14189 17 15 254 
-0.080856 -0.108925 1.22606 254 50 49 
-0.0754494 -0.303542 1.29859 0 0 0 
-0.13839 0.161776 1.21142 254 36 33 
-0.0678351 -0.681255 1.40181 0 0 0 
-0.143621 0.14715 1.21844 255 58 54 
-0.195292 0.339837 1.269 0 0 0 
-0.155171 -0.0518308 1.23425 0 0 0 
0.0786402 -0.0674171 1.25074 255 40 39 
-0.0274474 -0.0530212 1.19766 255 34 31 
0.00610931 -0.354241 1.33149 255 69 68 
-0.154471 -0.0319732 1.22583 83 62 65 
-0.044039 0.257203 1.17636 51 50 48 
-0.0881755 -0.41725 1.34519 0 0 0 
-0.0974702 -0.0479859 1.21484 254 46 46 
-0.126696 0.358231 1.18817 254 56 52 
-0.189898 0.250782 1.25964 0 0 0 
-0.187301 0.375276 1.25403 0 0 0 
-0.060465 -0.000100589 1.1938 25 254 31 
-0.143851 -0.186765 1.28789 0 0 0 
-0.114797 0.318215 1.18688 51 46 254 
-0.151808 0.0944058 1.22381 58 9 10 
-0.170215 0.00292077 1.24155 1 1 1 
0.000394383 -0.191625 1.26476 40 34 254 
-0.00894191 -0.186335 1.2572 254 25 24 
-0.0843182 0.355678 1.17364 47 43 254 
-0.0697326 -0.397081 1.33161 0 0 0 
-0.0427952 0.301181 1.16918 255 37 36 
0.05075 0.0445689 1.20831 30 28 29 
-0.0544426 0.474147 1.14809 254 28 26 
0.0356568 0.171925 1.2018 49 46 255 
-0.212776 0.00175893 1.27594 0 0 0 
-0.0496257 0.26499 1.17325 42 41 255 
-0.143309 0.133935 1.2155 66 255 75 
-0.0691412 -0.0129539 1.19527 51 52 254 
-0.178212 -0.0772368 1.29774 0 0 0 
-0.164768 0.302163 1.22484 0 0 0 
-0.198984 0.0558237 1.26945 0 0 0 
-0.115539 -0.36485 1.35725 0 0 0 
-0.182748 0.537805 1.21021 49 53 230 
-0.212049 0.00530154 1.2637 0 0 0 
-0.00887335 0.0289069 1.18739 51 255 51 
-0.0955842 -0.400258 1.34536 0 0 0 
-0.138793 0.538072 1.16881 28 27 25 
-0.16563 -0.0439291 1.24965 0 0 0 
-0.145592 -0.130433 1.26207 0 0 0 
-0.0632531 -0.103189 1.21719 57 55 254 
-0.153633 -0.0701244 1.24355 0 0 0 
-0.169255 -0.114522 1.29681 0 0 0 
-0.0843389 -0.094741 1.22517 44 42 254 
0.0288169 0.466146 1.16012 16 254 5 
-0.18114 0.38135 1.23972 0 0 0 
0.0887421 0.253618 1.23081 255 26 25 
-0.103051 0.0407305 1.19222 254 64 63 
0.0300454 0.111287 1.20213 255 58 58 
-0.178808 0.19532 1.24681 0 0 0 
-0.186617 0.080698 1.26298 0 0 0 
-0.178687 -0.0537531 1.26625 0 0 0 
-0.0683715 -0.15475 1.23999 55 53 54 
-0.0660863 0.327936 1.1723 40 255 46 
-0.119553 -0.318314 1.33596 0 0 0 
-0.124368 -0.271903 1.30966 0 0 0 
-0.211699 0.594066 1.23977 5 1 1 
0.0430942 -0.161076 1.28219 38 255 40 
-0.129063 0.165294 1.20424 66 54 254 
-0.170661 -0.182724 1.35175 0 0 0 
0.037939 0.113646 1.20981 51 51 255 
-0.10573 0.0732166 1.20308 27 27 27 
-0.11163 0.602462 1.09574 254 46 45 
-0.160248 0.0989788 1.29045 0 0 0 
0.0100512 0.021331 1.1913 40 43 255 
-0.0372474 0.340673 1.16837 254 38 37 
-0.00343206 -0.213579 1.27081 56 51 254 
-0.203151 0.46318 1.27009 0 0 0 
-0.0235628 -0.288338 1.29286 55 54 254 
-0.193434 0.104296 1.27304 0 0 0 
-0.035883 0.588658 1.1316 0 0 0 
-0.0287412 0.0171288 1.18181 255 33 31 
0.0270426 -0.0395183 1.21305 24 21 254 
-0.16376 -0.12375 1.28574 0 0 0 
-0.196334 0.492987 1.23585 0 0 0 
0.0161678 -0.12055 1.2428 38 255 39 
-0.0205371 -0.170988 1.24592 254 40 37 
-0.0225392 0.549941 1.13626 57 53 254 
-0.172681 0.433921 1.22063 0 0 0 
-0.129386 -0.177559 1.26392 0 0 0 
-0.0820528 -0.380255 1.3275 0 0 0 
-0.189221 0.273155 1.2588 0 0 0 
-0.0444734 0.116929 1.18641 45 44 42 
-0.0760315 0.475565 1.1592 254 62 61 
-0.179833 -0.0136534 1.24105 0 0 0 
-0.0525011 -0.0666011 1.19997 56 55 254 
-0.155178 -0.0422506 1.23229 0 0 0 
-0.185855 0.278092 1.25164 0 0 0 
-0.0413255 -0.318437 1.29771 0 0 0 
-0.190278 0.526702 1.22997 0 0 0 
-0.153634 0.418705 1.20013 66 62 206 
-0.148887 0.244326 1.21308 15 48 13 
-0.0455267 -0.228077 1.2623 254 37 31 
-0.0532826 -0.265146 1.27173 90 91 97 
-0.122451 -0.0131991 1.19982 47 254 50 
-0.17526 0.420902 1.22679 0 0 0 
-0.178028 0.286068 1.24526 0 0 0 
-0.190743 -0.0909939 1.34963 0 0 0 
-0.0528026 -0.374877 1.31608 0 0 0 
-0.0372698 0.438764 1.15779 36 36 36 
-0.146775 0.0644318 1.22113 19 19 254 
-0.0855727 0.570485 1.14684 254 30 28 
-0.17598 0.339421 1.23524 0 0 0 
-0.0230374 0.201816 1.18082 45 255 52 
-0.206594 0.210148 1.30235 0 0 0 
0.00861855 0.241534 1.18476 255 34 30 
-0.0683269 0.389112 1.16134 254 47 46 
-0.151276 0.270756 1.21278 1 2 1 
-0.112613 -0.19545 1.25641 0 0 0 
0.00554472 -0.0247632 1.19015 60 255 68 
-0.0678458 -0.0499716 1.19856 254 43 43 
-0.163683 0.595803 1.15345 254 39 38 
0.0192076 0.0165902 1.19574 0 0 0 
-0.0871839 -0.109946 1.23977 254 45 44 
0.00042995 0.335285 1.17359 23 21 22 
-0.0736139 -0.524969 1.37904 0 0 0 
0.0109484 0.343836 1.17501 25 26 254 
-0.0782897 0.601751 1.12589 14 13 11 
-0.162267 0.501 1.19045 250 55 54 
-0.0759695 0.493149 1.15148 36 34 254 
-0.0930178 0.078382 1.19487 254 58 57 
-0.0993003 -0.307143 1.30881 0 0 0 
-0.139069 0.506025 1.17841 51 254 47 
-0.127389 0.345746 1.18388 57 53 50 
-0.0177078 -0.126366 1.23495 47 46 44 
0.0246471 -0.0686464 1.2298 36 37 255 
-0.181312 -0.00258203 1.23681 0 0 0 
0.0621856 0.587809 1.15162 254 32 36 
-0.163859 0.522766 1.19454 37 37 37 
-0.0679771 0.47102 1.14957 39 254 42 
-0.0861536 0.182405 1.18403 254 84 80 
-0.143256 0.615352 1.11825 54 49 254 
-0.199906 0.187962 1.2971 0 0 0 
-0.0315256 -0.168292 1.24334 46 41 254 
-0.0388437 0.280833 1.1719 50 254 50 
-0.11417 -0.227812 1.26043 0 0 0 
-0.1567 0.528668 1.18937 0 0 0 
-0.133017 0.55968 1.16137 254 38 36 
-0.0165125 0.14494 1.18761 23 22 255 
-0.184593 0.183458 1.26145 0 0 0 
-0.14832 0.594661 1.16569 31 29 254 
-0.0749941 -0.0776211 1.22545 58 56 57 
-0.137432 0.389693 1.18566 54 254 57 
-0.0200535 0.435912 1.1627 254 27 27 
-0.141267 0.0837225 1.21933 43 252 37 
-0.105275 0.284948 1.19444 254 38 22 
-0.0446261 0.217717 1.17945 0 0 0 
-0.0508273 -0.0769859 1.20711 49 45 42 
-0.0692653 -0.313383 1.2951 0 0 0 
-0.170591 -0.129738 1.31369 0 0 0 
-0.0110062 -0.336934 1.32056 27 26 32 
-0.0623043 -0.0656634 1.21471 37 36 34 
-0.129792 -0.271011 1.4648 0 0 0 
-0.0621101 -0.586703 1.38633 0 0 0 
-0.0870772 0.474237 1.16704 254 42 40 
-0.217013 0.252754 1.33852 0 0 0 
-0.0468605 -0.659652 1.40557 0 0 0 
-0.2146 0.209653 1.34943 0 0 0 
-0.210686 0.0918339 1.3125 0 0 0 
-0.184745 0.175537 1.25493 0 0 0 
-0.177436 -0.145803 1.34138 0 0 0 
-0.151787 0.433799 1.19223 45 254 53 
-0.184719 -0.161171 1.36946 0 0 0 
-0.135827 -0.25895 1.32488 0 0 0 
-0.131466 -0.157051 1.2666 52 37 40 
-0.208596 0.248455 1.30196 0 0 0 
-0.0974475 0.364173 1.17707 59 55 254 
-0.158321 -0.17742 1.31663 0 0 0 
-0.199611 0.142972 1.28352 0 0 0 
-0.209889 0.287217 1.31232 0 0 0 
-0.209753 0.323425 1.30382 0 0 0 
-0.149282 -0.200777 1.30812 0 0 0 
-0.107612 0.359936 1.1673 254 63 62 
-0.174729 -0.0525593 1.25727 0 0 0 
-0.196213 0.456416 1.24676 0 0 0 
-0.134374 -0.251808 1.3174 0 0 0 
-0.206219 0.467782 1.2607 0 0 0 
-0.0803689 -0.446881 1.35634 0 0 0 
-0.206768 0.0402401 1.28454 0 0 0 
-0.0768166 0.537749 1.14503 43 254 42 
-0.204122 0.0618665 1.27798 0 0 0 
-0.19141 0.0620104 1.25469 0 0 0 
-0.0829663 0.520809 1.1575 50 51 254 
-0.158987 -0.234339 1.3691 0 0 0 
-0.181754 0.412779 1.23907 0 0 0 
-0.143683 -0.0174697 1.21063 254 42 42 
-0.187862 0.233102 1.25643 0 0 0 
-0.11224 -0.0500698 1.21637 254 43 45 
-0.123282 -0.351721 1.37201 0 0 0 
-0.16141 0.00867221 1.2259 38 40 252 
-0.20529 0.480025 1.25547 0 0 0 
-0.0669578 -0.47609 1.35881 0 0 0 
-0.210547 0.331821 1.31116 0 0 0 
-0.236066 0.612502 1.24747 0 0 0 
-0.0483191 -0.107688 1.21948 48 45 255 
-0.216354 0.0796931 1.34735 0 0 0 
-0.184205 0.614091 1.10173 11 10 9 
-0.18372 0.20327 1.25371 0 0 0 
-0.210985 0.0730224 1.31377 0 0 0 
-0.140203 -0.15118 1.26674 1 2 2 
-0.164399 -0.185076 1.34056 0 0 0 
-0.190717 0.0300006 1.25655 0 1 1 
-0.163631 0.0703141 1.23464 254 23 22 
-0.212933 0.0296335 1.29684 0 0 0 
-0.0966832 0.148932 1.19019 74 254 57 
-0.0898587 -0.475615 1.38754 0 0 0 
-0.18274 -0.120799 1.33927 0 0 0 
-0.167814 -0.196679 1.36331 0 0 0 
-0.0904743 -0.314308 1.30877 0 0 0 
-0.0883171 -0.289378 1.29804 0 0 0 
-0.0154642 -0.463982 1.36399 0 0 0 
-0.204992 0.102587 1.44549 0 0 0 
-0.114142 0.295876 1.19318 28 29 254 
-0.0624196 -0.496534 1.36452 0 0 0 
-0.19015 0.151175 1.26645 0 0 0 
-0.183156 0.225093 1.25212 0 0 0 
-0.0854047 0.299142 1.18026 254 49 45 
-0.102854 -0.0591723 1.21552 36 34 254 
-0.0757022 0.532883 1.16252 35 254 32 
-0.132991 -0.0791619 1.23981 92 90 254 
-0.149016 -0.215897 1.322 0 0 0 
-0.193263 0.161416 1.27059 0 0 0 
-0.138581 -0.28784 1.36958 0 0 0 
-0.104893 -0.267662 1.29353 0 0 0 
-0.208758 0.409609 1.29976 0 0 0 
-0.225347 0.059924 1.34052 0 0 0 
-0.170004 0.402517 1.22374 73 70 61 
-0.209511 0.103632 1.30992 0 0 0 
-0.118776 -0.258554 1.29749 0 0 0 
-0.196976 0.0397752 1.26452 0 0 0 
-0.127277 0.320052 1.19665 51 254 55 
-0.182951 0.213676 1.25081 0 0 0 
-0.099112 -0.136153 1.24402 37 36 34 
-0.16417 0.0914289 1.23564 254 50 50 
-0.183614 -0.147172 1.36374 0 0 0 
-0.21012 0.111605 1.31583 0 0 0 
-0.183155 -0.0554442 1.28145 0 0 0 
-0.0163343 0.606216 1.11263 36 31 254 
-0.0332539 -0.62849 1.43667 0 0 0 
-0.219471 -0.0097346 1.31561 0 0 0 
-0.182311 -0.0998196 1.31753 0 0 0 
-0.00570814 0.0930536 1.19331 255 33 32 
-0.202249 0.0393511 1.2746 0 0 0 
-0.173666 -0.0643657 1.26658 0 0 0 
-0.14372 0.299924 1.20683 254 65 63 
-0.166406 0.200628 1.22989 254 55 51 
-0.238351 0.601161 1.32766 0 0 0 
-0.017843 0.0601618 1.28768 17 255 17 
-0.172798 0.168618 1.24007 85 84 79 
-0.197788 0.36206 1.26766 0 0 0 
-0.13284 0.0802223 1.21304 254 47 46 
-0.223188 0.00399187 1.30675 0 0 0 
-0.178723 0.13398 1.24904 0 0 0 
-0.185539 0.0137037 1.24914 9 7 252 
-0.197028 0.315378 1.28906 0 0 0 
-0.130592 -0.317331 1.36324 0 0 0 
-0.0881015 -0.122131 1.2343 34 30 254 
-0.20379 0.223927 1.30172 0 0 0 
-0.119089 -0.0779086 1.23356 47 254 51 
-0.234758 0.600303 1.2439 0 0 0 
-0.082504 0.501291 1.16117 254 60 58 
-0.131865 -0.267225 1.31944 0 0 0 
-0.133851 -0.0392999 1.21868 65 65 254 
-0.127362 0.59824 1.1279 254 26 24 
-0.0342105 0.103 1.18988 41 41 255 
-0.074121 0.144642 1.18775 46 255 52 
-0.231531 0.602281 1.23178 0 0 0 
-0.193499 0.343579 1.25022 0 0 0 
-0.0818752 -0.599465 1.39609 0 0 0 
-0.123823 -0.333256 1.35767 0 0 0 
-0.0665549 -0.0205015 1.18401 255 48 48 
-0.199517 0.420872 1.26629 0 0 0 
-0.156354 0.512791 1.1903 32 254 33 
-0.203048 0.532305 1.24599 112 22 22 
-0.0941162 -0.448474 1.37347 0 0 0 
-0.191396 0.497945 1.2293 18 17 15 
-0.106717 -0.392608 1.36281 0 0 0 
-0.159046 -0.0905938 1.2523 0 0 0 
-0.138653 0.284064 1.20484 51 40 254 
-0.146893 -0.162293 1.28273 0 0 0 
-0.171306 0.0254642 1.23277 0 0 0 
-0.0928075 -0.439865 1.32246 0 0 0 
-0.121122 0.479097 1.17818 2 0 0 
-0.106323 0.200562 1.19176 0 0 0 
-0.0505633 -0.60426 1.41008 0 0 0 
-0.189972 0.112858 1.26661 0 0 0 
-0.142532 0.0317552 1.21125 0 254 1 
-0.202984 0.167686 1.28566 0 0 0 
-0.180997 0.45099 1.227 0 0 0 
-0.16252 0.316703 1.22187 0 0 0 
-0.0710856 -0.138927 1.23598 0 0 0 
-0.150626 0.0794329 1.22572 74 79 85 
-0.232976 0.109085 1.46261 0 0 0 
-0.192856 0.0871197 1.46656 0 0 0 
-0.143938 0.51502 1.18445 46 47 254 
-0.174258 0.234033 1.23843 124 37 37 
-0.211442 0.130016 1.31526 0 0 0 
-0.158 -0.112503 1.26706 0 0 0 
-0.123353 -0.317162 1.45903 0 0 0 
-0.13797 0.209633 1.20788 254 48 45 
0.0281752 -0.00249748 1.22669 255 27 26 
-0.184267 0.118044 1.2584 0 0 0 
-0.216164 0.111375 1.47753 0 0 0 
-0.185347 0.165149 1.25842 0 0 0 
-0.16824 0.374299 1.22233 255 80 79 
-0.179735 0.315121 1.24655 0 0 0 
-0.102177 0.311019 1.18825 43 42 37 
-0.190052 0.288998 1.25793 0 0 0 
-0.173866 0.25502 1.23599 35 150 46 
-0.214803 0.122938 1.38039 0 0 0 
-0.0555779 -0.611982 1.37628 0 0 0 
-0.217219 0.161113 1.36647 0 0 0 
-0.0994525 -0.456609 1.39262 0 0 0 
-0.21507 0.30462 1.34082 0 0 0 
-0.197586 -0.112207 1.36353 0 0 0 
-0.221652 0.470543 1.33639 0 0 0 
-0.172503 -0.088901 1.28404 254 44 40 
-0.215097 0.273121 1.34754 0 0 0 
-0.194499 -0.129025 1.36963 0 0 0 
-0.208836 0.336857 1.29976 0 0 0 
-0.175459 -0.0989883 1.29868 2 1 2 
-0.13592 -0.184375 1.51956 0 0 0 
-0.215059 0.328898 1.33616 0 0 0 
-0.10647 -0.425153 1.38984 0 0 0 
-0.210416 0.436322 1.37173 0 0 0 
-0.194189 0.138377 1.2743 73 255 60 
-0.176996 -0.110379 1.31156 0 0 0 
-0.158179 -0.250212 1.377 0 0 0 
-0.077546 -0.546761 1.39688 0 0 0 
-0.213392 0.321265 1.3195 0 0 0 
-0.134292 -0.322999 1.37443 0 0 0 
-0.116141 -0.313945 1.31861 0 0 0 
-0.14466 -0.294819 1.38233 0 0 0 
-0.225618 0.0744112 1.35616 0 0 0 
-0.212762 0.405166 1.32824 0 0 0 
-0.211138 0.351228 1.30988 0 0 0 
-0.157576 -0.218377 1.34331 0 0 0 
-0.100224 -0.440051 1.38385 0 0 0 
-0.197367 0.298211 1.28047 0 1 0 
-0.150267 -0.28113 1.38093 0 0 0 
-0.215564 0.197193 1.33681 0 0 0 
-0.199851 -0.0754941 1.34311 0 0 0 
-0.206449 -0.0815342 1.36365 0 0 0 
-0.214793 0.205769 1.31557 0 0 0 
-0.213191 0.378242 1.32197 0 0 0 
-0.216702 -0.0300335 1.33417 0 0 0 
-0.178918 -0.178179 1.37358 0 0 0 
-0.211381 0.314012 1.31279 0 0 0 
-0.21825 0.173714 1.35348 0 0 0 
-0.0744577 -0.508999 1.37279 0 0 0 
-0.215752 0.202921 1.3674 0 0 0 
-0.210039 0.261893 1.3081 0 0 0 
-0.214682 0.0667686 1.42384 0 0 0 
-0.102728 -0.380857 1.3439 0 0 0 
-0.0786457 -0.587977 1.40043 0 0 0 
-0.157542 -0.20035 1.33264 0 0 0 
-0.209931 0.142087 1.30418 0 0 0 
-0.117769 -0.393865 1.39127 0 0 0 
-0.212275 0.225695 1.31644 0 0 0 
-0.0891398 -0.457885 1.36623 0 0 0 
-0.20451 -0.0963724 1.36423 0 0 0 
-0.193696 0.0680802 1.27402 35 34 254 
-0.16261 -0.160225 1.31174 10 7 7 
-0.203577 0.118414 1.29357 0 0 0 
-0.159821 0.385319 1.21504 0 0 0 
-0.214453 0.188571 1.32866 0 0 0 
-0.117064 -0.329503 1.33339 0 0 0 
-0.188674 -0.044987 1.28261 51 50 48 
-0.203042 0.151425 1.28791 0 0 0 
-0.225431 0.0382783 1.33908 0 0 0 
-0.212861 0.473853 1.27221 0 0 0 
-0.113317 -0.405045 1.38805 0 0 0 
-0.151671 -0.178301 1.30087 13 20 134 
-0.215515 0.160323 1.38265 0 0 0 
-0.220939 -0.0127581 1.32501 0 0 0 
-0.217782 0.117599 1.35245 0 0 0 
-0.145751 -0.211416 1.30827 14 9 6 
-0.214347 0.0834958 1.33571 0 0 0 
-0.189429 -0.15053 1.37323 0 0 0 
-0.123839 -0.365097 1.38337 0 0 0 
-0.199293 0.390733 1.26985 0 0 0 
-0.225888 0.00514902 1.32103 0 0 0 
-0.227593 0.0566214 1.35499 0 0 0 
-0.214408 0.29981 1.32858 0 0 0 
-0.165808 -0.169723 1.32904 0 0 0 
-0.212684 0.140584 1.32061 0 0 0 
-0.151749 -0.144052 1.2729 48 254 50 
-0.215225 0.154605 1.33534 0 0 0 
-0.119006 -0.376606 1.38668 0 0 0 
-0.138602 -0.262312 1.33472 0 0 0 
-0.147815 -0.244238 1.34565 0 0 0 
-0.167306 0.344799 1.22328 53 41 254 
-0.108221 -0.357189 1.45078 0 0 0 
-0.184139 0.0320468 1.24839 0 0 0 
-0.21881 0.0892048 1.34969 0 0 0 
-0.22682 0.017701 1.35873 0 0 0 
-0.199442 0.402284 1.2698 0 0 0 
-0.174769 -0.237292 1.41322 0 0 0 
-0.186705 0.486423 1.21679 45 254 35 
-0.0966889 -0.276427 1.29233 104 106 114 
-0.160273 0.427716 1.21158 49 45 254 
-0.191488 0.424996 1.25058 47 254 43 
-0.226814 0.561166 1.27933 231 57 58 
-0.095247 -0.471169 1.3927 0 0 0 
-0.213692 -0.0230093 1.32252 0 0 0 
-0.1578 -0.124219 1.27135 50 46 43 
-0.201904 0.346631 1.27939 0 0 0 
-0.240755 0.602472 1.26941 1 0 0 
-0.167246 -0.0710845 1.25499 33 254 31 
-0.222024 -0.0258159 1.35072 0 0 0 
-0.139565 -0.313947 1.38366 0 0 0 
-0.171597 0.115333 1.47492 0 0 0 
-0.108188 -0.37948 1.45074 0 0 0 
-0.199677 -0.00266383 1.26316 254 52 51 
-0.181929 0.358212 1.24079 79 75 64 
-0.212995 0.289251 1.32313 0 0 0 
-0.195154 -0.0325683 1.28063 44 252 42 
-0.168564 -0.204682 1.36652 0 0 0 
-0.215984 0.239207 1.32978 0 0 0 
-0.221228 0.500524 1.30292 0 0 0 
-0.231541 0.599542 1.30751 0 0 0 
-0.227132 -0.0175284 1.35618 0 0 0 
-0.0765776 -0.517589 1.42715 0 0 0 
-0.214286 0.247893 1.36223 0 0 0 
-0.169598 0.276586 1.23086 46 40 254 
-0.227749 0.0479808 1.3619 0 0 0 
-0.217523 0.0487177 1.31248 0 0 0 
-0.200327 0.504419 1.23952 54 51 254 
-0.21031 -0.073074 1.36726 0 0 0 
-0.210923 0.212815 1.39363 0 0 0 
-0.218337 0.015146 1.31101 0 0 0 
-0.162984 -0.222796 1.36597 0 0 0 
-0.12264 -0.307483 1.32733 0 0 0 
-0.205481 0.156919 1.29933 0 0 0 
-0.194616 -0.0443947 1.29793 0 0 0 
-0.102305 0.604223 1.11502 14 254 21 
-0.192648 0.176301 1.26423 254 60 56 
-0.219666 -0.0411469 1.35709 0 0 0 
-0.222292 0.539993 1.28482 39 38 137 
-0.211517 0.612469 1.43435 0 0 0 
-0.153539 0.344234 1.21146 254 72 71 
-0.225018 -0.0151534 1.34247 0 0 0 
-0.080118 -0.508121 1.38105 0 0 0 
-0.209414 0.538045 1.25329 254 50 49 
-0.216166 0.038166 1.30499 0 0 0 
-0.222972 0.0264765 1.3344 0 0 0 
-0.145717 -0.176806 1.28188 30 26 254 
-0.196342 0.21892 1.29167 0 0 0 
-0.126609 -0.236693 1.28997 34 255 31 
-0.197689 0.434203 1.26244 255 42 41 
-0.166776 0.251353 1.22879 68 64 53 
-0.136538 -0.280791 1.35242 0 0 0 
-0.0800169 -0.523993 1.38703 0 0 0 
-0.216844 0.107666 1.35188 0 0 0 
-0.226738 0.0175269 1.34535 0 0 0 
-0.215063 0.462101 1.30086 0 0 0 
-0.111236 -0.340039 1.32748 0 0 0 
-0.201138 0.473421 1.24684 67 253 69 
-0.163678 -0.110882 1.28424 51 50 45 
-0.217899 0.145311 1.3531 0 0 0 
-0.21844 0.517647 1.28137 5 1 1 
-0.197822 0.0294521 1.26759 54 52 254 
-0.107653 -0.360838 1.33339 0 0 0 
-0.168024 -0.145737 1.31568 0 0 0 
-0.0862278 -0.498437 1.38503 0 0 0 
-0.188802 0.415309 1.2463 49 254 62 
-0.213762 0.204151 1.32646 0 0 0 
-0.0864714 -0.0498921 1.20504 255 32 32 
-0.167837 0.61423 1.12929 3 0 0 
-0.223325 0.0516981 1.40772 0 0 0 
-0.21127 0.427177 1.3057 0 0 0 
-0.227081 0.0296613 1.38519 0 0 0 
-0.211037 0.488509 1.26828 1 0 0 
-0.184615 0.297052 1.24822 254 14 11 
-0.119214 0.171999 1.19855 8 254 16 
-0.206486 0.111492 1.30439 0 0 0 
-0.169935 -0.08271 1.27164 254 67 66 
-0.198351 0.0209539 1.2678 0 0 0 
-0.161043 0.276565 1.22203 66 63 54 
-0.174984 -0.165993 1.35364 0 0 0 
-0.0981771 0.25144 1.18565 49 39 37 
-0.212509 0.344567 1.31725 0 0 0 
-0.21273 0.0170612 1.30124 13 13 10 
-0.22906 0.552556 1.32754 0 0 0 
-0.213983 0.435207 1.32957 0 0 0 
-0.227325 0.550525 1.30612 0 0 0 
-0.0924606 -0.4099 1.34845 0 0 0 
-0.222295 0.0496837 1.32828 0 0 0 
-0.230626 0.00593175 1.33547 0 0 0 
-0.247469 0.60215 1.29794 0 0 0 
-0.166642 -0.0518028 1.23893 89 88 86 
-0.175831 0.142852 1.24484 53 52 48 
-0.128501 -0.348387 1.3829 0 0 0 
-0.211529 -0.0460238 1.34397 0 0 0 
-0.231166 0.59966 1.28782 9 1 1 
-0.211844 0.238408 1.31295 0 0 0 
-0.128348 0.185497 1.20139 10 2 0 
-0.207607 0.164037 1.30983 0 0 0 
-0.157633 0.176178 1.22802 254 90 86 
-0.234023 0.0129096 1.36614 0 0 0 
-0.211198 -0.00847293 1.29141 78 85 113 
-0.193189 0.516909 1.22895 254 57 53 
-0.145602 -0.2559 1.3486 0 0 0 
-0.0676281 0.436428 1.15506 26 254 26 
-0.171856 -0.0235704 1.23512 32 254 37 
-0.199404 0.125944 1.2815 20 25 10 
-0.239609 0.604363 1.25482 0 0 0 
-0.143205 0.398925 1.19256 21 254 32 
-0.0936808 -0.466269 1.38371 0 0 0 
-0.184884 -0.10649 1.32367 0 0 0 
-0.106224 -0.167701 1.25593 254 37 35 
-0.226085 0.0288481 1.36054 0 0 0 
-0.170896 0.414345 1.22297 254 57 53 
-0.201733 -0.0246428 1.29042 56 199 30 
-0.205808 0.336088 1.29051 0 0 0 
-0.0924578 -0.429166 1.3528 0 0 0 
-0.197727 0.536572 1.23045 254 41 40 
-0.209974 0.309464 1.2984 0 0 0 
-0.205813 0.0154336 1.27951 13 13 15 
-0.107986 0.346847 1.17325 254 45 41 
-0.174729 0.517954 1.20636 30 30 30 
-0.185153 -0.0874596 1.3149 0 0 0 
-0.158407 0.267242 1.21845 254 49 45 
-0.174698 0.357665 1.2317 61 58 254 
-0.190339 -0.0791008 1.31954 0 0 0 
-0.223732 -0.0331857 1.36814 0 0 0 
-0.208349 0.0817383 1.30364 0 0 0 
-0.144887 0.339824 1.20403 70 67 62 
-0.114364 0.148512 1.19717 255 53 49 
0.0165237 -0.0289115 1.20236 60 57 52 
0.0614915 0.0533497 1.21678 0 0 0 
0.04692 -0.0525718 1.22951 19 16 9 
0.00174595 -0.136511 1.24473 25 254 18 
-0.0125761 -0.379353 1.33525 0 0 0 
-0.0175696 -0.0316446 1.18959 69 64 254 
0.037371 -0.210094 1.28961 56 54 55 
0.107129 0.126877 1.25287 48 254 51 
-0.0356173 -0.259281 1.27779 0 0 0 
-0.0689402 -0.677511 1.41248 0 0 0 
0.000737823 -0.279573 1.29971 0 0 0 
0.0299955 -0.0206546 1.20341 0 0 0 
0.0218082 -0.257899 1.3004 250 56 53 
-0.0179639 -0.0836455 1.21734 0 0 0 
-0.0359405 -0.393616 1.32884 0 0 0 
0.0553672 -0.0674991 1.24216 100 99 105 
0.0554241 -0.136501 1.26786 21 254 37 
-0.0134905 -0.165332 1.24964 38 26 27 
-0.0689736 0.0949852 1.18865 0 1 0 
0.0993945 0.443228 1.21671 35 35 35 
-0.0170644 -0.27433 1.28995 0 0 0 
0.0854927 0.0516305 1.24288 33 32 30 
0.0392956 -0.150467 1.26729 66 64 254 
0.116541 -0.0201566 1.36717 54 255 59 
0.0578948 0.111005 1.22027 34 35 255 
0.0293723 -0.138297 1.25771 55 55 254 
-0.025572 -0.603981 1.40588 0 0 0 
0.0923681 0.586864 1.1793 37 254 32 
-0.0130727 -0.394316 1.34012 0 0 0 
-0.0545209 -0.274777 1.27828 0 0 0 
0.0562423 -0.0831658 1.24908 48 49 254 
0.0175136 -0.184155 1.26938 39 30 31 
-0.00948711 -0.243569 1.28075 0 0 0 
0.0370701 -0.0520556 1.2217 80 79 254 
-0.0562455 0.593518 1.11245 44 254 51 
0.0862485 0.00262643 1.23942 22 18 15 
-0.00193447 0.0542752 1.18829 21 19 254 
0.0497461 0.207266 1.20511 0 0 0 
0.035105 0.103583 1.20606 0 0 0 
-0.00353813 0.103354 1.19233 0 0 0 
0.0517462 0.595941 1.15098 49 253 58 
0.0516594 0.0509708 1.21699 13 14 254 
-0.0378903 -0.364017 1.31672 0 0 0 
0.0220536 0.00712918 1.19701 0 0 0 
0.0313304 0.063641 1.201 255 51 50 
-0.0247504 -0.0678409 1.20612 254 66 62 
-0.0438763 0.2273 1.17735 0 0 0 
-0.0225651 -0.388597 1.33315 0 0 0 
-0.0271299 0.264428 1.17633 55 254 60 
-0.0280945 -0.0188018 1.18229 64 65 254 
0.0199918 -0.0155948 1.19611 0 0 0 
0.0741745 0.288766 1.2158 32 31 24 
0.0563678 0.00455338 1.21602 0 0 0 
-0.0367592 -0.102518 1.21279 0 0 0 
-0.0299997 -0.0899237 1.21706 0 0 0 
-0.0328539 -0.603551 1.38748 0 0 0 
-0.0504135 -0.540194 1.37601 0 0 0 
0.0393923 -0.163669 1.27103 34 37 254 
-0.0403715 -0.284243 1.28412 0 0 0 
0.0466497 -0.0720911 1.24118 39 38 34 
0.0101452 0.0576161 1.19864 0 0 0 
-0.00163541 -0.0719611 1.2185 70 66 254 
0.0544359 0.172846 1.21237 54 255 46 
0.045523 0.0991318 1.21189 3 3 255 
-0.0177606 -0.178376 1.25364 0 0 0 
-0.129283 0.576042 1.16322 27 167 41 
0.0270357 -0.094833 1.23939 254 65 65 
-0.0831838 0.368552 1.16855 0 0 0 
0.0541232 0.462768 1.17409 66 64 254 
0.0236892 -0.0572621 1.22106 254 46 45 
0.0493909 -0.0607777 1.23516 63 61 254 
0.115893 0.335298 1.24573 255 44 43 
0.0599975 0.241337 1.20851 254 46 45 
-0.00324742 -0.128888 1.23904 38 36 37 
0.0287132 -0.194539 1.27576 254 39 29 
0.0928747 0.0610847 1.24871 255 27 26 
-0.0193717 -0.148207 1.23868 1 1 2 
0.0633619 -0.0696948 1.24811 53 53 53 
-0.0398888 0.595288 1.12312 71 68 63 
-0.0106343 0.515371 1.14817 36 35 33 
0.0612786 -0.0412921 1.23357 52 254 59 
0.0978633 0.308417 1.22736 55 54 52 
0.00883883 0.268813 1.18154 41 44 38 
4.25333e-05 -0.106327 1.2323 1 1 1 
-0.0399743 0.526205 1.14442 54 254 53 
-0.0399271 0.0795189 1.18812 0 0 0 
0.054552 -0.246966 1.31636 41 254 48 
0.0598445 0.578014 1.15725 22 22 20 
0.0585186 -0.0308849 1.22337 255 89 88 
-0.0643117 -0.250237 1.27259 0 0 0 
-0.0172856 -0.0514585 1.1973 0 0 0 
-0.0690599 -0.523166 1.39471 0 0 0 
0.0578927 0.286414 1.2025 24 254 26 
0.000561614 -0.0399138 1.20074 85 84 254 
0.0993966 0.464325 1.21199 254 36 34 
0.0137076 -0.199525 1.2739 1 1 1 
0.0555819 -0.00732805 1.2061 84 79 254 
-0.0157807 0.578724 1.13432 72 71 66 
-0.0420398 -0.429353 1.34045 0 0 0 
0.00434762 0.582423 1.13733 69 64 254 
-0.128963 0.0665096 1.21374 0 0 0 
-0.0689149 0.0342411 1.18306 0 0 0 
0.00394052 0.077104 1.19496 84 37 37 
-0.0487407 0.51621 1.14713 254 49 47 
0.00797058 -0.0777176 1.22563 35 254 44 
0.0569046 0.547313 1.16104 32 34 254 
0.099416 0.00744602 1.25211 255 46 45 
0.0949697 0.0736808 1.24577 255 42 41 
0.0442857 -0.130114 1.25931 254 49 48 
0.0662474 0.282403 1.21077 254 45 44 
0.0906527 0.146155 1.23917 255 38 36 
-0.0150353 -0.409053 1.34556 0 0 0 
0.0989443 0.167287 1.23721 45 43 255 
0.0778839 0.219299 1.22344 60 58 61 
0.0355461 0.14835 1.2025 19 255 29 
0.0849341 0.190586 1.23527 41 39 255 
0.0193157 0.16091 1.19423 0 0 0 
0.0163451 -0.271854 1.30527 43 46 39 
0.0751095 0.0832379 1.23589 25 255 38 
0.0835531 0.500616 1.1944 254 43 41 
-0.0479571 0.244371 1.17727 253 44 40 
-0.00809598 0.372682 1.16854 0 0 0 
-0.0435862 0.461138 1.15258 44 254 44 
0.010328 -0.307073 1.31458 0 0 0 
0.018166 -0.0480602 1.21528 71 254 79 
0.00603424 0.223961 1.18368 33 34 254 
0.0414201 0.603339 1.124 252 36 35 
-0.06191 -0.305775 1.2926 0 0 0 
0.10107 0.053625 1.2521 255 16 15 
0.0375161 0.552064 1.15039 247 53 54 
-0.0271537 -0.0786295 1.21124 0 0 0 
-0.163319 0.615732 1.09358 0 0 0 
0.0744734 0.00918652 1.23116 80 255 62 
0.0661751 0.295295 1.20923 50 48 254 
0.0509087 -0.0219852 1.21393 72 254 82 
0.06582 0.215527 1.21438 40 41 254 
-0.0883479 0.253818 1.18033 0 0 0 
0.0242671 0.289403 1.18638 57 52 254 
0.02097 -0.15666 1.26245 64 63 59 
