ply                 
format ascii 1.0    
element vertex 1298
property float x    
property float y    
property float z    
property uchar red  
property uchar green
property uchar blue 
end_header          
-0.107733 -0.377703 1.44927 0 0 0 
-0.199305 -0.00257851 1.26265 254 52 51 
-0.181002 0.357373 1.24116 79 75 64 
-0.212052 0.288444 1.32311 0 0 0 
-0.194771 -0.0323802 1.28003 44 252 42 
-0.168274 -0.203816 1.36534 0 0 0 
-0.215063 0.238523 1.32966 0 0 0 
-0.220062 0.499369 1.30336 0 0 0 
-0.230243 0.598285 1.30814 0 0 0 
-0.226345 -0.0174415 1.35557 0 0 0 
-0.0764614 -0.515008 1.42547 0 0 0 
-0.213241 0.247175 1.3621 0 0 0 
-0.168994 0.27586 1.23096 46 40 254 
-0.226877 0.0478432 1.3614 0 0 0 
-0.217695 0.0485965 1.3114 0 0 0 
-0.199455 0.50323 1.23994 54 51 254 
-0.209568 -0.0727744 1.36653 0 0 0 
-0.209801 0.212181 1.39342 0 0 0 
-0.21803 0.0151605 1.31023 0 0 0 
-0.162501 -0.221835 1.36498 0 0 0 
-0.122462 -0.306084 1.32629 0 0 0 
-0.204758 0.156473 1.29911 0 0 0 
-0.194113 -0.0441745 1.29736 0 0 0 
-0.101582 0.603054 1.11587 14 254 21 
-0.191986 0.175845 1.26413 254 60 56 
-0.218912 -0.0409705 1.35643 0 0 0 
-0.221231 0.538728 1.28526 39 38 137 
-0.209838 0.611049 1.43492 0 0 0 
-0.152923 0.343368 1.21171 254 72 71 
-0.224412 -0.0150907 1.34173 0 0 0 
-0.0801215 -0.505607 1.37953 0 0 0 
-0.208464 0.536798 1.25375 254 50 49 
-0.21598 0.0378677 1.30415 0 0 0 
-0.222229 0.0264202 1.33389 0 0 0 
-0.14548 -0.176021 1.28116 30 26 254 
-0.195567 0.218324 1.29159 0 0 0 
-0.126449 -0.235629 1.28915 34 255 31 
-0.196355 0.433253 1.26305 255 42 41 
-0.166206 0.250692 1.22886 68 64 53 
-0.136223 -0.279534 1.35136 0 0 0 
-0.0800221 -0.521388 1.38546 0 0 0 
-0.21597 0.107346 1.3515 0 0 0 
-0.22476 0.0175913 1.34606 0 0 0 
-0.214027 0.460948 1.30116 0 0 0 
-0.111119 -0.338468 1.32639 0 0 0 
-0.200274 0.472277 1.2472 67 253 69 
-0.163335 -0.110382 1.28361 51 50 45 
-0.216982 0.144877 1.35279 0 0 0 
-0.217414 0.516415 1.28177 5 1 1 
-0.197337 0.029418 1.2672 54 52 254 
-0.107552 -0.359158 1.33225 0 0 0 
-0.167614 -0.145104 1.31492 0 0 0 
-0.0861907 -0.495986 1.38351 0 0 0 
-0.188003 0.414269 1.24658 49 254 62 
-0.21289 0.203561 1.32628 0 0 0 
-0.0863485 -0.0495633 1.20479 255 32 32 
-0.167131 0.613014 1.13002 3 0 0 
-0.222392 0.0514927 1.40705 0 0 0 
-0.210255 0.426083 1.30594 0 0 0 
-0.22614 0.0295785 1.38463 0 0 0 
-0.209936 0.487409 1.26878 1 0 0 
-0.183932 0.296264 1.24831 254 14 11 
-0.118828 0.171586 1.19861 8 254 16 
-0.206654 0.111227 1.30336 0 0 0 
-0.169639 -0.0823048 1.27103 254 67 66 
-0.197849 0.0209744 1.26736 0 0 0 
-0.160468 0.275847 1.22215 66 63 54 
-0.174673 -0.165277 1.35255 0 0 0 
-0.0977344 0.250831 1.18589 49 39 37 
-0.211534 0.343637 1.31733 0 0 0 
-0.212128 0.0170514 1.30077 13 13 10 
-0.227833 0.551257 1.32798 0 0 0 
-0.212871 0.4341 1.32981 0 0 0 
-0.226568 0.548953 1.30617 0 0 0 
-0.0924088 -0.407947 1.34719 0 0 0 
-0.221704 0.0495262 1.32766 0 0 0 
-0.229886 0.00594014 1.33492 0 0 0 
-0.246292 0.600815 1.29847 0 0 0 
-0.16636 -0.0515249 1.23849 89 88 86 
-0.175322 0.142478 1.24469 53 52 48 
-0.128183 -0.346793 1.38165 0 0 0 
-0.210842 -0.0458203 1.34332 0 0 0 
-0.230034 0.598322 1.28836 9 1 1 
-0.210988 0.237733 1.31285 0 0 0 
-0.127937 0.18504 1.20145 10 2 0 
-0.206839 0.163566 1.30961 0 0 0 
-0.157151 0.175723 1.22798 254 90 86 
-0.233157 0.0128841 1.36557 0 0 0 
-0.210655 -0.00839125 1.2909 78 85 113 
-0.192337 0.515707 1.22941 254 57 53 
-0.145251 -0.254769 1.34759 0 0 0 
-0.0670161 0.435456 1.15568 26 254 26 
-0.171549 -0.0233974 1.23472 32 254 37 
-0.198777 0.125597 1.28125 20 25 10 
-0.238582 0.603044 1.25537 0 0 0 
-0.142422 0.398024 1.19307 21 254 32 
-0.0935889 -0.464009 1.38225 0 0 0 
-0.184377 -0.106031 1.32296 0 0 0 
-0.106106 -0.166921 1.25534 254 37 35 
-0.225239 0.0287752 1.36 0 0 0 
-0.170171 0.413324 1.2233 254 57 53 
-0.201224 -0.0244974 1.2899 56 199 30 
-0.204938 0.335187 1.29061 0 0 0 
-0.0924165 -0.42711 1.3515 0 0 0 
-0.19685 0.535342 1.23093 254 41 40 
-0.209099 0.30862 1.29844 0 0 0 
-0.205293 0.0154391 1.27907 13 13 15 
-0.107457 0.34602 1.17364 254 45 41 
-0.173817 0.516828 1.20698 30 30 30 
-0.184654 -0.0870735 1.31424 0 0 0 
-0.157852 0.26655 1.21857 254 49 45 
-0.174006 0.356752 1.23192 61 58 254 
-0.189808 -0.0787518 1.31888 0 0 0 
-0.222922 -0.0330437 1.36748 0 0 0 
-0.207218 0.0815259 1.30356 0 0 0 
-0.144165 0.339024 1.20441 70 67 62 
-0.11401 0.14817 1.19721 255 53 49 
0.016291 -0.0287895 1.20221 60 57 52 
0.0611589 0.0531663 1.21665 0 0 0 
0.0465571 -0.0523824 1.22926 19 16 9 
0.00148981 -0.135953 1.24426 25 254 18 
-0.0129351 -0.377573 1.33408 0 0 0 
-0.0176906 -0.031495 1.18947 69 64 254 
0.0369213 -0.209209 1.28887 56 54 55 
0.106668 0.126414 1.25272 48 254 51 
-0.0358075 -0.258145 1.27705 0 0 0 
-0.0692 -0.673826 1.41051 0 0 0 
0.000388054 -0.278338 1.29884 0 0 0 
0.0297258 -0.0205662 1.20326 0 0 0 
0.0213862 -0.256777 1.29954 250 56 53 
-0.0181152 -0.0832927 1.21705 0 0 0 
-0.0362048 -0.391754 1.32768 0 0 0 
0.0549577 -0.0672588 1.24186 100 99 105 
0.0549629 -0.135961 1.26729 21 254 37 
-0.0137091 -0.164644 1.24912 38 26 27 
-0.0688443 0.0947636 1.18857 0 1 0 
0.0992336 0.441836 1.21673 35 35 35 
-0.0173378 -0.273122 1.28913 0 0 0 
0.0850706 0.0514376 1.24258 33 32 30 
0.0388835 -0.149875 1.26677 66 64 254 
0.115866 -0.020057 1.36608 54 255 59 
0.0576197 0.110634 1.22008 34 35 255 
0.0290108 -0.13774 1.25718 55 55 254 
-0.0260089 -0.600786 1.40403 0 0 0 
0.0923575 0.585214 1.17955 37 254 32 
-0.0134433 -0.392465 1.33895 0 0 0 
-0.0546448 -0.273558 1.27752 0 0 0 
0.055823 -0.08285 1.24865 48 49 254 
0.0171636 -0.183391 1.26876 39 30 31 
-0.00977221 -0.242519 1.28002 0 0 0 
0.0367476 -0.0518628 1.22146 80 79 254 
-0.0558629 0.592134 1.1129 44 254 51 
0.0857896 0.00260279 1.23911 22 18 15 
-0.00204813 0.054134 1.18821 21 19 254 
0.0495748 0.206608 1.20504 0 0 0 
0.0349078 0.103259 1.20594 0 0 0 
-0.00361226 0.10306 1.19224 0 0 0 
0.0518621 0.594375 1.15132 49 253 58 
0.0513632 0.0508029 1.21679 13 14 254 
-0.0381301 -0.362326 1.31567 0 0 0 
0.0218344 0.00713139 1.19688 0 0 0 
0.0311145 0.0634458 1.20088 255 51 50 
-0.0248691 -0.0675512 1.20589 254 66 62 
-0.0437411 0.22666 1.17735 0 0 0 
-0.0228853 -0.386761 1.33198 0 0 0 
-0.0270244 0.263677 1.17639 55 254 60 
-0.0281738 -0.0186902 1.1822 64 65 254 
0.019758 -0.0155172 1.19598 0 0 0 
0.0739762 0.287842 1.21576 32 31 24 
0.0560173 0.00453471 1.21588 0 0 0 
-0.036858 -0.10209 1.2125 0 0 0 
-0.0301122 -0.0895325 1.21676 0 0 0 
-0.0332578 -0.600429 1.38578 0 0 0 
-0.0506929 -0.537431 1.37442 0 0 0 
0.0389695 -0.16302 1.27048 34 37 254 
-0.040559 -0.282981 1.28334 0 0 0 
0.0462754 -0.071815 1.24079 39 38 34 
0.00999968 0.0574606 1.1985 0 0 0 
-0.00183558 -0.0716652 1.21821 70 66 254 
0.0542194 0.172283 1.21225 54 255 46 
0.045283 0.0988105 1.21173 3 3 255 
-0.0179713 -0.177628 1.25309 0 0 0 
-0.128692 0.574564 1.16345 27 167 41 
0.0267164 -0.0944589 1.23899 254 65 65 
-0.0828354 0.367532 1.1686 0 0 0 
0.0541292 0.461446 1.17428 66 64 254 
0.0234108 -0.0570366 1.22077 254 46 45 
0.0490154 -0.0605585 1.23487 63 61 254 
0.115579 0.334155 1.24557 255 44 43 
0.0598136 0.240568 1.20847 254 46 45 
-0.00348007 -0.128362 1.23861 38 36 37 
0.0283115 -0.193733 1.2751 254 39 29 
0.0924307 0.0608539 1.24839 255 27 26 
-0.0195581 -0.147595 1.23824 1 1 2 
0.0629269 -0.0694354 1.2477 53 53 53 
-0.0395412 0.593854 1.12354 71 68 63 
-0.0104107 0.514019 1.14846 36 35 33 
0.0608773 -0.0411445 1.23325 52 254 59 
0.0975997 0.307395 1.22726 55 54 52 
0.0088399 0.268019 1.18157 41 44 38 
-0.000188196 -0.105894 1.23194 1 1 1 
-0.0396761 0.524886 1.14477 54 254 53 
-0.0398957 0.0793265 1.188 0 0 0 
0.0539953 -0.245928 1.31552 41 254 48 
0.0599244 0.576465 1.15756 22 22 20 
0.0581382 -0.0307779 1.22311 255 89 88 
-0.0643798 -0.24911 1.27185 0 0 0 
-0.0174206 -0.0512344 1.19713 0 0 0 
-0.0692332 -0.520405 1.39299 0 0 0 
0.0577502 0.285519 1.2025 24 254 26 
0.000375588 -0.039744 1.20056 85 84 254 
0.0992544 0.462887 1.21205 254 36 34 
0.0133601 -0.198696 1.27327 1 1 1 
0.0552346 -0.00730775 1.20594 84 79 254 
-0.0155089 0.577307 1.13472 72 71 66 
-0.0422976 -0.42728 1.33919 0 0 0 
0.00457768 0.580949 1.13769 69 64 254 
-0.128637 0.0664223 1.21351 0 0 0 
-0.068824 0.0342189 1.18295 0 0 0 
0.00382382 0.0768884 1.19486 84 37 37 
-0.0484149 0.514879 1.14741 254 49 47 
0.00773269 -0.0774028 1.22531 35 254 44 
0.0569694 0.545819 1.16131 32 34 254 
0.0989073 0.0073999 1.25174 255 46 45 
0.0945296 0.0734051 1.24547 255 42 41 
0.0438725 -0.12961 1.25884 254 49 48 
0.0660726 0.281506 1.21074 254 45 44 
0.0902849 0.145639 1.23893 255 38 36 
-0.0154014 -0.40709 1.3443 0 0 0 
0.0985657 0.166698 1.237 45 43 255 
0.0776206 0.218567 1.22331 60 58 61 
0.0353759 0.147883 1.2024 19 255 29 
0.0846203 0.18993 1.23507 41 39 255 
0.0192132 0.160419 1.19416 0 0 0 
0.0159355 -0.270656 1.30437 43 46 39 
0.0747498 0.0829443 1.23562 25 255 38 
0.0834944 0.499134 1.19454 254 43 41 
-0.0478014 0.243691 1.17731 253 44 40 
-0.00797331 0.371626 1.16866 0 0 0 
-0.0433088 0.459921 1.15282 44 254 44 
0.00991869 -0.305693 1.31359 0 0 0 
0.0179127 -0.0478672 1.21505 71 254 79 
0.00601186 0.223298 1.18369 33 34 254 
0.0415751 0.601855 1.12444 252 36 35 
-0.0620179 -0.304382 1.29173 0 0 0 
0.10059 0.0534146 1.25175 255 16 15 
0.0376378 0.550603 1.15071 247 53 54 
-0.0272696 -0.0782883 1.21097 0 0 0 
-0.162691 0.614446 1.09412 0 0 0 
0.0740537 0.00913803 1.231 80 255 62 
0.0660108 0.294361 1.20921 50 48 254 
0.0505638 -0.0219082 1.21372 72 254 82 
0.0655965 0.214827 1.21431 40 41 254 
-0.0880614 0.253133 1.18036 0 0 0 
0.0242342 0.288536 1.18642 57 52 254 
0.0206266 -0.156018 1.26188 64 63 59 
0.0950088 0.118601 1.23974 26 255 29 
-0.0279152 0.573525 1.13683 69 64 254 
0.0767278 -0.242633 1.34115 52 50 51 
0.0678334 0.0644952 1.22767 0 0 0 
0.0438608 -0.139568 1.26419 63 62 58 
-0.00276062 -0.372307 1.33731 0 0 0 
-0.0436861 -0.263725 1.2754 0 0 0 
-0.0318494 0.511151 1.1462 0 0 0 
0.0455517 0.187605 1.20448 0 0 0 
0.017437 -0.231548 1.28321 252 73 72 
-0.0272237 -0.433674 1.34997 0 0 0 
0.0226618 -0.122486 1.25288 15 13 254 
0.0662074 0.187404 1.21728 56 254 58 
0.122458 0.395019 1.24999 33 32 30 
-0.042581 0.420782 1.16195 0 0 0 
-0.00872841 0.331726 1.17159 35 36 254 
-0.021917 0.350636 1.1682 39 37 254 
0.0242602 0.445621 1.16874 111 130 254 
-0.0495349 0.0830434 1.18846 68 66 254 
-0.00199166 -0.016648 1.18742 44 39 35 
0.0924544 0.292796 1.22762 41 42 254 
0.0431697 0.123627 1.20923 74 254 62 
-0.0363522 -0.2165 1.25866 0 0 0 
0.0554241 0.183668 1.21443 32 254 41 
-0.00420858 -0.357355 1.32642 0 0 0 
-0.0587038 0.570901 1.12744 52 254 48 
0.0353856 0.0724434 1.20851 0 0 0 
0.0462984 -0.0343618 1.22121 51 254 61 
-0.154048 0.596814 1.1585 2 13 2 
-0.0686677 0.375442 1.16854 0 0 0 
-0.0369261 -0.340727 1.30728 0 0 0 
-0.0814663 -0.267611 1.28455 0 0 0 
0.0519484 0.323738 1.19668 0 0 0 
-0.0656305 -0.326999 1.30002 0 0 0 
0.000843173 0.424314 1.16804 63 63 61 
-0.0778008 -0.353602 1.3173 0 0 0 
-0.0535172 -0.525776 1.37221 0 0 0 
0.0672854 0.464057 1.18164 61 57 56 
-0.0131322 0.256892 1.17718 56 254 58 
-0.0451234 -0.334595 1.30135 0 0 0 
-0.0354334 -0.454349 1.3547 0 0 0 
-0.0956684 -0.327676 1.31573 0 0 0 
0.0246634 0.0715202 1.20247 53 51 254 
0.0692835 0.478196 1.17714 254 57 57 
0.020487 -0.0788608 1.23285 0 0 0 
-0.0358729 -0.303729 1.29564 0 0 0 
0.0314652 0.000704576 1.20292 0 0 0 
0.109242 0.253654 1.24125 255 66 64 
0.0858459 0.283773 1.22683 254 30 29 
0.00852979 0.285558 1.18642 56 46 254 
-0.0427406 -0.506575 1.36779 0 0 0 
-0.00815974 -0.266627 1.29187 0 0 0 
0.072383 0.102884 1.23104 255 57 55 
-0.0160657 -0.0583493 1.20411 63 58 254 
0.087582 0.201332 1.23285 254 33 33 
-0.0558765 0.382421 1.16271 19 20 14 
0.0437087 0.292991 1.19681 254 27 26 
0.0834109 0.591984 1.15573 254 62 57 
0.0727159 0.263192 1.21604 49 47 254 
0.0845024 0.118161 1.23672 254 27 25 
-0.0340592 0.237516 1.17654 65 254 64 
-0.0634291 0.190566 1.18216 0 0 0 
-0.0371187 0.248347 1.17617 0 0 0 
-0.0719808 0.35529 1.17111 0 0 0 
-0.00921271 0.592243 1.13756 47 42 254 
0.0148937 0.0381209 1.19164 71 69 72 
-0.0986473 0.206126 1.18643 0 0 0 
0.063573 0.27217 1.21075 255 11 10 
-0.129504 0.191008 1.21274 0 0 0 
-0.0379892 0.189785 1.1793 33 254 78 
0.106715 0.339608 1.23318 254 37 36 
-0.0530545 0.589415 1.1306 77 69 254 
0.012098 0.390064 1.17364 69 69 69 
0.068392 0.0878662 1.22931 254 30 30 
-0.0747077 0.0651292 1.18656 0 0 0 
-0.0603164 0.273733 1.17436 1 0 3 
-0.0347931 -0.494635 1.36876 0 0 0 
-0.00623713 0.459345 1.1549 9 254 18 
0.0364282 -0.120714 1.25671 53 51 254 
0.0740211 0.376456 1.20196 53 49 50 
-0.0375356 -0.485022 1.36671 0 0 0 
0.0395946 0.333973 1.18842 48 254 47 
-0.0466288 0.550786 1.13641 37 32 29 
-0.0822183 0.0780368 1.19214 0 0 0 
-0.0691778 0.589119 1.13064 28 27 22 
0.04905 0.4361 1.18623 31 254 25 
-0.0432687 -0.470008 1.35381 0 0 0 
0.0725991 -0.0383497 1.23525 82 83 255 
0.0588317 0.494546 1.17125 254 66 71 
0.0517546 0.0648881 1.21715 30 254 35 
0.0472168 -0.308472 1.38574 254 77 73 
0.00560642 0.489181 1.15307 17 14 254 
0.0203128 0.420207 1.17362 0 0 0 
-0.118213 0.0765207 1.20548 0 0 0 
-0.0853095 -0.147153 1.2401 0 0 0 
0.0578247 0.366837 1.1971 37 35 36 
-0.012783 0.398809 1.16724 3 0 0 
0.0332391 0.159108 1.20138 0 0 0 
-0.142357 -0.0428383 1.22399 0 0 0 
0.051529 0.613631 1.12623 58 56 51 
0.0875982 0.223314 1.23241 255 40 38 
-0.0156268 0.317438 1.17115 47 45 254 
0.0526518 0.35711 1.19138 53 254 58 
-0.0586639 0.415727 1.15506 59 59 59 
-0.000129982 0.405582 1.16877 55 55 53 
-0.129396 0.402677 1.1739 0 0 0 
-0.0413765 0.385336 1.16704 50 49 45 
-0.121724 -0.105392 1.24314 0 0 0 
0.0257612 0.430034 1.17393 254 34 30 
-0.0187166 -0.195374 1.25723 1 1 1 
-0.00543238 0.312448 1.17565 0 0 0 
-0.0448746 -0.131362 1.22463 0 0 0 
0.0115595 -0.161479 1.26096 52 51 47 
-0.0243558 0.381705 1.16432 31 29 254 
-0.107752 0.448907 1.16322 0 0 0 
-0.0654093 -0.275716 1.28179 0 0 0 
-0.0465762 -0.186992 1.24484 0 0 0 
0.0130476 -0.0657536 1.22259 78 253 77 
-0.0114242 0.212157 1.18154 0 0 0 
-0.000201983 0.232808 1.18221 0 0 2 
0.0106572 -0.0940227 1.23291 44 45 254 
-0.0178132 0.174707 1.18235 55 254 62 
-0.0449706 -0.00686813 1.05066 0 0 0 
-0.0342526 -0.158326 1.23827 0 0 0 
0.0152477 0.107523 1.1982 70 255 53 
-0.203688 0.08085 1.34513 0 0 0 
0.0433082 0.00198068 1.62299 32 28 255 
-0.0719611 0.270058 1.17651 0 0 0 
-0.265378 0.105289 1.38801 0 0 0 
-0.130032 0.0543752 1.25301 0 0 0 
0.127746 0.0933684 1.30461 47 47 47 
-0.0495422 -0.659734 1.41348 0 0 0 
0.0714974 -0.234068 1.33086 57 55 254 
-0.0730305 -0.607905 1.3778 0 0 0 
-0.0417977 -0.6346 1.41694 0 0 0 
-0.0174389 -0.296563 1.29847 0 0 0 
0.0326787 0.343234 1.18506 61 62 254 
-0.0427674 -0.251598 1.27084 0 0 0 
0.0109055 -0.171341 1.26263 1 1 1 
0.0868181 -0.0558526 1.26387 107 106 104 
0.101001 0.088064 1.25053 35 33 34 
-0.0250123 -0.119203 1.22749 0 0 0 
0.109338 0.0264921 1.26501 82 82 82 
0.100198 0.134479 1.2432 54 254 53 
0.0761811 0.193833 1.2252 52 46 226 
0.112952 0.0380066 1.27442 53 52 255 
0.051348 -0.196563 1.29661 65 254 68 
0.0726453 0.275835 1.21637 43 254 45 
0.00915404 -0.383946 1.36481 0 0 0 
0.0511352 -0.0986009 1.25226 37 36 34 
-0.0469639 -0.411276 1.33218 0 0 0 
0.124301 0.00897646 1.29867 49 48 255 
0.100522 0.209888 1.23672 31 31 31 
0.0724035 0.0425749 1.22505 64 62 63 
-0.0394071 -0.590464 1.38609 0 0 0 
0.0482337 0.312604 1.19438 0 0 0 
-0.0273072 -0.422087 1.34406 0 0 0 
0.118664 0.116351 1.27431 255 43 42 
-0.0318542 -0.34963 1.31402 0 0 0 
-0.0103203 0.0834908 1.19199 0 0 0 
-0.0351915 -0.508812 1.37551 0 0 0 
0.0716799 0.43872 1.20072 76 76 76 
0.0338792 -0.25569 1.31117 67 68 255 
0.0830477 -0.0731958 1.28556 58 57 55 
0.119451 0.13529 1.27128 49 48 46 
0.11039 0.177606 1.2539 35 33 255 
0.0789772 0.181225 1.23273 68 66 67 
0.10443 0.199564 1.24182 69 67 255 
0.0537045 -0.111855 1.25774 254 49 48 
-0.0135372 -0.150073 1.24598 0 0 0 
-0.0148057 0.0947665 1.18976 0 0 0 
0.0470831 0.141261 1.20973 254 64 61 
0.102079 0.289375 1.22994 33 33 33 
0.119568 0.0470798 1.28888 255 46 42 
0.106741 0.0519802 1.26166 22 20 255 
0.0650407 0.384156 1.19944 53 52 50 
0.116229 0.278461 1.25178 254 26 26 
0.0624939 -0.188387 1.29982 25 24 254 
0.0127269 -0.261874 1.30027 0 0 0 
0.0687731 0.231144 1.21858 254 32 31 
-0.0637395 -0.207427 1.24472 0 0 0 
0.0753753 -0.162517 1.33179 254 46 46 
0.0783947 0.0620399 1.24028 18 253 22 
0.0105176 -0.347682 1.34254 0 0 0 
-0.0881374 -0.163614 1.24596 0 0 0 
0.0682678 -0.222063 1.31577 58 254 68 
0.0535795 -0.170294 1.28405 34 254 49 
-0.0228689 -0.377644 1.32911 0 0 0 
0.110412 0.122625 1.26272 24 25 255 
0.0686015 -0.188631 1.316 16 254 21 
0.0639898 0.330563 1.20301 254 51 51 
0.0139171 -0.112402 1.24763 94 89 64 
0.115537 -0.0181966 1.29403 38 255 60 
-0.0231856 -0.39757 1.34043 0 0 0 
0.115894 0.0134818 1.28104 255 23 23 
-0.0169 -0.203835 1.26353 0 0 0 
0.108758 0.100033 1.25918 48 49 255 
0.0539559 0.0979983 1.21643 52 255 55 
0.0574244 -0.0156627 1.21699 254 39 35 
0.108619 0.0794169 1.25833 255 46 45 
0.106873 0.365144 1.23149 26 254 30 
0.0137071 0.455613 1.16206 79 79 79 
0.115724 0.216 1.25705 51 50 48 
0.013376 0.0941277 1.19725 62 62 255 
0.0986121 -0.0162188 1.25141 61 62 254 
0.0361598 0.0489138 1.20168 0 0 0 
0.106864 0.285808 1.2384 24 255 24 
0.0403903 0.000162993 1.20565 0 0 0 
0.107117 -0.00960942 1.26375 59 59 59 
0.0849966 -0.0134677 1.2363 254 71 67 
0.0632459 0.0280332 1.21966 1 1 1 
-0.0280034 -0.215281 1.26332 0 0 0 
0.044318 -0.189343 1.28403 57 55 254 
0.011618 0.141947 1.19319 61 252 58 
0.080108 0.211101 1.22805 254 64 62 
0.0753089 0.0200148 1.22646 58 254 45 
0.0419593 0.526417 1.16185 12 14 254 
0.0482651 0.543937 1.15951 48 253 55 
0.062276 0.0748591 1.22592 0 0 0 
0.122723 0.0293379 1.29726 41 254 33 
0.0802058 0.0973209 1.23939 254 20 18 
0.120582 0.090143 1.28147 255 19 15 
0.0316032 -0.239814 1.29981 27 15 255 
-0.0563358 -0.557113 1.38031 0 0 0 
-0.0551144 0.22802 1.17816 0 0 0 
0.0465952 0.0892857 1.21595 254 36 36 
0.00378223 0.0909959 1.19295 8 8 15 
0.105618 0.0396175 1.25891 56 55 53 
0.0411853 0.484467 1.16716 26 25 254 
0.0622621 0.539397 1.16921 46 251 47 
0.039771 -0.0615383 1.23166 59 254 61 
0.0796554 -0.212192 1.35894 42 254 47 
-0.125963 -0.0710354 1.23296 0 0 0 
-0.047607 0.405962 1.15106 0 0 0 
0.0752743 0.0323925 1.22854 42 44 254 
0.082396 0.414695 1.21271 10 254 25 
-0.0506139 0.410019 1.16112 0 0 0 
-0.101206 0.276893 1.18418 0 0 0 
-0.00129533 0.196019 1.18354 0 0 0 
0.107917 0.239844 1.24595 21 255 27 
0.0791483 -0.185796 1.34487 254 109 107 
0.10131 0.320464 1.2273 47 48 254 
-0.0064745 -0.253411 1.29201 0 0 0 
0.0790497 0.271239 1.22174 48 44 43 
-0.0261625 -0.0401991 1.18941 0 0 0 
0.0416932 0.283118 1.20167 60 59 54 
0.0688657 0.531417 1.17653 36 254 39 
-0.0406942 -0.172957 1.23943 0 0 0 
-0.097304 -0.283576 1.29867 0 0 0 
0.0449026 0.270574 1.19446 47 45 46 
0.0125763 -0.0405194 1.20309 59 255 64 
0.061178 0.510744 1.1769 254 67 67 
0.070799 -0.0882261 1.25845 15 254 24 
-0.049521 -0.363418 1.3141 0 0 0 
0.068209 -0.00800569 1.21662 89 84 254 
0.0764959 0.486113 1.18969 73 71 74 
0.0655405 0.000958813 1.22329 254 54 53 
0.0662041 0.165393 1.22233 56 54 55 
0.0550162 0.0150609 1.21455 59 252 59 
-0.0220811 0.0702258 1.19133 0 0 0 
-0.0540789 0.397743 1.16642 0 0 0 
-0.12459 -0.210537 1.26469 0 0 0 
0.0615298 0.446104 1.18876 66 64 254 
-0.0313454 -0.26764 1.29443 0 0 0 
0.0618095 0.146077 1.2215 46 44 254 
0.11385 0.268666 1.24753 50 50 50 
0.110949 0.114641 1.26268 254 44 42 
-0.0304915 -0.597804 1.39858 0 0 0 
0.115161 0.322936 1.24964 255 51 50 
-0.00953709 0.446779 1.15963 6 1 2 
-0.00561426 0.241041 1.17946 1 0 0 
0.0644323 0.498961 1.18163 254 45 49 
0.0113344 -0.149496 1.25373 0 0 0 
0.0718145 0.390645 1.20324 31 30 28 
0.0641734 -0.212651 1.30585 61 57 254 
0.103922 0.00193231 1.25994 10 11 254 
-0.0744033 0.384623 1.15788 0 0 0 
-0.0452209 -0.268579 1.27649 0 0 0 
0.0327031 0.298962 1.19353 28 26 254 
0.0577089 0.350612 1.19552 27 27 27 
0.0457393 0.150952 1.20888 79 76 71 
-9.98559e-06 0.0674424 1.19426 13 16 16 
0.0808768 0.559167 1.17201 30 28 29 
-0.00312504 0.304168 1.18023 0 0 0 
0.120023 0.538263 1.22639 35 36 254 
0.128307 0.408246 1.26566 254 51 50 
0.0199681 -0.0813193 1.26055 93 92 90 
0.0302441 0.024697 1.19955 254 17 13 
0.0401498 0.46353 1.16834 15 16 254 
0.0488977 0.246645 1.20224 254 30 26 
-0.0127329 0.428422 1.16616 0 0 0 
-0.0329584 0.420976 1.16397 0 0 0 
0.0517384 0.481196 1.17371 42 42 40 
-0.00656596 -0.318024 1.31375 0 0 0 
0.072293 -0.193576 1.33271 18 254 22 
-0.0417038 -0.517865 1.37502 0 0 0 
-0.0212657 -0.538426 1.41255 0 0 0 
0.101823 0.21946 1.23412 255 64 62 
0.0398735 0.0164673 1.20818 0 0 0 
0.0703724 0.572129 1.16635 4 4 3 
0.0823158 -0.0305021 1.24065 254 75 71 
0.0175836 -0.0616767 1.20974 254 32 30 
-0.0354871 -0.138711 1.22794 0 0 0 
0.0367186 0.369967 1.18357 49 49 49 
-0.0257132 -0.30669 1.30089 0 0 0 
0.0903188 -0.0318448 1.25016 255 73 72 
-0.0535355 -0.584214 1.38189 0 0 0 
0.11593 0.192538 1.25714 30 28 29 
0.105874 -0.0638266 1.33137 67 60 255 
-0.00228116 0.395412 1.16997 1 1 1 
0.0677415 0.126065 1.22535 54 52 254 
-0.0394991 -0.009325 1.19029 0 0 0 
-0.0217266 0.0396464 1.18394 0 0 0 
0.0531406 0.417817 1.18931 60 61 254 
-0.0413233 -0.0574247 1.19468 0 0 0 
0.0152479 0.371218 1.17538 60 58 61 
-0.130688 0.0866356 1.61867 15 255 19 
0.0845441 0.353045 1.21865 41 254 30 
0.0634373 -0.019753 1.21476 0 0 0 
0.0805681 0.526617 1.1823 51 50 46 
7.02199e-05 -0.249408 1.28634 0 0 0 
0.0340398 0.122867 1.2044 0 0 0 
-0.0157981 -0.0994083 1.22325 0 0 0 
0.0676196 -0.0302998 1.22604 80 75 254 
0.010328 0.44332 1.16594 75 254 75 
-0.00430138 0.277199 1.17754 0 0 0 
0.0995819 0.348008 1.22495 47 45 46 
-0.0404258 -0.118379 1.21995 0 0 0 
0.0120273 0.2155 1.18959 45 40 255 
-0.0153478 0.134159 1.18697 0 0 0 
0.0306564 -0.148898 1.25972 77 246 62 
0.0385852 0.309374 1.19169 36 37 254 
0.029735 0.419678 1.17705 17 16 254 
0.00508903 -0.205953 1.27232 0 0 0 
0.0357496 0.406849 1.18138 0 0 0 
-0.0468256 -0.0437463 1.18905 0 0 0 
-0.0631816 -0.0874713 1.21325 0 0 0 
-0.0609478 -0.664767 1.40847 0 0 0 
-0.133625 0.505824 1.18484 0 0 0 
-0.0652504 -0.601405 1.38692 0 0 0 
-0.0573888 -0.548845 1.37395 0 0 0 
-0.050297 -0.680958 1.41293 0 0 0 
0.0201268 -0.300103 1.3205 0 0 0 
0.132592 0.0591476 1.37342 21 21 255 
0.119218 0.097975 1.27883 20 20 254 
0.0175627 -0.375871 1.37598 0 0 0 
0.127234 0.0323619 1.30121 55 53 54 
-0.127801 0.442326 1.18382 0 0 0 
0.147729 0.605915 1.39244 254 35 33 
-0.0260983 -0.596968 1.41489 0 0 0 
-0.0555395 -0.659107 1.38301 0 0 0 
0.155138 0.606547 1.38441 51 254 52 
-0.0539932 -0.663237 1.40417 0 0 0 
0.134327 0.389586 1.27898 255 45 44 
0.00597403 -0.049413 1.21102 255 61 60 
0.0872783 0.100938 1.24347 255 46 46 
0.114661 0.118713 1.26811 36 254 32 
-0.0202639 -0.607536 1.39692 0 0 0 
0.13277 0.109662 1.33742 47 47 255 
0.0204093 -0.328992 1.34345 0 0 0 
0.1284 0.10657 1.29943 70 70 70 
0.0967158 -0.111943 1.34528 51 52 255 
0.110174 0.00301321 1.26998 29 27 255 
0.153443 0.591442 1.27764 45 254 46 
-0.00664998 -0.272944 1.2947 0 0 0 
0.112338 0.135808 1.2702 26 27 255 
-0.0749708 -0.63775 1.40824 0 0 0 
0.0132369 -0.204585 1.27429 5 3 2 
-0.125356 0.296228 1.20637 0 0 0 
0.134779 0.211303 1.3013 24 26 255 
0.0424225 -0.290437 1.36978 254 61 60 
-0.0264708 -0.586452 1.39569 0 0 0 
0.133486 0.479259 1.26857 35 33 255 
0.138585 0.388353 1.29224 45 44 42 
-0.0341631 -0.592314 1.38824 0 0 0 
0.122409 -0.0514804 1.35154 113 254 127 
-0.160442 0.31831 1.24433 0 0 0 
0.131571 0.18803 1.2986 38 22 22 
-0.13163 0.307283 1.20587 0 0 0 
0.124473 0.458185 1.24956 46 44 254 
0.110828 0.104687 1.26172 46 48 47 
0.107131 0.19539 1.24524 254 18 18 
0.0329235 -0.280579 1.326 0 0 0 
0.00088891 -0.386295 1.34698 0 0 0 
0.139293 0.426513 1.30187 24 23 21 
0.00653718 -0.0317845 1.21006 70 69 65 
0.157854 0.59542 1.26027 254 33 32 
0.0257067 -0.272508 1.30819 1 1 1 
0.118113 0.16988 1.2684 254 21 19 
0.1329 0.0600279 1.32358 43 43 254 
0.0193704 -0.341278 1.35825 0 0 0 
0.0773611 -0.121313 1.3056 80 78 254 
0.0399931 -0.278026 1.34718 90 87 254 
0.0144822 -0.36815 1.36347 0 0 0 
0.0980048 -0.0706294 1.31877 254 74 73 
0.132983 0.145343 1.31815 36 34 35 
0.116422 0.0925509 1.26747 29 29 29 
0.142988 0.506881 1.31129 23 254 27 
0.13427 0.0992477 1.31732 44 44 255 
0.137213 0.141169 1.33683 48 255 43 
0.025344 0.170156 1.19584 0 0 0 
0.134778 0.338071 1.28578 254 42 40 
-0.109292 0.489036 1.1776 0 0 0 
-0.0309541 -0.490273 1.36649 0 0 0 
0.0179575 -0.342559 1.34707 0 0 0 
0.128034 0.451064 1.26004 59 57 254 
0.0809506 -0.0836111 1.27873 78 76 254 
0.0848169 -0.0805279 1.29321 29 254 37 
0.135205 0.0837831 1.3362 29 27 28 
0.0248085 -0.306733 1.33122 0 0 0 
0.124429 0.112091 1.28474 51 255 52 
0.11894 0.0609254 1.28925 255 36 38 
0.0816761 0.218019 1.23051 254 57 57 
0.00575131 -0.341165 1.32439 0 0 0 
0.0363833 -0.217504 1.28657 75 72 65 
0.10958 0.0847935 1.26113 29 30 255 
-0.131326 0.459769 1.18771 0 0 0 
0.0954267 -0.101631 1.33221 254 53 52 
-0.121988 0.499138 1.18358 0 0 0 
0.081175 -0.176237 1.34274 34 31 26 
0.139175 0.24962 1.32561 28 255 45 
0.140607 0.57671 1.24774 32 30 31 
0.0414672 -0.0983187 1.24868 254 38 36 
0.0113171 -0.362359 1.35447 0 0 0 
0.128496 0.337428 1.26176 53 53 53 
0.125136 0.00842487 1.29921 255 39 38 
0.0459136 -0.204004 1.29369 97 102 244 
0.139685 0.212101 1.32457 19 21 255 
0.121419 0.384898 1.24436 35 33 255 
0.134703 0.366352 1.2895 50 51 255 
0.0671994 -0.167454 1.318 48 254 71 
-0.00575753 -0.570189 1.31586 0 0 0 
0.128857 0.0583282 1.39403 17 15 255 
0.137233 0.272406 1.29701 255 41 21 
0.121419 0.334243 1.25213 32 30 31 
0.147859 0.557916 1.27158 48 49 254 
-0.0212063 -0.492159 1.37603 0 0 0 
0.122335 0.589319 1.21579 54 254 38 
0.0874978 -0.203523 1.3252 36 254 54 
0.00879463 -0.362636 1.34069 0 0 0 
0.11787 0.0742478 1.27545 255 42 40 
0.112002 -0.03445 1.29425 59 56 51 
0.0564142 -0.155119 1.28537 63 59 254 
0.0707121 -0.206678 1.31526 35 254 38 
-0.129448 0.49423 1.18841 0 0 0 
0.066139 0.0506714 1.23004 17 17 17 
0.0645023 -0.158639 1.30013 254 39 40 
0.0733047 -0.204405 1.33988 254 91 88 
0.141458 0.28154 1.31259 255 43 27 
0.0649851 -0.168649 1.29895 254 65 64 
0.105604 0.273873 1.2365 254 27 27 
0.135226 0.11236 1.32256 44 44 44 
0.132964 0.126926 1.30498 255 31 31 
-0.0341706 -0.536474 1.37991 0 0 0 
0.0772252 0.566872 1.10224 1 10 1 
0.121971 0.205702 1.26847 255 52 51 
0.020167 0.410563 1.17434 75 73 254 
0.071454 -0.166306 1.30862 66 62 254 
-0.118624 -0.177372 1.26531 0 0 0 
0.0247368 -0.197655 1.27987 54 55 252 
0.00462797 -0.156664 1.25331 0 0 0 
0.0647017 0.206982 1.2146 0 0 0 
-0.0111631 -0.346129 1.3175 0 0 0 
0.0392545 -0.245996 1.31198 23 22 18 
0.125001 -0.0296784 1.32797 105 255 91 
0.12007 0.420614 1.24561 19 18 16 
0.0222295 -0.144959 1.25527 53 217 66 
0.126936 0.442859 1.24865 50 255 48 
0.128762 0.539576 1.23723 60 61 254 
0.0160926 0.00727135 1.20412 254 65 63 
0.0676072 -0.251397 1.31821 28 29 254 
0.0817723 0.452349 1.19118 254 72 71 
0.108465 0.468093 1.22235 41 42 254 
0.0336798 -0.318967 1.37449 42 41 43 
-0.0126584 0.229123 1.19171 0 1 0 
0.101197 -0.0314567 1.26197 48 43 254 
-0.00658173 -0.140111 1.24017 0 0 0 
-0.0571361 -0.223534 1.27032 0 0 0 
0.148626 0.55561 1.28218 42 254 48 
0.132064 0.374396 1.26839 254 40 39 
0.0956356 0.0459394 1.24683 254 25 23 
-0.114986 0.0421955 1.18918 0 0 0 
0.105397 0.54249 1.203 36 35 254 
0.101831 0.119826 1.24637 255 56 55 
0.141441 0.479705 1.29131 254 28 26 
0.145439 0.529387 1.30582 42 254 49 
0.0877745 -0.152423 1.36377 33 34 254 
0.133565 0.281238 1.28955 254 54 40 
-0.001631 -0.224666 1.27183 0 0 0 
0.135784 0.190249 1.3198 30 14 15 
0.141582 0.402541 1.29759 255 36 35 
0.00809242 -0.298505 1.31241 0 0 0 
-0.0894888 -0.183924 1.25026 0 0 0 
0.120994 0.0186213 1.28104 44 45 255 
0.132991 0.196996 1.30069 28 27 25 
0.128652 0.0793106 1.30907 29 255 34 
-0.0113755 -0.278326 1.2952 0 0 0 
0.0702714 -0.21534 1.32016 45 45 254 
0.0689665 0.0568401 1.24164 48 255 48 
0.11631 0.0346625 1.28041 50 50 50 
0.0718534 -0.139386 1.31089 60 56 55 
-0.156254 -0.181967 1.27528 0 0 0 
0.119886 0.00675448 1.28236 47 46 44 
0.138352 0.172445 1.32543 29 255 29 
-0.0567457 -0.655255 1.39932 0 0 0 
-0.0721733 -0.236935 1.26783 0 0 0 
-0.0554411 -0.559085 1.39547 0 0 0 
0.135691 0.0122496 1.35572 40 255 46 
-0.0112724 -0.309874 1.30329 0 0 0 
0.127729 0.517179 1.2517 45 46 254 
0.146166 0.537934 1.28393 52 254 52 
0.0739544 0.49869 1.18767 46 44 45 
0.0673455 -0.106229 1.27031 50 254 50 
-0.0338895 -0.508031 1.37293 0 0 0 
-0.135056 0.473564 1.18985 0 0 0 
0.11746 0.407402 1.23971 31 32 254 
0.0937069 -0.116325 1.36035 42 255 43 
0.113064 0.537902 1.21399 46 45 43 
0.128466 0.00897513 1.31104 254 56 55 
0.13303 0.244273 1.28534 255 43 24 
0.12113 0.583983 1.20098 254 41 38 
0.109842 0.0530796 1.26886 59 58 56 
0.0374736 -0.18116 1.27655 0 0 0 
0.129557 0.397267 1.25884 29 28 255 
0.0729984 -0.177069 1.33141 29 254 33 
0.120154 0.434737 1.23387 49 47 254 
0.141281 0.261128 1.32049 23 23 255 
0.132617 0.335235 1.27528 26 255 31 
0.130854 0.136923 1.30635 47 47 255 
0.132942 0.0446489 1.34302 38 39 255 
0.133714 0.0247247 1.34272 41 255 49 
-0.0671459 -0.227918 1.2532 0 0 0 
-0.0416024 -0.370563 1.31622 0 0 0 
0.078546 -0.147126 1.31644 46 254 49 
-0.0763017 -0.246969 1.26403 0 0 0 
0.101883 0.452884 1.21606 51 254 45 
0.0872845 0.0189392 1.24185 254 51 50 
0.132997 0.0603987 1.35223 21 255 18 
0.127717 0.0412062 1.3108 45 43 255 
-0.0262574 0.144982 1.18286 0 0 0 
0.119502 0.473544 1.3909 33 255 35 
0.113031 0.150718 1.2649 47 45 255 
0.134685 0.546244 1.24847 47 48 254 
0.0729722 -0.110648 1.28198 41 38 254 
0.115671 0.278663 1.25292 24 20 254 
0.0415548 0.240286 1.19832 51 49 254 
0.0797591 -0.104073 1.29711 50 48 254 
0.130721 0.0085957 1.30891 31 30 28 
0.138853 0.587735 1.25214 44 43 254 
0.131044 0.0181935 1.31802 7 254 60 
0.137108 0.0992796 1.32727 52 48 49 
0.0601231 -0.190693 1.30422 254 34 33 
0.0320492 -0.305661 1.35765 25 26 21 
-0.0722422 0.403397 1.1679 0 0 0 
0.0806247 -0.0931685 1.28972 39 35 32 
0.142454 0.0740687 1.41402 255 64 62 
0.0756208 -0.198948 1.33144 34 35 30 
0.133858 0.39472 1.27089 32 254 32 
-0.0317946 -0.234935 1.27019 0 0 0 
0.107111 0.145838 1.25629 55 254 60 
0.138838 0.354058 1.29739 12 10 255 
0.132433 0.17257 1.31625 12 255 12 
0.0780964 0.570599 1.17209 253 74 71 
0.0820696 -0.165101 1.33878 254 39 37 
0.0858853 0.232625 1.23188 255 43 42 
0.11464 -0.0318314 1.30454 66 63 58 
-0.0377351 -0.327393 1.30577 0 0 0 
0.133284 0.251944 1.29611 26 255 46 
0.0890417 -0.0985316 1.31143 254 44 43 
0.0912552 -0.0884039 1.30884 54 254 53 
0.134145 0.429598 1.278 41 40 254 
0.00452872 0.468819 1.15273 48 239 56 
-0.0496059 -0.425583 1.33484 0 0 0 
-0.0507234 -0.53052 1.37155 0 0 0 
0.131548 0.155437 1.29938 40 39 37 
0.143076 0.285519 1.32669 254 66 62 
0.126439 0.122543 1.29263 34 255 40 
0.129069 0.109089 1.30355 254 26 26 
0.139704 0.490543 1.29518 27 25 26 
-0.0976794 0.0112423 1.18753 0 0 0 
0.115724 0.419147 1.23089 35 33 254 
-0.00112053 -0.351294 1.32692 0 0 0 
0.0819621 0.492819 1.19327 62 254 62 
0.103975 -0.0568239 1.31653 255 61 57 
-0.015156 0.4752 1.15092 0 0 0 
0.130914 0.352843 1.27023 63 254 55 
0.13687 0.546687 1.25696 29 27 254 
-0.0149051 -0.534532 1.42514 0 0 0 
0.141949 0.533628 1.29303 254 29 28 
0.128568 0.292064 1.27339 255 38 26 
0.104366 0.464385 1.21052 25 23 254 
0.114783 -0.0224046 1.27693 85 82 77 
0.116099 0.176971 1.25657 254 50 48 
0.114327 0.296872 1.24016 48 46 255 
0.00134057 -0.330831 1.31695 0 0 0 
0.145991 0.600605 1.27602 33 32 30 
0.103359 -0.0329403 1.26558 54 254 63 
0.122553 0.0785746 1.28817 32 33 254 
-0.0352809 -0.443955 1.34503 0 0 0 
-0.117582 0.526805 1.18023 0 0 0 
0.110379 -0.0670686 1.34298 43 44 254 
0.0922272 0.451202 1.2027 41 40 38 
0.00526252 -0.371708 1.3516 0 0 0 
0.108517 0.00556688 1.23953 47 45 255 
0.0351032 0.411932 1.18469 74 74 254 
0.117824 0.449367 1.23548 254 48 47 
0.0603344 -0.173964 1.2927 254 72 71 
0.11766 0.111936 1.27565 47 45 46 
0.0644716 0.457758 1.18342 74 75 77 
0.138574 0.469579 1.28395 32 254 33 
0.10473 0.0292601 1.26126 38 36 37 
0.0370043 -0.304974 1.36623 52 255 49 
0.0309672 -0.0604577 1.23467 56 54 55 
0.0758206 0.531974 1.17702 37 35 254 
0.0749976 -0.219562 1.32829 73 254 69 
0.137032 0.00653649 1.34773 51 254 41 
-0.00935049 0.180798 1.19448 1 4 1 
0.0767919 -0.208354 1.32622 254 60 57 
0.0269048 -0.329032 1.36266 0 0 0 
0.0724606 -0.118589 1.29329 56 55 51 
0.0713016 0.367147 1.20285 50 254 56 
-0.112517 0.535258 1.18125 0 0 0 
-0.0573792 0.40871 1.16834 0 0 0 
-0.0452822 -0.511346 1.36467 0 0 0 
0.0955487 0.0259513 1.24228 50 49 47 
-0.0700015 0.180975 1.18906 0 0 0 
0.0380473 -0.298734 1.35229 56 197 47 
0.131081 0.0891639 1.31635 41 255 39 
0.0479531 -0.0769481 1.24674 15 19 254 
0.107632 0.068058 1.25668 40 38 39 
0.0161126 0.503921 1.15253 37 36 34 
0.109454 0.132347 1.25471 255 62 60 
-0.00503914 -0.420894 1.35314 0 0 0 
-0.0554891 -0.211844 1.25347 0 0 0 
-0.0550055 0.373857 1.17473 0 0 0 
0.141004 0.459998 1.31232 40 255 42 
0.0952818 0.263406 1.23152 62 255 52 
0.116731 0.0530291 1.27433 27 254 28 
-0.0542928 -0.647314 1.39481 0 0 0 
0.107601 -0.0162506 1.23394 52 50 51 
0.136219 0.160404 1.32067 37 35 255 
-0.127156 -0.0490523 1.23143 0 0 0 
-0.00856381 -0.00962406 1.17699 2 2 2 
0.133577 0.533961 1.26416 45 254 50 
0.0845267 0.461719 1.19822 70 68 253 
0.0233925 -0.312962 1.34286 0 0 0 
0.0774074 0.0582451 1.24728 23 22 20 
0.122346 -0.00473032 1.29046 61 59 255 
0.132428 0.00104818 1.30565 254 55 54 
0.132131 0.285335 1.2808 27 29 255 
-0.121788 0.555995 1.19562 0 0 0 
0.110954 0.371013 1.23173 44 254 36 
0.122293 0.591597 1.18712 63 59 230 
0.138061 -0.0105652 1.35817 60 60 58 
0.12622 0.10123 1.29005 255 38 36 
0.0812548 -0.109848 1.30759 254 74 73 
0.0525606 -0.157897 1.2716 254 56 44 
0.0839742 -0.118539 1.32645 254 64 64 
0.126478 0.547186 1.2187 34 33 31 
-0.045145 -0.16841 1.24817 0 0 0 
0.0352166 0.442788 1.17496 0 0 0 
0.140572 0.00520687 1.36977 255 44 43 
0.0869304 0.325489 1.22165 47 46 44 
0.0521873 -0.183542 1.2946 68 254 98 
-0.045673 0.437358 1.15793 0 0 0 
0.104088 0.313796 1.23073 46 45 43 
-0.0769333 -0.160443 1.24675 0 0 0 
0.0916004 0.211801 1.23173 24 26 255 
0.134307 0.241101 1.29913 255 49 28 
-0.0160656 -0.433847 1.35266 0 0 0 
0.105803 0.00820766 1.26156 67 66 64 
0.0624655 -0.111043 1.26108 254 56 55 
-0.133872 -0.177252 1.27464 0 0 0 
0.056816 0.00212948 1.23338 4 3 0 
-0.070447 0.427263 1.16574 0 0 0 
0.087146 0.145857 1.24451 46 44 255 
0.13233 -0.0066821 1.31527 86 86 86 
0.0649843 0.47913 1.17561 73 73 254 
0.0290147 0.353171 1.18187 71 69 254 
0.112992 0.238408 1.25132 52 50 51 
0.0874919 -0.139398 1.34637 12 11 9 
0.0754135 0.299067 1.21592 254 47 46 
0.0442248 -0.233923 1.31405 254 59 58 
0.133107 0.302111 1.28756 48 46 254 
-0.0211426 0.514856 1.14904 1 1 1 
0.00188218 0.536904 1.14457 11 10 9 
0.13301 0.00470345 1.36388 34 33 31 
0.00368674 0.589062 1.11877 3 1 1 
-0.0834879 -0.247303 1.24794 0 0 0 
0.113743 0.20276 1.25609 50 255 56 
-0.0205342 -0.386907 1.33275 0 0 0 
0.135363 0.357576 1.27893 16 16 16 
0.137045 0.293769 1.29998 28 255 47 
0.0324435 0.000331566 1.21869 46 254 49 
0.124746 0.52853 1.24447 51 50 48 
0.118938 -0.0441009 1.33983 106 255 107 
0.118933 0.289997 1.2486 255 29 28 
0.121848 0.401498 1.24589 48 47 45 
0.0474812 -0.261151 1.33334 28 27 25 
0.128188 0.408035 1.26306 39 38 36 
0.0285449 -0.160773 1.2647 51 49 52 
-0.0237863 0.00471302 1.18397 0 0 0 
0.0921672 -0.0524307 1.28132 103 98 255 
0.113199 -0.0129602 1.26654 53 255 50 
0.069084 0.349328 1.20483 208 42 42 
-0.116047 0.324332 1.19609 0 0 0 
-0.0284504 -0.399163 1.3241 0 0 0 
-0.0302925 -0.540287 1.39092 0 0 0 
-0.0295653 0.221277 1.1793 0 0 0 
0.0278515 -0.082652 1.23859 254 72 69 
0.138184 0.589709 1.24179 49 48 254 
0.125736 0.222025 1.27081 22 21 255 
0.0884665 -0.0637732 1.28341 43 40 35 
0.0913277 -0.140747 1.36361 23 21 22 
0.0850423 -0.0595397 1.26864 66 254 77 
0.103657 0.150484 1.24771 44 42 254 
0.00407434 -0.395806 1.35976 0 0 0 
0.0768942 0.58809 1.15716 11 10 10 
0.0932651 0.407556 1.21447 254 44 43 
0.0285537 -3.87814e-05 1.18717 34 32 33 
0.12002 0.254399 1.26198 23 21 254 
0.0991799 -0.110441 1.35494 37 255 32 
0.133353 0.319768 1.28121 42 38 254 
0.112162 0.585032 1.16675 60 55 206 
-0.0496743 -0.477538 1.3518 0 0 0 
0.0509793 0.449932 1.17575 73 72 254 
0.0104643 -0.0496347 1.22425 254 81 79 
0.0845867 0.26816 1.22906 255 18 17 
0.0693203 0.48755 1.1823 72 254 72 
0.115256 0.34275 1.24318 39 40 254 
0.0791101 -0.218958 1.33847 254 62 61 
0.0144912 -0.22664 1.28801 9 6 6 
0.0895187 -0.0483682 1.24724 70 70 72 
-0.0935629 -0.246161 1.25279 0 0 0 
0.0929354 -0.083103 1.32166 255 47 46 
0.135556 0.461322 1.29268 45 44 42 
0.0300562 0.175947 1.20873 254 54 51 
0.125123 0.168432 1.28324 254 55 55 
0.131278 0.00995004 1.331 10 255 10 
0.1154 0.356774 1.23867 255 30 29 
-0.0335144 -0.40044 1.33294 0 0 0 
0.111786 0.589652 1.17835 66 226 69 
-0.137095 0.542803 1.1784 0 0 0 
-0.122124 0.209304 1.20493 0 0 0 
-0.10839 0.545587 1.17584 0 0 0 
-0.0571574 -0.597692 1.36832 0 0 0 
-0.0639548 -0.228284 1.26391 0 0 0 
0.0224195 0.430709 1.17512 70 254 108 
0.029151 -0.109261 1.26331 47 45 254 
0.133164 0.524575 1.26834 36 34 254 
0.148448 0.543062 1.34037 57 56 54 
-0.00767874 0.0139274 1.18652 0 0 0 
-0.00199407 -0.429473 1.37168 0 0 0 
0.108488 0.261898 1.2404 35 254 34 
-0.0206305 -0.493847 1.3967 0 0 0 
0.120926 0.0651014 1.28043 46 255 34 
-0.117696 0.512382 1.18109 0 0 0 
-0.00576977 -0.409813 1.34833 0 0 0 
0.134213 0.423216 1.26433 35 34 32 
0.103569 0.0901081 1.25114 45 43 44 
0.126838 0.0595272 1.30951 35 255 40 
0.135142 0.456715 1.26865 255 37 36 
0.0666073 0.310401 1.20941 254 30 30 
0.144769 0.467438 1.32069 21 18 255 
0.0296797 -0.168138 1.2732 253 52 43 
0.0396267 0.510867 1.16063 254 17 17 
0.0504853 0.027927 1.21012 0 0 0 
-0.0960506 -0.0101452 1.2023 0 0 0 
0.128426 0.204849 1.29301 41 21 23 
0.104492 -0.0830027 1.35063 106 105 255 
0.0178621 -0.313518 1.32599 0 0 0 
0.121719 0.130093 1.27541 41 39 40 
0.125738 0.185026 1.27342 255 55 54 
0.0836833 -0.194354 1.3447 30 254 38 
-0.0845125 0.44725 1.16978 0 0 0 
0.0862326 0.204275 1.23617 31 29 30 
0.0338979 -0.303147 1.34412 0 0 0 
0.0770982 0.546525 1.17459 37 39 254 
0.00052045 -0.406874 1.35939 0 0 0 
0.140517 0.437868 1.29388 255 32 28 
0.108984 0.420199 1.223 254 33 32 
0.0489522 0.398856 1.18856 0 0 0 
0.0113664 -0.316753 1.31042 0 0 0 
0.0753927 -0.006899 1.22227 76 170 37 
0.0679825 -0.135038 1.28926 254 47 46 
0.125291 0.30842 1.26242 34 254 37 
0.101703 0.413303 1.22162 45 45 47 
-0.0690627 0.0281287 1.20021 0 0 0 
0.0670372 0.523123 1.17526 254 51 51 
0.0454508 -0.305946 1.3547 53 52 253 
0.0970592 -0.0638147 1.29548 122 115 255 
0.10192 0.32943 1.22638 50 48 254 
0.128384 0.13782 1.29115 23 24 255 
0.00750733 0.204348 1.17925 8 15 4 
0.0754936 0.577652 1.16793 43 252 50 
-0.0105145 -0.364541 1.32588 0 0 0 
-0.0475483 0.416069 1.16953 0 0 0 
0.118627 0.475132 1.23127 29 28 26 
0.0694668 -0.129012 1.27772 47 45 254 
0.13399 -0.00436159 1.34994 70 68 255 
-0.162202 -0.0808066 1.26045 0 0 0 
0.142737 0.499584 1.30128 43 41 42 
0.00611552 0.295426 1.17795 24 25 21 
0.0256102 0.587103 1.13481 4 3 11 
0.0561368 0.0608027 1.22464 29 255 24 
0.0540565 0.568587 1.14819 30 34 20 
-0.0296337 -0.282229 1.28507 0 0 0 
0.106706 0.0198852 1.25436 61 254 58 
0.0906526 0.362635 1.21843 29 27 254 
0.0258395 -0.321817 1.35583 0 0 0 
-0.143741 0.463789 1.19679 0 0 0 
0.103905 0.141204 1.24939 44 42 43 
0.0785471 0.321394 1.21744 254 45 44 
0.137145 0.515692 1.27309 48 47 254 
-0.0500821 -0.206759 1.25166 0 0 0 
0.113978 0.260582 1.24714 254 56 52 
0.0446276 0.519223 1.16565 23 19 254 
0.0923128 0.587471 1.16007 14 109 15 
0.119665 0.555708 1.21571 254 41 40 
0.118037 0.528531 1.23003 51 254 48 
-0.128715 0.343317 1.2019 0 0 0 
-0.10301 0.340114 1.18506 0 0 0 
-0.0809757 0.38819 1.1669 0 0 0 
0.109472 0.566637 1.19765 254 27 26 
-0.0636742 -0.000969786 1.18037 0 0 0 
0.011627 -0.234586 1.28325 0 0 0 
0.111653 0.447041 1.2237 28 254 24 
0.103587 0.303597 1.23181 54 52 254 
0.00940312 -0.394303 1.37115 0 0 0 
0.128791 0.544785 1.23178 254 43 43 
0.0752928 0.150018 1.23997 54 255 59 
0.0975938 0.28183 1.2268 47 45 254 
-0.10928 0.243294 1.1958 0 0 0 
-0.0418252 -0.196807 1.28601 0 0 0 
0.0993562 0.200356 1.24427 67 255 71 
0.1363 0.41451 1.28406 37 35 38 
0.0677162 -0.117676 1.26835 69 68 64 
-0.0397286 -0.262936 1.29547 0 0 0 
0.106291 0.497771 1.21497 254 47 46 
0.099599 0.226597 1.23229 39 255 41 
-0.00703885 -0.241987 1.28636 0 0 0 
-0.0753118 -0.366109 1.32287 0 0 0 
0.082727 0.369189 1.2119 49 254 57 
-0.027315 -0.53076 1.39224 0 0 0 
-0.0020524 0.16593 1.18888 0 0 0 
-0.00881318 0.379401 1.17187 0 0 0 
-0.0353565 -0.535389 1.40999 0 0 0 
0.071316 0.391063 1.20432 31 30 28 
0.00975357 0.151821 1.19235 65 63 250 
0.131262 0.404863 1.27757 48 47 45 
0.076675 -0.0857806 1.29861 73 254 67 
0.0965026 0.173262 1.238 42 254 36 
-0.0889969 -0.256185 1.26115 0 0 0 
0.0548329 -0.147044 1.26901 69 68 64 
0.122816 0.584063 1.21545 207 58 55 
0.101871 -0.0552375 1.29586 75 255 77 
0.101072 0.434458 1.2196 43 42 40 
0.0831091 0.133901 1.23756 40 254 67 
-0.0501755 0.178773 1.17381 0 0 0 
0.09489 -0.00643487 1.23424 84 82 254 
0.0956124 0.510834 1.19906 68 67 65 
-0.0499191 -0.334951 1.30119 0 0 0 
0.0803567 0.430584 1.21009 24 22 254 
0.106885 0.580508 1.19127 254 40 36 
0.10185 0.270565 1.22851 254 51 50 
0.132595 -0.0190917 1.35754 46 43 255 
-0.00236796 0.120719 1.21027 62 60 63 
-0.00992333 -0.457789 1.37573 0 0 0 
0.0771319 -0.0501451 1.24747 62 60 254 
0.0263684 0.515622 1.15122 16 254 17 
-0.0508864 0.478067 1.16075 0 0 0 
-0.0208799 -0.0338036 1.18266 0 0 0 
0.0619167 0.301095 1.20532 254 45 44 
0.131476 0.468284 1.24952 37 35 254 
-0.0440728 -0.271605 1.28547 0 0 0 
0.0857689 0.295938 1.22423 37 37 37 
-0.00129645 0.128228 1.18821 0 0 0 
0.0652448 0.186532 1.19871 30 33 254 
0.0282528 0.351131 1.16834 63 254 65 
0.0204568 -0.29565 1.30996 0 0 0 
-0.0487673 0.00624501 1.19411 0 0 0 
0.114344 0.587362 1.19434 34 254 48 
0.0812047 0.0463337 1.23132 254 20 18 
0.0188555 0.317483 1.17818 25 21 20 
-0.0214311 0.424538 1.16406 0 0 0 
0.140649 0.316752 1.31443 38 34 33 
0.00380617 0.300534 1.16827 0 0 0 
0.156546 0.592975 1.29206 41 40 38 
0.0909739 -0.110636 1.3305 48 48 50 
0.0764354 0.074308 1.23714 44 42 43 
0.092092 0.442578 1.20919 254 32 31 
-0.00170158 -0.0881176 1.22951 0 0 0 
-0.0284852 -0.498208 1.37048 0 0 0 
-0.139972 0.524661 1.19075 0 0 0 
0.0316397 0.525534 1.15368 254 10 10 
0.134983 0.555325 1.25117 70 66 65 
0.134562 0.582523 1.23133 26 254 32 
0.0853137 0.556571 1.16812 30 31 254 
0.13109 0.383857 1.26243 255 57 56 
0.0985749 0.37663 1.22007 44 254 44 
0.101474 0.551254 1.1941 254 28 27 
-0.00628111 0.2544 1.18645 0 0 0 
0.0882716 0.303569 1.22987 43 42 40 
-0.0573535 0.482818 1.15261 0 0 0 
0.0538112 -0.167007 1.29922 254 55 56 
0.136079 0.325294 1.29175 58 56 254 
0.0581893 0.392923 1.19347 63 63 63 
-0.111575 0.114351 1.20759 0 0 0 
0.107062 0.165819 1.24959 36 254 54 
0.139195 0.49849 1.28859 41 40 38 
-0.00360669 0.134968 1.18879 0 0 1 
0.040277 -0.291915 1.35986 62 252 59 
0.102776 -0.0424787 1.27748 50 46 255 
0.0748282 -0.144787 1.32657 97 254 108 
-0.176694 0.134584 1.22061 0 0 0 
-0.034168 -0.00880211 1.17406 0 0 0 
0.0236999 -0.281064 1.31204 0 0 0 
0.0425696 -0.19669 1.25478 41 39 254 
0.0110554 -0.131132 1.24665 0 0 0 
0.0606862 0.580727 1.15368 55 52 45 
0.140194 0.507909 1.28729 61 59 254 
0.0849185 0.525447 1.19177 34 32 35 
0.0142778 0.586344 1.13727 0 0 0 
0.0403217 0.428876 1.18157 14 53 15 
0.122099 0.431569 1.24856 57 56 54 
-0.0831428 0.230053 1.1854 0 0 0 
-0.0450437 -0.499098 1.3636 0 0 0 
0.11654 0.229127 1.25813 254 42 40 
0.092795 0.468876 1.19805 48 46 254 
0.105724 0.354654 1.22342 255 33 32 
0.112758 -0.0445993 1.32349 255 100 97 
-0.0737318 0.217346 1.18377 0 0 0 
0.041537 -0.299614 1.32789 0 0 0 
0.0266542 0.545115 1.15712 237 26 26 
0.0845016 0.378411 1.21689 41 40 38 
-0.0221118 0.563097 1.13203 2 2 2 
-0.0892783 -0.257175 1.27191 0 0 0 
0.00397138 0.34701 1.1749 19 73 19 
0.00333928 0.0711476 1.19568 0 0 0 
0.123981 0.0909036 1.30123 49 50 255 
-0.0109256 -0.117054 1.24875 0 0 0 
0.129616 0.175529 1.30721 14 10 11 
0.107999 -0.054667 1.27378 255 56 53 
0.12742 0.0682089 1.29995 28 255 36 
-0.0509728 -0.391109 1.31816 0 0 0 
-0.0148833 -0.45863 1.36597 0 0 0 
0.145594 0.578794 1.26964 23 22 20 
0.113747 0.0655153 1.27373 1 0 255 
0.131668 0.442564 1.27621 21 21 19 
-0.0449277 0.198389 1.18361 0 0 0 
-0.102742 0.400609 1.17245 0 0 0 
0.0942586 0.0312072 1.24691 53 54 254 
-0.00452855 0.405429 1.17732 238 56 57 
-0.0161947 -0.218158 1.26907 0 0 0 
0.14731 0.558484 1.26034 42 41 254 
0.0451598 -0.173743 1.27807 39 25 25 
0.037682 -0.231844 1.33617 254 61 60 
0.0846403 0.441892 1.20178 17 17 17 
0.0130353 0.299612 1.18611 251 65 64 
0.0661688 -0.180068 1.30025 46 254 60 
-0.0570915 0.361799 1.17247 0 0 0 
0.0707971 -0.0702599 1.25489 107 106 104 
0.0700855 0.243337 1.21343 28 28 254 
0.0556024 -0.225984 1.3036 51 47 254 
0.0877897 -0.151991 1.34989 40 39 37 
0.0467807 0.303307 1.19475 26 24 27 
0.125756 0.409507 1.24958 54 53 51 
0.0785263 0.19973 1.23059 254 55 54 
-0.0578961 -0.34464 1.31361 0 0 0 
-0.0435866 -0.469248 1.36465 0 0 0 
0.119088 0.304268 1.2516 38 255 43 
0.158116 0.584715 1.29937 31 254 30 
0.0448039 -0.0193769 1.2098 83 101 69 
0.112461 0.595867 1.16998 1 5 1 
0.0576177 0.230575 1.20794 0 0 0 
-0.0770566 0.366291 1.17802 0 0 0 
0.13725 0.437827 1.26105 255 35 34 
-0.0350347 -0.223273 1.2682 0 0 0 
-0.0404322 -0.517189 1.37277 0 0 0 
0.121359 0.320853 1.24999 39 254 23 
-0.0074384 -0.303383 1.31112 0 0 0 
0.00950446 0.0449196 1.20803 6 4 254 
0.134513 0.590017 1.22047 254 46 41 
0.120165 0.544356 1.20021 254 46 45 
0.0758604 0.24958 1.22062 49 209 41 
0.122876 0.143247 1.2796 31 254 34 
-0.0622384 -0.365925 1.31698 0 0 0 
-0.196309 0.559878 1.2289 0 0 0 
0.124196 0.345572 1.2548 64 62 255 
0.055955 0.335151 1.19677 49 47 254 
0.0381724 0.0987252 1.22937 20 20 20 
0.00358783 -0.188602 1.24795 0 0 0 
0.036929 0.159542 1.21152 63 254 75 
0.0333074 0.302965 1.19887 39 38 34 
0.0641615 -0.151373 1.31078 37 254 40 
-0.0332516 0.291019 1.1738 0 0 0 
0.0118765 -0.286345 1.30473 0 0 0 
0.102589 0.380058 1.22741 32 255 45 
0.141243 0.395434 1.31311 29 27 255 
0.0647532 0.5561 1.16025 254 36 36 
0.0477874 0.505064 1.16815 254 85 84 
0.120213 -0.0244028 1.30965 87 86 81 
0.134713 0.41335 1.27361 24 255 27 
0.0539049 0.151645 1.21351 0 0 0 
-0.0296557 -0.190292 1.25687 0 0 0 
-0.0319073 -0.315416 1.29865 0 0 0 
0.0605995 -0.015206 1.19559 111 254 115 
0.021538 -0.361732 1.37183 0 0 0 
0.118736 0.53535 1.22568 254 35 33 
-0.0261618 0.360789 1.17001 0 0 0 
0.0275162 -0.328492 1.38818 152 32 32 
0.133246 0.553661 1.22244 32 254 38 
0.0202649 0.442501 1.16918 254 7 7 
0.0831887 0.0392721 1.24088 255 31 31 
0.0972042 0.220805 1.24326 63 64 255 
0.0488157 0.125669 1.19642 43 44 254 
0.00492571 -0.403361 1.37046 0 0 0 
-0.0205537 0.403889 1.18102 0 0 0 
0.0679189 0.42723 1.19678 58 254 67 
0.0957785 0.421657 1.21494 23 22 20 
0.0865053 -0.0199988 1.24544 79 76 254 
-0.0365696 -0.591821 1.37867 0 0 0 
0.127188 0.17529 1.29011 17 254 20 
0.0659568 -0.227506 1.30034 61 60 58 
0.107997 -0.0617067 1.33257 88 255 94 
0.0856359 -0.111401 1.31688 37 35 36 
0.0721917 0.340437 1.21188 254 52 50 
0.0147471 0.413246 1.16371 69 72 254 
0.0988368 0.103806 1.24761 254 44 43 
0.0702391 -0.0431956 1.25917 71 67 254 
-0.0327483 -0.285589 1.29637 0 0 0 
-0.00305826 -0.307633 1.3097 0 0 0 
-0.00843215 -0.290248 1.30173 0 0 0 
0.0500035 0.0791516 1.21792 33 31 32 
0.0648136 0.20025 1.21591 0 0 0 
-0.0569514 -0.685211 1.40824 0 0 0 
0.0950731 -0.0144531 1.24464 81 80 76 
0.12478 0.465734 1.24578 40 39 37 
0.0232828 -0.248035 1.30501 56 57 62 
0.0616611 0.402616 1.1953 46 45 43 
0.0709704 0.210762 1.22125 63 61 254 
0.00304796 0.455631 1.15783 74 70 237 
