ply                 
format ascii 1.0    
element vertex 1307
property float x    
property float y    
property float z    
property uchar red  
property uchar green
property uchar blue 
end_header          
-0.129227 -0.176949 1.26326 0 0 0 
-0.082126 -0.378659 1.32609 0 0 0 
-0.188643 0.272585 1.25886 0 0 0 
-0.0444678 0.116643 1.1862 45 44 42 
-0.0757305 0.47472 1.1595 254 62 61 
-0.179465 -0.0135901 1.24082 0 0 0 
-0.0525719 -0.0664036 1.19959 56 55 254 
-0.154904 -0.0421125 1.23201 0 0 0 
-0.185318 0.277513 1.25165 0 0 0 
-0.0415425 -0.31716 1.29648 0 0 0 
-0.189637 0.525788 1.23036 0 0 0 
-0.153165 0.417929 1.20043 66 62 206 
-0.148522 0.243802 1.21309 15 48 13 
-0.0456868 -0.227245 1.2614 254 37 31 
-0.0534324 -0.264158 1.27076 90 91 97 
-0.122288 -0.0131612 1.19966 47 254 50 
-0.174719 0.420096 1.22701 0 0 0 
-0.17751 0.285455 1.2453 0 0 0 
-0.190228 -0.0905799 1.34868 0 0 0 
-0.0529942 -0.373318 1.3147 0 0 0 
-0.0371072 0.437908 1.15791 36 36 36 
-0.146481 0.064287 1.22098 19 19 254 
-0.0852299 0.569578 1.14723 254 30 28 
-0.175455 0.338738 1.23537 0 0 0 
-0.023046 0.201335 1.18064 45 255 52 
-0.205955 0.209662 1.3021 0 0 0 
0.00854065 0.240951 1.18449 255 34 30 
-0.0681125 0.388351 1.16151 254 47 46 
-0.150873 0.270184 1.21288 1 2 1 
-0.112526 -0.194784 1.25573 0 0 0 
0.00531037 -0.0246819 1.18969 60 255 68 
-0.0678602 -0.0498264 1.19823 254 43 43 
-0.163167 0.594996 1.1541 254 39 38 
0.019096 0.01656 1.19551 0 0 0 
-0.0871457 -0.109578 1.23921 254 45 44 
0.000432233 0.334532 1.17346 23 21 22 
-0.0737714 -0.522487 1.37707 0 0 0 
0.0109263 0.343057 1.17486 25 26 254 
-0.0779621 0.600868 1.12635 14 13 11 
-0.161752 0.500163 1.19088 250 55 54 
-0.0756845 0.49229 1.15178 36 34 254 
-0.0928904 0.0781933 1.19472 254 58 57 
-0.0992787 -0.305927 1.30765 0 0 0 
-0.138613 0.505178 1.17882 51 254 47 
-0.127037 0.345069 1.1841 57 53 50 
-0.0179159 -0.125926 1.23423 47 46 44 
0.0243244 -0.0683884 1.22904 36 37 255 
-0.180998 -0.00254525 1.23645 0 0 0 
0.0621675 0.586636 1.15155 254 32 36 
-0.163352 0.521856 1.1949 37 37 37 
-0.0677257 0.470177 1.14984 39 254 42 
-0.0859937 0.181988 1.184 254 84 80 
-0.142812 0.6146 1.11895 54 49 254 
-0.199304 0.187528 1.29683 0 0 0 
-0.031709 -0.167703 1.24257 46 41 254 
-0.0387629 0.280211 1.17186 50 254 50 
-0.114092 -0.227026 1.2597 0 0 0 
-0.156263 0.527697 1.18961 0 0 0 
-0.132609 0.558754 1.16175 254 38 36 
-0.0165728 0.144583 1.18734 23 22 255 
-0.184087 0.183044 1.26132 0 0 0 
-0.147818 0.593792 1.16624 31 29 254 
-0.0749874 -0.0773675 1.22496 58 56 57 
-0.137033 0.38896 1.18594 54 254 57 
-0.019936 0.435031 1.16274 254 27 27 
-0.140981 0.0835306 1.2192 43 252 37 
-0.104999 0.284339 1.1945 254 38 22 
-0.0445471 0.217233 1.17938 0 0 0 
-0.0509072 -0.0767493 1.20667 49 45 42 
-0.0692331 -0.312278 1.29432 0 0 0 
-0.170214 -0.12923 1.31288 0 0 0 
-0.0113506 -0.335491 1.31907 27 26 32 
-0.0623385 -0.0654542 1.21426 37 36 34 
-0.128587 -0.270193 1.46469 0 0 0 
-0.0617175 -0.584602 1.3855 0 0 0 
-0.0867312 0.473399 1.16735 254 42 40 
-0.216003 0.252284 1.33882 0 0 0 
-0.0464735 -0.657225 1.40465 0 0 0 
-0.213562 0.209262 1.34971 0 0 0 
-0.210124 0.0916054 1.31213 0 0 0 
-0.184188 0.175252 1.25488 0 0 0 
-0.1767 -0.14537 1.34112 0 0 0 
-0.151397 0.432967 1.19242 45 254 53 
-0.183838 -0.160699 1.36926 0 0 0 
-0.135626 -0.258048 1.32393 0 0 0 
-0.131189 -0.156562 1.26615 52 37 40 
-0.207783 0.247962 1.30213 0 0 0 
-0.0971681 0.363459 1.17723 59 55 254 
-0.157766 -0.176881 1.31626 0 0 0 
-0.199081 0.142653 1.28329 0 0 0 
-0.209001 0.28667 1.31258 0 0 0 
-0.208979 0.322775 1.30393 0 0 0 
-0.148803 -0.200159 1.30769 0 0 0 
-0.107382 0.359214 1.16742 254 63 62 
-0.174359 -0.0523977 1.25693 0 0 0 
-0.195586 0.455567 1.247 0 0 0 
-0.133911 -0.251017 1.31692 0 0 0 
-0.205463 0.466973 1.26108 0 0 0 
-0.0799673 -0.445358 1.35567 0 0 0 
-0.206313 0.0401614 1.28412 0 0 0 
-0.0764943 0.536857 1.14542 43 254 42 
-0.203538 0.0617329 1.27784 0 0 0 
-0.190958 0.0618706 1.25449 0 0 0 
-0.0826159 0.519928 1.15786 50 51 254 
-0.1582 -0.233631 1.36878 0 0 0 
-0.181101 0.412043 1.23938 0 0 0 
-0.143513 -0.0173611 1.21031 254 42 42 
-0.187297 0.232606 1.25647 0 0 0 
-0.112137 -0.0499013 1.216 254 43 45 
-0.122788 -0.350594 1.37125 0 0 0 
-0.161151 0.00869518 1.22558 38 40 252 
-0.204897 0.479215 1.25537 0 0 0 
-0.0665967 -0.474442 1.35809 0 0 0 
-0.210218 0.33091 1.31073 0 0 0 
-0.235307 0.611526 1.24794 0 0 0 
-0.048303 -0.10733 1.21913 48 45 255 
-0.215395 0.0795481 1.34744 0 0 0 
-0.184094 0.61299 1.1019 11 10 9 
-0.18319 0.202829 1.2537 0 0 0 
-0.210324 0.0728537 1.31352 0 0 0 
-0.139907 -0.150713 1.2663 1 2 2 
-0.163718 -0.184518 1.34023 0 0 0 
-0.190337 0.0299417 1.2562 0 1 1 
-0.1633 0.0701558 1.23442 254 23 22 
-0.212369 0.0295663 1.2965 0 0 0 
-0.0965352 0.148602 1.19009 74 254 57 
-0.0893002 -0.474004 1.38688 0 0 0 
-0.18199 -0.12044 1.33903 0 0 0 
-0.167017 -0.196091 1.36303 0 0 0 
-0.0901823 -0.313274 1.30819 0 0 0 
-0.0880588 -0.288431 1.29749 0 0 0 
-0.0151645 -0.462355 1.36332 0 0 0 
-0.203532 0.10245 1.44596 0 0 0 
-0.113799 0.295294 1.19333 28 29 254 
-0.0620574 -0.494803 1.36379 0 0 0 
-0.189586 0.150844 1.2664 0 0 0 
-0.18262 0.224611 1.25214 0 0 0 
-0.0851631 0.298535 1.18036 254 49 45 
-0.102772 -0.0589747 1.21515 36 34 254 
-0.0753144 0.532003 1.16292 35 254 32 
-0.132781 -0.0789118 1.23942 92 90 254 
-0.148769 -0.215189 1.32116 0 0 0 
-0.192612 0.161076 1.27055 0 0 0 
-0.137869 -0.286945 1.36917 0 0 0 
-0.104673 -0.266793 1.2929 0 0 0 
-0.207863 0.408884 1.30014 0 0 0 
-0.224719 0.0597603 1.34 0 0 0 
-0.169495 0.401743 1.22393 73 70 61 
-0.20894 0.103385 1.30956 0 0 0 
-0.118445 -0.257728 1.29697 0 0 0 
-0.196577 0.0397066 1.26415 0 0 0 
-0.126953 0.319395 1.19674 51 254 55 
-0.182429 0.213214 1.25081 0 0 0 
-0.098967 -0.135719 1.24359 37 36 34 
-0.163842 0.0912318 1.23542 254 50 50 
-0.182753 -0.14674 1.36354 0 0 0 
-0.209527 0.111337 1.31547 0 0 0 
-0.182655 -0.055273 1.28116 0 0 0 
-0.0159571 0.605381 1.11322 36 31 254 
-0.0327069 -0.626223 1.43587 0 0 0 
-0.218475 -0.00976341 1.31574 0 0 0 
-0.181659 -0.0995207 1.31727 0 0 0 
-0.00558523 0.0928939 1.19332 255 33 32 
-0.201825 0.0392746 1.27421 0 0 0 
-0.173259 -0.064169 1.26624 0 0 0 
-0.143341 0.299317 1.20692 254 65 63 
-0.16602 0.200193 1.22981 254 55 51 
-0.237206 0.600311 1.32839 0 0 0 
-0.0173599 0.0601067 1.28773 17 255 17 
-0.172388 0.168254 1.23996 85 84 79 
-0.197102 0.36137 1.26784 0 0 0 
-0.132631 0.0800426 1.21283 254 47 46 
-0.222463 0.00399998 1.30661 0 0 0 
-0.178266 0.133679 1.24893 0 0 0 
-0.185213 0.0136977 1.24876 9 7 252 
-0.196325 0.314739 1.28915 0 0 0 
-0.129949 -0.316328 1.36277 0 0 0 
-0.0880023 -0.121738 1.23388 34 30 254 
-0.202994 0.223477 1.30186 0 0 0 
-0.118923 -0.0776583 1.23318 47 254 51 
-0.23402 0.599333 1.24435 0 0 0 
-0.0821534 0.500431 1.16152 254 60 58 
-0.131407 -0.266381 1.31894 0 0 0 
-0.133708 -0.0391688 1.21831 65 65 254 
-0.127107 0.597236 1.12822 254 26 24 
-0.0341054 0.102802 1.18983 41 41 255 
-0.0739885 0.144332 1.18768 46 255 52 
-0.23085 0.601294 1.2322 0 0 0 
-0.192891 0.342896 1.25038 0 0 0 
-0.0808349 -0.597994 1.39623 0 0 0 
-0.123235 -0.33219 1.35716 0 0 0 
-0.0665998 -0.0204094 1.18371 255 48 48 
-0.198796 0.420104 1.26654 0 0 0 
-0.155811 0.511929 1.19072 32 254 33 
-0.202343 0.531396 1.24638 112 22 22 
-0.0935988 -0.446965 1.37282 0 0 0 
-0.190793 0.497054 1.22961 18 17 15 
-0.106183 -0.391316 1.36222 0 0 0 
-0.158749 -0.0903187 1.25191 0 0 0 
-0.138292 0.283487 1.20492 51 40 254 
-0.146519 -0.161793 1.2823 0 0 0 
-0.170972 0.0254545 1.23249 0 0 0 
-0.0928362 -0.438341 1.32144 0 0 0 
-0.120756 0.478227 1.17852 2 0 0 
-0.106102 0.200178 1.19179 0 0 0 
-0.0507296 -0.601861 1.40859 0 0 0 
-0.1895 0.112629 1.26639 0 0 0 
-0.14231 0.0317269 1.21099 0 254 1 
-0.202389 0.167327 1.2855 0 0 0 
-0.18043 0.450155 1.22724 0 0 0 
-0.162052 0.316086 1.22199 0 0 0 
-0.071074 -0.138474 1.23555 0 0 0 
-0.150329 0.0792816 1.22551 74 79 85 
-0.231856 0.108839 1.46241 0 0 0 
-0.191484 0.0869508 1.4666 0 0 0 
-0.143416 0.514152 1.18491 46 47 254 
-0.173801 0.233543 1.2384 124 37 37 
-0.210739 0.129721 1.31509 0 0 0 
-0.157708 -0.112155 1.26656 0 0 0 
-0.122417 -0.316184 1.4584 0 0 0 
-0.13766 0.209187 1.20787 254 48 45 
0.0284142 -0.0023743 1.22678 255 27 26 
-0.183814 0.117777 1.25819 0 0 0 
-0.214695 0.111153 1.47764 0 0 0 
-0.184861 0.164778 1.25827 0 0 0 
-0.167755 0.373558 1.22249 255 80 79 
-0.179203 0.314477 1.24662 0 0 0 
-0.101829 0.310421 1.18844 43 42 37 
-0.189442 0.288426 1.25802 0 0 0 
-0.173414 0.254473 1.23598 35 150 46 
-0.215091 0.122312 1.379 0 0 0 
-0.0555585 -0.609802 1.37506 0 0 0 
-0.21659 0.160685 1.36611 0 0 0 
-0.0996194 -0.454962 1.39117 0 0 0 
-0.21451 0.303855 1.34063 0 0 0 
-0.197075 -0.11193 1.36286 0 0 0 
-0.220593 0.469733 1.33679 0 0 0 
-0.172273 -0.0886107 1.28343 254 44 40 
-0.214357 0.272516 1.34747 0 0 0 
-0.193983 -0.128701 1.36894 0 0 0 
-0.208212 0.336152 1.29976 0 0 0 
-0.175166 -0.0986597 1.29805 2 1 2 
-0.134958 -0.183938 1.51893 0 0 0 
-0.214342 0.328192 1.33613 0 0 0 
-0.106404 -0.423712 1.3886 0 0 0 
-0.209324 0.435124 1.37204 0 0 0 
-0.193767 0.138059 1.27403 73 255 60 
-0.176656 -0.11007 1.31094 0 0 0 
-0.157755 -0.249494 1.37617 0 0 0 
-0.0773822 -0.544892 1.3957 0 0 0 
-0.212707 0.320583 1.31949 0 0 0 
-0.133953 -0.322015 1.37353 0 0 0 
-0.11597 -0.312951 1.31779 0 0 0 
-0.144265 -0.293946 1.38145 0 0 0 
-0.225072 0.0741762 1.35565 0 0 0 
-0.212086 0.404467 1.32833 0 0 0 
-0.210461 0.350501 1.30991 0 0 0 
-0.157233 -0.217742 1.34255 0 0 0 
-0.100192 -0.438539 1.38261 0 0 0 
-0.196807 0.297584 1.28045 0 1 0 
-0.150028 -0.280279 1.37989 0 0 0 
-0.214913 0.196728 1.3366 0 0 0 
-0.199379 -0.0753115 1.3425 0 0 0 
-0.20591 -0.0813487 1.36302 0 0 0 
-0.214203 0.205292 1.31537 0 0 0 
-0.212189 0.377502 1.32226 0 0 0 
-0.216219 -0.0299789 1.3336 0 0 0 
-0.178434 -0.177701 1.37284 0 0 0 
-0.210749 0.313335 1.31274 0 0 0 
-0.21766 0.173258 1.35314 0 0 0 
-0.0743332 -0.507267 1.37171 0 0 0 
-0.214996 0.20244 1.36722 0 0 0 
-0.209456 0.261308 1.30797 0 0 0 
-0.213822 0.0665567 1.42348 0 0 0 
-0.102551 -0.379625 1.34298 0 0 0 
-0.0790016 -0.585691 1.39873 0 0 0 
-0.157317 -0.199751 1.33181 0 0 0 
-0.209421 0.141745 1.30389 0 0 0 
-0.117449 -0.392626 1.39028 0 0 0 
-0.211682 0.225177 1.31626 0 0 0 
-0.0889769 -0.456363 1.3652 0 0 0 
-0.202295 -0.0964189 1.36534 0 0 0 
-0.19325 0.0680109 1.2737 35 34 254 
-0.162313 -0.15976 1.31107 10 7 7 
-0.203215 0.118202 1.29318 0 0 0 
-0.159243 0.384646 1.21537 0 0 0 
-0.213834 0.188125 1.32843 0 0 0 
-0.117109 -0.328366 1.33231 0 0 0 
-0.188287 -0.0448826 1.28213 51 50 48 
-0.202574 0.151071 1.28765 0 0 0 
-0.224882 0.0381547 1.3386 0 0 0 
-0.212073 0.473039 1.27252 0 0 0 
-0.113022 -0.403758 1.38704 0 0 0 
-0.151536 -0.177726 1.3001 13 20 134 
-0.214736 0.159923 1.38241 0 0 0 
-0.220562 -0.012758 1.32437 0 0 0 
-0.217217 0.117272 1.35202 0 0 0 
-0.145587 -0.210757 1.30748 14 9 6 
-0.214872 0.0832072 1.33423 0 0 0 
-0.189051 -0.150143 1.37237 0 0 0 
-0.123515 -0.363962 1.38242 0 0 0 
-0.198583 0.390013 1.27005 0 0 0 
-0.22542 0.0051134 1.3205 0 0 0 
-0.226978 0.056448 1.35454 0 0 0 
-0.213611 0.299191 1.32859 0 0 0 
-0.165467 -0.169239 1.32834 0 0 0 
-0.212388 0.140235 1.32009 0 0 0 
-0.151549 -0.143613 1.2723 48 254 50 
-0.214609 0.154227 1.33507 0 0 0 
-0.118685 -0.375428 1.38572 0 0 0 
-0.138331 -0.261517 1.33393 0 0 0 
-0.147492 -0.243514 1.34487 0 0 0 
-0.166842 0.344125 1.2234 53 41 254 
-0.107682 -0.356119 1.44985 0 0 0 
-0.183823 0.0320489 1.248 0 0 0 
-0.218192 0.0889625 1.34931 0 0 0 
-0.226218 0.0176196 1.35822 0 0 0 
-0.198708 0.401558 1.27004 0 0 0 
-0.1742 -0.236652 1.41239 0 0 0 
-0.186166 0.485548 1.21705 45 254 35 
-0.0965572 -0.275542 1.29165 104 106 114 
-0.159691 0.426964 1.2119 49 45 254 
-0.190755 0.424259 1.25088 47 254 43 
-0.22609 0.56018 1.27964 231 57 58 
-0.0950116 -0.469617 1.39162 0 0 0 
-0.213243 -0.0229666 1.32196 0 0 0 
-0.157588 -0.123843 1.27077 50 46 43 
-0.201308 0.345926 1.27943 0 0 0 
-0.240045 0.601447 1.26974 1 0 0 
-0.167034 -0.0708599 1.25447 33 254 31 
-0.221575 -0.0257598 1.35003 0 0 0 
-0.139364 -0.312968 1.38257 0 0 0 
-0.170539 0.115022 1.47475 0 0 0 
-0.107669 -0.37833 1.44977 0 0 0 
-0.199382 -0.00263808 1.26269 254 52 51 
-0.181265 0.357572 1.24102 79 75 64 
-0.212322 0.288621 1.32307 0 0 0 
-0.194855 -0.0324705 1.28008 44 252 42 
-0.168379 -0.204089 1.36551 0 0 0 
-0.215326 0.238664 1.32964 0 0 0 
-0.220387 0.499653 1.30323 0 0 0 
-0.230607 0.598603 1.30798 0 0 0 
-0.226562 -0.0175211 1.35562 0 0 0 
-0.0762926 -0.515863 1.426 0 0 0 
-0.213514 0.24733 1.36212 0 0 0 
-0.16917 0.276022 1.23086 46 40 254 
-0.227115 0.0478253 1.36144 0 0 0 
-0.217907 0.048627 1.31143 0 0 0 
-0.199733 0.503507 1.23978 54 51 254 
-0.209751 -0.0729155 1.36664 0 0 0 
-0.210071 0.212313 1.3935 0 0 0 
-0.218063 0.0151095 1.31037 0 0 0 
-0.16257 -0.222164 1.36519 0 0 0 
-0.122436 -0.306519 1.3265 0 0 0 
-0.204974 0.156549 1.29907 0 0 0 
-0.194262 -0.0442749 1.29738 0 0 0 
-0.101703 0.603393 1.11572 14 254 21 
-0.192154 0.175936 1.26408 254 60 56 
-0.219113 -0.0410747 1.35651 0 0 0 
-0.221564 0.539028 1.2851 39 38 137 
-0.210239 0.611479 1.43495 0 0 0 
-0.153088 0.343575 1.21161 254 72 71 
-0.22457 -0.0151592 1.34183 0 0 0 
-0.0799648 -0.506401 1.37994 0 0 0 
-0.208766 0.537091 1.25359 254 50 49 
-0.216027 0.0378387 1.30427 0 0 0 
-0.222446 0.0263845 1.3339 0 0 0 
-0.14552 -0.176267 1.28124 30 26 254 
-0.195775 0.218448 1.29155 0 0 0 
-0.126445 -0.235955 1.28928 34 255 31 
-0.196671 0.433491 1.26289 255 42 41 
-0.166372 0.250837 1.22877 68 64 53 
-0.13623 -0.279941 1.35159 0 0 0 
-0.0798604 -0.522213 1.3859 0 0 0 
-0.216206 0.107383 1.35153 0 0 0 
-0.224786 0.0175321 1.34604 0 0 0 
-0.214337 0.461223 1.30105 0 0 0 
-0.111065 -0.338953 1.32663 0 0 0 
-0.200547 0.472543 1.24706 67 253 69 
-0.16342 -0.110552 1.28366 51 50 45 
-0.217229 0.144947 1.35281 0 0 0 
-0.217734 0.516707 1.28163 5 1 1 
-0.197502 0.0293894 1.26716 54 52 254 
-0.107486 -0.359677 1.33251 0 0 0 
-0.167703 -0.145321 1.31502 0 0 0 
-0.0860481 -0.496764 1.38392 0 0 0 
-0.188245 0.414512 1.24646 49 254 62 
-0.213139 0.203675 1.32626 0 0 0 
-0.0863142 -0.0496703 1.20482 255 32 32 
-0.167348 0.613304 1.12979 3 0 0 
-0.222677 0.0514871 1.40713 0 0 0 
-0.210552 0.426344 1.30585 0 0 0 
-0.226379 0.0295414 1.38472 0 0 0 
-0.210236 0.487686 1.26863 1 0 0 
-0.18414 0.296438 1.24822 254 14 11 
-0.118897 0.171678 1.19856 8 254 16 
-0.206764 0.111264 1.30343 0 0 0 
-0.169703 -0.0824497 1.27107 254 67 66 
-0.19796 0.0209301 1.26739 0 0 0 
-0.16063 0.276009 1.22206 66 63 54 
-0.174772 -0.165513 1.35271 0 0 0 
-0.0977878 0.250987 1.18584 49 39 37 
-0.211815 0.34385 1.31727 0 0 0 
-0.212319 0.0170098 1.30075 13 13 10 
-0.228196 0.55158 1.32786 0 0 0 
-0.213224 0.434347 1.3297 0 0 0 
-0.226985 0.549189 1.30597 0 0 0 
-0.0923019 -0.408556 1.34751 0 0 0 
-0.221713 0.0495824 1.32703 0 0 0 
-0.229766 0.00582196 1.3355 0 0 0 
-0.246676 0.601126 1.29828 0 0 0 
-0.166455 -0.0516257 1.23846 89 88 86 
-0.175478 0.142543 1.24463 53 52 48 
-0.128161 -0.347315 1.38197 0 0 0 
-0.211028 -0.0459283 1.34338 0 0 0 
-0.230394 0.59864 1.28818 9 1 1 
-0.211238 0.237871 1.31281 0 0 0 
-0.128024 0.185142 1.20139 10 2 0 
-0.207064 0.163649 1.30958 0 0 0 
-0.157285 0.175815 1.22791 254 90 86 
-0.233396 0.0128333 1.36562 0 0 0 
-0.211982 -0.00784263 1.28964 78 85 113 
-0.192604 0.515991 1.22925 254 57 53 
-0.14528 -0.255138 1.34779 0 0 0 
-0.0670577 0.435748 1.15561 26 254 26 
-0.171657 -0.0234711 1.23468 32 254 37 
-0.198972 0.125648 1.28121 20 25 10 
-0.238938 0.603338 1.25515 0 0 0 
-0.142655 0.398236 1.19289 21 254 32 
-0.0934702 -0.464729 1.38264 0 0 0 
-0.184503 -0.106203 1.32304 0 0 0 
-0.106082 -0.167162 1.25542 254 37 35 
-0.22547 0.0287394 1.36005 0 0 0 
-0.170381 0.413568 1.22318 254 57 53 
-0.201387 -0.0245767 1.28989 56 199 30 
-0.205198 0.33539 1.29052 0 0 0 
-0.0923047 -0.427751 1.35182 0 0 0 
-0.197129 0.535631 1.23076 254 41 40 
-0.209362 0.308805 1.29836 0 0 0 
-0.205469 0.0153978 1.27903 13 13 15 
-0.107545 0.346238 1.17355 254 45 41 
-0.17409 0.5171 1.20678 30 30 30 
-0.184784 -0.0872226 1.3143 0 0 0 
-0.158006 0.266706 1.21848 254 49 45 
-0.17421 0.356964 1.23181 61 58 254 
-0.189948 -0.0788922 1.31894 0 0 0 
-0.223134 -0.0331413 1.36757 0 0 0 
-0.207307 0.0815386 1.30364 0 0 0 
-0.144378 0.339209 1.20426 70 67 62 
-0.114066 0.148244 1.19716 255 53 49 
0.016344 -0.0288538 1.20214 60 57 52 
0.0612427 0.0531804 1.21658 0 0 0 
0.0466476 -0.0524664 1.22922 19 16 9 
0.0015547 -0.136129 1.24426 25 254 18 
-0.012832 -0.378053 1.33425 0 0 0 
-0.0176682 -0.031565 1.18938 69 64 254 
0.0370419 -0.209468 1.28893 56 54 55 
0.106796 0.126499 1.25265 48 254 51 
-0.0357555 -0.258464 1.27712 0 0 0 
-0.0691111 -0.674763 1.41087 0 0 0 
0.000483853 -0.278683 1.29894 0 0 0 
0.0297872 -0.0206222 1.2032 0 0 0 
0.0215008 -0.257095 1.29964 250 56 53 
-0.0180817 -0.0834155 1.21702 0 0 0 
-0.0361267 -0.392253 1.32785 0 0 0 
0.0550622 -0.0673567 1.24183 100 99 105 
0.0550843 -0.136134 1.26732 21 254 37 
-0.0136535 -0.164852 1.24913 38 26 27 
-0.068885 0.0947934 1.18851 0 1 0 
0.0992875 0.442188 1.21667 35 35 35 
-0.0172629 -0.27346 1.28922 0 0 0 
0.0851831 0.0514531 1.24255 33 32 30 
0.0389917 -0.150062 1.26679 66 64 254 
0.116064 -0.0201202 1.36628 54 255 59 
0.0576916 0.110699 1.22003 34 35 255 
0.0291048 -0.137916 1.2572 55 55 254 
-0.0258771 -0.601608 1.40436 0 0 0 
0.0923702 0.585652 1.17944 37 254 32 
-0.0133368 -0.392965 1.33912 0 0 0 
-0.0546096 -0.273897 1.2776 0 0 0 
0.0559316 -0.082966 1.24865 48 49 254 
0.0172558 -0.183619 1.2688 39 30 31 
-0.00969566 -0.242819 1.28008 0 0 0 
0.036827 -0.0519468 1.22141 80 79 254 
-0.0559747 0.592507 1.11274 44 254 51 
0.0859094 0.0025736 1.23908 22 18 15 
-0.00202594 0.0541394 1.18812 21 19 254 
0.0496202 0.20675 1.20497 0 0 0 
0.0349557 0.103312 1.20587 0 0 0 
-0.00359887 0.103107 1.19217 0 0 0 
0.0518342 0.594792 1.15119 49 253 58 
0.0514381 0.0508131 1.21674 13 14 254 
-0.0380601 -0.362782 1.31581 0 0 0 
0.0218823 0.00709881 1.19682 0 0 0 
0.0311659 0.0634641 1.2008 255 51 50 
-0.024845 -0.067657 1.20584 254 66 62 
-0.0437826 0.226803 1.17728 0 0 0 
-0.0227926 -0.387253 1.33216 0 0 0 
-0.0270572 0.26385 1.1763 55 254 60 
-0.0281632 -0.0187499 1.18211 64 65 254 
0.0198098 -0.0155698 1.19591 0 0 0 
0.0740345 0.288054 1.21568 32 31 24 
0.0561035 0.00450525 1.21581 0 0 0 
-0.0368384 -0.102231 1.21246 0 0 0 
-0.0300891 -0.0896646 1.21673 0 0 0 
-0.0331373 -0.601232 1.38607 0 0 0 
-0.0506046 -0.538147 1.3747 0 0 0 
0.0390809 -0.163222 1.2705 34 37 254 
-0.0405075 -0.283333 1.28342 0 0 0 
0.0463713 -0.0719203 1.24077 39 38 34 
0.0100312 0.0574704 1.19844 0 0 0 
-0.0017884 -0.0717736 1.21817 70 66 254 
0.0542764 0.172399 1.21219 54 255 46 
0.0453437 0.0988619 1.21167 3 3 255 
-0.0179172 -0.177851 1.25311 0 0 0 
-0.128855 0.574965 1.16339 27 167 41 
0.0267974 -0.0945885 1.23897 254 65 65 
-0.082932 0.367784 1.16853 0 0 0 
0.0541302 0.461783 1.17417 66 64 254 
0.0234789 -0.0571278 1.22073 254 46 45 
0.0491107 -0.0606503 1.23483 63 61 254 
0.115675 0.334432 1.24554 255 44 43 
0.0598637 0.240741 1.20839 254 46 45 
-0.00342204 -0.128529 1.2386 38 36 37 
0.0284178 -0.193972 1.27515 254 39 29 
0.0925503 0.0608791 1.24837 255 27 26 
-0.0195123 -0.147784 1.23824 1 1 2 
0.0630398 -0.0695372 1.24769 53 53 53 
-0.0396407 0.594239 1.12339 71 68 63 
-0.0104731 0.514371 1.14833 36 35 33 
0.0609797 -0.0412173 1.23322 52 254 59 
0.0976774 0.307639 1.22721 55 54 52 
0.00883654 0.268203 1.18148 41 44 38 
-0.000132022 -0.106038 1.23192 1 1 1 
-0.0397616 0.525238 1.14464 54 254 53 
-0.0399093 0.0793471 1.18794 0 0 0 
0.0541472 -0.246229 1.31561 41 254 48 
0.059907 0.576875 1.15743 22 22 20 
0.0582337 -0.03084 1.22306 255 89 88 
-0.0643597 -0.249427 1.27193 0 0 0 
-0.0173946 -0.0513238 1.19707 0 0 0 
-0.0691665 -0.521123 1.3933 0 0 0 
0.0577898 0.285727 1.20242 24 254 26 
0.000416607 -0.0398199 1.20049 85 84 254 
0.0993034 0.463254 1.21198 254 36 34 
0.0134521 -0.198942 1.27331 1 1 1 
0.055319 -0.00734708 1.20586 84 79 254 
-0.015587 0.577692 1.13458 72 71 66 
-0.0422197 -0.427829 1.33939 0 0 0 
0.00451411 0.581341 1.13755 69 64 254 
-0.128726 0.0664189 1.21351 0 0 0 
-0.0688575 0.0341968 1.18289 0 0 0 
0.00384817 0.0769144 1.19479 84 37 37 
-0.0485064 0.515228 1.1473 254 49 47 
0.00779071 -0.0775164 1.22527 35 254 44 
0.0569558 0.546204 1.16117 32 34 254 
0.0990426 0.00737604 1.25173 255 46 45 
0.0946482 0.0734423 1.24545 255 42 41 
0.0439801 -0.129775 1.25884 254 49 48 
0.0661223 0.281714 1.21066 254 45 44 
0.0903859 0.145741 1.2389 255 38 36 
-0.0152954 -0.407615 1.34449 0 0 0 
0.09867 0.16682 1.23696 45 43 255 
0.0776938 0.218729 1.22326 60 58 61 
0.0354181 0.147974 1.20233 19 255 29 
0.084708 0.190071 1.23504 41 39 255 
0.0192363 0.160519 1.19409 0 0 0 
0.0160476 -0.270993 1.30448 43 46 39 
0.0748458 0.082987 1.23559 25 255 38 
0.0835188 0.499516 1.19445 254 43 41 
-0.0478481 0.243845 1.17723 253 44 40 
-0.00800862 0.371885 1.16856 0 0 0 
-0.0433874 0.460233 1.15271 44 254 44 
0.0100316 -0.306074 1.31372 0 0 0 
0.0179729 -0.0479502 1.215 71 254 79 
0.00601366 0.223445 1.18361 33 34 254 
0.0415316 0.602252 1.12427 252 36 35 
-0.0619846 -0.304764 1.29184 0 0 0 
0.10072 0.0534341 1.25174 255 16 15 
0.0376061 0.550987 1.15057 247 53 54 
-0.0272465 -0.0784076 1.21094 0 0 0 
-0.16288 0.614807 1.09398 0 0 0 
0.0741612 0.00911509 1.23094 80 255 62 
0.0660579 0.294579 1.20913 50 48 254 
0.0506486 -0.0219621 1.21366 72 254 82 
0.0656574 0.21498 1.21424 40 41 254 
-0.0881428 0.253291 1.1803 0 0 0 
0.0242414 0.288739 1.18633 57 52 254 
0.0207165 -0.156216 1.2619 64 63 59 
0.0951186 0.118679 1.23971 26 255 29 
-0.0280009 0.573907 1.1367 69 64 254 
0.0769103 -0.242947 1.34131 52 50 51 
0.0679253 0.0645201 1.22761 0 0 0 
0.0439714 -0.139744 1.2642 63 62 58 
-0.00264682 -0.372783 1.33749 0 0 0 
-0.043642 -0.264054 1.27547 0 0 0 
-0.0319282 0.511501 1.14609 0 0 0 
0.045596 0.187732 1.20441 0 0 0 
0.0175401 -0.231832 1.28327 252 73 72 
-0.0271263 -0.434237 1.35019 0 0 0 
0.0227465 -0.122648 1.25289 15 13 254 
0.0662749 0.187534 1.2172 56 254 58 
0.122552 0.395353 1.24998 33 32 30 
-0.0426526 0.421074 1.16186 0 0 0 
-0.00875755 0.331954 1.17149 35 36 254 
-0.0219601 0.350875 1.1681 39 37 254 
0.024239 0.445939 1.16863 111 130 254 
-0.0495573 0.0830661 1.18839 68 66 254 
-0.00195858 -0.0167024 1.18733 44 39 35 
0.09253 0.293019 1.22755 41 42 254 
0.0432243 0.123699 1.20916 74 254 62 
-0.0363098 -0.21677 1.2587 0 0 0 
0.0554809 0.183795 1.21437 32 254 41 
-0.0041006 -0.357806 1.32657 0 0 0 
-0.0588132 0.571273 1.12731 52 254 48 
0.0354406 0.0724704 1.20845 0 0 0 
0.0463835 -0.0344279 1.22115 51 254 61 
-0.154235 0.597225 1.15844 2 13 2 
-0.0687522 0.375697 1.16846 0 0 0 
-0.0368591 -0.341153 1.30741 0 0 0 
-0.0814594 -0.267953 1.28465 0 0 0 
0.0519752 0.323974 1.19659 0 0 0 
-0.065597 -0.327412 1.30014 0 0 0 
0.000806744 0.424614 1.16794 63 63 61 
-0.0777729 -0.354052 1.31745 0 0 0 
-0.0534343 -0.526477 1.37248 0 0 0 
0.0672983 0.464402 1.18154 61 57 56 
-0.0131524 0.257062 1.17709 56 254 58 
-0.0450667 -0.335012 1.30147 0 0 0 
-0.0353417 -0.454943 1.35493 0 0 0 
-0.0956669 -0.328106 1.3159 0 0 0 
0.0247084 0.0715449 1.2024 53 51 254 
0.0692945 0.478548 1.17703 254 57 57 
0.0205577 -0.0789763 1.23283 0 0 0 
-0.0358117 -0.304106 1.29574 0 0 0 
0.031525 0.000667963 1.20286 0 0 0 
0.109343 0.253857 1.24122 255 66 64 
0.0859169 0.28399 1.22677 254 30 29 
0.00852449 0.285757 1.18633 56 46 254 
-0.0426481 -0.507245 1.36804 0 0 0 
-0.00807588 -0.266957 1.29196 0 0 0 
0.0724724 0.102944 1.231 255 57 55 
-0.0160356 -0.0584451 1.20405 63 58 254 
0.0876716 0.201477 1.23278 254 33 33 
-0.0559522 0.382678 1.16261 19 20 14 
0.0437337 0.293203 1.19674 254 27 26 
0.0834078 0.592405 1.15558 254 62 57 
0.0727756 0.263387 1.21597 49 47 254 
0.0846037 0.118236 1.23666 254 27 25 
-0.0340936 0.237667 1.17645 65 254 64 
-0.0634814 0.190678 1.1821 0 0 0 
-0.0371585 0.248509 1.1761 0 0 0 
-0.0720648 0.355529 1.17104 0 0 0 
-0.0092881 0.592642 1.13742 47 42 254 
0.0149331 0.0381157 1.19155 71 69 72 
-0.0987305 0.206245 1.18638 0 0 0 
0.0636218 0.272373 1.21068 255 11 10 
-0.129613 0.191117 1.21274 0 0 0 
-0.0380193 0.189897 1.17922 33 254 78 
0.106798 0.339883 1.23314 254 37 36 
-0.0531624 0.589803 1.13047 77 69 254 
0.0120768 0.390341 1.17354 69 69 69 
0.0684808 0.0879115 1.22925 254 30 30 
-0.074749 0.0651328 1.18649 0 0 0 
-0.0603781 0.273909 1.17428 1 0 3 
-0.0346928 -0.49529 1.36902 0 0 0 
-0.00628684 0.459661 1.15478 9 254 18 
0.0365266 -0.120872 1.25672 53 51 254 
0.0740596 0.376743 1.20188 53 49 50 
-0.0374404 -0.485664 1.36696 0 0 0 
0.0396077 0.334216 1.18833 48 254 47 
-0.0467254 0.551152 1.13628 37 32 29 
-0.0822678 0.0780504 1.19209 0 0 0 
-0.0692974 0.589506 1.13052 28 27 22 
0.0490544 0.43642 1.18613 31 254 25 
-0.0431838 -0.470621 1.35403 0 0 0 
0.0727123 -0.0384183 1.23521 82 83 255 
0.0588303 0.494906 1.17114 254 66 71 
0.0518279 0.0649114 1.21709 30 254 35 
0.0473889 -0.308895 1.386 254 77 73 
0.00556078 0.489519 1.15295 17 14 254 
0.0202906 0.42051 1.17353 0 0 0 
-0.118294 0.0765278 1.20546 0 0 0 
-0.0853261 -0.147354 1.24012 0 0 0 
0.0578499 0.367113 1.19702 37 35 36 
-0.0128267 0.399088 1.16714 3 0 0 
0.0332732 0.15921 1.20131 0 0 0 
-0.142443 -0.0429452 1.224 0 0 0 
0.051491 0.614038 1.12606 58 56 51 
0.0876824 0.223484 1.23237 255 40 38 
-0.0156594 0.317653 1.17106 47 45 254 
0.0526727 0.357374 1.19129 53 254 58 
-0.0587475 0.416006 1.15495 59 59 59 
-0.000164304 0.405869 1.16867 55 55 53 
-0.129535 0.402949 1.17385 0 0 0 
-0.0414406 0.3856 1.16694 50 49 45 
-0.121783 -0.105559 1.24318 0 0 0 
0.0257447 0.430343 1.17383 254 34 30 
-0.0186598 -0.195616 1.25726 1 1 1 
-0.00545533 0.312664 1.17556 0 0 0 
-0.0448566 -0.131535 1.22461 0 0 0 
0.0116412 -0.161683 1.26098 52 51 47 
-0.0244062 0.381967 1.16422 31 29 254 
-0.107871 0.449202 1.16312 0 0 0 
-0.0653837 -0.27606 1.28188 0 0 0 
-0.0465499 -0.187226 1.24486 0 0 0 
0.013103 -0.0658567 1.22256 78 253 77 
-0.011437 0.212293 1.18146 0 0 0 
-0.000208738 0.232963 1.18213 0 0 2 
0.0107179 -0.0941553 1.23291 44 45 254 
-0.0178252 0.17481 1.18227 55 254 62 
-0.0449911 -0.00690412 1.0504 0 0 0 
-0.0342181 -0.158534 1.23829 0 0 0 
0.0152745 0.107578 1.19815 70 255 53 
-0.203837 0.080852 1.34531 0 0 0 
0.0434876 0.00190323 1.62391 32 28 255 
-0.0720292 0.270229 1.17643 0 0 0 
-0.265573 0.105313 1.38821 0 0 0 
-0.130105 0.0543611 1.25302 0 0 0 
0.127926 0.093428 1.30459 47 47 47 
-0.0494268 -0.660649 1.41383 0 0 0 
0.0716779 -0.234356 1.33095 57 55 254 
-0.0729545 -0.608722 1.37807 0 0 0 
-0.0416679 -0.63547 1.41726 0 0 0 
-0.0173614 -0.296936 1.29858 0 0 0 
0.032686 0.343479 1.18496 61 62 254 
-0.0427263 -0.251915 1.27091 0 0 0 
0.0109902 -0.171556 1.26265 1 1 1 
0.0869621 -0.0559367 1.26384 107 106 104 
0.101131 0.0881144 1.25047 35 33 34 
-0.0249812 -0.119365 1.22749 0 0 0 
0.109498 0.0264898 1.26494 82 82 82 
0.100322 0.134569 1.24312 54 254 53 
0.0762639 0.193969 1.22512 52 46 226 
0.113112 0.0380131 1.27439 53 52 255 
0.0514901 -0.196802 1.29665 65 254 68 
0.0727082 0.276038 1.21628 43 254 45 
0.00929514 -0.384444 1.36501 0 0 0 
0.0512461 -0.0987312 1.25224 37 36 34 
-0.0468915 -0.411805 1.33235 0 0 0 
0.124487 0.00895605 1.29866 49 48 255 
0.100628 0.210042 1.23664 31 31 31 
0.0725041 0.0425817 1.22498 64 62 63 
-0.0392932 -0.591256 1.38638 0 0 0 
0.0482581 0.312831 1.19429 0 0 0 
-0.0272111 -0.42263 1.34424 0 0 0 
0.118817 0.116429 1.27426 255 43 42 
-0.0317769 -0.350071 1.31415 0 0 0 
-0.0103187 0.0835204 1.19195 0 0 0 
-0.0350857 -0.50949 1.37576 0 0 0 
0.0717119 0.439044 1.20061 76 76 76 
0.0340163 -0.256003 1.31125 67 68 255 
0.0831991 -0.0733017 1.28556 58 57 55 
0.119601 0.135385 1.27123 49 48 46 
0.110517 0.177736 1.25383 35 33 255 
0.0790661 0.181352 1.23266 68 66 67 
0.104543 0.19971 1.24174 69 67 255 
0.0538221 -0.111998 1.25773 254 49 48 
-0.0134859 -0.150268 1.246 0 0 0 
-0.0148011 0.0948047 1.18969 0 0 0 
0.0471407 0.141349 1.20966 254 64 61 
0.102171 0.289593 1.22985 33 33 33 
0.11974 0.0470959 1.28886 255 46 42 
0.106887 0.0519991 1.26161 22 20 255 
0.0650743 0.384439 1.19934 53 52 50 
0.116349 0.278673 1.25169 254 26 26 
0.0626464 -0.188618 1.29987 25 24 254 
0.0128363 -0.262197 1.30036 0 0 0 
0.0688401 0.23131 1.2185 254 32 31 
-0.0637328 -0.207693 1.24476 0 0 0 
0.0755498 -0.162728 1.33188 254 46 46 
0.0785061 0.0620642 1.24021 18 253 22 
0.0106488 -0.348124 1.3427 0 0 0 
-0.0881623 -0.163842 1.24602 0 0 0 
0.0684373 -0.222333 1.31583 58 254 68 
0.0537154 -0.170502 1.28407 34 254 49 
-0.0227765 -0.378124 1.32927 0 0 0 
0.110551 0.122707 1.26266 24 25 255 
0.0687682 -0.188864 1.31606 16 254 21 
0.0640318 0.330805 1.20291 254 51 51 
0.0139914 -0.112553 1.24763 94 89 64 
0.115716 -0.018244 1.29403 38 255 60 
-0.0230846 -0.398078 1.3406 0 0 0 
0.116068 0.0134677 1.28099 255 23 23 
-0.0168405 -0.204091 1.26357 0 0 0 
0.108898 0.100095 1.25913 48 49 255 
0.0540279 0.0980506 1.21636 52 255 55 
0.0575168 -0.0157091 1.21692 254 39 35 
0.108761 0.0794607 1.25828 255 46 45 
0.106959 0.365423 1.23139 26 254 30 
0.0136753 0.455933 1.16194 79 79 79 
0.115851 0.216164 1.25699 51 50 48 
0.0134067 0.09417 1.19718 62 62 255 
0.0987617 -0.0162602 1.25134 61 62 254 
0.036216 0.0489208 1.20161 0 0 0 
0.106964 0.286025 1.23832 24 255 24 
0.0404576 0.000127289 1.20559 0 0 0 
0.107274 -0.00964542 1.26371 59 59 59 
0.0851249 -0.0135083 1.23622 254 71 67 
0.063338 0.0280254 1.21959 1 1 1 
-0.0279541 -0.215552 1.26338 0 0 0 
0.044447 -0.189574 1.28406 57 55 254 
0.0116389 0.142029 1.19312 61 252 58 
0.0801933 0.211252 1.22797 254 64 62 
0.0754161 0.0200023 1.22639 58 254 45 
0.0419396 0.526788 1.16172 12 14 254 
0.0482471 0.544318 1.15937 48 253 55 
0.0623626 0.0748919 1.22586 0 0 0 
0.122909 0.0293385 1.29723 41 254 33 
0.080311 0.0973764 1.23933 254 20 18 
0.120745 0.0901987 1.28144 255 19 15 
0.0317317 -0.240106 1.29988 27 15 255 
-0.0562443 -0.557859 1.38058 0 0 0 
-0.05517 0.228165 1.1781 0 0 0 
0.0466621 0.0893292 1.21588 254 36 36 
0.00380273 0.0910344 1.19288 8 8 15 
0.105763 0.0396253 1.25886 56 55 53 
0.0411729 0.484811 1.16704 26 25 254 
0.06226 0.539779 1.16907 46 251 47 
0.0398586 -0.061632 1.23162 59 254 61 
0.0798526 -0.212465 1.35907 42 254 47 
-0.126041 -0.0711753 1.23302 0 0 0 
-0.0476855 0.40624 1.15096 0 0 0 
0.0753817 0.0323903 1.22847 42 44 254 
0.0824453 0.415006 1.21261 10 254 25 
-0.0506945 0.410305 1.16104 0 0 0 
-0.101309 0.277077 1.18415 0 0 0 
-0.00129689 0.196144 1.18345 0 0 0 
0.108029 0.240025 1.24588 21 255 27 
0.0793412 -0.186028 1.34495 254 109 107 
0.101396 0.320706 1.2272 47 48 254 
-0.00638973 -0.253728 1.2921 0 0 0 
0.079122 0.271438 1.22165 48 44 43 
-0.0261475 -0.04028 1.18935 0 0 0 
0.0417224 0.283321 1.20159 60 59 54 
0.0688723 0.531797 1.17639 36 254 39 
-0.0406691 -0.173179 1.23945 0 0 0 
-0.0973172 -0.283958 1.29882 0 0 0 
0.0449337 0.270765 1.19437 47 45 46 
0.0126265 -0.0405948 1.20303 59 255 64 
0.061182 0.51111 1.17677 254 67 67 
0.07093 -0.0883432 1.25843 15 254 24 
-0.0494651 -0.363883 1.31425 0 0 0 
0.0683102 -0.00804303 1.21654 89 84 254 
0.0765207 0.486466 1.18957 73 71 74 
0.0656404 0.000928022 1.22322 254 54 53 
0.0662799 0.165504 1.22225 56 54 55 
0.0551009 0.0150413 1.21447 59 252 59 
-0.0220827 0.0702419 1.19127 0 0 0 
-0.0541592 0.398022 1.16634 0 0 0 
-0.124647 -0.210831 1.2648 0 0 0 
0.0615476 0.446429 1.18864 66 64 254 
-0.0312858 -0.267981 1.29453 0 0 0 
0.0618838 0.146171 1.22143 46 44 254 
0.113969 0.268868 1.24743 50 50 50 
0.111096 0.114716 1.26261 254 44 42 
-0.0303621 -0.598613 1.39888 0 0 0 
0.115268 0.323186 1.24957 255 51 50 
-0.00958756 0.447092 1.15953 6 1 2 
-0.00562739 0.241201 1.17938 1 0 0 
0.0644424 0.49932 1.18151 254 45 49 
0.0114132 -0.149686 1.25374 0 0 0 
0.0718546 0.390934 1.20313 31 30 28 
0.0643335 -0.212909 1.3059 61 57 254 
0.104072 0.00190564 1.25989 10 11 254 
-0.0745017 0.384888 1.15781 0 0 0 
-0.0451803 -0.268917 1.27657 0 0 0 
0.0327196 0.299175 1.19344 28 26 254 
0.0577402 0.350867 1.19542 27 27 27 
0.0457939 0.151047 1.20881 79 76 71 
9.81253e-06 0.0674598 1.1942 13 16 16 
0.0808869 0.559563 1.17186 30 28 29 
-0.00314506 0.304379 1.18015 0 0 0 
0.120092 0.538671 1.22627 35 36 254 
0.128421 0.408572 1.26559 254 51 50 
0.0200478 -0.0814424 1.26056 93 92 90 
0.0303002 0.0246826 1.19948 254 17 13 
0.0401406 0.463858 1.16822 15 16 254 
0.0489386 0.24682 1.20215 254 30 26 
-0.012782 0.428725 1.16606 0 0 0 
-0.0330241 0.421272 1.16388 0 0 0 
0.0517379 0.481539 1.17359 42 42 40 
-0.0064666 -0.318422 1.31387 0 0 0 
0.0724691 -0.193821 1.3328 18 254 22 
-0.0416002 -0.518551 1.37526 0 0 0 
-0.0211291 -0.539165 1.41286 0 0 0 
0.101927 0.219622 1.23404 255 64 62 
0.0399405 0.0164454 1.20811 0 0 0 
0.070368 0.572535 1.16621 4 4 3 
0.0824449 -0.0305588 1.24059 254 75 71 
0.0176434 -0.0617711 1.20968 254 32 30 
-0.0354637 -0.138895 1.22794 0 0 0 
0.036725 0.370232 1.18347 49 49 49 
-0.0256404 -0.307075 1.30101 0 0 0 
0.0904571 -0.0319036 1.25011 255 73 72 
-0.0534418 -0.585001 1.38218 0 0 0 
0.116061 0.192681 1.25707 30 28 29 
0.106066 -0.0639272 1.33143 67 60 255 
-0.00231558 0.395691 1.16987 1 1 1 
0.0678256 0.126143 1.22528 54 52 254 
-0.039505 -0.00938135 1.19024 0 0 0 
-0.0217242 0.0396369 1.18388 0 0 0 
0.0531509 0.418125 1.18921 60 61 254 
-0.0413166 -0.0575239 1.19462 0 0 0 
0.0152326 0.371481 1.17528 60 58 61 
-0.130799 0.0866614 1.61958 15 255 19 
0.0845985 0.353316 1.21858 41 254 30 
0.0635332 -0.0198024 1.21468 0 0 0 
0.08058 0.527002 1.18218 51 50 46 
0.000159022 -0.249716 1.28641 0 0 0 
0.0340836 0.122937 1.20433 0 0 0 
-0.0157584 -0.0995483 1.22323 0 0 0 
0.0677236 -0.0303588 1.22598 80 75 254 
0.0102957 0.443633 1.16583 75 254 75 
-0.00431739 0.277388 1.17745 0 0 0 
0.0996513 0.348278 1.22487 47 45 46 
-0.0404062 -0.11854 1.21994 0 0 0 
0.0120365 0.215643 1.18951 45 40 255 
-0.0153493 0.134231 1.1869 0 0 0 
0.0307542 -0.149085 1.25973 77 246 62 
0.0386018 0.309597 1.1916 36 37 254 
0.0297237 0.41998 1.17695 17 16 254 
0.00517345 -0.206208 1.27236 0 0 0 
0.0357445 0.407147 1.18129 0 0 0 
-0.0468237 -0.0438329 1.18899 0 0 0 
-0.0631871 -0.0876069 1.21323 0 0 0 
-0.0609096 -0.66576 1.40889 0 0 0 
-0.133775 0.50619 1.1848 0 0 0 
-0.0651229 -0.602188 1.38713 0 0 0 
-0.0572647 -0.549552 1.37414 0 0 0 
-0.0501276 -0.681851 1.41317 0 0 0 
0.020277 -0.300465 1.32057 0 0 0 
0.13284 0.0591716 1.37345 21 21 255 
0.11939 0.0980375 1.27876 20 20 254 
0.017754 -0.376339 1.37611 0 0 0 
0.127436 0.0323676 1.30116 55 53 54 
-0.127942 0.442642 1.18379 0 0 0 
0.14793 0.60642 1.39243 254 35 33 
-0.0259074 -0.597741 1.41511 0 0 0 
-0.0553964 -0.659956 1.38322 0 0 0 
0.155339 0.60705 1.38438 51 254 52 
-0.0538353 -0.664104 1.4044 0 0 0 
0.134464 0.389892 1.2789 255 45 44 
0.00601476 -0.0495004 1.21098 255 61 60 
0.0873917 0.100999 1.24341 255 46 46 
0.11482 0.118792 1.26804 36 254 32 
-0.0200759 -0.608309 1.39712 0 0 0 
0.132985 0.109736 1.33741 47 47 255 
0.0205466 -0.329408 1.34361 0 0 0 
0.128585 0.106641 1.29939 70 70 70 
0.0969339 -0.112091 1.34531 51 52 255 
0.110336 0.00299022 1.26993 29 27 255 
0.153567 0.591897 1.27753 45 254 46 
-0.00657003 -0.273288 1.2948 0 0 0 
0.112486 0.135903 1.27015 26 27 255 
-0.0748392 -0.638598 1.40849 0 0 0 
0.0133323 -0.204836 1.27432 5 3 2 
-0.125473 0.296427 1.20637 0 0 0 
0.134957 0.211466 1.30125 24 26 255 
0.042626 -0.290797 1.36988 254 61 60 
-0.0262932 -0.587202 1.39589 0 0 0 
0.133603 0.479631 1.26848 35 33 255 
0.138735 0.388661 1.29217 45 44 42 
-0.0339985 -0.593071 1.38843 0 0 0 
0.12264 -0.051561 1.35158 113 254 127 
-0.160576 0.31853 1.24438 0 0 0 
0.131747 0.188173 1.29856 38 22 22 
-0.131754 0.307491 1.20587 0 0 0 
0.124578 0.458533 1.24945 46 44 254 
0.110972 0.104754 1.26166 46 48 47 
0.107259 0.195531 1.24515 254 18 18 
0.0330879 -0.280917 1.32607 0 0 0 
0.0010453 -0.38677 1.34709 0 0 0 
0.139446 0.426853 1.3018 24 23 21 
0.00657595 -0.0318554 1.21002 70 69 65 
0.157966 0.595874 1.26016 254 33 32 
0.0258516 -0.272834 1.30825 1 1 1 
0.118265 0.170003 1.26833 254 21 19 
0.133115 0.0600591 1.32355 43 43 254 
0.0195484 -0.341699 1.35836 0 0 0 
0.0775355 -0.121468 1.30561 80 78 254 
0.040178 -0.278366 1.34726 90 87 254 
0.0146614 -0.368605 1.36359 0 0 0 
0.098197 -0.0707301 1.31879 254 74 73 
0.13318 0.145448 1.31812 36 34 35 
0.116577 0.0926089 1.26741 29 29 29 
0.143139 0.507285 1.31123 23 254 27 
0.134474 0.0993126 1.3173 44 44 255 
0.137427 0.141271 1.33682 48 255 43 
0.0253609 0.170266 1.19578 0 0 0 
0.134929 0.338337 1.28571 254 42 40 
-0.109422 0.489387 1.17755 0 0 0 
-0.0308634 -0.49093 1.36675 0 0 0 
0.0181271 -0.342978 1.34717 0 0 0 
0.128145 0.451413 1.25994 59 57 254 
0.0811053 -0.0837229 1.27872 78 76 254 
0.0849825 -0.0806378 1.29321 29 254 37 
0.135425 0.0838332 1.33619 29 27 28 
0.024971 -0.307104 1.3313 0 0 0 
0.124599 0.112167 1.28469 51 255 52 
0.119116 0.0609546 1.28922 255 36 38 
0.0817629 0.218176 1.23043 254 57 57 
0.00589376 -0.341579 1.32447 0 0 0 
0.0365183 -0.217763 1.28659 75 72 65 
0.109723 0.0848429 1.26108 29 30 255 
-0.131469 0.460099 1.18768 0 0 0 
0.0956253 -0.101766 1.33225 254 53 52 
-0.122127 0.499498 1.18354 0 0 0 
0.0813724 -0.176456 1.34282 34 31 26 
0.139368 0.249818 1.32557 28 255 45 
0.140701 0.577147 1.24762 32 30 31 
0.0415675 -0.09845 1.24867 254 38 36 
0.0114866 -0.362806 1.35458 0 0 0 
0.128623 0.33769 1.26167 53 53 53 
0.125331 0.00840679 1.29919 255 39 38 
0.0460516 -0.20425 1.29373 97 102 244 
0.139884 0.212266 1.32454 19 21 255 
0.121523 0.385193 1.24426 35 33 255 
0.134851 0.366642 1.28943 50 51 255 
0.0673783 -0.167661 1.31803 48 254 71 
-0.00560736 -0.570864 1.31596 0 0 0 
0.129117 0.0583491 1.39408 17 15 255 
0.137401 0.272621 1.29696 255 41 21 
0.121535 0.334501 1.25204 32 30 31 
0.14798 0.558345 1.27148 48 49 254 
-0.0210893 -0.492812 1.37628 0 0 0 
0.122392 0.589754 1.21566 54 254 38 
0.0877048 -0.203762 1.32523 36 254 54 
0.00895288 -0.363079 1.3408 0 0 0 
0.118034 0.0742896 1.2754 255 42 40 
0.112188 -0.0345102 1.29423 59 56 51 
0.05656 -0.155308 1.28538 63 59 254 
0.0708897 -0.206924 1.3153 35 254 38 
-0.129592 0.494588 1.18838 0 0 0 
0.0662368 0.0506845 1.22998 17 17 17 
0.0646656 -0.158833 1.30015 254 39 40 
0.0735087 -0.204654 1.33993 254 91 88 
0.141639 0.281764 1.31254 255 43 27 
0.0651431 -0.168854 1.29898 254 65 64 
0.105712 0.274077 1.2364 254 27 27 
0.135432 0.112437 1.32254 44 44 44 
0.133154 0.127016 1.30494 255 31 31 
-0.034017 -0.537157 1.38009 0 0 0 
0.0771786 0.567256 1.10207 1 10 1 
0.122116 0.205858 1.26841 255 52 51 
0.0201469 0.410858 1.17424 75 73 254 
0.0716305 -0.166508 1.30865 66 62 254 
-0.118665 -0.177632 1.26539 0 0 0 
0.0248542 -0.197895 1.27989 54 55 252 
0.00470506 -0.156863 1.25332 0 0 0 
0.064764 0.207127 1.21452 0 0 0 
-0.011042 -0.346552 1.31759 0 0 0 
0.039412 -0.246291 1.31203 23 22 18 
0.125222 -0.0297358 1.32797 105 255 91 
0.120165 0.42094 1.24551 19 18 16 
0.0223231 -0.145142 1.25527 53 217 66 
0.127039 0.443199 1.24855 50 255 48 
0.128852 0.539977 1.2371 60 61 254 
0.0161318 0.00723876 1.20407 254 65 63 
0.0677968 -0.25169 1.31825 28 29 254 
0.0818025 0.452681 1.19107 254 72 71 
0.108539 0.46844 1.22223 41 42 254 
0.0338807 -0.319364 1.37461 42 41 43 
-0.0126747 0.229276 1.19165 0 1 0 
0.10136 -0.0315112 1.26191 48 43 254 
-0.00652509 -0.140293 1.24017 0 0 0 
-0.0571039 -0.223825 1.27038 0 0 0 
0.148753 0.556043 1.28209 42 254 48 
0.132194 0.374689 1.26831 254 40 39 
0.0957703 0.0459525 1.24675 254 25 23 
-0.115081 0.0421683 1.18918 0 0 0 
0.105444 0.542885 1.20286 36 35 254 
0.101956 0.119905 1.24631 255 56 55 
0.14158 0.480084 1.29123 254 28 26 
0.145583 0.529812 1.30575 42 254 49 
0.088002 -0.152619 1.36383 33 34 254 
0.133729 0.281457 1.28947 254 54 40 
-0.00154127 -0.22494 1.27186 0 0 0 
0.135978 0.190395 1.31977 30 14 15 
0.141736 0.402861 1.29752 255 36 35 
0.008202 -0.298876 1.31252 0 0 0 
-0.0895058 -0.184179 1.25032 0 0 0 
0.121171 0.0186136 1.281 44 45 255 
0.133173 0.197147 1.30063 28 27 25 
0.128847 0.0793569 1.30904 29 255 34 
-0.0113007 -0.278679 1.29532 0 0 0 
0.0704605 -0.215595 1.32019 45 45 254 
0.0690691 0.0568592 1.24159 48 255 48 
0.11648 0.0346683 1.28037 50 50 50 
0.0720285 -0.139561 1.31091 60 56 55 
-0.156333 -0.182247 1.2754 0 0 0 
0.120064 0.00673562 1.28232 47 46 44 
0.138555 0.172576 1.3254 29 255 29 
-0.056595 -0.65611 1.39955 0 0 0 
-0.0721572 -0.237245 1.2679 0 0 0 
-0.055301 -0.559816 1.39568 0 0 0 
0.135935 0.0122312 1.35573 40 255 46 
-0.011164 -0.310252 1.30336 0 0 0 
0.127829 0.517571 1.25159 45 46 254 
0.146295 0.538355 1.28384 52 254 52 
0.0739743 0.499051 1.18755 46 44 45 
0.0674853 -0.106364 1.2703 50 254 50 
-0.0337427 -0.508676 1.3731 0 0 0 
-0.135203 0.473906 1.18983 0 0 0 
0.11756 0.40771 1.2396 31 32 254 
0.0939332 -0.116482 1.3604 42 255 43 
0.11312 0.538302 1.21386 46 45 43 
0.128679 0.00895851 1.311 254 56 55 
0.13319 0.244463 1.28528 255 43 24 
0.121176 0.58441 1.20084 254 41 38 
0.109998 0.0531015 1.26881 59 58 56 
0.0375884 -0.181382 1.27658 0 0 0 
0.129676 0.397575 1.25875 29 28 255 
0.073193 -0.177287 1.33145 29 254 33 
0.120242 0.435068 1.23376 49 47 254 
0.14147 0.261335 1.32045 23 23 255 
0.132758 0.335498 1.27521 26 255 31 
0.131041 0.137021 1.30631 47 47 255 
0.133171 0.0446617 1.34302 38 39 255 
0.133945 0.024719 1.34272 41 255 49 
-0.0671334 -0.228212 1.25325 0 0 0 
-0.0415124 -0.371025 1.31633 0 0 0 
0.0787319 -0.147308 1.31646 46 254 49 
-0.0762912 -0.24729 1.2641 0 0 0 
0.101934 0.453233 1.21597 51 254 45 
0.0874069 0.0189286 1.2418 254 51 50 
0.13323 0.0604256 1.35224 21 255 18 
0.127918 0.0412176 1.31078 45 43 255 
-0.0262753 0.145062 1.1828 0 0 0 
0.119697 0.47394 1.39091 33 255 35 
0.113169 0.150825 1.26484 47 45 255 
0.134785 0.546654 1.24835 47 48 254 
0.0731254 -0.110788 1.28197 41 38 254 
0.115791 0.278877 1.25284 24 20 254 
0.0415855 0.240455 1.19824 51 49 254 
0.0799277 -0.104208 1.29711 50 48 254 
0.130927 0.00857792 1.30889 31 30 28 
0.138947 0.588181 1.25203 44 43 254 
0.131261 0.0181862 1.31799 7 254 60 
0.137321 0.0993446 1.32725 52 48 49 
0.060289 -0.190922 1.30425 254 34 33 
0.032236 -0.306038 1.35775 25 26 21 
-0.0723392 0.403682 1.16784 0 0 0 
0.0807791 -0.0932943 1.28973 39 35 32 
0.142738 0.0741062 1.41407 255 64 62 
0.07581 -0.199189 1.3315 34 35 30 
0.133991 0.395027 1.2708 32 254 32 
-0.0317351 -0.23523 1.27024 0 0 0 
0.107251 0.145938 1.25621 55 254 60 
0.138997 0.35434 1.29733 12 10 255 
0.132624 0.172699 1.31622 12 255 12 
0.0781028 0.571002 1.17194 253 74 71 
0.0822646 -0.165307 1.33885 254 39 37 
0.0859735 0.232795 1.2318 255 43 42 
0.114835 -0.03189 1.30452 66 63 58 
-0.0376514 -0.327801 1.30586 0 0 0 
0.133451 0.252141 1.29605 26 255 46 
0.0892236 -0.0986606 1.31145 254 44 43 
0.0914363 -0.0885224 1.30885 54 254 53 
0.134277 0.429935 1.27792 41 40 254 
0.00447721 0.469151 1.15262 48 239 56 
-0.0495082 -0.42612 1.33497 0 0 0 
-0.0505947 -0.5312 1.37174 0 0 0 
0.131729 0.155551 1.29934 40 39 37 
0.143268 0.285748 1.32665 254 66 62 
0.126616 0.122628 1.29259 34 255 40 
0.129262 0.109163 1.3035 254 26 26 
0.139844 0.49093 1.2951 27 25 26 
-0.0977556 0.01119 1.18753 0 0 0 
0.11581 0.419465 1.23078 35 33 254 
-0.000982563 -0.351722 1.32701 0 0 0 
0.0819911 0.493179 1.19315 62 254 62 
0.104172 -0.0569107 1.31653 255 61 57 
-0.0152239 0.475536 1.15082 0 0 0 
0.131051 0.353117 1.27014 63 254 55 
0.136972 0.547105 1.25685 29 27 254 
-0.0147016 -0.535227 1.42536 0 0 0 
0.142082 0.534047 1.29295 254 29 28 
0.12871 0.292291 1.27331 255 38 26 
0.104424 0.464732 1.2104 25 23 254 
0.114957 -0.0224505 1.27689 85 82 77 
0.116242 0.177099 1.25648 254 50 48 
0.114435 0.297098 1.24007 48 46 255 
0.00147267 -0.331232 1.31703 0 0 0 
0.146105 0.601068 1.27592 33 32 30 
0.103517 -0.032997 1.26554 54 254 63 
0.122734 0.0786207 1.28812 32 33 254 
-0.0351592 -0.444511 1.34517 0 0 0 
-0.117722 0.527184 1.18019 0 0 0 
0.110598 -0.0671662 1.34302 43 44 254 
0.0922728 0.451537 1.20259 41 40 38 
0.00542487 -0.372166 1.35172 0 0 0 
0.108657 0.00554935 1.23946 47 45 255 
0.0351007 0.412231 1.18459 74 74 254 
0.11791 0.449709 1.23538 254 48 47 
0.0604909 -0.174173 1.29272 254 72 71 
0.117819 0.112011 1.2756 47 45 46 
0.0644867 0.45809 1.1833 74 75 77 
0.138707 0.469948 1.28387 32 254 33 
0.104883 0.0292596 1.2612 38 36 37 
0.0372016 -0.305351 1.36634 52 255 49 
0.0310462 -0.0605529 1.23464 56 54 55 
0.0758275 0.532358 1.17689 37 35 254 
0.0751971 -0.219822 1.32833 73 254 69 
0.137273 0.00651657 1.34773 51 254 41 
-0.00935724 0.180911 1.19442 1 4 1 
0.0769903 -0.208602 1.32626 254 60 57 
0.0270922 -0.329438 1.36277 0 0 0 
0.0726218 -0.11874 1.2933 56 55 51 
0.0713428 0.367418 1.20275 50 254 56 
-0.112652 0.535645 1.1812 0 0 0 
-0.0574641 0.408999 1.16827 0 0 0 
-0.0451532 -0.511996 1.36484 0 0 0 
0.0956772 0.0259486 1.24222 50 49 47 
-0.0700653 0.18108 1.18903 0 0 0 
0.038236 -0.299098 1.35238 56 197 47 
0.131282 0.0892192 1.31633 41 255 39 
0.0480569 -0.0770564 1.24672 15 19 254 
0.107775 0.0680935 1.25663 40 38 39 
0.0160655 0.504278 1.15241 37 36 34 
0.109588 0.132438 1.25464 255 62 60 
-0.00488152 -0.421413 1.35327 0 0 0 
-0.0554709 -0.212117 1.25352 0 0 0 
-0.0550813 0.37412 1.17467 0 0 0 
0.141161 0.460366 1.31225 40 255 42 
0.0953729 0.263603 1.23143 62 255 52 
0.116905 0.053052 1.27426 27 254 28 
-0.0541425 -0.648154 1.39503 0 0 0 
0.107739 -0.0162869 1.23387 52 50 51 
0.136419 0.160524 1.32064 37 35 255 
-0.127235 -0.0491757 1.23148 0 0 0 
-0.00856064 -0.00967403 1.17694 2 2 2 
0.133684 0.534372 1.26406 45 254 50 
0.0845656 0.462058 1.1981 70 68 253 
0.0235617 -0.313345 1.34295 0 0 0 
0.0775205 0.0582667 1.24723 23 22 20 
0.122534 -0.00476007 1.29043 61 59 255 
0.13264 0.00102573 1.30561 254 55 54 
0.132281 0.285558 1.28073 27 29 255 
-0.121926 0.556402 1.19559 0 0 0 
0.111046 0.371293 1.23162 44 254 36 
0.12233 0.592025 1.18698 63 59 230 
0.138312 -0.0106053 1.35818 60 60 58 
0.126397 0.101297 1.29001 255 38 36 
0.0814325 -0.10999 1.3076 254 74 73 
0.0526941 -0.158087 1.27159 254 56 44 
0.0841684 -0.118693 1.32648 254 64 64 
0.126545 0.547593 1.21858 34 33 31 
-0.0451186 -0.168635 1.2482 0 0 0 
0.0352009 0.443111 1.17486 0 0 0 
0.140831 0.00518111 1.3698 255 44 43 
0.0870009 0.325733 1.22156 47 46 44 
0.0523386 -0.183763 1.29462 68 254 98 
-0.045757 0.437667 1.15784 0 0 0 
0.104186 0.314029 1.23063 46 45 43 
-0.0769412 -0.160669 1.24679 0 0 0 
0.0916954 0.211955 1.23166 24 26 255 
0.134478 0.24129 1.29908 255 49 28 
-0.015919 -0.434386 1.3528 0 0 0 
0.105956 0.00818935 1.26152 67 66 64 
0.0625954 -0.111183 1.26106 254 56 55 
-0.133926 -0.17752 1.27474 0 0 0 
0.0569094 0.002098 1.23334 4 3 0 
-0.0705458 0.427565 1.16567 0 0 0 
0.0872544 0.145956 1.24445 46 44 255 
0.132544 -0.00671444 1.31525 86 86 86 
0.0649893 0.479477 1.17549 73 73 254 
0.0290124 0.353426 1.18177 71 69 254 
0.113119 0.238586 1.25123 52 50 51 
0.0877055 -0.139576 1.34641 12 11 9 
0.0754748 0.299288 1.21583 254 47 46 
0.0443871 -0.234204 1.3141 254 59 58 
0.133265 0.302348 1.28749 48 46 254 
-0.02122 0.515219 1.14893 1 1 1 
0.00180816 0.537288 1.14446 11 10 9 
0.133258 0.00467621 1.3639 34 33 31 
0.00360074 0.589465 1.11864 3 1 1 
-0.083494 -0.247621 1.248 0 0 0 
0.113871 0.202912 1.25602 50 255 56 
-0.0204096 -0.387386 1.33286 0 0 0 
0.135505 0.357857 1.27885 16 16 16 
0.137213 0.294002 1.29992 28 255 47 
0.0325069 0.000294712 1.21865 46 254 49 
0.124833 0.528932 1.24436 51 50 48 
0.119164 -0.0441754 1.33984 106 255 107 
0.11905 0.290219 1.24852 255 29 28 
0.121951 0.401807 1.2458 48 47 45 
0.0476625 -0.261466 1.33341 28 27 25 
0.12831 0.40835 1.26296 39 38 36 
0.0286521 -0.160972 1.26471 51 49 52 
-0.0237769 0.00467253 1.1839 0 0 0 
0.0923295 -0.0525106 1.28129 103 98 255 
0.113364 -0.0129965 1.26649 53 255 50 
0.0691264 0.349586 1.20474 208 42 42 
-0.116162 0.324554 1.19607 0 0 0 
-0.0283383 -0.399656 1.32421 0 0 0 
-0.0301273 -0.540979 1.39111 0 0 0 
-0.0296025 0.221421 1.17924 0 0 0 
0.0279328 -0.0827695 1.23857 254 72 69 
0.13827 0.590153 1.24167 49 48 254 
0.125883 0.222195 1.27074 22 21 255 
0.0886285 -0.063865 1.28339 43 40 35 
0.091557 -0.14093 1.36367 23 21 22 
0.0851907 -0.059626 1.26861 66 254 77 
0.103788 0.150588 1.24763 44 42 254 
0.00420888 -0.396315 1.35995 0 0 0 
0.0768817 0.588505 1.15702 11 10 10 
