ply                 
format ascii 1.0    
element vertex 1311
property float x    
property float y    
property float z    
property uchar red  
property uchar green
property uchar blue 
end_header          
0.0360668 0.263433 1.20014 41 39 254 
-0.0249625 0.505618 1.14521 254 61 60 
-0.158817 0.478061 1.19359 0 0 0 
0.03328 0.59092 1.13902 24 254 29 
-0.0813454 0.484704 1.16003 69 67 254 
-0.0288772 0.0789672 1.18923 34 254 40 
0.010904 0.309434 1.17902 254 54 53 
-0.0313281 0.115118 1.1874 54 254 75 
-0.0372956 0.500867 1.1445 0 0 0 
-0.109772 -0.0788533 1.22947 0 0 0 
0.0174134 0.57864 1.14211 254 34 33 
-0.0299334 0.307041 1.17122 49 48 46 
-0.0137624 0.41388 1.16681 254 57 57 
0.0645413 0.254754 1.2094 255 29 27 
-0.158491 0.0330603 1.22191 0 0 0 
-0.0583419 0.0631987 1.19114 22 22 22 
-0.0666761 0.118727 1.18776 0 0 0 
0.0468714 0.0193997 1.20808 33 31 254 
-0.0523235 -0.355612 1.30685 0 0 0 
-0.0665575 -0.119592 1.22716 61 62 255 
0.0253142 0.364534 1.17869 254 44 44 
-0.055175 0.299361 1.17244 50 49 47 
0.0926111 0.247963 1.23194 31 29 30 
-0.0404728 0.611101 1.10819 48 253 62 
0.00807939 0.200417 1.18698 29 30 255 
0.095418 0.39523 1.2201 38 254 45 
-0.087188 -0.407901 1.34002 0 0 0 
-0.127115 0.247434 1.19897 0 0 0 
-0.0875319 0.338592 1.17447 76 254 83 
-0.0855917 0.277986 1.17954 0 0 0 
0.0985729 0.369624 1.22232 50 48 254 
-0.138414 0.264583 1.2047 0 0 0 
-0.0119075 0.160526 1.18331 0 0 0 
-0.154344 0.166441 1.22297 0 0 0 
0.0593274 0.159451 1.21514 254 21 20 
-0.0927569 0.596839 1.12582 27 26 24 
-0.113072 0.251948 1.18778 0 0 0 
-0.00496995 0.545387 1.13946 15 16 11 
-0.00842501 0.349396 1.16921 42 42 254 
0.0553306 -0.0411115 1.26063 64 62 255 
-0.101694 0.320625 1.18058 10 11 8 
-0.0204343 0.273649 1.17431 0 0 0 
-0.026448 0.154141 1.18242 255 45 44 
-0.156046 0.0662266 1.22838 0 0 0 
-0.163426 -0.00490915 1.22432 0 0 0 
-0.0230198 0.250101 1.17454 25 254 32 
-0.170685 0.205826 1.23612 0 0 0 
-0.021394 0.292254 1.17376 62 254 65 
-0.00587111 0.186571 1.18364 0 0 0 
0.0264096 0.550642 1.14657 34 37 254 
-0.0930938 0.56997 1.16435 254 30 28 
-0.133613 -0.192734 1.26849 0 0 0 
-0.190618 0.26278 1.26112 0 0 0 
-0.196352 0.0795873 1.27707 0 0 0 
-0.183796 0.241694 1.24883 0 0 0 
-0.186782 0.599756 1.17491 35 30 231 
-0.162202 0.144324 1.23168 0 0 0 
-0.166146 0.112135 1.23595 0 0 0 
-0.117596 -0.26872 1.29936 0 0 0 
-0.160722 0.18645 1.22648 0 0 0 
-0.217437 0.0607458 1.3155 0 0 0 
-0.0848393 -0.174217 1.2472 26 254 41 
-0.144854 0.0981816 1.21792 255 58 57 
-0.165248 -0.0601972 1.24306 0 0 0 
-0.178316 0.0993335 1.24988 0 0 0 
-0.131918 -0.0175815 1.20514 40 42 254 
-0.0663028 -0.38054 1.32069 0 0 0 
-0.189459 0.137245 1.26488 0 0 0 
-0.178233 0.18732 1.24556 0 0 0 
-0.120567 0.0659405 1.20546 10 10 254 
-0.210706 0.0849738 1.43333 0 0 0 
-0.132924 -0.168003 1.26672 0 0 0 
-0.211295 0.0639871 1.28465 0 0 0 
-0.0689816 0.545472 1.14214 30 254 29 
-0.204459 0.598932 1.19451 12 2 2 
-0.149202 0.187423 1.21717 14 52 17 
-0.140852 0.0715932 1.21828 33 31 254 
-0.155036 0.112566 1.22651 0 0 0 
-0.166917 0.127594 1.2358 0 0 0 
-0.166654 0.17382 1.23258 0 0 0 
-0.160977 0.0993615 1.23225 0 0 0 
-0.1364 0.241938 1.20435 36 254 43 
-0.166381 0.36392 1.22197 0 0 0 
-0.105164 -0.317061 1.31397 0 0 0 
-0.201469 0.0964437 1.28584 0 0 0 
-0.178605 0.264361 1.24216 0 0 0 
-0.0284174 0.130991 1.18562 24 22 23 
-0.157091 0.242725 1.21907 0 0 0 
-0.179782 -0.0249778 1.24477 0 0 0 
-0.150143 0.261002 1.21303 21 4 5 
-0.145567 0.206227 1.21293 63 59 56 
-0.117762 -0.115681 1.24427 89 91 97 
-0.17994 0.0777703 1.25457 0 0 0 
-0.0873775 -0.219572 1.25042 23 23 23 
-0.0412029 0.0130158 1.1822 71 70 68 
-0.151997 0.292669 1.21309 0 0 0 
-0.187216 0.189987 1.25612 0 0 0 
-0.157055 0.393481 1.21146 1 0 0 
-0.211446 0.014853 1.29014 0 0 0 
-0.14576 0.319162 1.207 92 0 0 
0.0571104 -0.206782 1.29653 254 34 20 
-0.0549778 0.462139 1.15012 0 0 0 
-0.140856 0.123026 1.21465 54 50 252 
-0.0766378 -0.285475 1.29164 0 0 0 
-0.130335 0.201957 1.20285 63 254 69 
-0.140862 0.253588 1.2068 42 33 254 
-0.142246 0.490152 1.18431 254 70 69 
-0.157414 0.155255 1.22575 2 1 1 
-0.17452 0.598502 1.15957 42 33 254 
-0.139915 0.22523 1.20731 65 62 53 
-0.174415 0.110549 1.24535 0 0 0 
-0.162321 0.289541 1.22059 0 0 0 
-0.12496 0.0846187 1.20848 59 58 54 
-0.0360743 0.0686604 1.18846 255 55 54 
-0.170834 0.00523019 1.23046 6 5 3 
-0.191075 0.0153452 1.25625 0 0 0 
-0.0840399 -0.0882871 1.22333 52 50 254 
-0.156134 -0.158457 1.29256 0 0 0 
-0.162343 -0.139287 1.29921 0 0 0 
-0.145397 0.156504 1.21643 27 23 20 
-0.167503 0.532886 1.19705 9 254 21 
-0.19754 0.0510491 1.26418 0 0 0 
-0.17198 0.391028 1.22918 0 0 0 
-0.153695 -0.0807702 1.24723 0 0 0 
-0.127853 0.043226 1.20151 254 45 41 
-0.198625 0.600841 1.17885 8 78 13 
-0.18142 0.0460833 1.24282 0 0 0 
-0.196915 0.322283 1.27515 0 0 0 
-0.0642496 -0.404466 1.3309 0 0 0 
-0.151573 0.367197 1.20828 0 0 0 
-0.154175 0.125377 1.2247 0 0 0 
-0.156522 0.214356 1.22238 0 0 0 
-0.206401 0.510016 1.25701 0 0 0 
-0.152017 0.498486 1.18749 40 254 40 
-0.174153 0.378543 1.22985 0 0 0 
-0.16124 0.350933 1.2156 0 0 0 
-0.17064 0.210254 1.23405 0 0 0 
-0.189594 0.0463078 1.25266 0 0 0 
-0.191857 0.402823 1.25375 0 0 0 
-0.0622422 -0.0633366 1.20216 53 51 254 
-0.0241107 0.234944 1.17774 27 21 21 
-0.0804371 0.595384 1.13094 46 254 59 
-0.171155 0.312893 1.23141 0 0 0 
-0.0212124 0.0846795 1.18865 255 37 33 
-0.184093 -0.00248678 1.24222 0 0 0 
-0.160981 0.591839 1.17537 39 35 34 
-0.155406 0.314972 1.21435 0 0 0 
-0.200412 0.558971 1.22468 3 0 0 
-0.192837 0.436855 1.25102 0 0 0 
-0.192002 -0.00828504 1.251 0 0 0 
-0.0563825 -0.118057 1.2212 94 254 86 
-0.142684 0.454707 1.17988 65 64 62 
-0.113755 -0.206484 1.25889 2 1 2 
-0.161708 0.476557 1.19591 2 2 2 
-0.200081 0.00921111 1.26881 0 0 0 
-0.172394 0.332192 1.2291 0 0 0 
0.0396423 0.255331 1.20153 44 255 45 
-0.0264995 0.404787 1.16591 35 254 34 
-0.0153619 0.0585042 1.19272 44 42 255 
-0.0554578 -0.139591 1.22966 49 254 50 
-0.199805 0.595799 1.22454 12 2 2 
-0.106914 -0.145367 1.25213 51 53 57 
-0.170932 0.294656 1.23083 0 0 0 
-0.126397 0.594825 1.15335 254 25 24 
-0.123994 -0.249287 1.29505 0 0 0 
-0.17616 0.477213 1.20866 0 0 0 
-0.180094 0.368712 1.23908 0 0 0 
-0.203931 0.296301 1.29521 0 0 0 
-0.1648 0.511065 1.19796 14 13 9 
-0.166276 0.265854 1.22647 0 0 0 
-0.166399 0.0827945 1.23791 0 0 0 
-0.168411 0.24006 1.23103 0 0 0 
-0.117552 0.419394 1.17124 49 254 59 
-0.0541928 0.328461 1.17065 47 255 43 
-0.0574615 0.0400454 1.18205 48 48 48 
-0.105046 0.478837 1.17088 76 72 255 
-0.125019 0.0219162 1.20061 0 0 0 
-0.063074 -0.344042 1.30736 0 0 0 
-0.140388 0.00531158 1.20661 0 0 0 
-0.0419684 -0.60798 1.3809 0 0 0 
-0.0878741 -0.354959 1.3218 0 0 0 
-0.0730774 0.00537142 1.18569 0 0 0 
0.0101433 0.179665 1.1886 217 55 55 
-0.107425 0.141015 1.19701 0 0 0 
-0.116817 0.00706657 1.19678 25 140 2 
-0.0837839 -0.0236003 1.19066 60 60 60 
-0.0352493 0.164281 1.18206 40 254 56 
-0.0547791 -0.59482 1.38143 0 0 0 
-0.136355 0.0512858 1.20664 0 0 0 
-0.101475 0.511859 1.1691 37 38 254 
-0.107987 -0.109357 1.23862 0 0 0 
-0.0448109 -0.142942 1.22524 56 55 51 
-0.0812315 0.244279 1.18081 254 73 73 
-0.141015 0.618068 1.0843 3 1 1 
0.00331049 0.00412246 1.1892 0 0 0 
-0.0709078 -0.344709 1.31267 0 0 0 
-0.136926 -0.0592712 1.2334 0 0 0 
-0.0427573 -0.0329931 1.18491 75 255 68 
-0.0211605 -0.00764556 1.1773 0 0 0 
-0.0836533 0.607138 1.0955 252 56 53 
-0.0909144 -0.155218 1.24776 0 0 0 
-0.0992189 -0.340217 1.31987 0 0 0 
-0.0802164 0.0900781 1.19146 60 58 59 
-0.0658791 -0.01006 1.18035 61 254 63 
-0.117333 0.381712 1.17399 0 0 0 
-0.122036 0.612934 1.0876 30 106 30 
-0.0589395 0.124319 1.18524 41 254 43 
0.00489776 -0.00908265 1.18283 250 68 68 
-0.0443617 0.0301297 1.18188 0 0 0 
-0.0705576 0.301902 1.17469 254 65 64 
-0.0735956 -0.151717 1.23852 0 0 0 
-0.0576479 0.0277094 1.18399 0 0 0 
-0.0559002 -0.245724 1.26804 0 0 0 
-0.116615 0.237335 1.19328 0 0 0 
-0.111591 0.595022 1.14891 27 25 26 
0.0164726 0.329375 1.17889 23 21 22 
-0.0996006 0.0275691 1.19092 62 254 54 
-0.109491 0.167353 1.19445 1 1 1 
-0.0564291 -0.677022 1.4109 0 0 0 
-0.0919649 0.534958 1.16552 34 254 33 
-0.0547363 -0.62732 1.40908 0 0 0 
-0.0579844 -0.650848 1.44068 0 0 0 
0.0286661 -0.048565 1.21858 77 255 49 
-0.0388043 -0.551981 1.38585 0 0 0 
-0.0998691 0.523259 1.16842 37 254 30 
-0.185193 0.345297 1.24804 0 0 0 
-0.0768879 -0.553319 1.38968 0 0 0 
-0.164952 -0.2682 1.40166 0 0 0 
-0.159532 -0.183382 1.32075 0 0 0 
-0.116727 0.439619 1.15787 41 42 254 
-0.181296 -0.187661 1.39247 0 0 0 
-0.0507644 -0.156047 1.23165 62 60 63 
-0.214264 0.0799955 1.32271 0 0 0 
-0.105679 0.448212 1.1775 30 28 29 
-0.169108 0.192123 1.23308 0 0 0 
-0.134707 0.316535 1.20159 75 72 253 
-0.18788 0.0998445 1.26359 0 0 0 
0.00902934 -0.329881 1.32529 41 40 254 
-0.0637601 -0.528297 1.37468 0 0 0 
-0.0761577 -0.59248 1.3914 0 0 0 
-0.00349253 -0.0611812 1.20984 44 42 255 
0.0315519 -0.262925 1.30267 11 8 254 
-0.199769 0.110761 1.28486 0 0 0 
-0.098422 -0.179521 1.25509 34 255 36 
0.0553383 0.222758 1.20509 23 24 255 
-0.0832953 0.549852 1.15093 21 22 254 
-0.227097 0.602125 1.26144 0 0 0 
0.00178965 -0.118695 1.23811 255 43 42 
-0.141939 -0.0981631 1.24696 0 0 0 
-0.198522 0.178627 1.28969 0 0 0 
-0.111687 -0.0418499 1.211 62 63 254 
-0.000622554 -0.239855 1.28316 60 254 63 
-0.194485 0.0914226 1.28076 0 0 0 
-0.000266558 0.0199037 1.18963 255 38 38 
-0.172685 0.0698507 1.24348 0 0 0 
-0.174785 0.245414 1.23761 0 0 0 
-0.119349 -0.0553616 1.22223 55 56 254 
-0.184969 0.056913 1.25146 0 0 0 
-0.070437 -0.195231 1.24092 254 57 53 
-0.185216 0.142224 1.25612 0 0 0 
-0.16949 0.0934326 1.24321 0 0 0 
-0.19783 0.0851237 1.28767 0 0 0 
-0.0792269 -0.0451515 1.20025 44 42 43 
-0.125586 0.523684 1.17503 45 44 42 
-0.124974 -0.127689 1.25114 0 0 0 
-0.213994 0.530867 1.27516 0 0 0 
-0.118302 0.053033 1.20057 12 10 254 
-0.0966948 0.236669 1.18622 254 55 47 
-0.0351263 0.0478143 1.18208 255 9 7 
0.102263 0.11255 1.25408 255 59 59 
-0.198429 0.602569 1.20265 8 7 38 
0.0199255 -0.246489 1.29756 56 53 254 
-0.210946 -0.0385566 1.32978 0 0 0 
-0.0183662 0.225298 1.17665 49 255 53 
-0.19087 0.0715038 1.26475 0 0 0 
-0.182878 0.107821 1.25577 0 0 0 
-0.17771 0.159422 1.24652 0 0 0 
-0.114065 0.180422 1.194 35 17 15 
-0.0329091 -0.247742 1.27052 60 56 55 
-0.0373394 -0.328139 1.30231 0 0 0 
-0.163108 -0.239526 1.41526 0 0 0 
0.139724 0.255289 1.39438 38 36 37 
-0.116389 -0.300095 1.31057 0 0 0 
-0.0641654 -0.454643 1.34731 0 0 0 
-0.0834398 0.52947 1.15493 254 41 39 
-0.179035 0.124054 1.24367 0 0 0 
-0.208735 0.122427 1.30507 0 0 0 
-0.0911813 0.267772 1.17929 60 56 53 
-0.0903249 -0.0417638 1.20184 50 51 254 
0.0198798 -0.00186575 1.1952 255 38 38 
-0.22115 0.550329 1.28156 0 0 0 
-0.163403 0.0513454 1.22928 8 5 3 
-0.0931117 -0.390357 1.33575 0 0 0 
-0.0319487 -0.1894 1.24776 48 254 48 
-0.106953 -0.0083065 1.18886 254 59 57 
0.00366679 -0.26556 1.29698 42 39 254 
-0.197082 0.00020491 1.25241 0 0 0 
-0.111357 -0.386945 1.36668 0 0 0 
0.075195 -0.0786446 1.25465 32 31 29 
-0.186121 0.416966 1.40641 0 0 0 
0.0444945 -0.114294 1.25193 44 43 41 
-0.138068 -0.221903 1.30226 0 0 0 
-0.159717 -0.104625 1.25956 0 0 0 
-0.13362 -0.00491128 1.19901 52 56 254 
-0.00206053 0.595633 1.11297 254 26 27 
-0.0592047 -0.472195 1.35439 0 0 0 
-0.14598 0.166734 1.21567 250 75 71 
-0.205076 0.0577309 1.28465 0 0 0 
-0.0255025 -0.227419 1.26619 254 57 53 
-0.188478 0.358953 1.24987 0 0 0 
-0.143572 0.524749 1.18064 42 43 254 
-0.148744 -0.234941 1.33577 0 0 0 
-0.214215 0.056638 1.29328 0 0 0 
-0.0750958 -0.328852 1.30554 0 0 0 
-0.219814 0.0315903 1.32057 0 0 0 
-0.0817163 0.117399 1.18951 56 52 53 
-0.0234649 -0.261335 1.28154 51 47 44 
0.0343645 -0.0746452 1.23634 6 6 6 
-0.136928 0.469103 1.18309 71 254 74 
-0.132674 -0.104123 1.2464 1 1 1 
-0.168209 0.146923 1.23698 0 0 0 
-0.0488854 -0.306728 1.29099 0 0 0 
-0.158083 -0.000559014 1.21579 73 73 73 
-0.197304 0.44569 1.25956 0 0 0 
-0.193663 0.413288 1.2583 0 0 0 
-0.0681581 -0.293518 1.28788 0 0 0 
-0.136184 0.11429 1.21131 254 42 41 
-0.205884 0.630747 1.19137 0 0 0 
-0.0196353 0.59266 1.11861 31 26 254 
-0.0471521 0.595187 1.1078 54 254 47 
-0.125692 0.543429 1.1781 32 33 254 
-0.190848 0.125115 1.26785 0 0 0 
-0.156794 0.254194 1.21925 0 0 0 
-0.0693163 0.424014 1.15558 254 54 52 
0.0603464 -0.101614 1.26402 32 255 32 
-0.0970843 0.168556 1.18832 254 65 64 
-0.0848512 0.568782 1.15939 29 254 32 
-0.0332353 -0.126463 1.22852 46 45 40 
-0.0914502 0.485394 1.16498 50 254 51 
-0.00772938 -0.0494946 1.19955 54 52 255 
-0.082234 0.603271 1.11053 254 9 11 
-0.168137 -0.239703 1.37857 0 0 0 
-0.0590522 0.4578 1.15402 254 39 39 
-0.103883 0.293074 1.18902 26 254 39 
-0.0315026 -0.385473 1.32765 0 0 0 
-0.0278842 0.598036 1.1106 61 56 254 
-0.179821 0.0353271 1.23181 0 0 0 
0.0022916 0.212631 1.18563 28 29 255 
-0.0759261 0.595038 1.11541 26 254 25 
-0.0789471 -0.370002 1.32058 0 0 0 
-0.0819686 -0.472015 1.36114 0 0 0 
-0.136653 -0.196048 1.28118 0 0 0 
0.0221023 -0.212125 1.28099 35 33 254 
-0.101134 0.408602 1.16464 19 254 27 
-0.0506443 -0.563489 1.41302 0 0 0 
-0.0106406 0.413156 1.16223 11 9 254 
-0.00869098 0.543556 1.13957 16 15 14 
-0.203198 0.0980125 1.30056 0 0 0 
-0.20793 0.271077 1.30331 0 0 0 
-0.139243 0.400529 1.18339 254 68 64 
-0.0998147 -0.150821 1.25809 91 86 92 
-0.163171 -0.0934698 1.25843 0 0 0 
-0.169633 -0.214091 1.37692 0 0 0 
-0.150505 -0.103679 1.25399 0 0 0 
-0.204999 0.0300959 1.2768 0 0 0 
-0.0792606 0.581825 1.14682 27 25 254 
-0.0563323 -0.427981 1.33384 0 0 0 
-0.18073 -0.13514 1.34131 0 0 0 
-0.115715 -0.278644 1.3031 0 0 0 
-0.0495392 -0.326757 1.29777 0 0 0 
-0.059172 0.429362 1.15372 39 37 38 
-0.0272878 0.181481 1.18076 72 68 65 
-0.163424 0.402928 1.21425 0 0 0 
-0.178301 0.305314 1.23763 0 0 0 
-0.204195 0.255773 1.29847 0 0 0 
-0.188471 0.310204 1.2544 0 0 0 
-0.151751 0.326706 1.21176 0 0 0 
-0.0744059 -0.484347 1.3642 0 0 0 
-0.173166 0.277683 1.24192 0 0 0 
-0.212538 0.154275 1.31809 0 0 0 
-0.0560054 -0.0564669 1.1934 59 254 59 
-0.168588 -0.248644 1.42809 0 0 0 
-0.176135 -0.0611952 1.27505 0 0 0 
-0.136156 0.530601 1.1739 254 44 42 
0.0106367 0.0103695 1.19266 0 0 0 
-0.0118225 -0.0202204 1.18496 51 50 48 
-0.120641 0.597914 1.14146 17 15 254 
-0.0811072 -0.109706 1.22572 254 50 49 
-0.0756505 -0.305133 1.29863 0 0 0 
-0.138731 0.162007 1.21109 254 36 33 
-0.0682448 -0.684187 1.40188 0 0 0 
-0.144017 0.147331 1.21805 255 58 54 
-0.195695 0.340853 1.26904 0 0 0 
-0.155695 -0.0523727 1.2339 0 0 0 
0.079077 -0.0681126 1.25035 255 40 39 
-0.0275185 -0.0536256 1.19712 255 34 31 
0.00615431 -0.356029 1.3314 255 69 68 
-0.154987 -0.0324471 1.22546 83 62 65 
-0.0439909 0.257777 1.17586 51 50 48 
-0.0885652 -0.419169 1.34512 0 0 0 
-0.0977976 -0.0485298 1.21438 254 46 46 
-0.126886 0.35922 1.18784 254 56 52 
-0.190312 0.25148 1.25956 0 0 0 
-0.187659 0.376425 1.25403 0 0 0 
-0.0606324 -0.000500822 1.19329 25 254 31 
-0.144338 -0.187836 1.28779 0 0 0 
-0.114968 0.31904 1.18651 51 46 254 
-0.152277 0.0943902 1.22338 58 9 10 
-0.170754 0.00258137 1.24127 1 1 1 
0.000432666 -0.192762 1.26444 40 34 254 
-0.00894945 -0.187443 1.25685 254 25 24 
-0.0843639 0.356642 1.1732 47 43 254 
-0.0698318 -0.399177 1.33207 0 0 0 
-0.0427236 0.301922 1.16866 255 37 36 
0.0510763 0.0443147 1.20779 30 28 29 
-0.0543268 0.475567 1.14755 254 28 26 
0.0359997 0.172181 1.2013 49 46 255 
-0.213454 0.00144019 1.27579 0 0 0 
-0.0495989 0.265591 1.17274 42 41 255 
-0.143684 0.134063 1.21518 66 255 75 
-0.0693484 -0.0133979 1.19477 51 52 254 
-0.178791 -0.0778511 1.29764 0 0 0 
-0.165106 0.302984 1.22463 0 0 0 
-0.199579 0.0556981 1.26931 0 0 0 
-0.115998 -0.366565 1.35726 0 0 0 
-0.183021 0.539583 1.21011 49 53 230 
-0.212729 0.00499095 1.2635 0 0 0 
-0.00882954 0.0285974 1.18682 51 255 51 
-0.0959937 -0.402109 1.3453 0 0 0 
-0.138935 0.539779 1.16848 28 27 25 
-0.166176 -0.0444359 1.24937 0 0 0 
-0.146106 -0.131255 1.26179 0 0 0 
-0.0634735 -0.103957 1.21673 57 55 254 
-0.154155 -0.0707302 1.24323 0 0 0 
-0.169824 -0.115275 1.29668 0 0 0 
-0.0845349 -0.0954586 1.22495 44 42 254 
0.0292621 0.467571 1.15952 16 254 5 
-0.18148 0.382504 1.23966 0 0 0 
0.0894141 0.254249 1.23041 255 26 25 
-0.10334 0.0405287 1.19174 254 64 63 
0.0303235 0.111298 1.20161 255 58 58 
-0.179321 0.195695 1.24646 0 0 0 
-0.187153 0.0806607 1.26283 0 0 0 
-0.179277 -0.0542865 1.26603 0 0 0 
-0.0684635 -0.155728 1.23994 55 53 54 
-0.0660814 0.328788 1.17184 40 255 46 
-0.120018 -0.319844 1.33589 0 0 0 
-0.124848 -0.27325 1.3095 0 0 0 
-0.211903 0.596279 1.23994 5 1 1 
0.0433637 -0.162127 1.28194 38 255 40 
-0.129372 0.165533 1.20389 66 54 254 
-0.171236 -0.183731 1.35181 0 0 0 
0.0382639 0.113672 1.20932 51 51 255 
-0.106012 0.0731027 1.20266 27 27 27 
-0.111707 0.604278 1.09511 254 46 45 
-0.160647 0.0990279 1.29044 0 0 0 
0.010169 0.0209894 1.19073 40 43 255 
-0.0371288 0.341575 1.16786 254 38 37 
-0.00341566 -0.214797 1.2705 56 51 254 
-0.203506 0.464739 1.27023 0 0 0 
-0.0236535 -0.289826 1.29263 55 54 254 
-0.193975 0.104356 1.27295 0 0 0 
-0.0357829 0.590348 1.13072 0 0 0 
-0.0287913 0.0167782 1.18123 255 33 31 
0.0272324 -0.0400908 1.21256 24 21 254 
-0.16432 -0.124539 1.28556 0 0 0 
-0.196668 0.494614 1.23585 0 0 0 
0.0162899 -0.121423 1.24239 38 255 39 
-0.0205977 -0.172029 1.24553 254 40 37 
-0.0222734 0.551662 1.13565 57 53 254 
-0.172998 0.435253 1.22043 0 0 0 
-0.129866 -0.178556 1.26362 0 0 0 
-0.0824113 -0.382036 1.32737 0 0 0 
-0.189653 0.273886 1.25874 0 0 0 
-0.0445099 0.11696 1.1859 45 44 42 
-0.0759116 0.477076 1.1589 254 62 61 
-0.180421 -0.0140494 1.24075 0 0 0 
-0.052675 -0.0672443 1.19946 56 55 254 
-0.155698 -0.0427591 1.23194 0 0 0 
-0.186331 0.278807 1.25139 0 0 0 
-0.0415063 -0.320019 1.29749 0 0 0 
-0.190571 0.528471 1.22995 0 0 0 
-0.153877 0.419959 1.1999 66 62 206 
-0.149246 0.244876 1.21272 15 48 13 
-0.0457056 -0.229313 1.26197 254 37 31 
-0.0535074 -0.266513 1.27142 90 91 97 
-0.122857 -0.0136249 1.19936 47 254 50 
-0.175591 0.422189 1.22661 0 0 0 
-0.178414 0.286829 1.24516 0 0 0 
-0.191342 -0.0916496 1.34974 0 0 0 
-0.0530446 -0.376665 1.31592 0 0 0 
-0.0371006 0.440057 1.15726 36 36 36 
-0.147203 0.0643026 1.22079 19 19 254 
-0.0855159 0.572303 1.14637 254 30 28 
-0.176348 0.340389 1.23508 0 0 0 
-0.0229407 0.202173 1.18029 45 255 52 
-0.207101 0.210656 1.30246 0 0 0 
0.00887223 0.242056 1.18423 255 34 30 
-0.0683039 0.390197 1.16085 254 47 46 
-0.151594 0.271417 1.21252 1 2 1 
-0.113046 -0.196518 1.25607 0 0 0 
0.00561121 -0.0252771 1.18956 60 255 68 
-0.0680689 -0.0505489 1.19805 254 43 43 
-0.163895 0.597713 1.15311 254 39 38 
0.0194014 0.0162028 1.19525 0 0 0 
-0.0874771 -0.110726 1.2394 254 45 44 
0.000697613 0.336177 1.17305 23 21 22 
-0.0739757 -0.527321 1.37907 0 0 0 
0.0112661 0.344767 1.17447 25 26 254 
-0.0782113 0.603654 1.12533 14 13 11 
-0.1625 0.502584 1.19022 250 55 54 
-0.0759182 0.494651 1.15099 36 34 254 
-0.0932571 0.0782802 1.19441 254 58 57 
-0.0997016 -0.308636 1.30863 0 0 0 
-0.13922 0.507617 1.17812 51 254 47 
-0.127594 0.346677 1.18352 57 53 50 
-0.0177392 -0.127243 1.23453 47 46 44 
0.0248219 -0.0693265 1.22936 36 37 255 
-0.182049 -0.00293345 1.23606 0 0 0 
0.0628255 0.589751 1.15095 254 32 36 
-0.164096 0.524432 1.1943 37 37 37 
-0.0679141 0.472424 1.14906 39 254 42 
-0.0863083 0.182691 1.18358 254 84 80 
-0.143416 0.617263 1.11775 54 49 254 
-0.200403 0.188375 1.29717 0 0 0 
-0.0316316 -0.169317 1.24294 46 41 254 
-0.0387663 0.281496 1.17138 50 254 50 
-0.114627 -0.228992 1.26009 0 0 0 
-0.156909 0.530361 1.18911 0 0 0 
-0.133159 0.561422 1.16094 254 38 36 
-0.0164193 0.145079 1.18709 23 22 255 
-0.185058 0.183819 1.26135 0 0 0 
-0.148464 0.596604 1.16538 31 29 254 
-0.0752342 -0.0782915 1.22504 58 56 57 
-0.137646 0.390803 1.18534 54 254 57 
-0.0198138 0.437205 1.16217 254 27 27 
-0.141663 0.0836631 1.219 43 252 37 
-0.105423 0.285651 1.19409 254 38 22 
-0.0446322 0.218136 1.17889 0 0 0 
-0.050994 -0.0776663 1.20661 49 45 42 
-0.0694125 -0.315049 1.29525 0 0 0 
-0.171161 -0.130547 1.31362 0 0 0 
-0.0110397 -0.338631 1.32043 27 26 32 
-0.0625 -0.066297 1.21425 37 36 34 
-0.129243 -0.273041 1.46759 0 0 0 
-0.0617944 -0.590074 1.38771 0 0 0 
-0.0869371 0.475787 1.16684 254 42 40 
-0.217291 0.253599 1.3394 0 0 0 
-0.0463773 -0.663552 1.40725 0 0 0 
-0.214851 0.210312 1.35043 0 0 0 
-0.211606 0.091795 1.31209 0 0 0 
-0.185182 0.17595 1.25471 0 0 0 
-0.177796 -0.146804 1.34197 0 0 0 
-0.152103 0.435045 1.19181 45 254 53 
-0.185007 -0.162286 1.37042 0 0 0 
-0.136511 -0.260299 1.32464 0 0 0 
-0.131902 -0.158008 1.2664 52 37 40 
-0.20899 0.249176 1.30233 0 0 0 
-0.0974841 0.365218 1.17675 59 55 254 
-0.158706 -0.178522 1.31693 0 0 0 
-0.200364 0.14315 1.28313 0 0 0 
-0.210209 0.288156 1.31289 0 0 0 
-0.210244 0.324429 1.30401 0 0 0 
-0.149673 -0.201961 1.30831 0 0 0 
-0.107788 0.360891 1.1668 254 63 62 
-0.175395 -0.0530986 1.25683 0 0 0 
-0.196639 0.457871 1.24664 0 0 0 
-0.134661 -0.25324 1.31775 0 0 0 
-0.206625 0.469363 1.26075 0 0 0 
-0.080227 -0.449407 1.35734 0 0 0 
-0.207686 0.0400365 1.28393 0 0 0 
-0.0766198 0.53953 1.14475 43 254 42 
-0.204766 0.0617491 1.27779 0 0 0 
-0.192082 0.0618796 1.25427 0 0 0 
-0.0827834 0.52255 1.15728 50 51 254 
-0.15916 -0.235816 1.37011 0 0 0 
-0.18201 0.414139 1.2391 0 0 0 
-0.144224 -0.0178413 1.21 254 42 42 
-0.188337 0.233651 1.25629 0 0 0 
-0.112677 -0.0506093 1.21583 254 43 45 
-0.123531 -0.35374 1.3727 0 0 0 
-0.162031 0.00837309 1.22526 38 40 252 
-0.20603 0.481669 1.25501 0 0 0 
-0.0667212 -0.478798 1.35989 0 0 0 
-0.211652 0.332569 1.31067 0 0 0 
-0.236554 0.614593 1.24742 0 0 0 
-0.0482887 -0.108492 1.21934 48 45 255 
-0.216742 0.0797087 1.34812 0 0 0 
-0.184961 0.615373 1.10038 11 10 9 
-0.184209 0.203693 1.25352 0 0 0 
-0.211713 0.0729397 1.31365 0 0 0 
-0.140693 -0.152105 1.2665 1 2 2 
-0.164713 -0.186255 1.34115 0 0 0 
-0.191526 0.0297518 1.2559 0 1 1 
-0.164209 0.0702067 1.23415 254 23 22 
-0.213777 0.0293784 1.29643 0 0 0 
-0.0969018 0.149113 1.18973 74 254 57 
-0.0896422 -0.478412 1.38893 0 0 0 
-0.183123 -0.121685 1.33983 0 0 0 
-0.168046 -0.19796 1.36422 0 0 0 
-0.090543 -0.316049 1.30919 0 0 0 
-0.0883997 -0.290989 1.29837 0 0 0 
-0.0147035 -0.466856 1.36555 0 0 0 
-0.204816 0.102844 1.44803 0 0 0 
-0.114185 0.2967 1.19303 28 29 254 
-0.0621333 -0.499379 1.36569 0 0 0 
-0.190673 0.151405 1.26631 0 0 0 
-0.183627 0.225604 1.25194 0 0 0 
-0.0853976 0.299944 1.17998 254 49 45 
-0.103237 -0.0597483 1.21502 36 34 254 
-0.0754139 0.534747 1.16242 35 254 32 
-0.133492 -0.0798056 1.23937 92 90 254 
-0.149772 -0.217092 1.32174 0 0 0 
-0.193749 0.161688 1.2704 0 0 0 
-0.138653 -0.289593 1.37064 0 0 0 
-0.105186 -0.26912 1.29359 0 0 0 
-0.209015 0.411112 1.30033 0 0 0 
-0.226411 0.0597591 1.34002 0 0 0 
-0.170339 0.40373 1.22353 73 70 61 
-0.210388 0.103653 1.30951 0 0 0 
-0.119064 -0.259979 1.29765 0 0 0 
-0.197822 0.0395736 1.26386 0 0 0 
-0.127508 0.320898 1.1963 51 254 55 
-0.183439 0.214136 1.2506 0 0 0 
-0.0994026 -0.137037 1.24378 37 36 34 
-0.164768 0.0914049 1.23512 254 50 50 
-0.183906 -0.148216 1.36463 0 0 0 
-0.210995 0.111655 1.31546 0 0 0 
-0.183761 -0.056006 1.28127 0 0 0 
-0.0156027 0.608492 1.11255 36 31 254 
-0.0323981 -0.632564 1.43904 0 0 0 
-0.220064 -0.0102007 1.31568 0 0 0 
-0.182778 -0.100589 1.3178 0 0 0 
-0.00514089 0.0930846 1.19349 255 33 32 
-0.203146 0.0391394 1.27395 0 0 0 
-0.174291 -0.0649538 1.26625 0 0 0 
-0.143993 0.300717 1.20654 254 65 63 
-0.166918 0.20101 1.22946 254 55 51 
-0.238529 0.603794 1.32873 0 0 0 
-0.0168891 0.0601024 1.28892 17 255 17 
-0.17334 0.168891 1.23968 85 84 79 
-0.198244 0.363181 1.26762 0 0 0 
-0.1333 0.0801447 1.21251 254 47 46 
-0.223868 0.00365973 1.30677 0 0 0 
-0.179269 0.134121 1.24872 0 0 0 
-0.186382 0.01341 1.24839 9 7 252 
-0.197473 0.316332 1.28917 0 0 0 
-0.130669 -0.319204 1.36421 0 0 0 
-0.0883429 -0.122963 1.23403 34 30 254 
-0.204172 0.22454 1.30209 0 0 0 
-0.11952 -0.0785528 1.23314 47 254 51 
-0.235259 0.602317 1.2438 0 0 0 
-0.0823194 0.502962 1.16097 254 60 58 
-0.132139 -0.268729 1.31981 0 0 0 
-0.134421 -0.0397929 1.21804 65 65 254 
-0.127607 0.59994 1.12716 254 26 24 
-0.0339364 0.10305 1.1898 41 41 255 
-0.0741676 0.144827 1.18742 46 255 52 
-0.232061 0.604228 1.23155 0 0 0 
-0.193935 0.344574 1.25011 0 0 0 
-0.081266 -0.603424 1.39823 0 0 0 
-0.123896 -0.33519 1.35857 0 0 0 
-0.0667676 -0.0209463 1.18345 255 48 48 
-0.199932 0.422255 1.2663 0 0 0 
-0.156384 0.514527 1.19026 32 254 33 
-0.20339 0.53413 1.24603 112 22 22 
-0.0939882 -0.451057 1.37464 0 0 0 
-0.191764 0.499545 1.22915 18 17 15 
-0.106691 -0.39486 1.36381 0 0 0 
-0.159674 -0.0912689 1.25184 0 0 0 
-0.138906 0.284798 1.20456 51 40 254 
-0.147361 -0.163279 1.28264 0 0 0 
-0.17181 0.0252257 1.23225 0 0 0 
-0.0931998 -0.442106 1.32258 0 0 0 
-0.121248 0.480622 1.17802 2 0 0 
-0.106537 0.201002 1.19148 0 0 0 
-0.0507241 -0.607597 1.41109 0 0 0 
-0.190607 0.112946 1.26623 0 0 0 
-0.143031 0.0315347 1.21064 0 254 1 
-0.203556 0.167992 1.28546 0 0 0 
-0.18133 0.452413 1.22681 0 0 0 
-0.16282 0.317599 1.22167 0 0 0 
-0.071294 -0.139834 1.23585 0 0 0 
-0.151104 0.0793822 1.22525 74 79 85 
-0.233437 0.109255 1.46421 0 0 0 
-0.192785 0.0872108 1.46874 0 0 0 
-0.14388 0.516792 1.18451 46 47 254 
-0.174734 0.234565 1.23811 124 37 37 
-0.212109 0.13017 1.31524 0 0 0 
-0.158674 -0.113259 1.26659 0 0 0 
-0.12313 -0.31937 1.461 0 0 0 
-0.138302 0.210059 1.20752 254 48 45 
0.0294553 -0.00286277 1.22782 255 27 26 
-0.184906 0.118115 1.25796 0 0 0 
-0.216227 0.111605 1.47971 0 0 0 
-0.185944 0.1654 1.25804 0 0 0 
-0.168596 0.375378 1.22208 255 80 79 
-0.180176 0.315991 1.24635 0 0 0 
-0.102099 0.311935 1.18818 43 42 37 
-0.190503 0.289802 1.25779 0 0 0 
-0.174354 0.255612 1.23564 35 150 46 
-0.217105 0.122701 1.37926 0 0 0 
-0.0556913 -0.615331 1.37705 0 0 0 
-0.218351 0.161337 1.36646 0 0 0 
-0.100428 -0.458965 1.39281 0 0 0 
-0.216261 0.305352 1.34068 0 0 0 
-0.198643 -0.113078 1.36344 0 0 0 
-0.222394 0.472196 1.33673 0 0 0 
-0.173393 -0.0895687 1.28351 254 44 40 
-0.215872 0.273909 1.34783 0 0 0 
-0.195535 -0.129976 1.36962 0 0 0 
-0.209622 0.337824 1.29965 0 0 0 
-0.17629 -0.0997086 1.29828 2 1 2 
-0.13601 -0.186033 1.52211 0 0 0 
-0.215984 0.329859 1.33621 0 0 0 
-0.10709 -0.427508 1.39032 0 0 0 
-0.211276 0.437469 1.37229 0 0 0 
-0.195045 0.138521 1.27382 73 255 60 
-0.177939 -0.111175 1.31118 0 0 0 
-0.158983 -0.251724 1.37725 0 0 0 
-0.077787 -0.549853 1.39774 0 0 0 
-0.214139 0.322223 1.31959 0 0 0 
-0.13494 -0.324854 1.37479 0 0 0 
-0.116687 -0.315621 1.31861 0 0 0 
-0.145366 -0.296561 1.38271 0 0 0 
-0.226965 0.0742578 1.35577 0 0 0 
-0.213718 0.406573 1.32831 0 0 0 
-0.211841 0.35231 1.30994 0 0 0 
-0.158401 -0.219668 1.34327 0 0 0 
-0.100786 -0.442464 1.38433 0 0 0 
-0.198064 0.299012 1.28028 0 1 0 
-0.151239 -0.282751 1.38102 0 0 0 
-0.216458 0.197608 1.33682 0 0 0 
-0.200921 -0.0761908 1.34285 0 0 0 
-0.207553 -0.0822791 1.36353 0 0 0 
-0.215704 0.206193 1.31538 0 0 0 
-0.213788 0.379438 1.32222 0 0 0 
-0.217892 -0.0305423 1.33371 0 0 0 
-0.179851 -0.179355 1.37369 0 0 0 
-0.212231 0.314888 1.31271 0 0 0 
-0.219458 0.173966 1.3533 0 0 0 
-0.074665 -0.511825 1.37349 0 0 0 
-0.216585 0.203404 1.36777 0 0 0 
-0.210944 0.262529 1.30789 0 0 0 
-0.215557 0.0666315 1.42464 0 0 0 
-0.10316 -0.382924 1.34419 0 0 0 
-0.0796058 -0.590886 1.40066 0 0 0 
-0.158488 -0.201522 1.33239 0 0 0 
-0.210892 0.142244 1.30382 0 0 0 
-0.118287 -0.396129 1.39189 0 0 0 
-0.213246 0.226184 1.31621 0 0 0 
-0.0894693 -0.460405 1.36678 0 0 0 
-0.204079 -0.0974408 1.36573 0 0 0 
-0.19441 0.068049 1.27357 35 34 254 
-0.16347 -0.161219 1.31143 10 7 7 
-0.204585 0.118552 1.29309 0 0 0 
-0.159925 0.38659 1.21508 0 0 0 
-0.21536 0.188938 1.32858 0 0 0 
-0.117879 -0.331181 1.33327 0 0 0 
-0.18946 -0.0455573 1.28213 51 50 48 
-0.203949 0.151617 1.28749 0 0 0 
-0.22661 0.0380219 1.3387 0 0 0 
-0.213376 0.475458 1.27219 0 0 0 
-0.113807 -0.407357 1.38865 0 0 0 
-0.152536 -0.17932 1.30047 13 20 134 
-0.216368 0.16062 1.38311 0 0 0 
-0.222324 -0.0132105 1.32427 0 0 0 
-0.218982 0.11763 1.35221 0 0 0 
-0.146561 -0.21259 1.30796 14 9 6 
-0.216542 0.0833432 1.33432 0 0 0 
-0.190683 -0.151565 1.373 0 0 0 
-0.124406 -0.367189 1.38387 0 0 0 
-0.199772 0.391987 1.26982 0 0 0 
-0.227141 0.00477838 1.32041 0 0 0 
-0.228743 0.0564335 1.3548 0 0 0 
-0.215271 0.300655 1.32859 0 0 0 
-0.166683 -0.170784 1.32884 0 0 0 
-0.214 0.140723 1.32007 0 0 0 
-0.152536 -0.144927 1.27237 48 254 50 
-0.216171 0.154832 1.33526 0 0 0 
-0.119526 -0.378776 1.38726 0 0 0 
-0.139298 -0.263787 1.33472 0 0 0 
-0.148566 -0.245655 1.3457 0 0 0 
-0.167682 0.345783 1.22301 53 41 254 
-0.108419 -0.359593 1.45232 0 0 0 
-0.184828 0.0318651 1.24779 0 0 0 
-0.219846 0.089157 1.3496 0 0 0 
-0.228002 0.0173562 1.35851 0 0 0 
-0.199893 0.403606 1.26981 0 0 0 
-0.17565 -0.238826 1.41373 0 0 0 
-0.187114 0.487936 1.21648 45 254 35 
-0.0970022 -0.277944 1.29238 104 106 114 
-0.160275 0.429157 1.2116 49 45 254 
-0.191778 0.426427 1.25059 47 254 43 
-0.227459 0.563089 1.2793 231 57 58 
-0.0956056 -0.473846 1.39345 0 0 0 
-0.214865 -0.0234826 1.32199 0 0 0 
-0.158628 -0.125016 1.27079 50 46 43 
-0.202588 0.347632 1.27922 0 0 0 
-0.2415 0.604469 1.26921 1 0 0 
-0.168126 -0.0716714 1.25426 33 254 31 
-0.223464 -0.0263028 1.35011 0 0 0 
-0.140449 -0.315733 1.38385 0 0 0 
-0.171826 0.115514 1.47702 0 0 0 
-0.108418 -0.381989 1.45223 0 0 0 
-0.200812 -0.00301744 1.26225 254 52 51 
-0.182176 0.359352 1.24074 79 75 64 
-0.213772 0.290068 1.3232 0 0 0 
-0.196289 -0.0330358 1.27983 44 252 42 
-0.169833 -0.205909 1.36623 0 0 0 
-0.216842 0.239799 1.32979 0 0 0 
-0.221892 0.502273 1.30304 0 0 0 
-0.232199 0.601771 1.30773 0 0 0 
-0.228365 -0.0180084 1.35587 0 0 0 
-0.0766824 -0.520743 1.42844 0 0 0 
-0.215056 0.248589 1.36264 0 0 0 
-0.170078 0.277285 1.2305 46 40 254 
-0.228897 0.0477567 1.36177 0 0 0 
-0.219451 0.0485429 1.31134 0 0 0 
-0.20083 0.506032 1.2393 54 51 254 
-0.211434 -0.0737883 1.36715 0 0 0 
-0.211643 0.213395 1.39439 0 0 0 
-0.219682 0.0148243 1.31023 0 0 0 
-0.163826 -0.224157 1.3661 0 0 0 
-0.123235 -0.309145 1.32735 0 0 0 
-0.206387 0.157138 1.299 0 0 0 
-0.195672 -0.0449258 1.29733 0 0 0 
-0.101646 0.606441 1.11501 14 254 21 
-0.193326 0.176625 1.26384 254 60 56 
-0.220857 -0.0417201 1.35683 0 0 0 
-0.222912 0.54186 1.28485 39 38 137 
-0.211652 0.615627 1.43645 0 0 0 
-0.153777 0.345239 1.21123 254 72 71 
-0.226481 -0.0156286 1.34178 0 0 0 
-0.0803743 -0.510957 1.38177 0 0 0 
-0.209949 0.539829 1.25316 254 50 49 
-0.217589 0.0376922 1.30411 0 0 0 
-0.22415 0.0261775 1.33398 0 0 0 
-0.146469 -0.177821 1.28144 30 26 254 
-0.197077 0.219422 1.29148 0 0 0 
-0.12722 -0.237976 1.28972 34 255 31 
-0.197775 0.435731 1.26265 255 42 41 
-0.167261 0.251952 1.22841 68 64 53 
-0.1372 -0.282398 1.3526 0 0 0 
-0.0802804 -0.526925 1.38779 0 0 0 
-0.217834 0.107699 1.35187 0 0 0 
-0.226652 0.0172572 1.34607 0 0 0 
-0.215682 0.46368 1.301 0 0 0 
-0.111744 -0.341858 1.32758 0 0 0 
-0.201679 0.474913 1.24662 67 253 69 
-0.16453 -0.111649 1.28375 51 50 45 
-0.21885 0.145508 1.35317 0 0 0 
-0.219053 0.519406 1.28137 5 1 1 
-0.198861 0.0291964 1.26682 54 52 254 
-0.108137 -0.362769 1.33355 0 0 0 
-0.168914 -0.146679 1.31537 0 0 0 
-0.0865353 -0.501225 1.38574 0 0 0 
-0.189288 0.416587 1.2461 49 254 62 
-0.214647 0.204585 1.3264 0 0 0 
-0.0864649 -0.0504058 1.20484 255 32 32 
-0.167948 0.616082 1.12872 3 0 0 
-0.224668 0.0514328 1.40778 0 0 0 
-0.211887 0.428617 1.30586 0 0 0 
-0.228202 0.0293543 1.38529 0 0 0 
-0.2115 0.49019 1.26829 1 0 0 
-0.185206 0.297826 1.24789 254 14 11 
-0.1193 0.172345 1.1983 8 254 16 
-0.208228 0.111573 1.30337 0 0 0 
-0.170839 -0.0833425 1.271 254 67 66 
-0.199232 0.0206845 1.26711 0 0 0 
-0.161442 0.277274 1.2217 66 63 54 
-0.176233 -0.167035 1.35327 0 0 0 
-0.0979084 0.252167 1.18566 49 39 37 
-0.213222 0.345634 1.31736 0 0 0 
-0.213878 0.0167449 1.3006 13 13 10 
-0.229665 0.554659 1.32797 0 0 0 
-0.214696 0.436711 1.32984 0 0 0 
-0.228619 0.552033 1.30567 0 0 0 
-0.0928012 -0.41214 1.34885 0 0 0 
-0.22341 0.0495051 1.32698 0 0 0 
-0.231617 0.0054798 1.33544 0 0 0 
-0.248239 0.604258 1.29795 0 0 0 
-0.167511 -0.0523088 1.23812 89 88 86 
-0.176533 0.14302 1.24431 53 52 48 
-0.129099 -0.350394 1.38338 0 0 0 
-0.212673 -0.0466041 1.34364 0 0 0 
-0.231796 0.601798 1.2879 9 1 1 
-0.212689 0.238977 1.31284 0 0 0 
-0.128522 0.185883 1.20109 10 2 0 
-0.208509 0.164292 1.30959 0 0 0 
-0.15812 0.176494 1.2276 254 90 86 
-0.235264 0.012541 1.36592 0 0 0 
-0.213321 -0.00827928 1.28956 78 85 113 
-0.193614 0.518577 1.22874 254 57 53 
-0.146338 -0.257376 1.34867 0 0 0 
-0.0667182 0.438123 1.15545 26 254 26 
-0.172746 -0.0239804 1.23426 32 254 37 
-0.200317 0.126037 1.28101 20 25 10 
-0.240358 0.606299 1.25449 0 0 0 
-0.143002 0.400278 1.19261 21 254 32 
-0.0940357 -0.468888 1.38438 0 0 0 
-0.185881 -0.107284 1.32332 0 0 0 
-0.106557 -0.168704 1.25573 254 37 35 
-0.227244 0.0285473 1.36037 0 0 0 
-0.171221 0.415626 1.22277 254 57 53 
-0.202845 -0.0250961 1.28972 56 199 30 
-0.206507 0.337065 1.29041 0 0 0 
-0.0928166 -0.431498 1.35321 0 0 0 
-0.198172 0.538315 1.23023 254 41 40 
-0.210736 0.310325 1.29828 0 0 0 
-0.206929 0.0151236 1.27873 13 13 15 
-0.107718 0.347956 1.17321 254 45 41 
-0.174787 0.51974 1.20633 30 30 30 
-0.186143 -0.0881709 1.3145 0 0 0 
-0.158792 0.267913 1.2181 254 49 45 
-0.175127 0.358698 1.23143 61 58 254 
-0.191363 -0.0797845 1.31914 0 0 0 
-0.224931 -0.0337383 1.36797 0 0 0 
-0.208775 0.0816611 1.30357 0 0 0 
-0.144804 0.340908 1.20403 70 67 62 
-0.114427 0.14877 1.19693 255 53 49 
0.0166618 -0.0294352 1.20185 60 57 52 
0.0618599 0.053117 1.21629 0 0 0 
0.0471827 -0.053212 1.2292 19 16 9 
0.00182864 -0.137477 1.2445 25 254 18 
-0.0125578 -0.38146 1.33557 0 0 0 
-0.0175796 -0.0321582 1.18905 69 64 254 
0.0376294 -0.211431 1.28963 56 54 55 
0.107743 0.127174 1.25263 32 254 56 
-0.0357163 -0.260781 1.27788 0 0 0 
-0.0692798 -0.681306 1.41369 0 0 0 
0.000813757 -0.28121 1.29988 0 0 0 
0.0301647 -0.0211732 1.203 0 0 0 
0.0219894 -0.259451 1.30052 250 56 53 
-0.0179668 -0.0843718 1.21696 0 0 0 
-0.0360441 -0.395774 1.32917 0 0 0 
0.0556767 -0.0682046 1.24189 100 99 105 
0.0557637 -0.137512 1.26768 21 254 37 
-0.0134797 -0.166413 1.24948 38 26 27 
-0.0691054 0.0949812 1.18821 0 1 0 
0.100148 0.444464 1.21609 35 35 35 
-0.0170765 -0.275922 1.29008 0 0 0 
0.0860169 0.0513794 1.24247 33 32 30 
0.0395621 -0.151511 1.26707 66 64 254 
0.117406 -0.0207376 1.3676 54 255 59 
0.058304 0.110998 1.21977 34 35 255 
0.0295866 -0.139295 1.25752 55 55 254 
-0.0256597 -0.607394 1.40694 0 0 0 
0.093105 0.588539 1.17847 37 254 32 
-0.0130552 -0.396491 1.34045 0 0 0 
-0.0547092 -0.276336 1.2784 0 0 0 
0.0565831 -0.0839453 1.24878 48 49 254 
0.0176707 -0.18535 1.2693 39 30 31 
-0.00945674 -0.245004 1.28072 0 0 0 
0.0373067 -0.0526837 1.22123 80 79 254 
-0.0561259 0.595149 1.11155 44 254 51 
0.0867224 0.00248434 1.23863 22 18 15 
-0.00183745 0.0540765 1.18771 21 19 254 
0.0501627 0.2076 1.20443 0 0 0 
0.0353919 0.103545 1.20552 0 0 0 
-0.00341114 0.10334 1.19176 0 0 0 
0.0522929 0.597601 1.15007 49 253 58 
0.0520039 0.0507328 1.21648 13 14 254 
-0.0380112 -0.366045 1.31709 0 0 0 
0.0222023 0.00672166 1.19656 0 0 0 
0.0315778 0.0634605 1.20043 255 51 50 
-0.0247867 -0.0684952 1.2057 254 66 62 
-0.0438443 0.227759 1.17674 0 0 0 
-0.0226097 -0.390777 1.33362 0 0 0 
-0.0270205 0.26502 1.17573 55 254 60 
-0.0281464 -0.0192596 1.18172 64 65 254 
0.0201301 -0.0160825 1.19571 0 0 0 
0.0747568 0.289375 1.21503 32 31 24 
0.0566793 0.00413152 1.21559 0 0 0 
-0.0368538 -0.103304 1.21243 0 0 0 
-0.0300538 -0.090673 1.21671 0 0 0 
-0.0330011 -0.606898 1.38841 0 0 0 
-0.050623 -0.54319 1.37688 0 0 0 
0.0396576 -0.164769 1.27082 34 37 254 
-0.0404894 -0.285849 1.28417 0 0 0 
0.0469447 -0.0728167 1.24084 39 38 34 
0.0102854 0.057423 1.19818 0 0 0 
-0.00156694 -0.0726496 1.21811 70 66 254 
0.0548539 0.173074 1.21182 54 255 46 
0.0458632 0.0990824 1.21136 3 3 255 
-0.0177694 -0.179513 1.25352 0 0 0 
-0.129383 0.57783 1.16274 27 167 41 
0.0272363 -0.095639 1.23908 254 65 65 
-0.0832123 0.369524 1.16789 0 0 0 
0.0546413 0.464017 1.17332 66 64 254 
0.023869 -0.0579075 1.22063 254 46 45 
0.0496939 -0.0614469 1.23474 63 61 254 
0.116706 0.336158 1.24527 255 44 43 
0.0604706 0.241803 1.20785 254 46 45 
-0.00318876 -0.129816 1.23879 38 36 37 
0.0289213 -0.19579 1.2757 254 39 29 
0.0934449 0.0608682 1.24833 255 27 26 
-0.0193898 -0.149205 1.23846 1 1 2 
0.0637373 -0.0704228 1.24779 53 53 53 
-0.0396998 0.596944 1.12225 71 68 63 
-0.0103572 0.516797 1.14737 36 35 33 
0.0616361 -0.0418994 1.23315 52 254 59 
0.0985543 0.309156 1.22682 55 54 52 
0.00909523 0.269389 1.18084 41 44 38 
0.000119384 -0.107159 1.23197 1 1 1 
-0.0398159 0.527738 1.14375 54 254 53 
-0.0399611 0.0794289 1.1876 0 0 0 
0.0549126 -0.248459 1.31637 41 254 48 
0.0604201 0.579623 1.15636 22 22 20 
0.0588532 -0.0314466 1.2229 255 89 88 
-0.0645264 -0.251674 1.27262 0 0 0 
-0.0172968 -0.0520522 1.19682 0 0 0 
-0.0692983 -0.526043 1.39549 0 0 0 
0.0583735 0.28704 1.2018 24 254 26 
0.000631271 -0.0404722 1.20023 85 84 254 
0.100153 0.46563 1.21135 254 36 34 
0.0138502 -0.200774 1.27378 1 1 1 
0.0558883 -0.00779345 1.20552 84 79 254 
-0.0155232 0.580413 1.13357 72 71 66 
-0.0421881 -0.431731 1.34102 0 0 0 
0.0047004 0.584039 1.13644 69 64 254 
-0.129322 0.0664403 1.21357 0 0 0 
-0.0690866 0.0340022 1.18256 0 0 0 
0.00408368 0.0769895 1.1944 84 37 37 
-0.0485993 0.51767 1.1464 254 49 47 
0.00808396 -0.0784375 1.22527 35 254 44 
0.057461 0.548767 1.16007 32 34 254 
0.0999878 0.00700947 1.25173 255 46 45 
0.0955498 0.0735129 1.24536 255 42 41 
0.0445701 -0.131074 1.25904 254 49 48 
0.0667727 0.283012 1.21007 254 45 44 
0.0912449 0.146276 1.23873 255 38 36 
-0.0150403 -0.411358 1.34611 0 0 0 
0.0995772 0.167485 1.23673 45 43 255 
0.0784388 0.219701 1.22292 60 58 61 
0.0358612 0.148491 1.20193 19 255 29 
0.0855221 0.190883 1.23481 41 39 255 
0.0195545 0.1611 1.19365 0 0 0 
0.016502 -0.273473 1.30545 43 46 39 
0.075598 0.0831172 1.23545 25 255 38 
0.0842374 0.502028 1.19368 254 43 41 
-0.0479355 0.244905 1.17672 253 44 40 
-0.00785941 0.373625 1.16779 0 0 0 
-0.0434521 0.462411 1.15188 44 254 44 
0.0104522 -0.30886 1.31483 0 0 0 
0.0183206 -0.0486619 1.21483 71 254 79 
0.00625318 0.224389 1.18306 33 34 254 
0.0418897 0.60495 1.12296 252 36 35 
-0.062132 -0.307488 1.29284 0 0 0 
0.101675 0.0533742 1.25171 255 16 15 
0.0379869 0.553582 1.14951 247 53 54 
-0.0271989 -0.079332 1.21086 0 0 0 
-0.163562 0.617467 1.09277 0 0 0 
0.0748867 0.00878177 1.23076 80 255 62 
0.0667041 0.295953 1.20854 50 48 254 
0.0512024 -0.0225058 1.21341 72 254 82 
0.0663111 0.215897 1.21373 40 41 254 
-0.0884686 0.254418 1.17988 0 0 0 
0.0245959 0.290064 1.18573 57 52 254 
0.0211467 -0.157734 1.26231 64 63 59 
0.0960099 0.11904 1.23954 26 255 29 
-0.0279989 0.576617 1.13571 69 64 254 
0.0778941 -0.245295 1.34256 52 50 51 
0.0686103 0.0645342 1.22736 0 0 0 
0.0445705 -0.141121 1.26445 63 62 58 
-0.00229689 -0.376202 1.33897 0 0 0 
-0.0436566 -0.266407 1.27617 0 0 0 
-0.0319272 0.513906 1.14511 0 0 0 
0.0461143 0.188467 1.20387 0 0 0 
0.0179763 -0.233952 1.28396 252 73 72 
-0.0269629 -0.438236 1.35192 0 0 0 
0.0231783 -0.123913 1.25317 15 13 254 
0.0669348 0.188296 1.21677 56 254 58 
0.123636 0.397464 1.24969 33 32 30 
-0.0427035 0.423074 1.16108 0 0 0 
-0.00861479 0.333492 1.17081 35 36 254 
-0.0218964 0.352512 1.1674 39 37 254 
0.0245719 0.44808 1.16781 111 130 254 
-0.0496594 0.0831815 1.18806 68 66 254 
-0.00177427 -0.0172009 1.18694 44 39 35 
0.0933749 0.294402 1.227 41 42 254 
0.043729 0.124067 1.20875 74 254 62 
-0.036282 -0.21873 1.25916 0 0 0 
0.0560701 0.184543 1.21402 32 254 41 
-0.00377501 -0.361058 1.32791 0 0 0 
-0.058971 0.573895 1.12624 52 254 48 
0.0358765 0.0725261 1.20817 0 0 0 
0.0469242 -0.035045 1.22094 51 254 61 
-0.154901 0.600185 1.15777 2 13 2 
-0.0689572 0.377486 1.16785 0 0 0 
-0.0368068 -0.34421 1.30857 0 0 0 
-0.0817527 -0.270377 1.28559 0 0 0 
0.0525329 0.325464 1.19584 0 0 0 
-0.0657687 -0.330343 1.30127 0 0 0 
0.00100863 0.426631 1.16711 63 63 61 
-0.0780059 -0.357227 1.31867 0 0 0 
-0.0534774 -0.531405 1.37463 0 0 0 
0.0678979 0.466674 1.18071 61 57 56 
-0.0130331 0.258191 1.1765 56 254 58 
-0.0450817 -0.338001 1.30257 0 0 0 
-0.0352425 -0.459146 1.35676 0 0 0 
-0.0960637 -0.331112 1.31728 0 0 0 
0.0250847 0.0715917 1.20202 53 51 254 
0.0698964 0.480876 1.17615 254 57 57 
0.0209251 -0.0799245 1.23297 0 0 0 
-0.0357593 -0.306831 1.29674 0 0 0 
0.0319246 0.000252716 1.20261 0 0 0 
0.110326 0.255073 1.24096 255 66 64 
0.0867192 0.285329 1.22626 254 30 29 
0.00878544 0.287069 1.18577 56 46 254 
-0.0426021 -0.511973 1.3701 0 0 0 
-0.00781787 -0.269375 1.29283 0 0 0 
0.0732 0.103201 1.23081 255 57 55 
-0.0159222 -0.0592211 1.20388 63 58 254 
0.0884981 0.202337 1.23236 254 33 33 
-0.0560864 0.384482 1.16192 19 20 14 
0.0442216 0.294574 1.19619 254 27 26 
0.0840423 0.5952 1.15443 254 62 57 
0.0734756 0.26459 1.21543 49 47 254 
0.0854152 0.118596 1.23637 254 27 25 
-0.0341003 0.238687 1.17591 65 254 64 
-0.063661 0.191431 1.18166 0 0 0 
-0.0371801 0.249581 1.17552 0 0 0 
-0.0722895 0.357215 1.17046 0 0 0 
-0.00917425 0.595403 1.13634 47 42 254 
0.0152308 0.0379551 1.19112 71 69 72 
-0.0991238 0.207107 1.18606 0 0 0 
0.0642552 0.273649 1.21023 255 11 10 
-0.130199 0.191932 1.21273 0 0 0 
-0.0380504 0.190644 1.17873 33 254 78 
0.107744 0.341609 1.23276 254 37 36 
-0.0532867 0.592532 1.12941 77 69 254 
0.0123493 0.392182 1.17274 69 69 69 
0.0691738 0.0880765 1.22901 254 30 30 
-0.0750094 0.0651378 1.1862 0 0 0 
-0.0605396 0.275138 1.17375 1 0 3 
-0.0345782 -0.499915 1.37106 0 0 0 
-0.00614317 0.461831 1.15389 9 254 18 
0.0370593 -0.122129 1.25701 53 51 254 
0.0747388 0.378601 1.20127 53 49 50 
-0.03735 -0.490195 1.36898 0 0 0 
0.0400576 0.335802 1.1877 48 254 47 
-0.0468144 0.553719 1.13527 37 32 29 
-0.0825712 0.0781373 1.19185 0 0 0 
-0.0695066 0.59224 1.12948 28 27 22 
0.0495597 0.438529 1.18531 31 254 25 
-0.0431512 -0.474957 1.35588 0 0 0 
0.0734493 -0.0390823 1.23514 82 83 255 
0.0593625 0.4973 1.17022 254 66 71 
0.0523987 0.0649243 1.21675 30 254 35 
0.0482215 -0.311944 1.38796 254 77 73 
0.00576899 0.491831 1.15201 17 14 254 
0.0205785 0.422527 1.17274 0 0 0 
-0.118822 0.076611 1.20542 0 0 0 
-0.085653 -0.148787 1.2405 0 0 0 
0.0584236 0.368906 1.1964 37 35 36 
-0.0127039 0.40097 1.16634 3 0 0 
0.0336755 0.159791 1.20092 0 0 0 
-0.143146 -0.0436469 1.22424 0 0 0 
0.0519028 0.616794 1.12474 58 56 51 
0.0885094 0.2245 1.2321 255 40 38 
-0.015558 0.319112 1.17039 47 45 254 
0.0532052 0.359095 1.19064 53 254 58 
-0.0589 0.417963 1.15418 59 59 59 
3.27069e-05 0.407785 1.16785 55 55 53 
-0.13009 0.404922 1.17336 0 0 0 
-0.041488 0.387432 1.16626 50 49 45 
-0.122355 -0.10671 1.24363 0 0 0 
0.0260936 0.432421 1.17305 254 34 30 
-0.0185137 -0.197415 1.25772 1 1 1 
-0.00528643 0.314095 1.17487 0 0 0 
-0.0449167 -0.132825 1.22473 0 0 0 
0.0120063 -0.163241 1.2614 52 51 47 
-0.0243586 0.383763 1.16348 31 29 254 
-0.10828 0.451364 1.16244 0 0 0 
-0.0655371 -0.278519 1.28268 0 0 0 
-0.0465994 -0.188944 1.24519 0 0 0 
0.0134083 -0.0667085 1.22253 78 253 77 
-0.011323 0.213174 1.18095 0 0 0 
-2.50062e-05 0.233961 1.18158 0 0 2 
0.0110299 -0.0952169 1.23303 44 45 254 
-0.0177419 0.175472 1.18182 55 254 62 
-0.0451912 -0.00728582 1.04898 0 0 0 
-0.0341692 -0.160096 1.23872 0 0 0 
0.0155702 0.107844 1.19783 70 255 53 
-0.204876 0.0810213 1.34658 0 0 0 
0.044684 0.0013341 1.62967 32 28 255 
-0.0722694 0.271448 1.17598 0 0 0 
-0.266957 0.105682 1.38966 0 0 0 
-0.130618 0.0543019 1.25322 0 0 0 
0.129261 0.0936489 1.30451 47 47 47 
-0.0493215 -0.666874 1.41625 0 0 0 
0.0726713 -0.236477 1.33164 57 55 254 
-0.0730748 -0.614309 1.38005 0 0 0 
-0.0414503 -0.641406 1.41956 0 0 0 
-0.0172545 -0.299674 1.29977 0 0 0 
0.0331188 0.345068 1.18418 61 62 254 
-0.0427094 -0.254167 1.27147 0 0 0 
0.0113877 -0.173156 1.26293 1 1 1 
0.0878983 -0.056697 1.26376 107 106 104 
0.10213 0.0882794 1.25012 35 33 34 
-0.0248909 -0.120579 1.22754 0 0 0 
0.110549 0.0263031 1.26486 82 82 82 
0.101278 0.135034 1.24275 54 254 53 
0.0771945 0.194771 1.22436 52 46 226 
0.114256 0.037867 1.2742 53 52 255 
0.0522536 -0.198595 1.29709 65 254 68 
0.073446 0.27729 1.21564 43 254 45 
0.00986176 -0.387921 1.36641 0 0 0 
0.0519078 -0.0997861 1.25225 37 36 34 
-0.0468292 -0.415474 1.33361 0 0 0 
0.125778 0.00861956 1.29863 49 48 255 
0.101588 0.210933 1.23609 31 31 31 
0.0732498 0.0424605 1.22458 64 62 63 
-0.0391296 -0.596686 1.38839 0 0 0 
0.0488243 0.314234 1.19347 0 0 0 
-0.0270356 -0.426437 1.34569 0 0 0 
0.12 0.116777 1.27398 255 43 42 
-0.0316178 -0.353167 1.31514 0 0 0 
-0.010236 0.0836272 1.19173 0 0 0 
-0.0348896 -0.514143 1.37757 0 0 0 
0.0724173 0.441147 1.19973 76 76 76 
0.034682 -0.258278 1.31192 67 68 255 
0.0841665 -0.0741982 1.28568 58 57 55 
0.120779 0.135855 1.27091 49 48 46 
0.111587 0.178451 1.25339 35 33 255 
0.0798815 0.182073 1.23218 68 66 67 
0.10554 0.200545 1.24123 69 67 255 
0.05451 -0.113143 1.25779 254 49 48 
-0.0132897 -0.151712 1.2462 0 0 0 
-0.0146862 0.0949849 1.18928 0 0 0 
0.0476967 0.14182 1.20916 254 64 61 
0.103128 0.290924 1.22917 33 33 33 
0.12097 0.047018 1.28875 255 46 42 
0.107954 0.0519412 1.26134 22 20 255 
0.0657273 0.38626 1.19853 53 52 50 
0.11744 0.279986 1.25116 254 26 26 
0.0634971 -0.190355 1.30029 25 24 254 
0.0133124 -0.26453 1.30104 0 0 0 
0.069559 0.232311 1.21792 254 32 31 
-0.0639007 -0.209579 1.24513 0 0 0 
0.0765789 -0.164318 1.3325 254 46 46 
0.0792908 0.0620772 1.24002 18 253 22 
0.0111848 -0.351236 1.34385 0 0 0 
-0.0884915 -0.165433 1.24641 0 0 0 
0.0693685 -0.224339 1.3164 58 254 68 
0.0544646 -0.172085 1.28438 34 254 49 
-0.0225373 -0.381485 1.33044 0 0 0 
0.111645 0.123096 1.26234 24 25 255 
0.0697085 -0.190611 1.31658 16 254 21 
0.064676 0.33235 1.2022 254 51 51 
0.0143861 -0.113721 1.24773 94 89 64 
0.116934 -0.018761 1.29403 38 255 60 
-0.0228141 -0.401621 1.34185 0 0 0 
0.117201 0.0131948 1.28103 255 23 23 
-0.016645 -0.205948 1.26398 0 0 0 
0.109972 0.100336 1.25879 48 49 255 
0.054634 0.0982686 1.21594 52 255 55 
0.0580767 -0.0161964 1.21676 254 39 35 
0.109831 0.0795741 1.25795 255 46 45 
0.107951 0.367172 1.23064 26 254 30 
0.0139642 0.458066 1.16097 79 79 79 
0.116967 0.217102 1.25651 51 50 48 
0.0137062 0.0943531 1.19676 62 62 255 
0.100068 -0.0166695 1.25059 61 62 254 
0.0366139 0.0488322 1.20133 0 0 0 
0.107973 0.287346 1.23768 24 255 24 
0.0408853 -0.000284152 1.20538 0 0 0 
0.109383 -0.0101427 1.26059 59 59 59 
0.0859221 -0.0139722 1.23609 254 71 67 
0.0639707 0.0278012 1.21934 1 1 1 
-0.0278408 -0.217502 1.26382 0 0 0 
0.0451285 -0.191302 1.28442 57 55 254 
0.0119243 0.142498 1.19264 61 252 58 
0.0809772 0.212163 1.22751 254 64 62 
0.0761826 0.0197419 1.22602 58 254 45 
0.0423892 0.529245 1.16062 12 14 254 
0.0487275 0.546843 1.15823 48 253 55 
0.0630141 0.0749677 1.2256 0 0 0 
0.124755 0.0292281 1.29593 41 254 33 
0.0811468 0.0975952 1.23897 254 20 18 
0.12196 0.0903932 1.28123 255 19 15 
0.032355 -0.242243 1.30045 27 15 255 
-0.0562051 -0.562967 1.38247 0 0 0 
-0.0552858 0.229127 1.17756 0 0 0 
0.0472249 0.0894906 1.21547 254 36 36 
0.00404861 0.0911958 1.19243 8 8 15 
0.106748 0.0397568 1.25994 60 61 254 
0.0416263 0.48708 1.16601 26 25 254 
0.0628416 0.542295 1.16794 46 251 47 
0.0403994 -0.0624285 1.23147 59 254 61 
0.0809831 -0.214467 1.35995 42 254 47 
-0.12662 -0.0721171 1.23329 0 0 0 
-0.0477634 0.408124 1.15009 0 0 0 
0.0761171 0.0322022 1.22823 42 44 254 
0.0832428 0.417003 1.21179 10 254 25 
-0.0507752 0.41224 1.16023 0 0 0 
-0.101684 0.278341 1.1837 0 0 0 
-0.00108609 0.19692 1.18286 0 0 0 
0.109065 0.241093 1.24533 21 255 27 
0.0806394 -0.187846 1.34548 254 109 107 
0.102341 0.322206 1.22648 47 48 254 
-0.006073 -0.255999 1.29276 0 0 0 
0.0799233 0.272664 1.22101 48 44 43 
-0.026115 -0.0409414 1.18906 0 0 0 
0.0422398 0.284606 1.20093 60 59 54 
0.0695054 0.534293 1.1753 36 254 39 
-0.0406765 -0.174793 1.23969 0 0 0 
-0.0976871 -0.286571 1.29983 0 0 0 
0.0454485 0.271968 1.19368 47 45 46 
0.0129313 -0.0412474 1.20273 59 255 64 
