ply                 
format ascii 1.0    
element vertex 1300
property float x    
property float y    
property float z    
property uchar red  
property uchar green
property uchar blue 
end_header          
-0.0750861 0.0653177 1.18625 0 0 0 
-0.0606348 0.275105 1.17384 1 0 3 
-0.0347101 -0.498758 1.37056 0 0 0 
-0.0062909 0.461651 1.15405 9 254 18 
0.0368413 -0.121704 1.25692 53 51 254 
0.0744994 0.378457 1.20136 53 49 50 
-0.0374771 -0.489059 1.36848 0 0 0 
0.0398579 0.335707 1.1878 48 254 47 
-0.0469248 0.553484 1.13545 37 32 29 
-0.0826395 0.0783032 1.19189 0 0 0 
-0.069598 0.591982 1.12966 28 27 22 
0.0493508 0.438357 1.18546 31 254 25 
-0.0432677 -0.473869 1.35542 0 0 0 
0.0731943 -0.0387754 1.23513 82 83 255 
0.0591507 0.49708 1.17038 254 66 71 
0.0521754 0.0650941 1.2168 30 254 35 
0.0479446 -0.31111 1.38744 254 77 73 
0.00561073 0.49163 1.15218 17 14 254 
0.0204091 0.422354 1.17286 0 0 0 
-0.118847 0.076779 1.2054 0 0 0 
-0.0857111 -0.148331 1.24041 0 0 0 
0.0582026 0.368775 1.19649 37 35 36 
-0.0128462 0.40083 1.16647 3 0 0 
0.0334842 0.159859 1.20099 0 0 0 
-0.143136 -0.0433313 1.22417 0 0 0 
0.0517138 0.616545 1.12499 58 56 51 
0.0882406 0.224498 1.23211 255 40 38 
-0.0156985 0.319042 1.17051 47 45 254 
0.0529914 0.358978 1.19075 53 254 58 
-0.0589984 0.417814 1.15432 59 59 59 
-0.000122513 0.40764 1.16798 55 55 53 
-0.130116 0.404761 1.17342 0 0 0 
-0.0416033 0.387301 1.16638 50 49 45 
-0.122366 -0.106306 1.24351 0 0 0 
0.0259118 0.432249 1.17318 254 34 30 
-0.0186593 -0.196885 1.25761 1 1 1 
-0.00543817 0.314028 1.17499 0 0 0 
-0.0450261 -0.132401 1.2247 0 0 0 
0.0118196 -0.162756 1.26129 52 51 47 
-0.0244902 0.383639 1.16361 31 29 254 
-0.108338 0.451183 1.16256 0 0 0 
-0.0656333 -0.277861 1.28251 0 0 0 
-0.0467147 -0.18844 1.24513 0 0 0 
0.01323 -0.0663749 1.22252 78 253 77 
-0.0114647 0.213199 1.18103 0 0 0 
-0.000178869 0.233963 1.18166 0 0 2 
0.010852 -0.0948375 1.233 44 45 254 
-0.0178782 0.175538 1.1819 55 254 62 
-0.0452844 -0.00705922 1.04933 0 0 0 
-0.0342855 -0.159653 1.23877 0 0 0 
0.015398 0.107978 1.19788 70 255 53 
-0.204812 0.081189 1.34629 0 0 0 
0.0443203 0.00167675 1.62821 32 28 255 
-0.072355 0.271421 1.17607 0 0 0 
-0.266856 0.10582 1.38938 0 0 0 
-0.130669 0.0545051 1.25321 0 0 0 
0.128883 0.093788 1.30451 47 47 47 
-0.0494374 -0.665302 1.4156 0 0 0 
0.0723567 -0.235861 1.33145 57 55 254 
-0.0731358 -0.612872 1.37949 0 0 0 
-0.0415831 -0.639872 1.41891 0 0 0 
-0.0175151 -0.29905 1.29985 0 0 0 
0.0329182 0.344977 1.18433 61 62 254 
-0.0428155 -0.253527 1.27128 0 0 0 
0.0112008 -0.172662 1.26282 1 1 1 
0.0875998 -0.0563736 1.26376 107 106 104 
0.10182 0.0884283 1.25019 35 33 34 
-0.0250175 -0.120166 1.22748 0 0 0 
0.110233 0.0265903 1.26484 82 82 82 
0.100769 0.135312 1.24315 54 254 53 
0.0769613 0.19479 1.2244 52 46 226 
0.113915 0.0380757 1.27424 53 52 255 
0.0519912 -0.198055 1.29694 65 254 68 
0.0731907 0.277245 1.21576 43 254 45 
0.00963727 -0.386998 1.36604 0 0 0 
0.0516649 -0.0994055 1.25222 37 36 34 
-0.0469394 -0.414502 1.33324 0 0 0 
0.125406 0.00886779 1.29863 49 48 255 
0.101289 0.210947 1.2362 31 31 31 
0.0729915 0.0426577 1.22465 64 62 63 
-0.039261 -0.595309 1.38785 0 0 0 
0.0486025 0.314154 1.19362 0 0 0 
-0.0271797 -0.425447 1.3453 0 0 0 
0.119652 0.116897 1.27404 255 43 42 
-0.0317508 -0.352331 1.31484 0 0 0 
-0.0104083 0.0837781 1.19186 0 0 0 
-0.0350309 -0.512948 1.37708 0 0 0 
0.072164 0.440983 1.19992 76 76 76 
0.0344399 -0.257629 1.31171 67 68 255 
0.0838595 -0.0738427 1.28564 58 57 55 
0.120434 0.135944 1.27097 49 48 46 
0.111265 0.178496 1.25348 35 33 255 
0.0796071 0.182124 1.23228 68 66 67 
0.105233 0.200569 1.24133 69 67 255 
0.0542636 -0.112748 1.25775 254 49 48 
-0.0134377 -0.151249 1.24611 0 0 0 
-0.0148265 0.0951256 1.18933 0 0 0 
0.0474745 0.141912 1.20925 254 64 61 
0.102827 0.290875 1.22932 33 33 33 
0.120613 0.0472093 1.28875 255 46 42 
0.107629 0.0521317 1.26139 22 20 255 
0.0655024 0.386106 1.19864 53 52 50 
0.117126 0.279926 1.25124 254 26 26 
0.063214 -0.189827 1.30016 25 24 254 
0.013107 -0.263873 1.30084 0 0 0 
0.0693037 0.232314 1.21803 254 32 31 
-0.0639722 -0.209022 1.24499 0 0 0 
0.0762559 -0.163811 1.33233 254 46 46 
0.0790119 0.0622348 1.24008 18 253 22 
0.0109668 -0.350399 1.34354 0 0 0 
-0.0885316 -0.164933 1.24626 0 0 0 
0.0690679 -0.223752 1.31624 58 254 68 
0.054205 -0.171594 1.28427 34 254 49 
-0.0226911 -0.380595 1.33012 0 0 0 
0.111318 0.123199 1.26239 24 25 255 
0.0694087 -0.190076 1.31642 16 254 21 
0.0644495 0.332245 1.2023 254 51 51 
0.0141968 -0.113315 1.24767 94 89 64 
0.116577 -0.0184791 1.29402 38 255 60 
-0.0229688 -0.400677 1.34148 0 0 0 
0.116843 0.0134146 1.28107 255 23 23 
-0.0167924 -0.205397 1.26384 0 0 0 
0.109646 0.100473 1.25886 48 49 255 
0.0544051 0.0983978 1.216 52 255 55 
0.0578376 -0.0159477 1.21682 254 39 35 
0.109507 0.0797331 1.25802 255 46 45 
0.107643 0.367061 1.23081 26 254 30 
0.0137894 0.457897 1.16116 79 79 79 
0.116633 0.217119 1.25662 51 50 48 
0.0135317 0.0944973 1.19683 62 62 255 
0.0998084 -0.0164531 1.25055 61 62 254 
0.0364051 0.0490104 1.20142 0 0 0 
0.107662 0.287299 1.23782 24 255 24 
0.0406696 -5.73793e-05 1.20545 0 0 0 
0.109087 -0.00993625 1.26056 59 59 59 
0.0856452 -0.0137345 1.23613 254 71 67 
0.0637266 0.0280004 1.2194 1 1 1 
-0.0279709 -0.216931 1.26367 0 0 0 
0.0448829 -0.190779 1.2843 57 55 254 
0.0117522 0.142592 1.19272 61 252 58 
0.0807128 0.21217 1.22759 254 64 62 
0.0759204 0.0199643 1.22608 58 254 45 
0.0421909 0.529031 1.16082 12 14 254 
0.048524 0.546622 1.15844 48 253 55 
0.0627629 0.0751134 1.22568 0 0 0 
0.124414 0.0294829 1.29585 41 254 33 
0.0808688 0.0977338 1.23904 254 20 18 
0.121607 0.0905331 1.28126 255 19 15 
0.0321219 -0.241628 1.30027 27 15 255 
-0.0563039 -0.561644 1.38194 0 0 0 
-0.0553804 0.229135 1.17763 0 0 0 
0.0470016 0.0896372 1.21554 254 36 36 
0.00388801 0.091341 1.19249 8 8 15 
0.106425 0.0398907 1.2597 60 61 254 
0.0414273 0.486888 1.1662 26 25 254 
0.0626132 0.542083 1.16818 46 251 47 
0.0401816 -0.0621018 1.23147 59 254 61 
0.0806378 -0.213869 1.35972 42 254 47 
-0.126612 -0.0717462 1.23315 0 0 0 
-0.0478697 0.407988 1.15023 0 0 0 
0.075855 0.0323957 1.22829 42 44 254 
0.0829717 0.416854 1.21197 10 254 25 
-0.0508709 0.412087 1.16033 0 0 0 
-0.101731 0.278299 1.18373 0 0 0 
-0.00124195 0.196958 1.18296 0 0 0 
0.108747 0.241087 1.24545 21 255 27 
0.0804075 -0.187379 1.34521 254 109 107 
0.102042 0.322131 1.22664 47 48 254 
-0.00624519 -0.255355 1.29256 0 0 0 
0.0796603 0.272612 1.22111 48 44 43 
-0.0262399 -0.0406478 1.18909 0 0 0 
0.0420229 0.284562 1.20106 60 59 54 
0.0692724 0.534076 1.17551 36 254 39 
-0.0407821 -0.174295 1.23958 0 0 0 
-0.0977145 -0.285842 1.29953 0 0 0 
0.0452372 0.27193 1.1938 47 45 46 
0.0127617 -0.0409524 1.20276 59 255 64 
0.0615431 0.513315 1.17594 254 67 67 
0.0714686 -0.088957 1.25838 15 254 24 
-0.0495639 -0.366257 1.31504 0 0 0 
0.0687578 -0.00822409 1.21621 89 84 254 
0.0769763 0.488584 1.18878 73 71 74 
0.0660871 0.000791516 1.22293 254 54 53 
0.0667349 0.166192 1.22185 56 54 55 
0.0554125 0.0149636 1.21433 59 252 59 
-0.0221315 0.0704342 1.19093 0 0 0 
-0.0543585 0.39977 1.16571 0 0 0 
-0.125217 -0.212234 1.26525 0 0 0 
0.061933 0.448373 1.18789 66 64 254 
-0.0312876 -0.269715 1.29508 0 0 0 
0.0623141 0.146764 1.22104 46 44 254 
0.114719 0.26982 1.24683 50 50 50 
0.111951 0.115239 1.26222 254 44 42 
-0.0302528 -0.602745 1.40043 0 0 0 
0.116032 0.32465 1.24909 255 51 50 
-0.00958423 0.449025 1.15877 6 1 2 
-0.00563112 0.242238 1.1789 1 0 0 
0.0648268 0.501484 1.18069 254 45 49 
0.0116111 -0.150659 1.25385 0 0 0 
0.0723135 0.392653 1.20247 31 30 28 
0.0649211 -0.214263 1.30625 61 57 254 
0.105233 0.00190111 1.25805 10 11 254 
-0.0747927 0.386554 1.15712 0 0 0 
-0.0452864 -0.270638 1.27702 0 0 0 
0.0329632 0.300482 1.19287 28 26 254 
0.0581115 0.352405 1.19478 27 27 27 
0.04612 0.151657 1.20839 79 76 71 
7.33131e-05 0.0676418 1.19385 13 16 16 
0.0813328 0.561935 1.17092 30 28 29 
-0.0030898 0.305695 1.17955 0 0 0 
0.120832 0.541065 1.22552 35 36 254 
0.129288 0.41046 1.2651 254 51 50 
0.0203094 -0.0820391 1.26065 93 92 90 
0.0305247 0.0246611 1.19912 254 17 13 
0.0403872 0.465854 1.16741 15 16 254 
0.0492754 0.247879 1.20163 254 30 26 
-0.0127863 0.430594 1.16535 0 0 0 
-0.0331257 0.423112 1.16319 0 0 0 
0.0520482 0.483617 1.17277 42 42 40 
-0.00629638 -0.320475 1.31453 0 0 0 
0.0731576 -0.195089 1.33329 18 254 22 
-0.0415657 -0.522036 1.37651 0 0 0 
-0.0209307 -0.542914 1.41446 0 0 0 
0.102589 0.22057 1.23358 255 64 62 
0.0401931 0.0163494 1.20795 0 0 0 
0.0708495 0.574788 1.16496 4 4 3 
0.0829473 -0.0308658 1.24057 254 75 71 
0.0178133 -0.0622394 1.20946 254 32 30 
-0.0355581 -0.139807 1.22797 0 0 0 
0.0369757 0.371848 1.1828 49 49 49 
-0.0256036 -0.309052 1.30161 0 0 0 
0.0910862 -0.0322084 1.24992 255 73 72 
-0.0535109 -0.58902 1.38365 0 0 0 
0.116844 0.19352 1.25671 30 28 29 
0.106953 -0.0644275 1.33171 67 60 255 
-0.00226862 0.397415 1.16919 1 1 1 
0.0682926 0.126639 1.22492 54 52 254 
-0.0396505 -0.00958742 1.18996 0 0 0 
-0.0217831 0.0396823 1.18351 0 0 0 
0.0534652 0.419984 1.18856 60 61 254 
-0.0414852 -0.0579816 1.19443 0 0 0 
0.0153474 0.373112 1.17464 60 58 61 
-0.131344 0.0871499 1.62338 15 255 19 
0.0851088 0.354919 1.21807 41 254 30 
0.0639201 -0.0200867 1.21453 0 0 0 
0.0810118 0.5293 1.18136 51 50 46 
0.000293957 -0.251328 1.28687 0 0 0 
0.0343111 0.123381 1.20402 0 0 0 
-0.0157695 -0.100249 1.2232 0 0 0 
0.0681595 -0.0306682 1.22577 80 75 254 
0.0103793 0.445572 1.16511 75 254 75 
-0.00429788 0.27859 1.17691 0 0 0 
0.100246 0.34986 1.22437 47 45 46 
-0.040554 -0.119341 1.21994 0 0 0 
0.0121466 0.216562 1.18905 45 40 255 
-0.0153817 0.134751 1.18651 0 0 0 
0.0310355 -0.150072 1.2599 77 246 62 
0.0388477 0.310955 1.19104 36 37 254 
0.0299113 0.421823 1.17626 17 16 254 
0.00532346 -0.207548 1.27271 0 0 0 
0.0359808 0.408881 1.1805 0 0 0 
-0.0470284 -0.0442227 1.18876 0 0 0 
-0.063483 -0.08825 1.21324 0 0 0 
-0.0611887 -0.670568 1.41094 0 0 0 
-0.134033 0.508356 1.18386 0 0 0 
-0.0650244 -0.606136 1.38823 0 0 0 
-0.057145 -0.553121 1.37511 0 0 0 
-0.0498773 -0.686352 1.41443 0 0 0 
0.0207153 -0.302339 1.321 0 0 0 
0.134114 0.0593597 1.37346 21 21 255 
0.119994 0.0985301 1.27894 20 20 254 
0.0183569 -0.37871 1.3768 0 0 0 
0.127834 0.0326843 1.30201 55 53 54 
-0.128215 0.444537 1.18292 0 0 0 
0.149445 0.609211 1.39181 254 35 33 
-0.0254733 -0.601629 1.41624 0 0 0 
-0.0552732 -0.664277 1.38435 0 0 0 
0.156851 0.609831 1.38374 51 254 52 
-0.0536297 -0.668475 1.40561 0 0 0 
0.135459 0.391635 1.27832 255 45 44 
0.00609874 -0.0499263 1.21083 255 61 60 
0.0879939 0.101371 1.24312 255 46 46 
0.115746 0.119324 1.26757 36 254 32 
-0.0196783 -0.612242 1.3982 0 0 0 
0.134132 0.110178 1.33728 47 47 255 
0.0204618 -0.331854 1.34532 0 0 0 
0.129567 0.10706 1.29919 70 70 70 
0.0978945 -0.112837 1.34552 51 52 255 
0.111457 0.00291927 1.26849 254 30 29 
0.154872 0.594589 1.27643 45 254 46 
-0.00664977 -0.275206 1.29586 0 0 0 
0.1133 0.136457 1.26986 26 27 255 
-0.0747323 -0.642827 1.4097 0 0 0 
0.0135727 -0.206141 1.27458 5 3 2 
-0.125758 0.29769 1.20573 0 0 0 
0.135998 0.2124 1.30092 24 26 255 
0.0433633 -0.292619 1.37042 254 61 60 
-0.0259305 -0.591002 1.39694 0 0 0 
0.134574 0.481756 1.26778 35 33 255 
0.139796 0.390408 1.29161 45 44 42 
-0.0337096 -0.596914 1.38948 0 0 0 
0.123402 -0.0519824 1.35251 113 254 127 
-0.160881 0.319922 1.2438 0 0 0 
0.132759 0.188993 1.29825 38 22 22 
-0.132058 0.308804 1.20522 0 0 0 
0.125529 0.460493 1.24857 46 44 254 
0.11174 0.105153 1.2614 46 48 47 
0.107992 0.196358 1.24471 254 18 18 
0.0336169 -0.282667 1.32649 0 0 0 
0.00145006 -0.389204 1.34772 0 0 0 
0.140553 0.428776 1.30122 24 23 21 
0.00666682 -0.0321879 1.20985 70 69 65 
0.159011 0.598467 1.25931 254 33 32 
0.0262812 -0.274534 1.30861 1 1 1 
0.119029 0.170763 1.26815 254 21 19 
0.134414 0.0602272 1.3233 43 43 254 
0.020107 -0.343844 1.35895 0 0 0 
0.0782548 -0.122267 1.30574 80 78 254 
0.0408222 -0.280105 1.34772 90 87 254 
0.0152045 -0.370924 1.36424 0 0 0 
0.0988396 -0.0712749 1.31937 254 74 73 
0.134263 0.146065 1.31791 36 34 35 
0.117385 0.0929494 1.26717 29 29 29 
0.144311 0.509566 1.31056 23 254 27 
0.135548 0.0996991 1.31714 44 44 255 
0.138599 0.141873 1.33665 48 255 43 
0.0254936 0.170935 1.19545 0 0 0 
0.135881 0.339917 1.28533 254 42 40 
-0.109625 0.491475 1.17662 0 0 0 
-0.031481 -0.494841 1.36925 0 0 0 
0.0186367 -0.345125 1.34773 0 0 0 
0.129058 0.45341 1.25926 59 57 254 
0.0817526 -0.0843093 1.27874 78 76 254 
0.0852094 -0.0813523 1.29418 29 254 37 
0.136572 0.0841443 1.33609 29 27 28 
0.0254691 -0.309019 1.33177 0 0 0 
0.125511 0.112609 1.28446 51 255 52 
0.120008 0.0611396 1.28906 255 36 38 
0.0823155 0.219114 1.23001 254 57 57 
0.00625813 -0.343715 1.32498 0 0 0 
0.0369425 -0.219123 1.28682 75 72 65 
0.11048 0.0851426 1.26083 29 30 255 
-0.131735 0.462074 1.1868 0 0 0 
0.0961514 -0.102518 1.33322 254 53 52 
-0.122351 0.501635 1.18261 0 0 0 
0.0817588 -0.177722 1.3441 34 31 26 
0.140528 0.250945 1.32525 28 255 45 
0.141636 0.579655 1.24678 32 30 31 
0.0419258 -0.0991274 1.24865 254 38 36 
0.0119829 -0.365085 1.35519 0 0 0 
0.12952 0.339189 1.26112 53 53 53 
0.126276 0.00832396 1.29911 255 39 38 
0.0461311 -0.205691 1.29477 97 102 244 
0.141033 0.213213 1.32425 19 21 255 
0.122339 0.386891 1.24362 35 33 255 
0.135882 0.368289 1.28889 50 51 255 
0.0680821 -0.168727 1.31826 48 254 71 
-0.00542245 -0.574459 1.31675 0 0 0 
0.130453 0.0585343 1.39415 17 15 255 
0.138449 0.273842 1.29655 255 41 21 
0.122368 0.335979 1.25147 32 30 31 
0.149079 0.560762 1.27058 48 49 254 
-0.0217678 -0.496781 1.37907 0 0 0 
0.123149 0.59228 1.21476 54 254 38 
0.0885234 -0.205023 1.3255 36 254 54 
0.00938332 -0.365355 1.34138 0 0 0 
0.118874 0.0745399 1.2752 255 42 40 
0.113045 -0.0348223 1.2942 59 56 51 
0.0570964 -0.156302 1.28552 63 59 254 
0.0711749 -0.20837 1.31641 35 254 38 
-0.129831 0.49671 1.18746 0 0 0 
0.0665691 0.0508017 1.22994 17 17 17 
0.0652945 -0.159846 1.30032 254 39 40 
0.0743116 -0.205935 1.34025 254 91 88 
0.142766 0.283036 1.31215 255 43 27 
0.0653929 -0.170042 1.2999 254 65 64 
0.10641 0.275283 1.23589 254 27 27 
0.136534 0.112891 1.32237 44 44 44 
0.134182 0.127538 1.30473 255 31 31 
-0.0337393 -0.540621 1.38104 0 0 0 
0.0773779 0.569561 1.10101 1 10 1 
0.122981 0.20675 1.26803 255 52 51 
0.0203573 0.412612 1.17344 75 73 254 
0.0723193 -0.167563 1.30885 66 62 254 
-0.119046 -0.178843 1.26558 0 0 0 
0.0252048 -0.199146 1.28009 54 55 252 
0.00488245 -0.157884 1.25341 0 0 0 
0.0651798 0.208002 1.21409 0 0 0 
-0.010794 -0.348731 1.31811 0 0 0 
0.0399333 -0.247825 1.31236 23 22 18 
0.126267 -0.0300197 1.32801 105 255 91 
0.120951 0.422837 1.24491 19 18 16 
0.0225943 -0.146089 1.25534 53 217 66 
0.127905 0.44515 1.24785 50 255 48 
0.129855 0.542169 1.23596 60 61 254 
0.0162611 0.00711333 1.20383 254 65 63 
0.0684775 -0.253238 1.31858 28 29 254 
0.082301 0.454625 1.19026 254 72 71 
0.109364 0.470382 1.22124 41 42 254 
0.0345821 -0.321369 1.3752 42 41 43 
-0.0126043 0.230232 1.19109 0 1 0 
0.101928 -0.031815 1.26207 48 43 254 
-0.00643921 -0.141224 1.24022 0 0 0 
-0.0571965 -0.225274 1.27063 0 0 0 
0.149843 0.558499 1.28132 42 254 48 
0.133137 0.376357 1.26772 254 40 39 
0.096384 0.0460486 1.24661 254 25 23 
-0.115538 0.0421818 1.18885 0 0 0 
0.10617 0.545093 1.20171 36 35 254 
0.10264 0.120374 1.24598 255 56 55 
0.142666 0.482229 1.29057 254 28 26 
0.146817 0.531916 1.30487 42 254 49 
0.0889813 -0.153601 1.36414 33 34 254 
0.134728 0.282738 1.28906 254 54 40 
-0.00135734 -0.226361 1.27209 0 0 0 
0.13709 0.191234 1.31951 30 14 15 
0.142831 0.404675 1.29696 255 36 35 
0.00841061 -0.300821 1.31319 0 0 0 
-0.0897997 -0.185406 1.25046 0 0 0 
0.122031 0.0185818 1.28088 44 45 255 
0.134135 0.19807 1.30049 28 27 25 
0.129862 0.07964 1.3089 29 255 34 
-0.0114149 -0.28064 1.2964 0 0 0 
0.0711731 -0.216933 1.32048 45 45 254 
0.0731433 0.0571235 1.23445 42 40 255 
0.117322 0.0347176 1.28022 50 50 50 
0.0727365 -0.140465 1.31108 60 56 55 
-0.156875 -0.183509 1.27563 0 0 0 
0.120921 0.00664221 1.28221 47 46 44 
0.139694 0.17333 1.32517 29 255 29 
-0.0564198 -0.660425 1.40074 0 0 0 
-0.0723373 -0.23878 1.26816 0 0 0 
-0.0550985 -0.563472 1.39674 0 0 0 
0.137144 0.0121728 1.35577 40 255 46 
-0.0109508 -0.3122 1.30379 0 0 0 
0.128839 0.519732 1.25057 45 46 254 
0.14738 0.540739 1.2831 52 254 52 
0.0745193 0.501105 1.18655 46 44 45 
0.0680327 -0.107078 1.27033 50 254 50 
-0.033478 -0.511946 1.374 0 0 0 
-0.135469 0.475941 1.18893 0 0 0 
0.118387 0.409485 1.23885 31 32 254 
0.0949366 -0.117256 1.36064 42 255 43 
0.113829 0.540619 1.21301 46 45 43 
0.129329 0.0090311 1.3113 254 56 55 
0.134172 0.245546 1.28488 255 43 24 
0.121873 0.586897 1.19992 254 41 38 
0.111433 0.0534373 1.26719 59 58 56 
0.0376751 -0.182678 1.27735 0 0 0 
0.130579 0.399338 1.25812 29 28 255 
0.0739719 -0.178409 1.33171 29 254 33 
0.121027 0.436973 1.23305 49 47 254 
0.142622 0.262515 1.3201 23 23 255 
0.13372 0.336995 1.27468 26 255 31 
0.132068 0.137593 1.30609 47 47 255 
0.134326 0.0447716 1.34299 38 39 255 
0.135098 0.0247252 1.34271 41 255 49 
-0.0673363 -0.229686 1.25347 0 0 0 
-0.0414356 -0.373379 1.31689 0 0 0 
0.0794893 -0.148253 1.31665 46 254 49 
-0.0765126 -0.248887 1.26437 0 0 0 
0.102522 0.455274 1.21534 51 254 45 
0.0879771 0.0188867 1.24161 254 51 50 
0.134424 0.0606181 1.35221 21 255 18 
0.128928 0.0413056 1.31068 45 43 255 
-0.0263476 0.145622 1.18236 0 0 0 
0.121075 0.476153 1.39045 33 255 35 
0.114561 0.151073 1.26282 47 45 255 
0.135842 0.548894 1.24723 47 48 254 
0.0737396 -0.111526 1.28204 41 38 254 
0.116591 0.280103 1.25235 24 20 254 
0.0418927 0.241472 1.19769 51 49 254 
0.0806315 -0.10491 1.2972 50 48 254 
0.131932 0.00849795 1.30883 31 30 28 
0.139894 0.590739 1.25118 44 43 254 
0.131575 0.0183912 1.31907 7 254 60 
0.138446 0.0997336 1.32711 52 48 49 
0.0609012 -0.19212 1.30447 254 34 33 
0.03287 -0.307954 1.35828 25 26 21 
-0.0724811 0.405396 1.16701 0 0 0 
0.0814362 -0.0939445 1.28984 39 35 32 
0.144217 0.0743794 1.41416 255 64 62 
0.0762431 -0.200572 1.33252 34 35 30 
0.134944 0.396815 1.27022 32 254 32 
-0.0317079 -0.236729 1.27049 0 0 0 
0.107975 0.146542 1.25592 55 254 60 
0.140071 0.355936 1.29682 12 10 255 
0.133704 0.17345 1.31597 12 255 12 
0.0786912 0.573244 1.17072 253 74 71 
0.0814484 -0.167016 1.34218 254 39 37 
0.0865689 0.233797 1.23132 255 43 42 
0.115744 -0.0321879 1.30451 66 63 58 
-0.037573 -0.329879 1.30634 0 0 0 
0.134476 0.253265 1.29567 26 255 46 
0.0886598 -0.0996368 1.31435 254 90 89 
0.0919266 -0.089183 1.30959 54 254 53 
0.135251 0.431895 1.27735 41 40 254 
0.00458321 0.471128 1.15171 48 239 56 
-0.0494343 -0.428843 1.33567 0 0 0 
-0.0504389 -0.534637 1.37268 0 0 0 
0.132736 0.156213 1.29908 40 39 37 
0.144456 0.287046 1.32628 254 66 62 
0.127569 0.123124 1.29236 34 255 40 
0.130019 0.109631 1.30376 254 26 26 
0.14094 0.493127 1.29443 27 25 26 
-0.0981636 0.0110479 1.18724 0 0 0 
0.116564 0.421301 1.23008 35 33 254 
-0.000650054 -0.353929 1.32755 0 0 0 
0.0826511 0.49516 1.19204 62 254 62 
0.105073 -0.0573473 1.31659 255 61 57 
-0.0151883 0.477537 1.14989 0 0 0 
0.13197 0.354726 1.26963 63 254 55 
0.137923 0.549501 1.25606 29 27 254 
-0.0141457 -0.538691 1.42643 0 0 0 
0.143187 0.536424 1.29223 254 29 28 
0.12964 0.293591 1.27284 255 38 26 
0.105074 0.466742 1.20961 25 23 254 
0.115765 -0.0226974 1.27681 85 82 77 
0.11544 0.178758 1.25991 254 54 54 
0.115187 0.298401 1.23953 48 46 255 
0.00179025 -0.333305 1.31751 0 0 0 
0.147169 0.603704 1.2751 33 32 30 
0.104228 -0.0333028 1.26545 54 254 63 
0.123508 0.0789319 1.28822 32 33 254 
-0.0349777 -0.447344 1.34591 0 0 0 
-0.117926 0.529433 1.17922 0 0 0 
0.111361 -0.0676809 1.34372 43 44 254 
0.0928484 0.453486 1.2018 41 40 38 
0.00587388 -0.374509 1.35234 0 0 0 
0.109304 0.00544559 1.23927 47 45 255 
0.035399 0.414001 1.18381 74 74 254 
0.118696 0.451677 1.23465 254 48 47 
0.0610661 -0.175272 1.29289 254 72 71 
0.118668 0.11245 1.27535 47 45 46 
0.0649515 0.459992 1.18238 74 75 77 
0.139753 0.472044 1.2832 32 254 33 
0.10557 0.0292777 1.26114 38 36 37 
0.0378934 -0.307264 1.36689 52 255 49 
0.0313193 -0.0610301 1.23455 56 54 55 
0.0762758 0.534616 1.17598 37 35 254 
0.0759603 -0.221186 1.32864 73 254 69 
0.138262 0.00645487 1.34821 51 254 41 
-0.00928778 0.18164 1.19394 1 4 1 
0.0777584 -0.209898 1.32655 254 60 57 
0.0277095 -0.331504 1.36335 0 0 0 
0.0732735 -0.119524 1.2934 56 55 51 
0.0718206 0.369009 1.20206 50 254 56 
-0.112832 0.537929 1.18022 0 0 0 
-0.0575489 0.410738 1.16744 0 0 0 
-0.0449843 -0.515295 1.36573 0 0 0 
0.0962863 0.025945 1.24202 50 49 47 
-0.0702523 0.181797 1.18852 0 0 0 
0.0388819 -0.300966 1.35289 56 197 47 
0.132337 0.0895539 1.31619 41 255 39 
0.0484411 -0.0776167 1.24667 15 19 254 
0.1085 0.0683077 1.2564 40 38 39 
0.0162221 0.506398 1.15147 37 36 34 
0.10944 0.133045 1.25615 255 62 60 
-0.00449798 -0.424074 1.35397 0 0 0 
-0.0556495 -0.213485 1.25378 0 0 0 
-0.0551556 0.375714 1.17389 0 0 0 
0.14232 0.462445 1.31165 40 255 42 
0.0960127 0.264747 1.23092 62 255 52 
0.117659 0.0532111 1.27424 27 254 28 
-0.0539649 -0.652405 1.39619 0 0 0 
0.108354 -0.016503 1.2337 52 50 51 
0.137528 0.161216 1.32041 37 35 255 
-0.12768 -0.0496532 1.23139 0 0 0 
-0.00863878 -0.00989492 1.17666 2 2 2 
0.134649 0.536723 1.26329 45 254 50 
0.085231 0.463933 1.19705 70 68 253 
0.0240949 -0.315305 1.34345 0 0 0 
0.0780822 0.0584226 1.247 23 22 20 
0.12343 -0.00491233 1.29035 61 59 255 
0.133132 0.00109165 1.30646 254 55 54 
0.133252 0.28683 1.28028 27 29 255 
-0.122085 0.55879 1.19461 0 0 0 
0.11181 0.37289 1.23085 44 254 36 
0.12298 0.594525 1.18603 63 59 230 
0.139536 -0.0107838 1.35825 60 60 58 
0.127334 0.101687 1.2898 255 38 36 
0.0821823 -0.110724 1.30772 254 74 73 
0.053161 -0.159095 1.27171 254 56 44 
0.0849978 -0.119478 1.32665 254 64 64 
0.127318 0.549951 1.21772 34 33 31 
-0.0451972 -0.169748 1.24831 0 0 0 
0.0354946 0.444959 1.17395 0 0 0 
0.142115 0.00508725 1.36987 255 44 43 
0.0875908 0.327153 1.22095 47 46 44 
0.0528791 -0.184922 1.29482 68 254 98 
-0.0458194 0.439517 1.15696 0 0 0 
0.10492 0.315213 1.22997 46 45 43 
-0.077169 -0.161752 1.24689 0 0 0 
0.0923059 0.212859 1.2312 24 26 255 
0.135516 0.242364 1.29871 255 49 28 
-0.0156021 -0.437141 1.35352 0 0 0 
0.106367 0.00820369 1.26197 67 66 64 
0.0630861 -0.111923 1.26108 254 56 55 
-0.134353 -0.178741 1.27496 0 0 0 
0.0573142 0.00195963 1.23315 4 3 0 
-0.0706761 0.42938 1.1648 0 0 0 
0.0878742 0.146549 1.2441 46 44 255 
0.133579 -0.00687376 1.31522 86 86 86 
0.0653821 0.481518 1.17463 73 73 254 
0.0292586 0.354939 1.18106 71 69 254 
0.113863 0.239651 1.25084 52 50 51 
0.0886213 -0.140481 1.34666 12 11 9 
0.0759933 0.300586 1.21524 254 47 46 
0.0449454 -0.235665 1.31441 254 59 58 
0.134254 0.303743 1.28708 48 46 254 
-0.0211956 0.51738 1.14796 1 1 1 
0.00186181 0.539518 1.14352 11 10 9 
0.134486 0.00457714 1.36396 34 33 31 
0.00363429 0.59188 1.11755 3 1 1 
-0.0838035 -0.249217 1.24823 0 0 0 
0.114642 0.203796 1.25565 50 255 56 
-0.0201702 -0.389834 1.33347 0 0 0 
0.136497 0.359457 1.27831 16 16 16 
0.138277 0.295324 1.29949 28 255 47 
0.032752 0.000138947 1.21845 46 254 49 
0.125693 0.531241 1.24356 51 50 48 
0.120222 -0.0445396 1.33993 106 255 107 
0.11985 0.291495 1.248 255 29 28 
0.122778 0.403578 1.24514 48 47 45 
0.0482967 -0.263094 1.33381 28 27 25 
0.129225 0.410181 1.26233 39 38 36 
0.0289798 -0.162007 1.26482 51 49 52 
-0.0238594 0.00453651 1.18358 0 0 0 
0.093046 -0.0529251 1.28127 103 98 255 
0.114127 -0.0131944 1.26638 53 255 50 
0.0696545 0.351054 1.20396 208 42 42 
-0.116424 0.32594 1.19538 0 0 0 
-0.0281777 -0.402183 1.32482 0 0 0 
-0.0297873 -0.544472 1.3921 0 0 0 
-0.029641 0.222331 1.17867 0 0 0 
0.0281953 -0.0833681 1.23852 254 72 69 
0.139177 0.592708 1.2408 49 48 254 
0.126776 0.223166 1.27035 22 21 255 
0.0893328 -0.0643419 1.28339 43 40 35 
0.0925555 -0.141844 1.36395 23 21 22 
0.0858264 -0.06008 1.26857 66 254 77 
0.104474 0.151215 1.24732 44 42 254 
0.00382546 -0.399376 1.36224 0 0 0 
0.0772765 0.590962 1.15602 11 10 10 
0.0939349 0.409636 1.21365 254 44 43 
0.0287141 -0.00023218 1.18683 34 32 33 
0.121022 0.25571 1.2614 23 21 254 
0.100417 -0.111327 1.3552 37 255 32 
0.134485 0.32145 1.28065 42 38 254 
0.112721 0.5879 1.16562 60 55 206 
-0.0494483 -0.481214 1.35277 0 0 0 
0.0513145 0.452179 1.1748 73 72 254 
0.0106647 -0.05015 1.22411 254 81 79 
0.0852582 0.269524 1.22845 255 18 17 
0.0698418 0.489905 1.18117 72 254 72 
0.116158 0.344524 1.24246 39 40 254 
0.080143 -0.220579 1.33885 254 62 61 
0.0149267 -0.228344 1.28831 9 6 6 
0.0902329 -0.0488305 1.24709 70 70 72 
-0.0939212 -0.248081 1.2531 0 0 0 
0.0939931 -0.0838036 1.32178 255 47 46 
0.13676 0.463755 1.29196 45 44 42 
0.0303657 0.17678 1.20822 254 54 51 
0.126209 0.169276 1.28288 254 55 55 
0.132595 0.00985875 1.33098 10 255 10 
0.116265 0.358617 1.23796 255 30 29 
-0.0332374 -0.403486 1.3337 0 0 0 
0.112394 0.59256 1.17724 66 226 69 
-0.137521 0.545505 1.17736 0 0 0 
-0.122561 0.210279 1.20442 0 0 0 
-0.108701 0.5483 1.17479 0 0 0 
-0.056951 -0.602349 1.36953 0 0 0 
-0.0640842 -0.230059 1.26421 0 0 0 
0.0226272 0.432861 1.1742 70 254 108 
0.0296 -0.110156 1.26335 47 45 254 
0.134252 0.527297 1.26749 36 34 254 
0.149929 0.545965 1.33967 57 56 54 
-0.00777191 0.0137859 1.18639 0 0 0 
-0.00135656 -0.432735 1.37259 0 0 0 
0.109318 0.263249 1.23982 35 254 34 
-0.0200226 -0.49766 1.39783 0 0 0 
0.121966 0.0653408 1.2802 46 255 34 
-0.118043 0.514941 1.18009 0 0 0 
-0.00525206 -0.412907 1.34913 0 0 0 
0.135282 0.425424 1.26359 35 34 32 
0.10438 0.0904824 1.25084 45 43 44 
0.128038 0.059737 1.30937 35 255 40 
0.136236 0.459098 1.26788 255 37 36 
0.0671218 0.311974 1.2087 254 30 30 
0.146141 0.469933 1.32004 21 18 255 
0.0301562 -0.169424 1.27335 253 52 43 
0.0398653 0.513387 1.15958 254 17 17 
0.0508105 0.0278783 1.20988 0 0 0 
-0.0964882 -0.0104731 1.20209 0 0 0 
0.129576 0.205904 1.29263 41 21 23 
0.105744 -0.0837038 1.35083 106 105 255 
0.0184556 -0.315857 1.32654 0 0 0 
0.122749 0.130714 1.27508 41 39 40 
0.126785 0.185961 1.27301 255 55 54 
0.0847743 -0.195808 1.34506 30 254 38 
-0.0847817 0.449472 1.16883 0 0 0 
0.0869304 0.205293 1.23567 31 29 30 
0.0346712 -0.305409 1.3447 0 0 0 
0.0776825 0.549084 1.17328 37 39 254 
0.00112624 -0.40995 1.36022 0 0 0 
0.141747 0.440181 1.29319 255 32 28 
0.10976 0.422351 1.22218 254 33 32 
0.0492777 0.400859 1.18771 0 0 0 
0.0118543 -0.319108 1.31092 0 0 0 
0.0759134 -0.00714009 1.22205 76 170 37 
0.0687496 -0.136082 1.28938 254 47 46 
0.126301 0.310027 1.26182 34 254 37 
0.102539 0.415349 1.22063 45 45 47 
-0.0693403 0.0280524 1.19992 0 0 0 
0.0675441 0.525613 1.17405 254 51 51 
0.0463422 -0.308222 1.3553 53 52 253 
0.098026 -0.0643812 1.29548 122 115 255 
0.102699 0.331108 1.22562 50 48 254 
0.129518 0.138491 1.29085 23 24 255 
0.00759958 0.205319 1.17862 8 15 4 
0.0759145 0.580493 1.16682 43 252 50 
-0.0101108 -0.367284 1.32654 0 0 0 
-0.0476681 0.418136 1.16862 0 0 0 
0.119486 0.477566 1.2304 29 28 26 
0.0701924 -0.130011 1.27779 47 45 254 
0.135407 -0.00454249 1.34999 70 68 255 
-0.162845 -0.0816495 1.26058 0 0 0 
0.144013 0.50222 1.30053 43 41 42 
0.00622618 0.296886 1.17721 24 25 21 
0.0257038 0.589938 1.13362 4 3 11 
0.0566075 0.0609847 1.22432 29 255 24 
0.0543111 0.571358 1.14705 30 34 20 
-0.0294911 -0.284363 1.28548 0 0 0 
0.105129 0.020123 1.25816 46 254 61 
0.0913215 0.364489 1.21768 29 27 254 
0.0266102 -0.324232 1.35649 0 0 0 
-0.144175 0.466127 1.19591 0 0 0 
0.104807 0.141982 1.24884 44 42 43 
0.0791513 0.323032 1.21674 254 45 44 
0.138271 0.518375 1.27226 48 47 254 
-0.050167 -0.208363 1.25188 0 0 0 
0.11491 0.261901 1.24647 254 56 52 
0.0449542 0.52172 1.16451 23 19 254 
0.0927668 0.590343 1.15893 14 109 15 
0.120466 0.558511 1.21471 254 41 40 
0.118851 0.531281 1.22917 51 254 48 
-0.129123 0.345031 1.20118 0 0 0 
-0.103357 0.341799 1.1843 0 0 0 
-0.0812643 0.39011 1.16602 0 0 0 
0.110153 0.569467 1.19661 254 27 26 
-0.0644504 -0.00126265 1.1807 0 0 0 
0.011501 -0.236566 1.28449 0 0 0 
0.112447 0.449328 1.22284 28 254 24 
0.104421 0.305129 1.23105 54 52 254 
0.0101213 -0.397284 1.37199 0 0 0 
0.1297 0.547556 1.23083 254 43 43 
0.075945 0.150728 1.23955 54 255 59 
0.0983175 0.283267 1.22616 47 45 254 
-0.109668 0.244459 1.19521 0 0 0 
-0.0417185 -0.198358 1.28632 0 0 0 
0.100151 0.201358 1.24378 67 255 71 
0.137465 0.416693 1.28338 37 35 38 
0.0683937 -0.118598 1.26838 69 68 64 
-0.0395984 -0.264954 1.2959 0 0 0 
0.107029 0.500297 1.21404 254 47 46 
0.100346 0.22774 1.23174 39 255 41 
-0.00674106 -0.243817 1.2867 0 0 0 
-0.0753343 -0.368943 1.3236 0 0 0 
0.0833349 0.37107 1.21113 49 254 57 
-0.0267823 -0.534868 1.39341 0 0 0 
-0.00198048 0.166688 1.18834 0 0 0 
-0.00876734 0.381289 1.171 0 0 0 
-0.0348025 -0.539569 1.41124 0 0 0 
0.0718457 0.393048 1.2035 31 30 28 
0.0098917 0.152505 1.19183 65 63 250 
0.133198 0.406033 1.27507 48 47 45 
0.0775415 -0.0865023 1.29869 73 254 67 
0.0972528 0.174113 1.23754 42 254 36 
-0.0893012 -0.258178 1.26151 0 0 0 
0.0554368 -0.148167 1.2691 69 68 64 
0.123838 0.586766 1.21399 207 58 55 
0.102864 -0.055747 1.29586 75 255 77 
0.101801 0.436678 1.21875 43 42 40 
0.0837487 0.134523 1.23723 40 254 67 
-0.0503859 0.179581 1.17323 0 0 0 
0.0955835 -0.00663534 1.234 84 82 254 
0.0962391 0.513403 1.19808 68 67 65 
-0.0498534 -0.337501 1.30176 0 0 0 
0.0809561 0.432775 1.20924 24 22 254 
0.107529 0.583393 1.1902 254 40 36 
0.102599 0.271943 1.22789 254 51 50 
0.134039 -0.0193671 1.35764 46 43 255 
-0.00223056 0.121226 1.20985 62 60 63 
-0.00932776 -0.461283 1.3767 0 0 0 
0.0777811 -0.0506266 1.24734 62 60 254 
0.0265166 0.518152 1.15014 16 254 17 
-0.0510313 0.48043 1.15974 0 0 0 
-0.0210038 -0.0342303 1.18239 0 0 0 
0.0623564 0.302625 1.20468 254 45 44 
0.132469 0.470705 1.2487 37 35 254 
-0.0440126 -0.27368 1.28589 0 0 0 
0.0864303 0.297447 1.22357 37 37 37 
-0.00144753 0.128789 1.18805 0 0 0 
0.0656818 0.187429 1.19814 30 33 254 
0.0284389 0.352875 1.16749 63 254 65 
0.0210025 -0.297844 1.31042 0 0 0 
-0.0489741 0.00604615 1.19382 0 0 0 
0.115031 0.590283 1.19326 34 254 48 
0.0817932 0.0464281 1.23108 254 20 18 
0.0190304 0.319062 1.17741 25 21 20 
-0.0214554 0.426643 1.16312 0 0 0 
0.141926 0.318492 1.31404 38 34 33 
0.00386883 0.302013 1.1675 0 0 0 
0.157842 0.596058 1.29118 41 40 38 
0.0920554 -0.11152 1.3307 48 48 50 
0.0769622 0.0745909 1.23701 44 42 43 
0.0927392 0.444827 1.20832 254 32 31 
-0.00155616 -0.088886 1.22944 0 0 0 
-0.0280474 -0.502037 1.37152 0 0 0 
-0.140379 0.527295 1.18976 0 0 0 
0.0318211 0.528114 1.15259 254 10 10 
0.136004 0.558173 1.25025 70 66 65 
0.135493 0.585472 1.23033 26 254 32 
0.0857718 0.559314 1.16703 30 31 254 
0.132133 0.385861 1.26173 255 57 56 
0.0992176 0.378618 1.21943 44 254 44 
0.102107 0.554008 1.19306 254 28 27 
-0.0062078 0.255645 1.18579 0 0 0 
0.08897 0.305124 1.22921 43 42 40 
-0.057553 0.485192 1.15157 0 0 0 
0.0545365 -0.168278 1.29943 254 55 56 
0.137272 0.327013 1.2912 58 56 254 
0.0586138 0.394895 1.19264 63 63 63 
-0.112003 0.114776 1.20722 0 0 0 
0.107921 0.166629 1.24913 36 254 54 
0.140399 0.501107 1.28782 41 40 38 
-0.00357025 0.13556 1.18831 0 0 1 
0.0411606 -0.294103 1.36047 62 252 59 
0.103695 -0.0429032 1.27741 50 46 255 
0.0757978 -0.145907 1.32681 97 254 108 
-0.177407 0.135108 1.22027 0 0 0 
-0.0343822 -0.00908224 1.17373 0 0 0 
0.024277 -0.283155 1.31249 0 0 0 
0.0430325 -0.198143 1.25489 41 39 254 
0.0113265 -0.132176 1.24669 0 0 0 
0.0609912 0.58356 1.15254 55 52 45 
0.141396 0.510571 1.2865 61 59 254 
0.0855006 0.528025 1.19065 34 32 35 
0.0143957 0.58907 1.13593 0 0 0 
0.0406042 0.431023 1.1807 14 53 15 
0.123046 0.433804 1.24778 57 56 54 
-0.0834461 0.231144 1.18478 0 0 0 
-0.0447442 -0.502949 1.36464 0 0 0 
0.117502 0.230296 1.25759 254 42 40 
0.093401 0.471241 1.19712 48 46 254 
0.106479 0.356472 1.22268 255 33 32 
0.113936 -0.0450413 1.32354 255 100 97 
-0.0740036 0.218369 1.18317 0 0 0 
0.0422841 -0.301828 1.32839 0 0 0 
0.0268327 0.547792 1.15603 237 26 26 
0.0851395 0.380344 1.21611 41 40 38 
-0.0222196 0.565819 1.13085 2 2 2 
-0.0895401 -0.259184 1.2723 0 0 0 
0.00403452 0.348757 1.17415 19 73 19 
0.00341662 0.0713609 1.19541 0 0 0 
0.125134 0.0912992 1.30102 49 50 255 
-0.0107626 -0.118024 1.24879 0 0 0 
0.130833 0.176423 1.30691 14 10 11 
0.108926 -0.0551631 1.27371 255 56 53 
0.128582 0.0684706 1.29976 28 255 36 
-0.0508675 -0.394093 1.31888 0 0 0 
-0.0143623 -0.462126 1.36691 0 0 0 
0.146743 0.581779 1.26873 23 22 20 
0.114722 0.0657536 1.27349 1 0 255 
0.13278 0.444884 1.27548 21 21 19 
-0.0450694 0.199315 1.18302 0 0 0 
-0.103102 0.402596 1.17157 0 0 0 
0.0949742 0.0312206 1.24673 53 54 254 
-0.00443518 0.407455 1.17644 238 56 57 
-0.0160148 -0.219821 1.26933 0 0 0 
0.148424 0.561357 1.25942 42 41 254 
0.0457436 -0.175055 1.27823 39 25 25 
0.0384579 -0.233595 1.33662 254 61 60 
0.0852244 0.444129 1.20089 17 17 17 
0.0132093 0.301103 1.18538 251 65 64 
0.0665854 -0.181545 1.30122 46 254 60 
-0.0572637 0.363592 1.17164 0 0 0 
0.0714424 -0.0708732 1.25481 107 106 104 
0.0706189 0.244554 1.21282 28 28 254 
0.0563436 -0.227653 1.3039 51 47 254 
0.0889332 -0.15316 1.35021 40 39 37 
0.0471437 0.304828 1.19403 26 24 27 
0.126721 0.411632 1.24883 54 53 51 
0.079163 0.200718 1.23008 254 55 54 
-0.0578351 -0.347283 1.31425 0 0 0 
-0.0432689 -0.472871 1.36566 0 0 0 
0.120021 0.305845 1.25098 38 255 43 
0.159451 0.587767 1.29851 31 254 30 
0.045157 -0.019691 1.20958 83 101 69 
0.113036 0.59879 1.16885 1 5 1 
0.0580322 0.231716 1.20739 0 0 0 
-0.0772968 0.36811 1.1772 0 0 0 
0.138318 0.440106 1.26028 255 35 34 
-0.0349712 -0.224989 1.26848 0 0 0 
-0.0400694 -0.521187 1.37386 0 0 0 
0.122297 0.322517 1.24935 39 254 23 
-0.00705906 -0.305666 1.31164 0 0 0 
0.0096679 0.0449844 1.2077 6 4 254 
0.135396 0.592985 1.21944 254 46 41 
0.120899 0.547083 1.19919 254 46 45 
0.0764698 0.250818 1.21998 49 209 41 
0.123889 0.143978 1.27937 31 254 34 
-0.0621969 -0.368733 1.31767 0 0 0 
-0.196831 0.56275 1.22798 0 0 0 
0.125171 0.347371 1.25414 64 62 255 
0.0563744 0.336841 1.196 49 47 254 
0.0385846 0.099123 1.22901 20 20 20 
0.00380322 -0.190033 1.24807 0 0 0 
0.0372773 0.160286 1.21104 63 254 75 
0.0336257 0.304486 1.19817 39 38 34 
0.064999 -0.152538 1.31099 37 254 40 
-0.0333381 0.292446 1.17306 0 0 0 
0.0123501 -0.288479 1.30518 0 0 0 
0.103352 0.38201 1.22665 32 255 45 
0.142561 0.397545 1.31252 29 27 255 
0.0650977 0.55883 1.15914 254 36 36 
0.0480883 0.507568 1.16712 254 85 84 
0.121371 -0.0247106 1.30962 87 86 81 
0.135824 0.415517 1.27291 24 255 27 
0.0543141 0.152344 1.2131 0 0 0 
-0.0295944 -0.191769 1.25706 0 0 0 
-0.0318325 -0.317836 1.29933 0 0 0 
0.06095 -0.0154734 1.19528 111 254 115 
0.0223426 -0.364458 1.37261 0 0 0 
0.120607 0.537465 1.22311 254 35 33 
-0.0262055 0.362578 1.16917 0 0 0 
0.0284389 -0.330982 1.38896 152 32 32 
0.134132 0.556461 1.22146 32 254 38 
0.0204426 0.444704 1.16823 254 7 7 
0.0838598 0.0393393 1.2406 255 31 31 
0.0979677 0.221934 1.24278 63 64 255 
0.049149 0.12622 1.19593 43 44 254 
0.00560963 -0.406416 1.37131 0 0 0 
-0.0205168 0.40591 1.18015 0 0 0 
0.0684085 0.429389 1.1959 58 254 67 
0.0964638 0.423808 1.2141 23 22 20 
0.0872012 -0.0202882 1.24525 79 76 254 
-0.0361742 -0.596408 1.37989 0 0 0 
0.128315 0.176176 1.28976 17 254 20 
0.0667432 -0.229173 1.30062 61 60 58 
0.109188 -0.0622629 1.33269 88 255 94 
0.0866273 -0.112289 1.31704 37 35 36 
0.0727214 0.342185 1.21119 254 52 50 
0.0148723 0.415297 1.16279 69 72 254 
0.0996038 0.104265 1.24732 254 44 43 
0.0709053 -0.0436411 1.25907 71 67 254 
-0.0325786 -0.28776 1.29683 0 0 0 
-0.0027572 -0.309979 1.31036 0 0 0 
-0.00818516 -0.292461 1.30234 0 0 0 
0.0504336 0.0794392 1.21753 33 31 32 
0.0653168 0.201219 1.21538 0 0 0 
-0.056908 -0.691269 1.4108 0 0 0 
0.0958499 -0.0147092 1.24437 81 80 76 
0.125683 0.468199 1.24503 40 39 37 
0.0237559 -0.249924 1.30552 56 57 62 
0.0620839 0.404675 1.1945 46 45 43 
0.0720129 0.211693 1.21981 63 61 254 
0.0030701 0.457898 1.1569 74 70 237 
-0.0693162 0.532821 1.14795 0 0 0 
-0.00939176 -0.302968 1.30586 0 0 0 
-0.0252862 0.417415 1.16365 0 0 0 
0.0818982 0.582964 1.18507 37 37 37 
0.120007 0.418206 1.24345 53 51 254 
-0.0210051 -0.343873 1.31623 0 0 0 
-0.0665476 -0.57214 1.41929 0 0 0 
-0.149589 -0.000853816 1.74419 31 31 31 
-0.171815 0.10468 1.26028 0 0 0 
0.0207078 0.262979 1.19579 45 43 44 
0.031301 0.544317 1.14924 73 242 78 
-0.021506 0.46752 1.14899 0 0 0 
0.0436638 0.391918 1.18541 53 254 43 
-0.0271071 0.495056 1.14748 0 0 0 
-0.0413004 -0.660515 1.41121 0 0 0 
0.114626 0.00749543 1.40174 48 255 63 
-0.0574307 -0.65233 1.41029 0 0 0 
-0.0455825 -0.558611 1.38245 0 0 0 
-0.0407937 -0.576895 1.38591 0 0 0 
0.0320831 -0.28784 1.33706 0 0 0 
-0.0263397 -0.617611 1.40941 0 0 0 
-0.0417694 -0.658073 1.41418 0 0 0 
0.0285446 0.0450708 1.13146 0 0 0 
0.0740188 0.182372 1.22416 96 12 13 
0.0266759 -0.292781 1.32934 0 0 0 
0.137911 0.405291 1.2877 44 40 39 
0.120711 0.466414 1.23666 254 50 48 
0.106901 0.216259 1.24413 33 31 32 
0.0994751 0.186239 1.24078 49 49 254 
0.0870487 -0.0925002 1.29956 52 55 254 
0.10728 0.527252 1.21475 36 254 36 
0.0842806 -0.129774 1.32058 254 53 50 
0.062589 -0.146336 1.28365 59 55 56 
0.0413932 0.547937 1.15201 73 72 240 
0.102533 0.481917 1.20893 49 47 254 
0.144617 0.482319 1.30357 254 36 34 
0.0404049 -0.0429913 1.21943 0 0 0 
0.153498 -0.0068173 1.0629 0 0 0 
-0.175754 0.0201522 1.21869 0 0 0 
0.131383 0.0306803 1.31382 52 255 61 
0.0903999 0.577096 1.18025 63 251 68 
0.0267065 0.585706 1.14159 16 2 2 
0.0201702 0.0843993 1.20063 0 0 0 
0.110405 -0.0895695 1.35723 63 62 60 
0.127734 0.203111 1.28168 28 254 45 
-0.0288642 0.447061 1.15768 0 0 0 
0.156519 0.565697 1.29549 34 254 36 
0.17922 0.605172 1.31907 254 73 64 
0.160625 0.564095 1.30832 30 28 29 
0.130133 0.0725563 1.37929 43 44 255 
0.0768174 -0.0972382 1.27928 35 45 191 
0.0762338 -0.248009 1.3308 254 48 42 
0.126813 0.269294 1.27334 26 27 254 
0.079165 -0.0773211 1.26619 80 78 254 
0.133245 -0.0343457 1.34268 37 255 60 
0.0950701 -0.122823 1.34545 47 45 46 
0.114717 0.386524 1.23684 34 254 44 
0.133504 0.539326 1.25 254 54 53 
0.138712 0.340387 1.29726 44 42 43 
0.125867 0.381326 1.25508 38 36 37 
0.141468 0.378645 1.29253 24 25 254 
0.0112346 0.233006 1.18804 0 0 0 
0.0544619 0.263547 1.2022 0 0 0 
0.0720733 -0.15975 1.32357 254 81 80 
0.0986762 0.594626 1.17375 0 2 0 
0.137104 0.0516038 1.35672 24 254 26 
0.143593 0.381283 1.31255 254 45 43 
0.050327 -0.137329 1.48071 114 110 107 
0.0053775 -0.0606275 1.21668 0 0 0 
0.133488 0.264568 1.28937 254 53 45 
0.131145 0.323208 1.2686 254 50 49 
0.123953 0.28042 1.26164 44 28 29 
0.118191 0.249385 1.2544 25 23 254 
0.117657 -0.0643135 1.35852 58 254 68 
0.0178502 -0.325206 1.33463 0 0 0 
-0.0178896 -0.00439607 1.57685 70 69 67 
0.112448 0.0977414 1.45719 59 57 58 
0.0328012 -0.274681 1.33244 0 0 0 
0.0551307 0.122117 1.21621 72 252 76 
0.101729 0.268568 1.23682 254 46 46 
-0.0556281 -0.608019 1.39609 0 0 0 
0.0273917 -0.344791 1.37025 0 0 0 
0.0880894 0.490394 1.19726 254 44 42 
0.105692 0.394182 1.22068 48 47 45 
-0.00331909 -0.00392064 1.14027 0 0 0 
-0.192778 0.0950084 1.24258 0 0 0 
-0.0696994 0.00176745 1.19784 0 0 0 
0.0661277 0.526877 1.1765 54 254 56 
0.0252534 0.140559 1.198 0 0 0 
-0.143092 -0.0889565 1.39451 78 79 84 
0.02698 -0.277146 1.31879 0 0 0 
0.12813 0.0621243 1.42518 68 64 65 
0.0311604 -0.259848 1.30797 0 0 0 
0.138365 0.433324 1.34976 43 254 42 
0.0112425 -0.343329 1.34358 0 0 0 
0.133105 0.256016 1.36134 47 255 43 
-0.00976395 0.0911111 1.52145 41 255 51 
0.0659274 -0.194252 1.31597 83 84 255 
0.0285256 -0.349145 1.38423 0 0 0 
0.0894865 -0.0458896 1.25863 71 254 82 
0.133267 0.0145769 1.41513 37 255 62 
0.13263 -0.0144644 1.32584 66 254 84 
-0.0555901 -0.636515 1.41844 0 0 0 
0.128002 -0.0301621 1.34152 37 32 254 
0.0353019 -0.290307 1.35399 0 0 0 
0.135998 0.400153 1.36525 37 254 32 
0.138818 0.17906 1.33021 254 36 36 
0.147502 0.483364 1.36353 49 47 48 
0.118944 0.0627176 1.42112 42 40 41 
-0.112506 -0.290571 1.28815 0 0 0 
-0.00255847 -0.390976 1.35188 0 0 0 
0.0196815 -0.309601 1.32824 0 0 0 
-0.0189711 -0.0925994 1.22402 0 0 0 
0.0492591 -0.293244 1.38093 0 0 0 
0.0868781 -0.167822 1.36327 68 67 65 
0.0144407 -0.381955 1.37637 0 0 0 
0.141206 0.416959 1.29162 44 45 254 
0.120438 -0.0554058 1.35997 89 88 84 
0.137502 0.0500843 1.37992 254 58 54 
-0.0193746 -0.161439 1.24334 0 0 0 
0.00779125 -0.387977 1.3662 0 0 0 
0.133931 0.380131 1.34967 36 34 254 
0.0572021 -0.269973 1.38321 89 242 77 
0.00024787 -0.379763 1.34581 0 0 0 
0.136093 0.0632194 1.33153 254 34 34 
0.0204819 -0.337284 1.34804 0 0 0 
0.052763 -0.280438 1.37522 2 2 1 
0.14002 0.541851 1.27233 37 38 254 
-0.0391236 -0.382102 1.32414 0 0 0 
0.144759 0.465796 1.36154 254 33 31 
0.122603 0.128953 1.40503 70 68 69 
0.12789 0.135109 1.38594 35 35 254 
0.0123135 -0.0846802 1.23051 0 0 0 
0.00607057 -0.220472 1.28123 0 0 0 
-0.036072 -0.598713 1.39027 0 0 0 
0.134992 0.368245 1.34929 38 36 254 
0.13205 0.174226 1.36381 24 24 254 
0.138239 0.026035 1.36304 254 64 62 
0.0429146 -0.293304 1.36571 0 0 0 
0.13122 0.0420475 1.31936 254 45 41 
0.135867 0.146879 1.34354 45 254 50 
0.024665 -0.29756 1.32594 0 0 0 
0.119815 0.0748488 1.4156 68 67 65 
0.0285387 -0.323876 1.36527 0 0 0 
0.00660676 -0.361743 1.35196 0 0 0 
0.04205 -0.227827 1.30669 0 0 0 
0.137227 0.121401 1.33206 30 30 254 
0.0603446 -0.112228 1.48421 41 37 36 
0.0748984 0.157174 1.22804 234 39 39 
0.123219 0.128474 1.28426 45 47 254 
-0.0251575 -0.390923 1.33401 0 0 0 
0.132684 0.128565 1.31617 7 5 8 
0.138716 0.309397 1.30261 49 47 254 
0.0355213 -0.30446 1.36456 0 0 0 
0.0152457 -0.370933 1.36699 0 0 0 
0.0270766 -0.219204 1.28631 0 0 0 
0.130553 0.147466 1.36931 254 23 21 
0.139075 0.276328 1.30429 254 44 43 
0.134515 0.421823 1.38296 40 254 45 
0.039216 -0.034234 1.20579 0 0 0 
0.138691 0.0311821 1.4019 255 45 43 
0.114284 0.403051 1.23479 254 44 43 
0.111625 0.187623 1.43361 255 36 32 
0.0309831 -0.267501 1.31781 0 0 0 
0.148879 0.474364 1.34227 41 42 254 
0.140711 0.366801 1.31016 44 254 22 
0.136745 0.0744577 1.33716 24 22 23 
0.113056 -0.0748469 1.36419 19 17 255 
0.102817 -0.0119007 1.30233 254 76 74 
0.133718 0.0830517 1.32214 47 254 22 
0.131001 0.103592 1.37268 255 28 28 
0.0569981 -0.259025 1.36342 3 5 3 
0.135343 0.463823 1.39004 56 254 53 
-0.00206214 -0.184763 1.2631 0 0 0 
0.136666 0.0403183 1.39261 52 50 51 
0.0859757 -0.175816 1.37126 21 19 254 
0.0040361 -0.36712 1.34112 0 0 0 
0.101033 0.0948241 1.24618 58 254 48 
0.110287 -0.0388404 1.30455 254 90 86 
0.137234 0.0445907 1.35996 52 55 254 
0.0346475 -0.248958 1.31584 0 0 0 
-0.0244283 -0.33171 1.31008 0 0 0 
0.125933 0.0752173 1.40431 73 69 70 
0.127766 0.0475672 1.42262 80 255 69 
0.0846126 -0.171554 1.35338 254 46 45 
0.025477 -0.312217 1.3455 0 0 0 
0.133607 0.0505271 1.40144 22 255 45 
-0.0317023 -0.352659 1.3146 0 0 0 
0.128723 0.129957 1.37259 30 254 32 
-0.0271023 -0.490389 1.37632 0 0 0 
0.0758645 -0.109459 1.30266 31 30 28 
-0.0100683 -0.24481 1.2806 0 0 0 
0.146038 0.494066 1.35912 30 254 28 
0.134935 0.404908 1.35217 52 51 49 
0.130181 0.282448 1.36096 254 4 2 
0.0661812 -0.174359 1.3055 141 74 77 
0.133498 0.0141643 1.40416 255 24 23 
0.0964705 -0.125722 1.35097 95 91 90 
0.14325 0.371798 1.33434 36 35 33 
0.139968 0.284134 1.31609 254 27 25 
0.0788354 -0.0541809 1.26115 93 255 99 
0.0470596 -0.181947 1.29122 0 0 0 
0.140173 0.31596 1.32038 59 254 53 
0.0286205 -0.314628 1.35805 0 0 0 
-0.0477613 -0.184466 1.24395 0 0 0 
0.114415 -0.032546 1.27501 58 254 51 
0.144479 0.504556 1.31798 36 254 37 
0.0383212 -0.316486 1.38154 0 0 0 
0.136032 0.444464 1.37593 57 56 54 
0.142287 0.281591 1.32885 254 45 43 
0.0977752 0.0379065 1.26507 64 254 50 
0.0233343 -0.0958364 1.244 0 0 0 
0.0611164 0.0702076 1.21706 0 0 0 
0.132901 0.297423 1.3719 28 26 27 
0.147287 0.492624 1.34095 39 254 40 
0.0895382 -0.0715834 1.30513 59 57 60 
0.132639 0.240862 1.35693 35 35 35 
0.0861482 -0.148205 1.34999 59 58 56 
0.156424 0.588708 1.37015 254 48 48 
0.0877586 -0.175802 1.38565 40 254 49 
0.128314 0.0506925 1.40626 22 255 45 
0.128106 0.0866518 1.39647 80 255 66 
0.0202269 -0.290681 1.31312 0 0 0 
0.0239091 -0.32345 1.35636 0 0 0 
0.0161069 -0.376764 1.38744 0 0 0 
0.0792735 -0.14422 1.33651 254 44 43 
0.0697954 -0.235606 1.31733 63 253 68 
0.0854905 -0.192187 1.35781 254 117 113 
0.0832822 0.0286467 1.50585 48 49 255 
-0.0327758 -0.528824 1.40539 0 0 0 
0.129838 0.0712402 1.39715 52 52 255 
0.13459 0.383009 1.28742 16 254 23 
0.0894946 -0.0826959 1.31316 254 118 117 
0.159393 0.590335 1.35609 37 38 254 
0.126754 0.0521417 1.30046 13 13 254 
0.0867136 -0.0699185 1.29284 59 59 254 
0.0346939 -0.321044 1.40932 1 2 1 
0.0683751 -0.11822 1.27726 0 0 0 
0.121288 -0.0379562 1.3544 57 54 49 
0.14108 0.45 1.29383 254 50 48 
0.126674 0.375311 1.4008 50 49 47 
0.123852 0.154439 1.28937 47 254 52 
0.0572426 -0.130663 1.48198 255 51 50 
0.150355 0.544489 1.35375 37 38 254 
0.136067 0.0113203 1.38622 35 255 35 
0.136657 0.562585 1.41725 254 51 49 
0.12848 0.161483 1.37397 28 254 29 
0.113241 -0.0501198 1.33147 72 254 98 
0.128646 0.0878688 1.37459 254 17 15 
0.0723034 -0.249053 1.33441 11 11 12 
0.140739 0.393295 1.30126 37 254 35 
0.0611684 -0.124714 1.26805 0 0 0 
0.113943 0.0226676 1.27359 47 254 39 
0.128349 0.0752337 1.37245 19 255 19 
0.1422 0.333766 1.31035 25 254 37 
0.114189 0.324105 1.42758 12 11 9 
-0.0303531 -0.504363 1.43591 0 0 0 
-0.00606199 -0.328703 1.32108 0 0 0 
0.129861 0.169863 1.38153 42 255 49 
0.0944863 -0.105657 1.41199 33 28 255 
0.155193 0.576506 1.28207 254 40 36 
0.134552 0.0181826 1.36829 254 50 48 
0.127063 0.0695521 1.37809 45 255 35 
0.131657 0.0531454 1.31954 17 254 19 
0.0950965 -0.0503893 1.44983 255 31 30 
0.0751424 -0.169398 1.33081 75 73 254 
-0.0187067 -0.206451 1.26497 0 0 0 
-0.0337346 -0.403311 1.33397 0 0 0 
0.145965 0.489049 1.31978 254 41 39 
0.126508 0.216061 1.27888 40 18 21 
0.0270422 0.18694 1.19085 0 0 0 
0.0107759 -0.319035 1.31899 0 0 0 
0.145814 0.550261 1.27214 39 40 254 
0.127774 -0.0374848 1.34817 111 106 254 
0.113968 0.145827 1.25226 55 254 60 
0.0231672 -0.373108 1.39791 0 0 0 
0.0790437 -0.176072 1.34314 109 106 254 
0.142547 0.416507 1.31168 36 254 46 
0.146521 0.4756 1.32688 46 47 254 
0.0652406 -0.149466 1.29759 0 0 0 
0.00968628 -0.282851 1.30343 0 0 0 
0.0318503 -0.120606 1.23989 0 0 0 
0.0325932 -0.336792 1.38836 0 0 0 
0.00226176 -0.204191 1.30282 0 0 0 
0.133502 0.270828 1.36827 38 38 38 
0.128788 0.217579 1.38388 15 14 12 
0.0730617 -0.10819 1.29242 97 102 254 
-0.000605638 0.256906 1.17469 0 0 0 
0.0742132 -0.222306 1.33145 254 63 62 
0.140862 0.358845 1.32045 36 34 254 
0.100347 -0.0811993 1.33374 254 114 112 
0.12867 0.0206588 1.33077 51 49 254 
0.0536505 -0.26867 1.39744 254 80 76 
0.15144 0.545062 1.32443 254 42 40 
-0.0546246 -0.197144 1.2447 0 0 0 
0.136086 0.420042 1.33849 30 31 254 
0.0823739 -0.222785 1.34876 52 50 254 
-0.0246448 -0.433019 1.35009 0 0 0 
0.153381 0.561678 1.37238 39 40 254 
0.154097 0.56104 1.30737 53 254 49 
0.148087 -0.00522001 1.33038 83 81 82 
-0.0478279 -0.30871 1.30474 0 0 0 
-0.0146089 -0.391461 1.34023 0 0 0 
0.00425545 -0.378442 1.35581 0 0 0 
0.0899567 -0.140896 1.36757 71 254 73 
0.14047 0.523719 1.29221 39 37 38 
0.11955 0.0863322 1.41774 87 85 86 
0.0721598 -0.15876 1.32451 42 254 29 
0.149625 0.589339 1.25722 56 254 56 
0.141894 0.453408 1.34753 11 9 10 
0.158352 0.573885 1.37423 33 33 33 
0.133816 0.504986 1.26379 31 32 254 
0.0765078 0.215738 1.20938 0 1 0 
-0.0161215 -0.219393 1.27307 0 0 0 
0.119142 -0.0500569 1.35039 111 106 254 
0.13849 0.0113866 1.37525 24 22 23 
0.142048 0.457612 1.33872 38 36 37 
0.130291 0.160668 1.36013 254 26 24 
0.134417 0.337275 1.3682 25 255 28 
0.17509 0.604498 1.29181 54 53 50 
0.140914 0.00117853 1.32197 254 54 53 
0.103706 -0.124452 1.37642 67 65 254 
0.128885 0.402494 1.39595 39 38 36 
0.0146326 -0.122169 1.25078 0 0 0 
0.142508 0.452516 1.27848 254 47 45 
0.130437 -0.0268062 1.38455 52 53 255 
0.138742 0.0054196 1.41138 255 23 22 
-0.0300518 -0.534772 1.41385 0 0 0 
0.0469048 -0.303464 1.37923 0 0 0 
0.15172 0.541149 1.34001 46 47 254 
0.155436 0.554893 1.33843 40 38 39 
-0.00372161 -0.399693 1.35588 0 0 0 
