ply                 
format ascii 1.0    
element vertex 1319
property float x    
property float y    
property float z    
property uchar red  
property uchar green
property uchar blue 
end_header          
-0.193364 0.284793 1.43286 0 0 0 
-0.180424 0.113876 1.46687 0 0 0 
-0.193783 0.525352 1.42632 0 0 0 
-0.217849 0.518182 1.3527 48 48 254 
-0.170869 -0.052786 1.48413 0 0 0 
-0.209242 0.538285 1.39659 239 59 62 
-0.166318 0.339127 1.46476 0 0 0 
-0.1825 -0.0860408 1.43282 0 0 0 
-0.161645 -0.232841 1.39234 0 0 0 
-0.211529 0.411607 1.34971 28 27 25 
-0.117066 -0.354765 1.36356 0 0 0 
-0.201044 0.0878654 1.27901 46 254 51 
-0.194719 -0.0573924 1.41315 0 0 0 
-0.201928 0.515081 1.41378 0 0 0 
-0.179046 -0.0551097 1.46104 0 0 0 
-0.213452 0.290887 1.35213 23 18 12 
-0.218823 0.549848 1.37457 18 18 18 
-0.218629 -0.0277507 1.38177 34 39 254 
-0.220402 -0.00980166 1.40807 152 15 17 
-0.208565 0.133626 1.40967 0 0 0 
-0.209113 0.188697 1.4055 0 0 0 
-0.0977721 -0.42479 1.42195 0 0 0 
-0.182249 -0.0959547 1.42266 0 0 0 
-0.202562 0.00836615 1.4546 0 0 0 
-0.170503 -0.150615 1.43113 0 0 0 
-0.216153 -0.0053265 1.41673 0 0 0 
-0.208239 0.547678 1.40104 68 67 72 
-0.200725 0.180621 1.42658 0 0 0 
-0.148985 0.410741 1.19798 80 79 254 
-0.209508 0.319658 1.37462 49 39 226 
-0.212958 0.313626 1.35963 43 39 36 
-0.191114 0.446019 1.42528 0 0 0 
-0.191074 0.572032 1.44369 0 0 0 
-0.083594 -0.521634 1.39795 0 0 0 
-0.180367 0.475468 1.44763 0 0 0 
-0.128158 -0.171282 1.51323 0 0 0 
-0.195275 0.328175 1.42758 0 0 0 
-0.211816 0.596996 1.41047 26 7 7 
-0.172106 -0.00977307 1.49884 0 0 0 
-0.224931 0.587567 1.36679 18 253 15 
-0.187218 0.519013 1.4358 0 0 0 
-0.220842 0.594274 1.37552 14 12 251 
-0.198836 0.33434 1.27671 60 254 67 
-0.20342 0.104271 1.42791 0 0 0 
-0.212635 0.301678 1.36067 254 24 23 
-0.19923 0.121578 1.43825 0 0 0 
-0.112725 -0.371125 1.42273 0 0 0 
-0.20671 0.3263 1.39392 0 0 0 
-0.14999 -0.247222 1.40386 0 0 0 
-0.0561322 0.101385 1.53994 0 0 0 
-0.160573 0.319119 1.4727 0 0 0 
-0.216989 0.466917 1.32414 25 21 20 
-0.213101 0.0121981 1.44535 0 0 0 
-0.220446 0.570011 1.38873 254 43 43 
-0.210026 0.391996 1.37163 56 52 236 
-0.191844 -0.0600453 1.42661 0 0 0 
-0.205516 0.233578 1.40314 0 0 0 
-0.168499 0.361648 1.46016 0 0 0 
-0.172257 -0.0799304 1.46156 0 0 0 
-0.204292 0.419955 1.38333 0 0 0 
-0.126172 -0.117733 1.5015 0 0 0 
-0.181772 0.0498287 1.48643 0 0 0 
-0.188217 0.411422 1.42927 0 0 0 
-0.159064 0.217845 1.48256 0 0 0 
-0.191212 0.193237 1.44602 0 0 0 
-0.212777 0.537384 1.37998 23 254 23 
-0.143586 -0.298865 1.39117 0 0 0 
-0.122157 -0.325773 1.43264 0 0 0 
-0.215275 0.244354 1.37412 250 1 0 
-0.17368 0.245854 1.46456 0 0 0 
-0.211289 0.360659 1.35937 35 32 254 
-0.206402 0.49124 1.40695 0 0 0 
-0.174303 0.324566 1.45707 0 0 0 
-0.212886 0.02392 1.4378 0 0 0 
-0.178628 -0.0958089 1.43336 0 0 0 
-0.187731 0.491589 1.43826 0 0 0 
-0.205041 0.463353 1.39881 0 0 0 
-0.180702 -0.13526 1.40297 0 0 0 
-0.209372 0.373355 1.37953 1 2 1 
-0.188356 0.485973 1.23362 62 254 67 
-0.0994829 -0.436085 1.41326 0 0 0 
-0.185127 -0.123094 1.39833 75 80 85 
-0.122451 -0.138553 1.49637 0 0 0 
-0.196786 0.456293 1.41349 0 0 0 
-0.185339 -0.02308 1.25648 255 38 34 
-0.210366 0.0949771 1.40828 0 0 0 
-0.160607 -0.140655 1.45615 0 0 0 
-0.202103 0.000494731 1.46028 0 0 0 
-0.123372 -0.317057 1.43796 0 0 0 
-0.203505 -0.0331874 1.41776 0 0 0 
-0.216409 0.0852715 1.36534 254 25 24 
-0.192257 0.167554 1.44311 0 0 0 
-0.183467 0.0295049 1.48938 0 0 0 
-0.18627 0.292861 1.43987 0 0 0 
-0.174847 0.215634 1.46217 0 0 0 
-0.183434 -0.142269 1.3957 70 74 252 
-0.208899 -0.000159677 1.44471 0 0 0 
-0.179585 -0.23304 1.43287 0 0 0 
-0.218961 0.532971 1.30119 22 20 254 
-0.218253 0.592468 1.25651 254 29 28 
-0.220376 0.492537 1.32531 28 254 23 
-0.164001 0.110338 1.48612 0 0 0 
-0.213237 0.588643 1.40347 27 27 214 
-0.202169 -0.102901 1.37244 31 254 33 
-0.183124 -0.167843 1.37998 253 26 26 
-0.222935 0.0533702 1.31905 42 40 254 
-0.158104 -0.118458 1.47419 0 0 0 
-0.185489 0.23894 1.44798 0 0 0 
-0.225378 0.0141005 1.34103 26 26 24 
-0.120629 -0.333481 1.42585 0 0 0 
-0.178867 0.457798 1.44277 0 0 0 
-0.178696 -0.121394 1.421 0 0 0 
-0.164941 -0.168529 1.44697 0 0 0 
-0.204937 0.288208 1.39914 0 0 0 
-0.198542 0.0469632 1.46216 0 0 0 
-0.185795 -0.0785537 1.42692 0 0 0 
-0.157702 -0.0929919 1.46642 0 0 0 
-0.0463204 -0.266057 1.4943 0 0 0 
-0.187155 0.204149 1.26034 77 255 77 
-0.217389 -0.0386158 1.38231 59 64 254 
-0.156085 0.462625 1.19748 32 254 39 
-0.17724 0.313752 1.45122 0 0 0 
-0.188478 0.449146 1.40582 0 0 0 
-0.216356 0.490461 1.29393 56 52 43 
-0.19944 0.445547 1.40742 0 0 0 
-0.218765 0.497434 1.3688 254 56 54 
-0.158604 -0.133491 1.46981 0 0 0 
-0.219282 0.0724943 1.32039 41 40 38 
-0.168852 0.384784 1.45421 0 0 0 
-0.217052 0.0580459 1.41787 2 1 1 
-0.226124 0.0627683 1.36386 0 0 0 
-0.214203 0.177435 1.33123 0 0 0 
-0.0754847 -0.415755 1.46509 0 0 0 
-0.210071 0.530473 1.39025 0 0 0 
-0.225922 0.016611 1.39062 0 0 0 
-0.185821 0.335047 1.43962 0 0 0 
-0.180782 0.409673 1.44347 0 0 0 
-0.167047 -0.0679726 1.47881 0 0 0 
-0.229498 -0.00413434 1.36151 21 25 254 
-0.210325 0.400867 1.35936 21 254 32 
-0.218933 0.0100239 1.42988 0 0 0 
-0.200014 0.306381 1.41507 0 0 0 
-0.229863 0.00113358 1.37522 254 32 30 
-0.13191 -0.268776 1.43947 0 0 0 
-0.137941 -0.313801 1.39364 0 0 0 
-0.187823 0.271509 1.43893 0 0 0 
-0.147379 -0.257856 1.40735 0 0 0 
-0.190697 -0.0762795 1.41634 0 0 0 
-0.205286 0.146851 1.4198 0 0 0 
-0.20709 0.155837 1.41456 0 0 0 
-0.123528 -0.340784 1.4147 0 0 0 
-0.205748 0.243889 1.40683 0 0 0 
-0.215768 -0.0192786 1.40762 38 27 22 
-0.175514 -0.193472 1.42689 0 0 0 
-0.210634 0.0340606 1.43721 0 0 0 
-0.206732 0.0211684 1.44395 0 0 0 
-0.200741 -0.0884588 1.38536 250 87 86 
-0.153311 -0.260838 1.39436 0 0 0 
-0.199423 0.334587 1.41521 31 27 254 
-0.218316 0.45536 1.34494 27 26 24 
-0.124468 0.0336446 1.21746 42 38 37 
-0.169727 0.143531 1.47521 0 0 0 
-0.177188 0.137663 1.46799 0 0 0 
-0.166491 0.268509 1.46943 0 0 0 
-0.163698 0.2096 1.47609 0 0 0 
-0.18202 0.130168 1.46172 0 0 0 
-0.19511 0.401416 1.42394 248 57 59 
-0.107295 0.190414 1.51366 0 0 0 
-0.193048 0.421899 1.41988 253 50 52 
-0.115521 0.546237 1.49497 0 0 0 
-0.21389 0.374372 1.34087 255 59 55 
-0.199086 -0.036694 1.29865 27 255 30 
-0.091217 -0.175127 1.5335 0 0 0 
-0.0987267 -0.323337 1.32122 71 72 254 
-0.164876 -0.214645 1.45657 0 0 0 
-0.203575 0.282726 1.41122 19 18 254 
-0.105659 0.463524 1.49937 0 0 0 
-0.186201 -0.0653167 1.43467 49 253 47 
-0.158092 -0.0988399 1.47948 0 0 0 
-0.126962 0.0681131 1.5236 0 0 0 
-0.186275 0.0665549 1.47605 0 0 0 
-0.179796 0.0669258 1.48521 0 0 0 
-0.158296 0.160608 1.48526 0 0 0 
-0.196504 0.238429 1.43241 62 255 67 
-0.200738 0.502119 1.41697 9 11 254 
-0.160303 0.227412 1.47895 0 0 0 
-0.104572 -0.430348 1.40334 0 0 0 
-0.2315 0.5976 1.31436 21 254 21 
-0.200505 0.218516 1.41454 19 254 33 
-0.125188 -0.0565457 1.50458 0 0 0 
-0.193211 0.377695 1.42889 19 21 14 
-0.162838 0.281463 1.47179 0 0 0 
-0.171298 0.226414 1.46615 0 0 0 
-0.167312 -0.134695 1.43188 54 255 51 
-0.152035 0.187315 1.48857 0 0 0 
-0.054543 -0.0617474 1.53378 0 0 0 
-0.149217 0.0625194 1.5109 0 0 0 
-0.129418 0.1736 1.50668 0 0 0 
-0.175911 0.0267069 1.49442 0 0 0 
-0.199874 -0.113317 1.37271 254 43 39 
-0.20671 0.503779 1.40387 254 27 26 
-0.20646 -0.0797167 1.37645 26 254 26 
-0.230727 0.595008 1.33311 254 23 23 
-0.0760071 -0.225533 1.48985 0 0 0 
-0.16321 0.0501442 1.49732 0 0 0 
-0.175888 0.424781 1.44778 0 0 0 
-0.126707 0.237863 1.50015 0 0 0 
-0.208558 0.37451 1.29708 71 62 53 
-0.174069 0.170871 1.46947 0 0 0 
-0.172723 0.0417886 1.49341 0 0 0 
-0.199983 0.0179138 1.47357 47 49 34 
-0.132125 -0.284002 1.43212 0 0 0 
-0.188617 0.0408246 1.47287 0 0 0 
-0.150582 -0.250813 1.42594 0 0 0 
-0.0080507 -0.240978 1.50697 0 0 0 
-0.178178 0.257244 1.45861 0 0 0 
-0.185922 0.476107 1.43882 0 0 0 
-0.0611992 -0.496002 1.40089 0 0 0 
-0.21448 0.0970284 1.38895 18 254 27 
-0.146785 -0.267588 1.40174 0 0 0 
-0.186895 0.000612597 1.48864 0 0 0 
-0.198361 -0.0495215 1.31467 80 80 255 
-0.215133 0.0383469 1.41128 23 22 20 
-0.197775 0.285151 1.4212 19 254 35 
-0.167509 0.128892 1.47808 0 0 0 
-0.193016 0.097015 1.44753 50 53 188 
-0.152499 0.331518 1.47648 0 0 0 
-0.163693 0.349259 1.46834 0 0 0 
-0.148787 0.309529 1.48071 0 0 0 
-0.196779 0.362212 1.41792 40 254 50 
-0.135384 -0.113366 1.4912 0 0 0 
-0.0435849 -0.0438555 1.54017 0 0 0 
-0.170947 0.342146 1.45541 0 0 0 
-0.167079 0.458593 1.4466 0 0 0 
-0.0994072 -0.409182 1.43188 0 0 0 
-0.176022 0.30273 1.46336 0 0 0 
-0.127126 -0.0857953 1.50566 0 0 0 
-0.189403 0.128552 1.44615 18 21 23 
-0.185545 0.119482 1.45564 1 1 2 
-0.131622 0.433576 1.48495 0 0 0 
-0.0251695 0.10754 1.56267 0 0 0 
-0.159276 -0.0755289 1.48136 0 0 0 
-0.212893 0.0479773 1.42541 254 26 25 
-0.191685 0.0206701 1.4816 0 0 0 
-0.114825 -0.309371 1.44472 0 0 0 
-0.160856 0.367481 1.46636 0 0 0 
-0.165197 -0.0935952 1.43941 0 0 0 
-0.162889 -0.0859662 1.47924 0 0 0 
-0.194074 -0.0479653 1.43144 254 45 45 
-0.188624 -0.0331388 1.45455 212 41 40 
-0.192922 0.422672 1.40038 254 30 26 
-0.16576 0.102742 1.47736 0 0 0 
-0.175587 -0.082369 1.44388 2 0 0 
-0.170082 -0.16836 1.43454 251 17 17 
-0.207433 0.173827 1.41077 38 254 45 
-0.203402 -0.0613565 1.39605 254 55 54 
-0.233372 0.0120018 1.35595 65 63 255 
-0.171593 0.19292 1.47207 0 0 0 
-0.182419 -0.0612301 1.44624 99 102 107 
-0.202097 0.104683 1.29035 36 32 29 
-0.221974 0.0419863 1.40495 24 254 30 
-0.18778 -0.104847 1.40997 254 50 49 
-0.198106 -0.101353 1.3842 44 39 254 
-0.150501 -0.154541 1.47015 0 0 0 
-0.188212 -0.135358 1.3898 254 45 44 
-0.21871 -0.0425931 1.372 254 30 28 
-0.193593 0.204728 1.43825 43 216 36 
-0.0908405 0.329316 1.50353 0 0 0 
-0.149826 -0.0946856 1.48347 0 0 0 
-0.206731 0.049645 1.44098 55 254 63 
-0.211446 0.265318 1.38488 254 32 28 
-0.215185 0.576343 1.4013 23 254 33 
-0.169366 0.218033 1.47192 0 0 0 
-0.150285 0.560322 1.47969 0 0 0 
-0.159397 0.305416 1.47392 0 0 0 
-0.182333 0.431529 1.43451 2 7 1 
-0.194269 0.209794 1.269 36 27 255 
-0.184659 0.228403 1.44597 0 0 0 
-0.189843 -0.0896353 1.4095 254 55 54 
-0.203966 0.57732 1.41183 254 9 8 
-0.115604 -0.0111603 1.52546 0 0 0 
0.136865 0.150774 1.32935 254 55 55 
0.138939 0.424057 1.28546 254 20 18 
0.112363 0.433271 1.2281 46 44 45 
0.119135 -0.0375939 1.32878 254 55 51 
0.145763 0.522488 1.31561 42 254 53 
0.177896 0.602347 1.33314 253 63 62 
0.0697676 -0.0970065 1.26377 0 0 0 
0.134974 0.200857 1.31011 68 254 68 
0.119745 0.235884 1.27119 25 254 17 
0.0978977 -0.130157 1.36885 41 38 254 
0.132309 0.193679 1.3623 27 254 31 
0.112176 0.308013 1.24453 43 254 34 
0.121693 0.289823 1.25975 254 35 26 
0.133316 0.050798 1.32993 10 254 8 
0.138629 0.491308 1.28058 39 37 38 
0.132427 0.232046 1.29475 39 254 48 
0.109159 -0.101564 1.3672 80 79 75 
0.135189 0.462911 1.27654 77 254 77 
0.143987 0.574997 1.25586 39 35 34 
0.142409 0.0418586 1.34877 45 46 255 
-0.296247 -0.0965249 1.27617 0 0 0 
0.651028 -0.0156408 1.32395 25 25 255 
-0.0345617 -0.668375 1.40244 0 0 0 
0.134802 0.0398373 1.3751 76 72 71 
0.128524 0.0284027 1.41876 255 76 74 
0.090208 -0.123171 1.41058 60 255 101 
0.0818685 -0.19334 1.38116 254 46 42 
0.128402 0.191878 1.28705 254 53 27 
0.0465282 -0.27786 1.36255 0 0 0 
0.105501 -0.0319176 1.28169 58 55 254 
0.132943 0.0342396 1.32861 57 55 254 
-0.0803151 0.0154168 1.17036 0 0 0 
0.157697 0.579431 1.33112 42 40 41 
0.152408 0.583056 1.28126 254 64 58 
0.127099 0.230324 1.27829 25 27 254 
0.146125 0.531075 1.31764 254 27 25 
0.127216 0.418816 1.2575 254 26 24 
0.140057 0.268254 1.32757 36 34 35 
0.132526 0.165077 1.3025 49 51 254 
0.0838142 -0.00344149 1.22913 67 63 254 
-0.0434312 -0.552467 1.42344 0 0 0 
-0.164426 0.484778 1.49589 49 49 254 
-0.0369014 -0.208881 1.34462 0 0 0 
0.00685643 -0.160716 1.40772 78 74 254 
-0.15527 0.362737 1.53435 0 0 0 
-0.0140622 -0.585919 1.39311 0 0 0 
0.0746638 0.481346 1.47728 39 38 34 
0.124554 0.130943 1.3501 72 73 255 
0.133227 -0.0271143 1.34124 254 70 70 
0.12614 0.0633108 1.42471 45 43 255 
0.0731129 -0.197869 1.3223 0 0 0 
0.132337 0.0599013 1.37955 43 255 61 
0.0792024 0.0676473 1.48303 73 255 82 
0.0470927 0.223311 1.20809 0 0 0 
0.0925723 -0.189363 1.36487 254 76 72 
-0.0719764 -0.560042 1.38388 0 0 0 
0.101861 0.0851736 1.45534 74 74 74 
0.135105 0.0647679 1.34388 254 32 32 
0.123302 0.334516 1.40657 45 254 50 
0.0781092 -0.196451 1.33715 0 0 0 
-0.0233613 -0.613951 1.38945 0 0 0 
0.132938 0.398929 1.33563 47 255 47 
0.0768445 -0.171886 1.42423 49 254 57 
0.0856759 -0.210774 1.33469 1 1 1 
-0.0722361 -0.600901 1.3816 0 0 0 
0.130647 0.0740561 1.38422 74 254 85 
0.0251372 0.483584 1.49335 255 75 71 
0.0384169 -0.342169 1.38032 0 0 0 
0.123621 0.0949291 1.35599 60 61 255 
0.134787 -0.013566 1.32477 81 254 85 
0.141073 0.619768 1.45436 60 59 55 
0.133316 0.344042 1.34043 46 42 210 
-0.0231297 -0.581051 1.40428 0 0 0 
0.124522 -0.0291638 1.42967 41 40 38 
0.126345 0.0120018 1.43655 33 254 35 
0.107411 0.0653359 1.45151 73 74 255 
0.117113 -0.0291638 1.43856 63 255 60 
0.0154303 -0.0199036 1.19981 0 0 0 
0.136372 0.0931715 1.33885 0 0 0 
0.0983192 -0.168667 1.37252 46 254 60 
0.0972467 0.0201147 1.48224 255 27 25 
0.0417436 0.208591 1.20728 0 0 0 
0.0841523 0.475101 1.46546 67 63 255 
0.107988 -0.0841039 1.34232 60 254 33 
0.0434213 0.0511802 1.21704 0 0 0 
0.130706 0.317254 1.34039 35 36 255 
0.12202 -0.0126907 1.29689 85 82 254 
0.140733 0.332049 1.33367 87 255 75 
0.0541334 0.613058 1.50361 254 51 50 
0.0578263 -0.241803 1.41246 47 254 67 
0.100889 0.119966 1.26811 59 58 62 
0.0938894 -0.163361 1.35866 49 254 60 
0.129843 0.285914 1.37916 28 28 26 
0.11034 0.297486 1.2423 0 0 0 
0.104281 0.105821 1.2733 45 49 250 
0.0901301 -0.181183 1.35137 68 66 254 
0.088843 0.39787 1.45524 91 89 255 
0.0432465 0.236502 1.20538 0 0 0 
0.102569 0.0614643 1.4714 73 255 73 
0.038518 0.0790279 1.21785 0 0 0 
-0.0383212 -0.584547 1.38001 0 0 0 
0.0816391 -0.20021 1.37716 0 0 0 
0.125873 0.110024 1.39018 0 0 0 
0.129937 0.254167 1.37346 46 44 254 
0.136852 0.0141184 1.36814 32 30 31 
0.0570173 -0.269907 1.36001 0 0 0 
0.110554 0.248264 1.25592 212 57 56 
0.0507689 0.20872 1.21527 0 0 0 
0.138786 0.0184671 1.35023 56 255 55 
0.0508985 0.516735 1.48852 71 66 255 
0.158505 0.552709 1.28509 46 47 254 
0.0258849 0.0277633 1.53245 67 66 64 
0.134856 0.0276383 1.39786 41 39 40 
0.119247 0.235231 1.34782 255 82 80 
0.135973 0.0503149 1.38012 0 0 0 
0.107999 0.006964 1.47938 31 29 30 
0.117772 0.129746 1.30523 254 31 31 
0.0352814 0.404558 1.48369 46 42 255 
0.0853306 -0.174757 1.36131 0 0 0 
0.0958064 -0.113408 1.33351 59 57 60 
0.101452 0.185682 1.25681 7 7 9 
0.12325 0.350249 1.39642 52 51 49 
0.0713968 0.291779 1.21953 0 0 0 
0.132168 0.0150724 1.41353 41 254 44 
0.108097 0.540935 1.20566 49 253 60 
0.0769599 -0.081287 1.46989 42 40 41 
0.157293 0.571872 1.27843 54 50 49 
0.110907 0.133309 1.28482 2 2 4 
0.0701596 -0.197956 1.29211 0 0 0 
0.0786348 0.403638 1.4712 62 60 255 
0.0386254 -0.199171 1.49022 36 36 255 
0.130605 0.451948 1.39785 49 255 64 
0.0563018 0.33309 1.198 0 0 0 
0.121943 0.148827 1.39223 55 56 255 
0.145409 0.506048 1.31403 254 67 65 
0.0957631 -0.15765 1.39178 40 254 45 
0.145167 0.575975 1.24825 254 66 66 
0.136451 0.260033 1.33819 51 50 48 
0.13061 0.382922 1.38421 72 63 255 
0.130358 0.213818 1.34856 6 2 2 
0.0826812 -0.162464 1.31223 0 0 0 
0.0977058 -0.0752553 1.42523 59 55 255 
0.152687 0.555638 1.27048 254 48 46 
0.112246 0.372833 1.42828 72 71 67 
0.0927727 -0.154915 1.40636 56 52 254 
0.0300557 0.178346 1.20841 0 0 0 
0.093673 -0.145617 1.35822 254 48 46 
0.134779 0.385841 1.36329 86 81 255 
0.096069 -0.188489 1.37839 54 254 79 
0.0397369 0.0288896 1.52722 46 255 63 
0.116435 0.446126 1.4276 255 83 82 
0.0340777 0.322617 1.49743 73 69 66 
0.121293 0.234686 1.37066 255 50 49 
0.102471 -0.117647 1.36152 0 0 0 
0.124117 0.264845 1.34942 59 57 255 
0.13164 0.370801 1.37926 58 254 68 
0.134236 0.388101 1.33798 54 255 57 
0.124955 0.217019 1.37505 30 255 32 
0.0802556 0.502506 1.47212 73 71 255 
0.0904347 0.297008 1.45794 255 54 49 
0.100174 0.39434 1.45034 55 55 53 
0.118264 0.212465 1.26454 0 0 0 
0.156301 0.539117 1.2884 59 57 58 
0.0529559 -0.30377 1.39137 0 0 0 
0.122937 0.145708 1.35665 254 26 25 
0.0529892 0.463026 1.17622 0 0 0 
0.0674032 0.276448 1.21602 0 0 0 
0.11237 0.415822 1.22732 34 32 29 
0.0846937 -0.198955 1.36477 0 0 0 
0.117324 0.279084 1.26311 254 25 25 
0.133293 0.297142 1.32078 26 27 255 
0.109189 0.317351 1.4191 0 0 4 
0.122097 0.0798954 1.41571 84 83 81 
0.148123 0.571324 1.39118 25 23 24 
0.0227939 0.125543 1.20999 0 0 0 
0.106794 0.039134 1.46852 255 50 46 
-0.0395852 -0.615108 1.39804 0 0 0 
0.00453108 -0.426105 1.42 0 0 0 
0.0619302 0.157847 1.22944 0 0 0 
0.160656 0.593456 1.25889 1 6 1 
0.105556 -0.125208 1.39549 254 61 60 
0.133234 0.248685 1.30949 254 51 51 
0.0861904 -0.173417 1.34325 59 58 54 
0.0259866 -0.316588 1.44279 39 254 44 
0.0194252 0.172278 1.19946 0 0 0 
0.00208523 0.000728393 1.19685 0 0 0 
0.0989486 -0.204556 1.36071 72 255 77 
0.10953 0.609701 1.45693 254 49 47 
0.0676013 0.481257 1.18344 0 0 0 
0.0907383 0.471539 1.45689 75 71 255 
0.128315 0.459598 1.26032 0 0 0 
0.0508133 -0.288176 1.35925 0 0 0 
0.133931 0.341466 1.34652 254 68 67 
0.135351 0.0262579 1.41831 49 47 48 
0.100387 0.0149696 1.4887 85 255 90 
0.0701873 -0.187663 1.2878 0 0 0 
0.131846 0.441369 1.2493 68 68 254 
0.130577 0.531819 1.23975 41 37 38 
0.116798 0.289654 1.25274 58 59 54 
0.12214 0.364713 1.40784 62 59 255 
0.112592 0.471513 1.42252 255 68 67 
0.137618 0.428856 1.33207 57 55 254 
0.0826589 0.485773 1.47076 46 255 48 
0.149087 0.53963 1.30935 55 54 254 
0.122267 0.119524 1.35358 25 24 22 
0.101863 0.129909 1.26689 42 212 21 
0.142826 0.422875 1.2849 47 254 50 
0.133333 0.0522172 1.40238 254 36 34 
0.11876 0.224089 1.39232 255 42 41 
0.132509 0.0242915 1.32424 72 76 74 
0.106775 0.181797 1.2678 253 56 54 
0.0166688 0.259006 1.5112 67 255 79 
0.0866965 -0.14559 1.41474 255 55 54 
0.108726 0.33237 1.23577 0 1 0 
0.0482583 -0.318051 1.39834 0 0 0 
0.0858453 -0.0816101 1.45878 255 56 57 
0.0875676 0.362045 1.4481 46 45 43 
0.129808 0.277776 1.33863 6 5 3 
0.0864705 0.120256 1.24957 0 0 0 
0.120515 0.209835 1.39246 255 62 56 
0.122789 0.134196 1.36405 50 50 255 
0.13268 0.176221 1.34119 255 22 20 
0.123414 0.246021 1.35075 28 255 24 
0.105083 0.0900824 1.27937 43 43 45 
0.0875975 -0.127391 1.33238 54 55 254 
0.13027 0.410127 1.32962 69 255 70 
-0.0284201 -0.253997 1.51305 51 254 58 
0.0289161 0.520274 1.50206 45 40 254 
0.00366039 -0.243746 1.50219 46 255 51 
0.144667 0.550536 1.26088 254 53 51 
0.110003 0.0807724 1.43844 35 37 34 
0.117871 0.207506 1.29489 254 79 79 
0.0849658 -0.160042 1.33419 14 255 17 
0.118374 0.110727 1.41962 0 0 0 
0.122594 0.22422 1.29457 73 254 63 
0.0937649 -0.12026 1.31853 26 31 180 
0.127666 0.537036 1.22885 254 49 47 
0.106873 0.19541 1.41056 60 56 55 
0.12464 0.202007 1.34939 255 97 95 
0.105233 0.255691 1.24209 0 0 0 
0.119409 0.315275 1.40336 44 254 42 
0.122486 0.118713 1.30924 51 254 57 
0.0214765 -0.327519 1.42918 255 73 71 
-0.00993478 0.0568565 1.22529 0 0 0 
0.125868 0.181949 1.35163 255 51 47 
0.127403 -0.0483569 1.35549 47 45 46 
0.0844323 0.0895358 1.47516 92 90 255 
0.124641 0.543209 1.23687 49 45 46 
0.150547 0.536287 1.27196 53 51 254 
0.153073 0.41884 1.33336 255 49 48 
0.132462 0.202254 1.3379 21 20 18 
0.0663619 0.210255 1.22384 0 0 0 
0.147491 0.59208 1.229 0 0 0 
0.0411181 0.0374785 1.21721 0 0 0 
0.0738931 -0.241303 1.38699 75 71 70 
0.0781717 0.493421 1.1921 0 0 0 
0.158685 0.547352 1.33542 46 44 45 
0.1211 0.431797 1.23428 45 254 48 
0.123604 0.444764 1.41188 57 55 43 
0.0581893 -0.316129 1.37918 0 0 0 
0.125252 0.0846799 1.35501 45 255 47 
0.0866103 -0.102278 1.42902 75 73 254 
0.0816261 0.372607 1.20835 0 0 0 
0.0588067 -0.266571 1.40596 67 63 60 
0.0101636 -0.377697 1.4265 0 0 0 
0.00108959 0.490618 1.51063 45 254 46 
0.108706 0.224947 1.25694 175 47 46 
0.102872 0.124375 1.44407 108 109 255 
0.111983 0.17157 1.2887 67 254 76 
0.101345 -0.103777 1.34616 254 70 68 
0.0574124 0.199293 1.21943 0 0 0 
0.0557188 0.291225 1.20675 0 0 0 
0.0267642 0.35298 1.50101 65 255 74 
0.0637506 -0.266977 1.38005 0 0 0 
0.132325 0.453287 1.23528 50 51 254 
0.118252 0.151193 1.30439 254 59 57 
0.0641251 0.505652 1.48114 37 36 34 
0.123611 0.344749 1.40377 34 254 29 
0.127966 0.255774 1.34574 50 50 50 
0.0501269 0.19158 1.21898 0 0 0 
0.154363 0.526048 1.30467 71 254 94 
0.0510393 -0.278541 1.35124 0 0 0 
0.0436993 0.170205 1.22256 0 0 0 
0.141731 0.324139 1.32112 0 0 0 
0.089072 0.056222 1.481 255 52 51 
-0.0208412 -0.0994307 1.23308 0 0 0 
0.117916 0.386017 1.42501 67 66 64 
0.140395 0.602176 1.42097 53 55 254 
0.089867 -0.0616005 1.35766 65 65 67 
0.115048 -0.0777514 1.36947 254 44 43 
0.113664 -0.0116937 1.44419 56 54 55 
0.120808 0.442362 1.23212 55 53 253 
0.153386 0.557952 1.38436 254 62 60 
-0.00354622 0.216401 1.18832 0 0 0 
-0.00812133 -0.0784436 1.22736 0 0 0 
0.115848 0.0377557 1.44462 49 255 30 
0.120955 0.458808 1.42564 255 72 71 
0.119593 0.233154 1.38096 49 47 48 
0.0862025 -0.114928 1.30086 0 0 0 
0.100742 0.0798181 1.26766 167 122 121 
0.120929 0.183474 1.36897 72 71 255 
0.0869613 0.0921496 1.45939 67 68 255 
0.123359 0.0246989 1.43498 93 93 93 
0.136119 0.0542314 1.36169 13 254 17 
0.103457 0.232331 1.4429 36 34 35 
0.112948 0.551246 1.4461 44 45 254 
0.127076 0.320254 1.28625 254 43 41 
-0.0897054 -0.188681 1.22257 0 0 0 
0.133305 0.284229 1.30559 45 45 47 
0.063686 -0.245856 1.40363 254 74 70 
-0.0171536 -0.591984 1.38365 0 0 0 
0.128628 0.197297 1.37428 58 57 55 
0.127426 0.302697 1.39146 50 49 255 
0.134513 0.0394176 1.36828 13 12 10 
0.143488 0.503663 1.28688 52 50 51 
0.122347 -0.0883277 1.37492 254 55 54 
0.133684 0.00574143 1.34858 1 1 1 
0.139548 0.530468 1.26049 52 254 59 
0.127146 0.311774 1.36901 37 35 255 
0.148322 0.00462184 1.37853 255 41 39 
0.0934738 0.190019 1.2475 0 0 0 
0.0970491 0.0656449 1.26666 254 46 45 
0.122516 -0.0424203 1.33056 95 254 95 
0.12244 0.606647 1.45904 53 51 254 
0.122325 0.418438 1.2366 254 63 63 
0.0428311 -0.229179 1.4542 74 70 254 
0.137242 0.00239168 1.30554 87 254 87 
0.114904 0.480953 1.44041 254 59 58 
0.100396 -0.13122 1.37217 0 0 0 
0.147974 0.55223 1.40203 59 57 254 
0.103605 0.237888 1.24358 0 0 0 
0.0419558 -0.326188 1.37983 0 0 0 
0.121711 -0.0767741 1.35998 47 254 55 
0.0328394 -0.189993 1.48673 32 255 54 
0.0891664 0.385506 1.21932 0 0 0 
0.113217 -0.0944782 1.34293 88 89 254 
0.0696715 0.46893 1.18285 0 0 0 
0.141355 0.509055 1.37784 47 46 44 
0.0764036 0.373598 1.46783 56 55 53 
0.124953 0.384448 1.40198 67 255 68 
0.115501 0.217288 1.40589 255 51 50 
0.134085 0.0371284 1.34075 71 72 255 
-0.0438519 -0.586412 1.43747 0 0 0 
0.130314 0.287794 1.34184 44 255 54 
0.151232 0.611003 1.43342 26 254 26 
0.104434 -0.0371123 1.44484 50 51 254 
0.094709 0.553493 1.45902 69 69 69 
0.104318 0.174251 1.26052 122 49 52 
0.0818021 -0.187205 1.34314 0 0 0 
0.129942 0.170234 1.34924 0 0 0 
0.11983 -0.0689313 1.3898 52 255 70 
0.135032 0.013976 1.39181 255 61 59 
0.0623131 0.0693014 1.51049 255 68 68 
0.0979312 0.210924 1.25027 1 3 1 
0.124775 0.0443191 1.44745 68 67 65 
0.070435 -0.226253 1.39606 88 254 86 
0.133981 0.481895 1.40552 77 78 254 
0.144669 0.365903 1.31915 53 51 52 
0.110376 0.200445 1.27386 28 254 27 
0.061701 0.279723 1.4851 255 42 36 
0.0493915 0.0274403 1.22418 0 0 0 
0.147463 0.402681 1.34 76 75 73 
0.057556 -0.206013 1.44384 254 59 57 
0.116956 0.605407 1.44765 48 49 254 
0.127953 0.585816 1.21293 2 2 1 
-0.0104279 -0.489118 1.40916 0 0 0 
0.13431 0.0251036 1.43319 96 97 255 
0.00492434 -0.413562 1.42179 0 0 0 
0.114645 0.0594436 1.45473 1 1 1 
0.148311 0.549632 1.37073 49 48 46 
0.133908 0.36436 1.36011 51 254 56 
0.0708917 -0.0840402 1.27279 0 0 0 
0.13145 0.392197 1.37879 67 64 59 
0.0398377 -0.262939 1.4392 55 254 58 
0.115163 0.0260996 1.44903 6 6 255 
0.181277 0.603247 1.37818 76 72 61 
0.0606413 0.525618 1.17511 0 0 0 
0.148158 0.534124 1.32632 254 72 70 
0.00999189 -0.574355 1.39309 0 0 0 
0.114111 0.305964 1.39942 42 255 42 
-0.0135448 -0.50843 1.40508 0 0 0 
0.137935 -0.0078267 1.41168 94 91 255 
0.135663 0.0332945 1.40972 255 31 30 
0.0946592 0.431997 1.44895 72 71 254 
0.139023 0.313273 1.31924 41 255 37 
0.159811 0.546355 1.31717 254 57 55 
0.135044 0.558082 1.40473 45 44 40 
0.140173 0.453448 1.27689 34 254 35 
0.150733 0.577079 1.37845 30 31 254 
0.132815 0.145108 1.31252 0 0 0 
0.0104557 0.0816448 1.20675 0 0 0 
0.147301 0.485115 1.2862 53 54 254 
0.10181 0.465969 1.46032 65 61 58 
0.126081 0.276322 1.27184 45 29 30 
0.135875 0.385251 1.34895 254 64 63 
-0.0397644 -0.540523 1.39021 0 0 0 
0.119308 0.118157 1.36843 32 30 255 
0.135101 0.0468077 1.39113 70 68 69 
0.0278558 0.169237 1.20409 0 0 0 
0.139823 0.235982 1.33331 38 40 254 
0.0986971 -0.0713238 1.31033 59 254 70 
-0.00470866 0.313684 1.18113 0 0 0 
0.139837 0.602306 1.41247 254 54 51 
0.101483 -0.0825286 1.31731 101 99 100 
0.00280788 -0.120553 1.24856 0 0 0 
0.121136 -0.0466169 1.41402 62 63 255 
0.091679 0.419572 1.45642 255 45 41 
0.125684 0.228514 1.34219 255 68 66 
0.0518371 -0.242161 1.30188 0 0 0 
0.0594931 -0.265074 1.37038 0 0 0 
0.0995961 -0.105132 1.42189 255 81 79 
0.10712 0.443336 1.21955 1 1 2 
0.0762156 0.273956 1.47168 61 53 51 
0.0717454 0.268604 1.22226 0 0 0 
0.134903 0.0118293 1.32779 32 33 255 
0.133479 0.438689 1.26635 254 46 44 
0.162567 0.581799 1.37854 47 45 46 
0.106831 0.466943 1.21776 5 15 5 
0.0781253 -0.206602 1.38641 0 0 0 
0.0117746 -0.324869 1.44941 40 39 254 
0.0629756 0.104894 1.23343 0 0 0 
0.0634508 0.486731 1.48568 82 81 77 
0.0658587 0.19719 1.2232 0 0 0 
0.0304227 -0.367072 1.39852 0 0 0 
0.135113 0.543565 1.24089 49 50 254 
0.136039 0.528116 1.23085 70 70 254 
0.128588 0.276725 1.37996 41 39 255 
0.138147 0.302888 1.33377 72 255 80 
-0.0803315 0.0142193 1.17078 0 0 0 
0.133067 0.379486 1.28125 42 43 254 
0.142519 0.517047 1.27509 48 51 254 
0.132476 0.465514 1.2406 49 50 254 
0.0630415 -0.220948 1.4194 254 69 68 
0.0268971 -0.389531 1.39978 0 0 0 
0.0753629 0.239458 1.47166 55 51 48 
0.131534 0.41716 1.25702 38 38 38 
0.0361598 -0.354977 1.39584 0 0 0 
-0.0436996 -0.496158 1.43018 0 0 0 
0.0993498 -0.145339 1.37801 254 61 57 
0.0955037 -0.172925 1.3816 254 69 65 
0.0529387 -0.326815 1.38136 0 0 0 
0.0280685 -0.353885 1.3743 0 0 0 
-0.0187006 -0.476689 1.37409 0 0 0 
0.0793193 0.204 1.47028 61 60 58 
0.0221157 -0.368863 1.42317 0 0 0 
0.166479 0.583945 1.34839 35 254 47 
0.152192 0.578198 1.26862 68 68 66 
0.11614 -0.00442677 1.46314 61 62 255 
0.115785 0.503208 1.22041 253 49 45 
0.0907641 -0.119881 1.41148 60 254 74 
0.0264999 0.542715 1.15208 0 0 0 
-0.0148134 -0.484075 1.38354 0 0 0 
0.162787 0.595084 1.37486 254 30 29 
0.149851 0.542202 1.35211 254 53 52 
0.12152 -0.024005 1.30184 105 102 254 
0.130147 0.534281 1.41102 63 254 66 
0.0648725 0.0812591 1.23423 0 0 0 
0.112939 0.0790354 1.43538 74 255 73 
0.129864 0.256203 1.28631 0 0 0 
0.140243 0.448498 1.29694 61 59 60 
0.128253 0.621618 1.46679 52 254 50 
0.115005 -0.100095 1.38341 47 45 46 
0.0616715 0.275753 1.20845 0 0 0 
0.0297138 0.138931 1.2137 0 0 0 
-0.0858002 -0.181258 1.23211 0 0 0 
0.142507 0.00071402 1.36796 0 0 0 
0.0899944 0.450318 1.455 56 255 62 
0.143456 0.593283 1.39832 59 254 65 
-0.00286509 -0.457239 1.39417 0 0 0 
0.114132 -0.168607 1.37985 60 56 55 
0.110937 0.10997 1.36592 37 255 42 
0.127998 0.144488 1.29343 39 37 38 
0.137521 0.327537 1.30261 42 254 51 
0.0796371 -0.0918367 1.26235 0 0 0 
0.117736 0.145508 1.33608 43 41 42 
0.0767602 0.129537 1.47983 255 77 73 
0.0852827 0.553423 1.18051 58 50 142 
0.127005 0.364625 1.34023 255 52 51 
0.142798 -0.0259322 1.35136 56 254 58 
0.147955 0.02135 1.32425 55 56 255 
-0.147565 -0.263229 1.25117 0 0 0 
0.138047 0.469895 1.27582 44 45 254 
0.139932 0.466172 1.39767 40 39 37 
0.14539 0.483712 1.31269 254 52 50 
0.116866 -0.0707751 1.35127 74 254 83 
0.0757226 -0.247986 1.36667 0 0 0 
0.0331192 -0.304615 1.42184 80 254 80 
0.0982831 -0.132352 1.39174 31 254 49 
0.107074 0.24006 1.42611 45 44 42 
0.0923343 0.0477275 1.26003 92 47 49 
0.115041 -0.0871361 1.35598 55 54 52 
0.140002 0.404034 1.29612 1 5 1 
0.153426 0.482745 1.36998 67 254 59 
0.147078 0.471267 1.37205 255 50 48 
0.134717 0.112564 1.33436 255 19 19 
0.120917 0.190093 1.34947 56 54 55 
0.134701 0.36783 1.28416 0 0 0 
0.114875 0.263839 1.39239 54 50 255 
0.158002 0.568982 1.3222 58 53 254 
0.122947 0.486873 1.43047 254 60 59 
0.129424 0.366204 1.39159 60 255 62 
-0.0892187 -0.201874 1.23495 0 0 0 
0.0633953 0.144226 1.49234 76 72 71 
0.145467 0.5556 1.39334 58 54 254 
0.100038 0.203923 1.43908 40 255 43 
0.0679086 -0.262445 1.38809 66 63 46 
0.110818 0.364322 1.23259 3 2 4 
0.0937618 0.140788 1.2539 0 0 0 
0.0323414 -0.339808 1.40345 0 0 0 
0.144833 0.522275 1.35279 69 67 254 
0.132497 0.330659 1.35121 66 254 68 
0.11736 0.273517 1.39859 255 47 46 
0.10207 -0.0695994 1.4168 254 94 93 
0.0693438 -0.25668 1.37097 0 0 0 
0.124526 0.40104 1.2525 59 59 59 
0.0557714 -0.237983 1.42976 50 254 53 
0.101595 0.529467 1.45008 84 82 254 
0.0199644 0.108282 1.53491 41 42 255 
0.128213 0.545951 1.225 46 47 254 
0.103041 -0.137017 1.36251 81 254 103 
0.125194 0.281836 1.3951 255 31 30 
0.0829229 0.0802257 1.47916 24 25 255 
0.134619 0.430063 1.27655 69 254 70 
0.0741647 -0.176169 1.31391 0 0 0 
0.0639485 0.0407992 1.53628 94 255 94 
0.150278 0.5313 1.38156 254 43 42 
0.0976423 0.4491 1.21123 0 0 0 
0.192749 0.589847 1.3432 240 42 40 
0.0135227 0.0176077 1.20632 0 0 0 
0.130572 0.0660352 1.39206 57 255 66 
0.114188 0.199107 1.35678 86 87 255 
0.137841 0.346957 1.2899 69 254 64 
0.135864 0.534859 1.24983 45 46 254 
0.116147 0.0711846 1.44074 68 67 65 
0.108555 0.333008 1.43215 255 48 44 
0.135516 0.217582 1.33462 52 53 254 
0.0952601 0.332702 1.44597 56 55 53 
0.120469 -0.0709356 1.37327 55 255 47 
0.098647 0.105656 1.4499 255 43 41 
0.130799 -0.028524 1.41801 255 49 48 
-0.00484706 -0.0145362 1.19974 0 0 0 
-0.0803902 -0.103016 1.20954 0 0 0 
0.0411429 0.198928 1.21095 0 0 0 
0.199456 0.591124 1.35467 44 211 53 
0.139072 0.498758 1.26591 48 48 254 
0.0616838 0.454089 1.47586 63 59 254 
0.0472133 -0.180704 1.47368 37 255 53 
0.10709 -0.0723675 1.3354 61 59 254 
0.0963432 0.0733687 1.47114 39 255 43 
0.14639 0.542912 1.24322 45 254 46 
0.0684929 0.228177 1.22508 0 0 0 
0.117518 -0.00195419 1.27263 73 75 254 
0.13403 -0.0616835 1.36652 56 254 47 
0.147866 0.401822 1.31896 54 52 254 
-0.0341529 -0.101719 1.22616 0 0 0 
0.1427 0.467747 1.28464 48 254 44 
0.0917068 -0.0525641 1.45875 87 88 255 
0.118778 0.0939367 1.41941 0 0 0 
0.187832 0.597643 1.33145 5 4 25 
0.0893065 0.456448 1.20181 0 0 0 
0.0569411 -0.180476 1.4641 102 102 255 
0.105644 0.252224 1.41396 51 50 48 
0.145408 0.533835 1.30895 61 254 63 
0.100426 0.306299 1.42868 255 39 35 
0.101079 0.176911 1.25018 1 0 0 
0.121077 0.0750459 1.36172 73 69 66 
0.130848 0.322766 1.35638 255 57 55 
0.0637427 0.174884 1.22448 0 0 0 
0.0814033 -0.254143 1.37748 1 1 1 
0.0712348 0.578929 1.16732 0 0 0 
0.095913 -0.0952711 1.41884 56 54 254 
0.121413 0.109106 1.35694 64 64 64 
0.110201 0.115828 1.28448 46 48 254 
0.118073 0.468558 1.23146 57 57 254 
0.0612145 -0.305555 1.36759 0 0 0 
0.144454 0.00507492 1.42286 255 28 26 
0.129747 0.179001 1.29865 0 0 0 
0.189889 0.595872 1.3628 239 64 60 
0.115816 -0.0897322 1.3834 71 72 254 
0.144156 0.381331 1.33006 255 49 48 
0.117622 0.407051 1.2352 55 57 255 
0.140518 0.379639 1.29657 55 54 52 
0.105464 -0.0647181 1.31822 66 254 66 
0.00247449 0.10331 1.53508 59 59 59 
0.0791491 -0.189879 1.32946 0 0 0 
0.117791 0.538274 1.21068 48 46 47 
0.137765 0.408248 1.27232 42 254 49 
0.148023 0.618136 1.44457 48 49 44 
0.130012 -0.036893 1.36023 37 255 36 
0.0660359 -0.138463 1.46744 45 255 54 
0.107166 0.340958 1.23139 2 0 1 
0.0501889 0.0658794 1.22975 0 0 0 
0.149335 0.543631 1.39448 66 64 254 
0.148896 0.588908 1.20747 0 0 0 
0.129754 0.436982 1.33462 75 255 71 
0.0643856 0.0382301 1.23282 0 0 0 
0.128871 0.342294 1.2732 0 0 0 
0.132484 0.3661 1.26276 46 254 47 
0.102582 -0.10297 1.39631 43 254 46 
0.128928 0.0513898 1.41533 254 50 48 
0.132366 0.46811 1.25229 50 50 50 
0.124505 0.297048 1.26391 44 44 44 
0.0834727 0.462082 1.19756 0 0 0 
0.0360482 0.538264 1.15743 0 0 0 
0.0560165 0.249022 1.21277 0 0 0 
0.124113 0.0484462 1.43525 30 28 255 
0.168776 0.60769 1.41272 68 68 66 
0.0979451 0.514873 1.2085 21 20 85 
0.0217582 -0.330714 1.41927 0 0 0 
0.134944 0.0520135 1.34544 0 0 0 
0.0792384 -0.151139 1.4373 80 76 255 
0.134596 0.0223645 1.40062 254 54 52 
0.127997 0.506082 1.4267 77 254 81 
-0.000149083 -0.0596438 1.50035 63 62 58 
0.136623 -0.00922235 1.31279 51 49 50 
0.0441554 -0.322828 1.3663 0 0 0 
0.152235 0.323657 1.31657 29 29 29 
0.165698 0.562185 1.30484 57 254 59 
0.123747 0.324561 1.30213 254 48 46 
0.111152 0.166688 1.27959 15 254 15 
0.0538344 0.141818 1.22538 0 0 0 
0.170874 0.591148 1.25494 0 1 0 
0.159249 0.0015109 1.35452 82 82 254 
0.0774326 0.347384 1.21123 0 0 0 
0.109275 -0.049058 1.29629 88 87 83 
0.00631684 0.023181 1.54964 75 74 72 
0.175673 0.59619 1.26595 1 0 0 
0.11226 0.268783 1.24637 0 0 0 
0.0729719 -0.199585 1.40347 49 45 44 
0.0517727 -0.30648 1.37045 0 0 0 
0.0406916 0.4453 1.17861 0 0 0 
0.103232 0.568436 1.19435 75 73 249 
0.129921 0.0453369 1.41405 0 0 0 
0.150637 0.531363 1.36129 254 54 52 
0.154385 0.592608 1.23653 3 0 0 
0.092777 0.326244 1.23111 0 0 0 
0.0606225 -0.296234 1.34716 0 0 0 
0.122021 0.163614 1.31253 40 254 42 
0.0715495 0.244592 1.22354 0 0 0 
0.0414955 -0.318139 1.41098 0 0 0 
0.0802924 -0.222196 1.34584 0 0 0 
0.1115 0.0190793 1.46084 255 109 109 
0.12869 0.341829 1.38395 47 48 254 
0.124897 0.0964579 1.39714 62 63 255 
0.0886683 0.470874 1.19986 0 0 0 
0.125997 0.124066 1.38866 72 72 74 
-0.0126083 0.257371 1.19026 0 0 0 
0.0700429 0.530369 1.17491 0 0 0 
0.0594664 0.266039 1.21072 0 0 0 
0.14269 -0.0076796 1.2996 28 27 25 
0.148385 0.526646 1.28946 54 254 67 
0.101523 -0.15785 1.3686 254 64 62 
0.0408727 0.218526 1.49047 54 53 51 
0.1045 0.0961578 1.43908 255 53 51 
0.143919 0.435158 1.29199 254 49 47 
0.116614 0.403437 1.42042 50 255 59 
0.138136 0.288132 1.29082 254 70 68 
0.0677868 0.504964 1.18226 0 0 0 
0.09144 0.383498 1.44997 48 44 255 
0.136596 0.388371 1.29502 56 56 56 
0.135391 0.5238 1.24059 51 254 40 
0.14633 0.463399 1.30946 23 24 254 
0.125388 0.350678 1.25891 52 52 254 
0.106955 -0.0325378 1.45889 75 73 255 
0.107475 0.594858 1.19479 0 0 1 
0.122028 0.0958484 1.40317 57 60 254 
0.0979854 -0.213824 1.35528 48 33 35 
0.136462 0.07909 1.33934 0 0 0 
0.128911 0.38346 1.26486 45 43 254 
0.131696 0.306769 1.28091 0 0 0 
-0.0853055 -0.193313 1.23869 0 0 0 
0.0864359 -0.196046 1.34773 87 85 253 
0.10778 0.249464 1.43765 58 255 54 
0.127079 0.0669135 1.36268 32 32 251 
0.0700866 0.5538 1.48158 43 41 254 
-0.0111761 0.537039 1.52107 68 66 254 
0.0274008 -0.351932 1.4226 0 0 0 
0.0821284 -0.108581 1.43946 0 0 0 
0.108025 0.159326 1.37648 60 56 57 
0.145218 0.0111181 1.40004 69 70 255 
0.0899828 -0.186256 1.39217 64 254 83 
0.0554077 -0.297436 1.37653 0 0 0 
0.108142 0.490493 1.21817 52 221 65 
0.122835 0.55719 1.44112 61 60 58 
0.0868344 0.169625 1.46323 49 47 255 
0.16053 0.592669 1.40217 33 34 254 
0.0728653 -0.135225 1.44732 255 45 43 
0.111287 0.453776 1.4249 54 255 73 
0.127211 0.29217 1.35726 41 41 255 
0.0707929 0.315984 1.21919 0 0 0 
0.173924 0.592615 1.32782 255 81 78 
0.101351 0.358593 1.43605 49 255 54 
0.0935394 0.0171525 1.25883 70 79 110 
0.136257 0.474992 1.39821 62 60 61 
0.0514272 -0.259407 1.41533 65 62 57 
0.106637 0.443679 1.44029 65 60 54 
0.124867 0.380174 1.37503 47 255 52 
0.0845085 0.611529 1.5006 52 254 53 
0.106811 0.390569 1.434 55 54 52 
0.105756 0.166535 1.34448 46 255 50 
-0.050047 -0.125122 1.23051 0 0 0 
0.0168315 -0.40466 1.38917 0 0 0 
0.138131 0.342277 1.32127 0 0 0 
0.101258 -0.0819429 1.26718 0 0 0 
0.15876 0.578275 1.3465 36 37 254 
0.0962715 0.302054 1.44474 255 44 40 
0.0461739 0.255611 1.21136 0 0 0 
0.11596 0.53372 1.21927 40 254 47 
0.0280907 -0.215433 1.48062 254 36 30 
0.0891399 -0.0858752 1.43197 37 33 34 
0.078255 -0.213952 1.31101 0 0 0 
-0.0437167 -0.110524 1.23015 0 0 0 
0.1227 -0.0582715 1.35754 58 254 53 
0.167724 0.59003 1.29513 246 77 73 
0.139256 0.233828 1.36349 49 50 255 
0.0633145 -0.27753 1.38822 2 1 2 
0.134328 0.437121 1.36578 254 84 82 
0.142667 0.435745 1.33834 73 73 255 
0.156004 0.549065 1.30297 56 54 55 
0.0496177 -0.290416 1.41384 77 73 70 
0.132682 0.396912 1.27902 50 51 254 
0.0384636 0.166105 1.21557 0 0 0 
0.127681 0.61338 1.42661 30 28 29 
0.0957893 0.166725 1.25432 0 0 0 
0.0834767 -0.11282 1.42499 59 60 255 
0.0576398 -0.27073 1.35023 0 0 0 
0.129809 0.101974 1.3433 76 74 75 
0.075012 -0.113678 1.46344 52 52 255 
0.145798 0.418688 1.32463 31 29 254 
0.129228 0.472001 1.41351 255 61 60 
0.0558148 0.0892377 1.23011 0 0 0 
0.094541 0.263353 1.44525 67 65 66 
0.0125978 0.000674206 1.20474 0 0 0 
0.149771 0.592336 1.24966 3 24 3 
0.143384 -0.0225661 1.378 107 106 102 
0.0519402 -0.216975 1.45525 31 254 30 
0.111512 0.471434 1.44398 255 73 72 
0.120601 0.142832 1.38268 38 37 35 
0.121515 0.070551 1.41118 40 38 254 
0.05376 0.165023 1.22747 0 0 0 
0.129477 0.374905 1.30509 53 255 62 
0.09533 0.486431 1.43752 55 255 52 
0.103184 0.415979 1.22175 0 0 0 
0.0875458 0.237209 1.45557 56 255 55 
0.0986258 0.0887057 1.29573 81 81 81 
0.124658 0.55761 1.22326 76 71 254 
0.0559153 0.145643 1.23502 0 0 0 
-0.041308 -0.150992 1.24114 0 0 0 
0.136501 0.25552 1.31845 28 31 166 
0.133352 0.328075 1.29047 54 57 254 
0.174834 0.489195 1.30398 65 63 64 
0.0203319 -0.357539 1.36347 0 0 0 
-0.0607194 -0.546471 1.36867 0 0 0 
0.105905 0.0688026 1.46514 23 21 255 
0.161071 0.570106 1.30779 63 61 254 
0.0928114 -0.165892 1.33765 59 57 253 
0.097942 0.155624 1.25315 0 0 0 
0.106761 -0.0484147 1.30857 254 134 130 
0.136858 0.0239741 1.37584 55 54 52 
0.133476 0.185 1.30798 37 32 254 
-0.0325798 -0.55513 1.44957 0 0 0 
0.14593 0.4682 1.35187 254 25 23 
-0.0623579 -0.285755 1.27247 0 0 0 
0.13568 0.210364 1.31285 53 254 57 
0.108183 -0.00232234 1.24879 51 255 59 
0.127544 0.304727 1.27143 30 26 23 
-0.0954775 -0.598376 1.4295 0 0 0 
-0.0302671 0.0688388 1.39915 20 18 254 
-0.0504902 -0.605137 1.42862 0 0 0 
0.117099 0.336186 1.41965 54 254 54 
0.101059 0.0517698 1.47572 39 254 46 
0.113792 0.342037 1.42846 84 82 254 
0.180312 0.630783 1.33514 0 0 0 
0.1327 0.543272 1.40677 56 254 58 
0.127253 0.478864 1.4202 77 74 69 
0.115757 0.134548 1.42572 0 0 0 
0.129653 0.223536 1.3684 60 58 59 
0.124996 0.135009 1.39761 71 69 255 
0.124881 0.110282 1.40124 41 39 40 
0.123906 0.194167 1.40676 48 255 54 
0.0930864 0.321073 1.45482 254 56 55 
0.118653 0.12505 1.42251 54 53 51 
0.06527 -0.125241 1.46953 254 54 52 
0.110447 -0.0559673 1.41382 72 73 254 
0.0674578 -0.110303 1.47301 0 0 0 
0.0513526 -0.264452 1.40769 0 0 0 
0.108175 -0.108888 1.3793 76 50 52 
0.134607 0.37595 1.33997 39 40 254 
0.135651 0.219052 1.34119 64 254 48 
0.11905 0.379401 1.41514 43 254 38 
0.144264 0.4541 1.32229 254 34 32 
0.0852371 -0.18583 1.37185 0 0 0 
0.118574 0.0164731 1.44674 254 63 63 
0.0882731 -0.0418504 1.47501 107 255 76 
0.134321 0.431367 1.37168 59 55 254 
0.11394 0.121573 1.43135 255 29 28 
0.0920864 0.0969973 1.46972 56 57 254 
0.119808 0.436251 1.41533 254 68 64 
0.140737 0.235899 1.33348 38 40 254 
0.103811 0.410936 1.44191 80 77 70 
0.122087 0.169625 1.40696 47 46 44 
0.0458508 -0.239965 1.43556 0 0 0 
0.116011 0.15943 1.26799 0 0 0 
0.13781 0.191182 1.33213 71 69 70 
0.116626 0.460811 1.43093 254 69 68 
0.0746114 -0.207806 1.38691 0 0 0 
0.0697132 -0.166872 1.42824 71 254 73 
0.0655836 -0.244104 1.38894 0 0 0 
0.155976 0.554744 1.32038 69 67 254 
0.128072 -0.0171494 1.421 254 49 48 
0.175307 0.619372 1.35504 42 8 8 
0.127888 0.11504 1.3758 0 0 0 
0.132568 0.0721552 1.32364 0 0 0 
0.13399 0.406513 1.34224 54 55 253 
0.0765054 -0.155486 1.42504 24 21 254 
0.0638655 -0.157304 1.45475 254 100 82 
0.172959 0.624749 1.36718 5 6 4 
0.0875062 -0.151849 1.39714 245 47 46 
0.121228 0.150539 1.40801 45 255 35 
0.132588 0.30387 1.34287 254 57 56 
0.131182 0.277175 1.34898 58 57 55 
0.111492 0.277857 1.43289 9 9 9 
0.129959 0.00386716 1.42721 64 64 64 
0.0465534 -0.275424 1.40767 0 0 0 
0.174899 0.608204 1.36359 56 55 52 
0.132008 0.321452 1.37869 41 39 254 
0.083113 0.335268 1.46385 66 64 254 
0.127454 0.245986 1.39129 254 51 49 
0.0430275 -0.264377 1.4283 0 0 0 
0.137671 0.600136 1.41769 50 254 55 
0.10105 0.0959533 1.45592 70 70 254 
0.0846686 -0.168778 1.39821 125 132 139 
0.127096 0.19161 1.3877 81 79 255 
0.12599 0.258343 1.39642 71 69 70 
0.114263 0.318619 1.40928 255 48 44 
0.178174 0.634243 1.37176 0 0 0 
0.136216 0.4184 1.32342 44 42 43 
0.136247 0.13673 1.32694 63 34 36 
0.146288 0.575231 1.39419 31 254 34 
0.12874 0.122739 1.3608 21 20 18 
0.0403439 -0.219456 1.46241 33 254 46 
0.17857 0.614181 1.31822 0 0 0 
0.115676 0.25846 1.40935 40 39 255 
0.16414 0.597682 1.33064 33 30 254 
0.153035 0.590001 1.37913 49 45 254 
0.0835718 -0.0958978 1.44283 58 254 64 
0.117187 0.175289 1.42179 68 67 65 
0.0296014 -0.215574 1.48743 254 58 57 
0.119359 -0.038403 1.40397 80 254 86 
0.156568 0.567901 1.34205 55 54 50 
0.0752598 -0.0758423 1.47696 36 37 255 
0.114524 0.278688 1.40678 42 254 41 
0.131644 0.358689 1.37689 65 64 62 
0.152009 0.56096 1.36097 43 44 254 
0.126066 0.100372 1.38341 254 43 43 
0.114509 0.151107 1.42938 72 70 255 
0.104241 0.280379 1.44522 255 62 61 
0.115322 0.35704 1.423 56 55 51 
0.14351 0.480884 1.37546 62 254 65 
0.080002 -0.1955 1.37136 0 0 0 
0.0991366 -0.09648 1.33982 0 0 0 
0.135923 0.452014 1.37507 51 254 59 
0.136195 0.423732 1.36024 254 49 48 
0.112008 0.0550293 1.45813 254 59 55 
0.146752 0.504895 1.33077 254 60 58 
0.100423 -0.126783 1.36149 0 0 0 
0.145486 0.52866 1.34575 254 59 57 
0.138974 -0.0109537 1.37206 63 254 69 
0.126266 0.0736047 1.42419 60 59 57 
0.135961 0.262547 1.30433 0 0 0 
0.133406 0.340092 1.35726 59 57 254 
0.113127 -0.0895685 1.36975 13 8 9 
0.129094 0.241766 1.36814 79 76 254 
0.129153 0.213915 1.36045 78 77 73 
0.141378 0.54075 1.38519 50 48 254 
0.112732 -0.0152626 1.45428 255 73 71 
0.119693 0.289846 1.39995 0 0 0 
0.0655966 -0.217638 1.40754 0 0 0 
0.121507 0.205068 1.40526 254 27 25 
0.160677 0.597506 1.3484 27 254 34 
0.139861 0.485168 1.39305 67 67 67 
0.129617 0.0328672 1.42853 79 254 69 
0.0700952 -0.153911 1.44001 82 254 98 
0.0976856 0.182623 1.4568 61 58 254 
-0.138996 -0.632299 1.41216 0 0 0 
0.129202 0.228696 1.35231 57 63 226 
0.147323 0.479184 1.35434 254 75 74 
0.127873 0.205749 1.38209 50 49 47 
0.150173 0.554886 1.3555 1 5 1 
0.126613 0.391826 1.26746 0 0 0 
0.0664591 -0.17251 1.43487 55 254 70 
0.124643 0.247938 1.40135 72 71 255 
0.14628 0.512946 1.34668 49 47 48 
0.0619084 -0.19482 1.43198 254 58 58 
0.0782333 -0.206797 1.37254 0 0 0 
0.136506 0.441512 1.35276 72 254 69 
-0.0520403 -0.581049 1.43728 0 0 0 
0.176464 0.60395 1.34374 33 28 24 
-0.040403 -0.500214 1.43903 0 0 0 
-0.0526276 -0.64287 1.41573 0 0 0 
-0.100409 0.00940649 1.15445 0 0 0 
-0.0225372 -0.00336487 1.33641 53 50 254 
-0.0507573 -0.655909 1.41836 0 0 0 
-0.0522273 -0.680382 1.41757 0 0 0 
-0.0446316 -0.571532 1.41192 0 0 0 
0.118173 0.621779 1.47319 40 39 254 
0.0613048 0.476865 1.48467 67 254 60 
0.0699309 0.404947 1.47623 255 88 83 
0.0500911 0.472073 1.49098 65 255 78 
-0.0774441 -0.186873 1.53535 51 255 62 
0.14294 0.64988 1.47331 2 0 0 
0.0550782 0.0019096 1.5237 77 75 78 
0.0498645 0.380421 1.48943 255 79 75 
0.0678789 0.33009 1.47828 61 59 254 
0.0594239 0.504521 1.48347 255 65 64 
-0.0668353 -0.693303 1.39791 0 0 0 
0.133571 0.130674 1.34948 0 0 0 
0.0450771 0.477556 1.49739 76 75 73 
0.130138 0.111268 1.35167 1 3 2 
0.0507555 0.509832 1.49196 255 47 43 
0.115327 0.296371 1.4123 255 79 75 
0.0742172 0.468268 1.47646 255 77 73 
0.0980285 0.286648 1.44921 48 254 52 
0.0855396 0.312693 1.46358 34 254 34 
0.0688667 0.392306 1.47556 254 49 48 
0.131629 0.245762 1.3422 0 0 0 
0.141883 -0.0135731 1.33152 0 0 0 
0.112666 -0.0273023 1.42957 85 86 254 
0.137871 0.4678 1.38274 62 60 254 
0.113016 0.327332 1.41872 0 0 0 
0.133472 0.594613 1.41663 53 49 50 
0.104762 -0.0554418 1.42484 71 254 82 
0.0767886 -0.0973558 1.45922 0 0 0 
0.0852032 0.0686525 1.49646 255 41 39 
0.080809 0.30638 1.47027 254 79 75 
0.07741 0.260854 1.47525 67 63 62 
0.0828526 0.0876438 1.48307 255 72 71 
0.0720705 0.130849 1.48735 58 53 49 
0.052422 -0.208555 1.44407 43 44 254 
0.0668275 0.351031 1.48122 82 81 77 
0.0849025 0.506792 1.46407 255 69 66 
0.130438 0.620148 1.45841 25 254 29 
0.100497 0.0331757 1.47826 65 63 255 
0.0323672 0.466997 1.49674 79 78 73 
0.136882 0.123542 1.34215 0 0 0 
0.082208 0.29054 1.4679 66 63 254 
0.0215699 0.523212 1.50556 63 255 72 
-0.0139888 -0.218489 1.51484 54 254 60 
0.018604 0.394967 1.503 254 83 80 
0.0554312 0.069799 1.51813 27 25 255 
0.0381661 -0.264552 1.43935 0 0 0 
0.110229 0.438829 1.42877 71 70 66 
0.0820673 -0.208511 1.34746 0 0 0 
0.0898345 0.0481603 1.48935 80 255 64 
0.0592107 0.412121 1.48182 254 77 73 
0.058545 0.322639 1.48723 91 90 86 
0.0202029 0.0907342 1.52296 52 51 49 
0.10183 0.212607 1.44743 63 61 255 
0.138581 0.407753 1.32775 11 8 25 
0.141418 0.301108 1.31983 0 0 0 
0.0676258 0.521331 1.47877 69 64 255 
0.0494094 0.521773 1.48959 71 68 63 
0.130094 -0.0243177 1.4013 78 78 254 
0.0773419 0.520066 1.47413 69 65 62 
0.0259587 0.490091 1.5035 70 66 255 
0.114989 0.472385 1.43501 49 254 69 
0.0968373 -0.0409145 1.46057 66 67 254 
0.057933 0.396879 1.48238 63 62 58 
0.0588484 0.276206 1.48852 254 90 86 
0.0968172 -0.0300343 1.46936 55 56 254 
0.130427 0.170144 1.3495 0 0 0 
0.108977 0.167879 1.43726 64 61 255 
0.055681 -0.14635 1.47934 48 48 48 
0.0888129 0.105003 1.47407 69 67 255 
0.132729 0.0894568 1.35134 0 0 0 
0.0803894 -0.0564527 1.48316 33 32 255 
0.0798657 0.492678 1.472 254 74 73 
0.10009 0.312947 1.44886 47 254 60 
0.13861 0.182288 1.34265 0 0 0 
-0.0506533 -0.563109 1.44748 0 0 0 
0.118884 -0.0305307 1.42235 81 79 80 
0.158585 0.601159 1.28552 8 8 8 
0.117165 0.187354 1.41332 255 43 45 
0.126069 0.440905 1.40028 55 54 52 
0.0078789 -0.371825 1.437 0 0 0 
0.0906857 0.22545 1.46305 254 72 68 
0.0725269 0.201205 1.48229 90 254 106 
0.142213 0.261534 1.33262 0 0 0 
0.0866336 0.178945 1.46937 19 255 43 
0.127271 0.176731 1.37308 30 30 254 
0.0607555 0.0691388 1.50608 50 255 54 
0.0811398 0.325702 1.4687 72 69 254 
0.0206259 0.452536 1.49429 53 53 43 
0.100655 -0.0868684 1.41378 254 62 60 
-0.00878495 -0.324537 1.46459 1 2 1 
0.130556 0.187005 1.34567 0 0 0 
0.0357315 -0.324433 1.40017 0 0 0 
0.0938386 -0.0724306 1.43619 70 254 87 
0.0553195 -0.27583 1.39081 0 0 0 
0.0803653 0.571135 1.4819 39 39 37 
0.079232 0.18929 1.47569 55 254 65 
0.128416 0.48606 1.2545 0 0 0 
0.108272 0.566432 1.45306 43 42 37 
0.0953969 0.104772 1.46261 254 68 66 
-0.00124153 -0.0659132 1.5211 72 255 60 
0.101197 0.378697 1.4436 254 71 70 
0.0854007 -0.101328 1.43316 254 58 56 
0.0918912 0.135201 1.46523 68 255 70 
0.095787 0.0833393 1.46189 255 49 48 
0.154755 0.620396 1.42313 49 44 254 
0.10504 0.400377 1.43919 45 44 40 
0.091151 -0.0552113 1.44218 254 65 64 
0.0265839 -0.285166 1.45636 0 1 1 
0.132529 0.358716 1.33679 167 35 35 
0.00289918 -0.241994 1.48371 38 34 254 
0.124019 0.515508 1.41875 50 254 58 
0.076778 0.225257 1.47593 62 58 55 
0.0557134 -0.25307 1.40593 0 0 0 
0.0767674 0.286606 1.47624 71 67 254 
0.0760627 0.410169 1.46714 35 30 254 
0.0273563 -0.0187826 1.52565 67 65 255 
0.128497 0.272341 1.27965 0 0 0 
0.138099 0.12244 1.31727 0 0 0 
0.130279 -0.00651929 1.41812 99 95 94 
0.0785658 -0.182824 1.39958 0 0 0 
-7.1327e-05 -0.288332 1.46907 41 39 253 
0.124086 0.248213 1.26929 0 0 0 
0.0635084 -0.134626 1.46816 94 93 91 
0.0499307 0.415237 1.48615 81 254 96 
0.0635951 -0.232974 1.4018 0 0 0 
0.10635 0.61952 1.48445 254 50 48 
0.0658282 0.36418 1.48108 77 73 255 
0.143549 0.353685 1.32834 0 0 0 
0.0593225 0.0338398 1.51363 48 46 49 
0.0172695 0.290769 1.51 37 254 63 
0.0221672 -0.359931 1.40941 0 0 0 
0.100362 0.137561 1.45975 74 73 68 
0.06836 -0.233316 1.39149 0 0 0 
