ply                 
format ascii 1.0    
element vertex 1331
property float x    
property float y    
property float z    
property uchar red  
property uchar green
property uchar blue 
end_header          
0.0536482 0.261853 1.20317 0 0 0 
0.0719901 -0.157288 1.32197 254 81 80 
0.0975751 0.590495 1.17531 0 2 0 
0.135346 0.051715 1.35591 24 254 26 
0.141257 0.378535 1.3131 254 45 43 
0.0478245 -0.134692 1.47866 114 110 107 
0.00510129 -0.0592019 1.21707 0 0 0 
0.131412 0.26284 1.29001 254 53 45 
0.129352 0.320958 1.26927 254 50 49 
0.121976 0.278637 1.26269 44 28 29 
0.116512 0.247815 1.25519 25 23 254 
0.115276 -0.0628629 1.3582 58 254 68 
0.0168066 -0.320578 1.33373 0 0 0 
-0.0205089 -0.00317606 1.57364 70 69 67 
0.1092 0.0976063 1.45625 59 57 58 
0.0315124 -0.270753 1.33181 0 0 0 
0.054312 0.121703 1.21693 72 252 76 
0.100364 0.266809 1.23762 254 46 46 
-0.0560873 -0.599182 1.39389 0 0 0 
0.0260122 -0.339837 1.36901 0 0 0 
0.0869656 0.486916 1.19854 254 44 42 
0.104392 0.391386 1.22172 48 47 45 
-0.00351052 -0.00314255 1.14157 0 0 0 
-0.191133 0.0949785 1.2422 0 0 0 
-0.0694777 0.00261192 1.19842 0 0 0 
0.0654216 0.523065 1.17778 54 254 56 
0.0246644 0.140009 1.19887 0 0 0 
-0.142189 -0.0867301 1.39206 78 79 84 
0.0253403 -0.273326 1.31861 0 0 0 
0.124755 0.0622829 1.42482 68 64 65 
0.0301449 -0.256285 1.30755 0 0 0 
0.135956 0.430035 1.34994 43 254 42 
0.00943204 -0.338705 1.3432 0 0 0 
0.130562 0.254309 1.36134 47 255 43 
-0.0137416 0.0911863 1.52064 41 255 51 
0.064177 -0.191419 1.31583 83 84 255 
0.0262141 -0.344469 1.38358 0 0 0 
0.0882154 -0.0446799 1.25893 71 254 82 
0.130019 0.0151844 1.41475 37 255 62 
0.13151 -0.0136378 1.32496 66 254 84 
-0.0577496 -0.628094 1.4173 0 0 0 
0.125726 -0.0291343 1.34135 37 32 254 
0.0332763 -0.286332 1.35357 0 0 0 
0.133413 0.397158 1.36535 37 254 32 
0.136769 0.178018 1.33016 254 36 36 
0.144629 0.479859 1.36395 49 47 48 
0.115678 0.0628781 1.42076 42 40 41 
-0.113629 -0.286391 1.28853 0 0 0 
-0.00438567 -0.385763 1.35141 0 0 0 
0.0179841 -0.305392 1.32798 0 0 0 
-0.0198555 -0.0907707 1.22481 0 0 0 
0.0468711 -0.289256 1.38035 0 0 0 
0.0845125 -0.165291 1.36289 68 67 65 
0.0122853 -0.376871 1.37574 0 0 0 
0.139167 0.413916 1.29225 44 45 254 
0.117968 -0.0541042 1.3597 89 88 84 
0.135839 0.0502157 1.37881 254 58 54 
-0.0203566 -0.158875 1.24393 0 0 0 
0.00577994 -0.382811 1.36564 0 0 0 
0.131535 0.377304 1.34981 36 34 254 
0.0547497 -0.266261 1.38264 89 242 77 
-0.00152829 -0.374692 1.3454 0 0 0 
0.133898 0.063311 1.33149 254 34 34 
0.0192827 -0.33253 1.34713 0 0 0 
0.0504283 -0.276602 1.37468 2 2 1 
0.138458 0.537645 1.27293 37 38 254 
-0.0405803 -0.376944 1.32395 0 0 0 
0.142201 0.462233 1.36169 254 33 31 
0.119539 0.128465 1.40478 70 68 69 
0.125055 0.134546 1.38575 35 35 254 
0.0113726 -0.0829743 1.23117 0 0 0 
0.00479927 -0.217273 1.28141 0 0 0 
-0.0380506 -0.59086 1.38936 0 0 0 
0.132599 0.365521 1.34942 38 36 254 
0.129482 0.173277 1.36373 24 24 254 
0.135653 0.0265002 1.36284 254 64 62 
0.0407342 -0.289305 1.36521 0 0 0 
0.131226 0.0425656 1.31744 254 45 41 
0.133531 0.146175 1.34352 45 254 50 
0.0236636 -0.293613 1.32531 0 0 0 
0.116625 0.0748875 1.41526 68 67 65 
0.0264274 -0.319499 1.36476 0 0 0 
0.00473398 -0.35689 1.35152 0 0 0 
0.0404706 -0.22459 1.30662 0 0 0 
0.135025 0.120932 1.33206 30 30 254 
0.0565333 -0.110195 1.48341 41 37 36 
0.0738229 0.156428 1.22876 234 39 39 
0.121593 0.127935 1.2845 45 47 254 
-0.0267378 -0.385679 1.33371 0 0 0 
0.130683 0.128025 1.31625 7 5 8 
0.136852 0.307177 1.30288 49 47 254 
0.033386 -0.300319 1.36406 0 0 0 
0.0131808 -0.365986 1.36644 0 0 0 
0.0257205 -0.216051 1.28641 0 0 0 
0.127915 0.146775 1.36919 254 23 21 
0.13719 0.274407 1.30453 254 44 43 
0.131716 0.418652 1.38302 40 254 45 
0.038416 -0.0330942 1.20659 0 0 0 
0.135599 0.0316144 1.40158 255 45 43 
0.113106 0.400048 1.23554 254 44 43 
0.108223 0.18661 1.43332 255 36 32 
0.0302208 -0.263742 1.31707 0 0 0 
0.146552 0.470715 1.34249 41 42 254 
0.138755 0.364074 1.31044 44 254 22 
0.135243 0.0746009 1.33698 24 22 23 
0.110561 -0.0733336 1.36389 19 17 255 
0.101071 -0.0110339 1.30238 254 76 74 
0.131991 0.0830556 1.32179 47 254 22 
0.128323 0.103319 1.37251 255 28 28 
0.0547719 -0.255442 1.36296 3 5 3 
0.132458 0.460296 1.3901 56 254 53 
-0.0031814 -0.181954 1.26346 0 0 0 
0.134317 0.0408141 1.39171 52 50 51 
0.0845243 -0.173333 1.37012 21 19 254 
0.00228547 -0.362209 1.34074 0 0 0 
0.0996583 0.0946499 1.24676 58 254 48 
0.108497 -0.0377127 1.30457 254 90 86 
0.135612 0.0448189 1.35902 52 55 254 
0.0330035 -0.245468 1.3157 0 0 0 
-0.0258324 -0.327182 1.31001 0 0 0 
0.122855 0.0752405 1.40402 73 69 70 
0.124442 0.0478646 1.42225 80 255 69 
0.0823635 -0.168984 1.35306 254 46 45 
0.0235853 -0.307978 1.34512 0 0 0 
0.132869 0.050659 1.39959 22 255 45 
-0.0331147 -0.347871 1.3145 0 0 0 
0.126048 0.129436 1.37244 30 254 32 
-0.0290335 -0.483909 1.37562 0 0 0 
0.0741982 -0.107551 1.30267 31 30 28 
-0.0112943 -0.241317 1.28081 0 0 0 
0.143514 0.490259 1.3593 30 254 28 
0.132499 0.401869 1.35233 52 51 49 
0.127655 0.280501 1.36098 254 4 2 
0.0650651 -0.171782 1.30509 141 74 77 
0.130394 0.0147706 1.40381 255 24 23 
0.0942091 -0.123658 1.35069 95 91 90 
0.141014 0.369034 1.33452 36 35 33 
0.137952 0.282144 1.31629 254 27 25 
0.0775562 -0.0528695 1.26145 93 255 99 
0.0455914 -0.17923 1.29128 0 0 0 
0.139794 0.313078 1.31922 59 254 53 
0.026585 -0.310361 1.35759 0 0 0 
-0.0487055 -0.181611 1.24459 0 0 0 
0.112925 -0.0315017 1.27518 58 254 51 
0.142432 0.500647 1.31833 36 254 37 
0.0359867 -0.312208 1.38094 0 0 0 
0.133318 0.441092 1.37602 57 56 54 
0.140116 0.279628 1.32898 254 45 43 
0.0964091 0.0382707 1.26539 64 254 50 
0.0222895 -0.0940223 1.24452 0 0 0 
0.0602007 0.0702963 1.21779 0 0 0 
0.130235 0.295345 1.37189 28 26 27 
0.144975 0.488821 1.34119 39 254 40 
0.0878028 -0.0700884 1.30513 59 57 60 
0.130149 0.239292 1.35693 35 35 35 
0.0855227 -0.145898 1.34859 59 58 56 
0.153747 0.584134 1.37037 254 48 48 
0.0851256 -0.17318 1.38516 40 254 49 
0.125199 0.050951 1.40594 22 255 45 
0.125134 0.0865574 1.3962 80 255 66 
0.0194983 -0.286641 1.31246 0 0 0 
0.0219166 -0.319071 1.3559 0 0 0 
0.0138191 -0.371738 1.38676 0 0 0 
0.077245 -0.141934 1.33629 254 44 43 
0.0680205 -0.232335 1.31715 63 253 68 
0.0832045 -0.189395 1.35743 254 117 113 
0.0789954 0.029227 1.50521 48 49 255 
-0.0349708 -0.521834 1.40445 0 0 0 
0.126849 0.0712927 1.39687 52 52 255 
0.132884 0.380144 1.28783 16 254 23 
0.0876759 -0.0810825 1.31312 254 118 117 
0.156877 0.585741 1.35636 37 38 254 
0.12506 0.0525637 1.30045 13 13 254 
0.0851146 -0.068442 1.29292 59 59 254 
0.0320494 -0.316694 1.40856 1 2 1 
0.0669816 -0.116222 1.27743 0 0 0 
0.118885 -0.036834 1.35417 57 54 49 
0.139307 0.44655 1.29425 254 50 48 
0.123667 0.372562 1.40076 50 49 47 
0.122171 0.153654 1.2896 47 254 52 
0.0534751 -0.128434 1.48117 255 51 50 
0.147892 0.540259 1.35399 37 38 254 
0.13319 0.011943 1.38593 35 255 35 
0.133423 0.558263 1.41732 254 51 49 
0.125798 0.160663 1.37384 28 254 29 
0.111135 -0.0488712 1.33134 72 254 98 
0.125953 0.0877504 1.3744 254 17 15 
0.0703462 -0.245629 1.33411 11 11 12 
0.138884 0.390334 1.30161 37 254 35 
0.0598817 -0.122643 1.26828 0 0 0 
0.112477 0.0232077 1.27359 47 254 39 
0.125681 0.0752369 1.37225 19 255 19 
0.140387 0.331164 1.31048 25 254 37 
0.110868 0.321836 1.42743 12 11 9 
-0.032935 -0.497671 1.43483 0 0 0 
-0.00760101 -0.324229 1.32089 0 0 0 
0.127075 0.168968 1.38138 42 255 49 
0.0914624 -0.103779 1.41147 33 28 255 
0.152922 0.572245 1.28309 254 40 36 
0.136717 0.0188459 1.3652 254 50 48 
0.124989 0.0694785 1.37732 45 255 35 
0.130945 0.0533621 1.31859 17 254 19 
0.0915638 -0.0490644 1.44925 255 31 30 
0.0734297 -0.166771 1.33043 75 73 254 
-0.0198134 -0.20338 1.26534 0 0 0 
-0.0352841 -0.397903 1.33368 0 0 0 
0.143896 0.485271 1.32011 254 41 39 
0.124926 0.214696 1.27921 40 18 21 
0.0262246 0.185994 1.19198 0 0 0 
0.0091949 -0.314711 1.31881 0 0 0 
0.144249 0.545984 1.27274 39 40 254 
0.125414 -0.0363806 1.34797 111 106 254 
0.112685 0.145127 1.2527 55 254 60 
0.0207275 -0.368138 1.39717 0 0 0 
0.0769437 -0.173446 1.34286 109 106 254 
0.140572 0.413347 1.31199 36 254 46 
0.144371 0.471937 1.32717 46 47 254 
0.0643971 -0.147065 1.29709 0 0 0 
0.00823908 -0.278947 1.30338 0 0 0 
0.0308391 -0.118552 1.2404 0 0 0 
0.0302128 -0.332266 1.38769 0 0 0 
0.000807934 -0.201141 1.30287 0 0 0 
0.13089 0.268985 1.36824 38 38 38 
0.125977 0.216241 1.38377 15 14 12 
0.0715095 -0.106295 1.29249 97 102 254 
-0.00140805 0.255395 1.1761 0 0 0 
0.0739169 -0.219556 1.3304 254 63 62 
0.13879 0.356191 1.32068 36 34 254 
0.0982619 -0.0796108 1.33358 254 114 112 
0.132179 0.0212041 1.32617 51 49 254 
0.0510358 -0.264961 1.39681 254 80 76 
0.14931 0.540819 1.32478 254 42 40 
-0.0555708 -0.194144 1.24535 0 0 0 
0.133816 0.416862 1.33871 30 31 254 
0.0802066 -0.219663 1.34841 52 50 254 
-0.026353 -0.42726 1.34963 0 0 0 
0.150679 0.557325 1.37258 39 40 254 
0.152152 0.556665 1.3078 53 254 49 
0.1379 -0.00428934 1.33686 83 81 82 
-0.0491558 -0.304408 1.30479 0 0 0 
-0.0162949 -0.386231 1.33988 0 0 0 
0.00236232 -0.373386 1.35532 0 0 0 
0.0875238 -0.138654 1.3672 71 254 73 
0.138709 0.519652 1.29269 39 37 38 
0.116326 0.0862622 1.4174 87 85 86 
0.0702822 -0.156314 1.32435 42 254 29 
0.148192 0.584762 1.25791 56 254 56 
0.139511 0.449942 1.34773 11 9 10 
0.155618 0.569437 1.37443 33 33 33 
0.132343 0.501092 1.26441 31 32 254 
0.0756054 0.214442 1.21024 0 1 0 
-0.0172849 -0.216176 1.27336 0 0 0 
0.116794 -0.0488108 1.35017 111 106 254 
0.136752 0.0118745 1.37416 24 22 23 
0.139769 0.454106 1.33895 38 36 37 
0.127773 0.159847 1.36005 254 26 24 
0.131789 0.334839 1.36824 25 255 28 
0.173293 0.599773 1.29231 54 53 50 
0.13883 0.00186684 1.3219 254 54 53 
0.101103 -0.122407 1.37603 67 65 254 
0.125938 0.399502 1.39595 39 38 36 
0.0135446 -0.120063 1.25125 0 0 0 
0.140893 0.449046 1.27897 254 47 45 
0.133053 -0.025641 1.37953 52 53 255 
0.135517 0.00610722 1.41101 255 23 22 
-0.0323665 -0.52772 1.41287 0 0 0 
0.0445557 -0.299354 1.37865 0 0 0 
0.148928 0.537316 1.3407 46 47 254 
0.153136 0.550575 1.33873 40 38 39 
-0.00557471 -0.394369 1.35538 0 0 0 
0.123503 0.244433 1.3813 41 41 254 
0.129838 0.0880508 1.36419 29 30 255 
0.145671 0.00058411 1.35473 44 42 43 
0.0215016 -0.268216 1.46325 106 107 254 
0.0951198 -0.0431578 1.28691 254 47 43 
-0.0407127 -0.278514 1.28312 0 0 0 
0.13676 0.224352 1.32651 48 254 50 
0.0505378 -0.0609035 1.25051 0 0 0 
0.139824 0.344987 1.31897 254 45 43 
0.156004 0.56871 1.30999 32 33 254 
0.0109171 -0.327472 1.34308 0 0 0 
0.134315 0.0252215 1.38726 255 58 56 
0.135233 0.127012 1.28507 27 27 29 
0.0320734 -0.281268 1.34348 0 0 0 
0.104504 0.0984717 1.21692 195 50 50 
0.134064 0.158186 1.33808 26 27 254 
0.142476 0.430926 1.31108 48 47 45 
0.0798624 -0.0683586 1.27075 86 255 75 
-0.044549 -0.429733 1.34476 0 0 0 
0.135359 0.592468 1.20985 0 0 0 
0.118116 -0.0662271 1.36135 255 43 41 
0.131181 0.348333 1.37079 21 255 29 
0.0730656 -0.126778 1.29941 243 57 60 
-0.0405739 -0.443013 1.34555 0 0 0 
0.155097 0.58056 1.31801 53 51 52 
-0.00443113 0.14959 1.18632 0 0 0 
0.014484 -0.361274 1.38016 0 0 0 
0.131738 0.349358 1.35563 254 38 36 
0.0179197 0.305775 1.17443 0 0 0 
0.015222 -0.297039 1.44829 254 21 17 
0.125923 0.240538 1.27775 57 35 38 
-0.00493456 -0.109607 1.22901 0 0 0 
0.0880166 -0.0977304 1.32014 37 36 34 
0.114024 -0.00636041 1.28514 87 85 254 
0.0911792 -0.119569 1.40095 116 115 255 
0.112597 0.386868 1.22595 44 42 254 
0.0866732 0.43161 1.21948 254 45 45 
0.078693 -0.190633 1.34447 25 254 45 
-0.00912334 -0.365254 1.32641 0 0 0 
0.0864637 0.264763 1.24062 49 49 254 
0.121368 0.233587 1.40267 44 47 255 
0.14785 0.532695 1.31129 38 36 37 
-0.00873975 -0.358233 1.33535 0 0 0 
0.0567523 -0.209828 1.30302 0 1 1 
0.129011 0.259376 1.38597 57 254 69 
0.136556 0.198698 1.32468 40 42 254 
0.152898 0.576241 1.36177 61 62 254 
0.154664 0.521137 1.32374 254 46 44 
0.110523 0.0989282 1.25005 63 61 62 
0.0596161 0.315589 1.20128 1 0 0 
0.144889 0.527258 1.33308 49 47 48 
0.0955574 0.492251 1.21034 60 254 63 
0.138554 0.373324 1.30395 49 50 254 
0.0550494 -0.138651 1.27556 0 0 0 
0.154558 0.564662 1.32391 34 254 34 
0.101214 -0.0959189 1.35529 20 19 15 
0.131628 0.10306 1.32247 46 254 43 
-0.0301377 -0.207236 1.26124 0 0 0 
0.12467 0.16257 1.3899 46 254 13 
-0.0315022 -0.406137 1.33914 0 0 0 
0.00980298 -0.332667 1.3627 0 0 0 
0.102274 -0.0815831 1.40248 71 67 255 
0.118489 0.0646502 1.29716 254 53 52 
-0.0224192 -0.4831 1.39891 0 0 0 
-0.0346294 -0.192078 1.2595 0 0 0 
0.0296177 0.416731 1.16455 0 0 0 
0.139671 0.268915 1.31295 59 254 58 
0.149515 0.354123 1.31704 46 47 254 
0.115329 0.18339 1.2665 31 29 30 
0.104182 0.240138 1.23635 60 60 254 
0.0049242 -0.402543 1.38304 0 0 0 
0.135156 0.56389 1.24229 254 79 75 
-0.00990149 -0.426708 1.3617 0 0 0 
0.151274 0.549065 1.29635 30 254 24 
0.0642622 -0.125551 1.29233 0 0 0 
0.112472 0.226407 1.24831 41 254 37 
-0.0483254 -0.446108 1.35176 0 0 0 
0.136096 0.207321 1.36441 30 30 254 
0.042571 0.36308 1.18268 0 0 0 
0.0758332 0.230564 1.22775 48 48 48 
-0.162728 0.0543705 1.2437 0 0 0 
0.135999 0.222886 1.30904 254 48 46 
0.108521 0.326929 1.23679 254 37 35 
0.0407533 0.319288 1.19108 0 0 0 
0.0752627 0.112084 1.23411 75 78 228 
-0.0437543 -0.667793 1.41621 0 0 0 
0.125278 0.359819 1.26142 41 42 254 
0.0825463 0.100384 1.22929 195 50 50 
0.112898 0.504879 1.22546 46 44 45 
0.12842 0.0203232 1.30455 52 254 33 
0.025775 0.384395 1.18011 0 0 0 
0.112418 0.550498 1.20847 29 254 32 
0.0784951 0.310418 1.21845 69 67 68 
0.0816732 0.339618 1.21792 51 51 254 
-0.0399875 -0.529089 1.37802 0 0 0 
0.120929 0.160094 1.27801 61 61 254 
0.0706184 0.325244 1.21025 255 24 24 
0.0582068 0.0860426 1.22164 0 0 0 
0.00933773 -0.339387 1.33245 0 0 0 
0.0250894 0.561458 1.14448 0 0 0 
0.148653 0.592546 1.26682 63 61 255 
0.0639062 0.0984432 1.22558 0 1 0 
-0.0797588 -0.0916937 1.39626 81 82 254 
0.111062 0.164799 1.09124 0 0 0 
0.0185123 -0.00621587 1.34784 77 75 254 
-0.0438714 -0.627806 1.40802 0 0 0 
0.0816504 -0.386546 1.37752 0 0 0 
-0.0566413 -0.575417 1.40655 0 0 0 
-0.271336 0.104162 1.44624 0 0 0 
0.0948223 -0.00494515 1.2836 49 255 35 
-0.221331 0.0481085 1.45814 0 0 0 
0.115609 -0.000277414 1.21863 23 22 18 
-0.173881 -0.215198 1.40088 0 0 0 
-0.181539 0.252557 1.25036 0 0 0 
-0.162443 0.594915 1.16594 25 254 28 
-0.176238 0.0883815 1.25267 32 34 18 
-0.179505 -0.0842469 1.30244 0 0 0 
-0.209439 0.213824 1.31204 0 0 0 
-0.204239 -0.0523012 1.3418 0 0 0 
-0.211593 0.315346 1.32957 0 0 0 
-0.155348 -0.25721 1.37652 0 0 0 
-0.177408 -0.125274 1.32895 0 0 0 
-0.221144 0.0625886 1.33075 0 0 0 
-0.18883 -0.134122 1.35806 0 0 0 
-0.224373 0.555179 1.29414 15 2 2 
-0.211806 0.169469 1.32414 0 0 0 
-0.206112 0.0798713 1.28897 1 1 1 
-0.223373 0.594157 1.28064 7 114 10 
-0.212816 0.0977564 1.32536 0 0 0 
-0.204181 0.412579 1.28365 0 0 0 
-0.147722 -0.251353 1.35852 0 0 0 
-0.177522 -0.0388115 1.25525 27 23 24 
-0.231427 0.00934099 1.38636 0 0 0 
-0.209678 0.250375 1.31459 0 0 0 
-0.191046 -0.0635188 1.31877 0 0 0 
-0.204504 0.520956 1.24884 254 49 45 
-0.0900822 -0.439394 1.36336 0 0 0 
-0.211448 0.294808 1.3684 0 0 0 
-0.159294 0.443996 1.20339 254 39 35 
-0.184207 0.509649 1.22245 19 254 24 
-0.153226 -0.185624 1.31076 0 2 1 
-0.0697948 -0.59478 1.39576 0 0 0 
-0.213246 0.3473 1.34611 0 0 0 
-0.211585 0.252839 1.37739 0 0 0 
-0.213651 0.225424 1.36943 0 0 0 
-0.21241 0.27667 1.33549 0 0 0 
-0.217887 0.464312 1.34445 0 0 0 
-0.0542285 -0.541206 1.40619 0 0 0 
-0.213063 0.258146 1.34624 0 0 0 
-0.211245 0.308204 1.37095 0 0 0 
-0.0527499 -0.627119 1.39268 0 0 0 
-0.212722 0.283201 1.36085 0 0 0 
-0.203079 0.352393 1.39885 0 0 0 
-0.218608 0.103788 1.36366 0 0 0 
-0.212132 0.385514 1.33821 0 0 0 
-0.211576 0.286252 1.3422 0 0 0 
-0.212567 0.361999 1.34117 0 0 0 
-0.121109 -0.285366 1.31195 1 2 2 
-0.213138 0.23609 1.34875 0 0 0 
-0.197395 0.319501 1.41388 0 0 0 
-0.213083 0.32866 1.35261 0 0 0 
-0.213022 0.237813 1.36652 0 0 0 
-0.135682 -0.328551 1.3857 0 0 0 
-0.208325 0.365115 1.31044 0 0 0 
-0.210683 0.417222 1.35748 0 0 0 
-0.22023 0.514008 1.3387 0 0 0 
-0.219569 0.4775 1.35421 0 0 0 
-0.210609 0.429347 1.36131 0 0 0 
-0.21246 0.395444 1.3424 0 0 0 
-0.206411 0.387294 1.38762 0 0 0 
-0.209017 0.341575 1.38032 0 0 0 
-0.228307 0.565907 1.34149 4 19 4 
-0.214113 0.381453 1.36597 0 0 0 
-0.211083 0.413506 1.32132 0 0 0 
-0.131757 -0.241734 1.30219 29 29 29 
-0.0970256 -0.442723 1.41399 0 0 0 
-0.0633337 -0.651122 1.41522 0 0 0 
-0.215324 0.224659 1.35271 0 0 0 
-0.220314 0.0658558 1.38576 0 0 0 
-0.16551 -0.226742 1.37437 0 0 0 
-0.223046 0.539493 1.33227 8 57 6 
-0.214101 0.170535 1.36494 0 0 0 
-0.223911 0.0599506 1.37398 0 0 0 
-0.208015 0.176954 1.4008 0 0 0 
-0.20218 0.528572 1.4058 0 0 0 
-0.219243 0.0670849 1.4022 0 0 0 
-0.220423 0.522961 1.32996 2 2 1 
-0.212278 0.130418 1.32629 1 0 0 
-0.222715 -0.014564 1.39293 0 0 0 
-0.205399 0.406885 1.38167 0 0 0 
-0.21673 0.529405 1.29228 38 36 254 
-0.216101 0.206732 1.33528 0 0 0 
-0.211471 0.427135 1.32102 0 0 0 
-0.218611 0.53098 1.34559 0 0 0 
-0.213318 0.265342 1.36487 0 0 0 
-0.213867 0.597575 1.22202 12 12 10 
-0.213984 0.202578 1.37952 0 0 0 
-0.208122 0.0276558 1.28799 45 254 46 
-0.226222 0.577798 1.35251 0 1 0 
-0.185805 -0.0579022 1.29739 31 29 254 
-0.203702 0.427982 1.38672 0 0 0 
-0.220331 0.0634222 1.35065 0 0 0 
-0.214888 0.10175 1.37881 0 0 0 
-0.226583 0.553777 1.34221 1 1 1 
-0.215639 -0.0514644 1.36367 0 0 0 
-0.215968 0.141066 1.37381 0 0 0 
-0.211072 0.294675 1.38246 0 0 0 
-0.209365 0.475492 1.38845 0 0 0 
-0.214687 0.187151 1.3822 0 0 0 
-0.199691 0.464308 1.41103 0 0 0 
-0.209555 0.419307 1.37184 0 0 0 
-0.0761125 0.56643 1.14097 29 31 30 
-0.134852 -0.208573 1.28688 35 35 33 
-0.215938 -0.0349104 1.34841 0 0 0 
-0.185389 -0.0557623 1.43727 0 0 0 
-0.220803 0.488616 1.34345 0 0 0 
-0.21131 0.461857 1.28235 59 254 71 
-0.220226 0.501217 1.34067 0 0 0 
-0.21627 0.0588589 1.30677 0 0 0 
-0.174362 -0.181195 1.42831 0 0 0 
-0.2136 0.217766 1.32486 0 0 0 
-0.106501 -0.365212 1.34262 0 0 0 
-0.213733 0.100584 1.34061 0 0 0 
-0.228086 0.582622 1.32834 137 20 19 
-0.210292 0.26703 1.32984 0 0 0 
-0.0646734 -0.54311 1.38419 0 0 0 
-0.176086 -0.0673384 1.28208 55 56 254 
-0.211416 0.362688 1.32617 0 0 0 
-0.212841 0.170888 1.38507 0 0 0 
-0.217011 0.186877 1.35656 0 0 0 
-0.210061 0.406202 1.37283 0 0 0 
-0.208438 0.442974 1.36216 0 0 0 
-0.161855 -0.214015 1.35413 0 0 0 
-0.210905 0.334208 1.3223 0 0 0 
-0.210823 0.202154 1.39466 0 0 0 
-0.210166 0.427755 1.33738 0 0 0 
-0.120268 -0.296313 1.32153 0 0 0 
-0.213022 0.142657 1.3835 0 0 0 
-0.114967 -0.374487 1.36064 0 0 0 
-0.12807 -0.331208 1.36763 0 0 0 
-0.215178 0.112599 1.36798 0 0 0 
-0.213893 0.482253 1.28494 38 37 33 
-0.217046 0.20122 1.35512 0 0 0 
-0.167544 -0.171602 1.33969 81 96 67 
-0.212889 0.405869 1.33963 0 0 0 
-0.209894 -0.0186235 1.30249 17 254 25 
-0.229714 0.594524 1.34983 0 0 1 
-0.212682 0.459486 1.36675 0 0 0 
-0.129023 -0.251649 1.30449 55 55 63 
-0.210639 -0.0618539 1.37302 0 0 0 
-0.207005 0.450289 1.37946 0 0 0 
-0.14872 -0.224007 1.33259 1 1 2 
-0.166608 -0.177882 1.44345 0 0 0 
-0.20097 0.492969 1.25058 66 57 254 
-0.203986 -0.035625 1.31731 23 254 23 
-0.226683 0.567779 1.31575 251 61 61 
-0.204 -0.0916536 1.37383 0 0 0 
-0.143616 -0.240283 1.33353 0 0 0 
-0.218952 0.561463 1.26687 254 20 19 
-0.212024 0.524187 1.37958 0 0 0 
-0.0950578 -0.429744 1.36774 0 0 0 
-0.209749 0.277821 1.31855 0 0 0 
-0.22039 0.0168309 1.41859 0 0 0 
-0.187532 0.322668 1.25616 40 31 254 
-0.171165 0.0814107 1.24659 42 254 44 
-0.192113 0.42733 1.41325 0 0 0 
-0.205826 0.43718 1.29348 45 41 254 
-0.20291 0.338106 1.40445 0 0 0 
-0.0765593 -0.536407 1.43319 0 0 0 
-0.196138 0.227727 1.43018 0 0 0 
-0.208697 0.186064 1.31566 10 10 12 
-0.138185 -0.304619 1.4035 0 0 0 
-0.154002 0.432326 1.20163 46 45 41 
-0.213148 0.346698 1.3271 0 0 0 
-0.208905 0.385049 1.31419 0 0 0 
-0.206885 -0.0547098 1.35181 0 0 0 
-0.153937 0.0431928 1.52434 0 0 0 
-0.203462 0.440276 1.32454 0 0 0 
-0.053451 -0.482263 1.38328 0 0 0 
-0.102311 -0.439277 1.39623 0 0 0 
-0.140396 -0.210172 1.2996 254 26 25 
-0.112661 -0.392104 1.37948 0 0 0 
-0.220256 0.0283688 1.41273 0 0 0 
-0.221641 0.558997 1.37194 0 0 0 
-0.138264 0.604031 1.13655 32 254 43 
-0.213358 0.14569 1.32937 0 0 0 
-0.123776 -0.143566 1.50532 0 0 0 
-0.214193 0.140041 1.34186 0 0 0 
-0.123876 0.307377 1.19305 42 30 254 
-0.21222 0.109746 1.38505 0 0 0 
-0.223334 0.571345 1.28314 27 254 26 
-0.146906 -0.27148 1.36992 0 0 0 
-0.209109 0.156059 1.40388 0 0 0 
-0.178601 -0.148806 1.35408 0 0 0 
-0.198007 -0.0901643 1.35609 0 0 0 
-0.175459 -0.194964 1.37932 0 0 0 
-0.215278 0.0902784 1.37489 0 0 0 
-0.168561 -0.123538 1.30276 47 254 56 
-0.138742 -0.27119 1.34368 0 0 0 
-0.205402 0.276444 1.40315 0 0 0 
-0.28474 0.00453237 1.16213 55 55 255 
-0.163158 -0.0969015 1.2711 52 51 46 
-0.195759 0.242686 1.27979 254 68 64 
-0.12644 -0.219306 1.28777 3 254 28 
-0.219514 0.473288 1.32207 0 0 0 
-0.0999388 -0.421571 1.40994 0 0 0 
-0.226038 0.589158 1.2954 21 21 19 
-0.214972 0.163514 1.34158 0 0 0 
-0.182098 -0.10694 1.41837 0 0 0 
-0.119128 -0.334109 1.34551 0 0 0 
-0.177899 -0.11229 1.32261 44 40 252 
-0.174153 -0.0780462 1.28041 32 30 254 
-0.201419 0.450916 1.3975 0 0 0 
-0.186076 -0.125859 1.34572 1 1 1 
-0.148038 0.445047 1.19876 49 47 254 
-0.204047 0.289686 1.3344 0 0 0 
-0.201595 0.388146 1.28529 0 0 0 
-0.226918 0.560362 1.30282 44 254 36 
-0.146536 -0.155485 1.27422 254 29 28 
-0.213015 0.459057 1.35196 0 0 0 
-0.212418 0.329498 1.36673 0 0 0 
-0.221115 -0.00227701 1.40163 0 0 0 
-0.213578 0.25473 1.39225 0 0 0 
-0.0874081 -0.486258 1.38844 0 0 0 
-0.221991 0.600951 1.37911 0 0 0 
-0.221947 0.0368375 1.39417 0 0 0 
-0.207212 0.277209 1.3914 0 0 0 
-0.222989 0.577331 1.27487 28 28 28 
-0.204955 0.0646137 1.44351 0 0 0 
-0.155259 -0.191323 1.32456 126 125 83 
-0.222255 0.572952 1.37519 0 0 0 
-0.20544 0.144615 1.40805 0 0 0 
-0.190244 0.312016 1.27965 59 254 75 
-0.1656 -0.192475 1.34954 0 0 0 
-0.222933 0.036715 1.35088 0 0 0 
-0.102382 -0.410505 1.36529 0 0 0 
-0.133596 -0.290406 1.35546 0 0 0 
-0.211192 0.389718 1.35071 0 0 0 
-0.209926 0.490904 1.39188 0 0 0 
-0.10278 -0.387183 1.35142 0 0 0 
-0.192021 0.272699 1.27136 254 77 77 
-0.209618 0.443713 1.35078 0 0 0 
-0.0679297 -0.565852 1.37384 0 0 0 
-0.0623246 -0.623544 1.41146 0 0 0 
-0.130013 0.584945 1.14209 45 44 40 
-0.194606 0.116461 1.27832 0 0 0 
-0.156222 0.0720234 1.49683 0 0 0 
-0.125166 -0.320249 1.35454 0 0 0 
-0.204122 0.130362 1.29924 0 0 0 
-0.0729142 -0.629186 1.39873 0 0 0 
-0.0247361 -0.69979 1.42725 0 0 0 
-0.202836 0.438222 1.27677 0 0 0 
-0.209239 0.443186 1.30504 0 0 0 
-0.20889 0.533008 1.26366 26 254 38 
-0.196165 0.404264 1.41239 0 0 0 
-0.212231 0.0674781 1.4341 0 0 0 
-0.210739 0.396295 1.32523 0 0 0 
-0.0361223 -0.646443 1.38422 0 0 0 
-0.215439 0.155413 1.34931 0 0 0 
-0.210169 0.300651 1.31096 0 0 0 
-0.222611 0.540015 1.29758 17 17 17 
-0.137675 0.0370553 1.53648 0 0 0 
-0.19386 0.596267 1.18886 17 16 12 
-0.214779 0.130427 1.35177 0 0 0 
-0.207371 0.07918 1.41702 0 0 0 
-0.208206 0.355784 1.30003 174 38 38 
-0.166501 -0.100481 1.28122 254 40 39 
-0.157756 -0.144545 1.29062 37 254 45 
-0.219839 -0.000663539 1.32629 251 44 44 
-0.215019 0.132126 1.36517 0 0 0 
-0.159732 -0.197511 1.34259 0 0 0 
-0.218972 0.0177473 1.32267 22 24 254 
-0.173882 -0.171948 1.35845 0 0 0 
-0.190228 0.214164 1.27869 254 51 47 
-0.207177 0.548911 1.24286 43 42 40 
-0.174637 0.43478 1.23197 46 43 38 
-0.214347 0.498641 1.28388 39 35 32 
-0.0380505 -0.0187739 1.1977 49 255 44 
-0.204627 0.400643 1.38833 0 0 0 
-0.195033 0.409407 1.42084 0 0 0 
-0.218806 0.49779 1.35784 0 0 0 
-0.169229 -0.0730754 1.46912 0 0 0 
-0.196853 0.213975 1.43087 0 0 0 
-0.214846 0.123495 1.37099 0 0 0 
-0.126555 -0.131404 1.50367 0 0 0 
-0.09811 -0.454962 1.40493 0 0 0 
-0.210734 0.377082 1.33289 27 168 34 
-0.214514 0.189894 1.37192 0 0 0 
-0.208666 0.263751 1.39544 0 0 0 
-0.213551 0.228055 1.33908 28 248 34 
-0.19956 0.263098 1.42467 0 0 0 
-0.199124 0.355404 1.40995 0 0 0 
-0.21183 0.253479 1.3294 253 59 54 
-0.0956441 -0.474428 1.3965 0 0 0 
-0.184533 -0.0322662 1.46466 0 0 0 
-0.161938 -0.1081 1.47192 0 0 0 
-0.0830029 -0.581329 1.40954 0 0 0 
-0.19726 0.0702683 1.45272 0 0 0 
-0.111873 -0.41182 1.40143 0 0 0 
-0.123195 -0.231584 1.26597 28 28 28 
-0.191302 0.252634 1.43891 0 0 0 
-0.206575 0.212359 1.40643 0 0 0 
-0.0344346 0.0152237 1.17073 38 36 39 
-0.203763 0.314197 1.40574 0 0 0 
-0.219353 0.523226 1.34571 70 74 206 
-0.20731 0.553377 1.4117 0 0 0 
-0.20877 0.460147 1.38672 0 0 0 
-0.182057 -0.178615 1.39999 0 0 0 
-0.214248 0.457218 1.31382 28 24 23 
-0.190498 0.0912718 1.27212 28 254 29 
-0.188276 0.0909647 1.45475 0 0 0 
-0.203819 0.0455144 1.45044 0 0 0 
-0.155909 -0.148461 1.46258 0 0 0 
-0.215338 0.0346551 1.42115 0 0 0 
-0.200607 0.534475 1.41259 0 0 0 
-0.22206 -0.00609873 1.37321 2 2 3 
-0.0733665 -0.454791 1.4195 0 0 0 
-0.157637 -0.222733 1.35142 0 0 0 
-0.197872 0.344085 1.41549 0 0 0 
-0.201062 0.242632 1.4194 0 0 0 
-0.209573 0.366905 1.36955 0 0 0 
-0.156764 -0.241698 1.38792 0 0 0 
-0.210991 0.505815 1.27274 52 254 64 
-0.214756 0.485115 1.37962 0 0 0 
-0.214278 0.528602 1.36242 8 2 2 
-0.128962 -0.169495 1.50137 0 0 0 
-0.202384 0.156655 1.42623 0 0 0 
-0.186918 0.432573 1.42537 0 0 0 
-0.225419 -0.00181112 1.34039 47 47 47 
-0.126909 -0.157417 1.49814 0 0 0 
-0.214971 0.314939 1.33946 2 2 2 
-0.22751 0.566351 1.3274 254 20 20 
-0.174481 -0.134218 1.41962 0 0 0 
-0.199685 0.372087 1.27217 254 52 50 
-0.127896 -0.339024 1.37343 0 0 0 
-0.209769 0.397783 1.31249 50 47 42 
-0.195055 0.389576 1.41574 0 0 0 
-0.197049 -0.0436808 1.30783 29 254 32 
-0.115457 -0.348661 1.34628 0 0 0 
-0.207425 -0.0179308 1.42335 0 0 0 
-0.217137 0.482419 1.36403 0 0 0 
-0.182596 0.497871 1.21942 43 254 45 
-0.191784 -0.0260253 1.27045 35 254 32 
-0.181534 0.33293 1.24824 64 61 52 
-0.144554 -0.222791 1.31554 254 27 27 
-0.225507 0.0192823 1.37657 27 27 29 
-0.225661 0.0109343 1.40465 0 0 0 
-0.223768 0.0484771 1.34832 254 38 37 
-0.212514 0.106644 1.39681 0 0 0 
-0.18855 -0.14682 1.38335 0 0 0 
-0.20501 0.190503 1.30458 254 58 55 
-0.202156 0.141987 1.29312 60 56 53 
-0.135821 -0.296697 1.41182 0 0 0 
-0.21925 0.00765597 1.41342 0 0 0 
-0.196039 -0.0291892 1.43724 0 0 0 
-0.209546 0.34245 1.36121 0 0 0 
-0.196413 -0.0695844 1.404 0 0 0 
-0.212736 0.151417 1.36975 0 0 0 
-0.208555 0.119075 1.4082 0 0 0 
-0.11493 -0.388807 1.40052 0 0 0 
-0.179331 -0.0758286 1.4367 0 0 0 
-0.166905 0.392032 1.45934 0 0 0 
-0.219047 0.590338 1.38874 108 17 17 
-0.208288 0.380402 1.37349 0 0 0 
-0.144615 -0.230686 1.32404 37 41 177 
-0.10226 -0.404218 1.3553 0 0 0 
-0.127561 -0.315936 1.4203 0 0 0 
-0.193727 -0.103901 1.39351 0 0 0 
-0.199132 0.200593 1.4271 0 0 0 
-0.22887 0.575533 1.33395 38 254 37 
-0.204635 0.427076 1.28983 36 254 42 
-0.191058 -0.0401748 1.44147 0 0 0 
-0.210999 0.165032 1.3955 0 0 0 
-0.209373 0.33193 1.38297 0 0 0 
-0.124099 -0.296563 1.4444 0 0 0 
-0.205014 0.481929 1.39618 0 0 0 
-0.214695 0.301796 1.35113 0 0 0 
-0.212266 0.452571 1.33792 136 21 22 
-0.190691 0.317006 1.26509 254 63 60 
-0.208319 0.24151 1.38682 0 0 0 
-0.219619 0.539667 1.30948 11 254 19 
-0.191582 -0.106419 1.35231 254 38 34 
-0.213008 0.435282 1.2981 254 63 62 
-0.206035 0.438919 1.38411 0 0 0 
-0.202784 0.392833 1.39964 0 0 0 
-0.220982 0.0237132 1.40032 0 0 0 
-0.203569 0.170731 1.41947 0 0 0 
-0.205388 0.092025 1.42209 0 0 0 
-0.165155 -0.203606 1.35532 0 0 0 
-0.180638 -0.16717 1.39156 0 0 0 
-0.195329 0.113745 1.44523 0 0 0 
-0.202613 0.278472 1.29642 47 35 254 
-0.215116 0.166001 1.28243 49 43 254 
-0.125221 -0.305831 1.34088 0 0 0 
-0.214912 -0.0227688 1.36956 1 1 1 
-0.186682 -0.0686416 1.4224 0 0 0 
-0.088233 -0.499075 1.39487 0 0 0 
-0.13933 -0.234088 1.31507 28 29 254 
0.0538963 -0.326732 1.25999 56 117 95 
0.054347 -0.00158378 1.13933 32 255 36 
-0.0614629 -0.631015 1.42714 0 0 0 
-0.0920107 -0.593608 1.38049 0 0 0 
0.0204865 -0.0144654 1.15844 255 69 68 
-0.270395 0.12045 1.24722 0 0 0 
-0.198851 -0.0591399 1.3357 0 0 0 
-0.190159 -0.139541 1.36804 0 0 0 
-0.224591 0.0409714 1.37002 0 0 0 
-0.152919 -0.207181 1.32972 0 0 0 
-0.180353 0.00799633 1.29183 68 254 78 
-0.221172 0.538462 1.32257 254 23 22 
-0.211591 0.136574 1.39462 0 0 0 
-0.211565 0.276663 1.37319 0 0 0 
-0.212091 0.231491 1.38165 0 0 0 
-0.137862 -0.24275 1.32457 39 34 23 
-0.224461 0.54661 1.34311 64 65 67 
-0.217171 0.481297 1.3092 27 25 254 
-0.204608 0.197409 1.4154 0 0 0 
-0.215082 0.560906 1.39641 0 0 0 
-0.213211 0.173189 1.34039 52 53 47 
-0.0824635 -0.515662 1.41154 0 0 0 
-0.190877 0.296856 1.43019 0 0 0 
-0.183566 0.141015 1.4584 0 0 0 
-0.190896 0.138652 1.45147 0 0 0 
-0.210241 0.355279 1.37388 190 47 48 
-0.173491 0.374001 1.44892 0 0 0 
-0.210147 0.226854 1.39451 0 0 1 
-0.170065 0.313638 1.46151 0 0 0 
-0.187599 0.218033 1.44627 0 0 0 
-0.180976 0.443284 1.43735 0 0 0 
-0.198182 0.296225 1.42467 0 0 0 
-0.128901 0.453785 1.48578 0 0 0 
-0.19893 0.476555 1.41937 0 0 0 
-0.201829 0.325618 1.40341 0 0 0 
-0.201424 0.367242 1.4028 0 0 0 
-0.174768 0.1255 1.47107 0 0 0 
-0.207743 0.31394 1.39207 0 0 0 
-0.194566 0.156132 1.43926 0 0 0 
-0.22443 0.559379 1.35976 254 20 16 
-0.198587 0.168409 1.43319 0 0 0 
-0.167343 0.254796 1.46995 0 0 0 
-0.195373 0.0697186 1.46553 0 0 0 
-0.217805 0.481593 1.33693 26 22 21 
-0.192992 0.311559 1.42776 0 0 0 
-0.203657 0.38097 1.39499 0 0 0 
-0.149192 -0.272539 1.39334 0 0 0 
-0.209796 0.311362 1.38188 1 1 1 
-0.18487 0.504475 1.44307 0 0 0 
-0.213154 0.470328 1.29025 72 71 67 
-0.174137 0.20399 1.46528 0 0 0 
-0.182473 0.250226 1.45137 0 0 0 
-0.174376 0.267574 1.45807 0 0 0 
-0.211758 0.507505 1.38674 37 168 42 
-0.194081 0.501215 1.42573 0 0 0 
-0.212509 0.263454 1.37558 253 19 18 
-0.174421 -0.177119 1.41635 0 0 0 
-0.208166 0.353999 1.38392 0 0 0 
-0.205357 0.33867 1.39454 0 0 0 
-0.175608 -0.185393 1.36995 30 35 23 
-0.190799 0.0573377 1.4697 0 0 0 
-0.17519 0.33773 1.44882 0 0 0 
-0.176516 -0.0343729 1.48099 0 0 0 
-0.180386 0.301148 1.44948 0 0 0 
-0.196907 0.0602872 1.46229 0 0 0 
-0.119463 -0.148662 1.49296 0 0 0 
-0.152972 0.364207 1.47395 0 0 0 
-0.203418 -0.0699695 1.38779 252 40 39 
-0.212147 0.215122 1.3679 35 254 44 
-0.200835 0.227547 1.41985 0 0 0 
-0.186302 0.181317 1.4532 0 0 0 
-0.10238 -0.411699 1.41554 0 0 0 
-0.10512 -0.381178 1.43676 0 0 0 
-0.193326 0.145957 1.44237 0 0 0 
-0.206934 0.109529 1.41522 0 0 0 
-0.180142 0.284627 1.44944 0 0 0 
-0.208258 0.246558 1.39642 0 0 0 
-0.0593916 0.103291 1.52556 0 0 0 
-0.207073 -0.054385 1.38564 31 255 55 
-0.19729 0.405762 1.39934 0 0 0 
-0.203606 0.114235 1.4272 0 0 0 
-0.194895 0.270259 1.43071 0 0 0 
-0.214317 0.253417 1.35474 22 254 34 
-0.183951 0.205468 1.45116 0 0 0 
-0.198575 -0.0328123 1.42711 0 0 0 
-0.197566 0.436499 1.39689 0 0 0 
-0.198911 -0.0773931 1.35462 34 33 31 
-0.194343 -0.080311 1.40325 1 2 1 
-0.183994 0.358413 1.4348 0 0 0 
-0.215879 0.084862 1.39277 32 35 246 
-0.199798 0.135761 1.43264 0 0 0 
-0.191709 0.460445 1.42237 0 0 0 
-0.215135 0.474615 1.36835 25 24 20 
-0.214148 0.507245 1.37596 253 63 62 
-0.197812 0.526751 1.41864 0 0 0 
-0.207742 0.522307 1.26798 254 50 47 
-0.186102 0.315846 1.43887 0 0 0 
-0.192246 0.284424 1.43301 0 0 0 
-0.179218 0.113835 1.4669 0 0 0 
-0.192659 0.524517 1.42648 0 0 0 
-0.216982 0.517409 1.35311 48 48 254 
-0.169642 -0.0524896 1.48407 0 0 0 
-0.208219 0.53745 1.39688 239 59 62 
-0.165109 0.338627 1.46471 0 0 0 
-0.181481 -0.0856785 1.43292 0 0 0 
-0.160921 -0.232156 1.39243 0 0 0 
-0.210714 0.411017 1.3501 28 27 25 
-0.116682 -0.353742 1.36351 0 0 0 
-0.200629 0.0878805 1.27949 46 254 51 
-0.193742 -0.0570909 1.41334 0 0 0 
-0.200835 0.514284 1.414 0 0 0 
-0.1779 -0.0548098 1.46107 0 0 0 
-0.212637 0.290527 1.35253 23 18 12 
-0.217848 0.549023 1.37494 18 18 18 
-0.217707 -0.0275103 1.38214 34 39 254 
-0.219348 -0.00959475 1.4084 152 15 17 
-0.207524 0.133561 1.40993 0 0 0 
-0.208079 0.188529 1.40577 0 0 0 
-0.0972191 -0.423565 1.42167 0 0 0 
-0.18128 -0.0955719 1.42278 0 0 0 
-0.201316 0.00853819 1.45476 0 0 0 
-0.169499 -0.150124 1.43118 0 0 0 
-0.215059 -0.00512872 1.41702 0 0 0 
-0.207178 0.546833 1.40132 68 67 72 
-0.199625 0.180462 1.42678 0 0 0 
-0.149069 0.410029 1.19842 80 79 254 
-0.2086 0.31924 1.37495 49 39 226 
-0.212107 0.313224 1.36001 43 39 36 
-0.190017 0.445332 1.42543 0 0 0 
-0.18987 0.571104 1.4438 0 0 0 
-0.0832336 -0.520135 1.39767 0 0 0 
-0.179199 0.474703 1.44769 0 0 0 
-0.126986 -0.170709 1.51289 0 0 0 
-0.194168 0.327724 1.42775 0 0 0 
-0.210691 0.596071 1.41075 26 7 7 
-0.170795 -0.00956525 1.49876 0 0 0 
-0.223999 0.586667 1.3672 18 253 15 
-0.186074 0.518176 1.43591 0 0 0 
-0.21985 0.593373 1.3759 14 12 251 
-0.198403 0.333872 1.27719 60 254 67 
-0.202316 0.104259 1.42811 0 0 0 
-0.211782 0.301297 1.36104 254 24 23 
-0.198089 0.121531 1.43842 0 0 0 
-0.112091 -0.370059 1.42252 0 0 0 
-0.205727 0.325865 1.3942 0 0 0 
-0.149263 -0.246493 1.40387 0 0 0 
-0.0551222 0.10131 1.53916 0 0 0 
-0.159385 0.318638 1.47261 0 0 0 
-0.216262 0.466234 1.3246 25 21 20 
-0.211892 0.012364 1.44557 0 0 0 
-0.219396 0.569156 1.38908 254 43 43 
-0.209119 0.391442 1.37197 56 52 236 
-0.190814 -0.0597381 1.42677 0 0 0 
-0.204501 0.23332 1.4034 0 0 0 
-0.167334 0.36109 1.46014 0 0 0 
-0.171082 -0.0795852 1.46156 0 0 0 
-0.20336 0.419333 1.38362 0 0 0 
-0.125058 -0.117279 1.50118 0 0 0 
-0.180422 0.0499195 1.48642 0 0 0 
-0.187111 0.410802 1.4294 0 0 0 
-0.157849 0.217575 1.48244 0 0 0 
-0.190053 0.193046 1.44613 0 0 0 
-0.211823 0.536553 1.38032 23 254 23 
-0.142952 -0.298012 1.39117 0 0 0 
-0.121427 -0.32483 1.43246 0 0 0 
-0.214359 0.244085 1.37448 250 1 0 
-0.172491 0.245541 1.46455 0 0 0 
-0.210439 0.360166 1.35974 35 32 254 
-0.205328 0.490497 1.40721 0 0 0 
-0.173108 0.324105 1.45708 0 0 0 
-0.211712 0.024064 1.43803 0 0 0 
-0.177623 -0.095425 1.43344 0 0 0 
-0.186577 0.490807 1.43837 0 0 0 
-0.204026 0.462654 1.39907 0 0 0 
-0.179838 -0.134795 1.40312 0 0 0 
-0.208433 0.372836 1.37985 1 2 1 
-0.188123 0.485187 1.23413 62 254 67 
-0.0989638 -0.434836 1.41302 0 0 0 
-0.184266 -0.122657 1.39851 75 80 85 
-0.121278 -0.138068 1.49606 0 0 0 
-0.195727 0.455596 1.41369 0 0 0 
-0.185094 -0.022847 1.25695 255 38 34 
-0.209331 0.0949861 1.40855 0 0 0 
-0.159571 -0.140169 1.4561 0 0 0 
-0.200829 0.000681382 1.46042 0 0 0 
-0.12261 -0.316137 1.43777 0 0 0 
-0.202469 -0.032935 1.41799 0 0 0 
-0.215558 0.0852984 1.36572 254 25 24 
-0.191112 0.167414 1.44324 0 0 0 
-0.182151 0.0296343 1.48937 0 0 0 
-0.185144 0.292467 1.43997 0 0 0 
-0.173669 0.215383 1.46217 0 0 0 
-0.182563 -0.141799 1.39588 70 74 252 
-0.20771 2.92829e-05 1.44491 0 0 0 
-0.178599 -0.232376 1.43296 0 0 0 
-0.218319 0.532169 1.3017 22 20 254 
-0.217799 0.591555 1.2571 254 29 28 
-0.219628 0.491815 1.32578 28 254 23 
-0.162707 0.110303 1.48603 0 0 0 
-0.212141 0.587736 1.40377 27 27 214 
-0.20136 -0.102513 1.37275 31 254 33 
-0.182362 -0.167313 1.38019 253 26 26 
-0.22227 0.0534594 1.31955 42 40 254 
-0.156988 -0.118019 1.47409 0 0 0 
-0.184335 0.238653 1.44807 0 0 0 
-0.224625 0.0142615 1.3415 26 26 24 
-0.119939 -0.332517 1.42568 0 0 0 
-0.177731 0.457063 1.44283 0 0 0 
-0.177753 -0.120958 1.42111 0 0 0 
-0.163936 -0.167986 1.44696 0 0 0 
-0.203939 0.287845 1.39941 0 0 0 
-0.1973 0.0470611 1.46228 0 0 0 
-0.18479 -0.0782076 1.42705 0 0 0 
-0.156622 -0.0926061 1.46633 0 0 0 
-0.0456505 -0.265164 1.49359 0 0 0 
-0.186855 0.203923 1.2608 77 255 77 
-0.216471 -0.038355 1.38267 59 64 254 
-0.156134 0.461816 1.19795 32 254 39 
-0.176091 0.313305 1.45125 0 0 0 
-0.187482 0.448444 1.406 0 0 0 
-0.215761 0.489731 1.29444 56 52 43 
-0.198397 0.444875 1.40765 0 0 0 
-0.217824 0.496703 1.36918 254 56 54 
-0.15751 -0.13302 1.46972 0 0 0 
-0.218622 0.0725469 1.32087 41 40 38 
-0.167711 0.384179 1.4542 0 0 0 
-0.215943 0.0581275 1.41816 2 1 1 
-0.225274 0.0628394 1.3643 0 0 0 
-0.213515 0.177278 1.33166 0 0 0 
-0.0747628 -0.414534 1.46465 0 0 0 
-0.209124 0.529614 1.39058 0 0 0 
-0.224937 0.016769 1.39101 0 0 0 
-0.184676 0.334577 1.43973 0 0 0 
-0.179629 0.409048 1.44354 0 0 0 
-0.165798 -0.0676512 1.47875 0 0 0 
-0.228635 -0.00393945 1.36196 21 25 254 
-0.209492 0.400283 1.35972 21 254 32 
-0.217763 0.0101942 1.43016 0 0 0 
-0.19895 0.30598 1.41528 0 0 0 
-0.228932 0.00131928 1.37565 254 32 30 
-0.131015 -0.268005 1.43933 0 0 0 
-0.137259 -0.312929 1.39362 0 0 0 
-0.18668 0.271167 1.43904 0 0 0 
-0.146588 -0.257119 1.40735 0 0 0 
-0.189692 -0.0759441 1.41652 0 0 0 
-0.204196 0.146761 1.42003 0 0 0 
-0.206019 0.155731 1.41481 0 0 0 
-0.122797 -0.339837 1.41458 0 0 0 
-0.204712 0.243613 1.40709 0 0 0 
-0.214722 -0.0190552 1.40793 38 27 22 
-0.174519 -0.192897 1.42698 0 0 0 
-0.209449 0.0341856 1.43744 0 0 0 
-0.205526 0.0213172 1.44415 0 0 0 
-0.199859 -0.0881015 1.38564 250 87 86 
-0.152563 -0.260099 1.39441 0 0 0 
-0.198355 0.334134 1.41542 31 27 254 
-0.21755 0.45467 1.34538 27 26 24 
-0.124641 0.0337389 1.21777 42 38 37 
-0.16842 0.143438 1.47515 0 0 0 
-0.1759 0.137585 1.46799 0 0 0 
-0.165223 0.268166 1.46937 0 0 0 
-0.162402 0.209373 1.476 0 0 0 
-0.180754 0.130105 1.46175 0 0 0 
-0.194006 0.40083 1.42411 248 57 59 
-0.105958 0.190189 1.51321 0 0 0 
-0.19197 0.421267 1.42005 253 50 52 
-0.114266 0.545241 1.4946 0 0 0 
-0.21316 0.373831 1.3413 255 59 55 
-0.198627 -0.0364364 1.29909 27 255 30 
-0.0898218 -0.174583 1.53291 0 0 0 
-0.0984934 -0.322392 1.32116 71 72 254 
-0.1637 -0.214046 1.45653 0 0 0 
-0.202519 0.282377 1.41145 19 18 254 
-0.104411 0.462694 1.49893 0 0 0 
-0.185078 -0.0650081 1.43478 49 253 47 
-0.156801 -0.0984661 1.47935 0 0 0 
-0.125504 0.0681548 1.52323 0 0 0 
-0.184919 0.0666161 1.47607 0 0 0 
-0.178406 0.0669848 1.48518 0 0 0 
-0.156964 0.160475 1.48512 0 0 0 
-0.195356 0.238164 1.43257 62 255 67 
-0.199651 0.501343 1.41718 9 11 254 
-0.159 0.227148 1.47884 0 0 0 
-0.103889 -0.429203 1.40312 0 0 0 
-0.230835 0.596648 1.31491 21 254 21 
-0.199441 0.218288 1.41476 19 254 33 
-0.12385 -0.0562521 1.50423 0 0 0 
-0.192086 0.377156 1.42904 19 21 14 
-0.161568 0.281091 1.47171 0 0 0 
-0.170036 0.226158 1.46612 0 0 0 
-0.166261 -0.134246 1.4319 54 255 51 
-0.150704 0.187126 1.4884 0 0 0 
-0.0532717 -0.0614356 1.533 0 0 0 
-0.147767 0.0625787 1.51067 0 0 0 
-0.128051 0.173426 1.50635 0 0 0 
-0.174481 0.0268403 1.49435 0 0 0 
-0.199044 -0.112914 1.373 254 43 39 
-0.205675 0.503005 1.40414 254 27 26 
-0.205592 -0.0793796 1.37676 26 254 26 
-0.229974 0.59407 1.33362 254 23 23 
-0.0749261 -0.224851 1.48928 0 0 0 
-0.161797 0.0502306 1.49719 0 0 0 
-0.17471 0.424129 1.44781 0 0 0 
-0.125386 0.237551 1.49982 0 0 0 
-0.208057 0.373943 1.29756 71 62 53 
-0.172782 0.170727 1.46944 0 0 0 
-0.171306 0.0418931 1.49333 0 0 0 
-0.198605 0.018067 1.47367 47 49 34 
-0.131186 -0.283223 1.43196 0 0 0 
-0.187273 0.0409338 1.47291 0 0 0 
-0.149618 -0.250118 1.42589 0 0 0 
-0.00712688 -0.24021 1.50601 0 0 0 
-0.176938 0.256932 1.45863 0 0 0 
-0.184761 0.475367 1.43892 0 0 0 
-0.0606894 -0.494626 1.40047 0 0 0 
-0.213518 0.0970342 1.38929 18 254 27 
-0.145965 -0.266847 1.40172 0 0 0 
-0.185468 0.000795453 1.48864 0 0 0 
-0.197826 -0.0492384 1.31508 80 80 255 
-0.214054 0.0384636 1.41157 23 22 20 
-0.196681 0.284794 1.42139 19 254 35 
-0.166192 0.128826 1.47801 0 0 0 
-0.191799 0.0970187 1.44764 50 53 188 
-0.151232 0.331034 1.47633 0 0 0 
-0.162439 0.348751 1.46827 0 0 0 
-0.147509 0.309087 1.48053 0 0 0 
-0.195703 0.361703 1.41811 40 254 50 
-0.134094 -0.112958 1.49094 0 0 0 
-0.0423142 -0.0435838 1.53932 0 0 0 
-0.169743 0.341656 1.4554 0 0 0 
-0.165932 0.457856 1.44659 0 0 0 
-0.0985844 -0.408092 1.43156 0 0 0 
-0.17476 0.302329 1.46336 0 0 0 
-0.125777 -0.085443 1.50532 0 0 0 
-0.188203 0.128494 1.44625 18 21 23 
-0.184303 0.119441 1.4557 1 1 2 
-0.130371 0.43285 1.48468 0 0 0 
-0.0238283 0.107457 1.56166 0 0 0 
-0.15797 -0.0752008 1.48123 0 0 0 
-0.211745 0.0480767 1.42566 254 26 25 
-0.190285 0.0208171 1.48164 0 0 0 
-0.113873 -0.308526 1.44445 0 0 0 
-0.15962 0.366931 1.46627 0 0 0 
-0.164109 -0.0932275 1.4394 0 0 0 
-0.161585 -0.0856186 1.47914 0 0 0 
-0.192947 -0.0476902 1.43159 254 45 45 
-0.187384 -0.0328924 1.45463 212 41 40 
-0.191945 0.422028 1.40059 254 30 26 
-0.164453 0.102726 1.47728 0 0 0 
-0.174444 -0.0820265 1.44392 2 0 0 
-0.169009 -0.167847 1.43456 251 17 17 
-0.206373 0.173688 1.41103 38 254 45 
-0.202439 -0.0610549 1.39631 254 55 54 
-0.232534 0.0121676 1.35643 65 63 255 
-0.170297 0.192732 1.47203 0 0 0 
-0.181243 -0.0609296 1.4463 99 102 107 
-0.201663 0.104655 1.29083 36 32 29 
-0.220911 0.0420977 1.40528 24 254 30 
-0.186787 -0.10446 1.41013 254 50 49 
-0.197221 -0.100973 1.38446 44 39 254 
-0.149288 -0.154053 1.47001 0 0 0 
-0.187327 -0.134909 1.39001 254 45 44 
-0.217831 -0.0423272 1.37238 254 30 28 
-0.192421 0.204526 1.43839 43 216 36 
-0.0896187 0.328764 1.50301 0 0 0 
-0.148536 -0.0943181 1.4833 0 0 0 
-0.205515 0.0497408 1.44117 55 254 63 
-0.210507 0.265002 1.38521 254 32 28 
-0.214137 0.575446 1.40161 23 254 33 
-0.168077 0.217794 1.47186 0 0 0 
-0.149006 0.559363 1.47953 0 0 0 
-0.158125 0.304993 1.47381 0 0 0 
-0.181207 0.430868 1.43459 2 7 1 
-0.193955 0.20954 1.26948 36 27 255 
-0.18347 0.22815 1.44604 0 0 0 
-0.188847 -0.0892784 1.40967 254 55 54 
-0.202895 0.576401 1.41207 254 9 8 
-0.114172 -0.0109603 1.52502 0 0 0 
0.136554 0.150559 1.32908 254 55 55 
0.138628 0.423233 1.28541 254 20 18 
0.111956 0.432475 1.22828 46 44 45 
0.118829 -0.0373563 1.32847 254 55 51 
0.145391 0.521459 1.31555 42 254 53 
0.177627 0.601098 1.33296 253 63 62 
0.0692774 -0.0966003 1.26376 0 0 0 
0.134591 0.200536 1.30995 68 254 68 
0.119417 0.235504 1.27114 25 254 17 
0.0974525 -0.129741 1.36852 41 38 254 
0.131866 0.19337 1.36205 27 254 31 
0.111806 0.307486 1.24461 43 254 34 
0.121381 0.28932 1.25975 254 35 26 
0.132989 0.0508246 1.32961 10 254 8 
0.138297 0.490339 1.28059 39 37 38 
0.132096 0.231665 1.29461 39 254 48 
0.108638 -0.101223 1.36686 80 79 75 
0.134703 0.462028 1.27662 77 254 77 
0.143707 0.573831 1.25593 39 35 34 
0.142236 0.0419059 1.34835 45 46 255 
-0.295303 -0.0961071 1.2775 0 0 0 
0.650813 -0.0155724 1.3216 25 25 255 
-0.0343167 -0.6664 1.40205 0 0 0 
0.13441 0.0398554 1.37473 76 72 71 
0.127955 0.0284141 1.41839 255 76 74 
0.0898971 -0.122802 1.41014 60 255 101 
0.0813704 -0.192793 1.38084 254 46 42 
0.128117 0.191592 1.28691 254 53 27 
0.045925 -0.277121 1.36236 0 0 0 
0.105197 -0.0316616 1.28151 58 55 254 
0.132675 0.0343032 1.32827 57 55 254 
-0.0819943 0.0155968 1.17128 0 0 0 
0.157391 0.578245 1.331 42 40 41 
0.152122 0.581867 1.28126 254 64 58 
0.126813 0.229948 1.27819 25 27 254 
0.145712 0.530044 1.31761 254 27 25 
0.126907 0.418015 1.25755 254 26 24 
0.139697 0.267761 1.32736 36 34 35 
0.132188 0.164843 1.3023 49 51 254 
0.0834315 -0.00321899 1.22918 67 63 254 
-0.0440384 -0.551103 1.42338 0 0 0 
-0.165827 0.484117 1.49703 49 49 254 
-0.0371294 -0.208197 1.34476 0 0 0 
0.00730586 -0.160102 1.40742 78 74 254 
-0.154961 0.361862 1.5346 0 0 0 
-0.0148843 -0.584742 1.393 0 0 0 
0.0746753 0.48031 1.47715 39 38 34 
0.124337 0.130775 1.34981 72 73 255 
0.132973 -0.0269129 1.34084 254 70 70 
0.126301 0.0632526 1.42416 45 43 255 
0.0725623 -0.197259 1.32212 0 0 0 
0.1322 0.0598797 1.37912 43 255 61 
0.0791491 0.0675388 1.48265 73 255 82 
0.0462705 0.223021 1.2085 0 0 0 
0.0921958 -0.188838 1.36453 254 76 72 
-0.0730135 -0.558953 1.38406 0 0 0 
0.101822 0.0850454 1.45491 74 74 74 
0.134917 0.0647586 1.34351 254 32 32 
0.123269 0.333841 1.40628 45 254 50 
0.0776735 -0.195843 1.33691 0 0 0 
-0.0242318 -0.61273 1.38937 0 0 0 
0.132737 0.398138 1.33549 47 255 47 
0.0765559 -0.171449 1.42385 49 254 57 
0.0852034 -0.210183 1.33442 1 1 1 
-0.0732862 -0.599738 1.38176 0 0 0 
0.130621 0.0739975 1.38377 74 254 85 
0.0250305 0.482559 1.49342 255 75 71 
0.037842 -0.341378 1.38012 0 0 0 
0.123409 0.0948407 1.35567 60 61 255 
0.134502 -0.0133844 1.32441 81 254 85 
0.141226 0.618386 1.45405 60 59 55 
0.133032 0.34338 1.34026 46 42 210 
-0.0239594 -0.579902 1.4042 0 0 0 
0.124454 -0.0290179 1.42913 41 40 38 
0.126584 0.012058 1.43593 33 254 35 
0.107372 0.0652548 1.45106 73 74 255 
0.11704 -0.029026 1.43804 63 255 60 
0.0144597 -0.0196526 1.20024 0 0 0 
0.136115 0.0930939 1.33852 0 0 0 
0.097985 -0.168188 1.37214 46 254 60 
0.0975679 0.0201146 1.48165 255 27 25 
0.0409031 0.208336 1.2077 0 0 0 
0.0841619 0.47408 1.4653 67 63 255 
0.107644 -0.0837824 1.34201 60 254 33 
0.0425979 0.0512693 1.21735 0 0 0 
0.130509 0.316654 1.3402 35 36 255 
0.121628 -0.0124956 1.29664 85 82 254 
0.140547 0.331415 1.33346 87 255 75 
0.0541556 0.611724 1.50361 254 51 50 
0.0574245 -0.241224 1.41216 47 254 67 
0.100387 0.119873 1.2681 59 58 62 
0.0935117 -0.162885 1.35834 49 254 60 
0.129765 0.285354 1.37887 28 28 26 
0.10981 0.296995 1.24241 0 0 0 
0.103801 0.105757 1.27326 45 49 250 
0.0897206 -0.180665 1.35107 68 66 254 
0.0888327 0.397031 1.45504 91 89 255 
0.0424054 0.236185 1.20582 0 0 0 
0.102562 0.061379 1.47093 73 255 73 
0.0376843 0.0790543 1.21819 0 0 0 
-0.0392584 -0.583384 1.38003 0 0 0 
0.0814447 -0.1996 1.37679 0 0 0 
0.126059 0.109858 1.38974 0 0 0 
0.129839 0.253685 1.37316 46 44 254 
0.136778 0.0142172 1.36767 32 30 31 
0.0564879 -0.269229 1.35979 0 0 0 
0.110061 0.247879 1.25597 212 57 56 
0.0499776 0.208459 1.21564 0 0 0 
0.138584 0.0185599 1.34981 56 255 55 
0.0508661 0.515626 1.4885 71 66 255 
0.158225 0.551579 1.28504 46 47 254 
0.025749 0.0277012 1.53221 67 66 64 
0.134955 0.0276883 1.39732 41 39 40 
0.119027 0.234821 1.34762 255 82 80 
0.13608 0.0502925 1.37962 0 0 0 
0.108007 0.00699419 1.47884 31 29 30 
0.117417 0.129607 1.30507 254 31 31 
0.0351741 0.403709 1.48369 46 42 255 
0.085063 -0.174202 1.36099 0 0 0 
0.0953929 -0.113021 1.33325 59 57 60 
0.100929 0.185443 1.25686 7 7 9 
0.123184 0.349541 1.39616 52 51 49 
0.0706848 0.291324 1.21985 0 0 0 
0.132316 0.0151378 1.41295 41 254 44 
0.107437 0.539912 1.20601 49 253 60 
0.0771765 -0.0810299 1.46936 42 40 41 
0.156986 0.570702 1.27841 54 50 49 
0.110479 0.133175 1.28473 2 2 4 
0.0695435 -0.197367 1.292 0 0 0 
0.0786358 0.402781 1.47102 62 60 255 
0.0383413 -0.198748 1.48989 36 36 255 
0.130572 0.450997 1.39761 49 255 64 
0.0554824 0.332558 1.19846 0 0 0 
0.12183 0.148593 1.39187 55 56 255 
0.144996 0.505064 1.31398 254 67 65 
0.0954701 -0.157209 1.39139 40 254 45 
0.144735 0.574824 1.24836 254 66 66 
0.13626 0.259567 1.33794 51 50 48 
0.130503 0.382151 1.38398 72 63 255 
0.130122 0.213448 1.3483 6 2 2 
0.0821646 -0.16196 1.31205 0 0 0 
0.0975241 -0.0750135 1.42481 59 55 255 
0.152346 0.554513 1.27049 254 48 46 
0.112353 0.372044 1.42799 72 71 67 
0.0925044 -0.154492 1.40595 56 52 254 
0.0291766 0.178157 1.20887 0 0 0 
0.0932989 -0.145179 1.3579 254 48 46 
0.134659 0.385065 1.36307 86 81 255 
0.0957341 -0.187974 1.378 54 254 79 
0.0396384 0.0288307 1.52693 46 255 63 
0.116441 0.445178 1.42736 255 83 82 
0.0339881 0.321942 1.49737 73 69 66 
0.121137 0.234264 1.3704 255 50 49 
0.102272 -0.117224 1.36115 0 0 0 
0.123917 0.264365 1.34921 59 57 255 
0.131555 0.370049 1.37901 58 254 68 
0.133948 0.387346 1.33785 54 255 57 
0.12482 0.216635 1.37475 30 255 32 
0.0802723 0.501421 1.47199 73 71 255 
0.0904219 0.296398 1.45767 255 54 49 
0.100187 0.393506 1.45009 55 55 53 
0.117443 0.212174 1.26456 0 0 0 
0.156026 0.538017 1.28834 59 57 58 
0.0524655 -0.303055 1.3911 0 0 0 
0.122735 0.145502 1.35636 254 26 25 
0.0520871 0.462221 1.17682 0 0 0 
0.0666685 0.276031 1.21636 0 0 0 
0.111801 0.415066 1.22752 34 32 29 
0.0847189 -0.198279 1.36439 0 0 0 
0.116872 0.278622 1.26313 254 25 25 
0.133047 0.2966 1.32061 26 27 255 
0.109665 0.316645 1.41878 0 0 4 
0.122205 0.0797983 1.41522 84 83 81 
0.148066 0.570133 1.39096 25 23 24 
0.0218943 0.125471 1.21044 0 0 0 
0.106786 0.0391005 1.46802 255 50 46 
-0.0405063 -0.613916 1.39802 0 0 0 
0.00388581 -0.425221 1.41984 0 0 0 
0.0612092 0.15769 1.2297 0 0 0 
0.160297 0.592248 1.25891 1 6 1 
0.105312 -0.124835 1.39506 254 61 60 
0.132953 0.248264 1.30931 254 51 51 
0.085752 -0.172911 1.34298 59 58 54 
0.0255082 -0.31591 1.44254 39 254 44 
0.0184906 0.172109 1.19997 0 0 0 
