ply                 
format ascii 1.0    
element vertex 1288
property float x    
property float y    
property float z    
property uchar red  
property uchar green
property uchar blue 
end_header          
0.0889473 0.0473252 1.48746 8 6 9 
0.0597505 0.410898 1.48131 254 77 73 
0.0602579 0.321238 1.48676 91 90 86 
0.0204553 0.0899255 1.52173 52 51 49 
0.101798 0.211701 1.44614 63 61 255 
0.13711 0.407014 1.32669 11 8 25 
0.140141 0.300424 1.3186 0 0 0 
0.0666595 0.520388 1.47822 69 64 255 
0.0483405 0.520872 1.48913 71 68 63 
0.130464 -0.0245991 1.39953 78 78 254 
0.0764389 0.519097 1.47353 69 65 62 
0.0248463 0.489206 1.5031 70 66 255 
0.112977 0.47178 1.43389 66 254 63 
0.0975805 -0.0412826 1.4588 66 67 254 
0.0572778 0.395876 1.48164 63 62 58 
0.0595317 0.275095 1.48767 254 90 86 
0.0976112 -0.0304584 1.46759 55 56 254 
0.129798 0.169542 1.34813 0 0 0 
0.109027 0.167059 1.43587 64 61 255 
0.0565882 -0.146413 1.47753 48 48 48 
0.0892087 0.104226 1.4726 69 67 255 
0.132269 0.0889966 1.34981 0 0 0 
0.081249 -0.0568282 1.48139 33 32 255 
0.0790581 0.491679 1.47134 254 74 73 
0.0997822 0.311941 1.44777 47 254 60 
0.137871 0.181671 1.34125 0 0 0 
-0.0493647 -0.56123 1.44551 0 0 0 
0.119398 -0.0308411 1.42058 81 79 80 
0.156328 0.600657 1.28463 8 8 8 
0.117 0.186557 1.41196 255 43 45 
0.125189 0.439945 1.39934 55 54 52 
0.00878936 -0.370865 1.43511 0 0 0 
0.091207 0.224496 1.46192 254 72 68 
0.074576 0.200014 1.48142 73 254 79 
0.141188 0.26084 1.33133 0 0 0 
0.0884895 0.177692 1.46805 33 32 254 
0.126796 0.176051 1.3717 30 30 254 
0.0617466 0.0679669 1.50468 50 255 54 
0.0807988 0.324679 1.46771 72 69 254 
0.0195183 0.451653 1.49384 53 53 43 
0.101117 -0.0869706 1.41202 254 62 60 
-0.00792016 -0.323898 1.46279 1 2 1 
0.129778 0.186385 1.34431 0 0 0 
0.0363372 -0.323582 1.39833 0 0 0 
0.0936248 -0.072579 1.43425 0 0 0 
0.0558161 -0.275159 1.38899 0 0 0 
0.0794041 0.570192 1.48138 39 39 37 
0.0793229 0.188376 1.47443 55 254 65 
0.125767 0.485691 1.25352 0 0 0 
0.107367 0.56545 1.45241 43 42 37 
0.0947865 0.103985 1.46084 254 68 66 
-0.00207862 -0.0667127 1.51948 51 50 48 
0.100669 0.377677 1.44264 254 71 70 
0.0859845 -0.101428 1.4314 254 58 56 
0.0921489 0.134385 1.46381 68 255 70 
0.0961887 0.0826345 1.46036 255 49 48 
0.153879 0.619371 1.42236 49 44 254 
0.104446 0.399358 1.43825 45 44 40 
0.0917286 -0.0554862 1.44046 254 65 64 
0.0275183 -0.284632 1.45448 0 1 1 
0.131232 0.357968 1.33569 167 35 35 
0.00374252 -0.241742 1.48196 38 34 254 
0.121438 0.515079 1.41755 73 245 69 
0.0787997 0.223971 1.47521 62 58 55 
0.0562848 -0.252533 1.4041 0 0 0 
0.0765661 0.285593 1.47518 71 67 254 
0.0765231 0.408957 1.46655 35 30 254 
0.0280122 -0.0193697 1.52413 67 65 255 
0.126697 0.271845 1.27842 0 0 0 
0.137198 0.121999 1.31579 0 0 0 
0.130768 -0.0068973 1.41635 99 95 94 
0.0790188 -0.182546 1.39778 0 0 0 
0.000777001 -0.287852 1.46728 41 39 253 
0.122179 0.247777 1.26804 0 0 0 
0.0643464 -0.1347 1.46636 94 93 91 
0.0491728 0.414254 1.48548 81 254 96 
0.0619001 -0.232306 1.39924 0 0 0 
0.109065 0.616842 1.48425 40 28 254 
0.0653411 0.363152 1.48023 77 73 255 
0.142259 0.352938 1.32719 0 0 0 
0.0607667 0.0331048 1.51223 48 46 49 
0.0167645 0.289801 1.50922 37 254 63 
0.0228924 -0.358943 1.40755 0 0 0 
0.100626 0.136745 1.45831 74 73 68 
0.0688137 -0.232822 1.38968 0 0 0 
0.0553117 0.489709 1.49143 62 255 54 
0.0620295 -0.22329 1.32267 0 0 0 
0.0404516 -0.286762 1.42503 0 0 0 
0.026033 -0.345378 1.40791 0 0 0 
0.109634 0.0481327 1.46353 54 255 59 
0.0475583 0.60731 1.50303 54 254 61 
0.0339119 -0.2685 1.44643 0 0 0 
0.0676384 0.0909797 1.49384 59 57 255 
0.154902 0.596952 1.26752 0 0 0 
0.0997135 0.0423359 1.47847 255 111 111 
0.130675 0.0765239 1.35313 7 8 8 
0.123343 0.307974 1.38031 49 47 254 
0.107856 0.0749066 1.44956 68 255 63 
0.0617974 -0.0436588 1.50037 64 63 61 
0.0997027 0.0318802 1.48559 51 49 52 
0.106058 0.177043 1.43979 20 21 29 
0.0661859 0.225949 1.488 254 80 73 
0.0181909 -0.233161 1.4818 49 41 254 
0.107028 0.316124 1.43689 79 76 254 
0.172731 0.622871 1.30978 0 0 0 
0.129525 0.00486947 1.44173 254 74 74 
0.0619117 0.565094 1.49183 77 254 80 
0.0522982 0.336074 1.49071 70 255 78 
-0.0364708 -0.520084 1.41587 0 0 0 
0.107736 0.269472 1.42735 255 47 43 
0.0993822 -0.00674182 1.48321 24 255 42 
0.0433135 0.403486 1.49362 255 75 72 
0.073919 -0.126415 1.45292 42 43 254 
0.0982313 0.568601 1.46329 66 65 61 
0.119088 0.0531297 1.44285 0 0 0 
-0.0433356 -0.500372 1.42511 0 0 0 
0.0664662 -0.0318238 1.50028 80 255 82 
0.0825967 0.394862 1.46275 76 75 71 
0.0596142 -0.207637 1.42316 0 0 0 
0.0672303 0.287704 1.48189 68 254 69 
0.0432528 0.188639 1.50463 52 255 63 
0.044873 0.267605 1.49934 76 73 64 
0.0837767 0.347673 1.46705 254 105 104 
0.0574027 0.265733 1.49128 48 254 57 
0.125175 0.420113 1.39466 63 58 52 
0.116476 0.564187 1.4413 48 47 45 
0.119549 0.407367 1.41116 50 45 255 
0.0396385 -0.17761 1.48638 254 71 71 
0.118906 0.0105696 1.45598 12 7 8 
0.13559 0.527705 1.27931 4 4 4 
0.0796517 0.360799 1.46795 76 72 254 
0.0910949 0.252593 1.45987 55 51 48 
0.144821 0.0307448 1.45137 28 26 29 
0.0759601 0.106926 1.48477 69 68 66 
0.0509266 -0.285474 1.39115 0 0 0 
0.0708675 0.165904 1.48583 254 81 76 
0.0825544 0.151606 1.47435 76 72 255 
0.124242 0.184206 1.39424 80 254 82 
0.0886781 0.126644 1.4688 61 255 71 
0.000912199 -0.409549 1.42609 0 0 0 
0.108271 0.238777 1.42531 45 44 42 
0.084202 0.0176872 1.49514 67 254 50 
-0.00426084 -0.365388 1.33981 0 0 0 
0.115494 0.326327 1.404 43 41 254 
0.0833297 -0.0857828 1.44972 254 57 55 
0.197949 0.589792 1.40356 28 254 30 
0.0990357 0.163376 1.45314 24 33 12 
0.0358775 -0.244142 1.45535 61 51 254 
0.0850244 0.519038 1.46389 74 71 254 
0.0991779 0.454407 1.43776 254 58 58 
0.0894267 0.313412 1.44978 50 254 55 
0.135925 0.521708 1.3319 67 254 70 
0.0671673 0.311327 1.47871 59 56 255 
0.00789756 -0.40552 1.41589 0 0 0 
0.0837304 0.42084 1.4558 71 70 66 
-0.0281333 -0.587718 1.40649 0 0 0 
0.117084 0.245959 1.4152 255 59 53 
0.0733499 0.214036 1.48211 59 56 255 
0.109382 0.194938 1.43455 114 112 113 
0.0214182 -0.226798 1.47202 254 60 60 
0.0997673 0.252875 1.44877 59 59 57 
0.0844148 0.406309 1.46004 79 78 74 
0.113629 0.369296 1.41229 64 60 254 
0.101306 -0.0318931 1.44978 254 37 35 
0.104678 -0.0192918 1.46589 47 254 50 
0.106443 0.479557 1.44276 43 254 46 
0.0730987 0.611036 1.48775 47 254 50 
0.14015 0.38819 1.31689 0 0 0 
0.136156 -0.0144217 1.34222 0 0 0 
0.0103665 0.404467 1.50347 81 254 86 
0.0540857 -0.23354 1.41642 0 0 0 
0.141772 0.309349 1.3266 0 0 0 
0.102701 0.136741 1.44746 70 255 73 
0.0657706 -0.20645 1.41008 0 0 0 
0.0568229 0.309669 1.48307 78 77 73 
0.105865 0.294395 1.43722 39 36 254 
0.10012 0.476352 1.45062 95 254 99 
0.175809 0.598845 1.29512 0 0 0 
0.120372 0.260299 1.44018 255 48 47 
0.029641 -0.0467948 1.51319 79 255 80 
0.131108 0.450443 1.38381 55 59 254 
0.127862 0.177824 1.38241 90 88 89 
0.0908641 -0.0129543 1.48884 59 57 58 
0.0554026 -0.170554 1.46322 63 51 51 
0.104616 -0.0417365 1.44678 35 36 254 
0.0926747 0.514427 1.45598 70 254 70 
0.17407 0.615677 1.3015 0 0 0 
0.131354 0.156761 1.30666 0 0 0 
0.0706148 -0.138742 1.44846 107 105 106 
0.0831882 0.249813 1.46761 78 76 255 
0.136105 0.588638 1.38963 53 48 254 
0.0511215 0.38835 1.49211 51 255 57 
0.142518 0.16435 1.33742 0 0 0 
-0.0883328 -0.16354 1.53886 45 255 44 
0.0388305 0.20358 1.50673 255 83 80 
0.119589 0.506758 1.42784 69 67 68 
0.174625 0.604174 1.39946 33 29 253 
0.0933369 0.283382 1.45582 73 72 68 
0.147849 0.585041 1.25387 0 0 0 
0.091934 0.270193 1.45507 60 58 254 
0.130619 0.531438 1.39196 6 18 6 
0.0634089 0.0591311 1.51106 255 33 33 
0.112479 0.13222 1.43365 255 55 53 
0.105318 0.0139188 1.46658 55 255 51 
0.0567784 0.0811044 1.5023 31 29 255 
0.0906081 0.609055 1.47079 39 38 254 
0.0692884 0.252886 1.47901 255 66 63 
0.12579 0.57661 1.22958 0 0 0 
0.0432031 -0.26651 1.41614 0 0 0 
0.0465825 0.14067 1.50195 255 62 58 
0.12529 0.526102 1.4119 81 77 76 
0.107387 0.464195 1.43523 49 48 254 
0.0797794 0.0542873 1.49868 76 72 71 
0.0791404 0.387181 1.46658 84 83 79 
0.0298777 0.396662 1.49851 73 70 254 
0.135912 0.445391 1.31754 31 31 138 
0.0547149 0.609276 1.49695 50 48 254 
0.111358 -0.0429598 1.41964 254 56 54 
0.0932662 0.486609 1.46064 62 61 57 
0.0886994 0.431959 1.45571 64 61 254 
0.105851 0.293241 1.42075 255 61 60 
0.0952492 0.185809 1.4392 62 58 55 
0.080029 -0.149609 1.41012 0 0 0 
0.0979126 0.403083 1.44465 57 56 52 
0.0824742 0.461535 1.46729 65 254 69 
0.119876 0.540193 1.42418 56 54 55 
0.0803099 0.553623 1.47328 54 53 51 
0.0944015 -0.133323 1.39769 0 0 0 
0.0819392 0.0973301 1.47945 86 254 88 
0.0780364 0.0154771 1.50591 10 11 254 
0.00749608 -0.427301 1.3924 0 0 0 
0.127587 -0.05793 1.37561 0 0 0 
0.10231 0.465794 1.44559 66 65 63 
0.0903819 -0.0772904 1.44344 69 67 254 
0.125598 0.492427 1.42248 71 69 254 
0.089202 0.240526 1.46472 40 254 41 
0.115192 0.519003 1.23743 0 0 0 
0.135259 0.0598081 1.41004 254 71 69 
0.139332 0.0549926 1.33145 0 0 0 
0.0993599 0.355445 1.44494 60 56 53 
0.0614504 -0.000889769 1.51296 77 75 78 
0.144341 0.496131 1.31499 255 43 41 
0.141342 0.0215251 1.31045 0 0 0 
0.121942 0.564023 1.4326 46 45 43 
0.0329117 0.126837 1.51266 49 47 255 
0.0580323 0.180767 1.49415 52 255 61 
0.110772 0.484794 1.23922 0 0 0 
0.0585274 0.0928219 1.50194 82 254 77 
0.101995 0.581991 1.19946 0 0 0 
0.0906864 -0.134214 1.38442 0 0 0 
0.0823868 -0.136622 1.42214 253 41 39 
0.0526918 -0.22042 1.43454 120 121 128 
0.0614469 0.300456 1.48531 70 254 68 
0.143475 0.592551 1.37671 45 254 55 
0.0423862 0.104472 1.50963 255 72 71 
0.0225983 -0.313986 1.43729 0 0 0 
0.121067 0.52108 1.43127 50 254 51 
0.138487 0.586392 1.40132 45 254 44 
0.0592307 0.253008 1.49018 68 255 78 
0.0161447 -0.355417 1.42034 0 0 0 
0.159113 0.600227 1.30605 43 39 253 
0.0529084 0.126405 1.50162 73 70 255 
0.146047 0.502989 1.35162 48 48 48 
-0.0394845 -0.318226 1.47565 48 254 53 
0.109804 0.273662 1.41622 24 21 255 
0.11051 0.182294 1.42034 255 41 40 
0.0474975 -0.227405 1.44239 76 71 67 
0.0688419 -0.161772 1.44398 97 254 111 
0.163251 0.595184 1.27824 2 1 1 
0.0866419 -0.129673 1.41351 46 47 250 
0.129563 0.263592 1.35594 43 252 55 
0.106898 0.340883 1.43562 74 74 255 
0.123763 -0.0281475 1.40858 0 0 0 
0.106099 0.113285 1.4465 44 51 130 
0.135362 0.0290414 1.35099 0 0 0 
0.151039 0.00673369 1.28002 0 0 0 
0.0674867 -0.191931 1.42041 0 0 0 
0.12757 0.319624 1.38661 42 40 41 
0.166924 0.596599 1.31761 251 51 50 
0.130859 0.320123 1.36504 53 54 254 
0.122853 0.0845793 1.40404 53 58 254 
0.0389817 -0.29252 1.4104 0 0 0 
0.0870417 -0.137729 1.40596 1 1 1 
0.0928278 0.0199232 1.48759 23 255 22 
0.136741 0.547106 1.39639 33 30 24 
-0.0308167 -0.411473 1.48478 0 0 0 
-0.0717526 0.440969 1.42056 0 0 0 
0.057422 0.382578 1.48198 32 254 61 
0.00872225 0.386751 1.5063 92 89 254 
0.121311 0.46441 1.41454 14 4 4 
0.115642 0.200815 1.42017 0 0 0 
0.0212137 0.0696653 1.53437 57 56 54 
0.0790733 -0.119034 1.43803 0 0 0 
0.106807 -0.0439323 1.4311 0 0 0 
0.0855744 0.211591 1.46939 40 39 254 
0.0751161 0.433298 1.4662 65 64 62 
0.0866423 0.273153 1.46409 52 49 254 
0.0414816 0.415263 1.49214 254 82 81 
0.0737812 0.35604 1.47377 35 34 32 
0.106158 0.304769 1.43711 57 53 54 
0.109663 0.107104 1.43642 0 0 0 
0.127061 0.22633 1.38055 0 0 0 
0.0913575 0.335901 1.45665 254 62 61 
0.0885459 0.196255 1.46397 63 62 254 
0.0525446 -0.0286034 1.51236 62 254 59 
0.0821156 0.161681 1.47594 254 68 64 
0.0907303 0.354308 1.45629 63 61 254 
-0.0208464 -0.490144 1.42065 0 0 0 
0.0913918 0.18639 1.46289 61 254 64 
0.0991026 0.195748 1.45213 254 60 59 
0.120281 0.136248 1.41464 0 0 0 
0.0406823 -0.0336835 1.5131 64 63 61 
0.136189 0.491579 1.37752 0 0 0 
0.13643 0.346254 1.33105 0 0 0 
0.0492571 0.218499 1.49964 67 254 81 
0.0475343 -0.247429 1.42452 0 0 0 
0.17007 0.62046 1.28261 0 0 0 
0.105055 -0.100305 1.38454 0 0 0 
0.0185893 0.022485 1.53788 50 48 255 
0.131888 0.195892 1.34233 0 0 0 
0.0784896 0.118134 1.48166 57 56 254 
0.0580771 0.155635 1.49663 255 80 76 
0.0393023 -0.23316 1.45951 0 0 0 
0.0796982 0.45303 1.46454 70 69 65 
0.0442862 0.348114 1.49384 69 65 62 
0.0656895 0.0191244 1.51129 46 44 254 
0.104331 0.268842 1.44137 254 40 36 
0.109188 0.415991 1.42554 80 80 80 
0.0464802 -0.285768 1.40219 0 0 0 
-0.0047404 -0.184892 1.5088 23 254 27 
0.0900454 -0.032748 1.48062 45 43 46 
0.128779 0.299482 1.38016 0 0 0 
0.127756 0.217264 1.39342 0 0 0 
0.112189 0.175864 1.42893 0 0 0 
0.0281879 -0.350234 1.39797 0 0 0 
0.0648552 -0.183161 1.42853 0 0 0 
-0.00778493 -0.439759 1.42472 0 0 0 
0.0444558 0.330187 1.49475 254 65 64 
0.0494665 -0.188797 1.46063 0 0 0 
0.0451426 0.231487 1.50165 90 86 85 
0.117463 0.344762 1.41159 0 0 0 
0.0676288 0.114265 1.49167 254 72 71 
0.0723901 -0.0612931 1.49065 65 61 60 
0.0487674 0.207712 1.50079 54 51 46 
0.136913 0.271812 1.33548 0 0 0 
0.139434 0.490954 1.36776 0 0 0 
0.138935 0.522025 1.36819 0 0 0 
0.109309 0.156619 1.43478 0 0 0 
0.136324 -0.000567109 1.38932 0 0 0 
0.0949276 0.151148 1.45863 254 50 49 
0.115985 0.161743 1.42513 0 0 0 
0.082442 0.44224 1.4588 78 77 73 
0.122836 0.029239 1.44806 0 0 0 
0.103053 0.187567 1.44748 40 38 39 
0.0990681 0.239308 1.45034 62 254 69 
-0.0332401 -0.39646 1.5036 0 0 0 
0.0621368 0.520426 1.48854 254 67 66 
0.0269319 0.500288 1.50921 254 75 72 
0.0193619 0.463241 1.50604 70 254 64 
0.00960069 0.466701 1.51325 72 254 81 
0.110298 0.626154 1.48556 7 34 8 
0.0194166 0.487499 1.51231 254 70 61 
0.0100194 0.480801 1.51681 41 36 254 
0.142302 0.647767 1.47598 0 0 0 
0.0481021 0.494288 1.50095 254 71 70 
-0.000902069 -0.003992 1.54819 47 255 48 
-0.0660664 -0.603028 1.42134 0 0 0 
0.0461232 0.00179935 1.5283 254 65 61 
0.0357761 0.384986 1.49981 73 68 254 
0.0177311 0.510155 1.51113 73 64 254 
0.063984 0.469674 1.48471 49 254 52 
0.00661718 -0.187222 1.50275 254 61 60 
0.128869 0.617697 1.46224 41 11 11 
0.145766 0.607634 1.43872 42 10 11 
0.0206326 -0.0418495 1.51896 67 64 254 
0.0350447 -0.0113459 1.5288 58 56 57 
-0.0286148 0.504685 1.5222 45 36 254 
0.0368546 0.481287 1.50681 44 254 60 
-0.0323507 0.284776 1.52492 35 31 254 
0.0269661 -0.0329567 1.5227 254 62 60 
0.0153574 0.498447 1.51235 64 254 67 
-0.0106155 0.511354 1.51822 61 60 56 
-0.0157268 0.471685 1.51719 254 60 56 
-0.0794405 -0.0644497 1.52505 255 71 71 
0.0155567 -0.278494 1.46543 0 0 0 
0.0913408 0.0654272 1.48197 69 254 69 
-0.0018103 -0.0192933 1.54004 255 80 79 
0.00663391 -0.261333 1.4735 0 0 0 
-0.00508163 0.464865 1.50816 61 254 72 
-0.00607931 0.492398 1.51719 32 254 45 
0.0122834 0.148513 1.52519 59 57 255 
0.0943914 0.477399 1.46144 254 54 52 
-0.0333288 -0.40812 1.45294 0 0 0 
0.0230514 0.613138 1.51247 43 41 29 
-0.0058319 0.339462 1.51385 62 254 74 
0.00659358 0.514879 1.51621 60 59 55 
0.025421 0.475706 1.50959 65 64 59 
0.0463689 -0.0159974 1.52165 71 66 254 
0.0712268 0.381173 1.47535 46 44 45 
0.113043 -0.0322361 1.41082 0 0 0 
0.0992754 0.346507 1.44607 89 88 86 
0.0377734 0.264729 1.50704 88 87 83 
0.027324 0.380458 1.50374 67 62 254 
0.0410124 0.51604 1.49916 76 72 69 
-0.0196224 0.367686 1.51802 254 73 73 
0.113391 0.247581 1.4032 0 0 0 
-0.0012884 0.0701996 1.54153 255 36 35 
-0.0327622 -0.126924 1.522 58 254 57 
-0.0259702 0.243568 1.52634 62 32 30 
-0.0462715 0.0913875 1.53608 73 71 255 
0.0132506 -0.35064 1.43963 0 0 0 
0.0451912 0.0802488 1.51222 255 39 38 
-0.0364492 0.0717694 1.54709 255 26 25 
0.121853 0.00462507 1.44963 1 1 1 
0.0467605 0.0660969 1.52371 23 21 255 
-0.00767505 0.39342 1.51685 85 254 93 
0.109958 0.61547 1.4844 31 30 29 
0.138539 0.578321 1.40819 75 70 254 
0.0633302 0.241383 1.49117 65 63 254 
0.000437313 0.0217093 1.54714 92 90 91 
0.0205369 -0.0164599 1.5322 255 108 107 
0.0718465 0.0754745 1.48975 67 66 64 
0.00318674 0.381581 1.51548 92 254 110 
0.1276 0.160354 1.34418 0 0 0 
0.0673233 0.611332 1.51093 254 29 28 
0.035796 0.541545 1.50091 66 66 254 
0.058949 -0.151721 1.46104 0 0 0 
0.051944 0.245801 1.49703 71 254 95 
0.0345055 0.437721 1.49826 254 103 98 
0.0216711 0.219235 1.51647 254 79 75 
0.119609 0.0265479 1.39241 0 0 0 
-0.0213873 0.511974 1.51728 67 254 69 
0.0588098 0.362976 1.48867 254 87 86 
0.0788982 -0.184332 1.37903 0 0 0 
-0.0373569 0.318979 1.52268 55 254 81 
-0.0629567 0.338537 1.51879 254 72 72 
0.0673243 -0.0913624 1.48158 60 254 53 
-0.0259194 -0.0592076 1.53376 255 73 70 
0.0968566 -0.0551712 1.43073 0 0 0 
-0.0359767 0.184654 1.53176 70 67 254 
0.0646623 -0.075887 1.49213 64 254 76 
0.0164666 -0.182573 1.50071 55 50 254 
0.0316067 0.0776645 1.51768 70 68 255 
0.135438 0.538113 1.39972 65 253 67 
-0.00334377 0.24447 1.52207 59 31 30 
0.108069 -0.0261724 1.44504 0 0 0 
-0.00926679 0.20308 1.52483 254 55 24 
-0.00152903 0.364507 1.51574 84 80 254 
0.0318374 -0.31091 1.40219 0 0 0 
0.0101306 0.321099 1.51516 44 39 33 
0.0828504 0.564412 1.48535 254 62 60 
0.114018 -0.0551962 1.39039 0 0 0 
0.0328621 -0.12689 1.49369 254 64 63 
0.00358045 0.288935 1.51947 54 25 27 
0.0428153 0.570529 1.50827 40 38 254 
-0.037575 -0.306343 1.48162 0 0 0 
0.0887568 0.221749 1.46644 254 84 80 
0.0400429 -0.16967 1.48022 30 32 24 
-0.016049 0.0260971 1.54866 255 72 66 
0.113806 0.0835746 1.42619 0 0 0 
0.0251461 0.363078 1.50702 80 76 254 
0.0426238 0.39414 1.49764 254 62 58 
-0.0275659 -0.0294554 1.54576 42 255 47 
0.0412254 -0.157655 1.48296 64 69 72 
0.13879 0.392102 1.32625 0 0 0 
0.0306765 0.510809 1.50482 68 254 76 
-0.00984023 0.377979 1.51697 80 79 74 
0.120382 -0.0413109 1.39156 0 0 0 
-0.0377102 0.340596 1.5206 74 71 66 
0.0392097 -0.194346 1.474 0 0 0 
0.0398379 0.504502 1.50304 73 72 68 
0.039023 -0.180257 1.4801 33 27 17 
0.0564925 0.351108 1.49033 66 63 254 
0.074434 0.188587 1.48349 254 67 63 
-0.0453504 0.402413 1.51666 254 80 79 
0.0581589 -0.233291 1.39474 0 0 0 
-0.0122207 -0.28948 1.47293 0 0 0 
0.0854282 0.376651 1.4643 66 62 254 
0.0322324 0.296971 1.50632 89 83 254 
-0.00270113 -0.328596 1.46133 0 0 0 
0.0514167 -0.275135 1.39963 0 0 0 
-0.0102905 -0.18123 1.51006 129 127 254 
0.108948 0.558082 1.45418 254 51 49 
0.0130937 -0.155726 1.50206 50 254 54 
0.00562922 -0.289575 1.4634 0 0 0 
0.0174305 0.048071 1.5392 34 255 26 
0.0710276 -0.0968659 1.47075 1 1 1 
0.0685913 0.263506 1.47732 36 35 254 
0.0166482 0.428953 1.4952 67 63 60 
0.130228 0.332457 1.33564 0 0 0 
-0.0322842 -0.388762 1.45928 0 0 0 
0.153995 0.609277 1.42044 1 1 1 
0.058125 0.208766 1.49434 24 20 254 
-0.0362734 -0.108115 1.52604 255 54 53 
0.0312093 -0.0969991 1.49759 64 254 60 
0.0803045 -0.0461224 1.48886 70 70 254 
-0.047223 0.0120812 1.55774 255 35 34 
0.0730049 0.575553 1.49147 254 42 41 
-0.0146123 0.485693 1.51627 66 66 58 
0.127377 0.440538 1.38656 0 0 0 
0.0259212 0.308252 1.50959 64 57 254 
-0.0105548 0.0354123 1.55206 70 255 76 
0.0717992 -0.139149 1.43638 0 0 0 
0.102071 0.520874 1.44945 254 71 71 
-0.0546448 0.0289781 1.55358 44 255 52 
0.0481372 0.369695 1.49247 254 89 85 
0.0859637 -0.0671774 1.45326 0 0 0 
0.0440679 -0.233897 1.44854 0 0 0 
0.0669281 -0.114566 1.46172 0 0 0 
0.0532548 0.553288 1.49728 254 60 59 
-0.0339892 -0.140118 1.51875 39 37 254 
-0.0584702 0.39202 1.5172 79 70 254 
-0.032088 0.0630922 1.54415 255 72 68 
0.0457224 0.0189156 1.52894 46 255 50 
0.0397107 0.165793 1.51121 255 74 70 
0.110792 -0.0824418 1.37655 0 0 0 
0.0688759 0.500403 1.48769 56 254 65 
0.0689353 -0.20027 1.38819 0 0 0 
0.0984157 0.623441 1.4855 48 48 45 
-0.036226 0.258837 1.52897 56 46 36 
0.0903607 0.604431 1.47616 30 29 25 
0.0630315 -0.244796 1.34583 0 0 0 
0.13072 0.608256 1.45812 38 35 32 
-0.0156329 0.00251307 1.33208 58 63 57 
0.0779908 -0.167996 1.40909 0 0 0 
0.0634156 -0.0556317 1.49394 68 69 254 
0.119283 -0.0100836 1.43038 0 0 0 
0.0736043 -0.161221 1.41981 0 0 0 
0.0402741 0.0480453 1.52784 77 255 76 
0.0981132 0.224453 1.4531 32 30 31 
0.0454637 0.461692 1.49462 61 62 254 
0.0896056 0.624335 1.49233 209 35 36 
0.0467318 0.0409296 1.52432 63 63 254 
-0.0551539 0.155088 1.53131 71 66 62 
0.00602375 -0.0840318 1.51496 61 59 62 
0.0241918 0.163553 1.51941 64 61 254 
0.0989423 -0.118454 1.38793 0 0 0 
0.0846442 0.00460903 1.50198 71 254 74 
0.0750315 0.419042 1.47398 48 254 50 
-0.00424021 -0.269141 1.47298 0 0 0 
0.0739089 0.0894407 1.48447 254 74 74 
0.0268322 0.0139583 1.54079 43 41 255 
0.0127139 -0.105295 1.50768 69 66 61 
0.0464049 0.284827 1.4994 53 254 57 
0.0609149 -0.184329 1.42369 0 0 0 
0.0245315 0.408775 1.49874 71 68 254 
0.0159052 0.372607 1.51138 80 77 72 
0.024903 0.153358 1.51815 47 43 255 
0.0175092 -0.373603 1.40782 0 0 0 
-0.0270185 -0.313323 1.47478 0 0 0 
0.055995 0.638371 1.52016 23 22 19 
0.0961978 0.120511 1.45512 75 75 254 
0.00376679 0.18669 1.52726 47 46 42 
-0.003926 0.100345 1.52871 74 70 69 
0.00753545 0.164079 1.52561 62 254 70 
-0.0372761 -0.33048 1.47262 0 0 0 
-0.00669537 -0.109226 1.5153 81 254 80 
-0.00741938 0.615066 1.54468 57 254 66 
0.0176331 0.19728 1.51739 80 70 254 
-0.0245026 0.471229 1.51923 254 65 62 
0.0182721 0.135534 1.52172 54 52 255 
-0.507821 -0.0676696 0.646225 0 0 0 
0.0425754 0.240761 1.50597 70 67 254 
0.072922 0.0281485 1.50176 56 55 254 
0.00845712 -0.218886 1.50634 54 50 254 
-0.0265788 -0.28477 1.47943 0 0 0 
-0.00147471 -0.148756 1.50644 254 46 45 
0.03186 0.22128 1.51122 58 254 70 
0.200889 0.0135403 1.48555 0 0 0 
-7.64263e-05 0.351517 1.51466 65 62 53 
-0.00951632 -0.441198 1.43166 0 0 0 
0.0312101 -0.322549 1.41575 0 0 0 
-0.0293239 0.025989 1.55043 68 67 255 
-0.0100059 0.524358 1.51251 62 57 254 
0.0836731 0.0387614 1.49453 254 62 60 
0.0209492 0.00823154 1.54482 66 67 254 
0.0732323 -0.0414255 1.49716 72 71 69 
-0.045545 0.299559 1.52057 72 68 57 
0.0969418 -0.0183367 1.47885 53 254 57 
-0.00341153 0.130371 1.53043 23 19 16 
0.0103496 0.426291 1.50391 87 84 254 
0.0854089 0.362833 1.45978 254 63 62 
-0.026492 -0.374544 1.46224 0 0 0 
-0.0287642 0.357778 1.51858 84 80 254 
0.122839 0.565929 1.40476 53 41 254 
0.0097071 0.0923105 1.52995 46 255 63 
0.0240179 0.108204 1.52071 44 40 39 
-0.0290223 -0.083331 1.53148 69 67 255 
-0.10839 -0.36008 1.45242 0 0 0 
0.110031 0.0986433 1.42605 0 0 0 
-0.0384887 0.0137475 1.55282 38 36 255 
0.0298938 0.600623 1.51516 36 33 28 
0.0140779 -0.199335 1.5004 254 59 60 
0.0177979 -0.0845409 1.50654 254 79 76 
0.035376 -0.1387 1.48941 253 84 80 
0.0718564 0.276789 1.48263 45 254 51 
0.00402599 -0.0339804 1.53043 254 51 50 
0.0445372 0.306546 1.49981 63 254 72 
-0.13214 -0.177957 1.51978 40 40 255 
0.0320228 0.0606403 1.53341 47 255 52 
-0.0205477 0.158596 1.532 60 255 68 
-0.03919 -0.444708 1.44787 0 0 0 
0.0226239 0.418318 1.49845 76 71 67 
-0.00188145 -0.0970031 1.51669 60 254 65 
-0.0111055 -0.132072 1.51252 54 51 254 
0.115795 0.600652 1.45262 254 29 28 
0.0513381 -0.104039 1.49164 58 57 55 
-0.028913 0.0077605 1.55578 74 72 255 
-0.0550466 0.331038 1.51964 64 53 254 
0.0131907 -0.0561826 1.5204 58 254 65 
0.0605124 0.171392 1.49769 47 254 55 
0.123076 0.601489 1.43799 58 57 52 
0.132226 -0.00948864 1.39831 0 0 0 
0.0648611 0.0756137 1.49755 24 254 35 
0.046328 0.255745 1.49872 254 66 56 
0.0895327 0.624552 1.49183 24 22 250 
0.0434488 0.12816 1.5083 254 61 55 
0.0621755 0.339693 1.48301 68 254 71 
0.131444 0.604933 1.42734 254 40 39 
0.141885 0.610794 1.43943 20 20 18 
0.0659936 0.00856787 1.51524 79 79 79 
0.111648 0.0042401 1.45333 8 9 4 
-0.0583003 -0.0173422 1.21691 66 69 252 
0.0418767 0.0031922 1.13063 0 0 0 
-0.0416035 -0.469756 1.48162 0 0 0 
-0.0313119 -0.265106 1.56321 50 49 45 
-0.0446863 -0.481933 1.47543 0 0 0 
-0.186584 0.519579 1.41722 0 0 0 
0.00685383 0.507146 1.51375 62 254 72 
0.0650441 0.374728 1.48185 47 42 254 
-0.0154209 0.528547 1.51624 38 33 29 
-0.0738973 -0.607608 1.42665 0 0 0 
0.0632556 -0.021626 1.51048 77 78 254 
0.0110821 0.459025 1.50908 32 27 24 
0.00596835 -0.277323 1.4655 0 0 0 
-0.0245244 -0.0378856 1.54016 76 255 79 
-0.0267746 -0.33878 1.46857 0 0 0 
-0.0132275 0.307501 1.52069 254 50 24 
0.0226158 0.269163 1.51217 58 46 254 
-0.0108924 -0.461066 1.41567 0 0 0 
-0.0283919 0.392384 1.51689 254 68 64 
-0.0503537 0.264174 1.52373 44 254 66 
0.0494587 0.166248 1.50557 53 50 254 
-0.0028321 0.383224 1.5108 92 254 110 
0.0536339 0.29203 1.49408 70 65 254 
0.143014 0.567251 1.39654 58 53 254 
-0.0434607 0.30859 1.52142 254 66 64 
-0.0368367 -0.0593909 1.53829 52 255 56 
-0.013106 0.294676 1.52069 25 254 53 
-0.0482509 0.113734 1.53557 44 42 43 
0.0348222 0.611054 1.51 254 41 38 
-0.0170897 0.13152 1.53256 53 52 48 
0.0557611 0.44274 1.48727 61 254 72 
-0.0236637 0.373018 1.517 254 74 71 
-0.0241552 -0.473036 1.434 0 0 0 
0.0090443 -0.250302 1.47331 0 0 0 
0.0559463 0.459608 1.48719 254 51 50 
-0.0252929 0.306127 1.52199 254 65 37 
-0.169116 0.0352691 1.5091 77 75 255 
0.0427401 -0.298666 1.39865 0 0 0 
-0.0567771 0.240351 1.52989 71 59 254 
0.107187 0.0323461 1.49599 51 49 52 
0.050191 0.318274 1.496 254 54 55 
0.0129622 0.20866 1.52021 43 254 60 
0.012854 0.610577 1.52286 37 25 254 
0.103465 -0.0723109 1.40386 0 0 0 
-0.0158448 0.459353 1.51055 68 254 76 
0.0112844 0.2806 1.51513 54 50 41 
0.0531061 0.193765 1.49702 97 94 254 
-0.00883823 -0.0120327 1.54687 118 255 124 
0.0848652 0.230979 1.47001 72 68 69 
-0.0810368 -0.122758 1.52951 57 58 255 
0.0476162 0.0910421 1.50948 255 55 54 
-0.0495722 0.434689 1.51213 74 254 80 
-0.0405866 -0.46972 1.43935 0 0 0 
-0.0133356 0.390975 1.51465 66 63 254 
0.0107229 -0.390716 1.41214 0 0 0 
0.0382455 -0.253246 1.44943 0 0 0 
0.0542929 0.535677 1.49254 71 70 68 
0.161273 0.0139013 1.48062 0 0 0 
-0.010601 -0.0806463 1.5179 86 254 80 
-0.0183601 -0.387062 1.45289 0 0 0 
-0.041737 -0.281574 1.48775 0 0 0 
-0.014954 0.113298 1.53425 255 68 67 
-0.0768548 -0.152995 1.52566 254 36 34 
-0.00543123 0.176055 1.52858 254 61 56 
-0.0288931 -0.275523 1.48484 0 0 0 
-0.00092835 -0.350991 1.45126 0 0 0 
-0.0814321 -0.138334 1.5242 254 59 58 
0.0101028 0.44789 1.50539 59 254 66 
-0.00313416 0.318167 1.51858 22 254 57 
0.0320642 0.169669 1.50935 255 71 66 
0.0193227 0.320436 1.5104 75 68 254 
0.0888302 0.540024 1.46609 60 58 59 
0.0292556 -0.155899 1.49253 90 87 254 
0.00328812 0.435999 1.5111 67 64 254 
-0.0096672 -0.165474 1.50227 254 125 124 
0.0643044 0.408166 1.47488 254 99 95 
0.0605903 0.38561 1.4834 254 75 71 
-0.00791678 0.47809 1.50991 254 26 22 
0.0813889 0.509464 1.46692 254 61 60 
0.00423879 0.508909 1.50999 42 38 254 
0.0446898 0.502148 1.49051 65 62 254 
0.0135679 0.464053 1.50599 254 76 72 
0.110052 0.619506 1.48023 218 40 39 
0.0725682 0.472354 1.47367 64 254 69 
0.0171402 0.496902 1.50404 63 54 254 
0.0152006 0.519344 1.5003 34 29 25 
0.00486222 0.524507 1.50532 45 41 254 
-0.0190996 0.503447 1.51233 37 28 254 
0.00572333 0.482245 1.50798 10 254 24 
-0.0189384 0.520951 1.51181 39 35 254 
0.0847928 0.472428 1.46802 43 41 254 
0.0574286 0.514566 1.48644 78 254 81 
0.127588 0.616024 1.45714 28 29 25 
0.04452 0.517077 1.48707 79 76 254 
-0.0317605 0.511969 1.5108 53 48 45 
-0.00867186 0.00298104 1.54216 254 74 73 
0.0156813 0.483412 1.50912 54 51 46 
0.0785479 0.400991 1.46591 80 75 254 
0.0623633 0.48221 1.48107 58 254 75 
-0.03094 -0.0271343 1.53562 42 43 255 
0.0200187 0.461923 1.49503 40 39 34 
0.0297415 0.470634 1.49617 254 70 67 
0.0443738 0.477428 1.48854 45 254 55 
0.0572994 0.469908 1.48434 77 73 254 
0.058967 0.504536 1.48119 71 254 73 
0.0744908 0.50283 1.47188 81 80 76 
0.139322 0.650951 1.47061 0 0 0 
-0.00414993 0.50044 1.50893 254 29 20 
0.106874 0.0659791 1.46715 37 253 63 
0.0687859 0.482623 1.47328 58 254 61 
0.0470007 0.48808 1.4933 82 78 75 
0.120904 0.624718 1.46474 18 87 25 
0.116847 0.480276 1.43032 70 68 69 
0.0259143 0.490755 1.50028 40 254 59 
0.103327 0.00528069 1.47987 66 254 60 
0.0480598 0.614271 1.4988 48 254 51 
0.144798 0.608662 1.43691 70 16 16 
0.0488948 -0.278137 1.33422 0 0 0 
0.0654656 0.374363 1.48349 76 72 71 
0.0308768 0.487401 1.50781 254 47 43 
-0.0576507 0.227511 1.52333 15 8 254 
0.129123 0.0662193 1.42937 0 0 0 
-0.114891 0.189165 1.51094 35 254 41 
-0.00712231 -0.00731874 1.5359 44 45 255 
0.0118873 0.509057 1.5165 39 34 30 
0.0617237 0.393069 1.47581 79 78 254 
0.0676212 0.513446 1.47575 73 70 254 
0.0430441 0.466894 1.49176 71 254 86 
0.0928279 0.37315 1.45255 254 33 32 
0.0181482 0.494169 1.5134 41 254 55 
0.0217896 0.456637 1.50958 53 48 44 
0.105224 0.0842457 1.45591 193 48 48 
0.06976 0.32882 1.47749 84 81 254 
0.110729 0.0195543 1.47138 227 75 74 
0.0791009 0.211698 1.48421 42 38 254 
0.0825706 0.612358 1.47855 35 34 32 
0.0769229 -0.0599629 1.48378 27 34 199 
0.11284 0.624055 1.47232 23 140 25 
-0.0528366 0.0711578 1.54551 22 254 25 
0.0270083 0.417318 1.4997 71 66 254 
0.119722 0.357794 1.41022 0 0 0 
0.0730218 0.348449 1.4753 81 76 73 
-0.0777136 0.0725283 1.53423 22 20 254 
-0.12201 0.172684 1.50784 63 58 54 
-0.0879624 0.548262 1.50883 30 25 254 
-0.0429411 0.0724412 1.53544 254 78 74 
0.0429916 -0.00354935 1.51066 254 19 17 
-0.130919 0.0718402 1.51947 32 255 40 
0.124806 0.110835 1.42072 0 0 0 
0.0361139 0.497339 1.49852 254 61 58 
-0.0894128 -0.0847701 1.5214 255 61 57 
0.0927439 0.251383 1.47342 41 254 47 
0.13655 0.421739 1.34421 0 0 0 
0.0235994 -0.207318 1.47951 64 56 255 
0.0880582 0.0803525 1.48408 6 254 11 
-0.0913551 0.113163 1.52257 42 38 35 
0.124784 0.0194452 1.43255 0 0 0 
-0.00269193 0.489613 1.51563 254 37 32 
-0.0283828 0.290995 1.51894 58 254 68 
-0.0371999 0.0766583 1.53301 36 31 255 
0.0714043 0.30518 1.47556 254 76 72 
0.00601766 0.495804 1.50985 31 24 16 
-0.11831 -0.165902 1.50945 255 45 42 
-0.0106401 -0.0212865 1.52753 50 255 53 
0.139174 0.307883 1.35299 0 0 0 
0.018184 0.386757 1.50577 69 254 90 
-0.00951275 0.513021 1.51134 34 254 42 
0.134667 0.536396 1.38754 2 2 1 
0.0925511 0.389932 1.45563 54 52 254 
0.0852172 0.484809 1.46839 75 71 68 
-0.0195151 0.473885 1.51221 54 50 254 
0.0643447 0.460789 1.47341 34 254 36 
0.124151 0.0750439 1.35333 0 0 0 
0.117726 0.0207399 1.44684 0 0 0 
0.127545 0.531629 1.40776 67 65 227 
0.047427 0.40748 1.48915 254 70 69 
0.00658815 -0.0931326 1.50465 254 64 63 
-0.124228 0.0735806 1.52105 21 19 255 
-0.0450405 0.232402 1.52342 31 254 44 
0.0869778 0.326797 1.46403 80 254 57 
0.0291244 0.519403 1.49357 54 254 75 
0.082901 0.218868 1.47731 254 59 56 
-0.0935198 0.27084 1.51381 74 64 55 
0.0332985 0.408959 1.49429 254 74 73 
0.099619 0.343233 1.44725 52 50 254 
0.105159 0.448088 1.43163 64 254 57 
0.0958268 0.401401 1.45159 44 43 39 
0.0433951 -0.271319 1.40004 0 0 0 
0.0721723 0.32036 1.48587 62 57 254 
0.121895 0.46159 1.41854 0 0 0 
0.0846386 0.284805 1.46874 67 63 254 
0.0902536 0.471223 1.45701 78 74 254 
0.146434 0.569803 1.3937 20 78 20 
0.109691 0.474601 1.44363 79 254 82 
0.00123934 0.328787 1.52577 61 52 254 
0.0897963 0.512386 1.47437 78 77 73 
-0.0918018 -0.0405518 1.52245 255 40 38 
0.115525 0.324741 1.42341 0 0 0 
0.0603687 0.569748 1.49053 254 50 46 
0.0949765 0.302418 1.45774 67 66 62 
0.112835 0.341188 1.42966 9 7 17 
0.0595709 0.523029 1.47708 254 82 78 
-0.0647924 0.222324 1.51866 27 254 50 
0.0835198 0.308961 1.46688 74 71 254 
0.0018914 0.299657 1.51884 67 57 47 
0.105596 0.259006 1.44285 64 65 60 
0.053252 -0.00163152 1.52722 90 88 89 
0.0959335 0.06474 1.48994 43 43 254 
0.0872837 0.266625 1.46279 47 254 57 
0.139405 0.481576 1.37224 0 0 0 
-0.0556926 0.169158 1.52523 61 254 70 
-0.0809973 0.117825 1.52657 58 54 51 
0.138571 0.578313 1.40821 30 254 25 
0.145529 0.593744 1.39133 13 49 13 
0.135212 0.458993 1.38164 0 0 0 
0.0963339 0.0569515 1.47948 58 59 254 
0.0725286 -0.207134 1.37178 0 0 0 
-0.130815 0.475879 1.49068 49 45 36 
-0.0685859 0.173562 1.52359 254 50 45 
-0.0759319 -0.0548347 1.52574 255 48 47 
0.0704273 0.382418 1.47303 254 71 70 
0.0635672 -0.118774 1.48074 0 0 0 
0.13686 0.398362 1.33864 0 0 0 
0.0894671 0.228594 1.47096 32 31 29 
0.139113 0.45146 1.34761 0 0 0 
0.0683411 -0.109738 1.47418 0 0 0 
-0.159774 0.61185 1.48236 13 10 254 
0.095448 0.174552 1.45713 254 78 77 
0.0481649 0.497349 1.51153 48 254 49 
0.132736 0.603842 1.42089 51 52 46 
0.0167748 -0.0505039 1.50794 39 254 49 
-0.0393902 -0.060741 1.52646 54 55 255 
0.0743865 0.408086 1.47555 254 88 84 
-0.102004 -0.0725462 1.50915 42 255 58 
-0.0917112 0.237683 1.51235 40 31 254 
0.112828 0.464154 1.43175 29 251 53 
0.15391 0.596152 1.36671 1 3 1 
0.0307056 0.40292 1.52132 73 254 80 
0.0342486 0.518863 1.50904 44 41 36 
-0.08276 0.107779 1.52237 61 57 54 
0.0531338 -0.0711713 1.49092 66 65 61 
0.12451 0.287313 1.40806 0 0 0 
0.0154543 0.39757 1.50348 71 68 59 
0.100598 0.37822 1.44173 67 66 62 
-0.0587839 0.113926 1.52197 24 21 255 
0.0780103 0.390218 1.46632 60 254 69 
-0.0216057 0.485942 1.51348 58 54 51 
0.0960428 0.0403584 1.48338 254 54 52 
0.0820823 0.132481 1.47952 75 74 254 
0.0240155 0.406607 1.51144 77 76 71 
-0.0305186 0.235879 1.51681 43 32 26 
0.0906139 0.354446 1.45579 44 43 39 
0.144505 0.536676 1.37119 0 0 0 
0.123407 0.606187 1.4392 23 24 254 
0.0777838 0.276519 1.47826 88 83 254 
-0.100739 0.547059 1.50707 44 39 254 
-0.0914128 -0.114049 1.52472 255 52 47 
0.112754 0.0366555 1.47781 44 44 46 
0.063741 0.353357 1.48198 75 71 254 
0.121322 -0.0112285 1.43541 0 0 0 
0.0507004 -0.0087147 1.52018 46 254 42 
-0.0714566 0.0710114 1.54661 23 254 23 
-0.000878207 0.337729 1.52003 82 77 71 
0.084765 0.199451 1.47897 77 74 254 
0.137197 0.418203 1.35206 0 0 0 
0.0784692 0.466262 1.46234 83 254 90 
0.119222 0.127663 1.4257 0 0 0 
0.0527355 -0.248861 1.39678 0 0 0 
-0.08741 0.232043 1.52253 17 255 39 
0.0433593 0.575494 1.50177 254 37 33 
-0.0844435 -0.0686806 1.53078 50 255 58 
0.148674 0.58164 1.3827 2 2 2 
0.0682301 -0.26129 1.34445 0 0 0 
0.0719848 0.367886 1.46977 254 88 87 
0.0749681 0.0840079 1.50297 30 31 254 
0.10722 0.399037 1.43096 80 79 74 
0.0921879 0.442295 1.44617 60 58 254 
0.114998 0.121946 1.45519 0 0 0 
-0.00333813 0.0813713 1.52746 29 28 24 
0.0998204 0.394104 1.44396 71 67 254 
0.1239 0.45719 1.40537 0 0 0 
0.0303107 0.448246 1.49957 69 254 73 
-0.149246 0.41822 1.47441 70 61 54 
0.114898 0.169094 1.44874 0 0 0 
-0.117837 0.6211 1.52269 24 20 19 
-0.07711 0.237009 1.51872 40 31 254 
-0.00514917 0.461754 1.52147 46 41 37 
0.0700928 0.617014 1.50614 19 18 14 
-0.0866525 -0.0660704 1.51647 255 58 54 
-0.0705005 0.0786121 1.52713 34 30 255 
0.128495 0.0304621 1.43239 0 0 0 
-0.0162916 0.0135458 1.55249 28 255 31 
0.0792979 0.494097 1.48983 84 83 79 
0.0746794 0.31082 1.48267 72 254 78 
-0.0705379 0.063081 1.54062 43 255 52 
-0.08425 0.297435 1.51661 49 42 254 
0.137796 0.0310141 1.41768 0 0 0 
0.0703065 0.246022 1.48087 254 76 75 
-0.0326522 0.497395 1.5196 254 34 30 
0.11384 0.563874 1.44793 54 52 53 
0.108395 0.0325971 1.46006 43 44 48 
0.12643 0.355825 1.40069 0 0 0 
-0.0599825 0.160127 1.53732 58 58 254 
0.0545727 0.37713 1.4876 71 68 254 
0.0910247 0.364801 1.45907 55 53 54 
-0.109317 0.411826 1.49935 42 254 54 
-0.0208067 0.233258 1.51933 51 254 74 
-0.00767273 0.0208172 1.53659 49 45 44 
0.10997 0.52527 1.44941 61 254 80 
0.0470758 0.355396 1.49154 36 254 37 
-0.182479 -0.0103811 1.48161 80 79 77 
-0.00762764 0.19123 1.52242 62 54 52 
0.107708 0.0131949 1.48537 39 37 38 
-0.152837 0.620339 1.48682 24 21 254 
0.139519 0.171672 1.35702 0 0 0 
-0.0264353 0.24326 1.52306 254 57 48 
-0.0888004 0.198029 1.51955 53 254 63 
-0.066279 0.242555 1.52001 55 48 40 
0.0882096 0.0202043 1.49542 53 51 52 
0.0750915 -0.158418 1.41146 0 0 0 
-0.0450537 0.0217423 1.55441 40 39 37 
0.0630594 0.0241119 1.5193 2 2 2 
0.128455 0.395624 1.3867 0 0 0 
0.0961837 0.466325 1.44815 56 55 53 
-0.0181837 0.390396 1.48884 254 73 69 
0.160781 0.608763 1.42137 3 14 4 
0.128784 0.477138 1.41643 0 0 0 
0.121732 0.32187 1.4118 0 0 0 
0.123513 0.00517425 1.45293 0 0 0 
0.0523169 0.274948 1.5042 254 59 55 
-0.0447669 0.420086 1.51359 43 33 254 
0.0974012 0.0961864 1.46657 85 254 85 
-0.0670605 0.0806257 1.53676 45 255 50 
0.0118083 0.243464 1.51371 49 254 76 
0.100253 0.282682 1.45054 254 85 81 
0.127864 0.0180302 1.41809 0 0 0 
0.0606621 0.113048 1.50602 42 40 43 
0.107311 -0.0938822 1.37866 0 0 0 
-0.0432775 0.306941 1.50725 79 69 59 
-0.145384 -0.25356 1.45081 47 46 44 
0.0388167 0.50667 1.5027 59 56 49 
-0.0884503 0.43563 1.50875 49 42 254 
0.130609 0.481726 1.40279 0 0 0 
0.123618 0.302923 1.39592 0 0 0 
0.0534951 0.520613 1.49335 66 65 60 
0.0781032 -0.0915907 1.45858 0 0 0 
0.132783 0.176968 1.39164 0 0 0 
0.0109131 -0.242401 1.46767 10 11 17 
0.129927 0.45517 1.39566 0 0 0 
0.109403 0.360722 1.42326 14 14 11 
-0.111573 0.326263 1.50054 62 53 255 
0.101414 0.0809722 1.46719 63 253 58 
0.0735647 0.101594 1.49078 254 50 46 
0.11463 0.495234 1.43682 87 254 91 
0.114833 0.368629 1.43026 2 25 2 
0.108917 0.0759412 1.459 83 53 53 
-0.00440724 0.200572 1.51798 254 83 75 
0.00164585 0.0255635 1.53841 50 49 254 
-0.0316075 -0.0325456 1.54328 255 36 34 
-0.0351153 0.305701 1.5324 45 36 254 
0.0296013 -0.202885 1.46455 14 15 12 
-0.0541492 0.0110099 1.55003 24 255 29 
0.0932788 0.334322 1.45313 49 254 59 
-0.0380252 0.22484 1.52297 66 62 53 
0.123518 0.118197 1.40597 0 0 0 
-0.0886064 0.326991 1.50664 23 254 39 
-0.135567 0.44476 1.48164 40 37 254 
0.0254409 0.373559 1.52417 75 75 65 
-0.072779 0.387996 1.51412 61 57 46 
-0.00106637 0.224268 1.51692 80 77 68 
0.133022 0.541924 1.39952 51 188 54 
0.0732546 0.610092 1.48823 19 254 24 
0.100405 0.269157 1.44969 59 57 254 
-0.0753906 0.141258 1.52505 42 39 254 
0.0975625 0.308763 1.44941 254 56 55 
0.0298251 0.0250532 1.53809 67 65 254 
-0.135486 -0.00635259 1.51734 255 54 53 
-0.00803185 -0.0503217 1.51584 59 255 45 
-0.0708431 -0.07242 1.53339 67 64 255 
-0.127793 0.22299 1.5012 0 254 15 
-0.043963 -0.13203 1.50495 39 255 41 
0.142923 0.342661 1.34902 0 0 0 
-0.0764056 -0.0712144 1.52643 53 52 48 
0.128079 0.280381 1.39929 0 0 0 
-0.107772 0.442596 1.49986 31 254 41 
-0.00281982 0.434711 1.50634 52 254 63 
0.0932126 0.160343 1.46208 66 254 91 
0.0713567 -0.108259 1.48894 0 0 0 
0.134068 0.407935 1.36219 0 0 0 
-0.0251785 -0.0476505 1.53472 65 64 62 
-0.055074 -0.368425 1.466 0 0 0 
0.0951231 0.229419 1.46162 254 52 51 
0.128771 0.0405504 1.44828 0 0 0 
0.116675 0.0592494 1.45742 0 0 0 
0.122258 0.442082 1.40863 0 0 0 
0.100698 0.405365 1.44325 254 63 60 
0.0810969 0.335686 1.47873 81 79 80 
0.0856773 0.0548418 1.49092 41 39 40 
0.0173026 0.533367 1.50917 40 254 44 
0.121477 0.334224 1.40659 0 0 0 
-0.00167396 0.155244 1.52402 54 254 66 
0.108718 0.438086 1.42764 57 58 251 
0.0679347 -0.167343 1.41647 0 0 0 
-0.19177 0.0335703 1.4836 51 47 46 
0.0982903 0.246007 1.45486 84 83 81 
0.071718 -0.221686 1.38396 0 0 0 
-0.0271518 -0.0852907 1.52117 52 53 254 
0.093852 0.334115 1.46394 45 44 40 
0.151609 0.552823 1.363 0 0 0 
0.0893394 0.502926 1.46444 254 78 77 
0.022552 0.428022 1.49442 65 60 254 
-0.103338 0.127105 1.52079 255 64 60 
-0.103916 0.226779 1.5048 34 255 52 
-0.0652819 0.184812 1.52285 55 51 254 
0.0738372 0.433274 1.47679 254 72 71 
0.0864049 0.433919 1.45054 254 51 47 
0.0330857 0.612225 1.51869 32 29 254 
0.132543 0.430744 1.37296 0 0 0 
0.0686896 -0.0864395 1.4858 72 75 80 
-0.0345359 0.256593 1.52242 32 254 53 
0.136301 0.555454 1.40609 74 71 64 
0.0836574 0.268755 1.47348 81 77 254 
0.0814255 0.449765 1.4652 254 73 68 
0.0350907 0.0922337 1.52579 60 254 63 
-0.0756976 0.287434 1.52003 255 56 43 
0.0410206 -0.0679151 1.49848 254 65 64 
0.11491 0.0890016 1.44105 0 0 0 
-0.0080597 0.616638 1.53864 254 47 43 
-0.0105476 -0.0655972 1.524 254 52 51 
0.095976 0.106519 1.47485 58 59 254 
0.0312694 0.544828 1.49434 79 76 71 
0.0182961 -0.168317 1.48717 46 42 39 
0.0737862 0.298385 1.46718 70 67 254 
-0.0128263 0.463109 1.5097 64 59 55 
0.0800217 0.318737 1.47094 83 254 86 
-0.0297853 0.159166 1.52104 254 62 57 
-0.0509207 0.442462 1.5123 254 62 58 
0.0604569 -0.218263 1.39427 0 0 0 
0.0575311 -0.246588 1.38623 0 0 0 
-0.107251 0.424952 1.50037 27 21 254 
-0.113809 0.170765 1.51149 35 30 26 
0.106051 0.0444416 1.48162 63 62 58 
0.053356 0.549026 1.489 254 18 14 
0.0660482 0.145384 1.50232 69 65 64 
0.0889805 0.610546 1.46893 15 11 254 
-0.0710134 0.269156 1.51042 28 254 42 
0.0256094 0.121412 1.5145 55 50 47 
0.0938817 -0.110931 1.38735 0 0 0 
0.0784198 -0.08734 1.46868 0 0 0 
0.067917 0.0540023 1.51527 36 32 254 
-0.00373344 -0.208825 1.489 64 63 61 
0.118015 0.148095 1.41497 0 0 0 
-0.0443491 0.491828 1.51461 41 37 254 
0.156093 0.617697 1.42661 2 2 1 
0.114109 0.607687 1.46036 33 254 45 
-0.034015 -0.149663 1.50828 30 30 32 
-0.118427 0.000696056 1.53185 51 255 55 
-0.0914478 0.041963 1.53986 65 255 62 
0.0503089 0.425507 1.48329 71 66 254 
0.135886 0.23729 1.37777 0 0 0 
0.138893 0.600381 1.40916 246 48 47 
0.0895475 -0.159166 1.37716 0 0 0 
0.103866 0.107428 1.45918 255 62 62 
0.106701 0.314237 1.43626 65 251 71 
0.0067014 0.0136338 1.55475 30 28 254 
0.107943 0.243951 1.45916 44 43 254 
0.0612679 -0.249062 1.34615 0 0 0 
-0.0310157 0.46044 1.5098 254 28 25 
0.0395304 -0.124875 1.48671 255 65 63 
0.0923398 0.421325 1.45804 48 45 254 
-0.0642862 0.0247005 1.53978 44 44 44 
-0.021332 0.0257335 1.54246 77 73 70 
0.0068922 -0.00908587 1.54287 50 46 255 
-0.00506123 -0.412985 1.41702 0 0 0 
-0.101111 -0.000603323 1.54032 45 255 45 
-0.0958361 -0.0836614 1.51771 79 75 72 
-0.0297795 0.0259174 1.54991 70 65 62 
0.0708952 0.258546 1.50408 79 75 64 
0.108825 0.248446 1.43816 149 25 25 
-0.0864036 -0.0986182 1.51859 40 39 255 
0.0920635 0.131722 1.46472 73 71 72 
-0.00761011 -0.407464 1.38393 0 0 0 
-0.0392772 -0.0730835 1.5324 66 255 64 
-0.00725981 0.388082 1.52312 74 66 55 
-0.0188652 -0.0299151 1.53512 55 255 58 
-0.0946304 0.38956 1.50599 40 254 56 
0.0448228 0.379881 1.49625 71 254 81 
-0.0317557 -0.105442 1.51647 44 254 40 
0.0801372 0.377074 1.48815 69 65 254 
-0.0181154 -0.140152 1.50531 80 254 88 
0.0620839 0.338065 1.48323 66 254 77 
0.0999113 0.437694 1.43459 67 63 254 
0.133188 0.0481864 1.41666 0 0 0 
0.0351748 0.231242 1.50781 26 254 63 
0.0367933 0.136236 1.50688 254 69 65 
0.14704 0.592022 1.40812 41 41 35 
-0.141283 -0.0073625 1.51279 85 255 90 
-0.00620494 0.273706 1.5152 63 54 254 
0.100555 0.559645 1.45794 254 52 50 
0.0470528 0.639279 1.51955 26 247 22 
0.138888 0.45185 1.35677 0 0 0 
0.109782 0.202285 1.43734 0 0 0 
0.0897926 0.20115 1.46666 47 43 254 
0.031365 0.287969 1.50524 63 33 31 
0.065543 0.320543 1.49469 254 66 65 
0.0501542 0.457525 1.48586 55 254 60 
0.0740148 -0.13371 1.46814 0 0 0 
0.135624 0.608347 1.44547 27 224 30 
0.147211 0.539326 1.35446 0 0 0 
0.02146 0.376425 1.51239 70 254 60 
-0.114431 -0.13385 1.50845 56 53 48 
0.0430747 -0.205077 1.46798 0 0 0 
0.00132016 0.267142 1.5128 62 254 77 
-0.116472 -0.0929474 1.50312 39 36 255 
-0.0417623 0.136605 1.53128 61 58 254 
0.0251974 -0.104431 1.48854 254 45 40 
-0.0900252 0.460784 1.50861 53 41 254 
-0.105758 -0.00678793 1.52914 255 32 31 
0.164705 0.597909 1.33327 0 0 0 
0.106892 0.297875 1.43905 62 57 255 
0.112732 0.385484 1.43486 37 32 201 
0.0812966 0.0641247 1.46455 85 85 85 
0.0884929 0.0409335 1.49112 83 254 60 
-0.0412331 0.250687 1.53159 49 40 254 
0.0322214 0.0858386 1.50705 63 254 55 
-0.0894802 -0.139185 1.51989 55 255 68 
0.0809672 0.348304 1.46731 65 61 60 
0.0306538 -0.256742 1.42795 0 0 0 
0.0692991 0.0753109 1.50372 24 254 35 
0.0341912 0.479734 1.49629 254 62 59 
0.0526551 0.309172 1.48835 72 65 57 
0.0741713 0.165229 1.49089 254 81 76 
-0.084339 0.0257436 1.53843 50 255 52 
0.123572 0.25647 1.40192 0 0 0 
0.09983 0.622621 1.48715 34 35 30 
0.0548967 -0.0818661 1.50154 254 73 70 
0.0916764 0.4845 1.45244 74 74 72 
-0.0944715 0.0221364 1.53697 40 37 255 
0.0807709 0.249 1.47162 88 84 83 
0.0559614 0.0533941 1.49614 45 44 254 
0.074285 0.134159 1.49481 47 46 44 
-0.0435364 0.0834471 1.54516 40 36 255 
0.0834101 0.432274 1.46306 254 84 83 
-0.00437732 -0.0376452 1.52263 75 254 68 
0.0998609 0.0606972 1.50263 254 8 6 
0.0467095 -0.240224 1.40525 0 0 0 
0.0174315 0.00504661 1.53187 254 70 66 
-0.167313 0.602025 1.47244 33 254 45 
0.118992 0.062856 1.44817 0 0 0 
-0.0868243 0.415285 1.51082 44 36 254 
0.0627543 -0.130522 1.45182 0 0 0 
0.0497002 -0.0837553 1.49246 55 54 49 
-0.0420385 -0.109533 1.5192 36 34 255 
0.0962266 0.604132 1.47421 26 25 21 
-0.0271616 0.104383 1.53854 87 83 80 
0.10754 0.108404 1.47965 254 76 76 
0.106019 -0.00670291 1.46208 57 33 34 
-0.0816249 -0.184439 1.51235 254 49 48 
-0.0801799 0.272683 1.51748 59 255 74 
0.126027 0.215168 1.40737 0 0 0 
0.069559 0.00866268 1.52057 80 79 77 
0.00965341 -0.156075 1.48554 254 61 56 
0.114589 0.0838987 1.45526 0 0 0 
0.139073 0.624245 1.45267 3 2 11 
0.0122533 0.190005 1.50266 254 63 59 
-0.0132178 0.437738 1.51288 57 49 254 
-0.0864159 0.506563 1.51338 145 137 135 
0.114492 0.284763 1.42919 0 0 0 
-0.0589149 0.0928375 1.5315 255 46 45 
-0.0465067 -0.122521 1.51881 57 53 50 
-0.127354 -0.0117999 1.51981 51 49 255 
0.0748748 0.573345 1.4862 28 254 25 
-0.0658685 0.343245 1.51385 33 24 254 
-0.0469268 0.271151 1.5181 254 54 47 
0.0686786 -0.0007045 1.51594 254 53 52 
0.0269661 0.24364 1.51201 21 254 52 
0.0867219 -0.0119837 1.49323 254 75 73 
0.0513721 -0.0257013 1.51528 52 51 254 
0.134749 0.358868 1.34113 0 0 0 
0.129754 0.282714 1.38286 0 0 0 
0.12515 0.0565513 1.43564 0 0 0 
0.129964 0.546505 1.40927 62 247 64 
0.123966 0.501083 1.42086 24 23 169 
0.0336267 -0.294072 1.43243 0 0 0 
0.0778819 0.151064 1.48057 84 80 77 
0.0475163 0.369929 1.49165 88 85 254 
0.0873531 0.450487 1.45419 254 50 49 
-0.0476656 -0.284897 1.47942 61 58 250 
0.0739008 0.118116 1.48985 65 61 254 
-0.0492583 0.301622 1.51625 64 55 254 
0.142473 0.45398 1.32292 0 0 0 
0.0463789 0.417461 1.50458 81 76 254 
0.0506311 0.0647031 1.51689 70 69 64 
0.12587 0.240296 1.40452 0 0 0 
-0.0562879 0.179356 1.52305 66 61 57 
0.138971 0.471041 1.37496 0 0 0 
0.0474217 0.0191584 1.53137 254 66 64 
0.0364757 0.459597 1.48641 254 65 61 
-0.0467884 0.211059 1.53917 49 254 53 
0.102212 0.331189 1.44536 76 75 73 
0.118413 0.345884 1.41539 0 0 0 
0.087192 -0.0806413 1.47428 0 0 0 
0.00918856 0.0288279 1.5262 59 54 51 
0.142017 0.547203 1.38175 1 0 1 
0.118301 0.50732 1.42571 69 67 68 
0.112453 0.179532 1.44752 8 7 2 
-0.0131196 0.0669439 1.54476 15 254 19 
-0.0129784 0.256678 1.52127 254 62 53 
-0.0742914 0.155412 1.5214 53 49 254 
0.12054 0.566215 1.43843 45 46 254 
0.0678114 0.192251 1.49138 63 254 43 
0.0575652 0.0795882 1.50808 65 65 65 
0.141174 0.568335 1.41519 50 45 254 
0.0318787 0.354253 1.49336 254 67 64 
0.0736676 -0.152125 1.45099 0 0 0 
0.0502565 0.602895 1.51475 17 254 27 
0.105451 0.153515 1.44494 51 56 93 
0.0662775 0.579276 1.49264 254 64 60 
-0.000430403 0.459223 1.51038 56 51 254 
-0.0800389 0.440547 1.50291 38 26 254 
0.0920636 0.622428 1.49575 24 22 250 
0.0860888 0.00515082 1.50403 77 77 254 
-0.0571198 0.0250236 1.54872 41 41 255 
0.0441349 0.0482438 1.53331 40 254 50 
0.011039 -0.18412 1.48788 254 48 47 
0.00650686 0.218387 1.51522 65 254 73 
-0.0941248 0.187235 1.51529 64 60 51 
-0.072076 0.0338118 1.54129 42 41 255 
0.103818 0.53088 1.43691 64 254 69 
0.111183 0.229029 1.42706 2 0 0 
-0.0833228 -0.107698 1.51444 52 49 44 
-0.0267305 0.345707 1.51355 73 69 60 
-0.122073 -0.0536589 1.5059 21 20 16 
-0.0365535 0.0559479 1.54034 255 62 61 
0.00772213 0.00533841 1.53938 56 254 57 
0.0426487 0.455868 1.50013 254 53 49 
-0.0697913 -0.170749 1.54191 35 30 254 
0.0835927 0.37585 1.46959 254 27 23 
-0.0631003 0.456561 1.51809 39 36 27 
0.107876 -0.0263043 1.45739 0 0 0 
0.0542369 0.2137 1.50099 68 57 254 
0.122529 0.389755 1.40369 0 0 0 
-0.0761994 -0.0335359 1.52756 255 33 31 
-0.0112329 0.327953 1.51996 85 78 70 
0.016079 -0.0990114 1.49592 254 76 76 
-0.0107977 -0.0993152 1.50564 48 254 48 
0.0758443 0.177255 1.48808 74 70 69 
0.0379405 0.442404 1.49104 61 254 82 
0.104571 0.127511 1.46632 254 67 65 
-0.0416792 0.180181 1.5271 13 4 0 
-0.0907327 0.00169244 1.53749 255 48 47 
0.0810154 0.524712 1.4696 72 71 67 
0.052402 0.123515 1.51097 75 73 254 
-0.0500676 0.261666 1.51408 44 254 73 
-0.100859 0.557387 1.51184 39 254 48 
0.0494548 -0.267415 1.37565 0 0 0 
0.0133878 0.377828 1.51876 74 70 61 
-0.119126 -0.0686434 1.50469 32 29 255 
0.033829 0.375155 1.49315 254 65 64 
-0.0536522 0.616175 1.52963 254 30 25 
0.0978671 0.36111 1.45009 58 52 254 
0.108386 0.12412 1.30928 0 0 0 
-0.0245176 -0.150601 1.5116 254 30 30 
-0.0795967 -0.169309 1.5026 53 52 255 
-0.0648535 0.163773 1.52996 61 254 70 
-0.0352942 0.453571 1.49882 25 20 254 
