ply                 
format ascii 1.0    
element vertex 1294
property float x    
property float y    
property float z    
property uchar red  
property uchar green
property uchar blue 
end_header          
0.0262739 -0.343608 1.40674 0 0 0 
0.10799 0.048035 1.46221 0 0 0 
0.0469406 0.6069 1.50357 54 254 61 
0.0333697 -0.267432 1.44505 0 0 0 
0.0680034 0.0909594 1.49315 59 57 255 
0.154136 0.596967 1.26801 0 0 0 
0.100233 0.0424364 1.47754 255 111 111 
0.130188 0.0768262 1.35237 7 8 8 
0.122721 0.30779 1.37998 49 47 254 
0.10814 0.0749886 1.44873 68 255 63 
0.0623961 -0.0433279 1.49939 64 63 61 
0.0988612 0.0319542 1.4845 59 59 59 
0.105585 0.176944 1.43912 1 1 1 
0.0662732 0.225685 1.48763 254 80 73 
0.0187315 -0.232083 1.48068 49 41 254 
0.106815 0.315797 1.43657 79 76 254 
0.171231 0.622728 1.30979 0 0 0 
0.129969 0.00513907 1.44067 254 74 74 
0.0614025 0.564641 1.49221 77 254 80 
0.0526731 0.335716 1.49085 78 254 89 
-0.0361286 -0.517457 1.41464 0 0 0 
0.107519 0.26923 1.42696 255 47 43 
0.100013 -0.00651415 1.48217 24 255 42 
0.0389222 0.403733 1.49363 63 254 74 
0.0743688 -0.125689 1.45183 42 43 254 
0.0986312 0.567773 1.46367 66 65 61 
0.118279 0.053157 1.44155 0 0 0 
-0.0430016 -0.497883 1.42392 0 0 0 
0.0670768 -0.0315325 1.4993 80 255 82 
0.0830895 0.394268 1.46282 76 75 71 
0.0598954 -0.206515 1.42206 0 0 0 
0.067172 0.28737 1.48165 68 254 69 
0.0433752 0.188432 1.50426 52 255 63 
0.0448303 0.267295 1.49914 76 73 64 
0.0836127 0.347279 1.46688 254 105 104 
0.0573654 0.265359 1.49101 78 74 71 
0.124529 0.419783 1.39451 63 58 52 
0.115968 0.56371 1.44144 48 47 45 
0.119042 0.407006 1.411 50 45 255 
0.0402389 -0.176767 1.48526 254 71 71 
0.117926 0.0109291 1.4545 0 0 0 
0.133624 0.527754 1.27932 4 4 4 
0.0794448 0.360401 1.46783 76 72 254 
0.0909808 0.252395 1.45948 0 0 0 
0.145388 0.0308938 1.45026 28 26 29 
0.0757333 0.106906 1.48396 69 68 66 
0.0510371 -0.283941 1.39003 0 0 0 
0.0707824 0.165802 1.48519 75 77 254 
0.082632 0.151517 1.47373 0 0 0 
0.123755 0.184189 1.3936 80 254 82 
0.0885586 0.126564 1.46811 0 0 0 
0.00129059 -0.407519 1.42486 0 0 0 
0.108087 0.238586 1.42485 45 44 42 
0.0831346 0.017752 1.49376 0 0 0 
-0.00470943 -0.363359 1.33896 0 0 0 
0.115019 0.326068 1.40371 43 41 254 
0.0837379 -0.0851976 1.44868 254 57 55 
0.197624 0.589196 1.40338 28 254 30 
0.098757 0.163296 1.45245 24 33 12 
0.0363454 -0.242949 1.4542 61 51 254 
0.0845519 0.51858 1.46408 74 71 254 
0.101169 0.453384 1.43826 69 253 69 
0.0892147 0.313089 1.44953 50 254 55 
0.134561 0.521545 1.33191 67 254 70 
0.067043 0.310975 1.47853 59 56 255 
0.0082264 -0.40348 1.41467 0 0 0 
0.0833492 0.420428 1.4558 71 70 66 
-0.0276663 -0.584664 1.40513 0 0 0 
0.116849 0.245769 1.41473 255 59 53 
0.0726172 0.213843 1.48153 55 55 55 
0.109355 0.194795 1.43399 114 112 113 
0.0219011 -0.225717 1.47093 254 60 60 
0.0997118 0.252613 1.44835 59 59 57 
0.0846112 0.405742 1.46009 71 70 66 
0.113153 0.368974 1.41209 64 60 254 
0.101726 -0.0315003 1.44875 254 37 35 
0.10491 -0.0189647 1.46477 47 254 50 
0.106866 0.478843 1.44295 43 254 46 
0.0725608 0.610585 1.48818 47 254 50 
0.138844 0.388106 1.31665 0 0 0 
0.135739 -0.0138492 1.3413 0 0 0 
0.00984986 0.404118 1.50375 81 254 86 
0.0527843 -0.232416 1.415 0 0 0 
0.140701 0.309295 1.32622 0 0 0 
0.102837 0.13669 1.44679 70 255 73 
0.0659717 -0.205303 1.40898 0 0 0 
0.0566652 0.30933 1.48293 78 77 73 
0.105683 0.294095 1.43687 39 36 254 
0.0997186 0.475892 1.45066 95 254 99 
0.174192 0.598745 1.29507 0 0 0 
0.120361 0.260009 1.43968 255 48 47 
0.0301465 -0.0464588 1.51234 79 255 80 
0.13035 0.450118 1.3837 55 59 254 
0.127412 0.177823 1.38178 90 88 89 
0.0903384 -0.0127963 1.48759 59 57 58 
0.0559089 -0.169682 1.4621 63 51 51 
0.105043 -0.0413083 1.44573 35 36 254 
0.0922006 0.51397 1.45613 70 254 70 
0.172494 0.615562 1.30149 0 0 0 
0.13048 0.156933 1.30617 0 0 0 
0.0710329 -0.137958 1.44737 107 105 106 
0.0831872 0.249536 1.46723 78 76 255 
0.135227 0.588279 1.38976 53 48 254 
0.0508555 0.387935 1.49216 51 255 57 
0.141793 0.164482 1.33678 0 0 0 
-0.0882116 -0.162835 1.53829 45 255 44 
0.0389133 0.203352 1.50641 255 83 80 
0.119446 0.506437 1.42758 0 0 0 
0.174085 0.603668 1.39942 33 29 253 
0.0932584 0.283068 1.45548 73 72 68 
0.145577 0.585197 1.25389 0 0 0 
0.0918536 0.269904 1.45471 60 58 254 
0.130748 0.530748 1.39224 6 18 6 
0.0639234 0.0591461 1.51028 255 33 33 
0.112563 0.132202 1.43294 255 55 53 
0.105822 0.0141242 1.46559 55 255 51 
0.0571526 0.0810995 1.50162 31 29 255 
0.0900768 0.608593 1.47113 39 38 254 
0.0692803 0.252601 1.47869 255 66 63 
0.123086 0.576932 1.22966 0 0 0 
0.0434483 -0.265119 1.41502 0 0 0 
0.04679 0.140553 1.50145 255 62 58 
0.125508 0.525396 1.41214 81 77 76 
0.106922 0.463765 1.43522 49 48 254 
0.079055 0.0541824 1.49738 7 8 5 
0.0788714 0.38677 1.46652 84 83 79 
0.0294853 0.39628 1.49868 73 70 254 
0.134502 0.445289 1.31742 31 31 138 
0.0541049 0.60886 1.49746 50 48 254 
0.111595 -0.0424637 1.41861 254 56 54 
0.0933578 0.48607 1.46083 0 0 0 
0.0883359 0.431529 1.4557 64 61 254 
0.10552 0.292991 1.42042 255 61 60 
0.0951909 0.185694 1.43868 62 58 55 
0.0802027 -0.148691 1.40907 0 0 0 
0.0975651 0.402677 1.44456 57 56 52 
0.0821104 0.461078 1.46737 65 254 69 
0.11928 0.539755 1.42427 56 54 55 
0.0798182 0.553159 1.47356 54 53 51 
0.0945085 -0.132445 1.39663 0 0 0 
0.0812121 0.0972898 1.47842 1 1 1 
0.0777518 0.0154558 1.50485 0 0 0 
0.00768409 -0.425088 1.39122 0 0 0 
0.127528 -0.0572916 1.37458 0 0 0 
0.101897 0.465346 1.4456 66 65 63 
0.0907632 -0.0767233 1.44239 69 67 254 
0.125244 0.492099 1.42249 2 1 3 
0.0892298 0.240259 1.46429 40 254 41 
0.112597 0.519282 1.23748 0 0 0 
0.135371 0.0599975 1.40913 254 71 69 
0.138702 0.0553937 1.33064 0 0 0 
0.0991027 0.355072 1.44474 60 56 53 
0.0620679 -0.000718726 1.51205 77 75 78 
0.142881 0.49601 1.31492 255 43 41 
0.140556 0.0220652 1.30961 0 0 0 
0.121398 0.563556 1.43273 46 45 43 
0.0331306 0.12674 1.51218 49 47 255 
0.0581887 0.180577 1.4937 52 255 61 
0.108219 0.485064 1.23924 0 0 0 
0.0578719 0.0926052 1.50111 78 80 253 
0.098736 0.582524 1.1996 0 0 0 
0.0906621 -0.133297 1.38341 0 0 0 
0.0826495 -0.135785 1.42107 253 41 39 
0.0530488 -0.219274 1.43341 120 121 128 
0.0613526 0.30011 1.48512 70 254 68 
0.142521 0.592216 1.37682 45 254 55 
0.042684 0.104416 1.50907 255 72 71 
0.0229869 -0.31244 1.43611 0 0 0 
0.120574 0.520615 1.43131 50 254 51 
0.137742 0.585984 1.40143 45 254 44 
0.0589757 0.252819 1.48986 57 54 47 
0.0164542 -0.353631 1.41917 0 0 0 
0.157509 0.600128 1.30608 43 39 253 
0.0531797 0.126308 1.50107 73 70 255 
0.144982 0.502726 1.35155 48 48 48 
-0.0391487 -0.316766 1.47465 48 254 53 
0.109492 0.273442 1.41584 24 21 255 
0.110386 0.182212 1.41976 255 41 40 
0.0479003 -0.226249 1.44125 76 71 67 
0.0692549 -0.160889 1.44286 97 254 111 
0.161361 0.595192 1.27823 2 1 1 
0.0868421 -0.128842 1.41245 46 47 250 
0.128785 0.263509 1.35551 43 252 55 
0.106707 0.340532 1.43521 74 74 255 
0.123178 -0.0277734 1.40751 0 0 0 
0.105975 0.113317 1.44568 44 51 130 
0.135079 0.0294353 1.35018 0 0 0 
0.150368 0.00723886 1.27931 0 0 0 
0.0676899 -0.190854 1.41929 0 0 0 
0.126852 0.319419 1.38622 42 40 41 
0.165495 0.596437 1.3176 251 51 50 
0.130031 0.319956 1.36467 53 54 254 
0.122699 0.0847455 1.40321 53 58 254 
0.0392043 -0.29099 1.40927 0 0 0 
0.0870706 -0.136848 1.40487 1 1 1 
0.0929006 0.020143 1.4865 23 255 22 
0.136458 0.546574 1.39628 33 30 24 
-0.0306631 -0.409534 1.48353 0 0 0 
-0.072409 0.440718 1.41978 0 0 0 
0.058315 0.381911 1.4823 32 254 61 
0.0112062 0.385634 1.50755 85 82 77 
0.121721 0.463714 1.4148 14 4 4 
0.115063 0.201158 1.41944 0 0 0 
0.0218815 0.0696505 1.53384 57 56 54 
0.0785433 -0.118531 1.4367 0 0 0 
0.106307 -0.043555 1.42982 0 0 0 
0.08585 0.21135 1.46897 40 39 254 
0.0765917 0.432248 1.46687 75 69 252 
0.0869474 0.272802 1.46381 52 49 254 
0.0428285 0.414084 1.49291 254 90 91 
0.0740653 0.35562 1.47373 0 3 1 
0.106098 0.304446 1.43679 57 53 54 
0.109177 0.107179 1.43555 0 0 0 
0.126644 0.226257 1.37998 0 0 0 
0.0918202 0.335409 1.45661 254 62 61 
0.0887544 0.196059 1.46349 63 62 254 
0.0521407 -0.0284139 1.51111 62 254 59 
0.0823284 0.161535 1.47536 254 68 64 
0.0909672 0.353797 1.45623 75 74 72 
-0.0214015 -0.488097 1.41907 0 0 0 
0.0912805 0.186355 1.46227 0 0 0 
0.0989301 0.195597 1.45152 254 60 59 
0.12002 0.136273 1.41387 0 0 0 
0.0410538 -0.0335036 1.51223 61 59 254 
0.136473 0.490875 1.37788 0 0 0 
0.13598 0.346115 1.3311 0 0 0 
0.0493545 0.21826 1.49923 67 254 81 
0.0470974 -0.246341 1.42317 0 0 0 
0.170202 0.619531 1.28353 0 0 0 
0.104367 -0.0996254 1.38329 0 0 0 
0.0185315 0.022545 1.53697 254 66 66 
0.131011 0.196272 1.34157 0 0 0 
0.0781812 0.118104 1.48077 57 56 254 
0.0585209 0.155474 1.49618 255 80 76 
0.0386177 -0.232306 1.45797 0 0 0 
0.0804217 0.452275 1.46498 0 0 1 
0.0456783 0.347412 1.49349 85 254 78 
0.0657772 0.0190815 1.51042 96 62 64 
0.103974 0.26868 1.44075 0 0 0 
0.109614 0.415376 1.42571 80 80 80 
0.045935 -0.284471 1.40083 0 0 0 
-0.00440927 -0.184107 1.50777 23 254 27 
0.0894172 -0.0325626 1.47918 120 255 137 
0.128727 0.299216 1.37997 0 0 0 
0.127565 0.217159 1.39292 0 0 0 
0.111883 0.175805 1.4282 0 0 0 
0.02767 -0.348646 1.3966 0 0 0 
0.0640807 -0.182383 1.42707 0 0 0 
-0.00809992 -0.437848 1.42328 0 0 0 
0.0463071 0.329367 1.49542 254 69 67 
0.0491986 -0.188021 1.4593 0 0 0 
0.045867 0.231147 1.50153 90 86 85 
0.117473 0.344385 1.41143 0 0 0 
0.0677044 0.114268 1.49104 1 1 2 
0.072249 -0.0609962 1.48941 65 61 60 
0.0489382 0.207473 1.50039 54 51 46 
0.136663 0.271693 1.33533 0 0 0 
0.139675 0.490263 1.36813 0 0 0 
0.139246 0.521258 1.36866 0 0 0 
0.109214 0.156561 1.4341 0 0 0 
0.135761 -0.000216126 1.38822 0 0 0 
0.0950038 0.15106 1.45799 254 50 49 
0.115858 0.161688 1.42447 0 0 0 
0.0829525 0.441576 1.45895 78 77 73 
0.121342 0.0293303 1.44651 0 0 0 
0.103098 0.187421 1.44691 40 38 39 
0.0989289 0.239095 1.44983 62 254 69 
-0.0333337 -0.394504 1.50261 0 0 0 
0.0612625 0.520471 1.48734 86 85 83 
0.0260252 0.500421 1.50797 45 42 37 
0.0198763 0.462563 1.50616 254 102 101 
0.00987342 0.46616 1.51312 72 254 81 
0.110387 0.625575 1.48537 7 34 8 
0.0187046 0.487405 1.51112 46 254 53 
0.0087325 0.481051 1.51521 31 254 45 
0.142321 0.647231 1.47572 0 0 0 
0.0460201 0.494885 1.4985 79 254 89 
-0.00170461 -0.00390214 1.54643 47 255 48 
-0.0672318 -0.600773 1.41902 0 0 0 
0.044479 0.00175671 1.52561 74 72 73 
0.0357185 0.384614 1.4993 73 68 254 
0.0169592 0.51015 1.51004 42 38 254 
0.0640502 0.46917 1.48442 49 254 52 
0.00484035 -0.186828 1.49983 67 48 50 
0.128936 0.617108 1.46208 41 11 11 
0.145333 0.607307 1.43797 0 0 0 
0.0197702 -0.0416391 1.51719 94 92 254 
0.0328905 -0.0114475 1.52557 61 254 67 
-0.0279669 0.503989 1.52246 45 36 254 
0.0351243 0.48168 1.50472 74 69 254 
-0.0321561 0.284506 1.5245 35 31 254 
0.0259693 -0.0328199 1.52076 254 62 60 
0.0156559 0.497866 1.51228 64 254 67 
-0.010098 0.51069 1.51837 61 60 56 
-0.0150637 0.471079 1.51727 254 48 43 
-0.0795613 -0.0639399 1.52387 59 58 56 
0.0127193 -0.278043 1.46161 0 0 0 
0.0902799 0.0654513 1.48009 69 254 69 
-0.0034547 -0.0194056 1.53731 54 55 254 
0.00379731 -0.261046 1.46966 0 0 0 
-0.0046199 0.464243 1.50823 61 254 72 
-0.00563604 0.491779 1.51725 32 254 45 
0.0117974 0.148452 1.52394 59 57 255 
0.0944073 0.477029 1.46098 0 0 0 
-0.0344616 -0.40677 1.45074 0 0 0 
0.0242944 0.611931 1.5135 43 41 29 
-0.00337122 0.338407 1.51567 52 43 254 
0.0070208 0.514208 1.51626 60 59 55 
0.0256037 0.475181 1.50938 65 64 59 
0.0438787 -0.0160285 1.51822 76 73 68 
0.0709999 0.380841 1.4747 46 44 45 
0.112281 -0.0318449 1.4098 0 0 0 
0.0990426 0.34621 1.44546 89 88 86 
0.0365235 0.264666 1.50517 54 254 80 
0.0268775 0.380125 1.50284 75 74 69 
0.0410887 0.515546 1.49887 77 70 254 
-0.0192289 0.367172 1.51791 65 254 65 
0.113052 0.247464 1.40257 0 0 0 
-0.00165989 0.0702061 1.54033 30 29 255 
-0.0333571 -0.12642 1.52036 58 254 57 
-0.0259296 0.243375 1.52572 62 32 30 
-0.0463288 0.0914782 1.53516 73 71 255 
0.0122437 -0.349456 1.43764 0 0 0 
0.0444686 0.0801753 1.51068 47 48 254 
-0.0367724 0.0718366 1.54587 255 26 25 
0.121056 0.00476336 1.44815 0 0 0 
0.045845 0.066085 1.52193 23 21 255 
-0.00943283 0.393592 1.51475 61 57 54 
0.109979 0.614932 1.48414 31 30 29 
0.138572 0.577709 1.4082 75 70 254 
0.0626849 0.241275 1.48988 254 52 51 
-0.00131183 0.0217055 1.54416 50 48 254 
0.0195934 -0.0163572 1.5303 255 108 107 
0.0708989 0.0755019 1.48801 67 66 64 
-0.000677758 0.382104 1.51193 60 254 70 
0.126994 0.160504 1.3435 0 0 0 
0.0675226 0.610706 1.51081 254 29 28 
0.036114 0.540888 1.50091 66 66 254 
0.0579126 -0.151233 1.45909 0 0 0 
0.0522772 0.245495 1.49688 99 98 254 
0.0336512 0.437679 1.49671 254 90 89 
0.0212996 0.219086 1.51543 254 79 75 
0.118598 0.0268342 1.39089 0 0 0 
-0.0207464 0.511229 1.51753 67 254 69 
0.0585721 0.362634 1.48788 254 102 101 
0.0778117 -0.183495 1.3775 0 0 0 
-0.0370333 0.31864 1.52242 55 254 81 
-0.0623307 0.338134 1.51884 254 72 72 
0.0660623 -0.0911231 1.47939 60 254 53 
-0.0275472 -0.0590966 1.53124 254 28 26 
0.0956678 -0.0548509 1.4288 0 0 0 
-0.035996 0.184562 1.53101 70 67 254 
0.0634167 -0.0756992 1.48994 64 254 76 
0.0136182 -0.182548 1.49693 0 0 0 
0.0311854 0.0774209 1.51645 17 15 254 
0.135426 0.537544 1.39969 65 253 67 
-0.00348422 0.244198 1.52128 87 81 69 
0.106834 -0.0259727 1.44301 0 0 0 
-0.00945538 0.202955 1.52395 254 55 24 
-0.00139516 0.364122 1.51536 84 80 254 
0.030612 -0.309767 1.40019 0 0 0 
0.0100771 0.320797 1.51456 44 39 33 
0.0829142 0.563862 1.48512 254 62 60 
0.113152 -0.0547249 1.38898 0 0 0 
0.0318949 -0.126502 1.49174 254 64 63 
0.00349445 0.288678 1.51879 54 25 27 
0.0426986 0.570157 1.5078 32 29 254 
-0.0385426 -0.305345 1.47958 0 0 0 
0.0905999 0.22124 1.46894 254 58 56 
0.0387503 -0.169247 1.47792 2 1 1 
-0.0166601 0.026185 1.54712 255 72 66 
0.113426 0.083876 1.42527 0 0 0 
0.0250954 0.362727 1.50648 80 76 254 
0.0425444 0.393762 1.49711 254 62 58 
-0.0281064 -0.0292231 1.54422 42 255 47 
0.0405192 -0.15712 1.48115 0 0 0 
0.138681 0.391738 1.32643 0 0 0 
0.0323355 0.509386 1.50607 54 49 254 
-0.00961204 0.37756 1.5167 80 79 74 
0.119223 -0.0409185 1.38983 0 0 0 
-0.0373288 0.340214 1.52043 74 71 66 
0.0382594 -0.193671 1.47208 0 0 0 
0.0389794 0.504363 1.50205 254 77 74 
0.0377524 -0.179807 1.47785 33 27 17 
0.0554649 0.351105 1.48879 87 85 86 
0.0737394 0.1885 1.48214 254 67 63 
-0.0446909 0.401844 1.51682 254 80 79 
0.0569481 -0.232374 1.39284 0 0 0 
-0.0133306 -0.288595 1.47079 0 0 0 
0.0851383 0.376338 1.46361 66 62 254 
0.0318839 0.296676 1.5054 53 42 254 
-0.00401232 -0.32767 1.45888 0 0 0 
0.050141 -0.27414 1.39761 0 0 0 
-0.0108963 -0.180496 1.5086 254 38 37 
0.108947 0.557541 1.45397 254 51 49 
0.0119896 -0.155311 1.49995 50 254 54 
0.00441319 -0.288724 1.46119 0 0 0 
0.0166337 0.0480894 1.53751 34 255 26 
0.0697666 -0.0965857 1.46859 1 1 1 
0.068253 0.263319 1.47643 36 35 254 
0.0183144 0.427639 1.49667 254 69 69 
0.130213 0.332168 1.33583 0 0 0 
-0.033406 -0.387499 1.45709 0 0 0 
0.153983 0.608685 1.42032 1 1 1 
0.0583259 0.208558 1.49427 255 79 75 
-0.0364996 -0.10759 1.52474 37 38 254 
0.0301216 -0.0967027 1.49556 64 254 60 
0.0790404 -0.0459953 1.48667 70 70 254 
-0.0488815 0.0120657 1.55539 45 43 255 
0.0731338 0.574974 1.49132 254 42 41 
-0.0141085 0.485065 1.51639 66 66 58 
0.127239 0.440113 1.38639 0 0 0 
0.0241336 0.308312 1.50753 32 254 63 
-0.0142115 0.0351642 1.54745 39 254 50 
0.0708199 -0.138605 1.43459 0 0 0 
0.102043 0.520363 1.4492 254 71 71 
-0.0549197 0.0291338 1.55234 44 255 52 
0.0480163 0.369242 1.4919 254 72 69 
0.0847369 -0.0669027 1.45121 0 0 0 
0.0427545 -0.233227 1.44631 0 0 0 
0.0659116 -0.114164 1.45981 0 0 0 
0.052407 0.553557 1.49604 41 254 60 
-0.034774 -0.139623 1.5174 36 254 41 
-0.0577019 0.391448 1.51743 79 70 254 
-0.0324607 0.0631733 1.54289 255 72 68 
0.0439153 0.0189413 1.52616 64 64 254 
0.0392229 0.165765 1.51 64 254 59 
0.109649 -0.0818935 1.37489 0 0 0 
0.0688813 0.499911 1.48736 56 254 65 
0.0680778 -0.199341 1.38673 0 0 0 
0.0989794 0.622488 1.48598 48 48 45 
-0.0365751 0.258771 1.52761 76 65 254 
0.0886015 0.605371 1.47361 39 254 48 
0.0619467 -0.243587 1.34432 0 0 0 
0.130701 0.607713 1.45787 38 35 32 
-0.0154896 0.0033608 1.33222 58 63 57 
0.0767432 -0.16735 1.40712 0 0 0 
0.0622168 -0.055467 1.49181 68 69 254 
0.118071 -0.00987617 1.42843 0 0 0 
0.0723613 -0.160625 1.41781 0 0 0 
0.0392663 0.0483629 1.52572 79 77 254 
0.0981807 0.224294 1.45275 0 0 0 
0.0455934 0.461178 1.49437 61 62 254 
0.0902238 0.623355 1.49286 209 35 36 
0.0457583 0.0409395 1.52245 63 63 254 
-0.0549625 0.155065 1.53071 71 66 62 
0.00528371 -0.083661 1.51338 73 254 83 
0.023668 0.163472 1.51815 64 61 254 
0.09775 -0.117859 1.38614 0 0 0 
0.0838269 0.00485868 1.50044 8 5 5 
0.0737733 0.419061 1.47226 3 3 3 
-0.00437557 -0.267862 1.47188 0 0 0 
0.0729965 0.0894638 1.48279 254 74 74 
0.026896 0.0145205 1.54124 45 43 254 
0.0103356 -0.105272 1.50442 254 59 55 
0.0460545 0.284607 1.49848 53 254 57 
0.0596881 -0.183668 1.42168 0 0 0 
0.0246115 0.408349 1.4984 71 68 254 
0.0148986 0.372586 1.50982 62 254 71 
0.0243552 0.153293 1.51686 47 43 255 
0.0162252 -0.372301 1.40568 0 0 0 
-0.0280676 -0.312329 1.47268 0 0 0 
0.0562728 0.637724 1.52015 23 22 19 
0.0953158 0.120537 1.45358 75 75 254 
0.00342649 0.186579 1.5262 47 46 42 
-0.00440311 0.100364 1.52743 74 70 69 
0.00712013 0.164 1.52445 62 254 70 
-0.0382692 -0.329384 1.47057 0 0 0 
-0.00758406 -0.108858 1.51343 81 254 80 
-0.00679873 0.614274 1.54496 57 254 66 
0.0173504 0.19708 1.51636 41 254 71 
-0.0239523 0.470607 1.51937 254 65 62 
0.0177224 0.135491 1.52041 54 52 255 
-0.495225 -0.0623611 0.665222 0 0 0 
0.0417966 0.240569 1.50453 56 254 55 
0.0738621 0.0282634 1.50156 0 0 0 
0.00703645 -0.218433 1.50379 0 0 0 
-0.0275819 -0.283856 1.47739 0 0 0 
-0.00246581 -0.148313 1.50445 254 46 45 
0.0314347 0.221133 1.51013 58 254 70 
0.199232 0.0133536 1.48269 0 0 0 
0.000423263 0.351004 1.51452 87 254 94 
-0.0108391 -0.43978 1.42932 0 0 0 
0.0299097 -0.321471 1.4136 0 0 0 
-0.0300272 0.0259743 1.54878 26 25 21 
-0.00836817 0.523113 1.5139 30 254 39 
0.082564 0.0387334 1.49244 62 61 254 
0.0179982 0.00805394 1.54106 63 66 254 
0.0719937 -0.0413146 1.49498 72 71 69 
-0.0433424 0.298506 1.52236 72 255 81 
0.0956759 -0.0182406 1.47669 53 254 57 
-0.00383065 0.130342 1.52923 23 19 16 
0.012461 0.425016 1.5055 254 69 68 
0.0855842 0.362362 1.45965 254 63 62 
-0.0276411 -0.373363 1.46002 0 0 0 
-0.0283629 0.35724 1.51845 64 254 74 
0.122937 0.565295 1.40487 53 41 254 
0.00920423 0.0923317 1.5286 46 255 63 
0.0233673 0.108191 1.51927 44 40 39 
-0.029719 -0.0829904 1.52978 69 67 255 
-0.108675 -0.358361 1.45106 0 0 0 
0.109118 0.0987461 1.42456 0 0 0 
-0.0385914 0.014076 1.55195 38 36 255 
0.0303093 0.599903 1.51542 34 30 27 
0.0135981 -0.198638 1.49884 0 0 0 
0.0159778 -0.0843321 1.50418 254 58 54 
0.0341931 -0.138331 1.48726 253 84 80 
0.0713178 0.276605 1.48144 71 70 66 
0.00451977 -0.0336594 1.52966 46 45 43 
0.0433522 0.306494 1.49807 254 84 79 
-0.131977 -0.176964 1.51875 40 40 255 
0.0312745 0.060656 1.53176 47 255 52 
-0.0218966 0.158533 1.53003 57 254 65 
-0.040338 -0.443211 1.44564 0 0 0 
0.0227443 0.417823 1.49814 254 69 66 
-0.00278528 -0.0966748 1.51481 60 254 65 
-0.0120011 -0.131643 1.51063 54 51 254 
0.115852 0.600065 1.4525 254 29 28 
0.0501169 -0.103778 1.48947 58 57 55 
-0.0296933 0.00784165 1.5539 255 60 59 
-0.0545182 0.330659 1.51959 64 53 254 
0.0123852 -0.0559376 1.51862 58 254 65 
0.05955 0.171472 1.49595 54 48 48 
0.12242 0.601365 1.43709 22 20 68 
0.131294 -0.00916083 1.39695 0 0 0 
0.0645329 0.0756207 1.49665 24 254 35 
0.0468681 0.255389 1.49869 254 86 82 
0.0901875 0.623545 1.49245 24 22 250 
0.0433993 0.128069 1.50771 254 61 55 
0.0624376 0.339209 1.48302 68 254 71 
0.131689 0.604137 1.42762 254 40 39 
0.142096 0.61001 1.43963 20 20 18 
0.0653766 0.0087279 1.51411 237 73 74 
0.11225 0.00429925 1.45441 0 0 0 
-0.0584677 -0.0162657 1.21689 66 69 252 
0.0414809 0.0038 1.13031 0 0 0 
-0.0416203 -0.467498 1.48067 0 0 0 
-0.031572 -0.263893 1.56202 50 49 45 
-0.0446641 -0.479588 1.47453 0 0 0 
-0.18665 0.519181 1.41681 0 0 0 
0.00764666 0.506407 1.51408 42 37 31 
0.0644614 0.37449 1.48077 68 65 60 
-0.0147823 0.527788 1.51651 38 33 29 
-0.074509 -0.605098 1.42477 0 0 0 
0.0622823 -0.0215203 1.50852 77 78 254 
0.0108087 0.458701 1.50836 44 39 254 
0.00480277 -0.276552 1.46319 0 0 0 
-0.0251221 -0.0374432 1.53855 61 59 60 
-0.0277763 -0.337795 1.46625 0 0 0 
-0.0130282 0.307182 1.52028 254 50 24 
0.0224901 0.268939 1.51142 58 46 254 
-0.0116913 -0.45929 1.41385 0 0 0 
-0.0278823 0.39187 1.51689 254 68 64 
-0.0499174 0.263916 1.52349 44 254 66 
0.0489707 0.166177 1.50433 53 50 254 
-0.0025308 0.382771 1.5106 92 254 110 
0.0531371 0.291851 1.493 254 90 86 
0.143191 0.566547 1.39674 58 53 254 
-0.0451515 0.308528 1.51932 255 52 42 
-0.037291 -0.0590631 1.5368 52 255 56 
-0.0128465 0.294303 1.52035 31 27 254 
-0.0482068 0.113783 1.53476 44 42 43 
0.0352389 0.610317 1.51013 254 41 38 
-0.0175591 0.131469 1.53142 40 254 60 
0.0558442 0.442267 1.48696 61 254 72 
-0.023232 0.372554 1.5169 254 74 71 
-0.0249793 -0.471308 1.43205 0 0 0 
0.00809576 -0.249511 1.47134 0 0 0 
0.0560598 0.459108 1.48692 254 51 50 
-0.0249959 0.305798 1.52167 254 65 37 
-0.167708 0.0357938 1.50937 77 75 255 
0.0415924 -0.297758 1.39651 0 0 0 
-0.0563563 0.24014 1.52959 71 59 254 
0.106386 0.0324054 1.49449 59 59 59 
0.0495351 0.317977 1.49616 254 66 62 
0.0127526 0.208525 1.51929 43 254 60 
0.0132904 0.609987 1.52295 67 60 50 
0.102568 -0.0718345 1.40235 0 0 0 
-0.0115298 0.457199 1.51417 42 254 52 
0.011256 0.280351 1.51448 54 50 41 
0.0526483 0.193663 1.49589 97 94 254 
-0.00950949 -0.0119729 1.54489 66 64 65 
0.0844409 0.230845 1.46899 72 68 69 
-0.0811645 -0.122123 1.52826 57 58 255 
0.0466951 0.0912872 1.50777 254 67 65 
-0.0487588 0.434025 1.51247 74 254 80 
-0.0421179 -0.468733 1.43642 0 0 0 
-0.0119147 0.389779 1.5159 102 97 254 
0.00990795 -0.389214 1.41039 0 0 0 
0.037289 -0.252439 1.4475 0 0 0 
0.0539088 0.535517 1.49178 46 45 254 
0.160036 0.0138621 1.47832 0 0 0 
-0.0112142 -0.0802857 1.51628 86 254 80 
-0.0191766 -0.385723 1.45096 0 0 0 
-0.041677 -0.280363 1.48637 0 0 0 
-0.0152044 0.113312 1.53315 255 68 67 
-0.0770718 -0.152296 1.5243 254 36 34 
-0.00674184 0.175972 1.52638 67 58 254 
-0.0295843 -0.274578 1.48304 0 0 0 
-0.00180143 -0.349814 1.44932 0 0 0 
-0.0815623 -0.13764 1.52295 254 59 58 
0.0104461 0.447334 1.50531 59 254 66 
-0.00299049 0.31784 1.51813 22 254 57 
0.0316837 0.169599 1.50824 255 71 66 
0.0194834 0.319908 1.50991 87 254 91 
0.0889729 0.539434 1.46598 60 58 59 
0.028291 -0.15564 1.49041 0 0 0 
0.00363414 0.435459 1.511 67 64 254 
-0.010383 -0.164911 1.50051 254 125 124 
0.0646528 0.407548 1.47505 254 99 95 
0.0608772 0.385049 1.48345 254 75 71 
-0.00292453 0.474893 1.51592 54 47 39 
0.0817709 0.508696 1.4672 254 61 60 
0.0048131 0.508125 1.51024 42 38 254 
0.0451318 0.501396 1.49073 65 62 254 
0.0148083 0.462945 1.50717 254 41 40 
0.110293 0.618772 1.48031 218 40 39 
0.0729378 0.471638 1.4739 64 254 69 
0.0203549 0.494409 1.50803 70 67 62 
0.0157299 0.518568 1.50054 34 29 25 
0.00542822 0.523717 1.50558 45 41 254 
-0.0184242 0.50265 1.51264 37 28 254 
0.00629446 0.481491 1.50823 10 254 24 
-0.0144359 0.517895 1.51706 254 49 46 
0.0851097 0.471928 1.46734 0 0 0 
0.058528 0.513253 1.48818 92 91 89 
0.127854 0.615242 1.45735 28 29 25 
0.0503371 0.512824 1.49504 254 79 80 
-0.0309367 0.5111 1.51126 53 48 45 
-0.00889877 0.00319619 1.54108 254 74 73 
0.0165168 0.48243 1.50973 254 118 113 
0.0793066 0.400018 1.46689 0 0 0 
0.0627541 0.481484 1.48128 58 254 75 
-0.0309695 -0.0267675 1.53472 42 43 255 
0.0247849 0.458631 1.50044 254 72 69 
0.0337272 0.467883 1.50135 65 60 254 
0.0448322 0.476692 1.48879 45 254 55 
0.0577093 0.469188 1.48456 77 73 254 
0.0635046 0.50108 1.48714 81 79 254 
0.0748672 0.502081 1.47213 81 80 76 
0.13955 0.650201 1.47073 0 0 0 
0.00186636 0.496548 1.51636 21 254 38 
0.103961 0.0659078 1.46217 0 0 0 
0.072636 0.479625 1.47871 45 185 62 
0.048533 0.486369 1.49568 85 81 254 
0.123776 0.621251 1.46942 18 99 23 
0.117556 0.479269 1.43143 154 31 31 
0.0263998 0.490013 1.50049 40 254 59 
0.10237 0.00541379 1.47771 0 0 0 
0.0483936 0.613541 1.49886 48 254 51 
0.1451 0.607818 1.43727 70 16 16 
0.0496492 -0.275802 1.33568 0 0 0 
0.0657371 0.373815 1.48353 76 72 71 
0.0313023 0.486683 1.50793 254 47 43 
-0.0569147 0.227265 1.52344 15 8 254 
0.125651 0.0660756 1.42305 0 0 0 
-0.113327 0.189035 1.51178 35 254 41 
-0.00733041 -0.00706314 1.53486 44 45 255 
0.00892237 0.510469 1.51221 52 47 43 
0.0620607 0.39248 1.47595 79 78 254 
0.0705084 0.511199 1.47976 93 91 92 
0.0434642 0.466191 1.49194 71 254 86 
0.0931033 0.372587 1.45276 254 33 32 
0.0170344 0.494517 1.51137 50 46 254 
0.0182811 0.457991 1.50449 72 65 254 
0.103147 0.084288 1.45232 0 0 0 
0.070631 0.328004 1.47861 7 6 9 
0.106704 0.0191593 1.46452 0 0 0 
0.0760609 0.212152 1.47914 0 0 0 
0.0857887 0.608988 1.48324 254 45 44 
0.0765004 -0.0595894 1.4828 27 34 199 
0.115507 0.620952 1.47624 112 25 26 
-0.0525534 0.0712985 1.54495 22 254 25 
0.0272783 0.415789 1.49957 72 254 84 
0.119766 0.357386 1.41023 0 0 0 
0.0732816 0.347938 1.47537 81 76 73 
-0.0739608 0.0727712 1.53765 255 26 24 
-0.120457 0.172635 1.50863 63 58 54 
-0.0868014 0.547258 1.50954 30 25 254 
-0.0375759 0.0728795 1.54124 27 255 32 
0.0426552 -0.00332621 1.50965 254 19 17 
-0.129422 0.0721787 1.52005 32 255 40 
0.119351 0.111168 1.41112 0 0 0 
0.0381168 0.495612 1.50092 78 77 73 
-0.088763 -0.0839728 1.5211 255 61 57 
0.092796 0.251068 1.47323 41 254 47 
0.137132 0.420936 1.34553 0 0 0 
0.0234531 -0.206299 1.47874 64 56 255 
0.0871455 0.0804748 1.48232 254 64 62 
-0.0903873 0.113285 1.52275 42 38 35 
0.124264 0.0196878 1.43168 0 0 0 
-0.00207778 0.488834 1.5159 254 37 32 
-0.0256443 0.289815 1.52174 42 35 255 
-0.0347661 0.0767424 1.53519 62 57 255 
0.0727454 0.304468 1.47724 0 0 0 
0.0093707 0.49341 1.5138 254 42 38 
-0.116136 -0.164276 1.51078 254 59 57 
-0.010766 -0.020957 1.52659 50 255 53 
0.139626 0.307401 1.35412 0 0 0 
0.0186125 0.386178 1.50584 69 254 90 
-0.0103481 0.513067 1.50956 63 254 65 
0.135149 0.535461 1.3884 2 2 1 
0.0921844 0.389703 1.45427 0 0 0 
0.0855717 0.484072 1.46865 75 71 68 
-0.0150533 0.47102 1.51739 33 254 38 
0.0681977 0.458103 1.479 62 62 58 
0.124471 0.0753608 1.35429 0 0 0 
0.117439 0.0209689 1.44631 0 0 0 
0.127257 0.531485 1.40704 0 0 0 
0.049283 0.40614 1.49139 73 69 254 
0.00645212 -0.0925609 1.50379 254 64 63 
-0.122899 0.0738957 1.52147 21 19 255 
-0.0425776 0.231587 1.52577 254 58 54 
0.0871681 0.326337 1.46406 80 254 57 
0.0356867 0.514425 1.50267 72 69 254 
0.0802806 0.219369 1.47285 0 0 0 
-0.0896952 0.269546 1.51749 49 42 255 
0.0352626 0.407474 1.49684 70 254 89 
0.0998579 0.342726 1.44745 52 50 254 
0.105551 0.447356 1.43212 64 254 57 
0.0953091 0.401005 1.45073 0 0 0 
0.0461683 -0.268194 1.40447 0 0 0 
0.0686473 0.321217 1.48025 120 31 31 
0.122257 0.460837 1.41907 0 0 0 
0.0848234 0.284413 1.46874 67 63 254 
0.0924732 0.469286 1.46034 0 0 0 
0.146837 0.568879 1.39441 20 78 20 
0.109497 0.474246 1.44308 80 254 46 
0.00162608 0.328315 1.52568 61 52 254 
0.0877382 0.513746 1.47063 16 15 57 
-0.0910577 -0.0399026 1.52227 255 40 38 
0.115805 0.324248 1.42381 0 0 0 
0.0635748 0.566813 1.49487 30 254 37 
0.0932399 0.302814 1.45465 0 0 0 
0.113087 0.340676 1.42998 9 7 17 
0.0642197 0.519538 1.48308 254 67 66 
-0.0639236 0.222088 1.51891 27 254 50 
0.0836698 0.308547 1.46683 74 71 254 
0.00225435 0.299251 1.51872 67 57 47 
0.10573 0.258681 1.44293 64 65 60 
0.0505525 -0.00187187 1.52278 133 131 254 
0.0911434 0.0646915 1.48208 0 0 0 
0.0874171 0.266287 1.46274 47 254 57 
0.139895 0.480699 1.37324 0 0 0 
-0.0510656 0.168785 1.53009 254 64 55 
-0.08016 0.117912 1.52664 58 54 51 
0.138972 0.5774 1.40883 30 254 25 
0.14596 0.592783 1.39208 13 49 13 
0.135646 0.458193 1.38248 0 0 0 
0.0960014 0.0570395 1.4787 58 59 254 
0.072851 -0.20556 1.37245 0 0 0 
-0.12902 0.474815 1.49196 49 45 36 
-0.0677974 0.173472 1.52369 254 50 45 
-0.0754357 -0.0542057 1.52533 255 48 47 
0.072057 0.381126 1.47522 54 53 49 
0.0632055 -0.118188 1.47982 0 0 0 
0.137444 0.397614 1.34001 0 0 0 
0.0868776 0.229089 1.46662 77 254 73 
0.139682 0.450596 1.34888 0 0 0 
0.0679987 -0.109159 1.47332 0 0 0 
-0.157992 0.610543 1.4836 13 10 254 
0.095117 0.174558 1.45647 0 0 0 
0.0484651 0.496671 1.51152 48 254 49 
0.133104 0.60296 1.42139 51 52 46 
0.0197776 -0.0494825 1.51173 69 67 254 
-0.0393139 -0.0602224 1.52566 54 55 255 
0.0739905 0.407879 1.47458 65 61 58 
-0.10105 -0.071685 1.50919 42 255 58 
-0.0904762 0.237394 1.51294 40 31 254 
0.113169 0.46342 1.43217 29 251 53 
0.15438 0.595137 1.36765 1 3 1 
0.0309688 0.402357 1.52117 73 254 80 
0.0331083 0.519508 1.5064 51 48 43 
-0.081873 0.107908 1.52249 61 57 54 
0.0528046 -0.0707331 1.48999 66 65 61 
0.124781 0.286903 1.40857 0 0 0 
0.0179156 0.395963 1.50682 254 60 61 
0.100898 0.377636 1.44204 67 66 62 
-0.0581689 0.114009 1.52187 24 21 255 
0.0782805 0.389647 1.46644 60 254 69 
-0.0169865 0.482975 1.51869 37 33 24 
0.0956503 0.0404692 1.4825 254 54 52 
0.0819447 0.132429 1.479 75 74 254 
0.020087 0.40821 1.50531 76 71 254 
-0.0299602 0.235612 1.51681 43 32 26 
0.0908883 0.353912 1.45599 44 43 39 
0.144998 0.535714 1.37217 0 0 0 
0.124667 0.604442 1.44119 4 15 5 
0.0756896 0.27699 1.47453 1 1 0 
-0.0994624 0.546019 1.50788 44 39 254 
-0.0831414 -0.11148 1.53315 68 61 255 
0.112314 0.0367595 1.47692 44 44 46 
0.063985 0.352854 1.48198 75 71 254 
0.121046 -0.0108839 1.43497 0 0 0 
0.0509008 -0.00846796 1.51995 68 67 65 
-0.0710497 0.0711802 1.54613 23 254 23 
-0.000464618 0.337246 1.51998 82 77 71 
0.0847392 0.19925 1.47862 77 74 254 
0.137703 0.417446 1.3532 0 0 0 
0.0821824 0.46329 1.46794 181 49 52 
0.119199 0.127668 1.42566 0 0 0 
0.053017 -0.247178 1.39714 0 0 0 
-0.0863271 0.231773 1.52293 17 255 39 
0.0466223 0.572468 1.50604 84 254 64 
-0.10105 -0.071685 1.50919 42 255 58 
0.149119 0.580668 1.38353 2 2 2 
0.0687588 -0.259214 1.34562 0 0 0 
0.0747735 0.366327 1.47348 0 0 0 
0.0746304 0.0840175 1.50206 30 31 254 
0.107543 0.398409 1.43136 80 79 74 
0.0925723 0.441588 1.44656 60 58 254 
0.114834 0.121918 1.4548 0 0 0 
-0.000268799 0.0815541 1.53097 255 30 29 
0.100163 0.393426 1.44446 0 0 0 
0.12433 0.456402 1.40608 0 0 0 
0.0292516 0.448616 1.49688 69 68 64 
-0.146945 0.417186 1.47619 70 61 54 
0.1148 0.168973 1.44846 0 0 0 
-0.116725 0.620079 1.52326 24 20 19 
-0.0720889 0.235822 1.52387 62 55 49 
-0.0091709 0.463691 1.51554 44 254 64 
0.0730374 0.613925 1.51014 37 34 27 
-0.0795613 -0.0639399 1.52387 59 58 56 
-0.0698871 0.0788061 1.52695 34 30 255 
0.124982 0.0302602 1.42621 0 0 0 
-0.0144047 0.0139716 1.55406 36 34 254 
0.0795825 0.493395 1.48991 84 83 79 
0.0748167 0.3104 1.48254 72 254 78 
-0.0649282 0.063241 1.546 40 35 255 
-0.0830952 0.296966 1.51716 49 42 254 
0.137585 0.0312694 1.41746 0 0 0 
0.0714602 0.24551 1.48235 55 53 254 
-0.0298633 0.495427 1.52249 40 29 254 
0.114175 0.563062 1.44826 54 52 53 
0.107735 0.0328116 1.45908 0 0 0 
0.126775 0.355251 1.40133 0 0 0 
-0.0594239 0.160055 1.53714 58 58 254 
0.0548747 0.376578 1.48764 71 68 254 
0.090276 0.364722 1.4576 0 0 0 
-0.107728 0.410969 1.50043 42 254 54 
-0.0203156 0.232989 1.51928 51 254 74 
-0.00779747 0.0210148 1.53566 49 45 44 
0.110298 0.524488 1.44973 61 254 80 
0.0477522 0.354662 1.49207 254 91 87 
-0.179916 -0.0094149 1.48316 80 79 77 
-0.00542857 0.190681 1.52465 65 61 255 
0.10258 0.0127628 1.47626 0 0 0 
-0.15112 0.619033 1.48802 24 21 254 
0.139822 0.17162 1.35795 0 0 0 
-0.0236525 0.242426 1.52594 63 255 75 
-0.0860586 0.19754 1.5219 255 54 51 
-0.0653727 0.242256 1.5203 55 48 40 
0.0863857 0.0199872 1.49188 0 0 0 
0.0751384 -0.157328 1.41148 0 0 0 
-0.0481943 0.0215075 1.55029 32 31 254 
0.0590981 0.0236803 1.51331 46 46 48 
0.128871 0.394949 1.38751 0 0 0 
0.0965543 0.46559 1.44852 56 55 53 
-0.017406 0.389748 1.4893 254 73 69 
0.157987 0.610685 1.41604 0 0 0 
0.12914 0.476359 1.41698 0 0 0 
0.117653 0.322683 1.40525 0 0 0 
0.123136 0.00540796 1.45225 0 0 0 
0.0524029 0.274604 1.50387 254 59 55 
-0.0431153 0.418923 1.51502 52 254 65 
0.0943611 0.0963559 1.46143 0 0 0 
-0.0665494 0.0807854 1.53644 45 255 50 
0.0136579 0.24276 1.51566 254 54 45 
0.0994757 0.282624 1.44901 254 46 42 
0.127695 0.0183411 1.41791 0 0 0 
0.0604264 0.113016 1.50523 42 40 43 
0.107407 -0.0929718 1.37907 0 0 0 
-0.042452 0.306479 1.50759 79 69 59 
-0.143439 -0.251262 1.45189 47 46 44 
0.0381384 0.506534 1.50148 74 67 254 
-0.0871887 0.434795 1.50951 49 42 254 
0.131766 0.480536 1.40501 0 0 0 
0.123401 0.302879 1.39551 0 0 0 
0.0539154 0.520067 1.49347 74 71 254 
0.0778279 -0.0910129 1.4579 0 0 0 
0.132942 0.176869 1.3921 0 0 0 
0.0109483 -0.241107 1.46714 10 11 17 
0.130363 0.454376 1.39644 0 0 0 
0.109478 0.360309 1.42326 0 0 0 
-0.109809 0.325612 1.50175 62 53 255 
0.096468 0.0810983 1.45908 0 0 0 
0.0733463 0.101598 1.49008 254 50 46 
0.114997 0.494445 1.43727 87 254 91 
0.112188 0.369488 1.42534 0 0 0 
0.108675 0.0760196 1.45846 83 53 53 
-0.00412848 0.200389 1.51769 254 83 75 
0.00485562 0.0259253 1.5421 254 54 53 
-0.0317261 -0.0321988 1.54225 255 36 34 
-0.0345563 0.305267 1.53239 45 36 254 
0.0295316 -0.201804 1.46396 14 15 12 
-0.0488815 0.0120657 1.55539 45 43 255 
0.0934823 0.333849 1.45323 49 254 59 
-0.0347567 0.223924 1.52633 59 254 72 
0.123569 0.118259 1.40616 0 0 0 
-0.087321 0.326427 1.50737 23 254 39 
-0.133565 0.443717 1.48314 40 37 254 
0.025714 0.37303 1.52401 75 75 65 
-0.071704 0.387308 1.51469 61 57 46 
-0.000738793 0.224023 1.51673 80 77 68 
0.133401 0.541068 1.40014 51 188 54 
0.0735888 0.609326 1.48837 19 254 24 
0.0992438 0.269312 1.44748 0 0 0 
-0.0745753 0.141268 1.52513 42 39 254 
0.0977536 0.308333 1.44952 254 56 55 
0.0271752 0.0249071 1.53388 71 69 70 
-0.134074 -0.00568159 1.51775 255 54 53 
-0.00809408 -0.0498731 1.51501 59 255 45 
-0.0705207 -0.0717929 1.53275 67 64 255 
-0.126036 0.222747 1.50225 0 254 15 
-0.0437034 -0.131158 1.50439 39 255 41 
0.143376 0.342088 1.35016 0 0 0 
-0.0788257 -0.0712124 1.52256 24 20 254 
0.128338 0.279996 1.39982 0 0 0 
-0.106202 0.441659 1.50093 31 254 41 
-0.000425149 0.433066 1.50902 69 66 254 
0.0925951 0.160377 1.46114 0 0 0 
0.0708799 -0.107776 1.48784 0 0 0 
0.134583 0.407191 1.3633 0 0 0 
-0.0252872 -0.0472475 1.53373 65 64 62 
-0.0544566 -0.366179 1.46588 0 0 0 
0.0930826 0.229858 1.45803 0 0 0 
0.128465 0.0407073 1.44775 0 0 0 
0.116373 0.0593567 1.45682 0 0 0 
0.122639 0.441348 1.40924 0 0 0 
0.101018 0.40473 1.44358 254 63 60 
0.0812576 0.335217 1.47866 81 79 80 
0.0850451 0.0548957 1.48971 0 0 0 
0.0175703 0.532829 1.50903 61 57 54 
0.121779 0.333714 1.40712 0 0 0 
0.000751605 0.154915 1.52653 68 65 254 
0.109117 0.437388 1.42828 0 0 0 
0.0679967 -0.16622 1.41646 0 0 0 
-0.188992 0.0343151 1.48535 51 47 46 
0.0983834 0.245712 1.45481 84 83 81 
0.0719583 -0.220119 1.38443 0 0 0 
-0.0271574 -0.0847159 1.52032 52 53 254 
0.0902129 0.335043 1.45805 0 0 0 
0.152107 0.551824 1.36404 0 0 0 
0.0896959 0.502168 1.46472 254 78 77 
0.0238269 0.426863 1.49579 65 64 62 
-0.102143 0.127193 1.52119 255 64 60 
-0.102452 0.22652 1.50562 34 255 52 
-0.0645117 0.184689 1.52295 55 51 254 
0.0713371 0.434253 1.47256 50 40 98 
0.090474 0.430967 1.45701 78 76 254 
0.0352374 0.610286 1.52105 28 24 21 
0.13304 0.429961 1.37397 0 0 0 
0.0672166 -0.0864003 1.48341 0 0 0 
-0.0320676 0.255703 1.52478 70 63 53 
0.135507 0.555654 1.40462 52 245 86 
0.0837523 0.268414 1.47333 81 77 254 
0.0817802 0.449071 1.46545 254 73 68 
0.0302792 0.0923481 1.51842 76 74 254 
-0.0746524 0.287 1.52047 255 56 43 
0.0415051 -0.0673793 1.49868 1 1 1 
0.110782 0.089333 1.43379 0 0 0 
-0.00626987 0.614973 1.54008 24 23 21 
-0.0116225 -0.0652663 1.52183 57 254 62 
0.0918956 0.106698 1.46805 0 0 0 
0.0317322 0.544052 1.49455 79 76 71 
0.0228689 -0.165537 1.49302 0 0 0 
0.0739875 0.297986 1.46718 70 67 254 
-0.0121675 0.462363 1.50999 64 59 55 
0.0797399 0.318476 1.47024 0 0 0 
-0.0293813 0.159097 1.52081 254 62 57 
-0.0499667 0.441671 1.51283 254 62 58 
0.060708 -0.216742 1.39463 0 0 0 
0.0578579 -0.244855 1.38675 0 0 0 
-0.105728 0.424081 1.50138 27 21 254 
-0.112387 0.170716 1.51216 35 30 26 
0.105624 0.0445306 1.48071 63 62 58 
0.0537797 0.548239 1.48923 254 18 14 
0.0607253 0.145868 1.49403 46 46 46 
0.0915025 0.607768 1.47275 31 254 38 
-0.0699562 0.268776 1.51092 28 254 42 
0.0281938 0.121271 1.51761 62 254 65 
0.0940128 -0.109951 1.38772 0 0 0 
0.0759092 -0.0875045 1.46435 0 0 0 
0.067469 0.0540462 1.51416 36 32 254 
-0.00377242 -0.207761 1.48824 64 63 61 
0.1176 0.148127 1.41425 0 0 0 
-0.0434758 0.49098 1.51508 41 37 254 
0.153463 0.619788 1.42148 0 0 0 
0.114442 0.606863 1.46065 33 254 45 
-0.0339112 -0.148797 1.50755 30 30 32 
-0.117354 0.0012425 1.53193 51 255 55 
-0.0907513 0.0422753 1.53964 65 255 62 
0.0506963 0.424864 1.48346 71 66 254 
0.136145 0.237027 1.37845 0 0 0 
0.139271 0.59948 1.40973 246 48 47 
0.0897348 -0.157912 1.37766 0 0 0 
0.10371 0.107441 1.45876 255 62 62 
0.106899 0.313797 1.43645 65 251 71 
0.00277621 0.0132615 1.54862 57 56 54 
0.107973 0.243653 1.45903 44 43 254 
0.0618515 -0.247035 1.34734 0 0 0 
-0.0271549 0.458125 1.51415 254 56 49 
0.0412797 -0.123424 1.48877 0 0 0 
0.0926341 0.420685 1.45825 48 45 254 
-0.0639083 0.0250055 1.53928 44 44 44 
-0.0214399 0.0259262 1.5415 77 73 70 
0.00417294 -0.00922263 1.53853 61 254 69 
-0.00446441 -0.410283 1.41739 0 0 0 
-0.100446 -0.000126649 1.53999 86 82 255 
-0.095071 -0.0828256 1.51753 79 75 72 
-0.029874 0.0261046 1.54894 70 65 62 
0.0708856 0.258223 1.50366 79 75 64 
0.108455 0.248419 1.43741 0 0 0 
-0.085785 -0.0977706 1.51826 40 39 255 
0.0917125 0.131724 1.46367 254 89 91 
-0.00671242 -0.404451 1.3849 0 0 0 
-0.0392681 -0.0725589 1.53151 66 255 64 
-0.00674953 0.387489 1.52319 74 66 55 
-0.0189782 -0.0295698 1.53415 55 255 58 
-0.0932111 0.388789 1.50689 40 254 56 
0.0430942 0.380313 1.49315 91 254 96 
-0.0317081 -0.104771 1.51568 44 254 40 
0.0803135 0.376536 1.48808 69 65 254 
-0.0139588 -0.138006 1.51007 254 40 37 
0.0617982 0.337777 1.48243 119 254 114 
0.100317 0.436975 1.43508 67 63 254 
0.133048 0.0484073 1.41654 0 0 0 
0.0355984 0.230939 1.50816 78 69 254 
0.0367503 0.136182 1.50629 254 69 65 
0.147425 0.5911 1.40874 41 41 35 
-0.139738 -0.00665335 1.51334 85 255 90 
-0.00236526 0.27229 1.51965 65 60 255 
0.100912 0.558836 1.45825 254 52 50 
0.0473392 0.638586 1.51951 26 247 22 
0.139407 0.451014 1.3579 0 0 0 
0.109825 0.2021 1.43731 0 0 0 
0.08879 0.201282 1.46489 0 0 0 
0.0316243 0.287585 1.50509 63 33 31 
0.0607331 0.32189 1.48737 85 84 82 
0.0505807 0.45682 1.48608 55 254 60 
0.0736539 -0.13305 1.46729 0 0 0 
0.135892 0.607551 1.44572 27 224 30 
0.147752 0.538319 1.35561 0 0 0 
0.0188752 0.376842 1.50748 254 79 78 
-0.113439 -0.132704 1.50844 56 53 48 
0.0417744 -0.204542 1.46555 0 0 0 
0.0016759 0.266808 1.51267 62 254 77 
-0.115293 -0.0919188 1.50336 39 36 255 
-0.0413633 0.13659 1.53096 61 58 254 
0.0250474 -0.103802 1.48777 254 45 40 
-0.0887319 0.459881 1.50942 53 41 254 
-0.104875 -0.00624424 1.52906 255 32 31 
0.16525 0.596793 1.33454 0 0 0 
0.107106 0.297453 1.43928 62 57 255 
0.113027 0.384875 1.43522 37 32 201 
0.0811666 0.0642629 1.46408 85 85 85 
0.0881014 0.0410352 1.4902 83 254 60 
-0.0406864 0.250382 1.53152 49 40 254 
0.0393201 0.0879912 1.51671 64 62 254 
-0.0889107 -0.138193 1.51947 55 255 68 
0.083151 0.347043 1.47042 0 0 0 
0.0308504 -0.255171 1.42791 0 0 0 
0.0689789 0.0753443 1.50282 24 254 35 
0.0346318 0.479018 1.49647 254 62 59 
0.0548524 0.308072 1.4912 69 254 72 
0.0740535 0.1651 1.49034 254 81 76 
-0.0788367 0.0263786 1.54375 23 18 254 
0.123837 0.256142 1.40245 0 0 0 
0.100096 0.621877 1.48724 34 35 30 
0.0544475 -0.0814634 1.50041 254 73 70 
0.0920411 0.483756 1.45277 74 74 72 
-0.093761 0.0225262 1.53675 40 37 255 
0.081368 0.248652 1.47231 68 254 85 
0.0557547 0.0535163 1.49539 45 44 254 
0.0699371 0.134712 1.48762 86 85 81 
-0.0433779 0.0835423 1.54449 40 36 255 
0.0838981 0.431529 1.46355 254 93 92 
-0.00129181 -0.0366673 1.52592 254 64 62 
0.0993514 0.0607084 1.50152 254 8 6 
0.0469801 -0.238619 1.40552 0 0 0 
0.0223709 0.00599748 1.53782 71 69 70 
-0.165278 0.600613 1.47396 33 254 45 
0.118757 0.0629765 1.44771 0 0 0 
-0.0855325 0.414478 1.51161 44 36 254 
0.0626206 -0.129728 1.45134 0 0 0 
0.0493616 -0.0832841 1.4915 55 54 49 
-0.0419184 -0.108824 1.51845 36 34 255 
0.0965496 0.603343 1.4744 26 25 21 
-0.0269932 0.104419 1.53796 87 83 80 
0.107243 0.108369 1.47896 254 76 76 
0.105653 -0.0064369 1.46134 57 33 34 
-0.0752334 -0.181103 1.51888 18 254 20 
-0.0790898 0.272291 1.51796 59 255 74 
0.126187 0.214953 1.40772 0 0 0 
0.0684114 0.00848708 1.52037 254 85 83 
0.0096025 -0.155213 1.48484 254 61 56 
0.114347 0.0839589 1.45476 0 0 0 
0.137717 0.625035 1.45006 4 17 4 
0.0125203 0.189848 1.50245 254 63 59 
-0.0126018 0.437047 1.51311 57 49 254 
-0.0852171 0.505602 1.5141 145 137 135 
0.110331 0.285858 1.42158 0 0 0 
-0.0552326 0.0929682 1.53511 72 68 65 
-0.046359 -0.121754 1.51807 57 53 50 
-0.126079 -0.0111383 1.5201 51 49 255 
0.0751892 0.572598 1.48631 28 254 25 
-0.0611238 0.341359 1.51832 61 52 45 
-0.0461655 0.27078 1.51831 254 54 47 
0.0681406 -0.000567552 1.51469 254 53 52 
0.0278656 0.24323 1.51275 50 41 254 
0.0862468 -0.011779 1.49217 254 75 73 
0.0509216 -0.02547 1.51411 52 51 254 
0.133393 0.359221 1.33858 0 0 0 
0.130092 0.282316 1.38361 0 0 0 
0.121901 0.056425 1.42924 0 0 0 
0.129772 0.546268 1.40876 0 0 0 
0.12432 0.500288 1.42136 24 23 169 
0.0337666 -0.292368 1.4323 0 0 0 
0.0777994 0.150974 1.48012 84 80 77 
0.0478283 0.369391 1.49167 88 85 254 
0.0877381 0.449772 1.45454 254 50 49 
-0.0472413 -0.28323 1.47908 61 58 250 
0.0719422 0.118183 1.48662 1 0 1 
-0.0484557 0.301176 1.51652 64 55 254 
0.141105 0.45449 1.32026 0 0 0 
0.0414802 0.41966 1.49707 77 254 90 
0.0500424 0.0647528 1.51591 254 27 26 
0.123403 0.240793 1.39994 0 0 0 
-0.0556098 0.179243 1.52307 66 61 57 
0.13943 0.470202 1.37589 0 0 0 
0.0469313 0.0192545 1.53011 254 66 64 
0.0419736 0.455836 1.49394 75 254 80 
-0.0462868 0.210846 1.53899 49 254 53 
0.100814 0.331342 1.44286 0 0 0 
0.118711 0.345349 1.41586 0 0 0 
0.086759 -0.0801997 1.47335 0 0 0 
0.00899098 0.0290016 1.52525 59 54 51 
0.142457 0.546278 1.38257 1 0 1 
0.118679 0.506511 1.42622 69 67 68 
0.112451 0.17938 1.4474 8 7 2 
-0.0132373 0.0670268 1.54383 15 254 19 
-0.0118645 0.256129 1.52207 56 254 79 
-0.0734077 0.15538 1.52158 53 49 254 
0.120494 0.565858 1.43794 0 0 0 
0.0677745 0.192069 1.49094 63 254 43 
0.0572612 0.079621 1.50717 65 65 65 
0.141547 0.567446 1.41576 50 45 254 
0.0322349 0.353744 1.4934 254 67 64 
0.0734285 -0.151301 1.45039 0 0 0 
0.0453421 0.606284 1.5073 254 34 33 
0.105439 0.15344 1.4448 51 56 93 
0.0666454 0.578495 1.4928 254 64 60 
0.000151984 0.458499 1.51061 56 51 254 
-0.0788341 0.439715 1.50365 38 26 254 
0.0923894 0.62148 1.49588 209 35 36 
0.0855373 0.00527953 1.50282 77 77 254 
-0.0566626 0.0252329 1.54832 42 37 255 
0.0436785 0.0482896 1.5321 40 254 50 
0.0109232 -0.18319 1.48709 254 48 47 
0.00674693 0.218161 1.51493 65 254 73 
-0.0929454 0.187115 1.51577 64 60 51 
-0.0716431 0.0341014 1.54083 42 41 255 
0.10422 0.530056 1.43737 64 254 69 
0.111347 0.228774 1.42727 2 0 0 
-0.0794421 -0.105984 1.51799 62 57 53 
-0.0260796 0.345179 1.51374 73 69 60 
-0.120775 -0.0527835 1.50626 21 20 16 
-0.0364266 0.0561103 1.53965 255 62 61 
0.00913845 0.00577249 1.54051 254 73 71 
0.0400464 0.456471 1.49613 80 79 75 
-0.06973 -0.169889 1.5409 35 30 254 
0.0816525 0.376395 1.46613 0 0 0 
-0.0620994 0.45574 1.51863 39 36 27 
0.107507 -0.0259767 1.45667 0 0 0 
0.0542274 0.21348 1.50053 68 57 254 
0.122905 0.389109 1.40433 0 0 0 
-0.0756996 -0.032984 1.52715 255 33 31 
-0.0116545 0.327679 1.5188 73 254 95 
0.0193339 -0.097515 1.49994 74 70 254 
-0.0108092 -0.0986726 1.50487 48 254 48 
0.0757617 0.177102 1.4876 74 70 69 
0.0388139 0.441436 1.49183 254 68 67 
0.104389 0.127465 1.46583 254 67 65 
-0.0411308 0.18005 1.527 13 4 0 
-0.090106 0.00213598 1.53717 255 48 47 
0.0819632 0.523593 1.47076 47 208 52 
0.0493372 0.123862 1.50593 67 62 59 
-0.0492539 0.26132 1.51435 44 254 73 
-0.0996202 0.556348 1.5126 39 254 48 
0.049919 -0.265458 1.3764 0 0 0 
0.00837286 0.379462 1.5115 83 254 88 
-0.117903 -0.0677153 1.50497 32 29 255 
0.0375114 0.373023 1.49797 56 51 254 
-0.0529304 0.615298 1.52992 254 30 25 
0.0980918 0.360583 1.45025 58 52 254 
0.109089 0.124353 1.31106 0 0 0 
-0.0245414 -0.149795 1.51073 254 30 30 
-0.0789871 -0.168138 1.50231 53 52 255 
-0.0641634 0.163702 1.52994 61 254 70 
-0.0343178 0.45273 1.49947 25 20 254 
-0.0915599 -0.120985 1.51848 3 255 13 
0.119489 0.426074 1.42682 1 1 3 
-0.0748632 0.199755 1.52102 45 40 254 
0.00297881 0.398722 1.51068 51 42 254 
0.0820723 0.290401 1.4798 254 88 84 
-0.156689 0.506083 1.47207 60 48 254 
0.0619467 0.60861 1.51067 24 23 21 
0.0492869 -0.164392 1.43865 0 0 0 
0.0633693 -0.0531574 1.49685 0 0 0 
0.113123 0.0986662 1.4554 1 0 0 
-0.0753699 0.313459 1.51777 48 39 255 
0.0329148 -0.110103 1.49811 63 254 70 
0.115461 0.16999 1.4581 53 95 34 
0.109446 0.143934 1.43678 0 0 1 
-0.0189375 0.19864 1.53004 254 26 22 
0.0963184 0.278392 1.45908 254 62 58 
0.0479465 0.321764 1.49697 80 254 84 
-0.094433 0.141704 1.52186 254 53 43 
0.103549 -0.0946239 1.40361 0 0 0 
-0.0501072 0.204 1.5297 73 254 80 
0.00775275 0.0858262 1.50351 69 254 73 
-0.0854359 0.383904 1.50681 44 34 25 
0.163156 0.600836 1.41466 2 2 7 
-0.134092 0.470701 1.48248 33 254 50 
0.147476 0.559908 1.38188 1 1 3 
-0.0809801 0.192809 1.52642 40 33 254 
0.0101362 -0.340739 1.4291 0 0 0 
0.0833599 0.150505 1.49053 75 71 72 
0.0832915 0.0104323 1.54214 72 254 74 
-0.153595 0.0203162 1.50512 55 52 255 
0.092417 0.442652 1.46123 61 254 75 
0.0564998 -0.181806 1.43629 0 0 0 
0.035992 0.225698 1.49343 254 53 46 
0.0388333 0.560727 1.50484 32 29 254 
0.078747 0.016095 1.50786 254 25 23 
0.0255034 -0.247485 1.46159 0 0 0 
-0.116689 0.275302 1.49892 34 255 42 
0.0796481 -0.124533 1.35714 0 0 0 
0.118457 0.333026 1.4181 0 0 0 
0.135125 0.548261 1.39152 40 40 33 
-0.000480508 -0.0112914 1.52334 50 254 58 
-0.0217324 0.551614 1.51171 46 42 39 
0.127808 0.411964 1.39377 0 0 0 
0.0141612 -0.185343 1.49711 0 0 0 
-0.010859 0.162293 1.52791 254 71 67 
-0.161488 -0.231977 1.44674 254 20 19 
-0.0530793 0.466363 1.51014 58 254 69 
0.0297632 0.414229 1.50811 75 70 254 
0.1123 0.330576 1.43401 23 23 18 
-0.00717469 -0.0488045 1.52663 75 254 67 
0.0618927 0.436092 1.47603 254 87 84 
0.0312072 0.208412 1.51101 60 56 45 
0.0893636 -0.151786 1.38576 0 0 0 
0.109748 0.0424058 1.46278 0 0 0 
0.123085 0.207355 1.4205 0 0 0 
-0.00768471 0.0193955 1.54808 47 46 44 
0.0600379 0.140987 1.51217 45 41 38 
0.0965054 0.23502 1.48085 29 28 26 
-0.109366 0.310554 1.50119 37 254 53 
0.114678 -0.00379576 1.48014 59 181 58 
-0.00995707 0.0985782 1.52226 55 254 57 
0.0230201 -0.203051 1.49561 74 72 253 
-0.0596264 0.522024 1.51349 133 126 254 
0.0387087 0.117346 1.51436 70 254 78 
-0.114028 0.371499 1.50624 36 30 254 
0.00946196 0.0409397 1.54134 27 26 255 
0.0783553 0.363729 1.49382 83 78 254 
-0.0718703 0.0950051 1.52938 46 42 255 
0.0387683 0.191319 1.51111 65 62 254 
-0.0361524 0.0664134 1.54634 30 26 25 
0.00273625 -0.30662 1.46889 0 0 0 
-0.00086912 0.236197 1.51534 57 254 75 
0.0603316 0.194175 1.49764 254 73 69 
0.0414017 -0.149431 1.48129 0 0 0 
-0.0206578 0.446502 1.51184 254 54 49 
-0.0614768 0.00710174 1.55989 56 54 255 
0.00259465 -0.104593 1.49423 75 71 72 
0.0868507 -0.140009 1.38413 0 0 0 
0.109818 0.227892 1.42172 0 0 0 
-0.124061 0.318692 1.48668 27 18 255 
0.0490914 0.153461 1.4886 65 59 59 
-0.0136665 0.465568 1.48538 43 38 254 
0.0743377 -0.212648 1.3614 0 0 0 
0.136891 0.0769963 1.29583 0 0 0 
0.014184 -0.0209741 1.52235 255 67 65 
0.122711 0.117792 1.33184 0 0 0 
0.12776 0.0412202 1.42771 0 0 0 
0.046852 0.61462 1.51988 254 30 29 
0.0915948 -0.0320126 1.48997 47 49 48 
0.0345212 -0.294277 1.40412 0 0 0 
-0.131845 0.197258 1.50209 39 255 55 
-0.0141443 0.559805 1.51453 44 254 49 
-0.0898048 0.461776 1.50533 34 254 48 
0.0662226 -0.18757 1.41294 0 0 0 
