ply                 
format ascii 1.0    
element vertex 1308
property float x    
property float y    
property float z    
property uchar red  
property uchar green
property uchar blue 
end_header          
-0.0923409 0.480512 1.16227 50 254 51 
-0.00862415 -0.0484268 1.19766 54 52 255 
-0.0834466 0.597757 1.10826 254 9 11 
-0.166395 -0.235151 1.37393 0 0 0 
-0.0603225 0.453143 1.15126 254 39 39 
-0.104205 0.290117 1.18673 26 254 39 
-0.031707 -0.378554 1.32381 0 0 0 
-0.0297793 0.592235 1.10782 61 56 254 
-0.178554 0.0351645 1.23057 0 0 0 
0.00060507 0.210488 1.18265 28 29 255 
-0.0772078 0.589498 1.11302 26 254 25 
-0.0782956 -0.363776 1.31751 0 0 0 
-0.0811232 -0.463611 1.35723 0 0 0 
-0.135423 -0.193021 1.27919 0 0 0 
0.0206523 -0.208071 1.27714 35 33 254 
-0.101793 0.404487 1.16222 19 254 27 
-0.0519942 -0.550484 1.4031 0 0 0 
-0.0125375 0.408746 1.15898 11 9 254 
-0.0103542 0.538354 1.13709 16 15 14 
-0.201771 0.0972425 1.29722 0 0 0 
-0.206873 0.268062 1.29902 0 0 0 
-0.139353 0.396561 1.18114 254 68 64 
-0.0992137 -0.14841 1.25612 91 86 92 
-0.161802 -0.0919975 1.25691 0 0 0 
-0.16793 -0.20995 1.37222 0 0 0 
-0.149296 -0.102087 1.25246 0 0 0 
-0.203388 0.030102 1.27458 0 0 0 
-0.0805613 0.576014 1.14382 27 25 254 
-0.0559841 -0.420517 1.33034 0 0 0 
-0.179035 -0.132541 1.33759 0 0 0 
-0.114636 -0.274175 1.30059 0 0 0 
-0.0494392 -0.321276 1.29487 0 0 0 
-0.0603654 0.425017 1.15112 39 37 38 
-0.0283984 0.179732 1.1784 72 68 65 
-0.163297 0.398737 1.21137 0 0 0 
-0.177745 0.302123 1.23479 0 0 0 
-0.203155 0.252971 1.29436 0 0 0 
-0.187528 0.307116 1.25196 0 0 0 
-0.151575 0.323354 1.20922 0 0 0 
-0.0736798 -0.475629 1.36014 0 0 0 
-0.172606 0.274785 1.23904 0 0 0 
-0.211111 0.152776 1.314 0 0 0 
-0.0561055 -0.0555012 1.19225 59 254 59 
-0.166844 -0.243362 1.42161 0 0 0 
-0.174679 -0.0600344 1.27302 0 0 0 
-0.136658 0.525304 1.1711 254 44 42 
0.00980256 0.0107621 1.19128 0 0 0 
-0.0123632 -0.019593 1.1839 51 50 48 
-0.121453 0.592257 1.13893 17 15 254 
-0.0808958 -0.107968 1.22403 254 50 49 
-0.0752813 -0.29999 1.29563 0 0 0 
-0.138298 0.160468 1.20927 254 36 33 
-0.0672392 -0.671412 1.3974 0 0 0 
-0.143477 0.145951 1.2162 255 58 54 
-0.194998 0.337098 1.2653 0 0 0 
-0.154513 -0.0515072 1.23278 0 0 0 
0.0763235 -0.0662094 1.24605 255 40 39 
-0.0280744 -0.0525826 1.19554 255 34 31 
0.00511038 -0.349227 1.32679 255 69 68 
-0.153858 -0.0318467 1.22446 83 62 65 
-0.045032 0.255171 1.17342 51 50 48 
-0.0876888 -0.4119 1.34159 0 0 0 
-0.0974823 -0.0476446 1.21286 254 46 46 
-0.127082 0.355594 1.18548 254 56 52 
-0.189119 0.24904 1.25741 0 0 0 
-0.187163 0.372314 1.25045 0 0 0 
-0.0608118 -0.000176647 1.19191 25 254 31 
-0.142974 -0.184924 1.2858 0 0 0 
-0.115213 0.31583 1.18426 51 46 254 
-0.151514 0.0935885 1.22172 58 9 10 
-0.169521 0.00283438 1.23983 1 1 1 
-0.0005656 -0.18927 1.26129 40 34 254 
-0.00975212 -0.184148 1.25401 254 25 24 
-0.0850827 0.353025 1.17076 47 43 254 
-0.0691868 -0.392381 1.32895 0 0 0 
-0.0438702 0.298842 1.16616 255 37 36 
0.0488643 0.0443628 1.20451 30 28 29 
-0.0556879 0.470758 1.14481 254 28 26 
0.0337551 0.170516 1.19773 49 46 255 
-0.211661 0.00176216 1.27385 0 0 0 
-0.0505656 0.262915 1.17041 42 41 255 
-0.143119 0.132831 1.21346 66 255 75 
-0.0693723 -0.0129431 1.19351 51 52 254 
-0.177262 -0.0763438 1.29503 0 0 0 
-0.164566 0.299969 1.22239 0 0 0 
-0.198108 0.0553872 1.26711 0 0 0 
-0.1148 -0.360083 1.35338 0 0 0 
-0.182999 0.533992 1.20685 49 53 230 
-0.210965 0.00522015 1.2619 0 0 0 
-0.00984981 0.0286674 1.18489 51 255 51 
-0.0950293 -0.395147 1.34177 0 0 0 
-0.139418 0.534466 1.16581 28 27 25 
-0.164887 -0.0435982 1.24789 0 0 0 
-0.14488 -0.129246 1.26017 0 0 0 
-0.0634222 -0.102311 1.21528 57 55 254 
-0.152954 -0.0695948 1.24192 0 0 0 
-0.168328 -0.113268 1.29419 0 0 0 
-0.0843742 -0.0938894 1.22312 44 42 254 
0.0265975 0.462376 1.15564 16 254 5 
-0.18108 0.378408 1.23639 0 0 0 
0.0857267 0.251336 1.22496 255 26 25 
-0.103228 0.0402916 1.19021 254 64 63 
0.0283416 0.110428 1.19841 255 58 58 
-0.1783 0.193825 1.24446 0 0 0 
-0.185909 0.0800572 1.26055 0 0 0 
-0.177794 -0.0532738 1.26427 0 0 0 
-0.0684175 -0.153227 1.23786 55 53 54 
-0.0669763 0.325441 1.16937 40 255 46 
-0.118829 -0.314388 1.33256 0 0 0 
-0.123648 -0.268825 1.30687 0 0 0 
-0.211125 0.590637 1.23733 5 1 1 
0.0413549 -0.158706 1.27754 38 255 40 
-0.12906 0.16396 1.20214 66 54 254 
-0.169571 -0.180308 1.34787 0 0 0 
0.0360853 0.112783 1.2058 51 51 255 
-0.10577 0.0725579 1.20117 27 27 27 
-0.112551 0.599153 1.09345 254 46 45 
-0.159831 0.09827 1.28689 0 0 0 
0.00883923 0.021202 1.18851 40 43 255 
-0.0384599 0.338036 1.16512 254 38 37 
-0.00431692 -0.210953 1.26732 56 51 254 
-0.203019 0.459456 1.26588 0 0 0 
-0.0240957 -0.284769 1.28938 55 54 254 
-0.1927 0.10348 1.27032 0 0 0 
-0.0373417 0.584766 1.12827 0 0 0 
-0.0294421 0.0169251 1.17972 255 33 31 
0.0262375 -0.0389889 1.21103 24 21 254 
-0.162873 -0.122485 1.2834 0 0 0 
-0.19636 0.4893 1.23227 0 0 0 
0.0149371 -0.119046 1.23936 38 255 39 
-0.0211812 -0.169108 1.2431 254 40 37 
-0.0242375 0.545998 1.13247 57 53 254 
-0.172625 0.430931 1.21793 0 0 0 
-0.128755 -0.17589 1.26199 0 0 0 
-0.0816886 -0.375556 1.32418 0 0 0 
-0.188694 0.27113 1.25615 0 0 0 
-0.0452102 0.115954 1.18393 45 44 42 
-0.076985 0.472258 1.15619 254 62 61 
-0.179021 -0.013637 1.23952 0 0 0 
-0.052819 -0.0661076 1.19817 56 55 254 
-0.154538 -0.0420115 1.23082 0 0 0 
-0.185343 0.276066 1.24916 0 0 0 
-0.0415666 -0.314583 1.29445 0 0 0 
-0.190427 0.522803 1.2263 0 0 0 
-0.153903 0.415665 1.19721 66 62 206 
-0.148854 0.242448 1.21065 15 48 13 
-0.0457823 -0.225594 1.25964 254 37 31 
-0.0533922 -0.262234 1.26909 90 91 97 
-0.122158 -0.0132775 1.19859 47 254 50 
-0.175137 0.417984 1.22409 0 0 0 
-0.177809 0.283818 1.24221 0 0 0 
-0.189593 -0.0896321 1.34564 0 0 0 
-0.0528196 -0.370226 1.31272 0 0 0 
-0.0386489 0.435478 1.15428 36 36 36 
-0.146418 0.0638431 1.21932 19 19 254 
-0.0867086 0.566635 1.14349 254 30 28 
-0.175762 0.336943 1.23254 0 0 0 
-0.0241709 0.20018 1.1778 45 255 52 
-0.205903 0.208433 1.29851 0 0 0 
0.00700667 0.239546 1.18107 255 34 30 
-0.0692925 0.386252 1.15838 254 47 46 
-0.151279 0.268676 1.21025 1 2 1 
-0.112122 -0.19363 1.25456 0 0 0 
0.00448726 -0.0245198 1.18766 60 255 68 
-0.0680244 -0.0496578 1.19688 254 43 43 
-0.164226 0.592158 1.15077 254 39 38 
0.0184601 0.0165804 1.19384 0 0 0 
-0.0871176 -0.108914 1.23763 254 45 44 
-0.001226 0.332578 1.1698 23 21 22 
-0.0731951 -0.517634 1.37469 0 0 0 
0.00914 0.341028 1.17102 25 26 254 
-0.0795193 0.597902 1.1227 14 13 11 
-0.162625 0.497527 1.18745 250 55 54 
-0.0770487 0.489699 1.1483 36 34 254 
-0.0931832 0.0776763 1.19296 254 58 57 
-0.0988203 -0.303587 1.3059 0 0 0 
-0.139632 0.502529 1.17537 51 254 47 
-0.127741 0.343216 1.18134 57 53 50 
-0.0184364 -0.12499 1.23216 47 46 44 
0.0232532 -0.0677181 1.22634 36 37 255 
-0.180679 -0.00269656 1.23486 0 0 0 
0.0593169 0.582949 1.14631 254 32 36 
-0.164099 0.519333 1.19177 37 37 37 
-0.0690853 0.467695 1.14644 39 254 42 
-0.0865742 0.180941 1.18179 254 84 80 
-0.143988 0.611906 1.11588 54 49 254 
-0.199245 0.186447 1.29342 0 0 0 
-0.0320225 -0.166507 1.24071 46 41 254 
-0.0399286 0.278629 1.16888 50 254 50 
-0.113603 -0.225675 1.25865 0 0 0 
-0.157471 0.524635 1.18541 0 0 0 
-0.133706 0.556021 1.1584 254 38 36 
-0.0176318 0.143756 1.18464 23 22 255 
-0.184105 0.181991 1.25854 0 0 0 
-0.148978 0.590796 1.16259 31 29 254 
-0.075101 -0.0769294 1.22336 58 56 57 
-0.137783 0.386888 1.183 54 254 57 
-0.0216331 0.432549 1.1589 254 27 27 
-0.140999 0.082993 1.21741 43 252 37 
-0.105725 0.282753 1.19171 254 38 22 
-0.0455028 0.216002 1.17672 0 0 0 
-0.0511641 -0.076356 1.20517 49 45 42 
-0.0689539 -0.309923 1.2927 0 0 0 
-0.169615 -0.128208 1.31069 0 0 0 
-0.0117291 -0.332383 1.31634 27 26 32 
-0.0625542 -0.0651066 1.21266 37 36 34 
-0.126879 -0.267343 1.4623 0 0 0 
-0.060661 -0.579543 1.38408 0 0 0 
-0.0878062 0.471007 1.16416 254 42 40 
-0.215152 0.2512 1.33633 0 0 0 
-0.0453566 -0.651314 1.4032 0 0 0 
-0.212597 0.20842 1.34728 0 0 0 
-0.209365 0.091172 1.31005 0 0 0 
-0.183925 0.174303 1.25276 0 0 0 
-0.175609 -0.144216 1.33944 0 0 0 
-0.152027 0.430792 1.18953 45 254 53 
-0.182496 -0.159327 1.36753 0 0 0 
-0.134851 -0.256136 1.32228 0 0 0 
-0.130815 -0.155598 1.26461 52 37 40 
-0.207227 0.246803 1.29973 0 0 0 
-0.0980273 0.361535 1.17438 59 55 254 
-0.156913 -0.175608 1.31468 0 0 0 
-0.198606 0.141906 1.28115 0 0 0 
-0.20841 0.285358 1.31004 0 0 0 
-0.208504 0.321282 1.3013 0 0 0 
-0.14803 -0.198761 1.30617 0 0 0 
-0.108249 0.357293 1.16465 254 63 62 
-0.173937 -0.0521748 1.25535 0 0 0 
-0.195695 0.453439 1.24413 0 0 0 
-0.133113 -0.249195 1.31541 0 0 0 
-0.205422 0.464846 1.25824 0 0 0 
-0.0790864 -0.441707 1.35417 0 0 0 
-0.205697 0.039929 1.28228 0 0 0 
-0.0777888 0.534207 1.14206 43 254 42 
-0.202962 0.0613982 1.27601 0 0 0 
-0.1906 0.0614668 1.25268 0 0 0 
-0.0838058 0.517348 1.15454 50 51 254 
-0.156944 -0.231707 1.36708 0 0 0 
-0.181231 0.410076 1.23664 0 0 0 
-0.143565 -0.0174595 1.20866 254 42 42 
-0.187136 0.231404 1.25414 0 0 0 
-0.112266 -0.0497356 1.2143 254 43 45 
-0.121711 -0.347695 1.36949 0 0 0 
-0.161007 0.00848283 1.22391 38 40 252 
-0.204888 0.477052 1.25251 0 0 0 
-0.0657655 -0.470491 1.35659 0 0 0 
-0.209693 0.329404 1.30806 0 0 0 
-0.235432 0.608889 1.24485 0 0 0 
-0.0486685 -0.106675 1.21734 48 45 255 
-0.21429 0.079365 1.34538 0 0 0 
-0.185385 0.610225 1.09879 11 10 9 
-0.183033 0.201758 1.25145 0 0 0 
-0.20951 0.0725525 1.31152 0 0 0 
-0.139493 -0.149808 1.26479 1 2 2 
-0.162666 -0.183087 1.33858 0 0 0 
-0.189951 0.0296775 1.25445 0 1 1 
-0.163212 0.0696795 1.23252 254 23 22 
-0.211613 0.0294155 1.2947 0 0 0 
-0.0970944 0.147684 1.18783 74 254 57 
-0.0881475 -0.469949 1.38531 0 0 0 
-0.180909 -0.119462 1.33733 0 0 0 
-0.165783 -0.194474 1.36132 0 0 0 
-0.089635 -0.310935 1.30668 0 0 0 
-0.0876103 -0.286318 1.29596 0 0 0 
-0.0146862 -0.458222 1.36149 0 0 0 
-0.201817 0.102513 1.4433 0 0 0 
-0.114408 0.293694 1.19072 28 29 254 
-0.0612067 -0.49063 1.36228 0 0 0 
-0.189256 0.150052 1.26428 0 0 0 
-0.182501 0.223436 1.24982 0 0 0 
-0.0859856 0.296903 1.17765 254 49 45 
-0.102941 -0.0587426 1.21344 36 34 254 
-0.0765186 0.529372 1.15952 35 254 32 
-0.132643 -0.0785278 1.23779 92 90 254 
-0.147974 -0.213638 1.31948 0 0 0 
-0.192216 0.160223 1.26842 0 0 0 
-0.136684 -0.284584 1.36749 0 0 0 
-0.10423 -0.264883 1.29132 0 0 0 
-0.207504 0.407004 1.2973 0 0 0 
-0.223672 0.0595803 1.33794 0 0 0 
-0.169802 0.399762 1.22115 73 70 61 
-0.208212 0.102916 1.30745 0 0 0 
-0.117851 -0.255928 1.2955 0 0 0 
-0.196129 0.0393966 1.26235 0 0 0 
-0.127532 0.317688 1.19407 51 254 55 
-0.182307 0.212087 1.24853 0 0 0 
-0.0989161 -0.134904 1.24196 37 36 34 
-0.163773 0.090639 1.23344 254 50 50 
-0.181473 -0.14548 1.3618 0 0 0 
-0.208766 0.110846 1.31332 0 0 0 
-0.18203 -0.0549436 1.27953 0 0 0 
-0.0176854 0.602451 1.10957 36 31 254 
-0.0315682 -0.620224 1.434 0 0 0 
-0.217517 -0.00966375 1.31399 0 0 0 
-0.180749 -0.0987711 1.31561 0 0 0 
-0.00648572 0.0923985 1.19091 255 33 32 
-0.201293 0.0389891 1.27239 0 0 0 
-0.172769 -0.0638376 1.26465 0 0 0 
-0.143751 0.297718 1.20437 254 65 63 
-0.166091 0.19907 1.22756 254 55 51 
-0.23672 0.59776 1.32516 0 0 0 
-0.0177463 0.0601208 1.28493 17 255 17 
-0.172331 0.1673 1.23779 85 84 79 
-0.196944 0.359654 1.26519 0 0 0 
-0.132826 0.0794859 1.21083 254 47 46 
-0.221527 0.00403948 1.30496 0 0 0 
-0.178086 0.132924 1.24686 0 0 0 
-0.184893 0.0134846 1.24704 9 7 252 
-0.196001 0.313246 1.28652 0 0 0 
-0.128826 -0.313773 1.36116 0 0 0 
-0.0880752 -0.121026 1.23221 34 30 254 
-0.202438 0.222434 1.2995 0 0 0 
-0.118892 -0.0772771 1.23151 47 254 51 
-0.234162 0.596729 1.24129 0 0 0 
-0.083306 0.497927 1.15824 254 60 58 
-0.130596 -0.264439 1.31745 0 0 0 
-0.133734 -0.039098 1.21665 65 65 254 
-0.128389 0.594427 1.1249 254 26 24 
-0.034897 0.102199 1.1875 41 41 255 
-0.074655 0.143455 1.18536 46 255 52 
-0.231095 0.598671 1.22914 0 0 0 
-0.19287 0.341196 1.24779 0 0 0 
-0.0795945 -0.592891 1.39487 0 0 0 
-0.122172 -0.329534 1.35559 0 0 0 
-0.0671409 -0.0204467 1.18189 255 48 48 
-0.198702 0.418169 1.26375 0 0 0 
-0.15645 0.509526 1.18772 32 254 33 
-0.202522 0.52896 1.24332 112 22 22 
-0.0925246 -0.44324 1.37129 0 0 0 
-0.191095 0.494712 1.22662 18 17 15 
-0.105142 -0.388134 1.36068 0 0 0 
-0.158394 -0.0898772 1.25038 0 0 0 
-0.138719 0.281953 1.2024 51 40 254 
-0.145959 -0.160758 1.28078 0 0 0 
-0.170883 0.0251504 1.2307 0 0 0 
-0.0922092 -0.434897 1.32004 0 0 0 
-0.121895 0.475757 1.17531 2 0 0 
-0.106658 0.199004 1.18943 0 0 0 
-0.0507066 -0.595563 1.40576 0 0 0 
-0.189198 0.111991 1.26434 0 0 0 
-0.142286 0.0313808 1.20927 0 254 1 
-0.202111 0.16644 1.28317 0 0 0 
-0.180943 0.447916 1.22425 0 0 0 
-0.162381 0.314426 1.21939 0 0 0 
-0.0711271 -0.137559 1.23386 0 0 0 
-0.150324 0.0787368 1.22358 74 79 85 
-0.23079 0.108736 1.45899 0 0 0 
-0.189729 0.0871524 1.46367 0 0 0 
-0.144147 0.511717 1.18187 46 47 254 
-0.173813 0.232282 1.23607 124 37 37 
-0.209973 0.129142 1.31293 0 0 0 
-0.157269 -0.111532 1.26498 0 0 0 
-0.120836 -0.313005 1.45593 0 0 0 
-0.137996 0.207988 1.20555 254 48 45 
0.0275161 -0.00208905 1.22428 255 27 26 
-0.183538 0.1171 1.25615 0 0 0 
-0.212726 0.111216 1.47478 0 0 0 
-0.184631 0.163877 1.2561 0 0 0 
-0.168051 0.371679 1.21978 255 80 79 
-0.179233 0.312892 1.24405 0 0 0 
-0.102531 0.30875 1.18575 43 42 37 
-0.189302 0.286983 1.25556 0 0 0 
-0.173472 0.253116 1.23359 35 150 46 
-0.213825 0.121944 1.37664 0 0 0 
-0.0548804 -0.604325 1.37341 0 0 0 
-0.215526 0.160072 1.36364 0 0 0 
-0.0985774 -0.451064 1.38933 0 0 0 
-0.213751 0.302546 1.33793 0 0 0 
-0.195889 -0.111006 1.36094 0 0 0 
-0.220041 0.467791 1.33369 0 0 0 
-0.17171 -0.0881029 1.28176 254 44 40 
-0.213534 0.271355 1.34479 0 0 0 
-0.192761 -0.127636 1.36701 0 0 0 
-0.207789 0.334612 1.29709 0 0 0 
-0.174408 -0.0980403 1.29641 2 1 2 
-0.133156 -0.181525 1.51568 0 0 0 
-0.213646 0.326775 1.33338 0 0 0 
-0.105421 -0.420046 1.38668 0 0 0 
-0.208541 0.433386 1.36883 0 0 0 
-0.19339 0.137311 1.2719 73 255 60 
-0.175908 -0.109329 1.30918 0 0 0 
-0.156611 -0.247456 1.37425 0 0 0 
-0.0764829 -0.539972 1.39384 0 0 0 
-0.212126 0.319149 1.3168 0 0 0 
-0.132925 -0.319362 1.37166 0 0 0 
-0.115367 -0.310609 1.31618 0 0 0 
-0.143144 -0.291501 1.37952 0 0 0 
-0.223968 0.0739294 1.35349 0 0 0 
-0.211541 0.402725 1.32539 0 0 0 
-0.209982 0.348924 1.30718 0 0 0 
-0.156317 -0.216098 1.34077 0 0 0 
-0.0992762 -0.434748 1.38073 0 0 0 
-0.196521 0.296151 1.2779 0 1 0 
-0.1489 -0.278001 1.37796 0 0 0 
-0.214088 0.195878 1.33417 0 0 0 
-0.198343 -0.0747033 1.34062 0 0 0 
-0.204701 -0.0806348 1.36109 0 0 0 
-0.213531 0.204341 1.313 0 0 0 
-0.21164 0.375859 1.31943 0 0 0 
-0.215193 -0.0297122 1.33175 0 0 0 
-0.177241 -0.176249 1.3709 0 0 0 
-0.21021 0.311915 1.3101 0 0 0 
-0.216695 0.172537 1.3507 0 0 0 
-0.0736043 -0.502825 1.36993 0 0 0 
-0.21397 0.201655 1.36464 0 0 0 
-0.208909 0.260086 1.30546 0 0 0 
-0.212292 0.0666589 1.42093 0 0 0 
-0.101856 -0.376567 1.34128 0 0 0 
-0.077974 -0.580499 1.39702 0 0 0 
-0.156497 -0.198296 1.33003 0 0 0 
-0.208786 0.141054 1.3017 0 0 0 
-0.116389 -0.389245 1.38835 0 0 0 
-0.211034 0.22413 1.31382 0 0 0 
-0.0882064 -0.452479 1.36345 0 0 0 
-0.201016 -0.0956533 1.36347 0 0 0 
-0.192715 0.0675993 1.27182 35 34 254 
-0.1616 -0.158669 1.30936 10 7 7 
-0.202595 0.117597 1.29112 0 0 0 
-0.15966 0.38271 1.21266 0 0 0 
-0.213061 0.187291 1.32605 0 0 0 
-0.116383 -0.325843 1.33066 0 0 0 
-0.187615 -0.0446619 1.28049 51 50 48 
-0.202083 0.150294 1.28548 0 0 0 
-0.223841 0.0380635 1.33662 0 0 0 
-0.211929 0.470976 1.26964 0 0 0 
-0.112002 -0.400286 1.38514 0 0 0 
-0.150912 -0.176542 1.29845 13 20 134 
-0.213568 0.159391 1.37986 0 0 0 
-0.219612 -0.0126795 1.32253 0 0 0 
-0.216212 0.116819 1.34972 0 0 0 
-0.144963 -0.209297 1.30581 14 9 6 
-0.213874 0.0828834 1.33217 0 0 0 
-0.187836 -0.148953 1.37042 0 0 0 
-0.122477 -0.360886 1.38051 0 0 0 
-0.19842 0.388216 1.26733 0 0 0 
-0.224465 0.00511755 1.31869 0 0 0 
-0.225835 0.0563198 1.35246 0 0 0 
-0.212937 0.29787 1.32594 0 0 0 
-0.164627 -0.168014 1.32657 0 0 0 
-0.211605 0.139587 1.31788 0 0 0 
-0.151124 -0.142774 1.27071 48 254 50 
-0.213756 0.153571 1.33275 0 0 0 
-0.117655 -0.372216 1.38378 0 0 0 
-0.137545 -0.259543 1.33219 0 0 0 
-0.146602 -0.241643 1.34307 0 0 0 
-0.167081 0.342385 1.22078 53 41 254 
-0.106397 -0.352596 1.4473 0 0 0 
-0.183461 0.0317685 1.2463 0 0 0 
-0.217163 0.0886681 1.34711 0 0 0 
-0.225019 0.0177078 1.35621 0 0 0 
-0.198553 0.399718 1.26729 0 0 0 
-0.172733 -0.234582 1.41032 0 0 0 
-0.186505 0.483311 1.21416 45 254 35 
-0.0962427 -0.273523 1.29 104 106 114 
-0.160064 0.424909 1.2091 49 45 254 
-0.190761 0.422303 1.24811 47 254 43 
-0.225948 0.557856 1.27657 231 57 58 
-0.0940507 -0.465477 1.38972 0 0 0 
-0.212313 -0.0227779 1.32014 0 0 0 
-0.157158 -0.123148 1.26917 50 46 43 
-0.201053 0.344303 1.27678 0 0 0 
-0.239955 0.599038 1.26668 1 0 0 
-0.166695 -0.0705704 1.25286 33 254 31 
-0.2204 -0.0255345 1.34814 0 0 0 
-0.138264 -0.310383 1.38064 0 0 0 
-0.168984 0.115105 1.47145 0 0 0 
-0.106366 -0.374628 1.44727 0 0 0 
-0.198927 -0.00277581 1.261 254 52 51 
-0.181297 0.355833 1.23841 79 75 64 
-0.211688 0.287329 1.32045 0 0 0 
-0.19429 -0.0323722 1.27837 44 252 42 
-0.167252 -0.202535 1.36364 0 0 0 
-0.214585 0.237605 1.32713 0 0 0 
-0.220047 0.497571 1.30021 0 0 0 
-0.230298 0.596266 1.30476 0 0 0 
-0.225347 -0.0172581 1.35371 0 0 0 
-0.0752751 -0.510962 1.42381 0 0 0 
-0.212574 0.246321 1.35944 0 0 0 
-0.169293 0.274569 1.22842 46 40 254 
-0.225918 0.0477669 1.35935 0 0 0 
-0.217011 0.0483669 1.30955 0 0 0 
-0.199897 0.501259 1.23684 54 51 254 
-0.208503 -0.0722469 1.36469 0 0 0 
-0.2089 0.211562 1.39073 0 0 0 
-0.217185 0.0150085 1.30856 0 0 0 
-0.161485 -0.220392 1.3633 0 0 0 
-0.121753 -0.304201 1.32484 0 0 0 
-0.204406 0.15578 1.29685 0 0 0 
-0.193564 -0.0440222 1.29562 0 0 0 
-0.102986 0.600615 1.11246 14 254 21 
-0.191855 0.174984 1.26191 254 60 56 
-0.21791 -0.0406587 1.3546 0 0 0 
-0.221381 0.536764 1.28204 39 38 137 
-0.20912 0.609122 1.4311 0 0 0 
-0.153451 0.341812 1.20897 254 72 71 
-0.223486 -0.0150005 1.33993 0 0 0 
-0.0791507 -0.501943 1.37814 0 0 0 
-0.208843 0.534769 1.25056 254 50 49 
-0.215215 0.0376118 1.30242 0 0 0 
-0.221439 0.0263407 1.33196 0 0 0 
-0.145051 -0.175163 1.27965 30 26 254 
-0.195337 0.217389 1.28917 0 0 0 
-0.12599 -0.234351 1.2877 34 255 31 
-0.196562 0.431516 1.26009 255 42 41 
-0.166493 0.249486 1.22639 68 64 53 
-0.135345 -0.277729 1.34978 0 0 0 
-0.0790057 -0.517577 1.38408 0 0 0 
-0.215191 0.107007 1.34926 0 0 0 
-0.223593 0.0175099 1.34412 0 0 0 
-0.214005 0.459221 1.29809 0 0 0 
-0.110428 -0.336345 1.32498 0 0 0 
-0.200634 0.470405 1.24418 67 253 69 
-0.1629 -0.109893 1.28198 51 50 45 
-0.216237 0.144389 1.35045 0 0 0 
-0.21757 0.514499 1.27861 5 1 1 
-0.19704 0.0291293 1.26537 54 52 254 
-0.106825 -0.356863 1.33086 0 0 0 
-0.166949 -0.144318 1.31328 0 0 0 
-0.0851752 -0.492397 1.3821 0 0 0 
-0.188329 0.412559 1.24367 49 254 62 
-0.212399 0.202764 1.32385 0 0 0 
-0.0866482 -0.0494763 1.20304 255 32 32 
-0.168367 0.610628 1.12671 3 0 0 
-0.221198 0.0515448 1.40476 0 0 0 
-0.210172 0.424469 1.30293 0 0 0 
-0.22501 0.02967 1.38255 0 0 0 
-0.210136 0.485569 1.26572 1 0 0 
-0.184116 0.294938 1.24572 254 14 11 
-0.119312 0.170644 1.19631 8 254 16 
-0.206067 0.110715 1.30136 0 0 0 
-0.169262 -0.0820328 1.26941 254 67 66 
-0.197468 0.0207217 1.26563 0 0 0 
-0.160838 0.27454 1.21961 66 63 54 
-0.173718 -0.164273 1.35086 0 0 0 
-0.0984337 0.249579 1.18333 49 39 37 
-0.211275 0.342316 1.31453 0 0 0 
-0.211568 0.0169077 1.29893 13 13 10 
-0.227701 0.549344 1.32468 0 0 0 
-0.212662 0.432515 1.32671 0 0 0 
-0.226696 0.546882 1.30281 0 0 0 
-0.0916355 -0.405189 1.34578 0 0 0 
-0.2207 0.0493557 1.32509 0 0 0 
-0.228612 0.00582239 1.33369 0 0 0 
-0.246363 0.598762 1.29519 0 0 0 
-0.166224 -0.0515088 1.23688 89 88 86 
-0.175364 0.141706 1.24252 53 52 48 
-0.127105 -0.344392 1.38006 0 0 0 
-0.20995 -0.0455177 1.3415 0 0 0 
-0.230213 0.596226 1.28502 9 1 1 
-0.21063 0.236771 1.31035 0 0 0 
-0.128397 0.184042 1.19913 10 2 0 
-0.206425 0.162877 1.3073 0 0 0 
-0.157378 0.174799 1.2257 254 90 86 
-0.232102 0.0129582 1.36363 0 0 0 
-0.211184 -0.00785713 1.28801 78 85 113 
-0.192875 0.51368 1.22627 254 57 53 
-0.144377 -0.253162 1.346 0 0 0 
-0.0681472 0.433514 1.15258 26 254 26 
-0.171451 -0.0235313 1.23306 32 254 37 
-0.198514 0.124973 1.27911 20 25 10 
-0.238956 0.600907 1.25211 0 0 0 
-0.143163 0.396248 1.19017 21 254 32 
-0.0925706 -0.460682 1.38079 0 0 0 
-0.183643 -0.105455 1.32125 0 0 0 
-0.105975 -0.166094 1.25377 254 37 35 
-0.224273 0.0287784 1.358 0 0 0 
-0.170676 0.411567 1.22038 254 57 53 
-0.200716 -0.024481 1.28816 56 199 30 
-0.204856 0.333829 1.28787 0 0 0 
-0.0916001 -0.424205 1.35011 0 0 0 
-0.197391 0.53327 1.22775 254 41 40 
-0.208922 0.30737 1.29577 0 0 0 
-0.204883 0.0152345 1.27727 13 13 15 
-0.108295 0.344396 1.17087 254 45 41 
-0.174521 0.514761 1.20382 30 30 30 
-0.183992 -0.0866262 1.31251 0 0 0 
-0.158237 0.265268 1.21606 254 49 45 
-0.174384 0.355191 1.22916 61 58 254 
-0.189108 -0.0783392 1.31714 0 0 0 
-0.221842 -0.0327338 1.36561 0 0 0 
-0.206574 0.0811196 1.30164 0 0 0 
-0.144771 0.337462 1.20166 70 67 62 
-0.114486 0.147322 1.19497 255 53 49 
0.0156825 -0.0285431 1.20091 60 57 52 
0.0601186 0.0531943 1.215 0 0 0 
0.0457839 -0.0518022 1.22779 19 16 9 
0.00107074 -0.134971 1.24264 25 254 18 
-0.0129338 -0.374225 1.33138 0 0 0 
-0.0181054 -0.0313754 1.1882 69 64 254 
0.0363249 -0.207396 1.28692 56 54 55 
0.104847 0.12667 1.25114 32 254 56 
-0.0358162 -0.256317 1.27518 0 0 0 
-0.0682577 -0.667436 1.40747 0 0 0 
0.000147343 -0.276103 1.29683 0 0 0 
0.0291048 -0.020303 1.20175 0 0 0 
0.0209607 -0.25462 1.29752 250 56 53 
-0.0184689 -0.0827829 1.21539 0 0 0 
-0.0359762 -0.388406 1.32495 0 0 0 
0.0541133 -0.0665174 1.24037 100 99 105 
0.0541711 -0.13469 1.26552 21 254 37 
-0.013993 -0.163514 1.24746 38 26 27 
-0.0693549 0.0941928 1.18639 0 1 0 
0.0969732 0.440097 1.21337 35 35 35 
-0.0174529 -0.271052 1.28719 0 0 0 
0.0837581 0.0516488 1.24054 33 32 30 
0.038212 -0.148552 1.26507 66 64 254 
0.113885 -0.0188243 1.36198 54 255 59 
0.0563933 0.110412 1.21802 34 35 255 
0.0284051 -0.136593 1.25548 55 55 254 
-0.0255856 -0.595006 1.40104 0 0 0 
0.0899496 0.582983 1.1761 37 254 32 
-0.0134158 -0.388922 1.3362 0 0 0 
-0.0545058 -0.271678 1.2756 0 0 0 
0.0549746 -0.081983 1.24699 48 49 254 
0.0166931 -0.181936 1.26698 39 30 31 
-0.00996501 -0.240635 1.27793 0 0 0 
0.036026 -0.0513508 1.22014 80 79 254 
-0.0575045 0.589799 1.10953 44 254 51 
0.084664 0.00394338 1.23679 26 22 19 
-0.00274177 0.0539235 1.18663 21 19 254 
0.0481849 0.205875 1.20295 0 0 0 
0.0338713 0.102954 1.20407 0 0 0 
-0.00442546 0.102615 1.19019 0 0 0 
0.0497182 0.592162 1.14804 49 253 58 
0.0503347 0.0508433 1.21504 13 14 254 
-0.0379681 -0.359473 1.31349 0 0 0 
0.0212057 0.00721445 1.19527 0 0 0 
0.0302102 0.0633232 1.19923 255 51 50 
-0.0252114 -0.0672056 1.20448 254 66 62 
-0.0446357 0.225507 1.17457 0 0 0 
-0.0228093 -0.383529 1.32966 0 0 0 
-0.0281106 0.262477 1.17384 55 254 60 
-0.0285559 -0.0186858 1.18092 64 65 254 
0.0191486 -0.0153244 1.19442 0 0 0 
0.0721932 0.286859 1.21352 32 31 24 
0.0551453 0.00478488 1.21435 0 0 0 
-0.0370771 -0.101576 1.21107 0 0 0 
-0.0303749 -0.0890202 1.21492 0 0 0 
-0.0327255 -0.594956 1.38319 0 0 0 
-0.0501554 -0.532634 1.37171 0 0 0 
0.0383154 -0.161594 1.26877 34 37 254 
-0.0404497 -0.280849 1.28098 0 0 0 
0.0454811 -0.0710745 1.23917 39 38 34 
0.00923485 0.0572846 1.19667 0 0 0 
-0.00231215 -0.0711738 1.21673 70 66 254 
0.0528844 0.171741 1.21001 54 255 46 
0.0441801 0.0985925 1.20981 3 3 255 
-0.0182122 -0.176408 1.25139 0 0 0 
-0.130082 0.57165 1.15893 27 167 41 
0.0260844 -0.0936622 1.2374 254 65 65 
-0.0838227 0.365528 1.16462 0 0 0 
0.052218 0.459657 1.17129 66 64 254 
0.0227708 -0.056537 1.21932 254 46 45 
0.0481983 -0.0599036 1.23349 63 61 254 
0.113362 0.332941 1.24229 255 44 43 
0.05829 0.239736 1.20617 254 46 45 
-0.00387386 -0.127469 1.23702 38 36 37 
0.0277809 -0.192143 1.27331 254 39 29 
0.091027 0.0610533 1.24623 255 27 26 
-0.0198208 -0.146646 1.23666 1 1 2 
0.0620124 -0.0686265 1.24603 53 53 53 
-0.0412683 0.5915 1.12011 71 68 63 
-0.0121124 0.511921 1.14523 36 35 33 
0.0599674 -0.0405623 1.2317 52 254 59 
0.0956408 0.306304 1.22435 55 54 52 
0.00758425 0.266872 1.17905 41 44 38 
-0.000622239 -0.105136 1.23026 1 1 1 
-0.0412723 0.522628 1.14129 54 254 53 
-0.0405127 0.0788702 1.18586 0 0 0 
0.0532666 -0.243577 1.31341 41 254 48 
0.0577696 0.57431 1.15432 22 22 20 
0.0572613 -0.0303036 1.22168 255 89 88 
-0.0641771 -0.247343 1.26937 0 0 0 
-0.0178006 -0.0509893 1.19571 0 0 0 
-0.0685479 -0.515125 1.3888 0 0 0 
0.0561462 0.284477 1.20007 24 254 26 
-0.000131156 -0.0394875 1.19924 85 84 254 
0.0969641 0.461064 1.20867 254 36 34 
0.0129373 -0.197094 1.27136 1 1 1 
0.0543882 -0.00702942 1.20468 84 79 254 
-0.0172791 0.574937 1.13118 72 71 66 
-0.0420073 -0.423728 1.3368 0 0 0 
0.00268799 0.578711 1.1344 69 64 254 
-0.128825 0.0658866 1.21066 0 0 0 
-0.0691236 0.0338741 1.18078 0 0 0 
0.00303191 0.076591 1.19301 84 37 37 
-0.0499724 0.512644 1.14397 254 49 47 
0.00720102 -0.0768193 1.22378 35 254 44 
0.0548805 0.543831 1.15832 32 34 254 
0.0975924 0.00791405 1.24981 255 46 45 
0.0930983 0.0735347 1.24332 255 42 41 
0.0431582 -0.12845 1.25722 254 49 48 
0.0644009 0.280504 1.20831 254 45 44 
0.0887208 0.145363 1.23654 255 38 36 
-0.0153635 -0.403558 1.34184 0 0 0 
0.0969168 0.166334 1.23458 45 43 255 
0.0760067 0.21787 1.22078 60 58 61 
0.0342296 0.147391 1.20035 19 255 29 
0.0829884 0.189404 1.23251 41 39 255 
0.0181361 0.159793 1.19209 0 0 0 
0.0155602 -0.26838 1.30229 43 46 39 
0.0734406 0.0829441 1.23351 25 255 38 
0.0812696 0.497172 1.1912 254 43 41 
-0.0487523 0.242512 1.17472 253 44 40 
-0.00937827 0.369994 1.1657 0 0 0 
-0.0447608 0.457901 1.14959 44 254 44 
0.0096358 -0.30312 1.31146 0 0 0 
0.017297 -0.0474598 1.21363 71 254 79 
0.00486845 0.22237 1.18142 33 34 254 
0.0395622 0.599775 1.12146 252 36 35 
-0.0617904 -0.302196 1.28963 0 0 0 
0.0991467 0.0536863 1.24962 255 16 15 
0.0356596 0.548519 1.14756 247 53 54 
-0.0275594 -0.077862 1.2092 0 0 0 
-0.163995 0.611726 1.09019 0 0 0 
0.0729994 0.00946743 1.22945 80 255 62 
0.0643176 0.293299 1.20669 50 48 254 
0.0497405 -0.0215399 1.21237 72 254 82 
0.0640837 0.214133 1.21215 40 41 254 
-0.0888664 0.251786 1.17742 0 0 0 
0.0228378 0.287374 1.18389 57 52 254 
0.0200937 -0.154758 1.26013 64 63 59 
0.0934877 0.118481 1.23749 26 255 29 
-0.029646 0.571136 1.13326 69 64 254 
0.075729 -0.240062 1.33847 52 50 51 
0.0666578 0.0645248 1.22595 0 0 0 
0.0431495 -0.138315 1.26251 63 62 58 
-0.00287479 -0.369069 1.33491 0 0 0 
-0.043594 -0.261806 1.27315 0 0 0 
-0.0334323 0.508907 1.14265 0 0 0 
0.0442358 0.186945 1.20242 0 0 0 
0.0170332 -0.229697 1.28138 252 73 72 
-0.027053 -0.429911 1.34745 0 0 0 
0.0220673 -0.121465 1.25115 15 13 254 
0.0647346 0.186852 1.21527 56 254 58 
0.120021 0.393477 1.24639 33 32 30 
-0.043927 0.418788 1.15846 0 0 0 
-0.0100474 0.330298 1.1689 35 36 254 
-0.0232207 0.349093 1.16539 39 37 254 
0.0225292 0.443825 1.16574 111 130 254 
-0.0501011 0.0825782 1.18646 68 66 254 
-0.00250226 -0.0165604 1.1862 44 39 35 
0.0905522 0.291824 1.22513 41 42 254 
0.0420173 0.123278 1.20735 74 254 62 
-0.0363726 -0.214997 1.25654 0 0 0 
0.0540444 0.183077 1.21211 32 254 41 
-0.00431386 -0.354342 1.32417 0 0 0 
-0.0603164 0.568532 1.12396 52 254 48 
0.0344213 0.0722979 1.20673 0 0 0 
0.0454864 -0.0339166 1.21994 51 254 61 
-0.155367 0.593721 1.15377 2 13 2 
-0.0698404 0.373633 1.16532 0 0 0 
-0.0368031 -0.338101 1.30518 0 0 0 
-0.0811963 -0.265757 1.2823 0 0 0 
0.0502532 0.322517 1.19431 0 0 0 
-0.0653421 -0.324597 1.29784 0 0 0 
-0.000731862 0.422496 1.16492 63 63 61 
-0.077501 -0.351051 1.31534 0 0 0 
-0.0529821 -0.521103 1.36947 0 0 0 
0.0652811 0.462268 1.1786 61 57 56 
-0.0142609 0.255764 1.17473 56 254 58 
-0.0449486 -0.33209 1.2993 0 0 0 
-0.0351655 -0.450397 1.35213 0 0 0 
-0.0952115 -0.325165 1.31304 0 0 0 
0.0237572 0.0713444 1.20077 53 51 254 
0.0672565 0.47637 1.17411 254 57 57 
0.0198772 -0.078175 1.23121 0 0 0 
-0.0358176 -0.301451 1.29361 0 0 0 
0.0307572 0.000869694 1.20137 0 0 0 
0.107291 0.252863 1.2384 255 66 64 
0.0840055 0.282814 1.22423 254 30 29 
0.00720721 0.28436 1.1838 56 46 254 
-0.0423234 -0.502085 1.36512 0 0 0 
-0.00835485 -0.264549 1.28989 0 0 0 
0.071056 0.102764 1.22889 255 57 55 
-0.0164652 -0.0580329 1.20273 63 58 254 
0.0858836 0.200804 1.23082 254 33 33 
-0.0571073 0.380643 1.15962 19 20 14 
0.0421759 0.291854 1.1942 254 27 26 
0.0811411 0.589861 1.15257 254 62 57 
0.0710414 0.262296 1.21362 49 47 254 
0.0830236 0.118023 1.23493 254 27 25 
-0.0350502 0.236408 1.17407 65 254 64 
-0.064143 0.189505 1.17925 0 0 0 
-0.0380805 0.247097 1.17324 0 0 0 
-0.0730943 0.353552 1.16792 0 0 0 
-0.0110826 0.589911 1.13413 47 42 254 
0.0141572 0.0380302 1.1902 71 69 72 
-0.0992957 0.204958 1.18355 0 0 0 
0.0619447 0.271174 1.20811 255 11 10 
-0.129993 0.18983 1.20928 0 0 0 
-0.0388504 0.188871 1.177 33 254 78 
0.104597 0.338364 1.23005 254 37 36 
-0.0547413 0.586975 1.12701 77 69 254 
0.0105443 0.388418 1.17068 69 69 69 
0.0671186 0.0878085 1.22753 254 30 30 
-0.0751143 0.0646684 1.18453 0 0 0 
-0.0612824 0.272386 1.17159 1 0 3 
-0.0344675 -0.490203 1.36606 0 0 0 
-0.00783631 0.457449 1.15187 9 254 18 
0.0357418 -0.119644 1.25497 53 51 254 
0.0721184 0.375011 1.19903 53 49 50 
-0.0372083 -0.480693 1.36399 0 0 0 
0.0380093 0.332652 1.18573 48 254 47 
-0.0482561 0.548481 1.13297 37 32 29 
-0.0826337 0.0775133 1.1899 0 0 0 
-0.0708051 0.586617 1.12696 28 27 22 
0.047167 0.434384 1.18325 31 254 25 
-0.0429025 -0.465972 1.35128 0 0 0 
0.0716167 -0.0377414 1.23371 82 83 255 
0.0568304 0.492645 1.16818 254 66 71 
0.0506794 0.06486 1.21552 30 254 35 
0.0463908 -0.305063 1.38219 254 77 73 
0.003893 0.487215 1.15 17 14 254 
0.0186897 0.418482 1.17068 0 0 0 
-0.118471 0.0759408 1.20279 0 0 0 
-0.0852358 -0.146349 1.2381 0 0 0 
0.0560395 0.365401 1.1942 37 35 36 
-0.0142203 0.397022 1.16403 3 0 0 
0.0321431 0.158529 1.19923 0 0 0 
-0.142213 -0.042811 1.2214 0 0 0 
0.0494475 0.611532 1.12323 58 56 51 
0.0858789 0.222622 1.22975 255 40 38 
-0.0168804 0.31605 1.1685 47 45 254 
0.0509396 0.355718 1.1886 53 254 58 
-0.0599491 0.413826 1.15191 59 59 59 
-0.00164866 0.403825 1.16566 55 55 53 
-0.13037 0.400511 1.17005 0 0 0 
-0.042685 0.383582 1.16396 50 49 45 
-0.121558 -0.104875 1.24065 0 0 0 
0.0240441 0.428288 1.17093 254 34 30 
-0.0189214 -0.194029 1.25554 1 1 1 
-0.00672098 0.311068 1.17289 0 0 0 
-0.0450142 -0.130649 1.22308 0 0 0 
0.0110928 -0.160217 1.2592 52 51 47 
-0.0257166 0.380032 1.1614 31 29 254 
-0.109012 0.44675 1.1597 0 0 0 
-0.0652925 -0.273889 1.28001 0 0 0 
-0.0466548 -0.185895 1.2433 0 0 0 
0.0125157 -0.0652431 1.22095 78 253 77 
-0.0124333 0.211189 1.17909 0 0 0 
-0.00131068 0.231776 1.1797 0 0 2 
0.0101576 -0.0933217 1.23121 44 45 254 
-0.0187016 0.173904 1.18009 55 254 62 
-0.0449083 -0.00753868 1.05087 0 0 0 
-0.0344573 -0.157298 1.23654 0 0 0 
0.0143602 0.107122 1.19608 70 255 53 
-0.203947 0.0804993 1.34037 0 0 0 
0.0407309 0.00387982 1.61103 32 28 255 
-0.0729073 0.268712 1.17376 0 0 0 
-0.265863 0.104817 1.38339 0 0 0 
-0.1306 0.0540695 1.25058 0 0 0 
0.125621 0.0937033 1.30226 47 47 47 
-0.0508448 -0.652865 1.41297 0 0 0 
0.0705332 -0.231594 1.32851 57 55 254 
-0.0718079 -0.60186 1.37394 0 0 0 
-0.0409458 -0.627692 1.41266 0 0 0 
-0.0176564 -0.294201 1.29665 0 0 0 
0.0310919 0.341862 1.18243 61 62 254 
-0.0425396 -0.2497 1.26829 0 0 0 
0.0104937 -0.169953 1.26073 1 1 1 
0.0855783 -0.0549543 1.26247 107 106 104 
0.0994403 0.0885378 1.24862 35 33 34 
-0.0251798 -0.118432 1.22554 0 0 0 
0.108013 0.0270631 1.26298 82 82 82 
0.0982957 0.134562 1.24177 54 254 53 
0.0743513 0.193445 1.22354 52 46 226 
0.111258 0.0385159 1.27267 53 52 255 
0.0505567 -0.19468 1.29473 65 254 68 
0.0708544 0.274907 1.21411 43 254 45 
0.00900875 -0.380014 1.36136 0 0 0 
0.0502875 -0.0976245 1.25082 37 36 34 
-0.0464317 -0.407556 1.32893 0 0 0 
0.122482 0.00978115 1.29665 49 48 255 
0.0986335 0.209389 1.23482 31 31 31 
0.0711721 0.0427588 1.22379 64 62 63 
-0.0385834 -0.584467 1.38234 0 0 0 
0.0465547 0.311405 1.19207 0 0 0 
-0.0271129 -0.418271 1.34115 0 0 0 
0.116128 0.116726 1.27358 53 53 53 
-0.0315867 -0.346596 1.31116 0 0 0 
-0.0110086 0.0831262 1.18994 0 0 0 
-0.0345948 -0.503686 1.3717 0 0 0 
0.0695634 0.437084 1.19787 76 76 76 
0.0333228 -0.253308 1.30897 67 68 255 
0.081782 -0.0720798 1.28368 58 57 55 
0.117456 0.135282 1.26933 49 48 46 
0.108434 0.177318 1.25197 35 33 255 
0.0773267 0.180779 1.23066 68 66 67 
0.102518 0.199134 1.23993 69 67 255 
0.0528404 -0.11077 1.25633 254 49 48 
-0.0137597 -0.148975 1.24396 0 0 0 
-0.0155348 0.0943152 1.18767 0 0 0 
0.0458201 0.140858 1.20789 254 64 61 
0.100031 0.288507 1.22771 33 33 33 
0.117703 0.047609 1.287 255 46 42 
0.105113 0.0523505 1.26004 22 20 255 
0.0630112 0.382818 1.19709 53 52 50 
0.113868 0.277768 1.24984 254 26 26 
0.0616097 -0.186507 1.29789 25 24 254 
0.0124249 -0.259574 1.29795 0 0 0 
0.0671188 0.230412 1.21641 254 32 31 
-0.0633966 -0.20607 1.24222 0 0 0 
0.0741958 -0.160518 1.32911 254 46 46 
0.0770588 0.0621491 1.23858 18 253 22 
0.0103302 -0.344309 1.33953 0 0 0 
-0.0876721 -0.16254 1.2428 0 0 0 
0.0673603 -0.219817 1.3137 58 254 68 
0.0527559 -0.168676 1.28236 34 254 49 
-0.0226316 -0.374216 1.32609 0 0 0 
0.108551 0.122635 1.26088 24 25 255 
0.0679988 -0.185625 1.31233 16 254 21 
0.0621068 0.329406 1.20076 254 51 51 
0.0133856 -0.111454 1.2458 94 89 64 
0.11387 -0.017277 1.29215 38 255 60 
-0.0229505 -0.393857 1.33731 0 0 0 
0.114713 0.0142465 1.27842 255 23 23 
-0.017003 -0.20228 1.26133 0 0 0 
0.107008 0.10015 1.2574 48 49 255 
0.0527308 0.0978229 1.21479 52 255 55 
0.0566206 -0.0153018 1.21555 254 39 35 
0.105729 0.0800379 1.259 255 46 45 
0.104598 0.363928 1.2289 26 254 30 
0.0120335 0.453734 1.15899 79 79 79 
0.113648 0.215535 1.25481 51 50 48 
0.0124832 0.0938002 1.19541 62 62 255 
0.0979931 -0.0155159 1.24887 61 62 254 
0.0353533 0.0488459 1.2 0 0 0 
0.104757 0.284964 1.23608 24 255 24 
0.0397349 0.000356172 1.20404 0 0 0 
0.107071 -0.00897987 1.25856 59 59 59 
0.0839577 -0.0129813 1.23482 254 71 67 
0.0622626 0.028203 1.21803 1 1 1 
-0.027984 -0.213671 1.26101 0 0 0 
0.0436133 -0.187624 1.28229 57 55 254 
0.0106264 0.141389 1.19117 61 252 58 
0.078342 0.210516 1.22611 254 64 62 
0.0741108 0.0203185 1.22533 58 254 45 
0.0399506 0.524437 1.15882 12 14 254 
0.0461839 0.54195 1.15653 48 253 55 
0.0610696 0.0748174 1.22417 0 0 0 
0.122098 0.030101 1.29306 41 254 33 
0.0787293 0.0973073 1.23765 254 20 18 
0.118563 0.090707 1.27965 255 19 15 
0.0310672 -0.23765 1.29777 27 15 255 
-0.0554341 -0.551493 1.37641 0 0 0 
-0.0557904 0.226742 1.1749 0 0 0 
0.0454415 0.0891373 1.21425 254 36 36 
0.00297521 0.090632 1.19106 8 8 15 
0.104181 0.0402656 1.25787 60 61 254 
0.0392654 0.482617 1.16425 26 25 254 
0.0600735 0.537463 1.16631 46 251 47 
0.0389808 -0.0609069 1.23031 59 254 61 
0.078451 -0.209597 1.35585 42 254 47 
-0.125331 -0.0707042 1.22897 0 0 0 
-0.0487221 0.40395 1.1475 0 0 0 
0.0741549 0.0326034 1.22692 42 44 254 
0.080226 0.413177 1.2099 10 254 25 
-0.0516888 0.407906 1.15718 0 0 0 
-0.101608 0.275114 1.17977 0 0 0 
-0.00229868 0.195142 1.1812 0 0 0 
0.105883 0.239226 1.24372 21 255 27 
0.0784686 -0.184255 1.342 254 109 107 
0.0992005 0.319448 1.22495 47 48 254 
-0.00661032 -0.251264 1.28955 0 0 0 
0.077156 0.270363 1.21963 48 44 43 
-0.0264933 -0.0400727 1.18788 0 0 0 
0.0401417 0.282029 1.19916 60 59 54 
0.0666278 0.529513 1.17364 36 254 39 
-0.0406265 -0.171821 1.23724 0 0 0 
-0.0964919 -0.281197 1.29472 0 0 0 
0.0433902 0.269557 1.19221 47 45 46 
0.0120035 -0.0402141 1.20183 59 255 64 
0.0590367 0.508866 1.17399 254 67 67 
0.0697689 -0.0872237 1.25711 15 254 24 
-0.0490295 -0.360278 1.31097 0 0 0 
0.0671632 -0.00763676 1.21574 89 84 254 
0.0742789 0.48436 1.18689 73 71 74 
0.0644617 0.00131021 1.22218 254 54 53 
0.0647141 0.164965 1.22038 56 54 55 
0.0541471 0.0152534 1.21301 59 252 59 
-0.0226251 0.0698508 1.18909 0 0 0 
-0.0551479 0.395661 1.1625 0 0 0 
-0.123649 -0.209032 1.26073 0 0 0 
0.0594979 0.444434 1.18597 66 64 254 
-0.0312277 -0.26539 1.29158 0 0 0 
0.0603987 0.145724 1.2196 46 44 254 
0.111377 0.26784 1.2458 50 50 50 
0.108892 0.114899 1.26124 254 44 42 
-0.0297704 -0.59154 1.39464 0 0 0 
0.112854 0.32192 1.247 255 51 50 
-0.0110341 0.444797 1.1563 6 1 2 
-0.00670713 0.23995 1.1769 1 0 0 
0.0622827 0.497125 1.17874 254 45 49 
0.0108966 -0.148302 1.25191 0 0 0 
0.0697976 0.38922 1.20062 31 30 28 
0.0633133 -0.210563 1.30392 61 57 254 
0.103177 0.0027321 1.25596 10 11 254 
-0.0752141 0.382489 1.15373 0 0 0 
-0.0449428 -0.266519 1.27387 0 0 0 
0.0311956 0.29777 1.19097 28 26 254 
0.0559144 0.349315 1.19303 27 27 27 
0.0444635 0.150497 1.20699 79 76 71 
-0.000716389 0.0671624 1.19235 13 16 16 
0.0785255 0.557268 1.16924 30 28 29 
-0.00434963 0.302774 1.17729 0 0 0 
0.117261 0.536313 1.2232 35 36 254 
0.12562 0.406786 1.2624 254 51 50 
0.0192774 -0.0804482 1.25834 93 92 90 
0.0294083 0.024739 1.19829 254 17 13 
0.0382766 0.46176 1.16552 15 16 254 
0.0473891 0.245749 1.20003 254 30 26 
-0.0141786 0.426467 1.16275 0 0 0 
-0.0342387 0.418932 1.16032 0 0 0 
0.0497367 0.479397 1.17087 42 42 40 
-0.00659449 -0.315208 1.31108 0 0 0 
0.0712129 -0.19136 1.33011 18 254 22 
-0.0410532 -0.512684 1.3713 0 0 0 
-0.0208222 -0.532465 1.40803 0 0 0 
0.0999151 0.21892 1.23225 255 64 62 
0.0390595 0.0165974 1.20656 0 0 0 
0.0680252 0.570089 1.16353 4 4 3 
0.0812536 -0.0298985 1.23928 254 75 71 
0.0170104 -0.0612242 1.20852 254 32 30 
-0.0355249 -0.137849 1.22591 0 0 0 
0.0350461 0.368505 1.18089 49 49 49 
-0.0255655 -0.304104 1.29818 0 0 0 
0.0890576 -0.0311382 1.249 255 73 72 
-0.0525628 -0.578319 1.378 0 0 0 
0.113911 0.192196 1.25502 30 28 29 
0.104206 -0.0624413 1.32864 67 60 255 
-0.00372756 0.393656 1.16682 1 1 1 
0.0663287 0.125837 1.22357 54 52 254 
-0.0397501 -0.00936336 1.18831 0 0 0 
-0.0222126 0.0394046 1.18211 0 0 0 
0.0512853 0.416189 1.18641 60 61 254 
-0.041584 -0.0572272 1.19305 0 0 0 
0.013716 0.369675 1.17255 60 58 61 
-0.131146 0.086944 1.60333 15 255 19 
0.0825932 0.351751 1.21586 41 254 30 
0.0626203 -0.0193752 1.21331 0 0 0 
0.0783672 0.524685 1.17931 51 50 46 
-0.000204517 -0.247397 1.28426 0 0 0 
0.0329621 0.122463 1.20247 0 0 0 
-0.016154 -0.0987807 1.22152 0 0 0 
0.0667038 -0.0297951 1.22485 80 75 254 
0.0086655 0.441481 1.16285 75 254 75 
-0.00552195 0.275978 1.17493 0 0 0 
0.097551 0.346783 1.22221 47 45 46 
-0.0406041 -0.117731 1.21816 0 0 0 
0.0108557 0.214609 1.18726 45 40 255 
-0.016188 0.133535 1.1848 0 0 0 
0.030061 -0.147661 1.25805 77 246 62 
0.0370568 0.308152 1.18913 36 37 254 
0.0280167 0.417979 1.1741 17 16 254 
0.00472609 -0.20434 1.27038 0 0 0 
0.0339696 0.405225 1.17874 0 0 0 
-0.0471588 -0.0436669 1.18752 0 0 0 
-0.0635053 -0.0871061 1.21148 0 0 0 
-0.0610557 -0.65878 1.4064 0 0 0 
-0.133928 0.502413 1.17816 0 0 0 
-0.0644189 -0.595442 1.38336 0 0 0 
-0.0567338 -0.543538 1.37057 0 0 0 
-0.0533694 -0.67454 1.4137 0 0 0 
0.0195439 -0.2974 1.31848 0 0 0 
0.129587 0.0600134 1.37082 21 21 255 
0.117158 0.098223 1.27717 20 20 254 
0.0168449 -0.372045 1.37321 0 0 0 
0.125042 0.0332278 1.29979 55 53 54 
-0.127936 0.439303 1.17749 0 0 0 
0.142837 0.603407 1.38742 254 35 33 
-0.0259162 -0.59073 1.41146 0 0 0 
-0.0546332 -0.652717 1.37997 0 0 0 
0.150279 0.604104 1.37961 51 254 52 
-0.053214 -0.65649 1.40073 0 0 0 
0.131181 0.388479 1.27653 255 45 44 
0.0055866 -0.0490484 1.20929 255 61 60 
0.0855732 0.100947 1.24205 255 46 46 
0.112525 0.119165 1.26623 36 254 32 
-0.0200101 -0.601478 1.39403 0 0 0 
0.129925 0.110089 1.33525 47 47 255 
0.0191287 -0.326274 1.34231 0 0 0 
0.125641 0.107015 1.29858 254 60 60 
0.0947159 -0.110207 1.34336 51 52 255 
0.109351 0.00369876 1.26647 254 30 29 
0.148806 0.590773 1.27635 45 254 46 
-0.00711167 -0.270816 1.29316 0 0 0 
0.110135 0.135821 1.26867 26 27 255 
-0.0740193 -0.631114 1.4042 0 0 0 
0.012852 -0.202897 1.27234 5 3 2 
-0.125198 0.29408 1.20042 0 0 0 
0.13194 0.21109 1.29932 24 26 255 
0.0412486 -0.287323 1.36721 254 61 60 
-0.0262027 -0.580585 1.39262 0 0 0 
0.130188 0.477748 1.26585 35 33 255 
0.1353 0.387259 1.28967 45 44 42 
-0.0337432 -0.586486 1.3852 0 0 0 
0.119573 -0.0501738 1.35057 113 254 127 
-0.160121 0.315831 1.23706 0 0 0 
0.128843 0.18792 1.29672 38 22 22 
-0.13142 0.305027 1.19975 0 0 0 
0.121319 0.456935 1.24738 46 44 254 
0.108794 0.104821 1.26043 46 48 47 
0.105209 0.194947 1.24332 254 18 18 
0.0321209 -0.277954 1.32404 0 0 0 
0.000571379 -0.382699 1.34451 0 0 0 
0.135811 0.425217 1.29898 24 23 21 
0.00610157 -0.0315132 1.20827 70 69 65 
0.154163 0.593591 1.25753 254 33 32 
0.0250716 -0.270106 1.30638 1 1 1 
0.115772 0.169725 1.26687 254 21 19 
0.131083 0.0604063 1.32097 43 43 254 
0.0186539 -0.337904 1.35571 0 0 0 
0.0758642 -0.119821 1.30406 80 78 254 
0.0389668 -0.275217 1.34494 90 87 254 
0.0138589 -0.364517 1.36086 0 0 0 
0.0959582 -0.0694381 1.31742 254 74 73 
0.130202 0.14551 1.31615 36 34 35 
0.114333 0.0927838 1.26625 29 29 29 
0.139172 0.505176 1.30795 23 254 27 
0.131614 0.0996747 1.31558 44 44 255 
0.134254 0.141424 1.33461 48 255 43 
0.024183 0.169481 1.1938 0 0 0 
0.131354 0.337455 1.28423 254 42 40 
-0.109811 0.485942 1.17159 0 0 0 
-0.031864 -0.486409 1.36546 0 0 0 
0.0173355 -0.339291 1.34472 0 0 0 
0.124923 0.449666 1.25748 59 57 254 
0.0795296 -0.0825042 1.27752 78 76 254 
0.0832969 -0.079503 1.29178 29 254 37 
0.13243 0.0843652 1.33421 29 27 28 
0.0241218 -0.30388 1.32913 0 0 0 
0.122085 0.11231 1.2833 51 255 52 
0.116736 0.061408 1.28789 255 36 38 
0.0798743 0.217392 1.22851 254 57 57 
0.00540333 -0.338138 1.32222 0 0 0 
0.0356529 -0.21563 1.28505 75 72 65 
0.10783 0.0849942 1.25951 29 30 255 
-0.131521 0.456627 1.18122 0 0 0 
0.0932221 -0.100184 1.33105 254 53 52 
-0.122401 0.49586 1.17717 0 0 0 
0.0791569 -0.174321 1.34161 34 31 26 
0.135983 0.24925 1.32314 28 255 45 
0.137168 0.574905 1.245 32 30 31 
0.0406918 -0.0973925 1.2472 254 38 36 
0.0107732 -0.358864 1.35194 0 0 0 
0.125688 0.336543 1.2597 53 53 53 
0.122966 0.00924811 1.29801 255 39 38 
0.0449329 -0.202205 1.29231 97 102 244 
0.136604 0.211941 1.3223 19 21 255 
0.118677 0.383775 1.2422 35 33 255 
0.131529 0.365348 1.287 50 51 255 
0.065823 -0.165606 1.31628 48 254 71 
-0.00527705 -0.56563 1.31467 0 0 0 
0.125696 0.0592709 1.39101 17 15 255 
0.134241 0.271885 1.29487 255 41 21 
0.118751 0.333338 1.2501 32 30 31 
0.143712 0.556773 1.26981 48 49 254 
-0.0221178 -0.488042 1.37477 0 0 0 
0.119246 0.587468 1.21312 54 254 38 
0.0860088 -0.201364 1.32385 36 254 54 
0.00836444 -0.359288 1.33839 0 0 0 
0.115759 0.0746046 1.27421 255 42 40 
0.110086 -0.0334526 1.2931 59 56 51 
0.0553428 -0.153603 1.28395 63 59 254 
0.0693455 -0.204708 1.31402 35 254 38 
-0.129798 0.490918 1.18183 0 0 0 
0.0650348 0.0507668 1.22832 17 17 17 
0.063267 -0.156981 1.29861 254 39 40 
0.0718114 -0.20214 1.33805 254 91 88 
0.138278 0.280997 1.31022 255 43 27 
0.0637264 -0.16701 1.29762 254 65 64 
0.103352 0.273145 1.23468 254 27 27 
0.132485 0.112733 1.32068 44 44 44 
0.130347 0.127159 1.30329 255 31 31 
-0.0338669 -0.531238 1.3768 0 0 0 
0.075415 0.565199 1.10017 1 10 1 
0.119518 0.205409 1.26681 255 52 51 
0.0186345 0.40879 1.17119 75 73 254 
0.0701087 -0.16453 1.30714 66 62 254 
-0.117585 -0.176049 1.26089 0 0 0 
0.0241001 -0.195967 1.27816 54 55 252 
0.00424947 -0.155445 1.25146 0 0 0 
0.0631949 0.20631 1.21254 0 0 0 
-0.0112828 -0.343137 1.31517 0 0 0 
0.0383964 -0.243723 1.31021 23 22 18 
0.122694 -0.0284939 1.32646 105 255 91 
0.117479 0.419162 1.24275 19 18 16 
0.0216425 -0.14377 1.25366 53 217 66 
0.123973 0.4415 1.24623 50 255 48 
0.125514 0.53799 1.23477 60 61 254 
0.0155113 0.00734378 1.2024 254 65 63 
0.0664672 -0.249016 1.31687 28 29 254 
0.0795452 0.450789 1.18872 254 72 71 
0.105709 0.466648 1.22002 41 42 254 
0.0326439 -0.315595 1.3718 42 41 43 
-0.0135161 0.227971 1.18857 0 1 0 
0.0999162 -0.0307164 1.26055 48 43 254 
-0.00681182 -0.139096 1.23823 0 0 0 
-0.0567928 -0.22182 1.26733 0 0 0 
0.144892 0.553811 1.27917 42 254 48 
0.129073 0.373356 1.26612 254 40 39 
0.0942353 0.0461911 1.24524 254 25 23 
-0.114138 0.0416168 1.18487 0 0 0 
0.102733 0.54068 1.20032 36 35 254 
0.100116 0.119785 1.24476 255 56 55 
0.137893 0.478179 1.28837 254 28 26 
0.140265 0.528818 1.30473 42 254 49 
0.0858274 -0.150302 1.36152 33 34 254 
0.130224 0.280733 1.28805 254 54 40 
-0.00188593 -0.222901 1.26989 0 0 0 
0.13284 0.190183 1.31763 30 14 15 
0.138194 0.401383 1.29491 255 36 35 
0.00779806 -0.295904 1.31009 0 0 0 
-0.0887371 -0.182652 1.24673 0 0 0 
0.117365 0.0198109 1.28256 44 45 255 
0.130065 0.196742 1.29907 28 27 25 
0.126165 0.0797997 1.30746 29 255 34 
-0.0117987 -0.276167 1.29364 0 0 0 
0.0689938 -0.213167 1.31866 45 45 254 
0.0712818 0.0572302 1.23307 42 40 255 
0.11428 0.0352364 1.27924 50 50 50 
0.0704129 -0.137757 1.30924 60 56 55 
-0.154729 -0.180563 1.26993 0 0 0 
0.116791 0.00771125 1.28228 47 46 44 
0.135387 0.172502 1.32329 29 255 29 
-0.0559285 -0.648647 1.39591 0 0 0 
-0.0715916 -0.235154 1.26463 0 0 0 
-0.0549054 -0.553401 1.39174 0 0 0 
0.132947 0.0133472 1.35371 40 255 46 
-0.0113959 -0.307272 1.30104 0 0 0 
0.124327 0.515726 1.24932 45 46 254 
0.142493 0.536182 1.28091 52 254 52 
0.0714671 0.497082 1.18527 46 44 45 
0.06616 -0.105078 1.2691 50 254 50 
-0.0336301 -0.503126 1.36984 0 0 0 
-0.135258 0.470309 1.1832 0 0 0 
0.114546 0.406317 1.23779 31 32 254 
0.0916284 -0.114464 1.3581 42 255 43 
0.110191 0.536183 1.21141 46 45 43 
0.127133 0.00990086 1.30834 254 56 55 
0.128129 0.244821 1.28783 255 43 24 
0.118213 0.582183 1.19846 254 41 38 
0.109145 0.0536696 1.26513 59 58 56 
0.0366467 -0.179637 1.27514 0 0 0 
0.126599 0.396121 1.25657 29 28 255 
0.0714994 -0.175049 1.32959 29 254 33 
0.117376 0.433406 1.23159 49 47 254 
0.138086 0.2607 1.31809 23 23 255 
0.12967 0.334378 1.27311 26 255 31 
0.128211 0.137098 1.30456 47 47 255 
0.130234 0.0454836 1.34106 38 39 255 
0.132697 0.0260265 1.33727 41 255 49 
-0.0665737 -0.226323 1.25031 0 0 0 
-0.0413034 -0.367388 1.31343 0 0 0 
0.0770273 -0.145399 1.31486 46 254 49 
-0.0756302 -0.245157 1.26087 0 0 0 
0.0996167 0.451201 1.21308 51 254 45 
0.0858205 0.0193341 1.24084 254 51 50 
0.130162 0.0611752 1.35003 21 255 18 
0.125345 0.0419082 1.30928 45 43 255 
-0.026929 0.144217 1.18032 0 0 0 
0.11526 0.471665 1.38593 33 255 35 
0.111637 0.150259 1.26136 47 45 255 
0.131226 0.544712 1.24605 47 48 254 
0.0716621 -0.109385 1.28071 41 38 254 
0.113189 0.277981 1.25104 24 20 254 
0.0401543 0.239361 1.19605 51 49 254 
0.0782592 -0.102735 1.29568 50 48 254 
0.128421 0.00947981 1.30766 31 30 28 
0.135357 0.585849 1.24925 44 43 254 
0.128726 0.0189972 1.31649 7 254 60 
0.134349 0.0997483 1.3254 52 48 49 
0.0589811 -0.188815 1.30271 254 34 33 
0.0311069 -0.302556 1.35519 25 26 21 
-0.0728268 0.40102 1.16309 0 0 0 
0.0793813 -0.0919186 1.28793 39 35 32 
0.138977 0.0750193 1.41074 255 64 62 
0.0739318 -0.19699 1.33024 34 35 30 
0.130447 0.393867 1.26921 32 254 32 
-0.031697 -0.233135 1.26774 0 0 0 
0.105212 0.145665 1.25447 55 254 60 
0.135602 0.353131 1.29489 12 10 255 
0.129589 0.172582 1.31417 12 255 12 
0.0755442 0.5688 1.16954 253 74 71 
0.0797354 -0.163838 1.3385 254 39 37 
0.0839145 0.231988 1.22998 255 43 42 
0.112614 -0.0307862 1.30325 66 63 58 
-0.0375397 -0.32464 1.30305 0 0 0 
0.130387 0.251506 1.294 26 255 46 
0.0866636 -0.0975518 1.31161 254 90 89 
0.0894125 -0.0871482 1.30757 54 254 53 
0.13045 0.428702 1.27632 41 40 254 
0.00311439 0.466741 1.14928 48 239 56 
-0.0491743 -0.421782 1.33181 0 0 0 
-0.0501904 -0.525414 1.36827 0 0 0 
0.128906 0.155498 1.29763 40 39 37 
0.13975 0.284968 1.32409 254 66 62 
0.123985 0.122739 1.29105 34 255 40 
0.12702 0.109652 1.30139 254 35 35 
0.136097 0.488947 1.29211 27 25 26 
-0.0969582 0.0108927 1.18376 0 0 0 
0.113042 0.41786 1.22865 35 33 254 
-0.00139065 -0.34817 1.32463 0 0 0 
0.0795429 0.491095 1.1907 62 254 62 
0.101997 -0.0555928 1.31498 255 61 57 
-0.0164139 0.472958 1.1471 0 0 0 
0.127704 0.352092 1.26857 63 254 55 
