ply                 
format ascii 1.0    
element vertex 588
property float x    
property float y    
property float z    
property uchar red  
property uchar green
property uchar blue 
end_header          
-0.0910045 0.466282 1.16762 52 51 49 
-0.0991837 0.468923 1.17137 53 51 253 
-0.109369 0.472981 1.17527 67 227 71 
-0.12636 0.474973 1.18213 0 0 0 
-0.0972791 0.461015 1.17102 55 254 53 
-0.094597 0.472927 1.16854 50 49 47 
-0.0927376 0.446504 1.16091 254 60 58 
-0.119967 0.465882 1.18003 0 0 0 
-0.0898463 0.547196 1.16531 254 35 33 
-0.0844564 0.547668 1.16297 254 38 36 
-0.0428452 -0.607475 1.41621 0 0 0 
-0.0455577 -0.602395 1.41631 0 0 0 
-0.0887429 0.558933 1.16396 26 27 254 
-0.101264 0.470697 1.17158 60 58 253 
-0.0874639 0.465995 1.16625 42 40 254 
-0.0959184 0.444199 1.16272 55 53 54 
-0.101284 0.459442 1.17245 56 54 55 
-0.104484 0.496233 1.172 59 57 253 
-0.100316 0.460254 1.17337 253 54 52 
-0.120499 0.446423 1.17345 0 0 0 
-0.12064 0.446306 1.17332 0 0 0 
-0.0947856 0.558917 1.16734 254 46 44 
-0.113872 0.463233 1.17768 7 8 5 
-0.0891878 -0.204082 1.25524 0 0 0 
-0.145561 0.113482 1.22027 0 0 0 
-0.108205 0.535336 1.17353 45 43 44 
-0.129715 0.0985771 1.21119 0 0 0 
-0.0467339 -0.66109 1.41925 0 0 0 
-0.0834855 0.100781 1.19415 254 77 75 
-0.102385 0.464511 1.17245 55 255 46 
-0.115933 -0.103227 1.24192 0 0 0 
-0.0997912 0.120741 1.19721 64 62 209 
-0.116308 0.0425579 1.1994 0 0 0 
-0.148851 -0.00805247 1.21134 0 0 0 
-0.062013 0.0869023 1.19098 2 0 254 
-0.149153 -0.00803791 1.21131 0 0 0 
-0.107635 0.271934 1.19052 0 0 3 
-0.112606 0.464192 1.17653 8 63 9 
-0.0848651 0.0260135 1.18899 28 28 28 
-0.137435 0.144802 1.21326 0 0 0 
-0.0984221 -0.205536 1.25859 0 0 0 
-0.125263 -0.0460466 1.22191 0 0 0 
-0.112561 0.464193 1.17653 8 63 9 
-0.0621085 0.0869198 1.19088 2 0 254 
-0.122748 -0.0663269 1.23108 0 0 0 
-0.0567318 -0.168196 1.24093 122 130 116 
-0.120753 0.191645 1.201 0 0 0 
-0.0675621 0.236833 1.18144 254 38 34 
-0.0879076 0.470216 1.16613 48 47 45 
-0.100529 0.193929 1.19172 27 123 29 
-0.0909001 -0.108904 1.23454 0 0 0 
-0.0465891 -0.000570412 1.18265 33 254 37 
-0.0878441 -0.203035 1.2544 0 0 0 
-0.083845 0.130152 1.19224 41 254 36 
-0.154862 0.0513293 1.22057 0 0 0 
-0.108937 0.0136654 1.19691 59 60 65 
-0.116991 0.224622 1.19575 0 0 0 
-0.0638354 0.509095 1.14947 49 45 46 
-0.106408 0.505838 1.17346 60 59 57 
-0.113604 -0.179031 1.26284 0 0 0 
-0.071554 0.241862 1.18174 74 71 254 
-0.120247 0.115453 1.20569 0 0 0 
-0.0834393 -0.0347499 1.19711 74 74 76 
-0.0853507 0.464678 1.16529 51 254 47 
-0.154007 0.00895312 1.21986 0 0 0 
-0.0277574 0.606313 1.11322 72 254 78 
-0.104408 0.557442 1.17167 41 39 254 
-0.0875784 -0.308813 1.30664 0 0 0 
-0.164571 0.0407097 1.22851 0 0 0 
-0.115268 0.131554 1.20262 0 0 0 
-0.0897146 0.111433 1.19508 52 50 254 
-0.0578868 0.00490815 1.18651 254 29 27 
-0.0974972 0.0986152 1.19955 46 46 44 
-0.0819638 0.106195 1.19335 43 254 64 
-0.121968 0.267306 1.19642 0 0 0 
-0.056772 0.214176 1.18125 55 54 52 
-0.0809786 -0.200974 1.25064 0 0 0 
-0.0677928 -0.0767242 1.21555 254 76 76 
-0.0975841 -0.1696 1.25585 0 0 0 
-0.133337 0.0105886 1.20782 0 0 0 
-0.149316 0.0143384 1.21847 0 0 0 
-0.118575 0.192636 1.19929 0 0 0 
-0.124552 -0.00588729 1.19725 3 2 2 
-0.102578 0.221902 1.1904 7 6 22 
-0.0681322 -0.168228 1.24283 0 0 0 
-0.101149 -0.248106 1.26095 0 0 0 
-0.108577 0.0521229 1.19567 8 8 10 
-0.108815 -0.163033 1.26047 0 0 0 
-0.0554035 0.513041 1.14958 31 31 31 
-0.0846827 -0.238412 1.25379 0 0 0 
-0.130556 -0.0953216 1.2459 0 0 0 
-0.160081 0.495109 1.19465 0 0 0 
-0.102572 0.0112083 1.19407 252 69 69 
-0.0703983 0.0853871 1.19417 58 254 68 
-0.0505259 0.499977 1.14955 39 37 38 
-0.151502 0.22673 1.2182 0 0 0 
-0.0987137 0.138803 1.19621 234 59 59 
-0.0947218 -0.199761 1.25735 0 0 0 
-0.0378409 0.375954 1.16896 36 34 37 
-0.110063 0.53986 1.17389 31 29 30 
-0.0781784 -0.00290523 1.18361 254 70 70 
-0.114092 0.0948451 1.20416 0 0 1 
-0.0958728 0.372594 1.16733 62 59 255 
-0.0938438 0.37689 1.16674 50 253 64 
-0.0988938 0.0910884 1.19904 241 41 41 
-0.126442 0.00288118 1.20478 0 0 0 
-0.073855 -0.0141785 1.18815 254 68 68 
-0.109151 -0.162774 1.26014 0 0 0 
-0.174636 0.0496208 1.23833 0 0 0 
-0.149699 0.0136014 1.21878 0 0 0 
-0.0501837 -0.00540602 1.17978 73 73 254 
-0.159712 0.0170329 1.2248 0 0 0 
-0.0451147 0.377341 1.16879 254 48 47 
-0.111188 0.0452127 1.19744 171 30 33 
-0.09247 0.038982 1.19097 74 75 254 
-0.109841 0.0897244 1.20348 1 0 0 
-0.135854 0.0253794 1.20982 0 0 0 
-0.125039 0.616875 1.1131 171 45 45 
-0.0926372 0.0387571 1.19033 74 75 254 
-0.128287 0.0117653 1.20608 0 0 0 
-0.0411459 0.454361 1.15707 254 43 43 
-0.0420973 0.453948 1.15621 40 40 254 
-0.146235 0.603254 1.09468 37 36 31 
-0.0975194 -0.0914989 1.23252 0 0 0 
-0.0722131 -0.0980746 1.22281 63 62 254 
-0.0891733 0.0171478 1.19204 61 254 69 
-0.101183 -0.223991 1.26032 0 0 0 
-0.117451 -0.0945594 1.241 0 0 0 
-0.107378 0.0971522 1.20002 0 0 0 
-0.100648 -0.0176809 1.19369 254 54 54 
-0.0884615 -0.0107852 1.18934 254 50 50 
-0.127294 0.617581 1.11233 49 43 166 
-0.0615377 0.106019 1.19122 69 254 75 
-0.0986464 -0.198525 1.25856 0 0 0 
-0.028598 0.346358 1.17076 37 254 46 
-0.0483686 0.320769 1.17418 254 47 45 
-0.100867 0.542406 1.17009 40 41 254 
-0.110772 0.612417 1.12383 54 50 224 
-0.0925541 0.100467 1.19695 52 254 54 
-0.0857365 0.00384384 1.19061 30 31 254 
-0.118875 -0.170851 1.26389 0 0 0 
-0.125584 0.606517 1.09077 50 50 43 
-0.167222 0.425439 1.2192 0 0 0 
-0.0927219 0.100655 1.19676 52 254 54 
-0.0513751 0.108864 1.18885 51 254 64 
-0.114063 0.0220307 1.19909 36 37 39 
-0.0968529 -0.0753498 1.22656 1 1 0 
-0.112188 0.0181208 1.1981 85 89 114 
-0.104268 0.103815 1.19963 30 10 11 
-0.104503 0.439537 1.16615 56 56 54 
-0.131078 -0.0329663 1.21602 0 0 0 
-0.0616232 0.159284 1.18682 42 39 254 
-0.099116 -0.00535205 1.18817 68 254 67 
-0.0904232 0.247859 1.18643 36 28 251 
-0.0581544 0.516143 1.14916 45 254 45 
-0.118105 0.0974693 1.20519 0 0 0 
-0.07907 -0.203709 1.24932 0 0 0 
-0.0592065 -0.0760303 1.21084 89 254 56 
-0.140138 -0.114327 1.25601 0 0 0 
-0.0586181 -0.294306 1.29056 0 0 0 
-0.129481 0.512828 1.17962 6 1 1 
-0.121739 0.501671 1.17948 7 6 22 
-0.114713 0.489629 1.17623 17 13 96 
0.00442485 0.0289384 1.19178 35 35 255 
-0.107156 0.065805 1.19797 2 2 6 
-0.0281738 0.0631624 1.19388 47 45 255 
0.0320491 -0.0300495 1.21183 75 71 68 
-0.0108 -0.0706551 1.21396 43 41 254 
-0.0445215 -0.45937 1.35157 0 0 0 
0.00611417 -0.186966 1.26804 16 254 44 
0.127693 -0.0150455 1.31224 67 66 62 
-0.0420594 -0.396058 1.33026 0 0 0 
-0.158633 0.0844879 1.23447 0 0 0 
0.0945137 0.112266 1.24616 255 39 37 
-0.0558818 -0.202095 1.24796 10 11 12 
0.0437868 -0.20743 1.29282 27 254 37 
-0.178601 0.608362 1.13961 4 3 32 
-0.0426583 -0.0880576 1.20978 69 65 62 
0.0318633 -0.239774 1.30102 254 63 60 
0.0987062 0.198927 1.24013 45 46 255 
0.0101358 0.0449277 1.1918 255 21 21 
-0.103223 -0.303628 1.31247 0 0 0 
-0.132044 0.459556 1.18387 0 0 0 
0.0512936 0.00314161 1.21194 50 49 47 
-0.0381986 0.217093 1.18019 61 60 58 
0.0010035 -0.1723 1.26188 254 37 36 
-0.136326 0.297903 1.20257 0 0 0 
-0.147397 0.0413589 1.21595 0 0 0 
-0.0457773 0.166477 1.18488 254 54 50 
-0.000700821 0.294195 1.17901 59 55 254 
-0.189506 0.606847 1.17548 10 48 12 
-0.142234 0.562349 1.17128 62 250 76 
0.0644609 -0.0581348 1.24443 50 46 255 
-0.0517387 0.436703 1.15885 33 254 31 
-0.074103 0.37964 1.16172 65 63 254 
-0.00638911 0.0726192 1.19488 46 44 45 
-0.00275793 0.226601 1.18417 59 57 58 
-0.151375 0.128448 1.224 0 0 0 
-0.125501 0.291356 1.19762 0 0 0 
0.0170217 -0.22525 1.28638 40 36 33 
-0.107956 0.619609 1.07003 10 9 78 
-0.116368 -0.193616 1.26586 0 0 0 
-0.116743 0.516743 1.17729 39 37 38 
0.00479808 -0.151326 1.25183 254 58 58 
0.0625724 0.211203 1.21254 29 30 255 
-0.0531179 0.453276 1.15445 31 254 26 
-0.0404371 0.545889 1.14221 55 53 54 
-0.0479143 -0.226639 1.25992 1 1 1 
-0.0661581 -0.327972 1.30644 0 0 0 
-0.171596 0.0602288 1.23135 0 0 0 
0.0621403 0.0380035 1.21856 38 36 37 
-0.00915222 0.2031 1.18538 62 60 255 
-0.10442 0.179459 1.19388 3 1 0 
0.0391656 -0.186602 1.27995 22 23 254 
0.043745 0.183385 1.20604 255 40 36 
-0.125475 0.377839 1.17937 0 0 0 
0.0483541 0.11145 1.21487 49 49 49 
-0.073334 0.468462 1.15682 66 254 69 
-0.0958337 0.305742 1.18702 65 66 59 
-0.127738 0.128039 1.20872 0 0 0 
-0.0277148 0.595175 1.13322 254 68 67 
-0.144953 -0.0715926 1.24155 0 0 0 
-0.0118762 0.0503508 1.19116 255 11 11 
-0.0396032 0.152601 1.18462 35 33 254 
-0.0390443 0.182818 1.18282 48 254 50 
0.0729863 0.46018 1.19659 51 254 53 
0.0699751 0.618701 1.1371 37 253 45 
-0.122897 0.156813 1.20205 0 0 0 
-0.0481557 0.0957034 1.18978 71 254 69 
-0.0539009 -0.5045 1.36526 0 0 0 
-0.0625545 -0.153262 1.23966 19 21 22 
0.0724848 0.605408 1.14085 35 37 23 
-0.0384912 0.412353 1.16656 39 254 44 
-0.11208 -0.00444113 1.19192 70 69 74 
-0.092715 -0.381375 1.33613 0 0 0 
-0.0275121 0.000176014 1.18541 254 26 24 
-0.083238 -0.349791 1.3203 0 0 0 
-0.0694491 0.603196 1.11045 20 253 41 
0.0485869 -0.0958228 1.25261 58 59 255 
-0.029525 -0.154153 1.24157 254 65 64 
-0.0938489 -0.029209 1.19811 64 63 68 
-0.0862853 -0.139388 1.24425 0 0 0 
-0.121966 -0.141652 1.25872 0 0 0 
-0.0685666 -0.47579 1.36176 0 0 0 
0.0199713 -0.109643 1.24443 42 254 52 
-0.0358424 -0.070059 1.20472 66 62 59 
0.0934032 0.168936 1.24129 44 47 255 
-0.0923521 0.524376 1.16713 39 40 254 
-0.00504415 0.00429259 1.19001 254 32 31 
-0.00271418 -0.0309119 1.19374 57 52 254 
-0.0517527 -0.0988557 1.21499 254 66 63 
-0.0901165 0.0673594 1.19951 32 34 33 
-0.0122757 0.122709 1.18973 32 255 47 
-0.0768468 -0.18734 1.24997 0 0 0 
-0.0641166 -0.611895 1.39635 0 0 0 
-0.0507658 -0.261834 1.27415 0 0 0 
0.0407875 0.457525 1.1766 45 254 17 
-0.13894 0.185367 1.213 0 0 0 
-0.000862204 -0.20838 1.27212 43 254 40 
0.0244029 0.0505556 1.20192 254 10 9 
-0.069794 -0.446711 1.35166 0 0 0 
-0.0438737 0.571462 1.13491 254 39 38 
-0.0233052 0.0993532 1.19073 47 47 47 
-0.109866 -0.131321 1.25058 0 0 0 
-0.140944 0.483753 1.18045 0 0 0 
0.0509978 0.596116 1.15328 44 42 254 
-0.0686958 -0.043038 1.19646 55 254 57 
-0.135558 -0.147039 1.2657 0 0 0 
0.0165278 0.0775427 1.20416 38 36 37 
0.000368594 0.141557 1.19113 254 52 48 
-0.0987552 -0.0481521 1.21054 113 122 89 
0.00420659 -0.303848 1.31377 253 63 60 
-0.0506956 -0.531683 1.37757 0 0 0 
0.0957179 0.131776 1.24556 35 255 37 
-0.0786509 -0.401824 1.33868 0 0 0 
-0.0311468 0.0357926 1.18403 72 254 64 
0.0441978 -0.0226343 1.21152 67 64 59 
-0.00803852 -0.0939839 1.22931 254 48 47 
-0.0307488 0.128761 1.18769 28 254 20 
0.0954915 0.0975627 1.24604 37 38 255 
-0.080329 0.439839 1.15782 40 38 254 
-0.0451296 0.0191496 1.18459 128 127 254 
-0.0243119 0.21468 1.18329 38 36 255 
-0.168836 0.229656 1.23464 0 0 0 
-0.114235 -0.0242693 1.20387 0 0 0 
-0.162275 0.613486 1.14546 137 32 31 
-0.14452 -0.035662 1.22402 0 0 0 
-0.0988388 -0.366863 1.33381 0 0 0 
0.0932934 0.184514 1.24019 40 41 255 
0.025052 0.341394 1.18349 36 37 254 
0.0568561 0.302157 1.20131 33 31 254 
-0.0961711 0.350826 1.16926 74 70 255 
-0.0358499 -0.303299 1.29445 0 0 0 
-0.048827 0.0509811 1.18831 14 12 13 
-0.00461646 0.270559 1.17908 34 32 35 
-0.00356159 0.367182 1.17276 43 254 47 
-0.155955 0.141868 1.22867 0 0 0 
0.0290305 -0.010728 1.19407 254 66 66 
-0.0662573 -0.553232 1.38903 0 0 0 
0.0106141 0.114303 1.19562 255 39 37 
-0.0948671 0.430588 1.16585 254 47 47 
0.0356809 -0.120957 1.25584 32 31 29 
-0.00563389 0.534019 1.1482 16 18 254 
-0.0692813 0.0503279 1.18568 9 9 9 
0.0156505 -0.00894913 1.19189 65 65 65 
-0.0862162 -0.33339 1.31511 0 0 0 
-0.137744 0.604347 1.15692 27 24 235 
0.0525581 -0.0464962 1.22955 71 69 255 
-0.131663 0.493434 1.18333 0 0 0 
0.00621836 -0.101189 1.23459 254 29 28 
0.0936205 0.0840569 1.24657 26 27 255 
-0.0447162 -0.413297 1.33515 0 0 0 
0.0311089 0.320097 1.18906 254 43 42 
-0.0612596 0.146567 1.18724 43 254 62 
-0.0374573 -0.206044 1.25392 83 81 254 
0.0224463 0.153287 1.1961 20 255 31 
-0.145087 0.0562965 1.21489 0 0 0 
-0.127141 0.596283 1.16138 24 20 19 
-0.0951235 -0.235713 1.26113 0 0 0 
-0.0621794 0.265583 1.17835 254 38 34 
-0.0696451 0.342176 1.17444 36 34 254 
-0.0100947 -0.0109761 1.18651 79 78 76 
-0.0234827 0.170491 1.18451 255 74 71 
-0.0308596 -0.0350017 1.18883 254 75 72 
0.0255906 -0.140261 1.25538 56 52 254 
-0.115914 0.315778 1.19579 0 0 0 
-0.145104 0.198183 1.21595 0 0 0 
0.0321311 0.601043 1.12307 60 61 55 
0.0975305 0.265521 1.23304 25 23 24 
-0.0849586 0.200804 1.18721 43 254 55 
0.0844057 0.0407066 1.23761 255 48 46 
-0.0554788 -0.177831 1.24469 32 36 230 
-0.180372 0.0145606 1.24568 0 0 0 
-0.146527 -0.0530638 1.23465 0 0 0 
0.0374165 0.0872351 1.20973 42 42 42 
0.0138308 -0.259579 1.3017 47 40 254 
-0.0746406 0.527655 1.15199 36 254 34 
-0.0902836 0.15869 1.19067 62 252 71 
-0.0752814 0.158423 1.18903 66 65 254 
-0.133887 -0.125587 1.25813 0 0 0 
0.0596371 0.198018 1.21494 30 255 35 
0.0291612 0.1014 1.20442 49 255 52 
-0.0701597 0.0202774 1.18656 73 254 78 
-0.0250147 -0.212917 1.26107 61 59 254 
-0.0680736 0.41178 1.15862 254 47 46 
-0.118225 -0.22577 1.26464 0 0 0 
-0.015877 0.0207631 1.18832 48 254 49 
-0.0653652 -0.518156 1.37555 0 0 0 
-0.00511458 0.588409 1.13754 254 55 48 
-0.0928818 0.505388 1.16692 52 52 52 
-0.0888017 0.619831 1.06168 3 38 5 
-0.0619494 0.527536 1.149 43 43 43 
-0.15449 0.288261 1.21631 0 0 0 
-0.0742373 0.513715 1.15438 254 48 46 
-0.0487893 0.485233 1.15078 43 41 42 
-0.0186651 0.373336 1.16861 24 254 22 
-0.139023 0.331944 1.20566 0 0 0 
-0.00561803 0.0382452 1.18753 42 255 54 
0.0850317 0.586168 1.17529 24 254 26 
-0.0648943 0.170436 1.18622 47 254 56 
-0.133595 0.225314 1.20506 0 0 0 
0.0187897 0.355737 1.17777 254 50 50 
-0.0513276 0.357738 1.16873 64 60 59 
-0.176243 0.00154949 1.2263 0 0 0 
0.0168947 -0.0416988 1.211 70 65 254 
0.0915343 0.0665701 1.24862 36 35 33 
0.0165338 0.471745 1.15935 105 254 64 
-0.0224305 -0.342135 1.31906 0 0 0 
-0.0963217 -0.120354 1.24137 0 0 0 
-0.016629 -0.24409 1.27957 77 74 67 
0.0447269 0.0350605 1.20826 32 33 255 
-0.07444 -0.132927 1.23709 0 0 0 
-0.025448 0.548089 1.14079 61 59 254 
-0.021801 0.191575 1.1835 255 9 5 
0.0476044 0.357086 1.19332 26 22 19 
-0.0764825 0.17674 1.18699 68 254 78 
-0.0834763 0.0499287 1.18929 254 27 27 
-0.0606728 -0.272893 1.28363 0 0 0 
-0.0643279 -0.369204 1.32176 0 0 0 
-0.0589245 0.251202 1.17834 254 44 40 
-0.0232347 -0.259716 1.28304 15 16 11 
0.0104679 0.168896 1.19361 255 46 43 
-0.0405123 0.603884 1.11025 254 76 75 
-0.0579476 0.184727 1.18333 71 254 65 
-0.0285649 -0.111224 1.22559 55 54 254 
-0.0819146 0.322846 1.17724 69 68 66 
-0.0351827 -0.0110986 1.18081 66 64 254 
-0.12825 0.564171 1.17821 68 59 253 
-0.0150348 -0.114288 1.23037 57 53 52 
-0.130798 0.278159 1.20149 0 0 0 
-0.093275 0.413892 1.16433 254 52 51 
0.01489 0.544254 1.15065 254 12 11 
-0.0340147 -0.237243 1.26684 44 47 57 
-0.119912 0.584187 1.17354 67 63 52 
-0.133313 0.613609 1.12407 40 40 33 
-0.0516779 -0.30699 1.29026 0 0 0 
-0.0486739 0.0381962 1.18758 35 36 254 
-0.0138724 0.240735 1.17999 40 255 36 
-0.0226815 -0.139865 1.23574 36 254 29 
0.0843897 0.604743 1.14977 23 254 24 
-0.0314481 0.464224 1.15519 254 67 67 
0.036066 -0.104876 1.25095 46 45 255 
-0.105914 -0.0344384 1.2078 77 82 82 
0.0153761 0.1334 1.19726 59 255 49 
-0.0964819 0.291641 1.18843 250 68 68 
-0.156702 0.198326 1.22273 0 0 0 
-0.011889 -0.0440288 1.19583 254 107 105 
-0.0290341 0.53457 1.14707 45 44 42 
-0.0812926 -0.0736884 1.22084 63 61 62 
-0.0502447 -0.0166476 1.18108 57 55 254 
-0.163851 0.126691 1.23473 0 0 0 
-0.103627 0.158445 1.19381 18 3 4 
-0.11355 0.413767 1.17095 2 0 0 
0.0380079 0.267531 1.20363 41 39 254 
-0.0247161 0.512669 1.14724 254 61 60 
-0.160734 0.484511 1.19573 0 0 0 
0.0341212 0.59923 1.14118 24 254 29 
-0.081938 0.490835 1.16168 69 67 254 
-0.0274948 0.0796893 1.19219 34 254 40 
0.012275 0.314111 1.18192 254 54 53 
-0.0298543 0.116465 1.19127 55 55 254 
-0.0369908 0.507976 1.14697 70 70 254 
-0.109592 -0.0814694 1.23303 0 0 0 
0.0180607 0.586769 1.14427 254 34 33 
-0.0290291 0.31177 1.1745 60 58 254 
-0.0131085 0.419947 1.16933 254 57 57 
0.0670267 0.258821 1.21322 255 29 27 
-0.159472 0.0325902 1.22472 0 0 0 
-0.0574463 0.0635633 1.194 22 22 22 
-0.0664656 0.120124 1.1908 254 52 48 
0.0500197 0.0191448 1.21243 23 21 255 
-0.0504552 -0.365349 1.31324 0 0 0 
-0.065411 -0.122948 1.23093 61 62 255 
0.0266763 0.370029 1.18135 59 57 254 
-0.0548593 0.303609 1.17487 50 49 47 
0.0957338 0.252132 1.23663 255 23 21 
-0.0406632 0.618838 1.10949 48 253 62 
0.00974164 0.203339 1.19005 29 30 255 
0.0979831 0.401835 1.22427 38 254 45 
-0.086116 -0.419641 1.34761 0 0 0 
-0.127972 0.250438 1.20127 0 0 0 
-0.0878616 0.343303 1.17675 76 254 83 
-0.0856129 0.282316 1.18355 83 78 74 
0.10129 0.375826 1.22656 50 48 254 
-0.139529 0.26829 1.20812 0 0 0 
-0.010354 0.162855 1.18685 71 255 77 
-0.155528 0.16864 1.2269 0 0 0 
0.0622492 0.162001 1.21984 255 30 29 
-0.0936647 0.604357 1.12713 27 26 24 
-0.113641 0.255295 1.1902 0 0 0 
-0.0046375 0.552786 1.14114 11 11 11 
-0.00742347 0.354565 1.17228 42 42 254 
0.0586623 -0.0428793 1.26589 64 62 255 
-0.10223 0.32504 1.1829 10 11 8 
-0.0197302 0.277278 1.17568 27 26 24 
-0.0252365 0.156179 1.18523 255 45 44 
-0.157145 0.0663019 1.23077 0 0 0 
-0.164412 -0.00615972 1.2273 0 0 0 
-0.0220265 0.253709 1.17718 25 254 32 
-0.172411 0.208294 1.23925 0 0 0 
-0.0205019 0.296525 1.17639 62 254 65 
-0.00433652 0.189285 1.18672 63 59 56 
0.027277 0.55852 1.14885 34 37 254 
-0.0942698 0.577429 1.16599 254 30 28 
-0.133964 -0.19797 1.27242 0 0 0 
-0.192868 0.266088 1.2643 0 0 0 
-0.198718 0.0797163 1.28059 0 0 0 
-0.185593 0.244867 1.25219 0 0 0 
-0.189236 0.607127 1.17648 35 30 231 
-0.163627 0.145622 1.23402 0 0 0 
-0.167681 0.112943 1.23888 0 0 0 
-0.11766 -0.275911 1.30412 0 0 0 
-0.162188 0.18853 1.22915 0 0 0 
-0.220301 0.0605285 1.31997 0 0 0 
-0.0841614 -0.179063 1.25101 26 254 41 
-0.145841 0.0989331 1.22051 255 58 57 
-0.166236 -0.0624067 1.24619 0 0 0 
-0.180736 0.0998459 1.25165 0 0 0 
-0.132217 -0.0188602 1.20782 40 42 254 
-0.0650617 -0.390931 1.32645 0 0 0 
-0.191385 0.13842 1.26829 0 0 0 
-0.180152 0.189477 1.24845 0 0 0 
-0.120932 0.0662019 1.20815 10 10 254 
-0.215015 0.0847829 1.43924 0 0 0 
-0.13332 -0.172563 1.27054 0 0 0 
-0.213939 0.0639477 1.2879 0 0 0 
-0.0694715 0.552817 1.14395 30 254 29 
-0.207407 0.606268 1.19613 12 2 2 
-0.150505 0.189455 1.21964 14 52 17 
-0.141665 0.0718249 1.221 33 31 254 
-0.156393 0.113491 1.22912 0 0 0 
-0.168465 0.128783 1.23862 0 0 0 
-0.168231 0.175795 1.23546 0 0 0 
-0.162315 0.100086 1.23508 0 0 0 
-0.137286 0.245206 1.20719 36 254 43 
-0.168098 0.36896 1.22499 0 0 0 
-0.104934 -0.325606 1.31922 0 0 0 
-0.204044 0.0969257 1.28917 0 0 0 
-0.180648 0.267875 1.24521 0 0 0 
-0.0272443 0.132504 1.18832 24 22 23 
-0.15865 0.245837 1.22161 0 0 0 
-0.181333 -0.026502 1.24774 0 0 0 
-0.151555 0.26439 1.21553 21 4 5 
-0.14682 0.208778 1.21549 63 59 56 
-0.117827 -0.11907 1.24778 89 91 97 
-0.181765 0.0780375 1.25763 0 0 0 
-0.0865968 -0.22528 1.25432 23 23 23 
-0.040074 0.0125197 1.18491 54 255 53 
-0.153417 0.29659 1.21581 0 0 0 
-0.189642 0.191964 1.25853 0 0 0 
-0.158728 0.398912 1.21425 1 0 0 
-0.214063 0.0138388 1.29277 0 0 0 
-0.147227 0.323315 1.20917 92 0 0 
0.060666 -0.213018 1.30211 254 34 20 
-0.0543938 0.46884 1.1529 9 9 254 
-0.141692 0.124192 1.21749 54 50 252 
-0.0757202 -0.293143 1.29655 0 0 0 
-0.131282 0.204349 1.20513 63 254 69 
-0.142169 0.2567 1.20885 42 33 254 
-0.144806 0.495852 1.18448 254 70 69 
-0.158534 0.157 1.22855 2 1 1 
-0.176505 0.605877 1.1611 42 33 254 
-0.14104 0.228009 1.20976 65 62 53 
-0.175918 0.111412 1.24896 0 0 0 
-0.164093 0.293212 1.223 0 0 0 
-0.125433 0.0851856 1.21119 59 58 54 
-0.0348472 0.069052 1.19121 255 55 54 
-0.172052 0.00432584 1.23328 6 5 3 
-0.192732 0.0144221 1.25967 0 0 0 
-0.0833963 -0.0910354 1.22662 52 50 254 
-0.157243 -0.163006 1.29675 0 0 0 
-0.16369 -0.143465 1.30344 0 0 0 
-0.146487 0.158248 1.219 27 23 20 
-0.169741 0.539812 1.19904 9 254 21 
-0.200639 0.0506943 1.26558 0 0 0 
-0.174228 0.396244 1.23164 0 0 0 
-0.154556 -0.0834194 1.25052 0 0 0 
-0.128209 0.0431916 1.20411 254 45 41 
-0.201313 0.6082 1.18035 8 78 13 
-0.183522 0.0456674 1.24491 0 0 0 
-0.199854 0.326475 1.27809 0 0 0 
-0.0629533 -0.415617 1.33696 0 0 0 
-0.153247 0.372126 1.21064 0 0 0 
-0.155339 0.126445 1.22744 0 0 0 
-0.158594 0.216956 1.22438 1 0 0 
-0.20975 0.516682 1.25941 0 0 0 
-0.153747 0.505077 1.18951 40 254 40 
-0.17624 0.383696 1.2326 0 0 0 
-0.163135 0.355741 1.21795 0 0 0 
-0.172517 0.21283 1.23659 0 0 0 
-0.19135 0.0459232 1.25621 0 0 0 
-0.194812 0.407861 1.2561 0 0 0 
-0.0613213 -0.0653835 1.20514 53 51 254 
-0.023163 0.238223 1.18028 27 21 21 
-0.0811559 0.603145 1.13257 46 254 59 
-0.173211 0.317 1.23398 0 0 0 
-0.0197845 0.085367 1.19144 255 37 33 
-0.185666 -0.00360183 1.24512 0 0 0 
-0.163081 0.599343 1.17713 39 35 34 
-0.157057 0.319149 1.21679 0 0 0 
-0.203125 0.566348 1.22709 3 0 0 
-0.195938 0.442372 1.25321 0 0 0 
-0.193695 -0.00951729 1.25417 0 0 0 
-0.05512 -0.121436 1.22459 94 254 86 
-0.143875 0.46065 1.18195 65 64 62 
-0.113597 -0.211904 1.26279 2 1 2 
-0.163158 0.483072 1.19801 2 2 2 
-0.202236 0.00819297 1.27197 0 0 0 
-0.174497 0.336571 1.2316 0 0 0 
0.0414799 0.259098 1.20461 44 255 45 
-0.02608 0.410625 1.1682 35 254 34 
-0.0139586 0.0585818 1.19563 44 42 255 
-0.0541617 -0.143483 1.23324 49 254 50 
-0.202921 0.603353 1.22654 12 2 2 
-0.106798 -0.149451 1.25588 51 53 57 
-0.172868 0.298387 1.23396 0 0 0 
-0.127863 0.602458 1.15505 254 25 24 
-0.124213 -0.255964 1.29966 0 0 0 
-0.178492 0.483462 1.21077 0 0 0 
-0.182746 0.373381 1.24109 0 0 0 
-0.207136 0.300084 1.29841 0 0 0 
-0.166952 0.517755 1.2 14 13 9 
-0.168262 0.269201 1.22902 0 0 0 
-0.167859 0.0830791 1.24076 0 0 0 
-0.170231 0.243074 1.23368 0 0 0 
-0.11855 0.425072 1.17327 49 254 59 
-0.0539741 0.33311 1.17295 47 255 43 
-0.056473 0.0399382 1.18464 48 48 48 
