ply                 
format ascii 1.0    
element vertex 1085
property float x    
property float y    
property float z    
property uchar red  
property uchar green
property uchar blue 
end_header          
-0.0915026 0.465307 1.16671 52 51 49 
-0.0996727 0.467981 1.1704 53 51 253 
-0.109849 0.472012 1.17432 67 227 71 
-0.126815 0.473989 1.1812 0 0 0 
-0.0977653 0.460076 1.17008 55 254 53 
-0.0950825 0.471912 1.16754 50 49 47 
-0.0932758 0.445651 1.16022 254 60 58 
-0.120245 0.464949 1.17887 0 0 0 
-0.0904676 0.546105 1.16426 254 35 33 
-0.0850797 0.546557 1.1619 254 38 36 
-0.0422494 -0.605625 1.41648 0 0 0 
-0.0449607 -0.600561 1.41657 0 0 0 
-0.0893996 0.557865 1.16292 26 27 254 
-0.101767 0.469744 1.17067 60 58 253 
-0.0880152 0.465103 1.16542 42 40 254 
-0.0963846 0.443217 1.16188 55 53 54 
-0.101804 0.45855 1.17164 56 54 55 
-0.104971 0.495145 1.17095 59 57 253 
-0.1008 0.459324 1.17247 253 54 52 
-0.121232 0.445393 1.1727 0 0 0 
-0.121074 0.4454 1.17248 0 0 0 
-0.0954027 0.557778 1.16625 254 46 44 
-0.114343 0.462291 1.17678 7 8 5 
-0.0889165 -0.203642 1.25544 0 0 0 
-0.145555 0.113154 1.21999 0 0 0 
-0.108769 0.534244 1.17248 45 43 44 
-0.129682 0.0983531 1.21085 0 0 0 
-0.0460675 -0.659123 1.41963 0 0 0 
-0.0837017 0.100545 1.19393 254 77 75 
-0.10287 0.463572 1.17155 55 255 46 
-0.115731 -0.103028 1.24199 0 0 0 
-0.0998272 0.120462 1.19688 64 62 209 
-0.116282 0.0424297 1.19932 0 0 0 
-0.148046 -0.00796712 1.21237 0 0 0 
-0.062099 0.0866826 1.19071 2 0 254 
-0.149008 -0.00809475 1.21135 0 0 0 
-0.107892 0.271381 1.18997 0 0 3 
-0.11308 0.463249 1.17563 8 63 9 
-0.0848347 0.0259346 1.1888 28 28 28 
-0.137489 0.144491 1.21294 0 0 0 
-0.0981217 -0.205035 1.25877 0 0 0 
-0.125114 -0.0459885 1.22195 0 0 0 
-0.113029 0.463252 1.17563 8 63 9 
-0.0622166 0.0867422 1.19065 2 0 254 
-0.122577 -0.0662064 1.23112 0 0 0 
-0.0565747 -0.167745 1.24108 122 130 116 
-0.120907 0.191214 1.20064 0 0 0 
-0.0677498 0.236278 1.18081 254 38 34 
-0.0884499 0.46929 1.16526 48 47 45 
-0.1007 0.193528 1.19131 27 123 29 
-0.0906616 -0.108636 1.23438 0 0 0 
-0.0466867 -0.000561569 1.1828 33 254 37 
-0.0875505 -0.202579 1.25456 0 0 0 
-0.0839673 0.129881 1.19195 41 254 36 
-0.154768 0.0511689 1.22044 0 0 0 
-0.10888 0.0135855 1.19689 59 60 65 
-0.117171 0.224157 1.19529 0 0 0 
-0.0645145 0.50834 1.14856 49 45 46 
-0.106935 0.504813 1.17247 60 59 57 
-0.113402 -0.178698 1.26322 0 0 0 
-0.0718105 0.241338 1.18112 74 71 254 
-0.120293 0.115198 1.20544 0 0 0 
-0.0833671 -0.0347227 1.19715 74 74 76 
-0.0858636 0.463743 1.16438 51 254 47 
-0.15393 0.00887104 1.2199 0 0 0 
-0.0285035 0.605026 1.1119 72 254 78 
-0.104998 0.55629 1.17056 41 39 254 
-0.0871928 -0.308041 1.30685 0 0 0 
-0.164438 0.0405942 1.22837 0 0 0 
-0.115191 0.131205 1.20227 0 0 0 
-0.0898159 0.111199 1.19482 52 50 254 
-0.0579199 0.00487884 1.18646 254 29 27 
-0.0976413 0.0984716 1.19953 46 46 44 
-0.0820337 0.105991 1.19306 43 254 64 
-0.122199 0.266777 1.19589 0 0 0 
-0.0570485 0.213766 1.18074 55 54 52 
-0.0807309 -0.200539 1.25083 0 0 0 
-0.0676921 -0.0762731 1.21569 254 76 76 
-0.097312 -0.169184 1.25591 0 0 0 
-0.133238 0.0105094 1.2078 0 0 0 
-0.149196 0.0143129 1.21843 0 0 0 
-0.11872 0.192235 1.19889 0 0 0 
-0.124456 -0.0059445 1.19729 3 2 2 
-0.102792 0.221412 1.18997 7 6 22 
-0.0674977 -0.167522 1.24274 0 0 0 
-0.100774 -0.247493 1.26122 0 0 0 
-0.10857 0.0519975 1.19555 8 8 10 
-0.108494 -0.162819 1.26039 0 0 0 
-0.0559723 0.511636 1.14861 31 31 31 
-0.0843794 -0.237909 1.25405 0 0 0 
-0.130338 -0.0951429 1.24597 0 0 0 
-0.160509 0.494091 1.19369 0 0 0 
-0.102561 0.0110309 1.1941 252 69 69 
-0.0704352 0.0851504 1.19386 58 254 68 
-0.0511559 0.498979 1.14857 39 37 38 
-0.151605 0.226213 1.21769 0 0 0 
-0.0988219 0.13851 1.1959 234 59 59 
-0.0944388 -0.199325 1.25751 0 0 0 
-0.0382628 0.375087 1.16781 36 34 37 
-0.110624 0.538762 1.17283 31 29 30 
-0.0781394 -0.00292258 1.18353 254 70 70 
-0.114132 0.0946476 1.20395 0 0 1 
-0.0962704 0.371842 1.16663 62 59 255 
-0.0941515 0.376046 1.16573 50 253 64 
-0.098886 0.0908654 1.19863 241 41 41 
-0.126288 0.00279223 1.20471 0 0 0 
-0.0728422 -0.0144284 1.18853 254 68 68 
-0.108892 -0.162421 1.26026 0 0 0 
-0.17454 0.0494722 1.23826 0 0 0 
-0.149615 0.0135622 1.21879 0 0 0 
-0.0503972 -0.00534562 1.18045 73 73 254 
-0.159577 0.0169484 1.22476 0 0 0 
-0.0456911 0.376639 1.16815 254 48 47 
-0.111175 0.0450644 1.19736 171 30 33 
-0.0923656 0.0389291 1.1911 69 254 76 
-0.109831 0.0894452 1.20314 1 0 0 
-0.135772 0.025279 1.20977 0 0 0 
-0.125799 0.61564 1.11233 171 45 45 
-0.0926602 0.0386379 1.19028 74 75 254 
-0.128243 0.011752 1.20612 0 0 0 
-0.0419211 0.453706 1.15643 254 43 43 
-0.0426707 0.453045 1.15529 40 40 254 
-0.146818 0.602092 1.0938 37 36 31 
-0.0973618 -0.0913194 1.23257 0 0 0 
-0.0720909 -0.0978753 1.22287 63 62 254 
-0.0891521 0.0170722 1.192 61 254 69 
-0.100884 -0.223553 1.26059 0 0 0 
-0.117259 -0.0943774 1.24107 0 0 0 
-0.107431 0.0969358 1.19981 0 0 0 
-0.100568 -0.0177058 1.19373 254 54 54 
-0.0884215 -0.0108126 1.18936 254 50 50 
-0.127604 0.616177 1.11097 49 43 166 
-0.0616459 0.105817 1.19091 69 254 75 
-0.0983648 -0.198099 1.25875 0 0 0 
-0.0290725 0.34568 1.17 37 254 46 
-0.048777 0.320137 1.17349 254 47 45 
-0.101541 0.541313 1.16935 40 41 254 
-0.111413 0.611209 1.12279 54 50 224 
-0.0926272 0.100249 1.19671 52 254 54 
-0.0857186 0.00379648 1.1906 30 31 254 
-0.118732 -0.170537 1.26421 0 0 0 
-0.126196 0.605352 1.08986 50 50 43 
-0.167544 0.424557 1.21831 0 0 0 
-0.0927612 0.100532 1.19638 52 254 54 
-0.0515278 0.108652 1.18855 51 254 64 
-0.114008 0.0219355 1.19905 36 37 39 
-0.0967217 -0.0752074 1.2266 1 1 0 
-0.112132 0.0180323 1.19807 85 89 114 
-0.104213 0.103546 1.19905 30 10 11 
-0.104954 0.43865 1.16533 56 56 54 
-0.130932 -0.0329555 1.21607 0 0 0 
-0.0618177 0.158967 1.18645 42 39 254 
-0.0990514 -0.00540549 1.1882 68 254 67 
-0.0907284 0.247297 1.186 36 28 251 
-0.0587714 0.515111 1.14816 45 254 45 
-0.117993 0.0976576 1.20598 0 0 0 
-0.0788227 -0.20327 1.24951 0 0 0 
-0.0591541 -0.0758847 1.21091 89 254 56 
-0.139879 -0.114105 1.2561 0 0 0 
-0.0582739 -0.293555 1.29061 0 0 0 
-0.129978 0.511778 1.17864 6 1 1 
-0.122237 0.500651 1.17853 7 6 22 
-0.115206 0.488603 1.17532 17 13 96 
0.00426561 0.0289491 1.19172 35 35 255 
-0.107168 0.0656437 1.19789 2 2 6 
-0.0283911 0.0630194 1.19299 47 45 255 
0.0318958 -0.0298691 1.21178 75 71 68 
-0.010822 -0.070446 1.21403 43 41 254 
-0.044064 -0.458054 1.35179 0 0 0 
0.00609557 -0.186285 1.26743 16 254 44 
0.127194 -0.0146182 1.3115 67 66 62 
-0.0416755 -0.394949 1.33046 0 0 0 
-0.158575 0.0842846 1.23421 0 0 0 
0.0940157 0.112266 1.24556 255 39 37 
-0.0556741 -0.201631 1.24819 10 11 12 
0.0437646 -0.206702 1.29271 27 254 37 
-0.179139 0.607131 1.13863 4 3 32 
-0.0425992 -0.0878641 1.20994 69 65 62 
0.0319026 -0.238972 1.30095 254 63 60 
0.0980954 0.19873 1.23937 45 46 255 
0.0099182 0.044996 1.19147 255 21 21 
-0.10281 -0.302873 1.31267 0 0 0 
-0.132475 0.458613 1.18299 0 0 0 
0.0510603 0.00328082 1.2118 50 49 47 
-0.0385045 0.216707 1.17981 61 60 58 
0.00105532 -0.17178 1.26191 254 37 36 
-0.136566 0.297308 1.20198 0 0 0 
-0.147313 0.0412298 1.21586 0 0 0 
-0.0460105 0.166182 1.1846 254 54 50 
-0.00116788 0.293691 1.17844 59 55 254 
-0.190018 0.60574 1.17481 10 48 12 
-0.142741 0.561575 1.17141 62 250 76 
0.064247 -0.0578029 1.24423 50 46 255 
-0.052278 0.435884 1.15811 33 254 31 
-0.0745373 0.378916 1.16109 65 63 254 
-0.00658361 0.072544 1.19472 46 44 45 
-0.00314145 0.22623 1.18373 59 57 58 
-0.151383 0.128157 1.22369 0 0 0 
-0.125746 0.290757 1.19705 0 0 0 
0.0170879 -0.22454 1.28638 40 36 33 
-0.108616 0.618521 1.06928 10 9 78 
-0.11606 -0.193198 1.26604 0 0 0 
-0.117267 0.515696 1.17631 39 37 38 
0.00482249 -0.150867 1.25186 254 58 58 
0.062056 0.210932 1.21194 29 30 255 
-0.0536305 0.452751 1.15431 31 254 26 
-0.0411213 0.544875 1.14129 55 53 54 
-0.0476964 -0.226087 1.26013 1 1 1 
-0.0657953 -0.327116 1.30665 0 0 0 
-0.17149 0.0600542 1.23117 0 0 0 
0.0618353 0.038096 1.21829 38 36 37 
-0.00949571 0.20277 1.18498 62 60 255 
-0.10457 0.179092 1.19357 3 1 0 
0.0391386 -0.185958 1.27988 22 23 254 
0.0432592 0.183125 1.20565 255 40 36 
-0.125822 0.377071 1.17869 0 0 0 
0.04799 0.111376 1.21448 49 49 49 
-0.0739298 0.467564 1.15608 66 254 69 
-0.096083 0.305456 1.18789 65 66 59 
-0.127753 0.12772 1.20835 0 0 0 
-0.0284765 0.594081 1.13223 254 68 67 
-0.144822 -0.0714597 1.24181 0 0 0 
-0.0120315 0.0503055 1.19107 255 11 11 
-0.0398014 0.152349 1.18468 35 33 254 
-0.0393083 0.182498 1.1825 48 254 50 
0.0721514 0.459366 1.19552 51 254 53 
0.069005 0.617605 1.13598 37 253 45 
-0.122989 0.156476 1.20176 0 0 0 
-0.0483232 0.0954973 1.18936 71 254 69 
-0.0533722 -0.503052 1.3655 0 0 0 
-0.0623321 -0.15297 1.24067 19 21 22 
0.0715229 0.604336 1.13974 35 37 23 
-0.0390644 0.411462 1.16542 39 254 44 
-0.11195 -0.00448403 1.1918 70 69 74 
-0.0922556 -0.380348 1.33604 0 0 0 
-0.0275762 0.000192662 1.18547 254 26 24 
-0.0828302 -0.348705 1.32027 0 0 0 
-0.0701466 0.602096 1.10955 20 253 41 
0.0484482 -0.0954167 1.25247 58 59 255 
-0.029423 -0.153756 1.2417 254 65 64 
-0.0937706 -0.0291949 1.19823 64 63 68 
-0.0860815 -0.139207 1.24475 0 0 0 
-0.121713 -0.141279 1.25848 0 0 0 
-0.0680365 -0.47444 1.36198 0 0 0 
0.0199176 -0.109261 1.2444 42 254 52 
-0.0358151 -0.0698983 1.20485 66 62 59 
0.0928418 0.168803 1.2406 44 47 255 
-0.0929274 0.523342 1.16617 39 40 254 
-0.00515506 0.00433386 1.19001 254 32 31 
-0.00282534 -0.0309526 1.19302 57 52 254 
-0.0516662 -0.0986437 1.21515 254 66 63 
-0.0901911 0.0671463 1.19872 32 34 33 
-0.0125177 0.12253 1.18949 32 255 47 
-0.076618 -0.186923 1.25017 0 0 0 
-0.0634449 -0.610103 1.39666 0 0 0 
-0.0504938 -0.261209 1.27452 0 0 0 
0.0400409 0.456713 1.17567 45 254 17 
-0.139037 0.18497 1.2126 0 0 0 
-0.000768318 -0.207766 1.27218 43 254 40 
0.0241727 0.0505618 1.20174 254 10 9 
-0.0692932 -0.445463 1.35188 0 0 0 
-0.0445804 0.570404 1.13397 254 39 38 
-0.0234994 0.0992075 1.19055 47 47 47 
-0.109643 -0.131043 1.25069 0 0 0 
-0.141419 0.482796 1.1795 0 0 0 
0.0500784 0.595034 1.15215 44 42 254 
-0.068642 -0.042976 1.1966 55 254 57 
-0.135269 -0.14673 1.26579 0 0 0 
0.0162781 0.0774926 1.20393 38 36 37 
7.93733e-05 0.141356 1.19083 254 52 48 
-0.0986475 -0.0480895 1.21065 113 122 89 
0.0043809 -0.302913 1.3138 253 63 60 
-0.0501462 -0.53012 1.3778 0 0 0 
0.0951932 0.131733 1.24492 35 255 37 
-0.0781476 -0.400809 1.33887 0 0 0 
-0.0312269 0.0357212 1.18424 72 254 64 
0.0440112 -0.0224547 1.21144 67 64 59 
-0.0080454 -0.0936981 1.22934 254 48 47 
-0.0309639 0.128551 1.18746 28 254 20 
0.0950098 0.0975973 1.24547 37 38 255 
-0.080906 0.439315 1.15764 40 38 254 
-0.0452166 0.0191016 1.18426 128 127 254 
-0.0246408 0.214312 1.18289 38 36 255 
-0.168927 0.229153 1.23406 0 0 0 
-0.11413 -0.0242759 1.20397 0 0 0 
-0.162842 0.612248 1.14443 137 32 31 
-0.14435 -0.0356475 1.22407 0 0 0 
-0.0983613 -0.365918 1.33405 0 0 0 
0.0927139 0.184345 1.23947 40 41 255 
0.0244257 0.340678 1.18242 36 37 254 
0.0562483 0.301683 1.20057 33 31 254 
-0.0964881 0.35023 1.16904 74 70 255 
-0.0355772 -0.302485 1.29463 0 0 0 
-0.048881 0.0509921 1.18871 14 12 13 
-0.00504731 0.270099 1.17856 34 32 35 
-0.00410887 0.366531 1.17206 43 254 47 
-0.15597 0.141551 1.2283 0 0 0 
0.0288724 -0.0106166 1.19406 254 66 66 
-0.0655918 -0.551571 1.38974 0 0 0 
0.0103362 0.114167 1.19535 255 39 37 
-0.0953635 0.429787 1.16467 254 47 47 
0.0355992 -0.120509 1.25575 32 31 29 
-0.0063673 0.533043 1.14726 16 18 254 
-0.0693468 0.0501323 1.1855 9 9 9 
0.0155169 -0.00885914 1.1919 65 65 65 
-0.0858467 -0.332312 1.31444 0 0 0 
-0.138336 0.603126 1.15586 27 24 235 
0.0523688 -0.0462292 1.22942 71 69 255 
-0.132134 0.492419 1.18238 0 0 0 
0.00618887 -0.100862 1.23461 254 29 28 
0.0931594 0.0841203 1.24602 26 27 255 
-0.0443073 -0.412139 1.33536 0 0 0 
0.030542 0.319566 1.18837 254 43 42 
-0.0614429 0.146296 1.187 43 254 62 
-0.0372823 -0.205532 1.2541 83 81 254 
0.0221346 0.153254 1.19602 20 255 31 
-0.145025 0.056135 1.21478 0 0 0 
-0.127741 0.595079 1.1603 24 20 19 
-0.0949623 -0.234496 1.25757 0 0 0 
-0.0625013 0.265085 1.17789 254 38 34 
-0.0700447 0.341524 1.17383 36 34 254 
-0.0104657 -0.0104776 1.18584 79 78 76 
-0.0237601 0.170208 1.1842 255 74 71 
-0.0308768 -0.0349241 1.18896 254 75 72 
0.025555 -0.139788 1.25535 56 52 254 
-0.116205 0.315139 1.19518 0 0 0 
-0.145205 0.197756 1.21551 0 0 0 
0.0312645 0.599987 1.12208 60 61 55 
0.0968466 0.265165 1.23218 25 23 24 
-0.0851662 0.200411 1.18686 43 254 55 
0.0840299 0.0408435 1.23722 255 48 46 
-0.0552999 -0.177417 1.24488 32 36 230 
-0.180194 0.0144819 1.24554 0 0 0 
-0.146332 -0.0530017 1.23469 0 0 0 
0.037109 0.0871935 1.20943 42 42 42 
0.0139362 -0.258758 1.30169 47 40 254 
-0.0752481 0.526643 1.15108 36 254 34 
-0.0904624 0.158288 1.18977 62 252 71 
-0.0754553 0.158119 1.18876 66 65 254 
-0.133628 -0.1252 1.25769 0 0 0 
0.0591413 0.197774 1.21435 30 255 35 
0.028857 0.101316 1.20412 49 255 52 
-0.070177 0.0202164 1.1866 73 254 78 
-0.0248592 -0.212357 1.26122 61 59 254 
-0.0685556 0.410999 1.15794 254 47 46 
-0.117876 -0.2253 1.26489 0 0 0 
-0.0160626 0.0207221 1.18762 48 254 49 
-0.0647959 -0.516655 1.37578 0 0 0 
-0.00590926 0.587335 1.13654 254 55 48 
-0.0934191 0.504359 1.16613 52 52 52 
-0.0894851 0.618769 1.06095 3 38 5 
-0.062616 0.526383 1.14765 43 43 43 
-0.154679 0.287794 1.21667 0 0 0 
-0.0748292 0.51273 1.1535 254 48 46 
-0.0493631 0.484066 1.14979 43 41 42 
-0.0191902 0.372662 1.16793 24 254 22 
-0.139292 0.331252 1.20497 0 0 0 
-0.00564563 0.0381749 1.18855 42 255 54 
0.0840345 0.585093 1.17405 24 254 26 
-0.0650969 0.170103 1.18597 47 254 56 
-0.133749 0.22484 1.20461 0 0 0 
0.0182109 0.355124 1.17706 254 50 50 
-0.0517761 0.357071 1.16811 64 60 59 
-0.176196 0.00150257 1.23243 0 0 0 
0.0167862 -0.0415156 1.21099 70 65 254 
0.0910978 0.0666727 1.2481 36 35 33 
0.0158291 0.470901 1.15848 105 254 64 
-0.0221513 -0.341143 1.31918 0 0 0 
-0.0961353 -0.120101 1.24148 0 0 0 
-0.016462 -0.243407 1.27968 77 74 67 
0.0444705 0.0351259 1.20807 32 33 255 
-0.0742777 -0.132635 1.23724 0 0 0 
-0.02616 0.547081 1.13987 61 59 254 
-0.0221065 0.191253 1.18314 255 9 5 
0.0469547 0.356487 1.19251 26 22 19 
-0.0766758 0.176399 1.1867 68 254 78 
-0.0835075 0.0498077 1.18927 254 27 27 
-0.0603814 -0.272204 1.28383 0 0 0 
-0.0639239 -0.368213 1.32197 0 0 0 
-0.0592348 0.250734 1.17791 254 44 40 
-0.0230364 -0.259002 1.28318 15 16 11 
0.0101247 0.168654 1.19324 255 46 43 
-0.0412547 0.602801 1.10935 254 76 75 
-0.0581813 0.184386 1.18302 71 254 65 
-0.0285099 -0.11094 1.2257 55 54 254 
-0.0822946 0.321999 1.17615 69 68 66 
-0.0351051 -0.011289 1.1822 66 64 254 
-0.128814 0.56224 1.17585 68 59 253 
-0.015004 -0.113972 1.23045 57 53 52 
-0.131017 0.277533 1.20094 0 0 0 
-0.0937113 0.413213 1.16386 254 52 51 
0.0141051 0.543267 1.14966 254 12 11 
-0.0337857 -0.236538 1.26725 44 47 57 
-0.120509 0.582996 1.17244 67 63 52 
-0.133928 0.612425 1.12312 40 40 33 
-0.0513633 -0.306289 1.2906 0 0 0 
-0.0487485 0.038129 1.18757 35 36 254 
-0.0142505 0.240325 1.17955 40 255 36 
-0.0226074 -0.1395 1.23586 36 254 29 
0.0833962 0.603665 1.14862 23 254 24 
-0.0320544 0.463367 1.15439 254 67 67 
0.0359673 -0.104471 1.25086 46 45 255 
-0.105811 -0.0344119 1.2079 77 82 82 
0.0150645 0.133234 1.19693 59 255 49 
-0.0967774 0.291066 1.18789 250 68 68 
-0.156782 0.197893 1.22227 0 0 0 
-0.011932 -0.0439018 1.19593 254 107 105 
-0.0297262 0.53358 1.14615 45 44 42 
-0.0811855 -0.0735424 1.22094 63 61 62 
-0.0503267 -0.0165845 1.18023 57 55 254 
-0.163833 0.126401 1.23437 0 0 0 
-0.103754 0.158118 1.19354 18 3 4 
-0.11396 0.412941 1.17023 2 0 0 
0.037481 0.267117 1.20297 41 39 254 
-0.0253894 0.511726 1.14636 254 61 60 
-0.161142 0.483483 1.19476 0 0 0 
0.0332398 0.59815 1.14011 24 254 29 
-0.0824939 0.490368 1.16111 69 67 254 
-0.0276582 0.0795768 1.19204 34 254 40 
0.0117574 0.313578 1.18128 254 54 53 
-0.0300576 0.116282 1.19105 55 55 254 
-0.0376275 0.506897 1.14608 70 70 254 
-0.109428 -0.0813182 1.23311 0 0 0 
0.0172221 0.585702 1.14322 254 34 33 
-0.0294635 0.311209 1.17393 60 58 254 
-0.0137006 0.419183 1.16855 254 57 57 
0.0664408 0.258451 1.21251 255 29 27 
-0.159356 0.0324788 1.22464 0 0 0 
-0.0575384 0.0634515 1.19391 22 22 22 
-0.0667944 0.119689 1.18908 254 52 48 
0.0497687 0.0192526 1.21225 23 21 255 
-0.0500836 -0.364374 1.31347 0 0 0 
-0.0652757 -0.122676 1.23108 61 62 255 
0.0260621 0.369391 1.18059 59 57 254 
-0.0552384 0.303044 1.17434 50 49 47 
0.0950673 0.251807 1.23578 255 23 21 
-0.0414229 0.617727 1.10856 48 253 62 
0.00935954 0.203027 1.18961 29 30 255 
0.097136 0.401157 1.22317 38 254 45 
-0.0856196 -0.418456 1.34764 0 0 0 
-0.128166 0.249919 1.20077 0 0 0 
-0.0882318 0.342634 1.17615 76 254 83 
-0.0859873 0.281338 1.18157 83 78 74 
0.100465 0.375212 1.22549 50 48 254 
-0.139728 0.267524 1.20667 0 0 0 
-0.010647 0.162601 1.18653 71 255 77 
-0.155569 0.16808 1.22578 0 0 0 
0.0617883 0.161839 1.21931 255 30 29 
-0.0943288 0.603212 1.12618 27 26 24 
-0.113865 0.254776 1.18974 0 0 0 
-0.00539166 0.551781 1.14019 11 11 11 
-0.00800156 0.353943 1.17122 42 42 254 
0.0584235 -0.042546 1.26556 64 62 255 
-0.102555 0.324395 1.18232 10 11 8 
-0.0199431 0.277052 1.17618 27 26 24 
-0.0254936 0.155922 1.18495 255 45 44 
-0.15707 0.06613 1.23056 0 0 0 
-0.164243 -0.00621278 1.22728 0 0 0 
-0.0224042 0.253267 1.17672 25 254 32 
-0.17247 0.207835 1.23869 0 0 0 
-0.0209338 0.296001 1.17584 62 254 65 
-0.00467292 0.188986 1.18634 63 59 56 
0.0264529 0.557512 1.14783 34 37 254 
-0.0949902 0.57622 1.16483 254 30 28 
-0.13363 -0.19747 1.27264 0 0 0 
-0.193075 0.265707 1.26362 0 0 0 
-0.198482 0.0796135 1.28036 0 0 0 
-0.185887 0.244363 1.25158 0 0 0 
-0.189723 0.605901 1.17542 35 30 231 
-0.16387 0.145408 1.23363 0 0 0 
-0.16754 0.112747 1.23864 0 0 0 
-0.117232 -0.275269 1.30436 0 0 0 
-0.162228 0.188151 1.22875 0 0 0 
-0.220012 0.0604916 1.31968 0 0 0 
-0.0839341 -0.178509 1.25114 26 254 41 
-0.145823 0.0987187 1.22029 255 58 57 
-0.16607 -0.062314 1.24625 0 0 0 
-0.180622 0.0996477 1.25141 0 0 0 
-0.132056 -0.0188209 1.20785 40 42 254 
-0.0646195 -0.389936 1.32673 0 0 0 
-0.191277 0.138163 1.26794 0 0 0 
-0.180208 0.189155 1.248 0 0 0 
-0.12088 0.0660569 1.20797 10 10 254 
-0.214637 0.0848366 1.43843 0 0 0 
-0.133035 -0.172148 1.27069 0 0 0 
-0.213725 0.0637837 1.28769 0 0 0 
-0.0701771 0.551669 1.14285 30 254 29 
-0.207748 0.605085 1.19508 12 2 2 
-0.150578 0.18907 1.21924 14 52 17 
-0.141625 0.0716624 1.22083 33 31 254 
-0.156281 0.113247 1.22888 0 0 0 
-0.168419 0.128523 1.23833 0 0 0 
-0.16824 0.175443 1.23508 0 0 0 
-0.162253 0.0998775 1.23485 0 0 0 
-0.137452 0.244651 1.20669 36 254 43 
-0.168384 0.368179 1.22424 0 0 0 
-0.10447 -0.324816 1.31948 0 0 0 
-0.203846 0.0967662 1.28887 0 0 0 
-0.180698 0.26733 1.24465 0 0 0 
-0.0275495 0.132257 1.18786 24 22 23 
-0.158731 0.245337 1.22112 0 0 0 
-0.180976 -0.0265003 1.24781 0 0 0 
-0.151711 0.263858 1.21499 21 4 5 
-0.146851 0.208369 1.21507 63 59 56 
-0.117607 -0.118831 1.24787 89 91 97 
-0.181621 0.0778864 1.25741 0 0 0 
-0.0863243 -0.224806 1.25454 23 23 23 
-0.0399553 0.0124807 1.18473 54 50 254 
-0.153605 0.295993 1.21521 0 0 0 
-0.189643 0.191603 1.25808 0 0 0 
-0.159019 0.398107 1.21345 1 0 0 
-0.213942 0.0138202 1.29259 0 0 0 
-0.147462 0.322662 1.20851 92 0 0 
0.0605415 -0.212259 1.3018 254 34 20 
-0.0552028 0.467875 1.15192 9 9 254 
-0.141713 0.12393 1.21721 54 50 252 
-0.0753761 -0.292427 1.29675 0 0 0 
-0.131422 0.20393 1.2047 63 254 69 
-0.14241 0.256189 1.20831 42 33 254 
-0.145154 0.494651 1.18361 254 70 69 
-0.158767 0.156593 1.22817 2 1 1 
-0.177149 0.604649 1.16003 42 33 254 
-0.141183 0.227546 1.20929 65 62 53 
-0.175829 0.111192 1.24869 0 0 0 
-0.164263 0.292666 1.2224 0 0 0 
-0.125449 0.0849969 1.21098 59 58 54 
-0.0350592 0.0689277 1.19089 255 55 54 
-0.171869 0.00426095 1.23327 6 5 3 
-0.192494 0.0143796 1.25962 0 0 0 
-0.083297 -0.0908496 1.22663 52 50 254 
-0.156855 -0.162633 1.29686 0 0 0 
-0.163304 -0.14312 1.30351 0 0 0 
-0.146559 0.157927 1.21865 27 23 20 
-0.170176 0.538711 1.19802 9 254 21 
-0.200415 0.0506264 1.26545 0 0 0 
-0.174469 0.395449 1.23083 0 0 0 
-0.154296 -0.0832748 1.25061 0 0 0 
-0.128145 0.0429853 1.20402 254 45 41 
-0.201696 0.606958 1.17934 8 78 13 
-0.183188 0.0455433 1.24485 0 0 0 
-0.199924 0.325843 1.27733 0 0 0 
-0.0624839 -0.414541 1.33724 0 0 0 
-0.153524 0.371375 1.20989 0 0 0 
-0.155384 0.126199 1.22714 0 0 0 
-0.158074 0.216583 1.22455 0 0 0 
-0.210022 0.515631 1.25834 0 0 0 
-0.154288 0.504033 1.18853 40 254 40 
-0.176534 0.382951 1.23178 0 0 0 
-0.163318 0.354908 1.21728 0 0 0 
-0.172556 0.212407 1.23614 0 0 0 
-0.190992 0.0458531 1.25614 0 0 0 
-0.195001 0.407047 1.25523 0 0 0 
-0.0611356 -0.0653264 1.20512 53 51 254 
-0.0236039 0.237755 1.17962 27 21 21 
-0.0818972 0.601898 1.13142 46 254 59 
-0.173366 0.31637 1.23332 0 0 0 
-0.0200523 0.0852216 1.19106 255 37 33 
-0.185435 -0.00363074 1.24512 0 0 0 
-0.163612 0.598119 1.17603 39 35 34 
-0.157262 0.318508 1.21614 0 0 0 
-0.203691 0.565121 1.22595 3 0 0 
-0.196165 0.441483 1.25228 0 0 0 
-0.193435 -0.00952825 1.25418 0 0 0 
-0.0550522 -0.12117 1.22461 94 254 86 
-0.144613 0.459815 1.18099 65 64 62 
-0.113274 -0.211468 1.26302 2 1 2 
-0.164094 0.481859 1.19703 2 2 2 
-0.201961 0.008173 1.27191 0 0 0 
-0.174673 0.3359 1.23091 0 0 0 
0.0408448 0.258622 1.20371 44 255 45 
-0.0267182 0.40978 1.16723 35 254 34 
-0.0140591 0.0586485 1.19526 44 42 255 
-0.0540675 -0.143159 1.23328 49 254 50 
-0.203332 0.602116 1.22537 12 2 2 
-0.106533 -0.149113 1.25598 51 53 57 
-0.17281 0.297822 1.23339 0 0 0 
-0.128488 0.601221 1.15394 254 25 24 
-0.123794 -0.255377 1.29988 0 0 0 
-0.178837 0.482482 1.20984 0 0 0 
-0.182936 0.372636 1.24031 0 0 0 
-0.207142 0.299518 1.29766 0 0 0 
-0.167368 0.5167 1.19901 14 13 9 
-0.168197 0.268751 1.22849 0 0 0 
-0.167763 0.0829055 1.24056 0 0 0 
-0.170311 0.242591 1.23317 0 0 0 
-0.118985 0.424203 1.17245 49 254 59 
-0.0544523 0.332433 1.17219 47 255 43 
-0.0566028 0.0398432 1.18445 48 48 48 
-0.106532 0.484381 1.17201 76 72 255 
-0.125165 0.0212892 1.2032 0 0 0 
-0.0611887 -0.35258 1.31345 0 0 0 
-0.14074 0.00434464 1.20917 0 0 0 
-0.0387468 -0.624237 1.39133 0 0 0 
-0.0864509 -0.363986 1.3287 0 0 0 
-0.0723408 0.00460918 1.18829 19 20 254 
0.0118507 0.182127 1.19221 255 37 34 
-0.107716 0.142189 1.19941 0 0 0 
-0.11676 0.00624009 1.19933 25 140 2 
-0.0830279 -0.0248979 1.19337 60 60 60 
-0.0344427 0.166134 1.1846 62 254 71 
-0.0518875 -0.611041 1.39126 0 0 0 
-0.13646 0.0510583 1.21103 0 0 0 
-0.103034 0.517763 1.17015 37 38 254 
-0.10753 -0.112417 1.24245 0 0 0 
-0.0430358 -0.14644 1.22925 56 55 51 
-0.0814898 0.247129 1.1828 254 73 73 
-0.142944 0.62362 1.08364 3 1 1 
0.0049242 0.00363538 1.19115 44 43 41 
-0.0691341 -0.353392 1.31941 0 0 0 
-0.137149 -0.0614191 1.23677 0 0 0 
-0.04112 -0.034275 1.18811 254 76 74 
-0.0194556 -0.00829165 1.17938 56 254 54 
-0.0850139 0.613221 1.09541 252 56 53 
-0.0901183 -0.159091 1.25178 0 0 0 
-0.098089 -0.348886 1.32658 0 0 0 
-0.0798925 0.0906496 1.19392 60 58 59 
-0.0648488 -0.011001 1.18292 61 254 63 
-0.118621 0.386104 1.1753 0 0 0 
-0.123778 0.618653 1.08713 30 106 30 
-0.0583773 0.125513 1.1877 41 254 43 
0.0063738 -0.00976059 1.18407 254 62 62 
-0.0432732 0.0300173 1.18425 30 31 254 
-0.0708668 0.305553 1.17652 254 65 64 
-0.0721214 -0.155737 1.24327 0 0 0 
-0.0564247 0.0274363 1.18695 61 254 60 
-0.0551098 -0.251163 1.27103 0 0 0 
-0.117427 0.239957 1.19526 0 0 0 
-0.113475 0.601505 1.14949 27 25 26 
0.0173283 0.333831 1.18128 23 21 22 
-0.099307 0.0271154 1.19341 62 254 54 
-0.109937 0.169021 1.19667 1 1 1 
-0.0548832 -0.695164 1.41827 0 0 0 
-0.0938152 0.540765 1.16588 34 254 33 
-0.0520832 -0.644141 1.41958 0 0 0 
-0.0549049 -0.670324 1.45338 0 0 0 
0.0315172 -0.0502223 1.22287 77 255 49 
-0.0355007 -0.567455 1.39622 0 0 0 
-0.101487 0.529237 1.16939 37 254 30 
-0.187824 0.349259 1.25014 0 0 0 
-0.07459 -0.568702 1.39976 0 0 0 
-0.165953 -0.276023 1.41026 0 0 0 
-0.160277 -0.188451 1.32641 0 0 0 
-0.118215 0.444479 1.15863 41 42 254 
-0.182902 -0.193464 1.40026 0 0 0 
-0.049083 -0.159866 1.23578 62 60 63 
-0.216995 0.0799422 1.32701 0 0 0 
-0.107113 0.453443 1.17877 30 28 29 
-0.170859 0.194001 1.23536 0 0 0 
-0.136202 0.320156 1.20328 75 72 253 
-0.189819 0.100257 1.26655 0 0 0 
0.0126904 -0.338657 1.33336 41 40 254 
-0.0611827 -0.54276 1.38427 0 0 0 
-0.0736941 -0.608994 1.40166 0 0 0 
-0.00123819 -0.0630529 1.21363 44 42 255 
0.0354649 -0.269844 1.31003 11 8 254 
-0.202085 0.111302 1.28822 0 0 0 
-0.0977799 -0.183955 1.25913 34 255 36 
0.057544 0.225959 1.20883 23 24 255 
-0.0846974 0.556056 1.15174 21 22 254 
-0.231279 0.608887 1.26275 0 0 0 
0.00438935 -0.121846 1.24285 255 43 42 
-0.141978 -0.101171 1.25115 0 0 0 
-0.201076 0.180267 1.29304 0 0 0 
-0.111532 -0.0434757 1.21377 62 63 254 
0.00242708 -0.245972 1.2895 60 254 63 
-0.196618 0.0916651 1.28412 0 0 0 
0.00171872 0.0195568 1.19279 255 38 38 
-0.174143 0.0698486 1.24618 0 0 0 
-0.176825 0.24792 1.23962 0 0 0 
-0.119324 -0.0572814 1.22523 55 56 254 
-0.186637 0.0566608 1.25424 0 0 0 
-0.069014 -0.199885 1.2452 254 57 53 
-0.187547 0.143289 1.2581 0 0 0 
-0.170973 0.0938123 1.2459 0 0 0 
-0.200045 0.0852452 1.29119 0 0 0 
-0.0784465 -0.0467508 1.20308 44 42 43 
-0.127572 0.529541 1.17593 45 44 42 
-0.124903 -0.131096 1.255 0 0 0 
-0.217861 0.537156 1.27713 0 0 0 
-0.118489 0.0529597 1.20307 12 10 254 
-0.0972356 0.239358 1.1881 254 55 47 
-0.0338864 0.0478842 1.18471 255 9 7 
0.106057 0.114015 1.25979 255 59 59 
-0.201815 0.608833 1.20311 8 7 38 
0.0234828 -0.252948 1.30459 56 53 254 
-0.213272 -0.040789 1.33465 0 0 0 
-0.0175365 0.228141 1.17905 49 255 53 
-0.19277 0.07145 1.26778 0 0 0 
-0.18471 0.108379 1.25858 0 0 0 
-0.179786 0.160655 1.2486 0 0 0 
-0.114661 0.182275 1.19608 35 17 15 
-0.0305427 -0.253841 1.27615 60 56 55 
-0.0347861 -0.336435 1.30911 0 0 0 
-0.164236 -0.246818 1.42433 0 0 0 
0.144355 0.260216 1.40518 38 36 37 
-0.115744 -0.307656 1.31671 0 0 0 
-0.0618283 -0.466647 1.35568 0 0 0 
-0.0847798 0.535515 1.15585 254 41 39 
-0.180786 0.124879 1.24618 0 0 0 
-0.210783 0.123449 1.31049 0 0 0 
-0.0917286 0.27088 1.18102 60 56 53 
-0.0897615 -0.0433236 1.20459 50 51 254 
0.0247747 -0.00255791 1.20302 33 32 30 
-0.225231 0.556852 1.28354 0 0 0 
-0.164562 0.0510979 1.23177 8 5 3 
-0.0916889 -0.400451 1.34322 0 0 0 
-0.0297711 -0.194039 1.2526 48 254 48 
-0.10664 -0.00932361 1.19139 254 59 57 
0.00692384 -0.272426 1.30388 42 39 254 
-0.198769 -0.000995283 1.25517 0 0 0 
-0.110483 -0.397374 1.37504 0 0 0 
0.0792345 -0.0810673 1.26046 32 31 29 
-0.189996 0.423233 1.41288 0 0 0 
0.0480039 -0.117451 1.25746 44 43 41 
-0.138137 -0.227628 1.30769 0 0 0 
-0.160435 -0.107612 1.26316 0 0 0 
-0.133635 -0.00598783 1.20197 52 56 254 
-0.00244669 0.602476 1.11372 254 26 27 
-0.0573124 -0.484196 1.36148 0 0 0 
-0.147185 0.168295 1.21782 250 75 71 
-0.207307 0.0573806 1.28805 0 0 0 
-0.0230551 -0.233043 1.27172 254 57 53 
-0.191288 0.362978 1.25171 0 0 0 
-0.145837 0.530522 1.18144 42 43 254 
-0.149151 -0.241284 1.34218 0 0 0 
-0.217413 0.0562689 1.29463 0 0 0 
-0.0734131 -0.337106 1.31204 0 0 0 
-0.222473 0.0306722 1.32485 0 0 0 
-0.0815728 0.118391 1.19178 56 52 53 
-0.0208484 -0.267873 1.28764 51 47 44 
0.0374633 -0.0769011 1.24124 6 6 6 
-0.138915 0.474373 1.18411 71 254 74 
-0.132815 -0.107059 1.25 1 1 1 
-0.169631 0.148235 1.24001 0 0 0 
-0.046665 -0.314351 1.29724 0 0 0 
-0.159345 -0.00165066 1.21683 73 73 73 
-0.200392 0.451061 1.26183 0 0 0 
-0.196719 0.418147 1.2604 0 0 0 
-0.0664134 -0.30076 1.2938 0 0 0 
-0.13702 0.115106 1.21355 254 42 41 
-0.209379 0.637014 1.19146 0 0 0 
-0.0202563 0.599404 1.11932 31 26 254 
-0.0481391 0.601553 1.1081 54 254 47 
-0.127763 0.549528 1.17903 32 33 254 
-0.19295 0.125918 1.27083 0 0 0 
-0.158474 0.256961 1.22127 0 0 0 
-0.0700533 0.429029 1.15678 254 54 52 
0.0641763 -0.104587 1.27005 32 255 32 
-0.0973831 0.170291 1.19034 254 65 64 
-0.0863709 0.575274 1.16033 29 254 32 
-0.0313161 -0.129693 1.23268 46 45 40 
-0.0927943 0.491006 1.16603 50 254 51 
-0.00560316 -0.0511028 1.20301 54 52 255 
-0.0837051 0.609421 1.11056 254 9 11 
-0.169183 -0.246582 1.38621 0 0 0 
-0.0597623 0.463258 1.15524 254 39 39 
-0.104761 0.296482 1.19078 26 254 39 
-0.0286119 -0.395534 1.3355 0 0 0 
-0.0286315 0.604641 1.1111 61 56 254 
-0.181211 0.0347871 1.2342 0 0 0 
0.00353387 0.215399 1.18844 28 29 255 
-0.0773003 0.601249 1.11558 26 254 25 
-0.0772287 -0.379424 1.32764 0 0 0 
-0.0800373 -0.484637 1.36986 0 0 0 
-0.136693 -0.201031 1.28591 0 0 0 
0.0255581 -0.217629 1.28742 35 33 254 
-0.102694 0.412831 1.16481 19 254 27 
-0.0476506 -0.579805 1.4244 0 0 0 
-0.0104332 0.418498 1.16412 11 9 254 
-0.00939765 0.549912 1.13996 51 49 254 
-0.205636 0.0983231 1.30434 0 0 0 
-0.211045 0.274146 1.30669 0 0 0 
-0.140735 0.405256 1.18515 254 68 64 
-0.099193 -0.154736 1.26248 91 86 92 
-0.163972 -0.0962939 1.26198 0 0 0 
-0.170791 -0.220363 1.38441 0 0 0 
-0.151025 -0.106625 1.25755 0 0 0 
-0.207083 0.029301 1.28005 0 0 0 
-0.080715 0.588326 1.14755 27 25 254 
-0.0538817 -0.43911 1.34175 0 0 0 
-0.182197 -0.139361 1.34723 0 0 0 
-0.115107 -0.285639 1.30895 0 0 0 
-0.047265 -0.334926 1.30429 0 0 0 
-0.0597743 0.434492 1.15498 39 37 38 
-0.02644 0.183652 1.18324 72 68 65 
-0.165723 0.40752 1.21574 0 0 0 
-0.180626 0.308725 1.23965 0 0 0 
-0.207164 0.258609 1.3018 0 0 0 
-0.191578 0.31324 1.25492 0 0 0 
-0.153594 0.330414 1.21346 0 0 0 
-0.0722467 -0.497382 1.37315 0 0 0 
-0.17534 0.28077 1.24416 0 0 0 
-0.215451 0.155499 1.3221 0 0 0 
-0.0547459 -0.0582045 1.19628 59 254 59 
-0.169886 -0.256291 1.4376 0 0 0 
-0.177379 -0.0635399 1.27884 0 0 0 
-0.138308 0.53642 1.17464 254 44 42 
0.013962 0.00998737 1.19811 43 44 255 
-0.0107139 -0.0209962 1.18639 255 53 52 
-0.122684 0.604088 1.14166 17 15 254 
-0.0802539 -0.112647 1.22913 254 50 49 
-0.0748871 -0.312101 1.30288 0 0 0 
-0.139779 0.163521 1.21321 254 36 33 
-0.0652485 -0.703618 1.41287 0 0 0 
-0.145101 0.148629 1.2204 255 58 54 
-0.19861 0.34482 1.27153 0 0 0 
-0.156379 -0.0543282 1.2368 0 0 0 
0.0831457 -0.0702889 1.25604 255 40 39 
-0.0257501 -0.0553111 1.20035 255 34 31 
0.00985411 -0.365533 1.33972 255 69 68 
-0.155686 -0.0340251 1.22811 83 62 65 
-0.0437244 0.260965 1.17797 51 50 48 
-0.0869523 -0.43014 1.35305 0 0 0 
-0.0973731 -0.0503202 1.21742 254 46 46 
-0.128354 0.363336 1.18924 254 56 52 
-0.192627 0.254224 1.26223 0 0 0 
-0.190471 0.38082 1.25618 0 0 0 
-0.0596761 -0.0012988 1.19604 25 254 31 
-0.144735 -0.192584 1.29217 0 0 0 
-0.116103 0.322722 1.18807 51 46 254 
-0.153319 0.0948704 1.22592 58 9 10 
-0.171933 0.00149884 1.24407 1 1 1 
0.00331163 -0.197658 1.2701 40 34 254 
-0.00629675 -0.192147 1.26218 254 25 24 
-0.0851202 0.360896 1.17473 47 43 254 
-0.068313 -0.409102 1.33837 0 0 0 
-0.042598 0.305682 1.17056 255 37 36 
0.053968 0.0444411 1.21182 30 28 29 
-0.0550238 0.481189 1.14867 254 28 26 
0.0380436 0.174469 1.20485 49 46 255 
-0.215583 0.000151748 1.27895 0 0 0 
-0.0494501 0.268846 1.17472 42 41 255 
-0.144733 0.135151 1.2174 66 255 75 
-0.068502 -0.0144277 1.19749 51 52 254 
-0.18016 -0.0806352 1.30208 0 0 0 
-0.167109 0.306378 1.22665 0 0 0 
-0.201606 0.0553572 1.27237 0 0 0 
-0.115276 -0.376329 1.36516 0 0 0 
-0.186041 0.545489 1.21102 49 53 230 
-0.214773 0.00380696 1.26634 0 0 0 
-0.00703912 0.0283904 1.18983 51 255 51 
-0.0946236 -0.412632 1.35311 0 0 0 
-0.141131 0.545597 1.16908 28 27 25 
-0.167154 -0.0463425 1.25254 0 0 0 
-0.146473 -0.134802 1.26572 0 0 0 
-0.0622156 -0.106681 1.22023 57 55 254 
-0.154794 -0.0730536 1.24643 0 0 0 
-0.170883 -0.118769 1.3013 0 0 0 
-0.0832859 -0.0981094 1.2293 44 42 254 
0.0298963 0.473838 1.16161 16 254 5 
-0.184129 0.386913 1.24153 0 0 0 
0.0922236 0.258217 1.23509 255 26 25 
-0.103218 0.0402553 1.19342 254 64 63 
0.0325163 0.112553 1.20522 255 58 58 
-0.180871 0.197777 1.25063 0 0 0 
-0.18901 0.0807673 1.26583 0 0 0 
-0.180551 -0.0564605 1.26951 0 0 0 
-0.0671301 -0.159781 1.24412 55 53 54 
-0.0664422 0.33279 1.17355 40 255 46 
-0.119479 -0.32818 1.34288 0 0 0 
-0.124481 -0.280184 1.31545 0 0 0 
-0.215508 0.602747 1.24141 5 1 1 
0.047098 -0.166548 1.28851 38 255 40 
-0.130249 0.167124 1.20594 66 54 254 
-0.172394 -0.189082 1.35834 0 0 0 
0.0406096 0.114987 1.2132 51 51 255 
-0.106155 0.0733775 1.20509 27 27 27 
-0.113482 0.609929 1.09462 254 46 45 
-0.16225 0.099488 1.29451 0 0 0 
0.0123466 0.0206756 1.194 40 43 255 
-0.0370679 0.345884 1.16973 254 38 37 
-0.000532993 -0.220223 1.27636 56 51 254 
-0.206963 0.470274 1.27237 0 0 0 
-0.0209306 -0.297142 1.29916 55 54 254 
-0.196092 0.104817 1.27608 0 0 0 
-0.0360142 0.597978 1.13261 29 22 254 
-0.0273124 0.0163568 1.18394 255 33 31 
0.0300054 -0.0414359 1.21666 57 54 49 
-0.165182 -0.12813 1.28993 0 0 0 
-0.199893 0.500203 1.23722 0 0 0 
0.0192076 -0.124659 1.2474 38 255 39 
-0.0182499 -0.176303 1.25038 254 40 37 
-0.0227829 0.558211 1.13672 57 53 254 
-0.175159 0.440571 1.22312 0 0 0 
-0.129757 -0.183035 1.26789 0 0 0 
-0.0807448 -0.391838 1.33466 0 0 0 
-0.192253 0.276836 1.26095 0 0 0 
-0.0437124 0.118096 1.18845 45 44 42 
-0.0770055 0.482637 1.15993 254 62 61 
-0.181704 -0.0154174 1.24345 0 0 0 
-0.0513262 -0.0691996 1.20254 56 55 254 
-0.156405 -0.0445416 1.23477 0 0 0 
-0.189504 0.28137 1.25138 0 0 0 
-0.0390749 -0.328051 1.30406 0 0 0 
-0.193784 0.534426 1.23122 0 0 0 
-0.156018 0.424702 1.20116 66 62 206 
-0.150731 0.247534 1.21472 15 48 13 
-0.0436804 -0.234905 1.26717 254 37 31 
-0.0515172 -0.272991 1.27692 90 91 97 
-0.122955 -0.0147454 1.20167 47 254 50 
-0.178161 0.427331 1.22839 0 0 0 
-0.180721 0.290027 1.2474 0 0 0 
-0.193233 -0.095032 1.35566 0 0 0 
-0.0506924 -0.386255 1.3231 0 0 0 
-0.0374142 0.445501 1.15878 36 36 36 
-0.148089 0.0643121 1.22323 19 19 254 
-0.0870194 0.578647 1.14705 254 30 28 
-0.178774 0.344213 1.2369 0 0 0 
-0.0220989 0.204668 1.18278 45 255 52 
-0.209996 0.212791 1.30597 0 0 0 
0.0101112 0.24529 1.18703 255 34 30 
-0.0689093 0.394867 1.16222 254 47 46 
-0.153244 0.274405 1.21434 1 2 1 
-0.112511 -0.201297 1.26034 0 0 0 
0.00789243 -0.0263949 1.19283 60 255 68 
-0.0670645 -0.052219 1.20092 254 43 43 
-0.166532 0.603608 1.15306 254 39 38 
0.0248949 0.0158066 1.20453 255 3 1 
-0.0867098 -0.113736 1.24331 254 45 44 
0.00140546 0.340664 1.17538 23 21 22 
-0.0716751 -0.541793 1.38871 0 0 0 
0.0121188 0.34944 1.17691 25 26 254 
-0.0796742 0.61006 1.12565 14 13 11 
-0.164998 0.508066 1.19104 250 55 54 
-0.0770094 0.500348 1.15195 36 34 254 
-0.0931734 0.0786782 1.19675 254 58 57 
-0.0986512 -0.316408 1.31492 0 0 0 
-0.141353 0.513222 1.17895 51 254 47 
-0.129009 0.350605 1.18484 57 53 50 
-0.0155098 -0.130534 1.239 47 46 44 
0.0276893 -0.071443 1.23396 36 37 255 
-0.185455 -0.00415172 1.23211 0 0 0 
0.0634751 0.597631 1.15296 254 32 36 
-0.166609 0.530543 1.1955 37 37 37 
-0.0687999 0.477925 1.15008 39 254 42 
-0.08647 0.18466 1.18557 254 84 80 
-0.145697 0.623022 1.1173 54 49 254 
-0.203072 0.190176 1.30068 0 0 0 
-0.0295241 -0.173505 1.24761 46 41 254 
-0.0384996 0.285016 1.1734 50 254 50 
-0.114018 -0.234454 1.26452 0 0 0 
-0.160413 0.534563 1.18749 254 29 27 
-0.135234 0.567525 1.16165 254 38 36 
-0.0152373 0.146739 1.18988 23 22 255 
-0.18722 0.185548 1.26412 0 0 0 
-0.15097 0.602824 1.16573 31 29 254 
-0.0743164 -0.0806074 1.22861 58 56 57 
-0.139375 0.395205 1.18651 54 254 57 
-0.0198496 0.442784 1.16395 254 27 27 
-0.142516 0.0839907 1.22142 43 252 37 
-0.106314 0.288992 1.19597 254 38 22 
-0.0460431 0.21991 1.17738 48 47 45 
-0.0495832 -0.0798473 1.20992 49 45 42 
-0.0679735 -0.322683 1.30056 0 0 0 
-0.172289 -0.134466 1.31878 0 0 0 
-0.00783451 -0.347501 1.32815 27 26 32 
-0.0613619 -0.0683273 1.21764 37 36 34 
-0.131879 -0.280357 1.47383 0 0 0 
-0.0604735 -0.605001 1.39489 0 0 0 
-0.0882489 0.481303 1.16788 254 42 40 
-0.221525 0.256073 1.34166 0 0 0 
-0.0446494 -0.68074 1.41509 0 0 0 
-0.219064 0.212186 1.35294 0 0 0 
-0.214988 0.0921017 1.31446 0 0 0 
-0.187976 0.177209 1.25626 0 0 0 
-0.179864 -0.150829 1.34625 0 0 0 
-0.154098 0.439987 1.19315 45 254 53 
-0.187576 -0.166707 1.37491 0 0 0 
-0.136679 -0.266605 1.33019 0 0 0 
-0.132115 -0.162013 1.27027 52 37 40 
-0.212499 0.251671 1.30456 0 0 0 
-0.0984941 0.369509 1.1782 59 55 254 
-0.159958 -0.1831 1.32124 0 0 0 
-0.203563 0.144055 1.28504 0 0 0 
-0.21406 0.29114 1.31498 0 0 0 
-0.213695 0.328074 1.3067 0 0 0 
-0.150556 -0.206986 1.31268 0 0 0 
-0.108741 0.365102 1.16822 254 63 62 
-0.176521 -0.0550989 1.26016 0 0 0 
-0.199635 0.463117 1.24856 0 0 0 
-0.135222 -0.259397 1.32245 0 0 0 
-0.21 0.474596 1.26255 0 0 0 
-0.0795216 -0.460425 1.36344 0 0 0 
-0.209499 0.0395593 1.28791 0 0 0 
-0.0778982 0.545631 1.14548 43 254 42 
-0.207077 0.0615903 1.2807 0 0 0 
-0.193865 0.0617884 1.25711 0 0 0 
-0.0841692 0.528515 1.15814 50 51 254 
-0.160982 -0.241788 1.37509 0 0 0 
-0.185547 0.418314 1.23964 0 0 0 
-0.144674 -0.0191251 1.21256 254 42 42 
-0.19081 0.236057 1.25851 0 0 0 
-0.112441 -0.0524572 1.21889 254 43 45 
-0.123696 -0.362711 1.37941 0 0 0 
-0.162514 0.00745725 1.22835 31 31 254 
-0.208676 0.487354 1.25794 0 0 0 
-0.0656677 -0.490612 1.36618 0 0 0 
-0.214488 0.337007 1.31435 0 0 0 
-0.240905 0.620753 1.24796 0 0 0 
-0.0470555 -0.111429 1.22252 48 45 255 
-0.220423 0.079648 1.35119 0 0 0 
-0.186679 0.621613 1.10101 11 10 9 
-0.186467 0.205704 1.25585 0 0 0 
-0.215283 0.0728759 1.31554 0 0 0 
-0.141058 -0.155986 1.27034 1 2 2 
-0.166394 -0.191076 1.34566 0 0 0 
-0.192847 0.0291776 1.2595 0 1 1 
-0.165379 0.0703095 1.23692 254 23 22 
-0.216393 0.0287056 1.29947 0 0 0 
-0.0970738 0.150547 1.19193 74 254 57 
-0.0894052 -0.490323 1.39552 0 0 0 
-0.185346 -0.125214 1.34395 0 0 0 
-0.170088 -0.203105 1.36894 0 0 0 
-0.0899994 -0.323624 1.31414 0 0 0 
-0.087797 -0.297958 1.3031 0 0 0 
-0.0128631 -0.478598 1.37191 0 0 0 
-0.210075 0.102918 1.45149 0 0 0 
-0.115267 0.299975 1.19476 28 29 254 
-0.0609732 -0.511772 1.37216 0 0 0 
-0.19299 0.152642 1.26888 0 0 0 
-0.185945 0.227918 1.25419 0 0 0 
-0.0860402 0.303461 1.18161 254 49 45 
-0.102835 -0.0617576 1.2181 36 34 254 
-0.0768667 0.540861 1.16324 35 254 32 
-0.1337 -0.082245 1.24273 92 90 254 
-0.149265 -0.22302 1.32871 0 0 0 
-0.196546 0.162517 1.27209 0 0 0 
-0.139898 -0.296779 1.37598 0 0 0 
-0.104327 -0.275624 1.29905 0 0 0 
-0.213141 0.415569 1.30188 0 0 0 
-0.230075 0.0594302 1.34296 0 0 0 
-0.172617 0.408377 1.22542 73 70 61 
-0.212902 0.104217 1.31337 0 0 0 
-0.119066 -0.266212 1.30222 0 0 0 
-0.199992 0.0392423 1.26667 0 0 0 
-0.128839 0.324604 1.19802 51 254 55 
-0.185686 0.216296 1.25289 0 0 0 
-0.0989649 -0.140581 1.24738 37 36 34 
-0.165868 0.0917089 1.23732 46 44 254 
-0.186422 -0.152343 1.36904 0 0 0 
-0.21311 0.112363 1.3203 0 0 0 
-0.185359 -0.0581332 1.28474 0 0 0 
-0.0165585 0.615163 1.1127 36 31 254 
-0.0309652 -0.649237 1.44726 0 0 0 
-0.222498 -0.0115101 1.31996 0 0 0 
-0.184739 -0.103645 1.32169 0 0 0 
-0.00419564 0.0937021 1.1956 255 33 32 
-0.205125 0.0386589 1.27715 0 0 0 
-0.175493 -0.0671945 1.26968 0 0 0 
-0.145434 0.304175 1.20855 254 65 63 
-0.169009 0.202894 1.23106 254 55 51 
-0.244206 0.609874 1.32925 0 0 0 
-0.0169085 0.0599675 1.29217 17 255 17 
-0.175337 0.17025 1.24174 85 84 79 
-0.201628 0.366976 1.26915 0 0 0 
-0.133846 0.0804686 1.21512 254 47 46 
-0.226671 0.00248561 1.30995 0 0 0 
-0.181107 0.135153 1.2513 0 0 0 
-0.188778 0.0125245 1.24979 9 7 252 
-0.200642 0.319906 1.29164 0 0 0 
-0.131548 -0.327037 1.36965 0 0 0 
-0.0877046 -0.126208 1.23748 34 30 254 
-0.207517 0.226719 1.30445 0 0 0 
-0.11947 -0.0809557 1.23645 47 254 51 
-0.239492 0.608394 1.24441 0 0 0 
-0.0836534 0.508748 1.1619 254 60 58 
-0.13262 -0.275229 1.3246 0 0 0 
-0.134526 -0.0414525 1.22109 65 65 254 
-0.129266 0.606365 1.1278 254 26 24 
-0.0332743 0.103822 1.19197 41 41 255 
-0.0740669 0.146217 1.18956 46 255 52 
-0.236073 0.610336 1.23217 0 0 0 
-0.19683 0.348365 1.25188 0 0 0 
-0.0808189 -0.618118 1.40478 0 0 0 
-0.124503 -0.343373 1.36406 0 0 0 
-0.0657599 -0.0221827 1.18605 255 48 48 
-0.203677 0.426644 1.26763 0 0 0 
-0.159333 0.519857 1.19049 32 254 33 
-0.207087 0.539851 1.24704 112 22 22 
-0.0937599 -0.462176 1.38092 0 0 0 
-0.194947 0.504999 1.2303 18 17 15 
-0.106801 -0.404509 1.36967 0 0 0 
-0.160353 -0.0939398 1.25531 0 0 0 
-0.140583 0.287756 1.206 51 40 254 
-0.148005 -0.167434 1.28664 0 0 0 
