ply                 
format ascii 1.0    
element vertex 1305
property float x    
property float y    
property float z    
property uchar red  
property uchar green
property uchar blue 
end_header          
-0.109496 -0.130204 1.2506 0 0 0 
-0.141242 0.481298 1.17965 0 0 0 
0.0497231 0.593316 1.15279 35 22 254 
-0.0686053 -0.0425915 1.19693 55 254 57 
-0.135025 -0.145798 1.26556 0 0 0 
0.0159198 0.0774184 1.20413 38 36 37 
-0.000195207 0.141021 1.19109 254 52 48 
-0.0985142 -0.0476754 1.21086 113 122 89 
0.00389937 -0.300942 1.3132 253 63 60 
-0.0504013 -0.526582 1.37663 0 0 0 
0.0943356 0.131428 1.24473 35 255 37 
-0.0782093 -0.398305 1.33811 0 0 0 
-0.0313025 0.0358169 1.18469 30 30 30 
0.0434406 -0.0221185 1.21135 56 52 49 
-0.00839512 -0.0929486 1.22914 48 254 54 
-0.0311036 0.128267 1.18775 28 254 20 
0.0941594 0.0974523 1.24531 37 38 255 
-0.0804726 0.438363 1.15865 0 0 0 
-0.0449689 0.0194717 1.1849 52 254 55 
-0.0251649 0.213442 1.18181 72 254 46 
-0.168691 0.22803 1.23282 0 0 0 
-0.113934 -0.0239723 1.20421 0 0 0 
-0.162605 0.610458 1.14463 137 32 31 
-0.144058 -0.0352824 1.22415 0 0 0 
-0.0983022 -0.363685 1.33352 0 0 0 
0.0918741 0.183798 1.2393 40 41 255 
0.0240198 0.339567 1.18259 36 37 254 
0.0560689 0.301024 1.20189 46 255 46 
-0.0966627 0.348975 1.16893 0 0 0 
-0.0358061 -0.30063 1.29424 0 0 0 
-0.0489321 0.0510079 1.18904 14 12 13 
-0.00530582 0.269279 1.17883 34 32 35 
-0.00438092 0.365364 1.17231 43 254 47 
-0.155687 0.141195 1.2282 0 0 0 
0.0285096 -0.0103307 1.19442 254 66 66 
-0.0657717 -0.547892 1.3885 0 0 0 
0.0100364 0.113947 1.19567 62 61 59 
-0.095307 0.428479 1.16494 254 47 47 
0.0350634 -0.119627 1.25563 32 31 29 
-0.00661593 0.531376 1.14757 16 18 254 
-0.0688924 0.0503169 1.18695 18 6 6 
0.0151046 -0.00846522 1.19183 254 68 66 
-0.0857693 -0.330337 1.31415 0 0 0 
-0.138047 0.601669 1.15682 49 234 50 
0.0518099 -0.0457343 1.2295 71 69 255 
-0.131995 0.490827 1.1824 0 0 0 
0.00584311 -0.100132 1.23466 254 29 28 
0.0924993 0.0840018 1.2464 57 255 62 
-0.0445439 -0.409521 1.3346 0 0 0 
0.0300279 0.318342 1.1883 27 25 26 
-0.0615803 0.145897 1.18677 0 0 0 
-0.0372773 -0.204428 1.25476 0 0 0 
0.0217487 0.152869 1.1962 20 255 31 
-0.144747 0.0561219 1.21486 0 0 0 
-0.127621 0.593233 1.16041 24 20 19 
-0.0948601 -0.233176 1.25753 0 0 0 
-0.0625395 0.264295 1.17814 254 38 34 
-0.0700694 0.340467 1.17406 36 34 254 
-0.0103513 -0.010318 1.18667 85 85 85 
-0.023932 0.169764 1.18448 255 74 71 
-0.0309762 -0.0345679 1.18936 254 75 72 
0.0250741 -0.13882 1.25524 56 52 254 
-0.116087 0.314143 1.19523 0 0 0 
-0.144968 0.197185 1.21548 0 0 0 
0.0309335 0.598194 1.12253 60 61 55 
0.0962032 0.264486 1.23262 46 46 44 
-0.0851179 0.199853 1.18708 43 254 55 
0.0832746 0.0409585 1.23717 255 48 46 
-0.0553699 -0.176352 1.24488 32 36 230 
-0.179792 0.0146516 1.24537 0 0 0 
-0.146037 -0.0525498 1.23468 0 0 0 
0.0365133 0.0869799 1.20915 41 41 255 
0.0134227 -0.257061 1.30119 47 40 254 
-0.0752674 0.525026 1.15134 36 254 34 
-0.0903853 0.157894 1.19005 62 252 71 
-0.0754346 0.157718 1.189 66 65 254 
-0.133388 -0.124401 1.25761 0 0 0 
0.0585355 0.197191 1.21439 30 255 35 
0.0284382 0.101145 1.20431 49 255 52 
-0.0701345 0.0203426 1.18697 73 254 78 
-0.0250934 -0.211059 1.2611 61 59 254 
-0.0685772 0.409741 1.15823 254 47 46 
-0.117685 -0.223999 1.26473 0 0 0 
-0.0164211 0.0208448 1.18754 57 254 63 
-0.0649653 -0.513231 1.37462 0 0 0 
-0.00614833 0.585538 1.13688 254 55 48 
-0.0933921 0.502793 1.16634 52 52 52 
-0.0893457 0.617336 1.06171 3 38 5 
-0.0626684 0.524789 1.14797 43 43 43 
-0.154435 0.286899 1.21667 0 0 0 
-0.0748208 0.511128 1.15391 44 211 50 
-0.0493354 0.482693 1.15028 66 67 254 
-0.0193976 0.37149 1.1682 24 254 22 
-0.139105 0.330182 1.20492 0 0 0 
-0.0059268 0.0382733 1.18874 254 51 49 
0.0833538 0.583055 1.17415 24 254 26 
-0.0651889 0.169712 1.18605 0 0 0 
-0.133552 0.224174 1.20465 0 0 0 
0.0178196 0.353999 1.1772 254 59 58 
-0.0518604 0.355966 1.16837 64 60 59 
-0.1758 0.00170991 1.23252 0 0 0 
0.016438 -0.0410826 1.21122 70 65 254 
0.0902798 0.0669616 1.24796 41 39 255 
0.0154886 0.46939 1.15876 105 254 64 
-0.0224926 -0.338968 1.31855 0 0 0 
-0.096037 -0.119324 1.24147 0 0 0 
-0.0167699 -0.241891 1.2794 77 74 67 
0.0439895 0.0352378 1.20828 32 33 255 
-0.074263 -0.131801 1.23728 0 0 0 
-0.0263275 0.545413 1.14021 61 59 254 
-0.0225434 0.190561 1.18244 65 64 60 
0.0464267 0.355287 1.19261 26 22 19 
-0.0766521 0.175931 1.18694 68 254 78 
-0.0836495 0.0497782 1.18852 0 0 0 
-0.0604742 -0.270566 1.28352 0 0 0 
-0.0640419 -0.365921 1.32132 0 0 0 
-0.0592811 0.249996 1.17817 254 44 40 
-0.0233153 -0.257401 1.28287 15 16 11 
0.00971293 0.168195 1.19317 41 255 42 
-0.0413251 0.601119 1.10985 254 76 75 
-0.0582228 0.183889 1.18329 71 254 65 
-0.0288861 -0.110013 1.22499 4 3 2 
-0.0822715 0.321024 1.17641 69 68 66 
-0.0352843 -0.0109447 1.18237 73 74 254 
-0.128698 0.560477 1.17596 68 59 253 
-0.0153866 -0.113147 1.22998 77 255 72 
-0.130839 0.276693 1.20106 0 0 0 
-0.0936547 0.411961 1.16415 254 52 51 
0.013775 0.541541 1.14995 254 12 11 
-0.0338218 -0.235255 1.26749 0 0 0 
-0.120354 0.581322 1.17285 48 39 225 
-0.133754 0.610721 1.12348 40 40 33 
-0.0514375 -0.304493 1.29044 0 0 0 
-0.0495105 0.0378935 1.1833 102 254 70 
-0.0144677 0.239618 1.17982 40 255 36 
-0.0228155 -0.138608 1.23593 36 254 29 
0.0827971 0.601686 1.14891 23 254 24 
-0.0322102 0.461924 1.15468 254 67 67 
0.0354393 -0.103675 1.25077 46 45 255 
-0.105649 -0.0340597 1.20812 77 82 82 
0.014715 0.132931 1.19716 59 255 49 
-0.0967133 0.29017 1.18803 250 68 68 
-0.156507 0.197315 1.22217 0 0 0 
-0.0114269 -0.0436451 1.1989 87 84 79 
-0.0301833 0.531328 1.14536 61 63 254 
-0.0811311 -0.072999 1.22108 63 61 62 
-0.0496964 -0.0163483 1.18227 76 253 74 
-0.16352 0.126105 1.23423 0 0 0 
-0.103635 0.157715 1.19374 18 3 4 
-0.113907 0.411592 1.16991 2 0 0 
0.0369859 0.26626 1.20305 41 39 254 
-0.0255641 0.510147 1.14668 254 61 60 
-0.160912 0.481892 1.19468 0 0 0 
0.0328525 0.59627 1.14044 24 254 29 
-0.0824912 0.488862 1.16137 69 67 254 
-0.0278076 0.0794842 1.19233 34 254 40 
0.0114147 0.312583 1.1815 254 54 53 
-0.0304857 0.116015 1.1902 54 254 75 
-0.0381134 0.505041 1.14555 41 254 45 
-0.109273 -0.0807328 1.23314 0 0 0 
0.0168866 0.58386 1.14353 254 34 33 
-0.0298279 0.309957 1.17343 49 48 46 
-0.0139423 0.417837 1.16877 254 57 57 
0.0657928 0.25761 1.21252 255 29 27 
-0.159018 0.0325732 1.22489 0 0 0 
-0.0575694 0.0634177 1.19419 22 22 22 
-0.0667946 0.119446 1.18937 254 52 48 
0.0489922 0.0194469 1.21159 33 31 254 
-0.0502592 -0.362128 1.31292 0 0 0 
-0.0652918 -0.121894 1.23117 61 62 255 
0.0256498 0.368179 1.18077 59 57 254 
-0.0553072 0.30212 1.17459 50 49 47 
0.0941732 0.250923 1.23548 31 29 30 
-0.0414954 0.616006 1.10906 48 253 62 
0.00903414 0.202449 1.18984 29 30 255 
0.096278 0.399666 1.22299 38 254 45 
-0.0856503 -0.415823 1.3468 0 0 0 
-0.127992 0.249162 1.20083 0 0 0 
-0.0881955 0.341573 1.17635 76 254 83 
-0.0859481 0.2805 1.18182 83 78 74 
0.0995895 0.373827 1.22531 50 48 254 
-0.139523 0.266715 1.20676 0 0 0 
-0.0109349 0.162109 1.18659 55 51 52 
-0.155356 0.167554 1.22541 0 0 0 
0.0609542 0.161313 1.21867 41 39 255 
-0.0942702 0.601486 1.12654 27 26 24 
-0.113731 0.254015 1.18989 0 0 0 
-0.00551169 0.550316 1.14095 15 16 11 
-0.00825369 0.352826 1.17148 42 42 254 
0.0577261 -0.0420122 1.26528 64 62 255 
-0.102471 0.32339 1.18248 10 11 8 
-0.0201829 0.276202 1.17636 254 46 40 
-0.0256566 0.155533 1.18524 255 45 44 
-0.156721 0.0661076 1.23133 0 0 0 
-0.163885 -0.00597074 1.2273 0 0 0 
-0.0225871 0.252516 1.17701 25 254 32 
-0.17215 0.207202 1.23844 0 0 0 
-0.0211318 0.295092 1.1761 62 254 65 
-0.00506012 0.188369 1.18613 35 254 25 
0.0260793 0.555737 1.14813 34 37 254 
-0.0947402 0.574637 1.16544 254 30 28 
-0.133285 -0.196363 1.27274 0 0 0 
-0.192452 0.264909 1.26398 0 0 0 
-0.197993 0.0795429 1.28021 0 0 0 
-0.185605 0.243542 1.25123 0 0 0 
-0.189325 0.604247 1.17581 35 30 231 
-0.163243 0.145196 1.23439 0 0 0 
-0.167186 0.112541 1.2387 0 0 0 
-0.11698 -0.273683 1.30421 0 0 0 
-0.161729 0.187732 1.22928 0 0 0 
-0.21953 0.0605159 1.31898 0 0 0 
-0.0838335 -0.177469 1.25124 26 254 41 
-0.145419 0.0985476 1.22075 255 58 57 
-0.165597 -0.0618471 1.24656 0 0 0 
-0.179936 0.0995193 1.25215 0 0 0 
-0.131733 -0.0185458 1.20828 40 42 254 
-0.0646613 -0.38759 1.32629 0 0 0 
-0.190878 0.137936 1.26809 0 0 0 
-0.179695 0.188682 1.24829 0 0 0 
-0.120626 0.066022 1.20833 10 10 254 
-0.21397 0.0848019 1.43728 0 0 0 
-0.132567 -0.171279 1.2711 0 0 0 
-0.213073 0.0637815 1.28778 0 0 0 
-0.070195 0.55002 1.14318 30 254 29 
-0.207283 0.603402 1.19541 12 2 2 
-0.150234 0.188593 1.21953 14 52 17 
-0.141262 0.0716521 1.22121 33 31 254 
-0.15582 0.113095 1.22933 0 0 0 
-0.16799 0.128267 1.23858 0 0 0 
-0.167881 0.174991 1.23517 0 0 0 
-0.161842 0.0997268 1.23512 0 0 0 
-0.137341 0.243883 1.20661 36 254 43 
-0.168267 0.366916 1.22383 0 0 0 
-0.104288 -0.322916 1.31919 0 0 0 
-0.203259 0.0966396 1.2889 0 0 0 
-0.180389 0.266442 1.24446 0 0 0 
-0.0277309 0.131965 1.18808 24 22 23 
-0.158362 0.244662 1.22138 0 0 0 
-0.180447 -0.0261778 1.24812 0 0 0 
-0.151379 0.26312 1.21526 21 4 5 
-0.146522 0.207822 1.21536 63 59 56 
-0.117354 -0.118085 1.24805 89 91 97 
-0.181126 0.0778243 1.2576 0 0 0 
-0.0862083 -0.22355 1.25465 23 23 23 
-0.0400242 0.0126219 1.1851 71 70 68 
-0.153387 0.295046 1.21519 0 0 0 
-0.188933 0.191194 1.25873 0 0 0 
-0.158885 0.396719 1.21319 1 0 0 
-0.213275 0.0140167 1.29268 0 0 0 
-0.147139 0.321733 1.20882 92 0 0 
0.0596996 -0.210716 1.30111 254 34 20 
-0.0552848 0.466437 1.15221 9 9 254 
-0.141449 0.123682 1.21738 54 50 252 
-0.075345 -0.290708 1.29654 0 0 0 
-0.131048 0.203485 1.20526 63 254 69 
-0.14192 0.255637 1.20902 42 33 254 
-0.144128 0.494117 1.18558 254 70 69 
-0.158413 0.156202 1.22836 2 1 1 
-0.176791 0.603027 1.16047 42 33 254 
-0.140862 0.226978 1.20964 65 62 53 
-0.175366 0.111002 1.2489 0 0 0 
-0.163858 0.291885 1.2227 0 0 0 
-0.125184 0.0848956 1.21131 59 58 54 
-0.0351943 0.068888 1.19114 255 55 54 
-0.171386 0.00445795 1.23364 6 5 3 
-0.191964 0.0146186 1.25978 0 0 0 
-0.0832003 -0.0902265 1.22686 52 50 254 
-0.156423 -0.161641 1.29683 0 0 0 
-0.162847 -0.142207 1.30344 0 0 0 
-0.146175 0.157543 1.21905 27 23 20 
-0.169834 0.537127 1.19828 9 254 21 
-0.199621 0.0507004 1.26618 0 0 0 
-0.17408 0.394253 1.23098 0 0 0 
-0.153881 -0.0827037 1.25086 0 0 0 
-0.127852 0.0430319 1.20442 254 45 41 
-0.201255 0.605316 1.17974 8 78 13 
-0.182342 0.0456795 1.24595 0 0 0 
-0.199414 0.324842 1.2773 0 0 0 
-0.0625449 -0.412016 1.33672 0 0 0 
-0.153208 0.370276 1.21013 0 0 0 
-0.155002 0.125948 1.22743 0 0 0 
-0.157702 0.216007 1.2248 0 0 0 
-0.209522 0.514012 1.25835 0 0 0 
-0.153994 0.502554 1.18882 40 254 40 
-0.176239 0.381648 1.23167 0 0 0 
-0.162958 0.353862 1.21751 0 0 0 
-0.172097 0.21187 1.23645 0 0 0 
-0.190439 0.0459067 1.25639 0 0 0 
-0.194501 0.40589 1.25538 0 0 0 
-0.0611318 -0.0648299 1.20541 53 51 254 
-0.0238143 0.237055 1.17982 27 21 21 
-0.0818669 0.600165 1.1318 46 254 59 
-0.172962 0.315443 1.2335 0 0 0 
-0.0202664 0.0851178 1.19126 255 37 33 
-0.184902 -0.00339488 1.24545 0 0 0 
-0.163303 0.596419 1.17636 39 35 34 
-0.15692 0.317583 1.21639 0 0 0 
-0.203401 0.563211 1.22568 3 0 0 
-0.195701 0.440086 1.25234 0 0 0 
-0.192867 -0.00926474 1.25448 0 0 0 
-0.0550891 -0.120396 1.22479 94 254 86 
-0.144343 0.45848 1.18133 65 64 62 
-0.113031 -0.210288 1.26313 2 1 2 
-0.163758 0.480444 1.19731 2 2 2 
-0.201361 0.00838264 1.27211 0 0 0 
-0.174268 0.33491 1.23111 0 0 0 
0.0402473 0.257765 1.20358 44 255 45 
-0.0269301 0.408461 1.16741 35 254 34 
-0.0143098 0.0586515 1.19544 44 42 255 
-0.0541152 -0.142271 1.23341 49 254 50 
-0.202884 0.600313 1.22552 12 2 2 
-0.106327 -0.148217 1.25609 51 53 57 
-0.172622 0.29688 1.23305 0 0 0 
-0.128298 0.599513 1.1543 254 25 24 
-0.12351 -0.25391 1.29978 0 0 0 
-0.178449 0.481057 1.21009 0 0 0 
-0.182508 0.371512 1.24044 0 0 0 
-0.206592 0.298595 1.29752 0 0 0 
-0.16703 0.515176 1.19927 14 13 9 
-0.167796 0.267993 1.22872 0 0 0 
-0.167304 0.0829495 1.24086 0 0 0 
-0.169902 0.241924 1.23339 0 0 0 
-0.118803 0.422962 1.17279 49 254 59 
-0.0545261 0.331418 1.17244 47 255 43 
-0.0566188 0.0399096 1.1848 48 48 48 
-0.106457 0.482891 1.17224 76 72 255 
-0.124921 0.0214004 1.20357 0 0 0 
-0.0613029 -0.35044 1.313 0 0 0 
-0.140466 0.00453373 1.20943 0 0 0 
-0.0390774 -0.62005 1.39009 0 0 0 
-0.0864622 -0.36174 1.32804 0 0 0 
-0.0721212 0.00483506 1.18908 56 57 60 
0.0115131 0.181628 1.19241 255 37 34 
-0.107621 0.141909 1.19954 0 0 0 
-0.116556 0.00641725 1.19964 25 140 2 
-0.082935 -0.0245842 1.19375 60 60 60 
-0.0346434 0.165716 1.18471 40 254 56 
-0.0521424 -0.606963 1.39002 0 0 0 
-0.136209 0.0510668 1.21123 0 0 0 
-0.102979 0.516162 1.17035 37 38 254 
-0.107391 -0.111685 1.24248 0 0 0 
-0.043138 -0.145545 1.22938 56 55 51 
-0.0814595 0.246412 1.18306 254 73 73 
-0.142719 0.622148 1.08432 3 1 1 
0.00488578 0.00386829 1.19199 39 40 254 
-0.0692277 -0.351218 1.31883 0 0 0 
-0.13689 -0.0609339 1.23683 0 0 0 
-0.0414099 -0.0339258 1.18797 75 255 68 
-0.019643 -0.00802406 1.17991 56 254 54 
-0.0849398 0.611639 1.09602 252 56 53 
-0.0899912 -0.158202 1.25191 0 0 0 
-0.0980483 -0.346743 1.32595 0 0 0 
-0.0798401 0.0905172 1.19421 60 58 59 
-0.0648115 -0.0107537 1.18335 61 254 63 
-0.118488 0.384929 1.17553 0 0 0 
-0.123598 0.617149 1.08778 30 106 30 
-0.0584111 0.125243 1.188 41 254 43 
0.00644139 -0.00950242 1.18518 80 78 254 
-0.0432684 0.0300651 1.18479 80 81 254 
-0.070881 0.304631 1.17679 254 65 64 
-0.0724083 -0.154561 1.24258 0 0 0 
-0.0568212 0.0275544 1.18641 254 67 66 
-0.0541618 -0.250177 1.27312 0 0 0 
-0.11729 0.239263 1.19545 0 0 0 
-0.113395 0.599732 1.14978 27 25 26 
0.0169575 0.33275 1.18146 23 21 22 
-0.0991701 0.0272166 1.19375 62 254 54 
-0.1098 0.168584 1.19689 1 1 1 
-0.0551019 -0.690454 1.41685 0 0 0 
-0.0934561 0.539408 1.16672 34 254 33 
-0.0523325 -0.639738 1.41812 0 0 0 
-0.0551781 -0.665527 1.45154 0 0 0 
0.0310184 -0.0497194 1.22287 77 255 49 
-0.0358416 -0.563636 1.39494 0 0 0 
-0.101402 0.527631 1.16965 37 254 30 
-0.187389 0.348167 1.25015 0 0 0 
-0.0746732 -0.564962 1.39855 0 0 0 
-0.165533 -0.274132 1.40908 0 0 0 
-0.159871 -0.187261 1.32599 0 0 0 
-0.11802 0.443221 1.15908 41 42 254 
-0.182401 -0.192078 1.3992 0 0 0 
-0.0491637 -0.158913 1.23587 62 60 63 
-0.216375 0.0798716 1.32661 0 0 0 
-0.106978 0.45208 1.17907 30 28 29 
-0.170428 0.193506 1.2356 0 0 0 
-0.135946 0.319211 1.20353 75 72 253 
-0.18932 0.100092 1.26657 0 0 0 
0.0121071 -0.336404 1.33253 41 40 254 
-0.0613383 -0.539232 1.38318 0 0 0 
-0.0737784 -0.604995 1.40045 0 0 0 
-0.00154235 -0.0625266 1.21376 44 42 255 
0.0347757 -0.268026 1.30935 11 8 254 
-0.201539 0.111095 1.28809 0 0 0 
-0.0976125 -0.182891 1.25922 34 255 36 
0.0569019 0.225241 1.20878 23 24 255 
-0.0846385 0.554434 1.15213 21 22 254 
-0.230742 0.606906 1.26262 0 0 0 
0.00400674 -0.120998 1.24276 255 43 42 
-0.14187 -0.100441 1.25077 0 0 0 
-0.200553 0.179777 1.29284 0 0 0 
-0.111311 -0.0430961 1.21409 62 63 254 
0.00198216 -0.244395 1.28907 60 254 63 
-0.196091 0.091537 1.28402 0 0 0 
0.00142799 0.0197122 1.19304 255 38 38 
-0.173697 0.0697984 1.24634 0 0 0 
-0.176113 0.247405 1.24063 0 0 0 
-0.119076 -0.056836 1.22549 55 56 254 
-0.186138 0.0566631 1.25438 0 0 0 
-0.0689993 -0.198752 1.24527 254 57 53 
-0.187066 0.142958 1.25816 0 0 0 
-0.170546 0.0936704 1.24604 0 0 0 
-0.199502 0.0851446 1.29105 0 0 0 
-0.0783617 -0.0463541 1.20342 44 42 43 
-0.127374 0.527977 1.17624 45 44 42 
-0.124638 -0.130299 1.25508 0 0 0 
-0.217356 0.53534 1.2769 0 0 0 
-0.11824 0.0529712 1.20345 12 10 254 
-0.097108 0.238689 1.18843 254 55 47 
-0.0339971 0.0479122 1.18506 255 9 7 
0.105008 0.113778 1.25928 255 59 59 
-0.201383 0.607058 1.20333 8 7 38 
0.0228787 -0.251256 1.30398 56 53 254 
-0.212639 -0.0403161 1.33423 0 0 0 
-0.0177423 0.227482 1.17932 49 255 53 
-0.192252 0.0713992 1.26781 0 0 0 
-0.184233 0.108182 1.25865 0 0 0 
-0.17931 0.160279 1.2488 0 0 0 
-0.114456 0.181817 1.19642 35 17 15 
-0.0307706 -0.252313 1.27591 60 56 55 
-0.0350297 -0.334374 1.30861 0 0 0 
-0.16384 -0.245042 1.42297 0 0 0 
0.142568 0.259024 1.40302 38 36 37 
-0.115541 -0.305853 1.31633 0 0 0 
-0.061954 -0.463719 1.35485 0 0 0 
-0.0847226 0.533937 1.15622 254 41 39 
-0.180325 0.12462 1.24633 0 0 0 
-0.210203 0.12319 1.3102 0 0 0 
-0.0916223 0.270108 1.18137 60 56 53 
-0.0896282 -0.0429446 1.20494 50 51 254 
0.0218963 -0.00224614 1.19881 255 38 38 
-0.2247 0.554955 1.28327 0 0 0 
-0.164146 0.0511139 1.23202 8 5 3 
-0.0916303 -0.398013 1.34257 0 0 0 
-0.0299739 -0.192866 1.25254 48 254 48 
-0.106422 -0.00908837 1.19185 254 59 57 
0.00642707 -0.270656 1.30332 42 39 254 
-0.198206 -0.000773602 1.25536 0 0 0 
-0.110345 -0.394847 1.37412 0 0 0 
0.0783707 -0.0803272 1.26007 32 31 29 
-0.189606 0.421409 1.4114 0 0 0 
0.0473401 -0.116558 1.25717 44 43 41 
-0.137825 -0.226277 1.30741 0 0 0 
-0.15998 -0.106933 1.26335 0 0 0 
-0.133463 -0.00574956 1.20202 52 56 254 
-0.00264696 0.600734 1.11421 254 26 27 
-0.057407 -0.48118 1.36076 0 0 0 
-0.14686 0.167877 1.21807 250 75 71 
-0.206725 0.0573924 1.28796 0 0 0 
-0.0233213 -0.23162 1.27149 254 57 53 
-0.190815 0.361876 1.2518 0 0 0 
-0.145575 0.528967 1.18175 42 43 254 
-0.1488 -0.239776 1.34162 0 0 0 
-0.216786 0.0562869 1.29452 0 0 0 
-0.0734356 -0.335098 1.3116 0 0 0 
-0.221816 0.0308145 1.32451 0 0 0 
-0.081499 0.118157 1.1921 56 52 53 
-0.0211493 -0.266223 1.28728 51 47 44 
0.036893 -0.0762424 1.24109 6 6 6 
-0.138669 0.472971 1.18441 71 254 74 
-0.132515 -0.106379 1.25012 1 1 1 
-0.169368 0.147812 1.23971 0 0 0 
-0.0468243 -0.312471 1.29688 0 0 0 
-0.15837 -0.00142312 1.21881 73 73 73 
-0.200131 0.449301 1.26123 0 0 0 
-0.196267 0.416789 1.26031 0 0 0 
-0.0664584 -0.298993 1.2935 0 0 0 
-0.136724 0.114881 1.21384 254 42 41 
-0.208928 0.63523 1.19176 0 0 0 
-0.0203987 0.597678 1.1198 31 26 254 
-0.048161 0.599923 1.10867 54 254 47 
-0.127569 0.547891 1.17931 32 33 254 
-0.192445 0.125653 1.27081 0 0 0 
-0.15811 0.256245 1.22153 0 0 0 
-0.0700342 0.427761 1.15718 254 54 52 
0.0633821 -0.103721 1.26961 32 255 32 
-0.0972432 0.169866 1.1907 254 65 64 
-0.0863195 0.57356 1.16066 29 254 32 
-0.0314884 -0.128862 1.23275 46 45 40 
-0.0927338 0.489517 1.16631 50 254 51 
-0.00586635 -0.050646 1.20323 54 52 255 
-0.0836104 0.607825 1.11115 254 9 11 
-0.168741 -0.244936 1.38527 0 0 0 
-0.0597877 0.461872 1.15562 254 39 39 
-0.104623 0.295616 1.19106 26 254 39 
-0.0289269 -0.393029 1.33477 0 0 0 
-0.0287292 0.602952 1.11163 61 56 254 
-0.180724 0.034862 1.23448 0 0 0 
0.00321334 0.214769 1.18862 28 29 255 
-0.0772315 0.599639 1.11615 26 254 25 
-0.0772408 -0.377138 1.32709 0 0 0 
-0.0800643 -0.481575 1.36895 0 0 0 
-0.136379 -0.199863 1.2858 0 0 0 
0.0249738 -0.216175 1.28695 35 33 254 
-0.102153 0.412055 1.16618 19 254 27 
-0.0479491 -0.575769 1.42284 0 0 0 
-0.010673 0.417172 1.16439 11 9 254 
-0.00961426 0.548229 1.14032 51 49 254 
-0.205072 0.09817 1.3041 0 0 0 
-0.210501 0.273263 1.30634 0 0 0 
-0.140717 0.403839 1.18495 254 68 64 
-0.0990553 -0.153793 1.26246 91 86 92 
-0.163538 -0.0956623 1.26208 0 0 0 
-0.170346 -0.218864 1.38349 0 0 0 
-0.150613 -0.105952 1.25776 0 0 0 
-0.206494 0.0294218 1.28005 0 0 0 
-0.0806721 0.586616 1.14794 27 25 254 
-0.054042 -0.436387 1.34103 0 0 0 
-0.181696 -0.13838 1.34666 0 0 0 
-0.114905 -0.28397 1.30862 0 0 0 
-0.0474278 -0.332914 1.30387 0 0 0 
-0.059795 0.433199 1.15537 39 37 38 
-0.0266053 0.18316 1.18352 72 68 65 
-0.165378 0.406281 1.21592 0 0 0 
-0.180209 0.307794 1.23975 0 0 0 
-0.206634 0.257794 1.30149 0 0 0 
-0.190643 0.3127 1.25658 0 0 0 
-0.153277 0.329431 1.21368 0 0 0 
-0.0723244 -0.49421 1.37219 0 0 0 
-0.174938 0.279928 1.24422 0 0 0 
-0.214858 0.155102 1.3217 0 0 0 
-0.0547587 -0.0577583 1.19664 59 254 59 
-0.169458 -0.254427 1.43612 0 0 0 
-0.176899 -0.0630258 1.27881 0 0 0 
-0.13807 0.534859 1.17497 254 44 42 
0.0136005 0.0101909 1.1983 43 44 255 
-0.0102103 -0.0209091 1.18808 51 50 48 
-0.12249 0.602441 1.14213 17 15 254 
-0.0801677 -0.111932 1.22934 254 50 49 
-0.0742025 -0.310761 1.30416 0 0 0 
-0.139481 0.16312 1.21349 254 36 33 
-0.065387 -0.698929 1.41154 0 0 0 
-0.144767 0.148294 1.22069 255 58 54 
-0.198134 0.343711 1.27141 0 0 0 
-0.155976 -0.0539008 1.23706 0 0 0 
0.0822689 -0.069608 1.25568 255 40 39 
-0.0259081 -0.0548527 1.20062 255 34 31 
0.00928032 -0.363106 1.33884 255 69 68 
-0.155286 -0.0336873 1.22842 83 62 65 
-0.0438165 0.2602 1.17827 51 50 48 
-0.0869273 -0.427485 1.3523 0 0 0 
-0.0972074 -0.0498918 1.21771 254 46 46 
-0.128128 0.362267 1.18955 254 56 52 
-0.192064 0.253456 1.26246 0 0 0 
-0.190035 0.379602 1.25614 0 0 0 
-0.0596766 -0.00107885 1.19637 25 254 31 
-0.144343 -0.191464 1.29216 0 0 0 
-0.115916 0.321779 1.18839 51 46 254 
-0.152937 0.0947334 1.22622 58 9 10 
-0.17148 0.00171067 1.24427 1 1 1 
0.00289253 -0.196382 1.26982 40 34 254 
-0.0066465 -0.19093 1.26198 254 25 24 
-0.0850507 0.359823 1.17507 47 43 254 
-0.0683307 -0.406629 1.33786 0 0 0 
-0.0426905 0.30477 1.17088 255 37 36 
0.0533602 0.044517 1.21183 30 28 29 
-0.0550629 0.47976 1.14906 254 28 26 
0.0375201 0.173981 1.20488 49 46 255 
-0.214951 0.000385404 1.279 0 0 0 
-0.0495133 0.268062 1.17505 42 41 255 
-0.144411 0.134854 1.21767 66 255 75 
-0.0684618 -0.0141588 1.19784 51 52 254 
-0.179671 -0.0800121 1.30188 0 0 0 
-0.166714 0.305467 1.2268 0 0 0 
-0.201047 0.0553708 1.2724 0 0 0 
-0.115105 -0.373972 1.36434 0 0 0 
-0.185651 0.543846 1.2112 49 53 230 
-0.214146 0.00401461 1.26648 0 0 0 
-0.00728278 0.028505 1.19011 51 255 51 
-0.094556 -0.410089 1.35237 0 0 0 
-0.14088 0.544037 1.16945 28 27 25 
-0.166714 -0.0459307 1.25269 0 0 0 
-0.146114 -0.133986 1.26577 0 0 0 
-0.0622183 -0.106002 1.22044 57 55 254 
-0.154399 -0.0725363 1.24661 0 0 0 
-0.170429 -0.11797 1.3011 0 0 0 
-0.0835471 -0.0975657 1.22881 44 42 254 
0.0294741 0.472273 1.16182 16 254 5 
-0.183717 0.385701 1.24158 0 0 0 
0.0913148 0.257305 1.23476 255 26 25 
-0.102958 0.0402958 1.1947 254 64 63 
0.0320292 0.112328 1.20528 255 58 58 
-0.180428 0.197241 1.25071 0 0 0 
-0.188509 0.0806794 1.26587 0 0 0 
-0.180055 -0.0559918 1.26956 0 0 0 
-0.0670841 -0.158787 1.24427 55 53 54 
-0.0664432 0.331797 1.17388 40 255 46 
-0.119274 -0.326178 1.34227 0 0 0 
-0.124235 -0.278535 1.31508 0 0 0 
-0.215188 0.600714 1.24104 5 1 1 
0.0463714 -0.165334 1.28796 38 255 40 
-0.129987 0.166711 1.20624 66 54 254 
-0.171938 -0.187818 1.35766 0 0 0 
0.0400609 0.114751 1.21318 51 51 255 
-0.105973 0.0733066 1.2054 27 27 27 
-0.113278 0.608461 1.09533 254 46 45 
-0.161885 0.0993272 1.29423 0 0 0 
0.0120005 0.0208306 1.19422 40 43 255 
-0.0371897 0.344827 1.17004 254 38 37 
-0.000938743 -0.218821 1.27604 56 51 254 
-0.206484 0.468703 1.27219 0 0 0 
-0.0212463 -0.295301 1.29871 55 54 254 
-0.195569 0.104635 1.27603 0 0 0 
-0.0361196 0.596224 1.13303 29 22 254 
-0.0274466 0.0165086 1.1843 255 33 31 
0.0295276 -0.040982 1.21671 57 54 49 
-0.164748 -0.127309 1.28982 0 0 0 
-0.199446 0.498634 1.23727 0 0 0 
0.0187336 -0.123776 1.24725 38 255 39 
-0.0185142 -0.175206 1.2503 254 40 37 
-0.0229411 0.556537 1.13711 57 53 254 
-0.175221 0.438797 1.22198 0 0 0 
-0.129468 -0.181988 1.2679 0 0 0 
-0.0807425 -0.389462 1.33405 0 0 0 
-0.191753 0.276031 1.26103 0 0 0 
-0.0437957 0.117855 1.18875 45 44 42 
-0.0770049 0.481165 1.16022 254 62 61 
-0.181206 -0.0151453 1.24369 0 0 0 
-0.0513628 -0.0686974 1.20284 56 55 254 
-0.156004 -0.044155 1.23503 0 0 0 
-0.188347 0.280975 1.25364 0 0 0 
-0.0392864 -0.326061 1.30362 0 0 0 
-0.193367 0.532753 1.23128 0 0 0 
-0.155707 0.423433 1.20141 66 62 206 
-0.150395 0.246852 1.215 15 48 13 
-0.0438244 -0.233515 1.26703 254 37 31 
-0.0516261 -0.271397 1.27672 90 91 97 
-0.12268 -0.0144953 1.20209 47 254 50 
-0.177839 0.42564 1.22824 0 0 0 
-0.180301 0.289151 1.24745 0 0 0 
-0.192689 -0.0942584 1.35502 0 0 0 
-0.0508541 -0.3839 1.32253 0 0 0 
-0.0375332 0.444131 1.15911 36 36 36 
-0.147741 0.0642772 1.2235 19 19 254 
-0.0869509 0.57698 1.14745 254 30 28 
-0.178349 0.343188 1.23707 0 0 0 
-0.0222863 0.204095 1.18304 45 255 52 
-0.209441 0.212162 1.30566 0 0 0 
0.00975783 0.244542 1.18719 255 34 30 
-0.0688961 0.393694 1.1626 254 47 46 
-0.152917 0.273615 1.21458 1 2 1 
-0.112296 -0.200169 1.26038 0 0 0 
0.00757803 -0.0260476 1.19309 60 255 68 
-0.0670284 -0.051797 1.20126 254 43 43 
-0.166202 0.602 1.15354 254 39 38 
0.0244629 0.0159946 1.20465 255 3 1 
-0.0866212 -0.113002 1.24339 254 45 44 
0.00110315 0.339578 1.1756 23 21 22 
-0.0717684 -0.538272 1.3876 0 0 0 
0.011762 0.348309 1.1771 25 26 254 
-0.0796125 0.608384 1.12615 14 13 11 
-0.164668 0.506578 1.19133 250 55 54 
-0.0769713 0.49888 1.15235 36 34 254 
-0.0930403 0.0785863 1.1971 254 58 57 
-0.0985388 -0.314538 1.31451 0 0 0 
-0.141103 0.511721 1.17927 51 254 47 
-0.128774 0.349589 1.18519 57 53 50 
-0.0157762 -0.129672 1.23899 47 46 44 
0.0271892 -0.0708283 1.23388 36 37 255 
-0.182766 -0.00384974 1.23918 0 0 0 
0.0629052 0.59561 1.15314 254 32 36 
-0.166382 0.528549 1.19539 37 37 37 
-0.0687858 0.476522 1.15049 39 254 42 
-0.0863742 0.184183 1.18593 254 84 80 
-0.145415 0.621486 1.11793 54 49 254 
-0.202542 0.18964 1.30041 0 0 0 
-0.0297234 -0.17244 1.24757 46 41 254 
-0.0386112 0.284169 1.17372 50 254 50 
-0.113792 -0.23317 1.26455 0 0 0 
-0.15903 0.534749 1.19039 0 0 0 
-0.135019 0.565902 1.162 254 38 36 
-0.0154603 0.146383 1.19011 23 22 255 
-0.186752 0.185051 1.26411 0 0 0 
-0.150696 0.601128 1.1661 31 29 254 
-0.0742764 -0.0800313 1.22877 58 56 57 
-0.139111 0.394051 1.18685 54 254 57 
-0.020051 0.441386 1.16422 254 27 27 
-0.142194 0.0838822 1.22169 43 252 37 
-0.106168 0.288143 1.19624 254 38 22 
-0.0461169 0.219296 1.17771 48 47 45 
-0.0496369 -0.0792885 1.21018 49 45 42 
-0.0679751 -0.320799 1.30031 0 0 0 
-0.17183 -0.133561 1.31844 0 0 0 
-0.0082748 -0.345256 1.32741 27 26 32 
-0.0613719 -0.0678114 1.21785 37 36 34 
-0.131487 -0.278296 1.47237 0 0 0 
-0.0604696 -0.601197 1.39404 0 0 0 
-0.088235 0.479815 1.16812 254 42 40 
-0.2208 0.255311 1.34139 0 0 0 
-0.0447541 -0.676311 1.41403 0 0 0 
-0.21833 0.211593 1.35261 0 0 0 
-0.213929 0.0920411 1.31512 0 0 0 
-0.187055 0.176908 1.25715 0 0 0 
-0.179237 -0.14984 1.34601 0 0 0 
-0.153786 0.438705 1.19346 45 254 53 
-0.186892 -0.165595 1.3745 0 0 0 
-0.13626 -0.265053 1.32998 0 0 0 
-0.131745 -0.161071 1.27042 52 37 40 
-0.211839 0.250954 1.30451 0 0 0 
-0.0984065 0.3684 1.17848 59 55 254 
-0.159434 -0.181993 1.32113 0 0 0 
-0.202762 0.143841 1.28545 0 0 0 
-0.213397 0.29026 1.31485 0 0 0 
-0.213167 0.327049 1.30637 0 0 0 
-0.150077 -0.205779 1.31261 0 0 0 
-0.108602 0.364043 1.16859 254 63 62 
-0.175963 -0.0546518 1.26045 0 0 0 
-0.199419 0.461505 1.24815 0 0 0 
-0.134813 -0.257898 1.32229 0 0 0 
-0.209437 0.47314 1.26263 0 0 0 
-0.0794079 -0.45764 1.36286 0 0 0 
-0.208805 0.0396545 1.28809 0 0 0 
-0.0779359 0.543974 1.14576 43 254 42 
-0.206404 0.0615985 1.2809 0 0 0 
-0.193262 0.0617868 1.25741 0 0 0 
-0.0841812 0.526888 1.15838 50 51 254 
-0.160427 -0.240274 1.37462 0 0 0 
-0.185084 0.417057 1.2398 0 0 0 
-0.144221 -0.0188786 1.21311 254 42 42 
-0.190267 0.23542 1.25869 0 0 0 
-0.112188 -0.0520258 1.21924 254 43 45 
-0.122992 -0.360603 1.37941 0 0 0 
-0.162181 0.00766375 1.22853 31 31 254 
-0.208774 0.485371 1.25683 0 0 0 
-0.0656392 -0.48761 1.36555 0 0 0 
-0.213896 0.335778 1.31407 0 0 0 
-0.240269 0.61895 1.24814 0 0 0 
-0.0471322 -0.110692 1.22269 48 45 255 
-0.219648 0.0796112 1.35096 0 0 0 
-0.186315 0.620198 1.10171 11 10 9 
-0.185936 0.205175 1.25605 0 0 0 
-0.213774 0.0729284 1.31708 0 0 0 
-0.140643 -0.155081 1.27051 1 2 2 
-0.165828 -0.189886 1.3454 0 0 0 
-0.192627 0.0292785 1.2591 0 1 1 
-0.164912 0.0702712 1.23724 254 23 22 
-0.21553 0.028855 1.29985 0 0 0 
-0.0969403 0.150203 1.19226 74 254 57 
-0.0892331 -0.487261 1.39472 0 0 0 
-0.184698 -0.124351 1.34374 0 0 0 
-0.169493 -0.201808 1.36852 0 0 0 
-0.0898324 -0.321754 1.31392 0 0 0 
-0.0876448 -0.296242 1.30295 0 0 0 
-0.0132101 -0.475471 1.37102 0 0 0 
-0.209294 0.102799 1.4504 0 0 0 
-0.115023 0.29922 1.19514 28 29 254 
-0.0609747 -0.508611 1.37146 0 0 0 
-0.19241 0.152306 1.26905 0 0 0 
-0.185423 0.227309 1.25438 0 0 0 
-0.0859957 0.302563 1.18188 254 49 45 
-0.102627 -0.0612836 1.21843 36 34 254 
-0.0769186 0.539159 1.16344 35 254 32 
-0.13334 -0.0816808 1.24301 92 90 254 
-0.149169 -0.221456 1.32784 0 0 0 
-0.195922 0.162083 1.27231 0 0 0 
-0.139452 -0.294948 1.37544 0 0 0 
-0.104099 -0.274204 1.29896 0 0 0 
-0.212524 0.414237 1.30175 0 0 0 
-0.229255 0.0594732 1.34283 0 0 0 
-0.172445 0.407028 1.22524 73 70 61 
-0.212195 0.10407 1.31335 0 0 0 
-0.118742 -0.264711 1.30216 0 0 0 
-0.199341 0.0390672 1.26606 0 0 0 
-0.128606 0.323659 1.1983 51 254 55 
-0.185163 0.21573 1.25309 0 0 0 
-0.0987676 -0.139733 1.24756 37 36 34 
-0.165626 0.0916932 1.23806 254 50 50 
-0.185751 -0.151309 1.36866 0 0 0 
-0.212401 0.112184 1.32023 0 0 0 
-0.184751 -0.057648 1.28491 0 0 0 
-0.0168746 0.613236 1.11296 36 31 254 
-0.0312069 -0.644752 1.44581 0 0 0 
-0.222201 -0.01118 1.31901 0 0 0 
-0.184108 -0.102915 1.32163 0 0 0 
-0.00454081 0.0935653 1.1957 255 33 32 
-0.204346 0.0387897 1.27759 0 0 0 
-0.174935 -0.0666865 1.26992 0 0 0 
-0.145262 0.303205 1.20861 254 65 63 
-0.168204 0.202493 1.23195 254 55 51 
-0.243483 0.607821 1.32895 0 0 0 
-0.0172784 0.0600155 1.29164 17 255 17 
-0.17485 0.16985 1.24201 85 84 79 
-0.200835 0.366065 1.26965 0 0 0 
-0.133526 0.0803876 1.21547 254 47 46 
-0.225876 0.00273442 1.31007 0 0 0 
-0.180583 0.13488 1.25155 0 0 0 
-0.187658 0.0126778 1.25109 9 7 252 
-0.200086 0.318906 1.29155 0 0 0 
-0.131144 -0.325056 1.36915 0 0 0 
-0.0875661 -0.125427 1.23768 34 30 254 
-0.206874 0.226093 1.3044 0 0 0 
-0.11918 -0.0803932 1.23673 47 254 51 
-0.238861 0.606636 1.24461 0 0 0 
-0.0836651 0.507175 1.16213 254 60 58 
-0.132222 -0.273646 1.32443 0 0 0 
-0.134171 -0.0410765 1.22148 65 65 254 
-0.129097 0.60472 1.12825 254 26 24 
-0.0334549 0.103644 1.19216 41 41 255 
-0.0740439 0.145882 1.18985 46 255 52 
-0.235466 0.608606 1.23242 0 0 0 
-0.196295 0.347344 1.25205 0 0 0 
-0.0806764 -0.614262 1.40393 0 0 0 
-0.124138 -0.341313 1.36358 0 0 0 
-0.0657313 -0.0218764 1.18644 255 48 48 
-0.203024 0.425521 1.26788 0 0 0 
-0.158854 0.518422 1.19104 32 254 33 
-0.206564 0.538212 1.24715 112 22 22 
-0.0935606 -0.459348 1.38025 0 0 0 
-0.194473 0.503494 1.23049 18 17 15 
-0.10653 -0.402071 1.36912 0 0 0 
-0.159862 -0.0933354 1.25561 0 0 0 
-0.14004 0.287151 1.20668 51 40 254 
-0.147552 -0.166455 1.28673 0 0 0 
-0.172565 0.0246259 1.23527 0 0 0 
-0.0915014 -0.450407 1.32918 0 0 0 
-0.122864 0.484583 1.17934 2 0 0 
-0.106933 0.20249 1.1939 0 0 0 
-0.0476164 -0.620751 1.42078 0 0 0 
-0.192163 0.113332 1.26917 0 0 0 
-0.143256 0.0310856 1.21361 0 254 1 
-0.205612 0.169028 1.28837 0 0 0 
-0.183742 0.45605 1.22831 0 0 0 
-0.164576 0.320099 1.22355 0 0 0 
-0.0701182 -0.142569 1.24006 0 0 0 
-0.151718 0.0795194 1.22817 74 79 85 
-0.237216 0.109597 1.46929 0 0 0 
-0.196368 0.0873212 1.4741 0 0 0 
-0.14565 0.520903 1.18597 46 47 254 
-0.176235 0.236355 1.24062 124 37 37 
-0.21441 0.130822 1.31846 0 0 0 
-0.158847 -0.115672 1.27066 0 0 0 
-0.12372 -0.325965 1.46904 0 0 0 
-0.139122 0.211666 1.20994 254 48 45 
0.0315419 -0.00371669 1.23213 255 27 26 
-0.186307 0.118666 1.2609 0 0 0 
-0.220378 0.112005 1.48479 0 0 0 
-0.187552 0.166474 1.2608 0 0 0 
-0.170551 0.378454 1.22388 255 80 79 
-0.182223 0.318558 1.24848 0 0 0 
-0.102844 0.314625 1.19025 43 42 37 
-0.192413 0.29219 1.2604 0 0 0 
-0.175993 0.257618 1.23794 35 150 46 
-0.217658 0.12381 1.38559 0 0 0 
-0.0508649 -0.629112 1.38706 0 0 0 
-0.22019 0.162685 1.37115 0 0 0 
-0.0967921 -0.468901 1.40259 0 0 0 
-0.217872 0.308477 1.34503 0 0 0 
-0.199469 -0.115614 1.36904 0 0 0 
-0.225313 0.476586 1.33954 0 0 0 
-0.173475 -0.0915164 1.28805 254 44 40 
-0.218314 0.276329 1.35145 0 0 0 
-0.19624 -0.132802 1.37546 0 0 0 
-0.211417 0.34104 1.30307 0 0 0 
-0.177742 -0.101776 1.30182 2 1 2 
-0.135014 -0.190717 1.53301 0 0 0 
-0.218613 0.332795 1.33942 0 0 0 
-0.103676 -0.436958 1.40003 0 0 0 
-0.213785 0.442306 1.37623 0 0 0 
-0.196656 0.139338 1.27686 73 255 60 
-0.178336 -0.113604 1.31599 0 0 0 
-0.158429 -0.256803 1.38427 0 0 0 
-0.073873 -0.562006 1.40771 0 0 0 
-0.216704 0.325012 1.32256 0 0 0 
-0.133522 -0.331444 1.38241 0 0 0 
-0.114897 -0.32182 1.32515 0 0 0 
-0.144312 -0.302586 1.39024 0 0 0 
-0.2293 0.0744446 1.35972 0 0 0 
-0.215057 0.410715 1.33265 0 0 0 
-0.214464 0.355346 1.31267 0 0 0 
-0.157965 -0.224024 1.34941 0 0 0 
-0.0977181 -0.45182 1.39342 0 0 0 
-0.199962 0.301577 1.28319 0 1 0 
-0.150004 -0.288473 1.38877 0 0 0 
-0.218657 0.19916 1.34051 0 0 0 
-0.201916 -0.0781212 1.34786 0 0 0 
-0.20867 -0.0843265 1.36889 0 0 0 
-0.217914 0.207782 1.31866 0 0 0 
-0.216608 0.382826 1.32501 0 0 0 
-0.219372 -0.0317835 1.33813 0 0 0 
-0.180042 -0.183057 1.38005 0 0 0 
-0.214283 0.317709 1.3161 0 0 0 
-0.221832 0.175364 1.35711 0 0 0 
-0.0708573 -0.522907 1.38271 0 0 0 
-0.218815 0.205106 1.37202 0 0 0 
-0.213062 0.264713 1.31111 0 0 0 
-0.217348 0.0666648 1.43063 0 0 0 
-0.10072 -0.390711 1.35176 0 0 0 
-0.0740417 -0.60467 1.41228 0 0 0 
-0.157965 -0.205546 1.3384 0 0 0 
-0.212802 0.14312 1.30717 0 0 0 
-0.116145 -0.404404 1.40045 0 0 0 
-0.21528 0.228088 1.31964 0 0 0 
-0.0863084 -0.470122 1.3754 0 0 0 
-0.206639 -0.0994515 1.36956 0 0 0 
-0.195123 0.067957 1.27756 35 34 254 
-0.163375 -0.164465 1.31662 10 7 7 
-0.205174 0.119176 1.29755 0 0 0 
-0.16309 0.388935 1.2157 48 254 62 
-0.21751 0.190376 1.33216 0 0 0 
-0.115488 -0.337987 1.34059 0 0 0 
-0.190708 -0.0467515 1.28566 51 50 48 
-0.205765 0.152583 1.29061 0 0 0 
-0.228479 0.0376728 1.34286 0 0 0 
-0.217175 0.478588 1.27309 0 0 0 
-0.111503 -0.415882 1.39725 0 0 0 
-0.150988 -0.183007 1.30673 13 20 134 
-0.218461 0.161846 1.38784 0 0 0 
-0.224113 -0.0141376 1.32822 0 0 0 
-0.220538 0.118422 1.35694 0 0 0 
-0.145959 -0.216651 1.31342 14 9 6 
-0.217178 0.0836407 1.3396 0 0 0 
-0.191015 -0.154759 1.37928 0 0 0 
-0.122547 -0.37476 1.39203 0 0 0 
-0.202361 0.39515 1.27189 0 0 0 
-0.228902 0.00402296 1.32432 0 0 0 
-0.230718 0.056315 1.35917 0 0 0 
-0.217604 0.303343 1.33195 0 0 0 
-0.166618 -0.174232 1.33438 0 0 0 
-0.215634 0.141688 1.32398 0 0 0 
-0.152285 -0.147831 1.27687 48 254 50 
-0.218225 0.155896 1.33908 0 0 0 
-0.11749 -0.386651 1.39562 0 0 0 
-0.138252 -0.268981 1.34111 0 0 0 
-0.147801 -0.25053 1.35213 0 0 0 
-0.169571 0.348568 1.22489 53 41 254 
-0.106078 -0.367669 1.4625 0 0 0 
-0.185895 0.0316514 1.25099 41 254 51 
-0.221759 0.0894488 1.35388 0 0 0 
-0.229843 0.0167349 1.3631 0 0 0 
-0.202604 0.406942 1.27176 0 0 0 
-0.175531 -0.243758 1.42131 0 0 0 
-0.189831 0.4916 1.21762 45 254 35 
-0.0949031 -0.283452 1.29846 104 106 114 
-0.162014 0.432832 1.21345 49 45 254 
-0.194619 0.429779 1.25212 47 254 43 
-0.231006 0.567379 1.28064 231 57 58 
-0.0925252 -0.484025 1.40272 0 0 0 
-0.216305 -0.0246192 1.3262 0 0 0 
-0.158583 -0.127597 1.27511 50 46 43 
-0.205877 0.350258 1.28071 0 0 0 
-0.245364 0.60874 1.2701 1 0 0 
-0.168482 -0.0734302 1.25799 33 254 31 
-0.225363 -0.0275675 1.35437 0 0 0 
-0.137509 -0.322628 1.39337 0 0 0 
-0.172829 0.116345 1.48477 0 0 0 
-0.105988 -0.390544 1.4625 0 0 0 
-0.201683 -0.00383758 1.26585 254 52 51 
-0.184252 0.362111 1.24277 79 75 64 
-0.216225 0.29256 1.32635 0 0 0 
-0.197489 -0.0342197 1.28337 44 252 42 
-0.168715 -0.210151 1.37368 0 0 0 
-0.219184 0.241786 1.3332 0 0 0 
-0.22485 0.506389 1.30528 0 0 0 
-0.234695 0.607291 1.31055 0 0 0 
-0.230099 -0.0190943 1.36053 0 0 0 
-0.0728043 -0.532558 1.43916 0 0 0 
-0.217406 0.250794 1.36665 0 0 0 
-0.171756 0.279478 1.23269 46 40 254 
-0.230855 0.0475281 1.3663 0 0 0 
-0.221117 0.0482654 1.31476 0 0 0 
-0.203803 0.509874 1.24055 54 51 254 
-0.212658 -0.0757092 1.3725 0 0 0 
-0.21382 0.21531 1.39922 0 0 0 
-0.221335 0.0142477 1.31389 0 0 0 
-0.163492 -0.228666 1.37269 0 0 0 
-0.121626 -0.315228 1.33397 0 0 0 
-0.208266 0.158181 1.30228 0 0 0 
-0.196663 -0.0463448 1.30141 0 0 0 
-0.103633 0.610761 1.11536 14 254 21 
-0.194443 0.178131 1.26722 254 60 56 
-0.222371 -0.0431432 1.3617 0 0 0 
-0.226323 0.546116 1.2864 39 38 137 
-0.215126 0.622078 1.4406 0 0 0 
-0.155437 0.348044 1.21308 254 72 71 
-0.227565 -0.0166387 1.34688 0 0 0 
-0.0767209 -0.522031 1.39112 0 0 0 
-0.213169 0.543917 1.25439 254 50 49 
-0.21866 0.0375694 1.30838 0 0 0 
-0.225933 0.0256798 1.33812 0 0 0 
-0.145954 -0.181289 1.28631 30 26 254 
-0.199746 0.220782 1.29379 0 0 0 
-0.126023 -0.242566 1.29522 34 255 31 
-0.200657 0.439213 1.26438 255 42 41 
-0.168799 0.253909 1.23067 68 64 53 
-0.136018 -0.288043 1.35949 0 0 0 
-0.0765492 -0.538419 1.39737 0 0 0 
-0.219772 0.108223 1.35615 0 0 0 
-0.229776 0.0165729 1.34932 0 0 0 
-0.218733 0.467577 1.30314 0 0 0 
-0.109716 -0.348648 1.33448 0 0 0 
-0.204557 0.478596 1.24806 67 253 69 
-0.164651 -0.114054 1.2882 51 50 45 
-0.220932 0.146489 1.35731 0 0 0 
-0.222336 0.52352 1.28298 5 1 1 
-0.200166 0.0287509 1.27006 54 52 254 
-0.105923 -0.370034 1.34072 0 0 0 
-0.16899 -0.14969 1.32051 0 0 0 
-0.083096 -0.512042 1.39506 0 0 0 
-0.191772 0.419939 1.24787 49 254 62 
-0.216835 0.206192 1.32989 0 0 0 
-0.0852123 -0.0519745 1.20856 255 32 32 
-0.170932 0.619803 1.12862 3 0 0 
-0.226364 0.0512338 1.41359 0 0 0 
-0.214762 0.432296 1.30826 0 0 0 
-0.230104 0.0288787 1.39038 0 0 0 
-0.216288 0.493005 1.26823 1 0 0 
-0.187208 0.300207 1.2501 254 14 11 
-0.119673 0.173563 1.20086 8 254 16 
-0.209197 0.112064 1.30752 0 0 0 
-0.170861 -0.0852557 1.27537 254 67 66 
-0.203352 0.0194138 1.26717 30 30 28 
-0.162973 0.279473 1.22384 66 63 54 
-0.176811 -0.170203 1.35872 0 0 0 
-0.0982005 0.254272 1.188 49 39 37 
-0.215848 0.348639 1.32022 0 0 0 
-0.215425 0.0161404 1.30428 13 13 10 
-0.233225 0.559332 1.33007 0 0 0 
-0.2178 0.44061 1.33241 0 0 0 
-0.231474 0.556993 1.30812 0 0 0 
-0.0899594 -0.420656 1.3568 0 0 0 
-0.224714 0.0493951 1.33243 0 0 0 
-0.233758 0.00480213 1.33906 0 0 0 
-0.252207 0.608745 1.29918 0 0 0 
-0.167934 -0.0537799 1.24151 89 88 86 
-0.177835 0.143874 1.24706 53 52 48 
-0.127427 -0.357588 1.39139 0 0 0 
-0.214003 -0.0480899 1.34839 0 0 0 
-0.235527 0.60636 1.28918 9 1 1 
-0.214955 0.240914 1.31599 0 0 0 
-0.129123 0.187227 1.20355 10 2 0 
-0.210451 0.16543 1.313 0 0 0 
-0.159214 0.177717 1.23019 254 90 86 
-0.237231 0.0118581 1.37057 0 0 0 
-0.213809 -0.00978586 1.29425 78 85 113 
-0.196528 0.52248 1.22988 254 57 53 
-0.145475 -0.262486 1.35525 0 0 0 
-0.0672555 0.44201 1.1571 26 254 26 
-0.173378 -0.0250743 1.23743 32 254 37 
-0.20198 0.126716 1.28416 20 25 10 
-0.244209 0.610439 1.25519 0 0 0 
-0.145267 0.403122 1.19366 21 254 32 
-0.0909427 -0.478894 1.39342 0 0 0 
-0.186458 -0.109663 1.32825 0 0 0 
-0.105191 -0.172127 1.26056 254 37 35 
-0.229107 0.0280705 1.36497 0 0 0 
-0.173424 0.418954 1.22439 254 57 53 
-0.204041 -0.02623 1.29349 56 199 30 
-0.20899 0.33989 1.29293 0 0 0 
-0.0898889 -0.440448 1.36134 0 0 0 
-0.20122 0.542309 1.23128 254 41 40 
-0.2132 0.312918 1.30097 0 0 0 
-0.208335 0.0145078 1.28212 13 13 15 
-0.108619 0.350871 1.17498 254 45 41 
-0.17736 0.523748 1.20743 30 30 30 
-0.186792 -0.090249 1.31918 0 0 0 
-0.160248 0.270022 1.22025 254 49 45 
-0.177184 0.361591 1.23332 61 58 254 
-0.192147 -0.0817387 1.32382 0 0 0 
-0.226556 -0.0350609 1.37298 0 0 0 
-0.211779 0.081748 1.30602 0 0 0 
-0.14688 0.343426 1.20538 70 67 62 
-0.114608 0.149735 1.19959 255 53 49 
0.0187264 -0.0301371 1.20469 89 254 109 
0.0641483 0.0537425 1.21802 255 21 21 
0.0495934 -0.0540329 1.23289 254 71 70 
0.00400787 -0.139704 1.24841 25 254 18 
-0.00982552 -0.387732 1.34087 0 0 0 
-0.0158677 -0.0329398 1.1917 69 64 254 
0.0404634 -0.214772 1.29467 56 54 55 
0.110102 0.128523 1.25577 30 28 255 
-0.0336566 -0.26517 1.28257 0 0 0 
-0.0666572 -0.694892 1.4224 0 0 0 
0.00339444 -0.285881 1.30518 0 0 0 
0.0327035 -0.0216007 1.20837 254 82 78 
0.0247797 -0.263675 1.30584 250 56 53 
-0.0162357 -0.0859149 1.22119 62 60 61 
-0.0337143 -0.402885 1.33598 0 0 0 
0.0582614 -0.0692369 1.246 60 58 59 
0.0585766 -0.139575 1.27218 21 254 37 
-0.0113953 -0.16914 1.25348 38 26 27 
-0.0685704 0.0954406 1.19065 0 1 0 
0.100886 0.449627 1.21941 35 35 35 
-0.0147383 -0.280531 1.29511 0 0 0 
0.088399 0.0520215 1.24638 33 32 30 
0.0421949 -0.153856 1.27209 254 64 63 
0.120307 -0.0211401 1.37465 54 255 59 
0.0601298 0.11224 1.22314 34 35 255 
0.032091 -0.141468 1.26175 55 55 254 
-0.0225304 -0.619128 1.4154 0 0 0 
0.0931674 0.594743 1.18105 37 254 32 
-0.010385 -0.403321 1.3468 0 0 0 
-0.052858 -0.281066 1.28308 0 0 0 
0.0592145 -0.0851973 1.25283 48 49 254 
0.0201804 -0.188293 1.27382 39 30 31 
-0.00704717 -0.248753 1.28464 0 0 0 
0.0396467 -0.0534641 1.22446 43 254 42 
-0.057235 0.600028 1.11251 44 254 51 
0.0893739 0.00221108 1.24283 22 18 15 
-0.000331164 0.0543756 1.19034 21 19 254 
0.0515342 0.209759 1.20733 52 50 51 
0.03701 0.104354 1.20728 68 255 59 
-0.00212191 0.104113 1.19385 254 48 46 
0.0519922 0.603401 1.15205 49 253 58 
0.0540481 0.0512255 1.2198 13 14 254 
-0.0357189 -0.372436 1.32284 0 0 0 
0.0250741 0.00653693 1.19645 63 62 60 
0.0333765 0.0640169 1.20338 255 51 50 
-0.023079 -0.0698017 1.20868 254 66 62 
-0.0435338 0.229769 1.17882 42 39 36 
-0.020047 -0.397655 1.33984 0 0 0 
-0.0267061 0.267508 1.17799 55 254 60 
-0.0265802 -0.0199232 1.18419 64 65 254 
0.022227 -0.0165793 1.19798 52 254 71 
0.0759826 0.292536 1.21712 36 34 255 
0.0589625 0.00425284 1.21804 254 53 52 
-0.0351732 -0.105133 1.21554 0 0 0 
-0.0285347 -0.0923095 1.22165 64 205 45 
-0.02991 -0.618374 1.3963 0 0 0 
-0.0480867 -0.553424 1.385 0 0 0 
0.0424235 -0.167251 1.27419 58 42 43 
-0.038391 -0.290558 1.28872 0 0 0 
0.0494254 -0.073943 1.2447 39 38 34 
0.0119159 0.0577478 1.20098 51 254 59 
0.000388154 -0.0739363 1.2214 70 66 254 
0.0563717 0.175017 1.21502 54 255 46 
0.0476243 0.100122 1.21455 3 3 255 
-0.0157026 -0.182468 1.25761 0 0 0 
-0.131457 0.582881 1.16425 27 167 41 
0.0295766 -0.0971557 1.24288 254 65 65 
-0.0840041 0.373005 1.17037 0 0 0 
0.0549141 0.468832 1.17572 66 64 254 
0.0260628 -0.0588906 1.22401 254 46 45 
0.0521477 -0.0623802 1.23932 69 65 64 
0.118096 0.340382 1.24923 255 44 43 
0.0617572 0.244337 1.21007 31 30 254 
-0.00108525 -0.131938 1.24255 38 36 37 
0.0316109 -0.198861 1.28038 254 39 29 
0.0958605 0.0616608 1.25237 255 27 26 
-0.017409 -0.151668 1.2422 1 1 2 
0.0664003 -0.0714578 1.25182 53 53 53 
-0.0407317 0.602041 1.12345 71 68 63 
-0.0108782 0.521609 1.14911 36 35 33 
0.0641819 -0.0425316 1.23685 52 254 59 
0.099896 0.312892 1.23037 55 54 52 
0.00967488 0.272502 1.18433 254 45 44 
0.00208747 -0.109068 1.2366 70 69 65 
-0.0406264 0.532405 1.14517 54 254 53 
-0.0389508 0.0797342 1.18927 55 254 73 
0.0580574 -0.252267 1.32261 254 82 81 
0.0602615 0.585367 1.15847 22 22 20 
0.0613467 -0.0319341 1.22636 255 89 88 
-0.0628803 -0.256005 1.277 0 0 0 
-0.0153692 -0.0529875 1.19762 71 254 81 
-0.067128 -0.535035 1.40182 0 0 0 
0.0594647 0.289767 1.20282 38 39 255 
0.00254595 -0.0412942 1.20314 85 84 254 
0.100801 0.470977 1.21457 254 36 34 
0.0164337 -0.203706 1.27694 54 54 254 
0.0582888 -0.00796862 1.20862 84 79 254 
-0.0162895 0.58551 1.13489 72 71 66 
-0.0397955 -0.439503 1.34745 0 0 0 
0.00406547 0.589378 1.13804 69 64 254 
-0.129565 0.0662848 1.21635 0 0 0 
-0.068204 0.0337795 1.1846 1 3 1 
0.00551557 0.0776263 1.19759 31 254 38 
-0.0494936 0.522326 1.14799 254 49 47 
0.0101559 -0.079775 1.22873 35 254 44 
0.0573947 0.554273 1.162 53 254 61 
0.102735 0.00714452 1.25586 255 46 45 
0.097938 0.074474 1.24934 255 42 41 
0.0472223 -0.13307 1.26364 44 254 43 
0.0679273 0.28613 1.21211 32 31 29 
0.093249 0.148109 1.24254 255 38 36 
-0.0123235 -0.418676 1.35269 0 0 0 
0.101585 0.169605 1.24051 45 43 255 
0.0799806 0.222312 1.22637 60 58 61 
0.0373074 0.150048 1.20489 19 255 29 
0.0872544 0.193221 1.23853 41 39 255 
0.0208205 0.162526 1.19575 53 48 255 
0.0192566 -0.277981 1.31089 43 46 39 
0.0777192 0.0841072 1.23919 25 255 38 
0.0845817 0.507525 1.19653 254 43 41 
-0.0477657 0.247094 1.17894 253 44 40 
-0.00775638 0.377245 1.16947 34 36 254 
-0.0440768 0.466632 1.15359 44 254 44 
0.0132403 -0.314034 1.32053 0 0 0 
0.0202382 -0.0493546 1.21383 48 45 254 
0.0070866 0.226613 1.18556 33 34 254 
0.0415507 0.610434 1.12447 252 36 35 
-0.0603359 -0.31286 1.29789 0 0 0 
0.104222 0.0541082 1.25584 255 16 15 
0.0377562 0.558932 1.15144 247 53 54 
-0.0255676 -0.0809386 1.21469 76 76 68 
-0.16554 0.621778 1.0929 0 0 0 
0.0775024 0.00823353 1.23068 40 38 254 
0.06779 0.299285 1.21159 23 22 20 
0.0535912 -0.0228976 1.21667 72 254 82 
0.0677675 0.218365 1.21715 69 70 254 
-0.088813 0.256547 1.18202 0 0 0 
0.0253167 0.29308 1.18832 57 52 254 
0.023604 -0.160232 1.26665 64 63 59 
0.0981997 0.120563 1.24339 26 255 29 
-0.0288714 0.581645 1.137 69 64 254 
0.0813176 -0.249305 1.34898 52 50 51 
0.0710379 0.065187 1.23051 37 36 32 
0.0472379 -0.143381 1.26968 49 48 254 
0.000497507 -0.382775 1.34534 0 0 0 
-0.0415051 -0.269683 1.2749 0 0 0 
-0.0328646 0.519949 1.14924 60 254 54 
0.0473698 0.190842 1.20815 254 43 39 
0.0206565 -0.237691 1.28885 252 73 72 
-0.0243475 -0.446153 1.35867 0 0 0 
0.025542 -0.125889 1.2573 15 13 254 
0.0684932 0.190576 1.22093 40 36 35 
0.124806 0.402459 1.25375 33 32 30 
-0.0436014 0.42843 1.16684 254 47 45 
-0.00838989 0.336741 1.17302 35 36 254 
-0.0218832 0.355878 1.1695 39 37 254 
0.0246289 0.452579 1.17003 111 130 254 
-0.0488434 0.0835945 1.19056 68 66 254 
6.43343e-05 -0.0177252 1.18958 44 39 35 
0.0947285 0.298323 1.23219 37 35 255 
0.0453636 0.125336 1.2117 254 22 21 
-0.0342883 -0.222305 1.26304 0 0 0 
0.0575413 0.186628 1.21726 32 254 41 
-0.00102287 -0.367274 1.33396 0 0 0 
-0.0600982 0.578771 1.12743 52 254 48 
0.0377081 0.0730341 1.21089 22 23 254 
0.0493397 -0.0356822 1.22311 254 97 93 
-0.157283 0.605258 1.15905 2 13 2 
-0.0695582 0.380909 1.16978 0 0 0 
-0.0345486 -0.350157 1.31408 0 0 0 
-0.0803714 -0.27523 1.2904 0 0 0 
0.0526979 0.328526 1.19817 31 32 254 
-0.0639757 -0.33617 1.30654 0 0 0 
0.000890693 0.431113 1.1698 59 254 70 
-0.0764717 -0.363922 1.32481 0 0 0 
-0.0510137 -0.541439 1.38208 0 0 0 
0.0682726 0.471633 1.18329 61 57 56 
-0.0125381 0.260669 1.17882 56 254 58 
-0.0429465 -0.343842 1.30792 0 0 0 
-0.0326954 -0.467537 1.36366 0 0 0 
-0.0948431 -0.337283 1.32293 0 0 0 
0.026783 0.0721367 1.20453 44 44 255 
0.0702381 0.485937 1.17864 254 57 57 
0.0229986 -0.0813013 1.2373 28 254 34 
-0.033592 -0.312077 1.30193 0 0 0 
0.0342571 0.000386753 1.20214 9 8 6 
0.112036 0.258296 1.24483 255 66 64 
0.08804 0.288893 1.2305 47 45 255 
0.00934607 0.289988 1.18832 56 46 254 
-0.0400126 -0.521521 1.37741 0 0 0 
-0.00538666 -0.273857 1.29793 0 0 0 
0.0752096 0.104423 1.23444 255 57 55 
-0.0141391 -0.0603635 1.20684 63 58 254 
0.0902907 0.204635 1.23664 255 50 46 
-0.0565472 0.387985 1.16379 19 20 14 
0.0451 0.297773 1.19903 254 27 26 
0.0840424 0.601139 1.15657 254 62 57 
0.0747682 0.267466 1.21818 39 255 41 
0.0870672 0.120279 1.24523 28 255 27 
-0.033745 0.240866 1.17816 65 254 64 
-0.0633812 0.19297 1.18334 1 2 0 
-0.0368613 0.251746 1.17733 69 254 63 
-0.0728521 0.360438 1.17244 0 0 0 
-0.00999066 0.600787 1.13788 47 42 254 
0.0169672 0.0382266 1.19438 47 48 254 
-0.0994206 0.208694 1.1883 0 0 0 
0.0654132 0.276765 1.21339 255 11 10 
-0.130992 0.193286 1.21542 0 0 0 
-0.0375359 0.192297 1.18104 33 254 78 
0.109026 0.345783 1.23644 254 37 36 
-0.0544639 0.597628 1.13067 77 69 254 
0.0127005 0.395077 1.17187 45 46 254 
0.0711754 0.089159 1.23253 19 20 255 
-0.0743979 0.065226 1.18859 0 0 0 
-0.0606274 0.27758 1.17586 1 0 3 
-0.0319102 -0.509206 1.37839 0 0 0 
-0.00640172 0.466216 1.15577 9 254 18 
0.0395854 -0.124027 1.26124 53 51 254 
0.0755445 0.38285 1.20426 53 49 50 
-0.0347628 -0.499305 1.37624 0 0 0 
0.0407272 0.339374 1.19035 48 254 47 
-0.0477905 0.558579 1.13667 37 32 29 
-0.0821427 0.0783407 1.19433 0 0 0 
-0.0708329 0.597267 1.13068 28 27 22 
0.049874 0.44316 1.18758 254 63 63 
-0.0406597 -0.483661 1.36275 0 0 0 
0.0761232 -0.0396262 1.23889 82 83 255 
0.0595371 0.502425 1.17258 254 66 71 
0.0543999 0.065652 1.21999 32 255 33 
0.0513488 -0.31762 1.39571 254 77 73 
0.00549968 0.496524 1.15389 17 14 254 
0.021252 0.427189 1.17545 254 67 66 
-0.118918 0.076629 1.20805 0 0 0 
-0.0845734 -0.151599 1.24414 0 0 0 
