ply                 
format ascii 1.0    
element vertex 1307
property float x    
property float y    
property float z    
property uchar red  
property uchar green
property uchar blue 
end_header          
-0.102451 0.513685 1.16951 37 38 254 
-0.108016 -0.110108 1.24095 0 0 0 
-0.0443454 -0.143831 1.22779 56 55 51 
-0.0816227 0.245397 1.18202 254 73 73 
-0.141983 0.619651 1.0841 3 1 1 
0.00370682 0.00426837 1.19096 4 7 255 
-0.070489 -0.347395 1.31636 0 0 0 
-0.1372 -0.0597153 1.23545 0 0 0 
-0.0424448 -0.033141 1.1868 75 255 68 
-0.0204526 -0.00755231 1.17958 0 0 0 
-0.0844853 0.608923 1.09558 252 56 53 
-0.0908355 -0.156256 1.25018 0 0 0 
-0.0990392 -0.342902 1.3235 0 0 0 
-0.0803313 0.0905102 1.19306 60 58 59 
-0.0656621 -0.0100999 1.18222 61 254 63 
-0.118132 0.383205 1.17469 0 0 0 
-0.122957 0.614584 1.08749 30 106 30 
-0.0589892 0.124961 1.18685 41 254 43 
0.00536118 -0.00902163 1.18463 250 68 68 
-0.044204 0.0303038 1.18352 0 0 0 
-0.0709981 0.303241 1.17578 254 65 64 
-0.0733961 -0.152703 1.24092 0 0 0 
-0.0575502 0.0278384 1.18562 0 0 0 
-0.0554231 -0.247447 1.27112 0 0 0 
-0.117205 0.238373 1.19443 0 0 0 
-0.112684 0.59694 1.14909 27 25 26 
0.0163442 0.33097 1.18024 23 21 22 
-0.0996769 0.027681 1.19264 62 254 54 
-0.109912 0.168121 1.19581 1 1 1 
-0.0570262 -0.68247 1.41304 0 0 0 
-0.0930172 0.536737 1.16574 34 254 33 
-0.05418 -0.632298 1.41429 0 0 0 
-0.0569955 -0.657531 1.44723 0 0 0 
0.0294604 -0.0488348 1.22122 77 255 49 
-0.0377323 -0.557181 1.39138 0 0 0 
-0.100875 0.52509 1.16878 37 254 30 
-0.186445 0.346733 1.24902 0 0 0 
-0.0761686 -0.558503 1.3951 0 0 0 
-0.165528 -0.270582 1.40601 0 0 0 
-0.159975 -0.184806 1.3239 0 0 0 
-0.117574 0.44123 1.15838 41 42 254 
-0.182107 -0.189322 1.39638 0 0 0 
-0.0503073 -0.157053 1.2343 62 60 63 
-0.215499 0.0802768 1.32487 0 0 0 
-0.106539 0.449944 1.17818 30 28 29 
-0.169966 0.192981 1.23444 0 0 0 
-0.135532 0.317873 1.20256 75 72 253 
-0.188798 0.100261 1.26527 0 0 0 
0.0101617 -0.332617 1.32967 41 40 254 
-0.0629402 -0.533139 1.37989 0 0 0 
-0.0753626 -0.598097 1.39696 0 0 0 
-0.00287954 -0.0615239 1.21227 44 42 255 
0.0327522 -0.265 1.30671 11 8 254 
-0.20084 0.111222 1.28665 0 0 0 
-0.0983798 -0.1807 1.25756 34 255 36 
0.0557471 0.22403 1.20719 23 24 255 
-0.0841801 0.551771 1.15136 21 22 254 
-0.228979 0.604148 1.26163 0 0 0 
0.00252442 -0.119468 1.24097 255 43 42 
-0.142168 -0.0989041 1.24931 0 0 0 
-0.199711 0.179427 1.29136 0 0 0 
-0.111781 -0.0421074 1.21293 62 63 254 
0.000291266 -0.241654 1.28677 60 254 63 
-0.195482 0.0917892 1.28259 0 0 0 
0.000227444 0.0200629 1.19173 255 38 38 
-0.173408 0.0701322 1.24514 0 0 0 
-0.17548 0.246569 1.23949 0 0 0 
-0.119492 -0.0557158 1.22425 55 56 254 
-0.185761 0.0571162 1.25316 0 0 0 
-0.0700537 -0.196529 1.24366 254 57 53 
-0.186502 0.142827 1.25693 0 0 0 
-0.170232 0.093835 1.24483 0 0 0 
-0.198859 0.0854534 1.28956 0 0 0 
-0.0791008 -0.0454029 1.20224 44 42 43 
-0.126659 0.52552 1.17544 45 44 42 
-0.125093 -0.128548 1.25358 0 0 0 
-0.215765 0.532853 1.27571 0 0 0 
-0.118523 0.0532762 1.20232 12 10 254 
-0.0971529 0.237755 1.18744 254 55 47 
-0.0348873 0.0481072 1.18392 255 9 7 
0.103215 0.113303 1.25707 255 59 59 
-0.199995 0.604413 1.20264 8 7 38 
0.0209984 -0.248402 1.30144 56 53 254 
-0.211999 -0.0389925 1.33236 0 0 0 
-0.01837 0.226441 1.17818 49 255 53 
-0.191761 0.0717731 1.26651 0 0 0 
-0.183756 0.108281 1.2574 0 0 0 
-0.178811 0.159989 1.24756 0 0 0 
-0.114509 0.181256 1.19536 35 17 15 
-0.0322082 -0.249542 1.27386 60 56 55 
-0.0365614 -0.330721 1.30619 0 0 0 
-0.163754 -0.24171 1.41973 0 0 0 
0.140686 0.25716 1.39892 38 36 37 
-0.116287 -0.302419 1.31412 0 0 0 
-0.0634391 -0.458579 1.35195 0 0 0 
-0.0842984 0.531364 1.15543 254 41 39 
-0.179881 0.124595 1.24517 0 0 0 
-0.209344 0.123259 1.30859 0 0 0 
-0.0916531 0.268974 1.18042 60 56 53 
-0.0902749 -0.0420014 1.20378 50 51 254 
0.0204941 -0.00178025 1.1974 255 38 38 
-0.223002 0.552367 1.28207 0 0 0 
-0.164002 0.0515455 1.23091 8 5 3 
-0.0927234 -0.393596 1.33994 0 0 0 
-0.0313217 -0.190689 1.25073 48 254 48 
-0.106946 -0.00838011 1.19077 254 59 57 
0.00465219 -0.267621 1.30084 42 39 254 
-0.197853 9.92809e-05 1.25418 0 0 0 
-0.111192 -0.390294 1.37118 0 0 0 
0.076365 -0.079166 1.25791 32 31 29 
-0.188007 0.419137 1.40869 0 0 0 
0.0455161 -0.115066 1.25511 44 43 41 
-0.138241 -0.223567 1.30541 0 0 0 
-0.160119 -0.105314 1.26185 0 0 0 
-0.133764 -0.00499836 1.20094 52 56 254 
-0.00262634 0.597711 1.11349 254 26 27 
-0.0588871 -0.475799 1.35793 0 0 0 
-0.146641 0.167493 1.21702 250 75 71 
-0.206092 0.0579091 1.28654 0 0 0 
-0.0247831 -0.22905 1.26946 254 57 53 
-0.189812 0.360374 1.25068 0 0 0 
-0.144735 0.526556 1.18098 42 43 254 
-0.149062 -0.236815 1.33928 0 0 0 
-0.21606 0.0568351 1.29309 0 0 0 
-0.0746202 -0.331423 1.30928 0 0 0 
-0.221 0.0315911 1.3228 0 0 0 
-0.0819111 0.11796 1.19099 56 52 53 
-0.0226847 -0.263286 1.28507 51 47 44 
0.0352385 -0.0751132 1.23923 6 6 6 
-0.137976 0.470818 1.1836 71 254 74 
-0.132872 -0.104819 1.2487 1 1 1 
-0.168985 0.147588 1.23852 0 0 0 
-0.0482213 -0.309072 1.29463 0 0 0 
-0.158427 -0.000653408 1.21773 73 73 73 
-0.198867 0.447321 1.2601 0 0 0 
-0.195098 0.414952 1.25914 0 0 0 
-0.0676609 -0.295728 1.29137 0 0 0 
-0.136692 0.114822 1.21278 254 42 41 
-0.207481 0.63254 1.19119 0 0 0 
-0.0202766 0.594706 1.11909 31 26 254 
-0.0478904 0.597092 1.10809 54 254 47 
-0.126806 0.54532 1.17849 32 33 254 
-0.191837 0.125654 1.26949 0 0 0 
-0.157648 0.255302 1.22043 0 0 0 
-0.0699208 0.4257 1.15634 254 54 52 
0.0614528 -0.10232 1.26737 32 255 32 
-0.0974249 0.169365 1.18969 254 65 64 
-0.085795 0.570771 1.15983 29 254 32 
-0.0327128 -0.127265 1.23115 46 45 40 
-0.0923471 0.487153 1.16543 50 254 51 
-0.00715479 -0.0497507 1.20185 54 52 255 
-0.0831236 0.605081 1.11065 254 9 11 
-0.168717 -0.241754 1.38253 0 0 0 
-0.0596695 0.459596 1.15476 254 39 39 
-0.10451 0.294332 1.19003 26 254 39 
-0.0306041 -0.388686 1.332 0 0 0 
-0.0285573 0.600022 1.11099 61 56 254 
-0.180489 0.0354337 1.23341 0 0 0 
0.00241902 0.213759 1.18735 28 29 255 
-0.0767877 0.596885 1.1156 26 254 25 
-0.0784516 -0.372997 1.3246 0 0 0 
-0.0813884 -0.47618 1.36593 0 0 0 
-0.136808 -0.197453 1.28403 0 0 0 
0.023139 -0.213706 1.28461 35 33 254 
-0.101919 0.410112 1.16523 19 254 27 
-0.0497009 -0.568989 1.41894 0 0 0 
-0.0109545 0.414971 1.16334 11 9 254 
-0.00917303 0.54569 1.14039 16 15 14 
-0.20432 0.0984049 1.30252 0 0 0 
-0.209363 0.272297 1.30481 0 0 0 
-0.140184 0.402037 1.18405 254 68 64 
-0.099744 -0.151854 1.26078 91 86 92 
-0.163608 -0.0941246 1.26067 0 0 0 
-0.170261 -0.215925 1.38078 0 0 0 
-0.150836 -0.104358 1.25627 0 0 0 
-0.205943 0.0301284 1.27869 0 0 0 
-0.0801782 0.583795 1.14719 27 25 254 
-0.055567 -0.431596 1.33827 0 0 0 
-0.181461 -0.136259 1.34446 0 0 0 
-0.11563 -0.280764 1.3065 0 0 0 
-0.0488524 -0.329297 1.30154 0 0 0 
-0.0597374 0.431081 1.15451 39 37 38 
-0.0272613 0.182426 1.18236 72 68 65 
-0.164565 0.404505 1.21497 0 0 0 
-0.179423 0.306601 1.23866 0 0 0 
-0.205568 0.256925 1.29998 0 0 0 
-0.189726 0.311482 1.2554 0 0 0 
-0.152703 0.328066 1.21269 0 0 0 
-0.0737435 -0.488661 1.36909 0 0 0 
-0.17423 0.278886 1.24307 0 0 0 
-0.213865 0.154956 1.32002 0 0 0 
-0.055706 -0.0567667 1.19545 59 254 59 
-0.169301 -0.250952 1.43274 0 0 0 
-0.176755 -0.0616817 1.27731 0 0 0 
-0.13728 0.532414 1.17422 254 44 42 
0.0110773 0.0105283 1.19468 59 57 58 
-0.0114087 -0.0202672 1.18687 51 50 48 
-0.121734 0.599738 1.14155 17 15 254 
-0.0809881 -0.110402 1.22791 254 50 49 
-0.0754063 -0.307345 1.30177 0 0 0 
-0.139334 0.162752 1.21244 254 36 33 
-0.0672308 -0.690911 1.40785 0 0 0 
-0.144618 0.14801 1.21954 255 58 54 
-0.19706 0.342301 1.27014 0 0 0 
-0.156087 -0.052736 1.23585 0 0 0 
0.0802543 -0.0685517 1.25356 255 40 39 
-0.0270574 -0.0539077 1.19932 255 34 31 
0.00730927 -0.359028 1.33591 255 69 68 
-0.155385 -0.0326848 1.22729 83 62 65 
-0.0441956 0.259012 1.1772 51 50 48 
-0.0881059 -0.422728 1.34953 0 0 0 
-0.0978081 -0.048848 1.21642 254 46 46 
-0.127713 0.360678 1.18866 254 56 52 
-0.191232 0.252601 1.26124 0 0 0 
-0.188993 0.377975 1.25497 0 0 0 
-0.0604687 -0.000487625 1.1952 25 254 31 
-0.144676 -0.189093 1.29035 0 0 0 
-0.115665 0.320392 1.18747 51 46 254 
-0.15283 0.0948225 1.22504 58 9 10 
-0.171347 0.0025119 1.24308 1 1 1 
0.00127997 -0.194135 1.26774 40 34 254 
-0.00817364 -0.188751 1.26001 254 25 24 
-0.0849509 0.358148 1.17414 47 43 254 
-0.0696085 -0.402116 1.33533 0 0 0 
-0.0429931 0.303313 1.16987 255 37 36 
0.0518313 0.0446303 1.21023 30 28 29 
-0.0549462 0.477393 1.14824 254 28 26 
0.0363958 0.173174 1.20338 49 46 255 
-0.214398 0.00131015 1.27769 0 0 0 
-0.0498418 0.266842 1.17403 42 41 255 
-0.144276 0.13468 1.2166 66 255 75 
-0.069215 -0.0134606 1.19668 51 52 254 
-0.17947 -0.0784826 1.30016 0 0 0 
-0.166076 0.304252 1.22572 0 0 0 
-0.20051 0.0558763 1.27109 0 0 0 
-0.115886 -0.369674 1.36156 0 0 0 
-0.184454 0.541414 1.21038 49 53 230 
-0.213634 0.00489319 1.26528 0 0 0 
-0.00840264 0.0288016 1.18885 51 255 51 
-0.0956274 -0.405503 1.34963 0 0 0 
-0.140069 0.541577 1.16875 28 27 25 
-0.166687 -0.0447793 1.2514 0 0 0 
-0.146383 -0.13216 1.26425 0 0 0 
-0.063173 -0.104588 1.21906 57 55 254 
-0.154533 -0.0712165 1.24532 0 0 0 
-0.170379 -0.116152 1.29933 0 0 0 
-0.0843796 -0.0961115 1.22726 44 42 254 
0.0290463 0.46964 1.16069 16 254 5 
-0.18275 0.384048 1.2405 0 0 0 
0.0899669 0.255763 1.23283 255 26 25 
-0.103422 0.0406766 1.19354 254 64 63 
0.0308104 0.111972 1.20378 255 58 58 
-0.179827 0.196736 1.24952 0 0 0 
-0.188033 0.0809805 1.26456 0 0 0 
-0.1799 -0.0547167 1.26817 0 0 0 
-0.0681565 -0.156797 1.2425 55 53 54 
-0.0665259 0.330237 1.17291 40 255 46 
-0.11997 -0.322439 1.33978 0 0 0 
-0.124854 -0.275346 1.31293 0 0 0 
-0.213604 0.598083 1.24016 5 1 1 
0.0444594 -0.163327 1.28555 38 255 40 
-0.129915 0.166299 1.20522 66 54 254 
-0.171851 -0.185246 1.35527 0 0 0 
0.0387901 0.114366 1.21159 51 51 255 
-0.106262 0.0734645 1.2043 27 27 27 
-0.112664 0.605906 1.09501 254 46 45 
-0.161488 0.0994653 1.29254 0 0 0 
0.0107247 0.0211594 1.19288 40 43 255 
-0.0374447 0.343115 1.16902 254 38 37 
-0.00256069 -0.216355 1.2739 56 51 254 
-0.205108 0.466567 1.27098 0 0 0 
-0.0228304 -0.292054 1.29636 55 54 254 
-0.194964 0.10479 1.27468 0 0 0 
-0.0363551 0.592614 1.13147 1 1 5 
-0.0284521 0.016912 1.18315 255 33 31 
0.0277861 -0.0402059 1.21463 24 21 254 
-0.164793 -0.125453 1.28815 0 0 0 
-0.198171 0.49641 1.23631 0 0 0 
0.0171279 -0.122224 1.24537 38 255 39 
-0.0199214 -0.17319 1.24849 254 40 37 
-0.0228732 0.553703 1.13629 57 53 254 
-0.174275 0.436854 1.221 0 0 0 
-0.12996 -0.179788 1.26628 0 0 0 
-0.0819343 -0.385169 1.33149 0 0 0 
-0.190886 0.275035 1.25982 0 0 0 
-0.0444627 0.11759 1.1876 45 44 42 
-0.0767413 0.478812 1.15935 254 62 61 
-0.181038 -0.0142134 1.24254 0 0 0 
-0.052348 -0.0676162 1.20159 56 55 254 
-0.1561 -0.0430643 1.23385 0 0 0 
-0.187518 0.279951 1.25247 0 0 0 
-0.0407693 -0.322508 1.30127 0 0 0 
-0.192083 0.530339 1.23034 0 0 0 
-0.154962 0.421562 1.20053 66 62 206 
-0.150024 0.245952 1.21392 15 48 13 
-0.0451231 -0.230936 1.26511 254 37 31 
-0.0529248 -0.268451 1.27472 90 91 97 
-0.123038 -0.0137157 1.20107 47 254 50 
-0.176881 0.423766 1.22722 0 0 0 
-0.179529 0.288063 1.2463 0 0 0 
-0.192248 -0.0924744 1.3528 0 0 0 
-0.0523251 -0.379716 1.32 0 0 0 
-0.0375884 0.441872 1.15816 36 36 36 
-0.14771 0.0645834 1.2224 19 19 254 
-0.0864408 0.574233 1.14672 254 30 28 
-0.17752 0.34177 1.23598 0 0 0 
-0.0229286 0.203214 1.18188 45 255 52 
-0.208431 0.211607 1.30412 0 0 0 
0.00898039 0.243321 1.18591 255 34 30 
-0.068852 0.391806 1.16172 254 47 46 
-0.152454 0.272584 1.21358 1 2 1 
-0.112978 -0.197858 1.25878 0 0 0 
0.00623271 -0.0253717 1.19178 60 255 68 
-0.0678648 -0.0508246 1.20007 254 43 43 
-0.165173 0.599436 1.15304 254 39 38 
0.0230895 0.0163553 1.20319 255 3 1 
-0.0873613 -0.11145 1.24186 254 45 44 
0.000583993 0.337786 1.17443 23 21 22 
-0.0732573 -0.532168 1.38429 0 0 0 
0.01119 0.346431 1.1759 25 26 254 
-0.0791191 0.605553 1.12554 14 13 11 
-0.16373 0.504325 1.19056 250 55 54 
-0.0766744 0.496475 1.15156 36 34 254 
-0.0934267 0.0786796 1.19603 254 58 57 
-0.0994551 -0.311035 1.31226 0 0 0 
-0.14033 0.50939 1.1785 51 254 47 
-0.128391 0.348084 1.18433 57 53 50 
-0.01712 -0.128065 1.23729 47 46 44 
0.0256222 -0.0697485 1.23212 36 37 255 
-0.182583 -0.00301059 1.23807 0 0 0 
0.0625335 0.592209 1.15201 254 32 36 
-0.165398 0.526164 1.19455 37 37 37 
-0.0685892 0.474213 1.1497 39 254 42 
-0.0866096 0.183569 1.18493 254 84 80 
-0.144555 0.618906 1.11757 54 49 254 
-0.201643 0.189225 1.29887 0 0 0 
-0.0310358 -0.170448 1.24582 46 41 254 
-0.0389811 0.282824 1.17267 50 254 50 
-0.114521 -0.230575 1.2629 0 0 0 
-0.158109 0.532255 1.18953 0 0 0 
-0.134246 0.563309 1.16126 254 38 36 
-0.0162672 0.145872 1.18887 23 22 255 
-0.18609 0.184639 1.26283 0 0 0 
-0.149722 0.598445 1.16546 31 29 254 
-0.0750707 -0.0787803 1.22734 58 56 57 
-0.138568 0.392324 1.18602 54 254 57 
-0.020219 0.439072 1.16319 254 27 27 
-0.142167 0.0840446 1.22058 43 252 37 
-0.106033 0.28692 1.19521 254 38 22 
-0.0447911 0.219187 1.18029 0 0 0 
-0.050647 -0.0781135 1.20885 49 45 42 
-0.069163 -0.317264 1.29818 0 0 0 
-0.17175 -0.131568 1.3165 0 0 0 
-0.0100524 -0.341408 1.32468 27 26 32 
-0.0622578 -0.0666914 1.21649 37 36 34 
-0.131328 -0.274609 1.46907 0 0 0 
-0.0620191 -0.594354 1.39091 0 0 0 
-0.0879038 0.477474 1.16721 254 42 40 
-0.219382 0.254526 1.33989 0 0 0 
-0.0465514 -0.668484 1.41061 0 0 0 
-0.216963 0.211089 1.351 0 0 0 
-0.213053 0.0922915 1.31357 0 0 0 
-0.186423 0.176522 1.25593 0 0 0 
-0.178986 -0.147686 1.34396 0 0 0 
-0.153096 0.436725 1.19253 45 254 53 
-0.186477 -0.163241 1.37227 0 0 0 
-0.136661 -0.261931 1.32782 0 0 0 
-0.13219 -0.159013 1.26874 52 37 40 
-0.210678 0.250162 1.30315 0 0 0 
-0.0982281 0.366677 1.17751 59 55 254 
-0.159515 -0.179629 1.31916 0 0 0 
-0.201977 0.143706 1.28409 0 0 0 
-0.212086 0.289236 1.31348 0 0 0 
-0.211887 0.32576 1.30495 0 0 0 
-0.150316 -0.203233 1.31066 0 0 0 
-0.108417 0.362372 1.16768 254 63 62 
-0.175924 -0.053441 1.25899 0 0 0 
-0.198179 0.459495 1.24712 0 0 0 
-0.13524 -0.254863 1.3202 0 0 0 
-0.208023 0.471111 1.26161 0 0 0 
-0.0805701 -0.452502 1.36018 0 0 0 
-0.208213 0.0402436 1.28662 0 0 0 
-0.07759 0.541321 1.14496 43 254 42 
-0.205814 0.0620216 1.27948 0 0 0 
-0.19287 0.0621652 1.25608 0 0 0 
-0.0837979 0.524315 1.15752 50 51 254 
-0.160389 -0.237252 1.37222 0 0 0 
-0.184047 0.41525 1.23876 0 0 0 
-0.144446 -0.0180207 1.21198 254 42 42 
-0.189508 0.234661 1.25745 0 0 0 
-0.112718 -0.0509459 1.21792 254 43 45 
-0.123683 -0.356331 1.37645 0 0 0 
-0.162163 0.00836596 1.22737 31 31 254 
-0.207395 0.483257 1.25579 0 0 0 
-0.0669754 -0.482137 1.36278 0 0 0 
-0.212568 0.334429 1.31259 0 0 0 
-0.238443 0.61641 1.2474 0 0 0 
-0.0481854 -0.109182 1.22128 48 45 255 
-0.218571 0.0800098 1.34923 0 0 0 
-0.185495 0.617637 1.1012 11 10 9 
-0.185283 0.204595 1.2548 0 0 0 
-0.212928 0.0733144 1.31551 0 0 0 
-0.141014 -0.15307 1.26885 1 2 2 
-0.165768 -0.187392 1.34328 0 0 0 
-0.192228 0.0298902 1.25787 0 1 1 
-0.164772 0.0705373 1.23596 254 23 22 
-0.214811 0.0295361 1.29843 0 0 0 
-0.0972082 0.149809 1.19116 74 254 57 
-0.0902635 -0.481685 1.39174 0 0 0 
-0.184361 -0.122415 1.34174 0 0 0 
-0.169324 -0.19915 1.36624 0 0 0 
-0.0907727 -0.318147 1.31177 0 0 0 
-0.0885838 -0.292908 1.30089 0 0 0 
-0.0149324 -0.470054 1.36814 0 0 0 
-0.207712 0.103133 1.44809 0 0 0 
-0.114896 0.297917 1.19401 28 29 254 
-0.0623784 -0.502885 1.36862 0 0 0 
-0.19177 0.152086 1.26772 0 0 0 
-0.184733 0.226589 1.25315 0 0 0 
-0.0860215 0.301194 1.18086 254 49 45 
-0.103238 -0.0601407 1.2171 36 34 254 
-0.0765239 0.536498 1.16256 35 254 32 
-0.133709 -0.0803175 1.24156 92 90 254 
-0.149449 -0.218718 1.32566 0 0 0 
-0.1952 0.161813 1.27101 0 0 0 
-0.139701 -0.291408 1.37292 0 0 0 
-0.105003 -0.271031 1.29678 0 0 0 
-0.211016 0.412503 1.30055 0 0 0 
-0.228201 0.0600154 1.34116 0 0 0 
-0.171578 0.405247 1.2242 73 70 61 
-0.211312 0.104244 1.31181 0 0 0 
-0.119385 -0.261673 1.30018 0 0 0 
-0.198841 0.0396249 1.26482 0 0 0 
-0.128287 0.322244 1.19726 51 254 55 
-0.184506 0.215081 1.25186 0 0 0 
-0.0994736 -0.137912 1.24601 37 36 34 
-0.165386 0.0918297 1.23686 254 50 50 
-0.185346 -0.149089 1.36647 0 0 0 
-0.211463 0.11231 1.31867 0 0 0 
-0.184547 -0.0563637 1.28333 0 0 0 
-0.0167641 0.61016 1.11225 36 31 254 
-0.0329471 -0.637091 1.44207 0 0 0 
-0.221438 -0.0101816 1.31745 0 0 0 
-0.183834 -0.101202 1.31978 0 0 0 
-0.00545976 0.0934592 1.1945 255 33 32 
-0.203773 0.0393664 1.27628 0 0 0 
-0.174885 -0.0653665 1.26839 0 0 0 
-0.144853 0.301953 1.20754 254 65 63 
-0.167747 0.201907 1.23082 254 55 51 
-0.241214 0.605258 1.32798 0 0 0 
-0.0179236 0.0602803 1.28976 17 255 17 
-0.174408 0.169469 1.24078 85 84 79 
-0.199696 0.36455 1.26845 0 0 0 
-0.133647 0.0805262 1.21426 254 47 46 
-0.22514 0.00363529 1.3085 0 0 0 
-0.180138 0.134743 1.25027 0 0 0 
-0.187353 0.0133912 1.2499 9 7 252 
-0.198972 0.317641 1.29016 0 0 0 
-0.131556 -0.321247 1.36663 0 0 0 
-0.0883467 -0.123748 1.23619 34 30 254 
-0.205802 0.225445 1.30299 0 0 0 
-0.119661 -0.0790589 1.2353 47 254 51 
-0.237091 0.604139 1.24385 0 0 0 
-0.0833177 0.50469 1.16125 254 60 58 
-0.132695 -0.270462 1.3223 0 0 0 
-0.134532 -0.040062 1.22018 65 65 254 
-0.128446 0.601973 1.12758 254 26 24 
-0.0341904 0.103494 1.191 41 41 255 
-0.0744607 0.145487 1.18874 46 255 52 
-0.233776 0.606099 1.23169 0 0 0 
-0.195287 0.345941 1.25094 0 0 0 
-0.0820438 -0.607253 1.40074 0 0 0 
-0.124665 -0.337363 1.36108 0 0 0 
-0.0665822 -0.0211097 1.18531 255 48 48 
-0.201762 0.42368 1.26672 0 0 0 
-0.157965 0.516075 1.19018 32 254 33 
-0.205104 0.535872 1.24623 112 22 22 
-0.094545 -0.45413 1.37743 0 0 0 
-0.193241 0.501288 1.22956 18 17 15 
-0.107317 -0.397492 1.36648 0 0 0 
-0.160033 -0.0918457 1.25412 0 0 0 
-0.139708 0.285982 1.2056 51 40 254 
-0.14783 -0.16431 1.28498 0 0 0 
-0.172443 0.0252542 1.23409 0 0 0 
-0.0927476 -0.445532 1.32656 0 0 0 
-0.122255 0.482293 1.17842 2 0 0 
-0.106997 0.201825 1.19277 0 0 0 
-0.05011 -0.612763 1.41607 0 0 0 
-0.191579 0.113385 1.26786 0 0 0 
-0.143369 0.0316161 1.21249 0 254 1 
-0.20476 0.16875 1.287 0 0 0 
-0.182683 0.454033 1.22733 0 0 0 
-0.16393 0.318795 1.22248 0 0 0 
-0.0710899 -0.140773 1.23833 0 0 0 
-0.15163 0.0797204 1.22698 74 79 85 
-0.235573 0.109844 1.46635 0 0 0 
-0.195072 0.0876815 1.47081 0 0 0 
-0.144864 0.518491 1.18508 46 47 254 
-0.175628 0.235583 1.23948 124 37 37 
-0.213446 0.130806 1.31689 0 0 0 
-0.158983 -0.113977 1.2691 0 0 0 
-0.124054 -0.321709 1.46498 0 0 0 
-0.138941 0.210978 1.20882 254 48 45 
0.0297425 -0.00305252 1.22985 255 27 26 
-0.185788 0.118678 1.25964 0 0 0 
-0.218757 0.112202 1.48159 0 0 0 
-0.18693 0.16617 1.25955 0 0 0 
-0.169758 0.376831 1.22284 255 80 79 
-0.181383 0.317286 1.24732 0 0 0 
-0.102795 0.313196 1.1891 43 42 37 
-0.191508 0.2911 1.2592 0 0 0 
-0.175355 0.256716 1.23682 35 150 46 
-0.216657 0.123834 1.38323 0 0 0 
-0.0534178 -0.62132 1.38303 0 0 0 
-0.219117 0.162426 1.36899 0 0 0 
-0.0983183 -0.463128 1.3988 0 0 0 
-0.216643 0.307219 1.34313 0 0 0 
-0.199023 -0.113721 1.36674 0 0 0 
-0.223781 0.474303 1.33774 0 0 0 
-0.173353 -0.0899887 1.28645 254 44 40 
-0.217119 0.275279 1.34949 0 0 0 
-0.195854 -0.130744 1.37305 0 0 0 
-0.210229 0.339633 1.30158 0 0 0 
-0.177577 -0.10014 1.30011 2 1 2 
-0.135529 -0.187493 1.52761 0 0 0 
-0.217344 0.331391 1.33759 0 0 0 
-0.105039 -0.431582 1.39636 0 0 0 
-0.212405 0.440047 1.37391 0 0 0 
-0.195926 0.13921 1.27556 73 255 60 
-0.178175 -0.11184 1.31413 0 0 0 
-0.158714 -0.253531 1.38138 0 0 0 
-0.0759243 -0.555015 1.40361 0 0 0 
-0.215474 0.323687 1.3209 0 0 0 
-0.134273 -0.32738 1.37928 0 0 0 
-0.115908 -0.318044 1.3226 0 0 0 
-0.144862 -0.298807 1.38712 0 0 0 
-0.228252 0.0748422 1.3578 0 0 0 
-0.213723 0.40881 1.33085 0 0 0 
-0.213221 0.353841 1.3111 0 0 0 
-0.158218 -0.221184 1.34696 0 0 0 
-0.0991999 -0.446291 1.38978 0 0 0 
-0.19896 0.30041 1.28182 0 1 0 
-0.150452 -0.284856 1.38573 0 0 0 
-0.217571 0.198653 1.33869 0 0 0 
-0.2014 -0.0765855 1.34583 0 0 0 
-0.208068 -0.0826993 1.36667 0 0 0 
-0.216835 0.207232 1.31708 0 0 0 
-0.215299 0.381127 1.32332 0 0 0 
-0.218596 -0.0306329 1.33638 0 0 0 
-0.179931 -0.180524 1.37742 0 0 0 
-0.213091 0.316433 1.3145 0 0 0 
-0.220732 0.175023 1.35513 0 0 0 
-0.0728875 -0.516507 1.37895 0 0 0 
-0.2177 0.204535 1.36983 0 0 0 
-0.21196 0.263782 1.30956 0 0 0 
-0.216398 0.0671597 1.42768 0 0 0 
-0.102054 -0.386067 1.34873 0 0 0 
-0.0761629 -0.597157 1.40811 0 0 0 
-0.158193 -0.202908 1.33609 0 0 0 
-0.211876 0.142996 1.30568 0 0 0 
-0.117266 -0.399432 1.3969 0 0 0 
-0.214201 0.227395 1.31802 0 0 0 
-0.0880001 -0.464439 1.3719 0 0 0 
-0.206083 -0.0976984 1.36732 0 0 0 
-0.194515 0.0683094 1.27625 35 34 254 
-0.163479 -0.162261 1.31461 10 7 7 
-0.204371 0.119201 1.2961 0 0 0 
-0.162356 0.38724 1.21468 48 254 62 
-0.216453 0.189932 1.33043 0 0 0 
-0.116514 -0.333987 1.33785 0 0 0 
-0.190316 -0.0455771 1.28424 51 50 48 
-0.20491 0.152384 1.28924 0 0 0 
-0.227503 0.0383222 1.34113 0 0 0 
-0.215749 0.476498 1.27194 0 0 0 
-0.112714 -0.410785 1.3937 0 0 0 
-0.151284 -0.180655 1.30473 13 20 134 
-0.217399 0.161585 1.38546 0 0 0 
-0.223268 -0.0131342 1.32663 0 0 0 
-0.219529 0.118487 1.35496 0 0 0 
-0.146372 -0.213976 1.3113 14 9 6 
-0.216266 0.0839462 1.33779 0 0 0 
-0.190723 -0.152495 1.37677 0 0 0 
-0.123525 -0.370168 1.38867 0 0 0 
-0.201202 0.393455 1.27064 0 0 0 
-0.227982 0.00489056 1.32281 0 0 0 
-0.229681 0.0568458 1.35726 0 0 0 
-0.21639 0.302143 1.3302 0 0 0 
-0.166688 -0.171896 1.3322 0 0 0 
-0.214668 0.141578 1.32233 0 0 0 
-0.152516 -0.145863 1.27523 48 254 50 
-0.217204 0.15569 1.33728 0 0 0 
-0.118562 -0.381895 1.39215 0 0 0 
-0.138845 -0.26571 1.33858 0 0 0 
-0.148232 -0.247412 1.34955 0 0 0 
-0.168832 0.347112 1.22384 53 41 254 
-0.107304 -0.362711 1.45791 0 0 0 
-0.185456 0.0322199 1.24987 41 254 51 
-0.22078 0.0897252 1.35195 0 0 0 
-0.228864 0.0175619 1.36115 0 0 0 
-0.201423 0.40518 1.27051 0 0 0 
-0.175549 -0.240511 1.41808 0 0 0 
-0.188665 0.489492 1.21677 45 254 35 
-0.0961375 -0.280082 1.29606 104 106 114 
-0.161221 0.430893 1.21243 49 45 254 
-0.193492 0.427907 1.251 47 254 43 
-0.229323 0.564874 1.2795 231 57 58 
-0.0941444 -0.47806 1.39889 0 0 0 
-0.215562 -0.0235417 1.32456 0 0 0 
-0.158703 -0.125805 1.27354 50 46 43 
-0.204744 0.348822 1.2794 0 0 0 
-0.243505 0.606183 1.26917 1 0 0 
-0.168403 -0.0721033 1.25668 33 254 31 
-0.224501 -0.0264215 1.35249 0 0 0 
-0.138187 -0.318614 1.39014 0 0 0 
-0.172365 0.116376 1.48056 0 0 0 
-0.107252 -0.385332 1.45791 0 0 0 
-0.201114 -0.00300306 1.26473 254 52 51 
-0.183334 0.3606 1.24167 79 75 64 
-0.215043 0.291436 1.32466 0 0 0 
-0.197 -0.033143 1.28203 44 252 42 
-0.168795 -0.207373 1.37102 0 0 0 
-0.218038 0.240998 1.33146 0 0 0 
-0.223297 0.504063 1.30385 0 0 0 
-0.23291 0.604449 1.30913 0 0 0 
-0.229166 -0.0180025 1.35862 0 0 0 
-0.0748336 -0.525684 1.43457 0 0 0 
-0.216246 0.249899 1.3645 0 0 0 
-0.171098 0.278428 1.2316 46 40 254 
-0.22982 0.0481301 1.36432 0 0 0 
-0.220229 0.0488069 1.31328 0 0 0 
-0.202472 0.507666 1.23959 54 51 254 
-0.211995 -0.0741463 1.37028 0 0 0 
-0.212734 0.214628 1.39663 0 0 0 
-0.220492 0.0150271 1.31243 0 0 0 
-0.163669 -0.225713 1.37 0 0 0 
-0.122528 -0.3115 1.33137 0 0 0 
-0.20737 0.157948 1.3008 0 0 0 
-0.196191 -0.0451459 1.29987 0 0 0 
-0.103116 0.607953 1.11472 14 254 21 
-0.193683 0.177748 1.266 254 60 56 
-0.221556 -0.0418645 1.35971 0 0 0 
-0.224712 0.543662 1.28516 39 38 137 
-0.213478 0.618297 1.43742 0 0 0 
-0.15485 0.346556 1.21204 254 72 71 
-0.226669 -0.0155872 1.34511 0 0 0 
-0.0786574 -0.515622 1.3873 0 0 0 
-0.211694 0.541535 1.25337 254 50 49 
-0.217818 0.0381776 1.30695 0 0 0 
-0.225005 0.0264092 1.33642 0 0 0 
-0.146317 -0.179008 1.2845 30 26 254 
-0.198857 0.220117 1.29232 0 0 0 
-0.12675 -0.239679 1.29313 34 255 31 
-0.199451 0.437281 1.26318 255 42 41 
-0.168213 0.253007 1.22958 68 64 53 
-0.136669 -0.284509 1.3567 0 0 0 
-0.0785164 -0.531784 1.39345 0 0 0 
-0.218786 0.108361 1.35417 0 0 0 
-0.228807 0.0173836 1.34753 0 0 0 
-0.217295 0.465445 1.30169 0 0 0 
-0.110844 -0.34455 1.33177 0 0 0 
-0.203262 0.476527 1.24705 67 253 69 
-0.164672 -0.11234 1.28653 51 50 45 
-0.219879 0.146352 1.35533 0 0 0 
-0.220794 0.521177 1.28176 5 1 1 
-0.199563 0.029368 1.26888 54 52 254 
-0.107144 -0.365678 1.33789 0 0 0 
-0.168998 -0.147607 1.31851 0 0 0 
-0.0849111 -0.50576 1.39125 0 0 0 
-0.190691 0.41812 1.24676 49 254 62 
-0.215764 0.20564 1.32818 0 0 0 
-0.0861574 -0.0508587 1.20707 255 32 32 
-0.169743 0.6174 1.12832 3 0 0 
-0.225339 0.0518473 1.41097 0 0 0 
-0.213411 0.430334 1.30672 0 0 0 
-0.229082 0.0296463 1.3881 0 0 0 
-0.214853 0.49085 1.26711 1 0 0 
-0.18635 0.299059 1.24896 254 14 11 
-0.119779 0.173064 1.19969 8 254 16 
-0.208353 0.112146 1.30601 0 0 0 
-0.170767 -0.083803 1.27389 254 67 66 
-0.20273 0.0200922 1.26605 30 30 28 
-0.162413 0.278404 1.22277 66 63 54 
-0.176733 -0.167844 1.35633 0 0 0 
-0.0984277 0.25319 1.18677 49 39 37 
-0.214595 0.347165 1.31858 0 0 0 
-0.21465 0.0168923 1.30287 13 13 10 
-0.231511 0.556646 1.32844 0 0 0 
-0.216396 0.438532 1.33064 0 0 0 
-0.229789 0.554414 1.30671 0 0 0 
-0.0915061 -0.415625 1.35359 0 0 0 
-0.223771 0.0499477 1.33079 0 0 0 
-0.232772 0.00568561 1.33743 0 0 0 
-0.250268 0.606084 1.29802 0 0 0 
-0.167835 -0.0526304 1.24036 89 88 86 
-0.177315 0.143683 1.2459 53 52 48 
-0.128307 -0.353194 1.38808 0 0 0 
-0.213303 -0.0467949 1.34647 0 0 0 
-0.233747 0.603642 1.28799 9 1 1 
-0.213862 0.240139 1.31441 0 0 0 
-0.129095 0.18666 1.20243 10 2 0 
-0.209515 0.16515 1.31143 0 0 0 
-0.158855 0.177271 1.22905 254 90 86 
-0.236171 0.0127333 1.3686 0 0 0 
-0.213095 -0.00886659 1.29294 78 85 113 
-0.195249 0.520206 1.22896 254 57 53 
-0.145955 -0.25924 1.35261 0 0 0 
-0.067505 0.439679 1.1559 26 254 26 
-0.173172 -0.0241371 1.23636 32 254 37 
-0.201207 0.126683 1.28282 20 25 10 
-0.242365 0.607947 1.25439 0 0 0 
-0.144698 0.401321 1.1927 21 254 32 
-0.0925784 -0.473034 1.38971 0 0 0 
-0.186185 -0.107909 1.32632 0 0 0 
-0.106086 -0.169919 1.25869 254 37 35 
-0.22812 0.0288148 1.36299 0 0 0 
-0.172534 0.417118 1.22336 254 57 53 
-0.203461 -0.0251944 1.2921 56 199 30 
-0.207834 0.338503 1.29153 0 0 0 
-0.0914711 -0.435185 1.35807 0 0 0 
-0.199868 0.539959 1.23038 254 41 40 
-0.212035 0.311697 1.29952 0 0 0 
-0.207657 0.0152404 1.28089 13 13 15 
-0.108545 0.349246 1.17393 254 45 41 
-0.176269 0.52144 1.20657 30 30 30 
-0.186492 -0.0886704 1.31736 0 0 0 
-0.15973 0.269007 1.21919 254 49 45 
-0.176342 0.360074 1.23225 61 58 254 
-0.191768 -0.0802207 1.32199 0 0 0 
-0.225674 -0.0338251 1.37089 0 0 0 
-0.210952 0.0820416 1.30455 0 0 0 
-0.146391 0.341946 1.20434 70 67 62 
-0.114819 0.149386 1.1984 255 53 49 
0.017283 -0.0294324 1.20348 60 57 52 
0.0625926 0.0536606 1.21744 12 254 18 
0.0479121 -0.0532811 1.23125 254 99 97 
0.00249137 -0.138151 1.24661 25 254 18 
-0.0117127 -0.384048 1.33873 0 0 0 
-0.0170882 -0.0322292 1.1906 69 64 254 
0.038545 -0.212566 1.29225 56 54 55 
0.108459 0.128032 1.25434 255 37 36 
-0.035103 -0.262387 1.2803 0 0 0 
-0.0684538 -0.686881 1.41785 0 0 0 
0.00163163 -0.282925 1.30259 0 0 0 
0.030916 -0.0212133 1.20431 55 50 254 
0.0228894 -0.260968 1.30326 250 56 53 
-0.0174436 -0.0847516 1.21871 0 0 0 
-0.0353096 -0.398512 1.33227 0 0 0 
0.0564994 -0.0683368 1.24385 59 60 254 
0.0566705 -0.138099 1.27008 21 254 37 
-0.0128537 -0.167304 1.25162 38 26 27 
-0.0691437 0.0954099 1.18957 0 1 0 
0.100044 0.446873 1.21789 35 35 35 
-0.0163532 -0.277616 1.29266 0 0 0 
0.0867075 0.0519402 1.24461 33 32 30 
0.0404092 -0.152213 1.2694 66 64 254 
0.118209 -0.0206017 1.37103 54 255 59 
0.0587655 0.111798 1.22164 34 35 255 
0.030374 -0.139937 1.25979 55 55 254 
-0.0246281 -0.612153 1.41102 0 0 0 
0.0927076 0.591344 1.17992 37 254 32 
-0.0122051 -0.399235 1.34377 0 0 0 
-0.0541806 -0.278094 1.2808 0 0 0 
0.0574159 -0.084189 1.25098 48 49 254 
0.018462 -0.186323 1.27168 39 30 31 
-0.00872508 -0.246447 1.28318 0 0 0 
0.0380373 -0.0527625 1.22302 80 79 254 
-0.0569238 0.597336 1.11219 44 254 51 
0.0875564 0.00248518 1.24111 22 18 15 
-0.00145763 0.054463 1.18924 21 19 254 
0.0504367 0.208635 1.20583 254 59 57 
0.0357261 0.104174 1.20739 66 254 58 
-0.00316151 0.103945 1.1933 0 0 0 
0.0517753 0.600219 1.15125 49 253 58 
0.0525801 0.0512192 1.21835 13 14 254 
-0.0373101 -0.368509 1.31997 0 0 0 
0.0236564 0.00689413 1.19449 254 65 63 
0.0320636 0.0639661 1.20213 255 51 50 
-0.0243033 -0.0687894 1.20739 254 66 62 
-0.0440254 0.228863 1.17813 0 0 0 
-0.0218034 -0.393444 1.33672 0 0 0 
-0.027192 0.266297 1.17702 55 254 60 
-0.0277124 -0.0192847 1.18319 64 65 254 
0.0207956 -0.0160631 1.19681 52 254 71 
0.074926 0.291072 1.21666 37 36 34 
0.05733 0.00447179 1.21763 50 49 47 
-0.0363785 -0.103823 1.21417 0 0 0 
-0.0295897 -0.0911323 1.21852 0 0 0 
-0.0319675 -0.611552 1.39225 0 0 0 
-0.0498241 -0.547322 1.38053 0 0 0 
0.0405259 -0.165558 1.2732 34 37 254 
-0.0398875 -0.287695 1.28683 0 0 0 
0.0477187 -0.0730107 1.24296 39 38 34 
0.0107301 0.0577215 1.19958 20 254 24 
-0.000991032 -0.0729277 1.21995 70 66 254 
0.0551742 0.174162 1.21361 54 255 46 
0.0463103 0.099794 1.21315 3 3 255 
-0.0171511 -0.180502 1.25569 0 0 0 
-0.130618 0.580066 1.16348 27 167 41 
0.02796 -0.0960044 1.24116 254 65 65 
-0.0838682 0.371165 1.16919 0 0 0 
0.0543839 0.46626 1.1747 66 64 254 
0.0245384 -0.0580492 1.22253 254 46 45 
0.0504724 -0.0615606 1.2367 63 61 254 
0.11688 0.338201 1.24736 255 44 43 
0.0606697 0.243213 1.20956 254 46 45 
-0.00255442 -0.130447 1.24083 38 36 37 
0.0297853 -0.196813 1.27816 254 39 29 
0.0941402 0.0614943 1.25052 255 27 26 
-0.0188013 -0.149987 1.24048 1 1 2 
0.0645802 -0.0705726 1.24999 53 53 53 
-0.04048 0.59923 1.12301 71 68 63 
-0.0109293 0.519001 1.1484 36 35 33 
0.0624357 -0.0418804 1.23521 52 254 59 
0.0987377 0.310993 1.22874 55 54 52 
0.0090634 0.270764 1.18225 41 44 38 
0.000740096 -0.107651 1.23393 1 1 1 
-0.04047 0.529771 1.14441 54 254 53 
-0.0398838 0.0798486 1.18923 0 0 0 
0.0559517 -0.249851 1.31929 41 254 48 
0.0599603 0.582225 1.1576 22 22 20 
0.0596379 -0.0313679 1.22486 255 89 88 
-0.0640993 -0.253301 1.275 0 0 0 
-0.0167764 -0.0522334 1.19835 0 0 0 
-0.0687862 -0.530334 1.39969 0 0 0 
0.0584726 0.288642 1.20346 24 254 26 
0.00119884 -0.040554 1.20191 85 84 254 
0.100008 0.468111 1.2131 254 36 34 
0.0146446 -0.201854 1.27615 1 1 1 
0.0566443 -0.00758492 1.20733 84 79 254 
-0.016166 0.58259 1.13418 72 71 66 
-0.041451 -0.434788 1.34419 0 0 0 
0.0040684 0.58645 1.13742 69 64 254 
-0.129702 0.066592 1.21499 0 0 0 
-0.0689782 0.0341351 1.18396 0 0 0 
0.004422 0.0774858 1.19595 84 37 37 
-0.0493213 0.519793 1.14732 254 49 47 
0.00870349 -0.0787337 1.22719 35 254 44 
0.0570592 0.551246 1.16128 32 34 254 
0.100837 0.00736343 1.25398 255 46 45 
0.0962324 0.0742098 1.24753 255 42 41 
0.0454224 -0.131623 1.26123 254 49 48 
0.0669052 0.284611 1.21174 254 45 44 
0.091749 0.147332 1.2408 255 38 36 
-0.0141754 -0.414211 1.34937 0 0 0 
0.100078 0.168663 1.23879 45 43 255 
0.0787414 0.221073 1.22482 60 58 61 
0.0361703 0.149413 1.20361 19 255 29 
0.0859016 0.192145 1.23683 41 39 255 
0.0197798 0.162032 1.1952 47 41 254 
0.0173859 -0.275112 1.30823 43 46 39 
0.0761759 0.083819 1.2375 25 255 38 
0.083973 0.504558 1.19526 254 43 41 
-0.0481609 0.246052 1.17797 253 44 40 
-0.00817133 0.375411 1.16914 0 0 0 
-0.0440508 0.464369 1.15287 44 254 44 
0.0113509 -0.310786 1.31773 0 0 0 
0.0189573 -0.0487666 1.21659 71 254 79 
0.00630204 0.225572 1.1845 33 34 254 
0.0413829 0.607427 1.12395 252 36 35 
-0.061633 -0.309522 1.29539 0 0 0 
0.102425 0.0539788 1.25395 255 16 15 
0.0375156 0.556019 1.15066 247 53 54 
-0.0267258 -0.0797152 1.21265 0 0 0 
-0.164685 0.619353 1.09292 0 0 0 
0.075774 0.00871119 1.2329 1 254 3 
0.0668055 0.297627 1.21027 50 48 254 
0.0519501 -0.0223897 1.21528 72 254 82 
0.0665869 0.217195 1.21545 40 41 254 
-0.0889119 0.255523 1.18104 0 0 0 
0.0245727 0.291577 1.18721 57 52 254 
0.0219147 -0.158517 1.26462 64 63 59 
0.0966 0.11997 1.24164 26 255 29 
-0.0286838 0.578766 1.1363 69 64 254 
0.0790156 -0.246699 1.34578 52 50 51 
0.0695016 0.0649137 1.22772 255 46 45 
0.0454321 -0.141739 1.26671 63 62 58 
-0.00140123 -0.378731 1.34214 0 0 0 
-0.0430759 -0.268073 1.27858 0 0 0 
-0.0325902 0.516146 1.14627 0 0 0 
0.0462705 0.189726 1.206 254 50 48 
0.0188391 -0.235264 1.28651 252 73 72 
-0.0261399 -0.441351 1.35524 0 0 0 
0.023906 -0.124474 1.25539 15 13 254 
0.0672651 0.189523 1.21859 254 59 57 
0.123692 0.399821 1.25181 33 32 30 
-0.0432666 0.425004 1.16237 0 0 0 
-0.00884146 0.335084 1.17208 35 36 254 
-0.0222129 0.354144 1.16861 39 37 254 
0.0242383 0.450184 1.16909 111 130 254 
-0.0495771 0.0835981 1.18947 68 66 254 
-0.0012321 -0.0171586 1.1885 44 39 35 
0.0935706 0.296138 1.22883 41 42 254 
0.0441176 0.124881 1.21044 74 254 62 
-0.0357153 -0.220051 1.2615 0 0 0 
0.0563648 0.18569 1.21582 32 254 41 
-0.00289032 -0.363435 1.33095 0 0 0 
-0.0597848 0.576088 1.12697 52 254 48 
0.0363764 0.0730008 1.2097 30 28 254 
0.0476621 -0.0350121 1.22276 51 254 61 
-0.15626 0.602409 1.15837 2 13 2 
-0.0695337 0.379119 1.16891 0 0 0 
-0.0361175 -0.346483 1.31134 0 0 0 
-0.0814321 -0.272194 1.288 0 0 0 
0.0518848 0.326761 1.1966 254 56 55 
-0.0652735 -0.332573 1.30391 0 0 0 
0.000617653 0.428653 1.16846 63 63 61 
-0.0777205 -0.35996 1.32219 0 0 0 
-0.0527179 -0.53544 1.37824 0 0 0 
0.0676732 0.468981 1.18218 61 57 56 
-0.0131287 0.259469 1.17783 56 254 58 
-0.0444403 -0.340231 1.30527 0 0 0 
-0.034448 -0.462467 1.36014 0 0 0 
-0.0958274 -0.333496 1.32003 0 0 0 
0.0255196 0.0721151 1.20363 53 51 254 
0.0696576 0.483222 1.17758 254 57 57 
0.0214524 -0.0803069 1.23582 54 52 254 
-0.0351068 -0.308803 1.29937 0 0 0 
0.0327562 0.000830747 1.20179 254 36 35 
0.110667 0.256707 1.24303 255 66 64 
0.0869023 0.287032 1.22817 254 30 29 
0.00869724 0.288536 1.18721 56 46 254 
-0.0417892 -0.515795 1.37366 0 0 0 
-0.00705965 -0.271012 1.29545 0 0 0 
0.0737294 0.103998 1.2328 255 57 55 
-0.015408 -0.0594432 1.20556 63 58 254 
0.0889302 0.203479 1.23388 254 50 48 
-0.0566017 0.386152 1.16298 19 20 14 
0.0442509 0.29617 1.19778 254 27 26 
0.0836423 0.597887 1.15571 254 62 57 
0.0736665 0.266146 1.21722 49 47 254 
0.0855355 0.119636 1.24074 51 49 255 
-0.0342463 0.239836 1.17719 65 254 64 
-0.063877 0.192338 1.18308 0 0 0 
-0.0373715 0.25077 1.17687 0 0 0 
-0.0728463 0.358767 1.17154 0 0 0 
-0.00988352 0.597824 1.13727 47 42 254 
0.0157254 0.0382955 1.19262 71 69 72 
-0.0995389 0.207988 1.18726 0 0 0 
0.0643928 0.27522 1.21198 255 11 10 
-0.130843 0.192706 1.21407 0 0 0 
-0.0381177 0.191576 1.18005 33 254 78 
0.107884 0.343627 1.23473 254 37 36 
-0.0541314 0.594814 1.13017 77 69 254 
0.0120789 0.394062 1.17407 69 69 69 
0.0696832 0.0888328 1.23122 45 43 255 
-0.0750046 0.0654103 1.18754 0 0 0 
-0.0608778 0.276381 1.17493 1 0 3 
-0.0337358 -0.503623 1.37463 0 0 0 
-0.00659538 0.463872 1.155 9 254 18 
0.0378511 -0.122652 1.25928 53 51 254 
0.0747023 0.380632 1.20293 53 49 50 
-0.0365425 -0.493826 1.37252 0 0 0 
0.039995 0.337546 1.1892 48 254 47 
-0.0475703 0.555917 1.13611 37 32 29 
-0.0826524 0.0784549 1.19322 0 0 0 
-0.0704107 0.594486 1.1302 28 27 22 
0.0493086 0.440738 1.18685 31 254 25 
-0.0423755 -0.478416 1.35924 0 0 0 
0.0742997 -0.0390222 1.23723 82 83 255 
0.0590555 0.499666 1.17158 254 66 71 
0.0529456 0.0654733 1.21851 30 254 35 
0.0491907 -0.314067 1.39172 254 77 73 
0.00530321 0.493998 1.15312 17 14 254 
0.0205021 0.42476 1.1744 10 8 9 
-0.119135 0.0768385 1.20679 0 0 0 
-0.0854467 -0.149737 1.2424 0 0 0 
0.0583468 0.370851 1.198 37 35 36 
-0.0130884 0.402831 1.16762 3 0 0 
0.0339047 0.160715 1.20217 42 254 43 
-0.143414 -0.0441155 1.22578 0 0 0 
0.0514003 0.619336 1.12576 58 56 51 
0.088831 0.225928 1.23408 255 40 38 
-0.0157818 0.320629 1.17165 47 45 254 
0.053141 0.360971 1.19219 53 254 58 
-0.0594728 0.41973 1.15517 59 59 59 
-0.00031453 0.409696 1.16914 55 55 53 
-0.13101 0.406546 1.17427 0 0 0 
-0.0419623 0.389159 1.16739 50 49 45 
-0.12246 -0.107513 1.24544 0 0 0 
0.025788 0.434486 1.17438 254 34 30 
-0.0178731 -0.198524 1.25995 1 1 1 
-0.00547277 0.315647 1.17627 0 0 0 
-0.0444612 -0.133549 1.22657 0 0 0 
0.0127367 -0.164077 1.26369 52 51 47 
-0.0247425 0.385502 1.16463 31 29 254 
-0.109089 0.453095 1.16311 0 0 0 
-0.0652084 -0.280424 1.28554 0 0 0 
-0.0462123 -0.190112 1.24766 0 0 0 
0.0139387 -0.0669772 1.22463 78 253 77 
-0.0113356 0.214269 1.1824 0 0 0 
-2.6274e-05 0.235164 1.18301 0 0 2 
0.0116033 -0.0956846 1.23537 44 45 254 
-0.017717 0.176388 1.18332 55 254 62 
-0.0446028 -0.0071795 1.05013 0 0 0 
-0.0336734 -0.161213 1.24168 0 0 0 
0.0158505 0.108508 1.19961 70 255 53 
-0.206239 0.0812146 1.3488 0 0 0 
0.044361 0.00110818 1.63635 32 28 255 
-0.0726329 0.272621 1.17706 0 0 0 
-0.268695 0.106013 1.39136 0 0 0 
-0.131191 0.0544445 1.25512 0 0 0 
0.129998 0.0945439 1.3071 47 47 47 
-0.0484373 -0.672342 1.42075 0 0 0 
0.0737748 -0.237755 1.33467 57 55 254 
-0.0724345 -0.619274 1.38423 0 0 0 
-0.0406238 -0.646742 1.42429 0 0 0 
-0.0172267 -0.301994 1.30457 0 0 0 
0.0329956 0.346851 1.18572 61 62 254 
-0.0421924 -0.25578 1.27401 0 0 0 
0.0121235 -0.174058 1.26525 1 1 1 
0.0888452 -0.0567107 1.26589 107 106 104 
0.10283 0.089059 1.25214 35 33 34 
-0.0243416 -0.121193 1.22936 0 0 0 
0.111363 0.0268386 1.26723 56 255 52 
0.10168 0.136285 1.24517 51 49 50 
0.0773498 0.196067 1.22659 71 69 70 
0.11509 0.0384158 1.27649 53 52 255 
0.053213 -0.199604 1.29976 65 254 68 
0.0736395 0.27887 1.21731 43 254 45 
0.0107595 -0.390624 1.37007 0 0 0 
0.0527858 -0.100112 1.25426 37 36 34 
-0.046224 -0.418477 1.33701 0 0 0 
0.126695 0.00902838 1.30122 49 48 255 
0.102035 0.212293 1.23793 31 31 31 
0.073979 0.0429414 1.22629 64 62 63 
-0.0382024 -0.601297 1.3924 0 0 0 
0.0486037 0.316371 1.1967 254 49 47 
-0.0262365 -0.429479 1.34911 0 0 0 
0.120669 0.117761 1.27632 255 43 42 
-0.030962 -0.355569 1.31824 0 0 0 
-0.00957823 0.0839099 1.19216 0 0 0 
-0.0340876 -0.518034 1.38145 0 0 0 
0.0722087 0.443476 1.20146 76 76 76 
0.0356167 -0.259773 1.31483 67 68 255 
0.0850721 -0.0743506 1.28812 58 57 55 
0.121433 0.136931 1.27311 49 48 46 
0.112126 0.179701 1.25541 35 33 255 
0.080271 0.183265 1.2341 68 66 67 
0.106021 0.201872 1.24312 69 67 255 
0.0553937 -0.113553 1.25997 254 49 48 
-0.0126672 -0.152505 1.24823 0 0 0 
-0.0144665 0.0955246 1.19079 0 0 0 
0.0480831 0.142722 1.21081 254 64 61 
0.103377 0.292678 1.23109 33 33 33 
0.121798 0.0476349 1.29116 255 46 42 
0.108749 0.0525498 1.26348 22 20 255 
0.0653699 0.388529 1.20105 23 23 23 
0.117797 0.281797 1.25301 35 254 28 
0.0645202 -0.191275 1.3029 25 24 254 
0.014179 -0.266077 1.30372 0 0 0 
0.0698077 0.233705 1.21971 254 32 31 
-0.0634693 -0.210863 1.2472 0 0 0 
0.0775244 -0.165134 1.3356 254 46 46 
0.0803852 0.0626962 1.24066 19 17 255 
0.0120885 -0.353554 1.34716 0 0 0 
-0.088359 -0.16655 1.2486 0 0 0 
0.0704658 -0.225496 1.31921 58 254 68 
0.0554112 -0.172893 1.28689 34 254 49 
-0.0217613 -0.384072 1.33359 0 0 0 
0.112296 0.124081 1.26445 24 25 255 
0.0707116 -0.191568 1.31947 16 254 21 
0.0645405 0.33439 1.20468 45 44 42 
0.0150838 -0.114224 1.24975 94 89 64 
0.117877 -0.0185247 1.29655 38 255 60 
-0.0220779 -0.404461 1.34531 0 0 0 
0.117948 0.0137033 1.28387 72 71 69 
-0.0159833 -0.207113 1.26622 0 0 0 
0.110663 0.1012 1.26093 48 49 255 
0.055144 0.0989777 1.21764 52 255 55 
0.0578128 -0.0160433 1.22132 254 103 99 
0.110576 0.0803292 1.26006 255 46 45 
0.108031 0.369312 1.23263 26 254 30 
0.0135368 0.460245 1.16237 79 79 79 
0.117409 0.21858 1.25869 51 50 48 
0.0140473 0.0949608 1.19833 62 62 255 
0.100777 -0.0165423 1.25285 52 50 51 
0.0370428 0.0492926 1.20326 11 254 14 
0.108236 0.289117 1.2397 24 255 24 
0.0420259 -1.15944e-07 1.20576 46 254 49 
0.109286 -0.00979524 1.26567 59 59 59 
0.087069 -0.0137294 1.23684 254 66 62 
0.0648103 0.028065 1.22063 254 54 53 
-0.027226 -0.218772 1.26608 0 0 0 
0.0460592 -0.192255 1.28695 57 55 254 
0.0121578 0.143329 1.19418 61 252 58 
0.0811767 0.213496 1.22973 254 73 71 
0.076981 0.0201186 1.22772 58 254 45 
0.0419936 0.531621 1.16179 12 14 254 
0.0483301 0.54927 1.15937 48 253 55 
0.0629561 0.0756952 1.22951 36 254 27 
0.124385 0.0296369 1.30164 1 2 255 
0.0817371 0.0983726 1.2409 254 20 18 
0.122707 0.0912429 1.28355 255 19 15 
0.0332721 -0.243604 1.30321 27 15 255 
-0.0555434 -0.567451 1.38665 0 0 0 
-0.0555963 0.230238 1.17909 0 0 0 
0.0477201 0.0901431 1.21716 254 36 36 
0.00438091 0.0917543 1.19391 8 8 15 
0.107642 0.0400306 1.26068 56 55 53 
0.0413095 0.489323 1.16723 26 25 254 
0.0624279 0.54489 1.1694 46 251 47 
0.0411858 -0.0625573 1.23325 59 254 61 
0.0820052 -0.215679 1.36344 42 254 47 
-0.126942 -0.0727695 1.23545 0 0 0 
-0.0483588 0.409999 1.15143 0 0 0 
0.0770779 0.0326269 1.22929 38 36 254 
0.0831167 0.419284 1.21363 10 254 25 
-0.0513894 0.414104 1.16154 0 0 0 
-0.102458 0.279671 1.18545 0 0 0 
-0.00101507 0.197961 1.18433 0 0 0 
0.10943 0.242655 1.2474 21 255 27 
0.0812081 -0.189242 1.34972 254 77 76 
0.102515 0.324103 1.22839 47 48 254 
-0.00533233 -0.257532 1.29537 0 0 0 
0.0798467 0.274198 1.22244 254 49 48 
-0.0256477 -0.0410927 1.19058 0 0 0 
0.042261 0.286172 1.20261 60 59 54 
0.0691856 0.536777 1.17657 36 254 39 
-0.0401479 -0.175784 1.24166 0 0 0 
-0.0976048 -0.288679 1.30276 0 0 0 
0.0455669 0.273428 1.19517 47 45 46 
0.0136123 -0.0413083 1.20421 59 255 64 
0.0614029 0.516034 1.17724 254 67 67 
0.0726918 -0.0895463 1.26046 15 254 24 
-0.0488619 -0.369639 1.31834 0 0 0 
0.0698659 -0.00824823 1.21771 89 84 254 
0.076959 0.491258 1.19018 73 71 74 
0.0671376 0.000807799 1.22454 254 54 53 
0.0673781 0.167199 1.22355 56 54 55 
0.0563553 0.0150593 1.21595 254 56 54 
-0.0217866 0.0706632 1.19245 0 0 0 
-0.0549435 0.401822 1.16713 0 0 0 
-0.125367 -0.21442 1.26799 0 0 0 
0.0619741 0.450753 1.18912 66 64 254 
-0.0305707 -0.272119 1.29801 0 0 0 
0.062978 0.147646 1.22273 46 44 254 
0.11563 0.271626 1.24811 69 254 73 
0.113692 0.115452 1.2615 28 26 27 
-0.0291325 -0.608881 1.40521 0 0 0 
0.116548 0.32674 1.25111 255 51 50 
-0.00995583 0.451312 1.16001 6 1 2 
-0.00552037 0.243463 1.18022 1 0 0 
0.0647242 0.504174 1.18204 254 45 49 
0.0125501 -0.151849 1.25602 0 0 0 
0.0725158 0.394833 1.20384 31 30 28 
0.0662867 -0.21591 1.30907 61 57 254 
0.106024 0.00187008 1.26174 10 11 254 
-0.0754084 0.38841 1.15836 0 0 0 
-0.0446143 -0.273013 1.27968 0 0 0 
0.033127 0.302143 1.19435 28 26 254 
0.0583025 0.354381 1.19624 27 27 27 
0.0466977 0.152521 1.20995 79 76 71 
0.000569782 0.0679082 1.19536 13 16 16 
0.081257 0.564723 1.17189 30 28 29 
-0.00311117 0.307271 1.18087 0 0 0 
0.120877 0.54426 1.22731 35 36 254 
0.129651 0.413152 1.26737 254 51 50 
0.0211214 -0.0827459 1.26294 93 92 90 
0.0313444 0.0247448 1.2005 254 17 13 
0.0402612 0.468278 1.16863 15 16 254 
0.0496695 0.249274 1.20308 254 30 26 
-0.0131587 0.432822 1.16668 0 0 0 
-0.0336085 0.425284 1.16454 0 0 0 
0.0519328 0.486166 1.17404 42 42 40 
-0.00530379 -0.323282 1.31769 0 0 0 
0.0744759 -0.19667 1.33656 18 254 22 
-0.0408861 -0.527352 1.38165 0 0 0 
-0.0199146 -0.548553 1.41953 0 0 0 
0.103326 0.221966 1.23527 255 64 62 
0.0411948 0.01635 1.20885 61 60 58 
0.0703037 0.578409 1.16726 19 147 23 
0.0841318 -0.0309967 1.24245 254 75 74 
0.0187297 -0.0627209 1.21097 254 32 30 
-0.0349179 -0.141002 1.22987 0 0 0 
0.0370165 0.373863 1.18417 49 49 49 
-0.0247639 -0.311777 1.30461 0 0 0 
0.0923258 -0.0323584 1.25184 255 73 72 
-0.0526022 -0.594991 1.38818 0 0 0 
0.11768 0.194836 1.25878 30 28 29 
0.108227 -0.0648881 1.3349 67 60 255 
-0.00250155 0.399485 1.17051 1 1 1 
0.0690373 0.127416 1.22663 54 52 254 
-0.0392042 -0.0098809 1.19139 0 0 0 
-0.0213048 0.0397332 1.18483 0 0 0 
0.053483 0.422292 1.18998 60 61 254 
-0.0409599 -0.0585651 1.19591 0 0 0 
0.0153006 0.375073 1.17592 60 58 61 
-0.133728 0.0873742 1.63329 15 255 19 
0.0853951 0.357043 1.2198 41 254 30 
0.0653666 -0.0200424 1.2123 85 254 74 
0.0809226 0.531892 1.1827 48 254 45 
0.00125408 -0.253458 1.28967 0 0 0 
0.0348762 0.123893 1.20544 254 85 84 
-0.0150801 -0.101114 1.22511 0 0 0 
0.0692156 -0.0308503 1.22756 80 75 254 
0.0101686 0.447847 1.16629 75 254 75 
-0.00424614 0.280033 1.17821 0 0 0 
0.100619 0.351998 1.22616 47 45 46 
-0.0399719 -0.120379 1.22175 0 0 0 
0.0123962 0.217721 1.19047 45 40 255 
-0.0151006 0.135391 1.18791 0 0 0 
0.0320576 -0.151234 1.26219 77 246 62 
0.0390295 0.31266 1.19243 36 37 254 
0.0298292 0.424019 1.17747 17 16 254 
0.00626312 -0.209253 1.27522 0 0 0 
0.0358299 0.411316 1.18262 71 254 78 
-0.0466901 -0.0447332 1.19041 0 0 0 
-0.063249 -0.0892081 1.21523 0 0 0 
-0.0603937 -0.677768 1.4165 0 0 0 
-0.134531 0.510381 1.18431 0 0 0 
-0.0647874 -0.612935 1.39396 0 0 0 
-0.0568512 -0.559157 1.38049 0 0 0 
-0.0494147 -0.694238 1.42071 0 0 0 
0.0215853 -0.305072 1.3248 0 0 0 
0.135684 0.059849 1.37616 21 21 255 
0.121292 0.0993331 1.28096 17 255 35 
0.0193496 -0.382401 1.38136 0 0 0 
0.130358 0.0327234 1.30212 13 255 42 
-0.128718 0.446371 1.18359 0 0 0 
0.150648 0.612319 1.39249 254 35 33 
-0.024767 -0.608288 1.42215 0 0 0 
-0.0549272 -0.671745 1.39025 0 0 0 
0.158052 0.612931 1.38439 51 254 52 
-0.0532308 -0.676103 1.41174 0 0 0 
0.136483 0.39379 1.2793 255 45 44 
0.00653934 -0.0503977 1.21306 255 61 60 
0.0889276 0.10206 1.24495 255 46 46 
0.115779 0.120388 1.2717 255 42 41 
-0.0189348 -0.618909 1.40395 0 0 0 
0.135561 0.111008 1.33955 47 47 255 
0.0228301 -0.334038 1.34653 0 0 0 
0.130876 0.107869 1.30124 70 70 70 
0.0993022 -0.113684 1.34869 51 52 255 
0.11232 0.00300783 1.27207 29 27 255 
0.15556 0.597119 1.27697 33 31 32 
-0.00504547 -0.277202 1.29767 0 0 0 
0.114414 0.1374 1.27168 26 27 255 
-0.0745767 -0.650272 1.41584 0 0 0 
0.0145558 -0.207817 1.27719 5 3 2 
-0.126271 0.298955 1.20701 0 0 0 
0.137248 0.213801 1.30262 24 26 255 
0.0445181 -0.295314 1.37455 254 61 60 
-0.0252605 -0.597432 1.40261 0 0 0 
0.135483 0.484184 1.26842 35 33 255 
0.140875 0.392588 1.29265 45 44 42 
-0.0331328 -0.603424 1.39511 0 0 0 
0.123413 -0.0525419 1.35901 55 51 48 
-0.161578 0.321271 1.24521 0 0 0 
0.134007 0.190265 1.30002 38 22 22 
-0.132611 0.310111 1.20646 0 0 0 
0.127062 0.462338 1.24781 254 47 46 
0.11285 0.105918 1.26327 46 48 47 
0.109871 0.197473 1.24439 30 28 255 
0.0345977 -0.285177 1.33024 0 0 0 
0.00223696 -0.392979 1.3521 0 0 0 
0.141625 0.431112 1.30217 24 23 21 
0.00710322 -0.0325343 1.21202 70 69 65 
0.159869 0.601179 1.25953 254 33 32 
0.0271641 -0.276946 1.3122 1 1 1 
0.120237 0.171974 1.26964 255 33 32 
0.133967 0.0610967 1.32967 42 41 39 
0.0210645 -0.347108 1.36322 0 0 0 
0.0794337 -0.123184 1.3087 80 78 254 
0.0419032 -0.282623 1.35162 90 87 254 
0.0161407 -0.374504 1.36866 0 0 0 
0.0978358 -0.0721728 1.32716 255 95 94 
0.135608 0.14711 1.31994 36 34 35 
0.118554 0.0936563 1.26911 29 29 29 
0.145347 0.512186 1.31128 23 254 27 
0.136944 0.100475 1.31932 44 44 255 
0.140021 0.142903 1.3388 48 255 43 
0.0252968 0.172125 1.19792 44 254 34 
0.137808 0.341347 1.28466 48 46 254 
-0.109995 0.493452 1.17707 0 0 0 
-0.0294065 -0.498679 1.37153 0 0 0 
0.0195605 -0.348371 1.35191 0 0 0 
0.129948 0.455728 1.25996 59 57 254 
0.0828659 -0.0848816 1.28139 78 76 254 
0.0871952 -0.0817067 1.29532 254 93 89 
0.138035 0.0848204 1.33845 29 27 28 
0.0264058 -0.311829 1.33567 0 0 0 
0.126752 0.113445 1.28642 51 255 52 
0.121277 0.0616521 1.29122 255 36 38 
0.0823967 0.22075 1.23319 48 255 59 
0.00702845 -0.346926 1.32899 0 0 0 
0.0378344 -0.220945 1.29005 75 72 65 
0.111543 0.0857868 1.26289 29 30 255 
-0.132236 0.463963 1.18742 0 0 0 
0.0964219 -0.103445 1.33861 48 255 27 
-0.122792 0.503651 1.18307 0 0 0 
0.0834729 -0.179072 1.34673 54 53 51 
0.141832 0.252562 1.32694 28 255 45 
0.142427 0.582272 1.24701 32 30 31 
0.0429537 -0.0998601 1.25078 254 38 36 
0.012868 -0.368589 1.35953 0 0 0 
0.130518 0.341114 1.26221 53 53 53 
0.127648 0.00850936 1.30151 255 39 38 
0.045942 -0.207777 1.30021 76 254 71 
0.142374 0.214638 1.32607 19 21 255 
0.123218 0.388956 1.24449 35 33 255 
0.136957 0.370375 1.29 50 51 255 
0.0692476 -0.170079 1.32149 48 254 71 
-0.00467283 -0.580169 1.32152 0 0 0 
0.132061 0.0589945 1.39698 17 15 255 
0.139644 0.275542 1.29801 255 41 21 
0.123311 0.337868 1.25254 32 30 31 
0.149974 0.563298 1.27093 40 254 48 
