ply                 
format ascii 1.0    
element vertex 1304
property float x    
property float y    
property float z    
property uchar red  
property uchar green
property uchar blue 
end_header          
-0.14422 0.618165 1.11744 54 49 254 
-0.20125 0.188966 1.29826 0 0 0 
-0.0311307 -0.170056 1.24504 46 41 254 
-0.038912 0.282401 1.17223 50 254 50 
-0.114452 -0.230055 1.26215 0 0 0 
-0.157725 0.531557 1.1893 0 0 0 
-0.133952 0.562524 1.16094 254 38 36 
-0.0162875 0.145658 1.18833 23 22 255 
-0.185748 0.184395 1.2623 0 0 0 
-0.149365 0.59766 1.16523 31 29 254 
-0.0750444 -0.0785749 1.22669 58 56 57 
-0.138284 0.391782 1.18568 54 254 57 
-0.0201295 0.438408 1.1628 254 27 27 
-0.14196 0.0839688 1.22007 43 252 37 
-0.105836 0.286509 1.19479 254 38 22 
-0.0447007 0.218884 1.17989 0 0 0 
-0.0506745 -0.0779165 1.20823 49 45 42 
-0.0691314 -0.316559 1.29745 0 0 0 
-0.171505 -0.131224 1.31569 0 0 0 
-0.0102482 -0.340576 1.32357 27 26 32 
-0.0622561 -0.0665128 1.21586 37 36 34 
-0.130865 -0.27399 1.46832 0 0 0 
-0.0618756 -0.593051 1.39011 0 0 0 
-0.0877016 0.476777 1.16685 254 42 40 
-0.218829 0.254188 1.33941 0 0 0 
-0.0464251 -0.667002 1.40977 0 0 0 
-0.216409 0.210819 1.3505 0 0 0 
-0.212628 0.0922039 1.31299 0 0 0 
-0.186076 0.176295 1.25543 0 0 0 
-0.178612 -0.147337 1.34332 0 0 0 
-0.152806 0.436094 1.19214 45 254 53 
-0.186051 -0.16286 1.37162 0 0 0 
-0.136403 -0.261359 1.32716 0 0 0 
-0.13199 -0.158652 1.26816 52 37 40 
-0.2102 0.249826 1.30268 0 0 0 
-0.098033 0.366143 1.17712 59 55 254 
-0.159215 -0.179221 1.31852 0 0 0 
-0.201586 0.143532 1.28356 0 0 0 
-0.211576 0.288842 1.31302 0 0 0 
-0.211411 0.325295 1.30444 0 0 0 
-0.150047 -0.202781 1.31003 0 0 0 
-0.108227 0.361846 1.16729 254 63 62 
-0.175655 -0.0532762 1.25842 0 0 0 
-0.197748 0.458847 1.24671 0 0 0 
-0.134993 -0.254307 1.31954 0 0 0 
-0.207547 0.470453 1.26121 0 0 0 
-0.0803983 -0.451524 1.35944 0 0 0 
-0.207832 0.0402467 1.28607 0 0 0 
-0.0774071 0.540538 1.14463 43 254 42 
-0.205441 0.0619868 1.27894 0 0 0 
-0.19255 0.0621274 1.25555 0 0 0 
-0.0835981 0.523553 1.15719 50 51 254 
-0.160025 -0.236724 1.37153 0 0 0 
-0.183656 0.414659 1.23834 0 0 0 
-0.144259 -0.0179217 1.21149 254 42 42 
-0.189137 0.234341 1.25698 0 0 0 
-0.112577 -0.0507917 1.21741 254 43 45 
-0.123495 -0.355499 1.37555 0 0 0 
-0.161927 0.00841959 1.22687 31 31 254 
-0.206935 0.482578 1.25539 0 0 0 
-0.0668263 -0.481095 1.36205 0 0 0 
-0.212081 0.333949 1.31207 0 0 0 
-0.237908 0.615585 1.24707 0 0 0 
-0.0481161 -0.108925 1.22079 48 45 255 
-0.21806 0.0799515 1.34868 0 0 0 
-0.185259 0.616775 1.10086 11 10 9 
-0.18493 0.204322 1.25431 0 0 0 
-0.212506 0.0732593 1.31492 0 0 0 
-0.140803 -0.15272 1.26827 1 2 2 
-0.165425 -0.186966 1.34263 0 0 0 
-0.19191 0.0299081 1.25734 0 1 1 
-0.164513 0.0704822 1.23544 254 23 22 
-0.214414 0.0295566 1.29785 0 0 0 
-0.097059 0.149615 1.19072 74 254 57 
-0.0900454 -0.480635 1.39097 0 0 0 
-0.183974 -0.122115 1.34111 0 0 0 
-0.168944 -0.198699 1.36557 0 0 0 
-0.09061 -0.317465 1.31112 0 0 0 
-0.0884307 -0.29228 1.30026 0 0 0 
-0.0148318 -0.46904 1.36744 0 0 0 
-0.207038 0.103045 1.44754 0 0 0 
-0.114686 0.297488 1.19359 28 29 254 
-0.0622338 -0.501795 1.36788 0 0 0 
-0.191405 0.151899 1.26721 0 0 0 
-0.184377 0.226281 1.25267 0 0 0 
-0.0858524 0.300759 1.18047 254 49 45 
-0.10311 -0.0599705 1.2166 36 34 254 
-0.0763192 0.535719 1.16222 35 254 32 
-0.133522 -0.0801067 1.24102 92 90 254 
-0.149215 -0.218213 1.32492 0 0 0 
-0.194829 0.161609 1.2705 0 0 0 
-0.139382 -0.290769 1.37221 0 0 0 
-0.104891 -0.270414 1.29605 0 0 0 
-0.21049 0.411931 1.30013 0 0 0 
-0.227698 0.0599907 1.34061 0 0 0 
-0.171225 0.40467 1.22379 73 70 61 
-0.210866 0.104141 1.31128 0 0 0 
-0.119188 -0.261107 1.29954 0 0 0 
-0.1985 0.0396266 1.26429 0 0 0 
-0.12805 0.321779 1.19685 51 254 55 
-0.184155 0.214791 1.25138 0 0 0 
-0.0993342 -0.137595 1.24546 37 36 34 
-0.165113 0.0917407 1.23636 254 50 50 
-0.184928 -0.148735 1.36582 0 0 0 
-0.211003 0.112195 1.31813 0 0 0 
-0.184231 -0.0561911 1.28275 0 0 0 
-0.0166464 0.609289 1.11199 36 31 254 
-0.0327869 -0.63567 1.44121 0 0 0 
-0.221021 -0.0100903 1.31684 0 0 0 
-0.183477 -0.100943 1.31917 0 0 0 
-0.00539706 0.0933576 1.19411 255 33 32 
-0.203414 0.0393689 1.27574 0 0 0 
-0.174607 -0.0651791 1.26782 0 0 0 
-0.144584 0.301524 1.20711 254 65 63 
-0.167447 0.201637 1.23036 254 55 51 
-0.240538 0.604463 1.32766 0 0 0 
-0.0177478 0.0602401 1.28928 17 255 17 
-0.174101 0.169251 1.24029 85 84 79 
-0.199266 0.364032 1.26799 0 0 0 
-0.13345 0.0804512 1.21377 254 47 46 
-0.224714 0.0037042 1.30793 0 0 0 
-0.17982 0.134582 1.24976 0 0 0 
-0.187053 0.0134372 1.24937 9 7 252 
-0.198535 0.317187 1.28966 0 0 0 
-0.131266 -0.320547 1.36592 0 0 0 
-0.0882265 -0.12346 1.23566 34 30 254 
-0.205339 0.225146 1.30251 0 0 0 
-0.119497 -0.0788516 1.23476 47 254 51 
-0.23657 0.603326 1.24351 0 0 0 
-0.0831198 0.503955 1.16091 254 60 58 
-0.132453 -0.269874 1.32164 0 0 0 
-0.134363 -0.0399263 1.21966 65 65 254 
-0.128229 0.601115 1.12725 254 26 24 
-0.0341069 0.103376 1.19059 41 41 255 
-0.0743361 0.1453 1.18831 46 255 52 
-0.233278 0.60528 1.23135 0 0 0 
-0.194884 0.345454 1.2505 0 0 0 
-0.0818652 -0.605916 1.39991 0 0 0 
-0.124399 -0.336631 1.36037 0 0 0 
-0.0665151 -0.021014 1.18486 255 48 48 
-0.201316 0.423077 1.26628 0 0 0 
-0.157633 0.515351 1.18983 32 254 33 
-0.204638 0.535126 1.24585 112 22 22 
-0.0943325 -0.453144 1.37668 0 0 0 
-0.192828 0.500581 1.22918 18 17 15 
-0.107084 -0.396632 1.36575 0 0 0 
-0.159803 -0.0916117 1.25355 0 0 0 
-0.139452 0.285578 1.20517 51 40 254 
-0.147589 -0.163937 1.28437 0 0 0 
-0.17219 0.0252886 1.23357 0 0 0 
-0.0927652 -0.444475 1.32565 0 0 0 
-0.121952 0.481615 1.17808 2 0 0 
-0.106823 0.201556 1.19233 0 0 0 
-0.0502682 -0.611166 1.41477 0 0 0 
-0.191239 0.113262 1.26733 0 0 0 
-0.143176 0.0316339 1.212 0 254 1 
-0.204366 0.168537 1.28646 0 0 0 
-0.182291 0.453391 1.22694 0 0 0 
-0.16361 0.318345 1.22205 0 0 0 
-0.0710855 -0.140433 1.23768 0 0 0 
-0.151398 0.0796517 1.22648 74 79 85 
-0.234983 0.109719 1.46548 0 0 0 
-0.194496 0.0875898 1.46993 0 0 0 
-0.144558 0.517756 1.18473 46 47 254 
-0.175299 0.235263 1.23901 124 37 37 
-0.213007 0.130653 1.31632 0 0 0 
-0.158749 -0.113696 1.2685 0 0 0 
-0.123756 -0.320926 1.4639 0 0 0 
-0.138705 0.210694 1.20837 254 48 45 
0.0296499 -0.00297876 1.22923 255 27 26 
-0.185455 0.118547 1.25912 0 0 0 
-0.218113 0.112066 1.48074 0 0 0 
-0.186581 0.165961 1.25905 0 0 0 
-0.169417 0.376296 1.22243 255 80 79 
-0.181015 0.316836 1.24687 0 0 0 
-0.102605 0.312741 1.18868 43 42 37 
-0.191119 0.290692 1.25873 0 0 0 
-0.175023 0.256362 1.23636 35 150 46 
-0.216248 0.123679 1.38246 0 0 0 
-0.0536709 -0.619638 1.38182 0 0 0 
-0.218696 0.162203 1.36826 0 0 0 
-0.0983789 -0.461915 1.39765 0 0 0 
-0.216203 0.306757 1.34249 0 0 0 
-0.198704 -0.113418 1.36593 0 0 0 
-0.223295 0.473587 1.33716 0 0 0 
-0.173096 -0.0897484 1.28582 254 44 40 
-0.216683 0.274867 1.34883 0 0 0 
-0.195546 -0.130403 1.37221 0 0 0 
-0.209799 0.339138 1.30104 0 0 0 
-0.177312 -0.099878 1.29945 2 1 2 
-0.135422 -0.186921 1.52615 0 0 0 
-0.216898 0.330892 1.33697 0 0 0 
-0.105069 -0.430461 1.39524 0 0 0 
-0.211951 0.439342 1.37321 0 0 0 
-0.195567 0.13904 1.27502 73 255 60 
-0.177911 -0.11155 1.31342 0 0 0 
-0.158536 -0.2529 1.38043 0 0 0 
-0.0760845 -0.553524 1.40238 0 0 0 
-0.215034 0.323208 1.32032 0 0 0 
-0.134184 -0.326559 1.37828 0 0 0 
-0.115867 -0.317272 1.32174 0 0 0 
-0.144735 -0.298057 1.38612 0 0 0 
-0.227824 0.074779 1.35709 0 0 0 
-0.213272 0.40819 1.33026 0 0 0 
-0.212781 0.35332 1.31055 0 0 0 
-0.158033 -0.220644 1.34612 0 0 0 
-0.099252 -0.445132 1.38866 0 0 0 
-0.198562 0.299979 1.2813 0 1 0 
-0.150305 -0.284144 1.38475 0 0 0 
-0.217148 0.198374 1.33804 0 0 0 
-0.201068 -0.0763633 1.34509 0 0 0 
-0.207718 -0.0824616 1.36588 0 0 0 
-0.216413 0.206945 1.31649 0 0 0 
-0.21485 0.380557 1.32275 0 0 0 
-0.218211 -0.0305046 1.3357 0 0 0 
-0.179676 -0.180068 1.37653 0 0 0 
-0.212658 0.315969 1.31393 0 0 0 
-0.220305 0.174781 1.35445 0 0 0 
-0.0730442 -0.515143 1.37781 0 0 0 
-0.217275 0.204237 1.36911 0 0 0 
-0.21154 0.263403 1.30899 0 0 0 
-0.215998 0.0671087 1.42677 0 0 0 
-0.102076 -0.3851 1.34775 0 0 0 
-0.0763333 -0.595546 1.40686 0 0 0 
-0.158004 -0.202413 1.33528 0 0 0 
-0.211478 0.142818 1.3051 0 0 0 
-0.117249 -0.398405 1.3958 0 0 0 
-0.213781 0.227073 1.31743 0 0 0 
-0.0880913 -0.463238 1.37082 0 0 0 
-0.205742 -0.0974301 1.36652 0 0 0 
-0.194173 0.0682589 1.2757 35 34 254 
-0.163264 -0.161863 1.31388 10 7 7 
-0.203995 0.119063 1.29553 0 0 0 
-0.16202 0.386694 1.21428 48 254 62 
-0.216035 0.18967 1.3298 0 0 0 
-0.116477 -0.333166 1.33694 0 0 0 
-0.190007 -0.0454251 1.28364 51 50 48 
-0.204527 0.152192 1.28869 0 0 0 
-0.227085 0.0383245 1.34046 0 0 0 
-0.215281 0.475828 1.2715 0 0 0 
-0.112714 -0.409727 1.3926 0 0 0 
-0.151107 -0.180218 1.30399 13 20 134 
-0.216981 0.161359 1.38468 0 0 0 
-0.22287 -0.0130403 1.32598 0 0 0 
-0.219115 0.118345 1.35426 0 0 0 
-0.146216 -0.213463 1.31054 14 9 6 
-0.215868 0.083867 1.33713 0 0 0 
-0.190434 -0.152105 1.37591 0 0 0 
-0.123481 -0.369227 1.38761 0 0 0 
-0.200782 0.392891 1.27017 0 0 0 
-0.227569 0.00495103 1.32219 0 0 0 
-0.229253 0.0568151 1.35656 0 0 0 
-0.215952 0.301695 1.3296 0 0 0 
-0.166468 -0.171473 1.33141 0 0 0 
-0.214263 0.1414 1.32171 0 0 0 
-0.152325 -0.14551 1.27458 48 254 50 
-0.21679 0.155485 1.33663 0 0 0 
-0.118536 -0.380918 1.39108 0 0 0 
-0.138725 -0.265064 1.33772 0 0 0 
-0.148082 -0.246807 1.34868 0 0 0 
-0.168491 0.346623 1.22342 53 41 254 
-0.10732 -0.361712 1.4566 0 0 0 
-0.185142 0.0322308 1.24936 41 254 51 
-0.220368 0.0896351 1.35125 0 0 0 
-0.228445 0.017603 1.36043 0 0 0 
-0.201 0.4046 1.27004 0 0 0 
-0.17532 -0.239899 1.41705 0 0 0 
-0.18825 0.488828 1.21641 45 254 35 
-0.0961442 -0.279397 1.29525 104 106 114 
-0.160878 0.430286 1.21205 49 45 254 
-0.193081 0.427302 1.25056 47 254 43 
-0.228811 0.564093 1.27908 231 57 58 
-0.0942227 -0.476804 1.39773 0 0 0 
-0.215185 -0.0234279 1.3239 0 0 0 
-0.158491 -0.125494 1.27291 50 46 43 
-0.204324 0.348322 1.27891 0 0 0 
-0.242958 0.605379 1.2688 1 0 0 
-0.168153 -0.0719033 1.25611 33 254 31 
-0.224101 -0.0262994 1.35177 0 0 0 
-0.138085 -0.31781 1.38911 0 0 0 
-0.172079 0.116216 1.47942 0 0 0 
-0.107274 -0.384274 1.4566 0 0 0 
-0.20077 -0.00293199 1.2642 254 52 51 
-0.182959 0.360091 1.24123 79 75 64 
-0.21461 0.291007 1.32406 0 0 0 
-0.196671 -0.0330155 1.28145 44 252 42 
-0.168578 -0.206857 1.37013 0 0 0 
-0.217607 0.24065 1.33084 0 0 0 
-0.222808 0.503334 1.30335 0 0 0 
-0.232383 0.603587 1.30865 0 0 0 
-0.228752 -0.017896 1.3579 0 0 0 
-0.0749969 -0.524234 1.43324 0 0 0 
-0.215817 0.249522 1.3638 0 0 0 
-0.170766 0.27804 1.23115 46 40 254 
-0.229392 0.0481153 1.36359 0 0 0 
-0.219828 0.0487902 1.31267 0 0 0 
-0.202026 0.50697 1.2392 54 51 254 
-0.211634 -0.0739257 1.36949 0 0 0 
-0.212318 0.214301 1.39583 0 0 0 
-0.220097 0.0150695 1.31181 0 0 0 
-0.16347 -0.225153 1.36909 0 0 0 
-0.122466 -0.310742 1.3305 0 0 0 
-0.20698 0.157744 1.30022 0 0 0 
-0.195867 -0.0449928 1.29924 0 0 0 
-0.102844 0.607147 1.11449 14 254 21 
-0.193321 0.177516 1.26549 254 60 56 
-0.221165 -0.0417114 1.35897 0 0 0 
-0.224214 0.542898 1.28472 39 38 137 
-0.21299 0.617238 1.43659 0 0 0 
-0.154541 0.346065 1.21163 254 72 71 
-0.226262 -0.0154867 1.34442 0 0 0 
-0.0787958 -0.514259 1.38614 0 0 0 
-0.211223 0.540792 1.25298 254 50 49 
-0.217425 0.0381793 1.30635 0 0 0 
-0.224595 0.0264328 1.33576 0 0 0 
-0.146151 -0.178581 1.28382 30 26 254 
-0.198475 0.21981 1.29176 0 0 0 
-0.126654 -0.239109 1.29238 34 255 31 
-0.199026 0.436658 1.26273 255 42 41 
-0.167894 0.252658 1.22913 68 64 53 
-0.136561 -0.283807 1.35578 0 0 0 
-0.0786602 -0.530371 1.39227 0 0 0 
-0.218376 0.108237 1.35347 0 0 0 
-0.228389 0.0174239 1.34685 0 0 0 
-0.216826 0.464767 1.30119 0 0 0 
-0.110826 -0.343705 1.33087 0 0 0 
-0.20282 0.475867 1.24664 67 253 69 
-0.164442 -0.112054 1.28588 51 50 45 
-0.219459 0.146161 1.35464 0 0 0 
-0.220308 0.520442 1.28131 5 1 1 
-0.199216 0.0293839 1.26834 54 52 254 
-0.107144 -0.364774 1.33696 0 0 0 
-0.168766 -0.14724 1.31778 0 0 0 
-0.085026 -0.504428 1.39009 0 0 0 
-0.190288 0.41753 1.24633 49 254 62 
-0.215345 0.205352 1.32755 0 0 0 
-0.0861179 -0.0506873 1.20653 255 32 32 
-0.16933 0.616655 1.12813 3 0 0 
-0.224919 0.0518263 1.41011 0 0 0 
-0.212956 0.429699 1.30619 0 0 0 
-0.228658 0.0296668 1.38731 0 0 0 
-0.214384 0.490164 1.26669 1 0 0 
-0.185981 0.29864 1.2485 254 14 11 
-0.119593 0.172835 1.19924 8 254 16 
-0.207969 0.112019 1.30541 0 0 0 
-0.170514 -0.0835772 1.27328 254 67 66 
-0.202377 0.0201236 1.26552 30 30 28 
-0.162102 0.278015 1.22233 66 63 54 
-0.176485 -0.167424 1.3555 0 0 0 
-0.0982746 0.252825 1.18634 49 39 37 
-0.214153 0.346651 1.31801 0 0 0 
-0.214268 0.0169311 1.30227 13 13 10 
-0.230995 0.555827 1.3279 0 0 0 
-0.215933 0.437869 1.33006 0 0 0 
-0.229277 0.553619 1.30622 0 0 0 
-0.0915703 -0.414569 1.35258 0 0 0 
-0.22336 0.0499292 1.33014 0 0 0 
-0.232347 0.00574563 1.33678 0 0 0 
-0.249706 0.605256 1.29759 0 0 0 
-0.167582 -0.0524696 1.23983 89 88 86 
-0.176998 0.143507 1.24541 53 52 48 
-0.128243 -0.352299 1.38704 0 0 0 
-0.212934 -0.0466331 1.34575 0 0 0 
-0.233219 0.602806 1.28756 9 1 1 
-0.213442 0.239797 1.31383 0 0 0 
-0.128882 0.18641 1.20198 10 2 0 
-0.209118 0.164932 1.31083 0 0 0 
-0.158574 0.177039 1.22857 254 90 86 
-0.235734 0.0127832 1.36787 0 0 0 
-0.212722 -0.00878341 1.29236 78 85 113 
-0.194816 0.519497 1.22859 254 57 53 
-0.145814 -0.258604 1.35172 0 0 0 
-0.0673763 0.439018 1.15553 26 254 26 
-0.172899 -0.0240288 1.23586 32 254 37 
-0.200838 0.126533 1.28228 20 25 10 
-0.24182 0.607157 1.25405 0 0 0 
-0.144397 0.400756 1.19233 21 254 32 
-0.0926594 -0.471798 1.38857 0 0 0 
-0.185898 -0.107626 1.3256 0 0 0 
-0.10603 -0.1695 1.25801 254 37 35 
-0.2277 0.0288354 1.36226 0 0 0 
-0.17217 0.416531 1.22296 254 57 53 
-0.203115 -0.0250806 1.29151 56 199 30 
-0.207409 0.338013 1.29101 0 0 0 
-0.0915411 -0.434076 1.35704 0 0 0 
-0.199421 0.539228 1.23002 254 41 40 
-0.211606 0.311248 1.29899 0 0 0 
-0.207293 0.0152809 1.28033 13 13 15 
-0.108339 0.348742 1.17355 254 45 41 
-0.175874 0.52073 1.20622 30 30 30 
-0.186201 -0.088428 1.31666 0 0 0 
-0.159426 0.268633 1.21876 254 49 45 
-0.175982 0.359567 1.23182 61 58 254 
-0.191462 -0.079995 1.32129 0 0 0 
-0.225271 -0.033686 1.37012 0 0 0 
-0.210568 0.0819671 1.30395 0 0 0 
-0.146101 0.341461 1.20394 70 67 62 
-0.114651 0.149195 1.19794 255 53 49 
0.0171431 -0.0293641 1.20305 60 57 52 
0.0623068 0.0535731 1.2176 22 22 254 
0.0477735 -0.0531764 1.23048 19 16 9 
0.00235681 -0.137858 1.24592 25 254 18 
-0.0118789 -0.383154 1.33771 0 0 0 
-0.0171735 -0.0321376 1.19011 69 64 254 
0.0383296 -0.212117 1.29138 56 54 55 
0.108303 0.127733 1.25354 254 61 60 
-0.0351985 -0.261798 1.27946 0 0 0 
-0.0685578 -0.685026 1.41635 0 0 0 
0.00146501 -0.282294 1.30167 0 0 0 
0.0307567 -0.0211663 1.20389 55 50 254 
0.022689 -0.260397 1.30233 250 56 53 
-0.0175401 -0.0845661 1.2182 0 0 0 
-0.0354338 -0.397576 1.33125 0 0 0 
0.0563031 -0.0682146 1.24324 100 99 105 
0.0564446 -0.137825 1.2693 21 254 37 
-0.0129693 -0.166943 1.2509 38 26 27 
-0.0690858 0.0953144 1.18915 0 1 0 
0.100007 0.446158 1.21747 35 35 35 
-0.016486 -0.276995 1.29178 0 0 0 
0.086508 0.051837 1.24397 33 32 30 
0.0402053 -0.151911 1.26871 66 64 254 
0.117952 -0.0205722 1.36996 54 255 59 
0.0586344 0.111608 1.2211 34 35 255 
0.0301928 -0.13965 1.25904 55 55 254 
-0.024816 -0.610549 1.40956 0 0 0 
0.092741 0.590495 1.17966 37 254 32 
-0.0123708 -0.398281 1.34268 0 0 0 
-0.0542437 -0.27746 1.27996 0 0 0 
0.0572062 -0.0840275 1.25028 48 49 254 
0.0182885 -0.18593 1.27089 39 30 31 
-0.00887054 -0.245918 1.28241 0 0 0 
0.0378609 -0.0526622 1.22253 80 79 254 
-0.0567248 0.596632 1.11212 44 254 51 
0.0873302 0.0024694 1.24047 22 18 15 
-0.00153068 0.0544014 1.18878 21 19 254 
0.0503127 0.208444 1.20568 35 29 93 
0.0356005 0.104054 1.20706 0 0 0 
-0.00321142 0.103811 1.19291 0 0 0 
0.0518573 0.599414 1.15106 49 253 58 
0.0524293 0.0511351 1.21779 13 14 254 
-0.0374208 -0.367644 1.31896 0 0 0 
0.0229216 0.00696139 1.19676 0 0 0 
0.031946 0.0638716 1.20162 255 51 50 
-0.0243817 -0.0686261 1.20684 254 66 62 
-0.043955 0.228544 1.17774 0 0 0 
-0.0219484 -0.392512 1.33563 0 0 0 
-0.0271357 0.265923 1.17668 55 254 60 
-0.0277787 -0.0192108 1.18272 64 65 254 
0.0206178 -0.0159444 1.19682 0 0 0 
0.0748447 0.290569 1.21624 254 51 50 
0.0571853 0.00442621 1.21688 49 49 254 
-0.0364465 -0.103588 1.21359 0 0 0 
-0.0296658 -0.0909234 1.21799 0 0 0 
-0.0321493 -0.609978 1.39087 0 0 0 
-0.0499421 -0.545927 1.37923 0 0 0 
0.0403174 -0.165227 1.27249 34 37 254 
-0.0399809 -0.287033 1.28597 0 0 0 
0.0475286 -0.0728674 1.24228 39 38 34 
0.0105998 0.0577697 1.19935 0 0 0 
-0.00110493 -0.0727656 1.21936 70 66 254 
0.0550755 0.173875 1.21311 54 255 46 
0.0461908 0.0996319 1.21263 3 3 255 
-0.0172619 -0.18011 1.25496 0 0 0 
-0.130284 0.579333 1.16333 27 167 41 
0.0277944 -0.0958081 1.24049 254 65 65 
-0.0836772 0.370665 1.16885 0 0 0 
0.0544088 0.465583 1.1744 66 64 254 
0.0243872 -0.0579267 1.22193 254 46 45 
0.0502776 -0.0614482 1.23616 63 61 254 
0.116772 0.33761 1.24682 255 44 43 
0.0605927 0.24282 1.20912 254 46 45 
-0.00267937 -0.130169 1.24016 38 36 37 
0.0295879 -0.196401 1.27734 254 39 29 
0.0939344 0.0613704 1.24987 255 27 26 
-0.0189048 -0.149662 1.23981 1 1 2 
0.0643633 -0.0704408 1.24929 53 53 53 
-0.0402934 0.598501 1.1229 71 68 63 
-0.0108014 0.518315 1.14821 36 35 33 
0.0622304 -0.0418042 1.23457 52 254 59 
0.0986398 0.310466 1.22824 55 54 52 
0.00906403 0.270376 1.18192 41 44 38 
0.000610977 -0.107425 1.23336 1 1 1 
-0.0402895 0.529061 1.14419 54 254 53 
-0.0398594 0.0797641 1.18876 0 0 0 
0.0556941 -0.249321 1.31838 41 254 48 
0.0600256 0.581429 1.15739 22 22 20 
0.0594383 -0.0313111 1.22425 255 89 88 
-0.0641391 -0.252726 1.27423 0 0 0 
-0.0168736 -0.0521112 1.19793 0 0 0 
-0.068829 -0.528896 1.39827 0 0 0 
0.0584184 0.288183 1.20304 24 254 26 
0.00108535 -0.0404552 1.20138 85 84 254 
0.0999808 0.467372 1.2127 254 36 34 
0.0144692 -0.201437 1.27543 1 1 1 
0.0564537 -0.00757077 1.20678 84 79 254 
-0.0160018 0.58182 1.13398 72 71 66 
-0.041565 -0.433735 1.34307 0 0 0 
0.00420022 0.585697 1.13727 69 64 254 
-0.12953 0.0665713 1.21452 0 0 0 
-0.0689532 0.0341391 1.18355 0 0 0 
0.00434895 0.0773872 1.19555 84 37 37 
-0.0491406 0.519122 1.14714 254 49 47 
0.00857366 -0.0785639 1.22657 35 254 44 
0.0571101 0.550508 1.16108 32 34 254 
0.100593 0.00733319 1.25329 255 46 45 
0.0960281 0.0740627 1.24689 255 42 41 
0.0452143 -0.13137 1.26059 254 49 48 
0.0668359 0.284162 1.21136 254 45 44 
0.0915862 0.147063 1.24021 255 38 36 
-0.0143389 -0.413219 1.34823 0 0 0 
0.0999103 0.168355 1.23821 45 43 255 
0.0786308 0.220695 1.2243 60 58 61 
0.0360867 0.149177 1.20313 19 255 29 
0.0857692 0.191806 1.23627 41 39 255 
0.0197212 0.161789 1.19482 0 0 0 
0.017193 -0.274503 1.30728 43 46 39 
0.0760079 0.083666 1.2369 25 255 38 
0.0839816 0.503797 1.19492 254 43 41 
-0.0480801 0.245717 1.17763 253 44 40 
-0.00809653 0.374868 1.16879 0 0 0 
-0.0438979 0.463757 1.15266 44 254 44 
0.0111595 -0.310086 1.31673 0 0 0 
0.0188129 -0.0486632 1.21611 71 254 79 
0.00629195 0.225239 1.18411 33 34 254 
0.0414693 0.606661 1.12382 252 36 35 
-0.0616835 -0.308802 1.2945 0 0 0 
0.102202 0.053864 1.25328 255 16 15 
0.0375956 0.55527 1.15046 247 53 54 
-0.0268056 -0.0795274 1.21213 0 0 0 
-0.164361 0.618704 1.09295 0 0 0 
0.0757545 0.00864827 1.23016 254 33 29 
0.0667456 0.297146 1.20983 50 48 254 
0.051764 -0.0223464 1.2147 72 254 82 
0.0664879 0.216845 1.21503 40 41 254 
-0.0887603 0.255191 1.18071 0 0 0 
0.0245659 0.291137 1.18683 57 52 254 
0.0217436 -0.158185 1.26386 64 63 59 
0.0964156 0.119745 1.24103 26 255 29 
-0.028503 0.578003 1.1361 69 64 254 
0.0787223 -0.246161 1.34471 52 50 51 
0.0693305 0.0647994 1.22725 255 46 45 
0.0452219 -0.141464 1.26605 63 62 58 
-0.00158188 -0.37784 1.34104 0 0 0 
-0.0431643 -0.26748 1.27781 0 0 0 
-0.0324248 0.515432 1.14599 0 0 0 
0.0461869 0.189431 1.2056 254 50 48 
0.01865 -0.234759 1.28565 252 73 72 
-0.0262844 -0.440277 1.35408 0 0 0 
0.0237421 -0.124215 1.25466 15 13 254 
0.0671689 0.189152 1.218 56 254 58 
0.123604 0.399131 1.25128 33 32 30 
-0.0431148 0.424397 1.16202 0 0 0 
-0.00878548 0.334608 1.17177 35 36 254 
-0.0221304 0.353651 1.16831 39 37 254 
0.0242964 0.449545 1.16881 111 130 254 
-0.0495569 0.0835124 1.18904 68 66 254 
-0.00133862 -0.017101 1.18802 44 39 35 
0.0934713 0.29565 1.2284 41 42 254 
0.0440092 0.124687 1.21002 74 254 62 
-0.0358058 -0.219559 1.26077 0 0 0 
0.0562705 0.185383 1.21532 32 254 41 
-0.00306729 -0.362592 1.32989 0 0 0 
-0.0595804 0.575385 1.12686 52 254 48 
0.0362349 0.0729643 1.20937 0 0 0 
0.0474782 -0.034948 1.22227 51 254 61 
-0.155886 0.601669 1.15826 2 13 2 
-0.0693688 0.378611 1.16865 0 0 0 
-0.036227 -0.345679 1.31037 0 0 0 
-0.0814309 -0.271552 1.28716 0 0 0 
0.0519322 0.326741 1.19733 31 31 250 
-0.0653197 -0.331791 1.30298 0 0 0 
0.000704009 0.42803 1.16813 63 63 61 
-0.0777403 -0.359101 1.32121 0 0 0 
-0.0528253 -0.534077 1.37695 0 0 0 
0.0676833 0.468287 1.18186 61 57 56 
-0.0130968 0.259099 1.17748 56 254 58 
-0.0445334 -0.339443 1.30433 0 0 0 
-0.0345794 -0.461329 1.35895 0 0 0 
-0.0957949 -0.332678 1.31906 0 0 0 
0.0254143 0.0720128 1.2032 53 51 254 
0.0696699 0.482515 1.17728 254 57 57 
0.0214535 -0.0800379 1.23428 0 0 0 
-0.0352099 -0.308097 1.29846 0 0 0 
0.0326033 0.000840688 1.20138 254 36 35 
0.110527 0.256249 1.24248 255 66 64 
0.0868117 0.286545 1.22767 254 30 29 
0.00871386 0.288108 1.18684 56 46 254 
-0.0419175 -0.514497 1.37239 0 0 0 
-0.00720696 -0.270408 1.29455 0 0 0 
0.0735736 0.103812 1.23222 255 57 55 
-0.015499 -0.0593017 1.20502 63 58 254 
0.0887573 0.203276 1.23368 254 33 33 
-0.0564576 0.385635 1.16272 19 20 14 
0.0442206 0.295709 1.19737 254 27 26 
0.0836828 0.59707 1.1555 254 62 57 
0.073583 0.265707 1.21676 49 47 254 
0.0858125 0.119267 1.23769 254 27 25 
-0.0341906 0.239504 1.17684 65 254 64 
-0.0637853 0.19208 1.18266 0 0 0 
-0.037309 0.250437 1.17655 0 0 0 
-0.0726831 0.358286 1.17127 0 0 0 
-0.00972818 0.597063 1.13713 47 42 254 
0.0156135 0.0382532 1.19222 71 69 72 
-0.099385 0.207729 1.1869 0 0 0 
0.0643267 0.274772 1.21152 255 11 10 
-0.130619 0.192474 1.21365 0 0 0 
-0.0380753 0.191317 1.17967 33 254 78 
0.10779 0.343042 1.23423 254 37 36 
-0.0539239 0.594084 1.13006 77 69 254 
0.0121272 0.393509 1.17379 69 69 69 
0.0695787 0.0886226 1.23028 254 30 30 
-0.0749514 0.065367 1.18712 0 0 0 
-0.0607661 0.276009 1.17461 1 0 3 
-0.0338773 -0.50236 1.37337 0 0 0 
-0.00649459 0.463243 1.15477 9 254 18 
0.0376636 -0.122403 1.25854 53 51 254 
0.0746673 0.380033 1.20253 53 49 50 
-0.0366744 -0.49259 1.37127 0 0 0 
0.0399869 0.337033 1.18883 48 254 47 
-0.0473843 0.555219 1.13597 37 32 29 
-0.0825763 0.0783932 1.19279 0 0 0 
-0.0701819 0.593763 1.13009 28 27 22 
0.0493351 0.440067 1.18647 31 254 25 
-0.042496 -0.477234 1.35805 0 0 0 
0.0740754 -0.0389569 1.23658 82 83 255 
0.0590884 0.498949 1.17131 254 66 71 
0.0527983 0.0653673 1.21806 30 254 35 
0.0489506 -0.313312 1.39045 254 77 73 
0.00539991 0.49333 1.1529 17 14 254 
0.0203778 0.423916 1.17375 0 0 0 
-0.118985 0.0767959 1.20634 0 0 0 
-0.0854225 -0.149376 1.24174 0 0 0 
0.0583302 0.370277 1.19761 37 35 36 
-0.0130009 0.402278 1.16734 3 0 0 
0.0338702 0.160494 1.20212 0 0 0 
-0.143253 -0.0439311 1.22525 0 0 0 
0.0514807 0.618552 1.12562 58 56 51 
0.0887093 0.225534 1.23354 255 40 38 
-0.0157222 0.320176 1.17133 47 45 254 
0.0531252 0.360418 1.19181 53 254 58 
-0.0593156 0.419177 1.15494 59 59 59 
-0.000242445 0.409129 1.16887 55 55 53 
-0.130737 0.406023 1.17403 0 0 0 
-0.0418354 0.388627 1.16712 50 49 45 
-0.122345 -0.107214 1.24481 0 0 0 
0.0258394 0.433861 1.17408 254 34 30 
-0.0179879 -0.198093 1.25919 1 1 1 
-0.00542638 0.315186 1.17591 0 0 0 
-0.0445189 -0.133248 1.22596 0 0 0 
0.0125803 -0.16373 1.26293 52 51 47 
-0.0246447 0.384971 1.16436 31 29 254 
-0.108825 0.452498 1.16286 0 0 0 
-0.065245 -0.279776 1.28469 0 0 0 
-0.0462678 -0.189683 1.24692 0 0 0 
0.0138238 -0.066825 1.22404 78 253 77 
-0.0113089 0.213954 1.18198 0 0 0 
-9.94712e-06 0.234821 1.18263 0 0 2 
0.0114728 -0.0954698 1.23469 44 45 254 
-0.0176984 0.176134 1.18287 55 254 62 
-0.0446763 -0.00713123 1.04981 0 0 0 
-0.0338338 -0.16066 1.24025 0 0 0 
0.0157891 0.108348 1.19909 70 255 53 
-0.205814 0.0811711 1.34807 0 0 0 
0.0443536 0.00115697 1.63444 32 28 255 
-0.0724816 0.272236 1.17667 0 0 0 
-0.268137 0.105942 1.39068 0 0 0 
-0.130988 0.0544367 1.25455 0 0 0 
0.129738 0.0943384 1.30642 47 47 47 
-0.0486002 -0.670552 1.4193 0 0 0 
0.0734687 -0.237265 1.33379 57 55 254 
-0.0725023 -0.617602 1.38283 0 0 0 
-0.0407555 -0.644939 1.4227 0 0 0 
-0.0166302 -0.300857 1.30153 0 0 0 
0.0330075 0.346321 1.18533 61 62 254 
-0.0422819 -0.255202 1.27324 0 0 0 
0.0119431 -0.1737 1.26459 1 1 1 
0.0885643 -0.0566244 1.26535 107 106 104 
0.102603 0.0888886 1.25163 35 33 34 
-0.0244659 -0.12094 1.22888 0 0 0 
0.111338 0.0267032 1.2659 14 14 254 
0.101459 0.135994 1.24474 31 254 17 
0.0773395 0.19568 1.22581 254 45 44 
0.114825 0.0383236 1.27589 53 52 255 
0.0529564 -0.199202 1.29899 65 254 68 
0.0735347 0.278435 1.21696 43 254 45 
0.0105471 -0.389694 1.36894 0 0 0 
0.0525391 -0.0999333 1.25375 37 36 34 
-0.0463195 -0.417446 1.33592 0 0 0 
0.126405 0.00898409 1.3005 49 48 255 
0.101858 0.211933 1.23753 31 31 31 
0.0737567 0.0428645 1.2259 64 62 63 
-0.0383888 -0.599778 1.39113 0 0 0 
0.0485766 0.315877 1.1963 254 49 47 
-0.0263797 -0.428431 1.34798 0 0 0 
0.120442 0.117524 1.27569 255 43 42 
-0.0310847 -0.35473 1.31727 0 0 0 
-0.0100522 0.0840256 1.19291 0 0 0 
-0.0342458 -0.516739 1.38022 0 0 0 
0.0722217 0.442763 1.20101 76 76 76 
0.0353794 -0.259215 1.31396 67 68 255 
0.0848053 -0.0742209 1.28746 58 57 55 
0.121198 0.136666 1.27257 49 48 46 
0.111922 0.179378 1.25494 35 33 255 
0.0801317 0.182951 1.23361 68 66 67 
0.105834 0.201524 1.24269 69 67 255 
0.0551511 -0.113346 1.25939 254 49 48 
-0.0128142 -0.152192 1.24767 0 0 0 
-0.0145029 0.0954074 1.1904 0 0 0 
0.0479592 0.142499 1.21041 254 64 61 
0.103261 0.292176 1.2306 33 33 33 
0.121524 0.0475189 1.29054 255 46 42 
0.108496 0.052437 1.26293 22 20 255 
0.0656362 0.387674 1.19972 53 52 50 
0.117676 0.281203 1.2525 254 26 26 
0.0642362 -0.190903 1.30217 25 24 254 
0.0139623 -0.265517 1.30295 0 0 0 
0.0697082 0.23332 1.21926 254 32 31 
-0.0635367 -0.210404 1.2466 0 0 0 
0.077256 -0.164791 1.33468 254 46 46 
0.079719 0.0626192 1.24151 26 24 254 
0.0118701 -0.352747 1.34615 0 0 0 
-0.0883304 -0.166148 1.24792 0 0 0 
0.0701616 -0.225047 1.31841 58 254 68 
0.0551556 -0.172556 1.28618 34 254 49 
-0.021929 -0.383189 1.33263 0 0 0 
0.112068 0.123844 1.26394 24 25 255 
0.0704336 -0.191179 1.31863 16 254 21 
0.0646783 0.333611 1.20339 254 51 51 
0.0149023 -0.113997 1.24922 94 89 64 
0.117585 -0.0185139 1.29586 38 255 60 
-0.0222222 -0.403477 1.34421 0 0 0 
0.11791 0.0135676 1.28245 255 23 23 
-0.0161359 -0.206682 1.26559 0 0 0 
0.110435 0.101003 1.26038 48 49 255 
0.0549815 0.09882 1.21725 52 255 55 
0.058697 -0.0160066 1.21791 254 39 35 
0.110334 0.0801684 1.25952 255 46 45 
0.107954 0.368676 1.2321 26 254 30 
0.0136356 0.459567 1.16201 79 79 79 
0.117238 0.218175 1.25811 51 50 48 
0.0139692 0.0948273 1.19791 62 62 255 
0.100487 -0.0165055 1.25237 254 88 86 
0.0370488 0.0491914 1.20247 0 0 0 
0.108114 0.28861 1.23917 24 255 24 
0.0412579 -2.90927e-05 1.20688 21 24 86 
0.108996 -0.00980609 1.26513 59 59 59 
0.0858385 -0.0138314 1.23923 254 65 64 
0.0645906 0.0280163 1.22026 254 54 53 
-0.02736 -0.21831 1.26543 0 0 0 
0.0458138 -0.191872 1.28623 57 55 254 
0.0121039 0.14312 1.19377 61 252 58 
0.0812337 0.213107 1.22877 254 64 62 
0.0767399 0.0200766 1.22733 58 254 45 
0.0420348 0.53093 1.16163 12 14 254 
0.0483671 0.548565 1.15922 48 253 55 
0.063407 0.0754331 1.22696 254 40 40 
0.124824 0.029608 1.29886 41 254 33 
0.0815471 0.0981981 1.24042 254 20 18 
0.12245 0.0910512 1.28296 255 19 15 
0.0330394 -0.243091 1.30239 27 15 255 
-0.0556326 -0.565934 1.38526 0 0 0 
-0.0554817 0.229912 1.17865 0 0 0 
0.0475694 0.0900029 1.21675 254 36 36 
0.0042922 0.0916349 1.19355 8 8 15 
0.107381 0.0399401 1.26015 56 55 53 
0.0413341 0.488673 1.16704 26 25 254 
0.0624952 0.544077 1.16904 46 251 47 
0.0409659 -0.0624445 1.23282 59 254 61 
0.0817177 -0.215206 1.36238 42 254 47 
-0.126766 -0.0725265 1.23473 0 0 0 
-0.0481776 0.409405 1.15105 0 0 0 
0.0768458 0.0325649 1.22889 38 36 254 
0.0831038 0.418592 1.21314 10 254 25 
-0.0512371 0.413552 1.16125 0 0 0 
-0.102184 0.279248 1.18486 0 0 0 
-0.00103407 0.197678 1.18396 0 0 0 
0.109283 0.24222 1.24686 21 255 27 
0.0809252 -0.188841 1.34874 254 77 76 
0.102417 0.323552 1.2279 47 48 254 
-0.00550677 -0.256981 1.29461 0 0 0 
0.0796749 0.274063 1.22321 47 48 254 
-0.025728 -0.0409825 1.19016 0 0 0 
0.0422326 0.28572 1.20218 60 59 54 
0.0691945 0.536057 1.17638 36 254 39 
-0.0402558 -0.175414 1.24111 0 0 0 
-0.0975464 -0.287961 1.30181 0 0 0 
0.045496 0.273026 1.19487 47 45 46 
0.0134297 -0.041223 1.20388 59 255 64 
0.0614608 0.515249 1.17686 254 67 67 
0.0724177 -0.089396 1.25994 15 254 24 
-0.0489694 -0.368783 1.31742 0 0 0 
0.0696114 -0.00824307 1.21738 89 84 254 
0.0769838 0.49049 1.18978 73 71 74 
0.0668998 0.00080127 1.22416 254 54 53 
0.0672443 0.166922 1.22311 56 54 55 
0.0562015 0.0150331 1.21542 59 252 59 
-0.0218373 0.0705924 1.19208 0 0 0 
-0.0547305 0.401212 1.16666 0 0 0 
-0.125237 -0.213871 1.26716 0 0 0 
0.0619594 0.450117 1.18887 66 64 254 
-0.030689 -0.271512 1.2972 0 0 0 
0.0628396 0.147404 1.22229 46 44 254 
0.115363 0.271363 1.24802 254 48 47 
0.112861 0.115719 1.26326 254 34 32 
-0.0293323 -0.60732 1.40387 0 0 0 
0.116441 0.326151 1.25052 255 51 50 
-0.00981823 0.450645 1.15963 6 1 2 
-0.00548769 0.243111 1.17984 1 0 0 
0.0647725 0.503399 1.18165 254 45 49 
0.0123567 -0.151551 1.25546 0 0 0 
0.072464 0.39425 1.20355 31 30 28 
0.0659888 -0.215486 1.30832 61 57 254 
0.105744 0.00184552 1.26122 10 11 254 
-0.0752226 0.387897 1.15805 0 0 0 
-0.0447232 -0.272415 1.27895 0 0 0 
0.0331182 0.301675 1.19394 28 26 254 
0.0582806 0.353825 1.19584 27 27 27 
0.0465819 0.152283 1.20955 79 76 71 
0.000477839 0.0678297 1.19499 13 16 16 
0.0812587 0.563982 1.17174 30 28 29 
-0.00308857 0.306844 1.18057 0 0 0 
0.120881 0.543328 1.22675 35 36 254 
0.129582 0.412376 1.26666 254 51 50 
0.0209619 -0.0825713 1.26233 93 92 90 
0.0311662 0.0247178 1.20019 254 17 13 
0.0403199 0.467582 1.16828 15 16 254 
0.0495831 0.2489 1.20275 254 30 26 
-0.0130183 0.432172 1.16627 0 0 0 
-0.0334317 0.424644 1.16411 0 0 0 
0.0519865 0.485433 1.17368 42 42 40 
-0.00549384 -0.32257 1.31683 0 0 0 
0.0741956 -0.19626 1.33565 18 254 22 
-0.040834 -0.52594 1.37973 0 0 0 
-0.0200831 -0.547105 1.41807 0 0 0 
0.10315 0.221594 1.23488 255 64 62 
0.0411111 0.0162693 1.20793 0 0 0 
0.0703762 0.577552 1.16691 19 147 23 
0.0839425 -0.0309528 1.24176 254 75 71 
0.0185305 -0.062603 1.21062 254 32 30 
-0.0350308 -0.140707 1.22937 0 0 0 
0.0370365 0.373292 1.18379 49 49 49 
-0.0249143 -0.311088 1.30379 0 0 0 
0.0920426 -0.0323199 1.25137 255 73 72 
-0.0527486 -0.593477 1.38691 0 0 0 
0.117495 0.194474 1.2582 30 28 29 
0.107951 -0.0647698 1.33399 67 60 255 
-0.00240098 0.398887 1.17012 1 1 1 
0.068878 0.127203 1.22619 54 52 254 
-0.0392722 -0.00981769 1.19102 0 0 0 
-0.0213865 0.0397083 1.1845 0 0 0 
0.0534925 0.421643 1.1896 60 61 254 
-0.0410132 -0.0584225 1.19548 0 0 0 
0.0153394 0.374518 1.17557 60 58 61 
-0.133082 0.0872165 1.63028 15 255 19 
0.0853364 0.356452 1.21933 41 254 30 
0.0648357 -0.0200913 1.21523 62 58 254 
0.0809492 0.53132 1.18232 51 50 46 
0.00109691 -0.252903 1.28885 0 0 0 
0.0347866 0.123702 1.20501 254 85 84 
-0.0151763 -0.100894 1.22456 0 0 0 
0.069011 -0.0308015 1.22707 80 75 254 
0.0102428 0.447198 1.16596 75 254 75 
-0.00421886 0.279623 1.17784 0 0 0 
0.100536 0.351405 1.22567 47 45 46 
-0.040036 -0.120119 1.22122 0 0 0 
0.0123766 0.217395 1.19008 45 40 255 
-0.0151151 0.135205 1.18751 0 0 0 
0.0318742 -0.150934 1.26154 77 246 62 
0.0390117 0.312194 1.19209 36 37 254 
0.0298679 0.423419 1.17719 17 16 254 
0.00610748 -0.208816 1.27449 0 0 0 
0.0358576 0.410696 1.18225 71 254 78 
-0.0466876 -0.0446096 1.18992 0 0 0 
-0.0632406 -0.088977 1.21467 0 0 0 
-0.0606153 -0.675955 1.41518 0 0 0 
-0.134971 0.510194 1.18494 0 0 0 
-0.0645726 -0.611017 1.39202 0 0 0 
-0.0566779 -0.557467 1.3787 0 0 0 
-0.0492122 -0.691969 1.41853 0 0 0 
0.0215016 -0.304324 1.32362 0 0 0 
0.135125 0.0597356 1.37582 21 21 255 
0.121451 0.0989529 1.2795 30 28 29 
0.0192173 -0.381404 1.37997 0 0 0 
0.129583 0.0326394 1.30251 54 52 53 
-0.12908 0.446152 1.18407 0 0 0 
0.149761 0.612094 1.3936 254 35 33 
-0.0246959 -0.606407 1.42017 0 0 0 
-0.0546646 -0.669569 1.38814 0 0 0 
0.157185 0.612695 1.38548 51 254 52 
-0.0530134 -0.67391 1.40961 0 0 0 
0.135947 0.393402 1.27964 255 45 44 
0.00650448 -0.0502794 1.21244 255 61 60 
0.0886516 0.101886 1.24462 255 46 46 
0.115414 0.120181 1.27143 255 42 41 
-0.0188338 -0.616987 1.40195 0 0 0 
0.135049 0.110818 1.33931 47 47 255 
0.0214146 -0.333867 1.34778 0 0 0 
0.130443 0.107676 1.30097 70 70 70 
0.0989291 -0.11347 1.34793 51 52 255 
0.112017 0.00297314 1.27154 29 27 255 
0.154871 0.596973 1.27793 45 254 46 
-0.00505828 -0.276523 1.29658 0 0 0 
0.114042 0.137173 1.27144 26 27 255 
-0.0743377 -0.648179 1.41378 0 0 0 
0.0143637 -0.207385 1.27647 5 3 2 
-0.126524 0.298757 1.2072 0 0 0 
0.136756 0.213496 1.30258 24 26 255 
0.0442937 -0.294601 1.37337 254 61 60 
-0.0251638 -0.595601 1.40068 0 0 0 
0.134923 0.483805 1.26896 35 33 255 
0.140311 0.392202 1.29302 45 44 42 
-0.0329985 -0.601564 1.39318 0 0 0 
0.124866 -0.0521533 1.35401 113 254 127 
-0.161942 0.321111 1.24554 0 0 0 
0.133534 0.189981 1.29993 38 22 22 
-0.132875 0.309914 1.20668 0 0 0 
0.126558 0.461947 1.24826 254 47 46 
0.112512 0.105728 1.26296 46 48 47 
0.109526 0.19718 1.24426 30 28 255 
0.0344665 -0.284495 1.32909 0 0 0 
0.00220185 -0.391939 1.35071 0 0 0 
0.141023 0.430732 1.30264 24 23 21 
0.00705606 -0.0324503 1.21143 70 69 65 
0.159264 0.600856 1.26032 254 33 32 
0.0270721 -0.276286 1.31109 1 1 1 
0.119902 0.17159 1.26936 254 21 19 
0.135346 0.0607074 1.3251 27 27 254 
0.0209382 -0.346226 1.36193 0 0 0 
0.0791736 -0.122944 1.30792 80 78 254 
0.0417178 -0.281949 1.35048 90 87 254 
0.0160332 -0.373532 1.3673 0 0 0 
0.0974875 -0.0720476 1.32648 255 95 94 
0.135117 0.146873 1.31976 36 34 35 
0.118204 0.0934803 1.26877 29 29 29 
0.144685 0.511834 1.31196 23 254 27 
0.136473 0.100291 1.31904 44 44 255 
0.139491 0.142673 1.33863 48 255 43 
0.0256754 0.171688 1.19679 0 0 0 
0.136499 0.341462 1.28664 254 42 40 
-0.110395 0.493232 1.17763 0 0 0 
-0.029584 -0.497485 1.37036 0 0 0 
0.0194596 -0.347486 1.35062 0 0 0 
0.129422 0.455341 1.26042 59 57 254 
0.0826327 -0.0847301 1.28067 78 76 254 
0.0866798 -0.0815909 1.29512 29 254 37 
0.137536 0.0846615 1.33814 29 27 28 
0.0262962 -0.311063 1.33447 0 0 0 
0.126351 0.113243 1.28614 51 255 52 
0.120896 0.0615243 1.29083 255 36 38 
0.0826654 0.220141 1.2316 46 254 46 
0.0069934 -0.346041 1.32772 0 0 0 
0.0377329 -0.220445 1.28905 75 72 65 
0.111296 0.0856135 1.26237 29 30 255 
-0.132631 0.463757 1.18795 0 0 0 
0.097551 -0.102977 1.33468 254 53 52 
-0.123215 0.503447 1.18367 0 0 0 
0.0832462 -0.178602 1.34564 34 31 26 
0.141269 0.252235 1.32702 28 255 45 
0.141856 0.581937 1.24774 32 30 31 
0.0427369 -0.099673 1.25023 254 38 36 
0.0127816 -0.367634 1.35818 0 0 0 
0.130047 0.340729 1.26241 53 53 53 
0.127271 0.00846204 1.301 255 39 38 
0.0474369 -0.206734 1.29611 97 102 244 
0.14183 0.214337 1.32606 19 21 255 
0.122761 0.38856 1.24478 35 33 255 
0.136412 0.369992 1.29031 50 51 255 
0.0690049 -0.169722 1.3206 48 254 71 
-0.00449216 -0.578436 1.31971 0 0 0 
0.131461 0.0588905 1.39667 17 15 255 
0.139129 0.275193 1.29811 255 41 21 
0.122866 0.337485 1.25272 32 30 31 
0.149272 0.563146 1.27189 48 49 254 
-0.0202423 -0.49987 1.38097 0 0 0 
0.123272 0.59448 1.21556 54 254 38 
0.0896163 -0.206186 1.32789 36 254 54 
0.0101654 -0.367869 1.34426 0 0 0 
0.119729 0.0749889 1.27687 255 42 40 
0.114031 -0.034927 1.29613 59 56 51 
0.0579308 -0.157195 1.28762 63 59 254 
0.0726391 -0.209384 1.31781 35 254 38 
-0.130736 0.498516 1.18856 0 0 0 
0.0674087 0.051043 1.23103 17 17 17 
0.0661839 -0.160763 1.30252 254 39 40 
0.075327 -0.20718 1.34279 254 91 88 
0.14346 0.284449 1.3138 255 43 27 
0.0667334 -0.170861 1.30124 254 65 64 
0.106973 0.276496 1.23702 254 27 27 
0.137448 0.113547 1.32429 44 44 44 
0.135053 0.128257 1.30651 255 31 31 
-0.0330921 -0.544779 1.3846 0 0 0 
0.0773531 0.571308 1.10141 1 10 1 
0.123669 0.207779 1.26951 255 52 51 
0.0203164 0.414145 1.17433 75 73 254 
0.0732637 -0.16852 1.3111 66 62 254 
-0.119415 -0.180375 1.26801 0 0 0 
0.0258972 -0.200373 1.28228 54 55 252 
0.0053994 -0.158881 1.25541 0 0 0 
0.0656016 0.208917 1.21531 54 54 54 
-0.0101739 -0.351134 1.32083 0 0 0 
0.04078 -0.249373 1.3148 23 22 18 
0.127333 -0.0301019 1.33015 105 255 91 
0.121214 0.424711 1.24625 19 18 16 
0.0232076 -0.14697 1.2573 53 217 66 
0.128264 0.447029 1.24897 50 255 48 
0.128323 0.546234 1.24062 26 24 254 
0.0166598 0.00706836 1.20532 254 65 63 
0.0695121 -0.25474 1.32102 28 29 254 
0.0824578 0.45636 1.19112 254 72 71 
0.110736 0.471197 1.22005 21 254 23 
0.0354879 -0.323592 1.37825 42 41 43 
-0.0126066 0.231111 1.19232 0 1 0 
0.103132 -0.0318656 1.2632 48 43 254 
-0.00601049 -0.142137 1.24213 0 0 0 
-0.0570377 -0.226908 1.27298 0 0 0 
0.150145 0.560838 1.28249 42 254 48 
0.133631 0.378047 1.26901 254 40 39 
0.0971955 0.0463875 1.24808 36 34 254 
-0.116011 0.0420368 1.19051 0 0 0 
0.106169 0.547379 1.20283 29 28 26 
0.103369 0.120985 1.2474 255 56 55 
0.143058 0.484348 1.29187 254 28 26 
0.146093 0.536021 1.30882 63 254 53 
0.0900241 -0.154533 1.36677 33 34 254 
0.132458 0.285735 1.29701 30 255 48 
-0.000804638 -0.227817 1.27431 0 0 0 
0.137894 0.192251 1.32132 30 14 15 
0.143341 0.406536 1.29838 255 36 35 
0.00929253 -0.30276 1.31545 0 0 0 
-0.0899167 -0.186855 1.25271 0 0 0 
0.122981 0.0187727 1.28265 44 45 255 
0.135021 0.199101 1.3019 30 29 27 
0.130782 0.0801271 1.31077 29 255 34 
-0.0125424 -0.282943 1.30089 0 0 0 
0.0721771 -0.21821 1.32289 45 45 254 
0.0701977 0.0572854 1.24292 48 255 48 
0.118227 0.0349756 1.28198 50 50 50 
0.0736484 -0.141269 1.31332 60 56 55 
-0.157569 -0.185215 1.27826 0 0 0 
0.121883 0.00677226 1.284 47 46 44 
0.14054 0.174273 1.32703 29 255 29 
-0.0558351 -0.66578 1.40469 0 0 0 
-0.0722784 -0.240547 1.27055 0 0 0 
-0.0546133 -0.567993 1.40053 0 0 0 
0.138226 0.0123149 1.35804 40 255 46 
-0.0103717 -0.314316 1.30636 0 0 0 
0.130454 0.520514 1.24878 46 42 41 
0.147698 0.543031 1.2843 52 254 52 
0.0744412 0.503086 1.18762 46 44 45 
0.0688643 -0.107644 1.27226 50 254 50 
-0.0328597 -0.515848 1.37745 0 0 0 
-0.1364 0.47768 1.19008 0 0 0 
0.118727 0.41123 1.24003 31 32 254 
0.0959656 -0.117948 1.36318 42 255 43 
0.113993 0.542672 1.21386 46 45 43 
0.127772 0.00905281 1.31944 31 255 30 
0.134862 0.246765 1.28642 255 43 24 
0.121986 0.589037 1.20067 254 41 38 
0.111616 0.0535786 1.27029 59 58 56 
0.0367061 -0.184388 1.28273 36 36 254 
0.131024 0.401086 1.25933 29 28 255 
0.0749461 -0.179471 1.33415 29 254 33 
0.121367 0.438783 1.2341 49 47 254 
0.143352 0.263851 1.32182 23 23 255 
0.134276 0.338555 1.27605 26 255 31 
0.132917 0.138355 1.30788 47 47 255 
0.135338 0.0450844 1.34514 38 39 255 
0.136143 0.0249368 1.34488 41 255 49 
-0.0672386 -0.231342 1.25572 0 0 0 
-0.0410178 -0.376072 1.31972 0 0 0 
0.0804528 -0.149093 1.31893 46 254 49 
-0.0764717 -0.250723 1.26676 0 0 0 
0.102634 0.457188 1.21654 51 254 45 
0.0887424 0.0190295 1.24318 254 51 50 
0.135422 0.0610084 1.3544 21 255 18 
0.129895 0.041605 1.31262 45 43 255 
-0.0261862 0.146095 1.18344 0 0 0 
0.121447 0.478503 1.39245 33 255 35 
0.114664 0.152236 1.26612 47 45 255 
0.136794 0.55045 1.24676 58 54 53 
0.0746123 -0.112118 1.28404 41 38 254 
0.117143 0.281398 1.25367 24 20 254 
0.0421491 0.242468 1.19885 51 49 254 
0.0815386 -0.10547 1.29929 50 48 254 
0.132962 0.00864254 1.31078 31 30 28 
0.140094 0.593069 1.25216 44 43 254 
0.133759 0.0183344 1.31908 20 255 53 
0.139391 0.100331 1.32908 52 48 49 
0.0618072 -0.193246 1.30675 254 34 33 
0.0337466 -0.310042 1.36117 25 26 21 
-0.0729709 0.406849 1.16802 0 0 0 
0.082393 -0.0944333 1.29174 39 35 32 
0.145289 0.0748446 1.41681 255 64 62 
0.0773449 -0.201663 1.3348 254 29 26 
0.13542 0.398566 1.27149 32 254 32 
-0.0313524 -0.238348 1.27278 0 0 0 
0.107503 0.147572 1.2598 40 38 39 
0.14064 0.357612 1.29829 12 10 255 
0.134517 0.17438 1.31778 12 255 12 
0.0784724 0.575442 1.17175 253 74 71 
0.0841262 -0.167308 1.34158 254 39 37 
0.0870436 0.234853 1.23261 255 43 42 
0.116745 -0.0322831 1.30651 66 63 58 
-0.03717 -0.332222 1.30902 0 0 0 
0.135166 0.254526 1.29725 26 255 46 
0.0898599 -0.0998653 1.31574 37 36 34 
0.0932505 -0.0895622 1.31095 54 254 53 
0.135664 0.433796 1.27866 41 40 254 
0.00441268 0.472777 1.15246 48 239 56 
-0.0490252 -0.432034 1.33873 0 0 0 
-0.0499349 -0.538792 1.37619 0 0 0 
0.133557 0.157057 1.30079 40 39 37 
0.145162 0.288496 1.32801 254 66 62 
0.128408 0.12381 1.29408 34 255 40 
0.131288 0.110622 1.30481 255 32 28 
0.141313 0.49529 1.29575 27 25 26 
-0.0984841 0.0107802 1.18888 0 0 0 
0.116908 0.423051 1.23114 35 33 254 
4.78715e-05 -0.356359 1.33033 0 0 0 
0.0841225 0.49607 1.19041 40 254 40 
0.106058 -0.0576139 1.31871 255 61 57 
-0.01545 0.479194 1.15065 0 0 0 
0.132519 0.356309 1.27089 63 254 55 
0.138182 0.551725 1.2571 29 27 254 
-0.0133524 -0.542947 1.43035 0 0 0 
0.1435 0.538731 1.29349 254 29 28 
0.130239 0.294979 1.27424 255 38 26 
0.105303 0.468576 1.21054 25 23 254 
0.116738 -0.0227178 1.27861 85 82 77 
0.117821 0.178727 1.25737 254 50 48 
0.115701 0.299745 1.24076 48 46 255 
0.00248265 -0.335555 1.32018 0 0 0 
0.147392 0.606156 1.27618 33 32 30 
0.105154 -0.0333917 1.26721 54 254 63 
0.124617 0.0793828 1.28947 32 33 254 
-0.0344361 -0.450647 1.34904 0 0 0 
-0.118774 0.531323 1.18021 0 0 0 
0.111425 -0.0681332 1.34823 59 57 255 
0.0930511 0.455251 1.20271 41 40 38 
0.00664001 -0.377138 1.35534 0 0 0 
0.110188 0.00557543 1.24082 47 45 255 
0.0354238 0.415567 1.18473 74 74 254 
0.119008 0.453537 1.2357 254 48 47 
0.0619498 -0.176276 1.29507 254 72 71 
0.119471 0.11307 1.27698 47 45 46 
0.064916 0.461811 1.18343 74 75 77 
0.140144 0.474106 1.28448 32 254 33 
0.106998 0.0295307 1.26159 254 63 63 
0.0388043 -0.309354 1.36984 52 255 49 
0.0318811 -0.0614036 1.23627 56 54 55 
0.0763061 0.536527 1.1767 37 35 254 
0.0770021 -0.222492 1.3311 73 254 69 
0.139564 0.00651685 1.34994 40 38 255 
-0.00921947 0.182326 1.19523 1 4 1 
0.0787953 -0.211126 1.32897 254 60 57 
0.0285797 -0.333787 1.36633 0 0 0 
0.0741567 -0.12018 1.29549 56 55 51 
0.0720508 0.370495 1.20307 50 254 56 
-0.11366 0.539851 1.1812 0 0 0 
-0.0579642 0.412216 1.16842 0 0 0 
-0.0444538 -0.519241 1.36914 0 0 0 
0.0970825 0.0261383 1.24358 50 49 47 
-0.0705437 0.182397 1.18991 0 0 0 
0.0397912 -0.302969 1.35571 56 197 47 
0.13326 0.0900918 1.31809 41 255 39 
0.0491221 -0.0780463 1.24845 15 19 254 
0.109305 0.0687127 1.25798 40 38 39 
0.0160611 0.508146 1.15217 37 36 34 
0.111057 0.133664 1.25582 255 62 60 
-0.00374986 -0.427105 1.35706 0 0 0 
-0.0552186 -0.214918 1.25558 0 0 0 
-0.0555241 0.377082 1.17494 0 0 0 
0.142758 0.464547 1.31309 40 255 42 
0.0964872 0.265933 1.23216 62 255 52 
0.11617 0.0535712 1.28108 15 14 12 
-0.053365 -0.657654 1.40008 0 0 0 
0.109263 -0.0164717 1.23523 52 50 51 
0.138377 0.1621 1.32226 37 35 255 
-0.128201 -0.0503645 1.23346 0 0 0 
-0.00835367 -0.0100552 1.17807 2 2 2 
0.134917 0.538932 1.26439 45 254 50 
0.0860902 0.465129 1.19663 44 43 41 
0.0249194 -0.31743 1.34626 0 0 0 
0.078748 0.0587246 1.24858 23 22 20 
0.124424 -0.00483927 1.29221 61 59 255 
0.134809 0.00105301 1.30721 254 55 54 
0.133878 0.288208 1.28174 27 29 255 
-0.123002 0.560829 1.19566 0 0 0 
0.112794 0.374005 1.23075 255 28 27 
0.123085 0.596628 1.1867 63 59 230 
0.140664 -0.0107605 1.36057 60 60 58 
0.128199 0.102274 1.29153 255 38 36 
0.0831074 -0.11133 1.30989 254 74 73 
0.0539736 -0.159989 1.27373 254 56 44 
0.0859583 -0.120155 1.32895 254 64 64 
0.127518 0.552049 1.21857 34 33 31 
-0.0450018 -0.170956 1.25041 0 0 0 
0.0354345 0.44659 1.17486 11 254 0 
0.143243 0.00519257 1.37225 255 44 43 
0.0879465 0.328542 1.22208 47 46 44 
0.0537262 -0.186011 1.29704 68 254 98 
-0.0461958 0.441071 1.15784 0 0 0 
0.105541 0.316637 1.23081 64 63 61 
-0.0772145 -0.16301 1.24906 0 0 0 
0.0928346 0.213841 1.2325 24 26 255 
0.136229 0.243584 1.30032 255 49 28 
-0.0149231 -0.440313 1.35666 0 0 0 
0.107554 0.00821881 1.26305 67 66 64 
0.0638932 -0.112514 1.26296 254 56 55 
-0.134857 -0.180341 1.27751 0 0 0 
0.0579415 0.00196058 1.23475 4 3 0 
-0.0711757 0.43091 1.16578 0 0 0 
0.0884723 0.147259 1.24556 46 44 255 
0.13464 -0.00680759 1.31723 86 86 86 
0.0654406 0.483279 1.1754 73 73 254 
0.0293238 0.356305 1.18203 71 69 254 
0.114549 0.240742 1.25201 52 50 51 
0.0896376 -0.141303 1.34913 12 11 9 
0.0763308 0.301861 1.21639 254 47 46 
0.0458086 -0.237126 1.31685 254 59 58 
0.135457 0.304781 1.28739 30 31 254 
-0.0215221 0.51914 1.14867 1 1 1 
0.00139804 0.54153 1.1445 11 10 9 
0.135568 0.00466695 1.36632 34 33 31 
0.00333452 0.593731 1.11805 3 1 1 
-0.0838087 -0.251041 1.25052 0 0 0 
0.115267 0.204795 1.25712 50 255 56 
-0.0195763 -0.392612 1.3364 0 0 0 
0.137033 0.36111 1.27967 16 16 16 
0.138926 0.296765 1.30105 28 255 47 
0.0332521 8.6901e-05 1.21999 46 254 49 
0.125924 0.53337 1.24457 51 50 48 
0.121286 -0.0447263 1.34217 106 255 107 
0.120397 0.29283 1.24927 255 29 28 
0.12318 0.405307 1.24629 48 47 45 
0.0492196 -0.264765 1.33642 28 27 25 
0.129638 0.411971 1.26359 39 38 36 
0.0296514 -0.162976 1.26685 51 49 52 
-0.0234027 0.00441217 1.1846 0 0 0 
0.0939461 -0.0531571 1.28317 103 98 255 
0.115075 -0.013163 1.2681 53 255 50 
0.0706381 0.351987 1.20365 254 40 39 
-0.117139 0.327119 1.19674 0 0 0 
-0.0276276 -0.405051 1.32771 0 0 0 
-0.0291066 -0.548692 1.39574 0 0 0 
-0.0297258 0.223148 1.17987 0 0 0 
0.0287678 -0.0838697 1.24029 254 72 69 
0.139366 0.595004 1.24173 49 48 254 
0.127459 0.224269 1.27182 22 21 255 
0.0902293 -0.0646448 1.28532 43 40 35 
0.0936042 -0.142694 1.36656 23 21 22 
0.0866928 -0.0603517 1.27041 66 254 77 
0.104997 0.152087 1.24899 20 18 19 
0.00531449 -0.401743 1.364 0 0 0 
0.0772376 0.592939 1.1566 11 10 10 
0.0942071 0.411292 1.21465 254 44 43 
0.0291895 -0.000270407 1.18821 34 32 33 
0.121331 0.257181 1.26344 34 255 40 
0.101467 -0.111961 1.35768 37 255 32 
0.135069 0.322963 1.28207 42 38 254 
0.112791 0.589918 1.16623 60 55 206 
-0.0489879 -0.484864 1.35605 0 0 0 
0.0513557 0.45385 1.17562 73 72 254 
0.0110984 -0.0505076 1.22579 254 81 79 
0.0856816 0.270712 1.22969 255 18 17 
0.0697645 0.491832 1.18222 72 254 72 
0.116627 0.346022 1.24363 39 40 254 
0.0812121 -0.221892 1.34138 254 62 61 
0.0155872 -0.229797 1.29061 9 6 6 
0.0911011 -0.0490099 1.24877 70 70 72 
-0.0940093 -0.249946 1.25545 0 0 0 
0.0949552 -0.084249 1.324 255 47 46 
0.137161 0.465807 1.29329 45 44 42 
0.0306397 0.177512 1.20953 254 54 51 
0.126972 0.17016 1.28449 254 55 55 
0.133638 0.00999607 1.33309 10 255 10 
0.116701 0.360173 1.23912 255 30 29 
-0.0327281 -0.406416 1.33668 0 0 0 
0.112465 0.594626 1.17789 66 226 69 
-0.1385 0.547452 1.17836 0 0 0 
-0.123239 0.210952 1.20599 0 0 0 
-0.109507 0.550235 1.17572 0 0 0 
-0.0564228 -0.607064 1.37312 0 0 0 
-0.0639679 -0.231732 1.26653 0 0 0 
0.0225748 0.434458 1.17507 70 254 108 
0.0302107 -0.110833 1.26531 47 45 254 
0.134534 0.52949 1.26862 36 34 254 
0.150292 0.548452 1.3412 57 56 54 
-0.00725775 0.0137334 1.18739 0 0 0 
-0.000577586 -0.435887 1.37584 0 0 0 
0.109923 0.264421 1.24095 35 254 34 
-0.0193191 -0.50149 1.40144 0 0 0 
0.122851 0.0657523 1.28191 46 255 34 
-0.118886 0.516788 1.18111 0 0 0 
-0.00452197 -0.415843 1.35217 0 0 0 
0.135705 0.427282 1.26481 35 34 32 
0.1037 0.0913043 1.25527 255 58 58 
0.128977 0.0601248 1.31127 35 255 40 
0.136623 0.461075 1.26908 255 37 36 
0.0674069 0.31327 1.20981 254 30 30 
0.146587 0.472088 1.32153 21 18 255 
0.0308431 -0.170449 1.27545 253 52 43 
0.039788 0.515184 1.16029 254 17 17 
0.0543581 0.0278889 1.20601 43 39 254 
