ply                 
format ascii 1.0    
element vertex 1303
property float x    
property float y    
property float z    
property uchar red  
property uchar green
property uchar blue 
end_header          
0.123843 0.109867 1.39859 41 39 40 
0.122209 0.193354 1.4044 48 255 54 
0.0928417 0.319408 1.453 254 56 55 
0.117416 0.124545 1.41985 54 53 51 
0.0657376 -0.12431 1.46606 254 54 52 
0.11059 -0.0553129 1.41061 72 73 254 
0.066079 -0.109698 1.46953 0 0 0 
0.0520993 -0.261867 1.40432 0 0 0 
0.108263 -0.107694 1.37617 76 50 52 
0.131061 0.374932 1.33846 39 40 254 
0.133374 0.218352 1.33916 64 254 48 
0.1161 0.37812 1.41344 43 254 38 
0.140126 0.453096 1.32099 254 34 32 
0.0854558 -0.183847 1.36876 0 0 0 
0.118986 0.0165922 1.44347 0 0 0 
0.08852 -0.0416123 1.47161 107 255 76 
0.130655 0.430213 1.37023 59 55 254 
0.112814 0.121011 1.42867 255 29 28 
0.0900474 0.0960942 1.4667 0 0 0 
0.116067 0.435053 1.41389 254 68 64 
0.138347 0.235156 1.33151 38 40 254 
0.100159 0.409957 1.4405 58 54 51 
0.120677 0.168893 1.40451 47 46 44 
0.0461105 -0.23737 1.43203 0 0 0 
0.112797 0.159278 1.26634 0 0 0 
0.135689 0.190613 1.33005 71 69 70 
0.112226 0.459771 1.42949 244 71 70 
0.0751326 -0.205734 1.38369 0 0 0 
0.0701557 -0.165358 1.42489 71 254 73 
0.0660643 -0.241691 1.38565 0 0 0 
0.151305 0.553806 1.3193 69 67 254 
0.128281 -0.0168163 1.41771 254 49 48 
0.170167 0.618522 1.35387 0 0 0 
0.126509 0.114731 1.3733 0 0 0 
0.130954 0.0722816 1.32131 0 0 0 
0.130298 0.405468 1.34081 54 55 253 
0.0769567 -0.154051 1.4217 24 21 254 
0.0642948 -0.155998 1.45131 254 100 82 
0.168559 0.62369 1.36605 5 6 4 
0.0878908 -0.150328 1.39392 245 47 46 
0.119843 0.149909 1.4055 45 255 35 
0.129599 0.302945 1.34114 254 57 56 
0.128428 0.276293 1.34714 58 57 55 
0.1087 0.276598 1.43061 9 9 9 
0.130081 0.00402182 1.42394 64 64 64 
0.0473111 -0.27273 1.40431 0 0 0 
0.170647 0.607087 1.36239 56 55 52 
0.129217 0.320364 1.37686 41 39 254 
0.0833489 0.333537 1.46249 0 0 0 
0.125405 0.245024 1.38916 254 51 49 
0.0438328 -0.261948 1.42484 0 0 0 
0.132967 0.599159 1.41671 50 254 55 
0.100026 0.0954512 1.45313 70 70 254 
0.0851506 -0.167106 1.39496 125 132 139 
0.12533 0.190865 1.3854 81 79 255 
0.12388 0.257327 1.39431 71 69 70 
0.111617 0.317457 1.40743 255 48 44 
0.173856 0.633156 1.3706 0 0 0 
0.132189 0.417428 1.32209 44 42 43 
0.13445 0.136423 1.32474 63 34 36 
0.142228 0.574039 1.39303 31 254 34 
0.127302 0.122396 1.35841 21 20 18 
0.0409267 -0.217643 1.4589 33 254 46 
0.174013 0.613188 1.31712 0 0 0 
0.113295 0.257461 1.4073 40 39 255 
0.159434 0.596743 1.32959 33 30 254 
0.148541 0.58896 1.37804 49 45 254 
0.0838742 -0.0950679 1.43951 58 254 64 
0.115615 0.174514 1.41934 68 67 65 
0.0300815 -0.213942 1.48386 254 58 57 
0.119408 -0.0378496 1.40081 80 254 86 
0.152027 0.566899 1.34094 55 54 50 
0.0755643 -0.0753544 1.47354 36 37 255 
0.112158 0.277615 1.4048 42 254 41 
0.128529 0.357561 1.3752 65 64 62 
0.147583 0.559907 1.35983 43 44 254 
0.124964 0.100081 1.38083 254 43 43 
0.113137 0.150413 1.42682 72 70 255 
0.101652 0.279259 1.44321 255 62 61 
0.112163 0.355865 1.42127 56 55 51 
0.139722 0.479688 1.3741 62 254 65 
0.0801287 -0.193527 1.36822 0 0 0 
0.098523 -0.0952755 1.33709 0 0 0 
0.132183 0.450847 1.37367 51 254 59 
0.132553 0.422606 1.3588 254 49 48 
0.1113 0.0547571 1.45502 254 59 55 
0.142479 0.50385 1.3296 254 60 58 
0.100284 -0.125378 1.35848 0 0 0 
0.141149 0.527602 1.34462 254 59 57 
0.138722 -0.0104932 1.36901 63 254 69 
0.125515 0.0733336 1.42122 60 59 57 
0.132947 0.261849 1.30263 0 0 0 
0.130305 0.339054 1.35557 59 57 254 
0.112994 -0.0884943 1.36669 13 8 9 
0.126729 0.24093 1.3661 79 76 254 
0.126933 0.213195 1.35835 78 77 73 
0.137163 0.539622 1.38403 50 48 254 
0.112569 -0.0150681 1.4509 255 73 71 
0.118334 0.288763 1.39803 0 0 0 
0.065962 -0.215557 1.40416 0 0 0 
0.120284 0.204165 1.40292 0 0 0 
0.156333 0.596426 1.34734 27 254 34 
0.136083 0.483949 1.39167 67 67 67 
0.129261 0.0328289 1.42534 79 254 69 
0.0701883 -0.152598 1.43659 82 254 98 
0.0956826 0.181785 1.45439 61 58 254 
-0.138606 -0.626282 1.40911 0 0 0 
0.1268 0.227974 1.35031 57 63 226 
0.143464 0.478029 1.353 254 75 74 
0.125866 0.204992 1.37986 50 49 47 
0.145487 0.554111 1.35437 0 0 0 
0.122001 0.391116 1.26636 0 0 0 
0.0666153 -0.171014 1.43145 55 254 70 
0.122389 0.246992 1.3992 72 71 255 
0.142084 0.511857 1.34549 49 47 48 
0.062146 -0.193114 1.42854 254 58 58 
0.0784324 -0.20472 1.36937 0 0 0 
0.132676 0.440409 1.35141 72 254 69 
-0.0503932 -0.575232 1.43337 0 0 0 
0.172247 0.602824 1.34259 33 28 24 
-0.0399815 -0.495382 1.43507 0 0 0 
-0.0557221 -0.636823 1.41263 0 0 0 
-0.104229 0.0102372 1.1568 0 0 0 
-0.0254712 -0.00262314 1.33531 53 50 254 
-0.0494891 -0.649008 1.41403 0 0 0 
-0.0508043 -0.673134 1.41313 0 0 0 
-0.0437762 -0.565788 1.40778 0 0 0 
0.116045 0.619886 1.47272 40 39 254 
0.0593141 0.475081 1.48414 67 254 60 
0.0676722 0.403563 1.47541 0 0 0 
0.0480596 0.470309 1.49054 65 255 78 
-0.0764868 -0.185731 1.53292 51 255 62 
0.139848 0.64859 1.47253 0 0 0 
0.0562892 0.00151913 1.52075 77 75 78 
0.0476404 0.378892 1.48846 254 104 103 
0.0690747 0.328043 1.47748 67 66 64 
0.0572195 0.502763 1.48309 255 65 64 
-0.0643186 -0.684822 1.39422 0 0 0 
0.131631 0.1304 1.34706 0 0 0 
0.0430515 0.475777 1.49702 76 75 73 
0.128307 0.111091 1.34921 1 3 2 
0.0485337 0.508069 1.49169 255 47 43 
0.113724 0.295079 1.41055 255 79 75 
0.072337 0.466467 1.47576 255 77 73 
0.0978793 0.28528 1.44766 0 0 0 
0.0858821 0.311198 1.46237 0 0 0 
0.0692422 0.39021 1.47489 254 49 48 
0.128953 0.245049 1.34026 0 0 0 
0.140336 -0.0128809 1.32854 0 0 0 
0.113011 -0.0270097 1.42637 85 86 254 
0.135097 0.466324 1.38153 62 60 254 
0.112504 0.325734 1.41773 0 0 0 
0.130687 0.592962 1.41595 53 49 50 
0.105082 -0.0548925 1.42164 71 254 82 
0.0768019 -0.0967418 1.45578 0 0 0 
0.0859512 0.0679429 1.49364 255 41 39 
0.0798054 0.304817 1.46875 254 79 75 
0.0770335 0.259354 1.47359 0 0 0 
0.0832565 0.0869111 1.48043 255 72 71 
0.0733619 0.129527 1.4852 41 39 40 
0.0534509 -0.206705 1.44066 43 44 254 
0.0655825 0.349356 1.48004 82 81 77 
0.0827498 0.505017 1.46346 255 69 66 
0.128256 0.618268 1.45781 25 254 29 
0.0981359 0.0326375 1.47456 0 0 0 
0.030205 0.465282 1.49647 79 78 73 
0.134841 0.123342 1.33969 0 0 0 
0.083018 0.288888 1.4667 0 0 0 
0.019018 0.52154 1.50567 63 255 72 
-0.0123955 -0.216953 1.51165 54 254 60 
0.0167612 0.393309 1.50252 254 83 80 
0.0561772 0.0690164 1.51554 27 25 255 
0.0382859 -0.262219 1.43569 0 0 0 
0.10816 0.437178 1.42765 71 70 66 
0.0814431 -0.206161 1.34436 0 0 0 
0.0879197 0.047424 1.48598 8 6 9 
0.0597149 0.409929 1.48137 254 77 73 
0.0590789 0.320692 1.48634 0 0 0 
0.0204892 0.0898895 1.52087 52 51 49 
0.101165 0.211429 1.44533 63 61 255 
0.13487 0.406747 1.32637 11 8 25 
0.138054 0.300352 1.31804 0 0 0 
0.0653796 0.519565 1.47839 69 64 255 
0.0470582 0.52004 1.4894 71 68 63 
0.130022 -0.0239149 1.39807 78 78 254 
0.0751703 0.518276 1.47364 69 65 62 
0.0236431 0.488383 1.5034 70 66 255 
0.11213 0.470933 1.43383 64 57 227 
0.0976672 -0.0406777 1.45731 66 67 254 
0.0563136 0.395168 1.48152 63 62 58 
0.0599253 0.274517 1.48742 0 0 0 
0.0977518 -0.0299326 1.46609 55 56 254 
0.128457 0.16965 1.34732 0 0 0 
0.108426 0.16694 1.43492 64 61 255 
0.056998 -0.145301 1.47594 48 48 48 
0.0890363 0.104213 1.4715 69 67 255 
0.131012 0.0893953 1.34876 0 0 0 
0.0815269 -0.0562085 1.47987 33 32 255 
0.0795318 0.490524 1.47173 0 0 0 
0.0989121 0.311429 1.44723 47 254 60 
0.136318 0.181799 1.3404 0 0 0 
-0.0481881 -0.55699 1.44366 0 0 0 
0.119155 -0.0301838 1.41911 81 79 80 
0.153236 0.600461 1.28463 8 8 8 
0.116143 0.186452 1.41108 255 43 45 
0.123642 0.439374 1.39906 55 54 52 
0.00931109 -0.367989 1.43343 0 0 0 
0.0903067 0.22426 1.46109 0 0 0 
0.0738093 0.199712 1.48058 73 254 79 
0.139346 0.2608 1.33065 0 0 0 
0.0873423 0.177551 1.467 0 0 0 
0.125568 0.176103 1.37084 30 30 254 
0.0617585 0.0679476 1.50373 122 84 87 
0.0800004 0.324101 1.46728 72 69 254 
0.0183285 0.450892 1.49409 53 53 43 
0.100885 -0.0859957 1.41056 254 62 60 
-0.00728075 -0.32158 1.46121 1 2 1 
0.128226 0.1865 1.34352 0 0 0 
0.0364905 -0.321094 1.39678 0 0 0 
0.0923627 -0.0718853 1.43255 0 0 0 
0.0557744 -0.272985 1.38747 0 0 0 
0.0780852 0.569329 1.4816 39 39 37 
0.0789217 0.188104 1.47362 55 254 65 
0.122386 0.485684 1.2535 0 0 0 
0.10595 0.564641 1.45248 43 42 37 
0.0938489 0.104011 1.4596 254 68 66 
-0.00255002 -0.0661375 1.51825 254 90 89 
0.099593 0.377067 1.44228 254 71 70 
0.0859409 -0.100425 1.42993 254 58 56 
0.0918326 0.134297 1.46281 68 255 70 
0.0959807 0.0827308 1.4592 255 49 48 
0.152286 0.618609 1.42231 49 44 254 
0.103291 0.398726 1.43793 45 44 40 
0.0916677 -0.0547439 1.43903 254 65 64 
0.0280465 -0.282588 1.45281 0 1 1 
0.129187 0.35774 1.33528 167 35 35 
0.00432468 -0.240032 1.48043 38 34 254 
0.120596 0.514142 1.41762 73 245 69 
0.0780138 0.223599 1.47455 0 0 0 
0.056324 -0.250551 1.40256 0 0 0 
0.0759169 0.285076 1.47465 71 67 254 
0.0770993 0.407856 1.46667 52 48 254 
0.0283743 -0.0189967 1.5229 67 65 255 
0.12413 0.272 1.27794 0 0 0 
0.135474 0.122397 1.31486 0 0 0 
0.130455 -0.00634657 1.41488 99 95 94 
0.0788491 -0.180989 1.39629 0 0 0 
0.00136538 -0.285798 1.46571 41 39 253 
0.11952 0.248029 1.26755 0 0 0 
0.0646513 -0.133619 1.4648 94 93 91 
0.0481557 0.41352 1.48545 81 254 96 
0.0611805 -0.230356 1.39753 0 0 0 
0.104766 0.617438 1.48396 1 1 1 
0.0644898 0.362486 1.47997 77 73 255 
0.140165 0.352739 1.32671 0 0 0 
0.0602059 0.0332111 1.51085 48 46 49 
0.0161377 0.289245 1.509 37 254 63 
0.0232165 -0.356225 1.40595 0 0 0 
0.100278 0.136656 1.45727 74 73 68 
0.0686808 -0.230931 1.38817 0 0 0 
0.0541693 0.488878 1.49156 62 255 54 
0.0611581 -0.221233 1.32151 0 0 0 
0.0407502 -0.284616 1.42341 0 0 0 
0.0263252 -0.342759 1.40632 0 0 0 
0.107345 0.0481237 1.46176 0 0 0 
0.04614 0.606433 1.50352 54 254 61 
0.0331335 -0.266804 1.44454 0 0 0 
0.0676073 0.0909705 1.49278 59 57 255 
0.152996 0.596759 1.26802 0 0 0 
0.0997775 0.0425167 1.47711 255 111 111 
0.129483 0.076958 1.35206 7 8 8 
0.12189 0.307677 1.37977 49 47 254 
0.107605 0.0750518 1.44834 68 255 63 
0.0621435 -0.0431398 1.49893 64 63 61 
0.0973333 0.0318775 1.48367 59 59 59 
0.104856 0.176909 1.43878 1 1 1 
0.0657585 0.225546 1.48734 254 80 73 
0.0187764 -0.231524 1.4802 49 41 254 
0.106074 0.315632 1.43634 79 76 254 
0.169985 0.622547 1.30971 0 0 0 
0.129427 0.00528584 1.44021 254 74 74 
0.0606001 0.564225 1.49212 77 254 80 
0.0518056 0.335507 1.49058 78 254 89 
-0.0356468 -0.516081 1.41422 0 0 0 
0.106805 0.269111 1.42671 255 47 43 
0.0996057 -0.00637676 1.4817 24 255 42 
0.0384157 0.403321 1.4936 253 68 67 
0.0741056 -0.125343 1.45137 42 43 254 
0.0976661 0.567446 1.46355 66 65 61 
0.117614 0.0532626 1.44112 0 0 0 
-0.0425048 -0.496555 1.4235 0 0 0 
0.0668014 -0.0313632 1.49885 80 255 82 
0.0822978 0.394013 1.46263 76 75 71 
0.0597184 -0.205994 1.42162 0 0 0 
0.0665952 0.287173 1.48141 68 254 69 
0.0429706 0.188313 1.50396 52 255 63 
0.0443468 0.267092 1.49889 76 73 64 
0.082931 0.347051 1.46666 254 105 104 
0.0566072 0.265193 1.49071 78 74 71 
0.123621 0.419583 1.39434 63 58 52 
0.115005 0.563403 1.44133 48 47 45 
0.118174 0.4068 1.41082 50 45 255 
0.040165 -0.176337 1.48478 254 71 71 
0.117402 0.0110773 1.4541 0 0 0 
0.132495 0.527553 1.2793 4 4 4 
0.0787628 0.360158 1.46763 76 72 254 
0.090274 0.252247 1.45915 0 0 0 
0.144799 0.0310006 1.44979 28 26 29 
0.0749512 0.106858 1.4835 69 68 66 
0.0509253 -0.283234 1.38963 0 0 0 
0.070114 0.165728 1.48482 75 77 254 
0.0819051 0.151491 1.47336 0 0 0 
0.123093 0.184177 1.39332 80 254 82 
0.0878721 0.126559 1.46773 0 0 0 
0.0015184 -0.406504 1.42441 0 0 0 
0.107394 0.238496 1.42458 45 44 42 
0.0823411 0.0178912 1.49317 0 0 0 
-0.00459983 -0.362348 1.33871 0 0 0 
0.114215 0.32592 1.4035 43 41 254 
0.0834076 -0.0849168 1.44824 254 57 55 
0.196459 0.589041 1.40318 28 254 30 
0.0980456 0.163266 1.4521 24 33 12 
0.0363147 -0.242364 1.45373 61 51 254 
0.0837157 0.518236 1.46397 74 71 254 
0.10027 0.453133 1.4381 69 253 69 
0.0885318 0.312904 1.44931 50 254 55 
0.133489 0.521327 1.33184 67 254 70 
0.0664429 0.310757 1.4783 59 56 255 
0.00841326 -0.402476 1.41423 0 0 0 
0.082594 0.420149 1.45564 71 70 66 
-0.0271521 -0.583111 1.40467 0 0 0 
0.116115 0.245685 1.41446 255 59 53 
0.0718496 0.213747 1.4812 55 55 55 
0.108702 0.194741 1.43368 114 112 113 
0.0219194 -0.225164 1.47046 254 60 60 
0.0990515 0.25249 1.44808 59 59 57 
0.0837713 0.40549 1.45989 71 70 66 
0.11233 0.368787 1.41189 64 60 254 
0.1013 -0.0313041 1.44832 254 37 35 
0.104591 -0.0187715 1.46434 47 254 50 
0.105956 0.478574 1.44279 43 254 46 
0.0716861 0.610168 1.48811 47 254 50 
0.137847 0.387983 1.31652 0 0 0 
0.135077 -0.0136034 1.34094 0 0 0 
0.00933777 0.403744 1.50363 81 254 86 
0.052522 -0.23186 1.41455 0 0 0 
0.139767 0.309227 1.32603 0 0 0 
0.102262 0.136686 1.44645 70 255 73 
0.0657591 -0.204778 1.40856 0 0 0 
0.0621535 0.30844 1.48395 0 0 0 
0.104963 0.293947 1.43663 39 36 254 
0.0988752 0.4756 1.45051 95 254 99 
0.17294 0.598583 1.29498 0 0 0 
0.119637 0.259898 1.43939 255 48 47 
0.0300071 -0.0462619 1.51191 79 255 80 
0.129395 0.449912 1.38355 55 59 254 
0.126734 0.177822 1.38151 90 88 89 
0.0897972 -0.0126667 1.4871 59 57 58 
0.0557542 -0.169257 1.46163 63 51 51 
0.104612 -0.0410981 1.44528 35 36 254 
0.0913444 0.513643 1.456 70 254 70 
0.171239 0.61539 1.30141 0 0 0 
0.129728 0.156984 1.30597 0 0 0 
0.0707859 -0.137585 1.44692 107 105 106 
0.0825892 0.249395 1.46696 78 76 255 
0.134155 0.588015 1.38966 53 48 254 
0.0502427 0.387626 1.49199 51 255 57 
0.140974 0.164535 1.3365 0 0 0 
-0.0877989 -0.162367 1.53788 45 255 44 
0.0385104 0.203212 1.50612 255 83 80 
0.118234 0.506245 1.42707 0 0 0 
0.172942 0.603468 1.39927 33 29 253 
0.0931904 0.282939 1.45547 73 69 68 
0.144348 0.585 1.25389 0 0 0 
0.091205 0.269756 1.45445 60 58 254 
0.129699 0.530507 1.39211 6 18 6 
0.0635835 0.0591846 1.50987 255 33 33 
0.111952 0.132214 1.4326 255 55 53 
0.105364 0.0142471 1.46516 55 255 51 
0.056803 0.0811166 1.50124 31 29 255 
0.089153 0.608213 1.47106 39 38 254 
0.0687255 0.252441 1.47842 255 66 63 
0.121893 0.576703 1.22973 0 0 0 
0.0433724 -0.264463 1.4146 0 0 0 
0.0464165 0.140495 1.50113 255 62 58 
0.124479 0.525151 1.41199 81 77 76 
0.106057 0.463497 1.43507 49 48 254 
0.0791038 0.0540861 1.49719 1 1 1 
0.0781643 0.386505 1.46633 84 83 79 
0.0289224 0.395938 1.49853 73 70 254 
0.133473 0.445122 1.31733 31 31 138 
0.05328 0.608407 1.49741 50 48 254 
0.111115 -0.042233 1.41819 254 56 54 
0.0925693 0.485872 1.46079 0 0 0 
0.0875621 0.431247 1.45554 64 61 254 
0.104782 0.292854 1.42019 255 61 60 
0.0945861 0.185642 1.43839 62 58 55 
0.0798947 -0.148276 1.40865 0 0 0 
0.0967817 0.402432 1.44437 57 56 52 
0.0813347 0.460764 1.46722 65 254 69 
0.118315 0.53947 1.42415 56 54 55 
0.0789701 0.552785 1.47346 54 53 51 
0.0941283 -0.132056 1.39621 0 0 0 
0.0805833 0.0972978 1.47801 1 1 1 
0.0771669 0.0155472 1.50436 0 0 0 
0.0078695 -0.424008 1.39081 0 0 0 
0.126964 -0.0570136 1.37418 0 0 0 
0.101051 0.465065 1.44544 66 65 63 
0.090398 -0.0764539 1.44195 69 67 254 
0.124268 0.491863 1.42232 2 1 3 
0.0886204 0.240133 1.46401 40 254 41 
0.11148 0.519069 1.23755 0 0 0 
0.134733 0.0601054 1.40873 254 71 69 
0.137965 0.0555652 1.33033 0 0 0 
0.0983557 0.354864 1.44452 60 56 53 
0.0617908 -0.000601235 1.5116 77 75 78 
0.14179 0.495827 1.31483 255 43 41 
0.139814 0.0222908 1.3093 0 0 0 
0.120418 0.563261 1.43261 46 45 43 
0.0328189 0.126689 1.51185 49 47 255 
0.0577408 0.180479 1.49339 52 255 61 
0.107139 0.484868 1.2393 0 0 0 
0.0571461 0.0925837 1.5006 0 0 0 
0.0975702 0.582256 1.19977 0 0 0 
0.0902793 -0.132893 1.38302 0 0 0 
0.082336 -0.135402 1.42064 253 41 39 
0.0529182 -0.218733 1.43297 120 121 128 
0.0607819 0.299894 1.48489 70 254 68 
0.141423 0.591966 1.37672 45 254 55 
0.0423623 0.104397 1.50871 255 72 71 
0.0230507 -0.311682 1.43566 0 0 0 
0.119631 0.520337 1.43117 50 254 51 
0.136682 0.58572 1.40132 45 254 44 
0.0582755 0.252655 1.48957 57 54 47 
0.0165645 -0.352758 1.41873 0 0 0 
0.1563 0.599929 1.30602 43 39 253 
0.0528013 0.126268 1.50072 73 70 255 
0.14392 0.502528 1.35143 48 48 48 
-0.0388148 -0.315948 1.47422 48 254 53 
0.108758 0.273327 1.41559 24 21 255 
0.109727 0.182181 1.41946 255 41 40 
0.0478016 -0.225697 1.4408 76 71 67 
0.0690295 -0.160474 1.44241 97 254 111 
0.160119 0.595011 1.27818 2 1 1 
0.0865002 -0.128466 1.41203 46 47 250 
0.127964 0.263444 1.3553 43 252 55 
0.105852 0.340427 1.43498 74 74 255 
0.122601 -0.0275373 1.40712 0 0 0 
0.105377 0.113348 1.44534 44 51 130 
0.134517 0.0296162 1.34988 0 0 0 
0.149735 0.00745998 1.27908 0 0 0 
0.0675739 -0.19033 1.41889 0 0 0 
0.126008 0.319296 1.386 42 40 41 
0.164215 0.596287 1.31748 251 51 50 
0.129156 0.319845 1.36447 53 54 254 
0.122156 0.0848351 1.40288 53 58 254 
0.0392526 -0.290234 1.40887 0 0 0 
0.0868377 -0.136422 1.40449 1 1 1 
0.0925395 0.0202858 1.48607 23 255 22 
0.135379 0.546343 1.39613 33 30 24 
-0.0303869 -0.408339 1.48302 0 0 0 
-0.0733354 0.440069 1.41868 0 0 0 
0.0575828 0.381628 1.4821 32 254 61 
0.0103287 0.385347 1.50725 85 82 77 
0.120795 0.463482 1.41463 14 4 4 
0.114316 0.201117 1.41913 0 0 0 
0.0209158 0.0694026 1.53317 27 25 26 
0.0781018 -0.118183 1.43622 0 0 0 
0.105726 -0.0433233 1.42935 0 0 0 
0.0851458 0.211246 1.46863 40 39 254 
0.0756338 0.432005 1.46662 75 69 252 
0.0862252 0.272648 1.46353 52 49 254 
0.0416941 0.413771 1.49259 70 69 67 
0.0731611 0.355422 1.47342 0 3 1 
0.105326 0.304345 1.43655 57 53 54 
0.108487 0.107223 1.43517 0 0 0 
0.125893 0.22622 1.37973 0 0 0 
0.0910266 0.335211 1.45636 254 62 61 
0.0880552 0.195975 1.46315 63 62 254 
0.0516659 -0.0282921 1.5106 62 254 59 
0.081664 0.161474 1.47499 254 68 64 
0.0901203 0.353594 1.45597 75 74 72 
-0.0213047 -0.486871 1.41851 0 0 0 
0.0908354 0.186236 1.46204 0 0 0 
0.098555 0.195452 1.45131 254 60 59 
0.119291 0.136303 1.41351 0 0 0 
0.0406212 -0.0333747 1.51173 61 59 254 
0.135523 0.490654 1.37777 0 0 0 
0.135149 0.345974 1.33099 0 0 0 
0.0486885 0.218106 1.49888 67 254 81 
0.046907 -0.245695 1.42271 0 0 0 
0.169181 0.619292 1.28359 0 0 0 
0.103866 -0.0992454 1.38288 0 0 0 
0.0180574 0.0225483 1.53647 67 65 68 
0.130151 0.196336 1.34129 0 0 0 
0.0773407 0.118183 1.48021 0 0 0 
0.05793 0.155394 1.49581 255 80 76 
0.0383055 -0.231765 1.45741 0 0 0 
0.0793974 0.452045 1.4647 0 0 1 
0.0443415 0.347208 1.49347 6 15 5 
0.0649816 0.0192065 1.50981 0 0 0 
0.103101 0.268592 1.4404 0 0 0 
0.108743 0.415153 1.42553 80 80 80 
0.045796 -0.283705 1.40039 0 0 0 
-0.00448225 -0.183654 1.50727 23 254 27 
0.0888745 -0.0324017 1.47867 120 255 137 
0.127905 0.29912 1.37975 0 0 0 
0.126782 0.217128 1.39263 0 0 0 
0.111126 0.175788 1.42785 0 0 0 
0.0276681 -0.347697 1.39617 0 0 0 
0.0636578 -0.181902 1.42655 0 0 0 
-0.00787555 -0.436657 1.42281 0 0 0 
0.0454482 0.329153 1.49509 254 69 67 
0.0489261 -0.18755 1.45879 0 0 0 
0.0452659 0.230976 1.50123 90 86 85 
0.116574 0.344242 1.41118 0 0 0 
0.0668402 0.114193 1.49047 0 0 0 
0.0721325 -0.0605462 1.48904 65 61 60 
0.0483092 0.207326 1.50005 54 51 46 
0.135871 0.271653 1.33516 0 0 0 
0.138725 0.490048 1.36803 0 0 0 
0.138279 0.521026 1.36858 0 0 0 
0.108493 0.156549 1.43374 0 0 0 
0.135093 -6.91258e-06 1.38781 0 0 0 
0.0943444 0.15103 1.45764 254 50 49 
0.115138 0.161681 1.42413 0 0 0 
0.0821338 0.441286 1.45879 78 77 73 
0.120417 0.0294383 1.44597 0 0 0 
0.102392 0.187366 1.44658 40 38 39 
0.0981696 0.238989 1.44953 62 254 69 
-0.0331623 -0.39344 1.50228 0 0 0 
0.0597149 0.520531 1.48645 63 62 59 
0.0246937 0.500295 1.50726 62 58 55 
0.0183935 0.462536 1.50523 254 68 65 
0.00656785 0.466926 1.51048 39 34 254 
0.109327 0.625276 1.48523 7 34 8 
0.0176165 0.487154 1.51066 46 254 53 
0.00764332 0.480792 1.51474 31 254 45 
0.141246 0.646948 1.47562 0 0 0 
0.0445967 0.494817 1.49767 86 254 85 
-0.00218751 -0.00387309 1.54581 47 255 48 
-0.0693793 -0.600396 1.41626 0 0 0 
0.0439864 0.00180612 1.52506 74 72 73 
0.0348772 0.384336 1.49897 73 68 254 
0.0158337 0.509897 1.50958 42 38 254 
0.0630896 0.468894 1.48413 49 254 52 
0.00515878 -0.186176 1.49986 0 0 0 
0.127849 0.616843 1.46193 41 11 11 
0.144032 0.607215 1.43754 0 0 0 
0.0189778 -0.0414347 1.51622 94 194 71 
0.032131 -0.0114168 1.52466 66 64 67 
-0.0301399 0.504082 1.52117 51 254 58 
0.0340268 0.481442 1.50426 74 69 254 
-0.0330046 0.284283 1.52393 35 31 254 
0.0254935 -0.0327112 1.52018 254 62 60 
0.0147227 0.497528 1.51199 64 254 67 
-0.0113166 0.510394 1.51779 48 254 55 
-0.0163483 0.470866 1.51672 254 48 43 
-0.0800718 -0.0638397 1.52307 59 58 56 
0.0128418 -0.277204 1.46142 0 0 0 
0.0897049 0.0654898 1.47969 69 254 69 
-0.00404035 -0.0195061 1.5361 64 254 63 
0.0034144 -0.260537 1.46885 0 0 0 
-0.00307076 0.462854 1.51057 72 68 65 
-0.00728489 0.491707 1.51629 32 254 45 
0.0111602 0.148332 1.52343 59 57 255 
0.0935092 0.476775 1.46069 0 0 0 
-0.0348647 -0.406014 1.44972 0 0 0 
0.0234062 0.611486 1.51343 43 41 29 
-0.00410454 0.338109 1.51549 254 71 67 
0.00474802 0.514336 1.51514 60 59 55 
0.0247022 0.474848 1.5091 65 64 59 
0.0433717 -0.0158719 1.51761 0 0 0 
0.0701521 0.380592 1.47442 46 44 45 
0.111565 -0.0315981 1.40924 0 0 0 
0.0981438 0.346039 1.44514 89 88 86 
0.0356683 0.264501 1.50466 54 254 80 
0.0258988 0.379902 1.50236 75 74 69 
0.039712 0.515485 1.49805 73 254 84 
-0.0201884 0.366916 1.51738 65 254 65 
0.112162 0.24742 1.40219 0 0 0 
-0.00247829 0.0701932 1.53916 24 23 21 
-0.0343098 -0.126301 1.51913 58 254 57 
-0.0282956 0.24346 1.52388 62 32 30 
-0.0469847 0.0913878 1.53447 73 71 255 
0.0119545 -0.34869 1.43691 0 0 0 
0.0438299 0.0801524 1.51013 47 48 254 
-0.0373998 0.0717673 1.54519 255 26 25 
0.120418 0.00491649 1.44767 0 0 0 
0.0454239 0.0659777 1.52156 23 21 255 
-0.0100261 0.393093 1.51516 72 63 254 
0.109055 0.614546 1.48412 31 30 29 
0.137462 0.577494 1.40801 75 70 254 
0.0615661 0.241173 1.48914 254 52 51 
-0.00140553 0.0217232 1.54406 48 49 254 
0.0191196 -0.016285 1.52973 255 108 107 
0.0703155 0.0755153 1.48758 67 66 64 
-0.00129593 0.381666 1.51193 254 85 82 
0.125942 0.160626 1.34289 0 0 0 
0.066488 0.610375 1.51063 254 29 28 
0.0350905 0.54058 1.50062 66 66 254 
0.0574593 -0.150861 1.4585 0 0 0 
0.0514175 0.245343 1.49637 99 98 254 
0.0320228 0.43775 1.49565 88 87 83 
0.0206029 0.21891 1.51499 254 79 75 
0.117792 0.0270342 1.39034 0 0 0 
-0.021785 0.510919 1.51713 67 254 69 
0.057756 0.36238 1.48759 254 102 101 
0.077057 -0.183013 1.3767 0 0 0 
-0.0379281 0.318401 1.52186 55 254 81 
-0.063322 0.337904 1.5182 254 72 72 
0.0655699 -0.0908666 1.47883 60 254 53 
-0.0268987 -0.0589262 1.53162 78 76 77 
0.0950226 -0.0545875 1.42824 0 0 0 
-0.0367544 0.184405 1.53038 70 67 254 
0.0629404 -0.0754787 1.48939 64 254 76 
0.012967 -0.182255 1.49605 0 0 0 
0.0309975 0.0773979 1.51625 17 15 254 
0.134312 0.537357 1.39944 65 253 67 
-0.00429631 0.244007 1.52073 87 81 69 
0.106225 -0.0257629 1.44253 0 0 0 
-0.0101826 0.202786 1.52341 254 55 24 
-0.00225567 0.36385 1.51494 84 80 254 
0.0299981 -0.309095 1.39927 0 0 0 
0.00927447 0.320547 1.51414 44 39 33 
0.0819855 0.563506 1.48501 254 62 60 
0.112492 -0.0544008 1.38849 0 0 0 
0.0314607 -0.126224 1.49112 254 64 63 
0.00271412 0.288445 1.51833 54 25 27 
0.0414133 0.569928 1.50719 254 27 20 
-0.0390151 -0.304796 1.47858 0 0 0 
0.0898788 0.221121 1.46861 254 58 56 
0.0382621 -0.16889 1.47722 2 1 1 
-0.0171987 0.0261706 1.54647 255 72 66 
0.112674 0.0839743 1.42484 0 0 0 
0.0242698 0.362455 1.50612 80 76 254 
0.0396987 0.39421 1.49495 73 69 249 
-0.0292904 -0.0293975 1.54283 51 254 50 
0.0401757 -0.15675 1.48059 0 0 0 
0.137421 0.39175 1.32589 0 0 0 
0.0311956 0.509144 1.50562 54 49 254 
-0.0104996 0.377283 1.51626 80 79 74 
0.11846 -0.0406289 1.38924 0 0 0 
-0.0382475 0.339967 1.51988 74 71 66 
0.0379065 -0.193254 1.47149 0 0 0 
0.0376474 0.5043 1.50127 254 95 91 
0.0372876 -0.179418 1.47715 33 27 17 
0.0544972 0.350918 1.48832 87 85 86 
0.0730589 0.188394 1.48177 254 67 63 
-0.0456639 0.401569 1.5163 254 80 79 
0.0562786 -0.231817 1.39201 0 0 0 
-0.0138004 -0.288045 1.46987 0 0 0 
0.084281 0.376106 1.46334 66 62 254 
0.031005 0.296487 1.50491 53 42 254 
-0.00450514 -0.327058 1.45793 0 0 0 
0.0495124 -0.273517 1.39676 0 0 0 
-0.0113557 -0.180176 1.5078 254 38 37 
0.107965 0.557238 1.45383 254 51 49 
0.0115307 -0.155 1.49923 50 254 54 
0.00311389 -0.288469 1.45953 0 0 0 
0.0161224 0.0480669 1.53697 34 255 26 
0.0692496 -0.0963083 1.46801 1 1 1 
0.0674632 0.263164 1.47605 36 35 254 
0.0192762 0.426535 1.49836 70 254 92 
0.129123 0.332156 1.33541 0 0 0 
-0.0338597 -0.386769 1.45604 0 0 0 
0.152911 0.608432 1.42022 1 1 1 
0.0575879 0.208439 1.49387 255 79 75 
-0.0369152 -0.10742 1.52402 37 38 254 
0.0312377 -0.0960372 1.4964 64 254 60 
0.0785516 -0.0458112 1.48618 70 70 254 
-0.0502265 0.0118294 1.55401 45 43 255 
0.0721991 0.574608 1.4912 254 42 41 
-0.0150928 0.484748 1.516 66 66 58 
0.126139 0.439986 1.38604 0 0 0 
0.023255 0.308103 1.50705 32 254 63 
-0.0153992 0.0350851 1.5464 59 56 51 
0.0710658 -0.137894 1.43485 0 0 0 
0.101061 0.520085 1.44902 254 71 71 
-0.055541 0.0290998 1.55158 44 255 52 
0.0469737 0.369042 1.49139 254 72 69 
0.0841603 -0.0666478 1.45066 0 0 0 
0.0422413 -0.232715 1.44554 0 0 0 
0.0654266 -0.113851 1.45926 0 0 0 
0.0513653 0.553227 1.49573 41 254 60 
-0.0348916 -0.139312 1.51691 36 254 41 
-0.0586794 0.391177 1.51688 79 70 254 
-0.0321479 0.0632847 1.54323 46 44 254 
0.0430148 0.0188872 1.52503 33 37 42 
0.0378194 0.165737 1.50873 18 18 22 
0.108856 -0.0815346 1.37423 0 0 0 
0.0679813 0.49958 1.48717 56 254 65 
0.0675532 -0.198785 1.38613 0 0 0 
0.0979369 0.622168 1.48586 48 48 45 
-0.0373964 0.258559 1.52704 76 65 254 
0.0876156 0.605027 1.47351 39 254 48 
0.0611281 -0.242977 1.34339 0 0 0 
0.129726 0.607378 1.45783 38 35 32 
-0.0166459 0.00362961 1.33115 58 63 57 
0.0760907 -0.166902 1.40641 0 0 0 
0.0617296 -0.0552798 1.49128 68 69 254 
0.117413 -0.00967072 1.42795 0 0 0 
0.0717339 -0.160198 1.41711 0 0 0 
0.0387873 0.0483249 1.52529 73 39 41 
0.0973376 0.224225 1.45231 0 0 0 
0.0432668 0.461574 1.49269 61 62 254 
0.0896136 0.622883 1.49298 209 35 36 
0.0452635 0.0409503 1.52198 63 63 254 
-0.0556893 0.15492 1.53004 71 66 62 
0.00479299 -0.0834837 1.5127 73 254 83 
0.0230269 0.163344 1.51768 64 61 254 
0.0970114 -0.117461 1.38546 0 0 0 
0.0832615 0.0049446 1.49993 8 5 5 
0.0727186 0.418876 1.47182 3 3 3 
-0.00461017 -0.267313 1.47103 0 0 0 
0.0718422 0.0895989 1.48179 21 23 21 
0.0262461 0.0144834 1.5405 54 54 54 
0.00990417 -0.105058 1.50378 254 59 55 
0.0453063 0.284394 1.49812 53 254 57 
0.0590781 -0.183213 1.42094 0 0 0 
0.0237259 0.408067 1.49805 71 68 254 
0.0137717 0.372427 1.50914 78 254 80 
0.0237195 0.153177 1.51638 47 43 255 
0.0156656 -0.371524 1.4047 0 0 0 
-0.0285353 -0.311751 1.47171 0 0 0 
0.0553477 0.6373 1.52009 23 22 19 
0.0946245 0.120544 1.45317 75 75 254 
0.0027469 0.18642 1.52569 47 46 42 
-0.00502808 0.10029 1.52684 74 70 69 
0.00646203 0.163865 1.52394 62 254 70 
-0.0387446 -0.328782 1.46955 0 0 0 
-0.00916227 -0.108811 1.51174 81 254 80 
-0.007784 0.613872 1.54474 57 254 66 
0.0165509 0.196927 1.5158 29 23 254 
-0.0249424 0.470297 1.51895 254 65 62 
0.0170971 0.13539 1.5199 54 52 255 
-0.500273 -0.0614898 0.659728 0 0 0 
0.0402679 0.240651 1.50319 24 65 19 
0.0735314 0.0283482 1.50126 0 0 0 
0.00651548 -0.218113 1.50285 0 0 0 
-0.0280612 -0.283333 1.47644 0 0 0 
-0.00294226 -0.148027 1.50369 254 46 45 
0.0305404 0.220904 1.50956 46 45 250 
0.198785 0.0134795 1.48253 0 0 0 
-0.000508518 0.350765 1.51401 87 254 94 
-0.0112987 -0.438903 1.42827 0 0 0 
0.029349 -0.320786 1.4127 0 0 0 
-0.0309531 0.0259297 1.54746 50 46 45 
-0.00948441 0.522862 1.51355 43 40 254 
0.0819966 0.0387869 1.49198 62 61 254 
0.0175422 0.00822617 1.54053 72 72 254 
0.0715185 -0.0411488 1.49449 72 71 69 
-0.0444561 0.298288 1.52167 72 255 81 
0.0951557 -0.0180819 1.47624 53 254 57 
-0.00447297 0.130234 1.52867 23 19 16 
0.0114332 0.424764 1.50502 254 69 68 
0.0863154 0.361931 1.45961 254 62 61 
-0.0280901 -0.372658 1.459 0 0 0 
-0.0293042 0.356984 1.51791 64 254 74 
0.121805 0.565097 1.40463 53 41 254 
0.00693904 0.0923151 1.52624 61 254 64 
0.0227722 0.108121 1.51877 44 40 39 
-0.0302376 -0.0828451 1.529 69 67 255 
-0.109322 -0.357769 1.44977 0 0 0 
0.108364 0.0988173 1.42411 0 0 0 
-0.0391466 0.0140639 1.55125 38 36 255 
0.0293489 0.599513 1.51526 34 30 27 
0.0132764 -0.19829 1.4982 0 0 0 
0.0170101 -0.0836888 1.50519 0 0 0 
0.0337172 -0.138023 1.48659 253 84 80 
0.0704414 0.276457 1.48099 71 70 66 
0.00403318 -0.0335712 1.52903 46 45 43 
0.0424539 0.306311 1.49759 254 84 79 
-0.132698 -0.176746 1.51755 40 40 255 
0.0307189 0.0606228 1.53123 47 255 52 
-0.022617 0.158391 1.52942 57 254 65 
-0.0407855 -0.442368 1.44453 0 0 0 
0.0217285 0.41759 1.49767 254 69 66 
-0.00524099 -0.0968475 1.51221 113 113 113 
-0.012493 -0.131395 1.50985 54 51 254 
0.114844 0.599753 1.4524 254 29 28 
0.0496431 -0.103518 1.48887 58 57 55 
-0.0302102 0.00782526 1.55323 255 60 59 
-0.0554789 0.330428 1.51898 64 53 254 
0.0119107 -0.055811 1.518 58 254 65 
0.0581619 0.171537 1.49461 0 0 0 
0.121159 0.601217 1.43673 22 20 68 
0.130584 -0.00893611 1.39649 0 0 0 
0.0641467 0.0755671 1.49628 24 254 35 
0.0461201 0.255216 1.49835 254 86 82 
0.0892115 0.623185 1.49235 24 22 250 
0.042836 0.128 1.50732 254 61 55 
0.0616767 0.338971 1.48277 68 254 71 
0.130633 0.603849 1.42751 254 40 39 
0.14104 0.609731 1.4395 20 20 18 
0.064853 0.00865417 1.51353 0 0 0 
0.111864 0.00430684 1.45405 0 0 0 
-0.0589858 -0.0158876 1.21701 66 69 252 
0.0408619 0.00406305 1.13051 0 0 0 
-0.0413294 -0.46626 1.48036 0 0 0 
-0.0315389 -0.263255 1.56165 50 49 45 
-0.0443475 -0.478304 1.47424 0 0 0 
-0.186477 0.518506 1.41716 0 0 0 
0.00654036 0.506135 1.51362 47 42 254 
0.0630533 0.374428 1.48017 0 0 0 
-0.0158342 0.52747 1.51613 38 33 29 
-0.0743672 -0.60364 1.42393 0 0 0 
0.0617758 -0.0214085 1.508 77 78 254 
0.00968036 0.458469 1.50782 85 80 254 
0.00447428 -0.275982 1.46247 0 0 0 
-0.025607 -0.0373246 1.53785 254 71 69 
-0.029008 -0.337556 1.46459 0 0 0 
-0.0138642 0.306943 1.51979 254 50 24 
0.0217042 0.268738 1.51097 58 46 254 
-0.0117986 -0.458208 1.41312 0 0 0 
-0.0288157 0.39159 1.51641 254 68 64 
-0.050741 0.263698 1.52289 44 254 66 
0.0482846 0.166074 1.50388 53 50 254 
-0.00343995 0.382502 1.51016 92 254 110 
0.0522559 0.291682 1.49254 254 90 86 
0.142015 0.566393 1.39647 58 53 254 
-0.0460268 0.30828 1.51877 255 52 42 
-0.0377648 -0.0589702 1.53607 52 255 56 
-0.01366 0.294068 1.51986 31 27 254 
-0.0488708 0.113674 1.53409 44 42 43 
0.0341424 0.610001 1.50988 254 41 38 
-0.0182314 0.131349 1.53082 40 254 60 
0.0548892 0.442004 1.48664 61 254 72 
-0.0241423 0.372283 1.51642 254 74 71 
-0.0250443 -0.470227 1.43129 0 0 0 
0.00687495 -0.249353 1.46977 0 0 0 
0.0550894 0.458839 1.48661 254 51 50 
-0.0263438 0.305573 1.52065 254 81 73 
-0.168409 0.0357623 1.5084 77 75 255 
0.0412391 -0.297032 1.39588 0 0 0 
-0.0571587 0.239931 1.52896 71 59 254 
0.105827 0.0324692 1.49406 59 59 59 
0.04795 0.318005 1.4942 254 66 62 
0.0120257 0.208361 1.5188 43 254 60 
0.0120588 0.609718 1.52254 67 60 50 
0.101948 -0.0715038 1.40184 0 0 0 
-0.0121977 0.456879 1.51406 49 46 41 
0.0108443 0.28006 1.51442 63 254 50 
0.053202 0.193417 1.49696 0 0 0 
-0.0100038 -0.0119473 1.54425 66 64 65 
0.0836643 0.230732 1.46861 72 68 69 
-0.081593 -0.121945 1.52742 57 58 255 
0.0460457 0.0912562 1.50725 254 67 65 
-0.0497542 0.433733 1.51196 74 254 80 
-0.042186 -0.467687 1.43562 0 0 0 
-0.0131452 0.389715 1.51511 57 254 73 
0.0096995 -0.388296 1.4097 0 0 0 
0.0369563 -0.251865 1.44687 0 0 0 
0.0523548 0.535508 1.49083 62 254 64 
0.159452 0.0139892 1.47796 0 0 0 
-0.011666 -0.0801243 1.5156 86 254 80 
-0.019333 -0.384884 1.45021 0 0 0 
-0.0427503 -0.280029 1.48511 0 0 0 
-0.0167307 0.113136 1.53146 65 62 254 
-0.077462 -0.152063 1.52346 254 36 34 
-0.0075338 0.17577 1.52572 50 41 254 
-0.029843 -0.274038 1.48227 0 0 0 
-0.00200772 -0.349049 1.4486 0 0 0 
-0.0819751 -0.137431 1.5221 254 59 58 
0.00948115 0.447045 1.50493 59 254 66 
-0.00383167 0.317597 1.51766 22 254 57 
0.0309912 0.169484 1.50775 255 71 66 
0.0185836 0.319694 1.5094 87 254 91 
0.087914 0.539177 1.46573 60 58 59 
0.0280713 -0.155254 1.49001 0 0 0 
0.00267984 0.435169 1.5106 67 64 254 
-0.00748551 -0.163554 1.50316 0 0 0 
0.0636204 0.407367 1.47455 254 99 95 
0.0598493 0.384878 1.4829 254 75 71 
-0.00401174 0.47465 1.51542 48 44 35 
0.0806126 0.508538 1.46671 254 61 60 
0.00366772 0.507906 1.5097 42 38 254 
0.0439786 0.501214 1.4902 65 62 254 
0.0137272 0.46271 1.50665 92 254 85 
0.108944 0.618751 1.47968 218 40 39 
0.071822 0.471468 1.47339 64 254 69 
0.0205651 0.493459 1.50918 41 254 50 
0.014558 0.518368 1.49999 34 29 25 
0.00710165 0.521705 1.50878 45 41 254 
-0.019544 0.502402 1.51212 37 28 254 
0.00519048 0.481263 1.5077 10 254 24 
-0.015603 0.517645 1.51651 254 49 46 
0.0841659 0.471692 1.46716 0 0 0 
0.0574522 0.51297 1.48789 69 61 224 
0.126531 0.615204 1.45678 28 29 25 
0.0489908 0.512783 1.49424 88 254 85 
-0.0307647 0.510276 1.51238 53 48 45 
-0.00667469 0.00343665 1.54386 254 74 73 
0.0161623 0.481842 1.51023 54 48 254 
0.0783482 0.399806 1.46658 0 0 0 
0.0616243 0.48131 1.48076 58 254 75 
-0.0267066 -0.0260934 1.53985 42 43 255 
0.0241618 0.458235 1.50048 254 102 101 
0.032742 0.467558 1.50117 254 83 79 
0.0437251 0.476495 1.48828 45 254 55 
0.0566038 0.469003 1.48405 77 73 254 
0.0627101 0.500579 1.48722 1 1 1 
0.0737094 0.501921 1.47161 81 80 76 
0.138182 0.65022 1.47012 0 0 0 
0.000718225 0.496327 1.51579 21 254 38 
0.103572 0.0659944 1.462 0 0 0 
0.0717031 0.47932 1.47855 0 0 0 
0.0476794 0.486002 1.49555 71 72 228 
0.12236 0.621284 1.4687 18 99 23 
0.116518 0.479065 1.43116 154 31 31 
0.0292638 0.487339 1.50561 61 56 52 
0.10197 0.00551472 1.47742 0 0 0 
0.0470288 0.613476 1.49821 48 254 51 
0.143814 0.607751 1.43678 70 16 16 
0.0500779 -0.274485 1.33671 0 0 0 
0.0647261 0.373646 1.48299 76 72 71 
0.0301499 0.486499 1.50735 254 47 43 
-0.0575347 0.227028 1.52303 15 8 254 
0.125229 0.0663474 1.42302 0 0 0 
-0.113502 0.188772 1.51178 35 254 41 
-0.0035925 -0.00650432 1.53957 44 45 255 
0.00781481 0.510203 1.51176 52 47 43 
0.0610451 0.392301 1.47545 79 78 254 
0.0693334 0.51102 1.47927 93 91 92 
0.0423527 0.466002 1.4914 71 254 86 
0.0933428 0.371877 1.45428 254 33 32 
0.0158392 0.494231 1.51104 50 46 254 
0.0171857 0.457651 1.5042 74 69 254 
0.102624 0.0843191 1.45203 0 0 0 
0.0697616 0.327832 1.47824 0 0 0 
0.106128 0.0193413 1.46405 0 0 0 
0.0752179 0.212074 1.47858 0 0 0 
0.0844144 0.608945 1.48257 254 45 44 
0.0759915 -0.0593945 1.48227 27 34 199 
0.114331 0.620736 1.47603 112 25 26 
-0.056445 0.0711032 1.54043 22 254 25 
0.0260857 0.41566 1.49883 85 84 80 
0.11868 0.357332 1.40968 0 0 0 
0.072315 0.347775 1.47487 81 76 73 
-0.0753398 0.0723781 1.5364 22 20 255 
-0.1206 0.172398 1.50864 63 58 54 
-0.0878517 0.546898 1.50916 30 25 254 
-0.0381766 0.0728042 1.54059 27 255 32 
0.0420815 -0.0032649 1.50902 254 19 17 
-0.129331 0.0720926 1.52011 32 255 40 
0.118624 0.111247 1.41076 0 0 0 
0.037105 0.495302 1.50059 76 74 75 
-0.0886429 -0.0837446 1.52101 255 61 57 
0.0899901 0.251503 1.4697 41 254 47 
0.136211 0.420721 1.3456 0 0 0 
0.0234063 -0.205743 1.47856 64 56 255 
0.0865163 0.0804914 1.48187 254 64 62 
-0.0906437 0.113144 1.52254 42 38 35 
0.123662 0.0198588 1.43133 0 0 0 
-0.0042485 0.48931 1.51401 254 37 32 
-0.0264012 0.289529 1.52133 254 59 50 
-0.035372 0.0766494 1.53455 62 57 255 
0.0719876 0.304299 1.477 0 0 0 
0.00818732 0.49321 1.51319 254 42 38 
-0.11627 -0.16397 1.51021 254 59 57 
-0.0111927 -0.020901 1.52605 50 255 53 
0.138828 0.307284 1.35419 0 0 0 
0.0177864 0.38584 1.50553 84 80 77 
-0.0113182 0.512724 1.50926 63 254 65 
0.134022 0.53527 1.38817 2 2 1 
0.0910858 0.389645 1.45373 0 0 0 
0.0845109 0.483949 1.46826 75 71 68 
-0.0161801 0.47078 1.51681 33 254 38 
0.0671004 0.45791 1.47855 62 62 58 
0.124006 0.0755661 1.35454 0 0 0 
0.116819 0.0211201 1.44589 0 0 0 
0.125954 0.531441 1.40644 0 0 0 
0.0480094 0.406029 1.49084 2 1 5 
0.00876055 -0.0915684 1.5069 0 0 0 
-0.12289 0.0738059 1.52145 21 19 255 
-0.0432259 0.231304 1.52555 60 56 254 
0.0862129 0.326198 1.46356 80 254 57 
0.0344259 0.514065 1.50221 72 69 254 
0.0794226 0.219294 1.4723 0 0 0 
-0.0904825 0.269224 1.51693 41 34 254 
0.03493 0.406932 1.49737 91 90 86 
0.0989046 0.342584 1.44702 52 50 254 
0.104504 0.447179 1.43176 64 254 57 
0.0942475 0.400864 1.45026 0 0 0 
0.0457762 -0.26754 1.40388 0 0 0 
0.0676576 0.321123 1.47969 0 0 0 
0.121184 0.460673 1.41873 0 0 0 
0.0853512 0.283709 1.47046 67 63 254 
0.0912884 0.469178 1.45974 0 0 0 
0.145635 0.568734 1.39409 20 78 20 
0.109433 0.473463 1.444 80 254 46 
-0.00656712 0.330594 1.51589 79 254 99 
0.0864402 0.513605 1.46993 16 15 57 
-0.0903249 -0.0396852 1.52294 255 40 38 
0.118819 0.322567 1.43019 0 0 0 
0.0623852 0.566604 1.49445 30 254 37 
0.0922847 0.302711 1.45416 0 0 0 
0.112148 0.340541 1.42962 9 7 17 
0.0630744 0.519283 1.48263 254 67 66 
-0.0644721 0.221845 1.51858 27 254 50 
0.0827231 0.308416 1.46631 74 71 254 
0.00136178 0.299043 1.51814 67 57 47 
0.104873 0.258588 1.44252 64 65 60 
0.0500503 -0.00182045 1.52225 133 131 254 
0.0904441 0.0647356 1.48149 0 0 0 
0.0865401 0.266173 1.46226 47 254 57 
0.13885 0.480497 1.3731 0 0 0 
-0.051786 0.16863 1.52946 254 64 55 
-0.0804864 0.117766 1.52636 58 54 51 
0.137757 0.577263 1.40847 30 254 25 
0.144736 0.592638 1.39176 13 49 13 
0.134608 0.458011 1.38229 0 0 0 
0.0953004 0.0570903 1.47811 58 59 254 
0.072938 -0.204668 1.37296 0 0 0 
-0.129704 0.474311 1.49187 49 45 36 
-0.068276 0.173272 1.52335 254 50 45 
-0.0754723 -0.0540621 1.52511 255 48 47 
0.0711666 0.380898 1.4749 54 53 49 
0.0625913 -0.117887 1.47903 0 0 0 
0.136558 0.397412 1.34012 0 0 0 
0.0866624 0.228974 1.46658 77 254 73 
0.138712 0.450374 1.34891 0 0 0 
0.067628 -0.108846 1.47292 0 0 0 
-0.158947 0.610035 1.48342 13 10 254 
0.0943824 0.174521 1.45611 0 0 0 
0.0472562 0.496531 1.51087 48 254 49 
0.131836 0.602857 1.42095 51 52 46 
0.0193088 -0.0493687 1.51114 69 67 254 
-0.0376496 -0.0596947 1.52757 54 55 255 
0.0738342 0.407245 1.47549 65 61 58 
-0.0981784 -0.0710302 1.51226 42 255 58 
-0.0909061 0.237106 1.51276 40 31 254 
0.112078 0.463262 1.43177 29 251 53 
0.153167 0.594969 1.36742 1 3 1 
0.0298719 0.402182 1.5205 73 254 80 
0.031496 0.519411 1.50555 51 48 43 
-0.0821496 0.107778 1.52227 61 57 54 
0.0523715 -0.0705286 1.4895 66 65 61 
0.123943 0.286799 1.40835 0 0 0 
0.0169267 0.395728 1.50633 254 60 61 
0.0999158 0.377479 1.44164 67 66 62 
-0.0585796 0.113884 1.52153 24 21 255 
0.0772493 0.389489 1.46593 60 254 69 
-0.0181106 0.482711 1.51836 254 48 43 
0.0926481 0.0403202 1.47821 42 39 254 
0.0811874 0.132401 1.47844 75 74 254 
0.0174629 0.409002 1.50193 78 74 254 
-0.0306582 0.235397 1.51636 43 32 26 
0.0899293 0.353756 1.45556 44 43 39 
0.143876 0.535517 1.372 0 0 0 
0.123303 0.604423 1.44056 4 15 5 
0.0748734 0.276842 1.47421 0 0 0 
-0.100474 0.54563 1.50754 44 39 254 
-0.0834208 -0.111346 1.53253 68 61 255 
0.111601 0.036838 1.47629 44 44 46 
0.0629938 0.352692 1.48143 75 71 254 
0.120486 -0.010664 1.43463 0 0 0 
0.0498446 -0.00851631 1.51879 68 67 65 
-0.0764771 0.0707874 1.53981 26 24 255 
-0.00140801 0.337026 1.5194 82 77 71 
0.0810525 0.199843 1.4734 77 74 254 
0.136753 0.417254 1.35318 0 0 0 
0.0813978 0.462962 1.4678 181 49 52 
0.118501 0.127712 1.42535 0 0 0 
0.0531931 -0.246217 1.39756 0 0 0 
-0.0868176 0.231497 1.52266 17 255 39 
0.0453569 0.572325 1.50545 84 254 64 
-0.100816 -0.071444 1.50924 42 255 58 
0.147917 0.580508 1.38326 2 2 2 
0.0690342 -0.258026 1.34645 0 0 0 
0.0737908 0.366227 1.47294 0 0 0 
0.0738754 0.0840041 1.50137 30 31 254 
0.106541 0.398249 1.43099 80 79 74 
0.091523 0.44141 1.44615 60 58 254 
0.114088 0.121939 1.45432 0 0 0 
-0.000877581 0.0814858 1.53038 255 30 29 
0.0991192 0.393284 1.44402 0 0 0 
0.123295 0.456217 1.40583 0 0 0 
0.0289854 0.448063 1.49743 254 68 67 
-0.147294 0.416618 1.47638 70 61 54 
0.113997 0.168957 1.44799 0 0 0 
-0.117957 0.61977 1.52277 24 20 19 
-0.072834 0.235586 1.52332 62 55 49 
-0.0111404 0.464017 1.51363 41 40 254 
0.0716629 0.613875 1.50946 37 34 27 
-0.0800718 -0.0638397 1.52307 59 58 56 
-0.0640616 0.0785882 1.53392 20 21 255 
0.124353 0.0304375 1.42585 0 0 0 
-0.0165711 0.0137769 1.55155 67 65 254 
0.0784033 0.49326 1.48932 84 83 79 
0.0738573 0.310261 1.48197 72 254 78 
-0.0672153 0.0630344 1.54322 45 42 255 
-0.0836907 0.296641 1.51689 49 42 254 
0.136971 0.0314577 1.41717 0 0 0 
0.0701374 0.245456 1.48128 0 0 0 
-0.0339539 0.496865 1.51789 254 56 51 
0.11294 0.56295 1.44777 54 52 53 
0.107089 0.032925 1.45859 0 0 0 
0.125858 0.355104 1.40112 0 0 0 
-0.0599785 0.159868 1.53668 58 58 254 
0.0538637 0.3764 1.48709 71 68 254 
0.0891329 0.364721 1.45688 0 0 0 
-0.108367 0.410525 1.50029 42 254 54 
-0.017227 0.232007 1.52396 46 44 254 
-0.0083234 0.0209985 1.53505 49 45 44 
0.109113 0.524357 1.44924 61 254 80 
0.0475327 0.354231 1.49246 254 91 87 
-0.179075 -0.00923587 1.48388 80 79 77 
-0.00614659 0.1905 1.52419 64 58 254 
0.102059 0.0129041 1.47575 0 0 0 
-0.152106 0.61854 1.48782 24 21 254 
0.135136 0.172342 1.3504 0 0 0 
-0.0243179 0.242146 1.52577 52 254 68 
-0.086736 0.19727 1.52135 54 49 254 
-0.0659501 0.241994 1.51997 55 48 40 
0.0854897 0.0200127 1.49031 0 0 0 
0.0770008 -0.155762 1.41481 0 0 0 
-0.0484106 0.0213836 1.55011 254 10 6 
0.058625 0.0240387 1.51283 0 0 0 
0.127921 0.394779 1.38734 0 0 0 
0.095465 0.465421 1.44809 56 55 53 
-0.0182847 0.389466 1.48893 254 73 69 
0.156348 0.611418 1.4142 0 0 0 
0.128046 0.4762 1.41663 0 0 0 
0.11672 0.322582 1.40498 0 0 0 
0.122504 0.00556984 1.45177 0 0 0 
0.0514678 0.274459 1.50324 254 59 55 
-0.0441322 0.418644 1.51448 52 254 65 
0.0932825 0.0963186 1.45929 0 0 0 
-0.066933 0.0806828 1.53604 45 255 50 
0.012712 0.242474 1.51498 254 54 45 
0.099206 0.282399 1.44931 254 46 42 
0.127124 0.0185476 1.41767 0 0 0 
0.0596579 0.112969 1.50455 42 40 43 
0.107157 -0.092449 1.37928 0 0 0 
-0.0431787 0.306202 1.50723 79 69 59 
-0.142227 -0.250178 1.45282 47 46 44 
0.0370144 0.506294 1.50105 74 67 254 
-0.0880059 0.434407 1.50922 49 42 254 
0.130597 0.480423 1.4046 0 0 0 
0.122406 0.302834 1.39506 0 0 0 
0.05242 0.52007 1.49239 62 254 58 
0.0763628 -0.0909893 1.4559 0 0 0 
0.132236 0.176886 1.39198 0 0 0 
0.0110675 -0.240391 1.46713 10 11 17 
0.129334 0.45419 1.39622 0 0 0 
0.108396 0.360233 1.4227 0 0 0 
-0.110192 0.32519 1.50176 62 53 255 
0.0954476 0.0811217 1.45763 0 0 0 
0.0726106 0.101582 1.48947 254 50 46 
0.113876 0.494286 1.43686 87 254 91 
0.111241 0.369332 1.42503 0 0 0 
0.107977 0.0760817 1.45797 83 53 53 
-0.0011537 0.199624 1.52219 83 73 254 
0.00396278 0.0258998 1.54108 38 36 37 
-0.0341446 -0.0325526 1.53922 255 36 34 
-0.0354073 0.305017 1.53184 45 36 254 
0.0295021 -0.201213 1.46386 14 15 12 
-0.0494196 0.0120367 1.55468 45 43 255 
0.0925224 0.333713 1.45276 49 254 59 
-0.0352668 0.223609 1.52611 54 45 254 
0.122917 0.118335 1.40598 0 0 0 
-0.0859666 0.325391 1.50943 23 254 39 
-0.134094 0.443184 1.48318 40 37 254 
0.0246672 0.372842 1.52336 75 75 65 
-0.0725054 0.386962 1.51434 61 57 46 
-0.00149876 0.223844 1.5162 80 77 68 
0.132216 0.540925 1.39978 51 188 54 
0.07226 0.609254 1.48776 19 254 24 
0.098514 0.269221 1.44727 0 0 0 
-0.0749672 0.141097 1.52483 42 39 254 
0.0968342 0.308207 1.44909 254 56 55 
0.0260196 0.0248656 1.53281 102 102 104 
-0.1338 -0.00560116 1.51788 255 54 53 
-0.00842455 -0.0497435 1.51456 59 255 45 
-0.0797027 -0.073561 1.52189 67 64 255 
-0.12621 0.222434 1.50231 0 254 15 
-0.0436729 -0.130809 1.50423 39 255 41 
0.142521 0.341947 1.35021 0 0 0 
-0.0785834 -0.0710825 1.52271 35 254 37 
0.127504 0.279904 1.39963 0 0 0 
-0.106904 0.441207 1.50078 31 254 41 
-0.00147355 0.432862 1.50854 69 66 254 
0.0918629 0.160346 1.46074 0 0 0 
0.070447 -0.107511 1.48732 0 0 0 
0.133657 0.406996 1.36327 0 0 0 
-0.0256099 -0.0471552 1.53325 79 254 85 
-0.0537091 -0.36489 1.46631 0 0 0 
0.0921959 0.229799 1.45749 0 0 0 
0.127799 0.0408326 1.4473 0 0 0 
0.116014 0.05953 1.45687 0 0 0 
0.121601 0.441179 1.40894 0 0 0 
0.100001 0.404567 1.44317 254 63 60 
0.0778388 0.336018 1.47439 81 79 80 
0.0844341 0.05494 1.48924 0 0 0 
0.0161236 0.53282 1.5081 69 68 254 
0.120874 0.333582 1.40687 0 0 0 
-0.000183982 0.154825 1.52562 254 83 72 
0.108033 0.43724 1.42788 0 0 0 
0.0672236 -0.165852 1.41549 0 0 0 
-0.188182 0.0343645 1.48607 51 47 46 
0.0975287 0.24562 1.45436 84 83 81 
0.0720403 -0.219222 1.38485 0 0 0 
-0.0273705 -0.0845287 1.51992 52 53 254 
0.0892232 0.334921 1.45756 0 0 0 
0.150967 0.551626 1.36389 0 0 0 
0.0885424 0.502015 1.46422 254 78 77 
0.0229204 0.426538 1.49546 64 63 61 
-0.102332 0.127025 1.52107 255 64 60 
-0.102754 0.226226 1.50556 34 255 52 
-0.0650231 0.184481 1.5226 55 51 254 
0.0702124 0.434115 1.47197 50 40 98 
0.0895128 0.430744 1.45672 78 76 254 
0.0340302 0.610043 1.52065 28 24 21 
0.132072 0.429763 1.37388 0 0 0 
0.0667456 -0.0861763 1.48287 0 0 0 
-0.0328875 0.255485 1.5242 70 63 53 
0.134689 0.555155 1.40458 52 245 86 
0.0828526 0.268297 1.4728 81 77 254 
0.0806993 0.4489 1.46498 254 73 68 
0.0294577 0.0923344 1.51763 65 65 255 
-0.0752707 0.286693 1.52016 255 56 43 
0.0410499 -0.0672163 1.49813 1 1 1 
0.110097 0.0894292 1.4332 0 0 0 
-0.00772003 0.614893 1.53936 253 29 28 
-0.0120308 -0.065163 1.52123 57 254 62 
0.0911516 0.106719 1.46749 0 0 0 
0.0305082 0.543887 1.49398 79 76 71 
0.0223901 -0.165213 1.49223 0 0 0 
0.0730776 0.297847 1.46669 70 67 254 
-0.0148532 0.463024 1.50741 64 59 55 
0.0787547 0.318412 1.4697 0 0 0 
-0.0299842 0.158943 1.52034 254 62 57 
-0.0508922 0.441343 1.51244 254 62 58 
0.0608029 -0.215882 1.39501 0 0 0 
0.0580407 -0.243866 1.38724 0 0 0 
-0.106422 0.423646 1.50121 27 21 254 
-0.112584 0.170486 1.5121 35 30 26 
0.104903 0.0445933 1.48007 63 62 58 
0.0547479 0.546475 1.49185 58 54 51 
0.0600129 0.145806 1.49354 46 46 46 
0.0896913 0.608054 1.47171 31 254 38 
-0.0705208 0.268486 1.51066 28 254 42 
0.0275247 0.12119 1.51707 62 254 65 
0.0938207 -0.109401 1.38793 0 0 0 
0.0755095 -0.0872154 1.46397 0 0 0 
0.0667231 0.0540398 1.5134 36 32 254 
-0.00373568 -0.207208 1.48808 64 63 61 
0.116887 0.148157 1.41398 0 0 0 
-0.0436541 0.490252 1.51569 41 37 254 
0.151994 0.619903 1.42069 0 0 0 
0.113152 0.606785 1.46012 33 254 45 
-0.0339165 -0.148427 1.50733 30 30 32 
-0.117265 0.00127661 1.53187 51 255 55 
-0.0909531 0.0422183 1.53935 65 255 62 
0.0496414 0.424674 1.48294 71 66 254 
0.135379 0.236985 1.37838 0 0 0 
0.138013 0.599368 1.40932 246 48 47 
0.0896581 -0.157199 1.37801 0 0 0 
0.102993 0.107467 1.45828 255 62 62 
0.105975 0.313677 1.43605 65 251 71 
0.00233825 0.0132723 1.5481 87 86 84 
0.107098 0.243569 1.45854 44 43 254 
0.0600132 -0.246815 1.34462 0 0 0 
-0.028538 0.457934 1.51318 46 42 39 
0.0408864 -0.123155 1.48823 0 0 0 
0.0892738 0.42194 1.45389 0 0 0 
-0.064211 0.0249772 1.53888 44 44 44 
-0.0219706 0.0258909 1.54087 77 73 70 
0.0037237 -0.00919397 1.53797 61 254 69 
-0.00373891 -0.408671 1.41808 0 0 0 
-0.102026 -0.00049447 1.53792 44 255 45 
-0.0948968 -0.0825854 1.51749 79 75 72 
-0.0304003 0.0260559 1.54829 70 65 62 
0.0699499 0.258099 1.503 79 75 64 
0.107522 0.248382 1.43687 0 0 0 
-0.0856441 -0.0975049 1.51818 40 39 255 
0.0910368 0.131708 1.46328 254 89 91 
-0.00587291 -0.402694 1.38589 0 0 0 
-0.0394981 -0.0724183 1.53108 66 255 64 
-0.00774376 0.387251 1.52263 74 66 55 
-0.0193772 -0.029514 1.53361 55 255 58 
-0.0938716 0.388382 1.5067 40 254 56 
0.0421523 0.38012 1.49269 91 254 96 
-0.0318456 -0.104528 1.51535 44 254 40 
0.0792659 0.37639 1.48749 69 65 254 
-0.0142806 -0.137748 1.50948 254 40 37 
0.0607541 0.337649 1.48178 119 254 114 
0.0992893 0.436792 1.43473 67 63 254 
0.132436 0.0485717 1.41629 0 0 0 
0.0347309 0.230821 1.50755 255 62 62 
0.0360178 0.136103 1.50569 254 69 65 
0.141199 0.595849 1.39875 0 0 0 
-0.139398 -0.00655972 1.51353 85 255 90 
-0.00340933 0.272077 1.51878 80 254 90 
0.0996851 0.558713 1.45774 254 52 50 
0.0459255 0.638566 1.51882 26 247 22 
0.138414 0.450807 1.35786 0 0 0 
0.109024 0.202057 1.43692 0 0 0 
0.0881445 0.20125 1.46464 0 0 0 
0.0307327 0.287408 1.50453 63 33 31 
0.0598943 0.321726 1.48699 85 84 82 
0.049495 0.456626 1.48557 55 254 60 
