ply                 
format ascii 1.0    
element vertex 1262
property float x    
property float y    
property float z    
property uchar red  
property uchar green
property uchar blue 
end_header          
0.592421 -0.155089 2.47723 63 32 11 
0.190379 -0.102511 2.28631 99 94 62 
0.109329 -0.0930996 2.26488 5 27 6 
0.132142 -0.0919407 2.24637 16 43 26 
0.660027 -0.120929 2.42174 139 81 8 
0.667772 -0.111521 2.41393 227 179 11 
0.684779 -0.110203 2.39789 217 170 2 
0.168191 -0.0435054 2.24597 9 24 0 
0.495118 -0.0764372 2.4443 50 49 45 
0.621924 -0.0839074 2.40239 181 152 24 
0.0412633 -0.00925145 2.0767 152 133 93 
0.151722 -0.0167751 2.15817 177 164 109 
0.0342826 0.00497723 2.0793 76 57 27 
0.1501 -0.00653041 2.12953 189 169 116 
0.659226 -0.0530233 2.39762 12 10 11 
0.541775 -0.0123503 2.42428 201 169 22 
0.660538 -0.017245 2.3903 120 118 119 
0.564221 -0.00715858 2.42877 192 161 19 
-0.603051 0.172027 2.61387 106 50 3 
0.346056 0.0786908 2.63264 41 38 33 
-0.463971 0.171038 2.60609 3 2 0 
-0.605615 0.19261 2.61494 90 45 4 
-0.458931 0.192963 2.60129 15 6 1 
0.356874 0.114766 2.62399 12 8 9 
-0.406905 0.203597 2.67261 12 2 0 
-0.58823 0.236777 2.58098 164 120 13 
-0.580349 0.232289 2.43918 105 59 0 
0.402365 0.126294 2.60159 182 148 24 
-0.393623 0.224123 2.70179 181 144 3 
0.38224 0.138981 2.63624 17 9 6 
-0.731429 0.261973 2.37619 142 127 108 
-0.535059 0.247238 2.59159 176 128 4 
-0.714627 0.26703 2.39236 220 199 168 
0.223666 0.189444 2.55125 23 19 18 
0.398982 0.173734 2.63598 132 101 11 
-0.487457 0.29074 2.59013 227 183 12 
0.467176 0.178262 2.58203 205 171 63 
-0.486648 0.301667 2.59775 114 62 5 
-0.418055 0.299136 2.68266 95 92 83 
-0.498212 0.310329 2.57005 99 44 0 
0.189608 0.230308 2.53668 15 13 14 
-0.556803 0.32759 2.55298 226 184 14 
-0.505539 0.327091 2.56885 227 185 13 
-0.470285 0.328432 2.59766 221 174 6 
-0.561718 0.337581 2.54952 127 85 1 
-0.667536 0.344206 2.38331 164 146 124 
-0.664045 0.369059 2.41125 115 70 2 
-0.611041 0.376977 2.38439 241 222 179 
-0.603295 0.385591 2.39139 119 91 17 
-0.273184 0.432816 3.02635 207 168 15 
-0.183951 0.429177 3.02045 220 178 14 
-0.137879 0.442594 3.00532 201 159 23 
-0.175585 0.470009 3.01321 159 108 1 
-0.17347 0.482039 3.00795 220 174 19 
-0.150477 0.489986 3.01757 188 146 10 
-0.151705 0.51128 3.02027 162 126 14 
0.467228 0.476235 2.96701 133 92 4 
0.538815 0.484383 3.01867 47 11 0 
-0.531832 0.683326 3.34101 193 180 172 
-0.560277 0.698234 3.31895 97 84 75 
-0.0905284 0.613712 3.12646 196 152 19 
-0.138696 0.624157 3.1114 200 155 12 
-0.577674 0.721992 3.26487 191 181 172 
-0.230834 0.654559 3.10096 111 68 0 
-0.207647 0.658659 3.09991 123 78 0 
-0.179065 0.681138 3.08435 220 176 7 
-0.323979 0.709549 3.1202 127 91 3 
-0.316027 0.720293 3.12394 233 207 158 
-0.279505 0.741511 3.11033 161 114 8 
-0.329431 0.753529 3.08165 124 108 83 
-0.343982 0.780448 3.08041 215 199 186 
-0.313637 0.776397 3.0757 215 200 181 
-0.291903 0.794795 3.05954 92 79 73 
-0.237132 0.791771 3.02767 208 193 172 
-0.360002 0.828151 3.08768 186 173 164 
-0.684037 0.866157 3.01912 101 91 82 
-0.182017 0.814005 3.09327 134 104 32 
-0.197924 0.826074 3.1025 206 190 174 
-0.266228 0.833492 3.07822 109 98 94 
-0.458079 0.871036 3.03438 188 176 164 
-0.646828 0.896278 2.97224 187 176 170 
-0.500868 0.900224 2.97454 182 168 159 
0.508485 0.769262 3.04459 246 224 177 
-0.459006 0.906499 2.94561 109 96 87 
0.48823 0.803104 3.0371 225 209 183 
0.495469 0.812175 3.02976 221 205 179 
0.452839 0.812792 2.98545 222 208 182 
0.473118 0.831565 3.01221 215 204 184 
0.545576 0.865615 3.03338 145 134 130 
0.454715 0.882005 3.01212 196 186 184 
0.7622 -0.35337 2.36309 150 114 36 
0.723895 -0.193792 2.31762 214 210 198 
0.604741 -0.150962 2.46961 236 185 18 
-0.145499 -0.0564732 2.18995 217 192 138 
0.533789 -0.122363 2.44138 181 147 11 
0.524458 -0.109137 2.44491 11 9 14 
0.623436 -0.109941 2.39866 136 86 0 
0.51648 -0.0870774 2.43252 93 92 90 
0.0624263 -0.0236733 2.09161 255 255 227 
0.645617 -0.0366071 2.39366 109 108 104 
-0.533052 0.138085 2.60833 237 200 24 
-0.626661 0.198463 2.55529 227 184 17 
0.125162 0.118257 2.38686 53 0 8 
-0.560771 0.259822 2.5777 227 183 16 
-0.495078 0.291054 2.59605 229 186 9 
-0.453511 0.286266 2.57949 204 163 13 
-0.668683 0.312499 2.38841 244 226 190 
-0.651967 0.313054 2.41269 213 170 13 
-0.419015 0.305797 2.64213 103 99 96 
0.268467 0.238361 2.78886 49 18 0 
-0.520852 0.342998 2.57082 235 192 18 
-0.617602 0.357731 2.44206 102 43 0 
0.767009 0.460635 3.76089 187 177 167 
0.401201 0.441758 2.99207 190 153 10 
-0.127319 0.611844 3.11387 99 60 3 
0.28538 0.560227 2.97244 39 14 0 
-0.200878 0.674466 3.10111 224 176 8 
-0.174715 0.697654 3.08564 131 91 3 
-0.669201 0.805284 3.16816 117 105 93 
-0.859486 0.835236 3.0852 201 190 188 
-0.191071 0.740842 3.07052 222 178 7 
0.536838 0.695677 3.0771 246 199 7 
-0.206719 0.811916 3.09154 76 61 28 
-0.442606 0.909164 2.95503 188 175 169 
0.552854 0.793546 3.0364 230 214 198 
0.40261 0.836869 3.01265 49 36 19 
0.578396 -0.00692392 2.42195 5 5 5 
0.669945 -0.374347 2.44764 208 165 8 
0.571313 -0.342432 2.46924 239 235 223 
0.698441 -0.345882 2.45561 93 35 0 
0.558028 -0.3278 2.45787 241 233 220 
0.0407565 -0.16562 2.20905 36 127 70 
0.717656 -0.207517 2.32062 35 32 25 
0.624269 -0.198226 2.46489 56 32 8 
0.525826 -0.106648 2.43444 12 10 13 
-0.017407 -0.0337405 2.05879 66 49 6 
0.0381918 -0.0357626 2.05744 29 17 1 
0.0502926 -0.027774 2.08027 93 76 46 
-0.604656 0.190778 2.56616 100 57 15 
-0.626436 0.206412 2.42869 249 211 12 
0.183758 0.12726 2.49208 94 78 42 
-0.433174 0.239299 2.61642 2 4 1 
-0.68717 0.307202 2.44759 240 199 9 
-0.582023 0.3524 2.51008 107 52 0 
0.243309 0.266214 2.69443 81 59 12 
0.765801 0.426525 3.83606 184 174 165 
0.440604 0.468001 2.95196 232 185 9 
-0.584885 0.718573 3.27085 193 182 176 
0.920866 0.555483 3.58189 205 194 188 
-0.295654 0.66363 3.13243 234 188 6 
-0.59528 0.739807 3.23929 116 104 92 
0.832879 0.582197 3.51663 147 137 128 
0.745174 0.606838 3.48527 204 194 185 
0.778282 0.624927 3.45995 206 196 187 
0.810049 0.620856 3.47061 147 137 127 
-0.228616 0.7206 3.08528 153 99 13 
-0.660592 0.800787 3.15122 115 103 91 
-0.319847 0.77787 3.0843 212 197 176 
-0.300025 0.792844 3.06944 82 73 68 
-0.707225 0.851585 3.0423 196 185 179 
-0.273033 0.798441 3.07381 207 195 169 
0.496711 0.707514 3.05109 242 198 13 
-0.410001 0.845523 3.0329 108 96 84 
0.516161 0.779308 3.0775 244 231 197 
-0.601406 0.924213 2.91888 204 193 187 
-0.510283 0.919932 2.93298 111 101 91 
0.462996 0.800245 3.03247 233 217 191 
0.985175 0.771537 3.1945 135 125 113 
0.559693 0.853963 3.06358 151 138 130 
0.474655 0.867732 3.04813 99 86 80 
0.158124 0.937085 2.95956 203 193 183 
0.68043 1.19321 2.44855 165 156 149 
0.693686 -0.415101 2.42916 237 225 201 
0.613788 -0.145576 2.4672 236 189 11 
0.0673765 -0.0268831 2.10989 215 191 131 
0.578279 -0.077004 2.41823 4 4 6 
0.513389 -0.0462954 2.44744 9 7 8 
0.327406 0.0876231 2.63429 89 86 79 
0.354614 0.0884288 2.63167 99 97 85 
-0.449826 0.187006 2.61072 7 9 8 
-0.63862 0.340344 2.43563 129 75 3 
0.777582 0.460516 3.74698 189 180 171 
-0.312332 0.636237 3.12574 115 77 4 
-0.590713 0.715476 3.28009 193 182 176 
0.880125 0.564778 3.58053 148 138 129 
-0.246426 0.682692 3.0993 232 186 12 
-0.345882 0.714578 3.139 111 78 1 
-0.192353 0.683117 3.09246 219 174 10 
0.775655 0.618379 3.46886 206 195 189 
-0.307893 0.733484 3.09327 227 211 178 
-0.197183 0.729792 3.07769 214 169 6 
-0.295022 0.828188 3.06732 193 182 178 
-0.705144 0.880239 2.99678 202 191 187 
-0.256479 0.833169 3.09457 100 90 81 
0.567451 0.728097 3.14131 244 204 10 
-0.514355 0.919372 2.92373 112 99 90 
0.647396 -0.0576653 2.39562 15 14 12 
-0.566371 0.298852 2.56157 122 85 4 
-0.57547 0.348373 2.50286 124 80 7 
0.590422 -0.290623 2.43725 135 75 65 
0.360744 0.135117 2.63546 19 15 6 
0.15161 0.181839 2.46537 129 109 76 
-0.702667 0.318731 2.43683 241 226 207 
-0.578348 0.33706 2.53137 123 88 4 
-0.491743 0.338701 2.60139 228 182 11 
0.475754 0.522644 2.95375 197 155 7 
0.768493 0.609798 3.47582 205 195 186 
-0.155316 0.681913 3.09455 128 91 3 
-0.177884 0.773136 3.0783 136 107 7 
-0.429039 0.854646 3.08249 109 97 85 
-0.301673 0.835076 3.07055 193 182 176 
-0.242478 0.830725 3.09363 89 80 71 
0.499721 0.719815 3.05398 239 197 14 
-0.441677 0.873694 3.02038 188 178 169 
0.620452 0.790625 3.16906 218 206 194 
0.368512 0.808885 3.01603 172 157 126 
0.738464 0.791748 3.16909 151 139 127 
0.411397 0.84602 2.98346 72 60 48 
0.545803 0.862927 3.05066 150 137 131 
0.364375 0.927709 2.94585 129 119 107 
-0.441837 0.333951 2.65578 76 74 62 
0.480091 0.537045 2.96063 193 152 10 
-0.277661 0.680268 3.11854 229 188 10 
-0.252834 0.767643 3.08925 226 209 179 
0.60756 -0.0191368 2.40493 6 7 9 
0.743231 0.781551 3.16371 152 140 128 
-0.609415 0.306858 2.54168 118 76 2 
-0.307065 0.730414 3.11698 227 207 170 
-0.258645 0.743914 3.0332 230 210 177 
-0.307384 0.858035 3.05571 193 182 176 
-0.556458 0.326862 2.54893 224 183 17 
-0.460916 0.875857 3.01431 188 176 164 
-0.470368 0.883974 2.99816 149 139 130 
-0.648733 0.896835 2.97494 180 170 161 
0.065204 0.118378 2.1127 48 0 6 
-0.235872 0.830536 3.07932 92 83 76 
-0.70892 0.854653 3.0472 192 181 179 
0.473092 0.859486 3.00403 105 98 92 
0.456181 0.829066 2.98403 224 211 192 
0.0376715 0.937125 2.90831 196 183 175 
0.341306 0.899075 2.92664 135 122 113 
0.610213 -0.284167 2.40384 75 89 10 
0.696061 -0.236124 2.3329 191 214 136 
0.679537 -0.226827 2.33979 63 85 0 
0.114804 -0.104394 2.256 43 5 2 
0.324472 -0.0722683 2.70427 173 150 44 
0.612985 -0.0795647 2.39686 19 10 0 
-0.585651 0.226911 2.61827 71 43 4 
-0.604528 0.281605 2.55315 58 19 0 
-0.433229 0.276098 2.60282 168 142 23 
-0.169856 0.678232 3.09231 208 168 34 
-0.328628 0.754024 3.08202 124 108 83 
-0.289099 0.784435 3.06921 72 59 50 
0.46718 0.785686 3.01601 231 204 175 
0.47977 0.793283 3.03579 139 107 48 
-0.601779 0.192588 2.6105 97 49 0 
-0.0257477 -0.177203 2.22308 47 129 81 
0.127591 -0.14749 2.24712 21 50 32 
0.101237 -0.119429 2.23781 49 15 13 
0.0983178 -0.09877 2.2456 154 169 146 
0.519455 -0.099177 2.42131 17 18 20 
-0.559569 0.337302 2.54419 127 85 1 
-0.548366 0.352198 2.55292 56 16 4 
-0.217137 0.690682 3.08315 143 88 0 
-0.154194 0.712275 3.11722 220 174 16 
-0.32001 0.745525 3.08542 225 209 184 
-0.865083 0.837361 3.08742 199 188 182 
-0.457579 0.870291 3.03238 188 176 164 
-0.458187 0.87442 3.00994 188 178 169 
-0.500479 0.899966 2.97344 182 168 159 
-0.599974 0.922717 2.92801 194 183 177 
0.145489 0.937151 2.90147 143 133 124 
0.0478958 -0.00937179 2.06296 157 136 89 
0.0377744 0.0061045 2.06145 67 50 20 
-0.655565 0.323369 2.39221 136 100 26 
-0.666431 0.339909 2.37736 160 145 126 
-0.602793 0.387329 2.38731 117 91 32 
-0.310641 0.721922 3.11339 232 208 172 
-0.666709 0.802617 3.16005 117 105 93 
-0.313535 0.773987 3.07104 214 199 180 
-0.686266 0.869476 3.02923 102 92 83 
-0.442917 0.909429 2.9561 188 175 169 
0.0190551 -0.0456314 2.02674 219 193 136 
-0.596944 0.740552 3.24422 116 104 92 
-0.208752 0.810205 3.09084 72 57 26 
-0.411764 0.846378 3.0385 108 96 84 
-0.232052 0.827721 3.07239 92 84 73 
-0.196406 0.728913 3.07393 214 169 6 
-0.530152 0.304479 2.54637 225 183 9 
0.178901 0.922569 2.91277 204 191 183 
0.457085 0.805081 2.99665 190 176 147 
-0.684857 0.17554 2.49399 203 87 14 
0.553304 -0.318435 2.44629 75 64 60 
0.599084 -0.307019 2.41571 254 241 233 
0.570713 -0.299464 2.42965 99 89 80 
0.615485 -0.292935 2.40352 108 106 83 
0.644149 -0.265794 2.36735 176 214 77 
0.629517 -0.262829 2.37915 44 53 0 
0.681655 -0.263228 2.35183 197 228 88 
0.662036 -0.259524 2.35603 174 215 77 
0.687481 -0.257614 2.34599 42 70 0 
0.698546 -0.259025 2.34722 237 239 202 
0.545296 -0.23167 2.38302 224 186 43 
0.666319 -0.250739 2.34904 187 197 111 
0.705672 -0.247081 2.33128 210 227 121 
0.67134 -0.234793 2.3416 52 77 0 
0.71418 -0.234632 2.31754 239 236 219 
0.71114 -0.223409 2.31253 65 70 40 
0.724846 -0.220539 2.30349 232 226 212 
0.696276 -0.20503 2.31744 163 158 139 
-0.526919 0.348262 2.55985 115 55 0 
0.646394 -0.434157 2.45811 246 231 202 
0.617173 -0.41405 2.47839 108 76 15 
0.232999 -0.223042 2.34255 188 157 111 
0.60673 -0.283308 2.39865 172 187 104 
0.770171 -0.308563 2.36459 81 35 0 
0.759064 -0.30624 2.36776 90 42 6 
0.612551 -0.273003 2.39201 9 18 0 
-0.181588 -0.119798 2.30251 99 75 31 
0.65241 -0.25812 2.36385 61 71 11 
0.106538 -0.144755 2.22102 15 34 15 
0.122014 -0.131589 2.22712 36 0 0 
0.141857 -0.114282 2.25229 111 115 98 
0.698745 -0.222434 2.31791 32 36 19 
0.729861 -0.211497 2.29743 237 233 221 
0.219535 -0.0967222 2.26477 195 174 127 
0.187782 -0.0793613 2.24664 171 161 112 
0.210751 -0.0833901 2.24297 82 63 31 
0.0625489 -0.0382412 2.02701 129 111 75 
0.124754 -0.0465043 2.12215 170 168 117 
0.12073 -0.0277741 2.07837 64 39 8 
0.177414 -0.0437746 2.22081 23 41 3 
0.321934 -0.0725281 2.70979 178 149 23 
0.626931 -0.114093 2.37888 141 93 8 
0.663167 -0.12048 2.40526 134 74 11 
0.62152 -0.094258 2.38702 95 52 1 
0.621696 -0.0838033 2.39463 165 140 22 
-0.636968 0.170755 2.56628 177 105 0 
-0.630763 0.182731 2.56947 168 104 4 
0.223043 0.0139294 2.22919 50 29 8 
-0.611682 0.192195 2.55072 109 52 7 
-0.601689 0.202091 2.58954 238 202 46 
0.662733 -0.0535478 2.37794 7 5 6 
0.653199 -0.0469344 2.37292 4 2 3 
0.690569 -0.0543802 2.39282 121 118 111 
-0.710778 0.243281 2.39339 183 140 45 
-0.608712 0.224811 2.39186 164 132 45 
-0.581988 0.225708 2.61354 53 28 0 
-0.574669 0.230308 2.43028 88 36 0 
-0.574079 0.234172 2.58679 236 199 48 
-0.584016 0.236785 2.57658 174 131 18 
-0.57631 0.243457 2.579 36 8 0 
-0.558513 0.255875 2.56753 238 200 77 
-0.599919 0.280121 2.54745 68 23 0 
0.639543 0.00757953 2.38392 8 10 0 
-0.433103 0.253791 2.59145 136 108 24 
-0.448119 0.271148 2.57119 106 66 5 
0.693829 0.0191109 2.42601 16 6 0 
-0.428944 0.274656 2.59694 173 148 29 
-0.481113 0.290347 2.58204 241 194 42 
-0.553361 0.32643 2.54521 246 207 50 
-0.507351 0.326615 2.552 101 41 5 
-0.440726 0.316031 2.63216 8 2 4 
-0.581555 0.348961 2.46933 234 159 14 
-0.634018 0.360218 2.41247 243 197 24 
-0.497676 0.345969 2.55555 152 88 1 
-0.541607 0.35944 2.55594 226 177 22 
-0.513587 0.358096 2.55449 153 84 15 
-0.60282 0.374398 2.37391 245 224 177 
-0.546209 0.414909 2.47638 230 159 15 
-0.206466 0.460745 3.00183 150 98 0 
-0.147904 0.541429 3.0371 142 112 16 
-0.1519 0.562014 3.05006 61 28 0 
-0.295944 0.656158 3.13544 226 183 18 
-0.149362 0.633839 3.08925 201 159 15 
-0.313981 0.717368 3.11696 230 206 158 
-0.226149 0.723525 3.08919 141 85 0 
0.535453 0.50836 3.00897 72 40 0 
0.518418 0.745747 3.0487 139 89 0 
0.452963 0.809283 2.98003 229 213 190 
0.640791 -0.416485 2.48481 255 255 159 
0.06532 -0.245707 2.21655 156 39 55 
0.759347 -0.352251 2.33828 145 127 77 
0.76548 -0.351099 2.34898 134 95 18 
0.142805 -0.152264 2.24579 112 117 97 
0.135306 -0.148566 2.23404 11 49 28 
0.108805 -0.121171 2.22497 49 16 11 
0.127865 -0.10763 2.23549 57 17 17 
0.118138 -0.093437 2.24125 16 34 18 
0.721185 -0.204163 2.29651 33 29 18 
0.769799 -0.211907 2.34425 37 33 30 
0.241486 -0.113378 2.38781 4 43 16 
0.611568 -0.187896 2.45987 137 92 11 
0.0823453 -0.0607118 2.1332 189 172 118 
0.19948 -0.0795993 2.24579 186 168 120 
0.0673153 -0.0398743 2.05846 89 66 32 
0.223194 -0.0738923 2.24108 213 189 125 
0.533585 -0.121953 2.42749 170 141 15 
0.218823 -0.0397037 2.21598 215 193 136 
0.163119 -0.0191373 2.12662 192 176 117 
0.159008 -0.00776249 2.10591 194 173 120 
0.631353 -0.0798271 2.38189 160 134 13 
-0.59642 0.171211 2.60274 111 51 1 
-0.621565 0.178528 2.57291 241 199 19 
0.680048 -0.0570542 2.37671 123 120 111 
-0.58711 0.213612 2.61101 65 40 0 
-0.706723 0.265731 2.38085 229 207 184 
0.577635 0.000498203 2.38826 191 155 17 
-0.539891 0.247259 2.57293 243 202 34 
-0.530897 0.246542 2.58438 191 142 3 
0.365874 0.0596815 2.61907 15 14 12 
0.135276 0.115641 2.36487 51 2 5 
0.314636 0.0833884 2.62757 52 52 44 
-0.430049 0.260841 2.59973 26 17 8 
0.0881248 0.142236 2.33807 38 0 0 
-0.502895 0.277575 2.57766 185 136 0 
0.328603 0.109562 2.63411 77 78 70 
-0.649439 0.319898 2.38742 144 104 19 
-0.478297 0.299825 2.5827 122 68 6 
-0.659184 0.342142 2.37074 176 156 131 
-0.476766 0.310978 2.58807 237 188 10 
-0.555746 0.336364 2.53952 135 94 6 
-0.545835 0.335829 2.54655 241 205 47 
-0.50092 0.32603 2.56071 234 191 16 
-0.608111 0.355457 2.48403 93 37 0 
-0.463482 0.326182 2.58487 230 185 8 
-0.5923 0.353227 2.48374 238 160 8 
-0.577426 0.354852 2.51067 119 60 2 
-0.623393 0.367456 2.49225 208 143 13 
-0.546266 0.3516 2.55033 58 23 3 
-0.48984 0.343686 2.56307 234 192 20 
-0.174236 0.514781 3.00764 113 73 0 
-0.564286 0.699598 3.32731 99 89 79 
-0.581451 0.705932 3.31938 181 170 166 
-0.137729 0.623539 3.10867 200 153 13 
0.432144 0.468756 2.95923 224 183 7 
-0.207254 0.657165 3.09782 120 76 5 
-0.865872 0.837902 3.08852 208 197 193 
-0.879005 0.855054 3.07458 202 191 185 
0.52089 0.492787 2.99331 170 137 30 
-0.178764 0.697011 3.08769 133 88 5 
-0.181486 0.723858 3.07573 139 92 4 
-0.693061 0.87154 3.03606 108 98 89 
-0.207222 0.759498 3.07128 144 104 6 
-0.359713 0.82838 3.08718 187 176 172 
-0.648367 0.896522 2.97468 186 175 171 
-0.214436 0.801999 3.07417 137 129 110 
-0.456561 0.869762 3.03086 190 177 169 
-0.197923 0.826316 3.10262 199 183 168 
0.537443 0.696218 3.09228 238 192 10 
0.49564 0.707094 3.07224 233 187 13 
0.559354 0.716829 3.11138 241 197 14 
0.528191 0.750533 3.04421 242 201 15 
0.517139 0.757164 3.04376 185 139 17 
0.459686 0.796997 2.99111 231 217 190 
0.402156 0.833688 3.01408 52 36 20 
0.555554 0.820615 3.01727 222 208 195 
0.464381 0.84947 2.99799 89 79 70 
0.517027 0.848171 3.0234 100 91 84 
0.483918 0.865405 3.03687 96 87 78 
0.455463 0.880831 3.00789 198 188 186 
-0.0215922 -0.18984 2.21931 3 12 9 
0.658112 -0.242211 2.35219 85 62 31 
0.224454 -0.0856482 2.25795 83 59 23 
0.607884 -0.15001 2.45106 227 176 9 
0.132878 -0.0399607 2.1221 14 73 29 
0.161036 -0.0163347 2.13609 182 166 107 
0.152229 0.00216954 2.10336 87 63 35 
0.647656 -0.0379638 2.37789 102 98 95 
0.715305 -0.0450579 2.40702 11 9 10 
-0.533676 0.236876 2.59274 247 207 34 
-0.660591 0.310924 2.37636 243 226 206 
-0.643815 0.310997 2.40009 221 172 9 
0.359905 0.115009 2.625 8 8 6 
-0.440431 0.295504 2.5795 136 103 10 
-0.531598 0.356239 2.55337 231 173 11 
-0.526458 0.371787 2.5557 229 182 8 
-0.599674 0.386513 2.38383 122 92 40 
-0.57428 0.399654 2.47258 142 86 9 
-0.613329 0.40442 2.3713 168 150 136 
-0.150793 0.527764 3.02337 22 0 0 
0.495263 0.473139 2.97587 170 132 9 
-0.17186 0.695508 3.07779 126 84 2 
-0.328418 0.749811 3.07437 123 111 89 
-0.340647 0.777042 3.08204 212 197 176 
-0.191604 0.741005 3.07184 221 176 12 
-0.512605 0.919606 2.94399 111 98 89 
0.55015 0.705601 3.1073 143 97 1 
0.464985 0.797728 3.03686 227 211 185 
0.509006 0.772463 3.04659 241 226 193 
0.540881 -0.252024 2.40025 40 37 4 
0.139726 -0.135993 2.23676 121 123 102 
0.14393 -0.121543 2.24536 115 116 100 
0.115003 -0.108324 2.16755 82 97 76 
0.0911728 -0.0575446 2.12442 203 173 119 
0.553536 -0.144672 2.41511 196 154 8 
0.0617324 -0.0286387 2.0538 91 75 39 
-0.604863 0.181865 2.60823 86 40 4 
-0.657921 0.214498 2.45675 250 214 16 
0.658263 -0.0604302 2.38412 16 15 13 
-0.739291 0.291887 2.40592 135 102 7 
-0.655497 0.28907 2.42705 123 50 5 
-0.66619 0.302712 2.41562 236 186 11 
-0.686721 0.311476 2.38456 239 226 210 
0.190142 0.124949 2.47134 99 80 48 
-0.638337 0.346951 2.42829 129 75 1 
-0.497271 0.333214 2.56719 229 189 13 
-0.621729 0.367813 2.41851 237 197 11 
-0.708781 0.656717 3.39278 198 185 177 
-0.590795 0.72197 3.28373 198 187 181 
-0.599917 0.741867 3.24882 119 106 97 
-0.306459 0.723127 3.10066 230 212 176 
-0.175899 0.706647 3.08831 131 85 8 
-0.415158 0.848593 3.04409 104 91 82 
-0.609226 0.927891 2.93295 202 191 185 
-0.183115 0.881007 2.97619 134 121 112 
0.521306 0.771386 3.0461 245 230 201 
0.479922 0.78366 3.03397 143 105 6 
0.654508 0.780138 3.17957 144 131 115 
0.466417 0.834645 3.01574 221 209 185 
0.561045 0.827777 3.08609 94 74 41 
0.548801 0.824944 3.02865 218 205 186 
0.529451 0.87011 3.01659 211 202 195 
0.571086 0.978814 2.79078 152 141 135 
0.655818 1.01816 2.74905 158 147 143 
0.737277 -0.336188 2.38192 198 157 7 
0.0730832 -0.157319 2.1935 79 16 11 
0.120217 -0.155291 2.22547 8 39 24 
0.197124 -0.0448177 2.2355 194 173 120 
0.0420093 0.016103 2.04335 87 70 42 
-0.631637 0.235491 2.38711 221 209 185 
0.570034 0.00223718 2.40457 196 151 8 
-0.641687 0.303961 2.47067 227 152 11 
0.0702758 0.154513 2.31794 104 91 75 
-0.630103 0.338676 2.42256 134 80 8 
-0.587715 0.366924 2.48341 232 156 10 
-0.626823 0.376557 2.37867 241 223 209 
-0.595967 0.717515 3.29093 197 187 178 
-0.293664 0.671111 3.12622 233 191 9 
0.441638 0.469097 2.9513 227 179 9 
-0.342922 0.712285 3.13147 109 75 1 
-0.248478 0.682199 3.1032 229 186 9 
-0.194583 0.727966 3.07068 219 169 12 
-0.241648 0.750878 3.05619 228 214 185 
-0.711659 0.881642 3.00733 204 193 191 
-0.359798 0.79909 3.0728 102 92 82 
-0.304582 0.793982 3.07577 92 83 76 
-0.522163 0.923444 2.93871 113 101 89 
0.507957 0.682654 3.06705 109 72 2 
0.500865 0.709206 3.03179 239 195 12 
0.568807 0.744798 3.06388 240 200 16 
0.407368 0.841244 2.99767 60 47 30 
0.4661 0.818463 2.95448 222 207 184 
0.564737 0.983699 2.80236 150 139 135 
0.715843 -0.239378 2.34245 243 236 218 
0.548328 -0.123642 2.42076 184 147 7 
0.776406 0.619847 3.46717 200 190 181 
-0.470802 0.898441 2.97515 100 87 79 
0.119065 -0.470409 2.44867 129 29 37 
0.650587 -0.305096 2.46591 222 207 176 
0.630836 -0.168241 2.45793 224 175 10 
0.595904 -0.104261 2.38528 187 148 8 
-0.668032 0.175527 2.49568 161 48 8 
-0.719936 0.288192 2.38702 142 102 14 
-0.674276 0.311476 2.39372 243 227 201 
-0.516097 0.299728 2.52839 235 197 28 
-0.632625 0.334655 2.43189 132 80 4 
-0.580785 0.338209 2.53576 131 94 3 
-0.622046 0.375304 2.38831 244 225 193 
0.441979 0.236589 2.66723 14 14 12 
-0.119599 0.707303 3.10034 218 168 9 
-0.300778 0.833704 3.06781 194 183 181 
0.768661 0.612544 3.48134 200 189 183 
0.586747 0.776356 3.03344 175 145 55 
0.513145 0.878964 3.02311 200 190 191 
0.0214608 -0.158382 2.19031 35 128 73 
0.639773 -0.155777 2.43046 232 186 12 
0.33379 0.0347036 2.61056 4 4 4 
-0.432798 0.330779 2.63795 75 75 65 
0.235036 0.2297 2.73572 126 98 15 
-0.323551 0.61718 3.11971 119 80 1 
-0.485291 0.935276 2.94936 200 187 181 
0.52679 0.794667 3.03315 238 226 200 
-0.551798 0.923473 2.92848 115 102 93 
0.544967 -0.0642865 2.44035 17 16 14 
-0.361661 0.766869 3.04767 104 92 80 
-0.27777 0.754663 3.07968 200 183 153 
0.164762 0.77172 2.95831 139 120 15 
0.433607 0.935402 2.90068 207 198 193 
0.553897 -0.316169 2.46615 232 223 216 
0.608533 -0.303775 2.44231 60 12 8 
-0.209517 -0.32521 2.40007 40 20 0 
0.604832 -0.290908 2.44296 52 9 0 
0.621888 -0.284467 2.42754 30 42 0 
0.686131 -0.279202 2.4182 98 94 33 
0.702268 -0.264612 2.40005 235 245 172 
0.635161 -0.265723 2.4196 47 54 3 
0.628848 -0.252597 2.41176 61 55 21 
0.65458 -0.251144 2.40528 39 35 0 
0.719278 -0.243338 2.38136 245 242 223 
0.725803 -0.240157 2.3721 248 242 230 
0.658161 -0.24159 2.40639 10 15 0 
0.617803 -0.245147 2.42829 33 23 0 
0.736485 -0.22065 2.34467 91 81 71 
0.659356 -0.228769 2.40501 21 14 0 
0.601794 -0.240439 2.47256 47 26 0 
0.1384 -0.153586 2.26797 104 132 110 
0.138572 -0.146435 2.28092 124 130 116 
-0.0672211 -0.116928 2.28965 163 175 155 
0.660006 -0.0454573 2.41843 2 1 0 
-0.0090851 -0.0333029 2.05623 29 3 0 
-0.0541629 -0.0338587 2.07076 179 156 124 
-0.0473496 -0.0325787 2.06079 166 143 109 
-0.0126856 -0.0308138 2.06504 152 130 93 
-0.470173 0.183785 2.59358 177 150 43 
-0.437604 0.320653 2.64266 10 9 4 
-0.194416 0.424194 3.0399 142 89 0 
0.655626 -0.445616 2.52178 228 214 188 
0.653616 -0.431046 2.5089 170 131 52 
0.621992 -0.4321 2.51343 229 211 191 
0.711158 -0.411886 2.46377 243 223 198 
0.649136 -0.424509 2.53809 255 255 170 
0.624417 -0.421174 2.52188 132 91 11 
0.711542 -0.399705 2.46579 153 120 49 
0.706437 -0.393445 2.48139 255 255 147 
0.747748 -0.359464 2.42637 131 94 16 
0.775199 -0.360161 2.44443 255 243 163 
0.652958 -0.38001 2.52086 85 27 3 
0.645356 -0.378719 2.52908 85 31 5 
0.715383 -0.351401 2.47998 97 37 9 
0.70409 -0.348704 2.47844 90 35 5 
0.784279 -0.316219 2.42897 85 39 3 
0.494385 -0.354346 2.55665 13 9 8 
0.776873 -0.315217 2.43881 90 41 9 
0.596594 -0.309143 2.45085 133 75 74 
0.579465 -0.307001 2.45926 238 225 216 
0.582037 -0.298187 2.44768 67 12 9 
0.543302 -0.305021 2.49808 178 166 152 
0.492764 -0.317089 2.55938 18 18 10 
0.610867 -0.287674 2.4353 184 194 133 
0.588027 -0.282371 2.44706 51 0 0 
0.616923 -0.276694 2.4312 29 38 0 
0.59772 -0.277814 2.44594 41 0 0 
0.681191 -0.261896 2.39745 219 242 138 
0.661994 -0.261939 2.41182 77 87 24 
0.623016 -0.261104 2.42531 78 71 45 
0.587341 -0.266143 2.45415 141 63 43 
0.714717 -0.241928 2.35874 239 226 217 
0.669551 -0.250198 2.40731 63 43 10 
0.678361 -0.247187 2.3899 179 197 98 
0.689594 -0.246446 2.38701 237 246 193 
0.66308 -0.24311 2.3948 40 34 0 
0.635087 -0.244213 2.4197 201 180 159 
0.660848 -0.23415 2.39785 146 165 73 
0.709188 -0.227005 2.37173 32 38 12 
0.718514 -0.225249 2.36574 232 231 213 
0.794652 -0.223375 2.37759 246 236 227 
0.731167 -0.222677 2.36607 103 104 86 
0.802037 -0.217183 2.36664 68 63 59 
0.810045 -0.210353 2.36492 45 41 38 
0.592996 -0.237038 2.47662 197 154 26 
0.734385 -0.208895 2.35336 36 32 21 
0.814514 -0.198975 2.37253 20 15 9 
0.768455 -0.191205 2.34811 27 23 20 
0.816127 -0.187145 2.38809 10 7 2 
0.703647 -0.183556 2.37866 37 13 1 
0.767022 -0.174653 2.37494 11 7 6 
0.811017 -0.173843 2.39085 14 10 7 
0.716213 -0.176526 2.3873 136 104 89 
0.626938 -0.195826 2.49074 54 24 0 
0.734367 -0.168015 2.36851 131 121 111 
0.611558 -0.18892 2.48133 157 112 11 
0.802766 -0.158738 2.3966 22 15 9 
0.779515 -0.145465 2.36565 28 23 20 
0.758866 -0.144944 2.36102 30 25 21 
0.596468 -0.1684 2.51161 35 4 0 
0.694321 -0.150846 2.4475 225 181 32 
0.101184 -0.145228 2.25085 24 31 13 
0.711494 -0.140838 2.43482 226 184 38 
0.667808 -0.113564 2.41574 229 183 12 
-0.0870355 -0.135999 2.2996 67 27 27 
0.102714 -0.121282 2.25832 48 13 9 
0.533096 -0.121224 2.44514 178 151 34 
0.691824 -0.111172 2.42282 225 177 15 
0.633389 -0.109908 2.42801 107 56 0 
-0.0837877 -0.124552 2.2933 38 10 7 
0.528756 -0.113569 2.45515 14 17 10 
0.113074 -0.104262 2.26475 52 16 16 
-0.105982 -0.118253 2.31038 2 19 1 
0.624758 -0.0937486 2.41854 76 31 0 
0.614879 -0.0877724 2.42189 171 142 25 
0.628778 -0.0841705 2.42489 175 148 35 
0.497959 -0.0765248 2.44604 41 40 36 
0.0215944 -0.04565 2.05638 227 201 144 
-0.0896574 -0.0481459 2.10348 46 35 7 
0.0396797 -0.0356844 2.07235 42 25 15 
-0.0986148 -0.0323902 2.11007 100 78 39 
0.513433 -0.0353684 2.4592 15 3 0 
0.666994 -0.0176802 2.40743 122 118 115 
0.0439453 -0.00911333 2.08215 175 153 104 
0.545746 -0.0118629 2.43273 194 161 30 
0.569251 -0.00626325 2.44313 198 160 37 
0.58076 0.00281005 2.42365 187 155 34 
0.388026 -0.0069388 2.73229 13 3 2 
0.524591 0.0565742 2.45817 215 176 21 
-0.0316765 0.0629426 2.16637 35 0 0 
-0.321807 0.0321046 2.70421 29 21 8 
-0.38166 0.0691679 2.69597 57 54 47 
-0.340175 0.0719339 2.69377 115 114 110 
0.386907 0.129066 2.6379 145 123 24 
0.333935 0.12661 2.65738 82 81 79 
-0.516101 0.134836 2.6033 27 19 6 
0.593173 0.199719 2.63431 106 65 3 
-0.466857 0.14215 2.60681 61 57 54 
-0.502069 0.141567 2.60559 17 14 9 
0.435649 0.210375 2.66352 19 4 0 
-0.418509 0.170832 2.66412 13 6 0 
-0.452839 0.170851 2.60603 11 11 11 
-0.478872 0.17555 2.59417 204 171 30 
0.506296 0.241171 2.69864 25 24 19 
0.488621 0.240835 2.69965 23 18 15 
-0.362248 0.196101 2.75046 212 167 12 
0.408383 0.24116 2.73597 150 119 29 
0.499853 0.248829 2.71086 154 144 134 
-0.404932 0.20355 2.66981 13 2 0 
-0.36856 0.212106 2.74987 195 159 13 
0.468342 0.263249 2.69498 64 60 57 
-0.439912 0.255131 2.60591 137 112 30 
-0.435143 0.262862 2.61163 27 18 9 
-0.452491 0.272522 2.58291 113 72 8 
-0.434415 0.277304 2.6101 175 153 34 
-0.508828 0.278891 2.58869 171 120 0 
-0.48678 0.291381 2.59245 228 191 12 
-0.424517 0.304567 2.64722 112 109 104 
-0.506531 0.327096 2.56877 231 188 14 
-0.546759 0.337612 2.54835 234 192 20 
-0.597841 0.354711 2.48734 234 164 16 
-0.214186 0.421629 3.03184 219 180 17 
-0.157138 0.424989 3.03894 227 190 13 
-0.229217 0.422918 3.03221 111 68 0 
-0.245439 0.426605 3.02434 212 166 10 
0.433166 0.46781 2.95719 236 191 27 
-0.272199 0.432178 3.02176 213 173 15 
-0.207674 0.462244 3.00906 156 105 0 
-0.146162 0.479416 3.01935 86 41 2 
0.282829 0.510078 2.97157 50 17 2 
-0.148949 0.490295 3.01585 208 166 18 
-0.151128 0.512223 3.02357 180 140 16 
-0.15156 0.532477 3.03878 22 3 0 
0.285785 0.565313 2.99165 22 1 0 
-0.14819 0.543493 3.04331 158 132 21 
-0.148648 0.632685 3.08667 217 169 11 
0.538027 0.691381 3.07781 243 201 19 
-0.184843 0.647716 3.08847 213 172 20 
-0.294849 0.655531 3.12537 240 196 25 
-0.171253 0.681114 3.10134 229 190 27 
-0.559797 0.698047 3.31604 101 87 78 
-0.155545 0.712976 3.12006 228 183 20 
-0.31512 0.718106 3.11464 234 205 145 
0.47472 0.782957 3.03524 167 128 23 
-0.319701 0.744991 3.08061 229 213 187 
-0.328118 0.751945 3.07306 143 127 102 
-0.292174 0.787909 3.08262 59 45 32 
-0.20554 0.814398 3.09535 91 69 32 
-0.197503 0.825414 3.09937 214 198 182 
0.581752 -0.252514 2.47997 114 61 30 
0.506469 -0.0519311 2.45293 3 3 1 
-0.523666 0.342061 2.56579 239 196 21 
0.732669 -0.427127 2.49963 173 162 142 
0.630329 -0.437911 2.53676 228 211 191 
0.775032 -0.36135 2.40888 126 98 35 
0.621792 -0.392636 2.55539 118 90 7 
0.752434 -0.361436 2.43557 121 86 18 
0.654475 -0.38315 2.55273 82 26 1 
0.546223 -0.31617 2.47899 219 209 200 
0.6785 -0.309824 2.49367 240 224 199 
0.590703 -0.293231 2.43949 91 45 45 
0.64284 -0.278363 2.4393 228 231 178 
0.692467 -0.259874 2.40798 40 53 0 
0.644562 -0.258979 2.42812 160 185 65 
0.667064 -0.233962 2.38239 158 183 63 
0.497277 -0.235939 2.36599 253 238 219 
-0.0347875 -0.242505 2.26152 31 0 0 
0.635327 -0.236713 2.45257 26 18 7 
0.612002 -0.234481 2.44005 103 100 21 
0.793013 -0.208716 2.38466 35 34 32 
0.770011 -0.202003 2.35442 229 226 221 
0.053134 -0.212788 2.24455 62 151 97 
0.763098 -0.187655 2.33348 25 21 18 
0.623045 -0.194716 2.47526 53 22 0 
-0.0224274 -0.179503 2.25025 57 146 90 
0.0455115 -0.169731 2.22222 46 134 83 
0.0552689 -0.162557 2.21942 18 9 0 
0.698418 -0.162944 2.44564 87 35 13 
0.611052 -0.153498 2.49353 234 189 10 
0.652683 -0.125367 2.43596 239 197 17 
0.670155 -0.12327 2.45324 126 75 12 
0.502911 -0.134894 2.49776 16 7 0 
0.63021 -0.110419 2.41669 111 60 0 
0.038038 -0.0483253 2.05758 228 204 144 
0.656888 -0.0495339 2.39512 14 12 13 
0.65228 -0.0367885 2.41048 108 107 103 
0.0406809 -0.0193 2.07606 92 73 43 
0.672576 -0.017992 2.41761 121 117 114 
0.724122 -0.0189971 2.46451 84 81 76 
0.403526 0.125979 2.59806 181 147 21 
0.390993 0.127064 2.65078 151 125 12 
0.332194 0.126076 2.64196 80 79 77 
-0.363896 0.0924559 2.70846 16 18 7 
0.471105 0.148327 2.54462 194 157 16 
0.464338 0.176087 2.57109 208 179 77 
0.587097 0.181875 2.62827 86 30 3 
0.399248 0.173496 2.63019 124 99 7 
-0.535226 0.135435 2.61308 242 207 63 
-0.489885 0.142882 2.61621 116 108 95 
-0.425156 0.166828 2.65699 10 4 4 
-0.564483 0.246625 2.60042 113 63 10 
-0.408263 0.280338 2.68895 39 22 2 
-0.182254 0.396524 3.02548 108 72 0 
-0.202358 0.40805 3.03596 221 182 16 
-0.214858 0.40971 3.04016 105 68 0 
-0.137226 0.443273 3.0116 208 167 13 
-0.144955 0.465777 3.00875 101 61 10 
-0.150759 0.510519 3.01399 181 140 14 
0.805728 0.617232 3.46998 153 139 130 
-0.0890323 0.614871 3.13237 208 162 15 
0.510714 0.686241 3.06631 125 79 1 
0.533815 0.691199 3.06441 241 200 12 
-0.278269 0.739295 3.09686 163 116 0 
-0.042824 0.77295 3.17152 94 77 57 
0.383815 0.809726 3.00991 190 171 141 
-0.312556 0.775698 3.06826 224 209 188 
0.474937 0.833131 3.01635 227 215 193 
-0.234793 0.829735 3.06791 97 90 80 
-0.265738 0.832327 3.06886 110 102 99 
-0.868869 0.850606 3.0479 208 199 194 
0.144821 0.936723 2.89944 145 132 123 
-0.813842 1.20044 2.47494 220 210 211 
0.0224997 -0.484563 2.32599 174 16 30 
0.674717 -0.43351 2.53241 239 210 54 
0.630385 -0.424475 2.53256 111 77 6 
0.735171 -0.404548 2.48655 240 209 57 
0.68803 -0.395362 2.48225 108 75 4 
0.749559 -0.375859 2.41842 215 197 173 
0.571328 -0.377015 2.53401 171 161 151 
0.712945 -0.351874 2.49083 90 33 4 
0.55722 -0.330665 2.4579 240 231 222 
0.00967887 -0.296087 2.25783 96 0 8 
0.0517186 -0.292434 2.25816 98 0 5 
0.639544 -0.27988 2.4102 225 230 176 
0.730879 -0.249241 2.38524 246 232 221 
0.508625 -0.264379 2.44541 244 236 223 
0.672387 -0.234727 2.39719 157 183 60 
0.648871 -0.235525 2.41889 62 23 8 
0.0687739 -0.234018 2.2521 27 0 7 
0.711236 -0.216782 2.3712 23 25 20 
0.66876 -0.220174 2.40839 58 43 20 
0.71753 -0.202622 2.35801 175 177 140 
0.605735 -0.220615 2.47669 167 127 3 
0.727471 -0.17021 2.38341 32 25 6 
0.699053 -0.164566 2.47289 115 66 10 
0.710402 -0.154239 2.41265 108 49 7 
0.676678 -0.156199 2.46161 231 183 15 
0.591125 -0.158927 2.48042 80 45 3 
0.528424 -0.106966 2.44434 6 9 2 
0.513851 -0.085265 2.42891 88 87 83 
-0.0710477 -0.0537272 2.07092 226 200 141 
0.659546 -0.0553372 2.40619 13 13 13 
0.42016 0.0489943 2.59325 214 175 18 
-0.373363 0.0342155 2.67246 136 133 128 
0.390808 0.0832818 2.63022 143 113 3 
0.471466 0.147224 2.53399 185 143 5 
0.463551 0.158769 2.56366 14 2 2 
0.584073 0.180885 2.61492 84 31 0 
-0.359643 0.163182 2.74991 205 158 16 
-0.441653 0.164436 2.62173 115 114 110 
-0.461562 0.173694 2.60914 7 7 7 
-0.749246 0.243311 2.38434 251 232 155 
-0.452701 0.286048 2.57822 213 167 12 
-0.481992 0.316126 2.59077 230 188 8 
-0.523559 0.346515 2.69024 243 202 14 
-0.199186 0.407482 3.02405 215 176 11 
0.455469 0.451178 2.98232 119 84 3 
-0.300632 0.477107 3.03205 197 157 8 
0.826734 0.58053 3.52105 152 142 133 
-0.474044 0.647219 3.38725 201 188 182 
-0.498494 0.673062 3.39283 119 107 95 
-0.200664 0.675524 3.10762 230 178 14 
-0.30921 0.72332 3.10618 236 219 176 
-0.275413 0.740992 3.10846 182 137 8 
0.34578 0.768702 3.01875 107 69 4 
-0.595518 0.739055 3.22956 120 110 100 
0.58244 0.810231 3.10979 156 141 118 
0.462181 0.795919 3.01061 237 220 202 
0.466709 0.832608 3.00637 229 214 191 
-0.243266 0.796235 3.03946 218 206 184 
-0.659346 0.797423 3.13316 115 105 96 
-0.676107 0.805046 3.11053 203 192 186 
-0.358403 0.829223 3.07823 193 184 177 
-0.415952 0.84925 3.04031 113 103 93 
-0.453165 0.870629 3.00606 193 180 172 
-0.461958 0.903841 2.94922 110 97 89 
0.638483 0.00612989 2.42502 8 8 10 
0.406866 0.169652 2.6556 130 99 6 
0.131966 -0.406398 2.37379 173 160 144 
0.727036 -0.292695 2.44762 157 90 0 
0.595906 -0.297182 2.44997 67 9 5 
0.649394 -0.288182 2.42959 244 238 216 
0.0600887 -0.156143 2.22946 16 33 17 
0.11476 -0.153068 2.24945 28 41 23 
0.647198 -0.0289472 2.39586 106 105 101 
0.123882 -0.0059584 2.11567 207 184 130 
0.606546 -0.00014498 2.44285 6 6 4 
0.379036 0.0616344 2.65689 8 7 3 
-0.408568 0.0952697 2.74487 215 170 9 
-0.52795 0.140314 2.59352 234 203 35 
0.445711 0.204292 2.64687 122 92 2 
-0.614634 0.157563 2.591 249 208 22 
-0.410496 0.200149 2.66204 10 6 3 
0.190276 0.241669 2.68214 9 5 0 
-0.167483 0.375508 2.98563 109 71 6 
-0.13678 0.420456 3.02969 120 80 8 
-0.025677 0.809072 3.15055 176 159 149 
-0.657359 0.799869 3.14776 116 106 97 
-0.335523 0.821141 3.08979 198 188 186 
0.650346 -0.461863 2.56134 219 204 183 
0.619838 -0.388888 2.54574 118 90 6 
0.64839 -0.375071 2.49017 149 101 17 
0.710691 -0.346786 2.44402 153 100 4 
0.502734 -0.330048 2.55689 7 7 7 
0.601697 -0.296445 2.47208 59 11 11 
-0.00431403 -0.22011 2.26082 75 163 112 
0.0425079 -0.214792 2.25167 58 155 101 
0.70044 -0.1692 2.43304 76 26 3 
0.69976 -0.133259 2.44441 230 182 22 
0.592302 -0.0953826 2.4068 194 154 4 
0.542979 -0.0918935 2.44545 10 10 12 
0.585752 -0.0734727 2.43263 2 2 2 
0.646124 -0.0555446 2.41296 10 10 10 
0.520511 -0.047494 2.44906 13 13 13 
0.556994 -0.0195812 2.43523 5 4 0 
0.571093 0.0101153 2.43573 200 159 7 
0.518462 0.0371352 2.46726 208 165 9 
0.479606 0.0577663 2.51995 82 43 2 
0.410424 0.0539038 2.59426 207 166 24 
0.504079 0.0747041 2.44551 111 79 4 
-0.450105 0.133312 2.65058 95 94 89 
0.387405 0.198418 2.72816 8 2 2 
-0.684947 0.167349 2.48307 213 92 13 
0.457569 0.692535 3.03226 118 78 6 
0.497539 0.842897 3.03434 69 58 52 
-0.00251053 0.886846 2.9651 186 173 164 
-0.488793 0.876171 2.97709 107 97 87 
-0.860182 0.866336 3.03153 207 196 194 
-0.363463 0.89193 2.9934 148 140 129 
0.666606 -0.154656 2.48171 230 186 17 
0.598211 -0.0104341 2.36755 9 8 14 
-0.50023 0.171064 2.58758 225 185 10 
0.508879 0.0102055 2.45408 204 163 9 
-0.526639 0.282489 2.59045 234 193 7 
0.160059 0.771753 2.93076 147 127 14 
0.517604 -0.17866 2.42413 127 93 4 
0.358526 0.154982 2.64658 16 11 8 
0.1224 0.47049 2.9255 11 49 26 
0.550317 -0.319549 2.46258 40 31 24 
0.564413 -0.310861 2.45045 36 26 16 
0.60245 -0.300965 2.42333 60 12 8 
0.582149 -0.292753 2.43171 59 9 10 
0.547855 -0.298279 2.46288 50 40 28 
0.55165 -0.285164 2.46381 168 155 138 
0.631055 -0.267302 2.39487 206 219 137 
0.64575 -0.262827 2.38508 32 51 0 
0.608222 -0.264004 2.41053 27 36 0 
0.623966 -0.251165 2.39747 61 55 21 
0.648875 -0.238019 2.37897 10 15 0 
0.649997 -0.225622 2.37776 21 14 0 
0.687504 -0.197301 2.34645 176 163 146 
-0.06925 -0.115927 2.2744 163 175 155 
-0.437578 0.320445 2.64043 10 9 4 
0.61418 -0.428067 2.48894 229 211 191 
0.700048 -0.393377 2.43238 153 120 49 
0.703989 -0.34599 2.44707 97 37 9 
0.768896 -0.309903 2.38815 85 39 3 
0.574045 -0.304207 2.44189 238 225 216 
0.597535 -0.281315 2.41913 36 29 1 
0.582693 -0.279979 2.43005 51 0 0 
0.600431 -0.266448 2.41723 58 65 21 
0.658497 -0.245644 2.37492 63 43 10 
0.573094 -0.242181 2.4601 182 141 23 
0.620399 -0.193296 2.47024 54 24 0 
0.609002 -0.188377 2.47361 157 112 11 
0.684917 -0.148876 2.42119 225 181 32 
0.608329 -0.0863632 2.4019 171 142 25 
-0.742241 0.184651 2.49237 113 29 0 
-0.534426 0.24674 2.59011 177 128 0 
-0.24554 0.42661 3.02988 212 166 10 
-0.146395 0.432683 3.00651 219 178 24 
-0.272646 0.431601 3.02144 213 173 15 
-0.137741 0.441222 3.00417 209 168 14 
-0.141969 0.454384 3.00363 207 166 12 
-0.145149 0.465008 3.00782 101 61 10 
-0.146913 0.478126 3.01171 86 41 2 
-0.560217 0.698131 3.31872 101 87 78 
-0.29182 0.78756 3.08091 59 45 32 
-0.19765 0.825329 3.10288 214 198 182 
0.69407 -0.343444 2.44616 92 35 5 
0.65377 -0.230065 2.36852 150 174 64 
0.689968 -0.218956 2.35757 110 129 40 
0.752144 -0.186088 2.30643 25 21 18 
0.636194 -0.00836088 2.39943 76 76 74 
0.391918 0.145208 2.62471 125 96 4 
0.495177 0.177492 2.55178 123 90 9 
-0.489031 0.29074 2.59433 232 193 14 
-0.486877 0.301754 2.59841 132 85 17 
-0.202429 0.407788 3.03018 221 182 16 
-0.662097 0.369279 2.40727 91 41 0 
-0.149159 0.490348 3.01252 206 164 16 
-0.0897864 0.61358 3.12302 208 162 15 
-0.231733 0.655928 3.10563 108 66 0 
-0.532602 0.684303 3.34408 197 184 176 
-0.26557 0.833019 3.07558 110 102 99 
-0.499868 0.899814 2.97165 186 176 167 
0.657895 -0.217226 2.3774 58 43 20 
0.607061 -0.15102 2.47279 236 190 8 
-0.0735896 -0.0532889 2.05266 226 200 141 
0.465327 0.0559587 2.55596 255 248 181 
-0.441939 0.164233 2.62357 115 114 110 
-0.461674 0.174122 2.60872 7 7 7 
0.921189 0.555316 3.58744 209 198 192 
-0.208839 0.461423 3.00594 162 112 1 
-0.717101 0.657561 3.40817 199 189 180 
-0.596241 0.740602 3.24247 120 110 100 
0.537168 -0.00817878 2.43496 205 166 13 
-0.711934 0.65544 3.39309 199 189 180 
-0.339065 0.71706 3.12638 117 86 3 
-0.245627 0.798074 3.05031 217 205 183 
-0.415739 0.850134 3.05299 114 104 94 
-0.463368 0.901568 2.95567 111 98 89 
0.530065 -0.00699117 2.44934 205 164 10 
-0.510125 0.123456 2.59791 56 51 47 
-0.651241 0.79777 3.14284 116 106 96 
0.410957 0.852519 3.00478 78 68 59 
-0.415628 0.842906 3.03492 115 105 95 
-0.860174 0.868989 3.03901 207 196 194 
-0.154313 0.770652 3.07082 144 110 10 
-0.306716 0.839928 3.09102 203 190 182 
-0.359099 0.889114 2.98104 140 130 118 
-0.305457 0.744348 3.08746 227 211 185 
0.120824 0.85944 2.99715 93 72 29 
0.116935 0.467615 2.89013 11 49 26 
0.641514 -0.266697 2.38534 188 220 93 
-0.865751 0.838228 3.08849 208 197 193 
0.0378499 0.00436023 2.07104 84 59 28 
0.594506 0.183219 2.65197 86 30 3 
-0.231888 0.655487 3.10386 108 66 0 
-0.343223 0.780689 3.07899 220 207 190 
0.920614 0.555357 3.58531 209 198 192 
0.534331 0.696566 3.07283 242 201 13 
-0.190732 0.741077 3.06988 228 185 8 
-0.56386 0.935509 2.88658 120 110 100 
0.811422 0.625159 3.47731 149 139 129 
-0.227646 0.720118 3.08282 148 92 0 
-0.308381 0.734167 3.09469 233 219 190 
-0.253222 0.837999 3.121 106 99 91 
-0.360697 0.80016 3.07531 102 92 82 
-0.517165 0.359361 2.5591 160 99 10 
0.435769 0.469981 2.955 238 187 18 
0.145633 0.937941 2.90215 145 132 123 
-0.806781 1.19322 2.43972 220 210 211 
0.468078 0.833571 3.01137 229 214 191 
0.383988 0.842366 2.99552 188 173 154 
-0.414647 0.850167 3.04809 114 101 92 
-0.41227 0.837991 3.03946 116 104 90 
-0.20507 -0.328111 2.38504 29 12 0 
0.124889 -0.111114 2.24351 74 18 21 
-0.633739 0.361265 2.42447 238 192 10 
-0.207639 0.80497 3.04993 81 65 39 
-0.177809 0.810304 3.07511 134 104 32 
0.478224 0.784465 3.0338 154 109 6 
0.982341 0.763597 3.17352 137 127 115 
0.47078 0.829584 3.00046 224 213 191 
0.550991 0.82115 3.01644 222 210 186 
0.442247 0.470241 2.94738 232 185 9 
-0.441841 0.910628 2.96114 188 175 169 
-0.189367 -0.329506 2.38875 138 112 77 
-0.202673 -0.32123 2.37978 38 25 9 
0.631187 -0.314599 2.41155 84 70 43 
0.0266511 -0.490167 2.30107 153 25 40 
0.193526 -0.0960066 2.26369 2 17 0 
0.171249 -0.0328793 2.17793 17 40 0 
0.345069 0.0846639 2.60979 108 107 102 
-0.551688 0.338176 2.55599 242 205 54 
-0.228792 0.724981 3.09576 141 85 0 
0.518801 0.745047 3.04676 139 89 0 
0.0713305 -0.0400737 2.04904 89 66 32 
0.691011 -0.0546758 2.38087 124 121 114 
-0.1528 0.562037 3.05167 61 30 2 
-0.178294 0.697094 3.08672 133 88 5 
0.229728 0.18496 2.52797 8 6 7 
-0.319477 0.743416 3.09141 230 215 192 
-0.189056 0.887612 2.99248 132 119 110 
0.55089 0.703849 3.10112 143 97 1 
0.563671 0.71643 3.10424 242 197 8 
0.559535 0.763277 3.03662 167 126 10 
0.765839 -0.203308 2.29489 40 40 38 
0.146746 -0.0339448 2.11571 16 88 38 
-0.676382 0.88397 3.01312 115 105 96 
0.553297 0.792348 3.0328 224 213 191 
-0.684752 0.313396 2.38919 241 229 207 
-0.625242 0.910747 2.96848 111 97 88 
0.657932 0.774707 3.17197 142 126 110 
-0.490174 0.880175 2.98996 96 86 76 
-0.489255 0.937642 2.95693 200 187 181 
0.613197 -0.327704 2.42002 239 227 215 
0.682082 -0.282133 2.35778 237 226 204 
0.668023 -0.25934 2.33875 174 213 84 
0.685237 -0.254538 2.32724 51 67 0 
0.72055 -0.256086 2.32009 214 224 137 
0.686977 -0.234209 2.31676 150 166 78 
0.717238 -0.224052 2.29295 52 55 24 
0.761314 -0.203559 2.28593 49 48 44 
-0.545974 0.429028 2.49764 226 162 38 
0.351401 -0.25427 2.29281 41 25 12 
0.776339 -0.308741 2.34192 82 32 0 
0.134382 -0.118535 2.2364 49 8 4 
0.548344 -0.226639 2.35836 80 26 0 
0.138886 -0.0931446 2.22917 30 48 36 
0.707907 -0.262843 2.33443 239 231 210 
0.235366 -0.0981066 2.25782 207 183 123 
-0.624671 0.228667 2.4099 167 129 48 
0.155112 0.0301252 2.10811 77 56 25 
0.225498 0.0216795 2.67972 65 66 61 
-0.563192 0.329048 2.55718 245 204 64 
0.705399 -0.0508116 2.38004 107 106 102 
-0.557487 0.429321 2.49886 151 83 10 
0.240201 0.259663 2.66388 52 31 2 
-0.319523 0.721596 3.12766 237 216 171 
0.284837 0.508063 2.95474 32 3 8 
-0.279001 0.778668 3.052 97 85 73 
0.537491 0.681824 3.07403 133 92 4 
0.490361 0.791954 3.02637 230 206 178 
0.553917 -0.332508 2.45804 238 234 223 
0.235505 -0.223753 2.33984 184 154 100 
0.0861317 -0.0418324 2.04882 228 203 146 
0.182042 -0.0679743 2.22676 14 55 23 
0.232371 -0.0829289 2.23452 112 88 44 
0.0622428 -0.0149363 2.04385 166 148 98 
0.525395 -0.110002 2.40713 19 18 14 
-0.756656 0.292919 2.41434 126 96 24 
0.584805 -0.0917336 2.37776 4 3 1 
-0.645825 0.372715 2.3885 246 229 203 
-0.549515 0.377373 2.56395 131 77 0 
-0.545362 0.382155 2.57322 226 175 6 
-0.542773 0.436919 2.50471 134 86 14 
-0.332179 0.713874 3.13373 129 96 15 
-0.702808 0.876265 3.04923 112 99 91 
-0.326375 0.749113 3.0958 241 226 205 
-0.177221 0.695917 3.0849 132 87 6 
0.425542 0.459314 2.94843 104 66 1 
-0.319558 0.78016 3.08589 213 200 181 
-0.467006 0.879563 3.02312 185 174 168 
-0.503924 0.901876 2.97813 186 173 165 
-0.208817 0.81813 3.10613 80 63 35 
-0.468039 0.91164 2.96161 108 98 89 
-0.239628 0.83469 3.08536 96 86 77 
0.521116 0.683656 3.05418 105 68 0 
0.474586 0.79223 3.02304 222 201 172 
-0.723701 0.248382 2.40758 174 131 52 
-0.725808 0.267393 2.39713 223 206 178 
-0.662521 0.316873 2.42147 229 181 19 
-0.66723 0.326172 2.40475 128 91 13 
-0.565841 0.362185 2.55263 190 144 7 
-0.495044 0.343221 2.57242 229 192 16 
-0.221505 0.696501 3.09136 147 94 0 
-0.46947 0.884723 3.03699 189 178 172 
-0.520021 0.922527 2.95373 113 100 92 
0.742281 0.606395 3.48331 199 189 180 
0.519446 0.743186 3.04497 124 73 0 
0.398258 0.797714 3.01921 91 61 11 
0.150647 0.934478 2.89228 141 131 122 
0.117248 -0.151107 2.21357 6 38 23 
0.0848891 -0.0729369 2.12294 25 127 61 
-0.650167 0.351883 2.44265 131 79 4 
0.087396 0.138059 2.33669 61 0 7 
0.652382 -0.03922 2.36311 105 104 100 
-0.723033 0.860431 3.06652 203 192 188 
-0.681555 0.88768 3.01883 119 110 101 
-0.340327 0.777835 3.08818 213 197 174 
-0.424963 0.853931 3.05947 108 96 84 
-0.372186 0.839529 3.11231 195 184 178 
-0.502632 0.908784 2.97053 198 183 176 
-0.446886 0.914198 2.9668 189 175 172 
0.482269 0.781077 3.02628 139 98 19 
0.448797 0.85479 2.96628 96 86 77 
0.479108 0.85342 2.98702 99 90 81 
0.638258 -0.278878 2.38782 233 235 196 
-0.689771 0.879794 3.04401 109 99 90 
-0.313082 0.736963 3.1008 242 229 212 
-0.363701 0.801696 3.07986 108 96 84 
-0.352581 0.833832 3.09599 195 181 180 
-0.521179 0.922507 2.93735 112 99 91 
0.402811 0.784462 3.008 111 78 9 
0.660526 0.772001 3.1658 141 128 111 
0.529267 0.817501 2.99253 212 199 183 
-0.728825 0.851293 3.07062 205 194 192 
0.556566 0.694303 3.08917 150 107 3 
0.247134 -0.0964 2.34414 136 114 67 
-0.677798 0.875013 3.0392 103 93 83 
-0.555928 0.935138 2.91727 117 104 95 
-0.243456 0.830392 3.09675 90 80 70 
0.512126 0.785252 3.04208 236 224 198 
0.420726 0.834089 2.95807 71 61 51 
0.459761 0.819882 2.97241 218 206 182 
0.509434 0.815252 2.95241 84 71 63 
-0.366798 0.789369 3.06729 109 96 87 
-0.494861 0.882851 2.99502 95 83 71 
-0.493275 0.939492 2.96085 198 187 183 
0.425013 0.847459 2.95984 81 71 62 
0.253705 0.822553 3.00758 88 67 36 
0.118739 -0.379271 2.28198 252 230 219 
-0.273138 0.432631 3.03417 220 177 21 
0.7355 -0.162703 2.28362 24 22 25 
-0.383134 0.0689871 2.69384 54 54 46 
0.466265 0.149353 2.53301 209 165 16 
-0.189586 0.405291 3.04422 228 189 6 
-0.214523 0.409961 3.0564 112 78 4 
-0.136799 0.442162 3.01741 213 174 9 
-0.141227 0.455005 3.0182 217 178 13 
0.537875 0.467857 3.00834 112 69 1 
-0.14442 0.465039 3.01838 111 64 8 
-0.146533 0.480237 3.02778 118 70 4 
-0.148894 0.49125 3.02729 206 163 6 
0.282592 0.510352 2.96844 67 30 0 
-0.158057 0.501573 3.03018 128 87 0 
-0.151691 0.524501 3.03277 16 2 0 
-0.177498 0.672941 3.10111 143 99 4 
-0.187254 0.672204 3.10763 128 85 0 
-0.198188 0.824849 3.09591 206 187 170 
-0.467999 0.881407 2.98238 166 154 142 
-0.645173 0.895037 2.96036 192 179 171 
-0.181329 0.429597 3.03994 233 191 9 
0.28639 0.563706 2.99168 24 6 2 
-0.206877 0.759981 3.07419 180 131 3 
0.115189 -0.389067 2.2946 176 160 145 
0.498722 0.706565 3.0636 240 201 12 
0.343579 0.767037 3.00783 109 66 0 
0.493642 0.860655 3.01963 178 166 166 
0.469536 0.695759 3.05881 124 83 4 
0.548382 0.848582 3.01728 154 140 127 
0.513528 0.855018 3.02447 106 96 86 
0.469338 0.863057 3.01214 113 101 89 
0.445482 0.232015 2.67979 12 10 11 
-0.26005 0.793593 3.07044 226 214 190 
0.0354481 0.92707 2.87357 202 190 178 
0.449575 0.122925 2.51174 220 179 11 
0.665895 -0.228745 2.31527 63 85 0 
0.588167 -0.267435 2.40081 45 39 27 
0.631751 -0.23134 2.35041 57 29 5 
0.647243 -0.216581 2.33529 160 143 123 
0.694417 -0.203269 2.28387 200 202 178 
-0.350754 0.0677963 2.68423 52 51 46 
0.712324 -0.180415 2.27675 209 198 178 
