ply                 
format ascii 1.0    
element vertex 1263
property float x    
property float y    
property float z    
property uchar red  
property uchar green
property uchar blue 
end_header          
0.0519448 -0.0134079 2.06987 176 155 110 
0.338485 0.0872934 2.62657 103 102 97 
0.359544 0.105659 2.62065 85 81 70 
-0.44799 0.171724 2.60128 11 10 6 
-0.558358 0.245773 2.58793 54 23 0 
-0.481447 0.291147 2.58571 229 187 7 
-0.531371 0.350362 2.55632 222 177 13 
-0.512477 0.358261 2.55586 162 96 10 
-0.140782 0.462837 2.99149 109 70 1 
0.445267 0.465589 2.95388 228 188 12 
-0.141756 0.472993 2.99213 95 52 0 
0.465948 0.472943 2.95086 133 87 1 
-0.170348 0.512109 2.99361 124 83 0 
-0.147503 0.525752 3.01316 26 12 1 
-0.548817 0.690822 3.2917 100 88 76 
-0.20272 0.654222 3.08412 128 83 0 
-0.1675 0.674585 3.07601 222 177 16 
-0.110623 0.703723 3.10831 229 178 7 
-0.203171 0.753902 3.05626 154 111 6 
-0.307724 0.770857 3.06043 210 196 170 
-0.286642 0.780038 3.06348 70 55 48 
-0.192713 0.818842 3.08369 197 179 167 
-0.261185 0.827345 3.06199 109 99 90 
-0.856877 0.831548 3.07572 203 192 186 
-0.861423 0.844706 3.04771 200 191 186 
-0.639053 0.889305 2.95906 180 170 161 
-0.521026 0.934973 2.87611 121 111 102 
0.639517 -0.435641 2.47761 223 211 185 
0.60296 -0.148591 2.46645 234 184 11 
0.12187 -0.122792 2.25078 70 25 28 
0.658743 -0.119735 2.41845 122 67 3 
0.644307 -0.0348077 2.38775 107 106 102 
0.360938 0.0806381 2.61986 106 100 88 
-0.440695 0.123184 2.6313 101 93 74 
-0.629989 0.161402 2.56715 243 198 17 
-0.427892 0.262042 2.60138 24 17 9 
-0.446265 0.284804 2.56886 208 169 12 
-0.484988 0.28939 2.5807 232 187 10 
-0.174705 0.495043 2.98978 228 185 11 
-0.14825 0.524477 3.01159 23 10 0 
-0.548629 0.693193 3.29501 96 84 72 
-0.175207 0.67532 3.05959 222 173 10 
-0.151488 0.708538 3.09586 225 176 11 
-0.176991 0.714643 3.07358 145 104 12 
-0.307708 0.768225 3.05207 210 196 170 
0.468988 0.825277 2.99499 224 212 188 
0.384632 0.835863 2.98385 177 165 139 
0.452644 0.83301 2.96971 221 209 193 
0.145723 0.93259 2.89437 155 145 136 
-0.0684918 -0.121289 2.25661 69 20 23 
0.656114 -0.0581735 2.38483 22 21 17 
0.603435 -0.0909768 2.39652 183 145 10 
0.361138 0.0825466 2.62511 104 98 86 
-0.495346 0.329874 2.56076 230 187 10 
-0.543063 0.331911 2.54692 227 187 12 
0.39998 0.439404 2.97821 189 150 13 
0.738543 0.602624 3.47071 204 195 186 
-0.135937 0.62353 3.07766 214 165 10 
-0.154245 0.687535 3.08856 131 95 1 
-0.112215 0.703591 3.11148 227 176 7 
-0.587335 0.734331 3.22166 111 98 89 
-0.151149 0.713448 3.10275 223 171 9 
0.494483 0.701545 3.03627 238 198 12 
-0.269341 0.732047 3.08277 165 125 3 
-0.327059 0.746699 3.06885 127 110 90 
-0.310258 0.769487 3.05825 209 195 169 
-0.653547 0.795393 3.1379 116 106 97 
-0.270512 0.79444 3.06423 216 200 177 
-0.230766 0.823905 3.06342 92 83 76 
-0.696845 0.845465 3.02477 192 181 179 
0.380869 0.834686 2.97549 181 167 141 
-0.675194 0.862056 3.00809 101 91 81 
0.0332851 0.888895 2.96275 110 97 78 
-0.501731 0.912027 2.91568 109 99 90 
-0.262125 0.794847 3.07427 208 193 172 
0.398055 0.781627 3.00458 117 85 0 
0.37569 0.833477 2.97047 182 165 145 
-0.504818 0.911038 2.90488 108 98 89 
0.16832 0.922958 2.92002 208 199 190 
0.0393674 0.931915 2.90263 196 183 175 
0.640111 -0.367969 2.46589 90 37 0 
0.489083 0.82726 2.98353 92 81 77 
0.365994 0.916068 2.92106 138 126 114 
0.338333 0.887699 2.90012 135 122 113 
-0.197129 -0.322602 2.38874 50 33 5 
0.54937 -0.311154 2.453 225 215 205 
0.579656 -0.288831 2.42476 72 22 21 
0.558283 -0.289252 2.44161 192 178 165 
0.59076 -0.281193 2.4136 183 98 93 
0.674452 -0.256741 2.35987 90 109 19 
0.605517 -0.260535 2.40156 73 88 0 
0.659735 -0.252435 2.36174 71 92 1 
0.679038 -0.248772 2.35137 175 200 83 
0.667639 -0.247179 2.35503 88 101 22 
0.705147 -0.244272 2.34069 88 96 37 
0.696721 -0.239556 2.33905 190 214 100 
0.625839 -0.2429 2.38348 66 72 26 
0.671622 -0.228499 2.34429 67 84 13 
0.691623 -0.202204 2.32892 146 144 131 
-0.587033 0.19978 2.60835 183 121 0 
0.442859 0.237687 2.66603 65 66 58 
0.467968 -0.463657 2.88306 115 97 61 
0.759219 -0.349574 2.35948 151 118 51 
0.76544 -0.306265 2.37562 93 45 0 
0.754472 -0.303934 2.37727 100 56 7 
0.594946 -0.305121 2.42412 245 231 218 
0.599756 -0.296998 2.4138 89 49 41 
0.565578 -0.295328 2.43469 102 92 80 
0.621498 -0.281495 2.39644 85 90 50 
0.615641 -0.265474 2.39341 56 66 14 
0.648224 -0.254193 2.36892 68 78 18 
0.648071 -0.242091 2.36423 143 147 96 
0.676089 -0.239312 2.34568 218 225 183 
0.658722 -0.232088 2.35581 160 186 63 
0.711381 -0.226897 2.32186 88 87 57 
0.649466 -0.229106 2.37058 147 164 68 
0.69378 -0.219817 2.32601 34 38 23 
0.719618 -0.211708 2.30916 82 80 67 
0.708663 -0.210558 2.31262 39 39 29 
0.696615 -0.198102 2.319 31 28 11 
0.117553 -0.101093 2.23797 53 14 9 
0.186916 -0.0816274 2.25434 26 20 0 
0.606229 -0.082958 2.39204 161 132 15 
0.216831 -0.0792339 2.27545 59 35 11 
0.617961 -0.0807577 2.39464 160 139 22 
0.626608 -0.0759337 2.38654 173 137 27 
0.657005 -0.0489853 2.38487 13 13 11 
0.647572 -0.0429354 2.37956 9 9 9 
-0.0494923 -0.0338145 2.04038 49 28 1 
0.507858 -0.032997 2.43854 36 31 12 
0.142313 -0.021271 2.15242 53 100 48 
0.540451 -0.0104803 2.41258 190 156 20 
-0.43748 0.119107 2.61066 96 84 42 
0.381675 0.138871 2.62016 17 11 0 
-0.429171 0.152839 2.60914 59 58 54 
0.400302 0.182713 2.62581 13 4 0 
-0.358581 0.197228 2.74212 205 161 12 
-0.366059 0.1989 2.73645 107 62 0 
-0.397645 0.203644 2.65314 18 9 4 
-0.391984 0.234456 2.66978 160 131 29 
-0.447527 0.272098 2.57091 109 75 4 
-0.423753 0.311739 2.63083 16 15 11 
-0.431751 0.319176 2.6299 14 13 9 
-0.540016 0.33668 2.53721 231 193 20 
-0.574806 0.358153 2.50895 118 53 0 
-0.610861 0.408448 2.37573 157 140 120 
-0.221158 0.716713 3.06966 150 95 5 
0.38793 0.833429 2.97872 167 154 137 
0.636157 -0.41346 2.49368 255 239 142 
0.641421 -0.370691 2.48313 89 35 1 
0.549643 -0.32349 2.46002 235 229 217 
0.539982 -0.311309 2.45626 218 210 199 
0.534606 -0.29784 2.46561 158 145 126 
0.571253 -0.281647 2.42873 76 17 11 
0.580142 -0.2762 2.42093 52 1 0 
0.625677 -0.267589 2.38945 213 217 166 
0.0578773 -0.223017 2.23018 24 118 65 
0.686845 -0.224465 2.33374 169 203 82 
0.609579 -0.222732 2.44888 22 13 6 
0.709725 -0.185766 2.30621 28 24 23 
-0.0392851 -0.173997 2.21081 151 44 50 
0.617493 -0.190321 2.45993 55 29 2 
0.606227 -0.185164 2.46635 148 104 5 
0.621957 -0.181544 2.46727 211 171 13 
0.668585 -0.152057 2.41555 221 182 17 
0.589671 -0.151268 2.46208 76 36 11 
0.681333 -0.14602 2.40803 226 183 18 
-0.0850951 -0.131394 2.27216 81 24 30 
-0.0820151 -0.120301 2.27236 56 25 20 
0.13391 -0.111368 2.25874 118 126 105 
0.657045 -0.117469 2.41338 120 65 0 
0.523198 -0.109969 2.4355 16 17 12 
0.621154 -0.105991 2.38824 132 82 0 
0.12658 -0.0984456 2.25177 114 118 104 
0.516815 -0.0867986 2.42285 93 93 91 
0.179005 -0.0662165 2.24745 191 171 121 
0.0210908 -0.0429639 2.02735 222 193 133 
-0.0707315 -0.0372464 2.05004 76 56 29 
0.179125 -0.0395491 2.22463 213 192 137 
0.657505 -0.0153011 2.38001 119 118 114 
0.63328 -0.00638625 2.39238 80 80 72 
0.418027 0.00855193 2.65213 8 4 5 
0.0372059 0.00677009 2.06611 69 52 24 
0.632641 0.0120166 2.39187 20 15 11 
0.352147 0.0563833 2.62594 57 53 42 
0.479868 0.0670944 2.53539 57 20 1 
0.530252 0.0681094 2.45311 115 79 5 
0.345145 0.0806784 2.62084 43 42 37 
0.35864 0.105693 2.61355 85 81 70 
-0.488929 0.106581 2.63334 55 49 25 
-0.537286 0.127906 2.60574 35 23 1 
0.398427 0.135608 2.59151 100 66 5 
0.468515 0.149024 2.53704 191 151 17 
0.456521 0.150366 2.53465 11 0 0 
0.364026 0.203416 2.69167 14 7 0 
0.494348 0.247284 2.68699 152 145 135 
-0.557773 0.245999 2.58555 54 23 0 
-0.502825 0.278369 2.5787 174 123 0 
-0.479525 0.289614 2.57498 229 187 7 
-0.738655 0.273698 2.37341 211 190 169 
-0.208837 0.405957 3.00836 108 69 2 
-0.209499 0.420055 3.02034 216 173 16 
-0.151016 0.41648 2.979 218 181 4 
-0.511789 0.357925 2.55209 162 96 10 
-0.265854 0.428506 2.99827 206 165 11 
-0.202545 0.457798 2.98489 161 112 7 
0.444938 0.465445 2.95197 228 188 12 
-0.174792 0.49207 2.97565 230 187 13 
-0.0851256 0.606836 3.09735 195 152 11 
-0.125635 0.608884 3.09212 108 70 5 
-0.288825 0.650727 3.10934 227 180 16 
0.535167 0.686844 3.06154 247 202 15 
-0.309159 0.713316 3.10183 232 210 161 
0.464962 0.785259 3.01268 226 204 167 
0.469493 0.802885 3.01057 238 222 199 
0.480596 0.812051 3.01061 112 98 85 
0.502361 0.820128 2.99664 207 196 176 
0.470688 0.823448 2.98803 226 214 192 
0.615193 -0.412437 2.48526 124 92 19 
0.761178 -0.379751 2.37175 234 223 203 
0.756704 -0.364103 2.35565 234 223 195 
0.588097 -0.304339 2.43582 158 96 99 
-0.0265828 -0.234553 2.23855 19 3 4 
0.709427 -0.238363 2.33354 240 233 217 
0.055792 -0.223977 2.24145 19 120 64 
0.125749 -0.145086 2.24089 13 54 36 
0.601955 -0.148681 2.46259 234 184 11 
0.130359 -0.134014 2.25147 132 131 111 
0.680771 -0.109681 2.39095 218 173 9 
0.100208 -0.0963517 2.24149 165 180 157 
0.667799 -0.049591 2.38661 127 120 110 
0.642705 -0.0340785 2.38161 107 106 102 
0.0284975 -0.0276025 2.04074 182 164 114 
0.427416 0.000141717 2.64189 95 71 9 
0.541318 0.0615344 2.43481 213 169 12 
-0.398028 0.0959128 2.73399 208 164 13 
0.357109 0.118265 2.61843 7 5 6 
-0.526313 0.135808 2.59206 239 206 31 
-0.428855 0.263475 2.60779 24 17 9 
-0.517217 0.342896 2.56894 246 205 29 
-0.590386 0.354204 2.4859 230 155 10 
-0.177121 0.427752 3.00433 229 189 16 
-0.567887 0.362493 2.5271 191 148 9 
-0.144016 0.433989 2.98541 223 181 17 
-0.150663 0.557005 3.03874 83 53 0 
-0.202982 0.651303 3.07596 123 82 0 
-0.174751 0.674131 3.05092 222 173 10 
0.506501 0.681995 3.05568 122 79 0 
-0.20183 0.750777 3.0512 158 111 0 
0.125876 0.827842 2.97732 85 64 7 
0.45186 0.831344 2.96458 221 209 193 
-0.434911 0.25216 2.58433 142 114 7 
0.0932651 -0.131578 2.228 96 101 79 
0.548835 -0.140635 2.42341 194 152 8 
-0.0891131 -0.046355 2.07137 48 36 12 
0.375761 0.0692263 2.61702 19 14 8 
-0.482284 0.106148 2.69946 236 201 21 
-0.439877 0.124748 2.62254 99 90 81 
-0.500926 0.135614 2.60277 28 26 27 
-0.628258 0.161484 2.56842 246 196 13 
-0.436395 0.165236 2.61461 110 109 104 
-0.417441 0.168729 2.6365 7 7 5 
-0.553208 0.259049 2.56587 230 188 8 
-0.49436 0.329322 2.5552 230 187 10 
0.399479 0.438704 2.97465 189 150 13 
0.453102 0.448387 2.96825 123 87 3 
0.955043 0.548909 3.57276 205 195 186 
0.865575 0.557428 3.56474 150 140 130 
-0.292091 0.471361 3.00328 194 154 7 
0.828723 0.582654 3.53 152 142 132 
0.803788 0.616932 3.45335 147 137 125 
0.77215 0.620244 3.44301 205 195 186 
-0.0893993 0.610298 3.08595 205 157 11 
0.504023 0.67751 3.04437 121 83 2 
-0.321166 0.701404 3.10552 127 96 5 
-0.1125 0.704393 3.11873 227 176 7 
-0.259267 0.750488 3.05701 228 213 184 
-0.364819 0.766455 3.09666 65 54 48 
0.396088 0.787412 3.00615 109 75 3 
0.46065 0.790409 2.99833 231 217 190 
0.493934 0.796438 3.01376 227 213 187 
0.378 0.799975 2.99547 191 174 146 
0.434942 0.802537 2.96368 140 124 99 
0.48609 0.822231 2.99729 74 63 57 
0.531449 0.823659 2.98797 219 206 187 
0.555883 0.841467 3.01999 152 142 133 
0.516135 0.850404 3.02004 114 105 96 
0.543474 0.852193 3.01121 147 138 129 
0.497402 0.857518 3.01811 179 168 172 
-0.673106 0.878356 3.01444 114 104 94 
0.00922197 0.871171 2.97655 177 164 156 
0.674258 -0.369199 2.4601 197 153 5 
0.0603664 -0.152975 2.22792 1 6 0 
0.58478 -0.15655 2.47075 42 14 2 
0.551649 -0.0174152 2.41917 9 9 9 
0.499475 0.242907 2.76462 21 22 17 
0.805862 0.62187 3.44378 148 138 126 
-0.529935 0.677173 3.34361 193 180 172 
-0.131237 0.626077 3.08336 216 165 12 
-0.241213 0.7466 3.07005 229 212 182 
0.518945 0.770666 3.02657 242 228 201 
0.455132 0.824481 2.97838 224 211 192 
-0.601431 0.187093 2.58086 103 57 8 
0.452921 0.880482 2.98628 212 200 200 
0.634877 -0.127691 2.41006 233 188 9 
0.202112 0.17232 2.47933 10 8 9 
0.378226 0.195078 2.66363 11 6 3 
-0.204979 0.807364 3.06583 81 65 39 
-0.338301 0.822742 3.05845 191 180 178 
-0.663834 0.862679 3.00017 99 89 79 
0.178159 0.915527 2.90392 207 199 188 
0.0723377 0.577272 2.86195 126 109 5 
-0.363456 0.783204 3.06027 94 84 74 
0.454348 0.800582 2.98596 198 184 158 
0.411063 0.847016 2.95993 90 80 71 
0.195217 0.927679 2.90854 210 200 191 
0.736977 0.773779 3.13405 153 141 129 
0.167018 0.577249 2.86294 132 116 3 
0.344622 0.904755 2.95379 135 122 113 
0.549426 -0.312006 2.46135 215 206 197 
0.581092 -0.305624 2.43816 87 36 33 
0.558331 -0.290375 2.45222 180 170 158 
0.579793 -0.289957 2.43348 59 17 5 
0.595472 -0.284964 2.4224 69 22 4 
0.608068 -0.28202 2.41301 75 89 10 
0.602893 -0.266273 2.41392 153 169 81 
0.628444 -0.26398 2.3914 208 220 138 
0.648805 -0.260865 2.37769 184 219 89 
0.674802 -0.257355 2.3668 91 112 17 
0.66005 -0.25289 2.36842 75 97 0 
0.668069 -0.247833 2.36394 74 89 8 
0.626163 -0.243771 2.39304 74 74 20 
0.682271 -0.243264 2.35403 69 94 3 
0.694702 -0.243888 2.35281 54 85 0 
0.705854 -0.245271 2.35167 120 127 60 
0.646059 -0.2351 2.37411 29 37 0 
0.694115 -0.234149 2.34339 191 214 136 
0.710128 -0.232458 2.33426 238 232 216 
0.672119 -0.229091 2.35359 64 87 0 
0.681691 -0.222369 2.34488 61 89 0 
0.691464 -0.215307 2.33717 157 157 145 
0.30504 -0.154651 2.64587 119 114 92 
-0.562151 0.232234 2.60864 176 114 0 
0.641025 -0.433012 2.47754 239 230 201 
0.636279 -0.41459 2.49778 255 235 116 
0.667208 -0.383201 2.4418 132 97 15 
0.729392 -0.347998 2.38234 139 105 16 
0.571704 -0.300728 2.44029 237 227 217 
0.600017 -0.298279 2.42513 89 51 38 
0.755007 -0.3042 2.38357 93 50 0 
0.588671 -0.290829 2.42761 74 15 9 
0.345185 -0.251616 2.34147 32 14 0 
0.61589 -0.266626 2.40298 60 66 18 
0.654932 -0.244822 2.37295 69 42 12 
0.497824 -0.220081 2.3659 142 103 12 
0.659109 -0.232418 2.36459 161 182 65 
0.703877 -0.218173 2.33117 233 231 219 
0.718517 -0.202912 2.3128 33 29 17 
0.338366 -0.193753 2.69601 209 213 198 
0.0664736 -0.101366 2.2727 110 124 107 
0.211331 -0.0939928 2.28991 187 166 123 
0.201541 -0.0914114 2.29253 73 54 24 
0.0491577 -0.0439168 2.05645 210 185 129 
0.0342832 -0.03865 2.02895 32 17 0 
0.0643977 -0.0416881 2.09823 217 193 133 
0.0269016 -0.0308365 2.05692 159 143 109 
0.617219 -0.0917333 2.40175 95 51 0 
0.108787 -0.025031 2.11115 100 76 30 
0.606529 -0.0836637 2.40503 161 133 26 
0.627025 -0.076523 2.39829 169 143 22 
0.140645 0.0031317 2.13574 83 59 25 
0.648122 -0.0438374 2.39427 4 3 1 
0.213812 0.0180221 2.25802 62 39 8 
-0.508559 0.097123 2.68939 220 182 37 
0.575246 -0.00332641 2.41141 13 5 2 
-0.533566 0.134844 2.60993 235 202 61 
-0.496924 0.140688 2.60401 21 19 7 
-0.46494 0.142802 2.60325 65 64 60 
-0.433714 0.15303 2.62295 61 58 49 
0.36248 0.0802389 2.62856 103 103 93 
0.337179 0.0872894 2.63197 105 102 95 
-0.598463 0.202684 2.58797 234 191 26 
0.35814 0.107031 2.62723 84 79 73 
-0.58151 0.213794 2.5727 71 47 3 
-0.614943 0.22633 2.40591 186 155 90 
-0.581777 0.227256 2.61711 71 43 4 
-0.573013 0.235107 2.58872 228 191 24 
-0.394487 0.234892 2.67744 153 126 35 
-0.436793 0.256056 2.60144 130 104 17 
-0.601451 0.281707 2.55417 58 19 0 
-0.50511 0.278805 2.58479 177 125 5 
-0.449464 0.272432 2.57668 104 65 10 
-0.431132 0.276434 2.604 168 142 23 
0.463287 0.170372 2.56307 12 2 0 
-0.422082 0.305161 2.64429 114 110 107 
-0.476742 0.309438 2.59023 234 181 15 
-0.651697 0.321628 2.3973 137 99 14 
-0.422522 0.311209 2.627 10 6 3 
-0.438109 0.316466 2.63001 9 4 0 
-0.510929 0.327764 2.56139 100 42 5 
-0.543273 0.337442 2.54587 235 193 33 
-0.529895 0.343713 2.56304 57 9 0 
-0.498747 0.346869 2.56072 142 76 0 
-0.544811 0.352855 2.55046 52 9 0 
0.44478 0.242226 2.66532 15 12 7 
-0.514603 0.359023 2.55968 142 76 2 
-0.610143 0.408435 2.37409 160 142 122 
-0.204563 0.459268 2.99373 148 99 0 
-0.181863 0.455985 2.997 139 85 0 
-0.139299 0.452245 2.99311 198 157 17 
-0.144101 0.474148 2.99892 105 59 7 
-0.178112 0.493832 2.99165 224 181 17 
-0.171401 0.513212 2.99773 114 73 0 
-0.148503 0.528181 3.01756 22 4 0 
-0.14636 0.539083 3.02816 150 120 22 
0.444573 0.466124 2.96008 231 188 23 
0.279805 0.507598 2.95635 30 5 0 
-0.181666 0.641547 3.06441 201 158 19 
-0.173435 0.665631 3.07574 125 74 0 
-0.214169 0.684603 3.07453 153 96 6 
-0.10215 0.696994 3.08368 227 184 20 
-0.315226 0.739788 3.0682 224 208 183 
-0.857304 0.842041 3.04031 201 190 186 
-0.201922 0.753466 3.05578 143 105 8 
-0.286399 0.77987 3.06296 72 59 50 
0.479531 0.81371 3.02982 95 79 63 
0.501541 0.82139 3.00514 213 199 188 
-0.596209 0.355189 2.48955 220 147 8 
0.639852 -0.449683 2.49901 234 226 205 
0.611251 -0.423591 2.4803 214 204 179 
0.642427 -0.422266 2.48549 170 133 42 
0.613915 -0.412044 2.48644 124 94 24 
0.567913 -0.367138 2.52019 165 159 147 
0.749089 -0.355748 2.4116 134 104 32 
0.621389 -0.282915 2.40622 91 92 52 
0.704554 -0.195478 2.32478 97 100 73 
0.710871 -0.186411 2.3183 27 22 18 
0.606556 -0.185867 2.47638 148 103 12 
0.129933 -0.113289 2.28437 115 118 101 
0.594598 -0.165223 2.50012 50 18 0 
0.589969 -0.152534 2.47803 63 32 11 
0.189421 -0.100384 2.28915 99 94 62 
0.108641 -0.0910266 2.26779 5 27 6 
0.131335 -0.089889 2.2496 16 43 26 
0.657465 -0.118586 2.42352 139 81 8 
0.665205 -0.109223 2.41584 227 179 11 
0.682205 -0.107928 2.40006 217 170 2 
0.167252 -0.0416072 2.24927 9 24 0 
0.49306 -0.0742543 2.44547 50 49 45 
0.619515 -0.0817247 2.40442 181 152 24 
0.0403952 -0.007536 2.08167 152 133 93 
0.150703 -0.0149962 2.16251 177 164 109 
0.0334397 0.00666172 2.0842 76 57 27 
0.149041 -0.00478577 2.1342 189 169 116 
0.656717 -0.0509538 2.39977 12 10 11 
0.539571 -0.0104332 2.42585 201 169 22 
0.65804 -0.015305 2.39257 120 118 119 
0.561934 -0.00525702 2.43031 192 161 19 
-0.597095 0.172375 2.60755 106 50 3 
0.344567 0.0801175 2.63013 41 38 33 
-0.45947 0.171495 2.60068 3 2 0 
-0.599617 0.192793 2.60854 90 45 4 
-0.454503 0.193267 2.59596 15 6 1 
0.355319 0.115994 2.62166 12 8 9 
-0.402565 0.203768 2.6661 12 2 0 
-0.582634 0.236679 2.57527 164 120 13 
-0.575802 0.232442 2.43613 105 59 0 
0.400568 0.127491 2.5998 182 148 24 
-0.389247 0.224103 2.69471 181 144 3 
0.380538 0.140071 2.63374 17 9 6 
-0.72588 0.261891 2.37332 142 127 108 
-0.529929 0.24709 2.58595 176 128 4 
-0.709117 0.266904 2.3893 220 199 168 
0.222809 0.190266 2.5498 23 19 18 
0.397183 0.174634 2.63352 132 101 11 
-0.482795 0.290314 2.5847 227 183 12 
0.46506 0.179231 2.58076 205 171 63 
-0.481944 0.301145 2.59216 114 62 5 
-0.413529 0.298532 2.67573 95 92 83 
-0.493564 0.309788 2.56492 99 44 0 
0.188921 0.230911 2.53534 15 13 14 
-0.551681 0.326894 2.54782 226 184 14 
-0.500822 0.326421 2.56367 227 185 13 
-0.465734 0.327728 2.59211 221 174 6 
-0.556566 0.336814 2.54438 127 85 1 
-0.662509 0.343646 2.38051 164 146 124 
-0.658833 0.368273 2.40795 115 70 2 
-0.606522 0.376276 2.38182 241 222 179 
-0.598795 0.384828 2.38873 119 91 17 
-0.268438 0.430302 3.01206 207 168 15 
-0.180252 0.426826 3.00682 220 178 14 
-0.134745 0.440214 2.9923 201 159 23 
-0.172007 0.467289 2.99976 159 108 1 
-0.169936 0.479222 2.99463 220 174 19 
-0.147159 0.487088 3.00412 188 146 10 
-0.148363 0.508162 3.00672 162 126 14 
0.464723 0.474365 2.95764 133 92 4 
0.535687 0.482339 3.00831 47 11 0 
-0.521773 0.676228 3.3158 193 180 172 
-0.549913 0.69099 3.29419 97 84 75 
-0.0875039 0.609221 3.11036 196 152 19 
-0.135163 0.619544 3.09542 200 155 12 
-0.567395 0.714672 3.24156 191 181 172 
-0.226243 0.649513 3.08467 111 68 0 
-0.203341 0.653615 3.08378 123 78 0 
-0.175158 0.675985 3.06877 220 176 7 
-0.31813 0.703634 3.10274 127 91 3 
-0.31026 0.714255 3.10641 233 207 158 
-0.274262 0.735386 3.09336 161 114 8 
-0.323697 0.747321 3.06511 124 108 83 
-0.338064 0.773923 3.06377 215 199 186 
-0.308126 0.770009 3.05938 215 200 181 
-0.286736 0.788349 3.04376 92 79 73 
-0.232767 0.785659 3.01305 208 193 172 
-0.353833 0.821024 3.07066 186 173 164 
-0.673851 0.858191 3.00157 101 91 82 
-0.178031 0.807405 3.07725 134 104 32 
-0.193709 0.819256 3.08612 206 190 174 
-0.261285 0.826583 3.06205 109 98 94 
-0.450915 0.863518 3.01802 188 176 164 
-0.637497 0.888362 2.95611 187 176 170 
-0.493493 0.892653 2.95936 182 168 159 
0.505535 0.764689 3.03341 246 224 177 
-0.452338 0.899161 2.93142 109 96 87 
0.485452 0.798256 3.02601 225 209 183 
0.492638 0.807307 3.01888 221 205 179 
0.450394 0.808111 2.97545 222 208 182 
0.470486 0.826603 3.00164 215 204 184 
0.542334 0.860371 3.02259 145 134 130 
0.452228 0.876593 3.00145 196 186 184 
0.759549 -0.350313 2.36574 150 114 36 
0.721457 -0.191355 2.32096 214 210 198 
0.60226 -0.148435 2.47055 236 185 18 
-0.145332 -0.0545965 2.19302 217 192 138 
0.531603 -0.119991 2.44266 181 147 11 
0.522299 -0.106816 2.44612 11 9 14 
0.621035 -0.107666 2.40074 136 86 0 
0.514362 -0.0848599 2.43391 93 92 90 
0.0615344 -0.021918 2.09648 255 255 227 
0.643154 -0.0345995 2.39585 109 108 104 
-0.527866 0.138744 2.60256 237 200 24 
-0.620864 0.198658 2.54993 227 184 17 
0.124601 0.119531 2.38788 53 0 8 
-0.555469 0.259579 2.57216 227 183 16 
-0.490304 0.290606 2.59047 229 186 9 
-0.449241 0.285926 2.57445 204 163 13 
-0.663625 0.312132 2.38559 244 226 190 
-0.646891 0.312652 2.40955 213 170 13 
-0.414708 0.305222 2.63602 103 99 96 
0.267505 0.238568 2.78287 49 18 0 
-0.515967 0.34219 2.56549 235 192 18 
-0.612627 0.357006 2.43852 102 43 0 
0.759795 0.456543 3.72919 187 177 167 
0.399211 0.44002 2.98186 190 153 10 
-0.12391 0.607368 3.0979 99 60 3 
0.284347 0.557438 2.96218 39 14 0 
-0.196646 0.669262 3.08497 224 176 8 
-0.170854 0.69233 3.07003 131 91 3 
-0.658165 0.797215 3.14681 117 105 93 
-0.8461 0.826778 3.06465 201 190 188 
-0.187074 0.735116 3.05516 222 178 7 
0.533618 0.691598 3.06524 246 199 7 
-0.202444 0.805294 3.07543 76 61 28 
-0.436089 0.901782 2.94072 188 175 169 
0.549556 0.78889 3.02559 230 214 198 
0.400557 0.831732 3.00177 49 36 19 
0.576074 -0.00502294 2.42362 5 5 5 
0.667318 -0.370928 2.44895 208 165 8 
0.56898 -0.339063 2.47011 239 235 223 
0.695696 -0.342568 2.45682 93 35 0 
0.555761 -0.324525 2.45891 241 233 220 
0.0402151 -0.163373 2.21257 36 127 70 
0.715223 -0.205034 2.32391 35 32 25 
0.621734 -0.195506 2.46592 56 32 8 
0.523676 -0.104349 2.43582 12 10 13 
-0.0181532 -0.0319897 2.0638 66 49 6 
0.0372876 -0.0340015 2.06263 29 17 1 
0.0494089 -0.0260166 2.08524 93 76 46 
-0.599011 0.191034 2.56073 100 57 15 
-0.621541 0.206711 2.42563 249 211 12 
0.183059 0.128443 2.49157 94 78 42 
-0.428893 0.239258 2.61085 2 4 1 
-0.681493 0.306729 2.44366 240 199 9 
-0.576929 0.351593 2.50553 107 52 0 
0.24245 0.266377 2.6903 81 59 12 
0.758366 0.422667 3.80164 184 174 165 
0.438318 0.46622 2.94284 232 185 9 
-0.574455 0.711251 3.24732 193 182 176 
0.912489 0.550974 3.55682 205 194 188 
-0.290113 0.65822 3.11488 234 188 6 
-0.584899 0.732351 3.21657 116 104 92 
0.825722 0.577562 3.49338 147 137 128 
0.739065 0.601965 3.4627 204 194 185 
0.7719 0.620001 3.43828 206 196 187 
0.803299 0.615962 3.44873 147 137 127 
-0.224113 0.714934 3.06933 153 99 13 
-0.649814 0.792891 3.13042 115 103 91 
-0.314216 0.771405 3.06771 212 197 176 
-0.294712 0.786344 3.05335 82 73 68 
-0.696532 0.843587 3.02401 196 185 179 
-0.268031 0.791917 3.05776 207 195 169 
0.493858 0.703409 3.03972 242 198 13 
-0.403478 0.838413 3.01695 108 96 84 
0.513105 0.774474 3.06552 244 231 197 
-0.593055 0.916464 2.90433 204 193 187 
-0.503035 0.912395 2.91873 111 101 91 
0.460431 0.795405 3.02139 233 217 191 
0.977989 0.76677 3.18112 135 125 113 
0.556291 0.84865 3.0521 151 138 130 
0.471972 0.862245 3.03668 99 86 80 
0.158178 0.930929 2.94869 203 193 183 
0.677624 1.19086 2.44972 165 156 149 
0.691035 -0.411579 2.43075 237 225 201 
0.611279 -0.143076 2.4682 236 189 11 
0.0665106 -0.025112 2.11458 215 191 131 
0.575974 -0.074836 2.41995 4 4 6 
0.511256 -0.0442343 2.44859 9 7 8 
0.326022 0.0889912 2.63169 89 86 79 
0.353075 0.0898024 2.6292 99 97 85 
-0.44543 0.187349 2.60526 7 9 8 
-0.633495 0.339726 2.43212 129 75 3 
0.770278 0.45648 3.7158 189 180 171 
-0.306615 0.631131 3.10831 115 77 4 
-0.580131 0.708136 3.25624 193 182 176 
0.872204 0.560127 3.55538 148 138 129 
-0.24165 0.677325 3.08292 232 186 12 
-0.339653 0.708467 3.12088 111 78 1 
-0.188257 0.677879 3.07659 219 174 10 
0.769272 0.613483 3.44691 206 195 189 
-0.302376 0.727478 3.07659 227 211 178 
-0.193087 0.72413 3.06211 214 169 6 
-0.289775 0.821334 3.05126 193 182 178 
-0.694811 0.872189 2.97963 202 191 187 
-0.251583 0.826189 3.07803 100 90 81 
0.563868 0.723441 3.12792 244 204 10 
-0.507113 0.911889 2.90968 112 99 90 
0.644926 -0.0555816 2.39779 15 14 12 
-0.561107 0.298341 2.55624 122 85 4 
-0.57049 0.347619 2.49849 124 80 7 
0.588072 -0.287569 2.43866 135 75 65 
0.359164 0.136221 2.63292 19 15 6 
0.151037 0.182762 2.46517 129 109 76 
-0.696907 0.318182 2.43298 241 226 207 
-0.573153 0.336319 2.52648 123 88 4 
-0.486955 0.337888 2.59564 228 182 11 
0.47319 0.520462 2.94471 197 155 7 
0.762164 0.604959 3.45362 205 195 186 
-0.151649 0.676745 3.07885 128 91 3 
-0.174009 0.767058 3.06277 136 107 7 
-0.421988 0.847088 3.0651 109 97 85 
-0.296327 0.828114 3.05435 193 182 176 
-0.237759 0.823809 3.0772 89 80 71 
0.496838 0.715596 3.04254 239 197 14 
-0.434808 0.866276 3.0045 188 178 169 
0.616349 0.785327 3.15513 218 206 194 
0.36675 0.803902 3.00493 172 157 126 
0.733357 0.786618 3.15561 151 139 127 
0.409285 0.841005 2.97332 72 60 48 
0.542533 0.857595 3.03944 150 137 131 
0.362648 0.922184 2.93633 129 119 107 
-0.43722 0.333105 2.64922 76 74 62 
0.477485 0.534729 2.95143 193 152 10 
-0.272411 0.674774 3.10146 229 188 10 
-0.248014 0.761405 3.07297 226 209 179 
0.605181 -0.0171916 2.4069 6 7 9 
0.738102 0.776549 3.15038 152 140 128 
-0.603846 0.306282 2.53647 118 76 2 
-0.301444 0.724319 3.09968 227 207 170 
-0.254009 0.738216 3.01838 230 210 177 
-0.302034 0.850903 3.03983 193 182 176 
-0.552062 0.326602 2.54825 224 183 17 
-0.453986 0.869178 3.00199 188 176 164 
-0.463434 0.877302 2.98618 149 139 130 
-0.639746 0.889627 2.96188 180 170 161 
0.0652422 0.11971 2.12266 48 0 6 
-0.231124 0.824481 3.06727 92 83 76 
-0.698518 0.847202 3.03164 192 181 179 
0.471905 0.855124 2.99867 105 98 92 
0.455134 0.825031 2.97913 224 211 192 
0.0393594 0.932055 2.90258 196 183 175 
0.34099 0.894775 2.92241 135 122 113 
0.608183 -0.282658 2.41808 75 89 10 
0.694371 -0.234823 2.34848 191 214 136 
0.677784 -0.225488 2.3552 63 85 0 
0.112413 -0.102884 2.2692 43 5 2 
0.32236 -0.0703173 2.71135 173 150 44 
0.610922 -0.0779732 2.41105 19 10 0 
-0.582334 0.227229 2.61844 71 43 4 
-0.601472 0.281714 2.5542 58 19 0 
-0.431419 0.276379 2.60472 168 142 23 
-0.167588 0.674483 3.08413 208 168 34 
-0.324588 0.749222 3.07216 124 108 83 
-0.285579 0.779562 3.06006 72 59 50 
0.464314 0.783206 3.0156 231 204 175 
0.476818 0.79065 3.03496 139 107 48 
-0.598391 0.193091 2.61077 97 49 0 
-0.028115 -0.175737 2.23582 47 129 81 
0.125172 -0.146024 2.26061 21 50 32 
0.0988076 -0.11795 2.25116 49 15 13 
0.0959115 -0.0972662 2.2588 154 169 146 
0.517246 -0.097543 2.43468 17 18 20 
-0.556964 0.337213 2.54569 127 85 1 
-0.545789 0.352032 2.55433 56 16 4 
-0.214398 0.686754 3.07468 143 88 0 
-0.151966 0.70813 3.1084 220 174 16 
-0.316057 0.740806 3.0756 225 209 184 
-0.853098 0.829785 3.07053 199 188 182 
-0.452165 0.864302 3.02202 188 176 164 
-0.452913 0.868547 3.00016 188 178 169 
-0.494888 0.893952 2.96404 182 168 159 
-0.593371 0.916415 2.9185 194 183 177 
0.144481 0.933784 2.90077 143 133 124 
0.0450293 -0.00790176 2.07754 157 136 89 
0.0349038 0.00760329 2.07593 67 50 20 
-0.653231 0.323535 2.39538 136 100 26 
-0.66409 0.340019 2.38059 160 145 126 
-0.600908 0.38734 2.39088 117 91 32 
-0.306653 0.717279 3.10295 232 208 172 
-0.657391 0.795718 3.14372 117 105 93 
-0.309727 0.76912 3.0616 214 199 180 
-0.677668 0.862636 3.01616 102 92 83 
-0.438162 0.903684 2.9478 188 175 169 
0.0160609 -0.044263 2.04151 219 193 136 
-0.588093 0.734081 3.22641 116 104 92 
-0.206015 0.805215 3.08191 72 57 26 
-0.406911 0.840737 3.02859 108 96 84 
-0.22914 0.822629 3.06366 92 84 73 
-0.19392 0.724769 3.06584 214 169 6 
-0.527842 0.304597 2.54825 225 183 9 
0.17769 0.919305 2.91215 204 191 183 
0.454286 0.802608 2.99663 190 176 147 
-0.681583 0.176179 2.49565 203 87 14 
0.546738 -0.316937 2.47137 75 64 60 
0.592733 -0.305603 2.44162 254 241 233 
0.564227 -0.297945 2.45509 99 89 80 
0.609225 -0.291498 2.42972 108 106 83 
0.638078 -0.264335 2.39424 176 214 77 
0.623354 -0.261311 2.40575 44 53 0 
0.675825 -0.261819 2.37923 197 228 88 
0.656082 -0.258071 2.3832 174 215 77 
0.681695 -0.256191 2.3735 42 70 0 
0.692828 -0.257614 2.37482 237 239 202 
0.538721 -0.229931 2.40873 224 186 43 
0.660401 -0.249255 2.37632 187 197 111 
0.700028 -0.245642 2.35911 210 227 121 
0.665465 -0.233234 2.36899 52 77 0 
0.708619 -0.233153 2.34558 239 236 219 
0.705568 -0.221867 2.34058 65 70 40 
0.719385 -0.219006 2.33176 232 226 212 
0.690599 -0.203351 2.34527 163 158 139 
-0.529053 0.349553 2.56708 115 55 0 
0.640221 -0.433235 2.48405 246 231 202 
0.610849 -0.412911 2.50373 108 76 15 
0.225399 -0.221213 2.36556 188 157 111 
0.60043 -0.28183 2.42483 172 187 104 
0.764882 -0.307449 2.39262 81 35 0 
0.753694 -0.305094 2.39566 90 42 6 
0.606287 -0.271493 2.4183 9 18 0 
-0.18892 -0.117615 2.32063 99 75 31 
0.646391 -0.256632 2.39084 61 71 11 
0.0984332 -0.142772 2.2437 15 34 15 
0.113961 -0.129534 2.24986 36 0 0 
0.133931 -0.112112 2.27495 111 115 98 
0.693081 -0.220867 2.3458 32 36 19 
0.724449 -0.209918 2.32579 237 233 221 
0.211781 -0.094445 2.28812 195 174 127 
0.179932 -0.0770237 2.26976 171 161 112 
0.202929 -0.08107 2.26641 82 63 31 
0.0537804 -0.0358779 2.05026 129 111 75 
0.116424 -0.0441052 2.14554 170 168 117 
0.112268 -0.0252883 2.10195 64 39 8 
0.1695 -0.0412831 2.24395 23 41 3 
0.315357 -0.0697766 2.72719 178 149 23 
0.620779 -0.111755 2.40513 141 93 8 
0.657173 -0.118147 2.43149 134 74 11 
0.615336 -0.091804 2.41307 95 52 1 
0.615507 -0.081287 2.42056 165 140 22 
-0.638185 0.17235 2.57258 177 105 0 
-0.631997 0.184292 2.57574 168 104 4 
0.215288 0.0167411 2.25257 50 29 8 
-0.613291 0.193789 2.55758 109 52 7 
-0.603038 0.203613 2.59579 238 202 46 
0.656784 -0.0508717 2.40439 7 5 6 
0.647205 -0.0442254 2.39934 4 2 3 
0.684753 -0.0516965 2.41933 121 118 111 
-0.712543 0.24477 2.4011 183 140 45 
-0.611706 0.226584 2.40124 164 132 45 
-0.583297 0.227146 2.61951 53 28 0 
-0.577674 0.232081 2.43955 88 36 0 
-0.575703 0.235647 2.59336 236 199 48 
-0.585612 0.238249 2.58318 174 131 18 
-0.577957 0.244911 2.58564 36 8 0 
-0.560436 0.257354 2.5746 238 200 77 
-0.601494 0.281465 2.55412 68 23 0 
0.633474 0.0105862 2.40994 8 10 0 
-0.436131 0.255512 2.59998 136 108 24 
-0.45113 0.272836 2.57978 106 66 5 
0.687985 0.0221922 2.45193 16 6 0 
-0.431928 0.276319 2.60532 173 148 29 
-0.483667 0.291876 2.58984 241 194 42 
-0.555379 0.327756 2.55241 246 207 50 
-0.509805 0.328048 2.55978 101 41 5 
-0.443232 0.317455 2.6395 8 2 4 
-0.583862 0.350349 2.47728 234 159 14 
-0.636201 0.361576 2.42046 243 197 24 
-0.500161 0.347364 2.56332 152 88 1 
-0.543588 0.360664 2.56297 226 177 22 
-0.515887 0.359412 2.56198 153 84 15 
-0.605647 0.375936 2.38288 245 224 177 
-0.548683 0.416211 2.48443 230 159 15 
-0.20837 0.460857 3.00342 150 98 0 
-0.150079 0.541095 3.03827 142 112 16 
-0.153931 0.561477 3.05073 61 28 0 
-0.295624 0.653944 3.13098 226 183 18 
-0.151095 0.632639 3.08855 201 159 15 
-0.313482 0.714728 3.11249 230 206 158 
-0.226919 0.721414 3.08691 141 85 0 
0.528985 0.510247 3.02017 72 40 0 
0.512057 0.746758 3.05802 139 89 0 
0.446821 0.810456 2.99016 229 213 190 
0.634565 -0.415353 2.51025 255 255 159 
0.0570642 -0.244205 2.23915 156 39 55 
0.754044 -0.351499 2.36664 145 127 77 
0.760195 -0.350303 2.37725 134 95 18 
0.134824 -0.150281 2.26866 112 117 97 
0.127278 -0.146584 2.25693 11 49 28 
0.100742 -0.119071 2.24754 49 16 11 
0.119872 -0.105451 2.25813 57 17 17 
0.110169 -0.0911873 2.26367 16 34 18 
0.715714 -0.202533 2.32479 33 29 18 
0.764562 -0.210242 2.37237 37 33 30 
0.234093 -0.111033 2.40997 4 43 16 
0.60526 -0.185799 2.485 137 92 11 
0.0739749 -0.0584037 2.15606 189 172 118 
0.191649 -0.0772607 2.26906 186 168 120 
0.058668 -0.0375013 2.08159 89 66 32 
0.2154 -0.0715226 2.26465 213 189 125 
0.526984 -0.119593 2.4522 170 141 15 
0.21098 -0.0371745 2.23963 215 193 136 
0.154911 -0.0165571 2.15032 192 176 117 
0.15074 -0.0051231 2.12968 194 173 120 
0.625228 -0.0772987 2.40806 160 134 13 
-0.597776 0.172831 2.60897 111 51 1 
-0.622888 0.180116 2.57929 241 199 19 
0.674196 -0.0543953 2.40334 123 120 111 
-0.588407 0.215087 2.61701 65 40 0 
-0.708591 0.267197 2.3887 229 207 184 
0.57126 0.0034387 2.41365 191 155 17 
-0.54199 0.248797 2.58022 243 202 34 
-0.532996 0.248078 2.5916 191 142 3 
0.359158 0.0626047 2.63839 15 14 12 
0.127949 0.118697 2.38529 51 2 5 
0.307958 0.0862985 2.64608 52 52 44 
-0.433027 0.262532 2.60811 26 17 8 
0.0807508 0.145341 2.35815 38 0 0 
-0.505286 0.279098 2.58528 185 136 0 
0.321944 0.112513 2.65258 77 78 70 
-0.651776 0.321376 2.39576 144 104 19 
-0.480855 0.301331 2.59048 122 68 6 
-0.661494 0.343581 2.37907 176 156 131 
-0.479272 0.312442 2.59572 237 188 10 
-0.557762 0.337667 2.54674 135 94 6 
-0.547903 0.337143 2.55379 241 205 47 
-0.503371 0.327459 2.56843 234 191 16 
-0.609974 0.356705 2.4913 93 37 0 
-0.46612 0.327645 2.59271 230 185 8 
-0.594352 0.35453 2.49127 238 160 8 
-0.579408 0.356118 2.51797 119 60 2 
-0.624975 0.368595 2.49909 208 143 13 
-0.54826 0.352852 2.55742 58 23 3 
-0.492351 0.345088 2.57083 234 192 20 
-0.176364 0.514664 3.00934 113 73 0 
-0.558184 0.694627 3.31198 99 89 79 
-0.575112 0.700869 3.30399 181 170 166 
-0.139476 0.622328 3.10761 200 153 13 
0.425927 0.470745 2.97063 224 183 7 
-0.208267 0.655533 3.09587 120 76 5 
-0.856331 0.831553 3.07481 208 197 193 
-0.869312 0.848541 3.06094 202 191 185 
0.514454 0.494758 3.0048 170 137 30 
-0.180114 0.695292 3.0863 133 88 5 
-0.182851 0.722032 3.07454 139 92 4 
-0.687239 0.866226 3.02676 108 98 89 
-0.208282 0.757351 3.06966 144 104 6 
-0.358668 0.82487 3.08232 187 176 172 
-0.643844 0.891717 2.96773 186 175 171 
-0.21534 0.799505 3.07216 137 129 110 
-0.45455 0.865846 3.02579 190 177 169 
-0.1988 0.823506 3.09994 199 183 168 
0.531004 0.697091 3.10074 238 192 10 
0.489353 0.707954 3.08072 233 187 13 
0.552837 0.717562 3.11951 241 197 14 
0.521801 0.751599 3.05376 242 201 15 
0.510785 0.758179 3.05316 185 139 17 
0.453521 0.798135 3.00109 231 217 190 
0.396246 0.834295 3.02259 52 36 20 
0.549107 0.821837 3.02769 222 208 195 
0.458226 0.850432 3.00768 89 79 70 
0.5107 0.849125 3.0331 100 91 84 
0.477715 0.866052 3.04573 96 87 78 
0.449357 0.881582 3.01711 198 188 186 
-0.0297818 -0.188041 2.24064 3 12 9 
0.652142 -0.240663 2.37934 85 62 31 
0.216699 -0.0833224 2.28139 83 59 23 
0.601574 -0.147755 2.47619 227 176 9 
0.124573 -0.0375205 2.14556 14 73 29 
0.152855 -0.0137372 2.15968 182 166 107 
0.143949 0.00486296 2.12702 87 63 35 
0.641628 -0.0352043 2.40417 102 98 95 
0.709603 -0.042312 2.43354 11 9 10 
-0.535691 0.238419 2.5998 247 207 34 
-0.662919 0.312417 2.38474 243 226 206 
-0.646126 0.312481 2.40838 221 172 9 
0.353223 0.11801 2.64398 8 8 6 
-0.443402 0.297126 2.58794 136 103 10 
-0.533717 0.35751 2.56061 231 173 11 
-0.528578 0.373018 2.5629 229 182 8 
-0.602418 0.388004 2.39264 122 92 40 
-0.576516 0.400916 2.48033 142 86 9 
-0.615982 0.405865 2.37999 168 150 136 
-0.15304 0.52757 3.02494 22 0 0 
0.488883 0.47518 2.98757 170 132 9 
-0.173352 0.693895 3.07681 126 84 2 
-0.328005 0.747155 3.07076 123 111 89 
-0.339976 0.774066 3.07789 212 197 176 
-0.19286 0.739049 3.07052 221 176 12 
-0.510415 0.915671 2.94005 111 98 89 
0.543665 0.70637 3.11545 143 97 1 
0.458826 0.798498 3.04569 227 211 185 
0.502685 0.773384 3.05578 241 226 193 
0.534279 -0.250341 2.42573 40 37 4 
0.131725 -0.133946 2.25963 121 123 102 
0.135977 -0.119415 2.26814 115 116 100 
0.106752 -0.10623 2.19068 82 97 76 
0.082784 -0.0552215 2.14744 203 173 119 
0.547011 -0.142437 2.44025 196 154 8 
0.0530748 -0.0262043 2.07685 91 75 39 
-0.606047 0.183423 2.61417 86 40 4 
-0.659803 0.216077 2.46442 250 214 16 
0.652281 -0.0577901 2.41047 16 15 13 
-0.740444 0.29314 2.41276 135 102 7 
-0.657491 0.290515 2.43486 123 50 5 
-0.668125 0.304118 2.42337 236 186 11 
-0.688668 0.312873 2.39243 239 226 210 
0.183148 0.127974 2.4909 99 80 48 
-0.640365 0.348287 2.43604 129 75 1 
-0.499691 0.334614 2.57481 229 189 13 
-0.623979 0.369173 2.42656 237 197 11 
-0.699381 0.651223 3.3728 198 185 177 
-0.584613 0.716926 3.26932 198 187 181 
-0.593882 0.736805 3.23531 119 106 97 
-0.30617 0.720587 3.09677 230 212 176 
-0.177266 0.704871 3.08691 131 85 8 
-0.41366 0.844968 3.03945 104 91 82 
-0.60565 0.923387 2.92761 202 191 185 
-0.184878 0.878946 2.977 134 121 112 
0.514943 0.772359 3.05545 245 230 201 
0.473702 0.78455 3.0431 143 105 6 
0.647612 0.780409 3.18666 144 131 115 
0.460255 0.8355 3.02505 221 209 185 
0.554558 0.828389 3.09467 94 74 41 
0.54237 0.826032 3.03868 218 205 186 
0.523096 0.871117 3.02656 211 202 195 
0.564789 0.982075 2.80633 152 141 135 
0.649586 1.02229 2.7664 158 147 143 
0.731733 -0.335155 2.40952 198 157 7 
0.0648285 -0.155439 2.21609 79 16 11 
0.112133 -0.153353 2.2483 8 39 24 
0.189286 -0.0423148 2.25873 194 173 120 
0.0333416 0.0187857 2.06605 87 70 42 
-0.634396 0.237198 2.39616 221 209 185 
0.563618 0.0051812 2.42966 196 151 8 
-0.64341 0.3053 2.47792 227 152 11 
0.0628509 0.157657 2.33799 104 91 75 
-0.632299 0.340074 2.43057 134 80 8 
-0.589789 0.368202 2.49095 232 156 10 
-0.629337 0.377996 2.3872 241 223 209 
-0.589631 0.712449 3.27621 197 187 178 
-0.29342 0.668849 3.122 233 191 9 
0.435386 0.471149 2.96301 227 179 9 
-0.341939 0.709459 3.12612 109 75 1 
-0.248941 0.68019 3.10034 229 186 9 
-0.19583 0.726091 3.0694 219 169 12 
-0.242425 0.748743 3.05449 228 214 185 
-0.705772 0.876343 2.99846 204 193 191 
-0.35891 0.795919 3.06849 102 92 82 
-0.304394 0.791097 3.07229 92 83 76 
-0.519871 0.919464 2.93473 113 101 89 
0.501618 0.683665 3.0759 109 72 2 
0.49455 0.710386 3.04145 239 195 12 
0.562283 0.745859 3.0734 240 200 16 
0.401421 0.841996 3.00666 60 47 30 
0.459905 0.819889 2.96541 222 207 184 
0.558437 0.986811 2.81758 150 139 135 
0.710246 -0.237867 2.37021 243 236 218 
0.541786 -0.121299 2.44571 184 147 7 
0.768425 0.618933 3.46617 200 190 181 
-0.468992 0.894663 2.97121 100 87 79 
0.111596 -0.468966 2.46969 129 29 37 
0.644436 -0.303543 2.49152 222 207 176 
0.624618 -0.166063 2.48321 224 175 10 
0.589592 -0.101863 2.41113 187 148 8 
-0.669532 0.17714 2.50274 161 48 8 
-0.721519 0.289549 2.39446 142 102 14 
-0.676288 0.312887 2.40163 243 227 201 
-0.518717 0.301274 2.53658 235 197 28 
-0.634719 0.336031 2.43974 132 80 4 
-0.582548 0.339445 2.54265 131 94 3 
-0.624536 0.376735 2.39677 244 225 193 
0.435404 0.239786 2.68599 14 14 12 
-0.121497 0.705673 3.09946 218 168 9 
-0.300637 0.830604 3.06444 194 183 181 
0.760689 0.611558 3.47973 200 189 183 
0.580199 0.77765 3.04392 175 145 55 
0.506842 0.879824 3.03269 200 190 191 
0.0131685 -0.156506 2.21232 35 128 73 
0.633625 -0.153588 2.4562 232 186 12 
0.327047 0.0375674 2.62975 4 4 4 
-0.435309 0.33216 2.64522 75 75 65 
0.228828 0.232406 2.75066 126 98 15 
-0.323049 0.615252 3.11545 119 80 1 
-0.483417 0.931338 2.94567 200 187 181 
0.520416 0.795709 3.04287 238 226 200 
-0.549153 0.919394 2.92426 115 102 93 
0.538423 -0.0616531 2.46485 17 16 14 
-0.360994 0.76412 3.0442 104 92 80 
-0.277945 0.752167 3.07671 200 183 153 
0.159915 0.772 2.96524 139 120 15 
0.427529 0.936946 2.91213 207 198 193 
0.549323 -0.311089 2.45244 232 223 216 
0.603539 -0.298927 2.4292 60 12 8 
-0.206645 -0.320043 2.38842 40 20 0 
0.59986 -0.286179 2.4298 52 9 0 
0.616843 -0.279871 2.41485 30 42 0 
0.680531 -0.274695 2.40563 98 94 33 
0.696639 -0.260321 2.38802 235 245 172 
0.630022 -0.261334 2.40708 47 54 3 
0.623807 -0.248362 2.39948 61 55 21 
0.64934 -0.24695 2.39314 39 35 0 
0.713632 -0.239321 2.3699 245 242 223 
0.720169 -0.236206 2.36093 248 242 230 
0.652869 -0.237477 2.39417 10 15 0 
0.612754 -0.24091 2.41543 33 23 0 
0.730974 -0.216979 2.33436 91 81 71 
0.654049 -0.224776 2.39278 21 14 0 
0.596643 -0.236073 2.45822 47 26 0 
0.137708 -0.150509 2.25921 104 132 110 
0.137891 -0.143392 2.27187 124 130 116 
-0.0661265 -0.114059 2.28 163 175 155 
0.654403 -0.0431354 2.40496 2 1 0 
-0.00911745 -0.0314081 2.0506 29 3 0 
-0.0538396 -0.0319349 2.06472 179 156 124 
-0.0471033 -0.0306754 2.05496 166 143 109 
-0.0126708 -0.028928 2.05925 152 130 93 
-0.463558 0.183657 2.57816 177 150 43 
-0.431132 0.318891 2.62624 10 9 4 
-0.189301 0.420442 3.01429 142 89 0 
0.649655 -0.438849 2.50582 228 214 188 
0.647775 -0.424535 2.49349 170 131 52 
0.61647 -0.425558 2.49799 229 211 191 
0.705053 -0.405868 2.44984 243 223 198 
0.643121 -0.417862 2.52151 255 255 170 
0.618809 -0.414689 2.50609 132 91 11 
0.705411 -0.393792 2.45176 153 120 49 
0.700203 -0.38748 2.46668 255 255 147 
0.741586 -0.354187 2.41365 131 94 16 
0.768573 -0.35475 2.43085 255 243 163 
0.647013 -0.373955 2.50488 85 27 3 
0.639436 -0.372627 2.5128 85 31 5 
0.70904 -0.345863 2.46518 97 37 9 
0.697882 -0.343207 2.46375 90 35 5 
0.777666 -0.311306 2.41579 85 39 3 
0.49009 -0.348445 2.54025 13 9 8 
0.770236 -0.310258 2.42527 90 41 9 
0.59167 -0.304202 2.43749 133 75 74 
0.57466 -0.30204 2.44565 238 225 216 
0.577265 -0.293365 2.43444 67 12 9 
0.538684 -0.299906 2.48331 178 166 152 
0.488457 -0.311579 2.54279 18 18 10 
0.60588 -0.28301 2.42237 184 194 133 
0.583189 -0.277704 2.43378 51 0 0 
0.611895 -0.272152 2.41837 29 38 0 
0.592789 -0.273195 2.43265 41 0 0 
0.675784 -0.257645 2.38559 219 242 138 
0.656653 -0.25762 2.39948 77 87 24 
0.617951 -0.256733 2.41261 78 71 45 
0.582458 -0.2616 2.44057 141 63 43 
0.709298 -0.238022 2.34808 239 226 217 
0.664157 -0.246004 2.39506 63 43 10 
0.673016 -0.243096 2.37824 179 197 98 
0.684167 -0.242374 2.37542 237 246 193 
0.65783 -0.239034 2.38298 40 34 0 
0.629927 -0.240021 2.40708 201 180 159 
0.65558 -0.230137 2.38587 146 165 73 
0.703683 -0.223166 2.36054 32 38 12 
0.712983 -0.221452 2.35475 232 231 213 
0.788351 -0.219548 2.36599 246 236 227 
0.725511 -0.218898 2.355 103 104 86 
0.795759 -0.213452 2.35537 68 63 59 
0.803703 -0.206686 2.35366 45 41 38 
0.587912 -0.23269 2.46217 197 154 26 
0.728791 -0.205282 2.34267 36 32 21 
0.808015 -0.195367 2.36085 20 15 9 
0.762562 -0.18775 2.33735 27 23 20 
0.809414 -0.183574 2.3757 10 7 2 
0.698057 -0.180057 2.36696 37 13 1 
0.760864 -0.17124 2.36311 11 7 6 
0.804303 -0.17038 2.37831 14 10 7 
0.710449 -0.173064 2.37529 136 104 89 
0.621389 -0.191842 2.47556 54 24 0 
0.728554 -0.164683 2.35698 131 121 111 
0.606224 -0.18504 2.46651 157 112 11 
0.796064 -0.155395 2.38383 22 15 9 
0.773269 -0.142331 2.35393 28 23 20 
0.75284 -0.141828 2.3495 30 25 21 
0.591139 -0.164648 2.49583 35 4 0 
0.688295 -0.147438 2.43337 225 181 32 
0.100765 -0.14224 2.24235 24 31 13 
0.705375 -0.137562 2.42103 226 184 38 
0.662232 -0.110601 2.40266 229 183 12 
-0.0857284 -0.132936 2.28978 67 27 27 
0.102289 -0.118481 2.24962 48 13 9 
0.528701 -0.118124 2.43156 178 151 34 
0.685937 -0.108208 2.40933 225 177 15 
0.628055 -0.106948 2.41456 107 56 0 
-0.0825316 -0.121602 2.28357 38 10 7 
0.524363 -0.110524 2.44126 14 17 10 
0.112567 -0.101595 2.25587 52 16 16 
-0.104468 -0.115329 2.30029 2 19 1 
0.619552 -0.0909659 2.40538 76 31 0 
0.609749 -0.085041 2.40864 171 142 25 
0.623492 -0.0814675 2.41149 175 148 35 
0.493885 -0.0738652 2.4324 41 40 36 
0.0213597 -0.0436778 2.05092 227 201 144 
-0.0889672 -0.0460754 2.09685 46 35 7 
0.0393591 -0.0337716 2.06668 42 25 15 
-0.0978362 -0.0304325 2.10325 100 78 39 
0.509139 -0.0331021 2.44503 15 3 0 
0.661355 -0.0156386 2.39415 122 118 115 
0.0436075 -0.00738133 2.07622 175 153 104 
0.541193 -0.00985731 2.41911 194 161 30 
0.564421 -0.00430331 2.42913 198 160 37 
0.575886 0.00466415 2.41014 187 155 34 
0.384649 -0.00474712 2.71088 13 3 2 
0.520136 0.0579052 2.44374 215 176 21 
-0.031266 0.0641603 2.15854 35 0 0 
-0.316387 0.0337615 2.68644 29 21 8 
-0.375555 0.0703724 2.6785 57 54 47 
-0.334585 0.0731056 2.67625 115 114 110 
0.383661 0.129577 2.61918 145 123 24 
0.331322 0.127142 2.6384 82 81 79 
-0.508887 0.135267 2.58779 27 19 6 
0.587416 0.19939 2.61471 106 65 3 
-0.460205 0.142498 2.59117 61 57 54 
-0.495007 0.141919 2.59001 17 14 9 
0.431785 0.209899 2.6439 19 4 0 
-0.412133 0.170821 2.64731 13 6 0 
-0.446359 0.170867 2.59036 11 11 11 
-0.472152 0.175516 2.57876 204 171 30 
0.501494 0.240276 2.67774 25 24 19 
0.484042 0.239943 2.67881 23 18 15 
-0.356133 0.195737 2.73182 212 167 12 
0.404804 0.24023 2.71463 150 119 29 
0.495119 0.247825 2.68969 154 144 134 
-0.398696 0.203147 2.65286 13 2 0 
-0.362372 0.211544 2.73126 195 159 13 
0.46404 0.262094 2.67441 64 60 57 
-0.433596 0.254174 2.59019 137 112 30 
-0.428854 0.26181 2.5958 27 18 9 
-0.446151 0.271387 2.56761 113 72 8 
-0.428144 0.276087 2.59428 175 153 34 
-0.5018 0.277669 2.57335 171 120 0 
-0.47999 0.290014 2.57701 228 191 12 
-0.418175 0.302989 2.6307 112 109 104 
-0.499645 0.325346 2.55373 231 188 14 
-0.539521 0.335762 2.53369 234 192 20 
-0.59037 0.35274 2.47366 234 164 16 
-0.208824 0.417932 3.00652 219 180 17 
-0.15255 0.421221 3.01317 227 190 13 
-0.223644 0.419205 3.00696 111 68 0 
-0.239673 0.42286 2.99935 212 166 10 
0.429217 0.463497 2.93039 236 191 27 
-0.266073 0.428365 2.99697 213 173 15 
-0.202497 0.45804 2.98432 156 105 0 
-0.141802 0.474944 2.9941 86 41 2 
0.281059 0.505205 2.94537 50 17 2 
-0.144563 0.485684 2.99072 208 166 18 
-0.146687 0.507296 2.9983 180 140 16 
-0.147061 0.527235 3.01319 22 3 0 
0.284013 0.559645 2.96511 22 1 0 
-0.143722 0.538089 3.01762 158 132 21 
-0.144029 0.625938 3.06015 217 169 11 
0.532688 0.683663 3.04839 243 201 19 
-0.179705 0.640767 3.0621 213 172 20 
-0.288001 0.648384 3.09864 240 196 25 
-0.166264 0.673662 3.07468 229 190 27 
-0.548131 0.689755 3.28606 101 87 78 
-0.150716 0.705021 3.09296 228 183 20 
-0.308046 0.71014 3.08839 234 205 145 
0.470418 0.774226 3.00761 167 128 23 
-0.31272 0.736781 3.0552 229 213 187 
-0.321055 0.743668 3.04786 143 127 102 
-0.285575 0.779109 3.05713 59 45 32 
-0.200106 0.805176 3.06927 91 69 32 
-0.192167 0.816033 3.07323 214 198 182 
0.576779 -0.248 2.4655 114 61 30 
0.502272 -0.0495059 2.439 3 3 1 
-0.516599 0.340141 2.55081 239 196 21 
0.726012 -0.420688 2.48416 173 162 142 
0.624565 -0.431148 2.52042 228 211 191 
0.768798 -0.356174 2.39682 126 98 35 
0.615987 -0.386248 2.53828 118 90 7 
0.746134 -0.356079 2.42246 121 86 18 
0.648278 -0.376859 2.53547 82 26 1 
0.541668 -0.31103 2.46487 219 209 200 
0.672426 -0.304642 2.47841 240 224 199 
0.585896 -0.288498 2.42651 91 45 45 
0.637505 -0.273767 2.4261 228 231 178 
0.686867 -0.255591 2.39569 40 53 0 
0.639272 -0.254616 2.41526 160 185 65 
0.661861 -0.230019 2.37097 158 183 63 
0.493625 -0.232019 2.35535 253 238 219 
-0.0340441 -0.238596 2.25268 31 0 0 
0.629945 -0.232457 2.43878 26 18 7 
0.606932 -0.2303 2.42678 103 100 21 
0.786606 -0.204978 2.37265 35 34 32 
0.764053 -0.198432 2.34345 229 226 221 
0.0531071 -0.209234 2.23627 62 151 97 
0.757411 -0.184292 2.32332 25 21 18 
0.617625 -0.190795 2.46061 53 22 0 
-0.0218269 -0.176172 2.24156 57 146 90 
0.045492 -0.166577 2.21425 46 134 83 
0.0551624 -0.159469 2.21148 18 9 0 
0.692359 -0.159419 2.43155 87 35 13 
0.605643 -0.149949 2.47823 234 189 10 
0.647119 -0.122238 2.42223 239 197 17 
0.664315 -0.120121 2.4389 126 75 12 
0.498648 -0.131541 2.48274 16 7 0 
0.624973 -0.107481 2.40362 111 60 0 
0.0376992 -0.0463387 2.05218 228 204 144 
0.651424 -0.0472028 2.38229 14 12 13 
0.646795 -0.0345618 2.39726 108 107 103 
0.0403568 -0.0174998 2.07027 92 73 43 
0.666844 -0.0159382 2.40407 121 117 114 
0.717561 -0.0168776 2.44926 84 81 76 
0.400123 0.12654 2.58032 181 147 21 
0.387684 0.127593 2.63169 151 125 12 
0.329606 0.12662 2.62338 80 79 77 
-0.35795 0.0933783 2.69069 16 18 7 
0.466998 0.148662 2.52795 194 157 16 
0.460265 0.176095 2.55377 208 179 77 
0.581426 0.181763 2.60884 86 30 3 
0.395864 0.173489 2.61162 124 99 7 
-0.527725 0.135854 2.59739 242 207 63 
-0.482907 0.143216 2.6004 116 108 95 
-0.418738 0.166869 2.64034 10 4 4 
-0.556727 0.245756 2.58496 113 63 10 
-0.401901 0.279001 2.67163 39 22 2 
-0.17736 0.393179 3.00011 108 72 0 
-0.197144 0.40453 3.01046 221 182 16 
-0.209453 0.406161 3.01462 105 68 0 
-0.133015 0.439309 2.98643 208 167 13 
-0.140648 0.461514 2.98373 101 61 10 
