ply                 
format ascii 1.0    
element vertex 1263
property float x    
property float y    
property float z    
property uchar red  
property uchar green
property uchar blue 
end_header          
0.721717 -0.213988 2.30731 82 80 67 
0.710748 -0.212839 2.31081 39 39 29 
0.698702 -0.200355 2.3173 31 28 11 
0.117962 -0.102728 2.23493 53 14 9 
0.187511 -0.0832507 2.25157 26 20 0 
0.608396 -0.0849 2.39164 161 132 15 
0.217511 -0.0808873 2.27304 59 35 11 
0.620181 -0.0826982 2.3943 160 139 22 
0.628827 -0.0778478 2.38606 173 137 27 
0.659333 -0.0508024 2.3844 13 13 11 
0.649846 -0.0447205 2.379 9 9 9 
-0.04899 -0.0350283 2.03424 49 28 1 
0.509837 -0.0347407 2.43908 36 31 12 
0.142865 -0.0226265 2.14802 53 100 48 
0.542481 -0.012118 2.41263 190 156 20 
-0.441976 0.118771 2.61883 96 84 42 
0.383529 0.138155 2.62501 17 11 0 
-0.433562 0.152777 2.61723 59 58 54 
0.402296 0.182283 2.6308 13 4 0 
-0.36315 0.197709 2.7539 205 161 12 
-0.370675 0.199395 2.74811 107 62 0 
-0.402022 0.204058 2.6624 18 9 4 
-0.39641 0.23517 2.67953 160 131 29 
-0.451766 0.272944 2.57806 109 75 4 
-0.428201 0.313059 2.63964 16 15 11 
-0.436271 0.320568 2.63874 14 13 9 
-0.544856 0.338047 2.54403 231 193 20 
-0.579718 0.35963 2.51519 118 53 0 
-0.614754 0.409751 2.37849 157 140 120 
-0.225661 0.724333 3.09201 150 95 5 
0.390736 0.840237 2.99411 167 154 137 
0.638726 -0.417164 2.49478 255 239 142 
0.643984 -0.374144 2.48406 89 35 1 
0.551752 -0.326625 2.4606 235 229 217 
0.542041 -0.314372 2.45678 218 210 199 
0.536678 -0.300871 2.46632 158 145 126 
0.573353 -0.284489 2.42876 76 17 11 
0.582249 -0.278995 2.42082 52 1 0 
0.627828 -0.270261 2.3888 213 217 166 
0.0580983 -0.224964 2.22691 24 118 65 
0.688963 -0.226838 2.33223 169 203 82 
0.611931 -0.225382 2.44936 22 13 6 
0.711793 -0.187955 2.30434 28 24 23 
-0.0392778 -0.175745 2.20736 151 44 50 
0.619932 -0.192851 2.46064 55 29 2 
0.60865 -0.187683 2.46721 148 104 5 
0.624449 -0.184051 2.46813 211 171 13 
0.671049 -0.15434 2.4155 221 182 17 
0.592022 -0.153615 2.4629 76 36 11 
0.683812 -0.148266 2.40786 226 183 18 
-0.085406 -0.133141 2.26999 81 24 30 
-0.0823125 -0.122011 2.2702 56 25 20 
0.134345 -0.113073 2.25606 118 126 105 
0.659472 -0.1196 2.41334 120 65 0 
0.525199 -0.112062 2.43587 16 17 12 
0.623348 -0.108024 2.38774 132 82 0 
0.127004 -0.100098 2.24897 114 118 104 
0.518759 -0.0887683 2.42301 93 93 91 
0.179584 -0.0677834 2.24457 191 171 121 
0.0216648 -0.0441965 2.02103 222 193 133 
-0.0702766 -0.0384645 2.04404 76 56 29 
0.179718 -0.0410184 2.22139 213 192 137 
0.659825 -0.0169828 2.37948 119 118 114 
0.635575 -0.00803077 2.39208 80 80 72 
0.420125 0.00694898 2.65752 8 4 5 
0.0377324 0.00554474 2.0604 69 52 24 
0.63494 0.0104466 2.39159 20 15 11 
0.353801 0.0551361 2.63091 57 53 42 
0.482044 0.0658409 2.53805 57 20 1 
0.532408 0.0668222 2.45404 115 79 5 
0.346756 0.0795958 2.62573 43 42 37 
0.36033 0.104765 2.61826 85 81 70 
-0.494157 0.106194 2.64258 55 49 25 
-0.542793 0.127716 2.61449 35 23 1 
0.400324 0.134834 2.59564 100 66 5 
0.470668 0.148239 2.53984 191 151 17 
0.458607 0.149593 2.53742 11 0 0 
0.365915 0.203257 2.69842 14 7 0 
0.497114 0.247344 2.69336 152 145 135 
-0.56328 0.246803 2.59391 54 23 0 
-0.507677 0.279355 2.58647 174 123 0 
-0.484106 0.290651 2.58248 229 187 7 
-0.743718 0.274352 2.3769 211 190 169 
-0.213002 0.409318 3.02831 108 69 2 
-0.213725 0.42364 3.04075 216 173 16 
-0.154297 0.419748 2.99742 218 181 4 
-0.516471 0.359471 2.55916 162 96 10 
-0.27073 0.432199 3.01834 206 165 11 
-0.206497 0.461668 3.00394 161 112 7 
0.448115 0.468267 2.96609 228 188 12 
-0.178333 0.496248 2.99416 230 187 13 
-0.0879095 0.612923 3.11966 195 152 11 
-0.128951 0.615053 3.11455 108 70 5 
-0.294555 0.657955 3.13387 227 180 16 
0.539613 0.692447 3.07893 247 202 15 
-0.315123 0.721379 3.12621 232 210 161 
0.468589 0.791691 3.02883 226 204 167 
0.473165 0.80948 3.02665 238 222 199 
0.48438 0.818721 3.02665 112 98 85 
0.506315 0.826728 3.01215 207 196 176 
0.474316 0.830074 3.0034 226 214 192 
0.617637 -0.416097 2.4862 124 92 19 
0.763652 -0.382813 2.37075 234 223 203 
0.759084 -0.367044 2.3544 234 223 195 
0.590279 -0.307306 2.43594 158 96 99 
-0.026627 -0.236551 2.23552 19 3 4 
0.711605 -0.240788 2.33203 240 233 217 
0.0559888 -0.225959 2.23839 19 120 64 
0.126164 -0.146853 2.23785 13 54 36 
0.604358 -0.151021 2.46341 234 184 11 
0.130783 -0.135771 2.24862 132 131 111 
0.683181 -0.111752 2.39052 218 173 9 
0.100568 -0.0979741 2.23852 165 180 157 
0.67017 -0.0514158 2.38617 127 120 110 
0.644973 -0.0358289 2.38108 107 106 102 
0.0290544 -0.0288395 2.03462 182 164 114 
0.429548 -0.00151765 2.64702 95 71 9 
0.543456 0.0602089 2.43537 213 169 12 
-0.40302 0.0954357 2.74573 208 164 13 
0.358803 0.117425 2.62327 7 5 6 
-0.531578 0.135662 2.60032 239 206 31 
-0.433197 0.264328 2.61591 24 17 9 
-0.522108 0.344394 2.57654 246 205 29 
-0.595228 0.355586 2.49157 230 155 10 
-0.18084 0.431306 3.02388 229 189 16 
-0.572902 0.364064 2.53382 191 148 9 
-0.147228 0.437478 3.00401 223 181 17 
-0.154129 0.562257 3.05937 83 53 0 
-0.207287 0.658089 3.09841 123 82 0 
-0.178544 0.68096 3.0722 222 173 10 
0.510637 0.687555 3.073 122 79 0 
-0.205959 0.758625 3.07267 158 111 0 
0.125981 0.835144 2.99393 85 64 7 
0.455249 0.837898 2.97929 221 209 193 
-0.439137 0.252867 2.59179 142 114 7 
0.0936115 -0.133274 2.22475 96 101 79 
0.550884 -0.142849 2.42351 194 152 8 
-0.0887487 -0.0475975 2.06569 48 36 12 
0.377549 0.0680519 2.62173 19 14 8 
-0.487982 0.105804 2.71073 236 201 21 
-0.444489 0.124473 2.63109 99 90 81 
-0.506014 0.135459 2.61117 28 26 27 
-0.634405 0.161614 2.57675 246 196 13 
-0.440898 0.165291 2.62293 110 109 104 
-0.421914 0.16883 2.64537 7 7 5 
-0.558478 0.259905 2.57361 230 188 8 
-0.498908 0.33063 2.56223 230 187 10 
0.402266 0.441408 2.98966 189 150 13 
0.456391 0.451097 2.98284 123 87 3 
0.967209 0.554988 3.60686 205 195 186 
0.876461 0.563729 3.59903 150 140 130 
-0.297341 0.475654 3.02377 194 154 7 
0.838889 0.589215 3.5631 152 142 132 
0.813162 0.623612 3.48353 147 137 125 
0.781053 0.626964 3.47295 205 195 186 
-0.0922018 0.616366 3.10786 205 157 11 
0.508097 0.682951 3.06133 121 83 2 
-0.327344 0.709376 3.1302 127 96 5 
-0.115694 0.711941 3.14206 227 176 7 
-0.264229 0.758542 3.0792 228 213 184 
-0.37158 0.775357 3.12137 65 54 48 
0.399015 0.793948 3.02238 109 75 3 
0.464197 0.796792 3.01403 231 217 190 
0.497852 0.802942 3.02983 227 213 187 
0.38073 0.806595 3.01144 191 174 146 
0.43816 0.808825 2.97841 140 124 99 
0.489891 0.828889 3.01288 74 63 57 
0.535654 0.830175 3.0031 219 206 187 
0.560436 0.848377 3.03605 152 142 133 
0.520306 0.857483 3.03626 114 105 96 
0.547881 0.859169 3.02705 147 138 129 
0.501385 0.864689 3.03433 179 168 172 
-0.684126 0.889079 3.03891 114 104 94 
0.00804243 0.879217 2.9938 177 164 156 
0.676854 -0.372554 2.46059 197 153 5 
0.0606183 -0.154723 2.22468 1 6 0 
0.58714 -0.158939 2.47173 42 14 2 
0.553744 -0.0190911 2.41935 9 9 9 
0.502508 0.243086 2.77297 21 22 17 
0.815207 0.628562 3.47357 148 138 126 
-0.541585 0.6872 3.38098 193 180 172 
-0.134589 0.632421 3.10551 216 165 12 
-0.24599 0.754661 3.0926 229 212 182 
0.52314 0.776954 3.04295 242 228 201 
0.458585 0.831068 2.9935 224 211 192 
-0.607395 0.187435 2.58938 103 57 8 
0.45639 0.88771 3.00168 212 200 200 
0.637205 -0.129852 2.40995 233 188 9 
0.202832 0.171751 2.48131 10 8 9 
0.380158 0.194804 2.66962 11 6 3 
-0.209196 0.81605 3.08787 81 65 39 
-0.344376 0.831957 3.08132 191 180 178 
-0.674543 0.873002 3.02392 99 89 79 
0.178875 0.922958 2.9179 207 199 188 
0.0719367 0.581293 2.87504 126 109 5 
-0.369941 0.792007 3.08348 94 84 74 
0.457806 0.806987 3.00131 198 184 158 
0.414059 0.853765 2.97466 90 80 71 
0.196104 0.935233 2.92258 210 200 191 
0.743815 0.780511 3.15309 153 141 129 
0.167533 0.581115 2.87559 132 116 3 
0.346987 0.912168 2.96862 135 122 113 
0.551539 -0.315013 2.46169 215 206 197 
0.583251 -0.308552 2.43816 87 36 33 
0.560457 -0.293262 2.45243 180 170 158 
0.581936 -0.292805 2.43343 59 17 5 
0.597635 -0.287769 2.42219 69 22 4 
0.610243 -0.284794 2.41267 75 89 10 
0.605059 -0.268982 2.4136 153 169 81 
0.630614 -0.26664 2.39079 208 220 138 
0.65099 -0.263488 2.37689 184 219 89 
0.677024 -0.259945 2.36581 91 112 17 
0.662236 -0.255465 2.36749 75 97 0 
0.670263 -0.250382 2.36295 74 89 8 
0.628339 -0.24635 2.39245 74 74 20 
0.684467 -0.245779 2.3529 69 94 3 
0.696929 -0.246404 2.35163 54 85 0 
0.708108 -0.24779 2.35045 120 127 60 
0.64823 -0.237614 2.37328 29 37 0 
0.696304 -0.236614 2.34213 191 214 136 
0.712323 -0.234904 2.33288 238 232 216 
0.674289 -0.231551 2.35249 64 87 0 
0.683855 -0.224791 2.34367 61 89 0 
0.693626 -0.217693 2.33587 157 157 145 
0.306491 -0.15708 2.64912 119 114 92 
-0.566506 0.232764 2.6139 176 114 0 
0.643514 -0.436612 2.47778 239 230 201 
0.638836 -0.418157 2.49824 255 235 116 
0.66967 -0.386472 2.44157 132 97 15 
0.731815 -0.350971 2.38134 139 105 16 
0.573836 -0.303638 2.44034 237 227 217 
0.602202 -0.301147 2.42494 89 51 38 
0.757523 -0.306999 2.38248 93 50 0 
0.590826 -0.29367 2.42747 74 15 9 
0.346177 -0.254135 2.34121 32 14 0 
0.618061 -0.269317 2.40251 60 66 18 
0.657122 -0.247373 2.37208 69 42 12 
0.499468 -0.222514 2.36544 142 103 12 
0.661283 -0.234908 2.36363 161 182 65 
0.706046 -0.220561 2.32977 233 231 219 
0.72065 -0.205222 2.31121 33 29 17 
0.3401 -0.196491 2.69982 209 213 198 
0.0663068 -0.103119 2.27249 110 124 107 
0.211776 -0.0957698 2.28953 187 166 123 
0.201952 -0.0931769 2.2922 73 54 24 
0.0488851 -0.045334 2.0546 210 185 129 
0.0339651 -0.040036 2.02695 32 17 0 
0.0641848 -0.0431213 2.09664 217 193 133 
0.0265701 -0.0322078 2.05511 159 143 109 
0.619452 -0.093698 2.40123 95 51 0 
0.108727 -0.0264343 2.10957 100 76 30 
0.608741 -0.0855945 2.40457 161 133 26 
0.629284 -0.0784269 2.39771 169 143 22 
0.140715 0.00179851 2.13428 83 59 25 
0.650445 -0.0456164 2.39357 4 3 1 
0.214275 0.0166979 2.25737 62 39 8 
-0.51282 0.0967101 2.69565 220 182 37 
0.577401 -0.00491713 2.41111 13 5 2 
-0.537742 0.134673 2.61509 235 202 61 
-0.500796 0.140531 2.60901 21 19 7 
-0.468564 0.142639 2.60816 65 64 60 
-0.437154 0.152933 2.62807 61 58 49 
0.364323 0.0791892 2.63139 103 103 93 
0.338891 0.0862967 2.63492 105 102 95 
-0.603035 0.203008 2.59299 234 191 26 
0.359967 0.106138 2.63005 84 79 73 
-0.58589 0.214166 2.57748 71 47 3 
-0.618904 0.226595 2.40858 186 155 90 
-0.586319 0.227776 2.62253 71 43 4 
-0.577378 0.235639 2.59372 228 191 24 
-0.397729 0.235407 2.6833 153 126 35 
-0.440151 0.256646 2.60632 130 104 17 
-0.605882 0.282527 2.55877 58 19 0 
-0.508924 0.279579 2.58961 177 125 5 
-0.452841 0.273105 2.58125 104 65 10 
-0.434447 0.277163 2.60891 168 142 23 
0.465522 0.169707 2.56475 12 2 0 
-0.425425 0.306148 2.64977 114 110 107 
-0.480348 0.310405 2.59507 234 181 15 
-0.655827 0.322462 2.39999 137 99 14 
-0.42582 0.312208 2.63223 10 6 3 
-0.441534 0.317521 2.63533 9 4 0 
-0.514692 0.328831 2.56593 100 42 5 
-0.547219 0.338571 2.55027 235 193 33 
-0.533799 0.344906 2.56765 57 9 0 
-0.502409 0.34805 2.56523 142 76 0 
-0.548779 0.354097 2.55493 52 9 0 
0.447235 0.242079 2.66831 15 12 7 
-0.518375 0.360297 2.56422 142 76 2 
-0.613878 0.409678 2.3765 160 142 122 
-0.206647 0.462032 3.00431 148 99 0 
-0.183737 0.458702 3.00756 139 85 0 
-0.140772 0.454869 3.00344 198 157 17 
-0.145613 0.476984 3.00937 105 59 7 
-0.17993 0.496863 3.00211 224 181 17 
-0.173153 0.516423 3.00829 114 73 0 
-0.150053 0.531554 3.0284 22 4 0 
-0.147893 0.542583 3.03918 150 120 22 
0.447921 0.468032 2.96736 231 188 23 
0.281926 0.510036 2.96432 30 5 0 
-0.183537 0.646152 3.0763 201 158 19 
-0.175226 0.670488 3.08781 125 74 0 
-0.216359 0.689695 3.08675 153 96 6 
-0.103233 0.702058 3.09563 227 184 20 
-0.318414 0.745535 3.08073 224 208 183 
-0.866269 0.849544 3.05428 201 190 186 
-0.20394 0.759095 3.06764 143 105 8 
-0.289264 0.78592 3.0753 72 59 50 
0.483461 0.818429 3.0381 95 79 63 
0.505559 0.826005 3.0129 213 199 188 
-0.600323 0.356364 2.49332 220 147 8 
0.642415 -0.453424 2.49948 234 226 205 
0.613638 -0.427162 2.48066 214 204 179 
0.644957 -0.425835 2.4858 170 133 42 
0.61634 -0.415575 2.48685 124 94 24 
0.570285 -0.37054 2.5211 165 159 147 
0.7517 -0.358813 2.4108 134 104 32 
0.623585 -0.285681 2.40577 91 92 52 
0.706705 -0.197777 2.32332 97 100 73 
0.713014 -0.18867 2.31677 27 22 18 
0.608996 -0.188311 2.47665 148 103 12 
0.130033 -0.115118 2.28412 115 118 101 
0.597086 -0.167598 2.50067 50 18 0 
0.592362 -0.154823 2.47836 63 32 11 
0.189775 -0.10218 2.28882 99 94 62 
0.108652 -0.0927452 2.26745 5 27 6 
0.131424 -0.0915973 2.24905 16 43 26 
0.65991 -0.120689 2.42308 139 81 8 
0.667648 -0.111282 2.4153 227 179 11 
0.684638 -0.109974 2.39932 217 170 2 
0.167502 -0.0431389 2.24864 9 24 0 
0.494986 -0.0761346 2.44578 50 49 45 
0.62177 -0.0836512 2.40391 181 152 24 
0.040119 -0.00885061 2.08001 152 133 93 
0.150822 -0.0163978 2.16122 177 164 109 
0.033149 0.00539258 2.08258 76 57 27 
0.149133 -0.00614756 2.13271 189 169 116 
0.659087 -0.0527664 2.39909 12 10 11 
0.541642 -0.0120411 2.4258 201 169 22 
0.660397 -0.0169758 2.39182 120 118 119 
0.564105 -0.00685338 2.43023 192 161 19 
-0.601745 0.172505 2.61283 106 50 3 
0.346314 0.0790781 2.63304 41 38 33 
-0.463033 0.171523 2.60555 3 2 0 
-0.604283 0.193071 2.61386 90 45 4 
-0.458007 0.193436 2.60078 15 6 1 
0.357123 0.11515 2.62442 12 8 9 
-0.405856 0.20405 2.6718 12 2 0 
-0.587024 0.237211 2.5801 164 120 13 
-0.579617 0.232755 2.4391 105 59 0 
0.402568 0.12667 2.60214 182 148 24 
-0.392496 0.224557 2.70081 181 144 3 
0.382518 0.139357 2.63657 17 9 6 
-0.730409 0.262395 2.37581 142 127 108 
-0.533948 0.247669 2.59082 176 128 4 
-0.71361 0.26745 2.39196 220 199 168 
0.223782 0.189878 2.55214 23 19 18 
0.399267 0.174105 2.63629 132 101 11 
-0.486437 0.291148 2.58947 227 183 12 
0.467358 0.178626 2.58263 205 171 63 
-0.485598 0.302064 2.59704 114 62 5 
-0.416893 0.29952 2.68165 95 92 83 
-0.497216 0.310726 2.56945 99 44 0 
0.189707 0.230755 2.53762 15 13 14 
-0.555699 0.327964 2.55226 226 184 14 
-0.504517 0.327475 2.56821 227 185 13 
-0.469255 0.328814 2.59696 221 174 6 
-0.560605 0.337948 2.54879 127 85 1 
-0.66663 0.344582 2.38303 164 146 124 
-0.663039 0.369408 2.41082 115 70 2 
-0.610276 0.377353 2.38429 241 222 179 
-0.602521 0.385962 2.39127 119 91 17 
-0.271178 0.432928 3.02321 207 168 15 
-0.182134 0.429309 3.01754 220 178 14 
-0.13618 0.442726 3.00259 201 159 23 
-0.173786 0.470102 3.01034 159 108 1 
-0.171685 0.482123 3.00511 220 174 19 
-0.1487 0.490057 3.01468 188 146 10 
-0.149909 0.511325 3.01735 162 126 14 
0.468212 0.4763 2.96477 133 92 4 
0.539842 0.484372 3.01593 47 11 0 
-0.527971 0.682685 3.33434 193 180 172 
-0.556383 0.697567 3.31237 97 84 75 
-0.0884926 0.613553 3.12272 196 152 19 
-0.136611 0.623989 3.10769 200 155 12 
-0.573887 0.721317 3.25865 191 181 172 
-0.228581 0.654335 3.09712 111 68 0 
-0.205445 0.658438 3.09612 123 78 0 
-0.176955 0.680912 3.08072 220 176 7 
-0.321427 0.709188 3.11594 127 91 3 
-0.313478 0.719915 3.11966 233 207 158 
-0.277073 0.741133 3.10622 161 114 8 
-0.326961 0.753139 3.07762 124 108 83 
-0.341465 0.78001 3.07633 215 199 186 
-0.311212 0.775988 3.07174 215 200 181 
-0.289569 0.794389 3.05574 92 79 73 
-0.235018 0.791438 3.02425 208 193 172 
-0.357396 0.827619 3.08344 186 173 164 
-0.680579 0.865348 3.0142 101 91 82 
-0.179815 0.813588 3.08945 134 104 32 
-0.195656 0.82562 3.09856 206 190 174 
-0.263878 0.833022 3.0743 109 98 94 
-0.455339 0.870421 3.03018 188 176 164 
-0.643641 0.895501 2.96777 187 176 170 
-0.498171 0.899594 2.9706 182 168 159 
0.509651 0.768998 3.04161 246 224 177 
-0.456523 0.905934 2.94202 109 96 87 
0.489408 0.802829 3.03419 225 209 183 
0.49663 0.811899 3.0269 221 205 179 
0.453952 0.812594 2.98297 222 208 182 
0.47427 0.831307 3.0095 215 204 184 
0.546714 0.865273 3.03043 145 134 130 
0.455895 0.881711 3.00941 196 186 184 
0.761982 -0.353252 2.36451 150 114 36 
0.723637 -0.193636 2.31942 214 210 198 
0.604675 -0.150701 2.47077 236 185 18 
-0.146349 -0.05604 2.19253 217 192 138 
0.533656 -0.122087 2.44283 181 147 11 
0.524332 -0.108853 2.44635 11 9 14 
0.623271 -0.109696 2.4002 136 86 0 
0.516333 -0.0867872 2.43404 93 92 90 
0.0613213 -0.0232886 2.09488 255 255 227 
0.64547 -0.0363408 2.39518 109 108 104 
-0.531972 0.138591 2.60761 237 200 24 
-0.62546 0.198927 2.55447 227 184 17 
0.124864 0.118723 2.38869 53 0 8 
-0.55963 0.260242 2.57691 227 183 16 
-0.49402 0.291458 2.59533 229 186 9 
-0.452604 0.286686 2.579 204 163 13 
-0.667786 0.312898 2.38815 244 226 190 
-0.651045 0.313453 2.41238 213 170 13 
-0.417974 0.306189 2.64136 103 99 96 
0.26913 0.238706 2.78815 49 18 0 
-0.519774 0.343365 2.5701 235 192 18 
-0.616653 0.358099 2.44167 102 43 0 
0.768806 0.459922 3.75035 187 177 167 
0.402272 0.441848 2.9897 190 153 10 
-0.125253 0.611693 3.11017 99 60 3 
0.286533 0.560271 2.97023 39 14 0 
-0.198678 0.674225 3.09732 224 176 8 
-0.172603 0.697406 3.082 131 91 3 
-0.665346 0.804459 3.16226 117 105 93 
-0.85507 0.834229 3.07906 201 190 188 
-0.18895 0.740548 3.06693 222 178 7 
0.538019 0.695425 3.07383 246 199 7 
-0.204471 0.811492 3.08768 76 61 28 
-0.440139 0.908598 2.95143 188 175 169 
0.553973 0.793256 3.03343 230 214 198 
0.403823 0.836622 3.00998 49 36 19 
0.578274 -0.00662325 2.42344 5 5 5 
0.669813 -0.374161 2.44879 208 165 8 
0.571192 -0.342213 2.47047 239 235 223 
0.698334 -0.345687 2.45664 93 35 0 
0.557886 -0.327585 2.4592 241 233 220 
0.0398926 -0.165312 2.21188 36 127 70 
0.717395 -0.207366 2.32241 35 32 25 
0.62419 -0.197982 2.46604 56 32 8 
0.525682 -0.106366 2.43593 12 10 13 
-0.0186218 -0.0333493 2.06211 66 49 6 
0.0369862 -0.035388 2.06084 29 17 1 
0.0491525 -0.0273915 2.08358 93 76 46 
-0.603489 0.191249 2.56537 100 57 15 
-0.625631 0.206889 2.42854 249 211 12 
0.183719 0.127704 2.49335 94 78 42 
-0.432227 0.239741 2.61584 2 4 1 
-0.686035 0.307584 2.44697 240 199 9 
-0.580967 0.352761 2.50947 107 52 0 
0.243775 0.266592 2.69437 81 59 12 
0.76769 0.425836 3.82466 184 174 165 
0.441575 0.468091 2.94986 232 185 9 
-0.581055 0.717895 3.26456 193 182 176 
0.922119 0.55462 3.5728 205 194 188 
-0.293156 0.663339 3.12818 234 188 6 
-0.591505 0.739108 3.23319 116 104 92 
0.834256 0.581416 3.50856 147 137 128 
0.746686 0.606108 3.4778 204 194 185 
0.779705 0.624172 3.45264 206 196 187 
0.811425 0.620072 3.46309 147 137 127 
-0.226382 0.720301 3.08151 153 99 13 
-0.65683 0.799998 3.14549 115 103 91 
-0.31738 0.777446 3.08025 212 197 176 
-0.297643 0.792425 3.06554 82 73 68 
-0.703608 0.850756 3.03714 196 185 179 
-0.270699 0.798025 3.06994 207 195 169 
0.497884 0.707299 3.04809 242 198 13 
-0.407421 0.844993 3.0289 108 96 84 
0.517382 0.778987 3.07423 244 231 197 
-0.598536 0.923497 2.91492 204 193 187 
-0.507673 0.919307 2.92927 111 101 91 
0.464187 0.799987 3.02962 233 217 191 
0.985997 0.770735 3.18911 135 125 113 
0.560867 0.853577 3.06036 151 138 130 
0.475881 0.867388 3.04512 99 86 80 
0.159488 0.93683 2.95717 203 193 183 
0.680664 1.19383 2.44952 165 156 149 
0.693524 -0.414942 2.43036 237 225 201 
0.613722 -0.145316 2.46836 236 189 11 
0.0663174 -0.0264998 2.1131 215 191 131 
0.578135 -0.07673 2.41974 4 4 6 
0.513277 -0.0459868 2.44887 9 7 8 
0.327671 0.088015 2.63468 89 86 79 
0.354872 0.0888137 2.63206 99 97 85 
-0.448894 0.18748 2.61017 7 9 8 
-0.637645 0.34072 2.43522 129 75 3 
0.779335 0.459808 3.73656 189 180 171 
-0.309829 0.635987 3.12153 115 77 4 
-0.586832 0.714791 3.2737 193 182 176 
0.88147 0.563929 3.57161 148 138 129 
-0.244131 0.682425 3.09541 232 186 12 
-0.343213 0.714178 3.13453 111 78 1 
-0.190191 0.682876 3.08874 219 174 10 
0.777092 0.617628 3.46147 206 195 189 
-0.305451 0.733124 3.08923 227 211 178 
-0.195035 0.729503 3.07403 214 169 6 
-0.29264 0.827722 3.06341 193 182 178 
-0.701661 0.879399 2.9919 202 191 187 
-0.254102 0.832685 3.09055 100 90 81 
0.568721 0.727717 3.13745 244 204 10 
-0.511763 0.918755 2.92008 112 99 90 
0.647249 -0.0574074 2.39713 15 14 12 
-0.565237 0.299244 2.5608 122 85 4 
-0.574458 0.348742 2.50232 124 80 7 
0.590266 -0.290416 2.43864 135 75 65 
0.361021 0.135499 2.63581 19 15 6 
0.151526 0.182304 2.46674 129 109 76 
-0.701501 0.319099 2.43619 241 226 207 
-0.577249 0.337428 2.53068 123 88 4 
-0.490644 0.339068 2.6006 228 182 11 
0.476718 0.522686 2.9516 197 155 7 
0.769951 0.609059 3.46838 205 195 186 
-0.153223 0.681682 3.09089 128 91 3 
-0.175751 0.772793 3.07464 136 107 7 
-0.426241 0.854024 3.07805 109 97 85 
-0.299261 0.834591 3.06659 193 182 176 
-0.240137 0.830253 3.08965 89 80 71 
0.5009 0.719584 3.05094 239 197 14 
-0.439028 0.873106 3.01635 188 178 169 
0.621725 0.790112 3.16485 218 206 194 
0.369755 0.808665 3.01335 172 157 126 
0.739601 0.791166 3.16467 151 139 127 
0.412548 0.845809 2.98101 72 60 48 
0.54697 0.862558 3.04756 150 137 131 
0.365509 0.927501 2.94368 129 119 107 
-0.440686 0.334313 2.65483 76 74 62 
0.481068 0.537069 2.95841 193 152 10 
-0.27524 0.679973 3.11444 229 188 10 
-0.250513 0.767263 3.08534 226 209 179 
0.607419 -0.0188512 2.40647 6 7 9 
0.744353 0.780984 3.15932 152 140 128 
-0.608217 0.307238 2.54085 118 76 2 
-0.304554 0.730033 3.11277 227 207 170 
-0.256491 0.743626 3.02972 230 210 177 
-0.304989 0.857529 3.05182 193 182 176 
-0.556795 0.327789 2.55394 224 183 17 
-0.460523 0.877408 3.01787 188 176 164 
-0.469993 0.885541 3.00173 149 139 130 
-0.648429 0.898321 2.97793 180 170 161 
0.0658033 0.118714 2.11985 48 0 6 
-0.235258 0.832062 3.08338 92 83 76 
-0.708572 0.856027 3.04983 192 181 179 
0.474775 0.860889 3.00912 105 98 92 
0.457836 0.830447 2.98919 224 211 192 
0.0386059 0.938926 2.91329 196 183 175 
0.34277 0.900691 2.93191 135 122 113 
0.610325 -0.28525 2.41608 75 89 10 
0.696469 -0.237109 2.34545 191 214 136 
0.679879 -0.22776 2.35232 63 85 0 
0.112563 -0.104609 2.26807 43 5 2 
0.324135 -0.0722663 2.71451 173 150 44 
0.613128 -0.0798189 2.40912 19 10 0 
-0.587199 0.227791 2.62469 71 43 4 
-0.606227 0.282599 2.55961 58 19 0 
-0.434922 0.27715 2.61019 168 142 23 
-0.169492 0.679607 3.09716 208 168 34 
-0.328151 0.755339 3.08592 124 108 83 
-0.28868 0.785843 3.07339 72 59 50 
0.468078 0.787627 3.02355 231 204 175 
0.480732 0.795192 3.04318 139 107 48 
-0.603377 0.1934 2.61693 97 49 0 
-0.0285876 -0.177694 2.23484 47 129 81 
0.125351 -0.147905 2.25931 21 50 32 
0.0988881 -0.119713 2.24991 49 15 13 
0.0959911 -0.0989581 2.25764 154 169 146 
0.519232 -0.099461 2.43343 17 18 20 
-0.561296 0.338433 2.55087 127 85 1 
-0.550056 0.353362 2.55961 56 16 4 
-0.216783 0.692048 3.0878 143 88 0 
-0.153723 0.713655 3.12188 220 174 16 
-0.319536 0.746837 3.08937 225 209 184 
-0.863026 0.837814 3.08716 199 188 182 
-0.456992 0.871589 3.03558 188 176 164 
-0.457681 0.875761 3.01329 188 178 169 
-0.499999 0.901311 2.9767 182 168 159 
-0.599398 0.923956 2.93079 194 183 177 
0.145607 0.939587 2.90882 143 133 124 
0.0449097 -0.00918792 2.07517 157 136 89 
0.0347582 0.00636388 2.0736 67 50 20 
-0.657706 0.324467 2.39884 136 100 26 
-0.668577 0.341035 2.38392 160 145 126 
-0.604955 0.388602 2.39417 117 91 32 
-0.310092 0.723177 3.11721 232 208 172 
-0.665168 0.803342 3.16091 117 105 93 
-0.313096 0.775355 3.07508 214 199 180 
-0.685106 0.870366 3.03077 102 92 83 
-0.4426 0.910917 2.95986 188 175 169 
0.015841 -0.0456225 2.03895 219 193 136 
-0.595336 0.74126 3.24504 116 104 92 
-0.208288 0.811684 3.09525 72 57 26 
-0.411256 0.847724 3.04201 108 96 84 
-0.231627 0.829228 3.07679 92 84 73 
-0.196064 0.730354 3.0787 214 169 6 
-0.531949 0.305564 2.55331 225 183 9 
0.179089 0.924974 2.92019 204 191 183 
0.457929 0.807113 3.00432 190 176 147 
-0.686782 0.176311 2.5004 203 87 14 
0.549426 -0.31977 2.46866 75 64 60 
0.595481 -0.308313 2.43831 254 241 233 
0.566928 -0.30067 2.45212 99 89 80 
0.611983 -0.294133 2.42619 108 106 83 
0.640793 -0.26681 2.39021 176 214 77 
0.626072 -0.263803 2.40194 44 53 0 
0.678573 -0.264249 2.37481 197 228 88 
0.658801 -0.260504 2.37896 174 215 77 
0.684434 -0.258595 2.369 42 70 0 
0.695596 -0.260021 2.37025 237 239 202 
0.541202 -0.232349 2.40556 224 186 43 
0.663105 -0.251651 2.37199 187 197 111 
0.702748 -0.24799 2.35437 210 227 121 
0.668154 -0.235575 2.36459 52 77 0 
0.711301 -0.235447 2.34069 239 236 219 
0.708226 -0.224128 2.33568 65 70 40 
0.722031 -0.221245 2.32669 232 226 212 
0.69325 -0.20558 2.34054 163 158 139 
-0.533717 0.351024 2.57309 115 55 0 
0.64325 -0.43644 2.48065 246 231 202 
0.613855 -0.416129 2.50078 108 76 15 
0.226554 -0.223569 2.36388 188 157 111 
0.603147 -0.284427 2.42132 172 187 104 
0.767854 -0.309987 2.38764 81 35 0 
0.756659 -0.307637 2.3908 90 42 6 
0.609 -0.274044 2.41471 9 18 0 
-0.190075 -0.119444 2.32089 99 75 31 
0.649115 -0.259077 2.38674 61 71 11 
0.0989398 -0.144669 2.24164 15 34 15 
0.114539 -0.131394 2.2478 36 0 0 
0.134608 -0.113937 2.27304 111 115 98 
0.695738 -0.223136 2.34103 32 36 19 
0.727079 -0.212128 2.32066 237 233 221 
0.212812 -0.0962381 2.28594 195 174 127 
0.180812 -0.0787335 2.26761 171 161 112 
0.203905 -0.0827983 2.26409 82 63 31 
0.0541101 -0.0372977 2.04703 129 111 75 
0.116991 -0.0456158 2.14269 170 168 117 
0.112808 -0.0267277 2.09882 64 39 8 
0.17032 -0.0428529 2.24166 23 41 3 
0.317463 -0.0718021 2.72981 178 149 23 
0.623501 -0.113809 2.40157 141 93 8 
0.660089 -0.120254 2.42794 134 74 11 
0.618073 -0.0938037 2.40965 95 52 1 
0.618272 -0.0832602 2.41723 165 140 22 
-0.643976 0.172603 2.57902 177 105 0 
-0.637739 0.184635 2.58222 168 104 4 
0.216308 0.0153369 2.2502 50 29 8 
-0.618758 0.194168 2.56369 109 52 7 
-0.608575 0.204101 2.60246 238 202 46 
0.659604 -0.0527604 2.40068 7 5 6 
0.649983 -0.0460883 2.39566 4 2 3 
0.687698 -0.0536077 2.41558 121 118 111 
-0.718194 0.245418 2.40548 183 140 45 
-0.616422 0.227002 2.4051 164 132 45 
-0.588737 0.227829 2.62648 53 28 0 
-0.582255 0.232552 2.44378 88 36 0 
-0.580948 0.236354 2.59988 236 199 48 
-0.590912 0.238972 2.58959 174 131 18 
-0.583191 0.245681 2.59206 36 8 0 
-0.565443 0.258183 2.58076 238 200 77 
-0.606822 0.282492 2.56022 68 23 0 
0.63626 0.00888868 2.40654 8 10 0 
-0.440019 0.256221 2.60585 136 108 24 
-0.45509 0.273659 2.58544 106 66 5 
0.691074 0.0204911 2.44861 16 6 0 
-0.435793 0.277187 2.61128 173 148 29 
-0.487979 0.292899 2.59587 241 194 42 
-0.56024 0.329069 2.5583 246 207 50 
-0.514254 0.329318 2.56554 101 41 5 
-0.447327 0.318712 2.64612 8 2 4 
-0.588669 0.351709 2.48223 234 159 14 
-0.641234 0.362962 2.42489 243 197 24 
-0.50453 0.348771 2.56911 152 88 1 
-0.548378 0.36223 2.569 226 177 22 
-0.520402 0.360927 2.56784 153 84 15 
-0.610223 0.377288 2.38666 245 224 177 
-0.55319 0.418 2.48939 230 159 15 
-0.21099 0.463873 3.01545 150 98 0 
-0.152106 0.544883 3.05072 142 112 16 
-0.15602 0.565515 3.0635 61 28 0 
-0.299569 0.659552 3.14667 226 183 18 
-0.153211 0.63752 3.1022 201 159 15 
-0.3176 0.720947 3.12798 230 206 158 
-0.229916 0.72737 3.10122 141 85 0 
0.533278 0.51229 3.02702 72 40 0 
0.516355 0.750835 3.06611 139 89 0 
0.450445 0.814887 2.9976 229 213 190 
0.637673 -0.41858 2.50721 255 255 159 
0.0573751 -0.246453 2.23712 156 39 55 
0.756878 -0.354079 2.36144 145 127 77 
0.763085 -0.352904 2.3721 134 95 18 
0.135502 -0.152237 2.26663 112 117 97 
0.127917 -0.148512 2.25483 11 49 28 
0.101258 -0.120889 2.24554 49 16 11 
0.120478 -0.107234 2.25615 57 17 17 
0.110732 -0.092922 2.26181 16 34 18 
0.718327 -0.204728 2.31972 33 29 18 
0.767454 -0.212523 2.36737 37 33 30 
0.235337 -0.113 2.40888 4 43 16 
0.608204 -0.188184 2.48225 137 92 11 
0.074372 -0.0599452 2.1535 189 172 118 
0.192578 -0.0789744 2.26683 186 168 120 
0.0590126 -0.0389408 2.07855 89 66 32 
0.216426 -0.0732219 2.26226 213 189 125 
0.529562 -0.121696 2.44973 170 141 15 
0.211967 -0.0387468 2.23709 215 193 136 
0.155625 -0.0180097 2.14736 192 176 117 
0.151428 -0.00653681 2.1266 194 173 120 
0.627975 -0.0792542 2.40455 160 134 13 
-0.603321 0.173086 2.61577 111 51 1 
-0.628552 0.180422 2.58576 241 199 19 
0.677055 -0.0563012 2.3995 123 120 111 
-0.59389 0.215677 2.62396 65 40 0 
-0.714139 0.267973 2.39292 229 207 184 
0.573879 0.00175729 2.41068 191 155 17 
-0.546839 0.249548 2.58636 243 202 34 
-0.537803 0.24883 2.59787 191 142 3 
0.361399 0.0613317 2.63961 15 14 12 
0.128636 0.117785 2.3849 51 2 5 
0.309907 0.0851988 2.6478 52 52 44 
-0.436912 0.263303 2.6141 26 17 8 
0.0811795 0.144572 2.35776 38 0 0 
-0.509791 0.280043 2.59134 185 136 0 
0.32399 0.111552 2.65434 77 78 70 
-0.65683 0.322459 2.39987 144 104 19 
-0.485142 0.302423 2.59652 122 68 6 
-0.666557 0.344791 2.38303 176 156 131 
-0.483563 0.313624 2.60185 237 188 10 
-0.562624 0.339046 2.55257 135 94 6 
-0.552696 0.338519 2.55968 241 205 47 
-0.507791 0.328733 2.57429 234 191 16 
-0.615094 0.358177 2.4966 93 37 0 
-0.47027 0.328919 2.59874 230 185 8 
-0.599321 0.355964 2.49649 238 160 8 
-0.584353 0.357601 2.5235 119 60 2 
-0.630278 0.370192 2.5046 208 143 13 
-0.553073 0.354354 2.56339 58 23 3 
-0.496671 0.346482 2.57669 234 192 20 
-0.178635 0.518153 3.02134 113 73 0 
-0.566391 0.702111 3.33406 99 89 79 
-0.583539 0.708435 3.326 181 170 166 
-0.141488 0.627156 3.12158 200 153 13 
0.429315 0.472551 2.97733 224 183 7 
-0.211063 0.660807 3.11014 120 76 5 
-0.867703 0.840266 3.09333 208 197 193 
-0.880784 0.857411 3.07925 202 191 185 
0.518594 0.496667 3.01146 170 137 30 
-0.182558 0.700863 3.10021 133 88 5 
-0.185305 0.727826 3.08826 139 92 4 
-0.695912 0.87462 3.04312 108 98 89 
-0.211021 0.763543 3.08351 144 104 6 
-0.363258 0.832226 3.09762 187 176 172 
-0.651631 0.899928 2.98255 186 175 171 
-0.218164 0.806155 3.08617 137 129 110 
-0.460154 0.873588 3.04057 190 177 169 
-0.201484 0.830502 3.11447 199 183 168 
0.535568 0.700911 3.10942 238 192 10 
0.49353 0.711887 3.08938 233 187 13 
0.557632 0.721575 3.12841 241 197 14 
0.526162 0.755666 3.0617 242 201 15 
0.515061 0.762327 3.06119 185 139 17 
0.457222 0.802506 3.00866 231 217 190 
0.399543 0.83924 3.03107 52 36 20 
0.553604 0.826239 3.03503 222 208 195 
0.461984 0.855232 3.01542 89 79 70 
0.514928 0.853888 3.0409 100 91 84 
0.481723 0.871125 3.05406 96 87 78 
0.453073 0.886709 3.02515 198 188 186 
-0.0299032 -0.190093 2.23915 3 12 9 
0.654839 -0.243044 2.37511 85 62 31 
0.217746 -0.0850736 2.27913 83 59 23 
0.604479 -0.149995 2.47344 227 176 9 
0.125169 -0.0390156 2.14269 14 73 29 
0.153566 -0.0151835 2.15681 182 166 107 
0.144611 0.00347997 2.12397 87 63 35 
0.64441 -0.0370406 2.40059 102 98 95 
0.712666 -0.0442145 2.42978 11 9 10 
-0.540561 0.239113 2.60621 247 207 34 
-0.668024 0.313434 2.38875 243 226 206 
-0.651192 0.313522 2.41262 221 172 9 
0.355442 0.117045 2.64541 8 8 6 
-0.447318 0.298134 2.59372 136 103 10 
-0.538401 0.359033 2.56655 231 173 11 
-0.533222 0.374655 2.56887 229 182 8 
-0.607012 0.389454 2.39656 122 92 40 
-0.581267 0.402629 2.48536 142 86 9 
-0.620639 0.40742 2.38383 168 150 136 
-0.155079 0.531189 3.03712 22 0 0 
0.492785 0.476943 2.99409 170 132 9 
-0.175702 0.699394 3.09046 126 84 2 
-0.332183 0.753555 3.08547 123 111 89 
-0.344322 0.780813 3.09288 212 197 176 
-0.195422 0.74502 3.08425 221 176 12 
-0.516382 0.923586 2.95346 111 98 89 
0.548374 0.710298 3.12434 143 97 1 
0.462678 0.803085 3.05406 227 211 185 
0.506906 0.777689 3.06395 241 226 193 
0.536795 -0.252857 2.42272 40 37 4 
0.132385 -0.135834 2.25755 121 123 102 
0.136659 -0.121261 2.26614 115 116 100 
0.107286 -0.107954 2.18817 82 97 76 
0.0832184 -0.056752 2.14476 203 173 119 
0.549621 -0.144611 2.43748 196 154 8 
0.0533977 -0.0276101 2.07382 91 75 39 
-0.6117 0.183775 2.62112 86 40 4 
-0.665278 0.216555 2.4694 250 214 16 
0.655111 -0.0597002 2.40684 16 15 13 
-0.746428 0.294174 2.4175 135 102 7 
-0.662792 0.291468 2.43949 123 50 5 
-0.67347 0.305158 2.42792 236 186 11 
-0.69405 0.313941 2.39666 239 226 210 
0.184194 0.127122 2.49143 99 80 48 
-0.645514 0.349622 2.44069 129 75 1 
-0.504101 0.335949 2.58075 229 189 13 
-0.628929 0.370608 2.43103 237 197 11 
-0.710098 0.658731 3.3975 198 185 177 
-0.593024 0.724557 3.29053 198 187 181 
-0.602271 0.744541 3.25577 119 106 97 
-0.310153 0.726778 3.11186 230 212 176 
-0.179679 0.710535 3.10084 131 85 8 
-0.4188 0.852453 3.05421 104 91 82 
-0.61275 0.931581 2.94139 202 191 185 
-0.187166 0.88577 2.98893 134 121 112 
0.519258 0.776619 3.06352 245 230 201 
0.477664 0.788967 3.05128 143 105 6 
0.653389 0.784994 3.19621 144 131 115 
0.46407 0.84027 3.03307 221 209 185 
0.559303 0.833181 3.10326 94 74 41 
0.54685 0.830545 3.04629 218 205 186 
0.527401 0.875976 3.03417 211 202 195 
0.568716 0.98626 2.81003 152 141 135 
0.653841 1.02615 2.76894 158 147 143 
0.734713 -0.337814 2.40488 198 157 7 
0.0651817 -0.157344 2.21394 79 16 11 
0.112703 -0.155293 2.24619 8 39 24 
0.190201 -0.0439033 2.25647 194 173 120 
0.0335951 0.0175084 2.0631 87 70 42 
-0.639296 0.237704 2.40008 221 209 185 
0.566263 0.00350776 2.42691 196 151 8 
-0.648788 0.306418 2.48312 227 152 11 
0.0631844 0.156943 2.33751 104 91 75 
-0.637345 0.34133 2.43509 134 80 8 
-0.594712 0.369727 2.49615 232 156 10 
-0.634149 0.379406 2.39116 241 223 209 
-0.598149 0.720067 3.29763 197 187 178 
-0.297314 0.674574 3.13749 233 191 9 
0.438828 0.472916 2.9695 227 179 9 
-0.346454 0.715754 3.14211 109 75 1 
-0.252232 0.685834 3.11503 229 186 9 
-0.198425 0.731935 3.08311 219 169 12 
-0.245533 0.754863 3.06825 228 214 185 
-0.714545 0.884736 3.01433 204 193 191 
-0.363462 0.802897 3.08344 102 92 82 
-0.308285 0.797899 3.08693 92 83 76 
-0.525932 0.927413 2.9481 113 101 89 
0.505876 0.687345 3.08432 109 72 2 
0.498663 0.714146 3.04931 239 195 12 
0.567011 0.749858 3.08137 240 200 16 
0.404728 0.846901 3.01481 60 47 30 
0.46357 0.824222 2.97231 222 207 184 
0.562363 0.99112 2.82151 150 139 135 
0.713031 -0.240214 2.36552 243 236 218 
0.544395 -0.123405 2.44308 184 147 7 
0.776338 0.622965 3.48054 200 190 181 
-0.474571 0.902429 2.98496 100 87 79 
0.112191 -0.472712 2.4695 129 29 37 
0.647518 -0.306336 2.48838 222 207 176 
0.627621 -0.168377 2.48035 224 175 10 
0.592248 -0.103885 2.40785 187 148 8 
-0.675293 0.177388 2.50828 161 48 8 
-0.727224 0.290503 2.39885 142 102 14 
-0.681601 0.313956 2.40593 243 227 201 
-0.523158 0.302315 2.542 235 197 28 
-0.639833 0.337281 2.44439 132 80 4 
-0.587635 0.340862 2.54855 131 94 3 
-0.629346 0.378151 2.40083 244 225 193 
0.438191 0.239443 2.68764 14 14 12 
-0.123285 0.711265 3.11325 218 168 9 
-0.30446 0.837765 3.07895 194 183 181 
0.768593 0.61559 3.49449 200 189 183 
0.584969 0.7817 3.05124 175 145 55 
0.511043 0.884839 3.04055 200 190 191 
0.0132782 -0.158406 2.2104 35 128 73 
0.636562 -0.155828 2.45301 232 186 12 
0.329085 0.0361805 2.63103 4 4 4 
-0.439345 0.333531 2.65192 75 75 65 
0.230381 0.232371 2.75471 126 98 15 
-0.327298 0.620444 3.13093 119 80 1 
-0.489075 0.939366 2.95904 200 187 181 
0.52474 0.800074 3.05069 238 226 200 
-0.55553 0.927364 2.9376 115 102 93 
0.541084 -0.0635608 2.46253 17 16 14 
-0.365499 0.770649 3.05859 104 92 80 
-0.281528 0.758519 3.0912 200 183 153 
0.16109 0.776824 2.97432 139 120 15 
0.43084 0.941954 2.91852 207 198 193 
0.552881 -0.315023 2.45955 232 223 216 
0.607286 -0.302633 2.43545 60 12 8 
-0.208544 -0.323954 2.39434 40 20 0 
0.6036 -0.289801 2.43611 52 9 0 
0.620558 -0.28336 2.42055 30 42 0 
0.684586 -0.278111 2.41113 98 94 33 
0.70061 -0.263541 2.39282 235 245 172 
0.633762 -0.264656 2.41251 47 54 3 
0.627438 -0.251554 2.40458 61 55 21 
0.653079 -0.250106 2.39808 39 35 0 
0.717475 -0.2423 2.37389 245 242 223 
0.723948 -0.23912 2.36456 248 242 230 
0.656653 -0.24058 2.39918 10 15 0 
0.616494 -0.244147 2.42129 33 23 0 
0.734476 -0.219638 2.33686 91 81 71 
0.657842 -0.227794 2.39779 21 14 0 
0.600682 -0.239506 2.46596 47 26 0 
0.138376 -0.152678 2.2607 104 132 110 
0.138563 -0.145557 2.27372 124 130 116 
-0.0665601 -0.11614 2.2831 163 175 155 
0.658642 -0.0450312 2.41149 2 1 0 
-0.00864916 -0.0327368 2.04884 29 3 0 
-0.0535553 -0.0332885 2.06358 179 156 124 
-0.0467683 -0.032013 2.05357 166 143 109 
-0.0122322 -0.0302577 2.0577 152 130 93 
-0.468687 0.184003 2.58925 177 150 43 
-0.436171 0.320673 2.6385 10 9 4 
-0.193395 0.424332 3.03714 142 89 0 
0.654605 -0.444343 2.51603 228 214 188 
0.652543 -0.429768 2.50298 170 131 52 
0.620997 -0.430815 2.50751 229 211 191 
0.709751 -0.410556 2.45732 243 223 198 
0.648187 -0.423311 2.53248 255 255 170 
0.623449 -0.419932 2.51604 132 91 11 
0.710149 -0.398412 2.45937 153 120 49 
0.705113 -0.392195 2.4751 255 255 147 
0.746062 -0.358185 2.41943 131 94 16 
0.773535 -0.358931 2.43773 255 243 163 
0.65192 -0.37886 2.51497 85 27 3 
0.644361 -0.377582 2.52325 85 31 5 
0.714037 -0.350251 2.47365 97 37 9 
0.702758 -0.347552 2.47207 90 35 5 
0.782515 -0.315074 2.42207 85 39 3 
0.493785 -0.353255 2.55095 13 9 8 
0.775169 -0.314088 2.43198 90 41 9 
0.59541 -0.307998 2.44408 133 75 74 
0.578355 -0.305871 2.45256 238 225 216 
0.58088 -0.29706 2.44086 67 12 9 
0.542422 -0.303955 2.49179 178 166 152 
0.492172 -0.316075 2.55364 18 18 10 
0.609588 -0.286563 2.42835 184 194 133 
0.586857 -0.281289 2.44024 51 0 0 
0.615619 -0.275611 2.42423 29 38 0 
0.59652 -0.276745 2.43911 41 0 0 
0.679562 -0.260814 2.39012 219 242 138 
0.66049 -0.260879 2.40466 77 87 24 
0.621674 -0.260055 2.41828 78 71 45 
0.586197 -0.265113 2.44738 141 63 43 
0.712837 -0.240863 2.35107 239 226 217 
0.668009 -0.249167 2.40011 63 43 10 
0.676721 -0.24614 2.38251 179 197 98 
0.687911 -0.245401 2.37961 237 246 193 
0.661509 -0.24208 2.38747 40 34 0 
0.633693 -0.243207 2.4126 201 180 159 
0.659307 -0.233153 2.39058 146 165 73 
0.707384 -0.226003 2.36418 32 38 12 
0.716648 -0.224244 2.35811 232 231 213 
0.792593 -0.222407 2.37003 246 236 227 
0.729272 -0.221686 2.35846 103 104 86 
0.799915 -0.216224 2.35901 68 63 59 
0.80789 -0.209415 2.35728 45 41 38 
0.591928 -0.236119 2.47009 197 154 26 
0.732429 -0.207933 2.34564 36 32 21 
0.812405 -0.198089 2.36501 20 15 9 
0.766399 -0.190309 2.34043 27 23 20 
0.814112 -0.186319 2.38077 10 7 2 
0.701925 -0.182702 2.37124 37 13 1 
0.765103 -0.17384 2.36752 11 7 6 
0.809037 -0.173059 2.38357 14 10 7 
0.714472 -0.1757 2.37991 136 104 89 
0.625839 -0.195035 2.48431 54 24 0 
0.732519 -0.167207 2.36102 131 121 111 
0.610464 -0.188131 2.4748 157 112 11 
0.800837 -0.158002 2.38935 22 15 9 
0.77754 -0.144739 2.35819 28 23 20 
0.756941 -0.144212 2.35353 30 25 21 
0.595503 -0.167683 2.5053 35 4 0 
0.692903 -0.150148 2.44068 225 181 32 
0.101278 -0.144337 2.24362 24 31 13 
0.709981 -0.140161 2.42789 226 184 38 
0.666352 -0.112939 2.40864 229 183 12 
-0.0863209 -0.13516 2.29313 67 27 27 
0.102818 -0.120473 2.25114 48 13 9 
0.532125 -0.120568 2.43834 178 151 34 
0.690353 -0.11057 2.41586 225 177 15 
0.632099 -0.109298 2.42109 107 56 0 
-0.0830799 -0.123742 2.2868 38 10 7 
0.527825 -0.112938 2.44842 14 17 10 
0.113153 -0.10351 2.25759 52 16 16 
-0.105208 -0.117467 2.30402 2 19 1 
0.623462 -0.0931756 2.41154 76 31 0 
0.613625 -0.0872158 2.41492 171 142 25 
0.627496 -0.0836287 2.41794 175 148 35 
0.497111 -0.0759845 2.4393 41 40 36 
0.0219067 -0.0450398 2.04886 227 201 144 
-0.0889246 -0.0475272 2.09649 46 35 7 
0.0399329 -0.035116 2.06483 42 25 15 
-0.0978466 -0.0318252 2.10315 100 78 39 
0.512592 -0.0349457 2.45257 15 3 0 
0.665593 -0.0173325 2.40044 122 118 115 
0.0441978 -0.00864448 2.0747 175 153 104 
0.544766 -0.0115072 2.42596 194 161 30 
0.568233 -0.00592908 2.43641 198 160 37 
0.57966 0.00311873 2.41679 187 155 34 
0.38802 -0.00658654 2.72756 13 3 2 
0.523765 0.0567529 2.45162 215 176 21 
-0.0310951 0.0631851 2.15953 35 0 0 
-0.320641 0.0325543 2.69996 29 21 8 
-0.380395 0.0695738 2.6918 57 54 47 
-0.338967 0.0723253 2.68951 115 114 110 
0.386779 0.12916 2.63251 145 123 24 
0.333942 0.126728 2.65213 82 81 79 
-0.514571 0.135152 2.59909 27 19 6 
0.592643 0.199621 2.62886 106 65 3 
-0.465394 0.14244 2.60249 61 57 54 
-0.500557 0.141868 2.60135 17 14 9 
0.435495 0.210313 2.6583 19 4 0 
-0.417148 0.171084 2.65992 13 6 0 
-0.45139 0.17109 2.60169 11 11 11 
-0.477376 0.175785 2.58986 204 171 30 
0.506081 0.241059 2.69361 25 24 19 
0.488443 0.240729 2.69465 23 18 15 
-0.361009 0.196336 2.74651 212 167 12 
0.408399 0.241096 2.73115 150 119 29 
0.499673 0.248713 2.70589 154 144 134 
-0.403587 0.20375 2.66562 13 2 0 
-0.367308 0.212321 2.74593 195 159 13 
0.468195 0.263104 2.68993 64 60 57 
-0.438464 0.25523 2.60159 137 112 30 
-0.433704 0.262949 2.60733 27 18 9 
-0.451005 0.272584 2.57855 113 72 8 
-0.432974 0.277368 2.60579 175 153 34 
-0.507268 0.278969 2.58449 171 120 0 
-0.485249 0.291433 2.58821 228 191 12 
-0.423108 0.304609 2.64304 112 109 104 
-0.504949 0.327084 2.56454 231 188 14 
-0.545105 0.337588 2.54416 234 192 20 
-0.596063 0.35464 2.48315 234 164 16 
-0.213148 0.421769 3.02907 219 180 17 
-0.156146 0.425114 3.03616 227 190 13 
-0.228167 0.423062 3.02946 111 68 0 
-0.244373 0.426745 3.02156 212 166 10 
0.433512 0.467621 2.95354 236 191 27 
-0.271109 0.43232 3.019 213 173 15 
-0.206627 0.462326 3.00616 156 105 0 
-0.145164 0.47947 3.01643 86 41 2 
0.283376 0.509904 2.96806 50 17 2 
-0.147945 0.490338 3.01292 208 166 18 
-0.150117 0.512255 3.02067 180 140 16 
-0.150544 0.532512 3.03597 22 3 0 
0.286358 0.5651 2.98821 22 1 0 
-0.147174 0.543521 3.04051 158 132 21 
-0.14761 0.632699 3.08409 217 169 11 
0.538436 0.691055 3.0745 243 201 19 
-0.183775 0.647739 3.08594 213 172 20 
-0.293719 0.655649 3.12316 240 196 25 
-0.170187 0.681127 3.09886 229 190 27 
-0.558703 0.698536 3.31523 101 87 78 
-0.154483 0.712988 3.11765 228 183 20 
-0.313958 0.718182 3.1124 234 205 145 
0.475163 0.782493 3.03172 167 128 23 
-0.318517 0.745004 3.07821 229 213 187 
-0.326924 0.751948 3.07065 143 127 102 
-0.290996 0.787889 3.08023 59 45 32 
-0.204414 0.814336 3.0929 91 69 32 
-0.19638 0.825339 3.0969 214 198 182 
0.58072 -0.251557 2.47346 114 61 30 
0.505627 -0.0514618 2.44626 3 3 1 
-0.522057 0.342032 2.5616 239 196 21 
0.731415 -0.42588 2.49374 173 162 142 
0.629415 -0.436678 2.53114 228 211 191 
0.773188 -0.360037 2.40178 126 98 35 
0.620948 -0.39152 2.54986 118 90 7 
0.750773 -0.360171 2.42872 121 86 18 
0.653557 -0.382059 2.54718 82 26 1 
0.545271 -0.315045 2.47251 219 209 200 
0.677288 -0.308781 2.48739 240 224 199 
0.589505 -0.292112 2.43263 91 45 45 
0.641496 -0.277296 2.43242 228 231 178 
0.690856 -0.25882 2.40077 40 53 0 
0.643154 -0.257939 2.42105 160 185 65 
0.665424 -0.23294 2.37491 158 183 63 
0.496143 -0.234866 2.35853 253 238 219 
-0.0342664 -0.241324 2.25471 31 0 0 
0.634058 -0.235772 2.44579 26 18 7 
0.61074 -0.23352 2.43311 103 100 21 
0.791023 -0.20781 2.37725 35 34 32 
0.767986 -0.201084 2.34682 229 226 221 
0.053368 -0.211675 2.2374 62 151 97 
0.760964 -0.186744 2.32558 25 21 18 
0.6219 -0.193909 2.46868 53 22 0 
-0.0219309 -0.178506 2.24338 57 146 90 
0.0457727 -0.168745 2.21502 46 134 83 
0.0554968 -0.161592 2.21219 18 9 0 
0.696993 -0.162217 2.43886 87 35 13 
0.610005 -0.152809 2.48709 234 189 10 
0.651365 -0.124725 2.42912 239 197 17 
0.668839 -0.122647 2.4465 126 75 12 
0.502151 -0.134228 2.49136 16 7 0 
0.628888 -0.109799 2.40967 111 60 0 
0.0382847 -0.0477061 2.05 228 204 144 
0.655476 -0.0490916 2.38808 14 12 13 
0.650912 -0.0363824 2.40347 108 107 103 
0.0409391 -0.0187932 2.06859 92 73 43 
0.671176 -0.0176447 2.41064 121 117 114 
0.722758 -0.0186698 2.45793 84 81 76 
0.403297 0.12606 2.59243 181 147 21 
0.390879 0.127166 2.64548 151 125 12 
0.332186 0.126191 2.63664 80 79 77 
-0.362657 0.0928251 2.70431 16 18 7 
0.470641 0.148323 2.53868 194 157 16 
0.463945 0.176036 2.5653 208 179 77 
0.586563 0.181811 2.62279 86 30 3 
0.399097 0.173496 2.62476 124 99 7 
-0.533678 0.135758 2.60894 242 207 63 
-0.488398 0.143181 2.61198 116 108 95 
-0.423782 0.167085 2.65277 10 4 4 
-0.562866 0.24678 2.59637 113 63 10 
-0.406908 0.280437 2.68487 39 22 2 
-0.181249 0.396667 3.02264 108 72 0 
-0.201334 0.408202 3.03322 221 182 16 
-0.213825 0.409868 3.03743 105 68 0 
-0.136246 0.443349 3.00864 208 167 13 
-0.143961 0.46583 3.00576 101 61 10 
-0.149748 0.510542 3.01103 181 140 14 
0.806704 0.617465 3.46927 153 139 130 
-0.0880407 0.614937 3.12998 208 162 15 
0.511146 0.685922 3.06301 125 79 1 
0.534211 0.690856 3.06103 241 200 12 
-0.277118 0.739319 3.09451 163 116 0 
-0.0418158 0.77295 3.16923 94 77 57 
0.384346 0.809235 3.00637 190 171 141 
-0.311364 0.775673 3.06583 224 209 188 
0.475354 0.832565 3.01266 227 215 193 
-0.233637 0.829631 3.06536 97 90 80 
-0.264561 0.832239 3.06636 110 102 99 
-0.867465 0.850876 3.04644 208 199 194 
0.145604 0.936019 2.89569 145 132 123 
-0.811853 1.19963 2.47235 220 210 211 
0.0228078 -0.482758 2.31942 174 16 30 
0.673715 -0.432303 2.52683 239 210 54 
0.629445 -0.423253 2.52684 111 77 6 
0.73384 -0.403313 2.48045 240 209 57 
0.68675 -0.394101 2.47595 108 75 4 
0.747819 -0.374514 2.41138 215 197 173 
0.570494 -0.375859 2.52814 171 161 151 
0.711648 -0.350742 2.48461 90 33 4 
0.556162 -0.329466 2.45121 240 231 222 
0.0100417 -0.294731 2.25087 96 0 8 
0.051943 -0.291081 2.25107 98 0 5 
0.638084 -0.278755 2.40299 225 230 176 
0.729064 -0.248196 2.37783 246 232 221 
0.507682 -0.26333 2.43863 244 236 223 
0.670798 -0.233726 2.38988 157 183 60 
0.647437 -0.234546 2.41179 62 23 8 
0.0689526 -0.232841 2.24493 27 0 7 
0.70943 -0.215812 2.36366 23 25 20 
0.667233 -0.219231 2.40119 58 43 20 
0.715662 -0.201686 2.35037 175 177 140 
0.604626 -0.219736 2.4701 167 127 3 
0.725718 -0.169412 2.37609 32 25 6 
0.697702 -0.163851 2.46626 115 66 10 
0.708803 -0.153506 2.40553 108 49 7 
0.675361 -0.155495 2.45493 231 183 15 
0.590099 -0.158212 2.47393 80 45 3 
0.527479 -0.10635 2.43758 6 9 2 
0.512915 -0.0846979 2.42206 88 87 83 
-0.0703851 -0.0530847 2.06377 226 200 141 
0.658141 -0.0548795 2.39916 13 13 13 
0.419861 0.0492321 2.58756 214 175 18 
-0.372104 0.0346701 2.66817 136 133 128 
0.390652 0.0834624 2.62481 143 113 3 
0.470984 0.147218 2.52801 185 143 5 
0.463146 0.158752 2.55785 14 2 2 
0.583512 0.180816 2.60935 84 31 0 
-0.358415 0.163462 2.74595 205 158 16 
-0.440233 0.164688 2.61742 115 114 110 
-0.460102 0.173933 2.60483 7 7 7 
-0.747184 0.243434 2.38025 251 232 155 
-0.451209 0.286085 2.57386 213 167 12 
-0.480463 0.316135 2.58653 230 188 8 
-0.52205 0.346571 2.68645 243 202 14 
-0.198163 0.407621 3.02122 215 176 11 
0.455821 0.451031 2.97882 119 84 3 
-0.299513 0.477236 3.02938 197 157 8 
0.827877 0.58086 3.52099 152 142 133 
-0.473015 0.64777 3.38677 201 188 182 
-0.497464 0.673629 3.39241 119 107 95 
-0.199581 0.675563 3.10521 230 178 14 
-0.308047 0.723378 3.1039 236 219 176 
-0.274266 0.741028 3.10616 182 137 8 
0.346349 0.768279 3.01527 107 69 4 
-0.594338 0.739436 3.22834 120 110 100 
0.582863 0.809815 3.10651 156 141 118 
0.4626 0.795393 3.00693 237 220 202 
0.467134 0.83204 3.00269 229 214 191 
-0.242107 0.796116 3.0368 218 206 184 
-0.658057 0.797689 3.13161 115 105 96 
-0.674793 0.805288 3.10891 203 192 186 
-0.357173 0.829205 3.07591 193 184 177 
-0.414667 0.849199 3.03794 113 103 93 
-0.451833 0.870532 3.00361 193 180 172 
-0.460582 0.903644 2.9466 110 97 89 
0.637254 0.00641338 2.41826 8 8 10 
0.406744 0.169671 2.65033 130 99 6 
0.131992 -0.404848 2.3671 173 160 144 
0.725495 -0.291623 2.44082 157 90 0 
0.594715 -0.296063 2.44316 67 9 5 
0.647999 -0.287076 2.42263 244 238 216 
0.0603079 -0.155205 2.22225 16 33 17 
0.114804 -0.152151 2.24217 28 41 23 
0.645802 -0.028559 2.38875 106 105 101 
0.123848 -0.00551447 2.10808 207 184 130 
0.605429 0.0001639 2.43613 6 6 4 
0.378933 0.0618649 2.65161 8 7 3 
-0.407292 0.0956548 2.74096 215 170 9 
-0.526393 0.14062 2.5893 234 203 35 
0.445496 0.204227 2.64149 122 92 2 
-0.612964 0.157868 2.58699 249 208 22 
-0.409139 0.200353 2.65783 10 6 3 
0.190626 0.241628 2.67716 9 5 0 
-0.166491 0.375629 2.98256 109 71 6 
-0.135807 0.420569 3.02683 120 80 8 
-0.0246737 0.809008 3.14813 176 159 149 
-0.656081 0.800151 3.14625 116 106 97 
-0.334314 0.821135 3.08749 198 188 186 
0.649515 -0.46067 2.55612 219 204 183 
0.618961 -0.387758 2.5401 118 90 6 
0.647241 -0.373865 2.48394 149 101 17 
0.709199 -0.345574 2.4373 153 100 4 
0.502111 -0.329005 2.55114 7 7 7 
0.600576 -0.295369 2.46551 59 11 11 
-0.00388391 -0.218993 2.25391 75 163 112 
0.0427814 -0.21368 2.24458 58 155 101 
0.69896 -0.168445 2.42615 76 26 3 
0.698337 -0.132612 2.43762 230 182 22 
0.591073 -0.0947937 2.39975 194 154 4 
0.54199 -0.0913192 2.43866 10 10 12 
0.584615 -0.0729532 2.42573 2 2 2 
0.64478 -0.0550855 2.40598 10 10 10 
0.519626 -0.0470393 2.44238 13 13 13 
