ply                 
format ascii 1.0    
element vertex 1263
property float x    
property float y    
property float z    
property uchar red  
property uchar green
property uchar blue 
end_header          
0.488595 0.802081 3.02785 225 209 183 
0.495805 0.81113 3.02056 221 205 179 
0.453226 0.81177 2.97666 222 208 182 
0.473487 0.830481 3.00316 215 204 184 
0.545779 0.864423 3.02407 145 134 130 
0.455126 0.880791 3.00301 196 186 184 
0.761416 -0.352257 2.36023 150 114 36 
0.72311 -0.192993 2.31508 214 210 198 
0.604299 -0.150105 2.46606 236 185 18 
-0.145094 -0.05607 2.18769 217 192 138 
0.533424 -0.121588 2.43811 181 147 11 
0.524111 -0.108381 2.44161 11 9 14 
0.622879 -0.109212 2.3956 136 86 0 
0.516127 -0.0863675 2.4293 93 92 90 
0.0622281 -0.023366 2.09037 255 255 227 
0.645009 -0.0359935 2.39055 109 108 104 
-0.530461 0.138327 2.60162 237 200 24 
-0.623737 0.198484 2.54842 227 184 17 
0.125374 0.11858 2.38359 53 0 8 
-0.558067 0.25973 2.57083 227 183 16 
-0.492604 0.290927 2.58927 229 186 9 
-0.451244 0.286166 2.573 204 163 13 
-0.665814 0.312103 2.3822 244 226 190 
-0.649135 0.312682 2.4064 213 170 13 
-0.416746 0.305695 2.63529 103 99 96 
0.269053 0.238676 2.78246 49 18 0 
-0.518298 0.342712 2.564 235 192 18 
-0.614855 0.35728 2.43565 102 43 0 
0.767308 0.460444 3.74372 187 177 167 
0.401764 0.441664 2.98366 190 153 10 
-0.125047 0.611176 3.10354 99 60 3 
0.286194 0.559834 2.96405 39 14 0 
-0.198365 0.673573 3.09059 224 176 8 
-0.172324 0.696709 3.07529 131 91 3 
-0.664419 0.803518 3.15501 117 105 93 
-0.853756 0.833091 3.07168 201 190 188 
-0.188644 0.739761 3.06018 222 178 7 
0.537138 0.694915 3.06755 246 199 7 
-0.204181 0.810604 3.08085 76 61 28 
-0.439363 0.907332 2.94447 188 175 169 
0.553051 0.792539 3.02713 230 214 198 
0.403161 0.835771 3.00359 49 36 19 
0.577923 -0.00634102 2.41869 5 5 5 
0.669402 -0.373127 2.44433 208 165 8 
0.570952 -0.341271 2.4659 239 235 223 
0.697852 -0.34469 2.45216 93 35 0 
0.557672 -0.326681 2.45463 241 233 220 
0.0407959 -0.165048 2.20725 36 127 70 
0.716886 -0.206696 2.31808 35 32 25 
0.623795 -0.197291 2.46139 56 32 8 
0.525464 -0.105905 2.43121 12 10 13 
-0.0175206 -0.0334559 2.0576 66 49 6 
0.0379739 -0.0354707 2.05638 29 17 1 
0.0500946 -0.0274721 2.07909 93 76 46 
-0.601816 0.190835 2.55933 100 57 15 
-0.623762 0.206339 2.42265 249 211 12 
0.184038 0.127636 2.48812 94 78 42 
-0.430929 0.23934 2.60984 2 4 1 
-0.684098 0.306839 2.44092 240 199 9 
-0.579313 0.35202 2.50339 107 52 0 
0.243796 0.266434 2.68877 81 59 12 
0.766174 0.426467 3.81802 184 174 165 
0.441013 0.46784 2.94387 232 185 9 
-0.580348 0.717218 3.25737 193 182 176 
0.920416 0.554886 3.56625 205 194 188 
-0.292722 0.662705 3.12137 234 188 6 
-0.590753 0.738364 3.22599 116 104 92 
0.832712 0.581563 3.50202 147 137 128 
0.745289 0.606168 3.47125 204 194 185 
0.778258 0.624188 3.4461 206 196 187 
0.809923 0.620112 3.45655 147 137 127 
-0.226025 0.71955 3.07474 153 99 13 
-0.655896 0.799049 3.13826 115 103 91 
-0.316895 0.776572 3.07337 212 197 176 
-0.297179 0.791518 3.05867 82 73 68 
-0.702486 0.849596 3.02992 196 185 179 
-0.270283 0.797121 3.06309 207 195 169 
0.497083 0.706734 3.04181 242 198 13 
-0.406761 0.843927 3.02194 108 96 84 
0.516506 0.778327 3.06787 244 231 197 
-0.597462 0.922115 2.90785 204 193 187 
-0.506765 0.917978 2.92227 111 101 91 
0.463421 0.799234 3.02327 233 217 191 
0.984233 0.770298 3.1828 135 125 113 
0.559896 0.852782 3.05398 151 138 130 
0.475062 0.866534 3.03871 99 86 80 
0.159247 0.935689 2.95063 203 193 183 
0.679645 1.19173 2.44386 165 156 149 
0.69309 -0.413829 2.42598 237 225 201 
0.613327 -0.144728 2.46366 236 189 11 
0.067201 -0.0265578 2.10856 215 191 131 
0.577811 -0.0763146 2.41505 4 4 6 
0.513054 -0.0456372 2.44407 9 7 8 
0.32764 0.0881663 2.62936 89 86 79 
0.354793 0.0889713 2.62676 99 97 85 
-0.447546 0.187162 2.60421 7 9 8 
-0.635794 0.33992 2.4292 129 75 3 
0.777827 0.460321 3.72994 189 180 171 
-0.309355 0.635386 3.11474 115 77 4 
-0.586125 0.714127 3.2665 193 182 176 
0.87983 0.56417 3.56505 148 138 129 
-0.243747 0.681744 3.08865 232 186 12 
-0.342723 0.713454 3.12763 111 78 1 
-0.189886 0.682204 3.08203 219 174 10 
0.775648 0.617661 3.45493 206 195 189 
-0.304981 0.732336 3.08239 227 211 178 
-0.194723 0.728738 3.06729 214 169 6 
-0.292193 0.826756 3.05653 193 182 178 
-0.700496 0.878144 2.9847 202 191 187 
-0.253743 0.83175 3.08366 100 90 81 
0.567741 0.727219 3.13108 244 204 10 
-0.510838 0.917416 2.91308 112 99 90 
0.646791 -0.0570171 2.39251 15 14 12 
-0.563656 0.298647 2.55471 122 85 4 
-0.572807 0.348005 2.49626 124 80 7 
0.589986 -0.289578 2.43409 135 75 65 
0.360913 0.135576 2.63047 19 15 6 
0.151907 0.182104 2.46149 129 109 76 
-0.699525 0.318318 2.43012 241 226 207 
-0.575621 0.336734 2.52459 123 88 4 
-0.489252 0.338458 2.59449 228 182 11 
0.476074 0.522351 2.94558 197 155 7 
0.768518 0.609111 3.46184 205 195 186 
-0.152977 0.681026 3.0842 128 91 3 
-0.175484 0.771964 3.06787 136 107 7 
-0.425605 0.85299 3.07102 109 97 85 
-0.298808 0.833615 3.05969 193 182 176 
-0.239798 0.829325 3.08277 89 80 71 
0.500087 0.719002 3.04465 239 197 14 
-0.438313 0.87197 3.00935 188 178 169 
0.620616 0.789546 3.15843 218 206 194 
0.369159 0.807858 3.00697 172 157 126 
0.738286 0.790622 3.15829 151 139 127 
0.411884 0.844914 2.97466 72 60 48 
0.546026 0.861731 3.04118 150 137 131 
0.364923 0.92641 2.93728 129 119 107 
-0.43944 0.333771 2.6487 76 74 62 
0.480408 0.536716 2.95237 193 152 10 
-0.274825 0.679305 3.10764 229 188 10 
-0.250135 0.766431 3.07851 226 209 179 
0.607022 -0.0185451 2.40177 6 7 9 
0.743037 0.780454 3.15296 152 140 128 
-0.606537 0.306596 2.53474 118 76 2 
-0.304107 0.729273 3.1059 227 207 170 
-0.256044 0.742777 3.02297 230 210 177 
-0.30452 0.856497 3.04491 193 182 176 
-0.555515 0.327184 2.54839 224 183 17 
-0.45966 0.876215 3.01106 188 176 164 
-0.469108 0.884312 2.99493 149 139 130 
-0.647156 0.896939 2.97095 180 170 161 
0.0658451 0.118449 2.11611 48 0 6 
-0.234832 0.831119 3.0767 92 83 76 
-0.707177 0.854756 3.04267 192 181 179 
0.473967 0.860061 3.00287 105 98 92 
0.457064 0.829656 2.98302 224 211 192 
0.0385273 0.937762 2.90705 196 183 175 
0.342174 0.899705 2.92579 135 122 113 
0.610001 -0.284358 2.41105 75 89 10 
0.695966 -0.236314 2.34049 191 214 136 
0.679408 -0.22699 2.34735 63 85 0 
0.113312 -0.104384 2.26302 43 5 2 
0.324131 -0.0717654 2.70901 173 150 44 
0.612725 -0.079368 2.40396 19 10 0 
-0.585796 0.227396 2.61898 71 43 4 
-0.604732 0.282055 2.55392 58 19 0 
-0.433724 0.276704 2.60447 168 142 23 
-0.169335 0.679058 3.09098 208 168 34 
-0.327816 0.754645 3.07971 124 108 83 
-0.288388 0.785095 3.06715 72 59 50 
0.467313 0.786915 3.0173 231 204 175 
0.479932 0.794492 3.03692 139 107 48 
-0.60193 0.193051 2.61125 97 49 0 
-0.0275065 -0.177392 2.22986 47 129 81 
0.126098 -0.147589 2.25431 21 50 32 
0.0996855 -0.119472 2.24489 49 15 13 
0.0967803 -0.0987575 2.2526 154 169 146 
0.519027 -0.0989916 2.42824 17 18 20 
-0.55987 0.337799 2.54515 127 85 1 
-0.548662 0.352713 2.55387 56 16 4 
-0.216562 0.691462 3.08162 143 88 0 
-0.153623 0.713087 3.11567 220 174 16 
-0.319212 0.74616 3.08316 225 209 184 
-0.862188 0.836947 3.08092 199 188 182 
-0.456491 0.870654 3.0293 188 176 164 
-0.457153 0.874792 3.00701 188 178 169 
-0.499387 0.900256 2.97041 182 168 159 
-0.598624 0.922802 2.9245 194 183 177 
0.145397 0.938437 2.90253 143 133 124 
0.0459272 -0.00930877 2.07034 157 136 89 
0.0357925 0.00620398 2.06876 67 50 20 
-0.655942 0.323702 2.39326 136 100 26 
-0.666783 0.340225 2.37834 160 145 126 
-0.603282 0.387732 2.38856 117 91 32 
-0.309803 0.722567 3.11101 232 208 172 
-0.664595 0.802629 3.15468 117 105 93 
-0.312774 0.774621 3.06885 214 199 180 
-0.684358 0.869405 3.0245 102 92 83 
-0.442037 0.909831 2.95357 188 175 169 
0.0169641 -0.0456957 2.0342 219 193 136 
-0.594917 0.740732 3.23886 116 104 92 
-0.208126 0.810935 3.08899 72 57 26 
-0.410807 0.846836 3.03575 108 96 84 
-0.231423 0.828428 3.07052 92 84 73 
-0.195872 0.729706 3.07249 214 169 6 
-0.530555 0.304996 2.54762 225 183 9 
0.178822 0.923865 2.9139 204 191 183 
0.457186 0.806342 2.99808 190 176 147 
-0.685063 0.175876 2.49482 203 87 14 
0.549392 -0.318808 2.4631 75 64 60 
0.595364 -0.307368 2.43275 254 241 233 
0.56686 -0.29975 2.44656 99 89 80 
0.611832 -0.293217 2.42064 108 106 83 
0.64059 -0.265961 2.38467 176 214 77 
0.625894 -0.262963 2.39638 44 53 0 
0.678291 -0.263396 2.36927 197 228 88 
0.658561 -0.259667 2.37342 174 215 77 
0.68414 -0.257755 2.36346 42 70 0 
0.695274 -0.259172 2.36471 237 239 202 
0.541197 -0.231619 2.40001 224 186 43 
0.662856 -0.250836 2.36645 187 197 111 
0.702415 -0.247175 2.34884 210 227 121 
0.667891 -0.234801 2.35905 52 77 0 
0.71095 -0.234665 2.33516 239 236 219 
0.707881 -0.223378 2.33015 65 70 40 
0.721657 -0.2205 2.32117 232 226 212 
0.692931 -0.204879 2.335 163 158 139 
-0.532619 0.350458 2.56766 115 55 0 
0.64305 -0.435159 2.47512 246 231 202 
0.613697 -0.414905 2.49524 108 76 15 
0.22722 -0.223019 2.35846 188 157 111 
0.603016 -0.28354 2.41577 172 187 104 
0.767368 -0.308975 2.3821 81 35 0 
0.756198 -0.306635 2.38525 90 42 6 
0.608856 -0.273182 2.40915 9 18 0 
-0.188735 -0.119307 2.31563 99 75 31 
0.648892 -0.258245 2.38119 61 71 11 
0.0999343 -0.144413 2.23635 15 34 15 
0.115493 -0.131157 2.24249 36 0 0 
0.13549 -0.113717 2.26769 111 115 98 
0.695419 -0.222392 2.33549 32 36 19 
0.726692 -0.211407 2.31513 237 233 221 
0.213528 -0.09602 2.28054 195 174 127 
0.1816 -0.0785777 2.26223 171 161 112 
0.204654 -0.0826273 2.25871 82 63 31 
0.0553523 -0.0374234 2.04196 129 111 75 
0.118015 -0.0456381 2.13747 170 168 117 
0.113879 -0.0268245 2.09366 64 39 8 
0.171138 -0.0427981 2.2363 23 41 3 
0.317536 -0.0713155 2.7241 178 149 23 
0.623266 -0.113324 2.39595 141 93 8 
0.659755 -0.119723 2.42229 134 74 11 
0.617836 -0.0933626 2.40401 95 52 1 
0.618025 -0.0828389 2.41158 165 140 22 
-0.64273 0.172289 2.57373 177 105 0 
-0.636507 0.184308 2.57692 168 104 4 
0.217003 0.0152811 2.24479 50 29 8 
-0.617511 0.193814 2.55838 109 52 7 
-0.607404 0.203768 2.59714 238 202 46 
0.659261 -0.0524067 2.39502 7 5 6 
0.649663 -0.0457571 2.39 4 2 3 
0.687281 -0.053232 2.4099 121 118 111 
-0.716656 0.244834 2.40027 183 140 45 
-0.614939 0.226463 2.39984 164 132 45 
-0.587629 0.227487 2.62114 53 28 0 
-0.580859 0.232042 2.43848 88 36 0 
-0.579805 0.235977 2.59453 236 199 48 
-0.589748 0.238581 2.58425 174 131 18 
-0.582039 0.245283 2.58671 36 8 0 
-0.564291 0.257759 2.5754 238 200 77 
-0.605622 0.282007 2.55488 68 23 0 
0.635941 0.00909323 2.40085 8 10 0 
-0.438996 0.255843 2.6004 136 108 24 
-0.454033 0.273233 2.58 106 66 5 
0.690597 0.0207171 2.44286 16 6 0 
-0.434793 0.276782 2.60582 173 148 29 
-0.486921 0.292448 2.59044 241 194 42 
-0.55909 0.328519 2.55291 246 207 50 
-0.513148 0.328779 2.56011 101 41 5 
-0.446391 0.318275 2.64065 8 2 4 
-0.587391 0.351048 2.47687 234 159 14 
-0.639835 0.362223 2.41958 243 197 24 
-0.503446 0.348207 2.56367 152 88 1 
-0.54727 0.361642 2.56358 226 177 22 
-0.519311 0.360342 2.56241 153 84 15 
-0.608793 0.376491 2.38136 245 224 177 
-0.551981 0.417245 2.48398 230 159 15 
-0.21085 0.463642 3.00983 150 98 0 
-0.152097 0.544591 3.04505 142 112 16 
-0.156035 0.565212 3.05782 61 28 0 
-0.299647 0.659241 3.14111 226 183 18 
-0.153312 0.637174 3.09652 201 159 15 
-0.317666 0.720542 3.12238 230 206 158 
-0.23 0.726916 3.09554 141 85 0 
0.532496 0.512066 3.02097 72 40 0 
0.515472 0.750267 3.05995 139 89 0 
0.449691 0.814117 2.99142 229 213 190 
0.637459 -0.417335 2.50165 255 255 159 
0.0584949 -0.245992 2.23189 156 39 55 
0.756453 -0.352974 2.35594 145 127 77 
0.762638 -0.351794 2.36659 134 95 18 
0.136406 -0.151935 2.26131 112 117 97 
0.128847 -0.148229 2.24952 11 49 28 
0.102234 -0.120682 2.24024 49 16 11 
0.121401 -0.107044 2.25082 57 17 17 
0.11166 -0.0927638 2.25648 16 34 18 
0.717959 -0.20403 2.3142 33 29 18 
0.766941 -0.211759 2.36179 37 33 30 
0.235892 -0.112662 2.40338 4 43 16 
0.607978 -0.187487 2.4766 137 92 11 
0.0754698 -0.0599423 2.14828 189 172 118 
0.193344 -0.0788143 2.26145 186 168 120 
0.0602114 -0.0390403 2.07344 89 66 32 
0.217149 -0.0730691 2.25687 213 189 125 
0.529501 -0.1212 2.4441 170 141 15 
0.212709 -0.0386903 2.23172 215 193 136 
0.156558 -0.01808 2.14211 192 176 117 
0.152386 -0.00664958 2.12137 194 173 120 
0.627714 -0.0788469 2.39891 160 134 13 
-0.602159 0.17281 2.61046 111 51 1 
-0.62733 0.180105 2.58047 241 199 19 
0.676674 -0.0559336 2.39383 123 120 111 
-0.592768 0.215348 2.61862 65 40 0 
-0.712594 0.267344 2.38771 229 207 184 
0.573699 0.00196111 2.405 191 155 17 
-0.545703 0.249145 2.58099 243 202 34 
-0.536691 0.24844 2.59248 191 142 3 
0.361426 0.0615121 2.63384 15 14 12 
0.129302 0.117585 2.37934 51 2 5 
0.310006 0.0853237 2.64204 52 52 44 
-0.435909 0.262922 2.60864 26 17 8 
0.0819425 0.144283 2.35224 38 0 0 
-0.508704 0.279605 2.58593 185 136 0 
0.324047 0.111634 2.64856 77 78 70 
-0.655361 0.321759 2.3946 144 104 19 
-0.484092 0.301958 2.59108 122 68 6 
-0.665065 0.344038 2.37777 176 156 131 
-0.482529 0.313148 2.5964 237 188 10 
-0.561468 0.338475 2.54717 135 94 6 
-0.551559 0.337957 2.55427 241 205 47 
-0.506703 0.328204 2.56886 234 191 16 
-0.613825 0.357517 2.49125 93 37 0 
-0.469249 0.328418 2.59328 230 185 8 
-0.598061 0.35531 2.49112 238 160 8 
-0.583146 0.356972 2.51812 119 60 2 
-0.629018 0.369521 2.49924 208 143 13 
-0.551949 0.353771 2.55798 58 23 3 
-0.495605 0.345931 2.57124 234 192 20 
-0.178553 0.51786 3.01568 113 73 0 
-0.566701 0.702017 3.32889 99 89 79 
-0.583836 0.708326 3.32083 181 170 166 
-0.141621 0.626848 3.11591 200 153 13 
0.428753 0.472323 2.97133 224 183 7 
-0.211145 0.660445 3.10449 120 76 5 
-0.867647 0.839762 3.0881 208 197 193 
-0.880713 0.856876 3.074 202 191 185 
0.517855 0.496448 3.00542 170 137 30 
-0.182664 0.700437 3.09452 133 88 5 
-0.185403 0.727351 3.08254 139 92 4 
-0.695785 0.873983 3.03769 108 98 89 
-0.21111 0.763019 3.07779 144 104 6 
-0.363306 0.831658 3.09199 187 176 172 
-0.65142 0.89917 2.97704 186 175 171 
-0.218271 0.805583 3.08044 137 129 110 
-0.460088 0.872906 3.03496 190 177 169 
-0.201652 0.82994 3.10874 199 183 168 
0.534642 0.700487 3.10331 238 192 10 
0.492678 0.711416 3.08326 233 187 13 
0.55665 0.721145 3.12229 241 197 14 
0.525265 0.755085 3.05553 242 201 15 
0.514179 0.761734 3.05503 185 139 17 
0.456454 0.801772 3.00248 231 217 190 
0.398824 0.838484 3.02491 52 36 20 
0.552656 0.8255 3.02881 222 208 195 
0.461181 0.854422 3.00922 89 79 70 
0.514025 0.853114 3.03468 100 91 84 
0.480853 0.870346 3.04785 96 87 78 
0.452262 0.885863 3.01894 198 188 186 
-0.028665 -0.189792 2.23394 3 12 9 
0.654604 -0.242252 2.36957 85 62 31 
0.218454 -0.0848829 2.27374 83 59 23 
0.604251 -0.149391 2.46778 227 176 9 
0.126175 -0.0390505 2.13746 14 73 29 
0.154492 -0.0152546 2.15155 182 166 107 
0.14558 0.00333985 2.11874 87 63 35 
0.644096 -0.0367294 2.39492 102 98 95 
0.712178 -0.0438426 2.42407 11 9 10 
-0.539455 0.238744 2.60083 247 207 34 
-0.666524 0.312736 2.3835 243 226 206 
-0.649742 0.312848 2.40735 221 172 9 
0.355451 0.117119 2.63962 8 8 6 
-0.446291 0.297678 2.58826 136 103 10 
-0.537294 0.358448 2.56113 231 173 11 
-0.532129 0.37405 2.56344 229 182 8 
-0.605605 0.388648 2.39124 122 92 40 
-0.580024 0.401893 2.47997 142 86 9 
-0.619211 0.406572 2.37851 168 150 136 
-0.155043 0.530898 3.03144 22 0 0 
0.492109 0.476734 2.98806 170 132 9 
-0.175797 0.698956 3.08476 126 84 2 
-0.332195 0.753056 3.07985 123 111 89 
-0.34435 0.780295 3.08726 212 197 176 
-0.195514 0.744519 3.07853 221 176 12 
-0.516178 0.922731 2.94782 111 98 89 
0.547413 0.70988 3.11822 143 97 1 
0.461864 0.802416 3.0479 227 211 185 
0.506028 0.777076 3.05778 241 226 193 
0.536795 -0.252074 2.41717 40 37 4 
0.133298 -0.135575 2.25223 121 123 102 
0.137549 -0.121028 2.2608 115 116 100 
0.108308 -0.107808 2.18292 82 97 76 
0.084308 -0.056759 2.13956 203 173 119 
0.549536 -0.144062 2.43186 196 154 8 
0.054607 -0.0277409 2.06871 91 75 39 
-0.610548 0.183487 2.61581 86 40 4 
-0.66386 0.216079 2.46414 250 214 16 
0.654777 -0.0593275 2.40118 16 15 13 
-0.74492 0.293522 2.41228 135 102 7 
-0.661367 0.290852 2.43422 123 50 5 
-0.672026 0.304508 2.42265 236 186 11 
-0.692547 0.313246 2.39142 239 226 210 
0.184647 0.127004 2.48578 99 80 48 
-0.64413 0.348918 2.43538 129 75 1 
-0.503029 0.335416 2.57532 229 189 13 
-0.627551 0.369864 2.42571 237 197 11 
-0.710501 0.658757 3.39256 198 185 177 
-0.593266 0.724387 3.28532 198 187 181 
-0.602462 0.744308 3.25051 119 106 97 
-0.310203 0.726344 3.10625 230 212 176 
-0.179791 0.710098 3.09513 131 85 8 
-0.418764 0.851809 3.04859 104 91 82 
-0.612496 0.93072 2.93581 202 191 185 
-0.187198 0.884953 2.98309 134 121 112 
0.518362 0.776005 3.05734 245 230 201 
0.476836 0.788317 3.04512 143 105 6 
0.652187 0.784563 3.19005 144 131 115 
0.463257 0.839509 3.02688 221 209 185 
0.558291 0.832535 3.09706 94 74 41 
0.545903 0.829816 3.04007 218 205 186 
0.526474 0.875155 3.02793 211 202 195 
0.56784 0.984881 2.80369 152 141 135 
0.652819 1.02461 2.76255 158 147 143 
0.734309 -0.336743 2.39934 198 157 7 
0.066273 -0.157089 2.2087 79 16 11 
0.113672 -0.155005 2.2409 8 39 24 
0.190966 -0.0438296 2.25108 194 173 120 
0.0348305 0.0172595 2.05799 87 70 42 
-0.637794 0.237139 2.39484 221 209 185 
0.566088 0.00371673 2.42122 196 151 8 
-0.64745 0.305821 2.47781 227 152 11 
0.0639942 0.156607 2.332 104 91 75 
-0.635953 0.340635 2.42978 134 80 8 
-0.593461 0.369052 2.49078 232 156 10 
-0.632709 0.378609 2.38586 241 223 209 
-0.598401 0.719911 3.29243 197 187 178 
-0.297386 0.674233 3.13192 233 191 9 
0.438258 0.472679 2.96349 227 179 9 
-0.346525 0.715376 3.13656 109 75 1 
-0.252305 0.68545 3.10941 229 186 9 
-0.198508 0.731448 3.0774 219 169 12 
-0.245573 0.754331 3.06255 228 214 185 
-0.714372 0.884053 3.00889 204 193 191 
-0.363475 0.802342 3.07782 102 92 82 
-0.308333 0.79735 3.08128 92 83 76 
-0.525717 0.926547 2.94246 113 101 89 
0.505021 0.686906 3.07821 109 72 2 
0.497835 0.713614 3.04317 239 195 12 
0.566039 0.749314 3.0752 240 200 16 
0.404014 0.846107 3.00864 60 47 30 
0.462813 0.823397 2.96611 222 207 184 
0.561489 0.98975 2.81516 150 139 135 
0.712663 -0.239408 2.35996 243 236 218 
0.544309 -0.122903 2.43744 184 147 7 
0.774847 0.623185 3.47471 200 190 181 
-0.474426 0.901637 2.97932 100 87 79 
0.113052 -0.471654 2.46417 129 29 37 
0.647249 -0.305348 2.48278 222 207 176 
0.627345 -0.167718 2.47469 224 175 10 
0.592075 -0.103431 2.40222 187 148 8 
-0.673914 0.177002 2.50303 161 48 8 
-0.725692 0.289843 2.39364 142 102 14 
-0.680121 0.313272 2.40068 243 227 201 
-0.521995 0.301794 2.5366 235 197 28 
-0.638452 0.336601 2.43908 132 80 4 
-0.586457 0.340282 2.54317 131 94 3 
-0.627925 0.377366 2.39553 244 225 193 
0.437963 0.239333 2.68174 14 14 12 
-0.123457 0.71084 3.10751 218 168 9 
-0.304516 0.837156 3.07326 194 183 181 
0.767107 0.615838 3.4887 200 189 183 
0.583976 0.781059 3.04503 175 145 55 
0.510133 0.884013 3.03432 200 190 191 
0.0144643 -0.158172 2.20518 35 128 73 
0.636279 -0.155209 2.44736 232 186 12 
0.329187 0.0363943 2.62529 4 4 4 
-0.438431 0.333079 2.64643 75 75 65 
0.230437 0.232293 2.74889 126 98 15 
-0.32732 0.620157 3.1254 119 80 1 
-0.488899 0.938495 2.95338 200 187 181 
0.523836 0.799403 3.04449 238 226 200 
-0.555289 0.926491 2.93198 115 102 93 
0.540964 -0.0631836 2.45685 17 16 14 
-0.365459 0.770097 3.05296 104 92 80 
-0.28158 0.758018 3.08554 200 183 153 
0.160771 0.7761 2.96831 139 120 15 
0.43013 0.940849 2.91227 207 198 193 
0.553737 -0.315128 2.46277 232 223 216 
0.608204 -0.302728 2.43868 60 12 8 
-0.20875 -0.324652 2.40075 40 20 0 
0.604537 -0.289894 2.43943 52 9 0 
0.621552 -0.283469 2.42402 30 42 0 
0.685532 -0.278151 2.41414 98 94 33 
0.701648 -0.263604 2.39609 235 245 172 
0.634811 -0.264762 2.41613 47 54 3 
0.628556 -0.251682 2.4085 61 55 21 
0.654195 -0.250215 2.40185 39 35 0 
0.71866 -0.242393 2.37758 245 242 223 
0.725175 -0.239224 2.36837 248 242 230 
0.657778 -0.240677 2.40297 10 15 0 
0.617544 -0.244236 2.42501 33 23 0 
0.735902 -0.219791 2.34125 91 81 71 
0.658995 -0.227885 2.40167 21 14 0 
0.601551 -0.239494 2.469 47 26 0 
0.139067 -0.153169 2.26886 104 132 110 
0.13924 -0.146006 2.28172 124 130 116 
-0.0665253 -0.116501 2.29074 163 175 155 
0.659931 -0.0448677 2.41589 2 1 0 
-0.00847018 -0.0330643 2.05877 29 3 0 
-0.053561 -0.0336064 2.07323 179 156 124 
-0.046749 -0.0323343 2.06333 166 143 109 
-0.0120692 -0.0305669 2.06752 152 130 93 
-0.469088 0.184336 2.59234 177 150 43 
-0.436471 0.321112 2.64082 10 9 4 
-0.193203 0.424584 3.03462 142 89 0 
0.654729 -0.443955 2.51598 228 214 188 
0.652774 -0.429462 2.50335 170 131 52 
0.621323 -0.430579 2.50827 229 211 191 
0.710039 -0.410298 2.45794 243 223 198 
0.648298 -0.422907 2.53234 255 255 170 
0.623743 -0.419666 2.51666 132 91 11 
0.71045 -0.398158 2.46004 153 120 49 
0.705373 -0.391908 2.4756 255 255 147 
0.746574 -0.358044 2.42081 131 94 16 
0.773807 -0.35865 2.43828 255 243 163 
0.652198 -0.37857 2.5155 85 27 3 
0.64463 -0.377283 2.52373 85 31 5 
0.714371 -0.349994 2.4744 97 37 9 
0.703155 -0.347331 2.47305 90 35 5 
0.783003 -0.314886 2.4233 85 39 3 
0.494316 -0.353166 2.5528 13 9 8 
0.775637 -0.313887 2.43315 90 41 9 
0.596297 -0.308086 2.44722 133 75 74 
0.579228 -0.305958 2.45573 238 225 216 
0.581815 -0.297176 2.44428 67 12 9 
0.543162 -0.303969 2.49452 178 166 152 
0.492727 -0.315979 2.55563 18 18 10 
0.610561 -0.28667 2.43179 184 194 133 
0.587804 -0.281388 2.44369 51 0 0 
0.616615 -0.275713 2.42773 29 38 0 
0.597468 -0.276831 2.44251 41 0 0 
0.680682 -0.260924 2.39377 219 242 138 
0.66155 -0.260969 2.40818 77 87 24 
0.622716 -0.260159 2.42193 78 71 45 
0.587135 -0.265184 2.45078 141 63 43 
0.714154 -0.24102 2.35523 239 226 217 
0.669103 -0.249253 2.40372 63 43 10 
0.677905 -0.246263 2.38641 179 197 98 
0.689093 -0.245516 2.38344 237 246 193 
0.66269 -0.242205 2.39144 40 34 0 
0.634775 -0.243299 2.41634 201 180 159 
0.660479 -0.233262 2.39453 146 165 73 
0.708669 -0.226122 2.36826 32 38 12 
0.717969 -0.224369 2.36226 232 231 213 
0.793735 -0.222412 2.37326 246 236 227 
0.730569 -0.22179 2.36247 103 104 86 
0.80112 -0.216244 2.3624 68 63 59 
0.809115 -0.209428 2.36069 45 41 38 
0.592784 -0.236101 2.47312 197 154 26 
0.73383 -0.208056 2.34997 36 32 21 
0.813588 -0.198068 2.36828 20 15 9 
0.767805 -0.190385 2.34459 27 23 20 
0.815205 -0.18625 2.38377 10 7 2 
0.703239 -0.182764 2.37545 37 13 1 
0.766383 -0.17384 2.37129 11 7 6 
0.810161 -0.172983 2.38667 14 10 7 
0.715764 -0.175731 2.38397 136 104 89 
0.62665 -0.194928 2.48701 54 24 0 
0.73389 -0.167247 2.36525 131 121 111 
0.611344 -0.188057 2.47785 157 112 11 
0.80199 -0.157916 2.39256 22 15 9 
0.778923 -0.14472 2.36222 28 23 20 
0.758362 -0.144217 2.3578 30 25 21 
0.5963 -0.167549 2.50805 35 4 0 
0.693923 -0.150046 2.4439 225 181 32 
0.101858 -0.144834 2.25196 24 31 13 
0.711072 -0.140063 2.43128 226 184 38 
0.667614 -0.112878 2.41287 229 183 12 
-0.0863345 -0.135562 2.30066 67 27 27 
0.103389 -0.120881 2.25936 48 13 9 
0.533223 -0.120545 2.44284 178 151 34 
0.691542 -0.110472 2.4197 225 177 15 
0.633282 -0.109226 2.42525 107 56 0 
-0.0830899 -0.124121 2.29439 38 10 7 
0.528891 -0.11289 2.4528 14 17 10 
0.113748 -0.103854 2.26572 52 16 16 
-0.105275 -0.117805 2.31137 2 19 1 
0.624711 -0.093103 2.41601 76 31 0 
0.614862 -0.0871346 2.41942 171 142 25 
0.628726 -0.0835307 2.42232 175 148 35 
0.498197 -0.0759059 2.44406 41 40 36 
0.0222225 -0.045418 2.05891 227 201 144 
-0.0890532 -0.0478706 2.10578 46 35 7 
0.0403188 -0.0354359 2.07475 42 25 15 
-0.0980103 -0.0321037 2.11231 100 78 39 
0.513659 -0.0347776 2.45713 15 3 0 
0.666956 -0.0171329 2.40507 122 118 115 
0.0445875 -0.00884723 2.08446 175 153 104 
0.545951 -0.0113134 2.4308 194 161 30 
0.569404 -0.00570923 2.441 198 160 37 
0.580918 0.00334087 2.42166 187 155 34 
0.388325 -0.00617394 2.72832 13 3 2 
0.52486 0.0570806 2.45626 215 176 21 
-0.0310303 0.0632886 2.1681 35 0 0 
-0.320737 0.0328156 2.70234 29 21 8 
-0.380552 0.0698496 2.69416 57 54 47 
-0.339098 0.0726103 2.69194 115 114 110 
0.387303 0.129619 2.63502 145 123 24 
0.334399 0.12718 2.6545 82 81 79 
-0.514982 0.135427 2.60208 27 19 6 
0.593257 0.200172 2.63083 106 65 3 
-0.465768 0.142736 2.60555 61 57 54 
-0.500956 0.142153 2.60434 17 14 9 
0.435984 0.210854 2.66033 19 4 0 
-0.417392 0.171422 2.6624 13 6 0 
-0.451756 0.171416 2.60473 11 11 11 
-0.477782 0.176107 2.59295 204 171 30 
0.506505 0.241618 2.69493 25 24 19 
0.488859 0.241285 2.69599 23 18 15 
-0.361092 0.196705 2.74803 212 167 12 
0.408732 0.241636 2.73225 150 119 29 
0.500069 0.249272 2.70707 154 144 134 
-0.403816 0.204116 2.66799 13 2 0 
-0.367397 0.212696 2.74742 195 159 13 
0.468625 0.26368 2.69146 64 60 57 
-0.438825 0.255635 2.60446 137 112 30 
-0.434053 0.263361 2.61013 27 18 9 
-0.451415 0.273005 2.58159 113 72 8 
-0.433325 0.277791 2.60857 175 153 34 
-0.507702 0.27937 2.5873 171 120 0 
-0.485664 0.291851 2.59101 228 191 12 
-0.423393 0.305042 2.64538 112 109 104 
-0.505417 0.32753 2.56742 231 188 14 
-0.545633 0.33803 2.5471 234 192 20 
-0.596737 0.355097 2.48643 234 164 16 
-0.212952 0.422024 3.02666 219 180 17 
-0.155976 0.425374 3.03363 227 190 13 
-0.227962 0.423312 3.02704 111 68 0 
-0.244168 0.426994 3.01924 212 166 10 
0.433428 0.46803 2.95152 236 191 27 
-0.270894 0.43256 3.0167 213 173 15 
-0.206463 0.462578 3.00401 156 105 0 
-0.145026 0.47972 3.01413 86 41 2 
0.28334 0.510276 2.9661 50 17 2 
-0.147811 0.490583 3.01065 208 166 18 
-0.149982 0.512477 3.01827 180 140 16 
-0.150404 0.5327 3.03332 22 3 0 
0.286292 0.56543 2.98598 22 1 0 
-0.147035 0.543698 3.03779 158 132 21 
-0.147466 0.632736 3.08065 217 169 11 
0.538088 0.691232 3.07091 243 201 19 
-0.183604 0.647743 3.08243 213 172 20 
-0.293414 0.655538 3.11905 240 196 25 
-0.170026 0.681078 3.09512 229 190 27 
-0.557703 0.697917 3.30801 101 87 78 
-0.154331 0.712877 3.11361 228 183 20 
-0.313656 0.717999 3.1083 234 205 145 
0.474919 0.7827 3.02882 167 128 23 
-0.318255 0.744843 3.0745 229 213 187 
-0.326664 0.751785 3.067 143 127 102 
-0.290765 0.787679 3.0764 59 45 32 
-0.204259 0.814116 3.08894 91 69 32 
-0.196231 0.82511 3.09291 214 198 182 
0.581555 -0.251553 2.47646 114 61 30 
0.506701 -0.0513299 2.45091 3 3 1 
-0.522539 0.342481 2.56442 239 196 21 
0.731315 -0.425366 2.49298 173 162 142 
0.629581 -0.436314 2.53122 228 211 191 
0.773682 -0.359888 2.40308 126 98 35 
0.621139 -0.391162 2.55 118 90 7 
0.751211 -0.359985 2.42983 121 86 18 
0.653664 -0.381645 2.547 82 26 1 
0.546079 -0.315119 2.47555 219 209 200 
0.677776 -0.308591 2.48871 240 224 199 
0.590464 -0.292233 2.43611 91 45 45 
0.642412 -0.277338 2.43549 228 231 178 
0.691896 -0.25888 2.40409 40 53 0 
0.644177 -0.258013 2.42452 160 185 65 
0.666693 -0.23309 2.37917 158 183 63 
0.497465 -0.235226 2.36432 253 238 219 
-0.034104 -0.24211 2.26286 31 0 0 
0.634987 -0.235771 2.44893 26 18 7 
0.611769 -0.233582 2.43676 103 100 21 
0.792138 -0.207786 2.3804 35 34 32 
0.769307 -0.201146 2.35072 229 226 221 
0.0538115 -0.212405 2.24584 62 151 97 
0.762512 -0.186867 2.3302 25 21 18 
0.62279 -0.193841 2.47171 53 22 0 
-0.0217475 -0.179117 2.25161 57 146 90 
0.0461852 -0.169372 2.22366 46 134 83 
0.0559417 -0.1622 2.22086 18 9 0 
0.697979 -0.162119 2.44194 87 35 13 
0.610877 -0.152686 2.4901 234 189 10 
0.652484 -0.124645 2.43291 239 197 17 
0.669882 -0.122527 2.44992 126 75 12 
0.50305 -0.134153 2.49511 16 7 0 
0.630126 -0.109749 2.41406 111 60 0 
0.0386732 -0.048094 2.06009 228 204 144 
0.65684 -0.0489596 2.39278 14 12 13 
0.652249 -0.0362181 2.4081 108 107 103 
0.0413209 -0.0190423 2.07842 92 73 43 
0.672513 -0.0174358 2.41513 121 117 114 
0.72385 -0.0183948 2.46127 84 81 76 
0.403917 0.126513 2.59548 181 147 21 
0.391376 0.127625 2.64776 151 125 12 
0.332665 0.126639 2.63923 80 79 77 
-0.362787 0.0931265 2.7065 16 18 7 
0.471438 0.14881 2.5423 194 157 16 
0.464675 0.17656 2.5686 208 179 77 
0.587186 0.182345 2.62483 86 30 3 
0.399643 0.174003 2.62739 124 99 7 
-0.534081 0.13603 2.61178 242 207 63 
-0.488769 0.143473 2.61488 116 108 95 
-0.424042 0.167419 2.65532 10 4 4 
-0.563305 0.247132 2.599 113 63 10 
-0.407115 0.280846 2.68685 39 22 2 
-0.181068 0.396952 3.02035 108 72 0 
-0.201137 0.408464 3.03075 221 182 16 
-0.213618 0.410123 3.03492 105 68 0 
-0.136108 0.443629 3.00648 208 167 13 
-0.143827 0.4661 3.00364 101 61 10 
-0.149619 0.510777 3.00877 181 140 14 
0.804787 0.61698 3.45828 153 139 130 
-0.0879175 0.614939 3.12591 208 162 15 
0.510827 0.686107 3.05955 125 79 1 
0.533891 0.691056 3.05764 241 200 12 
-0.276876 0.739154 3.09061 163 116 0 
-0.0417666 0.772715 3.16444 94 77 57 
0.384167 0.809455 3.00381 190 171 141 
-0.311128 0.775496 3.06219 224 209 188 
0.475147 0.832812 3.01009 227 215 193 
-0.233483 0.829434 3.06171 97 90 80 
-0.264378 0.832018 3.06266 110 102 99 
-0.866433 0.850135 3.04154 208 199 194 
0.145505 0.936325 2.89429 145 132 123 
-0.812027 1.19933 2.47148 220 210 211 
0.0231964 -0.484056 2.32688 174 16 30 
0.673715 -0.431827 2.52631 239 210 54 
0.629659 -0.422924 2.52712 111 77 6 
0.733876 -0.402891 2.48018 240 209 57 
0.687078 -0.393858 2.4767 108 75 4 
0.748331 -0.374385 2.41277 215 197 173 
0.570957 -0.375706 2.52951 171 161 151 
0.711933 -0.350454 2.48517 90 33 4 
0.557039 -0.329601 2.45451 240 231 222 
0.0103598 -0.295693 2.25914 96 0 8 
0.0523961 -0.292031 2.25937 98 0 5 
0.639164 -0.278896 2.4067 225 230 176 
0.730183 -0.248261 2.38125 246 232 221 
0.508685 -0.263508 2.44282 244 236 223 
0.671973 -0.233828 2.39377 157 183 60 
0.648521 -0.234618 2.41547 62 23 8 
0.0694501 -0.233623 2.2533 27 0 7 
0.710733 -0.215921 2.36779 23 25 20 
0.668374 -0.219296 2.40498 58 43 20 
0.717053 -0.201805 2.35476 175 177 140 
0.605502 -0.219701 2.47315 167 127 3 
0.726991 -0.169424 2.38004 32 25 6 
0.698576 -0.163707 2.46892 115 66 10 
0.709986 -0.153463 2.40924 108 49 7 
0.676313 -0.155382 2.45798 231 183 15 
0.591017 -0.158129 2.47724 80 45 3 
0.528574 -0.106306 2.44211 6 9 2 
0.514065 -0.0846495 2.42698 88 87 83 
-0.0704524 -0.0534819 2.07342 226 200 141 
0.659473 -0.0547456 2.40372 13 13 13 
0.4205 0.049597 2.59054 214 175 18 
-0.372286 0.0349065 2.67087 136 133 128 
0.391187 0.0838745 2.62734 143 113 3 
0.471803 0.147703 2.53176 185 143 5 
0.463886 0.159253 2.56121 14 2 2 
0.584179 0.181351 2.61161 84 31 0 
-0.358492 0.163815 2.74753 205 158 16 
-0.440563 0.165013 2.62032 115 114 110 
-0.460469 0.174259 2.6078 7 7 7 
-0.74818 0.243733 2.38417 251 232 155 
-0.451627 0.286518 2.5769 213 167 12 
-0.480878 0.316575 2.58929 230 188 8 
-0.522294 0.346959 2.688 243 202 14 
-0.197978 0.407895 3.01894 215 176 11 
0.455675 0.451414 2.97634 119 84 3 
-0.299277 0.477424 3.02685 197 157 8 
0.825626 0.580324 3.50855 152 142 133 
-0.472052 0.647189 3.37868 201 188 182 
-0.496443 0.672973 3.38416 119 107 95 
-0.199388 0.675498 3.10137 230 178 14 
-0.307762 0.723205 3.0999 236 219 176 
-0.274015 0.740844 3.10211 182 137 8 
0.346192 0.768499 3.01266 107 69 4 
-0.593443 0.738851 3.22219 120 110 100 
0.582418 0.809871 3.10253 156 141 118 
0.462413 0.795661 3.00444 237 220 202 
0.466933 0.832293 3.00019 229 214 191 
-0.241965 0.796008 3.03357 218 206 184 
-0.657245 0.797107 3.12643 115 105 96 
-0.673998 0.804716 3.10395 203 192 186 
-0.356885 0.828908 3.07196 193 184 177 
-0.414371 0.8489 3.03429 113 103 93 
-0.45155 0.870241 3.00025 193 180 172 
-0.460377 0.903405 2.94376 110 97 89 
0.638514 0.00666233 2.42272 8 8 10 
0.407236 0.170172 2.65253 130 99 6 
0.132623 -0.405775 2.37389 173 160 144 
0.726156 -0.291509 2.4427 157 90 0 
0.595629 -0.296154 2.44642 67 9 5 
0.648931 -0.287138 2.42574 244 238 216 
0.0607633 -0.155774 2.23081 16 33 17 
0.115433 -0.152674 2.25055 28 41 23 
0.647209 -0.0283992 2.39368 106 105 101 
0.124551 -0.00566857 2.11765 207 184 130 
0.606626 0.000405235 2.44055 6 6 4 
0.379415 0.0622658 2.65379 8 7 3 
-0.407388 0.0959607 2.74266 215 170 9 
-0.526831 0.140895 2.59235 234 203 35 
0.446041 0.20477 2.64381 122 92 2 
-0.613448 0.158134 2.58979 249 208 22 
-0.409383 0.200716 2.66028 10 6 3 
0.19092 0.242164 2.67948 9 5 0 
-0.166341 0.375959 2.98086 109 71 6 
-0.135652 0.420846 3.02444 120 80 8 
-0.0246575 0.808776 3.1436 176 159 149 
-0.655243 0.799544 3.1409 116 106 97 
-0.334035 0.82084 3.08344 198 188 186 
0.649418 -0.460099 2.55513 219 204 183 
0.619212 -0.387445 2.5405 118 90 6 
0.6477 -0.373703 2.48521 149 101 17 
0.709765 -0.345458 2.4389 153 100 4 
0.502655 -0.328904 2.55303 7 7 7 
0.601373 -0.29538 2.46826 59 11 11 
-0.00363068 -0.219713 2.26209 75 163 112 
0.0431866 -0.214401 2.25292 58 155 101 
0.699998 -0.168375 2.42941 76 26 3 
0.699379 -0.132493 2.44089 230 182 22 
0.592349 -0.0947559 2.40457 194 154 4 
0.54311 -0.0912475 2.44319 10 10 12 
0.585815 -0.0728506 2.43029 2 2 2 
0.646077 -0.0549493 2.41051 10 10 10 
0.520722 -0.0468984 2.44701 13 13 13 
0.557166 -0.019021 2.43319 5 4 0 
0.571263 0.0106478 2.4337 200 159 7 
0.518721 0.0376642 2.46526 208 165 9 
0.4799 0.0583122 2.51768 82 43 2 
0.410781 0.0545025 2.59159 207 166 24 
0.504403 0.0751894 2.44384 111 79 4 
-0.448983 0.133925 2.64902 95 94 89 
0.387781 0.198941 2.72454 8 2 2 
-0.683834 0.167863 2.48251 213 92 13 
0.457792 0.692418 3.0259 118 78 6 
0.497704 0.842547 3.02788 69 58 52 
-0.00160267 0.886497 2.95957 186 173 164 
-0.487147 0.875775 2.97147 107 97 87 
-0.857779 0.865836 3.02525 207 196 194 
-0.362001 0.89152 2.98767 148 140 129 
0.666254 -0.153825 2.47796 230 186 17 
0.598384 -0.00993327 2.36596 9 8 14 
-0.499133 0.171622 2.58641 225 185 10 
0.509147 0.0107488 2.45217 204 163 9 
-0.525496 0.282965 2.58904 234 193 7 
0.160743 0.771608 2.92562 147 127 14 
0.517737 -0.177936 2.42195 127 93 4 
0.358967 0.155518 2.64375 16 11 8 
0.123144 0.470776 2.92076 11 49 26 
0.549959 -0.318415 2.45861 40 31 24 
0.564013 -0.309741 2.44646 36 26 16 
0.60194 -0.299857 2.41929 60 12 8 
0.581689 -0.291662 2.42771 59 9 10 
0.5475 -0.297179 2.45891 50 40 28 
0.551289 -0.284083 2.45983 168 155 138 
0.630449 -0.266251 2.3908 206 219 137 
0.645101 -0.261783 2.38099 32 51 0 
0.607683 -0.26296 2.40649 27 36 0 
0.623378 -0.250142 2.39341 61 55 21 
0.64821 -0.237019 2.37488 10 15 0 
0.649328 -0.224643 2.37367 21 14 0 
0.686712 -0.196374 2.3423 176 163 146 
-0.0689441 -0.115274 2.27233 163 175 155 
-0.436456 0.320772 2.63731 10 9 4 
0.613737 -0.426723 2.48472 229 211 191 
0.699346 -0.392065 2.42798 153 120 49 
0.703295 -0.344754 2.44261 97 37 9 
0.767969 -0.308723 2.38359 85 39 3 
0.573615 -0.303096 2.43789 238 225 216 
0.597029 -0.280242 2.41511 36 29 1 
0.58223 -0.278909 2.42605 51 0 0 
0.599916 -0.2654 2.41321 58 65 21 
0.657807 -0.244629 2.3708 63 43 10 
0.572686 -0.241163 2.45605 182 141 23 
0.619906 -0.192337 2.46598 54 24 0 
0.608537 -0.187427 2.46939 157 112 11 
0.684226 -0.147999 2.41684 225 181 32 
0.607771 -0.0856144 2.39786 171 142 25 
-0.740888 0.185068 2.48996 113 29 0 
-0.533242 0.247132 2.58727 177 128 0 
-0.244242 0.427031 3.02543 212 166 10 
-0.145236 0.433079 3.00201 219 178 24 
-0.271325 0.432011 3.01702 213 173 15 
-0.136595 0.441606 2.99966 209 168 14 
-0.140817 0.45475 2.9991 207 166 12 
-0.143989 0.465362 3.00327 101 61 10 
-0.145747 0.478468 3.00715 86 41 2 
-0.558207 0.69836 3.31326 101 87 78 
-0.290385 0.787515 3.07584 59 45 32 
-0.196312 0.825241 3.09763 214 198 182 
0.693397 -0.342217 2.44173 92 35 5 
0.653082 -0.229082 2.36444 150 174 64 
0.689187 -0.217986 2.35339 110 129 40 
0.75115 -0.18518 2.30216 25 21 18 
0.635572 -0.00773794 2.39529 76 76 74 
0.391986 0.145721 2.62059 125 96 4 
0.494992 0.177912 2.54759 123 90 9 
-0.487893 0.291079 2.59139 232 193 14 
-0.485737 0.302081 2.59546 132 85 17 
-0.201182 0.408233 3.02571 221 182 16 
-0.660892 0.369401 2.40483 91 41 0 
-0.14799 0.490674 3.00794 206 164 16 
-0.0885675 0.613809 3.11793 208 162 15 
-0.230359 0.65609 3.10064 108 66 0 
-0.530607 0.684571 3.33857 197 184 176 
-0.26417 0.8329 3.07044 110 102 99 
-0.49824 0.899497 2.96678 186 176 167 
0.65721 -0.21626 2.37328 58 43 20 
0.606598 -0.150132 2.46857 236 190 8 
-0.073512 -0.0528297 2.05118 226 200 141 
0.465205 0.0565596 2.55186 255 248 181 
-0.440846 0.164743 2.62068 115 114 110 
-0.46057 0.174613 2.60588 7 7 7 
0.921487 0.555754 3.57899 209 198 192 
-0.207607 0.461784 3.00147 162 112 1 
-0.714804 0.657893 3.40255 199 189 180 
-0.594246 0.740715 3.23713 120 110 100 
0.536782 -0.00754531 2.43103 205 166 13 
-0.70966 0.655766 3.38752 199 189 180 
-0.33753 0.717146 3.12131 117 86 3 
-0.244283 0.797992 3.04529 217 205 183 
-0.414158 0.849962 3.04794 114 104 94 
-0.461808 0.90124 2.95082 111 98 89 
0.52971 -0.00635229 2.44539 205 164 10 
-0.508982 0.124002 2.5952 56 51 47 
-0.649246 0.797718 3.13766 116 106 96 
0.411375 0.852262 2.99907 78 68 59 
-0.414065 0.842733 3.02993 115 105 95 
-0.857913 0.868704 3.03393 207 196 194 
-0.153066 0.770625 3.06571 144 110 10 
-0.305244 0.839805 3.08584 203 190 182 
-0.357666 0.888837 2.97613 140 130 118 
-0.304003 0.744371 3.08245 227 211 185 
0.121635 0.859216 2.99188 93 72 29 
0.117652 0.467876 2.88557 11 49 26 
0.64105 -0.265679 2.38176 188 220 93 
-0.863043 0.83759 3.08019 208 197 193 
0.0378388 0.0047452 2.06952 84 59 28 
0.5942 0.18367 2.64699 86 30 3 
-0.230602 0.655428 3.09676 108 66 0 
-0.341744 0.780358 3.07172 220 207 190 
0.920018 0.555439 3.5741 209 198 192 
0.534307 0.696319 3.06545 242 201 13 
-0.189543 0.740844 3.06284 228 185 8 
-0.562077 0.934705 2.87965 120 110 100 
0.811048 0.625092 3.46707 149 139 129 
-0.226382 0.719927 3.07573 148 92 0 
-0.306958 0.733941 3.08744 233 219 190 
-0.251862 0.837581 3.1135 106 99 91 
-0.359184 0.799784 3.068 102 92 82 
-0.516131 0.359601 2.55849 160 99 10 
0.436982 0.470229 2.95388 238 187 18 
0.146775 0.938095 2.90051 145 132 123 
-0.80487 1.19232 2.4361 220 210 211 
0.469208 0.833652 3.00953 229 214 191 
0.385133 0.842487 2.99374 188 173 154 
-0.413048 0.850205 3.04405 114 101 92 
-0.410686 0.838038 3.0355 116 104 90 
-0.20458 -0.328322 2.38737 29 12 0 
0.12557 -0.111312 2.24723 74 18 21 
-0.632408 0.361271 2.42259 238 192 10 
-0.206665 0.805559 3.04757 81 65 39 
-0.177206 0.811 3.07322 134 104 32 
0.478258 0.785858 3.03605 154 109 6 
0.982631 0.764619 3.17626 137 127 115 
0.470787 0.831067 3.00282 224 213 191 
0.551039 0.822636 3.01908 222 210 186 
0.442184 0.47134 2.95048 232 185 9 
-0.440588 0.910816 2.95756 188 175 169 
-0.193229 -0.329619 2.39524 138 112 77 
-0.206522 -0.321326 2.38614 38 25 9 
0.628403 -0.314611 2.42367 84 70 43 
0.0224591 -0.490986 2.30978 153 25 40 
0.189717 -0.0953025 2.27261 2 17 0 
0.167412 -0.0320053 2.18649 17 40 0 
0.341948 0.0862789 2.61877 108 107 102 
-0.553434 0.339199 2.55683 242 205 54 
-0.230501 0.727034 3.09666 141 85 0 
0.516593 0.748537 3.05375 139 89 0 
0.0673811 -0.0393991 2.05676 89 66 32 
0.68845 -0.0535113 2.3929 124 121 114 
-0.154908 0.564117 3.05396 61 30 2 
-0.180162 0.699239 3.0882 133 88 5 
0.226457 0.186792 2.53602 8 6 7 
-0.320922 0.745275 3.09145 230 215 192 
-0.190763 0.889876 2.99353 132 119 110 
0.548744 0.707214 3.10814 143 97 1 
0.561542 0.719841 3.11132 242 197 8 
0.557372 0.766878 3.04388 167 126 10 
0.763451 -0.202879 2.3078 40 40 38 
0.142854 -0.0331361 2.12406 16 88 38 
-0.676181 0.884819 3.00947 115 105 96 
0.551137 0.796016 3.03997 224 213 191 
-0.685923 0.314021 2.38908 241 229 207 
-0.625282 0.911721 2.96537 111 97 88 
0.655964 0.778285 3.17919 142 126 110 
-0.490885 0.881584 2.98822 96 86 76 
-0.489886 0.939022 2.95507 200 187 181 
0.612506 -0.3281 2.42839 239 227 215 
0.681465 -0.282484 2.36664 237 226 204 
0.667422 -0.259662 2.34749 174 213 84 
0.684656 -0.254857 2.3361 51 67 0 
0.71999 -0.256406 2.32922 214 224 137 
0.686414 -0.234489 2.32559 150 166 78 
0.716713 -0.224324 2.30201 52 55 24 
0.760832 -0.203767 2.29526 49 48 44 
-0.542869 0.428189 2.49436 226 162 38 
0.35098 -0.254752 2.29917 41 25 12 
0.775775 -0.30916 2.35155 82 32 0 
0.134522 -0.118989 2.24069 49 8 4 
0.547744 -0.226901 2.3661 80 26 0 
0.139051 -0.0935716 2.23342 30 48 36 
0.707324 -0.263167 2.34348 239 231 210 
0.235285 -0.0984293 2.26285 207 183 123 
-0.621231 0.227728 2.40671 167 129 48 
0.155589 0.0296864 2.11212 77 56 25 
0.225087 0.0220409 2.68386 65 66 61 
-0.560288 0.328367 2.55401 245 204 64 
0.704885 -0.050561 2.38847 107 106 102 
-0.554316 0.428461 2.49547 151 83 10 
0.239951 0.260288 2.66751 52 31 2 
-0.318227 0.72189 3.1243 237 216 171 
0.284381 0.50926 2.95753 32 3 8 
-0.277705 0.778921 3.04898 97 85 73 
0.536698 0.683665 3.07812 133 92 4 
0.489735 0.793778 3.02986 230 206 178 
0.553207 -0.332874 2.46591 238 234 223 
0.235225 -0.224164 2.34517 184 154 100 
0.086808 -0.0425074 2.05251 228 203 146 
0.182141 -0.0683374 2.23129 14 55 23 
0.232342 -0.0832627 2.23949 112 88 44 
0.0630381 -0.0156159 2.04726 166 148 98 
0.52483 -0.109965 2.41433 19 18 14 
-0.752274 0.291711 2.40982 126 96 24 
0.584257 -0.0916551 2.3854 4 3 1 
-0.641946 0.371557 2.38468 246 229 203 
-0.546628 0.376686 2.56072 131 77 0 
-0.542506 0.381485 2.57 226 175 6 
-0.539689 0.43609 2.50142 134 86 14 
-0.330836 0.714149 3.13026 129 96 15 
-0.699216 0.875373 3.04206 112 99 91 
-0.324964 0.749328 3.09235 241 226 205 
-0.17645 0.696466 3.08297 132 87 6 
0.424869 0.460663 2.95249 104 66 1 
-0.318134 0.780361 3.08243 213 200 181 
-0.464664 0.879227 3.01813 185 174 168 
-0.501278 0.901348 2.97281 186 173 165 
-0.207831 0.818581 3.10349 80 63 35 
-0.465536 0.91117 2.95661 108 98 89 
-0.238473 0.835035 3.08243 96 86 77 
0.520358 0.68546 3.05818 105 68 0 
0.473977 0.794028 3.02643 222 201 172 
-0.7196 0.247269 2.40349 174 131 52 
-0.721633 0.266237 2.39297 223 206 178 
-0.658731 0.315809 2.41766 229 181 19 
-0.663343 0.325058 2.40088 128 91 13 
-0.562863 0.361464 2.54933 190 144 7 
-0.492522 0.342667 2.56977 229 192 16 
-0.220581 0.696969 3.08903 147 94 0 
-0.467146 0.884403 3.03194 189 178 172 
-0.51721 0.921889 2.94823 113 100 92 
0.740947 0.608576 3.4878 199 189 180 
0.518736 0.745036 3.0488 124 73 0 
0.397763 0.799357 3.02195 91 61 11 
0.150941 0.935473 2.8927 141 131 122 
0.117427 -0.151647 2.21783 6 38 23 
0.0853871 -0.0735354 2.12672 25 127 61 
-0.646449 0.35084 2.4388 131 79 4 
0.0877818 0.137977 2.33977 61 0 7 
0.651883 -0.0389985 2.37112 105 104 100 
-0.719376 0.859541 3.05917 203 192 188 
-0.678013 0.886776 3.01187 119 110 101 
-0.338818 0.777992 3.08453 213 197 174 
-0.42293 0.853784 3.05487 108 96 84 
-0.370507 0.839597 3.10814 195 184 178 
-0.499972 0.908241 2.96521 198 183 176 
-0.444501 0.913791 2.96198 189 175 172 
0.481647 0.782874 3.02973 139 98 19 
0.448335 0.856534 2.96936 96 86 77 
0.478582 0.855241 2.99032 99 90 81 
0.637608 -0.279194 2.39631 233 235 196 
-0.686238 0.87892 3.03695 109 99 90 
-0.311747 0.737221 3.09749 242 229 212 
-0.362058 0.801777 3.07596 108 96 84 
-0.35096 0.833923 3.09203 195 181 180 
-0.518341 0.921847 2.93189 112 99 91 
0.402309 0.786101 3.01085 111 78 9 
0.659578 0.774203 3.17043 141 128 111 
0.52866 0.819394 2.99632 212 199 183 
-0.725156 0.85041 3.06324 205 194 192 
0.555746 0.696198 3.09334 150 107 3 
0.246925 -0.0965962 2.34921 136 114 67 
-0.674344 0.874174 3.03228 103 93 83 
-0.552828 0.934325 2.91147 117 104 95 
-0.24231 0.830748 3.09379 90 80 70 
0.511455 0.787121 3.04573 236 224 198 
0.42031 0.835741 2.96097 71 61 51 
0.459262 0.82162 2.97565 218 206 182 
0.50889 0.817081 2.95613 84 71 63 
-0.365138 0.789437 3.06343 109 96 87 
-0.492324 0.8824 2.98982 95 83 71 
-0.490598 0.938916 2.95553 198 187 183 
0.424584 0.849144 2.96276 81 71 62 
0.253486 0.823908 3.00908 88 67 36 
0.118577 -0.378136 2.27954 252 230 219 
-0.271784 0.433071 3.03028 220 177 21 
0.735044 -0.161977 2.28087 24 22 25 
-0.382283 0.0697845 2.69162 54 54 46 
0.466376 0.149862 2.53036 209 165 16 
-0.188325 0.405748 3.03996 228 189 6 
-0.213217 0.410415 3.05212 112 78 4 
-0.135611 0.442569 3.01326 213 174 9 
-0.140027 0.455398 3.01407 217 178 13 
0.538012 0.468113 3.0023 112 69 1 
-0.143212 0.465422 3.01428 111 64 8 
-0.145305 0.480601 3.02363 118 70 4 
-0.147659 0.491603 3.02316 206 163 6 
0.283188 0.510606 2.96352 67 30 0 
-0.156802 0.501916 3.02606 128 87 0 
-0.150431 0.524817 3.02863 16 2 0 
-0.17606 0.673063 3.09659 143 99 4 
-0.185796 0.672327 3.10308 128 85 0 
-0.196653 0.824775 3.09148 206 187 170 
-0.466292 0.881454 2.97992 166 154 142 
-0.643385 0.895165 2.95873 192 179 171 
-0.180071 0.430025 3.03572 233 191 9 
0.287001 0.563889 2.98656 24 6 2 
-0.205387 0.760013 3.07 180 131 3 
0.115033 -0.387903 2.29206 176 160 145 
0.498921 0.706457 3.05703 240 201 12 
0.344103 0.766909 3.00222 109 66 0 
0.493809 0.860294 3.0132 178 166 166 
0.469805 0.69568 3.05241 124 83 4 
0.548423 0.848223 3.01071 154 140 127 
0.513647 0.854656 3.01793 106 96 86 
0.469564 0.862707 3.00586 113 101 89 
0.445685 0.232503 2.67636 12 10 11 
-0.258481 0.793601 3.06648 226 214 190 
0.0364797 0.926918 2.87003 202 190 178 
0.449679 0.123453 2.50919 220 179 11 
0.665474 -0.227937 2.31232 63 85 0 
0.587809 -0.26648 2.39736 45 39 27 
0.631375 -0.230502 2.34732 57 29 5 
0.646866 -0.215785 2.33232 160 143 123 
0.693995 -0.202536 2.28114 200 202 178 
-0.349918 0.0684717 2.68243 52 51 46 
0.71191 -0.17973 2.27412 209 198 178 
-0.213368 0.41193 3.04546 112 78 4 
-0.150427 0.5349 3.04638 15 6 0 
-0.0870891 0.615602 3.12961 206 157 20 
-0.370045 0.118974 2.69605 255 251 236 
0.39748 0.791048 3.00909 125 89 1 
0.657087 -0.118663 2.38417 139 83 9 
-0.443957 -0.0569051 2.83866 132 128 127 
-0.494732 0.163508 2.59506 218 177 23 
-0.22685 0.724196 3.08802 161 103 3 
-0.179916 0.816162 3.0946 121 92 24 
0.496597 0.707808 3.04537 240 201 12 
0.452923 0.881064 2.99827 208 197 193 
0.631927 -0.268616 2.37027 94 116 8 
0.660949 -0.25088 2.34296 114 106 33 
0.606284 -0.267242 2.39082 95 115 18 
0.691372 -0.214034 2.31004 174 167 157 
0.665845 -0.225105 2.33385 71 98 0 
0.591026 -0.266971 2.40566 123 120 87 
0.683831 -0.21377 2.31802 72 82 29 
0.597733 -0.260612 2.39942 164 166 129 
0.614642 -0.251592 2.38609 193 180 161 
0.680743 -0.204563 2.3235 81 80 32 
0.669534 -0.211004 2.33523 50 60 0 
0.657522 -0.213018 2.34807 116 108 59 
0.751756 -0.355054 2.37077 255 240 145 
0.751208 -0.302902 2.36243 108 47 2 
0.67693 -0.251036 2.33418 230 242 180 
0.648398 -0.252357 2.35278 172 178 118 
0.698623 -0.221745 2.30621 49 45 42 
0.683333 -0.224123 2.31417 168 193 92 
0.614123 -0.261864 2.38301 95 91 64 
0.648078 -0.236151 2.34752 167 189 81 
0.625553 -0.245725 2.37336 210 186 174 
0.605389 -0.248374 2.39563 144 154 57 
0.617509 -0.23745 2.38791 20 16 4 
0.606405 -0.240024 2.40139 121 127 19 
0.699398 -0.187107 2.31111 44 4 2 
0.68005 -0.196245 2.33011 74 31 12 
0.689639 -0.189563 2.31997 41 22 16 
0.625289 -0.223745 2.39514 144 113 84 
0.607531 -0.186094 2.45484 179 132 14 
0.614772 -0.0890136 2.37958 124 83 0 
0.494458 -0.0742806 2.42 47 43 42 
0.503528 -0.0518177 2.41769 74 75 70 
0.493052 -0.043431 2.43141 13 13 15 
0.53707 0.0665532 2.42646 224 186 15 
0.531735 0.075046 2.43247 203 165 20 
-0.0479289 0.150093 2.3341 61 0 5 
0.460903 0.18361 2.53194 62 15 5 
0.405336 0.189584 2.62143 120 99 20 
0.438441 0.217276 2.63945 106 90 30 
0.44993 0.244571 2.65211 81 77 66 
0.281962 0.49315 2.95292 91 49 1 
0.64415 -0.429264 2.47243 169 130 51 
0.613511 -0.41491 2.47336 132 94 13 
0.646527 -0.224532 2.35774 179 152 131 
0.717224 -0.172373 2.30087 144 135 120 
0.633727 -0.218027 2.39426 35 16 2 
0.717412 -0.167561 2.30963 25 22 17 
0.642305 -0.211082 2.39338 45 26 9 
0.624821 -0.219105 2.41635 153 116 38 
0.531338 -0.105905 2.41137 30 23 4 
0.59373 -0.0683838 2.36178 29 22 4 
0.630105 -0.00384776 2.37779 84 84 74 
0.511517 -0.0249908 2.43029 187 159 34 
0.500394 -0.0281393 2.43844 174 149 22 
0.570248 0.00806241 2.38018 195 161 27 
0.558903 -0.000664425 2.40529 211 170 16 
0.463924 0.0590701 2.5311 222 181 15 
0.477263 0.0700152 2.52876 70 23 7 
0.480817 0.0800995 2.52457 198 162 16 
0.0266691 0.163892 2.32521 125 112 93 
0.45871 0.0774212 2.5494 255 255 204 
-0.218302 0.0209853 2.71103 77 58 0 
0.399946 0.130483 2.58268 201 165 25 
0.432222 0.24233 2.65699 8 8 6 
-0.53094 0.345659 2.55076 124 61 7 
-0.225244 0.423402 3.03638 127 88 9 
0.614211 -0.428144 2.46615 224 212 186 
0.669694 -0.390549 2.42578 150 112 27 
0.659538 -0.238622 2.34217 170 208 69 
0.708922 -0.194919 2.2922 33 32 30 
0.537065 -0.00674041 2.40107 211 176 20 
0.523869 0.0677234 2.43705 83 46 0 
-0.0383132 0.155493 2.33488 125 110 87 
