ply                 
format ascii 1.0    
element vertex 1263
property float x    
property float y    
property float z    
property uchar red  
property uchar green
property uchar blue 
end_header          
0.201788 -0.0933263 2.29293 73 54 24 
0.0492312 -0.0457448 2.05463 210 185 129 
0.0343741 -0.0404784 2.02692 32 17 0 
0.0644402 -0.0434947 2.09676 217 193 133 
0.026929 -0.032635 2.05511 159 143 109 
0.618938 -0.0936491 2.40284 95 51 0 
0.108923 -0.026797 2.10973 100 76 30 
0.608226 -0.0855481 2.40616 161 133 26 
0.628765 -0.0783821 2.39931 169 143 22 
0.140838 0.0014456 2.13449 83 59 25 
0.649913 -0.0455782 2.39516 4 3 1 
0.214139 0.0164682 2.25791 62 39 8 
-0.514016 0.0967314 2.69714 220 182 37 
0.576873 -0.0048965 2.41256 13 5 2 
-0.538753 0.134616 2.61625 235 202 61 
-0.501762 0.140475 2.61014 21 19 7 
-0.469504 0.142589 2.60928 65 64 60 
-0.438126 0.152913 2.62926 61 58 49 
0.363559 0.0793501 2.63314 103 103 93 
0.338122 0.0864545 2.63665 105 102 95 
-0.604064 0.202934 2.59404 234 191 26 
0.3592 0.106297 2.63176 84 79 73 
-0.586864 0.214079 2.57846 71 47 3 
-0.619437 0.226299 2.40903 186 155 90 
-0.587423 0.227748 2.62366 71 43 4 
-0.578396 0.235579 2.59474 228 191 24 
-0.398837 0.235483 2.68462 153 126 35 
-0.441098 0.256624 2.60735 130 104 17 
-0.606844 0.282432 2.55965 58 19 0 
-0.509886 0.279532 2.59057 177 125 5 
-0.453736 0.273052 2.58219 104 65 10 
-0.435403 0.277149 2.60993 168 142 23 
0.464814 0.169819 2.56629 12 2 0 
-0.426488 0.306197 2.65091 114 110 107 
-0.481311 0.310376 2.59603 234 181 15 
-0.656399 0.322157 2.40037 137 99 14 
-0.426839 0.312235 2.63331 10 6 3 
-0.442575 0.317553 2.63642 9 4 0 
-0.51561 0.328763 2.56678 100 42 5 
-0.548124 0.338481 2.55106 235 193 33 
-0.534742 0.344843 2.5685 57 9 0 
-0.503322 0.347986 2.56606 142 76 0 
-0.549703 0.354017 2.55574 52 9 0 
0.446383 0.242311 2.6701 15 12 7 
-0.519301 0.360233 2.56504 142 76 2 
-0.614382 0.409343 2.37674 160 142 122 
-0.208422 0.462707 3.00681 148 99 0 
-0.185496 0.459382 3.01008 139 85 0 
-0.142481 0.455543 3.00595 198 157 17 
-0.147344 0.477683 3.01188 105 59 7 
-0.181682 0.49756 3.00457 224 181 17 
-0.174917 0.517145 3.01076 114 73 0 
-0.151842 0.532323 3.03095 22 4 0 
-0.149707 0.543378 3.04178 150 120 22 
0.446639 0.468759 2.9701 231 188 23 
0.280564 0.51074 2.96683 30 5 0 
-0.185494 0.647093 3.07898 201 158 19 
-0.177206 0.671471 3.09053 125 74 0 
-0.218387 0.690692 3.08944 153 96 6 
-0.105162 0.703082 3.09836 227 184 20 
-0.320565 0.746573 3.08335 224 208 183 
-0.869309 0.850752 3.05699 201 190 186 
-0.205928 0.76011 3.07018 143 105 8 
-0.291377 0.786979 3.07785 72 59 50 
0.482027 0.819463 3.04079 95 79 63 
0.504164 0.826992 3.01549 213 199 188 
-0.601123 0.356195 2.49393 220 147 8 
0.641886 -0.453285 2.50192 234 226 205 
0.613127 -0.427031 2.48295 214 204 179 
0.644433 -0.425697 2.48816 170 133 42 
0.615819 -0.415442 2.48915 124 94 24 
0.569728 -0.370406 2.52336 165 159 147 
0.751196 -0.358679 2.41307 134 104 32 
0.623111 -0.285585 2.40766 91 92 52 
0.706248 -0.197727 2.32502 97 100 73 
0.712557 -0.188625 2.31846 27 22 18 
0.608433 -0.188196 2.47859 148 103 12 
0.129924 -0.115284 2.28478 115 118 101 
0.596497 -0.167473 2.50264 50 18 0 
0.591794 -0.154716 2.48024 63 32 11 
0.189625 -0.102332 2.28953 99 94 62 
0.108578 -0.0929401 2.26802 5 27 6 
0.131371 -0.0918002 2.2496 16 43 26 
0.659366 -0.120607 2.42486 139 81 8 
0.667105 -0.111206 2.41706 227 179 11 
0.684103 -0.109904 2.40106 217 170 2 
0.16742 -0.0433573 2.24917 9 24 0 
0.494469 -0.0760901 2.44729 50 49 45 
0.62125 -0.0836022 2.40552 181 152 24 
0.0404152 -0.0092711 2.08005 152 133 93 
0.150895 -0.0167114 2.16152 177 164 109 
0.033442 0.00496151 2.0826 76 57 27 
0.149255 -0.00649388 2.13293 189 169 116 
0.658549 -0.0527192 2.40072 12 10 11 
0.541115 -0.0120156 2.42725 201 169 22 
0.659856 -0.0169448 2.39338 120 118 119 
0.563563 -0.00681892 2.43172 192 161 19 
-0.602819 0.172446 2.61397 106 50 3 
0.345549 0.0792358 2.63477 41 38 33 
-0.46397 0.171477 2.60664 3 2 0 
-0.605369 0.193019 2.61499 90 45 4 
-0.458934 0.19339 2.60184 15 6 1 
0.356361 0.115303 2.6261 12 8 9 
-0.406932 0.204101 2.6731 12 2 0 
-0.588013 0.237133 2.58108 164 120 13 
-0.580208 0.232502 2.43963 105 59 0 
0.401831 0.12681 2.60378 182 148 24 
-0.393642 0.224652 2.70221 181 144 3 
0.381733 0.13953 2.63829 17 9 6 
-0.730956 0.26205 2.37618 142 127 108 
-0.534924 0.247613 2.59182 176 128 4 
-0.71419 0.267127 2.39237 220 199 168 
0.223126 0.189909 2.55334 23 19 18 
0.398474 0.174283 2.63799 132 101 11 
-0.487384 0.291106 2.59042 227 183 12 
0.466625 0.178759 2.58423 205 171 63 
-0.486568 0.302035 2.59801 114 62 5 
-0.418029 0.299611 2.68292 95 92 83 
-0.498124 0.310661 2.57032 99 44 0 
0.189071 0.230756 2.5387 15 13 14 
-0.556613 0.327874 2.55307 226 184 14 
-0.505433 0.327411 2.56907 227 185 13 
-0.47022 0.328792 2.59791 221 174 6 
-0.561518 0.337855 2.54958 127 85 1 
-0.667171 0.344255 2.38335 164 146 124 
-0.663665 0.369121 2.4112 115 70 2 
-0.610787 0.377029 2.38457 241 222 179 
-0.60305 0.385648 2.39157 119 91 17 
-0.273055 0.433606 3.02581 207 168 15 
-0.183907 0.429983 3.02013 220 178 14 
-0.13788 0.443391 3.00511 201 159 23 
-0.175544 0.470795 3.01286 159 108 1 
-0.173433 0.482816 3.00759 220 174 19 
-0.150448 0.490773 3.01721 188 146 10 
-0.15167 0.512061 3.01987 162 126 14 
0.46694 0.47703 2.96752 133 92 4 
0.53854 0.485211 3.019 47 11 0 
-0.531089 0.684174 3.33841 193 180 172 
-0.559499 0.699037 3.31631 97 84 75 
-0.0904422 0.614558 3.12568 196 152 19 
-0.138582 0.624973 3.11055 200 155 12 
-0.576895 0.722715 3.26229 191 181 172 
-0.230638 0.655323 3.09989 111 68 0 
-0.207474 0.659427 3.09889 123 78 0 
-0.178923 0.681889 3.08339 220 176 7 
-0.323658 0.710264 3.11876 127 91 3 
-0.315709 0.721008 3.12249 233 207 158 
-0.279232 0.742216 3.10897 161 114 8 
-0.329118 0.754178 3.08022 124 108 83 
-0.343644 0.781072 3.0789 215 199 186 
-0.31334 0.777034 3.07429 215 200 181 
-0.291637 0.795414 3.05819 92 79 73 
-0.23695 0.792389 3.02655 208 193 172 
-0.359627 0.828741 3.08602 186 173 164 
-0.683137 0.866429 3.01656 101 91 82 
-0.18184 0.814691 3.09204 134 104 32 
-0.197722 0.826754 3.10119 206 190 174 
-0.26597 0.834116 3.07682 109 98 94 
-0.457583 0.871483 3.0325 188 176 164 
-0.646013 0.896498 2.96987 187 176 170 
-0.500329 0.900559 2.97265 182 168 159 
0.508237 0.770021 3.04441 246 224 177 
-0.45855 0.906829 2.94391 109 96 87 
0.487985 0.803848 3.03689 225 209 183 
0.495218 0.812907 3.02956 221 205 179 
0.452573 0.813498 2.98538 222 208 182 
0.472863 0.832281 3.01204 215 204 184 
0.545308 0.866325 3.0331 145 134 130 
0.454468 0.882704 3.01187 196 186 184 
0.761508 -0.353133 2.36665 150 114 36 
0.723173 -0.193586 2.32114 214 210 198 
0.60411 -0.150595 2.47263 236 185 18 
-0.146173 -0.0563848 2.19272 217 192 138 
0.533139 -0.122024 2.44445 181 147 11 
0.523811 -0.108793 2.44795 11 9 14 
0.622761 -0.109643 2.40184 136 86 0 
0.515824 -0.0867435 2.43557 93 92 90 
0.0615777 -0.0236792 2.09497 255 255 227 
0.644937 -0.0363054 2.39675 109 108 104 
-0.532959 0.138528 2.60874 237 200 24 
-0.626401 0.198803 2.5554 227 184 17 
0.124522 0.118558 2.38938 53 0 8 
-0.560594 0.260169 2.57785 227 183 16 
-0.494989 0.291423 2.59631 229 186 9 
-0.453498 0.286633 2.57992 204 163 13 
-0.668331 0.312576 2.38851 244 226 190 
-0.651645 0.313164 2.4128 213 170 13 
-0.419009 0.306228 2.64248 103 99 96 
0.268093 0.239046 2.79021 49 18 0 
-0.520712 0.343306 2.57095 235 192 18 
-0.617323 0.357856 2.44213 102 43 0 
0.767066 0.462019 3.75812 187 177 167 
0.400946 0.442587 2.99253 190 153 10 
-0.127214 0.612671 3.11305 99 60 3 
0.285153 0.561009 2.97272 39 14 0 
-0.200706 0.675229 3.10007 224 176 8 
-0.174573 0.698399 3.08466 131 91 3 
-0.668282 0.805782 3.16539 117 105 93 
-0.858157 0.835467 3.08189 201 190 188 
-0.190916 0.741546 3.06948 222 178 7 
0.536601 0.696483 3.07691 246 199 7 
-0.206519 0.812592 3.09027 76 61 28 
-0.44217 0.909513 2.95335 188 175 169 
0.552586 0.794283 3.03621 230 214 198 
0.402382 0.837588 3.01244 49 36 19 
0.577734 -0.00659097 2.42493 5 5 5 
0.669305 -0.37403 2.45101 208 165 8 
0.570682 -0.342097 2.47253 239 235 223 
0.697804 -0.345548 2.45891 93 35 0 
0.557389 -0.327477 2.46118 241 233 220 
0.0399718 -0.165529 2.21234 36 127 70 
0.716936 -0.207311 2.32414 35 32 25 
0.623635 -0.197869 2.46799 56 32 8 
0.525172 -0.106314 2.4375 12 10 13 
-0.0182445 -0.0337821 2.0621 66 49 6 
0.0373271 -0.0358049 2.06086 29 17 1 
0.0494397 -0.0277921 2.08365 93 76 46 
-0.604438 0.191139 2.56633 100 57 15 
-0.626219 0.206616 2.42906 249 211 12 
0.18318 0.127666 2.49439 94 78 42 
-0.433189 0.239728 2.61691 2 4 1 
-0.686764 0.30734 2.44751 240 199 9 
-0.581793 0.352615 2.51013 107 52 0 
0.242875 0.266808 2.696 81 59 12 
0.765901 0.427992 3.83302 184 174 165 
0.440313 0.468787 2.95252 232 185 9 
-0.584093 0.719301 3.26824 193 182 176 
0.9207 0.556613 3.57951 205 194 188 
-0.295367 0.664395 3.1311 234 188 6 
-0.594481 0.74048 3.23669 116 104 92 
0.83275 0.583296 3.51465 147 137 128 
0.745087 0.607932 3.48352 204 194 185 
0.778159 0.625981 3.45823 206 196 187 
0.80991 0.621907 3.4688 147 137 127 
-0.228417 0.721314 3.08414 153 99 13 
-0.6597 0.801278 3.14853 115 103 91 
-0.319537 0.778511 3.08284 212 197 176 
-0.299744 0.79347 3.06804 82 73 68 
-0.70627 0.851877 3.03964 196 185 179 
-0.272779 0.799081 3.07246 207 195 169 
0.496472 0.708302 3.05098 242 198 13 
-0.409587 0.84602 3.03122 108 96 84 
0.515932 0.780086 3.07719 244 231 197 
-0.600698 0.924386 2.91675 204 193 187 
-0.50974 0.920197 2.93112 111 101 91 
0.462758 0.80099 3.03228 233 217 191 
0.98476 0.772229 3.19338 135 125 113 
0.559439 0.854694 3.06321 151 138 130 
0.474424 0.86846 3.04779 99 86 80 
0.157977 0.937699 2.95912 203 193 183 
0.679756 1.19341 2.44979 165 156 149 
0.693036 -0.414809 2.43263 237 225 201 
0.613155 -0.145211 2.47023 236 189 11 
0.0665371 -0.0268711 2.11323 215 191 131 
0.577615 -0.0766825 2.42131 4 4 6 
0.512743 -0.0459413 2.45038 9 7 8 
0.326902 0.0881696 2.63639 89 86 79 
0.354105 0.088973 2.63379 99 97 85 
-0.449837 0.187446 2.61127 7 9 8 
-0.638308 0.340466 2.43568 129 75 3 
0.777623 0.461886 3.74425 189 180 171 
-0.312038 0.637005 3.12444 115 77 4 
-0.589904 0.716212 3.27743 193 182 176 
0.879993 0.565917 3.57822 148 138 129 
-0.246209 0.683433 3.09815 232 186 12 
-0.345519 0.715297 3.13744 111 78 1 
-0.192193 0.683871 3.09145 219 174 10 
0.775538 0.619444 3.46712 206 195 189 
-0.307603 0.734168 3.0919 227 211 178 
-0.197021 0.730506 3.07663 214 169 6 
-0.294739 0.828791 3.06588 193 182 178 
-0.704197 0.880452 2.99417 202 191 187 
-0.25622 0.833813 3.09314 100 90 81 
0.567244 0.728931 3.14084 244 204 10 
-0.513811 0.919626 2.92189 112 99 90 
0.646718 -0.0573638 2.39873 15 14 12 
-0.566173 0.299159 2.56166 122 85 4 
-0.575258 0.348586 2.50296 124 80 7 
0.589772 -0.290313 2.44057 135 75 65 
0.36024 0.135665 2.6375 19 15 6 
0.151027 0.182218 2.46762 129 109 76 
-0.702218 0.318842 2.43669 241 226 207 
-0.578125 0.337309 2.53142 123 88 4 
-0.491638 0.339053 2.60156 228 182 11 
0.475455 0.523416 2.95424 197 155 7 
0.768385 0.610876 3.47407 205 195 186 
-0.155189 0.682681 3.09362 128 91 3 
-0.177728 0.773831 3.0772 136 107 7 
-0.428561 0.85517 3.08059 109 97 85 
-0.301377 0.835674 3.06907 193 182 176 
-0.242235 0.831375 3.09223 89 80 71 
0.499483 0.7206 3.05383 239 197 14 
-0.441214 0.874136 3.01859 188 178 169 
0.62024 0.791438 3.16837 218 206 194 
0.368298 0.80962 3.01583 172 157 126 
0.738195 0.792528 3.16835 151 139 127 
0.411146 0.846715 2.98334 72 60 48 
0.545546 0.863648 3.05032 150 137 131 
0.364119 0.928345 2.94571 129 119 107 
-0.441781 0.334376 2.65597 76 74 62 
0.479795 0.537819 2.96107 193 152 10 
-0.2774 0.681017 3.11727 229 188 10 
-0.252597 0.768323 3.08796 226 209 179 
0.606887 -0.0188221 2.40797 6 7 9 
0.742957 0.78233 3.163 152 140 128 
-0.609139 0.307125 2.54166 118 76 2 
-0.306761 0.731121 3.11556 227 207 170 
-0.258446 0.744553 3.03209 230 210 177 
-0.307084 0.858599 3.05421 193 182 176 
-0.557604 0.327668 2.55486 224 183 17 
-0.46177 0.877892 3.01857 188 176 164 
-0.471228 0.886002 3.0024 149 139 130 
-0.649625 0.898677 2.97834 180 170 161 
0.0650854 0.118379 2.1218 48 0 6 
-0.236528 0.832694 3.08441 92 83 76 
-0.70981 0.856444 3.05023 192 181 179 
0.473673 0.861588 3.01059 105 98 92 
0.456741 0.831119 2.9907 224 211 192 
0.0374477 0.939452 2.91441 196 183 175 
0.341661 0.901294 2.93328 135 122 113 
0.609852 -0.285176 2.41819 75 89 10 
0.696023 -0.237058 2.34748 191 214 136 
0.679431 -0.227711 2.35433 63 85 0 
0.112375 -0.104831 2.26936 43 5 2 
0.323275 -0.0720622 2.71681 173 150 44 
0.612615 -0.0797786 2.41101 19 10 0 
-0.588446 0.22779 2.62618 71 43 4 
-0.60736 0.282542 2.56092 58 19 0 
-0.436019 0.277173 2.61163 168 142 23 
-0.171451 0.680584 3.09973 208 168 34 
-0.330286 0.756364 3.08839 124 108 83 
-0.290751 0.78687 3.07579 72 59 50 
0.466671 0.788572 3.02601 231 204 175 
0.479306 0.796178 3.0457 139 107 48 
-0.60461 0.193372 2.61842 97 49 0 
-0.0286845 -0.177969 2.23606 47 129 81 
0.125185 -0.14812 2.26063 21 50 32 
0.0987351 -0.11995 2.25117 49 15 13 
0.095821 -0.0991949 2.2589 154 169 146 
0.518724 -0.0994274 2.4353 17 18 20 
-0.562387 0.338392 2.55212 127 85 1 
-0.551161 0.353339 2.56087 56 16 4 
-0.218777 0.693019 3.09033 143 88 0 
-0.155721 0.714702 3.12451 220 174 16 
-0.321665 0.74786 3.09186 225 209 184 
-0.865993 0.838986 3.08964 199 188 182 
-0.459215 0.872637 3.0378 188 176 164 
-0.459857 0.876772 3.01544 188 178 169 
-0.502159 0.902282 2.97871 182 168 159 
-0.601594 0.924879 2.93265 194 183 177 
0.144158 0.940379 2.91067 143 133 124 
0.0450286 -0.00962334 2.0761 157 136 89 
0.0348787 0.00591781 2.07451 67 50 20 
-0.658528 0.324224 2.39978 136 100 26 
-0.669379 0.340777 2.38482 160 145 126 
-0.605743 0.388373 2.39507 117 91 32 
-0.31226 0.724227 3.11981 232 208 172 
-0.667961 0.804575 3.16363 117 105 93 
-0.315196 0.776377 3.0775 214 199 180 
-0.687643 0.87144 3.033 102 92 83 
-0.444654 0.911855 2.96182 188 175 169 
0.016039 -0.0460819 2.03985 219 193 136 
-0.598192 0.742562 3.2481 116 104 92 
-0.21032 0.812767 3.09772 72 57 26 
-0.413428 0.848758 3.04427 108 96 84 
-0.233653 0.830292 3.07918 92 84 73 
-0.198029 0.731341 3.08117 214 169 6 
-0.533009 0.305517 2.55459 225 183 9 
0.177646 0.925779 2.9221 204 191 183 
0.456537 0.808031 3.0067 190 176 147 
-0.687816 0.176134 2.50164 203 87 14 
0.548847 -0.319713 2.47101 75 64 60 
0.594923 -0.308255 2.44064 254 241 233 
0.566356 -0.300614 2.45445 99 89 80 
0.61143 -0.294074 2.42851 108 106 83 
0.640254 -0.266761 2.39249 176 214 77 
0.625525 -0.263753 2.40422 44 53 0 
0.678043 -0.264197 2.37709 197 228 88 
0.658267 -0.260455 2.38123 174 215 77 
0.683906 -0.258544 2.37127 42 70 0 
0.695067 -0.259965 2.37253 237 239 202 
0.540637 -0.232324 2.4078 224 186 43 
0.662573 -0.251605 2.37426 187 197 111 
0.702224 -0.247941 2.35663 210 227 121 
0.667621 -0.235532 2.36684 52 77 0 
0.710781 -0.235404 2.34293 239 236 219 
0.707705 -0.22409 2.33792 65 70 40 
0.721513 -0.221208 2.32893 232 226 212 
0.692721 -0.205544 2.34277 163 158 139 
-0.53513 0.351094 2.57474 115 55 0 
0.64271 -0.436351 2.48312 246 231 202 
0.613293 -0.41604 2.50325 108 76 15 
0.225965 -0.223677 2.36598 188 157 111 
0.602594 -0.284374 2.42363 172 187 104 
0.767327 -0.309894 2.38999 81 35 0 
0.756131 -0.307547 2.39314 90 42 6 
0.608448 -0.273993 2.417 9 18 0 
-0.190797 -0.119694 2.32272 99 75 31 
0.648577 -0.259028 2.38901 61 71 11 
0.098409 -0.144889 2.24354 15 34 15 
0.114002 -0.131603 2.24971 36 0 0 
0.134045 -0.114121 2.27496 111 115 98 
0.695214 -0.223099 2.34326 32 36 19 
0.726561 -0.212094 2.32288 237 233 221 
0.212249 -0.0963866 2.28789 195 174 127 
0.180254 -0.0789029 2.26952 171 161 112 
0.203355 -0.0829639 2.26601 82 63 31 
0.053727 -0.0376668 2.04873 129 111 75 
0.116527 -0.0458945 2.14448 170 168 117 
0.112378 -0.0270404 2.10057 64 39 8 
0.169771 -0.0430411 2.24353 23 41 3 
0.316543 -0.071588 2.73222 178 149 23 
0.622907 -0.113752 2.40376 141 93 8 
0.659482 -0.120167 2.43016 134 74 11 
0.617467 -0.0937412 2.41183 95 52 1 
0.617658 -0.0831914 2.41941 165 140 22 
-0.645428 0.172558 2.58075 177 105 0 
-0.639195 0.184602 2.58395 168 104 4 
0.215741 0.0151735 2.25205 50 29 8 
-0.620174 0.194127 2.5654 109 52 7 
-0.610042 0.204103 2.60422 238 202 46 
0.658992 -0.0526904 2.40284 7 5 6 
0.649371 -0.0460245 2.3978 4 2 3 
0.687078 -0.0535185 2.41776 121 118 111 
-0.71947 0.245233 2.40691 183 140 45 
-0.617616 0.22683 2.40659 164 132 45 
-0.59023 0.227872 2.62827 53 28 0 
-0.583482 0.232426 2.44533 88 36 0 
-0.582399 0.236378 2.60163 236 199 48 
-0.592357 0.238986 2.59132 174 131 18 
-0.584636 0.245703 2.59379 36 8 0 
-0.566862 0.258204 2.58248 238 200 77 
-0.608252 0.282498 2.56188 68 23 0 
0.635624 0.00896007 2.40865 8 10 0 
-0.441373 0.256292 2.60765 136 108 24 
-0.456434 0.273716 2.5872 106 66 5 
0.690411 0.0206111 2.45076 16 6 0 
-0.437158 0.277275 2.61307 173 148 29 
-0.489368 0.29297 2.59761 241 194 42 
-0.561645 0.329108 2.55994 246 207 50 
-0.515635 0.329373 2.56721 101 41 5 
-0.448761 0.318855 2.64794 8 2 4 
-0.589996 0.351677 2.48375 234 159 14 
-0.64252 0.362866 2.4263 243 197 24 
-0.505914 0.348841 2.57077 152 88 1 
-0.549801 0.3623 2.57064 226 177 22 
-0.521801 0.361 2.56949 153 84 15 
-0.611436 0.377164 2.38804 245 224 177 
-0.554522 0.418013 2.49089 230 159 15 
-0.212736 0.464539 3.01784 150 98 0 
-0.153864 0.545658 3.05315 142 112 16 
-0.157804 0.56632 3.06593 61 28 0 
-0.301627 0.66052 3.14917 226 183 18 
-0.15506 0.638428 3.10466 201 159 15 
-0.319673 0.721943 3.1304 230 206 158 
-0.231868 0.728343 3.1036 141 85 0 
0.532049 0.513092 3.02954 72 40 0 
0.515014 0.751815 3.06854 139 89 0 
0.449096 0.815811 2.99987 229 213 190 
0.63711 -0.418478 2.50968 255 255 159 
0.0568714 -0.246702 2.23907 156 39 55 
0.75638 -0.354004 2.36379 145 127 77 
0.762581 -0.352821 2.37446 134 95 18 
0.134958 -0.152429 2.26857 112 117 97 
0.127381 -0.148715 2.25676 11 49 28 
0.100716 -0.121103 2.24743 49 16 11 
0.119926 -0.107433 2.25805 57 17 17 
0.110168 -0.0931182 2.2637 16 34 18 
0.717808 -0.204697 2.32194 33 29 18 
0.766908 -0.212444 2.36964 37 33 30 
0.234675 -0.113056 2.41095 4 43 16 
0.607582 -0.188082 2.48455 137 92 11 
0.0738942 -0.0602289 2.15528 189 172 118 
0.192022 -0.0791409 2.26875 186 168 120 
0.0585997 -0.0392846 2.08027 89 66 32 
0.215878 -0.0733842 2.26418 213 189 125 
0.528931 -0.121634 2.45193 170 141 15 
0.211429 -0.0389263 2.23897 215 193 136 
0.155154 -0.0182728 2.14914 192 176 117 
0.150971 -0.00681681 2.12836 194 173 120 
0.627368 -0.0791916 2.40672 160 134 13 
-0.604794 0.173084 2.61758 111 51 1 
-0.630003 0.180391 2.58751 241 199 19 
0.676445 -0.0562273 2.40166 123 120 111 
-0.59538 0.215709 2.62575 65 40 0 
-0.7154 0.267787 2.39433 229 207 184 
0.573239 0.00181506 2.41278 191 155 17 
-0.548247 0.249574 2.5881 243 202 34 
-0.53922 0.248869 2.59962 191 142 3 
0.360527 0.0615324 2.64184 15 14 12 
0.12789 0.117728 2.38675 51 2 5 
0.309001 0.0854013 2.65001 52 52 44 
-0.438277 0.263386 2.6159 26 17 8 
0.0804356 0.144486 2.35956 38 0 0 
-0.511187 0.280099 2.59308 185 136 0 
0.323076 0.111772 2.65655 77 78 70 
-0.658077 0.322316 2.40128 144 104 19 
-0.486534 0.3025 2.59826 122 68 6 
-0.667794 0.344639 2.3844 176 156 131 
-0.484965 0.313713 2.60359 237 188 10 
-0.564027 0.339084 2.55419 135 94 6 
-0.554101 0.338566 2.56132 241 205 47 
-0.509178 0.328798 2.57597 234 191 16 
-0.616464 0.358157 2.49812 93 37 0 
-0.471662 0.329016 2.60047 230 185 8 
-0.600678 0.355947 2.49801 238 160 8 
-0.585738 0.357615 2.52507 119 60 2 
-0.631675 0.370185 2.50611 208 143 13 
-0.554489 0.354412 2.56502 58 23 3 
-0.498059 0.346561 2.57837 234 192 20 
-0.180375 0.518871 3.02372 113 73 0 
-0.569034 0.703332 3.3369 99 89 79 
-0.586195 0.709651 3.32882 181 170 166 
-0.143345 0.62808 3.12409 200 153 13 
0.428079 0.473264 2.97978 224 183 7 
-0.212985 0.661738 3.11258 120 76 5 
-0.870418 0.841291 3.09546 208 197 193 
-0.883499 0.858433 3.08133 202 191 185 
0.517373 0.497441 3.01397 170 137 30 
-0.184454 0.701816 3.10262 133 88 5 
-0.187199 0.728786 3.09063 139 92 4 
-0.698345 0.875617 3.04517 108 98 89 
-0.212945 0.764523 3.08584 144 104 6 
-0.365378 0.833274 3.0999 187 176 172 
-0.65393 0.900865 2.98448 186 175 171 
-0.220113 0.807172 3.08848 137 129 110 
-0.462315 0.87459 3.04268 190 177 169 
-0.203457 0.831578 3.11682 199 183 168 
0.534224 0.701918 3.11196 238 192 10 
0.492171 0.712873 3.09187 233 187 13 
0.556281 0.72262 3.13098 241 197 14 
0.524828 0.756643 3.06412 242 201 15 
0.513719 0.763307 3.06361 185 139 17 
0.455872 0.803438 3.01095 231 217 190 
0.398131 0.840222 3.03337 52 36 20 
0.55228 0.82722 3.03737 222 208 195 
0.460616 0.856203 3.01769 89 79 70 
0.513571 0.854893 3.04322 100 91 84 
0.480333 0.872157 3.05639 96 87 78 
0.451682 0.88771 3.02742 198 188 186 
-0.0304518 -0.190363 2.24103 3 12 9 
0.654302 -0.242999 2.37737 85 62 31 
0.217186 -0.0852243 2.28107 83 59 23 
0.60385 -0.149896 2.47571 227 176 9 
0.124704 -0.0392916 2.14447 14 73 29 
0.153084 -0.0154396 2.1586 182 166 107 
0.144152 0.00319634 2.12572 87 63 35 
0.643793 -0.0369741 2.40273 102 98 95 
0.712034 -0.0441072 2.43196 11 9 10 
-0.541989 0.239153 2.60798 247 207 34 
-0.66926 0.313274 2.39014 243 226 206 
-0.652451 0.31339 2.41405 221 172 9 
0.354546 0.117267 2.64761 8 8 6 
-0.448675 0.298214 2.59548 136 103 10 
-0.539812 0.359101 2.56819 231 173 11 
-0.534636 0.374734 2.57051 229 182 8 
-0.608241 0.389347 2.39794 122 92 40 
-0.58261 0.402626 2.48685 142 86 9 
-0.621865 0.407305 2.38518 168 150 136 
-0.156821 0.531937 3.03952 22 0 0 
0.491569 0.477684 2.99658 170 132 9 
-0.177579 0.700334 3.09286 126 84 2 
-0.334229 0.754522 3.08778 123 111 89 
-0.346399 0.781813 3.09518 212 197 176 
-0.197326 0.745988 3.0866 221 176 12 
-0.518499 0.924505 2.95536 111 98 89 
0.547024 0.71133 3.1269 143 97 1 
0.461298 0.804078 3.05643 227 211 185 
0.505553 0.778682 3.06636 241 226 193 
0.536225 -0.252824 2.42499 40 37 4 
0.131844 -0.136032 2.25948 121 123 102 
0.136106 -0.12145 2.26806 115 116 100 
0.106797 -0.108205 2.19002 82 97 76 
0.0827501 -0.0570395 2.14654 203 173 119 
0.549007 -0.144554 2.43969 196 154 8 
0.0529847 -0.0279588 2.07553 91 75 39 
-0.613191 0.183783 2.62292 86 40 4 
-0.6666 0.216428 2.47095 250 214 16 
0.654497 -0.0596271 2.40901 16 15 13 
-0.74776 0.294018 2.4189 135 102 7 
-0.664091 0.291349 2.44096 123 50 5 
-0.674765 0.305032 2.42936 236 186 11 
-0.695317 0.313784 2.39805 239 226 210 
0.183365 0.127172 2.49341 99 80 48 
-0.646822 0.349535 2.44213 129 75 1 
-0.505497 0.336025 2.58244 229 189 13 
-0.630218 0.370524 2.43245 237 197 11 
-0.71302 0.65997 3.4005 198 185 177 
-0.595646 0.725743 3.29325 198 187 181 
-0.604861 0.745703 3.25839 119 106 97 
-0.3122 0.727758 3.11425 230 212 176 
-0.181576 0.711497 3.10324 131 85 8 
-0.420928 0.853458 3.05638 104 91 82 
-0.614955 0.932488 2.94322 202 191 185 
-0.188996 0.886718 2.991 134 121 112 
0.517912 0.77761 3.06593 245 230 201 
0.476299 0.789948 3.05366 143 105 6 
0.652029 0.786168 3.19887 144 131 115 
0.462695 0.841256 3.03538 221 209 185 
0.557934 0.834258 3.1057 94 74 41 
0.545514 0.831544 3.04864 218 205 186 
0.526049 0.876983 3.03647 211 202 195 
0.567497 0.987001 2.81193 152 141 135 
0.652663 1.02684 2.77078 158 147 143 
0.734188 -0.337723 2.40725 198 157 7 
0.0646743 -0.157595 2.21582 79 16 11 
0.112174 -0.155507 2.24811 8 39 24 
0.189643 -0.0440747 2.25835 194 173 120 
0.0331752 0.0171469 2.06477 87 70 42 
-0.640503 0.237527 2.40155 221 209 185 
0.565612 0.00357654 2.42902 196 151 8 
-0.650146 0.306353 2.48464 227 152 11 
0.0624506 0.156837 2.33927 104 91 75 
-0.638636 0.341235 2.43653 134 80 8 
-0.596069 0.369717 2.49767 232 156 10 
-0.635386 0.379284 2.39253 241 223 209 
-0.600786 0.721258 3.30037 197 187 178 
-0.299363 0.675543 3.13997 233 191 9 
0.437603 0.473622 2.97194 227 179 9 
-0.348574 0.716761 3.14456 109 75 1 
-0.25421 0.686788 3.11747 229 186 9 
-0.200326 0.73289 3.08546 219 169 12 
-0.24747 0.755814 3.07054 228 214 185 
-0.716959 0.885701 3.01631 204 193 191 
-0.365554 0.803901 3.08571 102 92 82 
-0.310322 0.798907 3.08922 92 83 76 
-0.528053 0.928328 2.94998 113 101 89 
0.504537 0.688311 3.08683 109 72 2 
0.497335 0.715083 3.05173 239 195 12 
0.565688 0.750859 3.08384 240 200 16 
0.403329 0.847866 3.01707 60 47 30 
0.462243 0.825117 2.97454 222 207 184 
0.561133 0.991879 2.82342 150 139 135 
0.712498 -0.240155 2.36778 243 236 218 
0.543771 -0.123343 2.44528 184 147 7 
0.774944 0.624392 3.48387 200 190 181 
-0.476681 0.903377 2.98694 100 87 79 
0.111549 -0.472856 2.47182 129 29 37 
0.646932 -0.306229 2.49077 222 207 176 
0.626995 -0.168268 2.48264 224 175 10 
0.591645 -0.103832 2.41003 187 148 8 
-0.676667 0.177274 2.5099 161 48 8 
-0.728511 0.290331 2.40024 142 102 14 
-0.682873 0.313811 2.40734 243 227 201 
-0.524503 0.302331 2.54365 235 197 28 
-0.641138 0.337194 2.44585 132 80 4 
-0.589053 0.340892 2.55016 131 94 3 
-0.630593 0.37804 2.40222 244 225 193 
0.437252 0.23976 2.68983 14 14 12 
-0.125142 0.712247 3.11569 218 168 9 
-0.306496 0.838795 3.08119 194 183 181 
0.767188 0.617028 3.49786 200 189 183 
0.583665 0.782678 3.05363 175 145 55 
0.509674 0.88586 3.04286 200 190 191 
0.0127613 -0.158677 2.21225 35 128 73 
0.635949 -0.155733 2.45527 232 186 12 
0.328216 0.0363581 2.63326 4 4 4 
-0.440785 0.33369 2.65373 75 75 65 
0.2293 0.232708 2.75694 126 98 15 
-0.329353 0.621356 3.13342 119 80 1 
-0.491177 0.940307 2.96094 200 187 181 
0.523398 0.801062 3.05306 238 226 200 
-0.557667 0.928263 2.93945 115 102 93 
0.540427 -0.0634789 2.46471 17 16 14 
-0.36755 0.771593 3.06082 104 92 80 
-0.28353 0.759501 3.09353 200 183 153 
0.159591 0.777688 2.97652 139 120 15 
0.429499 0.942836 2.92058 207 198 193 
0.553401 -0.315758 2.46826 232 223 216 
0.607947 -0.303351 2.44413 60 12 8 
-0.210056 -0.325254 2.40584 40 20 0 
0.604275 -0.290499 2.44488 52 9 0 
0.621316 -0.284069 2.42945 30 42 0 
0.685382 -0.278751 2.41957 98 94 33 
0.701524 -0.264189 2.40149 235 245 172 
0.634597 -0.265341 2.42155 47 54 3 
0.628336 -0.252244 2.41389 61 55 21 
0.654009 -0.250778 2.40724 39 35 0 
0.718564 -0.242955 2.38295 245 242 223 
0.725089 -0.239784 2.37372 248 242 230 
0.657598 -0.241228 2.40836 10 15 0 
0.617307 -0.244785 2.43043 33 23 0 
0.735837 -0.220332 2.34655 91 81 71 
0.658819 -0.228419 2.40706 21 14 0 
0.601282 -0.240029 2.4745 47 26 0 
0.138281 -0.153596 2.27379 104 132 110 
0.138449 -0.14642 2.28667 124 130 116 
-0.0675797 -0.116862 2.29564 163 175 155 
0.65977 -0.0451637 2.42128 2 1 0 
-0.00934305 -0.0333748 2.06328 29 3 0 
-0.0544963 -0.0339112 2.07776 179 156 124 
-0.0476713 -0.0326403 2.06784 166 143 109 
-0.0129501 -0.0308721 2.07206 152 130 93 
-0.470799 0.184478 2.59757 177 150 43 
-0.43815 0.321452 2.64613 10 9 4 
-0.19472 0.42516 3.0407 142 89 0 
0.654507 -0.444761 2.52167 228 214 188 
0.652553 -0.430249 2.50901 170 131 52 
0.621059 -0.431363 2.51391 229 211 191 
0.709906 -0.411069 2.46353 243 223 198 
0.648066 -0.423682 2.53805 255 255 170 
0.623481 -0.420435 2.52232 132 91 11 
0.710317 -0.398913 2.46562 153 120 49 
0.705232 -0.392652 2.48121 255 255 147 
0.746499 -0.358753 2.42632 131 94 16 
0.773767 -0.359361 2.44385 255 243 163 
0.651977 -0.379287 2.52117 85 27 3 
0.644397 -0.377997 2.52941 85 31 5 
0.714244 -0.350684 2.48 97 37 9 
0.703014 -0.348016 2.47864 90 35 5 
0.78298 -0.315542 2.42882 85 39 3 
0.493874 -0.353829 2.55845 13 9 8 
0.775603 -0.31454 2.43869 90 41 9 
0.596021 -0.308713 2.45269 133 75 74 
0.578928 -0.30658 2.46121 238 225 216 
0.581522 -0.297788 2.44974 67 12 9 
0.542804 -0.30458 2.50006 178 166 152 
0.492284 -0.316592 2.56127 18 18 10 
0.61031 -0.287273 2.43723 184 194 133 
0.58752 -0.28198 2.44914 51 0 0 
0.616373 -0.276303 2.43316 29 38 0 
0.597197 -0.277418 2.44796 41 0 0 
0.680532 -0.261504 2.39916 219 242 138 
0.661372 -0.261546 2.41359 77 87 24 
0.622485 -0.260729 2.42735 78 71 45 
0.58685 -0.265754 2.45625 141 63 43 
0.714056 -0.241583 2.36055 239 226 217 
0.668937 -0.249816 2.40912 63 43 10 
0.677754 -0.246825 2.39178 179 197 98 
0.688958 -0.246079 2.38881 237 246 193 
0.662518 -0.24276 2.39681 40 34 0 
0.634562 -0.24385 2.42175 201 180 159 
0.660304 -0.233805 2.3999 146 165 73 
0.708563 -0.226664 2.37361 32 38 12 
0.717877 -0.224911 2.36759 232 231 213 
0.793742 -0.222956 2.37866 246 236 227 
0.730494 -0.22233 2.36781 103 104 86 
0.801138 -0.216783 2.36778 68 63 59 
0.809146 -0.209959 2.36607 45 41 38 
0.592502 -0.23663 2.47862 197 154 26 
0.733762 -0.208579 2.35528 36 32 21 
0.813624 -0.198584 2.37368 20 15 9 
0.767783 -0.19089 2.34991 27 23 20 
0.815241 -0.186748 2.38919 10 7 2 
0.703129 -0.183249 2.3808 37 13 1 
0.766357 -0.17432 2.37666 11 7 6 
0.810191 -0.173463 2.3921 14 10 7 
0.71567 -0.176207 2.38934 136 104 89 
0.626414 -0.195403 2.49255 54 24 0 
0.733824 -0.167716 2.37059 131 121 111 
0.611091 -0.188523 2.48336 157 112 11 
0.80201 -0.158375 2.398 22 15 9 
0.778918 -0.145165 2.36757 28 23 20 
0.758331 -0.14466 2.36313 30 25 21 
0.596021 -0.167982 2.51361 35 4 0 
0.693791 -0.150476 2.44938 225 181 32 
0.101032 -0.14525 2.25685 24 31 13 
0.710967 -0.140484 2.43674 226 184 38 
0.667458 -0.113263 2.41827 229 183 12 
-0.0874204 -0.135945 2.30558 67 27 27 
0.102565 -0.121265 2.26426 48 13 9 
0.532882 -0.120923 2.44823 178 151 34 
0.691415 -0.110855 2.42512 225 177 15 
0.633077 -0.109601 2.43065 107 56 0 
-0.0841679 -0.12449 2.2993 38 10 7 
0.528542 -0.113257 2.45821 14 17 10 
0.112936 -0.104217 2.27063 52 16 16 
-0.106388 -0.118161 2.3163 2 19 1 
0.624499 -0.0934586 2.42139 76 31 0 
0.614637 -0.0874809 2.42479 171 142 25 
0.628519 -0.0838729 2.42771 175 148 35 
0.497814 -0.0762233 2.44943 41 40 36 
0.0213864 -0.045746 2.06344 227 201 144 
-0.0900487 -0.0481835 2.11036 46 35 7 
0.0394992 -0.0357492 2.0793 42 25 15 
-0.0990187 -0.0323946 2.1169 100 78 39 
0.513297 -0.0350398 2.46252 15 3 0 
0.66681 -0.0173959 2.41043 122 118 115 
0.0437714 -0.00912548 2.08903 175 153 104 
0.54564 -0.0115533 2.43615 194 161 30 
0.569122 -0.00594147 2.44638 198 160 37 
0.580658 0.00311506 2.42701 187 155 34 
0.387709 -0.0063266 2.73418 13 3 2 
0.524522 0.0569376 2.46164 215 176 21 
-0.0319705 0.063127 2.17277 35 0 0 
-0.322308 0.0327658 2.70784 29 21 8 
-0.382198 0.0698532 2.69961 57 54 47 
-0.340687 0.0726139 2.6974 115 114 110 
0.38673 0.129629 2.64067 145 123 24 
0.333746 0.127195 2.66016 82 81 79 
-0.516765 0.135508 2.60732 27 19 6 
0.592971 0.200259 2.63655 106 65 3 
-0.467483 0.142824 2.61082 61 57 54 
-0.502719 0.142243 2.60959 17 14 9 
0.435475 0.210976 2.66603 19 4 0 
-0.419066 0.17156 2.66777 13 6 0 
-0.453449 0.171542 2.60999 11 11 11 
-0.479505 0.176239 2.59818 204 171 30 
0.506083 0.241786 2.70072 25 24 19 
0.488413 0.241455 2.70178 23 18 15 
-0.362728 0.196896 2.75357 212 167 12 
0.408164 0.241822 2.73806 150 119 29 
0.499635 0.249455 2.71288 154 144 134 
-0.405472 0.2043 2.67337 13 2 0 
-0.36904 0.212909 2.75295 195 159 13 
0.468155 0.26388 2.69722 64 60 57 
-0.440495 0.255875 2.60971 137 112 30 
-0.435718 0.263613 2.61539 27 18 9 
-0.45309 0.273264 2.58679 113 72 8 
-0.434987 0.278063 2.61383 175 153 34 
-0.509457 0.279644 2.5925 171 120 0 
-0.487389 0.292142 2.59622 228 191 12 
-0.425058 0.30536 2.6507 112 109 104 
-0.507156 0.327865 2.57258 231 188 14 
-0.547416 0.338377 2.55221 234 192 20 
-0.59856 0.355455 2.49142 234 164 16 
-0.214494 0.422596 3.03271 219 180 17 
-0.15744 0.425949 3.03972 227 190 13 
-0.229525 0.423887 3.03309 111 68 0 
-0.245751 0.427574 3.02527 212 166 10 
0.432836 0.468595 2.95771 236 191 27 
-0.272512 0.433149 3.02271 213 173 15 
-0.207982 0.463201 3.01002 156 105 0 
-0.146461 0.480365 3.02018 86 41 2 
0.282534 0.510916 2.97225 50 17 2 
-0.149247 0.491243 3.01669 208 166 18 
-0.151424 0.513171 3.02432 180 140 16 
-0.151851 0.533427 3.0394 22 3 0 
0.285487 0.566154 2.99215 22 1 0 
-0.148479 0.544442 3.04387 158 132 21 
-0.148922 0.633622 3.08679 217 169 11 
0.537623 0.692146 3.07734 243 201 19 
-0.185112 0.648654 3.08856 213 172 20 
-0.295095 0.656482 3.1252 240 196 25 
-0.171517 0.682041 3.10127 229 190 27 
-0.559858 0.699005 3.3144 101 87 78 
-0.155806 0.71389 3.1198 228 183 20 
-0.315357 0.719032 3.11442 234 205 145 
0.474386 0.783735 3.03511 167 128 23 
-0.319944 0.745904 3.08054 229 213 187 
-0.328361 0.752855 3.07302 143 127 102 
-0.292412 0.788801 3.08245 59 45 32 
-0.205786 0.815272 3.09505 91 69 32 
-0.197747 0.826283 3.09903 214 198 182 
0.581257 -0.2521 2.48197 114 61 30 
0.50633 -0.0516144 2.45629 3 3 1 
-0.524298 0.342837 2.56957 239 196 21 
0.731204 -0.426157 2.49866 173 162 142 
0.629323 -0.437105 2.53692 228 211 191 
0.773645 -0.360603 2.40856 126 98 35 
0.620867 -0.391889 2.55572 118 90 7 
0.751141 -0.360696 2.43536 121 86 18 
0.653438 -0.382363 2.55273 82 26 1 
0.545729 -0.315747 2.48106 219 209 200 
0.6776 -0.30922 2.49431 240 224 199 
0.590184 -0.29284 2.44155 91 45 45 
0.642202 -0.27793 2.44095 228 231 178 
0.691759 -0.259457 2.4095 40 53 0 
0.643974 -0.258582 2.42996 160 185 65 
0.66653 -0.233636 2.38452 158 183 63 
0.497089 -0.235763 2.36956 253 238 219 
-0.0351149 -0.242641 2.26775 31 0 0 
0.634767 -0.236307 2.4544 26 18 7 
0.611522 -0.234115 2.4422 103 100 21 
0.792142 -0.20831 2.38581 35 34 32 
0.769284 -0.201664 2.35605 229 226 221 
0.052922 -0.212906 2.25072 62 151 97 
0.762488 -0.18737 2.33549 25 21 18 
0.622553 -0.194317 2.47722 53 22 0 
-0.0227326 -0.17957 2.25647 57 146 90 
0.0452989 -0.169822 2.22849 46 134 83 
0.0550694 -0.162642 2.22569 18 9 0 
0.697851 -0.162565 2.44742 87 35 13 
0.610623 -0.153104 2.49563 234 189 10 
0.6523 -0.12504 2.43834 239 197 17 
0.669719 -0.122917 2.45539 126 75 12 
0.502653 -0.134537 2.5006 16 7 0 
0.629919 -0.110127 2.41944 111 60 0 
0.0378566 -0.0484262 2.06462 228 204 144 
0.656679 -0.0492654 2.39812 14 12 13 
0.652081 -0.0365039 2.41347 108 107 103 
0.0405025 -0.0193344 2.08298 92 73 43 
0.672373 -0.0176975 2.42052 121 117 114 
0.723766 -0.0186515 2.46677 84 81 76 
0.403379 0.126507 2.60106 181 147 21 
0.390803 0.127635 2.65343 151 125 12 
0.332016 0.12665 2.64485 80 79 77 
-0.364413 0.0931638 2.71198 16 18 7 
0.471011 0.148814 2.54781 194 157 16 
0.464233 0.176609 2.57415 208 179 77 
0.586892 0.182407 2.63054 86 30 3 
0.399093 0.17407 2.63301 124 99 7 
-0.535894 0.136116 2.61704 242 207 63 
-0.49052 0.143566 2.62015 116 108 95 
-0.425722 0.16755 2.66068 10 4 4 
-0.565144 0.24737 2.6042 113 63 10 
-0.408779 0.28114 2.69225 39 22 2 
-0.182564 0.397484 3.02641 108 72 0 
-0.202665 0.409017 3.03682 221 182 16 
-0.215165 0.410681 3.04099 105 68 0 
-0.137529 0.44422 3.01253 208 167 13 
-0.145256 0.466723 3.00967 101 61 10 
-0.151056 0.511466 3.01481 181 140 14 
0.80459 0.6179 3.46565 153 139 130 
-0.08931 0.615808 3.13216 208 162 15 
0.510326 0.687011 3.06594 125 79 1 
0.533424 0.691966 3.06404 241 200 12 
-0.278513 0.740208 3.09671 163 116 0 
-0.0430966 0.773822 3.17076 94 77 57 
0.383516 0.810527 3.01001 190 171 141 
-0.312799 0.776597 3.06821 224 209 188 
0.474626 0.833913 3.01635 227 215 193 
-0.235038 0.830606 3.06776 97 90 80 
-0.265978 0.833198 3.06869 110 102 99 
-0.868895 0.851394 3.04731 208 199 194 
0.144572 0.937562 2.90018 145 132 123 
-0.814102 1.20091 2.47629 220 210 211 
0.0222121 -0.484891 2.33196 174 16 30 
0.673518 -0.432617 2.53203 239 210 54 
0.629402 -0.423697 2.53281 111 77 6 
0.733772 -0.403653 2.48583 240 209 57 
0.686911 -0.394603 2.48231 108 75 4 
0.748259 -0.375116 2.41827 215 197 173 
0.570623 -0.37641 2.53515 171 161 151 
0.711802 -0.351143 2.4908 90 33 4 
0.556709 -0.330252 2.45998 240 231 222 
0.00940274 -0.296295 2.26405 96 0 8 
0.0514925 -0.292631 2.26429 98 0 5 
0.638956 -0.279494 2.4121 225 230 176 
0.730101 -0.248832 2.38663 246 232 221 
0.508299 -0.264071 2.44823 244 236 223 
0.671814 -0.234373 2.39915 157 183 60 
0.648327 -0.235158 2.42088 62 23 8 
0.0685754 -0.23415 2.2582 27 0 7 
0.710631 -0.21645 2.37313 23 25 20 
0.66821 -0.21982 2.41038 58 43 20 
0.716963 -0.202318 2.36007 175 177 140 
0.60524 -0.220209 2.47866 167 127 3 
0.726912 -0.169892 2.3854 32 25 6 
0.698444 -0.164151 2.47446 115 66 10 
0.709881 -0.153905 2.41466 108 49 7 
0.676154 -0.155815 2.46347 231 183 15 
0.590739 -0.158555 2.48273 80 45 3 
0.528228 -0.106666 2.4475 6 9 2 
0.513707 -0.084983 2.43232 88 87 83 
-0.0714106 -0.0538104 2.07795 226 200 141 
0.659313 -0.0550569 2.40908 13 13 13 
0.41998 0.0494848 2.59613 214 175 18 
-0.373912 0.034856 2.6763 136 133 128 
0.390618 0.0838197 2.63298 143 113 3 
0.47138 0.147703 2.53724 185 143 5 
0.463443 0.159276 2.56675 14 2 2 
0.583885 0.181409 2.6173 84 31 0 
-0.360127 0.16396 2.75307 205 158 16 
-0.442249 0.165133 2.62562 115 114 110 
-0.462176 0.174391 2.61307 7 7 7 
-0.750168 0.243925 2.38897 251 232 155 
-0.453299 0.286795 2.5821 213 167 12 
-0.482594 0.316898 2.5945 230 188 8 
-0.524114 0.347355 2.69335 243 202 14 
-0.199496 0.408444 3.02499 215 176 11 
0.455104 0.451961 2.9826 119 84 3 
-0.300938 0.478082 3.03286 197 157 8 
0.825443 0.581204 3.51605 152 142 133 
-0.474119 0.648218 3.38524 201 188 182 
-0.498547 0.674043 3.39072 119 107 95 
-0.200925 0.676457 3.10753 230 178 14 
-0.309449 0.724243 3.106 236 219 176 
-0.275654 0.741904 3.10823 182 137 8 
0.34548 0.769518 3.01887 107 69 4 
-0.595605 0.739977 3.2284 120 110 100 
0.582015 0.810963 3.10901 156 141 118 
0.461873 0.796708 3.01069 237 220 202 
0.466404 0.83339 3.00643 229 214 191 
-0.243522 0.797123 3.03957 218 206 184 
-0.659447 0.798293 3.13243 115 105 96 
-0.676214 0.805908 3.1099 203 192 186 
-0.358623 0.830094 3.07798 193 184 177 
-0.416171 0.850109 3.04022 113 103 93 
-0.453387 0.871473 3.0061 193 180 172 
-0.462196 0.904667 2.9495 110 97 89 
0.638328 0.0064366 2.42809 8 8 10 
0.406687 0.170239 2.6582 130 99 6 
0.131766 -0.406507 2.37906 173 160 144 
0.726055 -0.292126 2.44822 157 90 0 
0.595353 -0.296766 2.45189 67 9 5 
0.648731 -0.287745 2.43119 244 238 216 
0.0598936 -0.156206 2.23566 16 33 17 
0.114624 -0.153102 2.25544 28 41 23 
0.64704 -0.0286778 2.39901 106 105 101 
0.12382 -0.00594099 2.1223 207 184 130 
0.606394 0.000177899 2.44595 6 6 4 
0.378818 0.0621893 2.65948 8 7 3 
-0.409094 0.0960143 2.74818 215 170 9 
-0.528624 0.140983 2.59757 234 203 35 
0.445551 0.204879 2.64948 122 92 2 
-0.615359 0.158252 2.59498 249 208 22 
-0.411043 0.200893 2.66565 10 6 3 
0.190074 0.242354 2.6851 9 5 0 
-0.1678 0.376449 2.98686 109 71 6 
-0.137083 0.421409 3.03052 120 80 8 
-0.0259507 0.809928 3.14988 176 159 149 
-0.65745 0.800738 3.14693 116 106 97 
-0.335745 0.822016 3.08949 198 188 186 
0.64918 -0.460922 2.56091 219 204 183 
0.618939 -0.388168 2.5462 118 90 6 
0.64748 -0.374416 2.4908 149 101 17 
0.709638 -0.346145 2.44442 153 100 4 
0.502225 -0.329535 2.55868 7 7 7 
0.6011 -0.295988 2.47377 59 11 11 
-0.00460053 -0.220217 2.26699 75 163 112 
0.0422805 -0.214902 2.25781 58 155 101 
0.699874 -0.168832 2.43486 76 26 3 
0.699255 -0.132901 2.44636 230 182 22 
0.592098 -0.0951132 2.40991 194 154 4 
0.542784 -0.0915886 2.44858 10 10 12 
0.585551 -0.0731739 2.43567 2 2 2 
0.645898 -0.0552584 2.41587 10 10 10 
0.52037 -0.0471791 2.45239 13 13 13 
0.556869 -0.0192714 2.43856 5 4 0 
0.570987 0.0104351 2.43907 200 159 7 
0.518369 0.0374984 2.47066 208 165 9 
0.479483 0.0581893 2.52315 82 43 2 
0.410247 0.0543979 2.59718 207 166 24 
0.504044 0.0750687 2.44919 111 79 4 
-0.450698 0.134011 2.65436 95 94 89 
0.387183 0.199068 2.73035 8 2 2 
-0.685787 0.167972 2.48749 213 92 13 
0.457227 0.693324 3.0322 118 78 6 
0.49721 0.843666 3.03418 69 58 52 
-0.00277617 0.887697 2.96552 186 173 164 
-0.48902 0.877009 2.97726 107 97 87 
-0.860219 0.867112 3.031 207 196 194 
-0.363701 0.89277 2.99352 148 140 129 
0.666077 -0.154251 2.48349 230 186 17 
0.59816 -0.0101903 2.37122 9 8 14 
-0.500883 0.171747 2.59162 225 185 10 
0.508784 0.0105455 2.45754 204 163 9 
-0.527275 0.283246 2.59423 234 193 7 
0.159804 0.772617 2.93159 147 127 14 
0.517376 -0.178392 2.4273 127 93 4 
0.358354 0.155567 2.64939 16 11 8 
0.122127 0.471359 2.92676 11 49 26 
0.549658 -0.319064 2.46421 40 31 24 
0.563739 -0.310384 2.45206 36 26 16 
0.601732 -0.300498 2.42486 60 12 8 
0.581451 -0.292289 2.43329 59 9 10 
0.547199 -0.2978 2.46451 50 40 28 
0.550994 -0.284687 2.46543 168 155 138 
0.630299 -0.26686 2.39635 206 219 137 
0.644976 -0.26239 2.38653 32 51 0 
0.607494 -0.263558 2.41205 27 36 0 
0.623218 -0.250729 2.39896 61 55 21 
0.648096 -0.237596 2.38041 10 15 0 
0.649217 -0.225205 2.3792 21 14 0 
0.686671 -0.196911 2.34781 176 163 146 
-0.0699631 -0.115663 2.27748 163 175 155 
-0.438128 0.321124 2.64255 10 9 4 
0.61349 -0.427507 2.49038 229 211 191 
0.699245 -0.392827 2.4336 153 120 49 
0.703196 -0.345451 2.44823 97 37 9 
0.767991 -0.309397 2.38917 85 39 3 
0.573359 -0.303734 2.44348 238 225 216 
0.596819 -0.280859 2.42068 36 29 1 
0.581995 -0.27952 2.43163 51 0 0 
0.599714 -0.265999 2.41878 58 65 21 
0.657706 -0.245218 2.37633 63 43 10 
0.572426 -0.241715 2.46165 182 141 23 
0.619706 -0.192825 2.47159 54 24 0 
0.608321 -0.187906 2.475 157 112 11 
0.684144 -0.148449 2.42242 225 181 32 
0.607609 -0.0859825 2.40339 171 142 25 
-0.742917 0.185223 2.49489 113 29 0 
-0.535028 0.247379 2.59241 177 128 0 
-0.245835 0.427609 3.03112 212 166 10 
-0.146685 0.43365 3.00773 219 178 24 
-0.272949 0.432596 3.02269 213 173 15 
-0.13803 0.442187 3.00538 209 168 14 
-0.142256 0.455348 3.00482 207 166 12 
-0.145434 0.465976 3.00899 101 61 10 
-0.147195 0.4791 3.01286 86 41 2 
-0.560327 0.699394 3.31897 101 87 78 
-0.292034 0.788591 3.08149 59 45 32 
-0.197843 0.826365 3.10334 214 198 182 
0.693287 -0.34291 2.44736 92 35 5 
0.652981 -0.229653 2.36997 150 174 64 
0.68914 -0.218548 2.35892 110 129 40 
0.751216 -0.18572 2.30765 25 21 18 
0.635457 -0.00800589 2.40082 76 76 74 
0.391435 0.145749 2.62624 125 96 4 
0.494624 0.177951 2.55321 123 90 9 
-0.489616 0.291383 2.59656 232 193 14 
-0.487458 0.302401 2.60063 132 85 17 
-0.20272 0.408782 3.03143 221 182 16 
-0.662759 0.36978 2.40968 91 41 0 
-0.149441 0.491324 3.01366 206 164 16 
-0.0899844 0.614643 3.12375 208 162 15 
-0.231952 0.656991 3.10637 108 66 0 
-0.532704 0.685591 3.34432 197 184 176 
-0.265778 0.834034 3.07609 110 102 99 
-0.500104 0.900719 2.97217 186 176 167 
0.65711 -0.216811 2.37881 58 43 20 
0.606385 -0.150563 2.47418 236 190 8 
-0.0744184 -0.0531998 2.05609 226 200 141 
0.464781 0.0564402 2.55749 255 248 181 
-0.442529 0.164879 2.62594 115 114 110 
-0.462272 0.174759 2.6111 7 7 7 
0.921072 0.5565 3.58556 209 198 192 
-0.209137 0.462399 3.00715 162 112 1 
-0.717168 0.658908 3.40824 199 189 180 
-0.596374 0.74179 3.24274 120 110 100 
0.536516 -0.00779329 2.43657 205 166 13 
-0.712011 0.656774 3.39321 199 189 180 
-0.339269 0.718143 3.12698 117 86 3 
-0.245855 0.799073 3.05093 217 205 183 
-0.415953 0.851127 3.05347 114 104 94 
-0.463615 0.902458 2.95622 111 98 89 
0.529426 -0.00659368 2.45094 205 164 10 
-0.510749 0.124081 2.60039 56 51 47 
-0.651396 0.798851 3.14314 116 106 96 
0.41071 0.853337 3.00498 78 68 59 
-0.415852 0.843885 3.03545 115 105 95 
-0.860279 0.869923 3.03915 207 196 194 
-0.154529 0.771664 3.07142 144 110 10 
-0.306914 0.840955 3.09147 203 190 182 
-0.359348 0.890036 2.98162 140 130 118 
-0.305677 0.745392 3.0881 227 211 185 
0.120587 0.860332 2.99766 93 72 29 
0.116619 0.468437 2.89131 11 49 26 
0.641011 -0.266357 2.38759 188 220 93 
-0.865677 0.83905 3.08732 208 197 193 
0.0370621 0.00447335 2.07431 84 59 28 
0.594091 0.183756 2.65333 86 30 3 
-0.232131 0.656489 3.10392 108 66 0 
-0.343441 0.781638 3.07879 220 207 190 
0.920419 0.556458 3.58325 209 198 192 
0.534076 0.697396 3.07276 242 201 13 
-0.190981 0.742035 3.0699 228 185 8 
-0.564048 0.936197 2.8862 120 110 100 
0.811251 0.626201 3.47577 149 139 129 
-0.22789 0.721091 3.08282 148 92 0 
-0.308606 0.735142 3.09456 233 219 190 
-0.253419 0.838968 3.12068 106 99 91 
-0.360908 0.801097 3.07506 102 92 82 
-0.517916 0.360024 2.56468 160 99 10 
0.436673 0.470886 2.96129 238 187 18 
0.146033 0.939591 2.90758 145 132 123 
-0.807041 1.1942 2.44189 220 210 211 
0.468979 0.834982 3.01701 229 214 191 
0.384762 0.843831 3.00114 188 173 154 
-0.414989 0.851689 3.05308 114 101 92 
-0.412617 0.839494 3.04447 116 104 90 
-0.205711 -0.328461 2.39154 29 12 0 
0.124778 -0.111181 2.2499 74 18 21 
-0.634786 0.361907 2.42956 238 192 10 
-0.208416 0.807176 3.05612 81 65 39 
-0.179489 0.812925 3.08259 134 104 32 
0.47783 0.787041 3.04176 154 109 6 
0.982952 0.766028 3.18141 137 127 115 
0.470358 0.832222 3.00832 224 213 191 
0.550735 0.82377 3.02435 222 210 186 
0.441754 0.472093 2.95557 232 185 9 
-0.443918 0.913206 2.96783 188 175 169 
-0.193141 -0.329775 2.39822 138 112 77 
-0.206466 -0.321482 2.38918 38 25 9 
0.629604 -0.314493 2.42223 84 70 43 
0.0234227 -0.49092 2.31085 153 25 40 
0.190858 -0.0955074 2.273 2 17 0 
0.168597 -0.0322832 2.18683 17 40 0 
0.342708 0.0860676 2.6202 108 107 102 
-0.55627 0.339961 2.56445 242 205 54 
-0.233065 0.728913 3.10651 141 85 0 
0.516934 0.749049 3.05795 139 89 0 
0.0685482 -0.039656 2.05737 89 66 32 
0.689646 -0.0537927 2.39107 124 121 114 
-0.15683 0.565376 3.06257 61 30 2 
-0.182406 0.70093 3.09754 133 88 5 
0.227099 0.18655 2.53779 8 6 7 
-0.324024 0.747378 3.10199 230 215 192 
-0.19307 0.891906 3.00258 132 119 110 
0.549115 0.707793 3.11259 143 97 1 
0.561935 0.72042 3.11572 242 197 8 
0.5578 0.767315 3.04776 167 126 10 
0.76465 -0.202891 2.30515 40 40 38 
0.14408 -0.0334184 2.12437 16 88 38 
-0.681825 0.888125 3.02257 115 105 96 
0.551545 0.796471 3.04388 224 213 191 
-0.689328 0.314816 2.39676 241 229 207 
-0.630466 0.91492 2.97777 111 97 88 
0.656485 0.778969 3.18366 142 126 110 
-0.495059 0.884344 2.99961 96 86 76 
-0.494076 0.941928 2.96635 200 187 181 
0.617844 -0.328651 2.41985 239 227 215 
0.686891 -0.283302 2.35712 237 226 204 
0.672927 -0.260611 2.33805 174 213 84 
0.690158 -0.255846 2.32644 51 67 0 
0.725435 -0.257404 2.31917 214 224 137 
0.691927 -0.235601 2.31592 150 166 78 
0.722223 -0.225526 2.29194 52 55 24 
0.766218 -0.205127 2.28478 49 48 44 
-0.546009 0.429232 2.50206 226 162 38 
0.356768 -0.255598 2.29283 41 25 12 
0.781039 -0.309847 2.34095 82 32 0 
0.139712 -0.120169 2.23695 49 8 4 
0.553289 -0.227954 2.35807 80 26 0 
0.144224 -0.094837 2.22969 30 48 36 
0.712761 -0.264114 2.3336 239 231 210 
0.240676 -0.0997897 2.25814 207 183 123 
-0.624179 0.228305 2.41387 167 129 48 
0.160869 0.0279419 2.10843 77 56 25 
0.228375 0.0209123 2.68229 65 66 61 
-0.563499 0.329243 2.56192 245 204 64 
0.709944 -0.0526136 2.37942 107 106 102 
-0.55761 0.429555 2.50332 151 83 10 
0.242978 0.258827 2.66636 52 31 2 
-0.322809 0.724835 3.13686 237 216 171 
0.285969 0.508523 2.95948 32 3 8 
-0.28157 0.781638 3.06024 97 85 73 
0.538634 0.682571 3.07896 133 92 4 
0.491534 0.792703 3.03104 230 206 178 
0.558437 -0.333398 2.45824 238 234 223 
0.240535 -0.225047 2.34039 184 154 100 
0.092199 -0.0439524 2.0492 228 203 146 
0.187412 -0.0697428 2.22717 14 55 23 
0.237775 -0.0846882 2.23479 112 88 44 
0.0682448 -0.0170933 2.04431 166 148 98 
0.530041 -0.11149 2.40713 19 18 14 
-0.75732 0.292933 2.41887 126 96 24 
0.589533 -0.0933641 2.37746 4 3 1 
-0.645717 0.372637 2.3926 246 229 203 
-0.549884 0.37768 2.56873 131 77 0 
-0.545776 0.382498 2.57805 226 175 6 
-0.542851 0.437159 2.50917 134 86 14 
-0.335594 0.71715 3.14306 129 96 15 
-0.708972 0.880938 3.05952 112 99 91 
-0.329537 0.752326 3.10471 241 226 205 
-0.179228 0.698484 3.09297 132 87 6 
0.427126 0.459429 2.95257 104 66 1 
-0.322644 0.783425 3.09468 213 200 181 
-0.470948 0.88337 3.03203 185 174 168 
-0.507896 0.905672 2.98678 186 173 165 
-0.211327 0.82133 3.11466 80 63 35 
-0.471629 0.915276 2.96994 108 98 89 
-0.242233 0.837935 3.09382 96 86 77 
0.522309 0.684333 3.05897 105 68 0 
0.475736 0.792999 3.02774 222 201 172 
-0.723951 0.248214 2.4119 174 131 52 
-0.726055 0.267243 2.40142 223 206 178 
-0.662594 0.316798 2.42573 229 181 19 
-0.667254 0.326076 2.40895 128 91 13 
-0.566211 0.362449 2.55738 190 144 7 
-0.495031 0.343374 2.57703 229 192 16 
-0.223836 0.699213 3.0997 147 94 0 
-0.473527 0.888627 3.04605 189 178 172 
-0.524001 0.926347 2.96224 113 100 92 
0.742218 0.60892 3.49265 199 189 180 
0.520641 0.743895 3.04968 124 73 0 
0.399196 0.798684 3.0242 91 61 11 
0.151168 0.935778 2.8973 141 131 122 
0.122721 -0.152721 2.21409 6 38 23 
0.0906517 -0.0748464 2.1234 25 127 61 
-0.650379 0.351931 2.44702 131 79 4 
0.0917274 0.136419 2.33789 61 0 7 
