ply                 
format ascii 1.0    
element vertex 1277
property float x    
property float y    
property float z    
property uchar red  
property uchar green
property uchar blue 
end_header          
-2.32391 0.612392 3.87288 87 103 139 
-2.36497 -0.188843 4.17498 115 132 175 
-2.33063 0.560948 3.89903 43 54 99 
-2.33209 0.509453 3.91839 75 86 114 
-2.34924 -0.133976 4.14546 42 50 86 
-2.32951 0.597302 3.8889 25 29 64 
-2.35437 -0.113575 4.14659 35 35 61 
-2.30373 0.818608 3.79216 92 105 140 
-2.35494 -0.0150455 4.11837 87 103 137 
-2.34649 0.428486 3.96704 21 19 40 
-2.34249 0.400454 3.97557 27 28 59 
-2.36188 -0.24225 4.20506 118 136 184 
-2.35961 -0.0886402 4.15309 95 108 143 
-2.33229 0.566136 3.91334 92 106 143 
-2.36122 0.0500489 4.11098 74 87 122 
-2.31498 0.662545 3.86775 87 101 136 
-2.34945 0.0239941 4.11195 92 106 145 
-2.33153 0.388671 3.97665 103 115 153 
-2.3634 -0.0757434 4.16024 34 30 57 
-2.35544 -0.136005 4.17303 102 118 152 
-2.36088 -0.00556263 4.13746 45 50 92 
-2.36562 -0.0582774 4.16041 38 36 60 
-2.35571 0.30373 4.0337 49 58 99 
-2.34809 0.456303 3.9761 60 74 100 
-2.37292 -0.0278359 4.15956 26 29 60 
-2.36107 0.00938962 4.13732 92 107 146 
-2.33825 0.481525 3.96352 85 95 131 
-2.34834 0.340777 4.0207 44 49 87 
-2.36092 -0.0110873 4.14867 85 98 133 
-2.34291 0.387433 4.00116 61 73 121 
-2.33705 0.639148 3.91749 71 85 122 
-2.31412 0.799696 3.84232 34 31 40 
-2.36849 -0.109622 4.19647 96 109 144 
-2.34277 0.551277 3.95456 23 23 51 
-2.36536 0.0425538 4.14492 44 49 81 
-2.35913 -0.165867 4.20771 101 120 153 
-2.36018 -0.148894 4.20393 40 45 65 
-2.35326 0.449029 4.00288 25 27 50 
-2.33506 0.663624 3.91834 21 20 28 
-2.36431 -0.0295256 4.17625 89 103 140 
-2.34973 0.201219 4.08634 51 57 93 
-2.31071 0.83665 3.83696 75 59 69 
-2.33834 0.47775 3.98518 25 32 61 
-2.34014 0.567555 3.96086 81 97 131 
-2.33778 0.512755 3.98681 83 92 121 
-2.34401 0.496726 3.99926 92 107 146 
-2.36036 0.330352 4.07242 41 46 76 
-2.36303 -0.0677858 4.20726 31 30 46 
-2.31984 0.703842 3.91606 75 64 72 
-2.33047 0.595086 3.96317 73 84 114 
-2.37109 0.0368564 4.18931 27 28 59 
-2.37007 0.0489024 4.18459 103 122 155 
-2.37531 -0.156618 4.26061 54 63 106 
-2.36741 0.216009 4.13063 46 53 95 
-2.33065 0.666663 3.94488 70 57 67 
-2.37371 -0.0860674 4.24143 39 40 71 
-2.36731 -0.0514079 4.22438 92 98 130 
-2.40471 -0.00349056 4.24711 42 45 76 
-2.36917 -0.114884 4.2521 45 54 97 
-2.37022 0.335949 4.10432 37 37 63 
-2.37269 -0.0322932 4.22892 83 96 130 
-2.36366 -0.245808 4.29006 67 80 125 
-2.36217 0.258728 4.1238 94 107 142 
-2.37475 -0.105224 4.25945 109 130 161 
-2.34082 0.475212 4.03387 14 16 29 
-2.36356 -0.0900973 4.24707 46 46 74 
-2.37082 -0.294483 4.32372 68 77 120 
-2.37002 -0.0187416 4.23329 91 104 139 
-2.36677 0.446717 4.07633 33 42 83 
-2.36261 0.214837 4.15092 47 56 99 
-2.37039 -0.0715439 4.25484 100 123 155 
-2.36361 -0.148584 4.27469 108 127 170 
-2.35645 0.355166 4.10155 99 115 151 
-2.36514 0.0327126 4.21775 104 120 154 
-2.37353 -0.119681 4.27963 104 117 159 
-2.3737 -0.0440653 4.25519 41 41 65 
-2.36732 0.076501 4.21013 85 99 134 
-2.37373 -0.281329 4.33546 125 142 185 
-2.34222 0.506568 4.04265 20 19 33 
-2.37766 -0.0771865 4.27685 54 63 106 
-2.36697 0.344814 4.132 42 48 80 
-2.36877 0.140305 4.20435 49 53 88 
-2.36074 0.297646 4.14551 82 95 129 
-2.33723 0.576265 4.02923 38 52 89 
-2.36228 0.555203 4.06413 18 25 51 
-2.37327 -0.105359 4.29647 51 56 96 
-2.3727 -0.1219 4.30153 52 59 103 
-2.35185 0.358197 4.12055 39 43 78 
-2.37503 -0.0761406 4.28908 92 110 148 
-2.38065 -0.0862147 4.29899 44 53 94 
-2.37866 -0.167136 4.3253 63 70 122 
-2.38053 -0.06747 4.29426 46 61 102 
-2.34494 0.504657 4.0684 71 85 112 
-2.33039 0.656455 4.00253 79 63 73 
-2.35147 0.391439 4.11519 76 83 111 
-2.37831 -0.0389591 4.28973 63 76 120 
-2.35964 0.349602 4.14451 101 120 152 
-2.36014 0.268461 4.17933 92 76 87 
-2.35249 0.452093 4.11215 72 81 110 
-2.37919 -0.112446 4.32827 44 50 84 
-2.38096 -0.0804761 4.32152 107 126 168 
-2.35696 0.356609 4.15762 41 47 83 
-2.38284 -0.0844807 4.34601 59 67 114 
-2.31407 0.138467 4.216 37 29 52 
-2.35407 0.406268 4.17534 56 69 113 
-2.33473 0.6297 4.07997 82 66 76 
-2.38334 -0.0553489 4.36541 70 87 133 
-2.35909 0.472762 4.16442 34 42 79 
-2.37603 -0.00771163 4.34484 110 127 171 
-2.27866 0.300497 4.14066 30 24 34 
-2.37802 0.0148457 4.34116 82 95 129 
-2.35131 0.501509 4.15294 100 116 150 
-2.35144 0.479375 4.16952 80 93 128 
-2.35198 0.406097 4.19695 105 122 168 
-2.35173 0.448803 4.18402 20 18 42 
-2.3602 0.537785 4.17036 22 26 53 
-2.33573 0.624026 4.11746 79 64 71 
-2.36318 0.436871 4.22294 76 91 120 
-2.34852 0.552496 4.17026 73 87 124 
-2.35202 0.483378 4.19843 18 19 37 
-2.35717 0.454075 4.21526 72 90 126 
-2.35995 0.424224 4.23032 29 35 67 
-2.38755 0.0139795 4.39903 44 53 92 
-2.28229 0.305912 4.19331 82 91 120 
-2.31392 0.136417 4.28545 105 122 165 
-2.35449 0.516019 4.20402 24 23 39 
-2.3642 0.370968 4.26572 87 105 145 
-2.38748 -0.0178782 4.42627 66 83 129 
-2.27932 0.198317 4.24094 106 126 163 
-2.27739 0.252975 4.22499 109 129 164 
-2.35641 0.4668 4.23591 18 19 40 
-2.27014 0.154966 4.26437 50 64 93 
-2.32593 0.619607 4.16844 85 68 78 
-2.34173 0.501811 4.23401 97 114 158 
-2.33955 0.584548 4.209 31 27 42 
-2.35441 0.435585 4.28053 105 122 166 
-2.38345 0.0228421 4.45704 92 108 142 
-2.36105 0.375581 4.31507 98 117 157 
-2.34895 0.521297 4.25642 56 65 106 
-2.38734 0.00153944 4.47711 53 60 112 
-2.34913 0.466648 4.27798 22 31 62 
-2.35416 0.417124 4.3024 42 54 92 
-2.3325 0.558701 4.24008 88 105 149 
-2.34582 0.443006 4.29733 57 65 114 
-2.35553 0.384542 4.33021 45 47 85 
-2.34965 0.479486 4.29253 91 109 149 
-2.37949 0.025881 4.48145 96 112 146 
-2.32221 0.619979 4.22233 86 66 77 
-2.35422 0.471901 4.32051 19 19 45 
-2.34995 0.450345 4.32658 92 105 147 
-2.3348 0.52721 4.29027 28 35 64 
-2.3638 0.509856 4.34188 97 114 157 
-2.3343 0.579019 4.2866 85 99 134 
-2.34391 0.475784 4.33423 60 71 101 
-2.35189 0.424515 4.36143 99 114 153 
-2.33596 0.554924 4.29862 94 109 148 
-2.2797 0.131132 4.38819 35 48 82 
-2.3464 0.465595 4.34554 34 35 66 
-2.34664 0.4505 4.35617 34 42 81 
-2.34014 0.489669 4.34281 21 21 45 
-2.32445 0.591231 4.29637 42 42 68 
-2.37566 0.0268988 4.55063 102 120 158 
-2.36633 0.0494096 4.53389 91 83 98 
-2.3377 0.578979 4.32332 95 113 153 
-2.37202 0.0394367 4.55403 51 52 83 
-2.32634 0.431576 4.37246 45 51 85 
-2.3312 0.555512 4.33522 88 106 142 
-2.33997 0.461001 4.37909 102 119 163 
-2.33511 0.504433 4.36309 102 120 160 
-2.24945 0.328312 4.3543 118 138 175 
-2.3221 0.586798 4.34681 40 50 85 
-2.36596 0.397882 4.48784 84 100 134 
-2.31793 0.615776 4.36904 28 25 46 
-2.34062 0.424879 4.47363 99 114 153 
-2.32138 0.545165 4.41627 49 60 106 
-2.31686 0.368385 4.47713 28 25 32 
-2.32001 0.596483 4.40007 28 36 75 
-2.31938 0.523188 4.42557 95 113 153 
-2.30559 0.579122 4.39841 103 120 164 
-2.28618 0.61092 4.36703 91 105 140 
-2.32058 0.511262 4.4549 34 46 94 
-2.32193 0.462735 4.47673 96 114 152 
-2.32287 0.476951 4.49037 99 117 155 
-2.33447 0.322492 4.56568 100 97 114 
-2.3498 0.236422 4.61831 52 53 84 
-2.34391 0.257114 4.60475 48 48 76 
-2.31962 0.523187 4.48244 109 127 175 
-2.3343 0.42198 4.53713 103 121 167 
-2.35454 0.185122 4.64489 40 45 75 
-2.29696 0.623981 4.42851 105 123 163 
-2.30749 0.286223 4.56615 43 43 71 
-2.33232 0.452455 4.53927 109 128 171 
-2.35912 0.177892 4.67832 57 72 113 
-2.33743 0.309446 4.60777 96 113 156 
-2.30794 0.498397 4.50931 95 110 149 
-2.32854 0.328518 4.59502 54 67 111 
-2.30593 0.560068 4.4894 61 73 123 
-2.31381 0.524203 4.51411 45 49 96 
-2.32782 0.433285 4.57218 56 70 119 
-2.32663 0.39318 4.60922 42 50 89 
-2.27505 0.682714 4.45705 37 37 61 
-2.25036 0.743474 4.41816 89 78 92 
-2.31191 0.425673 4.60716 62 73 119 
-2.26088 0.71639 4.47799 31 30 48 
-2.24377 0.779673 4.44171 92 86 100 
-2.2456 0.710825 4.49396 101 120 162 
-2.19261 0.838376 4.42171 94 80 103 
-2.21119 0.799773 4.48314 56 61 91 
-2.20333 0.802605 4.50914 109 127 173 
-2.11942 0.869268 4.44843 53 40 50 
-2.17948 0.820624 4.56905 105 101 118 
-1.87289 -0.414704 0.327017 46 59 94 
-1.85523 -0.455666 0.348338 106 119 161 
-1.90551 -0.409755 0.343182 103 122 162 
-1.88661 -0.45184 0.367004 99 121 160 
-1.95871 -0.4086 0.35976 37 54 97 
-2.02333 -0.374176 0.359786 52 62 89 
-2.06065 -0.430022 0.411799 106 121 164 
-2.24255 -0.323539 0.434311 51 57 91 
-2.25129 -0.330314 0.44179 103 123 156 
-2.22325 -0.351958 0.448092 108 126 162 
-2.36948 -0.305855 0.490064 104 122 162 
-2.39231 -0.29854 0.497105 56 65 104 
-2.41674 -0.308575 0.52061 55 59 94 
-2.36497 -0.355936 0.542007 71 84 118 
-2.35169 -0.373294 0.545239 49 65 101 
-2.3931 -0.333157 0.538147 110 127 170 
-2.39338 -0.346479 0.548839 51 58 84 
-2.48564 -0.337669 0.609546 49 62 107 
-2.48063 -0.354087 0.622831 48 60 102 
-2.53005 -0.323167 0.628623 100 119 152 
-2.48926 -0.361637 0.637784 50 65 106 
-2.56551 -0.304739 0.631881 53 60 89 
-2.52497 -0.32983 0.636709 57 68 100 
-2.51506 -0.354566 0.65233 104 122 160 
-2.54666 -0.3346 0.649299 107 120 154 
-2.63497 -0.224034 0.637102 23 35 51 
-2.55592 -0.328619 0.654974 54 61 103 
-2.59999 -0.297941 0.661077 50 53 86 
-2.66419 -0.202506 0.651818 104 119 152 
-2.58146 -0.321161 0.670863 46 55 98 
-2.60077 -0.312202 0.67632 104 122 160 
-2.62448 -0.29665 0.679005 53 64 110 
-2.57649 -0.343367 0.690763 97 113 149 
-2.71182 -0.195003 0.687418 112 124 164 
-2.68996 -0.247788 0.706748 38 28 37 
-2.89728 -0.14703 0.745372 37 48 76 
-2.72128 -0.301329 0.76707 41 47 69 
-2.77771 -0.253765 0.771724 35 42 70 
-2.98851 -0.260062 0.857378 92 69 77 
-6.65007 0.891117 2.05765 60 63 80 
-8.02128 1.21627 2.43888 67 70 87 
-3.11465 -0.0804023 1.5715 62 69 115 
-3.13102 0.0458747 1.55961 35 45 80 
-3.10007 -0.0698121 1.58751 53 62 105 
-3.28323 0.247845 1.56444 23 35 59 
-3.27739 0.230995 1.56697 18 33 64 
-3.14759 0.10221 1.57503 27 31 43 
-3.09538 -0.0739455 1.60494 112 126 161 
-3.12616 -0.0293781 1.60951 67 77 113 
-3.08719 -0.0385657 1.63096 114 128 173 
-3.12673 -0.00330674 1.64849 79 61 85 
-3.08252 -0.0219972 1.65402 103 116 160 
-3.37045 0.310589 1.6638 60 68 107 
-3.06494 -0.0692741 1.66708 55 68 103 
-3.21967 0.12544 1.66913 61 70 111 
-3.16542 0.0681892 1.67308 58 72 111 
-3.1214 0.0101585 1.67621 61 73 115 
-3.20646 0.137516 1.67401 108 124 160 
-3.33263 0.311157 1.67133 63 67 102 
-3.11492 0.0209507 1.67816 112 127 166 
-3.33007 0.307993 1.68239 108 119 151 
-3.23599 0.184028 1.68747 112 125 157 
-3.20419 0.143872 1.69143 111 127 163 
-3.34787 0.319163 1.694 57 63 97 
-3.11569 0.027635 1.69596 114 128 167 
-5.88942 0.946966 2.26912 15 16 20 
-3.30819 0.333711 1.71354 107 126 159 
-3.12005 0.0935151 1.71748 111 129 167 
-3.15103 0.141947 1.7189 66 72 108 
-3.07261 0.0274128 1.72471 66 72 108 
-3.04256 -0.0182574 1.73113 59 65 97 
-3.2378 0.25752 1.72686 108 121 153 
-3.30132 0.339616 1.72947 105 124 156 
-3.12728 0.100006 1.73732 114 130 166 
-3.04839 -0.00536284 1.73831 109 125 159 
-3.07917 0.034236 1.74589 64 72 111 
-3.23496 0.332663 1.75313 64 70 106 
-3.15767 0.213866 1.75959 62 67 105 
-3.08238 0.0985807 1.76469 66 71 109 
-3.13078 0.176303 1.76359 69 78 117 
-3.04731 0.0601659 1.76681 67 77 113 
-3.12292 0.171612 1.77359 112 125 167 
-3.24827 0.340595 1.77577 64 72 111 
-3.04656 0.121753 1.79842 111 127 163 
-3.00226 0.057088 1.80525 66 74 111 
-2.97022 0.00706456 1.80754 67 73 107 
-3.12706 0.241841 1.813 108 126 164 
-3.05032 0.128304 1.81685 112 126 165 
-3.07867 0.175703 1.81831 63 72 111 
-3.00486 0.0635612 1.82385 60 73 108 
-3.04063 0.190457 1.83282 110 126 162 
-3.1415 0.352951 1.82975 64 70 104 
-3.06526 0.237225 1.83359 65 70 108 
-3.00024 0.12572 1.83988 69 77 116 
-2.9201 -0.0174295 1.85083 56 67 112 
-2.99624 0.121996 1.85156 108 121 155 
-3.04057 0.196363 1.84977 111 125 162 
-2.97657 0.131966 1.85307 67 74 116 
-2.93515 0.0776908 1.8542 69 74 114 
-3.03057 0.242751 1.84879 64 70 106 
-3.07585 0.301034 1.85038 63 72 111 
-2.99518 0.18769 1.85016 67 72 114 
-2.98849 0.154551 1.86526 108 123 162 
-3.06294 0.321355 1.85131 112 126 161 
-2.89974 0.0346128 1.8636 65 73 109 
-3.09024 0.379641 1.8468 105 118 152 
-2.88619 0.0083554 1.87591 67 76 117 
-2.92325 0.0824757 1.87979 79 65 91 
-2.91525 0.101766 1.88106 61 53 74 
-2.81837 0.0590109 1.87333 114 131 174 
-2.82672 0.0260708 1.91804 74 87 129 
-2.81269 0.0137336 1.9165 114 129 168 
-2.84207 0.0574504 1.91819 61 75 120 
-2.85818 0.0841181 1.92006 66 74 111 
-2.75515 -0.078819 1.92804 125 140 179 
-2.93021 0.333882 1.89713 102 122 155 
-2.80367 0.0217668 1.92644 71 87 123 
-2.82865 0.0569078 1.9275 68 80 122 
-2.82059 0.0644841 1.93624 63 75 117 
-2.79588 0.0300632 1.93887 80 95 138 
-2.78766 0.045651 1.94642 61 76 119 
-2.79232 0.0600073 1.94589 117 135 175 
-2.70146 -0.0776385 1.96202 85 101 137 
-2.7769 0.131915 1.94276 50 36 51 
-2.76756 0.0483193 1.96438 64 76 116 
-2.73374 0.062721 1.98287 56 65 104 
-2.75435 0.0758686 1.99035 83 96 130 
-2.75236 0.129846 1.9848 64 76 118 
-2.71494 0.130608 1.98305 67 76 115 
-2.71343 0.0930125 1.9981 58 64 96 
-2.70729 0.105142 1.99874 106 121 154 
-2.71962 0.137117 2.00291 65 73 110 
-2.68704 0.149838 2.00764 109 124 163 
-2.60539 -0.0231974 2.0183 88 76 80 
-2.6081 0.15081 2.02328 65 73 110 
-2.52937 0.000653367 2.05104 76 76 100 
-2.55733 0.0833093 2.05704 53 66 108 
-2.53764 0.0951947 2.0567 97 111 150 
-2.54373 0.121564 2.07001 26 29 46 
-2.52999 0.14369 2.07386 87 98 130 
-2.491 0.0275039 2.0927 109 122 156 
-2.52318 0.101462 2.09153 107 124 167 
-2.51364 0.176246 2.0821 63 75 117 
-2.35756 0.0399705 2.10875 67 69 92 
-2.40553 0.186553 2.09603 68 73 113 
-2.39823 0.19178 2.10744 70 75 117 
-2.35968 0.194089 2.10696 65 72 114 
-2.3336 0.15843 2.11042 58 66 102 
-2.25716 -0.00813024 2.13495 80 70 94 
-2.14953 -0.262107 2.15652 62 54 77 
-2.19616 -0.0192299 2.12297 125 140 181 
-2.1776 -0.0361619 2.1186 93 111 149 
-2.12198 -0.290054 2.16266 80 82 120 
-2.15066 -0.0266548 2.11456 51 62 108 
-2.2623 0.147296 2.13016 113 129 165 
-2.10013 -0.165819 2.1357 123 140 183 
-2.09043 -0.204252 2.14111 126 145 188 
-2.1494 -0.0161313 2.12184 125 142 188 
-2.08393 -0.322925 2.1744 81 78 109 
-2.25713 0.172492 2.13236 66 80 125 
-2.26143 0.194464 2.13076 66 75 114 
-2.13617 -0.227308 2.17934 33 39 71 
-2.09965 -0.128805 2.13911 33 37 64 
-2.08341 -0.276805 2.17154 124 143 185 
-2.06821 -0.326157 2.17789 127 141 180 
-2.20057 0.0696315 2.14184 77 82 112 
-2.24127 0.181848 2.13266 112 131 173 
-2.05477 -0.195957 2.14335 104 123 155 
-2.06254 -0.156359 2.13744 113 132 174 
-2.11693 -0.00646468 2.12552 130 143 187 
-2.09724 -0.0813131 2.13636 115 136 167 
-2.07115 -0.315087 2.18727 69 72 105 
-2.21313 0.146831 2.1391 69 82 124 
-2.22783 0.175977 2.13919 55 64 107 
-2.04025 -0.220734 2.1505 26 32 54 
-2.11249 -0.01376 2.13713 54 56 104 
-2.04641 -0.317188 2.18487 78 90 128 
-2.2052 0.159281 2.1424 58 73 114 
-2.04382 -0.289294 2.18198 84 88 123 
-2.02766 -0.275139 2.18601 115 130 169 
-2.18641 0.19519 2.14932 109 127 167 
-1.96756 -0.376032 2.19239 86 78 101 
-2.10628 0.0221565 2.16153 73 60 78 
-2.01829 -0.186623 2.17958 120 133 175 
-2.15357 0.184643 2.15377 51 60 91 
-2.1395 0.168235 2.15182 51 64 99 
-2.05725 0.0488675 2.22631 61 67 93 
-2.08609 0.117397 2.2886 74 65 70 
-1.9603 -0.40224 2.40585 99 112 146 
-1.9631 -0.259349 2.36992 120 121 142 
-1.96203 -0.270919 2.37263 124 129 158 
-2.00528 -0.206629 2.38172 98 108 144 
-2.0635 0.0648029 2.34564 64 50 67 
-1.90697 -0.485353 2.4071 38 50 92 
-1.91246 -0.465413 2.4051 35 47 87 
-2.05857 0.00150485 2.36278 89 100 132 
-1.96384 -0.257668 2.3814 18 22 47 
-1.99861 -0.118068 2.36641 21 23 46 
-1.90408 -0.496408 2.41953 119 137 175 
-1.91091 -0.46632 2.41555 110 128 166 
-2.05243 0.0891493 2.34478 30 34 63 
-1.91762 -0.433356 2.41249 138 153 194 
-1.95519 -0.291488 2.39667 117 137 170 
-2.00577 -0.124224 2.382 86 97 127 
-1.9945 -0.129324 2.37739 83 94 126 
-2.06092 0.0773455 2.36202 83 92 121 
-1.8998 -0.506789 2.43094 39 52 94 
-1.9089 -0.466532 2.42567 32 46 91 
-2.05186 0.0998596 2.35295 105 125 160 
-1.95533 -0.292197 2.40713 88 107 140 
-1.95581 -0.281399 2.40574 22 28 54 
-2.06826 0.176007 2.3453 126 143 187 
-1.99624 -0.119545 2.38827 18 23 45 
-2.00746 -0.073496 2.38307 27 32 61 
-2.05038 0.0991302 2.36345 80 96 130 
-2.04798 0.0880033 2.36559 28 35 63 
-2.0654 0.14754 2.3599 86 102 136 
-1.94655 -0.313075 2.41884 118 134 170 
-2.01027 -0.144173 2.41129 77 70 86 
-2.05172 0.123717 2.36874 116 130 165 
-1.90323 -0.503388 2.45562 122 118 143 
-1.94952 -0.274424 2.42184 119 115 138 
-1.90504 -0.479417 2.45939 132 142 177 
-1.91156 -0.460228 2.45859 126 135 168 
-2.05379 0.14821 2.37501 105 103 127 
-2.00645 -0.109091 2.41921 107 107 133 
-2.04616 0.0927465 2.38779 100 97 118 
-1.89429 -0.509261 2.47088 38 50 92 
-1.9049 -0.469036 2.46689 37 46 89 
-1.90852 -0.447468 2.46323 37 49 91 
-1.95287 -0.261654 2.44218 18 22 47 
-1.95139 -0.273817 2.44503 98 112 149 
-2.05771 0.0626736 2.41652 65 54 68 
-1.98234 -0.13467 2.42738 80 89 120 
-1.9856 -0.121585 2.42616 17 19 42 
-1.89447 -0.500174 2.48009 120 139 179 
-1.9009 -0.479946 2.47855 124 143 185 
-2.04162 0.0859589 2.40727 26 33 61 
-1.91073 -0.437467 2.47509 134 151 194 
-2.04826 0.134037 2.39887 28 35 63 
-1.94885 -0.263432 2.45151 101 116 149 
-1.89118 -0.510463 2.49197 39 52 96 
-1.99021 -0.126188 2.44457 71 78 107 
-1.89596 -0.490398 2.48949 38 50 88 
-1.9001 -0.470079 2.48667 38 50 90 
-1.90523 -0.44886 2.48433 40 52 92 
-2.03061 0.0734303 2.41411 84 94 129 
-2.04084 0.120706 2.40945 111 131 166 
-1.94279 -0.285252 2.46528 18 25 51 
-1.96853 -0.135432 2.43927 86 97 127 
-1.94801 -0.262743 2.4625 15 22 50 
-1.97924 -0.123236 2.44564 15 20 42 
-2.02813 0.0848487 2.42249 28 33 62 
-2.03672 0.131952 2.41542 26 35 64 
-1.90781 -0.544187 2.53339 90 87 108 
-1.91184 -0.401118 2.49619 117 128 173 
-2.02416 0.0967134 2.42707 114 128 163 
-1.95406 -0.358901 2.51444 86 79 97 
-1.86791 -0.554838 2.53979 117 131 170 
-1.91741 -0.294639 2.50043 114 118 153 
-1.95975 -0.0931071 2.4737 114 118 145 
-1.86756 -0.524484 2.55427 86 79 97 
-1.82135 -0.621624 2.56037 123 140 186 
-1.83297 -0.623368 2.56941 117 136 179 
-2.00038 0.1659 2.46862 71 65 69 
-1.85677 -0.315706 2.52664 64 56 80 
-1.92647 0.00192919 2.48784 60 64 89 
-1.78961 -0.431015 2.52796 59 52 70 
-1.78361 -0.454386 2.53521 48 53 82 
-1.78426 -0.486379 2.54596 61 57 72 
-1.6707 -0.671921 2.55477 16 21 43 
-1.68879 -0.645937 2.56013 34 41 67 
-1.43656 -0.641584 2.42277 31 35 64 
-1.85509 -0.292113 2.61888 69 55 72 
-1.88148 -0.0712062 2.57925 71 53 65 
-1.41361 -0.646691 2.43203 49 51 89 
-1.85743 -0.289449 2.62854 88 70 84 
-1.92453 0.119811 2.57078 81 67 80 
-1.89192 -0.514459 2.74385 110 128 174 
-1.93111 -0.445433 2.75676 79 79 107 
-1.88751 -0.0258985 2.60608 55 69 95 
-1.84876 -0.339588 2.68439 50 58 105 
-1.92161 -0.181463 2.69479 120 137 189 
-1.39375 -0.674019 2.48109 230 237 255 
-1.87387 -0.44093 2.7688 65 50 69 
-1.94279 0.0754477 2.69115 129 141 181 
-1.37761 -0.689214 2.5223 229 236 255 
-1.9213 -0.306265 2.80957 112 125 169 
-1.37008 -0.682098 2.53325 57 60 93 
-1.90938 -0.426795 2.85008 33 44 74 
-1.95264 -0.468786 2.90597 81 64 80 
-2.0877 0.54776 2.75994 8 14 48 
-2.08684 0.562794 2.76946 88 110 149 
-2.08775 0.560914 2.84809 64 60 85 
-2.09038 0.581331 2.84551 61 56 86 
-2.0786 0.513142 2.8611 94 109 138 
-2.10461 0.597246 2.88255 69 84 117 
-2.10771 0.603092 2.90428 70 83 117 
-2.10125 0.533537 2.93854 77 88 116 
-2.12697 0.598342 2.96045 20 26 40 
-2.15637 0.501373 3.02373 58 44 57 
-2.17294 0.491827 3.05833 64 69 107 
-2.11051 -0.51675 3.3556 91 95 140 
-2.13145 -0.291034 3.31236 82 93 139 
-2.17065 0.375934 3.14131 59 69 118 
-2.28127 0.86482 3.07969 34 30 57 
-2.15272 -0.0456924 3.27129 74 76 114 
-2.17211 0.386151 3.15225 110 128 174 
-2.17831 0.321397 3.19009 68 79 125 
-2.14022 -0.304263 3.35777 58 44 61 
-2.18602 0.223633 3.23234 110 125 166 
-2.17192 0.389264 3.17063 78 92 137 
-2.15582 -0.0281204 3.29146 47 34 44 
-2.19416 0.392392 3.19808 63 80 124 
-2.16973 -0.0448166 3.322 69 68 100 
-2.18882 0.381012 3.20246 115 129 178 
-2.17598 -0.0344846 3.33015 106 95 109 
-2.18758 0.396475 3.2116 78 89 135 
-2.31293 0.89432 3.15996 89 98 139 
-2.16418 0.177803 3.26364 59 52 83 
-2.15727 0.152993 3.26645 60 55 87 
-2.09595 -0.333983 3.37125 46 61 102 
-2.13435 0.00526265 3.29548 91 100 133 
-2.13332 0.0280669 3.28834 110 123 158 
-2.15761 0.190491 3.2581 62 47 68 
-2.19489 0.337105 3.24455 81 92 137 
-2.19952 0.52206 3.18971 46 46 72 
-2.29634 0.889564 3.15911 30 43 88 
-2.14416 0.182735 3.2579 118 132 167 
-2.11803 0.0582603 3.27803 54 66 106 
-2.19792 0.237137 3.28952 94 111 154 
-2.18803 0.533242 3.19223 80 62 74 
-2.11016 -0.315388 3.40259 113 128 171 
-2.20328 0.817343 3.11827 56 59 92 
-2.20239 0.285841 3.29173 65 76 121 
-2.20444 0.47856 3.23241 72 85 129 
-2.18946 -0.0435092 3.39196 64 71 113 
-2.21081 0.397694 3.27694 56 70 117 
-2.15415 0.049494 3.34352 107 124 167 
-2.20848 0.467097 3.25917 60 70 119 
-2.21374 0.38413 3.29115 114 128 175 
-2.21642 0.49007 3.26579 50 64 109 
-2.22098 0.339185 3.32003 110 127 170 
-2.14751 0.108118 3.33461 55 67 105 
-2.21309 0.524128 3.25793 104 123 165 
-2.21125 0.374805 3.30571 68 81 126 
-2.20065 0.219632 3.34794 31 25 37 
-2.2175 0.476487 3.27933 107 122 165 
-2.20497 -0.0213574 3.4317 35 25 34 
-2.17405 -0.319014 3.50239 121 123 148 
-2.18901 0.714539 3.18252 50 47 76 
-2.1645 0.187368 3.33233 42 50 86 
-2.21946 0.396964 3.31588 59 69 118 
-2.16583 0.636245 3.19169 72 85 119 
-2.17649 0.660405 3.19316 83 97 134 
-2.17592 0.704465 3.18053 88 103 136 
-2.18768 -0.0382671 3.432 59 59 87 
-2.17323 0.72566 3.17171 96 106 142 
-2.1738 0.0542835 3.3909 111 129 165 
-2.20245 -0.052924 3.45272 118 134 183 
-2.23073 0.527293 3.29078 101 120 162 
-2.22472 0.475167 3.30275 43 46 89 
-2.17692 0.786784 3.16062 78 89 119 
-2.21606 0.494196 3.29261 93 111 149 
-2.18853 0.801906 3.17132 96 109 143 
-2.22404 0.281783 3.37211 61 74 116 
-2.18473 0.719968 3.19727 16 21 40 
-2.24072 0.441153 3.33762 112 130 176 
-2.22655 0.255285 3.38979 70 83 128 
-2.23143 0.368421 3.35809 111 132 179 
-2.16261 0.577429 3.23007 14 17 26 
-2.22198 0.542207 3.29612 42 38 61 
-2.1625 0.778826 3.16778 23 27 38 
-2.22318 0.273744 3.38805 103 120 164 
-2.2128 0.172839 3.41205 100 99 113 
-2.20694 0.18797 3.40549 106 101 121 
-2.23385 0.528975 3.31917 99 117 155 
-2.19404 0.0340182 3.44528 54 45 62 
-2.1963 -0.320632 3.56455 112 124 162 
-2.19642 0.0587751 3.4413 57 45 65 
-2.22193 -0.0541267 3.50131 73 83 132 
-2.21528 -0.0370945 3.49234 48 51 82 
-2.22965 0.248321 3.41212 95 115 150 
-2.1897 0.082017 3.43242 49 42 60 
-2.22464 0.288044 3.39632 58 67 110 
-2.22943 0.400162 3.36396 36 41 73 
-2.23496 -0.0704731 3.52316 77 87 136 
-2.20642 0.122868 3.43597 55 46 67 
-2.23441 -0.307971 3.60345 50 35 54 
-2.17541 0.0169215 3.44923 95 105 141 
-2.1643 0.64273 3.235 55 67 93 
-2.17746 0.0713508 3.43687 111 126 159 
-2.23528 0.508227 3.34748 61 75 122 
-2.23524 0.376916 3.39063 36 41 83 
-2.1827 0.0980666 3.43574 104 120 154 
-2.23574 0.490784 3.35456 107 122 163 
-2.18461 0.787186 3.21216 60 72 94 
-2.18487 0.762178 3.22125 61 76 99 
-2.23399 0.5448 3.33832 101 117 153 
-2.24011 0.428438 3.38566 28 31 66 
-2.16952 0.0436628 3.451 51 60 101 
-2.19154 0.661573 3.27397 25 33 52 
-2.17585 0.151161 3.42902 46 52 86 
-2.24361 0.326434 3.43324 113 129 178 
-2.24103 0.293169 3.44291 47 60 104 
-2.24135 0.524229 3.36728 108 127 170 
-2.23896 0.396996 3.40714 80 94 129 
-2.23074 -0.08779 3.56177 54 63 102 
-2.24373 0.435431 3.4038 87 106 146 
-2.24039 0.37585 3.42241 31 33 58 
-2.24493 0.501497 3.38567 53 58 96 
-2.212 0.685226 3.29597 76 92 125 
-2.2502 0.254931 3.47468 92 108 144 
-2.24018 -0.143815 3.59713 66 73 119 
-2.24111 0.284631 3.45821 109 126 170 
-2.20761 0.826464 3.25316 94 105 137 
-2.23397 -0.0335978 3.56046 49 52 85 
-2.23824 -0.0415483 3.57199 110 125 168 
-2.20898 0.307674 3.43145 69 80 126 
-2.24474 -0.0333914 3.57873 52 57 95 
-2.24371 0.32481 3.45984 70 83 128 
-2.2336 -0.0225749 3.56602 102 90 104 
-2.2301 0.623956 3.35002 76 64 74 
-2.24302 -0.13173 3.6136 109 123 170 
-2.24426 -0.0962771 3.60408 112 128 179 
-2.24655 -0.146741 3.6231 56 70 119 
-2.22991 0.790753 3.29978 88 84 99 
-2.24757 0.442139 3.4337 76 92 126 
-2.19327 0.163668 3.4769 94 108 143 
-2.25134 0.292291 3.48852 62 71 112 
-2.25791 0.354701 3.47415 42 49 75 
-2.25484 0.521565 3.4177 58 66 102 
-2.24254 0.500522 3.41527 106 123 169 
-2.24731 -0.102533 3.61998 118 135 181 
-2.23037 -0.674791 3.79307 42 38 61 
-2.25135 0.389729 3.4641 97 112 151 
-2.25257 0.376136 3.46986 44 52 89 
-2.25844 -0.116118 3.64266 58 69 115 
-2.25689 0.270584 3.51567 104 123 165 
-2.25088 -0.161032 3.65415 71 79 126 
-2.2509 -0.043192 3.61593 52 60 106 
-2.24944 -0.137981 3.64601 63 77 126 
-2.24859 0.403158 3.46787 43 47 84 
-2.25871 0.310435 3.50802 106 123 167 
-2.25652 0.54818 3.43045 101 117 153 
-2.19629 0.675147 3.33537 65 78 110 
-2.19684 0.72026 3.32131 84 91 120 
-2.25723 -0.0612763 3.6355 44 52 101 
-2.32983 0.431964 3.54028 84 102 140 
-2.25822 0.442085 3.47211 63 73 98 
-2.1988 0.765791 3.31232 82 93 121 
-2.25118 -0.037227 3.62726 97 115 151 
-2.34874 -0.808115 3.97171 83 91 112 
-2.25726 -0.130964 3.66409 122 140 186 
-2.19972 0.809344 3.3008 79 92 124 
-2.25073 -0.543859 3.79627 82 85 126 
-2.31625 0.249342 3.59411 29 22 29 
-2.1995 0.788181 3.30881 63 72 101 
-2.25547 0.281378 3.5312 53 60 106 
-2.25698 -0.288877 3.72321 61 67 115 
-2.25653 0.567932 3.44026 72 83 113 
-2.27518 0.483763 3.48681 95 116 159 
-2.26207 0.441153 3.49012 23 25 46 
-2.27643 0.548468 3.46795 52 58 94 
-2.26269 -0.0691565 3.66392 60 66 118 
-2.27346 0.385395 3.52402 80 93 128 
-2.25867 -0.0845678 3.66612 68 82 129 
-2.27028 0.432218 3.50812 101 119 157 
-2.26445 -0.208983 3.71823 108 130 169 
-2.27056 0.0266505 3.65353 93 82 98 
-2.26205 -0.316095 3.75999 128 147 189 
-2.26716 -0.13286 3.70509 114 131 175 
-2.26783 0.00420493 3.66053 93 80 100 
-2.27064 -0.0191445 3.67255 54 45 66 
-2.29113 0.544243 3.50399 93 110 153 
-2.2685 -0.0813462 3.69393 102 119 163 
-2.25744 0.568048 3.46791 87 102 143 
-2.26663 -0.144298 3.71355 55 67 115 
-2.2695 -0.0647278 3.69117 41 51 100 
-2.27169 0.0363543 3.66187 46 46 70 
-2.30538 0.267446 3.62724 37 40 73 
-2.27433 -0.0135134 3.69576 108 130 169 
-2.27527 0.0360869 3.6805 106 126 163 
-2.28738 0.277381 3.61388 74 89 122 
-2.27386 -0.0703615 3.71718 48 59 105 
-2.29624 0.977096 3.38847 86 101 140 
-2.27426 -0.213629 3.76978 61 68 120 
-2.27139 -0.122445 3.73839 53 70 114 
-2.28046 -0.136748 3.75229 63 71 118 
-2.27534 0.113127 3.66404 102 118 154 
-2.30147 0.506672 3.55789 33 40 69 
-2.27788 0.155154 3.6533 94 112 148 
-2.27273 -0.370617 3.82418 83 93 144 
-2.27307 -0.22539 3.77594 57 68 114 
-2.30654 0.485857 3.56969 30 34 61 
-2.26975 -0.0873612 3.72973 109 131 172 
-2.28574 0.28917 3.62152 34 43 74 
-2.28001 -0.0687708 3.73559 104 124 159 
-2.31304 0.630286 3.53412 28 25 42 
-2.30244 0.576682 3.54361 22 25 56 
-2.27367 -0.385396 3.83982 79 91 141 
-2.30831 0.696845 3.51075 18 22 49 
-2.27118 -0.0525128 3.72754 43 54 99 
-2.27678 -0.21271 3.78861 109 128 168 
-2.27991 -0.247602 3.80426 56 68 116 
-2.27603 -0.113681 3.75616 117 134 180 
-2.28363 -0.260587 3.81272 61 71 120 
-2.31388 0.772127 3.49489 12 17 37 
-2.28405 -0.274432 3.81928 63 76 121 
-2.27949 0.382948 3.59751 33 42 75 
-2.28216 0.0115255 3.72464 102 117 160 
-2.28491 0.0795106 3.7047 51 64 108 
-2.28088 -0.00690709 3.73025 45 52 96 
-2.29597 0.607221 3.53842 78 78 102 
-2.28232 0.420487 3.58833 79 94 135 
-2.27779 -0.0785062 3.75393 112 127 166 
-2.27121 -0.391977 3.85284 76 88 136 
-2.28736 -0.293595 3.83529 118 136 182 
-2.28698 0.0470441 3.72176 118 136 184 
-2.28391 0.00482625 3.73448 111 126 167 
-2.28403 -0.259808 3.82385 105 120 159 
-2.28745 -0.0610016 3.76166 107 125 163 
-2.28737 0.138627 3.69491 104 123 156 
-2.29236 0.0933553 3.71536 106 123 167 
-2.31047 0.753897 3.51185 66 74 97 
-2.2918 -0.212109 3.81875 65 75 124 
-2.28248 0.0621082 3.71819 57 63 111 
-2.28712 -0.27196 3.83716 122 141 183 
-2.30081 0.845263 3.47574 60 65 87 
-2.28274 0.189008 3.68009 109 126 169 
-2.27429 0.511329 3.56451 95 114 156 
-2.28588 -0.0218728 3.75492 47 57 108 
-2.27518 0.458711 3.58426 85 103 139 
-2.28127 -0.339047 3.85927 122 140 188 
-2.29176 -0.0453451 3.77198 51 59 108 
-2.28297 0.144846 3.70253 47 49 90 
-2.29599 0.0723401 3.7397 106 126 161 
-2.28947 0.479602 3.59757 22 29 57 
-2.28475 -0.34695 3.87149 75 83 132 
-2.287 0.0288674 3.74771 63 72 113 
-2.28432 0.412074 3.61737 24 26 41 
-2.28457 0.0151666 3.7515 48 60 102 
-2.29061 0.365107 3.63954 104 122 168 
-2.29625 0.135735 3.72369 100 118 154 
-2.28471 0.846641 3.47458 17 15 28 
-2.27861 0.589712 3.55607 76 83 111 
-2.28987 -0.260227 3.85289 109 131 172 
-2.29484 0.0613188 3.74986 64 76 116 
-2.28864 -0.0882642 3.79453 53 61 110 
-2.28608 0.446624 3.61288 27 34 60 
-2.28622 -0.0248317 3.77302 116 137 184 
-2.27779 0.267118 3.66658 95 109 148 
-2.29124 -0.332265 3.88156 67 79 127 
-2.29085 0.119465 3.72964 56 64 103 
-2.28092 0.873134 3.46617 18 16 27 
-2.29271 0.224718 3.69632 104 122 162 
-2.30133 0.494186 3.61519 22 32 67 
-2.29461 1.00255 3.43855 28 25 44 
-2.29037 -0.311385 3.87863 84 98 143 
-2.28385 0.549273 3.58264 67 81 108 
-2.28073 0.463649 3.60921 40 50 86 
-2.29609 0.0837609 3.75214 49 62 106 
-2.28093 0.758433 3.50989 23 22 30 
-2.29759 -0.288927 3.87965 117 136 178 
-2.29777 0.645516 3.56579 39 41 54 
-2.29586 -0.217212 3.8547 119 140 187 
-2.26949 0.775986 3.49466 80 70 81 
-2.28733 -0.0925481 3.80559 120 139 181 
-2.29214 0.140279 3.73274 54 62 99 
-2.28861 0.198552 3.71138 109 121 159 
-2.2933 -0.0660956 3.80574 45 47 88 
-2.29249 0.722911 3.5391 24 22 33 
-2.29161 0.90814 3.47807 36 35 41 
-2.29127 0.130143 3.74077 112 130 166 
-2.30107 -0.189878 3.85887 119 141 188 
-2.28414 0.419784 3.63707 66 82 107 
-2.30193 0.0292005 3.78657 114 131 175 
-2.30582 0.120427 3.76004 47 58 103 
-2.28456 -0.0333617 3.79225 82 90 137 
-2.29294 0.278026 3.69658 39 43 80 
-2.29886 0.079437 3.76979 117 136 179 
-2.29861 -0.283218 3.89431 55 64 119 
-2.29746 0.0205694 3.7911 37 41 88 
-2.2964 0.157818 3.74395 108 129 174 
-2.28703 0.7734 3.52754 24 33 62 
-2.29299 0.0110502 3.79175 120 138 184 
-2.30297 -0.255065 3.89299 124 145 192 
-2.28854 0.624724 3.58275 76 93 123 
-2.28925 0.253914 3.71134 115 131 167 
-2.27755 0.926332 3.47287 29 28 46 
-2.28129 0.583245 3.59579 73 93 128 
-2.2985 0.107467 3.77399 71 81 130 
-2.29925 0.245684 3.73015 55 64 105 
-2.29502 -0.0460126 3.82529 73 85 133 
-2.2852 0.670918 3.57332 22 28 52 
-2.30401 -0.290318 3.91687 122 143 190 
-2.26796 0.972818 3.45618 89 108 150 
-2.27835 0.854791 3.50657 82 97 128 
-2.30559 0.459987 3.66799 22 24 47 
-2.30506 -0.315604 3.93109 69 81 131 
-2.28749 0.657945 3.58536 75 93 129 
-2.28258 0.513445 3.63024 23 23 47 
-2.30078 0.266559 3.732 46 59 101 
-2.2872 0.640665 3.59307 24 34 59 
-2.3021 0.276508 3.73438 109 127 165 
-2.29695 0.452458 3.673 69 84 113 
-2.2775 0.863067 3.51417 33 43 78 
-2.3059 0.25436 3.74904 58 66 103 
-2.30497 -0.162092 3.88924 87 104 156 
-2.30194 0.615965 3.62488 101 120 162 
-2.30022 0.123855 3.79065 61 72 118 
-2.27003 0.997412 3.46452 91 115 153 
-2.27991 0.765626 3.55322 103 121 167 
-2.30151 0.688467 3.60492 96 114 152 
-2.31258 -0.353968 3.97018 77 91 138 
-2.29294 0.561737 3.6415 92 110 148 
-2.30748 0.182532 3.78578 110 131 174 
-2.30332 0.0897235 3.81396 76 84 131 
-2.30584 -0.0152404 3.85314 67 78 124 
-2.28603 1.01833 3.48227 36 32 49 
-2.28324 0.808607 3.55224 11 14 19 
-2.31736 -0.0149738 3.8657 63 74 119 
-2.27884 0.951966 3.50125 30 28 50 
-2.30946 0.154067 3.80556 90 98 135 
-2.29928 0.329421 3.73611 59 70 115 
-2.29695 0.590086 3.65114 93 115 156 
-2.30749 0.4668 3.70381 78 91 123 
-2.32499 -0.366166 4.00615 119 135 184 
-2.3359 -0.30753 3.99905 107 121 166 
-2.30956 0.15323 3.81783 47 47 83 
-2.31673 -0.281056 3.97328 71 83 131 
-2.3688 -0.431765 4.07678 114 134 184 
-2.2946 0.608451 3.64969 96 110 145 
-2.30795 0.0220594 3.86305 80 92 140 
-2.28561 0.867171 3.55576 13 13 25 
-2.3129 0.126349 3.83718 110 125 166 
-2.29288 0.744076 3.60746 24 27 58 
-2.34695 -0.40226 4.05126 114 128 173 
-2.29402 0.692424 3.63064 75 94 126 
-2.33402 -0.318894 4.01559 99 113 152 
-2.26994 0.967411 3.51517 33 36 67 
-2.31039 0.160073 3.83277 35 40 82 
-2.29367 0.723361 3.6261 67 83 109 
-2.28538 0.923254 3.55058 50 55 97 
-2.2861 0.961045 3.53895 98 118 155 
-2.29048 0.561849 3.67994 56 65 104 
-2.30212 0.63579 3.66717 28 29 47 
-2.32329 -0.135625 3.95167 111 125 170 
-2.2984 0.793808 3.60983 25 27 50 
-2.28485 0.99841 3.52674 22 27 59 
-2.31221 0.17699 3.83544 57 61 106 
-2.29952 0.546312 3.69747 72 83 111 
-2.28943 0.60756 3.66626 23 30 49 
-2.27931 0.839385 3.57789 27 28 49 
-2.29647 0.134861 3.83649 53 57 102 
-2.31029 0.329208 3.7836 54 67 102 
-2.32605 0.301341 3.81125 39 47 86 
-2.30941 0.144406 3.85122 90 104 141 
-2.28865 0.861238 3.58658 77 96 128 
-2.29295 0.756927 3.62758 85 107 146 
-2.29245 0.822271 3.60492 75 93 131 
-2.31254 0.259357 3.81962 49 53 98 
-2.29192 1.01677 3.54022 24 26 51 
-2.3468 -0.0234346 3.95171 99 112 154 
-2.29472 0.737887 3.64357 42 48 82 
-2.32747 0.173014 3.87341 103 120 164 
-2.32382 0.705824 3.68836 21 26 48 
-2.3243 0.136033 3.88465 99 108 147 
-2.31942 0.200381 3.85884 98 112 151 
-2.33592 0.708746 3.70091 22 28 54 
-2.30551 0.610187 3.70835 78 97 130 
-2.30849 0.821995 3.64236 17 20 35 
-2.29834 0.800151 3.64008 76 95 128 
-2.29268 0.903822 3.59919 85 101 137 
-2.28505 0.91462 3.5892 37 43 77 
-2.33058 0.263659 3.85907 80 95 134 
-2.32232 0.530403 3.76082 18 22 49 
-2.30356 0.47875 3.76027 20 22 47 
-2.30942 0.651337 3.70699 82 99 142 
-2.28251 1.01231 3.55744 97 114 157 
-2.33106 -0.337988 4.07015 103 122 165 
-2.30394 0.724509 3.67848 90 109 151 
-2.31421 0.413743 3.79925 56 61 93 
-2.31318 0.49381 3.77096 25 28 61 
-2.34163 0.119052 3.93021 30 32 55 
-2.33432 -0.142813 4.01336 95 114 156 
-2.2998 0.888577 3.62513 25 29 58 
-2.33258 -0.298355 4.06706 111 129 175 
-2.34075 0.154777 3.91987 30 36 62 
-2.2869 0.917728 3.60801 82 97 130 
-2.31569 0.528047 3.77233 74 88 117 
-2.34169 -0.320809 4.09151 52 62 115 
-2.27407 0.981449 3.57543 93 108 151 
-2.33319 -0.173058 4.03382 108 129 174 
-2.31167 0.650189 3.72905 20 17 48 
-2.28363 0.99709 3.58114 31 33 74 
-2.34177 -0.186699 4.05108 43 55 103 
-2.30928 0.761432 3.69163 18 16 37 
-2.32838 0.274135 3.88047 24 29 49 
-2.33132 0.0732962 3.95425 35 50 83 
-2.29607 0.73923 3.68989 19 16 35 
-2.29802 0.856779 3.65174 14 14 38 
-2.31005 0.700213 3.72022 78 90 128 
-2.28052 0.966529 3.59955 39 41 62 
-2.33111 0.110849 3.94672 85 108 149 
-2.33942 -0.162293 4.05189 48 54 104 
-2.34161 -0.245742 4.08301 68 84 135 
-2.32128 0.802556 3.70246 70 85 124 
-2.34743 -0.282139 4.10515 68 80 130 
-2.34478 -0.191156 4.07127 109 128 168 
-2.32623 0.258562 3.8979 77 93 126 
-2.32627 -0.0792118 4.01494 50 53 96 
-2.31015 0.858841 3.67772 65 79 108 
-2.32397 0.0817762 3.96152 101 120 163 
-2.30915 1.09328 3.59769 38 35 44 
-2.28694 0.912169 3.63816 73 89 123 
-2.33247 0.165778 3.94379 94 113 153 
-2.31493 1.08001 3.60929 65 54 68 
-2.32229 0.344039 3.87742 81 100 140 
-2.3428 -0.301997 4.12154 85 102 148 
-2.34747 -0.0820161 4.05071 50 57 101 
-2.31108 0.55173 3.79565 15 17 29 
-2.34637 -0.158838 4.07982 104 118 155 
-2.34448 -0.240227 4.10628 84 98 147 
-2.30731 0.664482 3.75826 17 21 32 
-2.35024 -0.0488599 4.0493 109 124 163 
-2.32858 0.270432 3.92377 99 112 146 
-2.34174 0.092314 4.00079 97 111 146 
-2.35055 -0.200044 4.1111 107 126 168 
-2.32497 0.0994776 3.98145 48 53 95 
-2.31378 0.870783 3.70336 13 15 27 
-2.3213 0.462154 3.8527 71 87 121 
-2.33271 0.209167 3.95232 100 113 147 
-2.30838 0.388057 3.86818 28 31 48 
-2.29265 0.912189 3.67017 20 22 34 
-2.2923 1.02298 3.63142 15 15 27 
-2.32102 0.500834 3.84452 65 84 114 
-2.31236 0.53339 3.8251 78 96 132 
-2.3047 0.938676 3.67757 18 20 32 
-2.34949 -0.13285 4.09775 37 41 78 
-2.35305 -0.206598 4.12841 51 65 114 
-2.28255 0.968815 3.64785 20 20 30 
-2.3509 -0.0476832 4.07593 107 119 157 
-2.32464 0.49103 3.86261 26 30 55 
-2.32254 0.58419 3.82842 61 79 117 
-2.35257 -0.182708 4.12637 61 68 120 
-2.33843 0.0653488 4.02715 82 91 122 
-2.35084 -0.16163 4.1203 47 53 101 
-2.30002 1.13383 3.61718 14 20 32 
-2.31979 0.639209 3.8105 79 95 128 
-2.3262 0.347716 3.91869 96 111 150 
-2.33322 0.207164 3.97656 38 44 78 
-2.33358 0.183534 3.98557 107 124 167 
-2.30083 0.884787 3.70858 58 74 100 
-2.31144 0.447342 3.87247 75 88 122 
-2.35245 -0.144262 4.12136 114 128 177 
-2.29533 0.749028 3.75353 77 97 130 
-2.31943 0.537725 3.8542 26 31 60 
-2.34355 -0.0832567 4.09602 38 38 74 
-2.33047 0.344135 3.93644 44 56 94 
-2.3525 -0.103547 4.11554 38 46 82 
-2.32249 0.470399 3.88604 24 22 44 
-2.30816 0.555951 3.84197 42 48 72 
-2.36138 -0.240565 4.1752 47 57 108 
-2.32861 0.328926 3.94735 43 46 81 
-2.32115 0.409926 3.91176 88 108 143 
-2.32769 0.357332 3.93783 96 116 151 
-2.29992 0.885126 3.72533 24 28 55 
-2.29638 0.763206 3.76549 23 28 50 
-2.35579 -0.211397 4.1671 118 135 179 
-2.34693 0.0444635 4.06998 87 102 135 
-2.35176 -0.120196 4.1326 37 34 65 
-2.33558 0.172355 4.01511 39 39 73 
-2.35001 0.0676888 4.06795 31 31 59 
-2.35022 0.0572372 4.07545 38 35 66 
-2.37923 -0.191685 4.19291 120 134 181 
-2.30296 0.786727 3.77274 84 104 141 
-2.31615 0.511145 3.88366 30 37 65 
-2.30837 0.749095 3.7926 89 108 150 
-2.28968 0.921169 3.71412 91 105 150 
-2.32691 0.359522 3.94923 57 69 117 
-2.29712 0.535442 3.85884 103 122 165 
-2.3451 0.119416 4.05607 41 36 68 
-2.30277 0.681107 3.81735 90 109 151 
-2.29797 0.8068 3.76895 92 109 152 
-2.29887 0.8705 3.74771 95 114 157 
-2.35849 -0.214173 4.19235 48 60 112 
-2.36806 -0.245659 4.21395 122 143 190 
-2.36203 -0.0525416 4.14015 45 39 73 
-2.31285 0.716589 3.82003 18 20 45 
-2.34136 0.279961 4.00391 37 38 66 
-2.29674 0.988283 3.71046 77 97 132 
-2.35571 0.0877411 4.08777 49 57 94 
-2.30679 0.842508 3.77337 88 107 147 
-2.35088 0.300969 4.00923 101 115 154 
-2.3239 0.509038 3.90835 70 79 108 
-2.28758 0.961894 3.71119 33 32 46 
-2.29978 0.893075 3.74915 77 86 117 
-2.36654 -0.169336 4.1907 103 117 156 
-2.31917 0.656342 3.8544 29 37 74 
-2.3202 0.597103 3.87702 25 29 64 
-2.32458 0.57887 3.88832 95 114 156 
-2.36042 -0.289175 4.23041 80 92 142 
-2.33381 0.426974 3.95254 17 18 39 
-2.33344 0.399584 3.96507 26 28 53 
-2.37088 0.0645476 4.12195 37 36 67 
-2.2991 0.828191 3.78084 38 40 78 
-2.29251 0.848024 3.7672 44 49 91 
-2.35342 0.0427675 4.11386 90 105 138 
-2.33244 0.467626 3.94613 29 29 55 
-2.32127 0.760525 3.83533 27 25 46 
-2.34152 0.391679 3.98637 112 126 161 
-2.3431 0.302043 4.01964 52 56 101 
-2.30712 0.663479 3.8564 87 103 136 
-2.36164 0.0976842 4.11272 110 128 168 
-2.33772 0.455584 3.96366 68 84 110 
-2.3257 0.554135 3.91637 86 101 140 
-2.33592 0.281331 4.02349 105 123 159 
-2.36055 0.00586168 4.14675 103 121 161 
-2.36948 -0.206554 4.23068 81 98 144 
-2.36806 -0.237765 4.24143 86 99 151 
-2.32266 0.620022 3.89393 21 20 51 
-2.33629 0.339399 4.00696 41 49 86 
-2.30496 0.837663 3.79928 32 29 48 
-2.36645 -0.151583 4.21269 47 49 70 
-2.35402 0.0403793 4.13296 41 44 79 
-2.33071 0.386041 3.98715 63 75 125 
-2.36826 -0.0778731 4.19025 97 111 140 
-2.37615 -0.326467 4.29179 84 97 149 
-2.32588 0.579415 3.92081 18 17 31 
-2.3615 -0.0174322 4.1705 47 48 79 
-2.34836 0.24541 4.06435 46 57 102 
-2.3437 0.321266 4.03302 108 127 170 
-2.32884 0.639197 3.90663 75 91 125 
-2.33025 0.550272 3.93936 23 25 50 
-2.35339 0.109848 4.12006 34 38 75 
-2.28653 0.844295 3.7912 43 33 41 
-2.34217 0.44795 3.98983 26 30 55 
-2.33972 0.330768 4.02911 51 56 96 
-2.34085 0.199621 4.07678 53 58 98 
-2.36386 0.0900535 4.13972 45 46 74 
-2.34483 0.359685 4.0258 111 124 166 
-2.29936 0.797919 3.82388 39 36 45 
-2.32824 0.431296 3.98724 111 128 172 
-2.27878 1.03413 3.72338 43 39 66 
-2.27905 1.08882 3.70438 39 31 54 
-2.28898 1.03805 3.73378 46 41 64 
-2.34606 0.353775 4.03595 45 57 97 
-2.33049 0.477408 3.97557 26 31 63 
-2.32554 0.663576 3.9057 21 19 30 
-2.37655 -0.277311 4.29063 85 99 148 
-2.35705 0.0782161 4.14549 99 115 151 
-2.36431 -0.0202876 4.19029 94 109 140 
-2.32838 0.566908 3.9462 84 98 133 
-2.35138 0.273199 4.07419 84 93 126 
-2.37441 -0.0947878 4.22855 83 92 123 
-2.35417 0.137085 4.12666 44 52 91 
-2.30482 0.838181 3.82702 79 64 71 
-2.37288 -0.0483352 4.21307 79 83 108 
-2.38476 -0.592219 4.42028 72 80 127 
-2.36068 0.107557 4.1489 87 102 141 
-2.34228 0.345651 4.04747 85 101 137 
-2.3744 -0.108178 4.24254 29 34 66 
-2.34113 0.6146 3.95369 21 20 36 
-2.33374 0.463313 4.00038 91 111 146 
-2.35814 0.214203 4.12069 44 51 95 
-2.36106 0.118644 4.16083 45 53 90 
-2.30543 0.733273 3.8854 80 67 84 
-2.30711 0.903579 3.82675 24 19 25 
-2.3023 0.787014 3.86317 84 68 78 
-2.32391 0.595268 3.95438 72 87 116 
-2.36089 0.13098 4.15823 51 62 107 
-2.36528 0.0842454 4.17949 93 106 141 
-2.30915 0.703659 3.90177 79 69 80 
-2.37724 -0.134149 4.27077 52 65 109 
-2.33092 0.0926342 4.1423 43 47 76 
-2.35104 0.350604 4.07397 47 59 97 
-2.29379 0.758587 3.86877 27 24 31 
-2.37965 -0.258438 4.3213 114 131 174 
-2.31886 0.666228 3.92953 72 58 71 
-2.38108 -0.29942 4.33838 75 83 129 
-2.34152 0.461221 4.02769 35 40 72 
-2.36789 0.0946198 4.18561 40 45 75 
-2.35869 0.0585826 4.18883 40 39 70 
-2.35493 0.295723 4.10142 53 58 98 
-2.35097 0.272195 4.10584 95 107 147 
-2.33084 0.574821 3.97936 20 27 45 
-2.38253 -0.570243 4.44252 60 47 65 
-2.32896 0.474235 4.01952 14 16 29 
-2.36389 0.105207 4.18802 94 108 145 
-2.3668 -0.0299205 4.24229 44 46 84 
-2.35099 0.444637 4.05805 39 49 85 
-2.35698 0.125171 4.18054 90 103 145 
-2.38675 -0.233016 4.33945 84 100 151 
-2.35686 0.231985 4.14362 40 44 89 
-2.38171 -0.0549961 4.27307 35 44 75 
-2.37381 0.0555754 4.22579 102 115 150 
-2.3858 -0.0797453 4.28799 56 60 107 
-2.36596 0.06299 4.21729 28 31 62 
-2.34907 0.0882988 4.19044 80 92 132 
-2.3987 -0.58311 4.48532 111 108 127 
-2.37285 -0.0121937 4.25571 44 50 82 
-2.32201 0.50395 4.01873 19 18 32 
-2.34442 0.389363 4.08708 39 34 64 
-2.35795 0.137792 4.19294 53 56 91 
-2.34984 0.342148 4.11265 41 48 77 
-2.32029 0.588187 3.99342 85 107 148 
-2.37899 -0.125408 4.31103 45 49 96 
-2.37485 0.0095115 4.26044 31 33 54 
-2.34512 0.357694 4.11243 40 43 78 
-2.34313 0.552429 4.04156 20 24 49 
-2.33065 0.576737 4.02008 44 59 100 
-2.3363 0.504263 4.05749 69 83 112 
-2.31774 0.655817 3.98606 85 70 77 
-2.34843 0.347859 4.13176 102 122 157 
-2.34663 0.374593 4.12212 89 102 137 
-2.3724 -0.00850146 4.29097 109 127 177 
-2.34013 0.480657 4.08535 78 92 119 
-2.34326 0.451212 4.10102 72 83 113 
-2.33779 0.508432 4.0812 21 20 34 
-2.39138 -0.120503 4.36469 56 75 118 
-2.40335 -0.586056 4.55499 109 105 120 
-2.34174 0.492843 4.10875 26 30 59 
-2.3148 0.109443 4.22182 44 35 54 
-2.34233 0.385663 4.15437 37 41 76 
-2.33346 0.48523 4.11313 86 103 133 
-2.34073 0.545204 4.10004 80 93 127 
-2.32093 0.136896 4.22551 36 31 51 
-2.33588 0.505392 4.11017 68 84 117 
-2.38365 -0.0881803 4.37987 78 94 143 
-2.32846 0.560691 4.08867 91 104 138 
-2.34586 0.405238 4.16555 55 74 117 
-2.38718 -0.0108347 4.36047 116 133 179 
-2.29875 0.105414 4.22201 97 111 146 
-2.32871 0.630325 4.07122 87 70 80 
-2.42712 -0.590461 4.61956 111 106 126 
-2.33164 0.578789 4.09464 19 17 39 
-2.38244 0.00321878 4.35938 36 40 77 
-2.29473 0.190693 4.19632 98 114 147 
-2.34903 0.380013 4.19376 45 57 95 
-2.32414 0.305704 4.19471 33 30 37 
-2.31198 0.12876 4.24666 43 47 85 
-2.29088 0.144251 4.21816 39 47 83 
-2.3676 0.327657 4.24144 106 96 105 
-2.28145 0.199917 4.19376 44 49 79 
-2.28196 0.182687 4.2021 47 54 83 
-2.34156 0.447718 4.17163 19 19 43 
-2.35291 0.427785 4.19502 30 26 63 
-2.39502 -0.0103693 4.40297 51 61 110 
-2.34449 0.5354 4.15155 18 22 47 
-2.35624 0.390085 4.22833 101 117 151 
-2.35206 0.402287 4.22561 39 42 83 
-2.34693 0.422171 4.21495 35 40 72 
-2.26646 0.0488786 4.26289 52 39 49 
-2.31786 0.316066 4.22727 27 23 38 
-2.38654 -0.00097199 4.41844 115 132 178 
-2.4426 -0.582264 4.69171 67 56 72 
-2.28981 0.306151 4.2027 98 112 139 
-2.33462 0.41697 4.21479 90 108 144 
-2.34869 0.465914 4.2264 15 16 36 
-2.29244 0.253375 4.24386 125 141 175 
-2.28725 0.309805 4.2263 115 134 167 
-2.32021 0.62005 4.16015 89 71 83 
-2.28022 0.301495 4.23148 53 67 104 
-2.34596 0.434284 4.27035 110 128 176 
-2.3844 0.0107057 4.47108 52 58 110 
-2.34042 0.45634 4.26111 75 86 106 
-2.3532 0.373868 4.30607 103 125 164 
-2.35218 0.346087 4.31581 25 20 27 
-2.3474 0.389959 4.29544 107 123 157 
-2.37481 0.0264837 4.46191 42 46 81 
-2.33122 0.518318 4.23499 55 63 102 
-2.34025 0.414805 4.28577 46 51 91 
-2.38523 0.0221796 4.491 109 129 162 
-2.38159 0.0427925 4.47992 90 80 91 
-2.3247 0.55794 4.23006 96 110 157 
-2.33382 0.514209 4.25669 51 60 103 
-2.34084 0.478208 4.28174 88 109 152 
-2.36451 0.344446 4.36832 64 56 67 
-2.341 0.318933 4.35682 101 94 110 
-2.55591 -0.939303 5.07105 81 92 114 
-2.33861 0.333717 4.35686 31 20 34 
-2.30911 0.140105 4.39957 43 46 81 
-2.34051 0.457537 4.32006 102 112 148 
-2.30994 0.238873 4.37093 51 54 85 
-2.3003 0.166078 4.38679 102 122 155 
-2.29007 0.224918 4.35792 111 126 165 
-2.3672 0.043582 4.5142 93 81 95 
-2.29676 0.208643 4.3731 114 134 169 
-2.29457 0.250091 4.3578 99 115 149 
-2.39203 0.00477389 4.56146 80 90 139 
-2.31228 0.563806 4.26398 58 66 115 
-2.32117 0.577509 4.26967 88 106 144 
-2.32842 0.5544 4.28862 97 116 156 
-2.32848 0.462878 4.32329 27 27 55 
-2.28876 0.320278 4.33477 104 120 153 
-2.28219 0.203204 4.37165 48 55 101 
-2.33753 0.448477 4.34548 38 42 87 
-2.28848 0.203271 4.38009 50 57 101 
-2.2987 0.220921 4.38795 47 55 94 
-2.28809 0.261512 4.36044 43 48 86 
-2.38489 0.0225337 4.5652 108 125 169 
-2.38637 0.0457413 4.56215 104 93 110 
-2.31818 0.631425 4.27166 73 57 67 
-2.386 0.0142506 4.58013 67 77 128 
-2.34144 0.389801 4.38961 96 112 146 
-2.3327 0.561297 4.31896 53 59 107 
-2.32891 0.514289 4.3378 45 50 90 
-2.36717 0.356967 4.44363 76 70 80 
-2.42363 -0.559038 4.85008 67 61 87 
-2.3253 0.588511 4.31297 106 120 157 
-2.38521 0.0274637 4.59174 115 134 176 
-2.33313 0.432096 4.38128 39 45 79 
-2.32782 0.475952 4.36761 54 65 110 
-2.32658 0.570015 4.33598 52 63 108 
-2.44842 -0.590696 4.91442 79 66 83 
-2.33561 0.529229 4.36787 50 61 106 
-2.32385 0.439904 4.38949 39 44 82 
-2.34343 0.438494 4.41964 89 102 137 
-2.29042 0.16776 4.45959 54 59 97 
-2.26083 0.328265 4.36961 133 151 187 
-2.39625 0.0322677 4.64038 115 124 163 
-2.27199 0.267716 4.40822 55 68 112 
-2.42271 -0.287226 4.79202 67 78 123 
-2.3163 0.605816 4.33433 29 31 52 
-2.37965 0.0506346 4.61718 89 75 90 
-2.26187 0.278476 4.39393 61 69 108 
-2.34155 0.416034 4.44029 100 118 156 
-2.26461 0.324336 4.38501 62 79 122 
-2.38084 0.037817 4.6341 42 47 79 
-2.37449 0.0524211 4.64033 99 90 107 
-2.38867 0.0289994 4.66886 58 66 113 
-2.31885 0.661186 4.35017 85 72 81 
-2.27743 0.341737 4.42137 43 35 56 
-2.32964 0.522935 4.4181 34 45 90 
-2.37467 0.0685704 4.65477 42 32 43 
-2.30814 0.661147 4.35334 75 62 72 
-2.33157 0.39823 4.48426 94 113 153 
-2.32888 0.368783 4.49337 26 23 30 
-2.29823 0.578936 4.38794 105 128 172 
-2.36282 0.226218 4.62044 97 88 105 
-2.37542 0.0862727 4.69082 41 45 74 
-2.37139 0.106176 4.68475 53 56 91 
-2.3299 0.477749 4.49965 106 123 166 
-2.34003 0.320397 4.57493 107 103 118 
-2.35479 0.232847 4.62769 53 58 88 
-2.36275 0.0879477 4.69373 100 123 164 
-2.38789 0.0331886 4.74495 71 83 135 
-2.36592 0.182245 4.66226 40 45 75 
-2.3682 0.174089 4.67077 58 57 89 
-2.33966 0.309528 4.58777 58 55 84 
-2.32893 0.525076 4.49406 114 132 178 
-2.38504 0.0462668 4.74779 113 136 180 
-2.35534 0.228269 4.6453 53 66 110 
-2.32356 0.502069 4.50745 50 61 107 
-2.34581 0.415619 4.56865 109 125 174 
-2.34042 0.453059 4.55027 111 129 175 
-2.37161 0.189113 4.68993 94 113 155 
-2.37354 0.174521 4.70031 62 76 121 
-2.35853 0.272065 4.64574 104 124 161 
-2.34547 0.307528 4.62034 97 116 158 
-2.3301 0.391619 4.57276 89 103 132 
-2.34586 0.328222 4.61942 53 70 113 
-2.34496 0.348713 4.61319 109 127 165 
-2.29417 0.692825 4.42089 95 80 99 
-2.31389 0.562105 4.49921 67 77 128 
