ply                 
format ascii 1.0    
element vertex 1302
property float x    
property float y    
property float z    
property uchar red  
property uchar green
property uchar blue 
end_header          
2.44561 0.597683 3.26297 101 111 147 
1.96255 0.497113 1.82624 57 61 86 
2.11653 0.149113 2.3447 50 53 72 
1.62936 -0.925366 1.12556 117 129 169 
1.82004 -0.851269 1.24114 115 107 130 
2.2366 -1.49402 3.1639 113 105 103 
1.87644 -0.533555 1.80747 68 81 115 
1.85689 -1.09576 1.85877 73 76 107 
1.94031 -1.24567 2.09512 114 129 172 
2.49739 -0.352046 3.58609 86 92 128 
2.44789 0.377534 3.30833 101 115 150 
1.87614 -0.919415 1.84014 102 120 158 
2.29375 -0.834284 3.12878 72 76 111 
1.68302 -1.45896 1.37242 114 110 133 
1.8321 -1.13694 1.73918 92 89 120 
1.72972 0.234487 1.15051 91 109 147 
1.69717 -0.583664 1.2942 99 116 159 
2.52971 0.373618 3.50094 91 105 142 
2.43384 0.679742 3.23376 77 87 122 
2.61545 0.840863 3.74495 84 97 131 
2.18771 -0.794846 2.95411 50 31 35 
2.17645 -0.875783 3.0397 65 76 108 
2.43965 -0.543179 3.67677 73 79 113 
1.78804 -0.416228 1.60373 100 103 138 
2.31558 -0.297063 2.76604 121 122 152 
2.02806 -0.416909 2.20516 106 119 154 
1.77125 0.297927 1.26465 101 114 148 
1.83991 -0.531724 1.64722 88 96 133 
2.10786 0.409207 2.29164 64 65 93 
2.48447 -0.125491 3.57845 74 80 114 
2.11051 -1.02317 2.66887 119 112 104 
2.42625 -0.760409 3.53857 98 120 161 
2.08665 0.00104009 2.32789 51 52 72 
1.84348 -1.06484 1.75988 83 91 130 
1.90531 0.143834 1.75322 98 118 155 
2.4501 -0.831283 3.50742 93 105 143 
1.94977 -0.18582 2.27151 55 48 42 
1.82102 -0.0927141 1.46568 95 108 143 
1.86871 -1.0457 1.8634 107 122 161 
1.83421 -0.197112 1.50638 91 103 141 
1.68154 -0.134234 1.08156 104 117 159 
2.06874 -1.30122 2.39462 127 142 183 
1.67559 -1.41132 1.39359 75 78 113 
2.05908 -1.52922 2.55954 106 101 98 
2.08077 -1.38603 2.53415 99 105 141 
1.9259 -1.00197 2.05576 105 98 116 
1.84355 -0.244037 1.63223 87 101 136 
2.29598 0.496798 2.82392 35 37 58 
2.29202 0.506257 2.79246 64 65 95 
1.97341 -0.139723 2.22185 78 71 65 
2.26029 -1.4088 3.23213 107 102 98 
1.81243 -0.990675 1.67352 86 98 136 
1.74911 -1.26135 1.51232 83 95 135 
1.65972 -1.02873 1.25233 117 133 182 
2.39651 0.210192 3.3701 60 74 109 
1.86799 -0.511992 1.77563 62 68 102 
1.92321 -0.238098 2.25204 38 24 24 
2.1595 -1.70714 2.9265 54 54 78 
1.70782 -1.30593 1.3704 121 138 181 
1.86881 -0.643907 1.83046 89 93 130 
2.2226 -0.727823 2.89507 93 84 79 
1.92506 -0.0742456 1.73561 77 96 126 
1.6649 -0.665384 1.56493 113 126 168 
2.18184 -0.786436 2.8121 101 81 93 
1.80956 -0.555988 1.56957 53 62 101 
1.78821 -1.33046 1.71049 97 104 146 
1.69893 -0.613833 1.29295 94 106 144 
1.63045 -1.09455 1.16071 123 136 178 
1.77359 -0.566381 1.46816 108 126 166 
2.07241 -0.47553 2.1971 127 119 140 
1.75784 -1.32889 1.59197 118 137 180 
2.01046 -0.33809 2.19468 95 100 132 
1.68942 -1.23093 1.29097 123 141 187 
2.27059 0.479774 2.76927 50 46 69 
1.93899 0.0144468 1.79515 96 108 148 
2.46745 0.177257 3.24538 86 97 127 
2.44505 0.527066 3.2982 95 114 147 
1.86708 -0.853467 1.83333 108 123 162 
1.74101 -0.0504316 2.47308 28 20 18 
1.93985 0.405106 1.75532 87 101 138 
2.2238 -1.34146 3.0663 107 121 158 
1.90688 -1.24834 2.08751 112 129 173 
2.23076 -1.28972 3.13917 98 97 128 
2.064 -0.631661 2.39642 65 62 91 
2.29733 -1.09319 3.20167 93 98 130 
1.63334 -0.995795 1.12892 77 91 128 
2.50131 0.174969 3.36929 113 129 163 
1.82481 0.222883 1.11802 84 97 132 
1.68607 -1.39951 1.39859 109 122 164 
2.0132 0.448976 1.92532 101 114 148 
1.6359 -1.17973 1.15629 87 86 118 
1.8049 -1.1723 1.69282 64 80 116 
1.87581 -0.660005 1.79322 105 112 154 
1.68494 -1.17823 1.38382 101 113 153 
2.29706 0.117232 2.91663 47 45 59 
1.91228 -0.0219701 2.98527 33 30 25 
1.79851 -0.934076 1.74213 96 100 135 
1.80752 -1.35203 1.7015 113 127 164 
2.07649 -1.11895 2.53235 85 81 118 
1.78621 -0.567438 1.48401 108 125 168 
1.7627 -0.615641 1.49225 118 133 174 
2.03829 -0.870572 2.63037 64 54 65 
2.49801 0.123461 3.45054 92 105 139 
1.99722 0.0253417 2.17072 48 49 67 
2.28328 0.563142 2.85054 45 44 58 
2.45054 0.59134 3.49311 91 101 136 
2.26752 -1.4674 3.12283 109 125 161 
1.8497 -0.881704 1.8287 108 117 156 
2.28589 -0.813581 3.10067 74 74 86 
2.29787 0.253855 2.85562 53 58 78 
2.48084 -0.474121 3.64647 68 76 112 
2.08569 -1.6073 2.69134 75 86 114 
1.73387 -0.301117 2.52078 99 96 127 
2.30736 -0.61398 3.12914 79 95 131 
1.83071 -1.43535 1.82281 86 94 130 
1.90316 -0.278964 2.22407 61 40 47 
1.82495 -1.19774 1.78217 91 87 120 
2.22841 -1.45259 3.12387 110 122 162 
1.99058 -1.17733 2.31213 132 149 193 
1.76599 -1.11934 1.55103 125 126 154 
2.03743 -1.42155 2.49778 66 78 118 
1.86651 0.0964541 1.44277 83 96 131 
1.97959 -0.227005 2.05036 95 111 147 
1.77655 -0.221001 1.37317 97 92 112 
1.90101 -0.87441 1.95794 112 135 179 
1.89491 -0.24882 1.60135 93 106 140 
2.27487 -0.649086 3.06665 94 94 122 
1.68243 0.0864332 1.03408 88 102 139 
1.78794 0.307217 1.22771 73 80 109 
2.46438 -0.408184 3.57807 84 88 125 
1.86445 -1.23143 1.89778 104 108 146 
2.04955 -1.42458 2.50077 76 88 128 
2.20555 0.631173 2.73045 55 48 66 
2.08444 0.408014 2.28672 63 67 94 
1.92863 0.188629 1.76299 109 121 159 
2.26775 -1.29736 3.15923 90 83 114 
2.01692 -1.30081 2.33943 105 100 123 
1.7075 -1.31852 1.46834 114 129 170 
2.10507 -1.57932 2.74058 91 103 145 
1.66527 -0.648515 1.18636 108 126 164 
1.81151 -1.576 1.82936 91 86 116 
2.45201 -0.644886 3.63445 88 96 132 
1.66438 -0.860458 1.1237 109 122 164 
2.07849 -1.4188 2.58699 78 84 120 
2.11894 0.157472 2.35298 60 63 82 
1.91859 0.419476 1.63296 82 88 122 
2.54692 0.652489 3.56091 91 110 150 
1.95981 0.469871 1.77069 66 75 104 
1.89149 -1.58837 2.02214 62 75 110 
1.83703 -1.20118 1.7837 105 100 132 
2.02464 -0.211464 2.21123 40 37 44 
2.05452 -1.73439 2.59669 62 68 102 
2.36676 -0.770285 3.44497 122 127 157 
2.29696 -1.13448 3.19356 102 106 141 
1.88161 -1.32748 1.94015 90 89 121 
1.70399 -0.420154 1.21009 94 109 150 
2.43039 -0.623099 3.58766 113 128 169 
1.76093 -1.09329 1.61748 125 146 193 
1.8717 -1.00191 1.80025 77 85 122 
2.01743 -0.924035 2.32964 111 129 175 
1.76113 -0.246453 2.60613 120 118 142 
1.88463 -1.15755 2.23833 105 120 161 
1.75009 -0.174956 2.77724 110 89 98 
2.02781 0.214217 2.07232 80 88 124 
1.85372 -1.06472 1.85547 78 91 126 
2.31871 -0.440169 3.10021 111 124 158 
2.44061 0.685527 3.24046 73 78 108 
1.77536 -0.274272 2.27138 102 75 84 
2.0338 0.139927 2.11401 88 98 134 
2.01344 0.523549 1.68147 78 67 81 
1.7805 -1.3458 1.69736 115 128 170 
1.78039 -1.19266 1.6049 108 121 163 
2.27643 0.111789 2.82246 27 29 44 
1.82055 -0.851377 1.79527 78 88 123 
1.71417 0.275411 1.06859 73 82 115 
1.83768 -0.573634 1.53186 105 121 157 
1.90225 -0.29253 1.80649 125 143 189 
2.57823 0.154177 3.60934 95 108 142 
2.01157 -0.398187 2.19462 93 106 141 
2.44697 0.559626 3.26948 109 122 154 
2.00813 -0.436122 2.26272 54 35 39 
1.82908 -0.879423 1.7177 79 87 123 
2.01675 -0.890387 2.45996 56 39 45 
2.31343 0.587563 2.80657 61 58 85 
1.67502 -0.284955 1.10342 111 126 169 
2.15976 -0.283081 3.36763 115 129 168 
2.00173 -1.12337 2.18902 134 153 196 
1.68236 0.122592 1.02879 102 118 154 
2.07466 -0.506322 2.34376 90 99 132 
1.86406 -0.831668 1.84003 76 88 126 
1.96766 -0.286902 2.02406 82 95 129 
1.80811 -1.10673 1.69096 88 83 115 
2.45794 -0.136801 3.41369 86 101 140 
2.42583 -0.719284 3.46229 98 88 113 
1.65912 -1.15389 1.2647 99 113 160 
2.48329 0.717863 3.39909 79 90 122 
2.2186 -1.55976 3.077 115 130 173 
2.31301 -0.804531 3.17997 109 123 162 
1.68999 -0.622753 1.25861 90 104 139 
1.87735 -0.579364 1.81987 88 100 140 
2.53978 0.210535 3.64702 116 134 172 
1.86798 -0.551023 1.75622 73 86 121 
1.77993 0.170821 1.29811 104 95 112 
1.83038 -1.17342 1.75906 55 54 85 
2.27526 0.371628 2.8993 50 51 71 
2.60291 0.793191 3.71554 80 98 134 
2.34697 -1.0608 3.57628 117 132 171 
2.2724 -0.487826 3.14643 105 117 155 
2.06576 -0.737836 2.41451 69 72 105 
1.83222 -0.823527 1.67507 86 83 114 
1.81397 -1.60129 1.84346 58 59 89 
1.81575 -0.379969 1.55105 107 120 164 
2.39376 0.401838 2.81743 60 63 82 
2.49966 -0.263926 3.5816 84 88 125 
2.10049 -1.25613 2.60424 114 129 172 
2.00056 -1.71983 2.43977 90 86 109 
1.83396 -1.30358 1.89613 83 91 127 
2.40394 -0.721974 3.37782 116 112 126 
1.89391 -0.975028 1.94245 103 112 151 
2.24699 -0.767162 2.82986 54 41 51 
2.44228 0.126566 3.36587 108 123 162 
1.63954 -0.627661 1.05453 75 88 123 
2.48488 -0.607413 3.63323 97 97 133 
1.83267 -0.807664 1.69911 86 91 129 
1.8521 -1.34117 1.92003 107 119 159 
1.79902 -0.509188 1.54471 98 112 147 
1.96267 -0.340676 2.03924 105 119 156 
2.51953 -0.385699 3.65302 90 89 121 
2.4421 -0.951495 3.55464 110 123 165 
1.63329 -1.19682 1.15646 101 104 139 
2.28895 -0.440934 3.05214 86 89 124 
2.11334 -1.67247 2.77789 101 116 155 
1.67878 -0.620152 1.25827 97 112 151 
2.59736 0.267103 3.70449 89 102 136 
1.8828 -1.66301 1.92135 97 89 100 
1.84252 -1.27428 1.92763 90 96 132 
2.50281 0.0783187 3.78684 106 118 158 
2.18009 -0.97782 2.86293 97 76 85 
2.08312 -1.54187 2.72192 108 122 159 
2.27376 -1.52127 3.22658 82 81 86 
1.8865 -0.872937 1.83679 100 107 149 
1.98042 0.39686 1.81758 78 83 115 
2.00855 -0.651204 2.31011 117 131 170 
1.7563 -0.302097 2.45461 95 72 80 
2.3821 -0.0165454 3.25365 99 114 153 
1.76317 -1.17625 1.56674 107 126 168 
1.99032 -0.259792 2.0335 86 104 140 
2.26953 0.3496 2.79612 74 81 109 
1.8207 -0.172257 2.85748 118 92 103 
2.064 -1.59389 2.57612 95 86 87 
1.69894 -1.3234 1.38484 104 120 156 
1.9859 -1.28033 2.21928 93 81 103 
2.4474 0.413865 3.30412 87 99 139 
1.8047 0.337784 1.18314 78 89 121 
1.8781 -0.942073 1.99398 120 133 178 
1.88784 -0.990648 1.96299 122 143 188 
2.49738 -0.464067 3.63532 95 108 143 
2.08248 0.123436 2.29507 56 58 79 
1.64245 -1.05038 1.1577 108 121 163 
2.03763 -1.4471 2.48265 92 105 140 
1.80129 -0.523187 1.55864 61 69 108 
2.08419 0.318254 2.24489 75 84 115 
1.71844 -0.526267 1.29074 97 112 153 
1.99289 -0.171783 2.07421 96 110 149 
1.81099 -1.00695 1.65948 68 77 120 
2.50903 0.664936 3.48497 84 95 127 
1.93123 0.0723943 1.70435 85 98 132 
2.26263 0.578011 2.80584 61 73 99 
1.80894 -1.23879 1.69284 106 118 156 
2.61456 0.845632 3.62761 75 79 108 
1.7397 -0.206889 2.64989 114 91 101 
1.99435 -1.10081 2.23144 107 121 158 
2.29311 -0.692509 3.14361 106 115 154 
1.86863 -0.808863 1.80898 65 79 116 
1.87928 -0.827138 1.8702 82 94 134 
1.75646 -0.239858 2.37953 53 34 36 
2.28518 -1.28846 3.24879 65 78 120 
2.49763 -0.317778 3.58977 83 91 130 
1.92439 -1.25265 2.09062 99 112 154 
2.42438 0.0929979 3.41926 52 63 93 
1.60891 -1.17169 1.15615 89 85 120 
2.50818 -0.209724 3.60867 65 74 107 
1.98998 0.0121189 2.17672 55 52 71 
1.61195 -0.782493 1.08517 81 89 126 
1.83617 -0.281441 1.53378 60 69 100 
1.67032 -0.132458 1.0816 102 117 156 
1.76939 -0.865504 1.60829 114 129 172 
1.61761 -1.09711 1.13625 81 87 121 
2.10911 -1.59735 2.75807 118 132 171 
1.86118 -0.773066 1.80067 71 83 121 
2.41951 0.570108 2.89233 49 45 60 
1.87839 -0.344686 1.80931 112 129 175 
1.88997 -0.641576 1.80292 83 91 127 
2.06818 -0.608162 2.39017 85 82 113 
1.83615 -1.32064 1.77237 93 92 124 
1.64772 -0.602842 1.05987 111 126 169 
2.42051 -0.153771 3.36802 112 129 172 
1.8902 -0.838606 1.88813 105 122 166 
1.89557 -0.641363 1.81963 100 104 139 
2.60887 0.73611 3.73506 51 31 42 
2.05854 -1.41221 2.58158 84 95 127 
2.58748 0.25957 3.69588 90 103 138 
1.97886 -1.16678 2.2214 103 124 167 
1.67886 -0.202905 1.07396 83 96 131 
1.89032 -1.22172 1.92113 86 91 129 
1.90371 -0.844113 1.89429 119 136 180 
2.30141 -0.873303 3.29362 91 104 146 
1.89819 0.0731324 1.76133 104 120 153 
2.03229 -1.40004 2.4739 111 125 160 
2.26966 0.0343174 2.83045 19 19 27 
2.32578 -0.769527 3.21698 122 139 185 
2.49729 -0.208276 3.60652 75 81 117 
1.94851 -1.7297 2.09898 104 118 155 
2.49658 -0.537238 3.66688 64 73 106 
2.30889 0.13163 2.92773 24 24 34 
1.87228 -1.32617 1.92066 100 115 154 
2.41991 -0.878541 3.63148 109 122 164 
1.83543 0.176179 1.52896 102 121 154 
1.74495 -0.314007 1.35032 99 116 159 
1.79904 -0.277889 1.53094 62 73 105 
1.95584 -0.217041 1.78379 94 104 139 
1.75109 -0.503071 1.38185 111 126 169 
1.88129 -0.590045 1.76333 79 88 121 
2.05848 -0.177845 2.16979 65 70 99 
1.88808 -1.28233 1.97879 108 121 163 
1.83727 0.234704 1.56645 86 97 129 
1.79289 -0.934556 1.62495 106 121 160 
1.91004 -0.605305 1.85198 101 119 159 
1.62567 -1.30972 1.20505 114 127 169 
2.22278 0.597774 2.86151 54 49 46 
2.44629 0.205037 3.34975 116 130 165 
1.81494 -1.11837 1.85814 88 83 115 
2.40041 -1.22284 3.46991 142 163 206 
2.29097 0.203157 2.88815 29 31 46 
2.09429 0.388936 2.26388 41 47 71 
1.81433 -1.15555 1.69848 94 100 136 
1.77404 -0.938734 1.56253 118 133 176 
2.00831 -0.173019 2.07694 88 101 143 
1.63153 -1.11212 1.15051 86 88 127 
2.22968 -1.11112 3.01335 112 125 160 
1.86733 -1.26545 1.90096 75 80 118 
1.80441 -1.25136 1.70796 64 73 114 
2.27577 0.322788 2.81363 67 69 92 
1.9084 0.094958 1.76549 74 87 121 
2.32203 -0.732846 3.20934 114 130 179 
2.37099 -0.824318 3.28816 113 128 171 
1.66303 -0.186936 2.45142 45 31 31 
2.06761 -1.10265 2.46348 110 111 142 
2.43127 0.542517 3.28452 81 94 126 
1.85821 -1.56869 1.93626 95 91 124 
2.03614 0.427711 2.09437 61 60 65 
1.82974 -0.734809 1.67088 65 62 91 
1.6572 -1.21859 1.27806 108 126 174 
2.30992 0.135914 2.87878 57 58 78 
2.28757 0.106598 2.88483 43 45 57 
2.02805 0.10755 2.13269 65 69 94 
2.28602 0.350973 2.854 33 36 55 
1.8546 0.0661126 1.62581 85 98 130 
1.73829 -0.239514 2.33628 72 57 62 
2.49861 0.570227 3.50799 103 117 152 
2.25172 -1.31169 3.13214 95 89 125 
1.872 -0.466431 1.70697 100 104 133 
1.90069 -1.28555 1.98078 108 121 163 
2.30338 -1.15288 3.24976 102 116 151 
1.82112 -1.17638 1.62341 120 141 184 
1.87547 -0.951601 1.89343 91 96 138 
2.48444 0.745987 3.39265 74 83 116 
2.27301 -1.43285 3.21952 101 95 97 
2.47472 0.125133 3.44108 92 105 139 
2.34206 -0.975567 3.22506 113 125 165 
2.50897 0.0911589 3.7727 108 122 161 
1.85282 -1.38067 1.92237 88 96 135 
1.78119 -0.2589 2.36482 38 36 47 
2.36624 -0.759142 3.3278 116 122 156 
1.93821 -1.20318 2.08442 96 112 146 
1.69957 -1.22069 1.30497 110 127 170 
2.1383 -1.32468 2.74896 119 116 147 
1.93566 -1.22746 2.12756 95 113 153 
1.99872 0.388394 1.87791 70 79 118 
2.4347 0.466141 3.29707 89 103 138 
1.82688 -0.646921 1.65279 60 66 100 
1.63548 -1.13041 1.16592 116 131 172 
2.05301 -0.00740286 2.17155 66 73 101 
1.79327 -0.894402 1.68552 77 89 127 
2.09139 0.372596 2.29762 65 70 99 
2.28349 0.574244 2.84285 27 30 47 
1.99708 -0.130464 2.21293 49 41 52 
2.02883 -1.00122 2.42871 88 98 133 
1.67605 -0.746765 1.19146 96 109 151 
1.84975 -1.50254 1.88906 102 106 141 
2.45338 0.476757 3.35947 92 102 138 
2.29574 -1.16354 3.23982 109 123 160 
1.93596 -0.203352 3.07678 110 82 97 
1.73404 -0.283533 1.18822 99 90 109 
2.50531 0.14393 3.59097 95 108 143 
1.81203 -1.36607 1.81367 100 110 146 
2.02991 0.398272 1.82394 80 86 118 
1.90429 -0.261303 3.05104 110 80 92 
1.89274 -0.0883276 1.73217 104 124 161 
2.43725 0.614237 3.22922 109 91 107 
1.85857 -0.705045 1.79693 115 124 165 
2.02553 0.170282 2.07965 90 98 135 
2.46914 -0.594687 3.61732 84 80 117 
1.64817 -1.22771 1.26626 121 138 184 
1.90969 -0.457071 1.88804 108 122 161 
1.94253 -0.319144 2.29576 92 96 125 
1.68237 -1.005 1.27687 116 112 135 
2.11922 -1.40772 2.59864 84 93 126 
1.75884 -1.31058 1.579 120 133 177 
1.98465 -0.26394 2.06151 60 71 103 
2.29984 0.204142 2.91927 25 25 37 
2.28836 0.480905 2.78019 49 48 66 
1.79351 -1.42228 1.65835 119 134 175 
2.4918 -0.513535 3.62999 85 88 121 
2.30501 -0.933771 3.17434 90 95 133 
1.86329 -0.924397 1.88318 85 95 130 
2.44013 0.389385 3.31484 87 100 135 
1.9584 -0.253057 1.60682 95 105 141 
2.34315 -0.576562 3.19221 121 136 177 
1.9025 -0.981409 2.02871 115 111 136 
2.13998 -1.68369 2.89305 90 102 142 
1.8731 -1.56542 1.97325 115 121 157 
1.72443 -0.566724 1.30421 90 99 140 
2.04171 -1.08366 2.41464 106 120 157 
2.48954 -0.561672 3.66916 86 82 117 
2.62764 0.90593 3.77204 99 86 96 
2.52444 0.457805 3.61777 88 101 135 
1.81886 -0.496717 1.65123 77 81 110 
2.30741 0.528558 2.84747 46 43 62 
1.85659 -0.953261 1.81097 75 78 113 
2.23916 -0.661349 3.01345 117 110 128 
2.02762 -0.111147 2.14338 94 104 139 
2.31011 -0.502997 3.12326 107 119 157 
1.91133 -1.21776 2.05716 102 116 153 
2.48484 -0.22631 3.52786 122 136 175 
2.04999 0.179776 2.11316 73 77 106 
1.69336 -0.556117 1.29752 105 118 160 
1.99855 -0.936766 2.27352 120 113 131 
1.91442 -1.03485 2.03229 117 132 175 
2.00494 0.483973 2.0685 72 52 63 
2.49708 0.209969 3.59472 99 109 145 
2.03374 -0.705006 2.38395 93 99 133 
1.85829 -0.118673 2.97283 66 45 52 
2.51987 0.618903 3.38085 99 113 152 
1.61306 -1.22817 1.20741 111 125 164 
1.78687 -0.640387 1.60456 84 91 133 
2.44292 0.0855314 3.45683 90 103 137 
1.71075 -0.371712 1.21758 93 107 146 
1.64199 -1.333 1.37945 98 109 155 
2.1352 0.504735 2.68111 27 18 21 
2.10602 0.365645 2.26539 67 71 98 
1.86918 0.304367 1.57941 76 86 121 
2.06298 -1.75745 2.66261 71 68 95 
1.91038 -0.436477 1.81321 118 127 156 
1.69763 -1.14592 1.37551 103 95 118 
3.32866 -1.8083 5.67406 216 230 255 
2.00592 -0.763808 2.13441 24 30 42 
2.83731 -1.94013 6.37079 214 228 254 
1.96578 -0.784477 2.02605 25 30 49 
2.02318 0.318784 1.95987 22 28 42 
2.2296 -0.563365 2.77293 126 141 172 
2.88038 -0.526576 5.57954 16 30 69 
2.8716 -0.896922 5.64609 41 55 100 
1.93381 -1.04664 2.05356 39 52 84 
2.00604 -0.000809118 1.91498 41 51 78 
2.72916 -1.1962 5.96958 18 21 30 
2.23877 -0.502079 2.76175 123 140 184 
2.01109 0.0430438 1.93733 122 137 180 
2.68 -0.524806 4.14675 42 42 66 
2.69747 -1.19039 5.94015 25 22 39 
2.12971 -1.11344 2.84156 32 27 47 
3.14648 -2.06714 5.71874 85 124 179 
2.6944 -0.455933 4.15276 39 43 70 
1.97673 0.00174253 1.86504 39 51 77 
2.43626 -0.506019 3.38086 120 136 170 
2.04921 -0.923889 2.40245 46 45 61 
2.20937 -0.914875 2.88235 122 136 171 
1.87376 0.743235 3.04341 94 78 91 
2.68572 -0.158522 4.06738 110 120 155 
2.85715 -1.82553 4.32032 119 140 183 
2.23739 -0.914271 3.02452 59 63 90 
2.39823 -2.11529 3.00502 125 137 179 
2.61418 -1.17944 4.13151 54 71 114 
2.88028 -0.10986 5.51366 85 89 124 
2.3835 -1.31182 3.45556 66 88 138 
2.23709 -0.528249 2.80958 134 148 195 
3.04417 -2.56829 6.20549 223 234 254 
2.01925 0.0220795 2.0189 41 51 78 
2.80949 -1.97684 5.80158 132 182 231 
2.7766 0.245755 4.47245 110 127 171 
1.99964 -0.0739868 2.01992 47 55 76 
2.02366 -0.449608 2.19442 70 62 86 
2.96081 -1.30457 5.61114 20 36 62 
3.102 -2.46425 6.15112 225 233 255 
3.13189 -2.48178 6.16289 217 232 255 
2.71546 -1.94651 5.87555 130 182 230 
3.09453 -2.45678 6.15099 222 229 255 
1.86328 -0.22765 2.94085 105 120 149 
3.04338 0.0811805 5.03745 107 115 152 
2.18739 -0.573327 2.66923 135 158 202 
1.91544 -0.0139825 1.78967 60 68 105 
1.93353 -1.07367 2.08118 122 136 181 
2.69006 0.584326 4.02756 59 63 100 
-0.612675 0.253579 1.27075 51 38 56 
2.64965 -1.24613 4.18178 85 102 145 
2.66427 -0.720135 4.19791 54 69 108 
1.71325 -0.14664 2.45974 92 86 72 
2.65525 0.415155 3.82529 105 122 165 
1.98497 -0.832989 2.08827 78 100 147 
2.04536 -0.801006 2.3857 117 114 105 
2.99815 0.513003 4.88573 73 84 106 
3.03056 -0.207038 5.08976 113 126 170 
2.92381 0.347329 4.72641 47 57 92 
3.05344 -2.05206 5.72208 65 108 151 
1.70786 -0.153307 2.42672 101 93 74 
2.73285 -1.95101 5.91947 133 184 231 
2.59673 0.592729 3.69521 58 66 105 
1.87355 0.734708 3.01448 16 20 23 
2.09714 -0.406874 2.42051 97 111 138 
2.16974 -0.907829 2.78997 110 126 162 
2.18799 -1.23457 2.81362 64 86 135 
1.84284 0.81215 3.11328 15 18 23 
2.79987 0.876629 4.2634 85 93 130 
2.02973 -0.283151 2.19907 55 34 41 
2.79839 0.443907 4.34477 85 98 133 
2.79502 -0.274951 5.60759 63 55 76 
1.97133 -1.10344 2.16686 68 68 102 
2.66666 -0.640109 4.19125 74 82 118 
3.25571 -2.44577 6.08692 223 234 254 
2.00712 -1.29311 2.27158 123 140 184 
1.90356 -0.171192 3.01413 118 129 159 
3.11433 -1.73366 5.14885 68 78 103 
3.00882 0.187219 5.23873 39 51 77 
1.781 -0.251366 2.74548 65 66 87 
2.41694 -0.536503 3.33016 134 155 200 
1.98456 -0.155288 2.05222 91 110 150 
2.21874 -0.593424 2.73678 111 124 169 
2.07537 -1.04393 2.53753 115 97 135 
2.02801 -0.0960937 2.15144 52 53 83 
2.00561 -0.831892 2.14776 80 104 148 
2.5422 -0.0242185 3.71545 88 84 83 
3.01758 0.697073 4.98661 57 63 95 
2.68394 -0.0742663 4.11562 64 58 72 
2.04328 -0.924377 2.238 25 28 43 
1.97129 0.550602 1.84747 20 18 23 
1.75228 0.463366 2.34669 105 83 96 
3.122 -1.72263 5.14171 45 60 89 
2.02329 -0.242294 2.20953 39 28 34 
2.84699 -1.85272 4.26963 38 59 104 
2.69285 0.2809 4.06056 75 65 92 
2.66153 -0.200208 4.02605 119 130 176 
2.08555 -0.850272 2.59319 55 36 40 
2.09019 -0.956444 2.58565 88 81 75 
1.94337 -0.417493 2.31437 59 57 71 
2.76721 -1.99772 5.97316 73 120 164 
1.97657 -0.0855194 1.8805 40 50 75 
2.17382 -0.660419 2.68341 118 132 171 
1.98604 0.532908 1.89996 27 22 29 
2.03949 -1.80993 2.39254 95 109 148 
2.1277 -0.949762 2.76149 106 93 84 
1.95813 -0.474983 2.03694 94 85 104 
1.93345 -1.07313 2.06278 107 126 169 
2.85453 -1.19567 4.8951 64 49 54 
2.01587 0.515259 1.95438 20 20 28 
2.21144 -1.14552 3.03037 105 119 158 
2.02691 -0.0877019 2.19419 34 36 51 
2.02897 0.393334 2.01744 49 35 48 
2.74832 0.383843 4.23205 103 119 153 
2.22332 -0.695916 2.85027 95 97 120 
1.71848 0.544307 2.37872 32 24 35 
2.77683 -2.00689 5.97868 75 122 164 
2.74474 1.03364 4.32831 77 64 74 
2.82358 -1.02786 4.83462 74 84 119 
2.78649 -1.10648 4.75033 102 116 151 
2.13404 -1.15484 2.76032 69 58 75 
2.78792 0.110502 4.41829 92 104 142 
2.99806 -2.04044 5.74471 61 108 154 
1.91292 -1.84788 2.10538 89 98 139 
2.81341 0.346818 4.41692 19 31 47 
2.78854 0.353677 5.75537 56 61 80 
2.81862 1.01168 4.2113 81 69 81 
2.06816 -0.853715 2.40441 104 97 89 
2.6514 0.189064 3.86621 116 133 177 
2.98552 0.329938 5.08111 97 112 155 
3.07731 -1.12511 5.50358 79 89 124 
2.82812 -0.988311 5.73384 115 119 156 
2.79446 0.172223 4.49968 101 119 159 
2.07086 -0.830635 2.43819 41 40 46 
2.12379 -1.0762 2.75331 133 132 128 
2.51067 -1.49316 3.9613 84 95 127 
0.46925 0.526622 2.67974 90 59 67 
2.80595 0.142625 4.38794 107 124 167 
2.05702 -1.69195 2.5907 77 95 131 
1.96106 -0.403071 2.29563 84 61 71 
2.9274 -1.80574 5.7806 116 133 179 
3.38344 0.780609 3.78412 104 120 156 
2.94272 0.300612 4.80459 86 102 136 
2.77474 1.06606 4.30911 76 63 73 
1.94287 0.463336 1.74247 76 87 119 
2.89574 0.189082 4.67692 98 111 146 
2.27301 -1.54763 3.27316 104 119 158 
1.89102 -0.38639 1.77464 77 62 69 
2.91586 -1.22201 5.13698 90 108 148 
2.94874 -0.141191 4.94634 124 145 190 
2.7514 0.837387 4.15111 59 64 96 
2.93358 0.367684 5.28506 93 106 148 
2.03239 0.0905363 2.03593 114 127 162 
2.43993 0.600734 3.24967 97 93 120 
2.38414 -0.841927 3.38231 109 123 162 
2.08838 -0.416724 2.39822 57 64 83 
2.82899 0.950945 4.25748 75 84 115 
2.07343 -0.474563 2.4829 110 100 124 
1.85016 0.783459 3.08532 74 66 77 
1.99703 -0.426903 2.0703 106 119 161 
2.57733 0.53884 3.65822 64 71 113 
1.83443 0.868802 3.14457 48 48 58 
2.88769 0.337939 4.65334 42 48 74 
-0.303537 0.597583 3.34788 54 102 104 
2.74338 0.985315 4.35027 79 86 115 
2.78712 -0.0383705 4.35707 73 77 114 
2.04972 -1.5386 2.53665 72 57 60 
2.61313 0.0167807 3.66642 113 127 172 
2.7621 -0.981836 4.6229 109 118 157 
2.74492 -0.630965 4.46037 73 81 117 
2.92035 0.927873 4.59874 50 57 85 
1.97446 -1.11868 2.20556 77 88 133 
2.7106 -1.36332 4.53071 87 101 138 
2.70151 0.979873 4.32345 80 87 116 
2.51878 0.205135 3.55855 66 75 114 
2.59566 0.956895 4.33043 72 86 115 
2.01982 -0.107223 2.10828 62 48 65 
2.01369 -0.240454 2.11065 100 112 150 
2.22261 -0.968864 2.9583 88 97 128 
1.86193 -1.51421 1.95049 106 108 146 
2.63436 0.501944 5.48986 89 94 123 
2.54932 0.727827 3.51315 94 104 139 
1.99014 -0.0650183 3.15839 93 108 141 
1.96861 0.520696 1.81733 98 80 92 
2.77471 0.168357 4.46796 97 119 158 
2.67828 -0.0239399 4.11575 97 114 157 
3.00682 0.371601 5.0572 86 101 140 
2.79202 -1.19147 4.6922 89 101 139 
1.96696 0.708104 2.95234 26 35 42 
1.85245 -1.51171 1.94824 109 111 149 
2.5896 0.734817 3.69812 81 81 109 
2.52151 0.0194228 3.61839 114 127 169 
2.5455 -1.44393 3.94714 93 102 143 
3.02644 0.43768 5.02743 103 119 153 
3.04351 -0.397022 5.22909 107 125 171 
2.0607 -1.34153 2.49673 70 71 101 
2.78612 -1.3387 4.70559 74 80 112 
2.26172 -0.608486 2.84752 126 135 168 
1.9173 -0.237539 1.83904 65 73 109 
2.83095 -0.298778 5.45488 81 72 91 
2.00243 -0.209039 2.07714 78 87 120 
2.3085 0.417191 2.83905 37 35 56 
1.97386 -0.226032 1.98718 100 115 156 
1.87471 -1.60592 1.97863 101 109 146 
2.83261 0.267451 4.41132 71 78 106 
2.61953 -0.691553 4.08906 98 110 150 
2.78844 0.169485 4.47679 97 119 158 
2.9819 -0.940534 5.48673 68 63 59 
3.00713 -1.08307 5.38384 85 74 72 
2.53272 -1.24301 3.95341 89 84 80 
1.92434 -1.28211 2.08085 80 80 114 
2.72836 0.583534 5.54041 48 59 91 
2.8825 -1.28532 5.62291 122 140 188 
2.81187 -0.629151 5.73178 101 108 137 
1.99909 -1.1834 2.26752 112 128 164 
1.96428 -1.24145 2.2064 109 125 161 
1.91994 -0.137403 1.82002 110 125 168 
2.66836 -0.646098 4.14477 82 97 138 
2.54339 -0.651658 3.92693 117 135 181 
2.76325 -1.23506 4.68066 89 102 137 
1.81676 -1.68711 1.88257 103 99 100 
2.50461 0.804531 3.37955 49 55 79 
2.019 -0.204087 2.17226 73 83 118 
1.93456 -0.216946 1.88496 108 123 166 
2.43389 0.659589 3.23577 79 94 135 
1.71274 -0.253672 2.4524 115 91 105 
1.98403 -0.970732 2.23737 117 127 163 
2.64813 -0.762032 4.19025 110 127 171 
2.42418 -0.728375 3.50839 73 85 125 
2.02245 0.381013 1.99626 77 45 50 
1.86273 -1.47181 1.93018 70 74 109 
2.80694 -0.226823 5.64981 101 98 125 
1.93026 -0.0324783 1.80427 105 123 161 
2.51935 -1.25431 3.9589 111 104 98 
2.46719 -0.0537524 3.47493 98 83 78 
2.1157 0.406865 2.30562 71 77 103 
2.61766 -0.00782112 3.87836 108 122 159 
2.16493 -0.770891 2.52614 94 103 132 
2.75686 0.370983 4.20391 92 105 139 
2.91825 -1.07813 5.57158 101 114 156 
2.64364 -0.844047 4.16905 100 116 150 
2.41318 0.035085 3.42245 109 122 166 
2.93268 -0.961999 5.6193 122 120 142 
2.86294 0.560982 4.51594 75 81 117 
2.72984 -0.168252 5.72515 67 73 109 
2.01927 -0.376378 2.1556 84 92 131 
2.403 -0.846078 3.46694 102 116 151 
-0.354189 0.62505 3.39632 1 5 6 
2.67219 -0.645153 4.2602 109 121 159 
2.7808 -0.296112 4.4863 106 118 156 
3.18647 -1.62478 5.65176 122 142 192 
2.04387 -1.54492 2.55835 113 108 105 
2.82589 0.397859 4.37429 81 86 118 
2.85565 -1.00966 4.9089 95 111 147 
2.64507 0.903123 3.88834 58 60 85 
2.77533 -1.0635 4.63161 104 118 153 
2.38993 -0.815231 3.43157 74 86 128 
2.83388 -1.89673 4.29156 20 22 37 
2.56486 0.0802302 3.66797 111 124 166 
2.66508 -0.187277 4.09703 52 74 121 
2.29428 -0.479752 3.05407 105 106 137 
1.88495 -0.366144 2.31209 85 98 132 
2.72265 0.305819 4.18274 67 68 98 
1.89762 0.0434389 1.71203 78 83 115 
2.68705 0.395564 4.06574 106 120 159 
2.86178 -0.461361 5.60563 117 121 156 
-0.0509823 0.896201 3.35245 65 74 107 
2.97308 -0.41659 4.99828 87 77 101 
2.0147 0.0793648 2.10803 76 82 114 
3.05417 -0.0342737 4.59331 44 42 64 
2.83264 -0.577083 5.49038 119 116 137 
1.94249 -0.424289 1.95301 95 115 150 
2.13649 -0.901539 2.71566 67 66 80 
2.80506 0.631091 4.3278 74 83 112 
2.10374 -0.386455 2.40186 58 67 96 
1.82143 -1.6848 1.8995 88 84 85 
1.99126 -1.20194 2.36451 121 138 181 
2.25446 -0.738562 2.83157 83 89 123 
2.74975 -1.06813 6.03994 69 80 112 
1.88642 -0.427534 1.76163 85 75 73 
3.01819 0.418956 5.10722 50 54 81 
2.10683 0.263561 2.32208 47 50 69 
2.16968 -0.990748 2.77631 68 58 57 
2.74226 0.954171 4.12515 59 67 90 
2.88608 0.344563 5.3795 85 79 105 
2.02777 0.418787 2.01947 64 75 107 
2.46972 0.192753 3.42036 86 93 135 
2.79312 0.28198 4.31503 88 99 131 
2.80985 0.902387 4.28717 31 37 53 
2.08998 -1.04083 2.49254 85 96 128 
2.26072 -1.22916 3.13408 67 66 97 
2.35641 -0.547126 3.19274 121 133 171 
2.14233 -0.484672 2.50608 105 105 131 
2.94529 0.882951 4.61902 79 95 129 
2.20614 -1.04265 2.91976 80 73 63 
2.77418 0.0267757 4.35094 71 74 107 
2.06096 -0.939009 2.45109 67 68 86 
1.98191 0.429088 1.94767 71 77 103 
2.04298 0.433384 2.05191 78 87 120 
1.93932 -1.05577 1.99113 105 122 168 
1.73475 -0.0939214 2.43859 98 92 78 
2.65758 0.126259 3.97642 108 123 166 
1.97555 0.468734 2.1815 93 84 79 
2.96489 -1.15166 5.58527 63 72 101 
2.99877 -1.04259 5.37854 76 68 65 
2.72574 0.50807 5.5687 86 96 123 
1.94624 0.480268 1.75769 44 49 71 
-1.76359 0.319003 1.57069 82 95 129 
1.98146 -0.153327 2.23672 69 62 52 
2.33377 -0.979826 3.32647 111 126 169 
3.04336 0.440737 5.24954 66 68 91 
2.9139 -1.27128 5.13579 57 55 68 
1.97553 -1.1401 2.26713 117 136 179 
2.77937 -0.295266 5.56315 80 73 91 
2.74575 -0.113274 4.28323 106 123 166 
2.78079 -2.0921 6.17303 103 154 197 
2.49423 -1.27568 3.84254 104 99 96 
2.66128 0.783775 3.85636 70 82 124 
2.00213 0.433282 1.99375 71 72 102 
1.73478 0.551595 2.18815 36 43 49 
1.88277 -0.297147 1.74307 109 128 171 
1.84564 -1.79736 1.95011 87 80 87 
2.80423 0.328749 5.74496 93 96 127 
2.78187 0.327764 5.72527 91 96 126 
2.70381 -0.600735 4.18208 110 116 148 
1.93517 -1.23711 2.10538 101 114 158 
2.00264 -1.1946 2.32864 108 121 163 
2.80795 -0.389068 4.61656 109 122 164 
1.91176 -0.508585 1.82952 103 117 154 
2.28172 0.568417 2.83261 34 36 51 
2.88381 0.0174359 5.24191 56 61 83 
2.59439 -0.725683 4.01044 101 113 151 
3.04359 -2.06319 5.73228 88 131 176 
1.87376 -1.07419 1.87707 108 112 147 
1.9937 0.437215 1.94469 66 70 95 
1.34363 0.642117 2.08426 28 37 42 
2.41624 0.108424 3.28788 96 110 145 
2.83001 -0.828323 5.68554 125 121 144 
1.87775 -0.702603 1.813 82 79 110 
2.21606 -1.13253 2.98094 114 120 154 
2.48423 -1.45496 3.84509 77 91 130 
2.46031 0.493098 3.43011 90 102 140 
1.97139 -0.213782 1.98954 97 113 149 
2.87071 -0.0745583 5.4793 113 119 155 
2.60717 0.836575 3.66649 72 85 119 
2.53698 0.150572 3.69327 64 74 110 
2.88563 -0.153047 4.76625 103 121 159 
2.91264 -1.27808 5.61962 110 128 164 
3.0335 0.985401 4.84929 72 88 124 
1.89844 -1.02421 1.96666 125 143 191 
1.99001 0.0791269 2.1448 72 78 110 
2.79194 0.0835775 4.48904 97 113 146 
1.8762 -0.481065 1.73697 74 79 117 
2.55734 -0.795792 3.89824 76 81 119 
2.63583 0.900599 3.78428 103 92 106 
3.0535 -0.619658 5.35511 65 68 101 
1.52938 0.694333 2.53405 13 16 21 
2.29093 0.278614 2.89855 28 27 41 
1.51505 0.693278 2.52835 10 15 19 
2.75398 0.52449 4.17738 88 99 131 
2.59388 0.433628 3.7388 110 124 161 
1.83186 -1.10063 1.76116 77 87 122 
2.08828 0.172848 2.2764 67 73 99 
2.03948 0.286606 2.08559 78 91 125 
2.72097 0.853539 4.06853 74 81 110 
1.75333 -0.140435 2.76125 106 83 91 
2.65951 0.14154 4.04095 93 110 153 
2.53498 -1.16313 3.91453 78 78 112 
2.93285 -0.874362 5.52038 64 74 109 
2.0232 -0.417059 2.18684 91 109 145 
1.951 -0.448657 1.9622 95 113 153 
1.924 -1.0623 2.02828 107 120 164 
1.9006 -0.930148 1.91746 116 129 174 
1.92937 0.0234957 1.79031 76 90 125 
2.20347 -0.970479 2.92509 100 92 89 
2.76735 0.301318 5.63109 98 114 150 
1.86575 -0.482892 1.73 84 89 121 
2.238 -0.875286 2.92943 96 85 81 
1.86612 -1.12684 1.8317 87 80 111 
2.54035 -0.601595 3.77693 95 88 122 
1.83401 -1.74146 1.90493 121 116 113 
2.21403 0.144276 2.82634 48 51 68 
1.92308 -1.21729 2.06272 88 99 144 
1.88863 -0.535776 1.80805 68 81 115 
2.73474 -0.34111 4.32491 108 120 158 
1.93956 0.387708 1.74203 63 72 101 
2.78114 0.0410222 5.76269 65 72 101 
2.68953 0.843885 3.7716 84 97 131 
2.6591 0.772524 3.85915 95 104 137 
2.86505 -0.933937 4.90432 105 121 157 
-1.72641 0.284698 1.40363 51 31 40 
1.84644 -1.10474 1.764 101 111 146 
0.819337 0.396601 1.99868 88 75 82 
2.77188 0.128173 4.47571 95 111 144 
1.98221 0.375165 2.00032 110 80 92 
1.94453 -1.00767 2.05727 102 93 110 
2.0143 -1.14842 2.278 119 132 174 
2.62255 0.112323 3.89137 68 71 114 
1.95637 -1.05604 2.13471 89 103 142 
2.81883 0.420029 5.35645 80 95 128 
-0.301678 0.470753 3.47141 43 90 96 
2.90322 -1.00061 5.53117 82 81 77 
2.12767 -1.56664 2.73095 107 121 160 
2.25341 -1.35183 3.07379 111 125 164 
-0.0425277 0.809448 3.31519 9 35 26 
2.54744 -1.38288 4.03747 88 104 137 
-0.388075 0.90589 3.33994 3 4 6 
2.98012 -0.110668 5.46025 91 95 124 
2.47682 -0.192265 3.54071 70 74 109 
1.86262 -1.4557 1.93604 68 74 108 
2.62958 -0.0358276 3.96312 110 127 171 
2.24337 -0.667314 2.99094 87 92 122 
2.7322 0.905979 4.00499 79 90 122 
2.5883 0.320475 3.73993 80 94 131 
2.68129 -0.425366 4.24138 121 135 180 
2.02735 0.0666096 2.12635 86 99 133 
1.95888 -0.204952 1.9198 88 108 145 
3.02068 -0.758016 5.49112 61 59 81 
1.94876 -0.204168 1.91754 88 108 145 
2.49194 0.593477 3.50612 91 101 136 
2.82435 -2.0727 5.87281 100 154 198 
2.80324 0.208086 5.56507 96 92 119 
3.04646 -0.391452 5.24357 106 120 165 
1.93616 0.472316 1.71875 65 65 89 
-0.315429 0.795597 3.40802 58 60 23 
1.95228 -0.222224 2.04787 103 119 155 
2.54891 0.20217 3.68719 89 95 127 
2.4751 -0.410163 3.58169 75 83 119 
2.49196 -0.629411 3.66326 102 114 152 
2.75079 -1.92353 5.70283 16 22 38 
2.18334 0.630217 2.726 55 48 66 
2.14136 0.407983 2.29395 63 67 94 
2.6787 -0.904244 4.33356 99 113 152 
1.92198 -0.855272 1.9554 116 133 176 
2.03962 -0.00621411 2.15265 83 94 126 
1.8693 -1.13205 1.8673 78 73 103 
2.40172 -0.925664 3.524 118 137 180 
3.06185 -0.491631 5.36119 74 85 117 
1.90261 -0.886128 1.96564 97 115 163 
2.02594 -0.329267 2.19928 95 100 132 
2.47749 -0.954917 3.74238 96 96 130 
3.12813 -1.79252 5.24511 15 17 30 
1.84601 -0.99581 1.79904 83 93 128 
1.99931 -1.00219 2.32478 125 143 191 
1.92909 -1.17062 2.24364 105 120 161 
2.49749 -1.27503 3.89851 113 105 102 
2.54837 0.597256 3.58966 88 99 131 
2.45211 0.685305 3.24385 73 78 108 
2.83012 0.917341 4.23912 73 83 118 
2.93313 -1.04848 5.57905 104 102 105 
2.50813 -1.01595 3.84408 98 97 131 
2.30286 0.586732 2.80446 59 61 84 
2.92603 -0.478953 4.94834 103 121 161 
2.06339 -0.505296 2.34227 90 99 132 
2.74942 -0.131377 5.735 69 75 107 
2.5371 -0.263741 3.70374 86 94 131 
2.2104 -1.55997 3.06778 108 122 161 
2.73608 -0.240287 4.33052 75 79 116 
2.7503 -1.22267 4.62482 98 92 80 
2.50427 0.717915 3.40569 69 82 116 
1.85913 -0.795848 1.78047 70 79 112 
2.97829 0.989322 4.86661 74 84 119 
2.76467 0.541649 5.4849 70 68 89 
1.52407 0.690028 2.57261 58 59 77 
2.33976 -0.497142 3.16427 105 117 155 
2.72777 0.867319 4.02611 74 78 105 
2.01888 -0.485028 2.16461 98 92 118 
2.79039 0.827653 4.29373 27 32 51 
1.97391 -0.340243 2.04 105 119 156 
2.56555 -0.83089 3.9366 96 111 150 
2.04908 -0.955096 2.38923 115 123 159 
2.02606 0.210698 2.09224 80 93 125 
1.92704 0.0850796 1.77505 89 96 138 
1.9034 -0.994229 1.96395 127 145 191 
2.46958 0.599251 3.34641 43 49 73 
2.78104 -0.391886 4.54087 64 69 91 
1.94481 -0.316109 2.27588 104 73 88 
2.87241 -0.588155 4.84151 111 125 164 
3.0367 0.729004 4.99187 80 93 128 
2.7613 -0.34104 5.75422 105 121 157 
1.43913 0.716158 2.42191 50 57 65 
2.15551 0.567349 2.66041 27 18 19 
2.34736 -0.755214 3.25376 109 105 128 
2.69812 -0.909781 4.34616 109 121 161 
2.53525 -0.0683632 3.56667 116 114 115 
2.52773 0.659955 3.49981 70 83 115 
1.87243 -0.775329 1.80112 82 90 127 
1.91776 -0.109256 1.81235 107 122 163 
1.90649 -0.34577 1.81026 102 123 168 
2.4779 -0.653396 3.64165 81 91 127 
2.87335 -0.809763 4.85444 75 89 128 
3.06625 0.131454 5.03701 88 103 136 
2.09193 0.187694 2.34256 65 69 96 
2.44089 0.143655 3.32632 101 92 111 
1.99203 -0.4437 2.11853 98 111 146 
1.89085 -0.602823 1.851 101 119 159 
2.97939 0.185539 5.30583 71 72 100 
2.62159 0.914667 3.81834 108 90 102 
2.74381 0.469033 4.22451 70 73 106 
2.93827 -0.161945 5.40072 97 113 149 
2.87555 -0.503136 4.83178 112 127 168 
1.8945 0.266648 1.65844 57 60 91 
2.03343 0.369316 2.01978 94 79 98 
2.8265 -1.29064 4.85315 71 75 110 
2.47506 -0.225717 3.52534 104 119 160 
3.02618 -0.443214 5.28786 78 73 103 
2.94109 -0.351243 5.44379 97 111 148 
2.56612 -0.840347 3.96654 108 122 161 
2.66993 -0.528199 4.2131 102 100 122 
2.55836 0.147823 3.70905 59 70 102 
2.6611 0.789393 3.8805 68 80 120 
2.61386 -0.0265842 3.91558 99 114 157 
1.88918 -0.955059 1.89422 78 91 133 
1.44909 0.405502 4.32701 62 72 99 
1.88428 -1.72245 2.01188 119 117 122 
-0.346534 0.80331 3.42692 86 85 21 
2.58204 -0.776523 4.04394 113 128 171 
2.74545 -1.16036 4.62174 80 75 82 
1.94105 -0.469405 1.96481 110 125 166 
2.52819 -0.815225 3.82172 82 90 127 
3.12697 -2.16208 5.75785 123 171 220 
3.09168 -0.470884 5.39395 74 80 114 
2.52138 -0.220533 3.83548 107 122 161 
2.77859 -0.654668 4.63376 103 119 155 
2.09357 -1.40182 2.59398 84 93 126 
2.15437 -1.64148 2.89254 55 46 67 
2.79569 0.541653 4.37553 21 39 63 
1.88619 -0.719198 1.88157 115 130 173 
1.97702 0.0388808 2.25327 44 44 56 
2.56064 -0.270554 3.80911 96 116 149 
8.45276 0.903631 4.43307 117 114 107 
1.90262 0.126412 1.66901 100 118 156 
2.95586 -2.13137 5.78905 124 174 223 
2.63499 0.918481 3.82659 106 89 99 
2.61513 -0.830881 4.09783 104 122 162 
3.29211 -0.992521 6.07473 30 51 94 
2.86268 0.287422 5.42054 107 126 159 
2.07747 -1.00547 2.59537 92 93 88 
3.05531 -2.57691 6.2109 221 233 255 
2.69298 0.399645 3.94636 103 117 152 
2.73637 -1.9543 5.88561 131 183 231 
2.74604 -1.95871 5.89625 130 182 230 
3.51254 -2.25274 6.2384 97 143 193 
2.16847 -0.619367 2.60998 129 146 190 
1.83144 0.811673 3.1099 15 18 23 
2.10052 -1.10108 2.63963 64 72 108 
2.98752 -0.456948 5.14642 101 119 159 
-0.395016 0.366449 1.82964 47 30 46 
2.76916 1.03612 4.33899 72 60 70 
2.92026 -1.78129 5.77284 120 137 183 
2.30769 -0.79471 3.2207 119 136 182 
3.00631 0.348795 5.07712 95 110 151 
2.51072 0.599038 2.9876 57 45 47 
2.24574 -0.599374 2.85436 104 94 119 
1.82668 0.781431 3.07887 74 66 77 
2.31175 -0.616237 3.09668 101 92 95 
2.14937 -0.917429 2.70755 65 57 54 
2.46665 0.293127 3.36786 79 82 117 
2.50732 -1.34536 3.92415 103 92 88 
3.00264 -2.50606 6.21173 223 234 255 
2.79258 0.335189 4.33273 95 106 138 
2.53202 0.0693723 3.631 114 127 171 
2.79381 -0.225861 5.64152 101 98 125 
2.92643 0.309496 4.85672 96 114 150 
2.8955 -0.951396 5.59614 122 120 142 
2.84769 0.97172 4.19997 60 62 87 
2.85787 -0.578596 5.50557 119 116 137 
2.73763 0.145728 5.70971 64 69 98 
2.89262 0.350811 4.62336 83 96 131 
2.85734 0.121206 5.40158 74 68 82 
3.05836 0.486732 5.14029 85 91 123 
2.87427 -1.30923 5.69666 127 144 190 
2.87031 0.346213 5.37168 84 75 102 
2.78076 0.749639 4.20295 87 101 136 
2.87166 -1.17448 4.92784 100 94 82 
2.94246 -0.922257 5.59648 100 111 143 
2.99371 0.911705 4.75936 120 135 176 
2.6559 -0.627224 4.19848 113 133 170 
2.83634 1.00146 4.37133 53 53 81 
2.72865 -1.1658 4.50503 110 117 146 
2.13812 -1.66863 2.85271 72 82 118 
2.4699 0.43855 3.35206 86 95 128 
2.93982 0.0154895 5.27343 56 61 83 
2.89454 0.150102 4.65278 103 103 103 
2.54574 -1.08881 3.85015 68 72 99 
2.06694 -1.51832 2.60567 118 108 106 
2.70226 -1.88247 5.91903 47 35 45 
2.72393 0.746901 4.10099 81 87 119 
2.69576 -0.348046 4.1524 123 141 177 
2.7529 0.302589 5.62162 99 113 150 
2.20239 -1.32444 3.08222 112 126 165 
3.00735 0.983391 4.8338 83 102 135 
2.73374 -0.120613 4.28765 117 132 175 
2.78894 0.533302 4.35953 22 25 40 
2.48111 0.677108 3.35141 39 46 72 
2.77024 1.02129 4.27674 16 22 36 
2.73997 0.465516 5.5257 92 104 142 
3.01886 0.785866 4.95711 83 96 131 
2.73606 0.628993 4.10652 92 105 139 
2.6843 -0.147201 4.15614 97 96 127 
2.78974 0.956797 4.27992 7 16 31 
2.31434 -0.821289 3.1873 102 116 153 
2.44431 -1.35455 3.74041 123 126 143 
2.7685 -1.16004 4.73788 95 109 146 
2.68039 0.936082 3.91863 106 90 101 
2.49353 0.718104 3.40225 80 89 122 
2.57444 0.138508 3.74313 82 91 130 
2.56954 -0.662289 3.92686 89 100 145 
2.58287 0.843912 3.61691 79 83 112 
3.0133 0.727688 4.97978 80 93 128 
2.82773 -0.675065 5.62081 84 75 92 
2.81385 0.477968 5.38249 44 49 78 
3.12729 0.849001 4.07271 82 90 126 
2.4815 -1.25775 3.81315 74 75 106 
2.91268 -0.392313 5.44903 94 107 142 
3.0314 0.131137 5.01913 88 103 136 
3.0526 -0.930697 5.49987 70 67 76 
2.6291 0.183755 3.86972 113 130 174 
2.57213 -0.0700275 3.8096 108 122 157 
2.76013 -0.261926 5.80846 67 75 111 
2.70006 0.392093 4.07956 94 106 144 
2.2181 -1.46523 3.06247 96 109 153 
2.62986 -0.0309314 3.9539 115 133 173 
2.55181 -0.877704 3.89721 96 99 132 
3.12127 0.823222 4.04965 76 88 128 
2.74117 0.415269 4.19407 82 93 125 
2.54115 -1.22893 3.98026 71 67 84 
2.83313 0.477403 5.36009 43 53 80 
2.72459 -0.841016 4.47808 72 78 112 
2.13872 -0.814212 2.66528 83 76 84 
4.7849 0.728208 3.56504 117 114 107 
1.70953 -0.190407 2.46034 44 30 30 
3.02857 -1.02737 5.46408 83 74 69 
2.10372 0.601038 3.25794 99 113 152 
3.0891 -0.240756 5.77521 115 125 160 
2.4337 0.192814 3.20683 39 50 78 
2.38734 0.0449904 3.19501 39 53 88 
3.09811 -2.58609 6.1834 223 234 255 
2.38956 0.0824346 3.191 46 51 81 
2.81776 0.73515 4.30388 83 92 131 
2.86687 -0.232418 5.51024 54 70 119 
2.67367 -0.640327 4.22918 103 115 153 
2.62218 -0.735817 4.10714 76 91 134 
3.04965 -2.5545 6.23091 223 234 255 
2.58113 0.364709 3.72264 74 79 109 
2.83181 1.01419 4.21636 81 69 81 
2.77457 0.487637 4.39671 80 93 127 
2.39036 0.0317723 3.2053 87 107 144 
2.81186 -0.16865 5.59923 49 53 88 
2.8011 0.218704 5.50928 89 102 136 
2.87488 -0.454996 5.60052 115 113 137 
2.78008 1.00516 4.1555 77 65 75 
2.95521 -0.216703 5.31963 57 58 88 
2.59866 -0.430003 5.44177 117 121 156 
3.11799 -2.18683 5.82001 123 179 226 
2.68524 0.365492 4.11305 88 101 133 
2.93832 -1.2297 5.16608 92 108 144 
2.87083 0.342416 5.39724 98 102 137 
2.53378 0.261627 3.59068 75 79 114 
2.82433 -1.32882 5.71788 128 145 191 
2.95916 0.014082 5.28442 56 61 83 
2.52648 0.637929 3.44385 88 93 131 
3.05001 -0.971856 5.50944 39 38 44 
2.92278 -1.27949 5.62584 110 128 164 
4.23256 0.302188 4.81169 72 81 112 
2.58788 0.0731769 3.84613 105 120 159 
2.95699 1.09022 4.72569 97 83 98 
2.52042 0.50905 3.52436 90 100 135 
2.75161 0.842411 4.10789 102 116 153 
2.54124 -0.544321 3.80769 77 83 117 
2.78426 -1.93514 5.72448 16 19 36 
2.96051 -1.18283 5.23403 81 85 114 
3.062 -1.09302 5.53247 40 47 73 
2.56905 0.720065 3.56802 58 62 97 
2.47394 -1.20124 3.76865 74 78 113 
2.85935 0.763152 4.48665 98 116 152 
3.03419 -1.00324 5.52732 69 65 54 
2.89097 -0.382504 4.84798 96 112 161 
2.73958 0.304421 4.19857 78 84 118 
-0.237934 0.281355 1.8686 95 104 133 
2.49069 -0.549873 3.65435 106 119 154 
2.94328 -0.262511 5.40399 63 73 109 
2.8149 0.380549 5.40084 77 86 119 
2.56474 0.450248 3.41029 83 88 120 
3.97372 -0.328119 6.52763 108 118 154 
1.84794 0.577195 3.08528 97 93 120 
2.97862 -0.231077 5.29188 64 67 98 
2.81313 0.499744 5.51182 48 55 83 
2.79868 0.462457 5.42509 49 58 89 
0.525872 0.0965065 0.969787 93 111 147 
0.927998 0.171808 1.69197 101 121 154 
2.79347 0.517126 5.04246 85 98 132 
3.14071 -1.81716 5.26267 16 18 30 
3.11612 -1.82857 5.25979 17 25 46 
3.16791 -1.97188 5.59355 17 21 50 
2.17578 -0.544114 2.60124 24 26 51 
1.01755 0.16537 -0.198954 90 114 176 
2.24708 -0.464104 2.7777 14 20 36 
1.75352 -0.685694 1.31796 10 9 17 
1.76666 -0.707908 1.29942 8 7 12 
2.65543 -0.939566 4.13585 21 31 56 
1.79331 -0.898495 1.4621 21 25 36 
1.99025 -0.77738 2.07626 29 32 49 
1.76704 -0.982552 1.42824 39 41 62 
1.75968 -0.693325 1.37162 23 31 52 
1.80171 -0.689588 1.41542 38 48 75 
3.46773 -1.65341 5.65689 15 30 51 
2.00173 0.267219 1.85984 118 136 200 
1.97459 -0.777871 2.0239 30 36 58 
1.746 -0.982046 1.36781 30 37 65 
2.41993 0.397611 3.11611 17 27 76 
1.72583 -0.914413 1.35212 8 7 12 
2.62379 -0.941027 4.08542 23 30 59 
1.47074 -0.0267035 0.266021 17 23 35 
2.94682 -0.990011 5.06843 13 23 48 
1.77877 -0.959489 1.47507 26 34 57 
1.97127 -2.53531 1.62811 29 31 56 
1.78492 -0.972731 1.47814 26 32 56 
1.79758 -0.678053 1.41324 24 31 50 
1.72723 -0.991189 1.31862 26 33 59 
3.24469 -2.08668 5.73115 219 231 255 
1.42904 -0.0501773 0.160257 17 18 23 
2.00702 -0.603248 2.10109 25 28 43 
1.42041 -0.3284 0.21649 20 23 30 
1.4615 -1.07869 0.531305 16 18 30 
2.41063 -0.528407 3.27262 111 125 160 
1.44343 -0.0391156 0.206331 16 15 21 
1.42156 -0.260245 0.203055 19 18 24 
2.00293 -0.560883 2.093 32 35 50 
1.54309 -2.6582 0.711471 14 18 30 
2.23829 -0.453227 2.75217 121 135 180 
1.45851 -0.897174 0.439072 29 36 65 
0.971761 -0.851254 0.0112696 16 18 33 
2.08714 -1.12535 2.59005 144 162 202 
1.97462 -0.766681 2.03965 24 33 62 
2.42061 0.551342 3.13143 42 48 74 
1.45902 -0.315099 0.326781 29 32 47 
2.03773 -0.536235 2.13679 38 41 60 
1.47091 -0.242627 0.308147 29 31 43 
1.45785 -1.17498 0.50017 23 29 45 
2.41445 -0.680546 3.38053 19 17 38 
2.02597 -0.661595 2.16467 27 31 43 
1.4335 -0.881794 0.3637 15 20 49 
2.42938 0.265696 3.19205 39 45 69 
2.23149 -0.760897 2.76096 19 22 39 
1.45493 -0.00130357 0.232662 115 127 167 
1.76549 -1.05859 1.44429 34 48 77 
1.99256 0.295935 1.81898 17 30 49 
2.25886 -0.448653 2.8065 129 141 189 
1.41108 -1.68933 0.491513 30 57 86 
1.4217 -0.928784 0.32688 28 37 66 
1.43559 -0.327028 0.264692 25 29 40 
1.99819 -0.917349 2.21933 44 50 66 
2.17969 -0.47141 2.65751 140 160 210 
1.4189 0.447865 0.953258 121 132 160 
2.01385 0.269411 1.91261 12 10 24 
2.97989 -0.194359 4.93044 89 90 120 
2.0272 -0.922581 2.22432 42 44 57 
2.7032 -0.425381 4.14847 44 55 83 
1.75719 -1.03288 1.40832 128 149 196 
3.17159 -1.62159 5.22215 41 60 102 
1.47306 -0.944314 0.50295 27 27 39 
1.46494 -0.917638 0.471085 119 138 171 
2.00431 -0.697127 2.05866 42 54 80 
2.19175 -0.719361 2.65434 104 123 156 
1.44864 -0.281822 0.288353 109 128 170 
1.76175 0.179801 1.16429 123 134 179 
1.93525 -0.945154 2.07229 39 37 58 
1.42365 -0.0299576 0.169475 15 13 27 
1.78572 -0.660499 1.38182 118 130 180 
1.44402 -0.865799 0.406823 123 141 189 
1.43541 -0.899408 0.379477 33 40 66 
1.48527 -0.0180569 0.315668 15 20 26 
1.76055 -0.0991013 1.21999 131 148 191 
1.74103 -0.969611 1.33566 108 123 164 
1.75548 -1.4781 1.52913 62 83 136 
1.42687 -0.0338898 0.142852 12 19 38 
1.99828 -0.925897 2.16359 23 24 42 
1.81141 -1.79458 1.86434 44 31 41 
2.09148 -1.09307 2.67396 57 60 69 
1.74972 -1.01588 1.38204 31 32 60 
2.00492 0.315182 1.86754 109 127 165 
1.74026 -0.978641 1.35244 31 42 74 
2.20672 -1.06707 3.02527 73 76 119 
2.1979 -0.461525 2.70403 135 157 204 
2.04649 -0.550168 2.11196 87 98 130 
1.76153 -1.07003 1.44752 25 32 58 
1.75618 -0.885906 1.40043 30 35 57 
3.44748 -1.90364 5.7449 35 12 90 
1.76439 -0.997943 1.43167 35 42 61 
2.00303 -0.662122 2.10365 39 43 70 
1.98727 0.255465 1.82451 17 21 32 
2.19255 -0.466618 2.65216 125 143 191 
0.935807 -0.871872 0.00333015 19 19 43 
1.99852 -0.739029 2.0777 35 44 83 
1.98127 -0.784295 2.06414 24 29 48 
1.77566 -1.00257 1.47099 21 30 59 
1.77115 0.170292 1.1841 30 43 78 
1.45329 -0.93552 0.437603 16 32 58 
2.38209 -0.458662 3.23222 27 33 47 
1.47773 -0.305408 0.374255 35 43 64 
2.38407 -0.499355 3.36547 68 92 128 
2.21146 -0.536629 2.69495 134 152 200 
1.78144 0.109169 1.22247 24 21 38 
0.959902 -2.06235 0.256216 33 45 85 
3.01826 -1.11455 5.26171 17 25 46 
1.79341 -0.109392 1.30198 45 51 73 
1.77078 -1.00781 1.44822 28 32 69 
1.98041 -0.795199 2.11323 133 154 199 
1.4228 -0.208882 0.181395 19 21 33 
1.8083 -0.465216 1.54724 40 47 76 
2.44777 0.276573 3.24135 42 56 83 
1.46054 -0.125139 0.274791 10 22 38 
1.73413 -1.08178 1.33395 22 29 48 
3.17201 -1.67065 5.23208 15 29 58 
1.41541 -1.21969 0.3847 16 26 53 
2.40597 -2.05258 2.99162 150 167 210 
1.74891 -1.04728 1.38855 33 38 70 
1.76173 -1.0394 1.43214 30 42 68 
1.75312 -1.08328 1.41891 116 135 178 
1.7785 -0.988161 1.48203 25 33 56 
1.77144 -0.982595 1.45908 91 114 148 
2.02018 -0.61676 2.15404 37 42 61 
1.99432 -1.34434 2.19567 62 84 134 
1.73679 0.34156 1.13789 34 40 56 
1.42256 0.15361 0.21222 29 33 45 
1.47347 -1.0595 0.53472 19 16 33 
1.73956 -1.86435 1.57957 129 143 190 
1.78198 0.175183 1.20912 33 39 75 
1.43688 -1.20518 0.452494 25 27 52 
1.42572 -0.316993 0.224799 26 23 42 
2.64822 -0.925374 4.10474 114 126 174 
1.47121 -0.920385 0.479111 67 84 127 
2.60897 -0.50357 4.07472 114 115 161 
1.01753 -1.17547 0.11976 26 40 75 
1.73646 -1.08528 1.35757 75 91 125 
2.09384 -1.01936 2.57635 73 64 65 
1.78768 -0.99835 1.49338 29 32 67 
2.66752 -0.541443 4.08736 122 141 184 
1.424 -0.227622 0.211847 22 15 33 
2.19083 -0.314727 2.74802 77 85 121 
1.75183 -1.69011 1.57342 61 81 132 
2.25219 -0.464924 2.80995 128 130 168 
1.72484 -1.08883 1.33798 27 34 60 
1.73658 -0.158675 1.15162 38 44 66 
1.43108 -2.05341 0.646777 119 140 185 
2.00886 -0.736825 2.12869 39 47 70 
2.18725 -0.32692 2.69604 80 91 123 
