ply                 
format ascii 1.0    
element vertex 1188
property float x    
property float y    
property float z    
property uchar red  
property uchar green
property uchar blue 
end_header          
0.2252 -0.00690692 2.31484 164 154 119 
-0.15 -0.0569145 2.26117 123 127 112 
-0.315558 -0.439074 2.24016 124 146 143 
-0.403712 -0.400306 2.22706 135 143 130 
-0.113218 -0.782748 2.26725 103 112 121 
0.134458 -0.18881 2.29643 222 213 184 
0.339522 -0.708759 2.32735 133 109 63 
0.114775 0.0449086 2.30113 152 137 98 
-0.385337 -0.354229 2.22961 100 110 102 
0.225249 -0.905081 2.31208 165 164 136 
-0.00106867 -0.878067 2.27996 134 137 116 
-0.201765 -0.786535 2.25457 126 146 157 
-0.389284 -0.643931 2.22723 133 149 148 
0.161975 0.151835 2.3115 169 161 138 
-0.01608 -0.280235 2.28291 77 73 72 
0.213963 0.0812358 2.31348 111 99 77 
0.21382 -0.314945 2.31502 141 130 110 
0.0745676 -0.111079 2.29482 192 200 176 
0.144674 0.0451769 2.30739 185 176 143 
0.235271 -0.680379 2.31383 174 171 140 
-0.317797 -0.183559 2.23964 192 142 53 
0.0846465 -0.662512 2.29727 159 155 120 
-0.10474 -0.666981 2.26842 146 127 113 
0.184886 -0.413434 2.3213 164 157 131 
-0.00834052 -0.617578 2.28207 136 154 158 
-0.205505 -0.108001 2.2569 87 89 78 
-0.247554 -0.819932 2.24605 118 130 130 
-0.213817 -0.848659 2.25381 116 134 144 
0.175564 -0.410658 2.3072 177 154 122 
-0.525886 -0.238834 2.20714 115 114 93 
-0.53651 -0.31961 2.20734 206 181 159 
-0.284889 -0.425318 2.24322 126 110 84 
0.0625853 0.0890616 2.29666 184 174 138 
0.0230569 -0.728148 2.28614 116 122 108 
0.254086 -0.0429565 2.31609 145 140 120 
0.151957 -0.422934 2.30631 198 193 171 
0.203474 -0.521854 2.30997 138 132 106 
0.1025 -0.915109 2.29582 181 188 172 
0.0960534 -0.634545 2.29238 142 146 132 
0.136414 -0.820965 2.30358 156 161 141 
0.160874 -0.391615 2.30806 175 182 166 
0.203471 -0.326274 2.31209 166 143 109 
-0.164519 -0.526132 2.25932 191 174 128 
-0.460564 -0.480597 2.21928 104 124 133 
0.129416 -0.0227899 2.30352 157 140 97 
0.198143 -0.469578 2.31064 130 114 89 
0.233995 -0.125633 2.31445 128 117 89 
-0.301163 -0.324413 2.24175 165 157 108 
-0.036046 -0.537941 2.27953 124 134 135 
0.245365 -0.167551 2.31683 127 116 84 
0.164197 -0.320266 2.30744 192 192 168 
0.212165 -0.820315 2.31121 199 203 186 
-0.130006 -0.800022 2.26682 119 123 122 
0.114831 0.0491893 2.30202 149 133 100 
0.0952419 -0.426259 2.29923 88 90 87 
0.259017 -0.0825627 2.3212 167 153 126 
-0.226471 -0.555813 2.25231 188 152 92 
0.0962567 -0.328349 2.29622 111 122 114 
0.111959 -0.323552 2.30261 206 202 177 
0.268004 -0.436785 2.32182 217 194 176 
0.126264 -0.363672 2.31295 159 156 139 
-0.113824 -0.41641 2.26805 121 104 74 
0.0575385 -0.816545 2.28978 174 181 163 
-0.421443 -0.336684 2.22339 108 118 110 
0.154305 -0.73378 2.30221 146 140 114 
0.2673 -0.438191 2.3159 216 193 175 
0.165985 -0.119083 2.30849 142 141 120 
-0.360142 0.0569081 2.23269 127 138 121 
-0.515248 -0.614652 2.20948 99 121 132 
-0.199506 -0.808932 2.25343 153 168 173 
0.150439 -0.702537 2.30196 199 187 149 
0.0141626 -0.683911 2.29082 88 104 103 
-0.00140364 -0.530748 2.28387 83 96 104 
-0.270885 -0.525219 2.2457 142 139 122 
-0.0318234 -0.0193513 2.27765 117 121 98 
0.354465 -0.0753313 2.28926 105 77 27 
-0.593206 -0.247575 2.16444 92 68 22 
0.153313 -0.610393 2.3049 152 154 132 
0.112578 -0.923808 2.29685 166 174 151 
-0.513296 -0.305176 2.20999 129 143 143 
0.0588315 -0.934847 2.28908 156 161 138 
0.0931197 -0.733111 2.29903 123 124 106 
-0.147562 -0.512778 2.26405 216 193 91 
-0.383445 -0.684504 2.22805 135 147 137 
-0.434055 -0.319775 2.22144 178 189 173 
0.180075 -0.437952 2.31068 163 150 116 
0.119147 -0.869649 2.29576 125 129 112 
-0.262108 -0.224092 2.24677 159 134 103 
0.0587486 -0.401426 2.29127 187 153 105 
-0.0304639 -0.251205 2.2799 115 112 107 
0.0630834 -0.787417 2.29001 159 164 141 
-0.292697 -0.509265 2.24283 134 140 126 
0.171796 -0.157271 2.3061 160 136 100 
-0.614546 -0.804267 2.08861 229 227 186 
0.196723 -0.416842 2.31202 154 148 124 
0.235716 0.0734331 2.31545 164 154 129 
-0.0409223 -0.124959 2.28165 100 99 94 
0.136632 0.149788 2.3032 135 117 93 
0.169653 -0.69597 2.30591 183 178 158 
-0.51199 -0.318952 2.20961 133 141 130 
0.205202 -0.631292 2.31124 182 185 166 
0.169495 -0.646127 2.30737 142 134 98 
0.0591801 -0.815758 2.28871 164 171 153 
0.187713 -0.243247 2.31095 160 149 119 
0.252775 -0.0606724 2.32153 126 118 95 
-0.144963 -0.41112 2.26315 169 124 93 
0.115072 -0.0973384 2.30103 193 181 141 
0.150321 -0.526806 2.30629 98 94 82 
0.207875 -0.515725 2.31271 132 125 97 
0.202642 0.0732385 2.31399 138 115 71 
-0.409004 -0.264595 2.22539 182 150 91 
0.100158 -0.889754 2.29541 166 175 158 
0.0679298 -0.831235 2.29305 155 163 142 
-0.0266276 -0.458283 2.27606 146 142 139 
-0.237608 -0.0353996 2.25038 113 120 112 
0.0269523 -0.906946 2.28388 153 155 131 
0.0746941 -0.811647 2.28935 170 177 159 
0.0798684 -0.490106 2.29331 81 91 92 
0.193343 -0.790938 2.31564 174 178 163 
-0.228166 -0.0411461 2.24914 125 145 152 
0.22111 -0.613656 2.31346 150 153 136 
-0.603065 -0.320128 2.14685 171 147 101 
-0.499631 -0.32418 2.21264 117 124 116 
0.0635759 -0.281661 2.29076 162 159 152 
-0.42226 -0.5743 2.22363 114 126 122 
0.0446867 -0.68211 2.29204 105 125 124 
-0.0865545 -0.0336304 2.27198 88 94 82 
0.0583445 -0.606714 2.29493 89 107 107 
0.130689 -0.15269 2.30204 146 139 110 
0.346588 -1.04414 2.2842 92 75 49 
0.241759 -0.754887 2.31258 167 173 159 
-0.261307 0.120203 2.24912 76 87 79 
-0.293289 -0.0817997 2.24092 128 140 140 
0.237248 -0.150467 2.31653 129 118 88 
-0.0298642 -0.0374769 2.27935 137 140 113 
0.0207462 -0.745751 2.28666 128 129 113 
0.0820418 -0.837612 2.294 163 170 154 
0.0224273 -0.184106 2.28762 154 153 132 
0.0905649 -0.381906 2.30016 107 103 94 
0.145544 -0.658151 2.30612 194 185 152 
0.149152 -0.112793 2.30569 165 156 117 
-0.191886 -0.172383 2.25669 208 181 102 
0.0160224 -0.227448 2.28702 100 93 83 
-0.136638 -0.0766967 2.26431 181 157 109 
0.239229 -0.823201 2.31554 187 190 171 
0.262151 0.0102443 2.32319 173 168 148 
0.255076 -0.314947 2.32033 173 159 120 
0.187097 -0.515181 2.30956 156 158 136 
0.258757 -0.26636 2.31639 141 120 77 
0.0605647 -0.81537 2.29017 166 173 155 
-0.54406 -0.702064 2.19706 201 187 174 
0.00811836 -0.895472 2.28258 143 145 121 
0.15694 -0.446829 2.30825 199 171 132 
-0.259237 -0.170721 2.24703 115 111 66 
0.183354 -0.350059 2.29752 177 167 140 
0.140603 -0.326686 2.30509 155 148 119 
-0.548188 -0.944866 2.18849 201 183 169 
-0.403903 -0.304704 2.22698 134 142 129 
0.265243 -0.306368 2.32028 168 163 134 
0.0658561 -0.851428 2.29175 177 186 169 
0.0381619 -0.632995 2.28784 94 118 118 
0.110708 -0.792748 2.29565 152 154 132 
0.152594 -0.554266 2.30371 165 144 113 
-0.45851 -0.593088 2.21622 147 137 127 
-0.279215 -0.701284 2.2441 132 104 56 
0.130024 -0.0230914 2.30295 166 149 106 
-0.323743 -0.256787 2.23909 111 100 72 
0.263302 -0.315293 2.31958 164 150 111 
0.0329549 -0.191048 2.28891 192 181 151 
0.0708909 -0.280844 2.29957 145 142 135 
-0.170368 -0.406372 2.26203 101 87 78 
0.246339 -0.67395 2.31632 151 159 136 
-0.0692847 -0.395107 2.27292 211 178 127 
0.0520727 -0.848785 2.29121 129 136 118 
0.13376 -0.746966 2.30007 151 150 129 
0.133932 -0.620483 2.30171 188 185 152 
-0.418267 -0.751976 2.22422 155 165 157 
-0.441049 -0.40774 2.22256 160 147 113 
0.00511398 -0.109459 2.28279 123 112 80 
-0.149347 -0.789183 2.25905 143 132 104 
0.0129898 -0.192134 2.2886 156 141 110 
0.206329 -0.0826708 2.31371 127 110 90 
0.0504556 -0.853092 2.2872 137 146 127 
-0.30095 -0.584456 2.2396 141 131 104 
0.114861 -0.787017 2.29769 153 155 131 
-0.296701 -0.765253 2.23942 158 145 100 
0.265165 -0.47877 2.32051 226 204 180 
-0.51616 -0.305365 2.20977 121 135 135 
0.0645595 -0.844737 2.29195 183 194 177 
-0.225115 -0.35729 2.25231 196 165 38 
0.125781 -0.366101 2.30382 158 153 134 
-0.240771 -0.213264 2.25109 153 167 132 
-0.101113 -0.782532 2.26816 107 114 122 
0.0756437 -0.127966 2.29022 177 168 137 
0.260104 -0.615317 2.31518 209 187 166 
0.248987 -0.4988 2.31992 129 121 98 
-0.486526 -0.774705 2.21361 153 168 165 
-0.406631 -0.308304 2.22619 113 123 112 
0.173695 0.0299575 2.31045 201 189 163 
0.0586806 -0.93477 2.29103 144 149 126 
0.219675 -0.837828 2.31251 196 200 183 
-0.0225497 -0.826668 2.27917 135 139 124 
-0.371409 -0.528762 2.22923 92 106 106 
0.0937017 0.0270491 2.29774 142 125 95 
-0.113729 -0.291862 2.2694 194 133 50 
-0.219891 -0.678944 2.25361 147 159 149 
-0.00902425 -0.616827 2.28154 117 135 139 
-0.330674 -0.305756 2.23742 112 119 103 
0.147723 -0.752683 2.3032 132 134 113 
-0.165024 -0.163297 2.26294 203 174 94 
0.204178 -0.631273 2.31066 149 151 129 
0.0230255 -0.635561 2.2879 104 122 124 
0.234335 -0.558224 2.31609 143 138 119 
-0.500998 -0.269293 2.21238 147 153 139 
-0.13139 -0.86163 2.26322 125 140 145 
-0.563965 -0.156804 2.11685 201 196 193 
0.0361705 -0.777878 2.29469 133 140 124 
-0.136426 -0.461709 2.26464 193 152 72 
-0.0161992 0.04457 2.28198 128 120 99 
-0.579428 -0.0900789 2.18305 200 203 208 
-0.332487 -0.160524 2.23692 123 124 108 
0.167153 -0.37877 2.30224 176 169 141 
0.0819053 -0.298178 2.29616 105 101 92 
0.0427688 -0.277854 2.28919 127 113 104 
0.216988 -0.505664 2.31329 127 113 84 
-0.373971 -0.315646 2.22568 142 145 126 
0.244868 -0.232189 2.3168 134 118 92 
0.123267 -0.368496 2.29544 166 160 146 
0.0944375 0.0966495 2.29711 184 175 146 
0.210969 -0.382261 2.30891 116 115 84 
0.200954 -0.364383 2.31609 166 147 115 
0.0814155 -0.967175 2.27987 213 192 173 
0.169811 -0.908403 2.30388 177 183 173 
0.26654 -0.549497 2.32362 212 190 169 
0.0702714 0.143812 2.2937 171 164 138 
-0.00900835 0.0846486 2.28513 148 142 118 
0.0537644 -0.66087 2.28995 118 127 122 
0.0996667 -0.203909 2.30219 135 126 97 
0.240702 -0.530181 2.3176 130 124 102 
-0.423484 -0.3696 2.22296 123 131 116 
0.149797 -0.711835 2.30668 213 213 185 
0.0757683 -0.63887 2.29482 122 127 120 
0.0824334 -0.629906 2.29336 113 123 115 
0.240541 -0.0415491 2.32052 119 113 87 
-0.348672 -0.328324 2.23655 116 126 117 
-0.46228 -0.497391 2.21939 126 146 145 
0.238076 -0.0920309 2.31701 105 104 83 
0.150341 -0.527055 2.30504 102 99 84 
0.0964268 -0.600001 2.29576 165 166 150 
0.2335 0.0420038 2.31379 171 164 138 
-0.169284 -0.455028 2.26041 214 186 112 
-0.0437207 -0.808437 2.27962 136 138 127 
-0.25647 -0.670945 2.24671 157 153 126 
0.247809 0.0924112 2.31756 173 167 143 
0.239687 0.0294968 2.31715 157 146 116 
0.150418 -0.579915 2.30404 158 153 133 
0.0817014 -0.967138 2.28093 212 191 172 
0.0326309 -0.190962 2.28948 166 151 120 
-0.0382138 -0.359575 2.2794 214 183 119 
-0.503591 -0.44412 2.21161 119 132 125 
-0.320694 -0.180669 2.2381 187 130 49 
0.152378 -0.501828 2.30461 112 108 97 
0.280682 -0.100945 2.32351 210 185 155 
-0.521098 -0.132038 2.20983 120 133 126 
-0.349475 -0.488066 2.23599 160 129 82 
-0.22827 -0.0455066 2.25824 88 98 90 
-0.227394 -0.0381269 2.25497 89 99 90 
0.360194 0.30033 2.28317 22 17 14 
0.254066 0.0214052 2.31734 187 181 157 
0.0999082 -0.889789 2.29494 157 166 149 
-0.0828213 -0.0465272 2.27296 129 133 116 
-0.20839 -0.350935 2.2573 199 164 44 
0.025465 -0.167158 2.28913 156 148 127 
-0.0438031 -0.808547 2.27843 124 127 118 
0.199974 -0.884347 2.30942 156 162 148 
-0.408284 0.111067 2.2279 134 143 124 
0.217855 -0.335685 2.31683 154 148 126 
-0.0679684 -0.568601 2.2746 96 106 115 
0.346166 -1.04414 2.28161 96 79 53 
0.180059 -0.0760149 2.31197 164 151 119 
0.181385 -0.793933 2.30938 147 150 123 
-0.205742 -0.596559 2.25293 171 157 118 
0.212801 0.0901631 2.32166 132 118 91 
-0.0537906 -0.273193 2.27787 75 75 75 
0.0592807 -0.113457 2.29322 181 172 141 
-0.447165 -0.453036 2.2242 173 137 87 
-0.508202 -0.397841 2.21061 113 123 112 
0.169695 -0.773834 2.29951 158 158 132 
-0.451832 0.149388 2.2177 141 152 146 
0.198483 -0.63866 2.31058 130 123 94 
0.138218 -0.591126 2.30269 164 163 143 
0.0626549 -0.281825 2.29003 145 131 120 
0.148281 -0.134058 2.30504 147 137 101 
0.169124 -0.296714 2.30821 163 153 118 
0.237038 -0.533125 2.31817 138 133 113 
0.142655 -0.663377 2.3041 192 193 161 
-0.276665 -0.721353 2.24425 114 112 99 
0.21646 -0.538527 2.31272 148 146 125 
0.0775124 -0.212061 2.29398 172 162 137 
0.407436 -0.278883 2.29902 206 152 108 
0.169294 -0.297039 2.30705 166 153 118 
-0.13669 -0.789661 2.26334 122 116 100 
-0.605894 -0.755443 2.06624 210 207 162 
-0.0778093 -0.441777 2.27049 151 139 123 
-0.520748 0.0232708 2.20739 113 124 118 
0.162289 -0.00669612 2.30639 208 198 171 
0.05563 -0.515661 2.29203 85 98 104 
-0.169553 -0.448715 2.25937 217 180 91 
0.191566 -0.147576 2.31117 163 145 121 
-0.153949 -0.295682 2.26198 214 186 112 
-0.503079 0.0600235 2.21093 135 145 136 
0.0361207 -0.778673 2.28701 128 133 113 
-0.161436 -0.451356 2.26339 210 182 109 
0.415308 0.145915 2.2804 166 119 73 
0.0790349 -0.707639 2.29462 129 133 119 
0.109363 -0.907234 2.2968 157 164 148 
0.202048 -0.407586 2.31051 127 127 99 
0.0905594 -0.382288 2.29869 110 106 97 
0.00693191 -0.323816 2.28811 107 99 80 
-0.426029 -0.327627 2.22219 121 131 123 
0.255485 -0.422857 2.32072 176 167 150 
0.19733 -0.415885 2.31585 158 152 128 
0.167863 -0.278651 2.3067 181 172 139 
0.336196 -0.711678 2.30503 141 118 74 
0.186009 -0.859369 2.30697 174 182 167 
-0.18096 -0.288797 2.259 207 191 129 
0.139506 -0.633236 2.30188 182 181 150 
0.194244 -0.389039 2.31371 173 160 128 
0.0414407 -0.347773 2.29484 181 148 95 
0.217174 -0.505251 2.31525 131 120 90 
0.00091985 0.235207 2.25138 162 140 101 
0.151691 -0.575654 2.3042 154 151 132 
0.0416569 -0.349146 2.28981 184 147 92 
0.0681584 -0.358908 2.29656 219 203 180 
-0.155875 -0.364474 2.26285 196 151 83 
0.0804841 -0.489117 2.29778 84 92 94 
0.232508 -0.383901 2.31803 140 129 99 
-0.520209 0.123304 2.10655 193 170 152 
0.0132479 -0.343091 2.28479 140 122 102 
-0.0746937 -0.425282 2.27438 188 170 146 
-0.204865 -0.453695 2.25585 186 175 130 
0.0641211 -0.89816 2.29217 150 155 133 
0.0356464 -0.257279 2.28905 121 110 104 
0.109946 -0.369895 2.29977 149 143 127 
-0.000904302 -0.182275 2.28421 160 151 134 
0.217571 -0.335737 2.31538 156 141 112 
5.27373e-05 0.235241 2.25149 165 143 104 
0.0927692 -0.0193487 2.30254 174 170 141 
-0.677509 -0.0585565 2.13857 11 12 14 
0.00594309 -0.308746 2.28698 100 101 96 
0.108794 -0.791663 2.29681 157 157 133 
0.16323 -0.142434 2.30091 206 207 189 
0.218408 -0.774643 2.30871 175 181 167 
0.137209 -0.237357 2.29896 182 160 111 
0.0670765 -0.356975 2.29301 208 194 168 
-0.42905 -0.423028 2.22039 158 125 72 
-0.171541 -0.630044 2.25965 144 129 96 
1.56278 -0.499733 4.64203 163 105 55 
0.189822 -0.233248 2.31154 144 130 101 
0.161072 0.0510689 2.30968 212 205 179 
-0.320917 -0.178809 2.24351 186 133 53 
0.145639 -0.713548 2.30384 167 165 140 
-0.0121093 -0.126327 2.28162 145 127 77 
0.0948391 -0.125918 2.29671 198 189 156 
0.259884 -0.0817432 2.32406 176 164 140 
0.162437 -0.24321 2.30968 199 194 165 
-0.115878 -0.829463 2.26672 100 111 117 
0.0288104 -0.655824 2.28867 94 112 114 
0.145268 -0.69944 2.30401 202 193 150 
-0.0602041 -0.40696 2.27508 183 154 114 
0.217845 -0.447429 2.32033 121 116 84 
-0.70832 -1.43341 2.4914 12 12 12 
-0.0350959 0.0207919 2.27906 130 128 107 
0.0459837 -0.875583 2.29002 128 135 117 
0.406005 0.139622 2.29944 137 113 67 
-0.0350849 0.0207441 2.27895 130 128 107 
0.194944 -0.52257 2.30942 151 147 120 
0.114487 -0.617793 2.2983 179 179 143 
0.167864 -0.376929 2.30913 191 182 153 
0.179703 -0.077409 2.30831 157 144 112 
-0.35938 -0.763358 2.23041 112 120 109 
-0.519679 -0.0909616 2.20897 103 119 109 
-0.20003 -0.613284 2.25805 175 141 78 
0.17333 -0.464275 2.30799 143 132 112 
0.115224 0.0762197 2.3033 129 115 76 
-0.0795555 -0.671135 2.27172 117 128 130 
-0.477104 -0.384392 2.21589 150 157 149 
0.0239787 -0.651152 2.28856 78 96 100 
-0.430216 -0.326029 2.223 133 143 135 
0.256682 0.0386776 2.32045 161 152 135 
-0.0136272 -0.434467 2.28371 168 158 146 
0.238853 -0.133394 2.31695 118 104 75 
-0.279296 -0.56276 2.24383 127 129 115 
-0.524134 -0.273438 2.20748 114 127 117 
0.17128 -0.653519 2.3069 187 179 142 
-0.421687 -0.34508 2.22435 118 130 120 
0.261386 -0.524199 2.31838 212 191 172 
-0.699448 -0.692908 2.20026 29 23 11 
-0.169518 -0.25255 2.26068 106 93 49 
-0.114337 -0.599297 2.2691 222 213 174 
-0.819544 -0.670367 2.18509 199 164 126 
0.16443 0.151236 2.30087 106 91 62 
-0.0833581 -0.544422 2.2733 146 175 171 
0.231372 0.125339 2.31174 192 185 159 
-0.653064 -0.66381 2.13553 229 210 180 
-0.229505 -0.469018 2.25395 238 212 137 
-0.126605 -0.596961 2.27 196 188 152 
-0.598278 -0.452407 2.16034 215 196 156 
-0.0579771 -0.448634 2.27773 213 197 172 
-0.577662 0.0935085 2.15236 136 124 98 
-0.195308 -0.245834 2.25704 208 192 133 
0.0555657 -0.423859 2.29585 180 186 174 
0.0581045 -0.569531 2.2913 202 205 176 
0.20594 -0.291134 2.31258 198 192 170 
-0.0619802 -0.289026 2.27704 181 179 166 
0.168721 0.142843 2.30321 140 125 86 
-0.58617 -0.0337447 2.15571 214 208 172 
-0.31481 -0.532834 2.23899 213 196 152 
0.142837 -0.475036 2.30482 177 180 169 
-0.591056 -0.166179 2.16105 119 96 44 
-0.694275 -0.667991 2.20974 206 186 149 
-0.207899 -0.489776 2.25691 107 93 84 
-0.145565 -0.491283 2.26611 137 108 64 
-0.150325 -0.549504 2.26355 204 181 137 
-0.58964 0.18391 2.14662 191 177 140 
-0.13864 -0.0556555 2.26223 216 200 148 
-0.137437 -0.813479 2.26343 203 182 127 
-0.596256 -0.0771867 2.15172 131 100 53 
0.179813 -0.55587 2.31007 206 213 195 
-0.394049 -0.217099 2.22591 213 195 155 
-0.295792 -0.201321 2.24166 235 214 161 
-0.582576 0.0826043 2.15272 197 191 155 
-0.596613 -0.286108 2.16242 197 185 147 
-0.192231 -0.560493 2.25913 197 176 129 
-0.127263 -0.400205 2.2682 112 109 92 
-0.0843037 -0.30499 2.27094 114 101 69 
-0.247605 -0.559539 2.24985 107 112 108 
0.219127 0.0356834 2.31163 176 166 141 
0.259499 -0.50943 2.32037 152 150 138 
0.239042 0.140654 2.31046 203 196 177 
0.145674 0.13899 2.2981 133 120 88 
-0.255029 -0.207194 2.24822 217 205 157 
-0.120552 -0.524581 2.26689 205 186 117 
-0.314202 -0.274464 2.23923 145 160 153 
0.0724482 -0.389637 2.29705 214 206 187 
-0.0289565 -0.447153 2.2812 169 163 149 
0.028346 0.152197 2.28097 203 199 174 
-0.233482 -0.521537 2.24998 134 107 86 
-0.118839 -0.616082 2.26968 90 105 110 
-0.653599 -1.06557 2.14654 126 97 41 
-0.16861 0.0733109 2.25552 194 178 116 
0.179428 -0.536132 2.31163 205 214 197 
-0.549909 0.24305 2.17006 208 192 176 
-0.208048 -0.713259 2.25647 185 172 138 
-0.387377 -0.100434 2.22483 187 141 79 
-0.181995 -0.505019 2.25809 156 99 79 
-0.261212 -0.449323 2.24852 117 114 105 
0.0790977 -0.722718 2.29487 191 196 176 
-0.365971 -0.460619 2.23348 206 182 138 
-0.28828 -0.364844 2.24385 217 193 95 
-0.281236 -0.5528 2.24541 98 113 106 
-0.234264 -0.151924 2.25173 169 165 120 
-0.317644 -0.36523 2.23965 184 171 116 
0.149468 0.0577686 2.30404 159 150 111 
0.190623 -0.217971 2.31176 119 104 85 
-0.688102 -0.164465 2.20136 210 195 162 
-0.123472 -0.128176 2.26415 218 196 147 
0.138304 -0.461652 2.30412 198 205 198 
-0.131127 -0.536824 2.26631 132 104 83 
0.139494 -0.505192 2.30044 124 127 116 
-0.113679 -0.775745 2.26776 170 167 148 
-0.274682 -0.37156 2.24672 208 188 129 
0.136583 0.144569 2.29736 139 127 101 
0.248302 -0.520891 2.31775 189 188 170 
-0.0635659 -0.501602 2.27519 117 108 103 
0.128024 0.135917 2.29829 166 159 131 
-0.665902 -0.348786 2.13268 108 94 49 
-0.2739 -0.393119 2.24606 109 116 109 
-0.663905 -0.584945 2.13485 191 176 143 
-0.170312 -0.550683 2.26129 202 156 107 
0.0610614 -0.956147 2.29232 149 155 129 
0.139555 -0.714722 2.30324 213 215 194 
-0.478353 -0.579581 2.21617 206 176 140 
-0.201321 -0.770163 2.25538 145 143 118 
0.0895685 0.166698 2.2824 176 164 142 
-0.126384 -0.480943 2.27029 210 185 121 
-0.345732 -0.745462 2.23613 126 126 100 
-0.329791 -0.444909 2.24003 173 171 146 
0.185991 0.11434 2.30474 190 170 133 
0.200648 -0.269025 2.31221 203 207 190 
-0.118148 -0.80025 2.26756 123 125 112 
0.0483448 -0.533853 2.2938 96 115 119 
-0.600456 -0.624475 2.16206 220 201 159 
-0.310153 -0.6934 2.24065 141 139 114 
-0.667763 -0.256076 2.13028 143 128 89 
0.172041 -0.501811 2.30569 149 160 152 
-0.668528 -0.293218 2.1316 182 166 130 
-0.246096 -0.513954 2.24924 197 163 128 
0.242571 0.111813 2.31167 166 159 130 
0.226601 0.0864315 2.31277 129 114 81 
0.0510473 -0.793308 2.28904 182 192 168 
-0.0355695 -0.20232 2.28256 121 128 121 
0.128786 -0.728502 2.29977 156 155 134 
0.260651 0.117253 2.31555 179 173 141 
-0.210316 -0.735412 2.25669 211 178 111 
-0.180235 -0.178815 2.2581 227 214 161 
-0.23615 -0.565833 2.25186 177 143 115 
-0.467687 0.0941715 2.20742 129 147 149 
0.195469 -0.535448 2.31104 183 189 175 
-0.303952 -0.573575 2.24148 147 130 84 
0.0100369 -0.389252 2.28748 220 212 189 
-0.18199 -0.0717696 2.2499 90 110 117 
0.250329 -0.416863 2.31535 149 144 122 
-0.0256167 -0.523225 2.28305 95 108 116 
-0.163299 -0.209654 2.26154 242 222 153 
0.0260616 0.141796 2.28216 216 211 189 
0.216708 -0.61857 2.31642 155 163 150 
0.158815 -0.0572929 2.30714 200 191 162 
-0.251945 -0.356228 2.24997 157 144 76 
-0.0153355 -0.145448 2.28232 159 158 140 
0.110396 -0.960809 2.29916 195 212 202 
-0.028395 -0.382422 2.28147 217 210 184 
0.257994 -0.498056 2.31969 141 139 124 
0.0467396 -0.634805 2.291 100 123 117 
-0.273111 -0.469589 2.24499 188 164 118 
-0.593728 -0.118552 2.15486 191 175 139 
0.184959 -0.592814 2.31096 214 215 197 
-0.260871 -0.762827 2.24726 160 165 145 
0.0248758 -0.342563 2.28417 130 119 101 
-0.168221 -0.393806 2.26057 100 83 53 
-0.0204743 0.0764492 2.27977 175 177 156 
-0.40523 -0.551133 2.22929 159 146 111 
0.166049 -0.719892 2.30861 169 171 149 
0.210261 -0.645449 2.31309 131 138 120 
-0.206032 -0.5214 2.25452 189 155 107 
0.1475 -0.05809 2.30333 174 156 106 
0.0791323 0.0652457 2.29289 189 181 142 
-0.587983 -0.411424 2.1618 216 202 165 
0.218741 0.0539228 2.31258 153 138 99 
0.239068 0.0578155 2.31344 186 178 157 
0.0717545 -0.670313 2.29512 139 147 132 
0.167564 -0.0999738 2.30811 115 108 89 
-0.107689 -0.848649 2.26891 103 107 93 
-0.0376028 -0.142231 2.27881 140 137 118 
-0.118213 -0.473051 2.27155 180 144 84 
-0.11888 -0.546418 2.26604 100 110 111 
-0.148648 -0.630535 2.26391 126 125 105 
-0.134633 -0.174784 2.2661 206 196 143 
0.0771648 -0.539644 2.2962 106 122 119 
0.234603 -0.31343 2.31875 146 140 116 
0.0301001 -0.59968 2.29241 106 131 128 
-0.453859 -0.540898 2.21946 201 169 118 
0.244557 0.0819527 2.31334 164 157 131 
-0.657343 -0.591709 2.13294 192 174 138 
0.270311 -0.149814 2.3203 128 115 80 
-0.18314 -0.137823 2.2577 175 175 147 
0.126399 -0.740228 2.29909 132 134 113 
-0.608457 0.0635488 2.14815 107 84 34 
-0.595041 -0.479256 2.12642 122 89 48 
-0.525366 0.213833 2.1807 212 202 190 
-0.120928 -0.639101 2.26694 186 186 152 
-0.0173947 -0.0137208 2.27935 119 129 121 
0.0467755 -0.625478 2.29606 104 127 121 
0.0955391 0.129663 2.29224 153 146 117 
-0.361529 0.024343 2.22748 163 178 175 
-0.219491 -0.716031 2.25313 129 124 102 
-0.0889399 -0.951422 2.26863 152 156 131 
0.225146 0.116725 2.30933 132 118 83 
0.250011 -0.115308 2.3168 165 154 124 
-0.162927 -0.646058 2.26341 178 165 121 
0.0134129 -0.0375133 2.28614 141 147 133 
-0.564165 -0.111425 2.01892 136 99 57 
-0.285233 -0.722165 2.24153 117 119 98 
0.16938 -0.175018 2.3106 198 191 163 
-0.699549 -0.162104 2.20382 200 168 129 
-0.632532 -0.684744 2.01112 161 141 104 
-0.0291115 -0.962448 2.27554 108 99 70 
-0.164231 -0.0269604 2.25883 140 130 94 
-0.273885 -0.313916 2.24601 178 158 97 
-0.221346 -0.324868 2.25423 217 192 76 
-0.0142514 -0.376399 2.28424 186 180 166 
-0.212805 -0.616811 2.25466 194 163 98 
0.198112 0.140428 2.30671 126 108 70 
-0.587312 -0.11041 2.16033 226 218 181 
-0.584492 -0.379201 2.17627 121 108 92 
-0.671032 -0.16478 2.19424 195 185 160 
-0.208833 -0.169663 2.25462 179 169 120 
-0.0785206 0.00423841 2.27018 126 134 121 
-0.0785914 -0.556117 2.2741 93 105 105 
-0.518913 -0.609757 2.19715 117 136 132 
0.0537728 -0.0146361 2.2891 174 171 156 
0.238337 -0.414652 2.31608 140 134 108 
-0.323631 -0.33517 2.23681 170 133 88 
-0.61423 -0.363147 2.15543 130 107 55 
0.201393 0.119488 2.30455 201 186 147 
-0.304105 -0.154526 2.23884 135 132 123 
0.202713 -0.099024 2.31263 115 103 79 
0.197104 -0.0822849 2.30891 126 117 84 
0.26274 -0.0263025 2.31788 163 153 126 
-0.636855 -0.702413 2.3374 216 203 168 
-0.245648 -0.658931 2.25234 171 174 153 
-0.22438 -0.124137 2.25297 182 146 94 
0.154542 0.00205147 2.30127 177 168 127 
-0.157546 -0.568174 2.26245 156 150 124 
0.081634 -0.556369 2.29747 143 153 142 
-0.0859524 -0.0134233 2.27215 176 167 126 
0.208478 -0.119256 2.31256 134 117 91 
0.158864 0.142476 2.28757 208 200 177 
-0.612126 -0.64712 2.16116 153 127 78 
-0.525036 -0.635158 2.20635 117 138 131 
0.0569401 -0.461258 2.29446 119 111 109 
0.108184 -0.883793 2.29975 206 219 201 
0.0796621 -0.0566562 2.29339 210 207 174 
-0.589331 -0.301663 2.17271 199 189 154 
0.00387204 -0.477315 2.2893 101 113 113 
-0.177134 -0.649191 2.26132 150 138 98 
-0.167049 -0.840378 2.2597 125 135 124 
-0.627084 -0.255009 2.01999 195 181 152 
0.0360714 -0.205461 2.29203 187 186 168 
-0.656927 -0.25727 2.12467 192 181 149 
0.13841 -0.694002 2.31515 191 191 157 
0.0633311 -0.504111 2.29205 78 96 98 
0.0480249 -0.218208 2.29198 145 147 133 
0.129886 -0.525368 2.3012 101 107 93 
-0.299183 -0.227327 2.24286 235 198 128 
0.131121 -0.479677 2.30244 118 121 110 
0.03907 -0.232343 2.2911 151 149 134 
-0.46784 0.105697 2.20661 165 177 177 
0.0583774 0.11527 2.2861 172 165 123 
0.188263 -0.268255 2.31271 147 149 128 
0.181706 -0.0945634 2.30932 183 180 161 
0.148958 0.161378 2.29134 165 153 131 
0.0806634 0.148951 2.29107 202 197 175 
-0.266326 -0.141288 2.24468 126 131 124 
-0.0879191 0.112759 2.26514 166 177 160 
0.160389 -0.46834 2.3097 166 164 149 
-0.00477678 0.057954 2.2801 155 149 125 
-0.355435 -0.484932 2.23896 180 156 110 
-0.200914 -0.698978 2.25637 119 126 118 
-0.191261 -0.626297 2.25735 193 171 121 
-0.250738 -0.292932 2.24678 185 163 103 
-0.435042 -0.557651 2.22155 139 143 126 
0.0707999 0.151229 2.28753 193 188 166 
-0.585353 -0.641905 2.15807 171 155 129 
0.0070684 0.136985 2.27948 139 134 105 
-0.196973 -0.472873 2.2539 161 146 115 
-0.304081 -0.830024 2.23996 152 164 144 
-0.156336 -0.040598 2.25977 197 198 182 
-0.26284 -0.432899 2.24749 176 154 96 
0.191045 0.0225275 2.31028 127 114 82 
0.175359 -0.517871 2.30911 164 170 156 
0.0657355 -0.161686 2.29457 199 200 182 
-0.0931358 -0.517051 2.27274 110 114 115 
-0.15568 -0.819447 2.2637 120 126 116 
-0.613274 -0.431442 2.26347 205 196 157 
-0.676392 -0.031314 2.17721 89 78 50 
-0.607243 -0.47194 2.16043 191 175 139 
-0.163087 -0.265554 2.2599 206 190 130 
-0.757202 -0.55726 2.41371 14 7 1 
0.14232 0.153756 2.29804 187 181 159 
0.272363 0.118032 2.31646 205 199 167 
-0.387581 -0.628648 2.22707 154 170 159 
-0.136576 -0.162307 2.26601 189 167 107 
0.22307 -0.276589 2.31745 167 159 136 
0.0933586 -0.589972 2.30094 190 198 183 
0.215683 0.0224126 2.31557 124 108 82 
0.0647614 -0.595691 2.29543 153 169 166 
-0.125346 -0.719974 2.26645 155 159 142 
-0.0804279 -0.521946 2.27234 116 121 125 
-0.322555 -0.724167 2.23837 126 134 113 
-0.161718 -0.587714 2.26225 192 176 127 
0.224642 -0.195024 2.31553 130 118 102 
-0.315058 -0.194338 2.23968 185 157 107 
-0.418243 -0.695347 2.22457 162 171 154 
0.182704 0.0517671 2.30699 138 122 88 
-0.205086 -0.608304 2.25634 150 129 84 
-0.361592 -0.497171 2.23261 121 135 135 
0.0636108 0.157803 2.28585 188 183 161 
-0.651677 -0.223038 2.11815 188 178 143 
0.151793 -0.355784 2.30859 142 149 131 
-0.0869889 -0.0228347 2.26885 119 135 132 
-0.642428 -0.622559 2.34065 170 151 111 
0.164316 -0.537755 2.30845 157 148 119 
0.205006 0.0590003 2.30813 161 145 112 
-0.0894292 -0.80242 2.26783 120 126 114 
-0.162291 -0.609668 2.2624 167 144 92 
0.183298 0.0278445 2.30613 139 124 91 
-0.578055 0.17447 2.15127 186 177 146 
0.10554 -0.108746 2.29887 211 214 187 
0.231675 0.0955955 2.31097 187 172 129 
0.0488629 -0.234379 2.29026 171 160 128 
-0.651471 -0.462588 2.43017 201 190 158 
-0.320126 -0.447735 2.23973 127 133 119 
-0.592079 -0.45809 2.15439 116 93 51 
0.135228 -0.380852 2.29889 159 165 153 
-0.32717 -0.490829 2.23857 144 148 133 
-0.335234 -0.681404 2.23683 181 162 120 
0.248971 0.00546471 2.32552 167 161 139 
0.132865 -0.0952057 2.30224 162 154 118 
-0.227845 -0.544652 2.25396 199 167 116 
0.119869 -0.487063 2.30145 140 145 138 
-0.267392 -0.822903 2.24729 119 128 109 
-0.293884 -0.702287 2.2399 193 163 111 
0.189153 0.0769695 2.30584 171 152 112 
-0.0109615 -0.0765102 2.28098 138 125 83 
-0.445133 -0.758732 2.21948 166 177 160 
0.192274 0.0400939 2.30545 144 127 99 
0.21963 -0.532894 2.31512 136 138 116 
-0.187919 -0.389916 2.25903 164 150 103 
-0.664622 -0.658498 2.13268 187 169 131 
-0.0217459 -0.308664 2.27961 164 165 160 
-0.0015236 -0.0121286 2.28073 187 190 179 
0.170071 -0.224889 2.31207 203 199 172 
0.0508941 0.123535 2.29074 203 196 168 
0.204739 -0.580093 2.31223 145 156 140 
0.0258302 -0.619532 2.28913 99 120 115 
0.258979 -0.00774818 2.3173 168 161 143 
0.0324262 -0.0406121 2.27323 182 188 176 
0.101821 -0.533984 2.30103 132 142 131 
0.132719 0.0377438 2.30263 210 203 174 
-0.263038 -0.184933 2.24518 170 154 105 
-0.350704 -0.717237 2.23384 142 145 124 
-0.695882 -0.685502 2.21001 154 135 103 
-0.272908 -0.29353 2.2469 212 183 113 
0.196323 -0.602225 2.31252 188 195 177 
0.0650353 0.00438976 2.29241 182 178 151 
0.101532 -0.622592 2.29915 148 153 133 
0.0711153 -0.294963 2.29836 152 148 139 
0.15792 -0.876332 2.30597 148 155 137 
0.159426 -0.639241 2.30813 164 167 146 
0.144009 -0.161527 2.30309 156 151 113 
-0.452825 -0.365251 2.21955 173 186 179 
-0.140871 -0.213646 2.26661 207 183 111 
-0.0904911 -0.297432 2.27207 212 189 135 
0.0703321 -0.525784 2.29363 105 121 121 
0.00986806 -0.0626716 2.28582 157 163 149 
0.120556 -0.753172 2.29937 158 162 139 
0.187454 -0.341254 2.30574 192 187 167 
0.251643 -0.269088 2.32901 175 166 135 
-0.644936 -0.403892 2.14023 118 82 20 
-0.63636 -0.743979 2.16498 210 192 152 
-0.313144 -0.642553 2.24074 148 161 144 
0.243153 0.00463121 2.32165 172 166 144 
-0.359616 -0.725403 2.23654 174 176 154 
-0.704528 -0.12665 2.20032 202 164 125 
0.175132 -0.686791 2.29471 191 194 173 
-0.175485 -0.535846 2.26093 154 131 99 
0.106862 -0.648868 2.30004 149 155 143 
-0.335784 -0.526176 2.23663 97 116 110 
-0.341936 -0.416013 2.2361 128 142 127 
-0.257714 -0.573309 2.24964 158 150 131 
-0.689883 -0.902723 2.35027 201 180 133 
0.0577375 0.141132 2.2847 188 182 158 
-0.674501 -0.38526 2.12775 18 18 18 
0.0118532 -0.856983 2.28377 157 162 139 
0.0500793 -0.0343722 2.29134 181 182 168 
0.136568 -0.700486 2.30397 206 206 180 
-0.264965 -0.632405 2.2477 133 150 134 
0.0524405 -0.54249 2.28985 123 139 139 
0.0607602 -0.537142 2.29851 100 118 118 
0.247724 -0.509851 2.31789 140 140 116 
-0.232971 -0.817446 2.24982 129 137 124 
-0.333618 -0.507372 2.23708 118 134 131 
0.150173 -0.714198 2.31086 213 213 185 
-0.271287 -0.764334 2.2471 116 120 105 
-0.361276 -0.738252 2.23495 137 142 122 
-0.592343 0.0465833 2.1356 130 101 57 
0.0669975 -0.708662 2.29356 169 176 160 
-0.134301 -0.511549 2.26611 206 183 79 
-0.722039 -0.522401 2.41889 120 87 36 
-0.130291 -0.799214 2.26702 133 131 118 
-0.146161 -0.044379 2.25754 132 146 131 
0.058596 -0.389506 2.29041 206 187 157 
0.120647 -0.619432 2.30353 183 186 155 
0.149692 0.000706193 2.32235 215 206 173 
-0.477622 -0.494529 2.21637 151 167 166 
-0.541154 -0.755863 2.20894 219 203 187 
-0.164825 -0.523533 2.25913 192 179 135 
0.228779 -0.334541 2.31874 144 149 127 
-0.163442 -0.737838 2.26161 151 152 134 
0.203577 -0.213972 2.30592 170 164 142 
0.0626981 -0.00639198 2.2909 162 157 138 
0.036285 -0.629213 2.28847 99 125 116 
0.101261 -0.0767858 2.29677 225 215 166 
-0.644916 -1.04215 2.16354 195 172 128 
-0.696076 -0.653652 2.20196 188 158 120 
-0.605851 -0.193249 2.14666 122 92 40 
0.0589043 0.0755931 2.2891 180 174 142 
-0.706988 -0.650287 2.20227 195 160 120 
-0.656593 -0.813832 2.14269 209 187 148 
0.139727 -0.0548228 2.30322 200 184 125 
-0.287532 -0.524574 2.24525 130 130 104 
-0.1932 -0.78125 2.2585 116 126 118 
0.0528638 -0.164613 2.29072 172 169 150 
-0.11873 -0.281828 2.26981 195 174 107 
0.136685 -0.820449 2.30228 161 166 146 
0.190587 -0.507134 2.3098 138 135 116 
0.0621216 -0.630416 2.29281 136 153 143 
-0.00839039 0.0686042 2.27966 166 161 141 
0.231743 -0.0883287 2.31462 149 137 111 
-0.0522746 -0.439032 2.27756 173 157 131 
0.187659 0.13791 2.30526 179 161 115 
0.0994428 -0.41398 2.29788 102 112 111 
0.0903127 -0.481713 2.29895 111 121 122 
-0.14794 -0.807429 2.26209 120 127 120 
0.13765 -0.739568 2.30112 145 148 121 
0.111267 0.119403 2.29511 185 178 150 
-0.270913 -0.593429 2.24729 166 140 113 
0.130317 0.119208 2.29736 157 148 117 
-0.112722 -0.690505 2.26836 122 119 112 
-0.323491 -0.603385 2.24024 115 131 120 
-0.0274688 -0.136767 2.2803 161 164 137 
0.013138 -0.150605 2.28613 148 150 139 
0.121456 -0.507592 2.30148 149 155 143 
-0.0899186 -0.672815 2.27205 126 132 128 
-0.240026 -0.347439 2.25053 205 188 106 
0.0537953 -0.675145 2.29349 127 137 126 
0.0538968 -0.276893 2.29325 135 132 127 
0.259805 -0.104294 2.31883 134 121 86 
0.050251 -0.578424 2.29276 99 119 118 
0.0911019 -0.264829 2.29766 170 166 157 
-0.224621 -0.171956 2.25191 176 156 105 
-0.647293 -0.187367 2.29803 117 90 35 
-0.139038 -0.785924 2.26952 123 120 103 
-0.276327 -0.0891414 2.24639 127 131 117 
0.0466168 0.150302 2.28554 206 201 181 
0.30167 -0.356129 2.32327 212 209 200 
0.170662 -0.0600692 2.30412 210 197 155 
-0.351846 -0.766917 2.23063 128 136 113 
0.109089 -0.918451 2.29713 183 196 178 
-0.484664 -0.549867 2.21828 123 138 141 
-0.295891 -0.62441 2.2439 129 145 132 
-0.431964 0.0442382 2.21683 125 146 151 
0.212208 -0.034545 2.31177 142 133 102 
-0.0629092 0.0119437 2.27372 121 126 104 
0.226201 -0.396742 2.30541 143 138 109 
-0.570073 -0.07375 2.01208 122 92 40 
0.173959 -0.423422 2.30555 157 151 125 
-0.643307 -0.661237 2.2688 123 92 37 
-0.460384 0.0949286 1.91996 132 152 159 
-0.174278 0.492159 2.06992 92 58 30 
-0.613985 -0.0185271 2.12391 206 197 158 
-0.493597 -0.579439 2.21258 175 188 181 
0.0938508 -0.217229 2.29983 168 169 153 
0.115333 0.0672203 2.29996 146 133 98 
-0.0989609 -0.137326 2.26733 180 163 107 
-0.545753 -0.70662 2.20477 201 187 174 
-0.58761 -0.266579 2.17694 208 195 160 
-0.0367955 0.0878742 2.27448 145 150 128 
0.0407306 0.126846 2.28412 180 174 142 
0.0925495 0.114684 2.29875 179 172 143 
-0.629973 -0.102202 2.21757 144 121 69 
-0.545826 -0.639809 2.23259 206 192 179 
-0.601583 0.122177 2.14675 154 136 90 
0.168207 -0.570069 2.30911 155 153 132 
-0.214045 -0.28139 2.2556 186 177 134 
-0.0838847 -0.238043 2.27872 164 174 165 
0.178212 -0.0137244 2.30651 143 136 108 
0.0663703 -0.650401 2.30215 155 165 154 
0.073818 -0.578522 2.29345 126 143 135 
-0.141124 -0.307554 2.26583 219 185 111 
0.14121 -0.77302 2.30248 165 169 146 
-0.372199 -0.29616 2.231 157 172 167 
0.016301 0.00744641 2.2835 204 201 182 
0.107336 -0.2752 2.29434 203 208 186 
-0.594295 0.0266042 2.14844 148 121 76 
-0.227456 -0.575051 2.25305 203 163 104 
0.0411191 -0.647899 2.29056 139 156 150 
0.119713 -0.459667 2.30341 95 100 93 
-0.320639 0.0642461 2.2325 125 146 151 
-0.0400769 -0.383661 2.28109 206 200 176 
0.143094 0.065583 2.30207 212 199 164 
-0.130549 -0.307948 2.26765 229 192 121 
0.254805 -0.0832379 2.31644 148 137 107 
0.12309 -0.427304 2.30554 107 116 113 
-0.192977 -0.0837077 2.25684 111 125 128 
0.237322 0.12835 2.30285 203 195 172 
0.147043 -0.4362 2.30577 193 199 187 
-0.574735 0.0805415 2.16588 201 204 209 
-0.418273 -0.493336 2.22832 120 137 131 
-0.136009 -0.770447 2.26928 148 144 132 
0.313358 -0.104647 2.33189 213 193 169 
0.219852 -0.147433 2.31528 132 113 96 
-0.615856 -0.586237 2.1636 126 97 41 
0.219525 -0.226278 2.32905 193 186 170 
0.103565 -0.600787 2.29887 177 185 162 
-0.180266 -0.72133 2.25918 148 155 137 
-0.204722 -0.955859 2.2569 121 131 120 
-0.05974 0.13812 2.26843 150 155 132 
0.0972079 -0.767098 2.31322 133 138 115 
-0.0873106 0.143204 2.26489 125 133 110 
0.0182246 -0.023721 2.28524 176 180 165 
-0.54165 -0.781541 2.20383 208 192 177 
-0.292373 -0.027692 2.23853 118 136 146 
0.214094 0.00573887 2.30664 130 116 87 
0.209468 0.141734 2.30922 128 116 92 
-0.498528 0.0918103 2.2016 153 168 171 
0.187896 -0.487357 2.30931 156 159 140 
0.16282 -0.485712 2.30866 148 152 135 
0.295224 -0.582317 2.30634 208 209 201 
0.0957803 -0.0161979 2.29524 203 198 169 
-0.380776 -0.621416 2.23111 129 146 136 
0.108343 -0.752395 2.29942 141 146 123 
-0.328308 -0.434075 2.23894 135 148 131 
0.311176 -0.402217 2.31089 204 210 210 
0.13423 -0.432604 2.30239 154 162 151 
-0.191839 -0.709592 2.25692 137 144 126 
0.160099 -0.267633 2.31819 206 203 172 
-0.0521721 -0.389092 2.27384 160 147 128 
0.00396976 -0.125219 2.28548 173 169 142 
0.0424007 -0.0974486 2.28938 201 203 182 
-0.225802 -0.273571 2.25335 146 132 83 
0.124902 -0.361545 2.29994 166 172 160 
-0.044736 -0.268208 2.27837 123 124 126 
0.213723 0.096986 2.31568 131 116 93 
0.148681 -0.321105 2.3066 167 170 143 
0.0659667 0.0685712 2.29019 182 175 146 
0.150372 -0.627816 2.30587 173 175 151 
-0.172299 0.0600104 2.25434 178 158 107 
0.109815 -0.262484 2.29836 217 216 195 
0.121341 -0.804176 2.29842 146 151 128 
-0.017135 -0.711078 2.28144 154 159 139 
-0.65721 -0.716174 2.11458 180 160 123 
0.0627618 0.126651 2.28618 192 186 154 
0.0728106 -0.422607 2.2967 145 143 131 
-0.0697325 -0.0983732 2.27407 179 155 107 
-0.584814 -0.614021 2.18219 210 211 213 
-0.540456 -0.662521 2.20478 205 191 178 
0.00668505 0.0751723 2.28005 186 181 152 
0.0851874 -0.178501 2.29365 178 169 128 
0.128596 -0.284628 2.30379 204 205 174 
-0.391302 -0.290524 2.2286 186 158 85 
0.157555 -0.144706 2.21678 208 207 186 
0.136545 -0.015692 2.30249 196 186 151 
0.030353 -0.679002 2.28824 106 123 115 
0.0810561 -0.806148 2.29513 179 187 164 
0.0973563 -0.914637 2.29976 180 191 175 
0.0276875 -0.669164 2.28916 96 115 109 
0.0903806 -0.610471 2.2994 159 166 148 
0.0113369 0.125145 2.28114 161 156 127 
-0.600954 -0.754223 2.15444 196 173 129 
0.283129 0.0186524 2.31819 210 187 156 
-0.580475 -0.498511 2.16162 203 203 203 
-0.0320004 0.169656 2.26296 141 144 115 
-0.535667 0.219449 2.17254 178 161 143 
-0.155975 0.0806019 2.25629 124 139 132 
0.273606 -0.367312 2.33105 213 201 185 
-0.0907461 -0.573041 2.27182 92 106 115 
0.0754297 0.087865 2.28892 188 181 152 
0.341615 -0.505395 2.29748 123 100 56 
-0.107066 0.096846 2.26739 147 152 122 
0.215639 0.0662987 2.30845 118 106 80 
-0.210072 0.0566361 2.24898 125 137 125 
0.071466 -0.476084 2.29625 105 113 116 
0.171298 -0.241218 2.30789 173 169 142 
0.112787 -0.609747 2.30151 184 190 156 
0.107506 -0.175084 2.30343 179 181 160 
-0.0141301 0.00254544 2.27826 170 172 167 
0.144711 -0.657617 2.30234 203 204 172 
-0.0451645 -0.656829 2.27327 127 139 129 
-0.269164 0.137701 2.23738 111 134 140 
0.016917 -0.841264 2.29275 136 141 118 
-0.32824 -0.761083 2.2379 125 133 112 
0.047747 -0.20477 2.29099 174 173 155 
0.130826 0.0536115 2.29699 210 203 175 
0.122235 -0.195071 2.30158 169 160 131 
-0.443273 -0.578167 2.22414 122 141 139 
-0.550599 -0.189666 1.98188 196 178 138 
0.084761 -0.855219 2.29569 145 157 135 
0.110229 0.144878 2.29444 144 130 103 
-0.024498 0.140174 2.2782 152 152 124 
0.154042 -0.919503 2.30466 135 147 133 
0.083372 -0.586588 2.29525 153 163 152 
0.167396 -0.269494 2.30423 182 184 162 
-0.111637 -0.863141 2.26418 113 121 106 
-0.0635619 -0.52598 2.27669 126 131 135 
-0.463447 -0.532442 2.21786 172 145 100 
0.240704 -0.530038 2.31705 127 129 108 
0.18777 -0.0120936 2.31282 131 122 89 
0.0395101 -0.89322 2.28808 130 136 108 
-0.290312 0.052443 2.2377 113 136 142 
-0.675094 -0.444195 2.40737 121 90 43 
-0.429825 -0.690844 2.22296 158 169 152 
0.0307499 -0.13653 2.28758 156 157 139 
0.204405 -0.523324 2.31647 137 139 117 
0.0588094 0.0591248 2.28919 204 197 168 
0.155956 0.0292416 2.30679 186 177 144 
-0.659148 -0.44478 2.13049 180 164 128 
-0.594265 -0.00905647 2.2336 163 150 134 
-0.37413 -0.128163 2.22932 145 171 186 
-0.459866 0.0737073 2.21013 136 151 154 
0.0278853 0.0793572 2.28226 210 201 170 
0.160798 0.123742 2.29297 220 217 186 
-0.198225 0.0414227 2.25356 129 148 155 
0.0891628 0.137592 2.29558 190 184 158 
0.0888214 -0.144577 2.29416 185 188 167 
0.0382002 -0.825033 2.28652 131 136 113 
-0.416568 0.105286 2.21973 141 157 157 
0.0946096 -0.786102 2.29762 146 150 125 
0.0458745 0.0335206 2.28747 199 193 169 
-0.52768 0.140903 2.18302 209 205 196 
0.0760167 0.113466 2.29166 176 168 132 
-0.621046 0.095226 2.14053 215 213 172 
0.111573 -0.796028 2.30518 167 171 146 
0.0668775 -0.148544 2.29447 181 182 164 
-0.535784 -0.227735 2.19084 209 192 174 
0.0193616 -0.739967 2.28606 154 158 133 
-0.615488 0.116861 2.14916 153 132 87 
0.0738184 0.128288 2.28851 194 189 160 
0.249114 -0.590332 2.32197 159 170 156 
-0.237204 0.607847 2.56643 81 50 19 
-0.358622 0.0568741 2.22514 136 154 158 
-0.51703 -0.562113 2.21259 129 147 147 
-0.0419949 0.14435 2.27275 130 136 108 
0.247327 -0.14862 2.31872 132 121 89 
0.0534919 -0.497302 2.29036 89 107 109 
-0.263281 -0.524792 2.24691 171 156 117 
0.0801055 0.0756908 2.29126 201 194 166 
-0.0242859 0.09727 2.27526 166 166 140 
0.127804 0.0787199 2.29681 160 149 117 
-0.370052 -0.626864 2.23189 157 171 158 
-0.526887 -0.754225 2.20817 142 152 127 
-0.344505 0.051341 2.2297 126 144 144 
-0.607822 -0.620356 2.17554 129 97 48 
0.18186 -0.000893396 2.30657 160 149 117 
0.162874 -0.526102 2.30652 162 155 129 
0.10235 -0.0309705 2.29701 214 209 177 
-0.0684399 -0.471977 2.27636 158 128 117 
0.239809 -0.0411618 2.30868 131 125 103 
-0.000517704 -0.07084 2.28378 144 151 135 
0.0325846 0.0525169 2.28444 199 194 165 
0.0603134 0.0399992 2.28787 194 188 164 
0.0745969 -0.0670815 2.29469 188 187 159 
0.136132 -0.0302375 2.29977 160 146 107 
-0.221913 -0.290786 2.25376 98 102 79 
-0.158967 -0.835099 2.25998 212 197 140 
-0.0775964 -0.222949 2.27313 103 113 105 
0.0751204 -0.329348 2.29594 227 221 189 
-0.117241 -0.514884 2.26857 141 120 89 
-0.0876993 -0.21258 2.27197 121 137 127 
-0.0981321 -0.359468 2.27112 159 122 78 
-0.229092 -0.648032 2.25167 200 184 150 
-0.185598 -0.907439 2.25534 182 178 143 
-0.0108152 -0.357431 2.28435 221 222 208 
-0.175536 -0.794715 2.25751 112 123 115 
-0.202311 -0.386102 2.25666 161 122 83 
-0.117096 -0.846468 2.26633 188 183 154 
-0.391705 -0.021918 2.22541 185 196 190 
-0.471775 -0.238774 2.21574 190 192 181 
-0.262769 -0.826752 2.24473 166 170 147 
-0.204807 -0.798088 2.25436 117 124 116 
-0.0959256 -0.11526 2.27084 175 169 145 
-0.139039 -0.805071 2.26392 133 123 96 
-0.30357 -0.511083 2.24197 191 168 134 
-0.599372 -1.00931 2.1665 200 187 152 
0.130263 -0.737979 2.29975 210 212 191 
0.181919 -0.633889 2.31158 146 144 119 
-0.132098 -0.828477 2.26564 112 122 114 
0.183933 -0.313414 2.31306 147 147 123 
-0.614549 -0.909698 2.21148 129 103 52 
0.196007 -0.619556 2.31258 146 145 124 
-0.115465 -0.800144 2.26687 124 126 112 
-0.233648 -0.323135 2.2522 208 198 137 
-0.667593 -0.974141 2.17461 216 193 152 
-0.340494 -0.158894 2.23535 157 186 194 
0.16244 -0.918737 2.30567 204 215 207 
0.0804356 -0.380746 2.29425 195 188 160 
-0.0606352 -0.485817 2.27742 131 106 99 
-0.595374 -0.199805 2.16003 217 203 166 
-0.595492 -0.153905 2.16024 185 172 130 
-0.0734985 -0.201708 2.27427 105 115 106 
-0.164537 -0.199301 2.26086 231 215 156 
0.0366498 -0.0586834 2.28862 197 203 191 
-0.0914934 -0.372321 2.27266 201 197 172 
-0.597894 -0.42144 2.16136 176 157 117 
-0.315514 0.00570669 2.23686 188 198 187 
0.247393 0.0657189 2.31561 154 147 119 
0.245935 -0.802789 2.31365 152 154 141 
0.240562 0.126169 2.31479 197 191 167 
-0.342861 -0.675679 2.23673 116 131 112 
-0.668256 -0.272388 2.13136 170 154 120 
-0.24348 -0.810013 2.24807 121 134 117 
-0.106615 -0.855064 2.26658 117 127 116 
0.199571 -0.0340496 2.30847 118 103 72 
-0.620582 -1.0058 2.17111 144 117 70 
-0.533984 -0.304958 2.20729 213 197 181 
-0.217702 -0.221472 2.25252 200 205 173 
-0.608024 -0.717971 2.16781 128 96 45 
-0.361408 -0.16158 2.23067 106 123 131 
-0.577901 -0.1514 2.11916 228 219 178 
-0.31706 -0.502133 2.23992 126 132 120 
-0.193457 -0.792494 2.2558 121 127 115 
0.233848 -0.860925 2.31393 203 213 189 
-0.148397 -0.0671209 2.26195 165 157 146 
-0.399551 -0.519838 2.22841 133 148 141 
0.0748601 -0.905423 2.29296 139 148 131 
-0.104744 -0.478516 2.26832 162 146 121 
-0.0863455 -0.0646432 2.27189 146 161 154 
-0.32241 -0.723813 2.23795 124 129 107 
-0.415787 -0.228615 2.22301 111 111 99 
0.227133 -0.833275 2.31455 197 209 187 
-0.688323 -0.124343 2.20432 207 191 155 
-0.189135 -0.271745 2.2577 220 200 139 
0.227784 -0.173399 2.32145 138 126 110 
-0.27226 -0.617994 2.24546 122 129 113 
-0.122968 -0.809262 2.26549 125 126 110 
0.00241693 -0.232249 2.28488 127 130 121 
0.21782 -0.683246 2.30876 209 208 180 
-0.143691 -0.192989 2.26468 224 203 136 
-0.332683 -0.112508 2.23456 139 162 168 
-0.492117 0.0266286 2.04955 120 140 141 
0.199974 -0.809265 2.30999 144 153 126 
-0.647295 -0.413295 2.12997 197 179 139 
-0.214995 -0.040396 2.25312 164 164 154 
-0.173494 -0.126354 2.25932 134 147 140 
-0.442277 -0.355408 2.22151 101 116 111 
-0.176378 -0.48301 2.26004 216 196 123 
-0.339851 -0.316353 2.23627 150 165 160 
-0.0157047 -0.170022 2.28278 179 180 174 
-0.212583 -0.645801 2.25409 153 149 111 
0.138016 -0.493974 2.30419 143 145 132 
0.152225 -0.886152 2.30212 143 152 133 
-0.239696 -0.076575 2.24783 107 126 133 
-0.237065 -0.28633 2.25157 168 184 157 
-0.446483 -0.490899 2.22138 113 134 139 
0.0780637 -0.523274 2.29644 104 118 118 
0.184929 -0.775224 2.30903 154 159 129 
-0.360572 0.156497 2.23204 178 183 163 
-0.178677 -0.83416 2.25641 114 112 87 
-0.164613 0.034193 2.25923 116 140 144 
0.119451 -0.488096 2.30295 140 145 138 
-0.215469 -0.243461 2.25465 171 161 126 
-0.155187 -0.787752 2.26006 148 147 129 
0.213374 -0.813617 2.30979 186 198 176 
-0.265222 -0.353685 2.24742 209 191 119 
-0.19785 -0.20122 2.25649 223 210 157 
-0.241083 -0.674209 2.24956 168 168 134 
-0.396326 -0.0552669 2.22453 117 137 148 
-0.0847288 -0.192532 2.27062 130 147 137 
-0.422466 -0.275166 2.22318 164 168 153 
0.267624 -0.275221 2.32153 144 133 103 
-0.0388045 -0.00131606 2.27878 140 142 118 
-0.589107 -0.613457 2.16272 212 198 161 
-0.232811 -0.0250444 2.25168 142 150 135 
-0.509213 -0.195202 2.13944 138 150 140 
-0.2299 -0.624875 2.25235 158 130 80 
-0.584425 -0.616967 2.14293 208 192 156 
-0.520888 -0.491848 2.2035 142 158 157 
0.109549 0.0594355 2.29604 147 132 99 
0.26751 -0.120755 2.32161 136 127 96 
-0.653318 -0.26115 2.12106 191 178 146 
0.202491 0.00216566 2.30916 143 129 100 
0.191945 -0.746846 2.31026 209 212 191 
-0.407886 0.17107 2.22051 165 176 168 
-0.22717 -0.822734 2.25017 112 123 109 
-0.103981 -0.589719 2.27208 99 113 122 
-0.119715 -0.820259 2.26292 117 125 114 
-0.338458 -0.741242 2.23511 135 140 120 
-0.227967 -0.848412 2.2516 148 159 145 
0.0870608 -0.807915 2.29327 149 155 129 
-0.415401 -0.289463 2.22499 133 144 130 
-0.399529 -0.564516 2.22763 121 137 126 
0.0466428 -0.117083 2.29052 174 173 155 
-0.307688 -0.138484 2.23931 116 133 140 
-0.2431 -0.791593 2.24774 167 152 113 
-0.302466 -0.687087 2.23912 197 172 118 
-0.563922 -0.195766 2.07066 209 196 161 
-0.374022 -0.141472 2.23148 112 139 158 
-0.488452 -0.610389 2.21585 125 144 142 
0.0196329 -0.287829 2.28856 113 112 108 
-0.13734 -0.791127 2.26259 169 159 124 
-0.215507 -0.789009 2.25373 112 120 109 
-0.450387 -0.385581 2.22005 151 166 159 
0.136969 -0.82098 2.30298 161 166 146 
-0.668322 -0.491017 2.25659 125 84 18 
-0.201858 -0.713848 2.25567 124 127 108 
0.147973 -0.0336024 2.30356 195 189 157 
-0.110361 -0.584457 2.2669 86 100 109 
-0.308637 -0.226067 2.23984 193 148 89 
-0.470329 -0.728725 2.2179 134 147 130 
0.256659 -0.120753 2.3206 132 118 89 
0.230422 -0.812673 2.31297 171 184 166 
0.116764 -0.283112 2.30173 207 210 181 
-0.221708 -0.654832 2.25227 149 151 127 
-0.0944069 -0.673947 2.2721 115 121 119 
-0.0580391 -0.105167 2.27658 113 128 131 
-0.659885 -0.894221 2.25702 220 204 168 
-0.0788637 -0.103428 2.27501 177 143 97 
