ply                 
format ascii 1.0    
element vertex 249
property float x    
property float y    
property float z    
property uchar red  
property uchar green
property uchar blue 
end_header          
-0.365778 -0.152812 0.880735 142 122 134 
-0.373427 -0.223693 0.85616 123 108 75 
-0.365085 -0.146322 0.880137 100 92 90 
-0.365058 -0.146965 0.880009 124 108 85 
-0.376576 -0.226412 0.850437 205 205 193 
-0.366117 -0.151048 0.879788 132 119 113 
-0.364757 -0.15163 0.881654 109 100 101 
-0.349803 -0.253747 0.883362 138 129 88 
-0.356493 -0.247795 0.872827 109 94 65 
-0.357959 -0.246958 0.870674 87 72 51 
-0.360948 -0.243796 0.866029 140 134 120 
-0.355409 -0.179268 0.900686 101 92 87 
-0.363157 -0.156533 0.884562 126 101 97 
-0.366273 -0.234102 0.861318 155 148 119 
-0.364211 -0.241652 0.86239 118 113 109 
-0.36392 -0.241668 0.862815 136 136 138 
-0.389107 -0.168298 0.858532 152 142 141 
-0.348908 -0.176993 0.908183 159 155 156 
-0.37708 -0.157021 0.869339 71 47 45 
-0.360117 -0.160612 0.889391 138 130 128 
-0.369186 -0.224047 0.861772 113 92 45 
-0.371956 -0.158851 0.874993 124 108 111 
-0.372288 -0.159209 0.874694 81 69 73 
-0.377156 -0.158369 0.869494 138 118 119 
-0.372182 -0.159936 0.87498 142 139 148 
-0.386061 -0.166001 0.861307 154 140 140 
-0.355631 -0.241023 0.875266 164 153 121 
-0.356641 -0.163353 0.895106 108 101 91 
-0.372665 -0.16003 0.874514 75 75 83 
-0.381451 -0.16468 0.865676 184 167 173 
-0.356555 -0.165773 0.895468 133 117 118 
-0.38174 -0.162943 0.865359 148 132 135 
-0.354825 -0.168281 0.898398 126 123 130 
-0.352057 -0.25727 0.879074 150 141 112 
-0.355053 -0.165916 0.897818 106 89 82 
-0.373903 -0.161765 0.873688 83 91 102 
-0.358233 -0.165039 0.893014 86 74 78 
-0.352613 -0.171427 0.902056 127 125 128 
-0.382248 -0.16523 0.86488 177 168 171 
-0.350204 -0.255214 0.882431 172 167 163 
-0.349456 -0.173933 0.907112 124 109 104 
-0.365314 -0.144971 0.879542 90 70 61 
-0.364411 -0.146818 0.880707 41 17 7 
-0.378117 -0.157011 0.868003 75 50 43 
-0.375673 -0.157524 0.870805 147 122 117 
-0.35683 -0.175022 0.898257 119 105 94 
-0.3839 -0.169022 0.864051 136 125 123 
-0.364715 -0.196066 0.880779 82 75 67 
-0.37454 -0.156398 0.87194 152 133 135 
-0.379107 -0.171788 0.871031 135 121 121 
-0.378471 -0.171942 0.871032 49 35 35 
-0.372452 -0.156081 0.874027 77 65 67 
-0.353928 -0.252562 0.875445 153 146 118 
-0.367368 -0.156443 0.87952 134 133 138 
-0.363907 -0.240596 0.862823 207 208 192 
-0.367422 -0.155782 0.879006 71 53 49 
-0.34461 -0.180868 0.915013 115 105 96 
-0.36363 -0.153189 0.883519 114 98 99 
-0.353721 -0.25129 0.875501 206 201 179 
-0.356629 -0.245484 0.87267 96 78 54 
-0.364136 -0.155616 0.883651 80 61 55 
-0.363506 -0.155666 0.883662 126 106 99 
-0.357222 -0.166132 0.894737 77 80 89 
-0.352308 -0.179819 0.905219 81 81 79 
-0.362632 -0.240551 0.864127 164 157 138 
-0.363951 -0.150532 0.882542 102 88 87 
-0.370806 -0.237152 0.855092 137 126 108 
-0.366238 -0.149201 0.878871 66 55 53 
-0.364806 -0.149968 0.881124 101 84 77 
-0.383397 -0.162437 0.863437 137 123 120 
-0.352529 -0.181355 0.905154 136 132 120 
-0.353542 -0.177249 0.902663 71 56 49 
-0.36027 -0.236773 0.868296 139 132 103 
-0.354929 -0.173532 0.900092 84 85 87 
-0.364693 -0.159826 0.883847 135 120 115 
-0.350081 -0.25501 0.882309 171 166 162 
-0.353914 -0.252846 0.875221 142 133 102 
-0.349846 -0.253746 0.883362 138 129 88 
-0.360776 -0.246204 0.866172 157 153 116 
-0.357804 -0.247085 0.87057 81 61 34 
-0.368072 -0.242564 0.857475 197 201 186 
-0.360948 -0.243796 0.866029 140 134 120 
-0.363946 -0.240615 0.862817 207 208 192 
-0.370969 -0.237146 0.855086 144 130 101 
-0.362444 -0.238412 0.864562 151 135 101 
-0.370274 -0.231176 0.856299 154 148 116 
-0.362045 -0.233459 0.868485 114 91 49 
-0.376478 -0.226469 0.850389 205 205 193 
-0.369754 -0.22388 0.860524 159 146 102 
-0.369153 -0.223964 0.861789 112 90 41 
-0.35283 -0.184486 0.905781 110 94 68 
-0.348177 -0.180777 0.910166 77 71 57 
-0.344664 -0.180837 0.914865 115 105 96 
-0.348878 -0.179132 0.908977 136 138 133 
-0.347791 -0.17926 0.909852 82 82 80 
-0.381858 -0.170753 0.867161 101 103 115 
-0.348887 -0.177201 0.908097 154 154 156 
-0.356856 -0.175224 0.89817 103 84 70 
-0.347607 -0.176672 0.910267 91 75 76 
-0.348431 -0.175303 0.908501 105 94 88 
-0.38476 -0.167236 0.862419 155 143 147 
-0.384029 -0.164539 0.863378 146 131 126 
-0.340736 -0.173333 0.918594 120 97 81 
-0.381662 -0.162864 0.865379 148 132 135 
-0.365937 -0.165722 0.883727 129 103 80 
-0.381033 -0.162079 0.865829 71 60 68 
-0.362015 -0.165653 0.88874 120 121 125 
-0.359489 -0.164717 0.891553 89 78 76 
-0.358369 -0.164847 0.893098 93 82 86 
-0.36644 -0.163005 0.882975 152 135 127 
-0.373093 -0.161261 0.87408 138 146 157 
-0.377197 -0.159789 0.869554 131 113 109 
-0.356816 -0.163337 0.894979 104 102 90 
-0.360229 -0.16084 0.888996 122 112 111 
-0.375783 -0.157603 0.870788 118 93 88 
-0.37707 -0.157088 0.869329 77 53 51 
-0.35906 -0.160143 0.89122 99 80 82 
-0.359254 -0.157396 0.890235 119 99 98 
-0.365579 -0.15183 0.880635 122 113 116 
-0.364624 -0.151717 0.881721 80 70 69 
-0.364482 -0.146867 0.880651 41 17 7 
-0.350471 -0.253804 0.882304 122 113 72 
-0.349983 -0.254072 0.882733 142 139 106 
-0.360281 -0.249047 0.866909 132 128 129 
-0.369314 -0.244674 0.856418 153 153 127 
-0.357943 -0.247104 0.870363 91 76 47 
-0.353786 -0.248422 0.875879 149 142 116 
-0.357209 -0.246333 0.872035 66 50 25 
-0.360893 -0.243746 0.866164 152 146 132 
-0.363955 -0.240491 0.862517 192 190 175 
-0.363125 -0.240531 0.863738 164 159 130 
-0.355623 -0.241462 0.87516 174 167 138 
-0.37129 -0.235816 0.854582 170 162 151 
-0.362554 -0.238436 0.864927 151 135 101 
-0.366491 -0.234196 0.861271 152 141 113 
-0.364295 -0.232601 0.86498 105 84 37 
-0.365041 -0.231831 0.864505 120 100 49 
-0.369929 -0.229695 0.858109 140 130 81 
-0.369451 -0.226616 0.860546 87 65 26 
-0.369205 -0.223936 0.861791 112 90 41 
-0.377901 -0.18831 0.867166 69 73 85 
-0.352768 -0.181378 0.905149 130 127 112 
-0.34532 -0.182259 0.91392 125 121 118 
-0.351172 -0.17928 0.906372 133 135 132 
-0.35151 -0.170908 0.903395 130 115 108 
-0.373963 -0.165693 0.874911 129 134 138 
-0.382652 -0.163728 0.864383 153 137 138 
-0.352635 -0.169382 0.901853 117 102 95 
-0.355857 -0.167287 0.896697 120 114 118 
-0.353668 -0.167804 0.900012 102 89 81 
-0.358223 -0.164805 0.893107 86 71 74 
-0.365793 -0.162549 0.883245 106 85 82 
-0.355794 -0.164707 0.896616 108 103 99 
-0.356789 -0.163444 0.894702 83 79 68 
-0.374354 -0.159468 0.872588 159 159 157 
-0.360456 -0.160642 0.88929 129 120 121 
-0.3591 -0.159975 0.891052 99 80 82 
-0.360182 -0.15861 0.889447 118 107 101 
-0.367462 -0.155938 0.878975 93 81 81 
-0.359175 -0.157423 0.890336 119 99 98 
-0.36046 -0.155836 0.888471 83 73 64 
-0.365676 -0.15097 0.880344 88 68 70 
-0.360188 -0.249228 0.866995 137 133 132 
-0.367022 -0.244881 0.858821 133 119 84 
-0.360874 -0.243897 0.865895 140 134 120 
-0.350544 -0.24727 0.884399 86 67 25 
-0.369969 -0.239294 0.855908 87 55 6 
-0.370747 -0.237344 0.855057 141 126 97 
-0.371245 -0.235805 0.854436 170 162 151 
-0.362376 -0.238448 0.865142 141 123 85 
-0.366157 -0.234124 0.861181 155 148 119 
-0.37596 -0.227895 0.85064 135 121 76 
-0.362993 -0.232138 0.867462 113 96 53 
-0.376615 -0.226676 0.850543 175 173 152 
-0.367819 -0.223681 0.863552 159 159 157 
-0.357704 -0.213554 0.880063 126 117 78 
-0.368195 -0.190791 0.874517 103 90 81 
-0.38188 -0.170832 0.867041 101 103 115 
-0.34827 -0.178326 0.909432 123 121 124 
-0.380864 -0.170814 0.868324 167 170 177 
-0.350818 -0.172223 0.905158 91 82 73 
-0.365806 -0.165581 0.883557 134 104 78 
-0.356799 -0.163289 0.894732 104 102 90 
-0.357703 -0.161687 0.892834 98 89 84 
-0.360393 -0.160949 0.889213 122 112 111 
-0.360003 -0.158514 0.88936 91 80 74 
-0.349337 -0.259215 0.886407 213 222 217 
-0.354045 -0.252667 0.875208 189 183 159 
-0.354303 -0.251167 0.874649 213 212 194 
-0.366875 -0.244958 0.858813 132 118 83 
-0.371147 -0.23701 0.854983 159 145 119 
-0.362607 -0.238278 0.864951 153 138 109 
-0.348979 -0.244365 0.88907 73 46 16 
-0.359484 -0.237673 0.869062 199 195 166 
-0.366196 -0.234298 0.861288 162 153 122 
-0.36843 -0.232662 0.858854 176 170 144 
-0.364952 -0.232019 0.864385 97 74 24 
-0.363105 -0.226677 0.87003 162 156 122 
-0.36929 -0.223866 0.862004 112 90 41 
-0.356969 -0.227946 0.878889 113 106 80 
-0.363242 -0.195989 0.882163 80 85 91 
-0.355745 -0.179312 0.900309 72 67 63 
-0.349459 -0.177359 0.908737 120 118 119 
-0.372969 -0.159262 0.873945 81 67 67 
-0.360752 -0.160682 0.888965 114 106 104 
-0.349647 -0.253422 0.883974 70 52 14 
-0.360654 -0.24419 0.865989 149 147 135 
-0.353986 -0.24735 0.877087 191 192 176 
-0.368645 -0.239257 0.856743 205 202 185 
-0.357439 -0.243007 0.871064 129 110 67 
-0.371117 -0.237217 0.854871 159 146 114 
-0.368592 -0.232427 0.85853 179 175 148 
-0.369981 -0.229609 0.85816 128 115 71 
-0.376284 -0.226219 0.85071 199 200 182 
-0.356987 -0.228434 0.879221 119 109 84 
-0.35691 -0.21166 0.881604 207 208 192 
-0.366514 -0.161654 0.882386 155 156 161 
-0.366518 -0.245213 0.858928 133 115 75 
-0.357996 -0.245168 0.869989 182 172 145 
-0.371265 -0.236639 0.854719 169 158 138 
-0.359441 -0.238384 0.868835 211 209 184 
-0.366148 -0.232281 0.862348 215 215 203 
-0.362697 -0.226904 0.869793 155 145 109 
-0.367162 -0.224884 0.863992 166 166 158 
-0.369037 -0.224032 0.861994 103 79 31 
-0.363562 -0.202475 0.878039 146 138 102 
-0.358928 -0.195803 0.888528 198 193 197 
-0.371151 -0.159231 0.875855 157 161 173 
-0.35821 -0.245341 0.869454 185 179 165 
-0.364849 -0.241919 0.86172 112 96 71 
-0.368158 -0.237041 0.858206 150 142 129 
-0.362209 -0.238383 0.865509 134 120 94 
-0.354473 -0.181533 0.902229 33 24 19 
-0.365384 -0.166096 0.884479 31 12 5 
-0.405624 -0.215608 0.883966 130 121 80 
-0.399484 -0.196741 0.896827 97 92 96 
-0.40073 -0.184665 0.903896 77 60 50 
-0.404584 -0.175482 0.916175 61 60 56 
-0.394287 -0.170174 0.894973 84 76 73 
-0.400181 -0.168478 0.913807 133 136 141 
-0.389479 -0.161853 0.892614 133 133 131 
-0.392877 -0.160496 0.902935 106 85 80 
-0.405633 -0.200181 0.908727 94 95 90 
-0.404933 -0.168618 0.925403 99 88 84 
-0.386339 -0.165333 0.878943 95 84 78 
-0.393007 -0.160203 0.89757 63 44 46 
-0.378501 -0.151265 0.875099 63 54 47 
-0.40984 -0.241783 0.909765 199 191 155 
-0.399031 -0.198406 0.890722 53 50 43 
