# .PCD v0.7 - Point Cloud Data file format
VERSION 0.7
FIELDS x y z rgb
SIZE 4 4 4 4
TYPE F F F U
COUNT 1 1 1 1
WIDTH 1268
HEIGHT 1
VIEWPOINT 0 0 0 1 0 0 0
POINTS 1268
DATA ascii
-0.97207397 0.15433 4.9872499 4009009
-0.94585103 0.15173399 5.0081601 6507864
-0.94344902 0.152403 5.04702 7099744
-0.93760598 0.15236001 5.0515599 7100001
-0.93211502 0.156481 5.1105399 6573656
-0.91940498 0.158401 5.1177502 6705499
-0.94457603 0.17763101 5.7945299 7702193
-0.94401503 0.177733 5.7927198 7702193
-0.93058097 0.17334899 5.8116398 7768242
-0.92565697 0.177109 5.8194098 7636141
-0.912458 0.18178099 5.8235602 6122385
-0.897138 0.180549 5.83075 6977180
-0.89864302 0.176762 5.8513098 6911900
-0.88017702 0.182659 5.8738198 6911643
-0.872051 0.180122 5.882 6911643
-0.867553 0.17568401 5.88974 6977181
-0.85597098 0.177084 5.8985 7175332
-0.53302598 0.19408999 6.28792 6911900
-0.52566397 0.189779 6.3074298 6385296
-0.49223101 0.192682 6.3249102 6122640
-0.47805101 0.1946 6.3611102 5463425
-2.3016701 0.13180301 4.19696 4015207
-2.2944801 0.135489 4.2007298 3950698
-2.2483001 0.134948 4.2289701 5067895
-2.24492 0.13500801 4.2387199 5397118
-2.2318101 0.135803 4.25599 5726854
-2.2323301 0.13836101 4.2727299 5463168
-2.2041099 0.136483 4.3104601 6780315
-2.2084999 0.13886 4.3354602 6912158
-2.1930301 0.14026301 4.33112 6912157
-2.1870699 0.141045 4.3368301 6912157
-2.16869 0.14038999 4.3552699 6385559
-2.1663599 0.141902 4.3692398 6516888
-2.1524401 0.141261 4.3871398 6845855
-2.1159301 0.141399 4.3954101 7504555
-2.11883 0.142231 4.4126501 7439019
-2.1078401 0.14039101 4.4281402 7175079
-2.1068599 0.14203499 4.4176798 7306920
-2.10305 0.141491 4.4458899 7175849
-2.08654 0.139672 4.45257 6846111
-2.0757999 0.144638 4.4598699 6846626
-2.0627401 0.13968 4.4702001 6977955
-2.0612299 0.14453299 4.4772902 7043749
-2.0569899 0.144797 4.4811602 7504299
-2.04562 0.145969 4.4962401 6780317
-2.04846 0.14075699 4.4896798 6781345
-2.0379601 0.142351 4.49928 6648727
-2.03969 0.141054 4.5012298 6648727
-1.9992599 0.143564 4.5325398 7175330
-1.99747 0.14345799 4.5394802 6977951
-1.98917 0.145694 4.5460401 7240610
-1.97892 0.144453 4.5714102 6582681
-1.90773 0.147148 4.6512699 5135233
-1.8996 0.147064 4.6525602 5003647
-1.32034 0.149463 4.58289 4207156
-1.16414 0.14369801 4.4929199 3088416
-1.14746 0.145962 4.4937601 3153953
-1.0652601 0.149377 4.697 6638677
-1.0577101 0.154652 4.7121 6769748
-1.04598 0.152472 4.7807202 5717833
-1.03996 0.157251 4.8067698 6244433
-1.0107 0.153153 4.8463602 5718087
-0.96422499 0.16046201 4.9568801 4402997
-0.96270901 0.16041701 4.9540701 4402741
-0.95048898 0.162521 4.9931402 4139312
-0.94178897 0.15879001 5.0297399 4929085
-0.93985999 0.159132 5.0478702 5126465
-0.93475801 0.162412 5.1038799 4732476
-0.92494899 0.163404 5.1113601 4863805
-0.924564 0.161807 5.1185999 5456200
-0.92032999 0.163717 5.1105499 4864063
-0.91998798 0.16690101 5.1217699 4271669
-0.91261202 0.16513801 5.13484 4864062
-0.90892398 0.16873901 5.14224 4271668
-0.887178 0.164746 5.1430998 5983321
-0.95879602 0.18496899 5.7641001 6648989
-0.95398301 0.186306 5.7836499 7439021
-0.95625299 0.180755 5.7746401 6056853
-0.94795799 0.183036 5.78863 7767730
-0.94210398 0.186766 5.7934999 6451868
-0.89280498 0.190694 5.8491101 7175074
-0.89836699 0.18398701 5.8461199 7043230
-0.888515 0.186161 5.8635998 7109023
-0.87492001 0.18650199 5.87712 6977436
-0.86905098 0.18888199 5.8846698 7109280
-0.85256499 0.18723699 5.9011502 6977953
-0.83530802 0.18783399 5.9233999 4147820
-0.55069703 0.202338 6.23382 7174819
-0.54708999 0.20174301 6.2593498 7306402
-0.499998 0.202629 6.3131599 6846110
-0.49640101 0.201399 6.3186102 6780317
-0.48236701 0.198493 6.3411102 5530249
-0.48050499 0.20497499 6.3614101 5991055
-0.47977501 0.198355 6.3366699 5464456
-0.44205001 0.205182 6.3921399 6319762
-0.447579 0.204243 6.3856902 6385555
-0.305282 0.208046 6.5812702 6253459
-0.30258301 0.213439 6.6019702 5726600
-0.040238298 0.22403 6.8610001 5656945
-2.3045299 0.14115401 4.1918998 5596039
-2.3024499 0.14189599 4.1994901 5596295
-2.2804101 0.137678 4.2158899 3884393
-2.28511 0.14272299 4.2264099 5201538
-2.2750199 0.137734 4.2274799 3949414
-2.2716601 0.140876 4.2344899 4016234
-2.2530799 0.1416 4.2369199 3884391
-2.2464001 0.14480799 4.2662101 4147564
-2.2358401 0.14034601 4.25034 4212330
-2.2307301 0.14550699 4.2783399 4081257
-2.2211201 0.145991 4.2886901 4081000
-2.2155001 0.14015301 4.2923598 5923974
-2.19841 0.146625 4.3316102 5529217
-2.1781499 0.14272501 4.34694 6912157
-2.1732399 0.14602 4.3512902 6517141
-2.16518 0.146749 4.3585701 6516884
-2.14658 0.148487 4.37502 6648984
-2.13151 0.14895099 4.3758602 6648729
-2.1264901 0.14577 4.3815899 6582682
-2.1148601 0.145924 4.3856301 6780061
-2.11848 0.146043 4.4054599 6911903
-2.11079 0.147946 4.4275899 6911904
-2.10271 0.14643 4.4375901 7635628
-2.10063 0.150939 4.4460802 6714269
-2.0928099 0.148451 4.4567399 7372712
-2.06407 0.150584 4.4590802 7306919
-2.0636301 0.14796799 4.46944 7044262
-2.05004 0.148765 4.4903402 6912420
-2.0409601 0.15109301 4.5005898 6846111
-2.0397799 0.150305 4.5002398 6845854
-2.0338399 0.15101101 4.5051198 6714524
-1.9895101 0.14989001 4.5377402 6582681
-1.9852099 0.153541 4.55794 6253459
-1.9720401 0.155269 4.5663099 6385302
-1.9697599 0.152677 4.5725098 6977696
-1.81512 0.159734 4.7560501 5661059
-1.33439 0.15332399 4.57587 5787205
-1.33183 0.151557 4.5858698 5194817
-1.3213 0.154668 4.5918698 5787719
-1.14019 0.151364 4.4759798 3351333
-1.12966 0.15252601 4.4762802 3351589
-1.11652 0.14924601 4.5212898 3153697
-1.11552 0.151821 4.5391998 3153953
-1.09297 0.155875 4.6701298 3810345
-1.08722 0.160208 4.6831899 3285027
-1.05659 0.15597899 4.7272301 6638675
-1.0576 0.161999 4.7558999 4862519
-1.04466 0.158415 4.7946501 6770263
-1.03493 0.15825801 4.8153901 6244177
-1.03118 0.164776 4.8163199 6704211
-0.94742203 0.165654 4.96909 4994364
-0.94251502 0.16511901 5.0251698 4139311
-0.94134802 0.16625699 5.0433002 4139310
-0.93766397 0.167918 4.9938302 4928828
-0.93922299 0.16869199 5.1022501 4007981
-0.924582 0.16980501 5.1017499 3942446
-0.92074102 0.169085 5.1027699 3942445
-0.92257398 0.17038199 5.1166401 3942446
-0.91468298 0.17514899 5.12146 4534326
-0.91408998 0.170131 5.1276798 3942445
-0.89262903 0.17315 5.1265802 4007983
-0.88037097 0.173002 5.1230602 3877168
-0.87760299 0.169359 5.1399999 4995653
-0.95558798 0.194435 5.7825499 7834036
-0.94320703 0.19509 5.7930102 6122644
-0.91805202 0.190963 5.8288798 6517399
-0.90686101 0.19092099 5.8256402 6911900
-0.89149702 0.199771 5.8425202 7175074
-0.88876498 0.195614 5.85852 7175074
-0.87914598 0.19765601 5.8657699 7109280
-0.87116498 0.19502001 5.8773398 7174817
-0.85874301 0.20012601 5.8947101 7175589
-0.73474503 0.199728 6.03439 5263729
-0.484772 0.208831 6.3414102 6122642
-0.47430301 0.214827 6.36304 6648729
-0.45759001 0.215303 6.3682299 6516888
-0.43698299 0.209962 6.38974 6582934
-0.42442799 0.21261699 6.4113002 6385555
-0.30625299 0.219301 6.59273 5858700
-0.064436696 0.23216701 6.8589401 5658230
-0.044736601 0.234688 6.86096 5723252
-2.2881999 0.14576501 4.1954298 5201279
-2.2879 0.146734 4.2322898 5530246
-2.27301 0.148802 4.2342 5267073
-2.2580299 0.149176 4.2376099 5266817
-2.2531199 0.149271 4.2622299 5530245
-2.2375801 0.14553 4.27316 4081515
-2.2255199 0.150107 4.2831998 4411251
-2.2161901 0.147735 4.2960901 4080999
-2.20877 0.14952999 4.3018198 4015463
-2.20433 0.149351 4.3171501 4278121
-2.18787 0.14953201 4.3145499 4541550
-2.18629 0.148377 4.33957 5528703
-2.16623 0.150876 4.3424501 5265787
-2.1635699 0.153036 4.3573198 4871029
-2.14363 0.154934 4.3770099 5397374
-2.11853 0.153394 4.3835702 6253969
-2.1019399 0.156949 4.4210701 6582934
-2.0978601 0.15722699 4.4321198 6648472
-2.0989499 0.155193 4.4547601 6320023
-2.0908899 0.155553 4.4588099 6253717
-2.0740099 0.15737601 4.4608698 6122131
-2.0687201 0.15505201 4.4677501 6714268
-2.0522299 0.154036 4.48104 7570091
-2.04702 0.153855 4.4959002 7372711
-2.02862 0.154425 4.51052 6911902
-1.32961 0.16362099 4.5808401 3879465
-1.32032 0.16280399 4.5895 4536881
-1.32444 0.162949 4.6154799 4997430
-1.3002501 0.162806 4.6869998 3942698
-1.0526299 0.16677199 4.71451 3153954
-1.03338 0.17132799 4.8128901 3744809
-1.00949 0.169614 4.8385901 6506575
-0.99539 0.168412 4.8861399 6441556
-0.90802699 0.17885301 5.10431 5323586
-0.90807402 0.18160699 5.0840402 5389123
-0.95533001 0.20276199 5.7848101 6846626
-0.93742198 0.19905099 5.7982998 6912157
-0.93009901 0.20283 5.8011298 6977951
-0.91081101 0.200352 5.8319302 6911900
-0.896357 0.204804 5.8431501 7109280
-0.88434303 0.20117199 5.8579702 7175074
-0.87374699 0.201204 5.8715801 7174818
-0.86949599 0.20497701 5.88801 7306661
-0.86158699 0.207671 5.8898902 7503523
-0.74120599 0.211096 6.0246801 5857669
-0.57111198 0.215406 6.2433701 6911904
-0.56566101 0.219643 6.2435098 6977440
-0.47080699 0.22093099 6.3582902 6714778
-0.43499601 0.220698 6.37954 6714265
-0.403005 0.221985 6.42237 6846110
-0.070438199 0.241405 6.8522401 5790333
-0.051667701 0.238034 6.8519502 5724023
-2.3044801 0.150534 4.1918998 3883616
-2.2883601 0.153721 4.1953802 3620444
-2.28039 0.149864 4.19733 4739185
-2.28826 0.151591 4.2246499 4936564
-2.2666199 0.151517 4.2341499 5134973
-2.2356501 0.15406901 4.2688098 5530245
-2.23756 0.15645701 4.2860298 5398402
-2.2263501 0.154946 4.2959299 5530502
-2.2147 0.156598 4.3017802 5464709
-2.2061801 0.156624 4.3049798 5333124
-2.1976399 0.156648 4.3081498 5069952
-2.1807401 0.15453801 4.3225999 4147308
-2.17628 0.156115 4.3357801 4278636
-2.1654899 0.158428 4.3450499 4147564
-2.1542699 0.15545601 4.3699002 4804979
-2.1206901 0.158916 4.39293 5199738
-2.11604 0.161879 4.4102302 4804979
-2.1119599 0.162779 4.4291301 5134201
-2.09377 0.163139 4.4542198 5990283
-2.0872099 0.16274799 4.4603601 6188175
-2.07266 0.16311599 4.46773 6385555
-2.06622 0.16309901 4.4723701 6517398
-2.0612299 0.16323601 4.4788299 6517655
-2.0489299 0.16332699 4.4800701 6583192
-2.0403099 0.16342101 4.4911299 6451607
-2.0417299 0.164322 4.5069499 6385557
-2.0344701 0.164323 4.51086 6187923
-2.0222499 0.164279 4.5164199 5727885
-2.0081501 0.163113 4.5299902 4607858
-1.96321 0.16376001 4.5197401 5265274
-1.9709001 0.162645 4.54071 5923462
-1.9725 0.163406 4.5615201 6056075
-1.9672199 0.167152 4.5713301 5265532
-1.76553 0.170338 4.7763 3751248
-1.3238699 0.16644099 4.5840402 3682087
-1.3189 0.166776 4.5974102 3747880
-1.33189 0.16843399 4.66851 3616809
-1.33064 0.172867 4.6774201 2367518
-1.12394 0.165025 4.5493999 4205615
-1.10724 0.17275 4.6929898 4008493
-1.0887901 0.172066 4.7262502 3548198
-1.06215 0.169632 4.7114 3285283
-1.06487 0.170586 4.7551198 3153954
-1.0627199 0.170632 4.73102 3219490
-1.06104 0.17511199 4.7596998 3351333
-1.04076 0.177949 4.8054299 3154211
-1.02584 0.174473 4.8155098 3285283
-1.01372 0.17621601 4.8241501 3350820
-0.99058002 0.180014 4.8975902 4533810
-0.92595798 0.17766 4.9555702 5389125
-0.92004198 0.18053199 4.9647799 5783882
-0.89675301 0.184798 5.0950198 5257537
-0.93416202 0.208832 5.79846 7043487
-0.90467697 0.209527 5.8358798 6911388
-0.87312001 0.210255 5.8757601 7240867
-0.86454099 0.213438 5.8833599 7569055
-0.85863602 0.216196 5.8896198 7501192
-0.67686999 0.226105 6.1029801 5463172
-0.56977999 0.22485299 6.2371898 6977695
-0.297923 0.23608001 6.5791998 5595527
-0.065906502 0.246914 6.8399601 5922433
-0.049150299 0.244882 6.8474002 5790332
0.121287 0.265019 7.1382799 7172498
-2.3045101 0.15866099 4.1917601 3686492
-2.2976501 0.15929399 4.1961398 3620700
-2.2945299 0.161458 4.2041202 3686751
-2.28459 0.159795 4.21033 3554906
-2.27951 0.16116101 4.2210102 3620700
-2.27391 0.15675101 4.23352 4146533
-2.2552199 0.158042 4.2442698 4278118
-2.25441 0.159173 4.26162 4541291
-2.2505701 0.16189399 4.2703099 4014946
-2.2355199 0.16245 4.2683902 4278117
-2.23525 0.164114 4.28723 4212326
-2.22961 0.16254 4.2946401 5002614
-2.2200699 0.16093899 4.29743 5463680
-2.2144499 0.164526 4.3020401 5397115
-2.1918299 0.16393 4.30024 5595524
-2.1935899 0.160335 4.3089299 5793674
-2.1848099 0.160041 4.3182101 5530759
-2.17803 0.16229901 4.3224101 5596038
-2.17803 0.166017 4.3519602 5398915
-2.16572 0.162141 4.3587499 4543350
-2.15435 0.163304 4.35923 4477813
-2.14816 0.16325501 4.3635502 4410994
-2.1365399 0.16461299 4.3712902 4411250
-2.1274199 0.16550399 4.3786502 4148078
-2.1189499 0.16711099 4.3860202 4279150
-2.12043 0.164481 4.4005799 4146792
-2.09905 0.16799 4.4273601 4212585
-2.09378 0.169653 4.4365902 4212585
-2.08763 0.16985001 4.4542799 4344171
-2.0808301 0.17045601 4.4384699 4212585
-2.07673 0.169531 4.4572701 4541806
-2.0520501 0.170357 4.4656801 5265531
-2.0513999 0.17036401 4.4651599 5265531
-2.0478599 0.170981 4.4737 5397374
-2.03655 0.17150301 4.4740701 5528960
-2.0357001 0.17202 4.5001898 5924231
-2.03353 0.17245799 4.5107198 5990538
-2.0263 0.17245901 4.5149899 5859466
-1.9579901 0.174224 4.58149 4738419
-1.82129 0.177513 4.74402 5990283
-1.8096499 0.179814 4.7540998 5529473
-1.8041 0.179888 4.7602601 5332094
-1.14667 0.17471901 4.5757198 2562845
-1.12279 0.177792 4.7049398 4140077
-1.11068 0.17984401 4.7270298 4140077
-1.0904599 0.17944799 4.7262702 4205614
-1.0719301 0.179418 4.7483001 3877164
-1.06634 0.17797101 4.7552099 3614249
-1.06315 0.17894299 4.7957001 3482662
-1.01582 0.18020301 4.8151498 3219746
-0.99311298 0.18371999 4.85677 3088418
-0.98696703 0.185074 4.8796401 3153698
-0.98779398 0.18630999 4.9003601 3153954
-0.98819202 0.18754099 4.9198699 3219234
-0.91885298 0.18522701 4.9467902 6770261
-0.92512202 0.19764499 5.1323099 6375247
-0.92088699 0.19431999 5.13835 6639190
-0.865053 0.222986 5.8808999 7041424
-0.792391 0.224783 5.95574 7169381
-0.68948197 0.231563 6.08495 6319248
-0.68075299 0.231121 6.0957098 6121870
-0.67253202 0.230829 6.1087599 4937341
-0.56844997 0.234556 6.2377 6714523
-0.29649201 0.246517 6.58391 5463685
-0.052654602 0.25571001 6.8467798 5988226
0.115957 0.267333 7.11167 6446968
0.15533 0.272681 7.1524601 6842244
-2.3074801 0.165567 4.18718 4609140
-2.2980101 0.167079 4.1947899 4608882
-2.2862301 0.167281 4.2104502 4147816
-2.2489901 0.164415 4.2262998 3620956
-2.24473 0.16761699 4.2418699 3752798
-2.2399399 0.167365 4.2518902 3555421
-2.2312701 0.169679 4.2610402 3687007
-2.2086 0.16764399 4.2963099 4475241
-2.18415 0.168863 4.3013201 4673134
-2.1819999 0.167833 4.3179698 5529214
-2.1773701 0.17098001 4.3295498 4738927
-2.1684799 0.167813 4.3557701 5529989
-2.1653199 0.170775 4.3645301 5464194
-2.1536601 0.170839 4.3652401 5529988
-2.13884 0.171644 4.3768201 5398403
-2.1242299 0.173627 4.3828602 5332865
-2.1157501 0.17443299 4.4219198 5267329
-2.10466 0.17097101 4.4228702 4213614
-2.10148 0.176015 4.4280701 5333122
-2.10232 0.176497 4.4363198 5267329
-2.07528 0.176594 4.4499602 4345457
-2.06774 0.17736299 4.4580202 4082029
-2.05353 0.176897 4.45997 3884134
-2.0471699 0.17750201 4.4656701 4015463
-2.04072 0.17809001 4.47123 4015463
-2.0310099 0.17299099 4.4843202 5331580
-2.02349 0.179548 4.5170102 4212839
-2.01302 0.174454 4.5239801 3819111
-1.98084 0.17576499 4.5538602 4213870
-1.96464 0.176284 4.55896 4081771
-1.79041 0.18638 4.7595301 4673907
-1.1554101 0.184009 4.5831699 1447193
-1.14299 0.181059 4.57655 1709593
-1.12692 0.18733899 4.7815299 3088417
-1.09392 0.19087 4.7645102 2825503
-1.0707901 0.186592 4.8038502 4205615
-0.99861401 0.188991 4.8504901 3416870
-0.98792201 0.191503 4.8607202 3482405
-0.98646498 0.19244599 4.8923502 3351075
-0.91995698 0.193207 4.9344101 3613478
-0.91046298 0.19341999 4.9520102 4270638
-0.91372597 0.193461 4.9447498 4007465
-0.911641 0.19273999 4.9373202 4138795
-0.93660098 0.200498 5.1371799 4927800
-0.68502599 0.23614199 6.0910501 6647695
-0.67219102 0.240439 6.1075501 5726594
-0.63215601 0.238445 6.1618099 6911901
-0.29454401 0.25665501 6.5802202 5462911
-0.0770505 0.26619801 6.8231001 5856896
0.166917 0.279273 7.1915002 6051952
0.95841801 0.288755 7.4005399 4476011
-2.3102701 0.17050201 4.1809902 6057362
-2.29196 0.169075 4.2044902 4740468
-2.2716601 0.168982 4.2242098 4082280
-2.2535701 0.17225599 4.22612 4608369
-2.2495501 0.1725 4.2344999 4542575
-2.2373199 0.174724 4.2348399 4937848
-2.23085 0.171832 4.2870402 3687007
-2.2070799 0.17533299 4.2891202 4080736
-2.1979001 0.177146 4.3045402 4015201
-2.1831701 0.173346 4.3055701 3686237
-2.18028 0.17793 4.3148098 3686749
-2.18309 0.17523301 4.3420601 3620188
-2.1721799 0.17830899 4.355 3620187
-2.16588 0.176466 4.3600101 4212324
-2.15868 0.17794999 4.3635998 3949153
-2.13921 0.17812 4.35887 4146533
-2.13673 0.177385 4.3625798 4541806
-2.1343901 0.179077 4.37711 4344426
-2.1212499 0.176 4.4050498 5201022
-2.11622 0.17624199 4.4126 5398402
-2.11221 0.178904 4.42767 5398145
-2.1026199 0.183245 4.4295802 5134715
-2.10098 0.18340001 4.4401798 5266558
-2.0516601 0.184002 4.4519 5398914
-2.04549 0.184605 4.4680099 5332866
-2.0324399 0.182422 4.5050402 3883877
-2.0236599 0.18215799 4.4785399 4081771
-1.96152 0.187227 4.5759101 5332869
-1.15302 0.188545 4.5883002 1447192
-1.13261 0.19474 4.7965398 2103579
-1.12686 0.19667301 4.8071198 1972251
-0.99897099 0.197494 4.881 4008492
-0.99897099 0.197494 4.881 4008492
-0.920111 0.199642 4.9264202 3219746
-0.916861 0.19976 4.9368601 3153953
-0.85775602 0.23648401 5.8854198 7106433
-0.85300797 0.240897 5.8903599 7829115
-0.67621702 0.245289 6.0998702 7501447
-0.29191101 0.26640299 6.5647702 5528190
-0.119069 0.27522099 6.7487502 6188432
-2.3053801 0.17419 4.1876402 5793418
-2.29825 0.174768 4.1921501 5595780
-2.2969301 0.174676 4.2005301 5529986
-2.2862 0.17453 4.2074699 5595522
-2.28212 0.174474 4.21451 5530242
-2.27404 0.180075 4.2295599 5595780
-2.2718301 0.17561901 4.2199602 5529986
-2.2316599 0.177747 4.2395601 5529986
-2.22595 0.17721701 4.2547598 5069435
-2.2228799 0.17995 4.2623801 5925259
-2.22453 0.182419 4.2764802 5005700
-2.20748 0.18100999 4.28508 4278890
-2.1940401 0.184319 4.3058801 4608626
-2.18414 0.18123101 4.3069301 4015459
-2.1821799 0.183018 4.3238001 4015716
-2.18297 0.18366 4.3414302 3949666
-2.17869 0.182367 4.3552799 3686236
-2.1622701 0.185093 4.3610802 3818078
-2.15447 0.18508901 4.3643899 3752030
-2.1382201 0.18519799 4.3618398 3817566
-2.1322501 0.18274 4.3670201 3619931
-2.1333799 0.183375 4.3854899 3554652
-2.12236 0.18347099 4.3906202 3751516
-2.12606 0.182117 4.39569 4146275
-2.12216 0.18349899 4.3975601 3883103
-2.1215 0.183658 4.3993502 3883359
-2.1217899 0.18737 4.4092798 3488857
-2.10267 0.18964 4.4292202 3817823
-2.0905099 0.185212 4.4440699 5397630
-2.08868 0.184669 4.4404202 5463679
-2.0847099 0.186891 4.4499698 5134201
-2.0518899 0.190917 4.4620399 4673647
-2.03422 0.191247 4.4699001 5002871
-2.0354199 0.186534 4.4788599 5267327
-2.03142 0.19045 4.4850302 5135228
-2.0318601 0.190286 4.5063901 5003643
-1.95348 0.19531099 4.5680699 6122126
-1.1329 0.20045801 4.7932401 1447449
-1.12809 0.204308 4.81252 1381656
-1.09618 0.200976 4.8086901 1840922
-1.09521 0.208454 4.8436298 1381399
-0.96248603 0.21979 5.1034598 4404533
-0.95524102 0.21547499 5.1112099 3548457
-0.944103 0.21459 5.0550098 3745579
-0.75650102 0.25364301 5.9808002 7828335
-0.67584801 0.254787 6.0984998 6445148
-0.60904598 0.26382199 6.1795502 7109024
-0.11965 0.284661 6.7494202 6188433
0.207063 0.30719599 7.1658902 4868709
-2.2999599 0.18134201 4.18572 5727881
-2.2898099 0.181611 4.2164898 5727108
-2.2874801 0.18167201 4.20191 5661058
-2.2634799 0.185444 4.2381101 5595523
-2.2467699 0.185049 4.2288299 5529987
-2.2444301 0.182686 4.2431998 5595522
-2.2292399 0.18228 4.2491798 5727365
-2.21627 0.187108 4.2929602 5595007
-2.1979599 0.184365 4.2901602 5069435
-2.1973 0.18425199 4.2981801 4806262
-2.1872201 0.189215 4.3111 5595778
-2.17959 0.187722 4.3303399 4674420
-2.17909 0.18818399 4.34727 4213868
-2.1680801 0.190947 4.3534598 4608883
-2.1572599 0.19243599 4.3610902 4477041
-2.13604 0.190524 4.3678899 3949411
-2.13235 0.19156601 4.3828301 3884130
-2.1311901 0.188409 4.3888001 3620957
-2.12585 0.192008 4.3969498 3752545
-2.1208701 0.19224399 4.40062 3752288
-2.1180999 0.189643 4.4164701 3620701
-2.11112 0.18998501 4.4229202 3686237
-2.09429 0.19055501 4.43925 3620446
-2.08834 0.192286 4.4382401 3488859
-2.08599 0.19220699 4.4460402 3817311
-2.08219 0.19617 4.4539399 3883616
-2.0694101 0.196604 4.4547901 3620701
-2.0611401 0.19660901 4.4579 3423322
-2.05038 0.193601 4.4646702 4080738
-2.0316801 0.19882099 4.4853702 3422806
-2.0286901 0.198513 4.5041099 4014687
-2.0148599 0.195152 4.5143399 5003385
-1.80112 0.2054 4.7307401 3687007
-1.80123 0.20957799 4.7453599 4147560
-1.3716201 0.226036 5.1679401 1118483
-1.37455 0.22839101 5.1918502 1118484
-1.3628401 0.230119 5.2372098 1381401
-1.1044101 0.20899899 4.8274498 1381400
-0.97963601 0.22353999 5.11414 5524032
-0.95385802 0.223046 5.1068702 4997435
-0.64881003 0.26694199 6.1212702 6780826
-0.611561 0.27045599 6.1782999 7043487
-0.29061699 0.28536001 6.5612302 5199225
0.19209801 0.311892 7.13447 4871287
-2.30791 0.189347 4.19032 5530760
-2.2878001 0.19038799 4.2115998 5726852
-2.2153001 0.195013 4.2929702 5857411
-2.2098401 0.190396 4.2962999 5990280
-2.2034299 0.195393 4.3006802 5990280
-2.20116 0.191549 4.3073001 5924744
-2.1871901 0.19573 4.3171701 5858951
-2.18296 0.19227099 4.3239102 5793415
-2.17977 0.19718599 4.3296199 5990539
-2.1688299 0.196867 4.34233 5793158
-2.1589799 0.199016 4.3554201 5595780
-2.14586 0.197716 4.3636799 5595523
-2.1324 0.194988 4.3744602 4477041
-2.1323099 0.19980299 4.3836198 5398402
-2.13187 0.19596501 4.3921499 4345455
-2.1241901 0.196959 4.3866501 4543091
-2.1275001 0.199332 4.3998899 4872314
-2.12641 0.200873 4.3968701 5332865
-2.11748 0.20104 4.4078202 5464453
-2.1131401 0.196456 4.4125199 4015974
-2.1025 0.19666401 4.4214902 3883358
-2.1029601 0.196733 4.43329 4081509
-2.0919099 0.201434 4.4375401 4147820
-2.08601 0.20355 4.45151 4082026
-2.0671401 0.203725 4.4565701 3686752
-2.0378499 0.19845501 4.4681802 3422807
-2.02391 0.20516001 4.4917102 3291732
-1.96623 0.20380799 4.5573201 5925004
-1.80023 0.21056201 4.7204199 4476784
-1.7976 0.213991 4.7506399 4279147
-1.3547 0.21342599 4.6642098 3551273
-1.37655 0.23166899 5.1673899 1118481
-1.3706501 0.232345 5.1596799 1183761
-1.37192 0.23466 5.1809602 1183761
-1.36313 0.23700599 5.1925802 1118483
-1.3595001 0.238924 5.2244802 1184278
-1.35543 0.23327 5.2039299 1184278
-1.34556 0.240614 5.2464099 1381658
-1.3370301 0.237533 5.2454 1447195
-0.98199201 0.229128 5.11023 4865839
-0.97572702 0.23195 5.11517 4733998
-0.965729 0.22963201 5.11409 5392695
-0.95624501 0.229633 5.1125698 5458744
-0.94647098 0.22991601 5.11447 5524283
-0.29532799 0.30092201 6.5466499 6844559
-0.172824 0.299088 6.70014 5727110
-0.172042 0.29971099 6.7047901 5595522
-0.114001 0.308364 6.7546401 6320018
0.1249 0.321457 7.0120401 6517144
0.159592 0.319289 7.11167 6122641
0.19492 0.320218 7.1504102 5267331
0.229535 0.32510799 7.18894 5332609
0.24207599 0.32271901 7.2273002 5200507
0.241156 0.32998601 7.2080002 5727625
-2.3057401 0.19716001 4.18784 5596296
-2.29632 0.192311 4.1831698 5464710
-2.2883899 0.194768 4.2042699 5660802
-2.21263 0.19956601 4.3004699 5924487
-2.1868 0.198493 4.3093901 5858951
-2.18821 0.200606 4.3257499 5990281
-2.1748099 0.201968 4.33426 5990281
-2.1600201 0.203464 4.3417802 5727110
-2.1512101 0.201628 4.35923 5793159
-2.1377699 0.205531 4.3551002 5924746
-2.1446199 0.206351 4.3757601 5990283
-2.1370699 0.20359699 4.3781199 5793161
-2.1215301 0.205696 4.4021902 6056076
-2.1115899 0.204292 4.4127402 4873602
-2.1018901 0.206213 4.4189701 4541807
-2.09674 0.20579 4.4324899 5267072
-2.0555201 0.20648099 4.4591899 3752801
-2.0538001 0.21028399 4.4671898 4345198
-2.0494201 0.205707 4.4723001 3620443
-2.0316701 0.205285 4.4748502 3489112
-2.0339799 0.207974 4.4878802 3489369
-2.0294001 0.211593 4.4934101 3752799
-2.0222199 0.20654701 4.50703 3423319
-2.0157299 0.209355 4.5114002 3620442
-2.0127599 0.207699 4.5216198 3291733
-1.80715 0.219051 4.72331 5134972
-1.80874 0.219835 4.75175 4674678
-1.79835 0.22259299 4.7543001 4411505
-1.3765301 0.219844 4.64643 5130045
-1.3566999 0.21758801 4.6570201 4209458
-1.36865 0.240283 5.1631398 1577490
-1.3647799 0.242823 5.1825099 1577234
-1.34913 0.24250799 5.2273502 1315607
-1.33934 0.24577101 5.2415199 1381400
-1.33021 0.247656 5.2568102 1512987
-0.96130103 0.237987 5.1148901 3550500
-0.96629602 0.238489 5.11306 3616036
-0.95227802 0.23678701 5.11624 4076585
-0.61671102 0.284385 6.16888 6846107
-0.113891 0.31786501 6.7527599 6254226
0.037254099 0.32592201 6.9496899 6582935
0.114305 0.32330501 7.02108 6780317
0.25308999 0.34005299 7.2077198 5925005
-2.2871699 0.202204 4.2105298 5727107
-2.2134299 0.202866 4.2916698 5857924
-2.1736901 0.209967 4.3337402 5858952
-2.1675601 0.205791 4.33778 5792903
-2.1638999 0.211665 4.3485098 5792902
-2.1579499 0.206806 4.3563099 5858952
-2.1419899 0.209286 4.3840699 5924747
-2.13451 0.20793501 4.3847699 5858954
-2.12398 0.212956 4.39818 6122125
-2.1163299 0.20900699 4.40766 6912158
-2.10885 0.212136 4.4121099 4676482
-2.1018801 0.214315 4.4190798 5133687
-2.0982399 0.21017399 4.4250598 5990023
-2.0960801 0.214229 4.4324002 6122124
-2.09323 0.20985501 4.43887 5859466
-2.0894301 0.210897 4.4488702 5859209
-2.0818 0.21089301 4.45188 5662086
-2.0665901 0.210942 4.4496398 5267329
-2.05899 0.21093599 4.45328 5003642
-2.0485599 0.21637 4.4696999 5267070
-2.0371101 0.21479 4.46913 4872311
-2.03584 0.21601599 4.4905701 4739955
-2.00771 0.215096 4.5201998 3687010
-1.9642299 0.216729 4.5676699 6386071
-1.80688 0.230389 4.7418699 4542837
-1.36342 0.222498 4.6522002 4669498
-1.35514 0.22194 4.6641998 3881010
-1.35446 0.25020701 5.1828198 1839635
-1.35563 0.24945299 5.1623902 1905170
-1.35686 0.247572 5.2115402 1315346
-1.3572201 0.253461 5.2042799 1774355
-1.34614 0.25145099 5.2316198 1249814
-1.3430001 0.25488701 5.2418599 1249813
-1.31432 0.252731 5.26477 1513244
-0.99303102 0.244767 5.1059799 2696224
-0.98498601 0.245115 5.1093302 3945775
-0.97578102 0.24766301 5.1048598 5064508
-0.96420997 0.245465 5.1149902 3156259
-0.95680499 0.243719 5.1171699 3419174
-0.94877499 0.24365 5.1181998 3945517
-0.95299101 0.25054601 5.1182499 4603700
-0.94678402 0.25065899 5.1241498 5261887
-0.94163799 0.245526 5.12322 3814190
-0.63511097 0.29593199 6.1269398 6977437
-0.56518298 0.29996601 6.2243199 6648215
0.036684498 0.33468601 6.95259 6516885
-2.30092 0.205112 4.1903601 5464194
-2.2815299 0.210125 4.2058301 5726852
-2.27317 0.21022999 4.2165999 5793159
-2.2720599 0.21106 4.2249298 5727366
-2.2634001 0.211556 4.2328501 5727111
-2.24719 0.212139 4.24929 5858952
-2.2126901 0.210778 4.29211 5923975
-2.16699 0.215984 4.3397899 5793415
-2.1503899 0.21469299 4.3698201 5990283
-2.1456001 0.21911401 4.37254 5990283
-2.14115 0.214237 4.37432 6056332
-2.12921 0.21526501 4.38519 6056075
-2.1148701 0.21695399 4.4070301 7109538
-2.1079099 0.220116 4.4119101 4347003
-2.0871201 0.218584 4.4345298 5990540
-2.0783999 0.21816701 4.4522099 5793160
-2.06809 0.218089 4.4533801 5727111
-2.0543399 0.21781 4.4640498 5596036
-2.0520799 0.223967 4.46982 5595779
-2.0451701 0.222498 4.4742298 5529729
-2.04023 0.220668 4.4855099 5266557
-2.03669 0.22459801 4.4912 5529473
-2.0259299 0.222378 4.4907699 5463680
-1.97357 0.22459801 4.5524001 6517659
-1.8109699 0.23405901 4.73526 5201282
-1.36707 0.22880401 4.64784 4998720
-1.35467 0.230285 4.6620498 4144440
-1.3582 0.25739199 5.1831298 1970962
-1.35589 0.25934201 5.19454 1970963
-1.35203 0.25643399 5.2127199 1774355
-1.34351 0.258324 5.2266002 1511956
-1.34252 0.260786 5.2333398 1511957
-1.31738 0.26238501 5.2731299 1512988
-1.31092 0.25735301 5.2667999 1513244
-1.30336 0.26804101 5.3284602 2104864
-0.97105199 0.25582701 5.1082501 4537393
-0.96553499 0.25134999 5.1099 4341040
-0.95608503 0.25729799 5.1154299 3616292
-0.95052302 0.25749499 5.1231499 5326905
-0.79334402 0.29673401 5.9436002 7438507
-0.62953198 0.302039 6.12782 6911901
-2.29615 0.212266 4.1929302 5463936
-2.2894299 0.21226101 4.1976099 5463936
-2.2767799 0.214147 4.2108102 5858438
-2.26425 0.217096 4.2243299 5793158
-2.2567 0.215681 4.23628 5858695
-2.2453401 0.216778 4.2576499 5924231
-2.2388599 0.215763 4.2641802 5923978
-2.2112601 0.218632 4.29213 5858438
-2.1708901 0.223425 4.33956 5924746
-2.1633101 0.220855 4.34516 5858953
-2.1377699 0.223343 4.3702402 5859208
-2.13288 0.22034299 4.38272 5924489
-2.1226399 0.220891 4.3976102 6121869
-2.1127901 0.224916 4.4060602 6781342
-2.10888 0.22725099 4.4124398 4215160
-2.10127 0.22247501 4.4183402 5265274
-2.0716701 0.225857 4.45713 5792646
-2.0546999 0.228113 4.4613199 5792645
-2.04001 0.22866599 4.4854298 5595779
-2.0204301 0.226513 4.5002098 5397891
-2.0171399 0.23022 4.5083199 6779546
-1.98254 0.230606 4.5437698 6715039
-1.85062 0.240023 4.7070999 5991056
-1.83266 0.241423 4.7163501 5925006
-1.81133 0.243172 4.7376499 5398661
-1.3532701 0.238546 4.6596198 3683635
-1.34786 0.26292601 5.2217498 1905428
-1.33757 0.26974201 5.2346401 1905428
-1.33785 0.263841 5.2428298 1512212
-1.31811 0.271348 5.2667699 1381400
-1.3122 0.272668 5.2805099 1447451
-1.3054301 0.27237099 5.31282 1710367
-1.29985 0.272677 5.33005 2170914
-0.97389901 0.25994599 5.1065998 3945258
-0.96544999 0.25906399 5.11201 3748136
-0.94926298 0.26536801 5.1202202 4077101
-0.74167198 0.30818301 5.9917698 7307434
-0.73570597 0.31086501 6.0029202 7372971
-0.727211 0.310835 6.0145898 7438508
-0.72400397 0.31255701 6.0455599 7372971
0.32223701 0.36886501 7.28128 5858955
0.95887399 0.37637499 7.3856902 4803174
-2.28988 0.21942 4.19453 5002356
-2.2841699 0.218999 4.2077599 5594494
-2.27352 0.223406 4.2115798 4804976
-2.2727101 0.218519 4.2188501 5595522
-2.2637801 0.21953399 4.2329702 5792644
-2.2466099 0.219873 4.2378001 5858952
-2.2462201 0.222486 4.25141 5661059
-2.2407501 0.224618 4.2562399 5726338
-2.23367 0.224617 4.2600799 6055304
-2.2050099 0.225481 4.2940102 5727365
-2.20241 0.225427 4.30896 5726851
-2.18593 0.225306 4.3140702 5858695
-2.1372099 0.231447 4.3773799 5792645
-2.1222799 0.23090801 4.38904 5858183
-2.10025 0.23040999 4.4183402 5528701
-2.0866301 0.233989 4.4441099 5858954
-2.0543001 0.23300099 4.4681702 5595267
-2.0455501 0.23341601 4.4776502 5661316
-2.0387599 0.237057 4.4850402 5727111
-1.97679 0.235182 4.5499101 7044263
-1.8465 0.247724 4.7016702 6452119
-1.82686 0.24808601 4.7235398 5859212
-1.823 0.246555 4.7235498 5793674
-1.36457 0.24445599 4.6375098 5919303
-1.35511 0.24287499 4.6528602 4670782
-1.35552 0.24706 4.6635499 3946548
-1.32394 0.27234501 5.2295699 1905428
-1.32156 0.278779 5.2598901 1643284
-1.3169 0.27661201 5.2746801 1381657
-1.29961 0.27958599 5.2937899 1644574
-1.30267 0.27723199 5.32234 2104865
-0.95450997 0.26944 5.1178398 3616552
-0.949754 0.273054 5.1224098 3551014
-0.71599102 0.31872699 6.0643902 7372970
-2.29652 0.223195 4.1875801 3949412
-2.28497 0.22500201 4.2010298 4146275
-2.2788401 0.228284 4.20719 3817825
-2.2693801 0.227778 4.2195802 3949153
-2.2460201 0.227753 4.23809 4870512
-2.24507 0.23171701 4.2632399 4474986
-2.2125599 0.228999 4.2867899 5791615
-2.2088101 0.232695 4.2928801 5594493
-2.2071099 0.23267999 4.3083901 5660801
-2.20473 0.232522 4.32305 5792644
-2.17944 0.23093399 4.3175998 5924488
-2.1760499 0.235516 4.3246198 5858181
-2.16909 0.23101801 4.3281398 5924488
-2.1721201 0.23327699 4.3449001 5990538
-2.1666701 0.23525301 4.3544202 5990025
-2.14381 0.232785 4.3653202 5858440
-2.1363399 0.232623 4.3734498 5727109
-2.1338401 0.23361 4.3854098 5726852
-2.11836 0.23458999 4.4059701 6846364
-2.11169 0.234588 4.4096398 5202568
-2.1046901 0.234586 4.4130602 4081774
-2.0996101 0.23845699 4.4180899 5594494
-2.0966599 0.23677699 4.4282799 5924488
-2.08635 0.240798 4.4305401 5924489
-2.08477 0.23664901 4.4371099 5924746
-2.0457599 0.241366 4.4779 5858182
-1.98475 0.242484 4.5347099 7240868
-1.98378 0.24831399 4.5475302 6121873
-1.38581 0.25206399 4.6479001 4797754
-1.3541 0.25109401 4.64814 4273717
-1.32586 0.28164101 5.2420301 2102292
-1.32446 0.285184 5.2555399 2036756
-1.31626 0.28178 5.26823 1578006
-1.31845 0.28769499 5.2638798 1905684
-2.2958601 0.229669 4.1823802 4478074
-2.2954199 0.232749 4.1963801 5201799
-2.2891901 0.23360699 4.2016401 5070467
-2.2793901 0.232651 4.2182398 4148334
-2.2651501 0.23477601 4.2146502 4609402
-2.26772 0.232053 4.2279801 3818597
-2.26161 0.232327 4.2406602 3949154
-2.24402 0.235636 4.2374501 4081771
-2.2437699 0.239142 4.2690701 4213617
-2.2211399 0.239664 4.2779002 3819114
-2.2193401 0.24000899 4.2940898 4015205
-2.1777301 0.239262 4.3427 5529214
-2.16752 0.24128599 4.3474598 5528444
-2.1499801 0.241294 4.3453498 5660543
-2.1457701 0.241041 4.3629098 5661316
-2.1359999 0.239464 4.3659501 5595522
-2.13554 0.239296 4.3790102 5529473
-2.1258299 0.23963501 4.38766 5595266
-2.1216199 0.241927 4.4037099 6516371
-2.1217101 0.241919 4.4035501 6516371
-2.1154399 0.241919 4.4075198 6254998
-2.1040299 0.243094 4.4130101 4278636
-2.0989201 0.24654999 4.4184699 5660030
-2.0947599 0.24694601 4.4295702 5792903
-2.0853701 0.248153 4.43296 5727366
-2.08182 0.24314301 4.4442201 5792903
-2.07446 0.24689899 4.4510498 5727109
-2.0534401 0.24535701 4.4510102 5726853
-2.0450399 0.249477 4.4773002 5858181
-2.03585 0.247936 4.4899001 5858694
-1.9842 0.249109 4.5287199 5793164
-1.96 0.25468901 4.5471501 6122128
-1.96078 0.25357199 4.5624099 6188434
-1.37711 0.25747401 4.6454601 5981776
-1.35526 0.25953001 4.6480398 4864836
-1.35254 0.25554401 4.6546001 3483949
-1.31901 0.29402101 5.2590299 2168084
-0.95481402 0.28113401 5.1231399 4274224
-0.95073402 0.28594899 5.1228099 4471603
-0.71186 0.33509499 6.0515199 7372971
-0.69621301 0.33539501 6.0629201 4477308
-2.29778 0.23657399 4.1869202 6715549
-2.26987 0.241887 4.2140298 6911899
-2.2635701 0.241887 4.2189102 7044001
-2.2606101 0.241815 4.22439 6912929
-2.25192 0.240282 4.2347498 5794449
-2.2544999 0.239141 4.2671599 4345974
-2.2247901 0.24292 4.2715001 5004164
-2.22157 0.244477 4.2861199 4741249
-2.1507001 0.248092 4.3414202 4080998
-2.1463101 0.24848001 4.3492799 4212070
-2.14112 0.24711999 4.3561201 4672877
-2.13551 0.24704599 4.3629498 4804720
-2.1312301 0.248368 4.3875399 5002356
-2.12514 0.24929699 4.4016099 5462909
-2.1234601 0.249284 4.4000401 5397117
-2.1113501 0.252408 4.4045701 5333635
-2.1026299 0.25459599 4.4303002 5265271
-2.0955501 0.25432 4.43327 5397629
-2.0785 0.25088599 4.4450998 5661316
-2.07425 0.25512001 4.4507098 5528958
-2.0525401 0.253995 4.4559498 5661058
-2.04931 0.254195 4.4648399 5661314
-2.04264 0.25421801 4.46944 5792388
-2.0260899 0.252047 4.4891701 5661315
-1.98589 0.25769001 4.5345602 6187660
-1.97609 0.259141 4.5411 6122124
-1.95959 0.26070899 4.5673099 6056590
-1.96356 0.258674 4.5728598 6122384
-1.9187599 0.260299 4.6213899 3883619
-1.79145 0.27200499 4.7576199 5727626
-1.36745 0.265154 4.6264701 7165026
-1.36607 0.26696801 4.6441002 6902111
-1.3623101 0.26342499 4.64957 6244950
-1.31759 0.29639599 5.2722502 2102291
-0.96501601 0.291199 5.1219001 5195324
-0.95649499 0.28899199 5.1194901 4997946
-0.95318598 0.29440299 5.12357 5327425
-0.88748002 0.33325499 5.8368001 7109283
0.27664301 0.414009 7.2009702 5990798
0.27747899 0.41377699 7.2095499 5925261
-2.25612 0.24514399 4.2300601 7044001
-2.2497001 0.248136 4.2342401 6648473
-2.2409799 0.24636 4.26404 6913187
-2.2321701 0.24635901 4.26759 6781345
-2.2237 0.25095499 4.27 7241124
-2.22312 0.24812099 4.29072 6452892
-2.17559 0.25171199 4.3462701 4213615
-2.15639 0.25642499 4.3472099 5728139
-2.1417 0.25408101 4.3631201 4016235
-2.14572 0.254897 4.3668599 4147823
-2.14081 0.25509101 4.3896098 3949670
-2.1388099 0.25447699 4.37709 3949670
-2.11887 0.256868 4.4018698 4672880
-2.10338 0.25498101 4.4195299 4738412
-2.08986 0.25593299 4.4394498 5331321
-2.0413101 0.26224899 4.4691501 5199220
-2.0352499 0.25817099 4.4853802 5726336
-2.0246301 0.26016301 4.4854898 5528700
-1.95783 0.26721299 4.55827 6580615
-1.96094 0.265421 4.5629101 6318475
-1.94908 0.26781499 4.5753698 5858692
-1.8998899 0.27160501 4.6346798 4080225
-1.88748 0.26784199 4.6518998 3620189
-1.86088 0.27542999 4.6922498 5925261
-2.2540901 0.25319499 4.2776999 6582423
-2.2156701 0.25554001 4.2723699 6385300
-2.21574 0.25746301 4.28473 6187919
-2.1872599 0.25812101 4.3176498 6977695
-2.17465 0.25882 4.3385901 6123927
-2.1612 0.261123 4.3427401 6187149
-2.1501 0.26017001 4.3515501 6781086
-2.1458399 0.261096 4.362 6584221
-2.1428699 0.25890499 4.38025 4872833
-2.1268101 0.262999 4.3983798 5333640
-2.1158299 0.26298299 4.39958 5201541
-2.1087501 0.26012701 4.4046001 4280178
-2.1066501 0.262117 4.4173002 3950700
-2.1036699 0.26186001 4.4267602 3884391
-2.08885 0.26346299 4.4260898 4015722
-2.0811601 0.263464 4.4291601 3949672
-2.0839 0.26436701 4.4419298 3949670
-2.0745499 0.26335299 4.4507599 4146533
-2.07393 0.26872301 4.4580798 4016494
-2.0618501 0.26523501 4.46103 4146533
-2.0471301 0.26960501 4.4704499 3883619
-2.03408 0.26941201 4.4686098 3883620
-2.0255699 0.26419699 4.4690099 4870511
-2.0035901 0.270026 4.5251098 5986418
-1.95205 0.273359 4.5592198 6379113
-1.94293 0.27236599 4.56529 6512757
-1.9095 0.27710801 4.62535 5001838
-1.89677 0.277715 4.6335201 4672360
-1.8193099 0.28324801 4.7279 5595525
-1.35861 0.27834499 4.6374202 6967904
-0.99114501 0.30256501 5.0815902 2827813
-0.92333102 0.34627599 5.7405601 6582934
-0.91821003 0.35005 5.7873402 6648728
-0.91808599 0.349125 5.7859201 6714521
-0.71545899 0.365825 6.0528202 7307178
-0.28835899 0.39177701 6.5503201 6978470
-0.26891801 0.39142501 6.5659599 6978213
-0.260198 0.391103 6.57583 6978468
-0.222808 0.39945301 6.6182899 6912419
-2.22558 0.25887501 4.2705798 6056332
-2.1906199 0.2638 4.3069901 6121613
-2.17363 0.26592499 4.3308702 6780572
-2.1557901 0.26429701 4.3476601 6713492
-2.1501999 0.26732001 4.3554201 6319249
-2.13974 0.26821899 4.3615799 6385042
-2.13836 0.267575 4.3789301 6846364
-2.13219 0.26818001 4.3842201 6977694
-2.12041 0.27009901 4.3974299 6977693
-2.11256 0.26831701 4.4052601 6847135
-2.11041 0.27314401 4.4117599 6846107
-2.10795 0.26883 4.41961 6386843
-2.0896399 0.270704 4.4306402 6254999
-2.0748601 0.27087101 4.4323602 5728656
-2.07142 0.27143201 4.44487 5268105
-2.0578101 0.27390099 4.4541602 5597324
-2.05721 0.274454 4.4652901 5136773
-2.04002 0.276871 4.4762101 5727881
-2.0293 0.27388999 4.4837999 4213614
-2.0221601 0.277035 4.4843202 5003904
-1.94269 0.278721 4.5560398 4798794
-1.8882101 0.281239 4.6422601 5395566
-1.82558 0.28635299 4.72189 5398143
-1.80362 0.28935701 4.7402401 5398144
-1.3527 0.28228801 4.6370602 6311257
-0.99087602 0.31120801 5.0805302 2893605
-0.28467301 0.398094 6.5561299 7044007
-0.257613 0.399295 6.56496 6978470
-0.230304 0.40368199 6.5963302 6978213
-0.123233 0.41691601 6.7171898 5860239
-2.1695001 0.27379501 4.3352699 5465996
-2.1622701 0.273799 4.33881 4213615
-2.1537099 0.271772 4.34868 5924230
-2.14993 0.275273 4.3546901 5792902
-2.14045 0.276366 4.3615799 5727107
-2.14309 0.27268001 4.3723001 5924232
-2.1337299 0.274755 4.37883 5989768
-2.1279099 0.27599099 4.3849502 6121354
-2.1224101 0.27301401 4.3899298 6450578
-2.1155901 0.27794999 4.3928599 6121868
-2.1041601 0.27731299 4.3976302 6121869
-2.09464 0.27785 4.42941 6318992
-2.0760801 0.277762 4.4250998 6451092
-2.0715499 0.27819201 4.4352398 6648728
-2.0664999 0.27690899 4.4495001 6649755
-2.0629301 0.28175399 4.4549098 6319250
-2.05077 0.277143 4.4703898 5070465
-2.03741 0.282354 4.4818401 6846361
-2.0190699 0.280965 4.4927001 5530250
-2.0192101 0.28036699 4.4916501 5464457
-1.98141 0.28760201 4.5445199 6445161
-1.96228 0.28406599 4.54424 5918817
-1.93601 0.28580099 4.5254202 6181733
-1.91162 0.28617999 4.6157899 4865100
-1.86781 0.28956699 4.6216202 4996428
-1.86756 0.29190701 4.6697502 5720666
-1.83631 0.293504 4.6992102 5985898
-1.8344001 0.29536301 4.7131701 5788518
-1.8008 0.29534 4.6633 5589594
-0.113129 0.426424 6.7232099 6583967
-2.1949601 0.27451 4.31144 6121867
-2.18993 0.274331 4.3199701 6056074
-2.1856599 0.27435499 4.3255801 5924489
-2.1730001 0.28100401 4.3329501 6517913
-2.15732 0.27745301 4.3442001 5660031
-2.1505699 0.27968699 4.3470898 5727109
-2.1445 0.28004 4.3554301 5661572
-2.13674 0.28077301 4.3677001 5726594
-2.09689 0.28192899 4.4155698 5924231
-2.0887799 0.28583401 4.4188199 5792645
-2.08055 0.28489101 4.4235101 5990024
-2.0734999 0.285373 4.4324999 5924488
-2.07019 0.285413 4.4391699 5924489
-2.0695701 0.285898 4.4498601 5858697
-2.0555501 0.28490099 4.4572301 6385299
-2.04988 0.28481001 4.4696999 4346232
-2.0418301 0.28467101 4.4757199 5922947
-2.0332501 0.28782299 4.48634 5924233
-2.01984 0.29115501 4.49791 6186639
-1.98981 0.28803301 4.5397401 6445419
-1.91408 0.297436 4.5945902 6247269
-1.87474 0.29888499 4.6454101 5063250
-1.85979 0.29674801 4.65764 4338498
-1.81663 0.302109 4.7230902 4799305
-1.81547 0.30645001 4.7349401 4206910
-1.35413 0.294889 4.6314998 6836575
-1.35387 0.29756099 4.6387601 6179416
-1.35066 0.29949901 4.65167 3550004
-0.96273899 0.329155 5.11057 6179155
-2.1882801 0.281831 4.3229299 5990024
-2.1614399 0.28188601 4.3387799 4476016
-2.15694 0.28736299 4.34795 5792129
-2.1377399 0.28910801 4.36724 5792901
-2.1333101 0.28560001 4.37359 5792388
-2.12497 0.28621301 4.3843098 6121868
-2.1137099 0.29052901 4.38662 5924489
-2.1147001 0.285615 4.3951702 5990281
-2.1044199 0.28905901 4.4043102 5990023
-2.10023 0.28867301 4.4171 5858950
-2.0805099 0.28972301 4.4337201 5924488
-2.0670099 0.293457 4.4307199 5924231
-2.0592201 0.290373 4.45542 6055563
-2.0529699 0.29297301 4.4613199 6517911
-2.04491 0.29421201 4.4703302 4015979
-2.0360701 0.29200599 4.4801202 5661058
-2.03179 0.29576799 4.4855299 5595779
-2.0274899 0.29607001 4.4952002 5463681
-1.99482 0.299355 4.5257702 6445422
-1.98569 0.300412 4.5439901 4406094
-1.9678299 0.29814401 4.56107 5193805
-1.85987 0.30333099 4.6505899 5589594
-1.83272 0.30894199 4.7004299 5129042
-1.8258801 0.31306899 4.7230601 5194835
-1.82161 0.31043199 4.7321501 4602440
-1.81484 0.31418899 4.7339001 5194835
-1.36122 0.34878001 5.2715998 2102548
-0.959436 0.37827799 5.7466502 5596042
-0.93532503 0.382972 5.7649398 5727627
-0.78443199 0.39242199 5.9495101 6846108
-2.1853499 0.28905001 4.3246398 5989768
-2.1775899 0.28905001 4.3278098 6516883
-2.16483 0.28907901 4.3360701 4148595
-2.1533401 0.29126099 4.3545299 5661059
-2.13238 0.290748 4.38098 6055817
-2.1110101 0.29451701 4.4065099 5924232
-2.1041901 0.29850501 4.4054499 5792903
-2.10287 0.29364899 4.4126 5858438
-2.0824499 0.29407999 4.4261799 5924231
-2.0610199 0.29551899 4.45086 5858695
-2.05862 0.297878 4.4570799 6253199
-2.0578201 0.29778901 4.4565802 6253455
-2.05217 0.30083999 4.4618001 6057617
-2.04022 0.29787901 4.4762101 5660029
-2.0347199 0.300253 4.4784098 5792643
-2.0225501 0.30367801 4.4932399 5332097
-1.96541 0.30817699 4.5664601 3749447
-1.9522099 0.303471 4.5623202 4142146
-1.92329 0.30348301 4.56177 4536131
-1.35639 0.35579401 5.2708602 1970964
-1.32205 0.35619101 5.3016801 2037271
-1.32205 0.35619101 5.3016801 2037271
-1.31291 0.359689 5.2997098 1840923
-0.96442801 0.38701001 5.7321501 6386327
-0.94448102 0.38721099 5.7536001 6122898
-0.93244398 0.387189 5.7491899 5991569
-0.562913 0.41434401 6.21737 6582934
-2.1743701 0.29624599 4.3291001 6780571
-2.1674299 0.29625601 4.3327699 4676478
-2.1579101 0.299721 4.3396101 5396601
-2.15518 0.29542899 4.3460698 5726593
-2.1443999 0.29906899 4.3589501 5792645
-2.1403501 0.297337 4.37082 5924488
-2.1236 0.30179399 4.3768501 5924745
-2.1111701 0.302531 4.3861599 5990281
-2.0629301 0.30711699 4.4495602 5858696
-2.05601 0.30559599 4.4565802 6582677
-2.05073 0.308752 4.4617801 5465739
-2.0464699 0.30399999 4.4667802 3950701
-2.0385001 0.30611899 4.4758401 5726080
-2.0283101 0.308505 4.4889302 5595780
-1.98501 0.31406501 4.5783601 4211544
-1.9841501 0.31530201 4.5739398 4343130
-1.96884 0.311961 4.57581 3947857
-1.92161 0.31630301 4.5853 3947856
-1.90486 0.316201 4.58882 3815754
-1.8903 0.311616 4.5824699 4010817
-1.85578 0.32435 4.69278 3878716
-1.34848 0.363617 5.2639699 2036757
-1.34524 0.363774 5.2719102 2299414
-1.32083 0.36456501 5.3007998 2037529
-1.30795 0.36666101 5.29493 1972767
-0.95953298 0.39057001 5.7393599 6188692
-0.95441699 0.39337999 5.74752 6320023
-0.94406998 0.39389199 5.7439499 6451608
-0.93688297 0.39436701 5.7495999 6451608
-0.93136698 0.39823601 5.76231 6649244
-2.15416 0.303518 4.3457298 5792388
-2.15623 0.306703 4.3558302 5792645
-2.1363499 0.30630699 4.3558402 5858695
-2.1179099 0.30769899 4.3854499 5858695
-2.09991 0.30670899 4.40804 5727366
-2.0541101 0.31357801 4.4563599 6846363
-2.0418799 0.31073001 4.4700198 4935794
-2.03721 0.31420299 4.47575 5792130
-2.0264299 0.31632099 4.48911 5529730
-2.0212901 0.31154299 4.49333 5529477
-1.99516 0.315337 4.5276098 6773872
-1.98427 0.32036999 4.5864301 4277594
-1.9519 0.32465199 4.6098199 4343389
-1.8805 0.32004601 4.5982699 3816527
-1.86427 0.329671 4.6973901 3749447
-1.85817 0.33180201 4.7061 3749705
-1.35745 0.37114599 5.2677898 1774357
-1.34872 0.371124 5.2697701 2102806
-1.32463 0.370031 5.2952199 2168087
-1.3168401 0.37254301 5.29776 2103323
-0.93858302 0.40385699 5.7627602 6978210
-0.26260501 0.46617901 6.5749102 6912161
-0.25476199 0.463121 6.5711298 6978211
-2.15172 0.31134999 4.3449998 5858438
-2.1419799 0.311216 4.3501501 5924745
-2.12498 0.310478 4.3731098 5858695
-2.12012 0.31622499 4.3836899 5727108
-2.1141 0.312904 4.3905702 5792644
-2.09462 0.31825101 4.4205599 5792902
-2.0650401 0.31504899 4.4507699 5924490
-2.06264 0.319269 4.44245 5924489
-2.0575199 0.31856701 4.4545002 6451092
-2.0487101 0.31665099 4.4615302 4807553
-2.04125 0.31886899 4.4707499 5264758
-2.03566 0.32213199 4.4751902 5660544
-2.0312099 0.31742501 4.4795499 5661315
-2.01987 0.31948599 4.4936299 5990029
-1.99488 0.31973001 4.5176001 6510959
-2.0018401 0.326507 4.56744 5528441
-1.9935499 0.325187 4.5797701 2567494
-1.92453 0.33443099 4.65275 5070206
-1.88388 0.33575401 4.7070999 4211544
-1.8576699 0.33422199 4.7107601 3881806
-1.81407 0.336265 4.73277 6115426
-1.78768 0.34122899 4.7579699 5464194
-1.34561 0.37924799 5.2680202 2299414
-1.32166 0.378362 5.2943101 2168344
-1.30802 0.38003901 5.2874699 2103837
-0.26958901 0.47046599 6.5787601 6912161
-0.229412 0.47351 6.61833 6846626
-0.13183001 0.48289201 6.7105999 4937847
-0.124663 0.48346901 6.7182498 6320277
0.36541 0.521442 7.2745199 5859470
0.37281901 0.52511001 7.2838202 5793676
-2.15467 0.32022899 4.3628502 5726337
-2.12293 0.31915501 4.3731298 5727108
-2.105 0.319471 4.4124799 5858951
-2.09991 0.320398 4.4053502 5924488
-2.09324 0.32320401 4.4117398 5792389
-2.0808401 0.319938 4.4226799 5792903
-2.0806701 0.324812 4.4305902 5924488
-2.0778899 0.32110599 4.4383402 5924488
-2.0623801 0.32319999 4.4496498 5990283
-2.0476799 0.324489 4.4618402 4215158
-2.04035 0.326956 4.4709201 5396599
-2.0236599 0.324177 4.4884901 5331840
-2.0123501 0.32995501 4.4978399 7109795
-1.99424 0.32756299 4.5180702 6642288
-2.0055799 0.33152401 4.5638099 6250107
-2.0025401 0.33420199 4.5699301 5398140
-1.98757 0.337253 4.58887 2173504
-1.98154 0.33310401 4.5913701 2238783
-1.9225 0.33823299 4.6606202 3820397
-1.90607 0.34112501 4.6816001 2698562
-1.88978 0.34336701 4.7034798 3225680
-1.86599 0.34506401 4.7185602 3289925
-1.34453 0.387447 5.2684898 2365207
-1.31248 0.38538799 5.2830801 2234394
-0.97658598 0.37142101 5.0750599 5587533
-1.01244 0.41444701 5.6633601 6451605
-0.308799 0.48083001 6.5271201 6517399
-0.121658 0.49305099 6.7125401 6386328
-2.1440699 0.32240599 4.36658 5594493
-2.1363101 0.32762101 4.3685899 4475241
-2.1256199 0.324729 4.3829598 5463164
-2.11971 0.32800201 4.3979101 5330807
-2.10953 0.32709 4.40133 5726079
-2.1000099 0.32705599 4.40343 5858178
-2.0938799 0.32826799 4.4051299 5660543
-2.08025 0.32969999 4.4383001 5924230
-2.0676 0.32754201 4.44383 5924487
-2.05112 0.32919699 4.45643 6189460
-2.04599 0.332398 4.4616399 3951213
-2.04263 0.33522999 4.4732499 5527927
-2.0387199 0.33047101 4.48212 5528959
-2.0199001 0.33100799 4.4864998 5397632
-2.0045199 0.34055799 4.5671301 6252421
-1.94697 0.34195799 4.62112 2173247
-1.35751 0.39593899 5.2646399 1905684
-1.34934 0.39568901 5.2652202 2168342
-1.34184 0.39543399 5.26617 2365208
-1.34066 0.395273 5.26371 2365208
-1.28746 0.397237 5.3363099 3156530
-1.01315 0.42343801 5.6681499 5463424
-1.00318 0.423875 5.6760402 5002873
-0.99905002 0.427845 5.6847701 5397630
-0.99545598 0.42019099 5.69029 5858956
-0.99095899 0.42563 5.6925402 5990286
