ply                 
format ascii 1.0    
element vertex 1233
property float x    
property float y    
property float z    
property uchar red  
property uchar green
property uchar blue 
end_header          
0.107134 -0.181736 0.910716 99 65 79 
0.117238 -0.183357 0.900859 91 68 76 
0.124402 -0.130932 0.887547 81 57 70 
0.128832 -0.217968 0.894432 102 75 92 
0.13018 -0.0420304 0.868377 143 120 138 
0.139718 -0.184228 0.879438 84 53 69 
0.147389 -0.0446248 0.85674 144 122 145 
0.153728 -0.186698 0.86668 84 60 74 
0.153605 -0.0732678 0.851464 77 53 67 
0.160827 -0.0469136 0.841188 79 51 65 
0.164819 0.0683669 0.823767 123 110 130 
0.179212 -0.235365 0.849803 140 113 128 
0.175594 -0.0197492 0.824565 67 46 53 
0.18231 -0.204544 0.842872 88 63 84 
0.174368 0.0674809 0.813236 121 111 135 
0.175763 0.0954517 0.806303 139 115 128 
0.182707 -0.049866 0.823278 64 44 53 
0.182241 -0.0051239 0.814765 136 113 129 
0.185433 0.0944095 0.797689 128 107 124 
0.186857 0.077527 0.798023 126 109 128 
0.191741 0.0118196 0.804437 82 63 82 
0.185012 0.207621 0.781435 73 65 76 
0.196433 -0.078134 0.813626 57 38 44 
0.196697 0.139683 0.78101 135 111 127 
0.197086 0.165453 0.778396 84 66 90 
0.209673 -0.109263 0.802779 125 107 123 
0.212399 -0.179609 0.80945 85 59 72 
0.200023 0.192837 0.769194 49 33 46 
0.220874 -0.251994 0.81225 77 58 77 
0.20828 0.152658 0.768052 142 121 138 
0.222354 -0.195474 0.803839 121 100 117 
0.209226 0.167293 0.76433 129 110 130 
0.208143 0.205495 0.760153 95 68 87 
0.219264 -0.0793779 0.790468 82 57 78 
0.226412 -0.243179 0.805744 122 105 124 
0.221932 -0.110108 0.791593 92 64 79 
0.214798 0.0811207 0.770366 140 118 131 
0.21302 0.194247 0.758451 80 65 84 
0.218 0.161858 0.758066 68 54 69 
0.223356 0.0799054 0.762536 139 113 124 
0.234686 -0.0259211 0.768784 65 40 46 
0.233533 0.138087 0.746953 68 56 68 
0.233909 0.184775 0.738044 92 67 86 
0.244233 -0.0559298 0.763821 73 51 64 
0.256522 -0.275421 0.780843 87 63 77 
0.258536 -0.210191 0.772514 55 51 65 
0.255913 -0.145673 0.763484 76 68 83 
0.266959 -0.271594 0.771243 76 59 78 
0.25066 0.156002 0.727244 123 99 112 
0.26474 -0.179594 0.759866 118 94 116 
0.256885 0.038301 0.73828 136 119 135 
0.27822 -0.261405 0.759001 80 61 81 
0.273311 -0.151365 0.747933 82 61 78 
0.280046 -0.179481 0.746225 68 50 72 
0.27605 -0.0626465 0.732862 133 106 121 
0.265958 0.183619 0.708457 126 107 126 
-0.309743 0.170981 1.24852 128 120 144 
-0.307349 0.0272306 1.26655 122 114 138 
-0.305057 0.000618937 1.26944 59 51 66 
-0.304584 0.141886 1.24975 79 64 83 
-0.301814 0.120258 1.25075 61 54 70 
-0.297526 0.0279176 1.25953 70 60 85 
-0.298058 0.00139906 1.26086 129 116 142 
-0.296699 0.0622891 1.25407 67 55 75 
-0.296374 0.141187 1.24264 67 57 82 
-0.292006 0.0112639 1.25516 137 124 144 
-0.289759 0.100817 1.24371 77 64 92 
-0.290774 -0.0281468 1.25812 125 107 129 
-0.288921 0.117569 1.24047 69 56 74 
-0.286519 0.0247075 1.24871 128 114 140 
-0.285761 0.128022 1.23383 120 118 142 
-0.285994 0.155444 1.2289 110 101 128 
-0.284267 0.0611826 1.24343 76 62 85 
-0.28405 0.0353838 1.24669 82 69 87 
-0.285299 0.138335 1.23012 73 64 107 
-0.283762 -0.0339093 1.25328 125 113 135 
-0.28312 -0.0189068 1.25046 72 56 85 
-0.280892 0.0947444 1.23568 75 61 84 
-0.281137 0.17272 1.22293 126 122 149 
-0.278396 0.0378253 1.23954 59 45 62 
-0.278658 0.0620835 1.23506 130 117 137 
-0.277839 -0.0014638 1.24434 129 121 144 
-0.2767 0.129465 1.22319 172 190 255 
-0.275066 0.027426 1.23856 120 105 128 
-0.276729 0.192037 1.21474 123 119 146 
-0.274503 0.113896 1.22684 56 44 54 
-0.272177 -0.0397961 1.24317 86 75 105 
-0.273167 0.13828 1.21836 23 31 50 
-0.271659 0.168904 1.21538 52 43 62 
-0.26993 -0.00660856 1.23632 127 103 127 
-0.268034 0.0242618 1.23188 80 57 83 
-0.268512 0.186701 1.20887 82 69 87 
-0.267272 -0.0309623 1.23699 132 107 129 
-0.264263 0.0919355 1.21976 119 101 117 
-0.263379 0.148532 1.21232 53 44 63 
-0.263206 0.00723808 1.2283 103 79 105 
-0.262688 0.110065 1.21532 105 87 99 
-0.262615 0.164192 1.2083 115 107 122 
-0.262269 0.0676738 1.21968 134 114 126 
-0.260939 0.13593 1.21122 112 103 124 
-0.261186 0.185076 1.20205 106 98 113 
-0.258291 -0.00281752 1.22818 74 61 89 
-0.258118 0.0366461 1.22249 67 50 69 
-0.257347 0.0215646 1.22453 40 31 48 
-0.255886 0.0934088 1.2121 136 122 137 
-0.254127 0.068837 1.2124 118 105 131 
-0.254489 0.119804 1.20452 137 120 136 
-0.25286 0.0566334 1.21273 56 44 56 
-0.252651 0.165155 1.19828 57 47 56 
-0.250811 -0.00966513 1.22126 133 113 140 
-0.250297 -0.0576609 1.22577 130 116 139 
-0.249292 0.187014 1.19277 100 97 116 
-0.248131 -0.0395074 1.22171 75 66 95 
-0.24634 0.0199792 1.21167 122 102 111 
-0.246844 0.13222 1.19658 63 49 66 
-0.246013 0.212098 1.18772 55 44 58 
-0.245452 0.0696739 1.2049 110 95 114 
-0.245133 0.145683 1.19595 57 44 53 
-0.244808 0.110922 1.19602 54 40 55 
-0.241149 -0.0639952 1.21934 65 52 69 
-0.241028 -0.0260426 1.21283 95 67 92 
-0.238079 0.0329867 1.20662 74 63 79 
-0.239497 0.0752742 1.19767 92 70 93 
-0.238481 0.0613589 1.1986 126 111 134 
-0.23898 0.20622 1.17981 57 41 51 
-0.236223 0.0199961 1.20602 54 40 53 
-0.237527 0.133517 1.18898 61 44 62 
-0.236623 0.150077 1.186 120 101 120 
-0.234643 -0.0386163 1.21191 55 38 46 
-0.235863 0.181831 1.18191 51 35 48 
-0.234418 -0.0123079 1.20572 134 111 127 
-0.233371 0.0899694 1.1935 48 42 44 
-0.234816 0.170965 1.18014 49 36 46 
-0.230006 0.109002 1.18735 69 56 76 
-0.229698 -0.0370805 1.20317 134 115 134 
-0.227724 0.0191318 1.19851 65 51 64 
-0.228897 0.209577 1.17106 109 92 110 
-0.22628 0.134666 1.17902 117 100 119 
-0.224289 -0.0107944 1.19905 61 47 62 
-0.226766 0.162192 1.17419 51 40 56 
-0.224186 -0.0605257 1.20472 130 116 139 
-0.225347 0.0678136 1.18729 56 38 52 
-0.222284 -0.0450435 1.19956 130 107 125 
-0.222106 0.182391 1.1716 27 25 28 
-0.221974 0.0161545 1.1904 110 99 113 
-0.221708 0.108214 1.17923 71 55 66 
-0.222349 0.199679 1.16642 83 75 96 
-0.222312 0.0897587 1.17915 73 58 77 
-0.220509 0.034224 1.18721 122 110 130 
-0.217808 0.0520106 1.18536 58 42 55 
-0.219388 0.146435 1.17124 48 36 46 
-0.216608 -0.00452201 1.18805 73 65 89 
-0.216081 -0.0394933 1.19249 89 66 86 
-0.217221 0.126002 1.17048 45 35 44 
-0.213092 -0.0642988 1.19408 131 123 146 
-0.21307 0.163018 1.16609 99 95 110 
-0.213222 0.136876 1.16602 112 95 111 
-0.212862 0.034345 1.178 137 118 137 
-0.211981 -0.0279874 1.18672 96 66 78 
-0.209123 -0.0130693 1.18325 67 46 61 
-0.209367 0.0696105 1.17218 115 98 117 
-0.209316 0.121475 1.16424 37 27 36 
-0.209426 0.0825669 1.16873 128 95 104 
-0.206038 -0.0415562 1.18485 53 36 54 
-0.206061 0.050681 1.17167 60 47 57 
-0.203204 -0.0667457 1.18585 132 117 138 
-0.204193 0.0369489 1.17063 141 120 135 
-0.205267 0.154309 1.15465 56 35 44 
-0.200079 0.0638994 1.16393 50 34 44 
-0.198843 -0.0141343 1.17409 83 55 70 
-0.199812 0.129737 1.15432 54 40 53 
-0.197055 -0.0400004 1.17476 85 61 87 
-0.196704 0.0482238 1.1641 111 100 116 
-0.196523 0.0144879 1.16745 141 123 137 
-0.194456 -0.0942564 1.18158 141 126 147 
-0.195017 0.0354562 1.16215 136 117 136 
-0.194015 -0.0702442 1.17521 120 104 117 
-0.188142 -0.0420508 1.16784 89 57 72 
-0.187303 -0.0906313 1.17164 75 54 71 
-0.18778 0.0812697 1.14993 86 70 83 
-0.186528 -0.014632 1.16138 71 54 73 
-0.183579 -0.0784964 1.16829 53 38 57 
-0.177703 -0.102406 1.16539 130 101 119 
-0.176274 -0.0688567 1.1608 80 62 86 
-0.176231 -0.0142943 1.1505 70 51 71 
-0.171792 -0.119417 1.16364 77 64 74 
-0.173019 -0.0869365 1.15796 95 62 79 
-0.168923 -0.0602621 1.15406 131 119 139 
-0.16489 -0.0160645 1.14352 62 48 65 
-0.163878 -0.0696498 1.14958 64 40 53 
-0.162389 -0.0975997 1.15061 92 64 78 
-0.160664 -0.0418459 1.14144 133 110 128 
-0.159689 -0.120592 1.15161 94 66 78 
-0.157795 -0.0269231 1.13769 73 51 74 
-0.153032 -0.0711041 1.14031 65 48 64 
-0.149597 -0.135 1.14416 83 60 86 
-0.148046 -0.123447 1.14067 85 61 74 
-0.14464 -0.0710624 1.1321 71 53 77 
-0.144087 -0.0180261 1.1239 127 120 138 
-0.141284 -0.136784 1.13688 80 57 77 
-0.139388 -0.119657 1.13296 133 118 137 
-0.13739 -0.0998355 1.12906 85 60 81 
-0.137088 -0.0470684 1.12057 50 37 46 
-0.133259 -0.0728691 1.12157 58 38 49 
-0.132462 -0.125251 1.12553 139 126 144 
-0.12603 -0.137169 1.12289 67 39 61 
-0.111919 -0.143463 1.10962 66 49 65 
-0.110276 -0.163914 1.1116 45 31 56 
0.106602 -0.105106 0.900674 110 77 96 
0.111161 -0.216925 0.910941 106 76 104 
0.119191 -0.242246 0.909103 158 135 155 
0.117386 -0.0988096 0.891981 83 56 75 
0.119059 -0.199344 0.903246 106 73 94 
0.125455 -0.183643 0.895246 102 74 96 
0.125088 -0.0669442 0.877613 139 121 145 
0.129287 -0.164984 0.889253 107 79 102 
0.136141 -0.199724 0.889098 138 130 154 
0.132544 -0.11529 0.876723 102 72 96 
0.135518 -0.226727 0.889531 103 74 96 
0.136068 -0.0712199 0.871371 89 64 83 
0.139144 -0.168896 0.88001 92 72 100 
0.152891 -0.257021 0.879216 89 61 86 
0.147778 -0.0642791 0.856604 90 66 88 
0.153054 -0.24088 0.876977 149 127 148 
0.15564 -0.201815 0.868046 89 66 82 
0.160846 -0.135412 0.856814 98 68 92 
0.168837 -0.217953 0.860564 145 127 149 
0.171472 -0.229198 0.85719 90 70 95 
0.17165 0.033005 0.821809 144 123 138 
0.188434 -0.0222739 0.816071 57 40 46 
0.193084 -0.261819 0.841327 83 70 100 
0.188744 0.0606235 0.80363 87 69 93 
0.188283 0.0410717 0.80542 78 59 78 
0.198509 -0.199428 0.828473 94 81 101 
0.20226 -0.225676 0.828809 88 67 98 
0.205209 -0.241024 0.827701 135 122 140 
0.201783 -0.0217107 0.80232 64 43 52 
0.206297 -0.138022 0.813752 148 125 141 
0.204876 0.0291195 0.791515 97 69 84 
0.209361 -0.162686 0.812751 70 54 80 
0.201491 0.0922315 0.781965 35 77 185 
0.209503 -0.0187786 0.794105 135 123 147 
0.210959 -0.0811149 0.800386 75 68 84 
0.202501 0.109062 0.778063 93 134 224 
0.213318 -0.144976 0.807201 78 65 85 
0.208363 0.0618195 0.784125 95 67 82 
0.213067 -0.0937708 0.800591 81 67 92 
0.210794 0.0415786 0.782233 159 142 158 
0.212959 0.0915812 0.775911 142 124 140 
0.226144 -0.265497 0.814721 130 115 146 
0.22172 -0.172544 0.802485 76 64 84 
0.217716 0.0525095 0.777212 154 130 146 
0.220479 0.0385532 0.777434 75 57 69 
0.225143 -0.231471 0.806138 94 69 91 
0.219157 0.14078 0.763693 89 74 93 
0.223753 -0.032142 0.782279 88 64 86 
0.225117 -0.0488246 0.7837 84 68 95 
0.233607 -0.208894 0.800138 46 39 55 
0.223901 0.0128363 0.774209 126 107 127 
0.22185 0.122489 0.761496 81 62 81 
0.226129 0.0278565 0.771088 87 65 88 
0.229552 -0.0225309 0.776749 144 127 146 
0.22975 -0.0785321 0.781045 137 116 135 
0.225094 0.172103 0.752331 147 129 141 
0.234989 -0.111404 0.783308 72 50 71 
0.227076 0.191702 0.748098 129 114 137 
0.229904 0.114261 0.756341 80 54 67 
0.229403 0.151164 0.752125 91 69 92 
0.232921 0.0100113 0.767664 78 58 70 
0.240679 -0.269336 0.798581 85 61 85 
0.232224 0.161665 0.748244 94 74 99 
0.231157 0.177764 0.743666 148 131 150 
0.249778 -0.268094 0.787796 143 125 151 
0.23956 0.157687 0.741236 135 114 129 
0.252015 -0.0792167 0.761332 139 120 139 
0.252439 -0.0133704 0.752478 148 131 147 
0.251894 0.0326737 0.745493 146 125 142 
0.250845 0.103315 0.737907 97 72 94 
0.25564 -0.0580241 0.755592 72 51 68 
0.2511 0.0916302 0.738517 96 67 85 
0.257217 -0.162974 0.766203 104 78 105 
0.258719 -0.131633 0.763217 154 132 153 
0.25978 -0.187545 0.769019 96 82 108 
0.26749 -0.256909 0.771649 95 74 105 
0.259638 0.0571931 0.736672 62 44 70 
0.268614 -0.24507 0.769398 78 67 99 
0.263138 0.137337 0.722637 139 122 138 
0.268039 0.156757 0.716533 67 53 68 
0.280788 -0.245659 0.756923 94 67 98 
0.271714 0.110354 0.716749 129 106 116 
0.255859 0.215657 0.697068 123 107 117 
0.272921 0.199965 0.700339 86 77 104 
0.257961 0.232808 0.692977 13 20 30 
0.289529 -0.0596875 0.724232 81 67 102 
0.285445 0.134687 0.700652 133 112 127 
0.268565 0.229526 0.681286 15 26 44 
0.280573 0.203323 0.680996 143 133 157 
0.27581 0.222971 0.676299 178 194 254 
0.282139 0.232784 0.667856 97 95 100 
0.161812 -0.105158 0.848147 61 48 58 
0.172563 -0.186594 0.848301 127 113 136 
0.16405 0.10188 0.816454 71 52 72 
0.166955 0.0200067 0.825288 132 114 138 
0.168291 0.122016 0.810773 62 47 66 
0.167911 0.173093 0.804717 73 59 85 
0.179965 -0.214359 0.844844 92 63 83 
0.169646 0.203072 0.797602 116 107 138 
0.184344 -0.180162 0.836099 89 65 79 
0.178533 0.139802 0.796834 131 105 116 
0.177316 0.182119 0.791199 74 57 73 
0.179842 0.202238 0.789817 63 47 58 
0.181613 0.164986 0.792682 75 57 79 
0.184134 0.116557 0.798333 112 104 127 
0.192009 -0.106006 0.819632 55 34 51 
0.196086 0.0629677 0.793456 80 62 78 
0.217736 -0.0408332 0.786205 78 55 63 
0.239379 -0.144083 0.778514 87 70 88 
0.249824 -0.11931 0.766653 78 56 77 
0.24494 0.0581648 0.746258 89 66 86 
0.250071 0.0429887 0.743658 114 99 120 
0.267275 0.0283806 0.727989 135 114 133 
0.282428 -0.0394306 0.723707 83 61 74 
0.281646 0.189596 0.691837 118 105 122 
-0.319921 -0.118408 1.29911 73 58 79 
-0.315674 0.214735 1.24918 107 100 118 
-0.314694 -0.136747 1.29723 84 63 80 
-0.311987 0.0208318 1.27574 62 46 59 
-0.311397 -0.1193 1.29331 65 51 64 
-0.311065 -0.0265339 1.2798 132 120 142 
-0.310377 0.259716 1.23904 70 59 73 
-0.310647 0.123378 1.25792 129 118 134 
-0.309146 -0.155851 1.29457 90 65 86 
-0.308007 -0.0872139 1.28472 89 67 79 
-0.307611 0.213811 1.24095 115 112 133 
-0.305772 0.202238 1.24228 114 108 136 
-0.304922 -0.142614 1.2907 133 110 126 
-0.302944 -0.0575779 1.27688 69 56 66 
-0.301399 0.259279 1.22981 67 59 74 
-0.297172 0.215091 1.234 50 47 54 
-0.297605 -0.120498 1.27911 90 63 80 
-0.295831 0.172273 1.23792 80 70 94 
-0.29529 -0.143278 1.28121 130 109 126 
-0.295031 0.242045 1.22724 109 104 124 
-0.294558 0.259228 1.22181 71 64 82 
-0.293283 -0.0608067 1.26639 114 99 120 
-0.294039 0.26579 1.21427 104 94 102 
-0.292138 -0.0805529 1.26739 68 54 79 
-0.291625 -0.0947674 1.26955 130 113 132 
-0.290432 -0.106247 1.27133 140 123 141 
-0.288126 -0.119954 1.27181 63 51 61 
-0.288125 -0.146382 1.27397 75 57 69 
-0.286025 -0.158844 1.27574 73 54 73 
-0.286613 0.273981 1.19692 51 51 51 
-0.281985 -0.0936319 1.26072 136 129 145 
-0.281065 -0.111403 1.26531 54 38 49 
-0.281119 0.260207 1.2106 119 111 124 
-0.280143 0.0522968 1.24131 62 55 71 
-0.278193 0.242297 1.21366 112 110 131 
-0.276737 -0.160191 1.26761 76 54 67 
-0.275975 -0.14064 1.26338 78 55 63 
-0.275406 -0.101526 1.25922 122 101 118 
-0.276546 0.147671 1.22134 157 171 242 
-0.275856 -0.0598677 1.25106 98 90 114 
-0.273605 0.210555 1.21158 118 106 126 
-0.273372 -0.0946121 1.25177 145 127 141 
-0.272262 -0.110789 1.25515 125 111 128 
-0.272764 0.262609 1.19569 79 70 91 
-0.268587 0.0598539 1.23085 55 47 70 
-0.269538 0.123196 1.21962 22 27 46 
-0.268088 -0.165031 1.26122 68 49 55 
-0.267137 0.037626 1.23196 66 52 69 
-0.272852 0.280411 1.18225 32 31 29 
-0.267241 -0.0573386 1.24248 120 104 130 
-0.264883 -0.126771 1.25062 81 53 67 
-0.262394 -0.0897054 1.24182 67 52 75 
-0.26034 -0.11602 1.24662 70 47 55 
-0.260761 0.24142 1.19628 106 88 102 
-0.259407 0.210167 1.19951 38 35 46 
-0.257971 -0.0605097 1.23692 63 48 77 
-0.259285 0.257555 1.19103 42 44 57 
-0.250819 0.085083 1.20909 67 56 72 
-0.250321 -0.163247 1.24264 75 51 67 
-0.245782 -0.0914732 1.23017 80 57 75 
-0.248768 0.266561 1.16453 92 82 91 
-0.241035 -0.16737 1.23701 66 52 67 
-0.239265 0.228013 1.17847 61 44 54 
-0.237277 -0.086181 1.2178 81 59 72 
-0.237077 0.237608 1.17488 49 41 52 
-0.231746 -0.128699 1.22458 69 51 67 
-0.231718 -0.0630018 1.21079 120 116 143 
-0.230265 0.0783442 1.18961 109 92 111 
-0.227539 -0.124987 1.21584 109 93 104 
-0.225722 -0.159199 1.22233 56 42 55 
-0.227265 0.238899 1.16548 92 89 108 
-0.225211 -0.136349 1.2155 44 31 49 
-0.224949 0.255122 1.15968 41 39 52 
-0.223104 -0.0790798 1.20481 133 109 123 
-0.221836 -0.122845 1.2076 122 91 107 
-0.217399 -0.17531 1.21302 88 60 72 
-0.211431 -0.0978176 1.19726 79 55 69 
-0.20997 -0.130032 1.20085 87 64 82 
-0.202071 -0.118314 1.19353 47 34 51 
-0.201264 -0.130742 1.19398 92 75 85 
-0.200842 -0.0991184 1.18981 64 51 68 
-0.200607 -0.171358 1.19848 78 63 82 
-0.202089 0.0830299 1.16189 108 86 99 
-0.194189 -0.115831 1.18492 139 116 136 
-0.189194 -0.16666 1.188 74 47 64 
-0.183989 -0.120505 1.1768 57 44 51 
-0.181487 -0.155981 1.17904 86 69 87 
-0.180316 -0.166629 1.17901 62 50 60 
-0.177779 -0.131117 1.17007 125 107 123 
-0.164198 -0.129802 1.15926 137 115 136 
-0.160797 -0.169593 1.16228 56 34 46 
-0.155394 -0.0174389 1.13355 71 54 70 
-0.153724 -0.142744 1.15001 134 113 130 
-0.151763 -0.170762 1.15421 48 31 41 
-0.150592 -0.154376 1.15009 78 63 86 
-0.14284 -0.172229 1.14493 72 50 62 
-0.137993 -0.185919 1.14049 132 108 124 
-0.138187 -0.150427 1.13572 97 66 82 
-0.132958 -0.170253 1.13323 137 118 137 
-0.1247 -0.176982 1.12996 92 68 84 
-0.125088 -0.164762 1.12463 91 62 80 
-0.118594 -0.174769 1.1217 95 72 88 
-0.110555 -0.175234 1.11568 73 50 76 
0.0812597 -0.236879 0.943076 92 63 83 
0.0920345 -0.235649 0.934179 76 54 75 
0.0974915 -0.246095 0.928477 109 75 100 
0.101034 -0.189003 0.91951 134 119 140 
0.101565 -0.215135 0.921032 100 66 90 
0.103652 -0.228217 0.921416 100 68 89 
0.112185 -0.228834 0.91432 97 74 103 
0.112352 -0.16311 0.905988 138 121 140 
0.117888 -0.125225 0.893146 143 129 152 
0.121723 -0.219312 0.902462 98 70 92 
0.123856 -0.0452194 0.877879 140 112 127 
0.13724 -0.125939 0.87569 97 64 83 
0.166362 0.0439607 0.825014 98 65 76 
0.167762 0.0845928 0.818302 79 56 76 
0.176413 -0.136048 0.840715 84 59 81 
0.178172 0.0448415 0.814472 143 124 143 
0.18217 -0.0315885 0.820921 94 65 83 
0.18165 0.0067538 0.815475 144 122 145 
0.181357 0.105444 0.804065 78 62 88 
0.180855 0.0855395 0.805162 132 111 128 
0.192546 0.0511433 0.800968 89 70 89 
0.189297 0.196305 0.785117 50 32 44 
0.192784 0.14443 0.788319 81 75 103 
0.203517 -0.211023 0.825623 130 121 142 
0.199324 -0.0501611 0.807113 90 63 80 
0.196867 0.0903912 0.791984 136 123 141 
0.198197 0.119161 0.785431 86 73 101 
0.200864 0.0818668 0.786607 133 114 133 
0.200803 0.206564 0.770428 104 76 91 
0.206991 0.138956 0.773084 142 118 132 
0.208769 0.179401 0.765918 87 66 83 
0.22137 -0.206174 0.80731 135 116 136 
0.23004 0.0366661 0.765839 121 97 113 
0.226534 0.138493 0.752782 71 60 68 
0.239794 -0.133149 0.781498 88 61 80 
0.233932 0.122086 0.749999 94 66 80 
0.242745 0.00701661 0.758284 92 68 81 
0.252259 -0.231237 0.780829 140 118 131 
0.255728 0.175124 0.72346 93 68 90 
0.287781 -0.221652 0.746507 102 77 96 
-0.253792 -0.095326 1.23531 71 53 65 
-0.24269 -0.11692 1.22875 73 48 54 
-0.210629 0.015665 1.17927 94 78 88 
-0.193749 -0.0823791 1.17909 66 48 64 
0.15417 -0.0451365 0.848808 149 124 145 
0.27401 -0.0891555 0.742694 105 73 94 
-0.351143 0.196866 1.28303 145 164 204 
-0.347589 0.175315 1.2848 93 88 118 
-0.347394 0.105147 1.29367 94 97 132 
-0.345162 0.139594 1.28779 94 81 99 
-0.345463 0.090889 1.29393 111 93 115 
-0.345753 0.0309397 1.30336 69 72 113 
-0.333324 0.100636 1.28159 80 70 97 
-0.344093 -0.184174 1.32987 174 191 237 
-0.340061 -0.147946 1.32351 118 103 126 
-0.311128 -0.186215 1.30209 77 55 76 
-0.30727 -0.243547 1.30586 126 107 126 
-0.299269 -0.0526424 1.27062 127 109 131 
-0.301019 -0.189152 1.29228 138 114 130 
-0.298958 -0.240594 1.29644 76 57 76 
-0.286918 -0.138271 1.2718 92 72 84 
-0.282369 -0.188801 1.27576 52 37 56 
-0.274289 -0.146716 1.2618 57 37 46 
-0.265297 -0.216667 1.26457 133 115 137 
-0.240803 -0.195123 1.23846 77 53 66 
-0.226772 -0.197239 1.22734 70 46 62 
-0.22475 -0.225025 1.22776 58 40 52 
-0.213862 -0.225165 1.2183 74 48 59 
-0.203346 -0.226279 1.20756 74 57 67 
-0.200795 -0.244788 1.20787 133 119 136 
-0.189663 -0.226022 1.19535 73 56 72 
0.0844908 -0.195197 0.932499 89 68 85 
0.101711 -0.24202 0.921618 99 68 76 
0.104863 -0.134102 0.906252 141 117 133 
0.105843 -0.117759 0.901035 108 74 88 
0.107748 -0.154394 0.905062 88 57 73 
0.107374 -0.0691253 0.893401 101 69 82 
0.111692 -0.135977 0.898578 134 110 126 
0.119568 -0.151969 0.892493 88 64 78 
0.150109 0.0472988 0.839284 77 54 64 
0.156175 0.0118728 0.836588 116 100 126 
0.160247 -0.0207274 0.837314 136 106 116 
0.158267 0.118788 0.817886 71 49 61 
0.162076 0.191085 0.806319 93 78 97 
0.16521 0.143196 0.809987 61 46 69 
0.173113 0.128947 0.80376 140 123 142 
0.272104 0.00529295 0.727827 73 52 69 
0.281876 0.02662 0.714115 129 105 119 
0.284097 -0.00889258 0.71784 131 106 125 
0.277122 0.156548 0.699208 63 41 53 
0.28348 0.05464 0.709574 65 44 59 
-0.322576 0.17308 1.2599 123 113 138 
-0.321063 0.259824 1.24724 71 67 84 
-0.322133 -0.0851278 1.2944 99 75 99 
-0.322469 -0.141971 1.30262 95 66 84 
-0.320812 -0.0952925 1.29464 84 67 86 
-0.272259 0.238101 1.20709 53 44 61 
-0.257589 0.27047 1.16784 35 36 40 
-0.220117 -0.147839 1.21015 71 54 73 
-0.211407 -0.194082 1.21024 72 53 73 
-0.183202 -0.200916 1.18377 75 62 79 
-0.162008 -0.206762 1.1661 97 63 80 
-0.146346 -0.21488 1.14955 66 52 67 
-0.108057 -0.208896 1.11479 87 61 90 
0.0962348 -0.225126 0.925477 96 66 94 
0.116444 -0.11644 0.890948 105 73 96 
0.151873 0.0681312 0.834583 120 105 124 
0.158464 -0.223651 0.865539 103 74 96 
0.174766 -0.221088 0.850464 104 76 99 
0.168908 0.182503 0.801406 73 52 69 
0.175666 0.115395 0.802596 96 73 93 
0.186833 0.155017 0.788949 136 132 155 
0.189611 0.165478 0.785997 80 66 91 
0.210378 -0.0313422 0.793367 68 54 71 
0.223288 -0.185944 0.801964 61 49 73 
0.219779 0.199509 0.747942 149 126 144 
0.257468 -0.00871004 0.7426 138 117 134 
0.263988 -0.117799 0.750387 97 72 94 
0.274071 0.135247 0.706694 145 118 133 
0.284091 -0.203468 0.743179 144 123 142 
0.277087 0.0748994 0.712042 147 121 130 
-0.213849 -0.1641 1.20968 77 54 72 
0.11294 -0.207532 0.907664 95 68 87 
0.137791 -0.0449224 0.862919 78 50 62 
0.142618 -0.237791 0.884946 113 82 98 
0.213797 -0.190366 0.81102 135 113 136 
0.230508 -0.0544327 0.7787 82 51 66 
0.239938 0.133216 0.740789 140 119 136 
0.253141 -0.0402011 0.753017 94 66 88 
-0.173854 -0.0439916 1.15465 63 46 62 
-0.39546 -0.150578 1.36656 103 115 153 
-0.395332 -0.181351 1.36967 86 95 126 
-0.390519 -0.274146 1.38039 32 39 91 
-0.342441 -0.03738 1.31072 109 86 112 
-0.340492 -0.120905 1.32393 114 96 118 
-0.339808 -0.212995 1.33309 77 72 112 
-0.338018 -0.192827 1.3303 115 97 121 
-0.339735 -0.24364 1.3383 79 77 116 
-0.337008 -0.159389 1.32718 105 85 113 
-0.338966 -0.299044 1.34519 93 98 140 
-0.330754 -0.140098 1.3147 79 58 77 
-0.330995 -0.109322 1.31901 113 90 118 
-0.29629 -0.187884 1.28905 68 43 64 
-0.284633 -0.273282 1.29481 126 108 124 
-0.284436 -0.30531 1.2942 137 113 127 
-0.269864 -0.272415 1.27457 124 109 128 
-0.271301 -0.303934 1.28269 88 64 88 
-0.259635 -0.220565 1.2616 82 59 77 
-0.254326 -0.246685 1.26058 76 62 75 
-0.248648 -0.308284 1.26367 74 47 62 
-0.247355 -0.271103 1.25678 72 51 70 
-0.245617 -0.221175 1.24916 128 109 128 
-0.243192 -0.18204 1.24048 59 41 57 
-0.236724 -0.22127 1.24057 130 107 123 
-0.234534 -0.293016 1.24887 69 54 73 
-0.225958 -0.250077 1.23385 77 50 67 
-0.210039 -0.293127 1.22647 86 61 82 
-0.199702 -0.293383 1.21536 84 61 81 
-0.199267 -0.27813 1.21672 70 52 64 
-0.199012 -0.318783 1.21886 73 52 67 
-0.188724 -0.276777 1.2043 78 59 78 
-0.188378 -0.319407 1.20921 82 61 80 
-0.177506 -0.31263 1.19811 86 61 82 
-0.176536 -0.277267 1.19162 71 55 68 
-0.168902 -0.29655 1.18829 73 55 77 
-0.164956 -0.305015 1.18406 78 60 76 
-0.162677 -0.230559 1.17346 70 56 71 
-0.152994 -0.232661 1.16401 51 34 44 
-0.148996 -0.273208 1.16514 80 66 89 
-0.134739 -0.300148 1.15404 72 57 78 
-0.119843 -0.263292 1.13831 63 46 64 
-0.110024 -0.303631 1.13351 91 65 90 
-0.10319 -0.284805 1.1256 74 60 85 
-0.0975173 -0.287806 1.11749 71 52 71 
-0.0854002 -0.307274 1.10926 53 39 56 
-0.0818691 -0.293328 1.10583 58 46 68 
-0.0580886 -0.291072 1.08275 68 54 71 
-0.0309988 -0.291998 1.05564 56 34 55 
0.00545771 -0.296921 1.02008 117 95 108 
0.0346491 -0.265732 0.991441 93 69 93 
0.0357421 -0.276361 0.992379 96 82 99 
0.045065 -0.251879 0.978309 93 63 75 
0.0457773 -0.281682 0.983486 93 71 92 
0.0558509 -0.253567 0.970571 93 59 76 
0.0680283 -0.278614 0.963921 80 58 71 
0.0698189 -0.223679 0.953512 93 65 88 
0.076954 -0.256099 0.952689 95 72 92 
0.0834881 -0.25398 0.945426 125 117 140 
0.0910205 -0.253698 0.935431 85 76 93 
0.0974321 -0.284174 0.935907 77 55 68 
0.104637 -0.257592 0.924316 94 65 85 
0.110297 -0.279042 0.922376 76 57 85 
0.106875 -0.0403591 0.89345 73 49 65 
0.115352 -0.259391 0.916309 95 72 92 
0.126371 -0.259116 0.905275 59 42 58 
0.13042 -0.274285 0.902209 127 111 137 
0.134693 -0.259901 0.896331 102 70 85 
0.142495 -0.281634 0.89185 100 75 97 
0.143976 -0.258626 0.88874 131 119 143 
0.142052 0.0835638 0.840832 73 48 67 
0.14726 0.0952218 0.836876 128 115 141 
0.161995 -0.263019 0.871798 82 54 68 
0.151557 0.106615 0.828392 128 113 132 
0.154847 0.0887156 0.827685 72 50 62 
0.160075 0.019953 0.833884 134 117 136 
0.171301 -0.26622 0.863977 74 51 67 
0.174041 -0.280712 0.863146 80 54 79 
0.179975 -0.265463 0.855181 84 61 77 
0.197167 -0.274278 0.838644 93 67 94 
0.204713 -0.264911 0.831568 76 58 84 
0.227892 -0.274297 0.809757 67 55 77 
-0.345994 0.00337733 1.30434 88 96 135 
-0.342848 0.0124063 1.30076 99 85 118 
-0.344448 -0.101382 1.31529 107 116 155 
-0.341161 -0.211868 1.32912 61 68 112 
-0.339416 -0.234865 1.33023 104 88 115 
-0.33791 -0.191815 1.32398 118 96 119 
-0.335893 -0.159554 1.32641 98 81 113 
-0.333372 -0.137336 1.31091 71 53 75 
-0.329475 -0.2118 1.31749 127 109 131 
-0.322445 -0.142035 1.30282 92 65 82 
-0.320626 -0.244125 1.31637 82 59 87 
-0.313931 -0.145511 1.29635 138 116 128 
-0.314523 -0.215977 1.30456 123 109 134 
-0.270041 -0.193162 1.26532 81 60 75 
-0.258904 0.057879 1.21639 61 47 64 
-0.25327 -0.225325 1.25372 66 58 71 
-0.243219 -0.224645 1.24409 61 40 47 
-0.235478 -0.223769 1.23445 67 46 53 
-0.178382 -0.22701 1.18008 81 53 65 
-0.15043 -0.202701 1.15132 89 65 81 
-0.146224 -0.222787 1.14944 73 58 81 
-0.126242 -0.234475 1.13288 78 54 76 
-0.115966 -0.23476 1.12193 76 54 75 
-0.106754 -0.235607 1.11504 134 122 142 
0.0558174 -0.23381 0.960902 135 114 133 
0.0685778 -0.192211 0.934374 66 31 37 
0.119124 -0.228393 0.902276 75 54 73 
0.128498 -0.0863435 0.873196 88 70 92 
0.13197 -0.179064 0.88303 138 117 136 
0.142809 -0.103078 0.862982 133 118 141 
0.161337 -0.201479 0.859517 88 61 76 
0.162026 -0.239305 0.861127 95 64 79 
0.15342 0.208475 0.807837 104 103 119 
0.150664 0.198354 0.804738 111 95 121 
0.159138 0.00219621 0.830711 90 63 80 
0.166282 -0.135962 0.849422 54 37 47 
0.159792 0.128183 0.813373 120 97 115 
0.178478 -0.102568 0.828579 133 124 145 
0.176674 0.148864 0.793856 137 122 143 
0.201984 -0.175916 0.814932 88 57 75 
0.200097 0.0103303 0.795397 76 59 75 
0.218807 0.0882798 0.763898 120 101 120 
0.205387 0.216431 0.739152 66 57 76 
0.231864 -0.217003 0.791217 143 122 137 
0.254415 0.00611407 0.743548 72 55 73 
0.261921 0.216889 0.686979 17 22 42 
-0.321753 0.135596 1.26282 89 71 93 
-0.327984 -0.184928 1.31355 76 58 80 
0.19088 0.151907 0.781453 127 110 129 
-0.472915 0.204039 1.40019 88 102 151 
-0.430668 0.260822 1.32806 127 145 185 
-0.415223 0.263755 1.31222 20 31 49 
-0.415377 0.236689 1.31912 37 47 74 
-0.409256 0.256786 1.31956 15 22 38 
-0.411735 0.109327 1.3375 33 48 77 
-0.406838 0.246187 1.3204 23 28 48 
-0.407568 0.229526 1.3235 36 43 69 
-0.400152 0.283119 1.30888 119 107 127 
-0.402984 0.26454 1.31977 65 71 93 
-0.402586 0.175154 1.33013 93 108 141 
-0.4028 0.161256 1.3323 97 108 138 
-0.401678 0.136113 1.33494 96 102 134 
-0.403227 0.0858897 1.34221 32 42 69 
-0.397779 0.253603 1.32427 114 126 164 
-0.401003 0.106036 1.33964 90 98 135 
-0.375509 0.283452 1.2711 65 63 76 
-0.398547 -0.0515181 1.36016 99 108 149 
-0.395295 -0.0399603 1.35956 126 134 173 
-0.36661 0.28675 1.25866 63 67 94 
-0.393953 -0.378279 1.40153 98 111 146 
-0.349573 0.184425 1.29288 102 93 114 
-0.3481 0.119128 1.3006 103 89 112 
-0.34629 0.0612919 1.30646 114 95 114 
-0.347749 0.00341853 1.31614 97 102 142 
-0.343972 0.0121288 1.31051 103 88 121 
-0.343476 -0.0599846 1.32171 100 83 102 
-0.338991 -0.255219 1.3445 111 93 119 
-0.329656 -0.0552262 1.30925 66 53 70 
-0.33721 -0.334048 1.35428 104 86 112 
-0.339196 -0.401404 1.36603 116 125 168 
-0.336576 -0.368195 1.35919 118 95 123 
-0.306966 0.0634139 1.26762 79 65 88 
-0.311272 -0.300834 1.32611 91 65 78 
-0.287798 0.168516 1.23503 117 106 123 
-0.292646 -0.252107 1.30199 80 65 88 
-0.283868 -0.221203 1.28921 82 64 86 
-0.279963 -0.382829 1.30993 84 69 88 
-0.272704 -0.272921 1.29622 75 58 74 
-0.259802 -0.270104 1.27313 64 50 65 
-0.256393 -0.334118 1.281 130 116 129 
-0.256049 -0.360698 1.2842 82 58 80 
-0.240376 -0.00968753 1.22012 69 51 75 
-0.230535 0.0779784 1.18514 109 90 109 
-0.235233 -0.252447 1.24921 90 60 70 
-0.236328 -0.362389 1.26449 87 62 81 
-0.230589 -0.2739 1.24705 84 57 76 
-0.230848 -0.327844 1.2553 134 117 136 
-0.224518 -0.295013 1.24483 86 64 85 
-0.214112 -0.274658 1.23029 86 59 76 
-0.213298 -0.360082 1.24334 128 113 132 
-0.189069 -0.342145 1.22098 80 58 71 
-0.184435 -0.255127 1.20146 78 56 69 
-0.181606 -0.343398 1.21372 75 51 67 
-0.15935 -0.344473 1.19212 76 48 71 
-0.143977 -0.343859 1.17262 82 58 71 
-0.141853 -0.236774 1.16032 70 47 63 
-0.125626 -0.320684 1.15799 84 59 81 
-0.122361 -0.287185 1.14845 70 53 71 
-0.120332 -0.344636 1.15609 79 57 78 
-0.117224 -0.321155 1.14926 91 68 94 
-0.100004 -0.323379 1.13329 78 58 69 
-0.0870434 -0.323808 1.12004 84 61 77 
-0.0726442 -0.291795 1.10364 66 52 67 
-0.0654391 -0.31032 1.10112 120 111 132 
-0.0652622 -0.326655 1.1044 80 62 76 
-0.0601626 -0.325135 1.09519 80 59 74 
-0.0581536 -0.312291 1.09098 76 53 69 
-0.0445022 -0.312816 1.07866 71 48 68 
-0.0383453 -0.309277 1.05953 52 28 44 
-0.036314 -0.317075 1.05371 192 195 202 
-0.0290692 -0.299494 1.04537 155 143 121 
-0.0226183 -0.314407 1.04113 60 63 68 
-0.0164787 -0.310461 1.03328 55 97 113 
-0.0152352 -0.296693 1.03663 38 24 24 
-0.00905657 -0.307781 1.02669 130 119 101 
0.0162199 -0.294378 1.01975 136 117 139 
0.0279616 -0.299635 1.00686 82 59 77 
0.035271 -0.256431 0.99581 78 52 77 
0.0525722 -0.301833 0.986776 80 55 77 
0.0581161 -0.224942 0.97056 79 55 77 
0.0629728 -0.256065 0.970585 91 62 80 
0.0694287 -0.202103 0.947819 140 118 141 
0.0700376 -0.186643 0.946405 37 20 26 
0.0784157 -0.281263 0.960139 86 59 74 
0.0903888 -0.178931 0.93305 86 57 79 
0.090942 -0.152825 0.927848 87 59 71 
0.104709 -0.0989585 0.914054 69 45 58 
0.149084 -0.0182084 0.854961 75 48 63 
0.159013 -0.169142 0.867043 88 63 84 
0.146054 0.224938 0.805286 61 58 69 
0.152457 0.154424 0.82436 65 34 39 
0.155067 0.123837 0.832491 126 122 147 
0.158487 0.202147 0.820223 112 98 124 
0.171414 -0.0180094 0.838509 75 52 68 
0.240439 -0.177131 0.792465 79 60 79 
0.258099 -0.0268764 0.75511 34 29 36 
-0.405461 0.2867 1.29702 32 31 39 
-0.39325 0.168382 1.3297 142 157 200 
-0.361935 0.283843 1.26092 24 29 48 
-0.357589 0.227901 1.2793 147 166 206 
-0.355248 0.269621 1.26756 85 76 105 
-0.352421 0.27579 1.25366 122 109 119 
-0.355473 0.26242 1.27454 148 162 199 
-0.354696 0.248223 1.27646 77 86 115 
-0.352298 0.0995537 1.29327 161 175 222 
-0.351669 0.219198 1.27914 147 167 204 
-0.347237 0.160814 1.28385 103 88 109 
-0.34618 0.202811 1.28036 95 87 111 
-0.343844 -0.280389 1.333 176 189 241 
-0.344495 -0.101596 1.31726 112 120 159 
-0.338851 0.276257 1.24172 73 61 83 
-0.341698 -0.0146849 1.30854 117 96 115 
-0.341578 0.0261157 1.30687 100 85 118 
-0.338949 0.239579 1.26535 49 40 57 
-0.340342 -0.268515 1.33711 99 108 149 
-0.336155 0.216899 1.26579 39 34 54 
-0.333386 -0.270168 1.32899 123 99 112 
-0.329901 0.269329 1.24434 117 106 122 
-0.329494 -0.212132 1.31926 131 111 136 
-0.327995 -0.185091 1.31413 91 72 94 
-0.323033 0.213167 1.25147 117 108 135 
-0.322647 0.173006 1.25987 125 115 140 
-0.321753 0.135626 1.26288 92 78 104 
-0.322447 -0.142083 1.30308 100 69 87 
-0.314517 -0.216314 1.30633 130 116 141 
-0.313781 -0.273468 1.3133 131 124 142 
-0.301489 -0.300178 1.30544 95 66 86 
-0.300381 -0.0287109 1.26622 85 63 86 
-0.295103 -0.288022 1.30075 94 66 80 
-0.285799 -0.260993 1.28654 98 74 98 
-0.265198 -0.308887 1.27336 83 64 84 
-0.258845 0.0579149 1.21747 68 51 67 
-0.244997 -0.290198 1.25249 83 64 84 
-0.218199 -0.302917 1.22881 132 119 139 
-0.209695 -0.117546 1.1942 76 52 65 
-0.205092 -0.248227 1.20903 89 68 85 
-0.16983 -0.28274 1.18042 79 65 78 
-0.160331 -0.293433 1.17502 128 111 130 
-0.146087 -0.222991 1.15024 74 56 80 
-0.135369 -0.25242 1.14367 130 112 134 
-0.126247 -0.234466 1.13285 80 56 78 
-0.102727 -0.265548 1.11552 76 55 74 
-0.0934864 -0.306461 1.11187 75 59 85 
-0.048285 -0.291279 1.06891 84 68 94 
-0.0403002 -0.289955 1.05913 83 48 68 
0.0232513 -0.274682 0.997387 138 123 144 
0.0568242 -0.284823 0.968444 81 63 87 
0.0702091 -0.204175 0.941239 104 82 103 
0.119085 -0.228368 0.902207 74 53 70 
0.119463 -0.206884 0.897659 92 65 82 
0.127692 -0.198872 0.890468 94 66 88 
0.126071 -0.149461 0.885548 134 112 133 
0.128602 -0.086364 0.873362 89 74 93 
0.140622 -0.0996247 0.863569 78 64 87 
0.145633 -0.18504 0.870088 76 49 66 
0.146726 -0.166784 0.867343 89 65 79 
0.138037 0.0465603 0.847033 64 41 59 
0.153318 -0.266904 0.874236 93 62 80 
0.146022 -0.0717997 0.856134 68 47 54 
0.143264 0.0671129 0.838195 72 48 62 
0.160017 -0.225534 0.861063 96 67 87 
0.161038 -0.201335 0.859076 89 62 79 
0.155463 -0.0111611 0.835857 103 74 94 
0.147216 0.196119 0.816732 57 41 52 
0.146978 0.209736 0.814418 54 48 60 
0.150624 0.168574 0.816523 108 100 123 
0.166243 -0.135946 0.849366 52 37 44 
0.155991 0.185293 0.811018 58 40 56 
0.169519 -0.0858346 0.835004 78 61 80 
0.157302 0.208242 0.804451 57 50 66 
0.178022 -0.184389 0.841213 84 72 92 
0.161315 0.167771 0.806513 122 117 137 
0.163621 0.128719 0.809688 115 106 123 
0.184239 -0.240232 0.842072 69 54 75 
0.179005 -0.102711 0.829292 134 125 146 
0.172344 0.166589 0.798457 128 120 144 
0.173616 0.195555 0.792918 46 30 41 
0.176666 0.148849 0.793846 133 120 138 
0.180623 0.0756418 0.800863 91 65 74 
0.19536 -0.17905 0.821501 134 122 146 
0.192368 -0.0647235 0.810077 75 61 76 
0.20191 -0.175856 0.814832 85 56 76 
0.19944 0.0103201 0.794589 80 63 81 
0.208742 -0.169114 0.807072 129 112 131 
0.205032 -0.0492131 0.796079 133 114 133 
0.194541 0.187193 0.772554 131 110 129 
0.195937 0.196799 0.771136 138 115 135 
0.220143 -0.237612 0.807745 81 61 86 
0.202146 0.166736 0.767451 137 127 154 
0.224022 -0.175403 0.797056 59 46 64 
0.217366 -0.0530606 0.78489 80 54 65 
0.205614 0.195494 0.761744 115 105 129 
0.218762 0.0882915 0.763846 118 103 122 
0.233862 -0.214332 0.788893 88 61 80 
0.216006 0.204245 0.748969 82 78 103 
0.221251 0.195265 0.74975 67 61 73 
0.25207 -0.150965 0.763447 81 57 71 
0.253819 -0.120147 0.759101 94 69 91 
0.237208 0.18753 0.731711 140 116 132 
0.259162 -0.176343 0.762481 53 35 51 
0.242584 0.135284 0.734606 74 56 70 
0.252557 -0.00150009 0.744873 73 56 74 
0.249627 0.0536923 0.740029 122 100 113 
0.28101 -0.184678 0.740634 153 130 150 
0.283031 -0.202061 0.741281 93 69 95 
0.262924 0.190709 0.708843 120 116 139 
0.272894 0.0660539 0.716648 137 114 122 
-0.351135 0.261591 1.27289 57 63 97 
-0.343282 -0.112026 1.31542 117 115 154 
0.163099 -0.0302341 0.833429 63 45 57 
-0.199857 -0.124983 1.18757 132 111 126 
-0.404722 -0.482794 1.42284 32 47 76 
-0.390417 -0.481171 1.42177 45 47 98 
-0.348159 0.15226 1.32072 91 81 105 
-0.34917 -0.051332 1.34338 101 88 108 
-0.346832 -0.11084 1.34775 104 90 115 
-0.339151 -0.180113 1.34797 104 87 119 
-0.333916 -0.05612 1.32839 66 52 67 
-0.339556 -0.277955 1.36314 116 92 108 
-0.340835 -0.326347 1.37082 121 96 118 
-0.334723 -0.31077 1.35643 111 88 108 
-0.337719 -0.222153 1.35964 107 91 117 
-0.33656 -0.418943 1.37264 120 100 127 
-0.336785 -0.396256 1.37446 122 99 117 
-0.307864 -0.406095 1.34595 89 65 89 
-0.303657 -0.459869 1.34679 87 64 82 
-0.271186 -0.223357 1.29053 81 62 81 
-0.243499 -0.409908 1.2839 64 50 63 
-0.23621 -0.253688 1.25542 83 57 68 
-0.227566 -0.349106 1.26119 75 54 71 
-0.225115 -0.387665 1.26245 78 61 79 
-0.218824 -0.411635 1.26139 85 63 84 
-0.213473 -0.360321 1.24456 117 102 123 
-0.190815 -0.391497 1.23034 73 52 69 
-0.185184 -0.388949 1.21936 78 64 79 
-0.184747 -0.367333 1.22246 82 59 79 
-0.17005 -0.366187 1.20641 69 45 67 
-0.168438 -0.391545 1.20773 80 55 77 
-0.160235 -0.36264 1.19457 130 106 128 
-0.153448 -0.344629 1.18839 74 53 70 
-0.151506 -0.374554 1.19174 62 44 58 
-0.148996 -0.419507 1.19259 73 52 71 
-0.138801 -0.364529 1.17689 68 50 72 
-0.118806 -0.378125 1.15825 73 50 78 
-0.11698 -0.344657 1.15128 72 54 68 
-0.113305 -0.318885 1.14524 123 110 130 
-0.108013 -0.36836 1.14555 74 50 72 
-0.100319 -0.39805 1.14413 72 58 75 
-0.0889716 -0.347669 1.1261 80 55 77 
-0.0866842 -0.365033 1.12583 55 41 58 
-0.0756415 -0.378901 1.11714 76 57 77 
-0.0580314 -0.351971 1.09748 55 36 55 
-0.0357762 -0.332873 1.05473 163 149 140 
-0.0334986 -0.317291 1.0512 171 174 193 
-0.029633 -0.344375 1.04805 68 33 37 
-0.0288304 -0.328702 1.04799 163 141 143 
-0.0240667 -0.338432 1.04164 197 188 159 
-0.0214389 -0.304525 1.03671 70 104 113 
-0.0197621 -0.326956 1.03831 148 135 118 
-0.0172901 -0.345524 1.03527 125 124 155 
-0.0178747 -0.354804 1.04167 154 142 130 
-0.013605 -0.332432 1.03227 138 134 122 
-0.0134263 -0.319541 1.03151 121 140 183 
-0.00743452 -0.332374 1.0243 161 148 142 
-0.00635478 -0.345742 1.02531 88 35 41 
-0.00538934 -0.310473 1.01995 192 186 170 
-0.00123613 -0.321868 1.01741 95 85 76 
0.00148646 -0.338822 1.02574 57 45 57 
0.0107803 -0.315041 1.02224 53 34 53 
0.016038 -0.293522 1.01689 127 109 131 
0.0206361 -0.345173 1.02052 83 63 90 
0.0264792 -0.33567 1.01472 124 106 130 
0.0268888 -0.319018 1.01092 64 46 68 
0.0326068 -0.300708 1.00194 47 29 43 
0.0329387 -0.313849 1.00387 117 99 125 
0.0553581 -0.300365 0.980973 64 39 61 
0.0595544 -0.222971 0.967388 129 111 137 
0.0639101 -0.335758 0.977503 75 60 81 
0.0740099 -0.318219 0.965471 58 40 54 
0.077929 -0.280148 0.956502 76 52 66 
0.0794648 -0.300966 0.957053 127 110 128 
0.0897574 -0.321362 0.95 75 51 75 
0.0889771 -0.0678178 0.920367 60 42 54 
0.0937149 -0.30266 0.94385 63 40 58 
0.102207 -0.301185 0.934641 119 110 137 
0.110949 -0.30251 0.927777 80 58 79 
0.119026 -0.30309 0.919578 81 60 79 
0.126448 -0.304485 0.91151 81 56 77 
0.149355 -0.291135 0.88986 81 57 71 
0.152994 -0.0156007 0.852247 121 109 133 
0.170666 -0.290603 0.869899 59 38 57 
0.180077 -0.279643 0.857427 162 149 177 
0.290338 -0.115941 0.731425 63 43 55 
0.283375 0.1105 0.70558 54 38 51 
0.296572 -0.155982 0.738556 76 55 60 
0.297232 -0.121211 0.737297 82 62 74 
0.293809 -0.03915 0.724537 79 54 76 
0.297218 -0.0165892 0.722094 78 57 72 
0.295245 0.0506034 0.716408 60 35 41 
0.295553 0.067686 0.711776 135 108 123 
-0.31158 -0.147 1.31397 67 43 59 
-0.287652 -0.188396 1.29452 129 111 133 
-0.242861 -0.19772 1.25487 75 53 65 
0.154444 0.0156078 0.847535 57 45 57 
0.160602 0.196085 0.819234 48 33 40 
0.188972 -0.265682 0.849316 69 51 73 
0.256147 -0.218777 0.778156 80 53 72 
0.191033 -0.171552 0.833547 63 50 60 
-0.0411202 -0.0732539 0.988101 44 18 19 
-0.173601 0.00241896 1.15845 134 103 118 
-0.263094 0.263081 1.22161 61 55 67 
-0.252446 -0.0808098 1.25872 86 67 95 
-0.233978 -0.0526436 1.2382 90 65 94 
-0.222246 0.194986 1.19436 115 93 106 
-0.206155 0.00641664 1.20621 136 115 134 
-0.19582 0.246693 1.16269 19 18 23 
-0.168394 -0.145464 1.19321 90 67 85 
-0.270259 -0.0214245 1.28765 91 68 94 
-0.26702 -0.000568991 1.28195 89 70 98 
-0.267375 0.18413 1.25669 74 65 84 
-0.248064 0.0957695 1.25386 72 58 83 
-0.24638 0.0747881 1.25198 136 119 129 
-0.237203 0.204878 1.22518 120 106 131 
-0.232031 0.237121 1.21621 59 52 68 
-0.223037 -0.110678 1.25789 79 59 71 
-0.220633 0.0928657 1.22796 63 48 53 
-0.215597 0.170877 1.21212 96 82 97 
-0.210428 -0.0781015 1.24036 95 67 90 
-0.199199 0.228834 1.18769 60 41 47 
-0.190263 0.189179 1.18763 84 81 92 
-0.188064 0.264729 1.16737 54 43 59 
-0.18297 0.18941 1.18017 93 81 103 
-0.182009 -0.00144457 1.20377 97 67 77 
-0.173632 0.168042 1.17491 100 95 117 
-0.163326 0.0193702 1.18488 139 118 137 
-0.162702 0.107513 1.17402 37 27 35 
-0.157845 0.0113915 1.18092 94 66 88 
-0.141598 -0.11597 1.18462 132 115 134 
0.344135 -0.16081 0.746031 94 69 99 
0.350187 0.000443175 0.71964 109 85 111 
0.350479 0.0150271 0.712791 182 199 242 
-0.27896 0.00100531 1.27298 93 74 102 
-0.278888 -0.0556778 1.27943 84 66 90 
-0.252379 -0.0808182 1.25882 86 67 95 
-0.245944 0.154119 1.22073 76 62 85 
-0.236162 -0.107484 1.24923 81 57 71 
-0.206145 0.00638031 1.20623 136 115 134 
-0.195735 0.146722 1.17687 55 42 52 
-0.195539 0.246743 1.16306 19 18 23 
-0.278575 -0.0484288 1.28912 84 74 99 
-0.274762 -0.0208253 1.28187 91 68 94 
-0.256711 -0.0333646 1.26629 125 105 132 
-0.225622 0.0924461 1.2227 63 48 53 
-0.215484 -0.0769956 1.23504 95 67 90 
-0.204568 0.227182 1.18264 60 41 47 
-0.19553 0.187924 1.18276 84 81 92 
-0.19346 0.262712 1.16259 54 43 59 
-0.188322 0.188129 1.17536 93 81 103 
-0.187349 -0.000987233 1.19876 97 67 77 
-0.179086 0.166951 1.17014 100 95 117 
-0.168663 0.0196308 1.18021 139 118 137 
-0.163661 0.0117682 1.17591 94 66 88 
-0.156926 0.00281124 1.17221 67 52 75 
-0.286023 0.098294 1.26792 40 37 56 
-0.286836 0.14375 1.26079 50 47 68 
-0.284438 -0.00378937 1.27936 115 100 119 
-0.284685 0.0102223 1.27656 87 73 99 
-0.284098 -0.0766394 1.28711 111 97 122 
-0.286192 0.175634 1.25599 72 64 87 
-0.284618 -0.0294069 1.28114 117 105 129 
-0.286643 0.210654 1.25116 119 110 137 
-0.287944 0.266955 1.24336 122 115 131 
-0.283575 -0.0580293 1.28455 103 99 122 
-0.284964 0.247247 1.24527 107 104 125 
-0.282035 0.0238385 1.27256 117 107 132 
-0.284116 0.193386 1.25058 66 62 77 
-0.28242 0.221575 1.24561 119 106 123 
-0.27905 -0.0125863 1.27377 82 63 83 
-0.278249 -0.0457993 1.27742 74 60 85 
-0.277292 0.122112 1.25608 109 103 131 
-0.275479 0.0331993 1.26469 123 103 130 
-0.274631 0.00574715 1.26806 84 67 86 
-0.274639 0.0618681 1.26149 60 47 67 
-0.274315 -0.0299837 1.27177 109 94 115 
-0.275555 0.158621 1.24734 97 92 115 
-0.272997 0.0186475 1.26454 81 59 82 
-0.274237 0.134458 1.24987 86 75 118 
-0.27117 0.0961513 1.25362 61 50 67 
-0.270869 -0.0172362 1.267 123 104 132 
-0.269714 0.0419421 1.26027 59 49 74 
-0.266875 -0.0915956 1.2761 35 32 43 
-0.267489 -0.00240356 1.2631 122 114 138 
-0.270767 0.185846 1.23845 69 65 88 
-0.271018 0.265698 1.22758 119 111 124 
-0.265633 -0.0622017 1.26876 92 88 105 
-0.26841 0.247198 1.2306 108 109 130 
-0.269382 0.21268 1.23366 114 104 131 
-0.264926 0.0289446 1.25725 117 95 116 
-0.266997 0.173816 1.23879 43 39 53 
-0.265902 0.131928 1.24189 163 180 250 
-0.262143 -0.0415536 1.26178 78 68 95 
-0.261588 0.059743 1.25025 48 40 51 
-0.260504 0.0952641 1.24537 66 53 73 
-0.261263 0.119773 1.24028 109 94 117 
-0.258429 -0.0919956 1.26675 53 42 58 
-0.262775 0.188972 1.2307 118 105 123 
-0.259613 -0.00765032 1.25493 119 96 122 
-0.25834 -0.0528687 1.261 64 52 76 
-0.257836 0.006422 1.25268 87 68 88 
-0.261295 0.215336 1.22571 73 62 79 
-0.257169 0.0239431 1.25041 65 48 67 
-0.258234 0.134359 1.23365 56 58 96 
-0.258239 0.15818 1.23041 104 96 120 
-0.257723 0.242711 1.22056 49 39 48 
-0.263097 0.267925 1.21203 66 61 81 
-0.252169 -0.0808198 1.25891 69 55 78 
-0.251905 -0.0623413 1.25664 39 37 48 
-0.252416 -0.0322155 1.25267 121 101 129 
-0.25285 0.168784 1.22884 34 32 43 
-0.250015 0.115423 1.23549 45 38 45 
-0.25024 -0.00399442 1.24821 127 109 133 
-0.250453 0.0939202 1.23607 58 50 65 
-0.249559 0.013218 1.24422 116 104 126 
-0.251299 0.189842 1.22118 54 47 63 
-0.250036 0.246567 1.21346 107 89 103 
-0.249139 0.214598 1.21633 34 30 45 
-0.244222 -0.0965625 1.25428 113 99 116 
-0.244085 0.0655081 1.23172 70 59 75 
-0.240089 -0.0585373 1.24742 119 104 127 
-0.241959 0.090346 1.22854 121 106 129 
-0.241453 0.0204605 1.23687 38 31 38 
-0.243794 0.114418 1.22444 45 36 41 
-0.240984 0.0373326 1.23428 122 109 135 
-0.240226 0.0772834 1.22829 66 57 78 
-0.242611 0.189734 1.21378 56 48 61 
-0.239992 -0.0106253 1.23854 121 102 130 
-0.239775 0.139471 1.22055 109 102 120 
-0.238371 -0.0401651 1.24192 116 94 117 
-0.24216 0.168322 1.21437 52 40 50 
-0.235151 -0.0944115 1.24746 66 51 72 
-0.235991 0.120672 1.21652 102 93 110 
-0.235184 0.216491 1.20497 46 41 48 
-0.233997 0.0923698 1.21985 57 45 49 
-0.233262 0.0210443 1.22797 51 42 47 
-0.229661 -0.0664894 1.23771 51 42 59 
-0.231464 0.0720008 1.22023 50 34 45 
-0.232559 0.187692 1.20474 49 37 51 
-0.229996 -0.0275234 1.23096 86 63 83 
-0.229036 0.0359772 1.22268 130 116 133 
-0.22963 0.135864 1.21062 44 34 43 
-0.227557 -0.0812475 1.23608 120 96 110 
-0.2293 0.169992 1.20467 46 34 48 
-0.225876 -0.0109029 1.2275 54 41 59 
-0.226241 0.0564572 1.21875 62 48 61 
-0.227284 0.113457 1.21095 102 94 115 
-0.223345 -0.0404411 1.22971 47 35 39 
-0.227956 0.232863 1.19524 47 36 44 
-0.226804 0.210727 1.19759 51 40 48 
-0.225807 0.15283 1.20294 110 93 111 
-0.223915 0.0795029 1.21145 75 54 61 
-0.22145 0.0171051 1.21871 102 88 103 
-0.220535 -0.0641979 1.22839 75 65 99 
-0.223729 0.182777 1.19768 90 76 101 
-0.222342 0.103441 1.20718 105 91 108 
-0.218211 0.0322222 1.21552 67 54 64 
-0.219469 0.195722 1.19587 105 83 95 
-0.217115 -0.0117897 1.21982 57 40 58 
-0.218603 0.0676981 1.20911 66 50 63 
-0.214054 -0.045566 1.22127 126 105 122 
-0.216209 0.0861354 1.20327 116 99 115 
-0.213904 -0.0300788 1.21704 90 63 78 
-0.214309 0.209953 1.18843 32 29 38 
-0.211933 -0.0803228 1.22244 90 63 80 
-0.214268 0.165528 1.19188 43 32 46 
-0.211138 0.056766 1.20538 45 37 52 
-0.213145 0.133381 1.19492 30 24 26 
-0.211401 0.100667 1.1984 51 38 48 
-0.211045 0.185841 1.18845 29 24 28 
-0.207077 -0.0664215 1.2193 32 24 35 
-0.209429 0.0156593 1.20857 102 92 103 
-0.216219 0.262133 1.17589 107 89 101 
-0.212042 0.148916 1.1906 52 41 49 
-0.209551 0.0705881 1.20054 102 87 106 
-0.21337 0.225171 1.18034 52 36 39 
-0.208868 0.0342102 1.20429 108 97 114 
-0.206422 -0.00904193 1.20896 119 101 123 
-0.204654 -0.0995435 1.2191 72 49 69 
-0.206649 0.0462742 1.20112 99 84 113 
-0.220711 0.268919 1.1672 104 90 105 
-0.203421 -0.0414973 1.21073 76 51 70 
-0.205388 0.128306 1.1874 39 32 39 
-0.203661 0.163629 1.18366 26 25 31 
-0.200159 -0.118309 1.21669 122 102 129 
-0.202668 0.011654 1.20028 115 92 108 
-0.200533 0.139419 1.18327 103 89 106 
-0.195196 -0.101404 1.21158 74 51 69 
-0.197167 -0.0142526 1.20038 55 39 49 
-0.196023 0.000218232 1.19634 85 57 69 
-0.193489 -0.0435585 1.20262 38 26 38 
-0.197254 0.0837282 1.18575 122 86 100 
-0.197006 0.186744 1.17325 81 76 98 
-0.195553 0.0311502 1.19124 74 60 75 
-0.189843 -0.122101 1.21072 39 32 48 
-0.202206 0.260258 1.16063 42 38 53 
-0.210266 0.269591 1.15535 80 73 81 
-0.193478 0.051008 1.18892 55 39 50 
-0.190357 -0.0712847 1.2033 70 54 65 
-0.193285 0.163385 1.17363 31 26 32 
-0.194608 0.246858 1.16329 20 17 24 
-0.191602 0.0130434 1.19015 127 106 121 
-0.186444 -0.0154092 1.19123 68 44 57 
-0.186801 0.0646139 1.18172 45 30 35 
-0.184726 0.0340223 1.18376 61 47 62 
-0.186435 0.0857977 1.17678 37 31 35 
-0.182719 -0.0832835 1.1978 118 101 120 
-0.181018 -0.0976717 1.19956 132 117 136 
-0.181654 -0.123487 1.20175 64 48 59 
-0.181925 -0.0434416 1.19185 118 102 115 
-0.181169 -0.0716111 1.19385 53 44 63 
-0.179318 -0.0294044 1.1864 68 54 69 
-0.177904 0.0112031 1.1789 140 109 127 
-0.177281 0.10671 1.16719 33 23 34 
-0.172894 -0.102049 1.1912 125 103 115 
-0.171976 -0.120303 1.19253 130 110 135 
-0.174204 0.020889 1.17439 35 29 39 
-0.171744 -0.0735937 1.18562 104 92 106 
-0.16815 -0.142775 1.19316 69 52 68 
-0.170223 -0.0848774 1.18523 111 96 115 
-0.169651 -0.0164599 1.17577 75 59 70 
-0.169695 -0.0448992 1.17885 80 52 64 
-0.167295 -0.0295488 1.17358 89 65 87 
-0.16614 0.00408314 1.17013 54 40 63 
-0.163118 -0.106455 1.18355 122 95 114 
-0.16243 -0.120945 1.18498 128 106 129 
-0.163072 -0.0714846 1.17789 64 49 68 
-0.163743 -0.00728649 1.16898 78 66 86 
-0.159646 -0.0461695 1.1722 50 36 49 
-0.159274 -0.0901458 1.17525 86 54 67 
-0.156076 -0.0566804 1.16981 70 55 76 
-0.155315 -0.134235 1.17776 126 101 122 
-0.150536 -0.100701 1.17059 84 59 81 
-0.144873 -0.124835 1.16916 86 55 71 
-0.147728 -0.0164982 1.15504 66 48 72 
-0.144722 -0.0725566 1.16136 63 47 60 
-0.144035 -0.028269 1.15418 68 46 69 
-0.142326 -0.0435488 1.15459 116 99 117 
