ply                 
format ascii 1.0    
element vertex 416
property float x    
property float y    
property float z    
property uchar red  
property uchar green
property uchar blue 
end_header          
0.106549 -0.181393 0.928639 93 60 77 
0.115287 -0.203729 0.924713 75 58 74 
0.116407 -0.211213 0.924124 81 62 84 
0.122747 -0.200491 0.917343 96 65 81 
0.129997 -0.167792 0.906065 85 60 79 
0.138256 -0.235601 0.906772 101 71 83 
0.141923 -0.0994206 0.884761 129 116 134 
0.144551 -0.158063 0.890564 86 58 73 
0.145605 -0.101297 0.881519 63 50 67 
0.147984 -0.142621 0.885429 97 61 75 
0.156446 -0.160136 0.878719 88 61 76 
0.155982 -0.125566 0.874711 92 67 89 
0.160957 -0.164486 0.874815 89 65 79 
0.162997 -0.106465 0.867289 70 54 67 
0.166013 -0.10484 0.863723 124 115 134 
0.174503 -0.190774 0.86737 84 57 72 
0.177066 -0.191713 0.863649 78 57 66 
0.177066 -0.191713 0.863649 78 57 66 
0.180182 -0.162524 0.858142 82 61 68 
0.18316 -0.208123 0.862151 75 57 71 
0.182935 -0.147254 0.851988 133 106 125 
0.183323 -0.105001 0.848881 128 119 136 
0.185612 -0.0820338 0.843648 52 46 58 
0.188137 -0.163476 0.850304 83 53 65 
0.191422 -0.17588 0.849509 110 101 118 
0.192134 -0.165171 0.845537 85 64 73 
0.191024 -0.0802266 0.839537 59 43 56 
0.195046 -0.194681 0.848094 67 49 61 
0.189041 0.014474 0.82439 136 115 132 
0.1946 -0.164711 0.844528 78 54 68 
0.194868 -0.144596 0.841719 72 49 59 
0.196636 -0.116036 0.836109 138 114 127 
0.199428 -0.16336 0.841088 136 117 139 
0.200501 -0.216256 0.844349 87 58 76 
0.202134 -0.239494 0.848572 61 44 62 
0.204615 -0.217796 0.841041 84 57 76 
0.203473 -0.0589942 0.822217 125 102 122 
0.207953 -0.175627 0.833544 43 29 42 
0.208825 -0.165856 0.832148 73 46 63 
0.209132 -0.145848 0.829106 75 59 70 
0.213503 -0.112401 0.819924 72 51 60 
0.207944 0.0712538 0.798057 149 128 137 
0.207944 0.0712538 0.798057 149 128 137 
0.217438 -0.196479 0.826536 73 49 62 
0.210982 0.0400026 0.801935 75 58 76 
0.22347 -0.270654 0.831341 63 46 62 
0.223695 -0.207743 0.821993 130 107 127 
0.224545 -0.210426 0.821958 47 36 52 
0.218533 0.011015 0.797759 133 115 131 
0.218533 0.011015 0.797759 133 115 131 
0.221153 0.0132482 0.795508 73 52 71 
0.222149 0.00913228 0.795841 84 58 71 
0.222149 0.00913228 0.795841 84 58 71 
0.218622 0.116432 0.78505 121 103 115 
0.2223 0.0114041 0.795517 129 110 129 
0.225224 -0.0509694 0.800104 134 117 136 
0.235269 -0.219785 0.812478 125 106 125 
0.228174 0.00619637 0.79091 138 111 126 
0.226022 0.116127 0.778351 129 114 133 
0.234683 -0.147657 0.802192 117 96 111 
0.236553 -0.1453 0.800709 52 40 54 
0.243669 -0.142546 0.795082 131 107 120 
0.248233 -0.245158 0.803907 52 34 46 
0.23759 0.0582418 0.771921 90 68 91 
0.238618 0.046211 0.772281 149 125 138 
0.239676 0.0943178 0.764909 90 63 72 
0.241425 0.053183 0.768612 97 70 87 
0.252036 -0.210855 0.796818 122 107 130 
0.244416 0.0580077 0.766044 87 64 82 
0.246053 0.0825703 0.763066 123 101 114 
0.253797 -0.12301 0.781954 85 60 79 
0.253797 -0.12301 0.781954 85 60 79 
0.248093 0.0386433 0.764949 125 108 127 
0.247572 0.0845295 0.7626 61 43 59 
0.259426 -0.213885 0.790013 45 31 48 
0.254601 -0.0834077 0.777016 53 33 42 
0.250318 0.0366108 0.763719 65 47 61 
0.245678 0.197552 0.74721 125 98 113 
0.262527 -0.246833 0.790567 75 53 74 
0.26044 -0.144895 0.777837 136 119 138 
0.253484 0.0408517 0.759499 86 62 75 
0.254999 0.0383756 0.758453 136 113 129 
0.253011 0.113752 0.752385 91 68 94 
0.249185 0.196131 0.742438 122 104 118 
0.260813 -0.0277111 0.764683 47 37 46 
0.260813 -0.0277111 0.764683 47 37 46 
0.268985 -0.24796 0.784963 54 41 51 
0.257132 0.0788096 0.75049 131 105 118 
0.261292 0.000991914 0.75814 136 118 132 
0.253538 0.197556 0.738614 74 60 75 
0.262238 0.131483 0.738452 133 112 127 
0.260617 0.192844 0.73312 41 35 49 
0.262505 0.185954 0.73093 138 121 137 
0.273901 -0.0867398 0.758202 83 61 74 
0.264746 0.200258 0.727112 80 62 74 
0.265589 0.197321 0.727136 137 124 150 
0.2695 0.111853 0.735598 75 56 75 
0.2695 0.111853 0.735598 75 56 75 
0.271089 0.0753235 0.738157 147 116 131 
0.274641 0.00338662 0.744977 66 49 68 
0.269398 0.192375 0.724875 98 97 115 
0.269398 0.192375 0.724875 98 97 115 
0.269474 0.19239 0.724877 98 95 112 
0.270988 0.194705 0.722047 137 118 137 
0.281789 -0.0261167 0.741095 136 115 134 
0.282894 0.0500055 0.730935 101 74 91 
0.284833 0.0350772 0.730978 125 104 121 
0.287929 0.0270934 0.72883 131 109 130 
0.286741 0.188563 0.707408 56 39 49 
0.28884 0.146556 0.710481 94 65 70 
0.28884 0.146556 0.710481 94 65 70 
-0.30186 -0.0576139 1.29414 129 114 133 
-0.225632 -0.0406229 1.22357 57 39 53 
-0.180615 -0.134281 1.1943 57 44 54 
-0.160151 -0.170281 1.1787 74 51 67 
0.0915181 -0.178971 0.94295 76 52 68 
0.104112 -0.195893 0.933823 77 56 73 
0.118114 -0.184974 0.919489 99 65 79 
0.1283 -0.18662 0.90953 91 68 76 
0.13562 -0.133822 0.896193 81 57 70 
0.139929 -0.221494 0.902962 102 75 92 
0.141617 -0.0442458 0.87702 143 120 138 
0.15097 -0.187528 0.887886 84 53 69 
0.158962 -0.0468683 0.865225 144 122 145 
0.165099 -0.190033 0.874986 84 60 74 
0.16519 -0.0757409 0.859848 77 53 67 
0.172529 -0.0491811 0.849512 79 51 65 
0.176774 0.0670519 0.832125 123 110 130 
0.190715 -0.239093 0.857818 140 113 128 
0.187483 -0.0218017 0.832751 67 46 53 
0.1939 -0.208049 0.850876 88 63 84 
0.186418 0.0661641 0.821476 121 111 135 
0.187887 0.094383 0.814527 139 115 128 
0.194599 -0.0521675 0.831379 64 44 53 
0.194227 -0.00705569 0.822875 136 113 129 
0.197649 0.0933348 0.805806 128 107 124 
0.199056 0.0763056 0.806113 126 109 128 
0.20385 0.0100283 0.812457 82 63 82 
0.197453 0.207581 0.789591 73 65 76 
0.208402 -0.0806721 0.82156 57 38 44 
0.209115 0.13902 0.789015 135 111 127 
0.209556 0.165023 0.786417 84 66 90 
0.221717 -0.112064 0.810534 125 107 123 
0.224327 -0.18297 0.817138 85 59 72 
0.212588 0.192674 0.777166 49 33 46 
0.232733 -0.255917 0.819815 77 58 77 
0.220843 0.152124 0.775923 142 121 138 
0.23434 -0.198968 0.811422 121 100 117 
0.221833 0.1669 0.772188 129 110 130 
0.220815 0.20546 0.768035 95 68 87 
0.23146 -0.0819418 0.798136 82 57 78 
0.238342 -0.247045 0.813253 122 105 124 
0.234094 -0.112926 0.799214 92 64 79 
0.227288 0.0799423 0.778127 140 118 131 
0.225715 0.194105 0.766282 80 65 84 
0.230682 0.161416 0.765828 68 54 69 
0.235931 0.0787188 0.770197 139 113 124 
0.247147 -0.0280428 0.776298 65 40 46 
0.246327 0.137435 0.754525 68 56 68 
0.246813 0.184571 0.745602 92 67 86 
0.256729 -0.0583118 0.771214 73 51 64 
0.268684 -0.279589 0.788001 87 63 77 
0.270847 -0.21385 0.779696 55 51 65 
0.268346 -0.148815 0.770699 76 68 83 
0.279231 -0.275749 0.778293 76 59 78 
0.263679 0.155535 0.7346 123 99 112 
0.277191 -0.183023 0.766968 118 94 116 
0.269717 0.0367427 0.745544 136 119 135 
0.29063 -0.265503 0.765925 80 61 81 
0.285912 -0.154572 0.754945 82 61 78 
0.292652 -0.182928 0.753158 68 50 72 
0.288874 -0.0651034 0.739862 133 106 121 
0.279207 0.183434 0.715621 126 107 126 
-0.298625 0.170946 1.26542 128 120 144 
-0.296221 0.0255014 1.28346 122 114 138 
-0.29391 -0.00142258 1.28632 59 51 66 
-0.29343 0.141499 1.26655 79 64 83 
-0.290645 0.119615 1.26751 61 54 70 
-0.286339 0.0261962 1.27623 70 60 85 
-0.28689 -0.000630361 1.27758 129 116 142 
-0.285507 0.0609677 1.27074 67 55 75 
-0.285179 0.140785 1.25927 67 57 82 
-0.280804 0.00935082 1.27174 137 124 144 
-0.278526 0.0999386 1.26022 77 64 92 
-0.279575 -0.030517 1.27469 125 107 129 
-0.277684 0.116885 1.25696 69 56 74 
-0.27529 0.0229511 1.26517 128 114 140 
-0.274522 0.127462 1.25024 120 118 142 
-0.274762 0.155205 1.24529 110 101 128 
-0.273016 0.0598457 1.25983 76 62 85 
-0.272799 0.0337498 1.26309 82 69 87 
-0.274068 0.137898 1.2465 73 64 107 
-0.272529 -0.0363416 1.26969 125 113 135 
-0.271884 -0.0211655 1.26686 72 56 85 
-0.269625 0.0937932 1.252 75 61 84 
-0.269877 0.172675 1.23921 126 122 149 
-0.26713 0.036221 1.25582 59 45 62 
-0.2674 0.06076 1.25133 130 117 137 
-0.266574 -0.00351941 1.26062 129 121 144 
-0.265433 0.12892 1.23939 172 190 255 
-0.263783 0.0257021 1.25477 120 105 128 
-0.265455 0.192216 1.23092 123 119 146 
-0.263208 0.113162 1.24301 56 44 54 
-0.260898 -0.0422881 1.25933 86 75 105 
-0.261886 0.137835 1.23448 23 31 50 
-0.260354 0.168803 1.23147 52 43 62 
-0.258641 -0.00871968 1.25242 127 103 127 
-0.256727 0.0225032 1.24794 80 57 83 
-0.257197 0.186806 1.22488 82 69 87 
-0.255976 -0.0333502 1.25304 132 107 129 
-0.252931 0.0909472 1.23572 119 101 117 
-0.252032 0.148186 1.22824 53 44 63 
-0.251889 0.0052874 1.24425 103 79 105 
-0.25135 0.109283 1.23124 105 87 99 
-0.251269 0.164027 1.2242 115 107 122 
-0.25094 0.0664108 1.2356 134 114 126 
-0.249587 0.135439 1.2271 112 103 124 
-0.249843 0.185155 1.21791 106 98 113 
-0.246939 -0.00488131 1.24405 74 61 89 
-0.246763 0.0350282 1.23834 67 50 69 
-0.245987 0.0197761 1.24037 40 31 48 
-0.24452 0.0924335 1.22788 136 122 137 
-0.242765 0.0675851 1.22814 118 105 131 
-0.243129 0.119132 1.22025 137 120 136 
-0.241496 0.0552435 1.22845 56 44 56 
-0.241268 0.164993 1.21397 57 47 56 
-0.239438 -0.0118027 1.23696 133 113 140 
-0.238935 -0.0603377 1.24147 130 116 139 
-0.23789 0.187096 1.20839 100 97 116 
-0.236757 -0.0419785 1.23735 75 66 95 
-0.234956 0.0181766 1.22726 122 102 111 
-0.235449 0.131682 1.21215 63 49 66 
-0.234586 0.212455 1.20327 55 44 58 
-0.234054 0.0684288 1.22046 110 95 114 
-0.233714 0.14529 1.2115 57 44 53 
-0.233416 0.110146 1.21155 54 40 55 
-0.229751 -0.0667336 1.23485 65 52 69 
-0.229632 -0.0283584 1.22831 95 67 92 
-0.226642 0.0313277 1.22205 74 63 79 
-0.228082 0.0740919 1.2131 92 70 93 
-0.227065 0.0600206 1.21401 126 111 134 
-0.22754 0.206509 1.1952 57 41 51 
-0.224785 0.0181937 1.22141 54 40 53 
-0.226091 0.132984 1.20436 61 44 62 
-0.22518 0.149729 1.20136 120 101 120 
-0.22321 -0.0410667 1.22728 55 38 46 
-0.224407 0.181836 1.19724 51 35 48 
-0.222994 -0.0144671 1.22106 134 111 127 
-0.221915 0.0889437 1.20881 48 42 44 
-0.22337 0.170854 1.19544 49 36 46 
-0.218538 0.108187 1.20259 69 56 76 
-0.218269 -0.0395117 1.21841 134 115 134 
-0.216257 0.0173215 1.21372 65 51 64 
-0.217414 0.209887 1.18625 109 92 110 
-0.214802 0.134136 1.19417 117 100 119 
-0.212818 -0.0129322 1.2142 61 47 62 
-0.215292 0.161974 1.18933 51 40 56 
-0.212727 -0.0632088 1.21986 130 116 139 
-0.213877 0.0665427 1.20243 56 38 52 
-0.210824 -0.047556 1.21466 130 107 125 
-0.21059 0.182379 1.18667 27 25 28 
-0.210507 0.0143145 1.20547 110 99 113 
-0.210216 0.107387 1.19429 71 55 66 
-0.210845 0.199869 1.18147 83 75 96 
-0.210841 0.0887333 1.19421 73 58 77 
-0.209031 0.0325826 1.20225 122 110 130 
-0.206304 0.0505615 1.20036 58 42 55 
-0.207884 0.14603 1.18624 48 36 46 
-0.205129 -0.00658712 1.20301 73 65 89 
-0.204605 -0.0419405 1.20745 89 66 86 
-0.205722 0.125373 1.18543 45 35 44 
-0.201607 -0.0670131 1.20899 131 123 146 
-0.201528 0.162782 1.18097 99 95 110 
-0.201705 0.136363 1.18089 112 95 111 
-0.201372 0.0327073 1.19287 137 118 137 
-0.200494 -0.0303064 1.2016 96 66 78 
-0.19762 -0.0152242 1.19807 67 46 61 
-0.197849 0.0683562 1.18698 115 98 117 
-0.197791 0.12079 1.17903 37 27 36 
-0.197914 0.0814569 1.18353 128 95 104 
-0.194529 -0.0440178 1.19961 53 36 54 
-0.194537 0.0492198 1.18641 60 47 57 
-0.191691 -0.0694763 1.20055 132 117 138 
-0.192673 0.0353395 1.18533 141 120 135 
-0.19373 0.153985 1.16935 56 35 44 
-0.188539 0.0625817 1.17854 50 34 44 
-0.187313 -0.0162955 1.18869 83 55 70 
-0.188258 0.129136 1.16891 54 40 53 
-0.185531 -0.0424389 1.18932 85 61 87 
-0.185153 0.0467349 1.17864 111 100 116 
-0.184983 0.0126361 1.182 141 123 137 
-0.182927 -0.0972717 1.1961 141 126 147 
-0.183474 0.0338314 1.17665 136 117 136 
-0.182493 -0.073005 1.18971 120 104 117 
-0.176593 -0.0445041 1.18222 89 57 72 
-0.175771 -0.0936021 1.186 75 54 71 
-0.176205 0.080137 1.16429 86 70 83 
-0.174975 -0.016792 1.17572 71 54 73 
-0.172028 -0.0813324 1.18257 53 38 57 
-0.16615 -0.105488 1.17956 130 101 119 
-0.164705 -0.0715826 1.17494 80 62 86 
-0.164661 -0.0164452 1.16462 70 51 71 
-0.160226 -0.122666 1.17769 77 64 74 
-0.161458 -0.0898507 1.17202 95 62 79 
-0.157332 -0.0628898 1.16805 131 119 139 
-0.153285 -0.0182281 1.15742 62 48 65 
-0.152286 -0.072371 1.16346 64 40 53 
-0.150808 -0.100611 1.16446 92 64 78 
-0.149066 -0.0442756 1.15525 133 110 128 
-0.148108 -0.123836 1.1654 94 66 78 
-0.146184 -0.0291955 1.15144 73 51 74 
-0.141421 -0.0738283 1.15397 65 48 64 
-0.138007 -0.138376 1.15775 83 60 86 
-0.136453 -0.126703 1.15423 85 61 74 
-0.13302 -0.0737776 1.14559 71 53 77 
-0.132452 -0.0201983 1.13738 127 120 138 
-0.129684 -0.140164 1.1503 80 57 77 
-0.127781 -0.12286 1.14634 133 118 137 
-0.125771 -0.102834 1.14241 85 60 81 
-0.125457 -0.0495325 1.13391 50 37 46 
-0.121628 -0.0755904 1.13483 58 38 49 
-0.120857 -0.128502 1.13876 139 126 144 
-0.114416 -0.140526 1.136 67 39 61 
-0.100305 -0.146859 1.12244 66 49 65 
-0.0986655 -0.167506 1.12439 45 31 56 
0.11781 -0.1078 0.90956 110 77 96 
0.122247 -0.22045 0.919708 106 76 104 
0.130218 -0.245927 0.917745 158 135 155 
0.128556 -0.101438 0.900711 83 56 75 
0.130127 -0.202715 0.911905 106 73 94 
0.136506 -0.186884 0.903811 102 74 96 
0.136246 -0.0693238 0.886213 139 121 145 
0.140337 -0.16808 0.897765 107 79 102 
0.147124 -0.203051 0.897499 138 130 154 
0.14362 -0.118021 0.885185 102 72 96 
0.146472 -0.230256 0.897906 103 74 96 
0.147175 -0.0736168 0.879821 89 64 83 
0.150138 -0.172 0.888363 92 72 100 
0.163721 -0.260703 0.88732 89 61 86 
0.158829 -0.0666129 0.864857 90 66 88 
0.1639 -0.244451 0.885086 149 127 148 
0.166509 -0.205113 0.876124 89 66 82 
0.171757 -0.138233 0.864858 98 68 92 
0.179615 -0.22132 0.868452 145 127 149 
0.182219 -0.232638 0.865019 90 70 95 
0.182676 0.0313964 0.829743 144 123 138 
0.199306 -0.0242705 0.823754 57 40 46 
0.203656 -0.265405 0.84882 83 70 100 
0.199706 0.059213 0.811334 87 69 93 
0.199224 0.0395226 0.813115 78 59 78 
0.209116 -0.202597 0.83592 94 81 101 
0.212813 -0.229003 0.836192 88 67 98 
0.215723 -0.24444 0.835032 135 122 140 
0.212573 -0.0236941 0.809803 64 43 52 
0.216924 -0.140775 0.82112 148 125 141 
0.215704 0.0274881 0.798966 97 69 84 
0.219937 -0.165594 0.820055 70 54 80 
0.212411 0.0910515 0.789458 35 77 185 
0.220246 -0.0207367 0.801475 135 123 147 
0.221619 -0.0834888 0.807704 75 68 84 
0.213434 0.108004 0.785542 93 134 224 
0.223888 -0.147762 0.814461 78 65 85 
0.219208 0.0604156 0.791542 95 67 82 
0.223699 -0.0962247 0.807877 81 67 92 
0.221599 0.040036 0.789591 159 142 158 
0.223811 0.0903841 0.783275 142 124 140 
0.236482 -0.268986 0.821764 130 115 146 
0.232198 -0.175488 0.80961 76 64 84 
0.228491 0.0510394 0.784498 154 130 146 
0.23122 0.036987 0.784682 75 57 69 
0.235525 -0.234772 0.813181 94 69 91 
0.230031 0.139925 0.770991 89 74 93 
0.234385 -0.034179 0.789442 88 64 86 
0.23572 -0.0509698 0.79084 84 68 95 
0.243958 -0.212023 0.807106 46 39 55 
0.234586 0.0110995 0.781374 126 107 127 
0.232683 0.121507 0.768734 81 62 81 
0.236818 0.0262208 0.778236 87 65 88 
0.240157 -0.0245004 0.783844 144 127 146 
0.240283 -0.0808655 0.788092 137 116 135 
0.235969 0.171467 0.759546 147 129 141 
0.245447 -0.113936 0.790287 72 50 71 
0.237964 0.191203 0.755294 129 114 137 
0.240676 0.113214 0.763473 80 54 67 
0.240225 0.150373 0.759281 91 69 92 
0.243542 0.00825806 0.774716 78 58 70 
0.250898 -0.272808 0.805402 85 61 85 
0.243041 0.160944 0.755366 94 74 99 
0.242 0.177167 0.750782 148 131 150 
0.259924 -0.271535 0.794481 143 125 151 
0.250323 0.156931 0.748251 135 114 129 
0.262386 -0.081525 0.768083 139 120 139 
0.262892 -0.0152656 0.759255 148 131 147 
0.26241 0.0310745 0.752287 146 125 142 
0.261461 0.102181 0.74475 97 72 94 
0.266011 -0.0601966 0.762307 72 51 68 
0.261698 0.0904184 0.745347 96 67 85 
0.267439 -0.165782 0.772836 104 78 105 
0.268972 -0.134248 0.769863 154 132 153 
0.269951 -0.190488 0.775618 96 82 108 
0.277507 -0.260223 0.778115 95 74 105 
0.27013 0.0557511 0.743386 62 44 70 
0.278638 -0.248314 0.775859 78 67 99 
0.273711 0.136418 0.729336 139 122 138 
0.278604 0.155959 0.723185 67 53 68 
0.290706 -0.24887 0.763218 94 67 98 
0.282188 0.109254 0.723316 129 106 116 
0.266587 0.215348 0.703716 123 107 117 
0.28351 0.199466 0.706898 86 77 104 
0.268699 0.232618 0.699604 13 20 30 
0.299627 -0.061833 0.730508 81 67 102 
0.295848 0.133734 0.707052 133 112 127 
0.279226 0.229299 0.687754 15 26 44 
0.291113 0.202869 0.687363 143 133 157 
0.286413 0.222682 0.682679 178 194 254 
0.29271 0.232556 0.674147 97 95 100 
