ply                 
format ascii 1.0    
element vertex 589
property float x    
property float y    
property float z    
property uchar red  
property uchar green
property uchar blue 
end_header          
0.106828 -0.181678 0.928652 93 60 77 
0.115575 -0.20405 0.924721 75 58 74 
0.116696 -0.211546 0.924132 81 62 84 
0.123039 -0.200806 0.917339 96 65 81 
0.130287 -0.168056 0.90604 85 60 79 
0.138559 -0.235972 0.906753 101 71 83 
0.142207 -0.0995779 0.884698 129 116 134 
0.144845 -0.15831 0.890514 86 58 73 
0.145891 -0.101458 0.88145 63 50 67 
0.148278 -0.142845 0.885369 97 61 75 
0.156744 -0.160387 0.878649 88 61 76 
0.156275 -0.125763 0.874634 92 67 89 
0.161258 -0.164743 0.87474 89 65 79 
0.163292 -0.106634 0.867199 70 54 67 
0.166309 -0.105006 0.863627 124 115 134 
0.174816 -0.191072 0.867286 84 57 72 
0.177378 -0.192012 0.863558 78 57 66 
0.177378 -0.192012 0.863558 78 57 66 
0.180492 -0.162778 0.858041 82 61 68 
0.18348 -0.208449 0.862059 75 57 71 
0.183242 -0.147485 0.851876 133 106 125 
0.183628 -0.105168 0.848762 128 119 136 
0.185913 -0.0821668 0.84352 52 46 58 
0.18845 -0.163732 0.850191 83 53 65 
0.191739 -0.176155 0.849395 110 101 118 
0.192446 -0.165428 0.845417 85 64 73 
0.191329 -0.0803574 0.839403 59 43 56 
0.195367 -0.194984 0.847979 67 49 61 
0.189322 0.0144815 0.824229 136 115 132 
0.194916 -0.164969 0.844406 78 54 68 
0.195181 -0.144822 0.841592 72 49 59 
0.196944 -0.116219 0.835972 138 114 127 
0.199747 -0.163615 0.840961 136 117 139 
0.200825 -0.216592 0.844229 87 58 76 
0.202468 -0.239869 0.84846 61 44 62 
0.204941 -0.218134 0.840916 84 57 76 
0.203774 -0.0590936 0.822056 125 102 122 
0.208275 -0.175901 0.833406 43 29 42 
0.209148 -0.166115 0.832007 73 46 63 
0.209451 -0.146077 0.82896 75 59 70 
0.213817 -0.11258 0.819762 72 51 60 
0.20822 0.0713384 0.797855 149 128 137 
0.20822 0.0713384 0.797855 149 128 137 
0.217766 -0.196785 0.826388 73 49 62 
0.211268 0.040044 0.80174 75 58 76 
0.223815 -0.271075 0.831204 63 46 62 
0.224027 -0.208066 0.821839 130 107 127 
0.224879 -0.210753 0.821804 47 36 52 
0.218825 0.011015 0.79756 133 115 131 
0.218825 0.011015 0.79756 133 115 131 
0.221446 0.0132511 0.795305 73 52 71 
0.222444 0.00912929 0.795639 84 58 71 
0.222444 0.00912929 0.795639 84 58 71 
0.218898 0.116577 0.784828 121 103 115 
0.222595 0.0114043 0.795314 129 110 129 
0.22553 -0.0510582 0.799911 134 117 136 
0.235607 -0.220125 0.812311 125 106 125 
0.228472 0.00618871 0.790701 138 111 126 
0.226299 0.116271 0.77812 129 114 133 
0.235006 -0.147887 0.802006 117 96 111 
0.236878 -0.145527 0.800521 52 40 54 
0.243997 -0.142769 0.794885 131 107 120 
0.248581 -0.245537 0.803728 52 34 46 
0.237876 0.0583049 0.771683 90 68 91 
0.238906 0.0462576 0.772044 149 125 138 
0.239955 0.0944293 0.76466 90 63 72 
0.241712 0.0532387 0.76837 97 70 87 
0.252381 -0.211182 0.796627 122 107 130 
0.244704 0.0580698 0.765799 87 64 82 
0.24634 0.0826657 0.762815 123 101 114 
0.254123 -0.123205 0.781737 85 60 79 
0.254123 -0.123205 0.781737 85 60 79 
0.248385 0.0386786 0.764703 125 108 127 
0.247862 0.0846277 0.762348 61 43 59 
0.259773 -0.214216 0.789812 45 31 48 
0.254922 -0.0835449 0.776791 53 33 42 
0.250613 0.0366431 0.763471 65 47 61 
0.245942 0.197797 0.746934 125 98 113 
0.26288 -0.247214 0.790368 75 53 74 
0.260771 -0.145122 0.777616 136 119 138 
0.253778 0.0408894 0.759245 86 62 75 
0.255293 0.0384097 0.758198 136 113 129 
0.253294 0.113888 0.752118 91 68 94 
0.249447 0.196373 0.742156 122 104 118 
0.261127 -0.0277692 0.764438 47 37 46 
0.261127 -0.0277692 0.764438 47 37 46 
0.269341 -0.248343 0.784756 54 41 51 
0.257418 0.078898 0.750222 131 105 118 
0.261596 0.000974055 0.757886 136 118 132 
0.253801 0.1978 0.738327 74 60 75 
0.262514 0.131641 0.738167 133 112 127 
0.260883 0.19308 0.732826 41 35 49 
0.262771 0.186181 0.730634 138 121 137 
0.274226 -0.0868823 0.757951 83 61 74 
0.26501 0.200502 0.726811 80 62 74 
0.265855 0.197562 0.726835 137 124 150 
0.269784 0.111984 0.735309 75 56 75 
0.269784 0.111984 0.735309 75 56 75 
0.27138 0.0754055 0.737874 147 116 131 
0.274947 0.00337087 0.744704 66 49 68 
0.269667 0.192609 0.72457 98 97 115 
0.269667 0.192609 0.72457 98 97 115 
0.269743 0.192624 0.724573 98 95 112 
0.271254 0.194941 0.721739 137 118 137 
0.282101 -0.0261738 0.740818 136 115 134 
0.283193 0.0500523 0.730642 101 74 91 
0.285135 0.0351036 0.730685 125 104 121 
0.288232 0.0271087 0.728535 131 109 130 
0.28701 0.188788 0.707082 56 39 49 
0.289117 0.146728 0.71016 94 65 70 
0.289117 0.146728 0.71016 94 65 70 
-0.30193 -0.0576894 1.29514 129 114 133 
-0.225614 -0.0406712 1.22438 57 39 53 
-0.180545 -0.134506 1.19505 57 44 54 
-0.160058 -0.170573 1.17941 74 51 67 
0.0918042 -0.179263 0.943073 76 52 68 
0.104408 -0.196212 0.933925 77 56 73 
0.118414 -0.185273 0.919558 99 65 79 
0.128604 -0.186921 0.909577 91 68 76 
0.135919 -0.134037 0.896208 81 57 70 
0.140243 -0.221851 0.902995 102 75 92 
0.141902 -0.0443194 0.876991 143 120 138 
0.151283 -0.187828 0.887884 84 53 69 
0.15926 -0.0469474 0.86517 144 122 145 
0.165417 -0.190336 0.874956 84 60 74 
0.165489 -0.0758638 0.859782 77 53 67 
0.172825 -0.0492638 0.849424 79 51 65 
0.177054 0.0671396 0.831998 123 110 130 
0.19105 -0.239472 0.857753 140 113 128 
0.187779 -0.0218444 0.832627 67 46 53 
0.194231 -0.208378 0.850795 88 63 84 
0.186697 0.0662486 0.821327 121 111 135 
0.188159 0.0945063 0.814365 139 115 128 
0.194905 -0.0522559 0.831253 64 44 53 
0.19452 -0.00707727 0.822731 136 113 129 
0.197923 0.0934549 0.805626 128 107 124 
0.199332 0.0764017 0.805934 126 109 128 
0.204142 0.0100304 0.812291 82 63 82 
0.197703 0.207853 0.789379 73 65 76 
0.208715 -0.0808033 0.821413 57 38 44 
0.209382 0.1392 0.788802 135 111 127 
0.20982 0.165237 0.786197 84 66 90 
0.222034 -0.112241 0.810367 125 107 123 
0.224657 -0.183255 0.816985 85 59 72 
0.212842 0.192922 0.776931 49 33 46 
0.23308 -0.256315 0.819668 77 58 77 
0.221108 0.152318 0.775685 142 121 138 
0.234677 -0.199277 0.811257 121 100 117 
0.222093 0.167112 0.771942 129 110 130 
0.221068 0.205721 0.767781 95 68 87 
0.231773 -0.0820746 0.797942 82 57 78 
0.238689 -0.247429 0.813093 122 105 124 
0.234412 -0.113104 0.799023 92 64 79 
0.227564 0.0800379 0.777893 140 118 131 
0.225973 0.194351 0.766025 80 65 84 
0.230946 0.161619 0.76557 68 54 69 
0.236209 0.0788112 0.769948 139 113 124 
0.247451 -0.0280985 0.776061 65 40 46 
0.246596 0.137602 0.754245 68 56 68 
0.247069 0.184798 0.745307 92 67 86 
0.257039 -0.0584109 0.770966 73 51 64 
0.26904 -0.280017 0.78779 87 63 77 
0.271193 -0.214178 0.779465 55 51 65 
0.268673 -0.149044 0.770451 76 68 83 
0.279587 -0.276169 0.778061 76 59 78 
0.263942 0.15572 0.734284 123 99 112 
0.277526 -0.183302 0.766713 118 94 116 
0.270006 0.0367737 0.745248 136 119 135 
0.290984 -0.265904 0.765669 80 61 81 
0.28624 -0.154809 0.754667 82 61 78 
0.292988 -0.183205 0.752876 68 50 72 
0.289182 -0.0652124 0.739555 133 106 121 
0.279461 0.183649 0.715271 126 107 126 
-0.299239 0.171097 1.26526 128 120 144 
-0.296844 0.0255965 1.28332 122 114 138 
-0.294534 -0.00133892 1.28619 59 51 66 
-0.294043 0.14164 1.2664 79 64 83 
-0.291258 0.119748 1.26736 61 54 70 
-0.286956 0.0262901 1.2761 70 60 85 
-0.28751 -0.000547374 1.27745 129 116 142 
-0.286121 0.0610762 1.2706 67 55 75 
-0.285786 0.140926 1.25912 67 57 82 
-0.281418 0.00943687 1.27162 137 124 144 
-0.279132 0.100063 1.26009 77 64 92 
-0.280191 -0.0304483 1.27456 125 107 129 
-0.278288 0.117017 1.25682 69 56 74 
-0.275899 0.0230422 1.26505 128 114 140 
-0.275123 0.127598 1.2501 120 118 142 
-0.275361 0.155353 1.24514 110 101 128 
-0.27362 0.0599529 1.25971 76 62 85 
-0.273405 0.0338453 1.26297 82 69 87 
-0.274668 0.138038 1.24636 73 64 107 
-0.27314 -0.0362774 1.26958 125 113 135 
-0.272494 -0.0210946 1.26674 72 56 85 
-0.270224 0.0939152 1.25187 75 61 84 
-0.27047 0.17283 1.23907 126 122 149 
-0.267732 0.036317 1.2557 59 45 62 
-0.268 0.060867 1.2512 130 117 137 
-0.267178 -0.00344165 1.2605 129 121 144 
-0.266027 0.129056 1.23925 172 190 255 
-0.264383 0.0257928 1.25465 120 105 128 
-0.266044 0.19238 1.23077 123 119 146 
-0.263801 0.113293 1.24289 56 44 54 
-0.2615 -0.0422295 1.25922 86 75 105 
-0.262476 0.137976 1.23435 23 31 50 
-0.26094 0.168959 1.23133 52 43 62 
-0.259239 -0.00864565 1.25231 127 103 127 
-0.257321 0.0225915 1.24783 80 57 83 
-0.25778 0.186969 1.22474 82 69 87 
-0.256574 -0.0332884 1.25294 132 107 129 
-0.253517 0.0910675 1.2356 119 101 117 
-0.252613 0.148333 1.22812 53 44 63 
-0.252481 0.00536687 1.24414 103 79 105 
-0.251934 0.109412 1.23112 105 87 99 
-0.251849 0.164181 1.22407 115 107 122 
-0.251527 0.0665194 1.23548 134 114 126 
-0.250167 0.135581 1.22697 112 103 124 
-0.25042 0.185318 1.21777 106 98 113 
-0.247527 -0.00480811 1.24394 74 61 89 
-0.247348 0.0351212 1.23823 67 50 69 
-0.246572 0.0198614 1.24027 40 31 48 
-0.245099 0.0925543 1.22776 136 122 137 
-0.243344 0.0676937 1.22803 118 105 131 
-0.243705 0.119266 1.22013 137 120 136 
-0.242074 0.055346 1.22834 56 44 56 
-0.241839 0.165149 1.21385 57 47 56 
-0.24002 -0.0117343 1.23686 133 113 140 
-0.23952 -0.0602942 1.24137 130 116 139 
-0.238456 0.187262 1.20826 100 97 116 
-0.237339 -0.0419261 1.23726 75 66 95 
-0.235531 0.0182597 1.22716 122 102 111 
-0.236017 0.131822 1.21203 63 49 66 
-0.235148 0.212635 1.20315 55 44 58 
-0.234625 0.0685374 1.22035 110 95 114 
-0.23428 0.145437 1.21138 57 44 53 
-0.233984 0.110275 1.21143 54 40 55 
-0.230327 -0.0666965 1.23476 65 52 69 
-0.230206 -0.0283005 1.22822 95 67 92 
-0.227208 0.0314162 1.22196 74 63 79 
-0.228647 0.0742029 1.21299 92 70 93 
-0.22763 0.0601243 1.21391 126 111 134 
-0.228095 0.206687 1.19507 57 41 51 
-0.22535 0.018275 1.22132 54 40 53 
-0.226651 0.133126 1.20425 61 44 62 
-0.225738 0.149879 1.20125 120 101 120 
-0.223778 -0.041018 1.22719 55 38 46 
-0.224961 0.182002 1.19713 51 35 48 
-0.22356 -0.0144034 1.22097 134 111 127 
-0.222473 0.0890626 1.20871 48 42 44 
-0.223924 0.171014 1.19533 49 36 46 
-0.219091 0.108316 1.20249 69 56 76 
-0.218833 -0.0394624 1.21832 134 115 134 
-0.216814 0.0174011 1.21363 65 51 64 
-0.217959 0.210069 1.18613 109 92 110 
-0.21535 0.134279 1.19406 117 100 119 
-0.213374 -0.0128702 1.21412 61 47 62 
-0.215839 0.162131 1.18922 51 40 56 
-0.213286 -0.0631752 1.21979 130 116 139 
-0.214429 0.0666491 1.20234 56 38 52 
-0.211381 -0.0475137 1.21458 130 107 125 
-0.21113 0.182549 1.18656 27 25 28 
-0.211059 0.0143918 1.20539 110 99 113 
-0.210761 0.107515 1.19419 71 55 66 
-0.211385 0.200047 1.18136 83 75 96 
-0.211389 0.0888514 1.19411 73 58 77 
-0.20958 0.0326698 1.20216 122 110 130 
-0.206848 0.0506585 1.20027 58 42 55 
-0.208425 0.146179 1.18614 48 36 46 
-0.205677 -0.00652259 1.20293 73 65 89 
-0.205155 -0.0418965 1.20738 89 66 86 
-0.206262 0.125511 1.18533 45 35 44 
-0.202155 -0.0669849 1.20892 131 123 146 
-0.20206 0.162943 1.18088 99 95 110 
-0.20224 0.136507 1.18079 112 95 111 
-0.201914 0.0327937 1.19278 137 118 137 
-0.201039 -0.0302565 1.20152 96 66 78 
-0.19816 -0.0151664 1.19799 67 46 61 
-0.198384 0.0684626 1.18689 115 98 117 
-0.198323 0.120926 1.17893 37 27 36 
-0.198449 0.0815706 1.18343 128 95 104 
-0.195068 -0.0439779 1.19954 53 36 54 
-0.19507 0.049315 1.18633 60 47 57 
-0.192228 -0.0694527 1.20049 132 117 138 
-0.193205 0.0354264 1.18524 141 120 135 
-0.194255 0.15414 1.16924 56 35 44 
-0.189065 0.0626842 1.17845 50 34 44 
-0.187842 -0.0162405 1.18861 83 55 70 
-0.188779 0.129277 1.16882 54 40 53 
-0.18606 -0.0424 1.18925 85 61 87 
-0.185675 0.0468276 1.17856 111 100 116 
-0.185508 0.0127083 1.18192 141 123 137 
-0.183456 -0.0972684 1.19605 141 126 147 
-0.183996 0.0339163 1.17657 136 117 136 
-0.183021 -0.0729857 1.18964 120 104 117 
-0.177111 -0.0444691 1.18215 89 57 72 
-0.176292 -0.093598 1.18594 75 54 71 
-0.176716 0.0802493 1.1642 86 70 83 
-0.17549 -0.0167397 1.17565 71 54 73 
-0.172544 -0.0813223 1.18252 53 38 57 
-0.16666 -0.105495 1.1795 130 101 119 
-0.165211 -0.0715687 1.17489 80 62 86 
-0.165165 -0.0163947 1.16455 70 51 71 
-0.160729 -0.122688 1.17764 77 64 74 
-0.161962 -0.0898492 1.17197 95 62 79 
-0.157828 -0.0628727 1.168 131 119 139 
-0.153774 -0.0181817 1.15736 62 48 65 
-0.152777 -0.0723616 1.16341 64 40 53 
-0.151299 -0.100621 1.16441 92 64 78 
-0.149551 -0.0442476 1.15519 133 110 128 
-0.148597 -0.123864 1.16536 94 66 78 
-0.146664 -0.029158 1.15138 73 51 74 
-0.141898 -0.0738235 1.15392 65 48 64 
-0.138484 -0.138417 1.15771 83 60 86 
-0.136927 -0.126737 1.15418 85 61 74 
-0.133486 -0.0737753 1.14554 71 53 77 
-0.132914 -0.0201577 1.13732 127 120 138 
-0.13015 -0.140211 1.15026 80 57 77 
-0.128243 -0.122895 1.1463 133 118 137 
-0.126229 -0.102856 1.14236 85 60 81 
-0.125911 -0.0495146 1.13386 50 37 46 
-0.122079 -0.075593 1.13479 58 38 49 
-0.12131 -0.128543 1.13872 139 126 144 
-0.114861 -0.14058 1.13597 67 39 61 
-0.100729 -0.146924 1.12241 66 49 65 
-0.0990881 -0.167589 1.12436 45 31 56 
0.117811 -0.107921 0.909466 110 77 96 
0.122255 -0.220711 0.919632 106 76 104 
0.130247 -0.246226 0.917672 158 135 155 
0.128585 -0.101555 0.900611 83 56 75 
0.130157 -0.20296 0.911824 106 73 94 
0.136552 -0.187112 0.903722 102 74 96 
0.136294 -0.0694041 0.886098 139 121 145 
0.140393 -0.168286 0.89767 107 79 102 
0.147198 -0.203306 0.897408 138 130 154 
0.143684 -0.118165 0.885074 102 72 96 
0.14654 -0.230544 0.897816 103 74 96 
0.147253 -0.073707 0.879704 89 64 83 
0.150219 -0.172216 0.88826 92 72 100 
0.163836 -0.261044 0.887225 89 61 86 
0.158934 -0.0666973 0.864725 90 66 88 
0.164015 -0.244771 0.884988 149 127 148 
0.166631 -0.205381 0.876015 89 66 82 
0.171896 -0.138417 0.864734 98 68 92 
0.179774 -0.22162 0.868339 145 127 149 
0.182382 -0.232953 0.864902 90 70 95 
0.182847 0.0314335 0.829572 144 123 138 
0.199523 -0.024311 0.823582 57 40 46 
0.203878 -0.265781 0.848691 83 70 100 
0.199926 0.0592854 0.811143 87 69 93 
0.199441 0.0395685 0.812927 78 59 78 
0.209355 -0.202888 0.835773 94 81 101 
0.213061 -0.229334 0.836047 88 67 98 
0.21598 -0.244794 0.834887 135 122 140 
0.212826 -0.0237368 0.809616 64 43 52 
0.217186 -0.140984 0.820954 148 125 141 
0.215966 0.0275156 0.798764 97 69 84 
0.220206 -0.165839 0.819889 70 54 80 
0.212662 0.0911659 0.789241 35 77 185 
0.22052 -0.020777 0.801279 135 123 147 
0.221896 -0.0836175 0.807519 75 68 84 
0.213688 0.108141 0.78532 93 134 224 
0.22417 -0.147983 0.814287 78 65 85 
0.219482 0.0604881 0.79133 95 67 82 
0.223981 -0.0963724 0.807693 81 67 92 
0.221876 0.0400802 0.789377 159 142 158 
0.224098 0.0904979 0.783052 142 124 140 
0.236801 -0.269393 0.821608 130 115 146 
0.232503 -0.175753 0.809433 76 64 84 
0.228791 0.0510982 0.784278 154 130 146 
0.231528 0.0370258 0.784464 75 57 69 
0.235837 -0.235125 0.813011 94 69 91 
0.230337 0.140108 0.770751 89 74 93 
0.2347 -0.0342417 0.789233 88 64 86 
0.236039 -0.051057 0.790634 84 68 95 
0.2443 -0.212351 0.80693 46 39 55 
0.234901 0.0111014 0.781153 126 107 127 
0.232995 0.121664 0.768492 81 62 81 
0.237141 0.0262437 0.778011 87 65 88 
0.24049 -0.0245509 0.783628 144 127 146 
0.240613 -0.0809968 0.787884 137 116 135 
0.236291 0.171694 0.759291 147 129 141 
0.245793 -0.114118 0.790085 72 50 71 
0.238294 0.191458 0.755033 129 114 137 
0.241012 0.11336 0.763226 80 54 67 
0.240561 0.150572 0.759026 91 69 92 
0.243884 0.00825421 0.774487 78 58 70 
0.251257 -0.27323 0.805227 85 61 85 
0.243386 0.161158 0.755106 94 74 99 
0.242339 0.177402 0.750516 148 131 150 
0.260309 -0.27196 0.794292 143 125 151 
0.250688 0.15714 0.747983 135 114 129 
0.262782 -0.0816654 0.767851 139 120 139 
0.263292 -0.0153076 0.759009 148 131 147 
0.262808 0.0311011 0.75203 146 125 142 
0.261858 0.102311 0.74448 97 72 94 
0.266419 -0.0603064 0.762067 72 51 68 
0.262095 0.0905319 0.745078 96 67 85 
0.267848 -0.166051 0.772615 104 78 105 
0.269388 -0.134471 0.769636 154 132 153 
0.270369 -0.190797 0.775402 96 82 108 
0.277948 -0.260645 0.777906 95 74 105 
0.270553 0.0558133 0.743116 62 44 70 
0.279083 -0.248718 0.775646 78 67 99 
0.274147 0.136599 0.729045 139 122 138 
0.279056 0.15617 0.722884 67 53 68 
0.291188 -0.249283 0.762988 94 67 98 
0.282648 0.109396 0.723017 129 106 116 
0.266984 0.215636 0.703391 123 107 117 
0.283973 0.199741 0.706574 86 77 104 
0.269103 0.232931 0.699273 13 20 30 
0.300141 -0.061956 0.730226 81 67 102 
0.296352 0.133913 0.70673 133 112 127 
0.279659 0.22961 0.687408 15 26 44 
0.29159 0.203148 0.687014 143 133 157 
0.286868 0.222986 0.682325 178 194 254 
0.293184 0.232875 0.673781 97 95 100 
0.173622 -0.108023 0.855983 61 48 58 
0.184322 -0.190188 0.855959 127 113 136 
0.176269 0.100961 0.824395 71 52 72 
0.179049 0.0182934 0.833149 132 114 138 
0.180588 0.121297 0.818687 62 47 66 
0.180298 0.172887 0.812669 73 59 85 
0.191741 -0.218205 0.852403 92 63 83 
0.182109 0.203181 0.80554 116 107 138 
0.196228 -0.183718 0.843637 89 65 79 
0.19097 0.139274 0.804629 131 105 116 
0.189822 0.182028 0.799021 74 57 73 
0.192406 0.202344 0.797652 63 47 58 
0.194126 0.164711 0.800472 75 57 79 
0.196577 0.115788 0.806081 112 104 127 
0.204107 -0.108908 0.827146 55 34 51 
0.20855 0.0616712 0.801031 80 62 78 
0.230223 -0.0431437 0.793471 78 55 63 
0.251887 -0.147389 0.78547 87 70 88 
0.262488 -0.122394 0.773515 78 56 77 
0.257919 0.0568329 0.75325 89 66 86 
0.263076 0.041502 0.750585 114 99 120 
0.280446 0.0267466 0.73469 135 114 133 
0.295625 -0.0417601 0.730208 83 61 74 
0.29533 0.189699 0.698398 118 105 122 
-0.309422 -0.121871 1.31639 73 58 79 
-0.304975 0.215511 1.26644 107 100 118 
-0.304166 -0.140434 1.31441 84 63 80 
-0.301341 0.0191061 1.29292 62 46 59 
-0.300826 -0.122769 1.31044 65 51 64 
-0.300447 -0.0288533 1.29695 132 120 142 
-0.299611 0.261076 1.25621 70 59 73 
-0.299954 0.122962 1.27508 129 118 134 
-0.298589 -0.159769 1.31165 90 65 86 
-0.297403 -0.0902871 1.30179 89 67 79 
-0.296861 0.214573 1.25805 115 112 133 
-0.295006 0.202842 1.25935 114 108 136 
-0.294317 -0.146365 1.30771 133 110 126 
-0.292283 -0.0602824 1.29387 69 56 66 
-0.290575 0.260629 1.2468 67 59 74 
-0.286329 0.215853 1.25092 50 47 54 
-0.286949 -0.123978 1.29598 90 63 80 
-0.285005 0.17248 1.2548 80 70 94 
-0.284622 -0.147034 1.29803 130 109 126 
-0.284165 0.24316 1.24411 109 104 124 
-0.283696 0.260578 1.23866 71 64 82 
-0.282569 -0.0635494 1.28318 114 99 120 
-0.283207 0.267249 1.23106 104 94 102 
-0.28143 -0.0835397 1.28415 68 54 79 
-0.280917 -0.097929 1.2863 130 113 132 
-0.279715 -0.109548 1.28807 140 123 141 
-0.277395 -0.123421 1.2885 63 51 61 
-0.277417 -0.150174 1.29064 75 57 69 
-0.275297 -0.162783 1.29239 73 54 73 
-0.27578 0.275579 1.21349 51 51 51 
-0.271209 -0.0967762 1.27729 136 129 145 
-0.270275 -0.114763 1.28188 54 38 49 
-0.270154 0.261552 1.22719 119 111 124 
-0.269261 0.0509664 1.25789 62 55 71 
-0.267198 0.243394 1.23021 112 110 131 
-0.265944 -0.164141 1.28408 76 54 67 
-0.265172 -0.144355 1.27984 78 55 63 
-0.264569 -0.104762 1.27568 122 101 118 
-0.265611 0.147558 1.23783 157 171 242 
-0.265016 -0.0625943 1.26752 98 90 114 
-0.262607 0.211245 1.22803 118 106 126 
-0.262544 -0.0977661 1.26817 145 127 141 
-0.261422 -0.114139 1.27154 125 111 128 
-0.261779 0.264004 1.21207 79 70 91 
-0.257617 0.0586154 1.24721 55 47 70 
-0.25856 0.122764 1.23599 22 27 46 
-0.257235 -0.169033 1.27754 68 49 55 
-0.256172 0.0361098 1.24828 66 52 69 
-0.261923 0.282084 1.19854 32 31 29 
-0.256343 -0.0600317 1.25877 120 104 130 
-0.254001 -0.130312 1.26688 81 53 67 
-0.251484 -0.0927951 1.25802 67 52 75 
-0.249413 -0.119427 1.2628 70 47 55 
-0.249655 0.242496 1.21248 106 88 102 
-0.248307 0.210838 1.21569 38 35 46 
-0.246998 -0.0632392 1.25306 63 48 77 
-0.248169 0.258845 1.20719 42 44 57 
-0.239726 0.0841607 1.22511 67 56 72 
-0.239359 -0.167222 1.25862 75 51 67 
-0.234743 -0.0945768 1.24608 80 57 75 
-0.237663 0.268018 1.18037 92 82 91 
-0.230002 -0.171385 1.25283 66 52 67 
-0.22802 0.228899 1.19426 61 44 54 
-0.226199 -0.0892197 1.23353 81 59 72 
-0.225814 0.238616 1.19062 49 41 52 
-0.220623 -0.132245 1.24024 69 51 67 
-0.220584 -0.0657556 1.22643 120 116 143 
-0.219046 0.0773356 1.20522 109 92 111 
-0.21641 -0.12849 1.2314 109 93 104 
-0.214583 -0.163108 1.23788 56 42 55 
-0.215937 0.239916 1.18103 92 89 108 
-0.214071 -0.139988 1.23102 44 31 49 
-0.213605 0.25635 1.17517 41 39 52 
-0.211924 -0.082027 1.22028 133 109 123 
-0.210683 -0.126323 1.22304 122 91 107 
-0.206233 -0.179413 1.22838 88 60 72 
-0.200183 -0.100988 1.21252 79 55 69 
-0.198727 -0.133588 1.21609 87 64 82 
-0.190764 -0.121725 1.20863 47 34 51 
-0.189961 -0.134302 1.20906 92 75 85 
-0.189516 -0.102299 1.20489 64 51 68 
-0.189325 -0.175402 1.21355 78 63 82 
-0.190691 0.0820754 1.17697 108 86 99 
-0.182835 -0.11921 1.19987 139 116 136 
-0.177833 -0.170642 1.20287 74 47 64 
-0.172571 -0.123935 1.19157 57 44 51 
-0.170074 -0.159832 1.19376 86 69 87 
-0.168905 -0.170606 1.19371 62 50 60 
-0.16634 -0.134674 1.18471 125 107 123 
-0.152665 -0.133335 1.17367 137 115 136 
-0.149262 -0.173594 1.17663 56 34 46 
-0.143756 -0.0196256 1.14777 71 54 70 
-0.142141 -0.146426 1.16422 134 113 130 
-0.140174 -0.174771 1.1684 48 31 41 
-0.13899 -0.158193 1.16426 78 63 86 
-0.131203 -0.176252 1.15895 72 50 62 
-0.126342 -0.190104 1.15441 132 108 124 
-0.126518 -0.154195 1.14964 97 66 82 
-0.12127 -0.174251 1.14706 137 118 137 
-0.112953 -0.181049 1.14367 92 68 84 
-0.113353 -0.168693 1.13831 91 62 80 
-0.106819 -0.17881 1.13528 95 72 88 
-0.0987282 -0.179274 1.12913 73 50 76 
0.0940596 -0.241508 0.953202 92 63 83 
0.104888 -0.240254 0.944135 76 54 75 
0.110363 -0.250818 0.938327 109 75 100 
0.113951 -0.193083 0.929299 134 119 140 
0.11447 -0.219509 0.930808 100 66 90 
0.116561 -0.232734 0.931167 100 68 89 
0.125135 -0.23335 0.923936 97 74 103 
0.125332 -0.166894 0.915584 138 121 140 
0.130905 -0.128587 0.90261 143 129 152 
0.134718 -0.22372 0.911901 98 70 92 
0.136938 -0.0476845 0.887225 140 112 127 
0.150344 -0.129301 0.884837 97 64 83 
0.179657 0.042496 0.833604 98 65 76 
0.181078 0.0835811 0.826852 79 56 76 
0.189681 -0.139504 0.849223 84 59 81 
0.191516 0.0433851 0.822874 143 124 143 
0.195501 -0.0338913 0.829288 94 65 83 
0.194992 0.00487567 0.823826 144 122 145 
0.194736 0.104659 0.812396 78 62 88 
0.194223 0.0845369 0.813487 132 111 128 
0.205948 0.0497546 0.809139 89 70 89 
0.20274 0.196525 0.793285 50 32 44 
0.206221 0.144074 0.796447 81 75 103 
0.216868 -0.215285 0.833721 130 121 142 
0.212716 -0.0526653 0.815204 90 63 80 
0.2103 0.0894353 0.800071 136 123 141 
0.211644 0.118525 0.793468 86 73 101 
0.214307 0.0808201 0.794602 133 114 133 
0.21429 0.206899 0.778374 104 76 91 
0.220477 0.13854 0.780952 142 118 132 
0.222275 0.179433 0.773738 87 66 83 
0.234795 -0.210374 0.815107 135 116 136 
0.243578 0.0351179 0.773384 121 97 113 
0.24009 0.138069 0.760308 71 60 68 
0.253315 -0.136545 0.788981 88 61 80 
0.247511 0.121475 0.757435 94 66 80 
0.25632 0.00514427 0.765641 92 68 81 
0.265796 -0.235691 0.78813 140 118 131 
0.269399 0.175082 0.730533 93 68 90 
0.301455 -0.225979 0.753242 102 77 96 
-0.2429 -0.0984391 1.25116 71 53 65 
-0.23174 -0.120283 1.24438 73 48 54 
-0.199459 0.0138863 1.19422 94 78 88 
-0.182524 -0.0853067 1.19373 66 48 64 
0.166432 -0.0475024 0.857042 149 124 145 
0.286232 -0.0918721 0.748996 105 73 94 
