ply                 
format ascii 1.0    
element vertex 1015
property float x    
property float y    
property float z    
property uchar red  
property uchar green
property uchar blue 
end_header          
0.108572 -0.182342 0.929261 93 60 77 
0.117348 -0.204805 0.925325 75 58 74 
0.118472 -0.212331 0.924735 81 62 84 
0.124827 -0.201547 0.917915 96 65 81 
0.132079 -0.168663 0.906565 85 60 79 
0.140391 -0.236852 0.907301 101 71 83 
0.143998 -0.0999145 0.885124 129 116 134 
0.146663 -0.158878 0.89098 86 58 73 
0.14769 -0.101802 0.881866 63 50 67 
0.150098 -0.143351 0.885813 97 61 75 
0.158585 -0.16096 0.879074 88 61 76 
0.158103 -0.126201 0.875034 92 67 89 
0.16311 -0.165333 0.875152 89 65 79 
0.165132 -0.106998 0.86757 70 54 67 
0.168153 -0.105364 0.863985 124 115 134 
0.176711 -0.191768 0.867683 84 57 72 
0.179274 -0.19271 0.863942 78 57 66 
0.179274 -0.19271 0.863942 78 57 66 
0.182388 -0.163361 0.858398 82 61 68 
0.185401 -0.209213 0.862445 75 57 71 
0.185132 -0.148006 0.852206 133 106 125 
0.185511 -0.105527 0.849071 128 119 136 
0.187792 -0.082438 0.843805 52 46 58 
0.19036 -0.164317 0.850522 83 53 65 
0.193663 -0.17679 0.849728 110 101 118 
0.194363 -0.166019 0.845731 85 64 73 
0.193221 -0.0806223 0.839675 59 43 56 
0.197304 -0.195693 0.848312 67 49 61 
0.191161 0.0145721 0.824419 136 115 132 
0.19684 -0.165559 0.844718 78 54 68 
0.197098 -0.145334 0.841888 72 49 59 
0.198853 -0.11662 0.836241 138 114 127 
0.201685 -0.164201 0.841262 136 117 139 
0.202779 -0.217385 0.844555 87 58 76 
0.204442 -0.240757 0.84881 61 44 62 
0.206905 -0.218933 0.841232 84 57 76 
0.205675 -0.0592774 0.822263 125 102 122 
0.210232 -0.176533 0.833684 43 29 42 
0.211104 -0.16671 0.832279 73 46 63 
0.2114 -0.146594 0.829216 75 59 70 
0.215759 -0.112967 0.819978 72 51 60 
0.210068 0.0716306 0.797946 149 128 137 
0.210068 0.0716306 0.797946 149 128 137 
0.219749 -0.197498 0.82665 73 49 62 
0.213142 0.0402244 0.801854 75 58 76 
0.225844 -0.272085 0.831504 63 46 62 
0.226027 -0.208823 0.822089 130 107 127 
0.226883 -0.211521 0.822055 47 36 52 
0.220722 0.0110892 0.797668 133 115 131 
0.220722 0.0110892 0.797668 133 115 131 
0.22335 0.0133331 0.795406 73 52 71 
0.224353 0.00919621 0.795743 84 58 71 
0.224353 0.00919621 0.795743 84 58 71 
0.220756 0.117027 0.784869 121 103 115 
0.224503 0.0114795 0.795417 129 110 129 
0.227468 -0.0512131 0.800045 134 117 136 
0.237636 -0.220929 0.812533 125 106 125 
0.230395 0.00624421 0.790791 138 111 126 
0.228171 0.116719 0.77814 129 114 133 
0.236998 -0.148408 0.802173 117 96 111 
0.238874 -0.146039 0.800683 52 40 54 
0.246011 -0.143272 0.79503 131 107 120 
0.250648 -0.246442 0.80393 52 34 46 
0.239784 0.0585457 0.771699 90 68 91 
0.24082 0.0464554 0.772065 149 125 138 
0.241851 0.0947964 0.764646 90 63 72 
0.243628 0.0534609 0.768378 97 70 87 
0.254444 -0.211951 0.796797 122 107 130 
0.246627 0.0583088 0.765797 87 64 82 
0.24826 0.0829917 0.7628 123 101 114 
0.256145 -0.123632 0.781835 85 60 79 
0.256145 -0.123632 0.781835 85 60 79 
0.250322 0.0388482 0.764704 125 108 127 
0.249787 0.0849607 0.762331 61 43 59 
0.261852 -0.214997 0.789962 45 31 48 
0.256932 -0.0838229 0.776863 53 33 42 
0.252557 0.0368051 0.763469 65 47 61 
0.247807 0.198516 0.746841 125 98 113 
0.264978 -0.248124 0.790528 75 53 74 
0.262815 -0.145632 0.777707 136 119 138 
0.255723 0.041066 0.759229 86 62 75 
0.257242 0.0385773 0.758179 136 113 129 
0.255212 0.114321 0.752062 91 68 94 
0.251314 0.197085 0.742049 122 104 118 
0.263126 -0.0278412 0.764458 47 37 46 
0.263126 -0.0278412 0.764458 47 37 46 
0.271453 -0.249257 0.784898 54 41 51 
0.259352 0.0792077 0.750169 131 105 118 
0.263576 0.00100676 0.757876 136 118 132 
0.255677 0.198515 0.738209 74 60 75 
0.264432 0.132131 0.738065 133 112 127 
0.262775 0.193779 0.732694 41 35 49 
0.264665 0.186854 0.730497 138 121 137 
0.276271 -0.0871732 0.757966 83 61 74 
0.266902 0.201223 0.72666 80 62 74 
0.26775 0.198273 0.726685 137 124 150 
0.271728 0.112406 0.735205 75 56 75 
0.271728 0.112406 0.735205 75 56 75 
0.273341 0.0757006 0.737786 147 116 131 
0.27695 0.00341066 0.744655 66 49 68 
0.271573 0.193304 0.724415 98 97 115 
0.271573 0.193304 0.724415 98 97 115 
0.271649 0.193318 0.724418 98 95 112 
0.273159 0.195642 0.721575 137 118 137 
0.284128 -0.0262413 0.740766 136 115 134 
0.285189 0.0502569 0.730541 101 74 91 
0.287141 0.0352553 0.730588 125 104 121 
0.290247 0.0272316 0.728433 131 109 130 
0.288943 0.189464 0.706879 56 39 49 
0.291072 0.147263 0.709975 94 65 70 
0.291072 0.147263 0.709975 94 65 70 
-0.301371 -0.0578568 1.29794 129 114 133 
-0.224781 -0.040761 1.22671 57 39 53 
-0.179555 -0.135035 1.19722 57 44 54 
-0.158999 -0.171266 1.18149 74 51 67 
0.093534 -0.179934 0.943852 76 52 68 
0.106171 -0.196951 0.934665 77 56 73 
0.120204 -0.185963 0.920226 99 65 79 
0.130414 -0.187615 0.910198 91 68 76 
0.137725 -0.134514 0.896751 81 57 70 
0.142089 -0.222686 0.903596 102 75 92 
0.143681 -0.044444 0.877419 143 120 138 
0.153137 -0.18852 0.888404 84 53 69 
0.161083 -0.0470841 0.865547 144 122 145 
0.167298 -0.191034 0.875418 84 60 74 
0.167325 -0.0761103 0.860142 77 53 67 
0.174664 -0.0494089 0.849731 79 51 65 
0.178858 0.0674238 0.832198 123 110 130 
0.193001 -0.240362 0.85815 140 113 128 
0.189634 -0.0218878 0.832854 67 46 53 
0.196175 -0.209142 0.851153 88 63 84 
0.188512 0.0665263 0.821482 121 111 135 
0.189958 0.0948826 0.814483 139 115 128 
0.196789 -0.0524137 0.831482 64 44 53 
0.196375 -0.00706666 0.822912 136 113 129 
0.199738 0.0938244 0.805709 128 107 124 
0.201155 0.0767108 0.806022 126 109 128 
0.206008 0.0101021 0.812423 82 63 82 
0.199464 0.208609 0.789367 73 65 76 
0.210632 -0.0810686 0.821608 57 38 44 
0.211193 0.139722 0.788804 135 111 127 
0.211624 0.165848 0.786182 84 66 90 
0.223978 -0.112623 0.810523 125 107 123 
0.226638 -0.18391 0.817189 85 59 72 
0.214629 0.19362 0.776873 49 33 46 
0.235112 -0.257258 0.819903 77 58 77 
0.222928 0.152878 0.775631 142 121 138 
0.236687 -0.199994 0.81144 121 100 117 
0.223906 0.16772 0.771871 129 110 130 
0.222861 0.206457 0.767684 95 68 87 
0.233721 -0.0823432 0.798039 82 57 78 
0.240725 -0.248334 0.813297 122 105 124 
0.236377 -0.113488 0.799132 92 64 79 
0.229423 0.0803508 0.777867 140 118 131 
0.227782 0.195049 0.765923 80 65 84 
0.232776 0.162206 0.765474 68 54 69 
0.23808 0.0791173 0.76989 139 113 124 
0.249397 -0.0281698 0.776054 65 40 46 
0.248458 0.138104 0.754111 68 56 68 
0.248902 0.185451 0.745129 92 67 86 
0.259014 -0.0585923 0.770946 73 51 64 
0.271139 -0.28104 0.787897 87 63 77 
0.27327 -0.214944 0.77952 55 51 65 
0.270704 -0.149559 0.770453 76 68 83 
0.281704 -0.277174 0.778126 76 59 78 
0.265813 0.156272 0.734071 123 99 112 
0.279588 -0.183945 0.766709 118 94 116 
0.271947 0.0369275 0.745104 136 119 135 
0.293112 -0.266864 0.765681 80 61 81 
0.2883 -0.155343 0.754607 82 61 78 
0.295075 -0.183845 0.752816 68 50 72 
0.291198 -0.0654181 0.739414 133 106 121 
0.281332 0.184283 0.714981 126 107 126 
-0.299715 0.171665 1.26576 128 120 144 
-0.297341 0.0258721 1.28389 122 114 138 
-0.295029 -0.00111899 1.28678 59 51 66 
-0.294509 0.142151 1.26693 79 64 83 
-0.291719 0.120215 1.2679 61 54 70 
-0.287421 0.0265643 1.27669 70 60 85 
-0.287981 -0.00032834 1.27804 129 116 142 
-0.286577 0.0614222 1.27117 67 55 75 
-0.286225 0.141437 1.25966 67 57 82 
-0.281867 0.00967424 1.27221 137 124 144 
-0.279558 0.10049 1.26066 77 64 92 
-0.280643 -0.0302946 1.27517 125 107 129 
-0.278707 0.117479 1.25738 69 56 74 
-0.276327 0.0233063 1.26564 128 114 140 
-0.275529 0.128081 1.25064 120 118 142 
-0.275761 0.155893 1.24567 110 101 128 
-0.274035 0.0602945 1.26029 76 62 85 
-0.273825 0.0341315 1.26357 82 69 87 
-0.275069 0.138542 1.24689 73 64 107 
-0.27357 -0.0361398 1.2702 125 113 135 
-0.272918 -0.020925 1.26735 72 56 85 
-0.270621 0.0943284 1.25244 75 61 84 
-0.270851 0.173408 1.2396 126 122 149 
-0.26813 0.0366069 1.25629 59 45 62 
-0.268394 0.061209 1.25178 130 117 137 
-0.267582 -0.00323694 1.26112 129 121 144 
-0.2664 0.129542 1.23979 172 190 255 
-0.264772 0.0260593 1.25525 120 105 128 
-0.266405 0.192999 1.23128 123 119 146 
-0.264171 0.113747 1.24345 56 44 54 
-0.261891 -0.0421107 1.25985 86 75 105 
-0.262835 0.138481 1.23489 23 31 50 
-0.261289 0.169531 1.23187 52 43 62 
-0.259616 -0.00845519 1.25292 127 103 127 
-0.257686 0.0228489 1.24843 80 57 83 
-0.258114 0.18758 1.22527 82 69 87 
-0.256945 -0.0331527 1.25356 132 107 129 
-0.253855 0.0914731 1.23618 119 101 117 
-0.252938 0.148864 1.22867 53 44 63 
-0.252831 0.00558513 1.24475 103 79 105 
-0.252263 0.109858 1.23169 105 87 99 
-0.252167 0.164746 1.22461 115 107 122 
-0.251862 0.0668709 1.23607 134 114 126 
-0.250485 0.136084 1.22754 112 103 124 
-0.250728 0.185928 1.2183 106 98 113 
-0.247863 -0.00461447 1.24458 74 61 89 
-0.247675 0.0354033 1.23884 67 50 69 
-0.2469 0.0201093 1.24089 40 31 48 
-0.245407 0.0929628 1.22835 136 122 137 
-0.24365 0.0680467 1.22862 118 105 131 
-0.244002 0.119732 1.22069 137 120 136 
-0.242378 0.0556714 1.22893 56 44 56 
-0.242122 0.165717 1.21439 57 47 56 
-0.24033 -0.0115591 1.2375 133 113 140 
-0.239836 -0.0602278 1.24203 130 116 139 
-0.238723 0.187881 1.2088 100 97 116 
-0.237644 -0.0418198 1.23791 75 66 95 
-0.235818 0.0185006 1.22778 122 102 111 
-0.236284 0.132317 1.21259 63 49 66 
-0.235397 0.213311 1.20368 55 44 58 
-0.2349 0.0688911 1.22095 110 95 114 
-0.234539 0.145964 1.21195 57 44 53 
-0.234247 0.110721 1.212 54 40 55 
-0.230612 -0.0666507 1.23543 65 52 69 
-0.230482 -0.0281669 1.22886 95 67 92 
-0.227464 0.0316846 1.22259 74 63 79 
-0.228898 0.0745683 1.21358 92 70 93 
-0.22788 0.0604577 1.21451 126 111 134 
-0.22832 0.207351 1.1956 57 41 51 
-0.225601 0.0185126 1.22196 54 40 53 
-0.226884 0.133625 1.20482 61 44 62 
-0.225964 0.150416 1.20181 120 101 120 
-0.224034 -0.0409176 1.22786 55 38 46 
-0.225179 0.182613 1.19768 51 35 48 
-0.223809 -0.0142413 1.22161 134 111 127 
-0.2227 0.0894622 1.20931 48 42 44 
-0.224139 0.171598 1.19587 49 36 46 
-0.219301 0.108759 1.20308 69 56 76 
-0.219069 -0.0393599 1.21897 134 115 134 
-0.217033 0.0176339 1.21427 65 51 64 
-0.218145 0.210744 1.18667 109 92 110 
-0.215541 0.134782 1.19463 117 100 119 
-0.213585 -0.0127095 1.21477 61 47 62 
-0.216025 0.162697 1.18977 51 40 56 
-0.213506 -0.0631323 1.22047 130 116 139 
-0.214629 0.0669955 1.20294 56 38 52 
-0.21159 -0.0474347 1.21525 130 107 125 
-0.211297 0.183166 1.18713 27 25 28 
-0.211255 0.0146157 1.20602 110 99 113 
-0.210939 0.107956 1.19478 71 55 66 
-0.211548 0.200702 1.1819 83 75 96 
-0.211572 0.0892484 1.19469 73 58 77 
-0.209767 0.032936 1.20279 122 110 130 
-0.207023 0.0509666 1.2009 58 42 55 
-0.208587 0.146711 1.18671 48 36 46 
-0.205856 -0.00634969 1.20357 73 65 89 
-0.205339 -0.0418074 1.20804 89 66 86 
-0.206419 0.125994 1.1859 45 35 44 
-0.202332 -0.0669574 1.20959 131 123 146 
-0.202196 0.163516 1.18145 99 95 110 
-0.202379 0.137016 1.18136 112 95 111 
-0.20207 0.033058 1.1934 137 118 137 
-0.201204 -0.0301419 1.20217 96 66 78 
-0.198312 -0.0150173 1.19864 67 46 61 
-0.198521 0.0688108 1.1875 115 98 117 
-0.19845 0.121398 1.17951 37 27 36 
-0.198583 0.0819495 1.18403 128 95 104 
-0.195213 -0.0438996 1.2002 53 36 54 
-0.195198 0.049617 1.18695 60 47 57 
-0.192367 -0.0694377 1.20117 132 117 138 
-0.193327 0.0356947 1.18587 141 120 135 
-0.19436 0.15469 1.1698 56 35 44 
-0.189166 0.0630171 1.17906 50 34 44 
-0.187953 -0.0160986 1.18927 83 55 70 
-0.188867 0.12977 1.1694 54 40 53 
-0.186168 -0.0423223 1.18992 85 61 87 
-0.185766 0.0471217 1.17919 111 100 116 
-0.185604 0.0129195 1.18256 141 123 137 
-0.183565 -0.0973272 1.19675 141 126 147 
-0.184082 0.0341785 1.17719 136 117 136 
-0.183122 -0.072984 1.19032 120 104 117 
-0.177184 -0.0444015 1.18282 89 57 72 
-0.17637 -0.0936514 1.18662 75 54 71 
-0.176764 0.080623 1.16481 86 70 83 
-0.175551 -0.0166043 1.1763 71 54 73 
-0.172605 -0.0813487 1.1832 53 38 57 
-0.166701 -0.105586 1.1802 130 101 119 
-0.16524 -0.0715758 1.17557 80 62 86 
-0.165183 -0.0162628 1.16519 70 51 71 
-0.160748 -0.122828 1.17835 77 64 74 
-0.16198 -0.0899034 1.17265 95 62 79 
-0.157825 -0.0628628 1.16869 131 119 139 
-0.153745 -0.01806 1.15802 62 48 65 
-0.152754 -0.0723786 1.16409 64 40 53 
-0.151274 -0.10071 1.16511 92 64 78 
-0.149508 -0.0441942 1.15586 133 110 128 
-0.148565 -0.124016 1.16607 94 66 78 
-0.146607 -0.0290676 1.15204 73 51 74 
-0.141828 -0.0738516 1.15461 65 48 64 
-0.138411 -0.138616 1.15842 83 60 86 
-0.136844 -0.126906 1.15489 85 61 74 
-0.13338 -0.0738085 1.14623 71 53 77 
-0.132796 -0.0200504 1.13798 127 120 138 
-0.130041 -0.140421 1.15098 80 57 77 
-0.128122 -0.123062 1.14701 133 118 137 
-0.126096 -0.102971 1.14306 85 60 81 
-0.125767 -0.049488 1.13452 50 37 46 
-0.121922 -0.0756382 1.13547 58 38 49 
-0.121159 -0.128729 1.13942 139 126 144 
-0.114683 -0.140805 1.13668 67 39 61 
-0.100488 -0.147178 1.12312 66 49 65 
-0.0988429 -0.167901 1.12508 45 31 56 
0.119227 -0.108233 0.909897 110 77 96 
0.123681 -0.221422 0.920123 106 76 104 
0.131721 -0.247039 0.918173 158 135 155 
0.13007 -0.101854 0.901026 83 56 75 
0.131636 -0.203618 0.912297 106 73 94 
0.138073 -0.187721 0.904173 102 74 96 
0.137829 -0.069593 0.886467 139 121 145 
0.141941 -0.168832 0.898102 107 79 102 
0.148785 -0.203986 0.897854 138 130 154 
0.145258 -0.118532 0.885457 102 72 96 
0.148117 -0.231318 0.898266 103 74 96 
0.148858 -0.0739194 0.880066 89 64 83 
0.151828 -0.172785 0.888672 92 72 100 
0.165519 -0.261952 0.887666 89 61 86 
0.160613 -0.0668908 0.865047 90 66 88 
0.165702 -0.24562 0.885419 149 127 148 
0.168339 -0.206087 0.876409 89 66 82 
0.17365 -0.138883 0.865084 98 68 92 
0.181567 -0.222403 0.868725 145 127 149 
0.184189 -0.233779 0.865281 90 70 95 
0.184693 0.0315879 0.829779 144 123 138 
0.201474 -0.0243706 0.823795 57 40 46 
0.205822 -0.266757 0.849041 83 70 100 
0.20189 0.0595394 0.811297 87 69 93 
0.201397 0.0397487 0.813089 78 59 78 
0.211346 -0.203632 0.836071 94 81 101 
0.215073 -0.230183 0.836354 88 67 98 
0.218008 -0.245706 0.835196 135 122 140 
0.214864 -0.0238002 0.809791 64 43 52 
0.219238 -0.141498 0.821194 148 125 141 
0.218031 0.0276459 0.798893 97 69 84 
0.222274 -0.16645 0.820133 70 54 80 
0.214709 0.0915366 0.789321 35 77 185 
0.22261 -0.0208326 0.801429 135 123 147 
0.223986 -0.0839146 0.807704 75 68 84 
0.215743 0.108575 0.785384 93 134 224 
0.226267 -0.14853 0.814511 78 65 85 
0.221575 0.060743 0.791429 95 67 82 
0.226084 -0.0967201 0.807883 81 67 92 
0.223981 0.0402566 0.789475 159 142 158 
0.226227 0.0908666 0.78312 142 124 140 
0.238972 -0.270431 0.821893 130 115 146 
0.234653 -0.176415 0.809652 76 64 84 
0.230947 0.0513154 0.784361 154 130 146 
0.233702 0.0371883 0.784553 75 57 69 
0.238001 -0.236021 0.813257 94 69 91 
0.232515 0.140666 0.77077 89 74 93 
0.236884 -0.0343559 0.789354 88 64 86 
0.238231 -0.0512373 0.790765 84 68 95 
0.246531 -0.213172 0.807157 46 39 55 
0.23709 0.0111627 0.781237 126 107 127 
0.235187 0.122151 0.768509 81 62 81 
0.239349 0.0263628 0.778082 87 65 88 
0.242717 -0.0246305 0.783732 144 127 146 
0.24283 -0.0812956 0.788014 137 116 135 
0.238512 0.172374 0.759267 147 129 141 
0.248045 -0.114552 0.790232 72 50 71 
0.240531 0.192214 0.754992 129 114 137 
0.243258 0.113815 0.76323 80 54 67 
0.242809 0.151171 0.759009 91 69 92 
0.246137 0.0083013 0.774554 78 58 70 
0.253526 -0.274298 0.805465 85 61 85 
0.245655 0.161799 0.755074 94 74 99 
0.244599 0.178103 0.750464 148 131 150 
0.26264 -0.273032 0.794496 143 125 151 
0.253007 0.157766 0.747931 135 114 129 
0.265155 -0.0819819 0.767924 139 120 139 
0.265677 -0.0153609 0.759036 148 131 147 
0.265194 0.0312318 0.752023 146 125 142 
0.264248 0.102723 0.744431 97 72 94 
0.268821 -0.0605403 0.762117 72 51 68 
0.264484 0.0908972 0.745034 96 67 85 
0.270244 -0.166707 0.772724 104 78 105 
0.271802 -0.135004 0.76973 154 132 153 
0.272782 -0.191557 0.775528 96 82 108 
0.280407 -0.261697 0.77806 95 74 105 
0.272999 0.0560403 0.743076 62 44 70 
0.281552 -0.249723 0.77579 78 67 99 
0.276629 0.137147 0.72894 139 122 138 
0.281577 0.156797 0.722755 67 53 68 
0.293743 -0.250304 0.763093 94 67 98 
0.285185 0.109835 0.7229 129 106 116 
0.269398 0.216479 0.703179 123 107 117 
0.286527 0.200539 0.706381 86 77 104 
0.271534 0.233841 0.699044 13 20 30 
0.302785 -0.0622165 0.730176 81 67 102 
0.298991 0.134451 0.706554 133 112 127 
0.282162 0.23051 0.687142 15 26 44 
0.294184 0.203953 0.686754 143 133 157 
0.289423 0.223863 0.682044 178 194 254 
0.295783 0.233793 0.67347 97 95 100 
0.175563 -0.108424 0.85664 61 48 58 
0.186321 -0.190937 0.856644 127 113 136 
0.178116 0.101398 0.824815 71 52 72 
0.180941 0.0184087 0.833641 132 114 138 
0.182436 0.12181 0.819069 62 47 66 
0.182124 0.173593 0.813003 73 59 85 
0.193768 -0.219073 0.853079 92 63 83 
0.18392 0.203994 0.805828 116 107 138 
0.198246 -0.184435 0.844253 89 65 79 
0.192821 0.139847 0.804932 131 105 116 
0.191648 0.182756 0.799284 74 57 73 
0.194237 0.203148 0.797898 63 47 58 
0.195976 0.165377 0.800745 75 57 79 
0.198459 0.116273 0.806397 112 104 127 
0.206106 -0.109308 0.827646 55 34 51 
0.210474 0.0619474 0.801338 80 62 78 
0.23223 -0.0432772 0.793773 78 55 63 
0.25398 -0.147937 0.785766 87 70 88 
0.264588 -0.12284 0.77374 78 56 77 
0.259909 0.0570743 0.753317 89 66 86 
0.265081 0.0416858 0.750643 114 99 120 
0.282475 0.0268718 0.734678 135 114 133 
0.297716 -0.0418901 0.730195 83 61 74 
0.297271 0.190379 0.698167 118 105 122 
-0.309994 -0.121884 1.31701 73 58 79 
-0.305557 0.216122 1.26674 107 100 118 
-0.304725 -0.140488 1.31505 84 63 80 
-0.301905 0.0193707 1.29341 62 46 59 
-0.301381 -0.122789 1.31107 65 51 64 
-0.301005 -0.028682 1.29748 132 120 142 
-0.300184 0.261761 1.25646 70 59 73 
-0.30052 0.123416 1.27546 129 118 134 
-0.299136 -0.159867 1.3123 90 65 86 
-0.297951 -0.0902402 1.30237 89 67 79 
-0.297425 0.21518 1.25834 115 112 133 
-0.295566 0.203432 1.25966 114 108 136 
-0.294856 -0.146438 1.30835 133 110 126 
-0.292822 -0.0601766 1.29442 69 56 66 
-0.291129 0.261312 1.24704 67 59 74 
-0.286872 0.216466 1.25121 50 47 54 
-0.287472 -0.124005 1.29658 90 63 80 
-0.285542 0.173019 1.25513 80 70 94 
-0.28514 -0.147112 1.29865 130 109 126 
-0.284704 0.243817 1.24437 109 104 124 
-0.284235 0.261259 1.23889 71 64 82 
-0.283086 -0.0634529 1.28372 114 99 120 
-0.283743 0.267933 1.23126 104 94 102 
-0.281943 -0.0834841 1.2847 68 54 79 
-0.281428 -0.0979035 1.28686 130 113 132 
-0.280223 -0.109548 1.28865 140 123 141 
-0.277898 -0.123452 1.28909 63 51 61 
-0.277918 -0.15026 1.29126 75 57 69 
-0.275793 -0.162899 1.29302 73 54 73 
-0.276298 0.276263 1.21365 51 51 51 
-0.271699 -0.096752 1.27785 136 129 145 
-0.270762 -0.114778 1.28247 54 38 49 
-0.270664 0.262238 1.22742 119 111 124 
-0.269758 0.0512834 1.25832 62 55 71 
-0.267701 0.244055 1.23047 112 110 131 
-0.266419 -0.164264 1.28471 76 54 67 
-0.265646 -0.144435 1.28044 78 55 63 
-0.265044 -0.104759 1.27626 122 101 118 
-0.266104 0.14805 1.23816 157 171 242 
-0.265494 -0.0625024 1.26805 98 90 114 
-0.263097 0.211848 1.2283 118 106 126 
-0.263015 -0.0977467 1.26872 145 127 141 
-0.261889 -0.114156 1.2721 125 111 128 
-0.262269 0.264686 1.21227 79 70 91 
-0.258087 0.0589447 1.24763 55 47 70 
-0.259035 0.123211 1.23633 22 27 46 
-0.25769 -0.169172 1.27817 68 49 55 
-0.256637 0.0363952 1.24872 66 52 69 
-0.262411 0.282779 1.19868 32 31 29 
-0.256802 -0.0599377 1.25928 120 104 130 
-0.254451 -0.130366 1.26745 81 53 67 
-0.25193 -0.09277 1.25855 67 52 75 
-0.249853 -0.119461 1.26337 70 47 55 
-0.250118 0.243154 1.21272 106 88 102 
-0.248764 0.211443 1.21596 38 35 46 
-0.247436 -0.0631559 1.25358 63 48 77 
-0.248629 0.259529 1.20742 42 44 57 
-0.240156 0.0845342 1.22548 67 56 72 
-0.239773 -0.167362 1.25921 75 51 67 
-0.235151 -0.0945637 1.24661 80 57 75 
-0.238097 0.268697 1.18052 92 82 91 
-0.230393 -0.171541 1.25342 66 52 67 
-0.228431 0.229535 1.19451 61 44 54 
-0.226587 -0.0891966 1.23402 81 59 72 
-0.226221 0.239269 1.19086 49 41 52 
-0.220995 -0.13232 1.2408 69 51 67 
-0.22096 -0.0656863 1.22691 120 116 143 
-0.219428 0.0776913 1.20558 109 92 111 
-0.216772 -0.128556 1.23193 109 93 104 
-0.214938 -0.163253 1.23845 56 42 55 
-0.216321 0.240572 1.18126 92 89 108 
-0.214427 -0.14008 1.23155 44 31 49 
-0.213983 0.257033 1.17538 41 39 52 
-0.212279 -0.0819949 1.22077 133 109 123 
-0.211031 -0.126384 1.22354 122 91 107 
-0.206568 -0.179594 1.22894 88 60 72 
-0.200508 -0.101001 1.213 79 55 69 
-0.199047 -0.133673 1.2166 87 64 82 
-0.191064 -0.121788 1.20913 47 34 51 
-0.190259 -0.134392 1.20957 92 75 85 
-0.189814 -0.10232 1.20538 64 51 68 
-0.189619 -0.175584 1.21408 78 63 82 
-0.191004 0.0824344 1.17729 108 86 99 
-0.183116 -0.119271 1.20036 139 116 136 
-0.1781 -0.170818 1.20339 74 47 64 
-0.172827 -0.12401 1.19205 57 44 51 
-0.170321 -0.159987 1.19427 86 69 87 
-0.169148 -0.170786 1.19421 62 50 60 
-0.16658 -0.134773 1.18518 125 107 123 
-0.15287 -0.133439 1.17413 137 115 136 
-0.149457 -0.17379 1.17712 56 34 46 
-0.143944 -0.0194859 1.14813 71 54 70 
-0.142319 -0.146563 1.16467 134 113 130 
-0.140345 -0.174974 1.16887 48 31 41 
-0.139159 -0.158359 1.16472 78 63 86 
-0.131351 -0.176462 1.15942 72 50 62 
-0.126478 -0.190345 1.15487 132 108 124 
-0.126656 -0.154355 1.15007 97 66 82 
-0.121394 -0.174459 1.1475 137 118 137 
-0.113053 -0.18128 1.14411 92 68 84 
-0.113456 -0.168892 1.13873 91 62 80 
-0.106904 -0.179037 1.13571 95 72 88 
-0.0987903 -0.179507 1.12955 73 50 76 
0.0945619 -0.241989 0.953354 92 63 83 
0.105428 -0.24074 0.944273 76 54 75 
0.110916 -0.25133 0.938454 109 75 100 
0.114524 -0.193457 0.929397 134 119 140 
0.115041 -0.219947 0.930914 100 66 90 
0.117138 -0.233207 0.931277 100 68 89 
0.125741 -0.233831 0.924035 97 74 103 
0.125948 -0.167209 0.91565 138 121 140 
0.13154 -0.128808 0.902639 143 129 152 
0.135355 -0.22418 0.911972 98 70 92 
0.137603 -0.0477074 0.887205 140 112 127 
0.151046 -0.129533 0.884834 97 64 83 
0.180489 0.0426862 0.833463 98 65 76 
0.181923 0.0838755 0.826689 79 56 76 
0.190522 -0.139782 0.849154 84 59 81 
0.192394 0.0435748 0.822712 143 124 143 
0.19638 -0.0339008 0.829157 94 65 83 
0.195875 0.00496568 0.823675 144 122 145 
0.195638 0.105006 0.812201 78 62 88 
0.195117 0.0848311 0.813298 132 111 128 
0.206885 0.0499576 0.80895 89 70 89 
0.203692 0.19711 0.793033 50 32 44 
0.207176 0.144522 0.796213 81 75 103 
0.217796 -0.215773 0.833638 130 121 142 
0.213657 -0.0527297 0.815049 90 63 80 
0.211261 0.0897405 0.799855 136 123 141 
0.212614 0.118905 0.793233 86 73 101 
0.215278 0.0811011 0.794376 133 114 133 
0.215287 0.207509 0.778089 104 76 91 
0.221484 0.13897 0.780687 142 118 132 
0.223298 0.17997 0.77345 87 66 83 
0.235788 -0.210859 0.814984 135 116 136 
0.244656 0.035273 0.773124 121 97 113 
0.241173 0.138496 0.76 71 60 68 
0.254396 -0.136848 0.788789 88 61 80 
0.248624 0.121858 0.757125 94 66 80 
0.257443 0.00521635 0.765371 92 68 81 
0.266899 -0.23626 0.787954 140 118 131 
0.270618 0.175609 0.730155 93 68 90 
0.302698 -0.226544 0.752987 102 77 96 
-0.243293 -0.0984408 1.25177 71 53 65 
-0.232101 -0.120339 1.24501 73 48 54 
-0.199719 0.0141109 1.19475 94 78 88 
-0.182735 -0.0853116 1.19433 66 48 64 
0.167645 -0.0475769 0.857245 149 124 145 
0.28808 -0.0921531 0.748973 105 73 94 
-0.34202 0.197582 1.2992 145 164 204 
-0.338439 0.175758 1.30092 93 88 118 
-0.33829 0.104731 1.30971 94 97 132 
-0.336014 0.139597 1.30384 94 81 99 
-0.336353 0.0903014 1.30994 111 93 115 
-0.336678 0.0296329 1.31931 69 72 113 
-0.324112 0.100166 1.29746 80 70 97 
-0.335153 -0.187948 1.34553 174 191 237 
-0.331054 -0.15132 1.33918 118 103 126 
-0.301933 -0.190049 1.31739 77 55 76 
-0.29809 -0.248023 1.32104 126 107 126 
-0.289899 -0.0549551 1.28591 127 109 131 
-0.291755 -0.193032 1.30745 138 114 130 
-0.289721 -0.245051 1.31152 76 57 76 
-0.27751 -0.141588 1.28686 92 72 84 
-0.272958 -0.192699 1.29072 52 37 56 
-0.264787 -0.150143 1.27671 57 37 46 
-0.255771 -0.2209 1.27931 133 115 137 
-0.231067 -0.199144 1.25293 77 53 66 
-0.216916 -0.2013 1.24165 70 46 62 
-0.214909 -0.229409 1.24201 58 40 52 
-0.203929 -0.229566 1.23242 74 48 59 
-0.193332 -0.230708 1.22154 74 57 67 
-0.190776 -0.249433 1.22181 133 119 136 
-0.179531 -0.230467 1.20918 73 56 72 
0.0973395 -0.199645 0.942652 89 68 85 
0.114688 -0.247105 0.931505 99 68 76 
0.118029 -0.137767 0.916124 141 117 133 
0.11904 -0.121207 0.910868 108 74 88 
0.120918 -0.158333 0.914876 88 57 73 
0.120658 -0.0719171 0.903216 101 69 82 
0.124933 -0.139675 0.90833 134 110 126 
0.132876 -0.155891 0.902118 88 64 78 
0.164074 0.0461037 0.848454 77 54 64 
0.17016 0.0101775 0.845647 116 100 126 
0.174234 -0.022883 0.846316 136 106 116 
0.172432 0.118625 0.826861 71 49 61 
0.176397 0.191973 0.815239 93 78 97 
0.1795 0.143385 0.81887 61 46 69 
0.187481 0.128932 0.812511 140 123 142 
0.287578 0.00346471 0.735005 73 52 69 
0.297518 0.0251056 0.721096 129 105 119 
0.299711 -0.0109336 0.724816 131 106 125 
0.292911 0.156989 0.706177 63 41 53 
0.299191 0.0535411 0.716525 65 44 59 
-0.313331 0.173422 1.27503 123 113 138 
-0.311761 0.261189 1.26233 71 67 84 
-0.313019 -0.0877834 1.30957 99 75 99 
-0.313387 -0.145275 1.3178 95 66 84 
-0.311695 -0.0980645 1.30979 84 67 86 
-0.262625 0.239183 1.22141 53 44 61 
-0.247947 0.271988 1.18174 35 36 40 
-0.210353 -0.151233 1.22372 71 54 73 
-0.201604 -0.197999 1.2237 72 53 73 
-0.173221 -0.204921 1.19679 75 62 79 
-0.151883 -0.210838 1.1788 97 63 80 
-0.136133 -0.219057 1.16199 66 52 67 
-0.0975724 -0.21302 1.12666 87 61 90 
0.108202 -0.229552 0.934284 96 66 94 
0.12865 -0.11962 0.899392 105 73 96 
0.164509 0.067115 0.842414 120 105 124 
0.170934 -0.22811 0.873403 103 74 96 
0.187376 -0.22553 0.858087 104 76 99 
0.181773 0.182862 0.808894 73 52 69 
0.188535 0.114947 0.810002 96 73 93 
0.199832 0.155042 0.796185 136 132 155 
0.202644 0.165628 0.793196 80 66 91 
0.22344 -0.0335631 0.800367 68 54 71 
0.236345 -0.190009 0.808857 61 49 73 
0.233101 0.200087 0.754598 149 126 144 
0.270971 -0.0106758 0.748827 138 117 134 
0.277465 -0.121085 0.756574 97 72 94 
0.287845 0.135037 0.712562 145 118 133 
0.297688 -0.207798 0.749115 144 123 142 
0.29084 0.073948 0.717903 147 121 130 
-0.203702 -0.167915 1.22447 77 54 72 
0.125649 -0.211992 0.916891 95 68 87 
0.150813 -0.0473309 0.871618 78 50 62 
0.155555 -0.242643 0.893708 113 82 98 
0.227363 -0.194653 0.818543 135 113 136 
0.244311 -0.0569953 0.785858 82 51 66 
0.253947 0.13307 0.747591 140 119 136 
0.267147 -0.0425891 0.75975 94 66 88 
-0.163234 -0.0462985 1.16898 63 46 62 
-0.387521 -0.154178 1.38523 103 115 153 
-0.387419 -0.185345 1.38832 86 95 126 
-0.382616 -0.279319 1.39894 32 39 91 
-0.33392 -0.0395503 1.32892 109 86 112 
-0.331996 -0.124184 1.34209 114 96 118 
-0.331391 -0.217474 1.35118 77 72 112 
-0.329561 -0.197047 1.34839 115 97 121 
-0.331334 -0.248512 1.35638 79 77 116 
-0.328504 -0.163176 1.34529 105 85 113 
-0.3306 -0.304623 1.36323 93 98 140 
-0.322203 -0.143641 1.33273 79 58 77 
-0.322376 -0.11246 1.33711 113 90 118 
-0.287467 -0.192104 1.30666 68 43 64 
-0.275748 -0.278639 1.31228 126 108 124 
-0.275601 -0.311091 1.31163 137 113 127 
-0.260873 -0.2778 1.29184 124 109 128 
-0.262338 -0.309725 1.29998 88 64 88 
-0.250486 -0.225277 1.27879 82 59 77 
-0.245147 -0.251754 1.2777 76 62 75 
-0.239469 -0.31418 1.28069 74 47 62 
-0.238134 -0.276511 1.2738 72 51 70 
-0.236331 -0.225919 1.26618 128 109 128 
-0.233854 -0.186261 1.25749 59 41 57 
-0.227353 -0.226031 1.25749 130 107 123 
-0.225203 -0.298741 1.26574 69 54 73 
-0.21651 -0.255246 1.25062 77 50 67 
-0.200465 -0.298905 1.24304 86 61 82 
-0.19003 -0.299189 1.2318 84 61 81 
-0.18956 -0.283725 1.23319 70 52 64 
-0.189354 -0.324932 1.23529 73 52 67 
-0.178918 -0.282379 1.22061 78 59 78 
-0.178612 -0.325588 1.2255 82 61 80 
-0.167621 -0.318745 1.21428 86 61 82 
-0.16661 -0.282903 1.20777 71 55 68 
-0.15891 -0.302465 1.20435 73 55 77 
-0.154938 -0.311057 1.20006 78 60 76 
-0.152554 -0.235576 1.18947 70 56 71 
-0.142772 -0.237726 1.17988 51 34 44 
-0.138775 -0.278846 1.18095 80 66 89 
-0.124395 -0.306193 1.16963 72 57 78 
-0.109284 -0.268848 1.15375 63 46 64 
-0.0994022 -0.309776 1.1488 91 65 90 
-0.092468 -0.290699 1.14081 74 60 85 
-0.0867446 -0.29376 1.13259 71 52 71 
-0.0745083 -0.31353 1.1242 53 39 56 
-0.0709151 -0.299391 1.12074 58 46 68 
-0.0468546 -0.297155 1.09734 68 54 71 
-0.0194445 -0.298158 1.06982 56 34 55 
0.0174558 -0.303237 1.03371 117 95 108 
0.0470706 -0.271643 1.00468 93 69 93 
0.0481655 -0.282433 1.0056 96 82 99 
0.0576387 -0.257603 0.991367 93 63 75 
0.0583253 -0.287855 0.996558 93 71 92 
0.0685707 -0.259336 0.983492 93 59 76 
0.0808815 -0.284786 0.976677 80 58 71 
0.0827675 -0.229018 0.966215 93 65 88 
0.0899594 -0.261947 0.965307 95 72 92 
0.096584 -0.25981 0.957931 125 117 140 
0.104216 -0.259542 0.947781 85 76 93 
0.110678 -0.290498 0.948194 77 55 68 
0.118018 -0.263523 0.936467 94 65 85 
0.123729 -0.285316 0.93445 76 57 85 
0.120594 -0.0428551 0.905516 73 49 65 
0.128885 -0.265369 0.928315 95 72 92 
0.140061 -0.265113 0.917097 59 42 58 
0.144144 -0.280529 0.913952 127 111 137 
0.148499 -0.265929 0.908002 102 70 85 
0.156383 -0.28802 0.9034 100 75 97 
0.157921 -0.264651 0.900278 131 119 143 
0.156467 0.0831052 0.85223 73 48 67 
0.161774 0.0949555 0.848219 128 115 141 
0.176196 -0.269152 0.883035 82 54 68 
0.166149 0.106548 0.839613 128 113 132 
0.169463 0.0883473 0.838857 72 50 62 
0.17467 0.018426 0.845024 134 117 136 
0.185636 -0.272423 0.875068 74 51 67 
0.188395 -0.287151 0.874195 80 54 79 
0.194441 -0.271673 0.866121 84 61 77 
0.211879 -0.280668 0.849276 93 67 94 
0.219555 -0.271165 0.842087 76 58 84 
0.243079 -0.280754 0.819866 67 55 77 
-0.337377 0.00178502 1.31643 88 96 135 
-0.334211 0.0108863 1.31283 99 85 118 
-0.335912 -0.103804 1.32711 107 116 155 
-0.332684 -0.215109 1.34064 61 68 112 
-0.330953 -0.23827 1.34168 104 88 115 
-0.329405 -0.194914 1.33551 118 96 119 
-0.327308 -0.162414 1.33803 98 81 113 
-0.32482 -0.140037 1.32253 71 53 75 
-0.320965 -0.21505 1.32889 127 109 131 
-0.313851 -0.144778 1.31432 92 65 82 
-0.312097 -0.24761 1.32762 82 59 87 
-0.305305 -0.148285 1.30775 138 116 128 
-0.305966 -0.21927 1.3158 123 109 134 
-0.261285 -0.196322 1.27619 81 60 75 
-0.249904 0.0567176 1.22761 61 47 64 
-0.244486 -0.228735 1.26434 66 58 71 
-0.234401 -0.228058 1.25461 61 40 47 
-0.226642 -0.227186 1.24488 67 46 53 
-0.169338 -0.230507 1.18992 81 53 65 
-0.141242 -0.206039 1.16092 89 65 81 
-0.137043 -0.226285 1.15896 73 58 81 
-0.116987 -0.238083 1.14218 78 54 76 
-0.10667 -0.238384 1.13112 76 54 75 
-0.0974133 -0.239245 1.12414 134 122 142 
0.0659965 -0.237629 0.968289 135 114 133 
0.0788693 -0.195698 0.941593 66 31 37 
0.12971 -0.232248 0.908988 75 54 73 
0.139335 -0.0889337 0.879864 88 70 92 
0.142708 -0.1825 0.889619 138 117 136 
0.153722 -0.105833 0.869483 133 118 141 
0.172248 -0.20515 0.865772 88 61 76 
0.172888 -0.24332 0.867339 95 64 79 
0.164824 0.208736 0.814291 104 103 119 
0.162022 0.198529 0.81116 111 95 121 
0.170305 0.000422978 0.837038 90 63 80 
0.177321 -0.139039 0.855672 54 37 47 
0.171134 0.127639 0.819732 120 97 115 
0.189644 -0.105347 0.834659 133 124 145 
0.188165 0.148532 0.800001 137 122 143 
0.213225 -0.179405 0.820704 88 57 75 
0.21158 0.00861816 0.801267 76 59 75 
0.230535 0.0873405 0.769518 120 101 120 
0.217162 0.216846 0.744763 66 57 76 
0.243281 -0.220916 0.796622 143 122 137 
0.266317 0.00434387 0.748734 72 55 73 
0.274156 0.217335 0.691853 17 22 42 
-0.312947 0.13532 1.27656 89 71 93 
-0.319451 -0.188329 1.32707 76 58 80 
0.203074 0.151768 0.788154 127 110 129 
-0.465963 0.205389 1.42212 88 102 151 
-0.423401 0.263127 1.34914 127 145 185 
-0.407797 0.26612 1.33306 20 31 49 
-0.407954 0.238629 1.33999 37 47 74 
-0.401705 0.259012 1.34044 15 22 38 
-0.40434 0.109332 1.35835 33 48 77 
-0.399261 0.248248 1.34126 23 28 48 
-0.400009 0.231331 1.34437 36 43 69 
-0.392479 0.285752 1.32964 119 107 127 
-0.395321 0.266867 1.34063 65 71 93 
-0.394993 0.176127 1.35096 93 108 141 
-0.395218 0.16202 1.35314 97 108 138 
-0.394101 0.136498 1.35575 96 102 134 
-0.395708 0.0855273 1.36303 32 42 69 
-0.390028 0.255743 1.34514 114 126 164 
-0.393434 0.10597 1.36046 90 98 135 
-0.367651 0.286163 1.29134 65 63 76 
-0.391059 -0.0539083 1.38093 99 108 149 
-0.387744 -0.0421875 1.38032 126 134 173 
-0.358672 0.289533 1.27872 63 67 94 
-0.386643 -0.385292 1.42213 98 111 146 
-0.341339 0.185529 1.31308 102 93 114 
-0.3399 0.11924 1.32077 103 89 112 
-0.338118 0.0605352 1.32661 114 95 114 
-0.339635 0.00179912 1.3363 97 102 142 
-0.335815 0.0106385 1.3306 103 88 121 
-0.335361 -0.0625424 1.34181 100 83 102 
-0.330978 -0.260601 1.36449 111 93 119 
-0.321385 -0.0577237 1.32916 66 53 70 
-0.329235 -0.340542 1.37422 104 86 112 
-0.331288 -0.408825 1.38597 116 125 168 
-0.328616 -0.375163 1.37911 118 95 123 
-0.298374 0.0626883 1.28716 79 65 88 
-0.302998 -0.306905 1.3457 91 65 78 
-0.278906 0.169409 1.25429 117 106 123 
-0.284135 -0.257513 1.32132 80 65 88 
-0.275238 -0.226176 1.30842 82 64 86 
-0.271415 -0.390115 1.32905 84 69 88 
-0.26395 -0.278651 1.31537 75 58 74 
-0.250951 -0.275821 1.29196 64 50 65 
-0.24755 -0.34076 1.29979 130 116 129 
-0.247226 -0.36772 1.30298 82 58 80 
-0.231074 -0.0115499 1.23871 69 51 75 
-0.221099 0.0774895 1.20342 109 90 109 
-0.226087 -0.257946 1.26771 90 60 70 
-0.227295 -0.369478 1.28296 87 62 81 
-0.221413 -0.27972 1.26546 84 57 76 
-0.22172 -0.334446 1.2737 134 117 136 
-0.215291 -0.301151 1.26315 86 64 85 
-0.204755 -0.280518 1.24844 86 59 76 
-0.204002 -0.367184 1.26147 128 113 132 
-0.179469 -0.349033 1.23879 80 58 71 
-0.174711 -0.260746 1.21918 78 56 69 
-0.171923 -0.350319 1.23142 75 51 67 
-0.149411 -0.351455 1.20947 76 48 71 
-0.133872 -0.350871 1.18967 82 58 71 
-0.131598 -0.242184 1.1774 70 47 63 
-0.115256 -0.327381 1.17483 84 59 81 
-0.111923 -0.293388 1.16522 70 53 71 
-0.109924 -0.3517 1.17284 79 57 78 
-0.106755 -0.327876 1.16596 91 68 94 
-0.0893256 -0.330167 1.14972 78 58 69 
-0.0762077 -0.33063 1.13624 84 61 77 
-0.0615864 -0.298157 1.11964 66 52 67 
-0.0543051 -0.316976 1.11703 120 111 132 
-0.0541409 -0.333559 1.12032 80 62 76 
-0.0489871 -0.33203 1.11097 80 59 74 
-0.0469394 -0.318996 1.10672 76 53 69 
-0.033111 -0.319555 1.09419 71 48 68 
-0.0269064 -0.315986 1.07478 52 28 44 
-0.0248723 -0.323911 1.06885 192 195 202 
-0.0175083 -0.306071 1.06041 155 143 121 
-0.0109901 -0.321228 1.05605 60 63 68 
-0.00476771 -0.317236 1.04808 55 97 113 
-0.0034736 -0.303249 1.0515 38 24 24 
0.00275924 -0.314527 1.04137 130 119 101 
0.0284442 -0.300949 1.0343 136 117 139 
0.040334 -0.306314 1.02117 82 59 77 
0.0478047 -0.262438 1.01002 78 52 77 
0.0652907 -0.308593 1.00072 80 55 77 
0.0710143 -0.230483 0.984389 79 55 77 
0.0758992 -0.262115 0.984341 91 62 80 
0.0825009 -0.207293 0.961311 140 118 141 
0.0831419 -0.191581 0.959901 37 20 26 
0.0915303 -0.287745 0.973647 86 59 74 
0.103815 -0.18377 0.946302 86 57 79 
0.10441 -0.157234 0.941065 87 59 71 
0.118471 -0.102486 0.927122 69 45 58 
0.163636 -0.0203863 0.867111 75 48 63 
0.173493 -0.173913 0.879083 88 63 84 
0.1609 0.227135 0.817059 61 58 69 
0.167322 0.155305 0.836317 65 34 39 
0.169936 0.124157 0.844525 126 122 147 
0.173538 0.203878 0.832197 112 98 124 
0.186328 -0.0201997 0.850335 75 52 68 
0.256217 -0.182155 0.803041 79 60 79 
0.274437 -0.0292659 0.765278 34 29 36 
-0.397344 0.288721 1.31467 32 31 39 
-0.384943 0.168803 1.34725 142 157 200 
-0.353453 0.285879 1.27817 24 29 48 
-0.349024 0.229148 1.29654 147 166 206 
-0.346657 0.271432 1.28478 85 76 105 
-0.343864 0.277732 1.27081 122 109 119 
-0.346855 0.264112 1.29178 148 162 199 
-0.346078 0.249728 1.29369 77 86 115 
-0.343778 0.0991528 1.31038 161 175 222 
-0.343039 0.220323 1.29634 147 167 204 
-0.33861 0.161188 1.30097 103 88 109 
-0.337494 0.203716 1.29751 95 87 111 
-0.335565 -0.285437 1.34976 176 189 241 
-0.336041 -0.104499 1.33417 112 120 159 
-0.330175 0.278223 1.25873 73 61 83 
-0.333124 -0.0165295 1.32551 117 96 115 
-0.33295 0.0247706 1.32388 100 85 118 
-0.330196 0.240983 1.28243 49 40 57 
-0.331976 -0.273414 1.35387 99 108 149 
-0.327396 0.218009 1.28283 39 34 54 
-0.32498 -0.275105 1.34568 123 99 112 
-0.321098 0.271173 1.26131 117 106 122 
-0.321003 -0.216387 1.33597 131 111 136 
-0.319472 -0.189024 1.33084 91 72 94 
-0.314184 0.214253 1.26837 117 108 135 
-0.313807 0.173555 1.27675 125 115 140 
-0.312942 0.135694 1.27974 92 78 104 
-0.313848 -0.145505 1.31978 100 69 87 
-0.305911 -0.220647 1.32291 130 116 141 
-0.305214 -0.278485 1.32983 131 124 142 
-0.292846 -0.305543 1.32184 95 66 86 
-0.291517 -0.0307481 1.28277 85 63 86 
-0.286385 -0.293251 1.3171 94 66 80 
-0.276992 -0.265923 1.30282 98 74 98 
-0.256262 -0.314448 1.28942 83 64 84 
-0.249539 0.0569812 1.23366 68 51 67 
-0.235869 -0.29558 1.26836 83 64 84 
-0.208844 -0.308524 1.2444 132 119 139 
-0.200096 -0.120806 1.20979 76 52 65 
-0.195566 -0.253176 1.22451 89 68 85 
-0.16 -0.288211 1.19551 79 65 78 
-0.15041 -0.29906 1.19002 128 111 130 
-0.135958 -0.227735 1.16509 74 56 80 
-0.125163 -0.257575 1.15839 130 112 134 
-0.115926 -0.239402 1.14747 80 56 78 
-0.0921871 -0.270948 1.12986 76 55 74 
-0.0828923 -0.312433 1.12608 75 59 85 
-0.0371648 -0.297154 1.08258 84 68 94 
-0.0290911 -0.295836 1.07269 83 48 68 
0.0352463 -0.280499 1.0101 138 123 144 
0.0692361 -0.290861 0.98071 81 63 87 
0.0828969 -0.209067 0.953262 104 82 103 
0.132408 -0.233709 0.913554 74 53 70 
0.132819 -0.211903 0.90898 92 65 82 
0.141176 -0.203782 0.90168 94 66 88 
0.1396 -0.153615 0.896771 134 112 133 
0.142253 -0.0895502 0.884511 89 74 93 
0.154426 -0.103029 0.874532 78 64 87 
0.159389 -0.189772 0.881 76 49 66 
0.160524 -0.171235 0.87824 89 65 79 
0.152007 0.0454561 0.857987 64 41 59 
0.16707 -0.272902 0.885061 93 62 80 
0.159943 -0.0747754 0.867018 68 47 54 
0.157338 0.0663388 0.849042 72 48 62 
0.173923 -0.230915 0.871754 96 67 87 
0.174994 -0.206343 0.869769 89 62 79 
0.169606 -0.0131845 0.846525 103 74 94 
0.161529 0.197437 0.82745 57 41 52 
0.161306 0.21128 0.825124 54 48 60 
0.164949 0.169446 0.827189 108 100 123 
0.180368 -0.139945 0.860001 52 37 44 
0.170419 0.186439 0.821611 58 40 56 
0.183764 -0.0890523 0.845508 78 61 80 
0.171782 0.209773 0.814981 57 50 66 
0.19225 -0.189163 0.851635 84 72 92 
0.175798 0.168639 0.817003 122 117 137 
0.178083 0.128949 0.82016 115 106 123 
0.198479 -0.245885 0.852408 69 54 75 
0.193366 -0.106205 0.839663 134 125 146 
0.186991 0.16744 0.808793 128 120 144 
0.188324 0.196886 0.80321 46 30 41 
0.191353 0.149419 0.804079 133 120 138 
0.195265 0.0750117 0.811082 91 65 74 
0.209854 -0.18377 0.831607 134 122 146 
0.206984 -0.0676261 0.820192 75 61 76 
0.216507 -0.180537 0.824828 85 56 76 
0.214272 0.00862186 0.804564 80 63 81 
0.223453 -0.173699 0.816947 129 112 131 
0.219862 -0.0518763 0.805975 133 114 133 
0.209558 0.18841 0.782472 131 110 129 
0.210988 0.198174 0.781042 138 115 135 
0.234924 -0.243297 0.817496 81 61 86 
0.217251 0.16762 0.777242 137 127 154 
0.238956 -0.180109 0.806728 59 46 64 
0.232381 -0.0557948 0.79458 80 54 65 
0.220814 0.196859 0.771478 115 105 129 
0.234009 0.0878752 0.77342 118 103 122 
0.24889 -0.219679 0.798366 88 61 80 
0.231383 0.205773 0.758491 82 78 103 
0.236695 0.196631 0.759251 67 61 73 
0.26748 -0.155323 0.772578 81 57 71 
0.269303 -0.124007 0.768203 94 69 91 
0.252896 0.188794 0.740878 140 116 132 
0.274643 -0.181121 0.771538 53 35 51 
0.258279 0.135665 0.743728 74 56 70 
0.268202 -0.00340915 0.75393 73 56 74 
0.265309 0.0527024 0.749098 122 100 113 
0.29683 -0.189629 0.749285 153 130 150 
0.298856 -0.207299 0.749911 93 69 95 
0.279032 0.192045 0.717575 120 116 139 
0.288972 0.065272 0.7253 137 114 122 
-0.34212 0.262806 1.28781 57 63 97 
-0.33447 -0.114822 1.32971 117 115 154 
0.176228 -0.0324568 0.841544 63 45 57 
-0.190093 -0.128063 1.20051 132 111 126 
