ply                 
format ascii 1.0    
element vertex 1112
property float x    
property float y    
property float z    
property uchar red  
property uchar green
property uchar blue 
end_header          
0.108355 -0.182177 0.929167 93 60 77 
0.117125 -0.204625 0.925235 75 58 74 
0.118249 -0.212145 0.924647 81 62 84 
0.1246 -0.201371 0.91783 96 65 81 
0.131851 -0.168513 0.906483 85 60 79 
0.140154 -0.236653 0.907227 101 71 83 
0.143769 -0.0998171 0.885049 129 116 134 
0.146429 -0.158737 0.890907 86 58 73 
0.147459 -0.101703 0.881793 63 50 67 
0.149863 -0.143223 0.885742 97 61 75 
0.158344 -0.160821 0.87901 88 61 76 
0.157865 -0.126087 0.874968 92 67 89 
0.162866 -0.165192 0.875091 89 65 79 
0.164891 -0.106899 0.867506 70 54 67 
0.167911 -0.105267 0.863923 124 115 134 
0.176458 -0.191609 0.867629 84 57 72 
0.17902 -0.192551 0.86389 78 57 66 
0.17902 -0.192551 0.86389 78 57 66 
0.182134 -0.163224 0.858347 82 61 68 
0.185142 -0.209043 0.862396 75 57 71 
0.184879 -0.147881 0.852157 133 106 125 
0.185259 -0.105432 0.849019 128 119 136 
0.187541 -0.0823602 0.843753 52 46 58 
0.190102 -0.164181 0.850475 83 53 65 
0.193403 -0.176645 0.849683 110 101 118 
0.194103 -0.165883 0.845688 85 64 73 
0.192967 -0.0805465 0.839625 59 43 56 
0.19704 -0.195535 0.84827 67 49 61 
0.190917 0.0145797 0.824368 136 115 132 
0.196579 -0.165423 0.844675 78 54 68 
0.196838 -0.145213 0.841845 72 49 59 
0.198595 -0.11652 0.836198 138 114 127 
0.201421 -0.164067 0.841221 136 117 139 
0.202511 -0.217212 0.844519 87 58 76 
0.20417 -0.240567 0.848773 61 44 62 
0.206635 -0.21876 0.841197 84 57 76 
0.205417 -0.0592194 0.822221 125 102 122 
0.209963 -0.176391 0.83365 43 29 42 
0.210835 -0.166576 0.832244 73 46 63 
0.211133 -0.146473 0.82918 75 59 70 
0.215492 -0.112872 0.819944 72 51 60 
0.209819 0.0715953 0.797905 149 128 137 
0.209819 0.0715953 0.797905 149 128 137 
0.219474 -0.197343 0.826622 73 49 62 
0.212889 0.0402109 0.801813 75 58 76 
0.225559 -0.271876 0.831482 63 46 62 
0.225748 -0.20866 0.822065 130 107 127 
0.226603 -0.211357 0.822031 47 36 52 
0.220463 0.0110948 0.797634 133 115 131 
0.220463 0.0110948 0.797634 133 115 131 
0.223089 0.0133368 0.795373 73 52 71 
0.224092 0.00920276 0.79571 84 58 71 
0.224092 0.00920276 0.79571 84 58 71 
0.220504 0.11696 0.78483 121 103 115 
0.224242 0.0114844 0.795383 129 110 129 
0.2272 -0.0511645 0.800016 134 117 136 
0.237349 -0.22076 0.812516 125 106 125 
0.23013 0.00625195 0.790761 138 111 126 
0.227916 0.11665 0.778105 129 114 133 
0.236718 -0.148292 0.802155 117 96 111 
0.238594 -0.145925 0.800665 52 40 54 
0.245727 -0.14316 0.795015 131 107 120 
0.250353 -0.246256 0.803922 52 34 46 
0.23952 0.0585152 0.771674 90 68 91 
0.240554 0.0464331 0.772041 149 125 138 
0.241588 0.0947406 0.764621 90 63 72 
0.243361 0.0534333 0.768355 97 70 87 
0.25415 -0.211791 0.796789 122 107 130 
0.246359 0.0582775 0.765776 87 64 82 
0.247992 0.0829433 0.762777 123 101 114 
0.255857 -0.123536 0.781826 85 60 79 
0.255857 -0.123536 0.781826 85 60 79 
0.25005 0.0388297 0.764685 125 108 127 
0.249519 0.0849109 0.762308 61 43 59 
0.261554 -0.214836 0.789958 45 31 48 
0.256646 -0.0837558 0.776851 53 33 42 
0.252284 0.0367879 0.763452 65 47 61 
0.24755 0.198389 0.746814 125 98 113 
0.264675 -0.247939 0.790528 75 53 74 
0.262522 -0.145522 0.777702 136 119 138 
0.255449 0.0410453 0.759213 86 62 75 
0.256967 0.038558 0.758165 136 113 129 
0.254944 0.11425 0.752042 91 68 94 
0.251055 0.196959 0.742025 122 104 118 
0.262842 -0.0278146 0.764447 47 37 46 
0.262842 -0.0278146 0.764447 47 37 46 
0.271147 -0.249073 0.784901 54 41 51 
0.25908 0.07916 0.750154 131 105 118 
0.263295 0.00101274 0.757866 136 118 132 
0.255415 0.198387 0.738187 74 60 75 
0.264162 0.132046 0.738051 133 112 127 
0.262509 0.193653 0.732675 41 35 49 
0.264399 0.186733 0.73048 138 121 137 
0.275976 -0.0871072 0.757966 83 61 74 
0.266635 0.201092 0.726643 80 62 74 
0.267483 0.198143 0.726669 137 124 150 
0.271452 0.112334 0.735194 75 56 75 
0.271452 0.112334 0.735194 75 56 75 
0.273061 0.0756534 0.737778 147 116 131 
0.276662 0.00341287 0.744653 66 49 68 
0.271304 0.193177 0.724401 98 97 115 
0.271304 0.193177 0.724401 98 97 115 
0.27138 0.193192 0.724403 98 95 112 
0.272889 0.195513 0.721562 137 118 137 
0.283835 -0.0262197 0.740768 136 115 134 
0.284901 0.0502255 0.73054 101 74 91 
0.286852 0.0352338 0.730589 125 104 121 
0.289955 0.0272152 0.728437 131 109 130 
0.288665 0.189337 0.706875 56 39 49 
0.29079 0.147164 0.709975 94 65 70 
0.29079 0.147164 0.709975 94 65 70 
-0.301329 -0.0577153 1.29749 129 114 133 
-0.224792 -0.0406458 1.22633 57 39 53 
-0.1796 -0.13485 1.19688 57 44 54 
-0.15906 -0.171056 1.18117 74 51 67 
0.0933241 -0.179767 0.943737 76 52 68 
0.105953 -0.196773 0.934559 77 56 73 
0.11998 -0.185797 0.92013 99 65 79 
0.130184 -0.187449 0.91011 91 68 76 
0.137496 -0.13439 0.896667 81 57 70 
0.141851 -0.222496 0.903517 102 75 92 
0.143455 -0.044387 0.877339 143 120 138 
0.152895 -0.188358 0.888333 84 53 69 
0.160847 -0.0470272 0.865475 144 122 145 
0.16705 -0.190874 0.875356 84 60 74 
0.167086 -0.0760342 0.860079 77 53 67 
0.174423 -0.0493532 0.849672 79 51 65 
0.178623 0.0673966 0.832136 123 110 130 
0.192736 -0.24017 0.858108 140 113 128 
0.189388 -0.021854 0.832804 67 46 53 
0.195911 -0.208974 0.851112 88 63 84 
0.188273 0.0664982 0.821429 121 111 135 
0.189722 0.0948346 0.814431 139 115 128 
0.196536 -0.0523591 0.831436 64 44 53 
0.196127 -0.00704463 0.822867 136 113 129 
0.199496 0.0937758 0.805663 128 107 124 
0.200911 0.0766737 0.805978 126 109 128 
0.205756 0.0101108 0.812383 82 63 82 
0.199232 0.208483 0.789318 73 65 76 
0.21037 -0.080996 0.821573 57 38 44 
0.21095 0.139641 0.788764 135 111 127 
0.211382 0.165749 0.786141 84 66 90 
0.223709 -0.112531 0.8105 125 107 123 
0.226362 -0.183767 0.817171 85 59 72 
0.214389 0.193503 0.776834 49 33 46 
0.234826 -0.257063 0.819892 77 58 77 
0.222681 0.152787 0.775599 142 121 138 
0.236404 -0.199841 0.811428 121 100 117 
0.223659 0.167619 0.771839 129 110 130 
0.222619 0.20633 0.76765 95 68 87 
0.23345 -0.0822741 0.798021 82 57 78 
0.240437 -0.248147 0.81329 122 105 124 
0.236103 -0.113398 0.799118 92 64 79 
0.229168 0.0803073 0.777842 140 118 131 
0.227535 0.194929 0.765892 80 65 84 
0.232525 0.162108 0.765447 68 54 69 
0.237821 0.0790735 0.769871 139 113 124 
0.249123 -0.0281412 0.776044 65 40 46 
0.248199 0.138019 0.754095 68 56 68 
0.248647 0.185335 0.745113 92 67 86 
0.258733 -0.0585441 0.770944 73 51 64 
0.270835 -0.280836 0.787911 87 63 77 
0.27297 -0.214787 0.779532 55 51 65 
0.270411 -0.14945 0.770463 76 68 83 
0.281395 -0.276975 0.778148 76 59 78 
0.265547 0.156174 0.734065 123 99 112 
0.279288 -0.183812 0.766726 118 94 116 
0.271669 0.0369078 0.745107 136 119 135 
0.2928 -0.266675 0.76571 80 61 81 
0.287999 -0.155232 0.754629 82 61 78 
0.294769 -0.183716 0.752843 68 50 72 
0.290903 -0.065371 0.739435 133 106 121 
0.281063 0.184164 0.714984 126 107 126 
-0.299554 0.17166 1.26555 128 120 144 
-0.297181 0.0259408 1.28369 122 114 138 
-0.29487 -0.00103674 1.28658 59 51 66 
-0.294351 0.14216 1.26672 79 64 83 
-0.291563 0.120234 1.26769 61 54 70 
-0.287267 0.0266315 1.27649 70 60 85 
-0.287826 -0.000247728 1.27784 129 116 142 
-0.286424 0.0614714 1.27097 67 55 75 
-0.286073 0.141445 1.25945 67 57 82 
-0.281717 0.00974914 1.27201 137 124 144 
-0.279409 0.100518 1.26045 77 64 92 
-0.280493 -0.0301996 1.27498 125 107 129 
-0.27856 0.117498 1.25717 69 56 74 
-0.27618 0.0233735 1.26544 128 114 140 
-0.275384 0.128094 1.25044 120 118 142 
-0.275616 0.155891 1.24546 110 101 128 
-0.27389 0.0603424 1.26009 76 62 85 
-0.27368 0.034193 1.26337 82 69 87 
-0.274925 0.138549 1.24668 73 64 107 
-0.273425 -0.0360423 1.27 125 113 135 
-0.272774 -0.0208355 1.26716 72 56 85 
-0.270478 0.094358 1.25224 75 61 84 
-0.27071 0.173397 1.23939 126 122 149 
-0.267989 0.036666 1.25609 59 45 62 
-0.268253 0.0612551 1.25158 130 117 137 
-0.267441 -0.00315708 1.26092 129 121 144 
-0.266261 0.129552 1.23959 172 190 255 
-0.264633 0.0261236 1.25506 120 105 128 
-0.266267 0.192976 1.23107 123 119 146 
-0.264033 0.113765 1.24325 56 44 54 
-0.261754 -0.0420114 1.25966 86 75 105 
-0.262699 0.138485 1.23468 23 31 50 
-0.261154 0.16952 1.23166 52 43 62 
-0.25948 -0.00837384 1.25273 127 103 127 
-0.257552 0.0229138 1.24824 80 57 83 
-0.257982 0.187558 1.22506 82 69 87 
-0.256812 -0.0330587 1.25337 132 107 129 
-0.253725 0.0915013 1.23598 119 101 117 
-0.252808 0.148862 1.22847 53 44 63 
-0.252701 0.00565825 1.24456 103 79 105 
-0.252134 0.109876 1.23148 105 87 99 
-0.252038 0.164735 1.2244 115 107 122 
-0.251733 0.0669116 1.23587 134 114 126 
-0.250357 0.136088 1.22733 112 103 124 
-0.2506 0.185905 1.21809 106 98 113 
-0.247736 -0.00453606 1.24438 74 61 89 
-0.247548 0.0354603 1.23864 67 50 69 
-0.246773 0.0201746 1.24069 40 31 48 
-0.245282 0.0929888 1.22815 136 122 137 
-0.243526 0.0680854 1.22842 118 105 131 
-0.243878 0.119743 1.22049 137 120 136 
-0.242255 0.0557165 1.22874 56 44 56 
-0.242 0.165704 1.21419 57 47 56 
-0.240208 -0.0114781 1.2373 133 113 140 
-0.239714 -0.0601211 1.24184 130 116 139 
-0.238603 0.187854 1.20859 100 97 116 
-0.237524 -0.0417231 1.23772 75 66 95 
-0.2357 0.0185647 1.22758 122 102 111 
-0.236166 0.13232 1.21239 63 49 66 
-0.23528 0.213271 1.20347 55 44 58 
-0.234782 0.0689281 1.22075 110 95 114 
-0.234422 0.145959 1.21174 57 44 53 
-0.234131 0.110735 1.2118 54 40 55 
-0.230497 -0.0665412 1.23524 65 52 69 
-0.230367 -0.0280784 1.22867 95 67 92 
-0.227351 0.0317411 1.22239 74 63 79 
-0.228785 0.0746012 1.21339 92 70 93 
-0.227767 0.060498 1.21431 126 111 134 
-0.228207 0.207312 1.1954 57 41 51 
-0.22549 0.0185759 1.22176 54 40 53 
-0.226772 0.133625 1.20462 61 44 62 
-0.225853 0.150407 1.2016 120 101 120 
-0.223924 -0.0408223 1.22767 55 38 46 
-0.225069 0.182587 1.19747 51 35 48 
-0.223699 -0.014161 1.22142 134 111 127 
-0.222591 0.0894864 1.20911 48 42 44 
-0.22403 0.171578 1.19567 49 36 46 
-0.219195 0.108772 1.20288 69 56 76 
-0.218962 -0.0392668 1.21879 134 115 134 
-0.216928 0.0176965 1.21408 65 51 64 
-0.21804 0.210702 1.18646 109 92 110 
-0.215438 0.13478 1.19443 117 100 119 
-0.213482 -0.0126307 1.21458 61 47 62 
-0.215922 0.162679 1.18957 51 40 56 
-0.213403 -0.0630261 1.22028 130 116 139 
-0.214526 0.0670305 1.20275 56 38 52 
-0.211489 -0.0473375 1.21506 130 107 125 
-0.211196 0.183137 1.18692 27 25 28 
-0.211155 0.0146787 1.20583 110 99 113 
-0.210839 0.107968 1.19458 71 55 66 
-0.211448 0.200663 1.18169 83 75 96 
-0.211471 0.0892704 1.1945 73 58 77 
-0.209668 0.0329889 1.2026 122 110 130 
-0.206925 0.0510096 1.2007 58 42 55 
-0.208488 0.146701 1.18651 48 36 46 
-0.205759 -0.00627591 1.20338 73 65 89 
-0.205243 -0.0417141 1.20785 89 66 86 
-0.206323 0.125995 1.18571 45 35 44 
-0.202238 -0.0668503 1.20941 131 123 146 
-0.202102 0.163496 1.18125 99 95 110 
-0.202285 0.13701 1.18116 112 95 111 
-0.201977 0.0331094 1.19321 137 118 137 
-0.201111 -0.0300556 1.20199 96 66 78 
-0.198221 -0.0149395 1.19845 67 46 61 
-0.19843 0.0688423 1.18731 115 98 117 
-0.198359 0.1214 1.17932 37 27 36 
-0.198492 0.0819735 1.18384 128 95 104 
-0.195124 -0.043806 1.20002 53 36 54 
-0.195109 0.0496586 1.18676 60 47 57 
-0.19228 -0.0693301 1.20099 132 117 138 
-0.19324 0.0357435 1.18568 141 120 135 
-0.194272 0.154673 1.16961 56 35 44 
-0.189082 0.0630502 1.17887 50 34 44 
-0.18787 -0.0160214 1.18909 83 55 70 
-0.188783 0.129766 1.1692 54 40 53 
-0.186086 -0.0422308 1.18973 85 61 87 
-0.185684 0.0471634 1.179 111 100 116 
-0.185523 0.0129801 1.18237 141 123 137 
-0.183485 -0.0972047 1.19657 141 126 147 
-0.184002 0.0342268 1.17701 136 117 136 
-0.183043 -0.0728759 1.19014 120 104 117 
-0.177109 -0.0443097 1.18264 89 57 72 
-0.176296 -0.0935323 1.18645 75 54 71 
-0.176689 0.0806443 1.16462 86 70 83 
-0.175477 -0.0165286 1.17612 71 54 73 
-0.172533 -0.0812365 1.18303 53 38 57 
-0.166634 -0.105461 1.18003 130 101 119 
-0.165174 -0.0714697 1.17539 80 62 86 
-0.165117 -0.0161887 1.16502 70 51 71 
-0.160686 -0.122693 1.17818 77 64 74 
-0.161917 -0.0897876 1.17248 95 62 79 
-0.157765 -0.0627621 1.16851 131 119 139 
-0.153688 -0.0179857 1.15784 62 48 65 
-0.152697 -0.0722732 1.16392 64 40 53 
-0.151219 -0.100589 1.16493 92 64 78 
-0.149455 -0.0441056 1.15568 133 110 128 
-0.148512 -0.123881 1.1659 94 66 78 
-0.146555 -0.028988 1.15187 73 51 74 
-0.141781 -0.0737462 1.15444 65 48 64 
-0.138366 -0.138473 1.15826 83 60 86 
-0.136801 -0.12677 1.15472 85 61 74 
-0.133339 -0.0737041 1.14606 71 53 77 
-0.132756 -0.0199776 1.1378 127 120 138 
-0.130003 -0.140278 1.15081 80 57 77 
-0.128086 -0.122929 1.14684 133 118 137 
-0.126061 -0.10285 1.14289 85 60 81 
-0.125732 -0.0493989 1.13435 50 37 46 
-0.121891 -0.0755339 1.1353 58 38 49 
-0.121129 -0.128594 1.13926 139 126 144 
-0.114658 -0.140662 1.13652 67 39 61 
-0.100475 -0.147033 1.12296 66 49 65 
-0.0988315 -0.167744 1.12493 45 31 56 
0.119041 -0.10813 0.909815 110 77 96 
0.123486 -0.22124 0.920047 106 76 104 
0.131516 -0.246839 0.9181 158 135 155 
0.129872 -0.101756 0.900947 83 56 75 
0.131433 -0.203449 0.912223 106 73 94 
0.137864 -0.187563 0.904101 102 74 96 
0.137625 -0.0695193 0.886392 139 121 145 
0.141729 -0.168688 0.898031 107 79 102 
0.148565 -0.203817 0.897787 138 130 154 
0.145045 -0.118425 0.885387 102 72 96 
0.147896 -0.23113 0.898202 103 74 96 
0.148643 -0.073843 0.879994 89 64 83 
0.151605 -0.172639 0.888607 92 72 100 
0.165278 -0.261742 0.88761 89 61 86 
0.160387 -0.0668212 0.864982 90 66 88 
0.165462 -0.245421 0.885362 149 127 148 
0.168098 -0.205918 0.876353 89 66 82 
0.173407 -0.138762 0.865026 98 68 92 
0.181312 -0.222222 0.868674 145 127 149 
0.18393 -0.233591 0.865233 90 70 95 
0.184447 0.0315848 0.829722 144 123 138 
0.201208 -0.0243356 0.823747 57 40 46 
0.205539 -0.266545 0.849006 83 70 100 
0.201628 0.0595142 0.811246 87 69 93 
0.201135 0.0397375 0.81304 78 59 78 
0.21106 -0.203466 0.836035 94 81 101 
0.214781 -0.229997 0.836322 88 67 98 
0.217713 -0.245509 0.835166 135 122 140 
0.214584 -0.0237675 0.80975 64 43 52 
0.218947 -0.141379 0.82116 148 125 141 
0.217751 0.0276409 0.798853 97 69 84 
0.221979 -0.166314 0.820102 70 54 80 
0.214437 0.091486 0.78928 35 77 185 
0.222323 -0.0208031 0.801393 135 123 147 
0.223694 -0.0838392 0.807672 75 68 84 
0.215471 0.108512 0.785343 93 134 224 
0.225969 -0.148407 0.814482 78 65 85 
0.221293 0.0607137 0.79139 95 67 82 
0.225789 -0.0966353 0.807852 81 67 92 
0.223696 0.0402413 0.789439 159 142 158 
0.225942 0.0908151 0.783081 142 124 140 
0.238652 -0.270215 0.821872 130 115 146 
0.234344 -0.176272 0.809628 76 64 84 
0.230655 0.0512916 0.784327 154 130 146 
0.233406 0.0371744 0.784519 75 57 69 
0.237685 -0.235833 0.813238 94 69 91 
0.232227 0.140578 0.770733 89 74 93 
0.236581 -0.0343183 0.789326 88 64 86 
0.237925 -0.0511873 0.790738 84 68 95 
0.246206 -0.213001 0.807138 46 39 55 
0.23679 0.0111667 0.781209 126 107 127 
0.234895 0.122076 0.768475 81 62 81 
0.239047 0.0263556 0.778054 87 65 88 
0.242408 -0.0246005 0.783706 144 127 146 
0.242518 -0.0812243 0.787992 137 116 135 
0.23822 0.172262 0.759233 147 129 141 
0.247725 -0.114455 0.790213 72 50 71 
0.240238 0.192087 0.754958 129 114 137 
0.242958 0.113744 0.763201 80 54 67 
0.242511 0.151074 0.758977 91 69 92 
0.245827 0.00830637 0.77453 78 58 70 
0.25319 -0.27408 0.805454 85 61 85 
0.245355 0.161693 0.755044 94 74 99 
0.244302 0.177986 0.750434 148 131 150 
0.262294 -0.272817 0.794492 143 125 151 
0.252699 0.157662 0.747905 135 114 129 
0.264819 -0.0819122 0.767914 139 120 139 
0.265344 -0.0153409 0.759024 148 131 147 
0.264865 0.0312172 0.75201 146 125 142 
0.263925 0.102657 0.744414 97 72 94 
0.268482 -0.060487 0.762108 72 51 68 
0.26416 0.0908391 0.745017 96 67 85 
0.269897 -0.166574 0.772721 104 78 105 
0.271455 -0.134894 0.769724 154 132 153 
0.27243 -0.191404 0.775526 96 82 108 
0.280042 -0.26149 0.778064 95 74 105 
0.272664 0.0560065 0.743065 62 44 70 
0.281187 -0.249525 0.775794 78 67 99 
0.276295 0.137054 0.728927 139 122 138 
0.281238 0.156689 0.722744 67 53 68 
0.293364 -0.250107 0.763105 94 67 98 
0.284841 0.10976 0.722894 129 106 116 
0.269081 0.216328 0.703174 123 107 117 
0.286188 0.200398 0.706374 86 77 104 
0.271216 0.233678 0.699039 13 20 30 
0.302409 -0.0621656 0.730187 81 67 102 
0.298633 0.134355 0.706555 133 112 127 
0.281833 0.230347 0.687144 15 26 44 
0.293839 0.203807 0.68676 143 133 157 
0.289086 0.223704 0.68205 178 194 254 
0.29544 0.233625 0.67348 97 95 100 
0.17532 -0.108328 0.856596 61 48 58 
0.186067 -0.190783 0.85661 127 113 136 
0.177889 0.10135 0.824769 71 52 72 
0.180706 0.0184156 0.833599 132 114 138 
0.182209 0.121747 0.819025 62 47 66 
0.181901 0.173496 0.812957 73 59 85 
0.193508 -0.2189 0.853051 92 63 83 
0.183698 0.203878 0.805784 116 107 138 
0.197987 -0.184288 0.844228 89 65 79 
0.192591 0.139771 0.804897 131 105 116 
0.191422 0.182652 0.799247 74 57 73 
0.19401 0.203031 0.79786 63 47 58 
0.195746 0.165284 0.80071 75 57 79 
0.198223 0.116212 0.806364 112 104 127 
0.205849 -0.109217 0.827625 55 34 51 
0.21023 0.061921 0.801316 80 62 78 
0.231969 -0.0432361 0.79377 78 55 63 
0.253702 -0.147828 0.785783 87 70 88 
0.264308 -0.12275 0.773763 78 56 77 
0.259645 0.0570445 0.753331 89 66 86 
0.264815 0.0416652 0.750661 114 99 120 
0.282201 0.0268583 0.734709 135 114 133 
0.297431 -0.041861 0.730239 83 61 74 
0.297007 0.190261 0.698201 118 105 122 
-0.309894 -0.121709 1.31667 73 58 79 
-0.305468 0.21606 1.26637 107 100 118 
-0.304628 -0.1403 1.31471 84 63 80 
-0.301813 0.0194472 1.29306 62 46 59 
-0.301286 -0.122614 1.31073 65 51 64 
-0.300913 -0.0285723 1.29713 132 120 142 
-0.3001 0.261666 1.2561 70 59 73 
-0.300432 0.123419 1.27511 129 118 134 
-0.299042 -0.159666 1.31196 90 65 86 
-0.29786 -0.090088 1.30204 89 67 79 
-0.297342 0.215118 1.25798 115 112 133 
-0.295484 0.203378 1.2593 114 108 136 
-0.294766 -0.146246 1.30801 133 110 126 
-0.292736 -0.0600459 1.29408 69 56 66 
-0.291051 0.261216 1.24668 67 59 74 
-0.286796 0.2164 1.25085 50 47 54 
-0.287389 -0.12383 1.29625 90 63 80 
-0.285466 0.172984 1.25478 80 70 94 
-0.285057 -0.146921 1.29833 130 109 126 
-0.284631 0.243732 1.24401 109 104 124 
-0.284162 0.261162 1.23853 71 64 82 
-0.283007 -0.0633215 1.28339 114 99 120 
-0.283672 0.26783 1.23091 104 94 102 
-0.281865 -0.0833389 1.28437 68 54 79 
-0.28135 -0.0977481 1.28654 130 113 132 
-0.280145 -0.109384 1.28832 140 123 141 
-0.277821 -0.123278 1.28877 63 51 61 
-0.277841 -0.150068 1.29094 75 57 69 
-0.275717 -0.162698 1.2927 73 54 73 
-0.276233 0.276153 1.21331 51 51 51 
-0.271628 -0.0965986 1.27752 136 129 145 
-0.270691 -0.114612 1.28214 54 38 49 
-0.270601 0.262137 1.22707 119 111 124 
-0.269691 0.0513326 1.25798 62 55 71 
-0.26764 0.243967 1.23012 112 110 131 
-0.266351 -0.164063 1.28439 76 54 67 
-0.265579 -0.144248 1.28012 78 55 63 
-0.264978 -0.1046 1.27593 122 101 118 
-0.266043 0.148029 1.23782 157 171 242 
-0.265429 -0.0623736 1.26772 98 90 114 
-0.263039 0.211782 1.22796 118 106 126 
-0.262951 -0.0975938 1.2684 145 127 141 
-0.261826 -0.113991 1.27178 125 111 128 
-0.262213 0.264582 1.21193 79 70 91 
-0.258029 0.058987 1.2473 55 47 70 
-0.258979 0.123208 1.236 22 27 46 
-0.257628 -0.168968 1.27785 68 49 55 
-0.256581 0.0364532 1.24839 66 52 69 
-0.262357 0.282662 1.19835 32 31 29 
-0.256743 -0.0598119 1.25896 120 104 130 
-0.254393 -0.130191 1.26713 81 53 67 
-0.251874 -0.0926218 1.25823 67 52 75 
-0.249798 -0.119293 1.26305 70 47 55 
-0.25007 0.243064 1.21238 106 88 102 
-0.248717 0.211375 1.21562 38 35 46 
-0.247384 -0.0630284 1.25326 63 48 77 
-0.248583 0.259427 1.20708 42 44 57 
-0.240113 0.0845553 1.22515 67 56 72 
-0.239725 -0.167162 1.2589 75 51 67 
-0.235108 -0.0944153 1.2463 80 57 75 
-0.23806 0.268586 1.1802 92 82 91 
-0.230353 -0.171338 1.25312 66 52 67 
-0.2284 0.229451 1.19418 61 44 54 
-0.226551 -0.089054 1.23372 81 59 72 
-0.226191 0.239177 1.19053 49 41 52 
-0.220963 -0.132146 1.2405 69 51 67 
-0.220929 -0.0655608 1.2266 120 116 143 
-0.219401 0.077714 1.20527 109 92 111 
-0.216744 -0.128386 1.23163 109 93 104 
-0.21491 -0.163058 1.23815 56 42 55 
-0.216299 0.240478 1.18094 92 89 108 
-0.2144 -0.139902 1.23126 44 31 49 
-0.213963 0.256926 1.17506 41 39 52 
-0.212254 -0.0818589 1.22047 133 109 123 
-0.211007 -0.126217 1.22325 122 91 107 
-0.206547 -0.179389 1.22865 88 60 72 
-0.200492 -0.100852 1.21271 79 55 69 
-0.199032 -0.133501 1.21631 87 64 82 
-0.191056 -0.121625 1.20884 47 34 51 
-0.190251 -0.134221 1.20928 92 75 85 
-0.189807 -0.102172 1.20509 64 51 68 
-0.189611 -0.175383 1.2138 78 63 82 
-0.190999 0.0824493 1.17699 108 86 99 
-0.183115 -0.119111 1.20008 139 116 136 
-0.178101 -0.170621 1.20311 74 47 64 
-0.172833 -0.123848 1.19177 57 44 51 
-0.170329 -0.159799 1.19399 86 69 87 
-0.169157 -0.17059 1.19394 62 50 60 
-0.166591 -0.134605 1.18491 125 107 123 
-0.152892 -0.133272 1.17386 137 115 136 
-0.149481 -0.173594 1.17685 56 34 46 
-0.143975 -0.0194039 1.14786 71 54 70 
-0.142349 -0.146389 1.16441 134 113 130 
-0.140377 -0.174779 1.16861 48 31 41 
-0.139192 -0.158176 1.16446 78 63 86 
-0.13139 -0.176267 1.15916 72 50 62 
-0.126521 -0.190141 1.15462 132 108 124 
-0.126699 -0.154177 1.14982 97 66 82 
-0.121441 -0.174267 1.14725 137 118 137 
-0.113106 -0.181082 1.14387 92 68 84 
-0.11351 -0.168704 1.13849 91 62 80 
-0.106962 -0.178842 1.13547 95 72 88 
-0.0988558 -0.179312 1.12931 73 50 76 
0.0943354 -0.24177 0.953232 92 63 83 
0.105192 -0.240522 0.944156 76 54 75 
0.110676 -0.251106 0.938343 109 75 100 
0.114282 -0.193277 0.929284 134 119 140 
0.114798 -0.219747 0.930804 100 66 90 
0.116893 -0.232996 0.931168 100 68 89 
0.125488 -0.233621 0.92393 97 74 103 
0.125696 -0.167051 0.915543 138 121 140 
0.131285 -0.128681 0.902537 143 129 152 
0.135094 -0.223979 0.911874 98 70 92 
0.137346 -0.0476428 0.887103 140 112 127 
0.150775 -0.129408 0.884744 97 64 83 
0.180199 0.0426758 0.833385 98 65 76 
0.181634 0.0838339 0.82661 79 56 76 
0.190218 -0.139654 0.849089 84 59 81 
0.192095 0.0435621 0.822642 143 124 143 
0.196075 -0.0338552 0.829091 94 65 83 
0.195572 0.00498159 0.823608 144 122 145 
0.195339 0.104946 0.81213 78 62 88 
0.194818 0.0847868 0.813228 132 111 128 
0.206574 0.0499381 0.808888 89 70 89 
0.20339 0.196981 0.792963 50 32 44 
0.206869 0.144432 0.796147 81 75 103 
0.217467 -0.215589 0.833593 130 121 142 
0.213338 -0.0526721 0.814995 90 63 80 
0.210949 0.0896904 0.799794 136 123 141 
0.212302 0.118833 0.793173 86 73 101 
0.214963 0.0810566 0.79432 133 114 133 
0.214978 0.207371 0.778028 104 76 91 
0.221167 0.138882 0.780633 142 118 132 
0.222981 0.179851 0.773395 87 66 83 
0.235443 -0.210681 0.814951 135 116 136 
0.244316 0.0352588 0.773089 121 97 113 
0.240841 0.138404 0.759961 71 60 68 
0.25404 -0.13673 0.788764 88 61 80 
0.248285 0.121778 0.757089 94 66 80 
0.257091 0.00522323 0.765345 92 68 81 
0.266527 -0.236066 0.787943 140 118 131 
0.270265 0.175486 0.730131 93 68 90 
0.302297 -0.226363 0.752999 102 77 96 
-0.243215 -0.0982995 1.25153 71 53 65 
-0.232032 -0.120185 1.24477 73 48 54 
-0.199676 0.0141756 1.19451 94 78 88 
-0.182703 -0.0851849 1.1941 66 48 64 
0.167386 -0.0475189 0.857177 149 124 145 
0.287708 -0.0920765 0.748974 105 73 94 
-0.341924 0.197509 1.29867 145 164 204 
-0.338346 0.175703 1.30038 93 88 118 
-0.338195 0.104734 1.30916 94 97 132 
-0.335922 0.139571 1.3033 94 81 99 
-0.33626 0.0903162 1.30938 111 93 115 
-0.336583 0.0297012 1.31873 69 72 113 
-0.324029 0.100171 1.29691 80 70 97 
-0.335054 -0.187669 1.34489 174 191 237 
-0.33096 -0.151079 1.33856 118 103 126 
-0.301865 -0.189775 1.31679 77 55 76 
-0.298025 -0.247689 1.32043 126 107 126 
-0.289843 -0.0548165 1.28536 127 109 131 
-0.291696 -0.192758 1.30686 138 114 130 
-0.289663 -0.244723 1.31092 76 57 76 
-0.277464 -0.141369 1.28631 92 72 84 
-0.272915 -0.192429 1.29015 52 37 56 
-0.264751 -0.149918 1.27616 57 37 46 
-0.255744 -0.220605 1.27876 133 115 137 
-0.23106 -0.198877 1.25241 77 53 66 
-0.216921 -0.201034 1.24115 70 46 62 
-0.214916 -0.229116 1.24151 58 40 52 
-0.203946 -0.229275 1.23194 74 48 59 
-0.193357 -0.23042 1.22107 74 57 67 
-0.190803 -0.249126 1.22134 133 119 136 
-0.179567 -0.230182 1.20872 73 56 72 
0.0971212 -0.199457 0.942507 89 68 85 
0.114457 -0.246883 0.931375 99 68 76 
0.117805 -0.137634 0.915999 141 117 133 
0.118817 -0.121087 0.910747 108 74 88 
0.120691 -0.158185 0.914754 88 57 73 
0.120437 -0.0718357 0.903098 101 69 82 
0.124705 -0.139542 0.908213 134 110 126 
0.132643 -0.155747 0.902009 88 64 78 
0.163842 0.0460928 0.848373 77 54 64 
0.169922 0.0101908 0.845572 116 100 126 
0.173992 -0.0228467 0.846244 136 106 116 
0.172203 0.118563 0.82679 71 49 61 
0.176172 0.191863 0.815168 93 78 97 
0.17927 0.143306 0.818802 61 46 69 
0.187246 0.128862 0.812449 140 123 142 
0.28729 0.00346537 0.735017 73 52 69 
0.297229 0.0250901 0.721115 129 105 119 
0.299417 -0.0109252 0.724838 131 106 125 
0.292634 0.156888 0.706187 63 41 53 
0.298902 0.0535068 0.716543 65 44 59 
-0.31324 0.173388 1.27466 123 113 138 
-0.311678 0.261088 1.26193 71 67 84 
-0.312904 -0.0876386 1.30928 99 75 99 
-0.313266 -0.145094 1.31753 95 66 84 
-0.311579 -0.0979135 1.3095 84 67 86 
-0.262574 0.239094 1.22105 53 44 61 
-0.24791 0.271872 1.18141 35 36 40 
-0.210301 -0.151062 1.22349 71 54 73 
-0.201553 -0.1978 1.22348 72 53 73 
-0.173189 -0.204721 1.19659 75 62 79 
-0.151865 -0.210637 1.17862 97 63 80 
-0.136124 -0.218854 1.16182 66 52 67 
-0.0975898 -0.212825 1.1265 87 61 90 
0.108058 -0.229379 0.934248 96 66 94 
0.128494 -0.119521 0.89936 105 73 96 
0.16434 0.0670944 0.842392 120 105 124 
0.170755 -0.227949 0.873405 103 74 96 
0.187188 -0.225373 0.858098 104 76 99 
0.181602 0.182773 0.808878 73 52 69 
0.18836 0.114895 0.809996 96 73 93 
0.199655 0.154967 0.796183 136 132 155 
0.202465 0.165547 0.793194 80 66 91 
0.223245 -0.0335324 0.800389 68 54 71 
0.236135 -0.189884 0.808895 61 49 73 
0.23292 0.199986 0.754618 149 126 144 
0.270763 -0.0106667 0.748881 138 117 134 
0.277244 -0.121012 0.756636 97 72 94 
0.287647 0.134965 0.712619 145 118 133 
0.297451 -0.207675 0.749193 144 123 142 
0.290636 0.0739075 0.717965 147 121 130 
-0.203662 -0.167726 1.22421 77 54 72 
0.125455 -0.211817 0.916817 95 68 87 
0.150604 -0.0472757 0.871551 78 50 62 
0.15534 -0.242451 0.893652 113 82 98 
0.227101 -0.194506 0.818529 135 113 136 
0.244046 -0.0569474 0.785848 82 51 66 
0.25369 0.132991 0.747581 140 119 136 
0.266871 -0.0425552 0.759755 94 66 88 
-0.16322 -0.0461997 1.16876 63 46 62 
-0.387266 -0.15388 1.38411 103 115 153 
-0.387159 -0.185003 1.38718 86 95 126 
-0.382346 -0.278834 1.39772 32 39 91 
-0.333746 -0.0394105 1.32797 109 86 112 
-0.331813 -0.123936 1.34107 114 96 118 
-0.331198 -0.217095 1.35009 77 72 112 
-0.329373 -0.196697 1.34732 115 97 121 
-0.331137 -0.248086 1.35526 79 77 116 
-0.32832 -0.162874 1.34424 105 85 113 
-0.330397 -0.304111 1.36207 93 98 140 
-0.32203 -0.143369 1.33171 79 58 77 
-0.322206 -0.112227 1.3361 113 90 118 
-0.287332 -0.191773 1.30566 68 43 64 
-0.27562 -0.278182 1.31124 126 108 124 
-0.27547 -0.310588 1.31057 137 113 127 
-0.260764 -0.277352 1.29083 124 109 128 
-0.262225 -0.309227 1.29894 88 64 88 
-0.250394 -0.224908 1.27783 82 59 77 
-0.245059 -0.251348 1.27673 76 62 75 
-0.239384 -0.313683 1.27969 74 47 62 
-0.238053 -0.276071 1.27282 72 51 70 
-0.236255 -0.225552 1.26524 128 109 128 
-0.233783 -0.185951 1.25658 59 41 57 
-0.227288 -0.225667 1.25656 130 107 123 
-0.225137 -0.298271 1.26477 69 54 73 
-0.216457 -0.254843 1.2497 77 50 67 
-0.200429 -0.298443 1.24212 86 61 82 
-0.190007 -0.298731 1.2309 84 61 81 
-0.189538 -0.283287 1.23229 70 52 64 
-0.189331 -0.324435 1.23437 73 52 67 
-0.178908 -0.281948 1.21974 78 59 78 
-0.178602 -0.325094 1.2246 82 61 80 
-0.167624 -0.318264 1.2134 86 61 82 
-0.166615 -0.282476 1.20692 71 55 68 
-0.158923 -0.302011 1.2035 73 55 77 
-0.154955 -0.310593 1.19921 78 60 76 
-0.152575 -0.235219 1.18866 70 56 71 
-0.142803 -0.237369 1.17908 51 34 44 
-0.138811 -0.278433 1.18014 80 66 89 
-0.124447 -0.305747 1.16884 72 57 78 
-0.109352 -0.268457 1.153 63 46 64 
-0.099482 -0.309331 1.14804 91 65 90 
-0.0925549 -0.290282 1.14007 74 60 85 
-0.0868373 -0.293343 1.13187 71 52 71 
-0.0746147 -0.313089 1.12348 53 39 56 
-0.0710251 -0.29897 1.12003 58 46 68 
-0.0469893 -0.296745 1.09666 68 54 71 
-0.0196067 -0.297755 1.06919 56 34 55 
0.0172577 -0.30284 1.03314 117 95 108 
0.0468467 -0.271294 1.00415 93 69 93 
0.0479396 -0.282071 1.00508 96 82 99 
0.0574066 -0.257276 0.990863 93 63 75 
0.0580895 -0.287489 0.996044 93 71 92 
0.0683281 -0.259008 0.983 93 59 76 
0.0806252 -0.28443 0.976192 80 58 71 
0.082515 -0.228731 0.965749 93 65 88 
0.0896973 -0.261622 0.964841 95 72 92 
0.0963164 -0.25949 0.957474 125 117 140 
0.103942 -0.259225 0.947339 85 76 93 
0.110396 -0.290144 0.947749 77 55 68 
0.117732 -0.263204 0.93604 94 65 85 
0.123436 -0.284973 0.934024 76 57 85 
0.120329 -0.0427846 0.905138 73 49 65 
0.128589 -0.265051 0.927899 95 72 92 
0.139756 -0.264798 0.916695 59 42 58 
0.143834 -0.280197 0.913554 127 111 137 
0.148188 -0.265616 0.907613 102 70 85 
0.156062 -0.287683 0.903016 100 75 97 
0.157601 -0.264342 0.899899 131 119 143 
0.156186 0.0830463 0.85191 73 48 67 
0.161489 0.0948853 0.847902 128 115 141 
0.175861 -0.268842 0.882678 82 54 68 
0.165864 0.106466 0.839304 128 113 132 
0.169173 0.0882817 0.838549 72 50 62 
0.174368 0.0184266 0.84471 134 117 136 
0.185293 -0.272112 0.874722 74 51 67 
0.188048 -0.286823 0.87385 80 54 79 
0.194091 -0.271366 0.865785 84 61 77 
0.211515 -0.280355 0.848962 93 67 94 
0.219186 -0.270865 0.841782 76 58 84 
0.24269 -0.28045 0.819589 67 55 77 
-0.337222 0.00186916 1.31639 88 96 135 
-0.334058 0.0109666 1.31279 99 85 118 
-0.335747 -0.103682 1.32713 107 116 155 
-0.332508 -0.214954 1.34071 61 68 112 
-0.330775 -0.238109 1.34177 104 88 115 
-0.329232 -0.194765 1.33558 118 96 119 
-0.327138 -0.162271 1.33807 98 81 113 
-0.324654 -0.139905 1.32257 71 53 75 
-0.320793 -0.214898 1.32897 127 109 131 
-0.313688 -0.144646 1.31437 92 65 82 
-0.311924 -0.247449 1.32771 82 59 87 
-0.305145 -0.148153 1.30781 138 116 128 
-0.305797 -0.219119 1.31589 123 109 134 
-0.261132 -0.196184 1.27628 81 60 75 
-0.249785 0.0567688 1.2276 61 47 64 
-0.244334 -0.228592 1.26445 66 58 71 
-0.234251 -0.227916 1.25473 61 40 47 
-0.226494 -0.227047 1.24501 67 46 53 
-0.169205 -0.23038 1.19007 81 53 65 
-0.141118 -0.205924 1.16107 89 65 81 
-0.136917 -0.226165 1.15913 73 58 81 
-0.116863 -0.237965 1.14236 78 54 76 
-0.106549 -0.238267 1.1313 76 54 75 
-0.0972935 -0.239129 1.12432 134 122 142 
0.0660948 -0.23755 0.96853 135 114 133 
0.0789654 -0.195635 0.941833 66 31 37 
0.129805 -0.232184 0.909248 75 54 73 
0.139422 -0.0889017 0.8801 88 70 92 
0.1428 -0.182449 0.889874 138 117 136 
0.15381 -0.1058 0.869727 133 118 141 
0.172342 -0.205101 0.866039 88 61 76 
0.172984 -0.243264 0.867614 95 64 79 
0.164904 0.208717 0.814484 104 103 119 
0.162105 0.198511 0.811357 111 95 121 
0.170392 0.000432897 0.83727 90 63 80 
0.177411 -0.139003 0.855928 54 37 47 
0.171217 0.12763 0.819942 120 97 115 
0.189736 -0.105322 0.834915 133 124 145 
0.188252 0.148518 0.800215 137 122 143 
0.213321 -0.179371 0.82098 88 57 75 
0.211672 0.00862186 0.801511 76 59 75 
0.230634 0.0873314 0.769758 120 101 120 
0.217267 0.216825 0.744983 66 57 76 
0.243381 -0.220882 0.796913 143 122 137 
0.266423 0.00433985 0.748997 72 55 73 
0.274285 0.217315 0.692092 17 22 42 
-0.312816 0.135329 1.27632 89 71 93 
-0.319281 -0.188156 1.32696 76 58 80 
0.203053 0.151722 0.788238 127 110 129 
-0.465743 0.205309 1.42137 88 102 151 
-0.423262 0.263023 1.34863 127 145 185 
-0.407671 0.266013 1.33256 20 31 49 
-0.407814 0.238534 1.33944 37 47 74 
-0.401578 0.258907 1.33991 15 22 38 
-0.404136 0.109319 1.35753 33 48 77 
-0.39913 0.248147 1.34071 23 28 48 
-0.399869 0.231238 1.34379 36 43 69 
-0.392371 0.285637 1.32917 119 107 127 
-0.3952 0.266756 1.3401 65 71 93 
-0.394829 0.176064 1.35027 93 108 141 
-0.395047 0.161966 1.35242 97 108 138 
-0.393919 0.136463 1.35499 96 102 134 
-0.395499 0.0855359 1.36217 32 42 69 
-0.389903 0.255636 1.34459 114 126 164 
-0.393238 0.10596 1.35963 90 98 135 
-0.367564 0.286049 1.29092 65 63 76 
-0.390788 -0.0537369 1.37977 99 108 149 
-0.387481 -0.0420318 1.37919 126 134 173 
-0.358594 0.289419 1.27833 63 67 94 
-0.386231 -0.384497 1.42033 98 111 146 
-0.341225 0.185456 1.31245 102 93 114 
-0.339762 0.119215 1.32002 103 89 112 
-0.337961 0.060564 1.32576 114 95 114 
-0.339452 0.00189253 1.33533 97 102 142 
-0.33564 0.0107208 1.32966 103 88 121 
-0.33516 -0.0623666 1.34073 100 83 102 
-0.330714 -0.260095 1.36305 111 93 119 
-0.321203 -0.0575568 1.3281 66 53 70 
-0.328947 -0.339872 1.37264 104 86 112 
-0.330973 -0.408 1.38426 116 125 168 
-0.328317 -0.374417 1.37746 118 95 123 
-0.29826 0.0627102 1.28638 79 65 88 
-0.302765 -0.306317 1.34424 91 65 78 
-0.278841 0.169342 1.2537 117 106 123 
-0.283946 -0.257031 1.32 80 65 88 
-0.275071 -0.225754 1.30717 82 64 86 
-0.271214 -0.389366 1.32753 84 69 88 
-0.263787 -0.278132 1.31404 75 58 74 
-0.250809 -0.275317 1.29069 64 50 65 
-0.2474 -0.340129 1.29842 130 116 129 
-0.247071 -0.367033 1.30156 82 58 80 
-0.231013 -0.0114565 1.2379 69 51 75 
-0.221065 0.0774881 1.20278 109 90 109 
-0.225986 -0.257483 1.26651 90 60 70 
-0.227173 -0.368799 1.2816 87 62 81 
-0.221315 -0.27922 1.26425 84 57 76 
-0.221612 -0.333839 1.27241 134 117 136 
-0.215198 -0.300612 1.26192 86 64 85 
-0.204681 -0.280024 1.24727 86 59 76 
-0.203917 -0.36652 1.26017 128 113 132 
-0.179423 -0.348416 1.23757 80 58 71 
-0.174682 -0.260298 1.21809 78 56 69 
-0.171888 -0.349703 1.23021 75 51 67 
-0.149409 -0.350849 1.20831 76 48 71 
-0.133892 -0.350276 1.18856 82 58 71 
-0.131627 -0.241782 1.17642 70 47 63 
-0.115303 -0.326834 1.17378 84 59 81 
-0.111975 -0.292905 1.16422 70 53 71 
-0.109977 -0.351111 1.17178 79 57 78 
-0.106814 -0.327333 1.16493 91 68 94 
-0.089407 -0.329627 1.14872 78 58 69 
-0.076306 -0.330095 1.13527 84 61 77 
-0.0617027 -0.297683 1.11873 66 52 67 
-0.0544313 -0.316472 1.11611 120 111 132 
-0.054268 -0.333025 1.11938 80 62 76 
-0.04912 -0.331504 1.11006 80 59 74 
-0.0470742 -0.318493 1.10582 76 53 69 
-0.0332628 -0.319056 1.09332 71 48 68 
-0.0270631 -0.315502 1.07394 52 28 44 
-0.0250314 -0.323416 1.06802 192 195 202 
-0.0176749 -0.305608 1.0596 155 143 121 
-0.0111656 -0.320743 1.05524 60 63 68 
-0.00494964 -0.316761 1.04729 55 97 113 
-0.00365721 -0.302794 1.05072 38 24 24 
0.00256853 -0.314058 1.0406 130 119 101 
0.0282218 -0.300502 1.03355 136 117 139 
0.0400983 -0.305864 1.02044 82 59 77 
0.0475659 -0.26206 1.00934 78 52 77 
0.0650264 -0.308146 1.00002 80 55 77 
0.0707551 -0.230158 0.983763 79 55 77 
0.0756301 -0.261744 0.983697 91 62 80 
0.0822362 -0.207008 0.960735 140 118 141 
0.0828785 -0.191317 0.959334 37 20 26 
0.0912406 -0.287339 0.973006 86 59 74 
0.10353 -0.183519 0.945754 86 57 79 
0.10413 -0.157019 0.940538 87 59 71 
0.118184 -0.102341 0.926637 69 45 58 
0.163324 -0.0203432 0.866723 75 48 63 
0.173141 -0.173689 0.878619 88 63 84 
0.160639 0.226957 0.816796 61 58 69 
0.167041 0.155182 0.836016 65 34 39 
0.169645 0.12406 0.844206 126 122 147 
0.173256 0.203715 0.831908 112 98 124 
0.185994 -0.0201592 0.849958 75 52 68 
0.25578 -0.181933 0.802653 79 60 79 
0.274012 -0.0292287 0.764956 34 29 36 
-0.397144 0.288499 1.31375 32 31 39 
-0.384737 0.168711 1.3463 142 157 200 
-0.353298 0.285658 1.27729 24 29 48 
-0.348866 0.228987 1.29564 147 166 206 
-0.346507 0.271226 1.28389 85 76 105 
-0.343718 0.277519 1.26994 122 109 119 
-0.346703 0.263914 1.29089 148 162 199 
-0.345925 0.249545 1.29279 77 86 115 
-0.34361 0.0991318 1.30949 161 175 222 
-0.342886 0.220171 1.29544 147 167 204 
-0.338454 0.161099 1.30007 103 88 109 
-0.337345 0.203582 1.29661 95 87 111 
-0.335363 -0.285015 1.34886 176 189 241 
-0.335858 -0.104289 1.33327 112 120 159 
-0.330044 0.278009 1.25788 73 61 83 
-0.332954 -0.0164199 1.3246 117 96 115 
-0.332784 0.0248343 1.32297 100 85 118 
-0.330059 0.240808 1.28155 49 40 57 
-0.331779 -0.273003 1.35296 99 108 149 
-0.32726 0.217859 1.28195 39 34 54 
-0.324791 -0.274695 1.34478 123 99 112 
-0.320975 0.270966 1.26045 117 106 122 
-0.320825 -0.216048 1.33508 131 111 136 
-0.319298 -0.188718 1.32995 91 72 94 
-0.314061 0.214105 1.26751 117 108 135 
-0.31368 0.173451 1.27589 125 115 140 
-0.312811 0.13563 1.27887 92 78 104 
-0.313686 -0.145251 1.3189 100 69 87 
-0.305749 -0.220305 1.32203 130 116 141 
-0.305047 -0.278075 1.32895 131 124 142 
-0.29269 -0.305103 1.32098 95 66 86 
-0.291392 -0.0306303 1.28193 85 63 86 
-0.286237 -0.292826 1.31625 94 66 80 
-0.276858 -0.265534 1.30198 98 74 98 
-0.256146 -0.314006 1.28861 83 64 84 
-0.249467 0.0569965 1.23287 68 51 67 
-0.235777 -0.295166 1.26758 83 64 84 
-0.20878 -0.308102 1.24366 132 119 139 
-0.200058 -0.120603 1.20906 76 52 65 
-0.195521 -0.252823 1.22379 89 68 85 
-0.159988 -0.287827 1.19483 79 65 78 
-0.150407 -0.298665 1.18935 128 111 130 
-0.135976 -0.227425 1.16445 74 56 80 
-0.125188 -0.257235 1.15776 130 112 134 
-0.115962 -0.239084 1.14685 80 56 78 
-0.0922431 -0.270601 1.12927 76 55 74 
-0.0829537 -0.312042 1.12551 75 59 85 
-0.0372695 -0.296793 1.08206 84 68 94 
-0.0292028 -0.295481 1.07218 83 48 68 
0.0350795 -0.280179 1.00968 138 123 144 
0.0690432 -0.29054 0.98033 81 63 87 
0.0826897 -0.208835 0.952898 104 82 103 
0.132167 -0.233464 0.913247 74 53 70 
0.132577 -0.21168 0.908673 92 65 82 
0.140927 -0.203569 0.901381 94 66 88 
0.139349 -0.15345 0.896465 134 112 133 
0.141998 -0.0894463 0.884203 89 74 93 
0.154164 -0.102915 0.87424 78 64 87 
0.159129 -0.189578 0.880723 76 49 66 
0.160262 -0.171059 0.877962 89 65 79 
0.151738 0.0454344 0.857677 64 41 59 
0.166809 -0.27263 0.8848 93 62 80 
0.159675 -0.0746884 0.866728 68 47 54 
0.157065 0.0662974 0.848737 72 48 62 
0.173656 -0.230687 0.871499 96 67 87 
0.174724 -0.206137 0.86951 89 62 79 
0.169331 -0.0131564 0.846243 103 74 94 
0.161247 0.19728 0.827136 57 41 52 
0.161023 0.211111 0.824809 54 48 60 
0.164666 0.169314 0.826883 108 100 123 
0.180091 -0.139801 0.859737 52 37 44 
0.170132 0.186291 0.821307 58 40 56 
0.183483 -0.0889572 0.845247 78 61 80 
0.171493 0.209605 0.814678 57 50 66 
0.19197 -0.188977 0.851394 84 72 92 
0.175509 0.168506 0.816708 122 117 137 
0.177795 0.128851 0.819872 115 106 123 
0.198198 -0.245649 0.852181 69 54 75 
0.19308 -0.106096 0.839414 134 125 146 
0.186695 0.167308 0.808509 128 120 144 
0.188026 0.196729 0.802924 46 30 41 
0.191057 0.149302 0.803804 133 120 138 
0.19497 0.0749587 0.810818 91 65 74 
0.209565 -0.183596 0.831388 134 122 146 
0.20669 -0.0675551 0.819956 75 61 76 
0.216214 -0.180367 0.824617 85 56 76 
0.21397 0.00862484 0.804326 80 63 81 
0.223157 -0.173538 0.816743 129 112 131 
0.219561 -0.0518216 0.805752 133 114 133 
0.209249 0.18826 0.782211 131 110 129 
0.210679 0.198016 0.78078 138 115 135 
0.234625 -0.243075 0.817311 81 61 86 
0.21694 0.167487 0.776992 137 127 154 
0.238651 -0.179945 0.80654 59 46 64 
0.232073 -0.0557391 0.794371 80 54 65 
0.2205 0.196701 0.771227 115 105 129 
0.233693 0.0878077 0.773196 118 103 122 
0.248584 -0.219484 0.798197 88 61 80 
0.231064 0.205608 0.758251 82 78 103 
0.236372 0.196474 0.759014 67 61 73 
0.267162 -0.15519 0.772422 81 57 71 
0.268982 -0.1239 0.768044 94 69 91 
0.252568 0.188642 0.740662 140 116 132 
0.274323 -0.180966 0.771391 53 35 51 
0.257951 0.135556 0.743524 74 56 70 
0.267875 -0.00340409 0.753753 73 56 74 
0.264981 0.0526612 0.748911 122 100 113 
0.296502 -0.189474 0.749165 153 130 150 
0.298529 -0.20713 0.749795 93 69 95 
0.278692 0.19189 0.717384 120 116 139 
0.288634 0.0652181 0.725136 137 114 122 
-0.342028 0.262683 1.28728 57 63 97 
-0.334354 -0.114643 1.32928 117 115 154 
0.17608 -0.0324244 0.841565 63 45 57 
-0.190077 -0.127904 1.20025 132 111 126 
-0.396828 -0.489735 1.44031 32 47 76 
-0.382362 -0.488113 1.43921 45 47 98 
-0.339004 0.152415 1.3375 91 81 105 
-0.340285 -0.053516 1.36031 101 88 108 
-0.338006 -0.113711 1.36471 104 90 115 
-0.330366 -0.183796 1.36493 104 87 119 
-0.324946 -0.0583739 1.34523 66 52 67 
-0.330876 -0.282762 1.38019 116 92 108 
-0.332218 -0.331703 1.38792 121 96 118 
-0.326085 -0.315981 1.37345 111 88 108 
-0.328931 -0.226315 1.37666 107 91 117 
-0.328057 -0.425393 1.38977 120 100 127 
-0.328232 -0.402432 1.39158 122 99 117 
-0.299145 -0.41251 1.3629 89 65 89 
-0.294984 -0.466942 1.36375 87 64 82 
-0.261975 -0.227708 1.30709 81 62 81 
-0.234315 -0.416642 1.3004 64 50 63 
-0.226788 -0.258513 1.2717 83 57 68 
-0.218179 -0.355148 1.27752 75 54 71 
-0.21576 -0.394202 1.27879 78 61 79 
-0.209437 -0.418493 1.27771 85 63 84 
-0.204002 -0.366567 1.26076 117 102 123 
-0.181168 -0.398221 1.24641 73 52 69 
-0.175506 -0.395677 1.23533 78 64 79 
-0.175012 -0.373767 1.23846 82 59 79 
-0.160187 -0.372667 1.22227 69 45 67 
-0.158592 -0.398364 1.22359 80 55 77 
-0.150283 -0.369117 1.21032 130 106 128 
-0.143399 -0.350888 1.20407 74 53 70 
-0.14147 -0.381211 1.20745 62 44 58 
-0.139 -0.426775 1.20831 73 52 71 
-0.128634 -0.371106 1.19246 68 50 72 
-0.108459 -0.384966 1.17364 73 50 78 
-0.106577 -0.351054 1.1666 72 54 68 
-0.102829 -0.324944 1.16051 123 110 130 
-0.0975461 -0.375114 1.16081 74 50 72 
-0.0898004 -0.405234 1.15936 72 58 75 
-0.0782726 -0.354207 1.14116 80 55 77 
-0.075983 -0.371821 1.14088 55 41 58 
-0.0648363 -0.385923 1.13209 76 57 77 
-0.0469941 -0.358683 1.11222 55 36 55 
-0.024508 -0.339437 1.06902 163 149 140 
-0.0221821 -0.323637 1.06545 171 174 193 
-0.0183112 -0.351134 1.06226 68 33 37 
-0.0174725 -0.33523 1.0622 163 141 143 
-0.0126708 -0.345125 1.05577 197 188 159 
-0.00996395 -0.310728 1.05079 70 104 113 
-0.00829375 -0.333491 1.0524 148 135 118 
-0.00582208 -0.352348 1.04933 125 124 155 
-0.00641408 -0.361751 1.05579 154 142 130 
-0.00206983 -0.339071 1.04628 138 134 122 
-0.00187034 -0.32599 1.04552 121 140 183 
0.00417253 -0.339039 1.03823 161 148 142 
0.00524981 -0.352608 1.03924 88 35 41 
0.00627161 -0.316821 1.03383 192 186 170 
0.0104627 -0.328399 1.03125 95 85 76 
0.0132182 -0.345594 1.03966 57 45 57 
0.0226776 -0.321476 1.03611 53 34 53 
0.0280342 -0.299651 1.03068 127 109 131 
0.0326291 -0.35208 1.03435 83 63 90 
0.0385613 -0.342455 1.02848 124 106 130 
0.0389945 -0.325559 1.02463 64 46 68 
0.0448074 -0.306997 1.01555 47 29 43 
0.0451283 -0.320335 1.0175 117 99 125 
0.0678618 -0.306722 0.9943 64 39 61 
0.0722128 -0.228164 0.980554 129 111 137 
0.0764852 -0.342681 0.990773 75 60 81 
0.0867451 -0.324911 0.978583 58 40 54 
0.0907659 -0.286269 0.969503 76 52 66 
0.0922958 -0.307413 0.970056 127 110 128 
0.102707 -0.328158 0.962899 75 51 75 
0.102239 -0.0706795 0.932926 60 42 54 
0.106744 -0.30918 0.956669 63 40 58 
0.115358 -0.307711 0.947331 119 110 137 
0.124225 -0.309083 0.940366 80 58 79 
0.132419 -0.309701 0.93205 81 60 79 
0.139947 -0.311144 0.923864 81 56 77 
0.163215 -0.297652 0.901895 81 57 71 
0.167261 -0.0176929 0.863808 121 109 133 
0.184855 -0.297178 0.881628 59 38 57 
0.194427 -0.286074 0.868969 162 149 177 
0.306747 -0.119867 0.74092 63 43 55 
0.29995 0.11052 0.714729 54 38 51 
0.313037 -0.160614 0.748146 76 55 60 
0.313752 -0.125239 0.746876 82 62 74 
0.310375 -0.0417469 0.733936 79 54 76 
0.313872 -0.0187996 0.731456 78 57 72 
0.311948 0.0495596 0.7257 60 35 41 
0.312285 0.0669423 0.720996 135 108 123 
-0.302841 -0.150437 1.33149 67 43 59 
-0.278759 -0.192387 1.31179 129 111 133 
-0.23358 -0.201915 1.27172 75 53 65 
0.168779 0.0140183 0.859136 57 45 57 
0.175272 0.197475 0.830613 48 33 40 
0.203462 -0.271844 0.860534 69 51 73 
0.271785 -0.224341 0.788201 80 53 72 
0.20564 -0.176124 0.844206 63 50 60 
