ply                 
format ascii 1.0    
element vertex 1145
property float x    
property float y    
property float z    
property uchar red  
property uchar green
property uchar blue 
end_header          
0.108221 -0.182815 0.927841 93 60 77 
0.117024 -0.205347 0.923921 75 58 74 
0.118153 -0.212894 0.923334 81 62 84 
0.124511 -0.202076 0.916501 96 65 81 
0.131753 -0.16909 0.905116 85 60 79 
0.140112 -0.237485 0.905899 101 71 83 
0.143643 -0.100138 0.883608 129 116 134 
0.146347 -0.159271 0.889509 86 58 73 
0.14734 -0.102029 0.880349 63 50 67 
0.149777 -0.143698 0.884328 97 61 75 
0.158281 -0.161356 0.877593 88 61 76 
0.157778 -0.126496 0.873527 92 67 89 
0.162812 -0.16574 0.87367 89 65 79 
0.164808 -0.10724 0.866049 70 54 67 
0.16783 -0.1056 0.862459 124 115 134 
0.17645 -0.192252 0.866217 84 57 72 
0.179012 -0.193193 0.86247 78 57 66 
0.179012 -0.193193 0.86247 78 57 66 
0.182115 -0.16376 0.856907 82 61 68 
0.185163 -0.209748 0.860988 75 57 71 
0.184848 -0.148359 0.850697 133 106 125 
0.185209 -0.105764 0.84754 128 119 136 
0.187478 -0.0826104 0.842256 52 46 58 
0.190095 -0.164717 0.849024 83 53 65 
0.193411 -0.177226 0.84824 110 101 118 
0.194098 -0.166421 0.844229 85 64 73 
0.192915 -0.0807903 0.838126 59 43 56 
0.197067 -0.196183 0.846834 67 49 61 
0.190778 0.0146532 0.822792 136 115 132 
0.196583 -0.165961 0.843218 78 54 68 
0.196828 -0.145679 0.840374 72 49 59 
0.198566 -0.116884 0.834705 138 114 127 
0.201436 -0.164601 0.839763 136 117 139 
0.202556 -0.217934 0.843085 87 58 76 
0.204245 -0.241382 0.847364 61 44 62 
0.206689 -0.219486 0.839761 84 57 76 
0.205357 -0.0593861 0.820684 125 102 122 
0.209996 -0.176964 0.832185 43 29 42 
0.210865 -0.167114 0.830775 73 46 63 
0.211147 -0.14694 0.827697 75 59 70 
0.215486 -0.113219 0.818432 72 51 60 
0.209659 0.0718456 0.796274 149 128 137 
0.209659 0.0718456 0.796274 149 128 137 
0.219533 -0.197986 0.825158 73 49 62 
0.212765 0.040366 0.800207 75 58 76 
0.225687 -0.272794 0.830063 63 46 62 
0.225825 -0.209342 0.820602 130 107 127 
0.226685 -0.212049 0.82057 47 36 52 
0.220367 0.0111588 0.796036 133 115 131 
0.220367 0.0111588 0.796036 133 115 131 
0.222997 0.013408 0.793774 73 52 71 
0.224007 0.00926097 0.794114 84 58 71 
0.224007 0.00926097 0.794114 84 58 71 
0.220335 0.117346 0.783174 121 103 115 
0.224156 0.0115499 0.793787 129 110 129 
0.227161 -0.0513005 0.798452 134 117 136 
0.237452 -0.22148 0.811047 125 106 125 
0.230056 0.00630115 0.789164 138 111 126 
0.227756 0.117035 0.776445 129 114 133 
0.23676 -0.148752 0.800636 117 96 111 
0.238638 -0.146377 0.799145 52 40 54 
0.245784 -0.143603 0.793492 131 107 120 
0.250497 -0.247064 0.802457 52 34 46 
0.239405 0.0587248 0.770031 90 68 91 
0.240449 0.0466062 0.770403 149 125 138 
0.241447 0.095057 0.762956 90 63 72 
0.243253 0.0536273 0.766712 97 70 87 
0.254275 -0.212475 0.795302 122 107 130 
0.246254 0.0584865 0.76413 87 64 82 
0.247878 0.0832266 0.761121 123 101 114 
0.25591 -0.123908 0.780279 85 60 79 
0.25591 -0.123908 0.780279 85 60 79 
0.249964 0.0389799 0.763047 125 108 127 
0.249409 0.0852007 0.760654 61 43 59 
0.261692 -0.215527 0.788465 45 31 48 
0.256673 -0.0839945 0.775284 53 33 42 
0.252204 0.0369321 0.761815 65 47 61 
0.247342 0.198997 0.745095 125 98 113 
0.264841 -0.248747 0.789049 75 53 74 
0.262598 -0.145966 0.776161 136 119 138 
0.255368 0.0412021 0.757571 86 62 75 
0.256889 0.0387074 0.756523 136 113 129 
0.254813 0.114624 0.750366 91 68 94 
0.250845 0.197558 0.740301 122 104 118 
0.262835 -0.0278709 0.762846 47 37 46 
0.262835 -0.0278709 0.762846 47 37 46 
0.271325 -0.249883 0.783418 54 41 51 
0.25897 0.0794296 0.748488 131 105 118 
0.263256 0.00104743 0.756243 136 118 132 
0.25521 0.198991 0.736462 74 60 75 
0.264015 0.132466 0.736355 133 112 127 
0.262318 0.194243 0.730951 41 35 49 
0.264209 0.187302 0.728757 138 121 137 
0.276026 -0.0873523 0.756384 83 61 74 
0.266437 0.201699 0.724912 80 62 74 
0.26729 0.198743 0.724939 137 124 150 
0.271334 0.112699 0.733508 75 56 75 
0.271334 0.112699 0.733508 75 56 75 
0.272971 0.0759122 0.736108 147 116 131 
0.276637 0.00345568 0.743019 66 49 68 
0.271121 0.193764 0.722675 98 97 115 
0.271121 0.193764 0.722675 98 97 115 
0.271197 0.193779 0.722677 98 95 112 
0.272701 0.196104 0.719832 137 118 137 
0.283837 -0.026268 0.739144 136 115 134 
0.284847 0.0504095 0.728879 101 74 91 
0.286811 0.0353733 0.728934 125 104 121 
0.289924 0.0273305 0.726784 131 109 130 
0.288495 0.189908 0.705142 56 39 49 
0.290654 0.147621 0.70826 94 65 70 
0.290654 0.147621 0.70826 94 65 70 
-0.302701 -0.0579944 1.29802 129 114 133 
-0.22586 -0.040828 1.22643 57 39 53 
-0.180479 -0.135468 1.19689 57 44 54 
-0.159856 -0.171835 1.18111 74 51 67 
0.0931836 -0.180415 0.94256 76 52 68 
0.105846 -0.197481 0.933356 77 56 73 
0.119887 -0.186451 0.918868 99 65 79 
0.130106 -0.188102 0.908811 91 68 76 
0.137393 -0.134838 0.895298 81 57 70 
0.141811 -0.223275 0.902207 102 75 92 
0.143294 -0.0445113 0.875866 143 120 138 
0.152846 -0.188997 0.886956 84 53 69 
0.160721 -0.0471595 0.863972 144 122 145 
0.167019 -0.191512 0.873936 84 60 74 
0.166974 -0.0762614 0.858565 77 53 67 
0.174299 -0.0494884 0.848116 79 51 65 
0.178426 0.0676322 0.83049 123 110 130 
0.19277 -0.240972 0.856649 140 113 128 
0.18926 -0.0218973 0.831189 67 46 53 
0.195926 -0.209658 0.849619 88 63 84 
0.188077 0.0667281 0.819751 121 111 135 
0.189499 0.0951458 0.812723 139 115 128 
0.196442 -0.0525009 0.82983 64 44 53 
0.195987 -0.00704006 0.821217 136 113 129 
0.199282 0.0940813 0.803933 128 107 124 
0.200708 0.0769293 0.804254 126 109 128 
0.205614 0.0101686 0.8107 82 63 82 
0.198927 0.209096 0.78751 73 65 76 
0.210305 -0.0812276 0.819947 57 38 44 
0.210707 0.140069 0.786978 135 111 127 
0.211124 0.166249 0.784341 84 66 90 
0.223666 -0.112858 0.80885 125 107 123 
0.226374 -0.184334 0.815562 85 59 72 
0.2141 0.194067 0.775002 49 33 46 
0.234905 -0.257886 0.818317 77 58 77 
0.22243 0.153244 0.773777 142 121 138 
0.236442 -0.200459 0.80981 121 100 117 
0.223394 0.168112 0.770003 129 110 130 
0.222323 0.206921 0.765794 95 68 87 
0.233392 -0.0825004 0.796328 82 57 78 
0.240513 -0.248931 0.811692 122 105 124 
0.236068 -0.113723 0.797437 92 64 79 
0.22897 0.0805654 0.776046 140 118 131 
0.227255 0.195491 0.764036 80 65 84 
0.232271 0.162584 0.7636 68 54 69 
0.237626 0.0793259 0.768057 139 113 124 
0.249028 -0.0281964 0.774278 65 40 46 
0.247967 0.138426 0.75223 68 56 68 
0.248368 0.185856 0.743215 92 67 86 
0.258665 -0.0586892 0.769174 73 51 64 
0.270949 -0.281703 0.78625 87 63 77 
0.27304 -0.215429 0.77783 55 51 65 
0.270415 -0.149872 0.768717 76 68 83 
0.281513 -0.277819 0.776459 76 59 78 
0.265296 0.156616 0.732153 123 99 112 
0.279323 -0.184341 0.76498 118 94 116 
0.271521 0.0370394 0.74325 136 119 135 
0.292911 -0.267471 0.763985 80 61 81 
0.288011 -0.155663 0.752845 82 61 78 
0.29481 -0.184234 0.751062 68 50 72 
0.290836 -0.0655268 0.737591 133 106 121 
0.280784 0.184662 0.713029 126 107 126 
-0.302401 0.171931 1.26282 128 120 144 
-0.300081 0.0261064 1.28099 122 114 138 
-0.297777 -0.000892388 1.2839 59 51 66 
-0.297197 0.142414 1.26403 79 64 83 
-0.29441 0.120473 1.26503 61 54 70 
-0.290139 0.026796 1.27385 70 60 85 
-0.290706 -0.000103428 1.27518 129 116 142 
-0.289278 0.0616641 1.26833 67 55 75 
-0.288894 0.141702 1.2568 67 57 82 
-0.284574 0.00989952 1.26939 137 124 144 
-0.282227 0.100745 1.25784 77 64 92 
-0.283361 -0.0300815 1.27236 125 107 129 
-0.281368 0.117739 1.25456 69 56 74 
-0.279014 0.0235342 1.26284 128 114 140 
-0.278173 0.128343 1.24783 120 118 142 
-0.278393 0.156163 1.24284 110 101 128 
-0.276704 0.0605348 1.25751 76 62 85 
-0.276503 0.0343624 1.26079 82 69 87 
-0.277705 0.138806 1.24406 73 64 107 
-0.276271 -0.0359327 1.26742 125 113 135 
-0.275611 -0.020713 1.26458 72 56 85 
-0.273267 0.0945809 1.24966 75 61 84 
-0.273465 0.173686 1.23679 126 122 149 
-0.270788 0.0368376 1.25353 59 45 62 
-0.271041 0.0614485 1.249 130 117 137 
-0.270254 -0.00302135 1.25836 129 121 144 
-0.269015 0.129805 1.237 172 190 255 
-0.267426 0.0262851 1.25251 120 105 128 
-0.268998 0.193283 1.22848 123 119 146 
-0.266791 0.114007 1.24069 56 44 54 
-0.26456 -0.0419123 1.25713 86 75 105 
-0.265436 0.138747 1.23211 23 31 50 
-0.263879 0.169812 1.2291 52 43 62 
-0.262264 -0.00824428 1.2502 127 103 127 
-0.260319 0.0230716 1.24572 80 57 83 
-0.260687 0.187867 1.2225 82 69 87 
-0.259595 -0.032953 1.25086 132 107 129 
-0.256453 0.0917247 1.23346 119 101 117 
-0.255513 0.149141 1.22595 53 44 63 
-0.255454 0.00579927 1.24206 103 79 105 
-0.254848 0.110117 1.22897 105 87 99 
-0.254733 0.165028 1.22188 115 107 122 
-0.25446 0.0671112 1.23336 134 114 126 
-0.253057 0.136355 1.22483 112 103 124 
-0.25328 0.186217 1.21556 106 98 113 
-0.250479 -0.00440791 1.24192 74 61 89 
-0.250275 0.035629 1.23617 67 50 69 
-0.249504 0.0203275 1.23823 40 31 48 
-0.247978 0.0932154 1.22567 136 122 137 
-0.246223 0.068287 1.22595 118 105 131 
-0.246556 0.119995 1.218 137 120 136 
-0.244951 0.0559058 1.22627 56 44 56 
-0.244657 0.166003 1.2117 57 47 56 
-0.242922 -0.0113588 1.23487 133 113 140 
-0.242442 -0.0600516 1.23941 130 116 139 
-0.241241 0.188178 1.20612 100 97 116 
-0.240237 -0.0416358 1.23529 75 66 95 
-0.238383 0.0187152 1.22515 122 102 111 
-0.238811 0.132588 1.20993 63 49 66 
-0.237899 0.213625 1.20101 55 44 58 
-0.237445 0.0691314 1.21832 110 95 114 
-0.23706 0.146244 1.2093 57 44 53 
-0.236773 0.110981 1.20934 54 40 55 
-0.233191 -0.0664854 1.23285 65 52 69 
-0.233045 -0.0279792 1.22627 95 67 92 
-0.230002 0.0319037 1.22002 74 63 79 
-0.231421 0.0748111 1.21097 92 70 93 
-0.230404 0.0606928 1.2119 126 111 134 
-0.230798 0.207661 1.19295 57 41 51 
-0.228137 0.0187235 1.21939 54 40 53 
-0.229382 0.133899 1.2022 61 44 62 
-0.228454 0.1507 1.19919 120 101 120 
-0.226584 -0.0407431 1.22531 55 38 46 
-0.227658 0.182915 1.19505 51 35 48 
-0.226346 -0.0140494 1.21905 134 111 127 
-0.225201 0.0897146 1.20673 48 42 44 
-0.226615 0.171892 1.19325 49 36 46 
-0.221785 0.109023 1.2005 69 56 76 
-0.221596 -0.0391845 1.21643 134 115 134 
-0.21954 0.0178417 1.21174 65 51 64 
-0.220592 0.211064 1.18406 109 92 110 
-0.218002 0.13506 1.19206 117 100 119 
-0.216089 -0.0125226 1.21226 61 47 62 
-0.218478 0.162989 1.18718 51 40 56 
-0.216026 -0.0629783 1.21797 130 116 139 
-0.217108 0.0672337 1.2004 56 38 52 
-0.214096 -0.0472704 1.21275 130 107 125 
-0.213732 0.183478 1.18456 27 25 28 
-0.213739 0.0148204 1.2035 110 99 113 
-0.213394 0.10822 1.19224 71 55 66 
-0.213976 0.20102 1.17932 83 75 96 
-0.214031 0.089499 1.19214 73 58 77 
-0.21224 0.033152 1.20027 122 110 130 
-0.209484 0.0511941 1.1984 58 42 55 
-0.211021 0.146998 1.18416 48 36 46 
-0.208327 -0.00616064 1.20108 73 65 89 
-0.207819 -0.0416427 1.20556 89 66 86 
-0.20885 0.126268 1.18336 45 35 44 
-0.204811 -0.0668132 1.20714 131 123 146 
-0.204605 0.163819 1.17893 99 95 110 
-0.204793 0.137298 1.17883 112 95 111 
-0.204513 0.0332724 1.1909 137 118 137 
-0.203665 -0.0299712 1.1997 96 66 78 
-0.200759 -0.014838 1.19619 67 46 61 
-0.200943 0.0690491 1.18502 115 98 117 
-0.200855 0.121671 1.17701 37 27 36 
-0.200999 0.082196 1.18153 128 95 104 
-0.197658 -0.0437435 1.19777 53 36 54 
-0.197613 0.0498415 1.18448 60 47 57 
-0.194809 -0.0693032 1.19876 132 117 138 
-0.195738 0.0359089 1.18341 141 120 135 
-0.196739 0.154985 1.16729 56 35 44 
-0.191554 0.0632504 1.17661 50 34 44 
-0.190361 -0.0159251 1.18686 83 55 70 
-0.191234 0.13005 1.16692 54 40 53 
-0.188576 -0.0421694 1.18751 85 61 87 
-0.188147 0.047343 1.17676 111 100 116 
-0.187994 0.0131147 1.18014 141 123 137 
-0.185981 -0.0972224 1.19438 141 126 147 
-0.186458 0.0343896 1.17477 136 117 136 
-0.185526 -0.0728568 1.18794 120 104 117 
-0.179558 -0.0442565 1.18046 89 57 72 
-0.178753 -0.0935466 1.18428 75 54 71 
-0.179099 0.0808689 1.1624 86 70 83 
-0.177909 -0.0164364 1.17393 71 54 73 
-0.17497 -0.0812384 1.18087 53 38 57 
-0.169048 -0.105502 1.1779 130 101 119 
-0.167572 -0.0714631 1.17327 80 62 86 
-0.167497 -0.0160989 1.16286 70 51 71 
-0.163076 -0.122768 1.17609 77 64 74 
-0.164301 -0.0898079 1.17036 95 62 79 
-0.160124 -0.0627486 1.16641 131 119 139 
-0.156014 -0.0179049 1.15574 62 48 65 
-0.155033 -0.0722765 1.16184 64 40 53 
-0.153553 -0.100636 1.16286 92 64 78 
-0.151764 -0.0440656 1.1536 133 110 128 
-0.150838 -0.123968 1.16384 94 66 78 
-0.148847 -0.0289265 1.14979 73 51 74 
-0.14406 -0.07376 1.1524 65 48 64 
-0.140641 -0.138594 1.15624 83 60 86 
-0.139064 -0.126873 1.15271 85 61 74 
-0.135572 -0.0737231 1.14404 71 53 77 
-0.134972 -0.0199074 1.13577 127 120 138 
-0.132232 -0.140412 1.14883 80 57 77 
-0.1303 -0.123035 1.14486 133 118 137 
-0.128261 -0.102924 1.14092 85 60 81 
-0.127917 -0.0493804 1.13235 50 37 46 
-0.124061 -0.0755638 1.13332 58 38 49 
-0.123305 -0.128714 1.1373 139 126 144 
-0.116801 -0.140814 1.13459 67 39 61 
-0.102535 -0.14721 1.12107 66 49 65 
-0.100886 -0.167964 1.12306 45 31 56 
0.118615 -0.108443 0.908346 110 77 96 
0.123121 -0.221936 0.918651 106 76 104 
0.131232 -0.247645 0.916736 158 135 155 
0.129545 -0.102062 0.899491 83 56 75 
0.131139 -0.204102 0.910829 106 73 94 
0.137628 -0.188171 0.902702 102 74 96 
0.13736 -0.0697207 0.88491 139 121 145 
0.141525 -0.169235 0.896623 107 79 102 
0.148434 -0.204503 0.896411 138 130 154 
0.144859 -0.118797 0.883938 102 72 96 
0.147762 -0.231906 0.896829 103 74 96 
0.148484 -0.074071 0.878533 89 64 83 
0.151495 -0.173213 0.887203 92 72 100 
0.165323 -0.262669 0.886272 89 61 86 
0.160333 -0.0670309 0.86351 90 66 88 
0.165505 -0.246287 0.884013 149 127 148 
0.168155 -0.206637 0.874974 89 66 82 
0.1735 -0.139245 0.863614 98 68 92 
0.181507 -0.223031 0.867319 145 127 149 
0.184153 -0.234443 0.863876 90 70 95 
0.184597 0.0317057 0.828194 144 123 138 
0.201543 -0.0244204 0.822261 57 40 46 
0.205994 -0.267571 0.84767 83 70 100 
0.201938 0.0597324 0.809704 87 69 93 
0.201445 0.0398855 0.811506 78 59 78 
0.211553 -0.204249 0.834658 94 81 101 
0.215323 -0.230895 0.834962 88 67 98 
0.21829 -0.246475 0.833814 135 122 140 
0.215052 -0.0238557 0.808256 64 43 52 
0.219502 -0.141926 0.819742 148 125 141 
0.218232 0.0277435 0.797321 97 69 84 
0.222572 -0.166962 0.818693 70 54 80 
0.214854 0.0918183 0.787695 35 77 185 
0.222868 -0.0208833 0.799892 135 123 147 
0.224275 -0.0841625 0.806208 75 68 84 
0.215891 0.108904 0.783745 93 134 224 
0.226598 -0.148989 0.813061 78 65 85 
0.221797 0.0609375 0.789836 95 67 82 
0.226398 -0.0970112 0.806397 81 67 92 
0.224229 0.0403901 0.787889 159 142 158 
0.226482 0.0911493 0.781507 142 124 140 
0.239469 -0.271336 0.820542 130 115 146 
0.235073 -0.176979 0.80822 76 64 84 
0.231259 0.051481 0.782776 154 130 146 
0.234046 0.0373106 0.78298 75 57 69 
0.238472 -0.236793 0.811865 94 69 91 
0.232811 0.141095 0.769125 89 74 93 
0.237279 -0.0344574 0.787825 88 64 86 
0.238644 -0.0513938 0.789248 84 68 95 
0.247084 -0.213889 0.805763 46 39 55 
0.23747 0.0112044 0.779671 126 107 127 
0.23551 0.122526 0.76687 81 62 81 
0.239745 0.0264505 0.776509 87 65 88 
0.243165 -0.0247051 0.782199 144 127 146 
0.243295 -0.0815517 0.786511 137 116 135 
0.238849 0.172894 0.757597 147 129 141 
0.248575 -0.114926 0.78876 72 50 71 
0.240879 0.192792 0.753309 129 114 137 
0.243661 0.114168 0.761599 80 54 67 
0.243194 0.151634 0.757354 91 69 92 
0.246605 0.00833021 0.772993 78 58 70 
0.254166 -0.275242 0.804105 85 61 85 
0.246063 0.162294 0.753413 94 74 99 
0.244986 0.178641 0.748783 148 131 150 
0.26337 -0.273987 0.793126 143 125 151 
0.253484 0.158252 0.746268 135 114 129 
0.265839 -0.0822623 0.766418 139 120 139 
0.266341 -0.0154177 0.757486 148 131 147 
0.265834 0.0313279 0.750438 146 125 142 
0.264852 0.103046 0.742801 97 72 94 
0.269534 -0.0607512 0.760597 72 51 68 
0.265094 0.0911829 0.743409 96 67 85 
0.27101 -0.167288 0.771272 104 78 105 
0.272575 -0.135477 0.768263 154 132 153 
0.273586 -0.192234 0.774099 96 82 108 
0.281319 -0.262651 0.776681 95 74 105 
0.273708 0.0562153 0.741475 62 44 70 
0.282471 -0.250635 0.774402 78 67 99 
0.27734 0.137582 0.727283 139 122 138 
0.282329 0.157296 0.721085 67 53 68 
0.294789 -0.251241 0.761694 94 67 98 
0.285989 0.110184 0.721252 129 106 116 
0.269971 0.217121 0.701424 123 107 117 
0.287298 0.20117 0.704665 86 77 104 
0.27212 0.234534 0.697278 13 20 30 
0.303844 -0.0624616 0.728637 81 67 102 
0.29992 0.134884 0.70488 133 112 127 
0.282845 0.2312 0.685368 15 26 44 
0.295007 0.204586 0.685004 143 133 157 
0.29018 0.224542 0.680271 178 194 254 
0.296595 0.234504 0.671685 97 95 100 
0.175254 -0.108667 0.855137 61 48 58 
0.18607 -0.191414 0.855184 127 113 136 
0.177656 0.101683 0.82309 71 52 72 
0.180539 0.0185004 0.831988 132 114 138 
0.181965 0.122137 0.817316 62 47 66 
0.181618 0.174028 0.811205 73 59 85 
0.193538 -0.219628 0.85162 92 63 83 
0.183387 0.204484 0.803993 116 107 138 
0.197991 -0.184882 0.842742 89 65 79 
0.192328 0.140201 0.803126 131 105 116 
0.19112 0.183193 0.797439 74 57 73 
0.193707 0.203628 0.79604 63 47 58 
0.195471 0.165783 0.798914 75 57 79 
0.197994 0.11658 0.804607 112 104 127 
0.205799 -0.109541 0.826038 55 34 51 
0.210042 0.0621304 0.799559 80 62 78 
0.231866 -0.0433377 0.792021 78 55 63 
0.253682 -0.148247 0.784037 87 70 88 
0.264269 -0.123083 0.771963 78 56 77 
0.259442 0.0572249 0.751402 89 66 86 
0.264623 0.0418045 0.748727 114 99 120 
0.282006 0.0269559 0.732727 135 114 133 
0.297292 -0.0419428 0.728261 83 61 74 
0.29664 0.190718 0.696068 118 105 122 
-0.312401 -0.121851 1.31502 73 58 79 
-0.307853 0.216569 1.26455 107 100 118 
-0.307123 -0.140484 1.31307 84 63 80 
-0.304254 0.0195879 1.29137 62 46 59 
-0.303767 -0.122764 1.3091 65 51 64 
-0.303362 -0.0285276 1.29545 132 120 142 
-0.302454 0.262261 1.25427 70 59 73 
-0.30283 0.123761 1.27335 129 118 134 
-0.301522 -0.159894 1.31034 90 65 86 
-0.300315 -0.0901703 1.30039 89 67 79 
-0.299696 0.215628 1.25617 115 112 133 
-0.297838 0.203869 1.2575 114 108 136 
-0.297229 -0.146451 1.30641 133 110 126 
-0.295164 -0.0600684 1.29243 69 56 66 
-0.293371 0.261813 1.24486 67 59 74 
-0.289118 0.216921 1.24907 50 47 54 
-0.289814 -0.123988 1.29463 90 63 80 
-0.287795 0.173423 1.25302 80 70 94 
-0.287483 -0.147131 1.29673 130 109 126 
-0.286935 0.244302 1.24222 109 104 124 
-0.286454 0.261758 1.23672 71 64 82 
-0.285397 -0.0633521 1.28174 114 99 120 
-0.285947 0.268427 1.22905 104 94 102 
-0.284254 -0.0834113 1.28272 68 54 79 
-0.283743 -0.097852 1.28491 130 113 132 
-0.28254 -0.109515 1.28671 140 123 141 
-0.280213 -0.123442 1.28717 63 51 61 
-0.280238 -0.150287 1.28934 75 57 69 
-0.278113 -0.16295 1.29113 73 54 73 
-0.278461 0.276749 1.2114 51 51 51 
-0.273985 -0.0967043 1.27591 136 129 145 
-0.273055 -0.114761 1.28055 54 38 49 
-0.272846 0.262745 1.22528 119 111 124 
-0.272002 0.0515354 1.25631 62 55 71 
-0.269885 0.244549 1.22836 112 110 131 
-0.268712 -0.164324 1.28283 76 54 67 
-0.267929 -0.144464 1.27855 78 55 63 
-0.267318 -0.104731 1.27435 122 101 118 
-0.268303 0.148423 1.23608 157 171 242 
-0.267753 -0.0624089 1.2661 98 90 114 
-0.265273 0.212302 1.2262 118 106 126 
-0.265272 -0.0977039 1.26679 145 127 141 
-0.264151 -0.11414 1.2702 125 111 128 
-0.264414 0.265185 1.2101 79 70 91 
-0.260295 0.0592053 1.24565 55 47 70 
-0.261223 0.123555 1.23429 22 27 46 
-0.259958 -0.169247 1.27631 68 49 55 
-0.258846 0.0366245 1.24674 66 52 69 
-0.264533 0.283274 1.19646 32 31 29 
-0.259032 -0.0598442 1.25735 120 104 130 
-0.256694 -0.13038 1.26556 81 53 67 
-0.254153 -0.0927266 1.25664 67 52 75 
-0.252081 -0.119462 1.26149 70 47 55 
-0.252248 0.243649 1.21064 106 88 102 
-0.250899 0.2119 1.21389 38 35 46 
-0.249642 -0.0630733 1.25167 63 48 77 
-0.250748 0.260041 1.20531 42 44 57 
-0.242299 0.0848268 1.2235 67 56 72 
-0.24198 -0.167444 1.25737 75 51 67 
-0.237326 -0.0945353 1.24475 80 57 75 
-0.240157 0.269192 1.17835 92 82 91 
-0.232574 -0.17164 1.25162 66 52 67 
-0.230499 0.230019 1.19246 61 44 54 
-0.228728 -0.0891604 1.23215 81 59 72 
-0.228278 0.239766 1.18881 49 41 52 
-0.223138 -0.132363 1.23899 69 51 67 
-0.223079 -0.0656177 1.22503 120 116 143 
-0.221505 0.0779715 1.20363 109 92 111 
-0.218893 -0.128589 1.2301 109 93 104 
-0.217066 -0.16335 1.23666 56 42 55 
-0.218347 0.241072 1.17922 92 89 108 
-0.216544 -0.140134 1.22973 44 31 49 
-0.215996 0.257552 1.17334 41 39 52 
-0.214373 -0.0819556 1.21891 133 109 123 
-0.213129 -0.126414 1.22171 122 91 107 
-0.208668 -0.179717 1.22715 88 60 72 
-0.202568 -0.100998 1.21118 79 55 69 
-0.201111 -0.133726 1.2148 87 64 82 
-0.1931 -0.121828 1.20735 47 34 51 
-0.192295 -0.134453 1.20779 92 75 85 
-0.191842 -0.102328 1.20358 64 51 68 
-0.191662 -0.175715 1.21232 78 63 82 
-0.192985 0.0827176 1.17537 108 86 99 
-0.185124 -0.119309 1.19858 139 116 136 
-0.180103 -0.17095 1.20164 74 47 64 
-0.1748 -0.124064 1.19028 57 44 51 
-0.172295 -0.160105 1.19252 86 69 87 
-0.171119 -0.170922 1.19248 62 50 60 
-0.168531 -0.134846 1.18342 125 107 123 
-0.154775 -0.13352 1.17239 137 115 136 
-0.151359 -0.173947 1.17541 56 34 46 
-0.14579 -0.0193731 1.14633 71 54 70 
-0.144188 -0.146672 1.16294 134 113 130 
-0.142215 -0.17514 1.16718 48 31 41 
-0.141021 -0.158493 1.16301 78 63 86 
-0.133188 -0.176634 1.15772 72 50 62 
-0.128299 -0.190543 1.15318 132 108 124 
-0.128469 -0.154486 1.14836 97 66 82 
-0.123192 -0.17463 1.1458 137 118 137 
-0.114824 -0.181475 1.14244 92 68 84 
-0.115224 -0.169057 1.13703 91 62 80 
-0.10865 -0.179228 1.13403 95 72 88 
-0.100507 -0.179706 1.12789 73 50 76 
0.093623 -0.242452 0.951782 92 63 83 
0.104538 -0.24121 0.942704 76 54 75 
0.110047 -0.251825 0.936883 109 75 100 
0.113681 -0.193823 0.927803 134 119 140 
0.114195 -0.220372 0.929328 100 66 90 
0.116301 -0.233665 0.9297 100 68 89 
0.124943 -0.234299 0.922459 97 74 103 
0.12516 -0.167522 0.914043 138 121 140 
0.130779 -0.129031 0.901003 143 129 152 
0.134599 -0.224628 0.910383 98 70 92 
0.13688 -0.0477503 0.885532 140 112 127 
0.150373 -0.129769 0.883196 97 64 83 
0.179966 0.0428338 0.831731 98 65 76 
0.181411 0.0841144 0.824937 79 56 76 
0.190028 -0.140063 0.847509 84 59 81 
0.191926 0.043722 0.820978 143 124 143 
0.195923 -0.0339326 0.827456 94 65 83 
0.195418 0.00502412 0.821954 144 122 145 
0.195193 0.10529 0.810438 78 62 88 
0.194664 0.0850701 0.811539 132 111 128 
0.206486 0.0501164 0.807209 89 70 89 
0.203294 0.197598 0.791227 50 32 44 
0.206788 0.144894 0.794428 81 75 103 
0.217421 -0.216257 0.832018 130 121 142 
0.213277 -0.0528118 0.813349 90 63 80 
0.210887 0.0899894 0.798094 136 123 141 
0.212246 0.119219 0.791454 86 73 101 
0.214916 0.0813287 0.79261 133 114 133 
0.214938 0.208016 0.776268 104 76 91 
0.221155 0.139327 0.778892 142 118 132 
0.222981 0.180417 0.771635 87 66 83 
0.235495 -0.211339 0.813348 135 116 136 
0.244426 0.0353897 0.771366 121 97 113 
0.240931 0.138848 0.758192 71 60 68 
0.254202 -0.137154 0.787109 88 61 80 
0.248418 0.122174 0.755324 94 66 80 
0.257272 0.00525857 0.76362 92 68 81 
0.266751 -0.236823 0.786309 140 118 131 
0.270522 0.176048 0.728319 93 68 90 
0.302725 -0.227106 0.751311 102 77 96 
-0.245655 -0.0983644 1.24946 71 53 65 
-0.234437 -0.120295 1.24274 73 48 54 
-0.201908 0.0142942 1.19251 94 78 88 
-0.184894 -0.0852581 1.19219 66 48 64 
0.167224 -0.0476479 0.855667 149 124 145 
0.288502 -0.0924226 0.747436 105 73 94 
-0.343651 0.198558 1.29968 145 164 204 
-0.340062 0.176648 1.30144 93 88 118 
-0.339922 0.105325 1.31041 94 97 132 
-0.337632 0.140338 1.30445 94 81 99 
-0.337979 0.0908316 1.31065 111 93 115 
-0.338316 0.0298942 1.32018 69 72 113 
-0.325678 0.100731 1.29805 80 70 97 
-0.336813 -0.188767 1.34694 174 191 237 
-0.332692 -0.151946 1.34049 118 103 126 
-0.303427 -0.190857 1.31855 77 55 76 
-0.299569 -0.249135 1.32231 126 107 126 
-0.291323 -0.0550872 1.28661 127 109 131 
-0.293197 -0.193845 1.30852 138 114 130 
-0.291155 -0.246134 1.31269 76 57 76 
-0.278882 -0.142131 1.28768 92 72 84 
-0.274311 -0.193496 1.29164 52 37 56 
-0.266101 -0.15072 1.27745 57 37 46 
-0.257046 -0.221827 1.28017 133 115 137 
-0.232234 -0.199937 1.25353 77 53 66 
-0.218024 -0.202095 1.24216 70 46 62 
-0.216006 -0.230335 1.24255 58 40 52 
-0.204981 -0.230483 1.23289 74 48 59 
-0.194341 -0.231617 1.22192 74 57 67 
-0.191773 -0.25043 1.22221 133 119 136 
-0.180487 -0.23136 1.20945 73 56 72 
0.096965 -0.200122 0.9411 89 68 85 
0.114348 -0.247705 0.929931 99 68 76 
0.117624 -0.138051 0.91439 141 117 133 
0.118618 -0.121444 0.909097 108 74 88 
0.120524 -0.15867 0.913151 88 57 73 
0.120204 -0.0720289 0.901373 101 69 82 
0.124525 -0.139958 0.906561 134 110 126 
0.132477 -0.156209 0.900331 88 64 78 
0.163525 0.0462372 0.846293 77 54 64 
0.169627 0.0102432 0.843499 116 100 126 
0.173724 -0.0228805 0.844193 136 106 116 
0.171808 0.118866 0.824574 71 49 61 
0.17572 0.192308 0.812864 93 78 97 
0.178857 0.143656 0.816539 61 46 69 
0.186836 0.129176 0.810166 140 123 142 
0.28687 0.00349757 0.7325 73 52 69 
0.296759 0.0251591 0.718546 129 105 119 
0.298986 -0.0109188 0.722292 131 106 125 
0.292027 0.157147 0.703527 63 41 53 
0.298403 0.0536215 0.713948 65 44 59 
-0.31478 0.174315 1.27575 123 113 138 
-0.313174 0.262467 1.26298 71 67 84 
-0.314549 -0.0880675 1.31053 99 75 99 
-0.314937 -0.145825 1.31881 95 66 84 
-0.313221 -0.0983965 1.31075 84 67 86 
-0.26378 0.240359 1.22195 53 44 61 
-0.248989 0.273253 1.18202 35 36 40 
-0.211327 -0.151842 1.22445 71 54 73 
-0.202542 -0.198835 1.22446 72 53 73 
-0.174002 -0.205792 1.19745 75 62 79 
-0.152548 -0.211744 1.17941 97 63 80 
-0.136713 -0.219997 1.16252 66 52 67 
-0.0979443 -0.213939 1.12705 87 61 90 
0.108821 -0.230533 0.933886 96 66 94 
0.12935 -0.12011 0.898809 105 73 96 
0.165343 0.0674014 0.841545 120 105 124 
0.1718 -0.229064 0.872744 103 74 96 
0.188304 -0.226469 0.857365 104 76 99 
0.18265 0.183592 0.807857 73 52 69 
0.189435 0.11541 0.808986 96 73 93 
0.200771 0.155657 0.795106 136 132 155 
0.203594 0.166283 0.792105 80 66 91 
0.22448 -0.0336962 0.799358 68 54 71 
0.237445 -0.190786 0.807924 61 49 73 
0.234115 0.200841 0.753345 149 126 144 
0.27213 -0.010723 0.747609 138 117 134 
0.278658 -0.121563 0.755412 97 72 94 
0.289011 0.135522 0.711173 145 118 133 
0.298951 -0.208617 0.747947 144 123 142 
0.292028 0.074212 0.716548 147 121 130 
-0.205008 -0.168355 1.22383 77 54 72 
0.125729 -0.212659 0.915719 95 68 87 
0.150999 -0.047455 0.870289 78 50 62 
0.155755 -0.243422 0.892502 113 82 98 
0.227834 -0.195273 0.817159 135 113 136 
0.244843 -0.0571682 0.784361 82 51 66 
0.254488 0.133479 0.74595 140 119 136 
0.267749 -0.0427181 0.758192 94 66 88 
-0.164557 -0.0463217 1.16749 63 46 62 
-0.388763 -0.154563 1.38427 103 115 153 
-0.388662 -0.185838 1.38741 86 95 126 
-0.383854 -0.280159 1.3982 32 39 91 
-0.334959 -0.0395465 1.32735 109 86 112 
-0.333038 -0.124439 1.3407 114 96 118 
-0.33243 -0.218031 1.34993 77 72 112 
-0.330596 -0.197536 1.3471 115 97 121 
-0.332377 -0.249178 1.35519 79 77 116 
-0.329537 -0.163555 1.34396 105 85 113 
-0.331642 -0.30549 1.36215 93 98 140 
-0.323206 -0.143947 1.33125 79 58 77 
-0.323393 -0.112677 1.33567 113 90 118 
-0.288355 -0.192523 1.30497 68 43 64 
-0.276603 -0.279323 1.3107 126 108 124 
-0.276449 -0.311868 1.31005 137 113 127 
-0.261677 -0.278437 1.29006 124 109 128 
-0.263147 -0.310473 1.29829 88 64 88 
-0.251268 -0.225751 1.27687 82 59 77 
-0.245913 -0.252297 1.27578 76 62 75 
-0.240214 -0.3149 1.27884 74 47 62 
-0.238878 -0.277113 1.27186 72 51 70 
-0.237076 -0.226375 1.26415 128 109 128 
-0.234596 -0.186604 1.25536 59 41 57 
-0.228076 -0.226474 1.25538 130 107 123 
-0.225914 -0.299388 1.26374 69 54 73 
-0.217205 -0.25575 1.24847 77 50 67 
-0.201121 -0.299506 1.24086 86 61 82 
-0.190664 -0.299765 1.22952 84 61 81 
-0.190196 -0.28427 1.23092 70 52 64 
-0.189983 -0.325579 1.23305 73 52 67 
-0.179535 -0.282894 1.21824 78 59 78 
-0.17922 -0.326215 1.22319 82 61 80 
-0.168212 -0.31933 1.21187 86 61 82 
-0.167206 -0.283393 1.20529 71 55 68 
-0.15949 -0.302992 1.20186 73 55 77 
-0.15551 -0.311592 1.19753 78 60 76 
-0.153139 -0.235934 1.18682 70 56 71 
-0.143345 -0.238072 1.17716 51 34 44 
-0.139333 -0.279275 1.17826 80 66 89 
-0.124933 -0.306651 1.16688 72 57 78 
-0.109816 -0.269207 1.15086 63 46 64 
-0.0999165 -0.310197 1.1459 91 65 90 
-0.0929829 -0.291071 1.13785 74 60 85 
-0.0872589 -0.294117 1.12957 71 52 71 
-0.0750112 -0.313902 1.12114 53 39 56 
-0.07142 -0.299734 1.11765 58 46 68 
-0.0473596 -0.297446 1.09409 68 54 71 
-0.0199609 -0.29839 1.06641 56 34 55 
0.0169076 -0.303396 1.0301 117 95 108 
0.0464737 -0.271719 1.0009 93 69 93 
0.0475738 -0.282519 1.00184 96 82 99 
0.0570132 -0.257646 0.987524 93 63 75 
0.0577198 -0.287926 0.992757 93 71 92 
0.0679317 -0.259366 0.979613 93 59 76 
0.0802369 -0.284816 0.97278 80 58 71 
0.0820823 -0.229005 0.962242 93 65 88 
0.0892822 -0.261945 0.961347 95 72 92 
0.0958887 -0.259794 0.95394 125 117 140 
0.103494 -0.259505 0.943751 85 76 93 
0.109968 -0.29047 0.944181 77 55 68 
0.117268 -0.263466 0.932394 94 65 85 
0.122979 -0.285258 0.930381 76 57 85 
0.119692 -0.0427934 0.901207 73 49 65 
0.128112 -0.265298 0.924211 95 72 92 
0.139254 -0.26502 0.912951 59 42 58 
0.143331 -0.280429 0.909806 127 111 137 
0.147663 -0.265818 0.903827 102 70 85 
0.155538 -0.287898 0.899222 100 75 97 
0.157058 -0.264526 0.896075 131 119 143 
0.155341 0.083063 0.847699 73 48 67 
0.160627 0.0948987 0.843667 128 115 141 
0.175274 -0.268992 0.87878 82 54 68 
0.164966 0.10647 0.835039 128 113 132 
0.16828 0.0882878 0.834291 72 50 62 
0.173526 0.0184423 0.840508 134 117 136 
0.184685 -0.272247 0.870792 74 51 67 
0.187444 -0.286968 0.869924 80 54 79 
0.193454 -0.27148 0.861818 84 61 77 
0.210825 -0.280436 0.844936 93 67 94 
0.218468 -0.270924 0.837722 76 58 84 
0.241892 -0.280461 0.815458 67 55 77 
-0.338553 0.00187555 1.32154 88 96 135 
-0.335357 0.0110544 1.3179 99 85 118 
-0.337078 -0.104648 1.33258 107 116 155 
-0.33383 -0.217001 1.34653 61 68 112 
-0.332082 -0.240386 1.34764 104 88 115 
-0.330519 -0.196612 1.34131 118 96 119 
-0.328415 -0.163818 1.34381 98 81 113 
-0.325884 -0.141214 1.32805 71 53 75 
-0.321996 -0.216936 1.33465 127 109 131 
-0.314813 -0.145999 1.31977 92 65 82 
-0.313047 -0.249814 1.33346 82 59 87 
-0.306189 -0.149538 1.31315 138 116 128 
-0.306852 -0.22119 1.32144 123 109 134 
-0.261758 -0.198015 1.28137 81 60 75 
-0.250297 0.0572446 1.23176 61 47 64 
-0.244798 -0.230726 1.26946 66 58 71 
-0.234619 -0.230038 1.25963 61 40 47 
-0.226788 -0.229147 1.24979 67 46 53 
-0.168972 -0.232463 1.19426 81 53 65 
-0.140643 -0.207758 1.16491 89 65 81 
-0.136402 -0.228182 1.16297 73 58 81 
-0.116174 -0.240074 1.14603 78 54 76 
-0.105774 -0.240366 1.13485 76 54 75 
-0.0964392 -0.241233 1.12781 134 122 142 
0.0681612 -0.239465 0.970401 135 114 133 
0.0810684 -0.197168 0.943406 66 31 37 
0.132261 -0.233984 0.910539 75 54 73 
0.141844 -0.0895815 0.881046 88 70 92 
0.145298 -0.183841 0.890957 138 117 136 
0.156323 -0.106601 0.87059 133 118 141 
0.175015 -0.206641 0.866914 88 61 76 
0.175673 -0.245091 0.868519 95 64 79 
0.167261 0.210081 0.814731 104 103 119 
0.164432 0.1998 0.811584 111 95 121 
0.172911 0.000407253 0.837798 90 63 80 
0.180081 -0.140044 0.856683 54 37 47 
0.173659 0.128467 0.820269 120 97 115 
0.192425 -0.106098 0.83547 133 124 145 
0.190756 0.149477 0.800376 137 122 143 
0.216163 -0.180668 0.821442 88 57 75 
0.214394 0.00864985 0.801737 76 59 75 
0.233364 0.0878723 0.769702 120 101 120 
0.219769 0.21814 0.744704 66 57 76 
0.246374 -0.222445 0.797181 143 122 137 
0.269359 0.00433658 0.748805 72 55 73 
0.276983 0.218566 0.691443 17 22 42 
-0.313897 0.13626 1.27897 89 71 93 
-0.320457 -0.189547 1.33026 76 58 80 
0.205018 0.152526 0.787561 127 110 129 
-0.466823 0.205881 1.41902 88 102 151 
-0.4241 0.263567 1.34553 127 145 185 
-0.408465 0.266535 1.32936 20 31 49 
-0.408631 0.23903 1.33635 37 47 74 
-0.402383 0.259443 1.33678 15 22 38 
-0.405029 0.109598 1.35489 33 48 77 
-0.399938 0.24867 1.33762 23 28 48 
-0.400689 0.231739 1.34076 36 43 69 
-0.39314 0.286194 1.32591 119 107 127 
-0.396 0.267314 1.33698 65 71 93 
-0.395675 0.17648 1.34743 93 108 141 
-0.395902 0.162357 1.34963 97 108 138 
-0.394785 0.136804 1.35227 96 102 134 
-0.396398 0.0857682 1.35963 32 42 69 
-0.390709 0.256192 1.34152 114 126 164 
-0.394122 0.106239 1.35702 90 98 135 
-0.368252 0.286519 1.28739 65 63 76 
-0.391756 -0.053878 1.37773 99 108 149 
-0.38844 -0.0421376 1.37712 126 134 173 
-0.359256 0.289864 1.27471 63 67 94 
-0.387365 -0.385969 1.41948 98 111 146 
-0.341949 0.185855 1.30933 102 93 114 
-0.34051 0.119499 1.31711 103 89 112 
-0.338725 0.0607258 1.32301 114 95 114 
-0.340247 0.00191493 1.3328 97 102 142 
-0.33642 0.0107652 1.32707 103 88 121 
-0.335968 -0.0625196 1.33839 100 83 102 
-0.331583 -0.260929 1.36136 111 93 119 
-0.321971 -0.0576917 1.32566 66 53 70 
-0.329841 -0.341043 1.37123 104 86 112 
-0.331902 -0.409498 1.38312 116 125 168 
-0.329223 -0.375748 1.37618 118 95 123 
-0.298927 0.0628601 1.28335 79 65 88 
-0.303556 -0.307295 1.3425 91 65 78 
-0.279443 0.169645 1.25022 117 106 123 
-0.284664 -0.257781 1.31794 80 65 88 
-0.275756 -0.226378 1.30494 82 64 86 
-0.271924 -0.390633 1.32584 84 69 88 
-0.264456 -0.278951 1.31197 75 58 74 
-0.251439 -0.276078 1.28843 64 50 65 
-0.248029 -0.341134 1.29637 130 116 129 
-0.247704 -0.368146 1.2996 82 58 80 
-0.231569 -0.0114619 1.23469 69 51 75 
-0.221598 0.0776201 1.19917 109 90 109 
-0.226553 -0.258144 1.26403 90 60 70 
-0.227751 -0.369866 1.27947 87 62 81 
-0.221873 -0.279945 1.26179 84 57 76 
-0.222175 -0.334763 1.27013 134 117 136 
-0.215743 -0.301401 1.25949 86 64 85 
-0.205204 -0.280717 1.24469 86 59 76 
-0.204439 -0.367527 1.25787 128 113 132 
-0.179893 -0.349308 1.23505 80 58 71 
-0.17515 -0.260881 1.21526 78 56 69 
-0.172344 -0.350582 1.22764 75 51 67 
-0.149826 -0.351677 1.20559 76 48 71 
-0.134291 -0.35105 1.1857 82 58 71 
-0.132041 -0.242245 1.17327 70 47 63 
-0.11568 -0.327513 1.17077 84 59 81 
-0.112359 -0.293473 1.16109 70 53 71 
-0.110343 -0.351852 1.1688 79 57 78 
-0.107183 -0.327992 1.16186 91 68 94 
-0.0897617 -0.330255 1.14555 78 58 69 
-0.0766539 -0.330693 1.13202 84 61 77 
-0.0620545 -0.29817 1.11533 66 52 67 
-0.0547714 -0.316997 1.11272 120 111 132 
-0.0545996 -0.333596 1.11604 80 62 76 
-0.0494576 -0.332047 1.10665 80 59 74 
-0.0474178 -0.318997 1.10237 76 53 69 
-0.0336053 -0.319533 1.0898 71 48 68 
-0.0274307 -0.315922 1.07033 52 28 44 
-0.0254037 -0.323839 1.0644 192 195 202 
-0.0180575 -0.305979 1.05591 155 143 121 
-0.0115438 -0.321132 1.05156 60 63 68 
-0.00533686 -0.317123 1.04356 55 97 113 
-0.00404019 -0.303143 1.04697 38 24 24 
0.00217667 -0.314403 1.03683 130 119 101 
0.0278391 -0.300815 1.02969 136 117 139 
0.0397008 -0.306156 1.01653 82 59 77 
0.047134 -0.262267 1.00531 78 52 77 
0.0646054 -0.308398 0.996014 80 55 77 
0.0702667 -0.230283 0.979575 79 55 77 
0.0751579 -0.261903 0.979554 91 62 80 
0.0816843 -0.207074 0.95644 140 118 141 
0.0823172 -0.191371 0.955013 37 20 26 
0.090762 -0.287506 0.968854 86 59 74 
0.102937 -0.183551 0.941362 86 57 79 
0.10351 -0.157031 0.936095 87 59 71 
0.117502 -0.102325 0.922064 69 45 58 
0.162404 -0.0203171 0.861905 75 48 63 
0.172343 -0.173631 0.874013 88 63 84 
0.15942 0.226644 0.811659 61 58 69 
0.165918 0.155018 0.830946 65 34 39 
0.168565 0.123947 0.839167 126 122 147 
0.172085 0.203475 0.826753 112 98 124 
0.185005 -0.0201305 0.845095 75 52 68 
0.254674 -0.181775 0.797899 79 60 79 
0.272627 -0.0291767 0.760002 34 29 36 
-0.398616 0.289897 1.31408 32 31 39 
-0.386241 0.169617 1.34717 142 157 200 
-0.354533 0.286952 1.27717 24 29 48 
-0.350121 0.230088 1.2958 147 166 206 
-0.347732 0.272488 1.28388 85 76 105 
-0.344906 0.278759 1.26973 122 109 119 
-0.347944 0.265168 1.29098 148 162 199 
-0.347165 0.250738 1.29292 77 86 115 
-0.344862 0.0996372 1.30987 161 175 222 
-0.344118 0.221235 1.29561 147 167 204 
-0.339674 0.161894 1.30032 103 88 109 
-0.338558 0.204575 1.29681 95 87 111 
-0.336623 -0.286529 1.34987 176 189 241 
-0.337107 -0.104814 1.33403 112 120 159 
-0.331164 0.279221 1.25753 73 61 83 
-0.334183 -0.0164855 1.32524 117 96 115 
-0.334014 0.02498 1.32359 100 85 118 
-0.33122 0.241939 1.28154 49 40 57 
-0.333033 -0.274475 1.35405 99 108 149 
-0.328409 0.218886 1.28196 39 34 54 
-0.325999 -0.276153 1.34576 123 99 112 
-0.322069 0.272169 1.26015 117 106 122 
-0.322005 -0.217169 1.3359 131 111 136 
-0.320465 -0.189684 1.3307 91 72 94 
-0.315139 0.215084 1.26733 117 108 135 
-0.314767 0.174266 1.27583 125 115 140 
-0.313897 0.136276 1.27885 92 78 104 
-0.314815 -0.145973 1.31948 100 69 87 
-0.306843 -0.221423 1.32268 130 116 141 
-0.306144 -0.279514 1.32971 131 124 142 
-0.293721 -0.306664 1.32164 95 66 86 
-0.292387 -0.0307564 1.282 85 63 86 
-0.287235 -0.294314 1.31685 94 66 80 
-0.277802 -0.266842 1.30238 98 74 98 
-0.256987 -0.315522 1.28884 83 64 84 
-0.250265 0.0572562 1.23232 68 51 67 
-0.236522 -0.296533 1.26754 83 64 84 
-0.209408 -0.309463 1.24333 132 119 139 
-0.20066 -0.121078 1.20827 76 52 65 
-0.196099 -0.253885 1.2232 89 68 85 
-0.160439 -0.288965 1.19393 79 65 78 
-0.150825 -0.299836 1.18839 128 111 130 
-0.136363 -0.228253 1.16319 74 56 80 
-0.125543 -0.25816 1.15644 130 112 134 
-0.116297 -0.239918 1.14541 80 56 78 
-0.0925192 -0.271507 1.12766 76 55 74 
-0.0832031 -0.313082 1.12387 75 59 85 
-0.0374502 -0.297664 1.08001 84 68 94 
-0.0293802 -0.296318 1.07004 83 48 68 
0.0349222 -0.280811 1.00702 138 123 144 
0.0688797 -0.291122 0.977445 81 63 87 
0.0824605 -0.209187 0.949808 104 82 103 
0.131891 -0.233781 0.909911 74 53 70 
0.132283 -0.211955 0.905306 92 65 82 
0.140619 -0.203821 0.897971 94 66 88 
0.139016 -0.153627 0.893021 134 112 133 
0.141616 -0.0895316 0.880683 89 74 93 
0.15376 -0.103006 0.870669 78 64 87 
0.158763 -0.189773 0.877197 76 49 66 
0.159886 -0.171229 0.874419 89 65 79 
0.151256 0.0454842 0.854006 64 41 59 
0.166477 -0.272935 0.881306 93 62 80 
0.159247 -0.0747459 0.863115 68 47 54 
0.156551 0.066358 0.845021 72 48 62 
0.173275 -0.23091 0.867929 96 67 87 
0.174336 -0.206332 0.865927 89 62 79 
0.168823 -0.0131531 0.842524 103 74 94 
0.160639 0.197387 0.82331 57 41 52 
0.160404 0.211218 0.820972 54 48 60 
0.164062 0.169408 0.823059 108 100 123 
0.179666 -0.139916 0.856096 52 37 44 
0.169509 0.186384 0.817457 58 40 56 
0.182993 -0.089011 0.841532 78 61 80 
0.17084 0.209692 0.8108 57 50 66 
0.191524 -0.189123 0.847718 84 72 92 
0.17487 0.168584 0.812842 122 117 137 
0.177174 0.128919 0.816023 115 106 123 
0.197767 -0.245849 0.848516 69 54 75 
0.192577 -0.106158 0.835674 134 125 146 
0.186031 0.167375 0.804609 128 120 144 
0.187336 0.196793 0.799 46 30 41 
0.190373 0.149355 0.799889 133 120 138 
0.194326 0.0749986 0.806938 91 65 74 
0.209046 -0.183701 0.827621 134 122 146 
0.206108 -0.0675769 0.816127 75 61 76 
0.21567 -0.18046 0.820819 85 56 76 
0.213318 0.0086399 0.800425 80 63 81 
0.222581 -0.173613 0.812912 129 112 131 
0.218922 -0.0518287 0.801864 133 114 133 
0.208477 0.188285 0.778215 131 110 129 
0.2099 0.198039 0.776777 138 115 135 
0.23407 -0.243195 0.813488 81 61 86 
0.216147 0.167503 0.77298 137 127 154 
0.238043 -0.18001 0.802666 59 46 64 
0.23139 -0.0557421 0.79044 80 54 65 
0.21968 0.196707 0.767193 115 105 129 
0.232897 0.0878217 0.769178 118 103 122 
0.247942 -0.219549 0.794297 88 61 80 
0.230184 0.205587 0.754178 82 78 103 
0.235502 0.19646 0.75494 67 61 73 
0.266396 -0.155193 0.768423 81 57 71 
0.268193 -0.123895 0.764027 94 69 91 
0.251607 0.188595 0.736541 140 116 132 
0.27356 -0.180974 0.767389 53 35 51 
0.25701 0.135532 0.739413 74 56 70 
0.267002 -0.00339215 0.749682 73 56 74 
0.264078 0.0526632 0.744821 122 100 113 
0.295629 -0.189443 0.745096 153 130 150 
0.297661 -0.207099 0.74573 93 69 95 
0.277613 0.191803 0.713204 120 116 139 
0.287608 0.0652032 0.720983 137 114 122 
-0.343584 0.264377 1.28954 57 63 97 
-0.335935 -0.11544 1.33243 117 115 154 
0.176673 -0.0325451 0.840302 63 45 57 
-0.190708 -0.128665 1.20164 132 111 126 
-0.39842 -0.492265 1.44131 32 47 76 
-0.383883 -0.490634 1.44017 45 47 98 
-0.340485 0.153173 1.33778 91 81 105 
-0.341696 -0.0537466 1.36064 101 88 108 
-0.339382 -0.11423 1.36502 104 90 115 
-0.331669 -0.18464 1.36513 104 87 119 
-0.32626 -0.0586187 1.34531 66 52 67 
-0.332152 -0.284092 1.38047 116 92 108 
-0.333487 -0.333279 1.38825 121 96 118 
-0.327311 -0.317437 1.37359 111 88 108 
-0.330224 -0.22738 1.37697 107 91 117 
-0.329259 -0.427389 1.39 120 100 127 
-0.32945 -0.404336 1.39187 122 99 117 
-0.300186 -0.414332 1.36272 89 65 89 
-0.29598 -0.468985 1.36351 87 64 82 
-0.262893 -0.228609 1.30636 81 62 81 
-0.235037 -0.4182 1.2993 64 50 63 
-0.227538 -0.259433 1.27045 83 57 68 
-0.218859 -0.356408 1.2762 75 54 71 
-0.216416 -0.395592 1.27743 78 61 79 
-0.210061 -0.419954 1.27629 85 63 84 
-0.204624 -0.367798 1.25921 117 102 123 
-0.181703 -0.399485 1.24461 73 52 69 
-0.176025 -0.396887 1.23342 78 64 79 
-0.175538 -0.374929 1.23659 82 59 79 
-0.160672 -0.373762 1.2202 69 45 67 
-0.159063 -0.39953 1.22151 80 55 77 
-0.150745 -0.370155 1.20812 130 106 128 
-0.143852 -0.351856 1.20182 74 53 70 
-0.141905 -0.382267 1.20519 62 44 58 
-0.139412 -0.427943 1.206 73 52 71 
-0.129047 -0.372078 1.19005 68 50 72 
-0.108831 -0.38589 1.17099 73 50 78 
-0.106961 -0.351882 1.16392 72 54 68 
-0.103218 -0.325696 1.15779 123 110 130 
-0.0979073 -0.375966 1.15803 74 50 72 
-0.090137 -0.406137 1.15652 72 58 75 
-0.0786194 -0.354944 1.1382 80 55 77 
-0.0763205 -0.372587 1.13789 55 41 58 
-0.065159 -0.386677 1.12899 76 57 77 
-0.0473191 -0.359316 1.10894 55 36 55 
-0.0248746 -0.339885 1.06541 163 149 140 
-0.0225555 -0.324056 1.06183 171 174 193 
-0.0186798 -0.351568 1.05858 68 33 37 
-0.0178435 -0.335649 1.05853 163 141 143 
-0.0130461 -0.345529 1.05204 197 188 159 
-0.0103526 -0.311086 1.04706 70 104 113 
-0.00867279 -0.333874 1.04865 148 135 118 
-0.00620074 -0.352733 1.04554 125 124 155 
-0.00677868 -0.362168 1.05203 154 142 130 
-0.00245308 -0.339436 1.04248 138 134 122 
-0.00225745 -0.326342 1.04172 121 140 183 
0.00377901 -0.339374 1.03436 161 148 142 
0.00486198 -0.352955 1.03536 88 35 41 
0.00586679 -0.317126 1.02995 192 186 170 
0.0100584 -0.328702 1.02733 95 85 76 
0.0128381 -0.345939 1.03577 57 45 57 
0.022295 -0.321791 1.0322 53 34 53 
0.0276408 -0.299934 1.02675 127 109 131 
0.0322569 -0.352408 1.03037 83 63 90 
0.0381788 -0.342755 1.02446 124 106 130 
0.0386003 -0.325837 1.02061 64 46 68 
0.0443926 -0.307235 1.01148 47 29 43 
0.0447206 -0.320585 1.01342 117 99 125 
0.0674059 -0.306889 0.990063 64 39 61 
0.071712 -0.228272 0.976315 129 111 137 
0.0760276 -0.342843 0.986462 75 60 81 
0.0862544 -0.325027 0.974207 58 40 54 
0.0902458 -0.286354 0.965113 76 52 66 
0.0917795 -0.3075 0.965644 127 110 128 
0.102172 -0.328219 0.958411 75 51 75 
0.101592 -0.0706789 0.928553 60 42 54 
0.106189 -0.309222 0.952162 63 40 58 
0.114773 -0.307723 0.942766 119 110 137 
0.123618 -0.309072 0.935751 80 58 79 
0.131782 -0.309661 0.927384 81 60 79 
0.13928 -0.311076 0.91915 81 56 77 
0.162459 -0.297521 0.897063 81 57 71 
0.166359 -0.0176708 0.859105 121 109 133 
0.184007 -0.296982 0.876687 59 38 57 
0.193521 -0.28585 0.863984 162 149 177 
0.305097 -0.119626 0.735663 63 43 55 
0.298219 0.110319 0.709674 54 38 51 
0.311405 -0.160298 0.742837 76 55 60 
0.312119 -0.124993 0.741589 82 62 74 
0.308696 -0.0416567 0.728728 79 54 76 
0.312177 -0.0187523 0.726254 78 57 72 
0.31024 0.0494787 0.720555 60 35 41 
0.310555 0.0668267 0.715867 135 108 123 
-0.303721 -0.150982 1.33039 67 43 59 
-0.279543 -0.193057 1.31046 129 111 133 
-0.234209 -0.202547 1.26993 75 53 65 
0.167854 0.0140246 0.854353 57 45 57 
0.174222 0.197319 0.825739 48 33 40 
0.202538 -0.271686 0.855758 69 51 73 
0.270475 -0.22406 0.783222 80 53 72 
0.204689 -0.176085 0.839844 63 50 60 
-0.0301646 -0.0763134 1.00336 44 18 19 
-0.163081 0.000808972 1.17789 134 103 118 
-0.248858 0.268612 1.24588 61 55 67 
-0.238055 -0.0853822 1.284 86 67 95 
-0.219084 -0.0564104 1.26284 90 65 94 
-0.206989 0.198491 1.21765 115 93 106 
-0.190507 0.00436393 1.22981 136 115 134 
-0.179894 0.251709 1.18493 19 18 23 
-0.151736 -0.15203 1.21634 90 67 85 
-0.249201 -0.0254549 1.31923 91 68 94 
-0.245836 -0.00372238 1.31327 89 70 98 
-0.246195 0.188759 1.28694 74 65 84 
-0.226161 0.0966651 1.2839 72 58 83 
-0.224422 0.0747997 1.28195 136 119 129 
-0.214947 0.21035 1.25393 120 106 131 
-0.209603 0.243936 1.24454 59 52 68 
-0.20014 -0.118513 1.28807 79 59 71 
-0.197723 0.093624 1.25677 63 48 53 
-0.192547 0.174904 1.24021 96 82 97 
-0.187066 -0.0845635 1.26974 95 67 90 
-0.175616 0.235262 1.21462 60 41 47 
-0.166324 0.193946 1.21454 84 81 92 
-0.164154 0.272628 1.19336 54 43 59 
-0.15878 0.194179 1.20672 93 81 103 
-0.157623 -0.00467718 1.23143 97 67 77 
-0.149093 0.171913 1.2012 100 95 117 
-0.138268 0.0170077 1.21164 139 118 137 
-0.137709 0.108851 1.20026 37 27 35 
-0.132576 0.00869035 1.20749 94 66 88 
-0.115567 -0.124084 1.21137 132 115 134 
0.38705 -0.17076 0.752204 94 69 99 
0.391984 -0.00283257 0.724794 109 85 111 
0.392101 0.0123386 0.717683 182 199 242 
