# .PCD v0.7 - Point Cloud Data file format
VERSION 0.7
FIELDS x y z rgb
SIZE 4 4 4 4
TYPE F F F U
COUNT 1 1 1 1
WIDTH 1228
HEIGHT 1
VIEWPOINT 0 0 0 1 0 0 0
POINTS 1228
DATA ascii
0.26283899 -0.43075901 3.0658801 13685461
0.27056 -0.430473 3.0715301 8816779
0.273848 -0.43290001 3.0740299 1842464
0.276824 -0.430787 3.0776601 1974306
0.286681 -0.43405199 3.0955601 3750460
0.28778899 -0.431409 3.0957799 2303014
0.293852 -0.43436801 3.10077 5592409
0.30991599 -0.434919 3.1263299 13816534
0.31937301 -0.43792999 3.1378801 8553095
0.32702801 -0.438458 3.1449299 11843258
0.33129799 -0.43848899 3.1470799 13685205
0.35879099 -0.443391 3.19875 13882584
0.36931899 -0.44785601 3.2093799 4671564
0.372989 -0.445537 3.2119 1974051
0.17667601 -0.41275001 2.9435 13685461
0.18362001 -0.413416 2.9549501 11974586
0.19412699 -0.41666701 2.9662099 4408904
0.197413 -0.41481501 2.9704399 10198689
0.215091 -0.41850999 2.99927 13488083
0.21822201 -0.420858 3.00157 10330018
0.221478 -0.418291 3.00422 4408391
0.238389 -0.42411599 3.0302999 1776928
0.241099 -0.42123401 3.03285 2698286
0.248136 -0.42153499 3.0380599 13554131
0.248669 -0.423917 3.0380399 13554131
0.265991 -0.428166 3.06847 13553618
0.26677701 -0.428197 3.06881 13487825
0.27054399 -0.42575201 3.0717199 11579828
0.28645101 -0.429234 3.0952001 1974050
0.28496301 -0.42853099 3.0926499 1776671
0.29471999 -0.42956701 3.1006999 13158348
0.32911 -0.43473801 3.14747 11843002
0.33437499 -0.43459699 3.15013 13817047
0.33370501 -0.43483701 3.1505499 13882584
0.36067501 -0.43939599 3.1991999 13948633
0.36961001 -0.44282499 3.2093999 5461336
0.37731799 -0.44385999 3.2151899 5461080
0.177812 -0.4082 2.9501801 13619412
0.18068001 -0.41076899 2.95222 13553618
0.194106 -0.41226101 2.9663501 2961459
0.197418 -0.41025001 2.9704299 7698299
0.20332099 -0.41264701 2.97662 13751254
0.218389 -0.41619399 3.00212 12435137
0.22452299 -0.415773 3.0067699 2171428
0.243497 -0.418163 3.0348599 4013889
0.249411 -0.41777799 3.0394599 13554131
0.24715599 -0.419498 3.03722 12961994
0.25263801 -0.419128 3.0429699 13422289
0.26552299 -0.42344499 3.0683401 13553875
0.26642099 -0.42346701 3.06862 13553619
0.27036899 -0.421065 3.0715401 12829895
0.28702599 -0.424431 3.0950401 3289910
0.29563501 -0.42477801 3.1006501 13882071
0.31075001 -0.42723399 3.1266 13882584
0.320411 -0.43059501 3.1403401 2631724
0.327903 -0.43023199 3.1479101 4934737
0.33621699 -0.43083301 3.1515601 13751254
0.36287299 -0.43541399 3.2000899 14014426
0.372933 -0.43895 3.2105401 2632237
0.380041 -0.439208 3.21982 9935004
0.17846601 -0.40380901 2.95017 13619668
0.19417 -0.40769899 2.9663899 2500651
0.19747899 -0.405682 2.9704499 4803407
0.203391 -0.40806699 2.97662 13685718
0.218257 -0.41185799 3.0023999 13422032
0.22112501 -0.40914199 3.0050001 11908793
0.224471 -0.41120899 3.0074401 3092530
0.22754399 -0.413277 3.00913 2303015
0.239209 -0.412471 3.0324299 2040099
0.239944 -0.41393399 3.033 1974307
0.245919 -0.41506299 3.03736 6711659
0.25177699 -0.41471499 3.0418301 13619668
0.266316 -0.41872099 3.0685599 13619668
0.27075601 -0.416307 3.0715401 10658983
0.285519 -0.42142901 3.0927501 1842463
0.28899601 -0.42163301 3.0957699 6974318
0.29311499 -0.421635 3.09711 13684948
0.31003001 -0.422461 3.12674 13948376
0.31421599 -0.42245099 3.1287701 8750729
0.326049 -0.42615601 3.14592 2105637
0.32995701 -0.42649999 3.14905 7566713
0.33432901 -0.426631 3.15007 13817048
0.35923699 -0.433382 3.19804 13751254
0.36456299 -0.432805 3.20084 13817048
0.365421 -0.43147999 3.2019501 13751254
0.37008899 -0.43127501 3.2088201 6974575
0.37285599 -0.43393299 3.2105401 2961202
0.381125 -0.43421599 3.21983 11053741
0.179487 -0.39926499 2.9493999 13488082
0.203466 -0.40349799 2.97668 13356240
0.21759599 -0.40736401 3.0025001 13553619
0.224126 -0.406607 3.00737 7435125
0.227451 -0.40864101 3.0095601 2040099
0.24219599 -0.409821 3.0350599 1974306
0.24314 -0.41135901 3.0360799 1777183
0.247777 -0.411488 3.0395801 7500919
0.25165099 -0.412256 3.04217 13685461
0.25393999 -0.41139799 3.04427 13619668
0.287191 -0.41775301 3.09463 2105636
0.28713399 -0.41782001 3.09464 2105636
0.29104999 -0.417869 3.0964799 10592932
0.308467 -0.41836101 3.1244199 13948632
0.33206001 -0.42272499 3.1505201 10724261
0.33622101 -0.422741 3.1505899 13685463
0.33651099 -0.422795 3.1510999 13685463
0.35755301 -0.428408 3.1958699 13816791
0.362032 -0.42860299 3.20173 13816791
0.36632499 -0.426588 3.2025101 13619668
0.37028301 -0.426815 3.20592 6185059
0.381033 -0.428969 3.21841 10066589
0.17671899 -0.39655101 2.94714 13488338
0.19753 -0.40111199 2.9704399 3026996
0.206669 -0.401263 2.97914 13882583
0.219102 -0.40211901 3.0032899 13553618
0.22363301 -0.40226501 3.00771 12040379
0.22690301 -0.40394399 3.0088699 3224116
0.245134 -0.40715799 3.0375299 1974306
0.249189 -0.40796199 3.0406799 6974318
0.25184599 -0.407662 3.0434799 12435394
0.25582099 -0.40815899 3.0474501 13750997
0.27214101 -0.40808699 3.07092 7829627
0.27507201 -0.41007799 3.07497 6974317
0.28585801 -0.41363299 3.0917301 1908257
0.28573301 -0.413726 3.0919299 1908257
0.29098299 -0.41038099 3.0971501 6513767
0.293037 -0.41416401 3.0973899 12698309
0.292997 -0.41420901 3.0975001 12632515
0.29583901 -0.410602 3.1005199 13422032
0.295692 -0.41062599 3.10043 13422031
0.30963701 -0.41389501 3.1254301 14014426
0.31238601 -0.41725901 3.1272199 12303551
0.31634799 -0.417395 3.12957 3224117
0.32989901 -0.41885799 3.15011 3158582
0.33429199 -0.41864699 3.15044 12698567
0.36403501 -0.42275801 3.2026401 13882584
0.36427099 -0.42476001 3.20241 13948377
0.37074399 -0.42180699 3.20592 6514024
0.381396 -0.42393801 3.2184801 8816523
0.176186 -0.391271 2.9408 13422544
0.180292 -0.39477301 2.9498401 13290702
0.197575 -0.39653999 2.9704001 4211270
0.203529 -0.39429799 2.9762001 6777197
0.20665701 -0.39659399 2.9784501 13422289
0.221292 -0.398442 3.00612 13619668
0.223368 -0.397493 3.0067101 13422289
0.22678301 -0.39933199 3.00893 6316388
0.248281 -0.40364 3.0416801 2039843
0.25317201 -0.40401101 3.04637 11251119
0.25978801 -0.40296 3.05319 9803417
0.27506199 -0.40526399 3.0736699 11316912
0.27808401 -0.40738401 3.0774801 4342597
0.27745101 -0.406782 3.0778 6447973
0.280469 -0.40443599 3.08096 2829358
0.31057799 -0.40915501 3.12486 13750997
0.31364501 -0.41207299 3.12677 8948108
0.314778 -0.409159 3.1268401 5855837
0.31841299 -0.40931901 3.13047 1842721
0.336245 -0.41499299 3.1526101 13488339
0.33642399 -0.414727 3.1524601 13488339
0.362158 -0.41846299 3.20051 13882584
0.38165599 -0.41890901 3.2184501 7237490
0.156084 -0.38487601 2.91556 13355715
0.17665 -0.38814801 2.9458599 13554131
0.187241 -0.38983101 2.95578 7632506
0.19744401 -0.39198399 2.9704001 8027008
0.200426 -0.389532 2.9728601 3421498
0.20340601 -0.390008 2.97614 4145477
0.20669299 -0.39201501 2.97842 11908795
0.22616 -0.39480501 3.0088501 11448242
0.223298 -0.392869 3.0067101 13816791
0.25037599 -0.40004101 3.04461 2434601
0.253849 -0.397769 3.04672 5197907
0.257043 -0.400451 3.0494399 10264224
0.27362499 -0.40124899 3.07248 13487825
0.277538 -0.40267301 3.0774801 9079693
0.29276001 -0.40321401 3.0978401 6513767
0.29605499 -0.40583399 3.1005499 13356239
0.30891401 -0.405049 3.1223199 14014425
0.312924 -0.405184 3.12532 10461347
0.31287599 -0.40517199 3.1254799 10658726
0.31577399 -0.40827999 3.1272099 3355703
0.32774201 -0.410965 3.14764 1908514
0.33832201 -0.41120699 3.1533401 13751255
0.33620599 -0.40738201 3.15274 13093325
0.340289 -0.407529 3.1547401 13817048
0.34026799 -0.40760201 3.15505 13817048
0.36842 -0.41487399 3.20399 13356495
0.36831099 -0.414857 3.20417 13487825
0.368433 -0.41487199 3.204 13356239
0.37788099 -0.41613799 3.21488 2763566
0.38384899 -0.41503999 3.21931 11382706
0.388147 -0.415001 3.21666 13882584
0.42504001 -0.425102 3.28848 14014171
0.156646 -0.38040501 2.9152601 13355715
0.179424 -0.38563001 2.9479101 13685462
0.182799 -0.38388699 2.9525399 13553876
0.197166 -0.38745001 2.9704101 11645880
0.206339 -0.38748199 2.9785399 8356229
0.225833 -0.39018601 3.0087299 13553362
0.23299301 -0.39090201 3.0139 2171429
0.234385 -0.39299801 3.0157499 2237222
0.236996 -0.39006701 3.01773 2237478
0.25471899 -0.39323699 3.0478301 2039843
0.25747901 -0.39575401 3.0495 2961202
0.272091 -0.396456 3.0706 13882583
0.27706999 -0.39851299 3.07724 11974585
0.27703699 -0.39797199 3.07762 12303550
0.28042999 -0.399652 3.08059 4276804
0.28955501 -0.40061399 3.0953701 1842720
0.29304799 -0.398415 3.0978401 4671563
0.30272999 -0.401243 3.11426 13751254
0.31018499 -0.40037799 3.1225901 13685460
0.31507999 -0.40138 3.1257801 4145475
0.31505701 -0.40136501 3.1257401 4211012
0.319435 -0.40450999 3.13065 1974307
0.32804799 -0.40608099 3.14764 1974306
0.334016 -0.40356401 3.15255 7764347
0.33820701 -0.40382701 3.1538501 13948633
0.34204701 -0.403927 3.1573 13817047
0.34205699 -0.403936 3.1573501 13817047
0.366155 -0.41106299 3.20397 13882840
0.36607 -0.41103899 3.2040601 13882840
0.37050101 -0.41102201 3.20487 11843000
0.37041399 -0.41102499 3.2050099 12040636
0.37049401 -0.41102099 3.2048399 11843000
0.37623 -0.41090399 3.2111599 3026738
0.390194 -0.41101599 3.2172201 13948121
0.153852 -0.37776101 2.9128599 13421250
0.160111 -0.37864399 2.9177699 13487561
0.177513 -0.38169199 2.9477 13751511
0.181361 -0.379558 2.95227 13619927
0.184965 -0.38081801 2.95523 13554134
0.199598 -0.38427499 2.9729099 9606297
0.20151401 -0.38176501 2.9747701 8093058
0.20927501 -0.384956 2.9809501 12698568
0.223216 -0.388244 3.00667 13816791
0.225703 -0.385564 3.0087299 13948376
0.23050401 -0.387142 3.01178 6974062
0.23072401 -0.38737699 3.0120299 6250595
0.23599701 -0.38516 3.0163801 2171429
0.23959599 -0.38714999 3.02022 2237478
0.25522101 -0.388569 3.04808 2237479
0.25824201 -0.391177 3.05037 8224642
0.26167101 -0.38901901 3.05284 13224653
0.279594 -0.39515999 3.0804601 9737880
0.282451 -0.39238399 3.0831201 5132114
0.28523001 -0.39570999 3.0861001 2105635
0.30310199 -0.39643899 3.1143999 13553875
0.31124499 -0.395803 3.1229999 12829895
0.31802899 -0.39754 3.1280501 1974306
0.31797299 -0.39750001 3.1280301 1974306
0.32806 -0.40115899 3.1473701 1974306
0.33618799 -0.39968699 3.1533501 11448755
0.34038499 -0.399959 3.1540599 13817047
0.34045899 -0.39969099 3.1542799 13817047
0.368094 -0.40722901 3.2051401 14014169
0.36818099 -0.40723899 3.20503 14014169
0.37565899 -0.40596199 3.21141 4869198
0.38400501 -0.40667 3.2193401 10330018
0.388329 -0.40668899 3.21737 14145756
0.154366 -0.373274 2.9117501 13421251
0.16078299 -0.37420601 2.9179201 13750735
0.19865 -0.37883401 2.97281 13619927
0.204721 -0.378122 2.9775701 4671822
0.20891 -0.38040701 2.9809501 9408661
0.225499 -0.38093099 3.0085001 13948120
0.23310199 -0.38363299 3.0137501 3882047
0.233321 -0.38381499 3.0137899 3421496
0.238879 -0.382539 3.0199499 2171686
0.25209799 -0.38598201 3.0457201 2105892
0.25852999 -0.38646701 3.05039 6908525
0.265017 -0.38676399 3.0552599 13619411
0.278835 -0.39079201 3.0804901 13487825
0.281537 -0.38778201 3.0828099 11514035
0.28470099 -0.390973 3.08587 3092275
0.28747699 -0.38823801 3.08881 1974050
0.29928401 -0.392928 3.10569 12895945
0.31381801 -0.39190999 3.12413 6382437
0.31540501 -0.394045 3.1254799 3026994
0.32799301 -0.39621401 3.14676 1908769
0.33401701 -0.395906 3.15306 4145732
0.33844799 -0.395796 3.15307 13553616
0.342388 -0.39626601 3.15534 13751255
0.38218501 -0.40235001 3.2159801 5132114
0.38611001 -0.40265 3.21984 13093068
0.39043799 -0.40266699 3.21786 14079963
0.155302 -0.36885801 2.91185 13552837
0.159574 -0.36953899 2.9168401 13750991
0.192536 -0.37537801 2.9718699 13620183
0.196301 -0.37519601 2.97211 13685976
0.198056 -0.37445301 2.9730599 13751769
0.201389 -0.37613699 2.97507 13027790
0.204542 -0.373604 2.97752 9145745
0.20854799 -0.37585801 2.9809501 4540235
0.22895101 -0.37895501 3.01194 13553618
0.2385 -0.37795001 3.02016 2171428
0.252179 -0.38129899 3.0459199 2303528
0.25878999 -0.381814 3.05088 3224374
0.264925 -0.382038 3.05496 13750997
0.27754399 -0.38460499 3.07902 13882582
0.27836999 -0.38508701 3.0806 13882583
0.284399 -0.38619301 3.0853601 6842732
0.287487 -0.38389099 3.08848 3289910
0.31110299 -0.38903999 3.1213701 13027531
0.318064 -0.38986301 3.12796 1974562
0.332066 -0.39180601 3.15205 1974561
0.336184 -0.39209101 3.1533501 9014154
0.33634001 -0.39177501 3.1535699 8487813
0.34042099 -0.39242399 3.1544001 13948633
0.34039 -0.39212301 3.15557 13883096
0.34392399 -0.39263001 3.15769 13817048
0.38407901 -0.398628 3.2183399 6711402
0.154779 -0.363938 2.90832 13618887
0.19762 -0.36999899 2.9725699 13949148
0.200969 -0.37162 2.9749899 14080477
0.20105501 -0.37200901 2.9754901 14014684
0.20445199 -0.36907801 2.9776101 13027533
0.207691 -0.37133801 2.9804299 4737614
0.211155 -0.373005 2.98281 7961471
0.229093 -0.37432101 3.01194 13487825
0.235186 -0.37568301 3.0172901 4803148
0.23835801 -0.37333 3.0202799 2500393
0.26493299 -0.377332 3.05496 12369344
0.278806 -0.38010499 3.0806501 13816790
0.28180501 -0.38308001 3.0834 13290190
0.28473499 -0.38124999 3.08603 10527140
0.297941 -0.381044 3.1035199 3092788
0.30569699 -0.38201001 3.1137199 13356496
0.308727 -0.38560399 3.1166799 13553875
0.30878201 -0.385773 3.11746 13619668
0.31215501 -0.384435 3.1217101 11251119
0.315081 -0.38716501 3.12503 3816766
0.31847101 -0.38501799 3.12796 1908512
0.334106 -0.38791901 3.1523399 2435113
0.33422899 -0.387954 3.15292 2435114
0.338166 -0.38824299 3.154 11448755
0.33839899 -0.388019 3.1544499 11711927
0.34252101 -0.38865799 3.1551499 13751254
0.363691 -0.39430299 3.1993899 13882584
0.38510299 -0.39365199 3.2184801 7764090
0.15546501 -0.359485 2.9081299 13618888
0.158264 -0.362106 2.9105899 13750735
0.200514 -0.36713299 2.9751201 13817305
0.203473 -0.366882 2.9778399 13817049
0.207445 -0.366642 2.9804599 9606296
0.211193 -0.368453 2.9834399 4540492
0.22923601 -0.36969 3.01194 12698309
0.238343 -0.36872599 3.02056 2500393
0.24165 -0.37095401 3.0232201 1974048
0.26356101 -0.37391701 3.0531299 6645610
0.26713499 -0.37417001 3.0568199 13159117
0.28283301 -0.378382 3.08394 13421776
0.28620499 -0.375532 3.08711 9474709
0.30696201 -0.37787101 3.11446 13290446
0.30973899 -0.381028 3.11724 12895944
0.31316 -0.379859 3.1223099 7171953
0.31883299 -0.38012499 3.1275699 2106148
0.336252 -0.384078 3.1516299 7106158
0.33258599 -0.38402599 3.1511099 1842976
0.340395 -0.38432801 3.1538999 13751511
0.34039199 -0.384846 3.1546099 13685462
0.34052199 -0.384074 3.1552801 13685718
0.34455499 -0.38416299 3.1577899 13751255
0.37632599 -0.39046499 3.2103 7500662
0.38608199 -0.38866901 3.2184801 9672087
0.15008 -0.35409299 2.9035299 13552835
0.15274701 -0.35677999 2.90573 13552837
0.158811 -0.357649 2.91044 13882579
0.201242 -0.36313799 2.97682 13685464
0.206117 -0.36408299 2.98001 12895947
0.210247 -0.36401901 2.98347 5000530
0.229188 -0.364795 3.0097301 8421764
0.241477 -0.366317 3.0232201 1908256
0.27858901 -0.37086701 3.0776401 13816791
0.29874799 -0.37650701 3.10516 2368808
0.30395699 -0.37490499 3.1118701 10066846
0.31068799 -0.37631199 3.1177499 11119533
0.313968 -0.37505299 3.12233 3421752
0.338476 -0.38089001 3.1528399 10922156
0.34261799 -0.380999 3.1545801 13685462
0.342778 -0.380072 3.1552899 13619926
0.34259599 -0.380458 3.15431 13619926
0.36614501 -0.38280001 3.2021699 13882585
0.375976 -0.385432 3.2097099 11053741
0.387068 -0.38369 3.2184999 11316913
0.149955 -0.34968299 2.90358 13552836
0.153457 -0.35235801 2.9057701 13553094
0.158648 -0.35328999 2.9110501 13816786
0.161578 -0.35098001 2.9144599 13882839
0.164575 -0.35389799 2.9195299 13882841
0.16818701 -0.35212699 2.92395 13883097
0.208 -0.35667399 2.98209 13619413
0.209252 -0.35951599 2.9829199 10724778
0.211254 -0.35831901 2.9839101 7435128
0.215942 -0.35776201 2.9887199 6119011
0.23457199 -0.36171201 3.0153999 11974585
0.238098 -0.363994 3.0197501 6316130
0.244499 -0.363821 3.0273199 1908257
0.267295 -0.366696 3.0573299 9277330
0.28507501 -0.369755 3.08601 12500931
0.29038501 -0.37081099 3.0897601 2500395
0.29346001 -0.36875799 3.0933499 1842464
0.31159401 -0.37159699 3.1182799 7764090
0.33665499 -0.37683001 3.1519201 5658715
0.340848 -0.37608799 3.1537001 13487826
0.34479201 -0.376232 3.1567099 13685205
0.375837 -0.380503 3.20982 13224654
0.149786 -0.34509799 2.9023399 13552835
0.152787 -0.34716299 2.90433 13487301
0.158446 -0.348858 2.9110501 13817043
0.165244 -0.34968901 2.9215801 13817304
0.16848101 -0.34765899 2.92395 13619925
0.21022999 -0.35381001 2.98332 12961484
0.21544801 -0.35321999 2.9887199 3750463
0.234164 -0.35737801 3.0162001 13290446
0.233564 -0.3572 3.0153899 13093067
0.237664 -0.35929099 3.0190001 10658725
0.244054 -0.35921001 3.02738 2040100
0.28701901 -0.36595899 3.08709 10132383
0.29070899 -0.36604401 3.0897601 2697773
0.305664 -0.366036 3.1124301 9014157
0.30892101 -0.368595 3.1148901 11777463
0.33435601 -0.369095 3.14958 3026995
0.33745301 -0.37199 3.1520801 6448230
0.33857 -0.37212801 3.15359 9145744
0.34304199 -0.37219301 3.15417 13816791
0.34246799 -0.370316 3.1557801 13816534
0.36052701 -0.371842 3.18483 13882584
0.375925 -0.37554801 3.20997 14014171
0.151759 -0.342621 2.9016399 13487300
0.15760501 -0.34436199 2.90938 13817042
0.168634 -0.343191 2.9239099 12896202
0.17602 -0.34749699 2.9370401 13422290
0.210269 -0.34932399 2.98404 13685206
0.218262 -0.350564 2.99122 3289912
0.237011 -0.354684 3.0186601 13224653
0.24415 -0.354487 3.02631 1842720
0.28393599 -0.359409 3.08372 13685462
0.28896499 -0.36217001 3.08814 6513768
0.292328 -0.35980499 3.0905199 2105636
0.30545101 -0.361265 3.1128299 5132369
0.30898401 -0.363814 3.11532 11185325
0.33465499 -0.36423901 3.1498001 3290167
0.33933699 -0.367383 3.15414 10724520
0.338 -0.36718401 3.1526799 6842732
0.34413999 -0.366566 3.15782 13816790
0.35830301 -0.37103 3.18332 13948120
0.149515 -0.34031299 2.9019201 13552836
0.149708 -0.340664 2.9021699 13552836
0.151218 -0.33826101 2.89958 13487302
0.16257299 -0.339156 2.9177599 13817047
0.171791 -0.34107301 2.92625 9606295
0.175956 -0.34230399 2.9309001 11909050
0.19238199 -0.34436101 2.9537001 11974588
0.20738401 -0.34750301 2.9807899 13619413
0.209903 -0.34474 2.98335 13487827
0.217612 -0.34605101 2.99124 3158325
0.22100601 -0.34783199 2.9934001 6382182
0.227376 -0.34724301 3.0002999 13882584
0.244001 -0.34984899 3.0262699 2829359
0.28753 -0.357348 3.0863199 11909050
0.291069 -0.35519999 3.0889201 4606026
0.29231 -0.35503599 3.09042 2829614
0.30846599 -0.35904801 3.11535 8948363
0.33141401 -0.36178601 3.1459 10724519
0.33463499 -0.35994899 3.1497099 4145476
0.339672 -0.36248901 3.15412 10724520
0.338047 -0.36229801 3.1526599 5987423
0.36222601 -0.36739901 3.1889601 12434882
0.36605901 -0.36570901 3.19222 13684949
0.14950199 -0.33587199 2.9015999 13552837
0.149607 -0.336218 2.9017301 13552837
0.152374 -0.33396101 2.90253 13487560
0.152399 -0.33428299 2.90238 13487560
0.16181099 -0.33462301 2.91641 13817047
0.165269 -0.336586 2.92082 13817047
0.16848101 -0.338709 2.92344 12435394
0.171537 -0.336245 2.9258599 7237490
0.176226 -0.33779201 2.9305799 6776939
0.191241 -0.34001601 2.9538701 6119267
0.194763 -0.34144199 2.9565001 12895946
0.196412 -0.33794901 2.9583099 13159375
0.20016 -0.33889499 2.9617901 13751511
0.21727 -0.34147599 2.9911101 6645611
0.223855 -0.34522399 2.9965301 11777464
0.221228 -0.34403101 2.99422 5000785
0.22671799 -0.34261501 2.99947 13619412
0.24404299 -0.34520599 3.0262799 5197907
0.24691001 -0.34763199 3.02953 1974306
0.282702 -0.34903601 3.07708 13685718
0.29086301 -0.35043201 3.08865 7895676
0.291875 -0.35045999 3.09027 5329749
0.33133799 -0.35739899 3.1468699 13093068
0.35550901 -0.35954699 3.1795599 1974050
0.35895899 -0.362021 3.18209 2566445
0.36759901 -0.36083701 3.19187 13290447
0.14926 -0.331361 2.8991899 13553093
0.149095 -0.33169499 2.8985701 13553093
0.152365 -0.32905701 2.90205 13553354
0.15359201 -0.329615 2.90253 13684942
0.154075 -0.33004501 2.90242 13685199
0.164601 -0.33221099 2.9208801 13751255
0.168314 -0.33425701 2.92343 12961738
0.17120101 -0.33180499 2.92589 10066846
0.176516 -0.33331901 2.9305799 2105893
0.190281 -0.33561799 2.9539199 1974308
0.209723 -0.33995 2.9813499 12632517
0.21739 -0.33682799 2.99051 11974588
0.21742401 -0.33697 2.9916999 11777209
0.22071899 -0.33951899 2.99439 3618876
0.22397199 -0.33733901 2.99736 6185060
0.244093 -0.34057 3.02635 8158592
0.247522 -0.343133 3.0305099 2171685
0.26913601 -0.345083 3.0587499 2040100
0.29144299 -0.345891 3.0902901 9869467
0.29538101 -0.345952 3.0922501 1974306
0.295367 -0.345907 3.0922999 2040099
0.29882899 -0.34609401 3.0954299 1974306
0.29733399 -0.349718 3.09321 2105891
0.29734099 -0.34968799 3.0932701 2105891
0.33125201 -0.35253 3.1468699 13553619
0.33166099 -0.35231701 3.14607 12961482
0.334764 -0.35505301 3.14957 5592922
0.362358 -0.354408 3.1879699 1842720
0.148864 -0.327355 2.8991399 13553093
0.15483201 -0.32531101 2.90289 13882579
0.15522499 -0.325789 2.9028299 13882580
0.17075799 -0.32738501 2.9260199 12698566
0.175997 -0.328877 2.9301801 2566444
0.190117 -0.331186 2.95454 1842721
0.19448 -0.33371401 2.9576399 7764091
0.21076401 -0.33541399 2.98103 10264226
0.220761 -0.334907 2.9941101 6908527
0.227075 -0.334968 2.9997799 10987950
0.244138 -0.33594501 3.02635 10987950
0.247508 -0.33849099 3.03057 3092788
0.27454799 -0.33930999 3.0660901 2434859
0.2836 -0.341169 3.0802701 13685463
0.28755501 -0.34286499 3.0855601 13882585
0.293239 -0.34211999 3.09168 7829627
0.297151 -0.34213999 3.09373 1842464
0.31113401 -0.34646699 3.12098 1974048
0.32635999 -0.34890899 3.13797 13882583
0.33129099 -0.34750399 3.1452601 13553619
0.33505499 -0.35016 3.14943 5000528
0.36929601 -0.354523 3.19449 13093324
0.146561 -0.32026699 2.89709 13618630
0.149202 -0.32291299 2.8989201 13618630
0.152955 -0.32281199 2.9014101 13750734
0.152538 -0.322267 2.9009299 13750477
0.156167 -0.320981 2.9027901 14079961
0.173427 -0.324705 2.92857 9869467
0.169221 -0.324599 2.92873 13685203
0.173944 -0.32493299 2.92857 8421765
0.1788 -0.32419801 2.93367 2040100
0.19310699 -0.32879701 2.95701 2369321
0.217742 -0.33239201 2.9916699 13685462
0.221168 -0.33044299 2.99512 9803419
0.226996 -0.33044001 3.00033 6185061
0.247482 -0.33383399 3.0304999 5000529
0.27836299 -0.33759099 3.07127 7632249
0.28648099 -0.33836001 3.08286 13751255
0.29137501 -0.34110099 3.0902801 12500931
0.2951 -0.338337 3.0929101 5527129
0.311358 -0.34196201 3.1201701 1842462
0.331433 -0.34263501 3.1452401 13882584
0.33575699 -0.34523401 3.14885 4803149
0.339268 -0.342989 3.15119 2105892
0.36281601 -0.34932101 3.1866801 2237477
0.36591601 -0.34687999 3.1905301 2763822
0.36918801 -0.34952301 3.19403 11119277
0.149931 -0.31852201 2.8989601 13618631
0.15118399 -0.319125 2.89959 13684683
0.167014 -0.32042199 2.92503 13750999
0.171628 -0.32116699 2.93081 13158859
0.17834701 -0.31974801 2.9335599 4145476
0.181678 -0.321713 2.93613 2040100
0.193198 -0.32431599 2.95735 1842977
0.218061 -0.32781699 2.9916699 13817305
0.226693 -0.32585999 3.0002799 3355962
0.24144199 -0.32836601 3.0225699 13685206
0.241229 -0.32860801 3.0223999 13685463
0.244464 -0.33133 3.0265999 12632775
0.24745201 -0.329175 3.03039 8224643
0.27508599 -0.33464199 3.06654 1974051
0.278862 -0.33287999 3.0713301 4737613
0.28646901 -0.333581 3.08216 13553619
0.29463801 -0.333758 3.0929401 9408916
0.313061 -0.33732501 3.12006 2434857
0.31765899 -0.33595499 3.11994 11645878
0.32858801 -0.34006301 3.1412001 14079963
0.33604199 -0.34038001 3.1489 6711403
0.36930901 -0.34454101 3.19382 7632505
0.147139 -0.31246501 2.8985 13618630
0.14822499 -0.31492099 2.8977101 13618630
0.15365399 -0.314053 2.90008 13948116
0.15126 -0.31259 2.9006 13684683
0.15655699 -0.31659201 2.90309 14014425
0.169825 -0.31733 2.9276099 13685462
0.178176 -0.31537801 2.93401 7698298
0.193267 -0.31980801 2.9574101 1842720
0.196411 -0.31759 2.95978 1974563
0.20498 -0.32170999 2.96648 12304065
0.218373 -0.32323599 2.99159 14014427
0.226237 -0.32128799 3.00017 3158583
0.242103 -0.323715 3.02228 13816793
0.245196 -0.32675701 3.02707 13159119
0.275552 -0.329889 3.06622 2040100
0.27937299 -0.32817301 3.0714099 3092531
0.29734099 -0.33092499 3.09587 4211012
0.29687601 -0.330733 3.0950699 5329492
0.30892101 -0.33134601 3.1111701 8882570
0.335933 -0.33551401 3.1489 9540245
0.340671 -0.337015 3.1525099 1974049
0.36888301 -0.339497 3.1924601 3553338
0.150682 -0.31134701 2.8987899 13684683
0.15314201 -0.308714 2.8982699 13948373
0.156929 -0.31217301 2.9031 14014425
0.171289 -0.31373101 2.9288199 13619669
0.175891 -0.31181899 2.9335499 13093325
0.199559 -0.31536701 2.9621699 5658971
0.20460001 -0.317206 2.96647 12961995
0.21881001 -0.31867799 2.99175 13948635
0.24183799 -0.31909499 3.0222499 13882585
0.24583 -0.322142 3.0276401 13619413
0.249292 -0.32010201 3.0320401 10066847
0.25256401 -0.32257301 3.0353501 2763824
0.25586301 -0.32033801 3.03811 1908257
0.27250901 -0.32277301 3.06231 4934991
0.27580899 -0.325077 3.06477 2303271
0.29661801 -0.326022 3.0957501 9474452
0.30033499 -0.32819 3.09993 2763566
0.30936599 -0.326487 3.1104801 10724775
0.32851201 -0.33054799 3.14201 14014426
0.33192301 -0.333139 3.14483 13948376
0.33576399 -0.330652 3.14889 12106428
0.34020799 -0.332127 3.1519699 2434600
0.34358299 -0.33276901 3.15642 1974305
0.36802301 -0.33449 3.1904099 2434601
0.371481 -0.336346 3.19573 5132115
0.148258 -0.30757999 2.8986001 13618631
0.150598 -0.305884 2.8959999 13684941
0.152667 -0.307661 2.89821 13948116
0.154071 -0.30432999 2.89799 14080217
0.168881 -0.309957 2.92644 13817304
0.171123 -0.309432 2.92944 13685718
0.17655399 -0.31001699 2.93502 13159374
0.196657 -0.31314 2.96047 1842720
0.19983999 -0.31087801 2.9630799 3619131
0.204319 -0.31266499 2.96615 12698822
0.219211 -0.314098 2.9916899 13948379
0.22578999 -0.31670201 2.9999399 3421756
0.244746 -0.316461 3.0246899 13948378
0.252644 -0.31792799 3.0353799 3947841
0.27237001 -0.318737 3.06054 8290435
0.28350601 -0.32168499 3.07548 5197907
0.296693 -0.32123899 3.09551 11843001
0.29981101 -0.32347199 3.10007 4408391
0.306086 -0.32364899 3.1066699 3158324
0.31426701 -0.324296 3.1138501 12698309
0.332724 -0.32834101 3.1465199 14014170
0.33866701 -0.327869 3.1508999 5724507
0.34263501 -0.32810199 3.15153 2040099
0.366936 -0.32962301 3.1898 2961201
0.37079901 -0.331067 3.1930499 3224118
0.14308199 -0.29951799 2.8891799 13749958
0.145449 -0.30358699 2.8964 13618630
0.15184399 -0.30118299 2.8956399 13948373
0.154899 -0.304086 2.8993599 14014425
0.17254101 -0.30358401 2.93064 13685719
0.175923 -0.30557501 2.9344001 13554132
0.17809799 -0.30301601 2.93503 13554132
0.19671901 -0.30862799 2.96071 1842463
0.199908 -0.306389 2.96382 1974306
0.20390899 -0.30818099 2.96628 9869466
0.219547 -0.30951899 2.9914701 14211551
0.22193 -0.30977601 2.9946899 12961483
0.225385 -0.31203401 2.99897 4868945
0.24406201 -0.31185299 3.0243599 13817049
0.25271901 -0.31327999 3.0353799 5855838
0.25595701 -0.31571001 3.0383201 1908258
0.26910099 -0.31622899 3.05741 13093324
0.272432 -0.31397301 3.05989 11974587
0.27966401 -0.31445 3.07055 2171429
0.290178 -0.31727499 3.0871999 11316913
0.29940501 -0.31793401 3.09865 7040112
0.30281499 -0.32073399 3.1026399 2368809
0.30659401 -0.31882799 3.10689 3224117
0.30980501 -0.32170501 3.1104901 10329761
0.31342301 -0.31969801 3.11292 13487826
0.33698401 -0.323742 3.1503201 12171449
0.36346799 -0.32777801 3.1846199 9277330
0.36936399 -0.326325 3.1930101 2237222
0.142551 -0.29514101 2.8887501 13684422
0.14569999 -0.29705101 2.89101 13618631
0.14896899 -0.29878801 2.8933599 13684941
0.152233 -0.29679099 2.8959701 14014425
0.175446 -0.30122599 2.9351499 13619925
0.180784 -0.300363 2.93718 12698566
0.184104 -0.30214399 2.9395199 8816779
0.18998601 -0.30147201 2.9469099 1645341
0.20346899 -0.30368099 2.96628 5329750
0.206774 -0.30563101 2.9686899 12566980
0.210281 -0.303707 2.9734499 13553876
0.225061 -0.30745399 2.9988501 11119280
0.252702 -0.30860499 3.03508 9737625
0.255918 -0.31093699 3.0374999 2039843
0.256001 -0.31103 3.0380001 2039844
0.26921499 -0.311517 3.0572801 12764359
0.28283 -0.31196001 3.07303 2237223
0.29714599 -0.31453699 3.0954599 13224654
0.303215 -0.31612301 3.1029699 2763567
0.30724299 -0.31416401 3.1079199 2500396
0.31036299 -0.31695801 3.1106999 9408917
0.31715301 -0.31708699 3.1168201 13750998
0.368276 -0.321376 3.19082 5987424
0.37193701 -0.32300499 3.1963799 2434858
0.14542601 -0.29112801 2.8868101 13553096
0.144824 -0.291592 2.8873301 13553095
0.14798 -0.29442599 2.89221 13619148
0.151783 -0.29242101 2.8959701 13948631
0.168448 -0.29706901 2.92349 13883355
0.172095 -0.29535401 2.9270799 13751513
0.18348099 -0.297723 2.9395599 8619401
0.189735 -0.29699701 2.9469199 4342854
0.20329601 -0.299732 2.9663701 2763822
0.207146 -0.301155 2.96979 10856362
0.25270799 -0.30396101 3.0350599 12566724
0.25592801 -0.30629101 3.0375099 3553083
0.25593099 -0.30629301 3.0375099 3553083
0.26790601 -0.30638799 3.0550699 10395812
0.27583399 -0.307125 3.0648999 11514293
0.27932701 -0.30960599 3.0692 2829616
0.28263801 -0.30725601 3.0730901 1842464
0.28880501 -0.308826 3.0821199 5592665
0.29415801 -0.31107301 3.0901101 13290447
0.30447301 -0.311607 3.10445 2960946
0.30794299 -0.30934599 3.1080899 2434859
0.31116199 -0.31233701 3.1122401 9013903
0.317242 -0.31229299 3.1170599 13948635
0.365159 -0.31864199 3.1865799 13224654
0.37437901 -0.31957901 3.19906 1776929
0.14088701 -0.28785601 2.8864501 13552835
0.141553 -0.28871 2.89011 13552836
0.144811 -0.287846 2.88854 13618888
0.14577299 -0.287126 2.88587 13684939
0.14422999 -0.28818899 2.8885901 13618631
0.169201 -0.292649 2.92419 13751769
0.172656 -0.29091099 2.9266901 13291218
0.176567 -0.29368401 2.9306099 12764361
0.17926601 -0.291044 2.9324 10725034
0.18610901 -0.29502201 2.9421999 9935260
0.188723 -0.29229501 2.9446101 10592933
0.195732 -0.29228601 2.9519899 1842463
0.192719 -0.29462799 2.9493401 2303014
0.20556299 -0.29674101 2.96854 3487545
0.251975 -0.29951599 3.0349 13882584
0.25563601 -0.30130699 3.0380199 7434870
0.25593299 -0.30164701 3.0374801 6184803
0.268536 -0.30174601 3.0553401 9211538
0.27923799 -0.30488899 3.0691199 6053217
0.293742 -0.30634701 3.0901 11908794
0.31831601 -0.30710801 3.1166 13882841
0.33375299 -0.310958 3.1483099 14014170
0.37911999 -0.31261399 3.2044301 1842721
0.37677801 -0.31611899 3.2017601 2105893
0.139753 -0.28425899 2.88533 13684421
0.146983 -0.282832 2.88587 13948115
0.164405 -0.28499299 2.9135599 13949149
0.16835199 -0.28809699 2.9193499 13883356
0.175951 -0.28899199 2.92888 12369860
0.20576 -0.29220599 2.9684801 2171685
0.25132 -0.29515699 3.03531 13816791
0.25485399 -0.29680401 3.0369201 11974587
0.25837299 -0.29570499 3.0402601 4211012
0.26852101 -0.296848 3.0539999 6448233
0.275388 -0.297434 3.06199 13488083
0.27915701 -0.30017501 3.0690501 10395555
0.28916401 -0.298866 3.08075 2434859
0.30854601 -0.30437899 3.10656 2961203
0.31277099 -0.30294999 3.11379 7895678
0.31838199 -0.302275 3.11554 13817049
0.343036 -0.30646399 3.1544399 4671821
0.38147399 -0.30912501 3.2082901 1908514
0.139778 -0.27889201 2.8815899 13684421
0.14224599 -0.280604 2.8859601 13618630
0.142424 -0.28121701 2.8829401 13684422
0.152839 -0.279268 2.89276 14146270
0.16653199 -0.28206399 2.91834 13883099
0.174495 -0.282866 2.92558 13027789
0.178772 -0.283144 2.93062 12698568
0.19554999 -0.28780001 2.9519899 2698029
0.198311 -0.285083 2.9547701 1908257
0.25062501 -0.290755 3.03529 13751511
0.26183599 -0.29535201 3.0451601 2105893
0.26553699 -0.29360199 3.0490301 2040358
0.27907699 -0.29546201 3.06899 13356497
0.30955899 -0.299961 3.1096399 2434602
0.31342199 -0.29818901 3.11396 6908783
0.31504899 -0.29965401 3.1145401 12238017
0.31885999 -0.29784399 3.1180699 13882842
0.37736601 -0.30805001 3.20539 5921888
0.383073 -0.305134 3.2109799 2895409
0.38352799 -0.30543599 3.2111299 2303272
0.139751 -0.27455601 2.8806601 13684422
0.137806 -0.27607101 2.88343 13749957
0.145703 -0.275572 2.8834901 14079701
0.142619 -0.276896 2.88272 13750217
0.148104 -0.278534 2.8859601 14146010
0.168019 -0.27873901 2.9223499 13752026
0.172415 -0.279219 2.92541 13620183
0.177129 -0.27913401 2.9256499 13290962
0.19462401 -0.28334999 2.9514501 8553607
0.19756401 -0.28064999 2.9547701 5132371
0.249295 -0.28628099 3.0341799 13685975
0.25464201 -0.289332 3.03843 13817047
0.26255399 -0.29078299 3.0460501 2566444
0.272414 -0.29024199 3.0592201 10922413
0.278837 -0.29060701 3.0673699 13488340
0.31009701 -0.295109 3.1088099 2368809
0.31413099 -0.29343301 3.11411 6185061
0.320016 -0.29496899 3.1173899 13882841
0.38571101 -0.30181301 3.21369 5263957
0.38569301 -0.30180201 3.21387 5395543
0.143502 -0.27259001 2.8815999 13947856
0.146954 -0.27129099 2.8835499 14146010
0.17007799 -0.27526999 2.92536 13751770
0.193111 -0.279073 2.95134 13619669
0.19684 -0.276218 2.9548199 11514549
0.205906 -0.27827701 2.9646101 1842722
0.25092 -0.282776 3.0362301 13685975
0.254271 -0.28484201 3.0378799 13817048
0.26572701 -0.28322101 3.0483999 2171687
0.27262601 -0.285449 3.0580399 10198433
0.276613 -0.28417 3.06198 13619669
0.28842101 -0.289435 3.08061 2698288
0.31483001 -0.28867099 3.1141901 5461337
0.318275 -0.29111299 3.1170399 13553876
0.34088299 -0.293511 3.1530199 13750998
0.34411001 -0.29548001 3.1556699 7171698
0.137601 -0.26758599 2.87585 13749957
0.140517 -0.269923 2.8782301 13750216
0.144629 -0.26829201 2.8812301 14145752
0.14820801 -0.26701501 2.88357 14014940
0.167403 -0.27088001 2.92044 13817563
0.189579 -0.27294099 2.94928 13882842
0.19329201 -0.274526 2.9523201 14014427
0.195989 -0.271828 2.95504 13883097
0.19940101 -0.27342299 2.9572401 9014158
0.210795 -0.27513799 2.9732399 1908515
0.252951 -0.279421 3.0403099 13685719
0.257236 -0.27935499 3.04125 13685462
0.273886 -0.28087401 3.05813 11251122
0.28787899 -0.28473699 3.0805299 5856095
0.29085499 -0.28203401 3.0829201 2829618
0.31431699 -0.286208 3.1126499 3684927
0.318405 -0.28651601 3.11748 12764361
0.33976901 -0.288773 3.1530001 14014428
0.34626001 -0.29126501 3.1580501 6447976
0.39653799 -0.29399499 3.2276199 9540247
0.13478699 -0.265187 2.8736 13684164
0.140764 -0.26557201 2.8782699 13750732
0.141845 -0.26562601 2.8784699 13882320
0.145272 -0.26399201 2.8809099 14146268
0.192112 -0.27009299 2.95188 13883098
0.198405 -0.26896101 2.9572799 13488338
0.210517 -0.27062401 2.9732399 1908514
0.21381301 -0.27284101 2.97665 2368809
0.25255901 -0.27391699 3.03808 13751256
0.275206 -0.27629599 3.05814 12238016
0.28722399 -0.279919 3.0791099 11251122
0.29034701 -0.277329 3.08283 6250853
0.32055399 -0.28242201 3.1152301 13685464
0.342179 -0.28548899 3.1558599 13948635
0.393583 -0.28945699 3.2251501 13948379
0.40196601 -0.288481 3.2307301 4474444
0.40847999 -0.29236901 3.2325201 13948634
0.13505299 -0.260831 2.87362 13684421
0.13809 -0.25883701 2.87569 13618888
0.141008 -0.26120701 2.87819 13882063
0.142536 -0.26128399 2.87848 14014422
0.14266901 -0.26130599 2.87868 14079959
0.191144 -0.26581699 2.95188 13883098
0.195014 -0.26743799 2.95508 13883098
0.20074899 -0.26598501 2.9597001 12566980
0.20453499 -0.267479 2.9630301 4145476
0.213553 -0.268251 2.9759099 1842721
0.21656901 -0.265852 2.9783001 2500651
0.25478199 -0.27068901 3.0408399 13619670
0.272652 -0.273038 3.05531 6184803
0.27671301 -0.271862 3.05972 13422034
0.282619 -0.27256501 3.0697601 13948635
0.286769 -0.275208 3.0789499 13882841
0.29626799 -0.27595901 3.0881801 1842722
0.325773 -0.27869299 3.12024 14145497
0.34603599 -0.28221199 3.1579001 13751770
0.39977801 -0.284446 3.2300799 9540505
0.40400499 -0.28441 3.2318101 5526876
0.406232 -0.28848901 3.2321801 12698312
0.40815899 -0.28446499 3.23403 13816794
0.134913 -0.25645801 2.87234 13750215
0.137171 -0.25443101 2.87186 13684681
0.143181 -0.256942 2.87835 14146524
0.143226 -0.25695401 2.87868 14146524
0.19440199 -0.263071 2.9563501 13817305
0.199724 -0.26160401 2.95977 13883098
0.204201 -0.262988 2.9630301 9014158
0.210023 -0.26192799 2.97068 2171687
0.216277 -0.261224 2.9770701 2105637
0.270096 -0.26984099 3.0527599 2763568
0.27401301 -0.26852301 3.056 8487816
0.28979599 -0.27256599 3.08132 11843002
0.29579601 -0.27125999 3.0881801 2434859
0.32313001 -0.27464801 3.11602 13685721
0.39617199 -0.282123 3.2276499 14080222
0.41280001 -0.28417999 3.2328999 14014429
0.41511899 -0.280231 3.2339599 14014429
0.134955 -0.25000799 2.8708401 13750215
0.137767 -0.252332 2.8729501 13750475
0.141068 -0.25004801 2.87637 14211546
0.14387199 -0.25260299 2.87835 14212062
0.14378101 -0.25260401 2.87868 14212062
0.195682 -0.259415 2.9583001 13817306
0.197377 -0.256028 2.96082 13817306
0.203566 -0.25851801 2.9628501 13093582
0.26990101 -0.26517999 3.0527599 3289656
0.27540201 -0.264029 3.0569301 9277333
0.282197 -0.26787999 3.06969 13817050
0.28935999 -0.26784 3.0810399 13948635
0.29569399 -0.26651701 3.08777 5527387
0.29848701 -0.26879501 3.0918901 2171688
0.32496801 -0.27103001 3.1181901 13817307
0.32703701 -0.27085501 3.1210499 13817306
0.326262 -0.27084601 3.1201701 13817307
0.39586201 -0.27730599 3.2285299 14079966
0.39954799 -0.279587 3.2304299 12830155
0.403712 -0.279589 3.2325499 5000532
0.401501 -0.27554601 3.23158 11251123
0.407902 -0.27959001 3.23452 12237762
0.41117299 -0.276838 3.2371199 14145759
0.41349801 -0.27776101 3.2381001 14080222
0.417393 -0.27637801 3.2353599 14080222
0.13214301 -0.247779 2.8689201 13750215
0.13800199 -0.247981 2.8729999 13882321
0.141131 -0.245975 2.87536 14079961
0.144077 -0.248247 2.8778501 14146270
0.199422 -0.25264999 2.9611499 13817306
0.20286 -0.25407201 2.9628601 13817306
0.206264 -0.25581199 2.9653101 11777466
0.215528 -0.25661099 2.9754901 2040100
0.26142001 -0.261493 3.04726 13619671
0.266408 -0.25818899 3.0499699 12566982
0.26968801 -0.26050699 3.0525899 4737359
0.27615499 -0.25945401 3.05792 7040115
0.282527 -0.26097101 3.06653 13817050
0.29565799 -0.26177999 3.0875599 10198434
0.328612 -0.26717401 3.1222301 13817306
0.39507499 -0.27282399 3.2330101 14014686
0.39937499 -0.274793 3.2306299 14145759
0.40480199 -0.27283001 3.23388 5658462
0.40562701 -0.27561399 3.23402 5329497
0.409053 -0.27283001 3.2354801 11316660
0.413149 -0.272919 3.2381899 14211552
0.13709199 -0.243595 2.8692801 13816528
0.14419401 -0.24389499 2.87781 14146527
0.201794 -0.249658 2.9623899 13817306
0.20558199 -0.25135601 2.9653201 13817305
0.21031301 -0.249635 2.9700201 9540503
0.215233 -0.25227699 2.97666 2171430
0.26210001 -0.25549099 3.0497799 13883099
0.269638 -0.25584301 3.05251 6381927
0.276436 -0.25479001 3.05809 4539981
0.27927199 -0.258167 3.0620899 11316916
0.29521799 -0.25707299 3.08744 13619927
0.29528999 -0.257045 3.0873599 13619671
0.326085 -0.262896 3.11901 13488341
0.331276 -0.26343 3.12428 13751769
0.33121899 -0.25974301 3.1211801 13817562
0.40135401 -0.27073401 3.23209 13422293
0.40675199 -0.26892799 3.2351501 5132118
0.41100299 -0.26892599 3.2367301 13224913
0.41284999 -0.268049 3.2379301 14211808
0.41770199 -0.26767501 3.2353401 14080478
0.131208 -0.23879801 2.8638301 13750215
0.13742 -0.239254 2.8692801 13948371
0.144444 -0.23960701 2.87866 14212063
0.20474499 -0.246935 2.9654601 13817306
0.21070699 -0.245125 2.9700401 12303809
0.21920501 -0.24845199 2.97984 1777185
0.264276 -0.25178099 3.0500801 14014172
0.273229 -0.25239199 3.05566 2566191
0.279697 -0.25349599 3.06218 10593194
0.29121101 -0.255146 3.08108 14014429
0.293865 -0.252143 3.08375 14211807
0.326309 -0.256329 3.1222301 13488340
0.33034399 -0.256069 3.12516 14014685
0.33364901 -0.256042 3.1245301 14014685
0.395668 -0.265172 3.23367 14014941
0.40018901 -0.26506501 3.2334399 14080735
0.40445799 -0.265062 3.2349701 10001313
0.41061401 -0.26400399 3.2374599 10001056
0.41535401 -0.26372799 3.23842 14146271
1.01142 -0.325385 4.0748301 10984850
0.13183799 -0.234469 2.86481 13749959
0.131975 -0.234671 2.8647201 13749959
0.134647 -0.23686001 2.86711 13750218
0.137749 -0.234915 2.8692801 14079959
0.203769 -0.242457 2.96505 13817049
0.207496 -0.243679 2.9684999 13817048
0.207748 -0.243659 2.9684899 13817048
0.21122099 -0.24072801 2.9714999 13619669
0.21866 -0.243957 2.9798701 2171686
0.221466 -0.241328 2.98228 1974307
0.26302201 -0.247924 3.0472801 14014429
0.26668099 -0.24795701 3.04984 13882843
0.27652201 -0.25011301 3.05812 2961205
0.28011799 -0.248824 3.0622699 8487818
0.283921 -0.24708401 3.0671501 12961741
0.33020601 -0.25190899 3.1213801 13948892
0.397643 -0.26115799 3.2334499 13817563
0.402145 -0.261163 3.2346101 14014169
0.406405 -0.26116401 3.2361901 7764094
0.41246501 -0.26006699 3.2392499 12501189
0.41756499 -0.25986901 3.2390001 14014425
1.01073 -0.31946301 4.0707202 9734269
0.131993 -0.23033901 2.8647201 13684167
0.134949 -0.23252 2.8670199 13816013
0.13795801 -0.230575 2.8689001 14211545
0.205993 -0.23936801 2.9674301 13817306
0.20814499 -0.23627 2.9716301 13882843
0.211891 -0.236926 2.97384 13948634
0.215902 -0.23779701 2.97665 9211538
0.26565799 -0.242311 3.0494101 14013915
0.26972401 -0.245684 3.0527101 10132385
0.276595 -0.24543101 3.0580499 2303018
0.287725 -0.24541301 3.0712199 14277601
0.32819301 -0.248015 3.12305 13422548
0.33180699 -0.24806701 3.12623 13883099
0.33642501 -0.247944 3.1301999 14014942
0.400071 -0.25733399 3.2349 14080218
0.404172 -0.25721499 3.2351899 12961741
0.40439901 -0.25736099 3.2360301 12698569
0.41091099 -0.25543201 3.2392499 6382441
0.41510099 -0.25659099 3.24105 14211807
0.41540501 -0.25598499 3.23843 14211547
0.419402 -0.25656101 3.2423799 14080478
1.00695 -0.31436399 4.0673599 11379352
0.130547 -0.225997 2.8599899 13684422
0.136476 -0.22623999 2.86499 14145751
0.20985501 -0.232825 2.9732201 13882842
0.217914 -0.233762 2.9793501 8685194
0.221388 -0.23676901 2.98192 2237480
0.26297501 -0.237795 3.04865 13882585
0.26930401 -0.240822 3.05001 12171967
0.26706001 -0.237818 3.0501399 14013915
0.27340999 -0.23831201 3.0550201 4605772
0.276669 -0.24075 3.0579901 2434347
0.28471801 -0.242456 3.0675199 13093326
0.28857401 -0.240777 3.0715599 14014684
0.32185701 -0.244021 3.1220901 2303528
0.32947099 -0.244213 3.1259401 13685720
0.33337799 -0.24410801 3.1273701 13883356
0.40186301 -0.251201 3.2346201 14474979
0.402064 -0.25357199 3.2365201 14408926
0.406023 -0.25314501 3.2365301 11580088
0.41758701 -0.25213501 3.2390101 14211548
0.42147401 -0.25272399 3.24331 14146271
0.421951 -0.25210601 3.23915 14408925
0.12795299 -0.223382 2.8577299 13684422
0.131247 -0.22170401 2.8600199 13553094
0.137283 -0.221947 2.8649399 14277595
0.211721 -0.229486 2.9755199 13817306
0.215399 -0.229431 2.9768901 13948635
0.22152799 -0.232233 2.98191 2895410
0.26909399 -0.23417801 3.0510001 13685206
0.27339599 -0.234363 3.0546999 6316390
0.27674699 -0.23607001 3.05792 2500396
0.28932101 -0.236147 3.0720201 14014427
0.323589 -0.240312 3.1237099 1776928
0.32721999 -0.24030501 3.1249101 7632763
0.331184 -0.24030501 3.12707 13619928
0.33525899 -0.240306 3.1289401 13949149
0.39921701 -0.247463 3.23647 14277340
0.40103599 -0.24678899 3.23563 14343133
0.41031 -0.247941 3.2397201 4803409
0.41531599 -0.24826699 3.2386899 12829636
0.12830199 -0.21901 2.85689 13684679
0.128613 -0.21908399 2.8576901 13684679
0.131685 -0.217352 2.85941 13684940
0.13804001 -0.217657 2.8647299 14343391
0.21334 -0.22580101 2.97703 13751513
0.217372 -0.226243 2.9783199 13224912
0.221668 -0.227698 2.9819 4211270
0.27683201 -0.231392 3.0578599 2763568
0.28011799 -0.233642 3.06023 2631982
0.28704199 -0.233256 3.0676501 13685719
0.32267299 -0.233826 3.1228001 2500908
0.32457399 -0.237688 3.1240499 2171943
0.328017 -0.235544 3.12621 6580075
0.332941 -0.23650099 3.1282899 13751770
0.40308899 -0.243003 3.2375901 14343133
0.412287 -0.24399599 3.2409599 4540494
0.41636801 -0.244028 3.2437601 12172225
0.42449701 -0.24496 3.2487099 14146272
0.126873 -0.21350899 2.8536301 13684936
0.128828 -0.21473899 2.85676 13684937
0.132413 -0.213061 2.85934 13684941
0.13823301 -0.213337 2.8640201 14277855
0.21261001 -0.221544 2.9770999 13751770
0.216934 -0.222743 2.9785299 13751256
0.221671 -0.22316501 2.9819 7895678
0.227789 -0.222617 2.9877801 1842723
0.280011 -0.228981 3.0602801 2303017
0.28703901 -0.228567 3.0675001 13356754
0.329025 -0.23078901 3.1270199 5527387
0.32891399 -0.23078699 3.1266999 5395545
0.33345401 -0.230794 3.1296899 13554135
0.333462 -0.230792 3.12955 13554391
0.33751899 -0.230799 3.13134 13949150
0.402004 -0.24006701 3.23614 14277857
0.41011399 -0.240012 3.2398801 8488073
0.41419899 -0.239876 3.2423401 4079686
0.41613001 -0.239005 3.2437401 7895680
0.126954 -0.20918199 2.85342 13684936
0.12945101 -0.210476 2.85675 13619145
0.13775 -0.209029 2.86358 14343391
0.21512599 -0.218666 2.9786601 13685721
0.286522 -0.22393601 3.0669899 12238017
0.32418299 -0.225805 3.1199701 1842722
0.32589599 -0.228063 3.12451 1908515
0.33126399 -0.22702999 3.1293099 9014160
0.33529401 -0.22703899 3.1310301 13751514
0.33869201 -0.22637901 3.13657 14014686
0.41554901 -0.234035 3.24417 4079943
0.4136 -0.23508701 3.24283 3290427
0.12722901 -0.20488 2.85342 13684680
0.130164 -0.20622399 2.85691 13619146
0.134532 -0.207325 2.8612599 14013908
0.13710999 -0.204751 2.86358 14343134
0.21690001 -0.212468 2.9795001 13685977
0.28761899 -0.21953601 3.06882 11580343
0.32069099 -0.223672 3.1174901 2763823
0.329362 -0.223241 3.1280999 2697775
0.33309799 -0.22328199 3.1306701 10658985
0.34196699 -0.22336 3.13831 13883101
0.40588999 -0.229876 3.23612 14343394
0.409091 -0.232131 3.23945 13290963
0.41093901 -0.229883 3.24073 10593193
0.415014 -0.22907899 3.24388 3750721
0.127527 -0.20058399 2.8534701 13684681
0.21688201 -0.20829099 2.9844501 13685977
0.219767 -0.20990799 2.9817801 13554391
0.28269899 -0.214889 3.06639 1776928
0.28478 -0.214858 3.0668299 3619132
0.286892 -0.21488801 3.06845 8290436
0.32772201 -0.218518 3.12363 2171687
0.32757401 -0.217014 3.12451 1974307
0.33490601 -0.21954399 3.1321299 12106687
0.33840099 -0.221579 3.13482 13883100
0.124839 -0.198055 2.85113 13750472
0.12807301 -0.19629399 2.8534501 13684938
0.124925 -0.198287 2.8517201 13750472
0.131741 -0.198477 2.8573699 13684941
0.13645899 -0.200472 2.8635399 14277596
0.214487 -0.20473699 2.9855001 13817563
0.28191799 -0.21231 3.06563 1777185
0.28300101 -0.210976 3.0673001 1711135
0.28950199 -0.212153 3.07003 12896202
0.293915 -0.21214899 3.07339 13948634
0.33199999 -0.215774 3.1317 2763824
0.332793 -0.215784 3.13152 4672078
0.337809 -0.21683501 3.1350801 13488341
0.34071901 -0.21411 3.1370201 13817563
0.411098 -0.221733 3.2395501 13356754
0.414538 -0.22410899 3.2437301 5724510
0.12525199 -0.193738 2.85078 13750473
0.131611 -0.19417199 2.85744 13684941
0.134673 -0.196227 2.8598399 14080216
0.220347 -0.20129301 2.98806 13685720
0.28248 -0.207831 3.0660601 1711135
0.28730801 -0.208367 3.06863 7698555
0.291549 -0.208363 3.07149 14014427
0.32857299 -0.212189 3.12305 2106151
0.337055 -0.21208499 3.1343601 11777467
0.341492 -0.211797 3.1375899 13817307
0.39410701 -0.217547 3.2214401 2566189
0.39732301 -0.217941 3.22314 5987425
0.41222799 -0.216792 3.2393899 13093325
0.131657 -0.189816 2.8568699 13684942
0.13451301 -0.19191501 2.8598399 14080217
0.23616099 -0.20024499 2.9937401 1908258
0.28450999 -0.203456 3.0659499 3356217
0.28840199 -0.20373601 3.0692 11514293
0.291168 -0.20382001 3.0683701 13948634
0.33030099 -0.207783 3.1277399 1777186
0.334371 -0.207588 3.13202 3224632
0.33860201 -0.207913 3.1357701 12106432
0.34294501 -0.207909 3.13885 13882844
0.36994001 -0.208656 3.18296 5856097
0.40268499 -0.211973 3.2281101 3289911
0.409868 -0.21346 3.23507 13422289
0.41336 -0.211861 3.23944 12895945
0.12758 -0.186942 2.8527501 13816010
0.13078 -0.185225 2.85272 13816271
0.132686 -0.187281 2.85571 13948117
0.215359 -0.194667 2.97422 13883099
0.233374 -0.193518 2.9930699 5000785
0.23773301 -0.193519 2.9918499 1908513
0.28799501 -0.199067 3.07002 13224911
0.33133999 -0.201297 3.12994 1776928
0.33581501 -0.20373601 3.1356299 2895667
0.34204301 -0.203254 3.1397099 13290963
0.36309201 -0.204717 3.1772799 14146015
0.37215599 -0.204144 3.1831701 3289656
0.406894 -0.210274 3.2325499 5197907
0.414235 -0.20689601 3.23949 10066589
0.12835801 -0.18264 2.8521099 13750475
0.130988 -0.18042199 2.8547299 13882065
0.131717 -0.181096 2.8548901 13948115
0.133505 -0.18310601 2.85693 14211290
0.231438 -0.18999501 2.99403 11448499
0.25220999 -0.193515 3.02018 2105893
0.251892 -0.193519 3.02039 2039843
0.253254 -0.193781 3.02074 3421496
0.25737599 -0.19352201 3.02338 12237759
0.25646901 -0.193516 3.02279 10592934
0.25631601 -0.193533 3.0231299 10198432
0.26058701 -0.19351999 3.0255201 14014171
