# .PCD v0.7 - Point Cloud Data file format
VERSION 0.7
FIELDS x y z rgb
SIZE 4 4 4 4
TYPE F F F U
COUNT 1 1 1 1
WIDTH 1298
HEIGHT 1
VIEWPOINT 0 0 0 1 0 0 0
POINTS 1298
DATA ascii
1.34343 4.4064798 8.0204 3815733
1.3753901 4.40275 7.9825802 3815476
1.10453 -4.4860902 8.8373404 12897755
1.05933 -4.5046201 8.8689098 12832218
1.29368 -4.47225 8.9233303 12897755
1.09834 -4.4714599 8.8698101 9870771
1.17811 -4.4352999 8.8199701 5592938
1.32666 -4.45647 8.9356203 12831962
1.09685 -4.4699101 8.8964596 3421514
1.33269 -4.4408698 8.9380102 12897498
1.35158 -4.4439201 8.9397202 12831961
1.0799201 -4.4665198 8.9093904 3815752
1.33363 -4.4301701 8.9376097 12962781
1.36831 -4.4121299 8.9144402 12831962
1.36831 -4.4121299 8.9144402 12831962
1.36831 -4.4121299 8.9144402 12831962
1.36775 -4.4043598 8.9183998 12107472
1.13184 -4.4135098 8.8682804 2236965
1.17197 -4.4173102 8.8911695 2565415
1.29749 -4.41365 8.9263296 3947080
1.3075 -4.4127002 8.9328699 3815753
1.33767 -4.4151602 8.9440403 7369096
1.34464 -4.4031701 8.9257097 5921391
1.37868 -4.3913698 8.9088297 12963037
1.30687 -4.3934002 8.9219799 3157555
1.3272099 -4.4047098 8.9378796 4144464
1.35452 -4.3826699 8.91856 4012875
1.3108799 -4.3761101 8.9247999 2828586
1.33196 -4.3819098 8.9239197 3420472
1.30651 -4.3452902 8.9278898 2696998
1.35856 -4.3670101 8.96807 3683909
1.12484 -4.3698802 8.9241304 5065803
1.31899 -4.3266501 8.9294901 4012859
1.34524 -4.3266301 8.9227695 3354674
1.38535 -4.3663998 9.02073 12700120
1.3160599 -4.31108 8.9128904 5526098
1.35203 -4.3501701 9.0012703 3223102
1.35203 -4.3501701 9.0012703 3091516
1.3580199 -4.3442898 8.9891195 3223100
1.37201 -4.3530302 9.0262098 12896730
1.39096 -4.35182 9.0261898 12700119
0.98481297 -4.2806902 8.7571297 9342881
1.3299 -4.2814298 8.8888903 5789271
1.02047 -4.2566199 8.7517099 5854822
1.27832 -4.2583799 8.8607798 2499621
1.31911 -4.2598 8.8835802 3749432
1.37685 -4.3141899 8.9953899 8618392
1.37685 -4.3141899 8.9953899 7960461
0.97276902 -4.2694998 8.7652798 12765655
1.04307 -4.22539 8.7346601 4802130
1.0783 -4.18501 8.6704397 4868439
1.16591 -4.2718902 8.8625498 1512983
1.19682 -4.2652302 8.8729 2894121
1.2891099 -4.2364602 8.8510103 2697000
1.28741 -4.2361202 8.8534002 2565414
1.28961 -4.2361498 8.8502903 2762536
1.30433 -4.2407598 8.8537998 2697001
1.3042001 -4.24084 8.8539896 2960172
1.3063 -4.24579 8.8596497 2697257
1.3315001 -4.2288399 8.8557901 2894379
0.99320602 -4.2466602 8.7690802 9211807
0.97770798 -4.2463698 8.7760201 12634070
0.992535 -4.2565598 8.7841702 6513523
1.0223401 -4.2237902 8.7430801 6447731
1.06929 -4.1794901 8.6720104 7040121
1.18009 -4.2623401 8.86831 1578261
1.18782 -4.24893 8.8723803 2236448
0.98696703 -4.2220302 8.7609596 12765656
0.989241 -4.2206998 8.7578897 12765655
1.17748 -4.2443299 8.86409 1512726
1.1845599 -4.23383 8.8726196 1973533
1.19728 -4.2393098 8.8805304 3222828
0.99251598 -4.1908002 8.7376404 12766169
0.996925 -4.2066498 8.7589798 12107213
1.01551 -4.2052698 8.74825 6645112
1.02797 -4.18925 8.7446699 3617859
1.17619 -4.2326899 8.8717003 1578776
0.99248999 -4.1901999 8.7619104 12502228
0.983778 -4.2049599 8.7624702 12371155
1.00834 -4.1903 8.7547598 8553622
1.01045 -4.1896601 8.7535105 8356243
1.0432 -4.1717901 8.73281 3157048
1.17137 -4.2178001 8.8719397 1512983
1.1819299 -4.2179799 8.8724899 1775898
1.1738 -4.2175398 8.8728905 1512983
1.19118 -4.21384 8.8936005 3025449
1.31937 -4.1729498 8.8600197 3091501
0.98551399 -4.1856599 8.7588501 12634327
1.00324 -4.17454 8.7589798 9869739
1.02105 -4.1735401 8.7494898 3815755
1.03341 -4.15657 8.7436399 3486012
1.16897 -4.20222 8.8724003 1512727
1.17041 -4.1996799 8.8682299 1512727
1.17933 -4.2021899 8.8724899 1907227
1.18611 -4.1925702 8.8831596 2696743
1.32437 -4.1605802 8.8667297 3157293
0.97853398 -4.1710801 8.7638197 12568790
0.98858202 -4.1733699 8.7631702 12699864
0.98887199 -4.1739001 8.7649403 12634070
0.99918401 -4.1579399 8.7611198 11119806
0.99903297 -4.1577501 8.76019 11383234
0.99871099 -4.15799 8.7609701 11317441
1.01428 -4.15833 8.75494 4802651
1.04453 -4.1399899 8.7384901 3354169
1.16681 -4.18329 8.8657103 1644313
1.17612 -4.1866698 8.8726501 1841691
1.18355 -4.1757898 8.8810997 2564901
0.986687 -4.1561799 8.7630901 12699863
0.97970903 -4.1597099 8.7719297 12634327
1.00862 -4.1424198 8.7583599 6579319
1.0102299 -4.1410098 8.7557297 6842490
1.02607 -4.14117 8.7486296 3749189
1.03456 -4.1269202 8.7481699 3485756
1.0607899 -4.1195102 8.7292995 2762284
1.17252 -4.17275 8.8753996 1775643
1.18787 -4.1683502 8.8976202 3091246
0.97516102 -4.1426401 8.7726002 12568534
0.97496003 -4.1429 8.7733002 12437205
0.98930401 -4.1440802 8.7693195 12436179
0.99019802 -4.14324 8.7677402 12436436
0.99854201 -4.1285 8.7669201 9738153
0.99881297 -4.1284299 8.76688 9606567
1.0179501 -4.1269698 8.7553501 4012619
1.16843 -4.1593699 8.8788099 1446939
1.17783 -4.1627598 8.88657 2038561
1.31014 -4.1234398 8.8710299 3091758
1.26519 -4.2267799 9.0623903 4012608
1.33543 -4.1873498 9.0144796 12435922
0.97058398 -4.1264 8.7755804 12437204
0.984568 -4.1272502 8.7704601 12699863
0.98467499 -4.1272602 8.7706299 12699863
1.01131 -4.1114402 8.7604103 4934236
1.02767 -4.11132 8.7526999 3683137
1.03654 -4.0960398 8.7508698 3617085
1.05012 -4.0995202 8.7555704 2959661
1.0504301 -4.1037302 8.76015 2893867
1.15038 -4.1470699 8.8822603 3815746
1.22865 -4.0415702 8.7166996 12501200
1.17571 -4.15341 8.89785 3749439
0.980537 -4.11058 8.7725601 12634326
1.0044301 -4.09618 8.7653399 6711162
0.99454898 -4.1117101 8.7677898 11383234
0.994645 -4.1117201 8.7679501 11317441
1.01924 -4.0966001 8.7593203 3946568
1.14951 -4.13801 8.8986902 8487823
1.23616 -4.02566 8.71908 8224398
1.2008899 -4.2256899 9.0955095 2828328
0.99012297 -4.0952201 8.7705097 12436434
1.01477 -4.0802798 8.7625904 4078412
1.0299799 -4.0808301 8.7579098 3617343
1.21951 -4.0240502 8.7206402 11580611
1.2419 -4.0083599 8.7215796 3552323
1.32345 -4.06531 8.8488598 3551793
0.98258001 -4.0804601 8.7773504 12634070
0.998353 -4.0805998 8.7702503 9080223
1.0095 -4.06424 8.7644701 4671063
1.01335 -4.06217 8.7603397 4604756
1.02637 -4.0638499 8.7575102 3683136
1.10071 -4.0601802 8.7855902 3354415
1.2039 -4.0071001 8.7297897 9013913
1.22548 -4.00705 8.7225103 12172746
0.97938699 -4.0629001 8.7771797 12634327
0.967179 -4.0799799 8.7833595 12503254
1.01929 -4.0489898 8.7630796 3749188
1.2156399 -3.9907401 8.7252703 11843524
1.23233 -3.99189 8.7239599 8553364
1.3687299 -4.0417099 8.8875999 5262677
0.97289801 -4.0475702 8.7786703 12502998
0.98856401 -4.0477901 8.7754803 11975627
1.01217 -4.0341802 8.7694302 3946568
1.00217 -4.0492902 8.7716999 6250353
1.02563 -4.0355501 8.76544 3683136
1.17541 -3.9937999 8.7368202 2630443
1.2065901 -3.97737 8.7285299 10264233
1.2230099 -3.9772501 8.7285099 10395821
1.22834 -3.9848199 8.7434101 3223357
0.98009098 -4.0341301 8.7804203 12699863
0.99160099 -4.0367098 8.7805004 9343138
0.998402 -4.0328798 8.7736301 7566470
1.0072401 -4.04107 8.7891197 3485756
1.22989 -3.96451 8.7334805 4144453
0.97436303 -4.0184898 8.7847404 12568790
0.96648502 -4.0328202 8.7844801 12503254
0.96631801 -4.0328498 8.7810402 12503255
0.98743498 -4.0200901 8.7814102 11251648
0.99931097 -4.0285301 8.79006 3617863
1.03017 -4.0231299 8.79 2893868
1.0388 -4.0174899 8.7927399 2433573
0.97778398 -4.0064802 8.7892504 12436691
0.99780399 -4.00419 8.7792902 6447473
1.05222 -3.9526801 8.7034998 5921386
1.24936 -4.0518198 8.9924498 2499364
1.2599601 -4.0550299 9.0018597 3552050
0.96595401 -4.0050001 8.7918797 12371410
1.00765 -3.98944 8.7776203 3419963
1.20876 -4.03824 8.9860601 3946551
1.22878 -4.0416298 8.9883003 2894121
1.24463 -4.0347199 8.9969101 2959913
0.97339398 -3.9907999 8.7924995 12502484
0.96477902 -3.9874499 8.7899303 12437205
0.983464 -3.97526 8.78967 11449026
1.22237 -4.0149899 8.9727697 5657423
1.23965 -4.0213799 8.98209 4867909
1.25518 -4.0146699 8.9911404 4801859
1.30861 -4.0346799 9.0401497 5328993
0.96584398 -3.9758899 8.79743 12634326
1.00507 -3.9607699 8.8005695 4538698
0.97346598 -3.9612601 8.7968998 12633557
1.18573 -3.95717 8.8800297 4078135
1.31814 -4.0103102 9.0542002 12633556
0.96535301 -3.93084 8.7906103 12634069
1.08091 -3.93873 8.85641 3288620
1.0939 -3.9421501 8.8678904 3354414
1.32268 -3.9981501 9.0612402 12700118
1.32241 -4.0018902 9.0657196 12700118
1.0458 -3.9387 8.8611202 3288876
1.08524 -3.9573801 8.9398899 3223084
1.10452 -3.9584501 8.9479599 3157034
1.0223 -3.9280901 8.9052801 4604993
1.05446 -3.91976 8.8874998 4144442
1.09725 -3.9160199 8.8856697 4538942
1.09547 -3.9449 8.94487 4604734
1.30171 -3.91329 9.0675697 6052714
1.31946 -3.89574 9.0948296 12568534
1.32219 -3.8954401 9.0932302 12502998
1.28632 -3.8789501 9.0704298 4210245
1.31759 -3.8861699 9.1098604 12437461
1.27909 -3.87199 9.0912399 4144196
1.30504 -3.8722 9.1115999 12699607
1.2756 -3.8620801 9.1175003 3946821
1.3264199 -3.8436999 9.0989799 12568534
1.27008 -3.8348601 9.1100502 4143937
1.27795 -3.82287 9.1215696 3815490
1.31977 -3.8115599 9.11765 12568277
1.28434 -3.81038 9.1278601 4210251
1.27218 -3.8084199 9.12117 4012863
1.30162 -3.8104999 9.12502 11185339
1.33113 -3.79228 9.1151695 12634839
1.28853 -3.7985301 9.1386099 6250350
1.30275 -3.80037 9.1496897 12634069
1.27456 -3.78776 9.1430702 3881023
1.28978 -3.7890501 9.1526403 7500931
1.30111 -3.7902999 9.1668196 12699863
1.27846 -3.77514 9.1575899 3618111
1.29094 -3.7783699 9.1650105 9408929
1.32244 -3.7649901 9.1570702 12436948
0.88346201 -3.6928799 8.8243799 12437718
1.25275 -3.7839799 9.1794901 3946816
1.28266 -3.76508 9.1689396 4539474
1.3036799 -3.7638099 9.1634502 12369872
1.26377 -3.7642601 9.1763601 4012608
1.30865 -3.7489901 9.1663399 12633044
1.32912 -3.7478099 9.1596098 12502485
0.89193398 -3.6793799 8.8633499 4802650
1.2737 -3.74528 9.17484 4012867
1.29927 -3.7286899 9.1708803 6381936
1.3181601 -3.7325301 9.1697302 12699606
1.28306 -3.7262399 9.1734505 3815232
1.29829 -3.72681 9.1742897 6381935
1.32505 -3.7102201 9.1686096 12765143
1.29261 -3.70579 9.1746902 3617853
1.30573 -3.7095101 9.1764698 7237244
0.87259299 -3.6228001 8.8498201 6777210
1.28773 -3.6937001 9.1921902 3881023
1.30005 -3.6886201 9.1769505 3815233
1.2991101 -3.6987 9.1993103 7829381
1.31876 -3.69995 9.1909904 11054264
1.32796 -3.6843801 9.1883297 11580867
1.34304 -3.68624 9.1844597 12437205
1.30347 -3.6889701 9.2054501 8553361
0.84755802 -3.5952599 8.8322496 12568533
0.858307 -3.60145 8.8407297 11120061
1.29695 -3.66804 9.2087002 3486272
1.31401 -3.6697099 9.2032804 10329774
0.83627599 -3.5808201 8.8439503 12568789
0.85078698 -3.5852001 8.8474703 9738152
1.2744 -3.6677101 9.2176199 3881024
1.33728 -3.6502099 9.2012796 12568277
0.82086998 -3.5808001 8.8449802 12437461
0.85437399 -3.5750401 8.8621302 4802649
0.86789399 -3.57638 8.8663998 4341578
1.28607 -3.6501 9.2136297 4341574
1.30323 -3.65097 9.2129698 4210251
1.3255399 -3.6326599 9.2134304 12040650
1.34173 -3.63463 9.2089796 12502484
0.80812001 -3.56984 8.8587103 12502997
0.82684302 -3.56898 8.8544598 12107983
0.83792502 -3.5715699 8.8612299 9607079
0.84620899 -3.55829 8.8664904 4276304
0.85788399 -3.5636101 8.8724499 4144199
1.29799 -3.6323199 9.2089701 4275782
1.3096 -3.6334701 9.2182198 5986920
1.33611 -3.6134901 9.2115097 12106700
1.3552001 -3.6140201 9.20257 12699863
0.80352402 -3.54247 8.8444204 12437462
0.821738 -3.55443 8.8580303 12436949
0.81230301 -3.55176 8.8541899 12371412
0.83231097 -3.5570199 8.8634596 9014686
1.30531 -3.6189899 9.2127399 3815490
1.30862 -3.6235099 9.2326002 6250093
1.32715 -3.6170199 9.2273798 10724789
0.79999101 -3.5407801 8.8609695 12305875
0.81786197 -3.5393901 8.8608198 12239569
0.833202 -3.54298 8.8696404 4868955
0.841977 -3.55038 8.8875704 3881027
1.29932 -3.6054201 9.2376804 3881283
1.31659 -3.59938 9.2352505 6908278
1.33319 -3.6011901 9.2301502 10527921
1.33418 -3.5998399 9.2271099 11514816
1.35894 -3.5838499 9.2207298 12437461
0.79800498 -3.52548 8.85431 12371668
0.807621 -3.5274701 8.86485 12305362
0.83109599 -3.52718 8.8684397 4210768
0.82386601 -3.52683 8.8668604 6448501
1.27669 -3.60655 9.24928 4210242
1.29433 -3.5843 9.2337704 4012865
1.30838 -3.58711 9.2363997 3815746
1.32226 -3.58391 9.2397299 8027529
1.3437001 -3.5820799 9.2249603 10330798
1.33936 -3.5852799 9.2327404 11580867
0.79317898 -3.49949 8.8383102 12437460
0.79723001 -3.5102999 8.8542099 12371410
0.833839 -3.5167601 8.8798704 4407629
1.3015701 -3.5693901 9.2267199 4078659
1.30952 -3.5810001 9.2404699 4013126
1.33281 -3.5651 9.2347698 9014169
1.31916 -3.5689399 9.2304201 4078919
1.3351001 -3.5673101 9.2349501 10330286
1.3533 -3.56422 9.2225103 12699349
1.28892 -3.5745599 9.2521896 3881535
1.30346 -3.55846 9.2372799 4209989
1.34003 -3.5499301 9.2377501 10132651
1.3627 -3.54531 9.2214003 12633813
1.3114001 -3.55493 9.2564602 3947333
1.3595901 -3.5367401 9.2374697 12305105
1.30286 -3.5348699 9.2620897 3881282
1.32323 -3.5348699 9.2518196 4868437
1.3504 -3.5172501 9.2445002 11185853
1.3699 -3.51758 9.23524 12174288
1.32937 -3.5176499 9.2558298 6250347
1.31218 -3.50756 9.2506504 4144195
1.33781 -3.4994199 9.2564001 7039864
1.35142 -3.50264 9.2565498 11185853
1.31569 -3.50034 9.2693796 3552576
1.33236 -3.4791601 9.2599602 3881285
1.33786 -3.48596 9.2709904 7763332
1.35997 -3.4846699 9.25739 10791095
1.30318 -3.4881899 9.2788801 3618108
1.34961 -3.46608 9.26651 9606306
1.36551 -3.4681699 9.2626801 11581124
1.30301 -3.4693 9.2966805 4276038
1.329 -3.4663 9.2775497 4013128
1.35755 -3.4481599 9.2688704 10857144
1.37593 -3.4497299 9.2609797 11186622
1.31315 -3.4498 9.2935696 4012866
1.33139 -3.4509201 9.2874603 4276557
1.322 -3.43104 9.2922602 4407625
1.3454 -3.4296501 9.2782497 5395039
1.3331701 -3.41115 9.2877302 3749697
1.35544 -3.4103 9.2751703 7040121
1.37411 -3.4188199 9.2877703 12239569
1.34839 -3.39904 9.2982397 6579313
1.3401099 -3.3931401 9.2893896 3749695
1.35695 -3.3812699 9.2959604 7105913
1.37173 -3.3831999 9.2931099 9737887
1.38556 -3.3843701 9.2888002 12173519
1.31554 -3.38378 9.3183498 3354679
1.34067 -3.3812001 9.3008604 3683903
1.37931 -3.3678501 9.2910004 11054266
1.33193 -3.3617201 9.3025904 3223092
1.30916 -3.35883 9.3498697 3617595
1.29012 -3.3463299 9.4504004 4209987
1.3015 -3.3240099 9.4474001 3683642
-0.109879 -0.99924397 8.7350798 6448754
-0.119032 -0.99500197 8.7340403 10923194
-0.123398 -0.98110998 8.7434702 8685716
-0.12596899 -0.96675599 8.75144 6843252
-0.117676 -0.97201598 8.7557898 4342602
-0.117828 -0.97203702 8.7554798 4473932
-0.136867 -0.96190798 8.73878 11121086
-0.15682399 -0.935148 8.7245398 10726843
-0.14669999 -0.941724 8.7369299 10594743
-0.151691 -0.92568398 8.7366505 10528950
-0.143093 -0.93206102 8.7480803 8620437
1.26518 -0.19829699 7.7670898 3354669
1.27858 -0.202029 7.7769198 3157289
1.26493 -0.18615 7.7654901 4538942
1.27859 -0.18872 7.7664499 4867908
1.27747 -0.1666 7.7568102 4275771
1.2840199 -0.177681 7.7632799 4209721
1.04224 -0.175483 7.6884398 5460557
1.24066 -0.165117 7.73704 4078391
1.25199 -0.166462 7.7537599 3815219
1.25813 -0.156332 7.7562799 3354670
1.27066 -0.156335 7.75699 3486256
1.28388 -0.15580501 7.7522898 4275770
1.03615 -0.163335 7.6725602 5196872
1.24561 -0.156929 7.7606602 3157291
1.2832201 -0.143133 7.7462101 3683633
1.00128 -0.148865 7.6458402 4341821
0.988581 -0.15072501 7.6549501 4670529
1.0131 -0.146566 7.6493502 4671040
1.02362 -0.142341 7.65623 4539197
1.03034 -0.15176401 7.6680002 5131335
1.29287 -0.13075501 7.7346201 4012340
1.01428 -0.13341901 7.6746202 4802369
0.99635899 -0.122687 7.6715698 4736576
1.00942 -0.122662 7.6744699 4407609
1.02136 -0.122619 7.6711702 4341559
1.2479399 -0.110269 7.74929 2959909
0.94602603 -0.115494 7.6441302 3486512
0.96475703 -0.105768 7.6508498 4407615
0.95932198 -0.116395 7.6505799 3157290
0.978091 -0.111556 7.6535001 3552048
0.98742098 -0.105221 7.65938 4604992
1.00413 -0.111839 7.6712599 4012339
0.95934999 -0.094797701 7.64749 2762790
0.97081 -0.094801798 7.6530099 2696997
0.98218101 -0.0947944 7.65873 3157291
0.99552298 -0.094959296 7.6624599 3420719
1.01165 -0.101658 7.6728301 5525836
0.919985 -0.086102597 7.6389198 3420722
0.96018797 -0.0817912 7.6370902 3749687
0.97698599 -0.0836135 7.6533098 3946809
0.985753 -0.083084904 7.6606102 3355186
0.99876302 -0.0827557 7.6583099 3947065
1.02174 -0.077963397 7.6497502 4012602
1.01133 -0.088462397 7.6609201 3815222
1.00871 -0.086942099 7.6596398 4012600
1.07499 -0.080382802 7.6725202 3749429
1.20482 -0.075373501 7.6977701 3881015
0.84069598 -0.080251202 7.6269798 4276032
0.85104901 -0.0794641 7.6200299 3881530
0.88944298 -0.074734502 7.6208501 4276032
0.90085101 -0.074844398 7.6269798 4407874
0.91196603 -0.074755199 7.63165 4012860
0.93258899 -0.074046001 7.63515 3289394
0.922723 -0.074782401 7.6371799 3552565
0.94302201 -0.078719199 7.6500902 3354930
0.954364 -0.072950304 7.64923 4276032
0.968669 -0.070766702 7.6365099 4144446
0.98376697 -0.075948402 7.6477199 3947066
0.98854899 -0.074572302 7.6574702 4144446
0.99990201 -0.070758402 7.6566601 4341824
0.99363399 -0.072737597 7.6599698 4210239
1.02326 -0.06583 7.6412902 4342081
1.0231 -0.066633798 7.64779 4407874
1.0112 -0.075789101 7.6521702 3749944
1.0368 -0.066541798 7.6519799 4341825
1.05011 -0.066690497 7.6546898 4539203
1.07043 -0.072570302 7.6754298 3947323
1.08921 -0.065529697 7.6823201 4013116
1.09589 -0.064226203 7.68255 4407616
1.10746 -0.0648847 7.6907301 3947322
1.1206599 -0.064258002 7.6866202 3683893
1.13369 -0.063226603 7.6788702 4604994
1.14493 -0.063368298 7.6853299 4342080
1.15781 -0.063209102 7.6862998 4276288
1.1702501 -0.064458899 7.6979599 4933961
1.18415 -0.058378302 7.6992102 4671046
1.21474 -0.0629398 7.7055702 3947323
1.23534 -0.058625799 7.7125602 4144959
1.25094 -0.051105 7.70151 3947324
1.2680399 -0.050051399 7.7048202 3881788
1.29778 -0.054801598 7.7091398 3881531
0.84529102 -0.069677003 7.6229601 4604996
0.87022901 -0.066897303 7.62637 4342082
0.89449197 -0.064327598 7.6331301 4276288
0.904441 -0.063622303 7.6317 4539460
0.92486203 -0.062606297 7.6258402 4079166
0.91378498 -0.062693402 7.6280799 4473667
0.91483802 -0.063239202 7.6268902 4408131
0.96393299 -0.060056999 7.6329598 4210496
0.986206 -0.061976802 7.6532001 4802377
0.98859298 -0.061717901 7.64887 4736840
1.0364701 -0.061427999 7.6510801 4407874
1.06121 -0.049219899 7.65593 4342082
1.06573 -0.047100902 7.6487899 4473669
1.06621 -0.0602764 7.6614399 4078909
1.07864 -0.055764601 7.6622701 3618615
1.0725501 -0.060749199 7.6725798 3750201
1.1602401 -0.0525801 7.67875 4473667
1.17032 -0.051416799 7.6863098 4605254
1.20336 -0.042349 7.6390901 4342338
1.20214 -0.0524766 7.6938701 4144959
1.22015 -0.051770501 7.6996799 4144703
1.21983 -0.039760102 7.69628 4342082
1.23528 -0.0458108 7.7021699 3947581
1.2515 -0.041515298 7.6994901 4210496
1.28411 -0.0467689 7.7105498 3750201
1.29767 -0.042095698 7.7041898 4144960
0.86231101 -0.058119498 7.6118102 4671047
0.87099701 -0.052124001 7.6175399 4671047
0.88335001 -0.051977899 7.6235099 4868425
0.918477 -0.051621702 7.61832 4407875
1.03396 -0.038708001 7.6358099 4078910
1.07454 -0.036412202 7.6469998 3815482
1.11062 -0.041147701 7.6571498 4473667
1.20339 -0.029130301 7.62994 4144960
1.21624 -0.028730899 7.6314502 4210753
1.23563 -0.0311861 7.6782398 4539717
1.24823 -0.030561 7.6833801 4079166
1.28224 -0.033307001 7.7079 4079166
1.29486 -0.0313899 7.7063098 4210751
0.96730697 0.00302084 7.3109398 4473669
0.94053698 -0.039599702 7.6224298 4342338
0.95255297 -0.040633 7.6317401 4342339
0.96548003 -0.040173501 7.6280599 4407875
1.07596 -0.00846818 7.49435 4539205
1.09071 -0.0080742901 7.4997702 4539205
1.0850101 -0.0058149002 7.5015202 4342082
1.10673 -0.0082812896 7.5047998 4605253
1.12183 -0.0089982096 7.5099502 4671046
1.13638 -0.0080957199 7.5262599 4670788
1.1474 -0.0058037201 7.5328302 4933960
1.1589 -0.0141475 7.58251 4736837
1.21483 -0.0167454 7.6252198 4803146
1.22756 -0.0171951 7.6244402 4605511
1.25015 -0.00138472 7.5915098 4079166
1.25843 -0.01089 7.6317801 4210752
1.2722501 -0.0191542 7.68468 4211009
1.7694401 -0.0178023 8.1226397 4670789
0.78724802 0.0072108698 7.2488999 7303540
0.80993903 0.0063339099 7.2466002 6118750
0.81663102 0.0023111601 7.2578101 6644836
0.833731 0.0102567 7.2523999 7434611
0.949022 0.010626 7.2803898 4802632
0.95148802 0.0143152 7.3039198 4408131
0.953825 0.0083175404 7.3166599 4210497
0.963691 0.0134835 7.3224401 4276546
0.97678399 0.0073561398 7.3453698 4605510
0.98348403 0.0037706599 7.3511 4539461
0.99529302 0.0140602 7.34618 4144960
1.00002 0.0124422 7.38204 4078910
1.02038 0.0131562 7.3917499 3618614
1.0122 0.0014871299 7.3985801 4473924
1.0244401 0.0019942001 7.3997402 4342338
1.02075 0.00119222 7.4009299 4408131
1.03149 0.00145995 7.40488 4210752
1.03113 0.0114784 7.41259 3684406
1.04106 0.0022954501 7.42419 4342338
1.0527 0.00312893 7.4408998 4473925
1.06293 0.0021556001 7.4566498 4539718
1.06566 -0.00029018801 7.48175 4605254
1.07513 -0.00301093 7.4916601 4473412
1.08453 0.0059205401 7.4989901 4144446
1.08708 -0.00036869 7.4921398 4342082
1.11203 0.00108011 7.5084701 4539460
1.12287 0.00134778 7.5190601 4605253
1.14004 0.00487058 7.5167699 4013115
1.13125 0.0019871499 7.5180802 4407873
1.15364 0.0068103098 7.5463901 3486770
1.1649801 0.0069016302 7.5430598 3421234
1.159 -0.00316274 7.5431099 5065803
1.16982 0.0087575903 7.55235 3026476
1.16777 -0.00162884 7.5545702 5000010
1.20766 -0.0038098299 7.6093001 4671303
1.21999 -0.0053833998 7.6187201 4605510
1.75516 -0.0122769 8.1290998 4342080
1.77223 -0.00993565 8.1439896 4407617
1.7878799 -0.0077554998 8.1620302 3684150
1.81315 -0.0036407199 8.1819801 4144445
1.84506 -0.0055651302 8.1672497 4407874
0.76029599 0.01633 7.2533898 3092012
0.794236 0.016212801 7.25701 4803147
0.80541199 0.0162104 7.2564902 4605511
0.81530398 0.016826401 7.24296 6053215
0.84940797 0.017712601 7.2495999 5395026
0.87460202 0.019956199 7.2361999 3749686
0.88529801 0.0202663 7.2393198 3552307
0.88492101 0.022524999 7.2644901 4868940
0.95885199 0.020025 7.3124199 3749945
0.969078 0.0221167 7.3306799 3158064
0.97613198 0.018951001 7.3414798 3289650
0.98504502 0.0153981 7.3502798 3947580
0.99481702 0.0215255 7.37639 2960428
1.0088 0.0129121 7.3885498 3815993
1.01693 0.0255618 7.38661 2302754
1.04099 0.0132144 7.43261 3026220
1.05075 0.0120879 7.4573302 3092014
1.06879 0.0152385 7.4584899 2631719
1.07888 0.0184312 7.4987001 2236961
1.08881 0.0144505 7.5086999 2434084
1.10173 0.0139519 7.5211101 2434083
1.12226 0.0125246 7.5208998 2499620
1.1305799 0.0131688 7.51968 2499620
1.14022 0.0133199 7.5248599 2763048
1.17136 0.017303299 7.5436001 2631461
1.21118 0.0091556003 7.5897198 3158062
1.20688 0.019064801 7.5913601 2763304
1.22922 0.019815 7.5974998 2697255
1.70495 0.0087993899 8.0766602 2170911
1.75226 0.0055953902 8.1420803 2302497
1.75226 0.0055953902 8.1420803 2302497
1.82911 0.0011281 8.1904097 3289649
0.77415299 0.026671801 7.2558599 3026219
0.87036097 0.030879 7.22716 5000012
0.916915 0.027417799 7.31214 2960427
0.94435799 0.0327962 7.2983699 3092013
0.96032399 0.030327501 7.30477 2828842
0.97153199 0.0333241 7.3231001 2631462
0.97265798 0.031123601 7.3406401 2763049
1.02916 0.0305146 7.38556 2368290
1.02885 0.0307623 7.4011798 2368547
1.03909 0.034574699 7.3916502 2236962
1.09503 0.025066599 7.4939198 2434083
1.10876 0.0229764 7.5230498 2236705
1.12174 0.023146 7.5314598 2302498
1.13983 0.031555001 7.54213 2697254
1.13506 0.021540301 7.5377402 3223342
1.1515599 0.031467199 7.5474 2828584
1.1983 0.032143399 7.5795698 2762790
1.19235 0.018228199 7.6100302 3420977
1.21018 0.0293345 7.6022501 2763047
1.22322 0.029503699 7.59587 2631462
1.2567199 0.028230799 7.60042 2763304
1.65808 0.0138475 8.0174398 2434081
1.68128 0.021769799 8.0673103 2434082
1.69732 0.016055999 8.0808001 2631462
1.71182 0.0109154 8.0967703 2302497
1.71617 0.0222391 8.1005402 2433828
0.804672 0.036987498 7.2460198 4737096
0.81303698 0.047522102 7.2389998 4803145
0.81573701 0.037014201 7.2466502 4868682
0.840909 0.0380136 7.2467399 3223597
0.99553299 0.051007401 7.3228002 2171167
1.01191 0.0436786 7.3617802 3092014
1.02144 0.043065999 7.3544598 2434339
1.11341 0.033849001 7.5352001 2565669
1.13324 0.04157 7.5427098 1710360
1.1993001 0.047920901 7.5396099 1512724
1.21339 0.0398537 7.5816998 2302496
1.21507 0.041418102 7.5971699 1841945
1.23531 0.043875601 7.6043901 1447188
1.22751 0.041157 7.5959201 1841946
1.25462 0.0379497 7.6196198 2170911
1.2490799 0.042780999 7.6174898 1578774
1.26043 0.0439739 7.6341901 1381395
1.42428 0.0280168 7.8229499 2631463
1.80829 0.023374701 8.2383204 2236705
0.80259502 0.050035499 7.2335 4474181
0.81532902 0.055288199 7.2544599 3947580
0.98386401 0.061417099 7.3029399 1710360
1.0052299 0.062118299 7.3144898 1776153
1.03098 0.072389998 7.28758 2434084
1.01126 0.0560458 7.33987 1644568
1.0213799 0.055091701 7.3473101 1578775
1.02279 0.061151002 7.32692 1578774
1.0347 0.057151899 7.3824601 1578774
1.0487601 0.055503 7.3970599 1381394
1.06362 0.0596825 7.3930802 1644566
1.0935301 0.054661401 7.4261498 1381395
1.08927 0.0632651 7.42347 2104861
1.09382 0.0489095 7.4728298 1184272
1.09817 0.047067199 7.4974198 1183760
1.1848201 0.0546376 7.5101399 1052429
1.1934201 0.054168601 7.5250602 1184016
1.2056299 0.054944899 7.5192099 1446931
1.25015 0.050714299 7.6145701 1315602
1.25386 0.058508601 7.6115298 1841946
1.25386 0.058508601 7.6115298 1841946
1.26378 0.055373002 7.63064 1775896
0.96070498 0.073755503 7.30301 3684154
0.97717798 0.071411803 7.3016 2763050
0.99060798 0.0717021 7.3025599 2763047
0.999771 0.070436403 7.3104901 2565413
1.01293 0.070630401 7.3062401 2434084
1.02106 0.082709998 7.2891502 3157294
1.01206 0.070808597 7.30651 2565670
1.04175 0.063776404 7.39604 2236704
1.05458 0.067307897 7.3970098 2434083
1.04945 0.076162502 7.3914499 2894378
1.0893101 0.076197602 7.4099002 3091756
1.09803 0.062637597 7.44699 2105118
1.1096801 0.073380597 7.4447799 2565412
1.11139 0.065501601 7.47258 2170911
1.17009 0.066422798 7.4990301 2039324
1.18313 0.066341802 7.50175 1907738
1.19965 0.064927697 7.5212498 2170910
1.26385 0.0593266 7.6271801 2039324
1.27421 0.065659396 7.6317 2565411
1.28475 0.066717699 7.6379099 2565411
4.4316201 0.35089201 7.27986 9082275
4.5160599 0.30494899 7.8245301 9410472
4.5229502 0.30361301 7.8343301 9410472
4.5336299 0.30322 7.8422198 9344936
0.99984801 0.079776399 7.3169899 3420721
1.0251 0.078822002 7.36869 3354928
1.03513 0.080849797 7.3796201 3552051
1.04922 0.088249996 7.3836398 2959914
1.06015 0.079036899 7.3975301 3091756
1.07607 0.078023203 7.4004798 3091756
1.1545 0.075034097 7.4953699 2565669
4.1437802 0.292759 7.7176099 10660792
4.28862 0.31954101 7.5666599 9279399
4.3250899 0.30661699 7.7297502 9805485
4.3880901 0.33001599 7.5609398 8752798
4.43818 0.36414999 7.2624102 8555932
4.53264 0.32575101 7.70123 9147813
1.04331 0.097243503 7.3761201 2499363
3.9470899 0.31202 7.5089998 10134449
3.9865 0.31486499 7.4547801 9871535
4.25385 0.32727 7.5883899 9410984
4.2775002 0.33243501 7.5846 9279142
3.95281 0.32063299 7.4931302 10003120
3.9535799 0.319437 7.4920402 10331828
4.2666502 0.33205801 7.5830102 9476521
1.4196 0.121355 7.8278899 2960169
1.4147201 0.14032599 7.8393698 2894634
4.0197701 0.396952 7.4492602 9148069
4.18435 0.384444 7.7290401 9147556
4.2009501 0.38331401 7.7143302 9476521
4.2170701 0.384949 7.6957898 9213349
3.7716 0.38884801 7.4958801 9739436
3.6018701 0.38435 7.65868 10332083
4.1309299 0.43120801 7.55058 8950434
4.1405902 0.408555 7.8293099 9016227
4.1480799 0.414965 7.7839899 9082021
4.1433301 0.40590501 7.8228998 9213606
4.2932601 0.45417801 7.3179698 8292760
4.2990599 0.458345 7.3291898 8292504
3.58656 0.39562899 7.6547899 10792122
3.8081501 0.404982 7.68186 10331827
3.8556199 0.412918 7.6354799 9739691
4.0574999 0.40770599 7.94521 9345192
4.1293402 0.41776001 7.7927799 8950178
4.1861 0.42567801 7.7392302 8819103
4.2980399 0.467646 7.3023701 8489881
3.5663199 0.39779001 7.6557899 10068656
3.58478 0.40715501 7.6319299 10199985
3.67805 0.42124099 7.5111799 10134192
3.87023 0.42446601 7.6217799 9476776
3.9030499 0.42607901 7.6391802 9608106
4.0732899 0.41612801 7.9362001 9739693
4.1034598 0.41824701 7.8989601 9673900
4.0985198 0.41655499 7.8859701 9673900
4.2109199 0.46397299 7.4219799 8753055
3.5750401 0.409298 7.6447201 10397364
3.56546 0.41143301 7.6578898 9739691
3.6705201 0.43172801 7.5385098 10397107
3.68995 0.42942601 7.5311699 9279398
3.7107601 0.43088901 7.52211 9937326
3.7195301 0.43952799 7.5018001 9674154
3.7183599 0.42917299 7.5173302 9805483
3.8220501 0.434057 7.6729298 9542570
4.0548701 0.43187201 7.9233198 9147813
4.07513 0.42768899 7.9128399 9542571
4.1019301 0.43067899 7.8798099 9082021
4.1154799 0.44013599 7.83915 8752542
4.2045002 0.47916999 7.4348302 8884383
4.2546401 0.482068 7.3854299 8752799
3.61129 0.42579499 7.5911498 9871277
3.6740201 0.443849 7.5205598 9476521
3.8309 0.43561199 7.67485 9410983
3.8598299 0.44735399 7.6230001 9608363
4.05899 0.43217999 7.9331899 9147813
4.0638599 0.442628 7.9264002 9082020
4.0769601 0.43773901 7.9172902 9476777
4.0936599 0.446731 7.8797898 9147813
4.1862702 0.48042101 7.4542899 8621469
4.2169299 0.48090199 7.4356499 9015971
4.4837298 0.53794199 7.3836398 8423577
4.48104 0.54210901 7.3427401 7898002
3.9459901 0.48443201 7.8836398 8753309
3.9442899 0.47411701 7.9040098 8424346
4.0129299 0.518731 7.42452 8489884
4.2492099 0.53528702 7.4084501 8226968
4.48561 0.55030799 7.3852601 7831953
4.4966302 0.55091101 7.3812099 7831953
3.8896599 0.51576698 7.5111299 8753055
3.95158 0.48567101 7.8935199 8687517
4.3400402 0.530406 7.7452698 8489883
4.3519201 0.52811003 7.7395802 8161175
4.3635001 0.55271 7.3812199 7766159
4.4293599 0.55113 7.4541602 8095125
3.83935 0.525141 7.3921399 8555932
3.83092 0.507797 7.6470599 9411240
3.84969 0.53016102 7.38942 8621982
3.8492601 0.53165799 7.3630199 8621726
3.8507099 0.50991398 7.6480398 8687517
3.85811 0.53027898 7.4035501 8226968
3.8559999 0.53218001 7.3898602 8884641
3.86584 0.52954 7.4040899 8753312
3.87708 0.52961898 7.4140801 9016483
3.88695 0.52046299 7.4825301 8358553
3.8928399 0.52623498 7.4625902 9279398
3.89838 0.52954102 7.4232101 8753055
3.9404099 0.50180399 7.89011 8687262
3.93922 0.50280797 7.89571 9345448
3.9696901 0.50402302 7.8703499 8490395
4.3214998 0.55806202 7.3824801 8095380
4.3689899 0.56339902 7.3826299 7371657
4.37427 0.566661 7.3980098 7305865
4.4249802 0.56323999 7.4493098 7503244
4.4302902 0.56199998 7.43642 7503244
4.4619098 0.56779599 7.4214702 7700623
3.5751801 0.49997401 7.73 8095380
3.6106701 0.49783599 7.7800102 8555932
3.61851 0.50242102 7.7882099 8358553
3.8246601 0.51901698 7.6466799 8226967
3.8580799 0.53552002 7.3612499 7898003
3.8657801 0.53502798 7.3755598 8424346
3.87691 0.53568101 7.3990402 8292503
3.8761799 0.53538001 7.3852701 8095124
3.93312 0.54137999 7.4295602 7306121
3.9649301 0.533369 7.5115099 8029589
4.3273802 0.57138503 7.3847899 7634829
3.60888 0.51501101 7.7553401 7898002
3.61782 0.51107198 7.7783098 8292758
3.62602 0.50711298 7.7971001 8226966
3.92624 0.51547301 7.91851 8884897
4.1742401 0.555749 7.5602002 7503245
4.18818 0.562657 7.5199199 7634830
4.2220001 0.53657597 8.0721102 8490139
4.2384901 0.55142301 7.7624002 7832209
4.2732301 0.56697798 7.6062799 8029587
4.2706399 0.568102 7.6082301 7700622
4.2829299 0.56829703 7.6096601 7634574
4.3261199 0.58280301 7.3798299 7898002
4.2200799 0.56521899 7.76758 7569037
4.2895899 0.57390499 7.5728898 7502987
4.37672 0.589656 7.5433798 7107973
4.4057798 0.58990502 7.5144501 7437451
4.2295399 0.57193297 7.71738 7634830
4.3502598 0.59978002 7.5345702 6845570
4.3821402 0.60165602 7.5399399 6845314
4.3945298 0.59384102 7.51933 7371402
4.3575802 0.600981 7.5401301 6845313
4.3703098 0.60151601 7.5457602 6581885
4.3822999 0.61123502 7.51648 6318969
3.7300999 0.57151198 8.0657797 7503499
3.7141099 0.57937002 7.9818401 7634830
3.7258401 0.57985097 7.98631 7963795
3.7258 0.58821702 7.9749799 7569038
3.7464499 0.58187699 8.0040998 8095381
3.73737 0.57996303 7.9952698 7963796
3.7364399 0.58752298 7.9981799 8029333
3.75109 0.58269203 8.0569897 7963795
3.76141 0.583588 8.0534496 7963794
3.7860799 0.58801299 8.0402899 7371658
3.7959199 0.59121901 8.0374298 7371657
3.7967 0.59394503 7.9613099 7437452
3.72492 0.59579998 7.9767199 7569036
3.7144101 0.59566498 7.9823499 7634575
3.74526 0.59025198 8.0072498 7569039
3.7453899 0.59985501 7.9892101 7832209
3.7364199 0.59601003 7.9858098 7502989
3.75423 0.59204501 8.0180998 7568782
3.7546999 0.60196501 7.9939699 7437453
3.77268 0.59381098 8.0392504 7832209
3.78315 0.59424102 8.0334997 7569036
3.7934401 0.59452599 8.0304604 7305865
3.79636 0.60236502 7.9643002 7832210
3.80619 0.59490001 8.0259399 7306121
3.80597 0.60309601 8.0177603 7240328
3.8181701 0.60290498 8.0232401 6581884
3.76455 0.60458499 7.98946 7437196
3.7848401 0.60365301 8.0223398 7108743
3.7935801 0.614411 7.99684 7898003
3.7966399 0.611444 7.9558702 8226967
-0.78062499 0.972826 7.9985299 8423572
-1.07945 0.986022 7.8905101 9279138
-1.05032 0.980506 7.9567199 9279136
-1.03635 0.98080099 7.96488 8884377
-1.01253 0.987225 7.9906502 8949913
-1.01359 0.98975801 8.0138302 8949914
-0.958112 0.99373901 7.9764099 9081759
-0.98586202 0.98791301 8.0182104 9213345
-0.971421 0.98802 8.03374 9213601
-0.92686498 0.99180597 8.0035 9410723
-0.95533597 0.98777503 8.0477695 9213344
-0.91987401 0.98821199 8.0258799 9016221
-0.85468203 0.99083102 7.9965801 9147553
-0.85416299 0.98764199 7.9809198 8358289
-0.798751 0.990964 7.99471 8226706
-1.06874 0.995704 7.8688502 8687001
-1.02818 1.0009 7.9320598 8950688
-0.95561397 1.0029401 7.9576001 8094864
-0.93123502 1.0053 7.9191799 8687003
-0.86814499 1.01083 7.9718099 8424343
-0.84789002 1.00009 7.9822502 7831945
-0.836321 1.00063 7.9865899 7765895
-1.0448999 1.00714 7.8310199 8424085
-0.99266601 1.01051 7.75454 8687260
-0.98913801 1.00968 7.7638798 8160655
-1.0407701 1.00484 7.8543701 8358034
-0.98849899 1.00955 7.7632999 8160655
-0.95247197 1.01458 7.7407198 8489881
-0.90005797 1.01179 7.7218299 8358294
-0.86109 1.0137399 7.98664 7832205
-1.23221 1.0158401 7.8294702 7634312
-1.87752 1.0008301 7.59238 9739433
-1.85909 1.00661 7.5612798 9542054
-1.85755 1.01598 7.5781102 9213089
-1.04778 1.02581 6.89292 8423830
-1.04726 1.03152 6.8701501 7831950
-1.0311199 1.04333 6.89784 7502985
-1.1358401 1.11149 7.3524599 7832208
-1.13243 1.11387 7.3651099 7766158
-0.85049802 1.15815 7.3340802 6713719
1.1923 1.56427 7.9521999 2302239
1.17424 1.57459 7.9520001 2828325
1.18633 1.57491 7.9541101 3091755
1.2315 1.6260999 7.9759102 2828327
1.14008 1.63441 7.9414501 2828324
1.08938 1.64747 7.9470601 2498845
1.10374 1.6461999 7.9332099 2630430
1.11396 1.64678 7.9366202 2367516
1.1391 1.64745 7.9390001 2499102
1.15721 1.63841 7.9401598 3025447
1.18741 1.64082 7.9590702 3091755
1.18169 1.65082 7.9537201 2696997
1.19867 1.64063 7.9633698 3618100
1.209 1.64496 7.9678602 3683893
1.2316 1.64726 7.9726701 3223599
1.0842299 1.65844 7.94381 2630174
1.10726 1.65742 7.9344902 3551532
1.09688 1.65678 7.9310398 3288360
1.11903 1.65757 7.93257 3683374
1.1334 1.65739 7.9296799 3157032
1.15757 1.65817 7.93681 2696482
1.145 1.65835 7.9426098 2564639
1.16919 1.64994 7.9421201 2433825
1.17055 1.66216 7.94945 3354670
1.18322 1.6626199 7.9565401 2565411
1.21304 1.65754 7.9674802 1973531
1.1125 1.66816 7.9298401 3814705
1.12368 1.66848 7.9299502 3946290
1.13879 1.66935 7.94455 3025447
1.1513 1.66925 7.9460402 3222826
1.16197 1.66951 7.94245 3617840
1.21917 1.6688 7.9725499 3355184
1.25442 1.6701699 7.9863 2894633
1.17067 1.67659 7.9533501 4078649
1.22945 1.6898201 7.97787 2960169
1.23699 1.68057 7.9792399 3354927
1.12843 1.69275 7.9388299 3157288
1.20547 1.6924 7.96034 2631461
1.21578 1.7126499 7.9909101 3682607
1.20389 1.70824 7.9955902 3879986
1.2157 1.7246799 7.9852901 3748401
0.87246603 1.80553 7.89991 2630432
0.85390902 1.81546 7.8775201 2696482
0.87858403 1.81487 7.8859401 2367260
0.86030102 1.8255301 7.8748398 3354411
0.87340301 1.8251801 7.8724999 3288105
0.88504201 1.82532 7.8720798 2432540
1.48577 1.86306 8.1295605 3091497
1.4980201 1.86269 8.1222801 3486255
0.86613101 1.83603 7.8753901 3683119
0.87257898 1.84598 7.8709302 3354154
0.886563 1.8452899 7.8646998 2301210
0.87954003 1.8354 7.8691201 2761761
0.84095401 1.8576 7.87708 3945774
0.87870002 1.85618 7.86935 2564638
1.37945 1.88679 8.0843296 2301984
0.83648098 1.8681 7.8741298 3353639
0.84860998 1.86798 7.8768201 3683375
0.85972399 1.86861 7.8819199 3419946
0.87590897 1.86735 7.87011 2696224
1.36094 1.89797 8.0808697 3354669
1.37342 1.89805 8.0848198 3289134
0.83058 1.87886 7.8722801 3024675
0.84281498 1.8787 7.87465 3485738
0.85475397 1.87885 7.8800001 3551789
0.86893398 1.87827 7.8744302 2959395
0.83314002 1.89036 7.8751898 2893345
0.86248398 1.88907 7.8772202 3223081
1.25328 1.91337 8.0015802 2565668
0.82539099 1.90108 7.8740501 2104346
0.83684099 1.90148 7.8738499 2367774
0.86959898 1.90021 7.8780298 2762275
1.24805 1.92409 7.9972301 2039324
1.24738 1.92409 7.9993601 2039068
1.25949 1.9241 8.0027599 1907739
0.83546799 1.91396 7.86865 1841688
0.84844899 1.91404 7.8636098 2104603
1.24446 1.9349999 7.9932399 3090471
0.84836698 1.926 7.8541899 1841688
1.5008301 1.96763 8.1311703 2696741
1.1866601 1.9742 7.9920402 3420976
1.45634 2.0081201 8.1483698 3091755
1.65532 2.0241899 8.2438202 3486253
1.44823 2.0188501 8.1460896 3025706
1.23204 2.03386 8.0153103 3552563
1.24494 2.03865 8.0268898 2828840
1.20906 2.0424399 8.0093803 2893092
1.22593 2.04491 8.0121403 2761506
1.34492 2.1021299 8.1016197 2894373
1.1768399 2.1094601 8.0115099 3222824
1.19829 2.09988 8.0241098 4012085
1.36239 2.1187 8.10849 3091755
1.18348 2.10969 8.0037804 3157032
1.2047 2.11058 8.0153399 2959397
1.46514 2.1283901 8.1319799 1710358
1.06995 2.11992 7.94204 2696483
1.04294 2.1214001 7.9842 2630687
1.08261 2.1194301 7.9365902 2367774
1.09618 2.1192801 7.93396 2762017
1.03695 2.1315701 7.9812298 2762274
1.06551 2.1322601 7.9513698 2696741
1.07567 2.1301501 7.9380999 3420206
1.09039 2.13115 7.9418402 3288620
1.11525 2.13693 7.9593 3223339
1.0308501 2.14204 7.9802299 2762277
1.0708899 2.1421599 7.9455099 3157292
1.10396 2.1396999 7.9548602 3486511
1.09424 2.1447401 7.9576602 3420976
1.14987 2.1533201 7.9969902 2631202
1.22355 2.1573501 8.0274801 1775893
1.23554 2.15769 8.0333004 2104602
1.27315 2.15554 8.04988 2564642
1.00021 2.1549399 7.9468098 2697255
1.06475 2.15289 7.9460902 2565413
1.07683 2.15277 7.9435701 3420978
1.0772099 2.15257 7.9429202 3420978
1.2410001 2.16922 8.0389099 2828581
1.04202 2.1738501 7.95854 3486256
1.18521 2.18327 8.0192299 2761505
1.22559 2.1751201 8.0266895 2697252
1.23603 2.17975 8.0335503 3289133
1.24742 2.1808801 8.0452604 3683890
1.2598701 2.1772699 8.05019 2960168
1.2860301 2.18277 8.0712004 3354926
1.16952 2.19245 8 3223340
1.17641 2.18258 8.0077801 2564126
1.23867 2.1928599 8.05126 2762531
1.26131 2.19017 8.0549402 2828581
1.07488 2.1947899 7.9665699 2960427
1.08258 2.1942999 7.9909601 3617843
1.10288 2.19679 7.9805198 3683893
1.10517 2.2007999 8.0110302 3749941
1.14644 2.19594 7.9993 3289133
1.47938 2.21984 8.1443701 3486253
1.0136499 2.2070701 7.9619002 2629920
1.0752 2.2112601 7.9748702 2499619
1.08898 2.20612 7.9943199 3420721
1.13787 2.20824 7.9868202 2960168
1.4406199 2.29897 8.1690798 1841943
1.46452 2.2987299 8.1535797 3223339
1.44602 2.3092 8.1585598 1907481
1.207 2.3072 8.0375099 2301982
1.2340699 2.29691 8.0299501 2960169
1.2463 2.2971399 8.02701 2960426
1.4514 2.3198299 8.1504898 2302238
1.20336 2.31727 8.0275497 2762789
1.2136199 2.3182399 8.0384998 2828582
1.2259001 2.3166599 8.0283098 3091496
1.49037 2.33533 8.1502399 3617842
1.19791 2.32762 8.0240602 3486512
1.21547 2.3252399 8.02843 3749683
1.23086 2.31846 8.0217695 3486254
1.24807 2.3394699 8.0572205 2894118
1.2361799 2.35724 8.0569096 2960170
1.32108 2.39188 8.1182299 3354671
1.34802 2.38502 8.1352196 2170653
1.32925 2.4018099 8.1128798 3683892
1.33713 2.40554 8.1266298 3749942
1.34093 2.4209499 8.1243896 2828583
1.4207 2.5183001 8.1763 2368031
1.4461 2.5160401 8.1571198 2434081
1.43993 2.5281401 8.1621103 3289134
1.4446599 2.52736 8.1575098 3420976
1.45746 2.5288501 8.1612797 3552305
1.30595 2.6876099 8.1356096 2828325
1.3173 2.68856 8.1451197 3289133
1.40676 2.70012 8.1946497 2104859
1.38358 2.7152801 8.1933603 2367775
1.40058 2.7120199 8.1976995 2565153
1.39081 2.7256601 8.1976404 2302238
1.3173701 2.7855301 8.1656399 2433824
1.34345 2.7839799 8.1871204 2696740
1.34352 2.78372 8.1867304 2696740
1.31291 2.79864 8.1628504 3486511
1.41598 2.85058 8.1918001 2959911
1.42374 2.94908 8.1903095 2565411
1.43145 2.9591501 8.2020502 2762533
1.42839 2.9736199 8.2041197 2236188
1.4414901 2.9716301 8.1958799 2301981
1.13165 3.0290799 8.0964298 3354927
1.28605 3.0570099 8.17383 2302241
1.19372 3.0697 8.1087103 2762789
1.23952 3.09975 8.1335697 3157292
1.21723 3.1015799 8.10289 3091756
1.14772 3.10428 8.0499001 2894376
1.15678 3.10711 8.0600796 3025705
1.21139 3.1143 8.1038504 3223084
1.21531 3.1124499 8.092 2828584
1.2237 3.1143701 8.1093702 3025963
1.0578001 3.1141801 8.0340004 2828324
1.1515 3.1162901 8.0500803 2499362
1.16436 3.11709 8.0557003 2302239
1.2921799 3.1380401 8.1547403 3092013
1.34496 3.1452401 8.19841 3354928
0.99901801 3.1224201 8.0197201 3683892
1.0161099 3.11936 8.0083799 3486257
1.04562 3.11816 8.02876 2894376
1.05739 3.12537 8.0265598 3881012
1.07139 3.1197801 8.0255098 3223084
1.11631 3.12378 8.0416899 3486514
1.12922 3.1233699 8.0431499 3618100
1.13753 3.1194699 8.0432596 2630950
1.1519901 3.12815 8.0425997 3486513
1.17637 3.12744 8.0568304 3815480
1.3032 3.14555 8.1528902 3420722
1.0367301 3.1305301 8.0082102 3223085
1.05474 3.13412 8.0124702 3157548
1.06659 3.1343999 8.0189695 2894376
1.08038 3.1333499 8.0178404 3025962
1.17006 3.13642 8.0538702 3881272
1.18024 3.14044 8.05406 3683894
0.98688 3.15204 8.0132399 2499619
1.0345401 3.1419799 8.0057697 2631204
1.04681 3.14222 8.0044603 2696997
1.05695 3.1477001 8.01299 2696996
1.07225 3.1461699 8.02176 2434080
1.1163 3.1437399 8.0326004 2565411
1.1543 3.1468699 8.0433598 3092013
1.16697 3.14679 8.04317 3354928
1.49775 3.19332 8.2917299 4144699
1.60542 3.25229 8.4351597 4078647
1.1920201 3.2079101 8.0454702 3354929
1.32535 3.2351899 8.1435499 3683892
1.4979399 3.3013 8.3043604 3881526
1.1784199 3.2563701 8.0354795 2038811
1.17836 3.25668 8.0369797 2038811
1.1847399 3.25442 8.0395699 1973018
1.5093 3.3055201 8.3146 3420975
1.50266 3.31533 8.3064203 2828582
1.17239 3.2853799 8.0486603 2170140
1.48343 3.32458 8.2945299 3026219
1.14481 3.2841201 8.0342197 1841432
1.15447 3.2958601 8.04006 2696740
1.1678801 3.2950799 8.0404797 2828070
1.14293 3.29667 8.0324898 2959912
1.5108401 3.3631699 8.3295097 3684148
1.49806 3.3901501 8.3356199 3486255
1.16844 3.3933599 8.0755901 2894376
1.14763 3.40536 8.0819502 2433570
1.18279 3.4073501 8.08743 2170396
1.23718 3.67239 8.1679802 3288880
1.2500499 3.6788299 8.1635799 2894377
1.18734 3.6970999 8.0847197 3683637
1.17495 3.6979599 8.0769997 2960171
1.18788 3.70783 8.0757103 2894377
1.19077 3.7226 8.08496 2104606
1.20216 3.7297201 8.0938997 2960170
1.10526 3.76717 8.0310802 2236191
1.18686 3.7700901 8.0754404 2960171
1.1742001 3.7697401 8.0789604 3486515
1.06617 3.7599499 7.9934802 2368034
1.0932 3.7626801 8.0111799 2367777
1.10128 3.77389 8.0123596 2630950
1.17933 3.78192 8.0759001 2302241
1.1941 3.7813301 8.0752602 2367777
1.03178 3.7783501 7.9771199 3420720
1.04444 3.7737601 7.9833798 2828841
1.06007 3.7714701 7.9904399 2828585
1.07207 3.77248 7.99722 2960170
1.0845 3.77389 8.0047398 2499620
1.1069601 3.78826 8.0223198 3354673
1.1722 3.79194 8.0715599 2960171
1.18484 3.7922001 8.0697899 2960171
1.47904 3.8429201 8.2976198 2959913
1.0398999 3.7890301 7.98596 3486513
1.05404 3.7827401 7.9871802 2960171
1.0920399 3.7857101 8.0077896 3486259
1.18129 3.8071699 8.0728903 3025963
1.0367399 3.8032801 7.9878201 2236447
1.0517401 3.7952099 7.9826598 2565413
1.03052 3.8173399 7.9917202 3552050
1.0441099 3.8115799 7.9793601 3552307
1.13754 3.82688 8.0710697 2302241
1.17504 3.8227999 8.0669298 2368034
1.38131 3.85934 8.2084999 3618101
1.03561 3.8271999 7.9885898 3223085
1.0687 3.8241401 8.0008602 3157292
1.08012 3.82516 7.9892702 3223086
1.08987 3.82514 8.0150805 3683638
1.12415 3.8366201 8.0430803 3486001
1.17386 3.8304999 8.0502901 2828328
0.996364 3.82886 7.9542298 2828327
1.12053 3.84905 8.0394897 2565156
1.48919 3.9057701 8.3158503 2894379
1.00482 3.8394001 7.9521198 3354672
1.0163 3.8434 7.9579301 3223343
1.0258501 3.83618 7.9684701 2368034
1.03528 3.8404601 7.98703 2762533
1.04971 3.85427 8.00177 2762534
1.09391 3.85164 8.0126896 2762792
1.1075 3.85321 8.0278797 2762792
1.49666 3.91992 8.32306 2302241
1.4977 3.92033 8.3249903 2301985
1.03573 3.85202 7.9789 2104862
1.04362 3.8637099 7.9945598 3486514
1.10824 3.86041 8.0091 3815480
1.12523 3.8578701 8.0124102 3289136
1.05045 3.87396 7.99049 3223086
1.09495 3.8659899 8.0041199 3749687
1.10797 3.86974 7.9972301 2894120
1.03649 3.8836401 7.9910698 2236704
1.06068 3.8844299 7.9844999 2170655
1.15072 3.8863001 8.0310802 2762535
1.02487 3.89099 7.9836202 1907739
1.0498199 3.88503 7.9808402 2039069
1.07463 3.8878601 7.9938402 2762791
1.09045 3.88797 7.9947701 2565668
1.15449 3.97561 8.0344 2893865
1.18331 3.9816599 8.05935 3157035
1.14692 3.97118 8.0129204 2499107
1.15712 3.9753201 8.0247202 2762279
1.17063 3.98701 8.0522203 2893607
1.15873 3.9962101 8.0393801 2433057
1.16635 3.9939899 8.0363998 2433057
1.1774499 3.9965701 8.0454302 2301725
1.1891 3.9983301 8.0499802 2433312
1.37122 4.0359402 8.2133904 3157292
1.17013 4.0089698 8.0451803 2104348
1.17954 4.0123 8.05583 2170397
1.19813 4.0101199 8.0492496 2564899
1.20471 4.0271401 8.0633497 2565154
1.19686 4.0470099 8.0850697 2959656
1.2122999 4.0446501 8.07619 3091498
1.18922 4.0743699 8.0822201 3288621
1.19697 4.08744 8.0839596 3091243
1.17667 4.1030002 8.0755301 3617843
1.26983 4.1082001 8.1341896 4012343
1.09542 4.0943298 8.0109196 3354671
1.16587 4.1061301 8.0517702 3486515
1.07838 4.1062899 7.9949999 3289134
1.09578 4.1035199 7.9951401 3354928
1.05992 4.11165 7.98943 2763303
1.09356 4.1138902 7.98668 2828840
1.10375 4.1160002 7.9692101 3420976
1.60513 4.1989598 8.29671 4538685
1.62749 4.20645 8.3366604 5525835
1.16587 4.1328602 7.9844198 3486512
1.56078 4.19629 8.2520399 4472892
1.59368 4.19555 8.2775898 4999236
1.03327 4.1282701 7.9134898 4013112
1.04801 4.1265502 7.9365201 3486512
1.05698 4.1353102 7.95086 3815733
1.08446 4.1312099 7.9505501 3486512
1.11871 4.1361499 7.9619198 3617841
1.14879 4.1340799 7.9669099 3815221
1.43051 4.17804 8.1439505 4012599
1.03789 4.1385899 7.9328599 4407614
1.09053 4.12988 7.91749 4144699
1.07293 4.1419201 7.9537601 4012855
1.10883 4.1359901 7.9429598 3749685
1.11642 4.13872 7.94521 3618099
1.1351 4.13691 7.9527602 4670529
1.13563 4.1381102 7.9528899 4736321
1.12939 4.1367002 7.9514699 4012599
1.1548001 4.13978 7.94381 4275771
1.1388299 4.16222 7.91711 5131079
1.12604 4.16818 7.9027901 3223083
1.1369801 4.1718898 7.9044199 2959655
1.1383899 4.16396 7.8927498 2959912
1.1748101 4.1619701 7.8810301 2367775
1.1759 4.1735401 7.9127202 2301981
1.13519 4.1792998 7.8882499 2696484
1.15581 4.1721101 7.8927002 2828070
1.15637 4.16817 7.88272 2893862
1.46129 4.3702698 8.1353703 2105116
1.14159 4.3057299 7.8639202 2499361
1.1595401 4.3127499 7.87749 2631204
1.41783 4.3762698 8.0990105 1776153
1.42887 4.3790698 8.0892 1841946
1.14484 4.3211799 7.8636298 2433568
1.15115 4.36449 7.9096198 2104348
1.17004 4.3632102 7.9053798 2170139
1.18638 4.3629198 7.9031701 1972760
1.20245 4.3628001 7.9011998 2696483
1.26319 4.38063 7.9696898 2762275
1.22009 4.37743 7.9217601 2893862
1.26911 4.3751898 7.9214301 3157034
1.23666 4.3788199 7.9172401 3485999
1.2526799 4.3811798 7.9122 3551792
1.1462899 4.3769498 7.8473501 4408126
1.32809 4.40031 7.9502902 3815477
1.3284 4.401 7.9517899 3815477
1.0855401 -4.4871001 8.8556995 12963549
1.01951 -4.4790201 8.9477596 3355196
1.05119 -4.4439902 8.9099998 2433574
1.11032 -4.4075899 8.8814602 3354930
1.30813 -4.3241601 8.9052296 4539203
0.95768797 -4.2920198 8.7681704 12436948
0.95876598 -4.2783198 8.7744799 12568277
1.2947201 -4.2704201 8.9030199 3749431
0.946926 -4.2711101 8.7844496 12831962
0.95823699 -4.2597499 8.7767801 12634326
0.98570901 -4.26261 8.7767496 8816794
1.2972701 -4.1536899 8.84729 2433572
1.23678 -4.2165499 9.06668 2762024
0.96634001 -4.1098599 8.7782402 12502998
0.96318299 -4.06287 8.7842903 12634584
1.05853 -4.01017 8.7712898 2565158
