ply                 
format ascii 1.0    
element vertex 583
property float x    
property float y    
property float z    
property uchar red  
property uchar green
property uchar blue 
end_header          
-0.767127 0.0885315 4.41557 62 49 17 
1.3476 -0.410951 4.3217 116 54 5 
1.40787 -0.370811 4.09329 126 90 12 
-0.529072 -0.283645 4.59904 115 142 127 
-0.484855 -0.196007 4.59576 128 110 100 
-0.52915 -0.154684 4.66272 0 25 6 
1.05864 -0.132703 4.71011 120 79 0 
-0.28696 -0.0787672 4.61389 113 106 80 
-0.333719 -0.03009 4.58591 18 20 0 
-0.244146 -0.0215104 4.57953 103 81 44 
-1.01073 -0.00364022 4.36278 59 36 0 
0.767856 -0.00749243 4.6395 47 47 45 
-0.970149 0.00758378 4.36575 107 84 43 
-0.675646 0.0345525 4.47887 163 160 119 
0.763128 0.0384283 4.62795 117 119 118 
-0.436637 0.052915 4.59442 25 60 20 
-0.44642 0.0626933 4.59471 159 155 110 
-1.77939 0.0926819 6.29563 70 38 0 
-1.76115 0.130527 6.29994 54 28 0 
-1.79867 0.153311 6.27286 73 50 8 
-0.7551 0.145655 4.40132 44 33 1 
0.510346 0.231036 5.36218 147 149 148 
0.400632 0.260175 5.40127 132 128 127 
-1.42591 0.345649 6.20199 167 135 26 
-0.392812 0.276612 4.6618 124 103 76 
1.0665 0.350514 4.42363 183 186 191 
0.0639419 0.497886 5.31384 32 36 35 
0.365362 0.572024 5.8577 41 0 0 
0.299439 0.695758 5.80248 207 170 30 
1.09968 1.31969 6.37639 42 17 0 
1.11936 -0.75321 5.75857 138 118 91 
0.00739461 -0.562224 4.67655 52 124 74 
1.2858 -0.511152 4.27797 133 99 10 
0.632104 -0.51374 5.43535 36 94 69 
-0.506141 -0.259513 4.57916 24 78 52 
-0.420767 -0.228246 4.55459 24 55 37 
-0.467862 -0.203755 4.59356 66 22 19 
-0.540264 -0.203629 4.68329 96 110 97 
-0.464871 -0.19711 4.56901 76 31 26 
-0.439827 -0.180643 4.58958 52 15 9 
-0.440894 -0.166027 4.60241 51 21 13 
-0.529321 -0.154107 4.66034 0 25 6 
-0.439768 -0.137204 4.63977 96 102 90 
0.473226 -0.167742 5.56455 149 128 39 
-0.214767 -0.110028 4.63713 25 60 30 
-0.190029 -0.0870493 4.62971 88 75 41 
-0.297243 -0.0557974 4.56796 11 24 4 
-0.268121 -0.0356067 4.55817 62 46 13 
-0.350893 -0.023525 4.58832 139 130 101 
-0.309043 -0.00736545 4.56572 106 84 47 
-0.39599 -0.00177594 4.59164 5 51 22 
-0.283271 0.0146821 4.54865 119 96 55 
0.760945 0.0218597 4.62403 16 16 14 
0.709092 0.0416066 4.66284 143 144 146 
-1.80027 0.0604787 6.28033 205 153 8 
-0.953102 0.0436988 4.37571 49 25 1 
-0.436742 0.0515303 4.59436 26 68 28 
-1.79381 0.0735779 6.28351 204 156 10 
-0.678237 0.0539053 4.47358 22 24 0 
0.30022 0.0632078 5.3355 119 120 122 
0.711677 0.0586086 4.67043 51 51 51 
0.980816 0.0715805 4.46763 121 64 0 
0.964335 0.104089 4.47646 84 46 0 
-1.77774 0.165351 6.28049 225 184 18 
0.9357 0.121539 4.49282 154 126 19 
0.947509 0.136636 4.49682 21 15 3 
-0.754968 0.143623 4.40486 43 34 5 
0.451682 0.21081 5.41342 2 2 2 
0.403265 0.260283 5.40206 131 127 126 
0.785384 0.239262 4.6262 36 27 12 
0.816652 0.263027 4.62797 158 133 17 
0.990872 0.258764 4.45836 124 122 125 
-1.58535 0.394151 6.25276 83 41 3 
0.833474 0.293632 4.57602 37 29 6 
0.496586 0.350323 5.34972 85 82 75 
0.830925 0.311032 4.5788 200 170 36 
-1.77661 0.472176 6.24077 162 128 21 
-1.73104 0.479032 6.27132 44 17 0 
-1.70231 0.483289 6.26143 161 119 9 
-1.73898 0.501581 6.25392 162 124 13 
-1.69629 0.530886 6.25215 132 69 2 
0.0459739 0.50365 5.3155 136 137 139 
0.351871 0.590078 5.84658 141 113 6 
-2.15886 0.630192 5.95122 239 227 211 
0.25824 0.62697 5.73763 188 158 26 
-0.562113 1.0415 7.12978 72 44 0 
0.411663 1.35186 6.56101 61 29 0 
1.0643 -0.795608 5.75776 42 18 0 
1.12761 -0.75352 5.75878 128 115 83 
1.42457 -0.279942 4.16943 111 59 2 
-0.524818 -0.272321 4.58189 109 126 116 
-0.568631 -0.211804 4.72111 5 9 8 
-0.460552 -0.191162 4.57364 65 28 22 
-0.491606 -0.17442 4.60562 39 21 9 
-0.213228 -0.114375 4.64321 18 61 31 
-0.301251 -0.0592736 4.57829 7 32 10 
1.25119 -0.045373 4.42967 238 198 14 
-0.271742 -0.0388428 4.57401 84 69 38 
-0.246173 -0.0403486 4.57458 192 175 132 
-0.30616 -0.00967323 4.56926 103 83 46 
-0.397635 -0.00310164 4.59303 5 56 25 
0.760082 0.0461765 4.62699 109 111 110 
1.092 0.0579741 4.48237 199 122 8 
-1.78289 0.0998911 6.30187 68 41 11 
0.97911 0.0705798 4.45972 121 64 0 
-0.770632 0.0982572 4.40747 31 22 5 
0.396082 0.154499 5.36714 126 123 116 
-0.754801 0.139116 4.40603 41 34 8 
0.256853 0.17193 5.34768 8 9 11 
-1.77532 0.216447 6.23252 73 40 9 
-0.371379 0.184629 4.61642 37 22 0 
0.469179 0.224049 5.39241 135 137 136 
0.533051 0.239248 5.35261 27 27 25 
0.461804 0.280457 5.3521 132 136 135 
0.838186 0.291748 4.57922 30 27 20 
1.01301 0.325481 4.45625 184 184 186 
-1.77562 0.464262 6.24817 162 129 13 
-1.72763 0.478498 6.26305 44 17 0 
-1.77617 0.499642 6.25965 58 24 0 
0.362285 0.567932 5.85526 48 8 0 
-2.12334 0.598047 6.00709 255 223 79 
-0.560668 0.965431 7.01623 64 40 0 
-1.15373 1.17925 7.70978 167 135 58 
2.9659 1.24649 8.14986 140 122 108 
-1.09906 1.22445 7.64073 223 209 180 
-0.987154 1.57159 7.32302 186 176 164 
-0.00602983 -0.449982 4.59848 32 147 82 
0.557201 -0.515258 5.45504 11 53 39 
-0.509761 -0.228024 4.57821 118 133 114 
-0.569859 -0.212242 4.71323 5 9 8 
-0.78028 -0.0803386 4.48442 212 189 137 
0.00809099 -0.0823173 4.75879 5 27 14 
-0.822291 -0.0209674 4.45111 109 88 45 
-0.350457 -0.0135117 4.585 149 131 91 
-0.399914 -0.00503064 4.59476 9 63 29 
-0.305106 0.0217241 4.55568 173 150 108 
1.09177 0.056776 4.47603 200 125 6 
0.299556 0.0741796 5.3377 114 115 117 
-1.7665 0.118991 6.27985 56 36 1 
0.375427 0.098557 5.40938 125 124 119 
0.935669 0.110054 4.49124 162 134 11 
0.315693 0.140276 5.34524 65 64 62 
-1.76538 0.172671 6.28225 231 176 11 
-1.73214 0.240139 6.22897 192 147 2 
1.04463 0.208351 4.47635 34 31 26 
0.519267 0.277547 5.32495 102 103 98 
1.05866 0.238564 4.44215 175 175 175 
1.08066 0.238326 4.45246 176 172 173 
-2.3114 0.328597 5.92876 217 204 187 
0.395648 0.295575 5.39574 4 5 0 
0.988081 0.265569 4.45195 131 129 134 
-1.58179 0.394141 6.24701 83 41 3 
0.494002 0.338883 5.34619 86 84 72 
-1.15734 1.17716 7.70242 164 136 73 
-1.1084 1.2283 7.65801 219 210 181 
-1.17549 1.25988 7.58622 235 225 213 
0.404154 1.25649 6.46327 152 120 7 
-0.800406 1.63248 7.43619 92 72 39 
-1.29213 1.66212 7.41736 107 91 76 
-2.47952 1.71768 7.30327 141 128 119 
1.24868 -0.315428 4.55762 237 186 15 
-0.508095 -0.225469 4.58012 118 130 108 
-0.414267 -0.203597 4.57165 106 110 93 
0.494702 -0.157905 5.53864 169 138 13 
-0.30956 0.0294726 4.54725 187 164 120 
0.973648 0.0788551 4.45518 130 74 0 
0.369329 0.114965 5.38157 122 123 117 
5.16597 0.239316 9.77684 162 148 139 
-0.370434 0.167583 4.58255 42 27 0 
-2.12587 0.455357 6.08448 150 97 5 
-1.18365 1.43113 7.62181 94 81 65 
-0.851819 1.506 7.25483 197 188 171 
-0.962281 1.56521 7.35624 190 181 166 
-0.76876 -0.133811 4.5446 64 98 48 
0.503008 -0.158334 5.48437 148 116 5 
0.00133106 -0.104048 4.72686 16 45 25 
-0.435779 0.0238749 4.57196 33 92 46 
-0.657911 0.0595666 4.49193 11 80 35 
0.308665 0.191863 5.39468 64 61 56 
-1.69325 0.374827 6.24063 182 146 10 
-1.77195 0.493974 6.27172 54 22 0 
-1.26191 1.65024 7.43574 107 91 76 
0.00745026 -0.131942 4.75325 7 47 23 
-0.220191 -0.048356 4.60285 191 174 128 
-0.544438 0.0798879 4.51817 34 93 45 
-0.402728 -0.230596 4.54272 104 115 99 
-0.29658 -0.0415021 4.58155 152 135 109 
0.26098 0.14752 5.31818 99 100 102 
0.365442 0.571695 5.85403 41 0 0 
1.01872 -0.4049 4.39703 97 41 0 
1.07952 0.297022 4.42257 234 234 236 
-0.0256932 0.551863 5.34004 96 95 93 
-0.562399 0.970595 7.05369 64 40 0 
0.479795 -0.157348 5.53849 152 125 12 
-1.80208 0.0689286 6.28301 203 151 6 
-1.1642 1.18381 7.74664 164 136 73 
-1.11208 1.23398 7.69398 219 210 181 
-0.667186 0.0623725 4.48938 22 63 29 
-0.0416962 -0.071507 4.76412 129 106 62 
-0.515563 -0.265637 4.55414 146 163 147 
1.24217 -0.585308 4.48429 118 39 8 
0.284625 -0.414106 4.17779 135 110 70 
-0.505543 -0.253657 4.55475 25 80 51 
-0.523138 -0.250306 4.5535 165 174 157 
-0.889889 -0.141414 4.44803 240 218 168 
-0.498938 -0.16544 4.62401 56 16 8 
0.991631 -0.213025 4.83281 138 70 0 
-0.435514 -0.130434 4.62031 112 124 110 
-0.18253 -0.121066 4.654 27 71 36 
1.24375 -0.0490726 4.42845 245 202 25 
-0.158087 -0.0566643 4.58902 120 97 56 
-0.242209 -0.0160645 4.55558 115 92 50 
0.472716 -0.166872 5.55548 172 148 48 
-0.362426 0.137681 4.53335 91 68 26 
0.727561 0.160122 4.70889 25 11 0 
-0.372874 0.184333 4.62516 45 23 0 
-1.59002 -0.041963 6.13069 43 37 15 
-1.54614 0.0057953 6.09552 67 60 44 
-1.83989 0.0783319 6.20037 88 61 18 
0.299346 0.227452 5.39655 94 92 79 
0.519926 0.247395 5.3188 40 39 44 
-1.73951 0.202306 6.2514 98 70 5 
-1.74834 0.232539 6.23423 214 177 45 
-1.44129 0.294711 6.19187 139 116 36 
-1.43102 0.306582 6.20865 34 19 0 
-1.42832 0.345036 6.21044 179 149 37 
-1.41653 0.418942 6.32004 33 30 23 
0.0706884 0.512302 5.31071 233 240 233 
-1.98984 0.470996 6.32609 90 49 5 
-1.79014 0.499594 6.29716 63 22 0 
0.364794 0.572576 5.84961 55 12 0 
0.787297 0.747568 5.47491 90 83 67 
0.833964 0.749427 5.52446 166 141 48 
-0.568329 0.972832 7.14465 52 23 0 
1.07286 1.37886 6.39465 109 70 0 
1.09235 1.45632 6.46026 71 40 0 
0.529968 0.270128 5.33892 121 117 114 
-0.790863 -1.41719 5.11972 27 14 5 
-0.772835 -1.34191 5.00651 180 151 121 
-0.721599 -1.10398 5.03566 54 26 12 
-0.476353 -0.674475 4.42732 254 76 92 
1.28776 -0.512078 4.28069 157 111 33 
1.24876 -0.593552 4.50892 116 37 6 
0.0160182 -0.655144 4.7746 74 0 11 
1.34389 -0.382985 4.12764 155 108 26 
0.989907 -0.410878 4.38887 122 47 7 
-0.0211195 -0.328565 4.55276 185 156 114 
0.153022 -0.245436 4.3096 47 28 11 
-0.381206 -0.23147 4.5466 108 107 89 
-0.483105 -0.190393 4.57427 150 138 124 
-0.297217 -0.0604447 4.58769 16 36 8 
-1.02876 0.0263223 4.36209 235 212 160 
0.480937 -0.261931 5.61679 128 109 32 
-0.242455 -0.0111385 4.54604 112 89 47 
0.760365 0.0205906 4.62977 30 30 28 
0.70881 0.0623549 4.6521 61 57 56 
-0.372394 0.21865 4.63796 66 45 18 
-1.55491 -0.00470343 6.12366 61 58 49 
0.788064 0.237165 4.63863 31 19 0 
-1.47694 0.0100537 6.08239 96 90 92 
0.260835 0.16837 5.31676 15 15 13 
-1.44248 0.0922337 6.0917 9 4 8 
0.497796 0.21025 5.39896 60 62 61 
0.300187 0.223897 5.40904 104 102 89 
0.524991 0.237019 5.34281 41 40 45 
0.597818 0.24348 5.28304 132 107 23 
0.52298 0.270509 5.31411 127 123 120 
0.401358 0.261828 5.39063 141 141 141 
-1.74897 0.155754 6.28881 227 177 2 
-1.78003 0.178721 6.3063 245 213 110 
0.470429 0.30928 5.35075 71 67 66 
-2.30524 0.337464 5.95077 223 208 175 
0.311278 0.358125 5.66151 136 117 22 
0.541416 0.422449 5.33512 128 108 22 
-2.25782 0.44026 5.92803 250 237 221 
-1.40538 0.400558 6.34176 24 20 17 
0.0812591 0.491116 5.32114 21 27 25 
-1.42224 0.414058 6.34377 24 21 16 
0.0455276 0.504067 5.30999 151 153 150 
-1.661 0.454637 6.2434 208 167 25 
0.0378119 0.568996 5.33135 130 129 125 
-2.07787 0.678698 5.95955 171 138 69 
0.424303 1.21969 6.51793 42 18 0 
1.39926 -0.279041 4.17571 120 61 1 
-0.123972 -0.361259 4.51656 43 172 105 
-0.508047 -0.150111 4.6177 128 141 123 
-0.765153 -0.0475277 4.4752 153 127 76 
-0.180201 -0.0572208 4.59395 200 182 134 
-0.0406172 -0.0692719 4.7092 155 133 84 
0.0140222 -0.0714389 4.78577 4 42 17 
-0.869339 0.0238778 4.42256 255 255 206 
-0.663271 0.0870524 4.4807 35 86 43 
0.890216 0.108059 4.5179 10 8 9 
-0.661019 0.174315 4.41514 234 216 152 
-1.8084 0.0159459 6.23612 122 59 5 
-1.40789 0.0417811 6.10472 84 82 83 
0.332159 0.194387 5.36943 120 116 113 
-1.82334 0.0758769 6.2536 240 195 70 
0.462074 0.281673 5.343 153 157 158 
0.465062 0.314964 5.3434 75 71 70 
-1.77809 0.216272 6.23671 77 45 4 
-1.45123 0.289639 6.19102 145 109 12 
0.307385 0.364831 5.63463 146 124 12 
-1.62716 0.329318 6.2322 178 134 9 
-1.49724 0.344369 6.16207 127 79 0 
-2.22987 0.406456 6.00646 249 224 46 
-1.77623 0.464675 6.24561 190 147 32 
-1.98844 0.471418 6.31311 88 48 0 
-1.96699 0.505562 6.30023 244 201 9 
-1.76438 0.503673 6.34114 184 139 10 
0.709914 0.633362 5.13154 151 104 12 
-0.567054 0.965124 7.11009 50 23 0 
0.943483 1.06815 6.41439 136 100 4 
0.413851 1.34946 6.58421 75 36 0 
0.0227372 -0.674683 4.7963 87 0 18 
-0.393345 -0.217737 4.54146 119 116 99 
-0.423793 -0.196628 4.54924 132 135 114 
0.671233 -0.389692 5.31798 241 239 224 
-0.5022 -0.189233 4.59221 90 39 36 
-0.413557 -0.160709 4.59503 108 126 104 
-0.774232 -0.0721341 4.45047 229 205 159 
-0.740523 -0.0399843 4.49304 232 213 157 
1.18352 -0.0224024 4.42932 207 128 7 
-0.870426 0.0231929 4.43277 255 249 200 
0.500048 -0.244782 5.61941 132 105 2 
-0.686049 0.0324231 4.45599 219 199 148 
0.483466 -0.154407 5.53125 171 143 10 
1.09161 0.105603 4.42575 254 219 13 
0.436848 -0.0866045 5.59867 30 13 3 
0.732712 0.0966935 4.68133 103 100 95 
0.740066 0.116785 4.79054 22 17 11 
0.296886 0.0783908 5.31345 130 131 133 
-1.57573 0.0174803 6.10367 248 218 32 
0.314668 0.142257 5.33255 88 85 80 
-0.402445 0.27886 4.61684 143 121 82 
0.335834 0.196556 5.33571 116 112 109 
-1.46491 0.103671 6.08238 20 16 17 
0.819082 0.318976 4.57647 202 165 14 
-1.47281 0.152555 6.15431 21 18 11 
0.414328 0.262264 5.39132 143 143 143 
0.393559 0.297267 5.38247 8 4 3 
0.492776 0.33933 5.34228 101 99 87 
0.724326 0.431398 4.73396 131 96 6 
-2.34927 0.367135 5.99555 169 129 31 
0.474631 0.41956 5.66481 10 6 3 
-2.19315 0.403436 6.04755 252 222 12 
-1.581 0.393925 6.24845 108 54 7 
-1.42221 0.400523 6.33912 22 17 13 
-1.17289 1.18006 7.80925 184 143 64 
-1.12061 1.23113 7.75123 227 215 189 
-0.0351095 -0.513916 4.61736 28 26 11 
-0.505659 -0.220079 4.55997 142 154 130 
-0.641059 -0.203254 4.669 2 77 38 
0.672673 -0.377303 5.32332 244 236 225 
-0.469253 -0.176266 4.59239 14 29 22 
-0.321797 -0.0538389 4.57681 9 58 29 
0.00626296 -0.0644528 4.68176 1 45 18 
0.492228 -0.152112 5.5111 175 147 12 
0.882576 0.099383 4.56577 11 9 10 
0.456799 -0.0434193 5.59923 150 122 12 
0.293673 0.202012 5.39637 98 94 91 
0.619721 0.252006 5.29775 167 130 16 
0.502568 0.38936 5.31501 22 18 17 
0.528142 0.491363 5.44642 26 17 10 
0.355038 0.566152 5.83846 94 55 0 
0.672822 0.696944 5.42814 21 19 24 
0.925553 1.12849 6.3743 208 173 11 
-0.251999 -0.0708497 4.61168 162 149 105 
0.430323 0.262184 5.38634 144 148 149 
0.466534 0.352696 5.52069 78 75 68 
0.539159 -0.419812 5.36891 231 227 215 
-0.861498 0.0444931 4.41956 226 206 153 
0.509704 -0.169017 5.5343 157 125 6 
1.19883 0.2536 4.53205 27 23 22 
0.814869 0.302089 4.60177 198 159 4 
0.790799 0.734303 5.41781 23 22 18 
-0.116687 -0.395621 4.55703 42 173 103 
-0.108975 -0.291132 4.52617 43 34 1 
0.00906981 -0.143532 4.80083 8 52 25 
-0.219195 -0.043291 4.58087 210 190 137 
-0.441626 0.0393604 4.5415 36 111 55 
0.337039 0.290033 5.39437 8 6 9 
-0.118707 -0.195917 4.68229 29 64 24 
0.714428 0.0417931 4.68219 143 144 148 
1.17837 -0.215517 4.58767 245 201 18 
1.27118 -0.0761913 4.428 127 71 10 
-1.73706 0.500864 6.2429 162 124 13 
-1.655 0.510895 6.21808 127 69 0 
1.0706 -0.176294 4.71303 62 48 21 
0.472106 0.223001 5.41514 135 137 136 
-1.60864 0.37476 6.21492 210 169 25 
-1.14675 1.41307 7.59834 83 70 54 
-0.928154 1.58097 7.29661 198 188 176 
1.18293 -0.0215668 4.44096 190 115 13 
0.500631 1.97036 6.66723 219 197 176 
-0.66111 0.0637241 4.45404 22 63 29 
-1.46969 0.0832652 6.08333 24 20 21 
-0.726514 -1.09989 5.04644 80 55 33 
-1.01023 -0.00413913 4.35873 108 85 51 
-0.460838 -0.102899 4.60422 30 50 41 
-0.661581 0.0961626 4.45371 39 71 32 
0.995036 0.256826 4.47447 142 143 138 
0.651572 0.554198 5.08589 182 146 34 
0.489072 1.93372 6.68926 183 140 1 
-0.426824 -0.231548 4.56335 18 73 42 
0.84259 0.289505 4.60111 15 17 14 
-0.926762 1.58279 7.30107 209 197 183 
-1.57891 0.396036 6.23673 108 54 7 
1.13681 0.554788 4.8878 149 111 12 
-0.961604 1.565 7.33798 206 194 180 
-0.482164 -0.150389 4.61819 55 22 13 
-0.568557 -0.530462 5.32814 173 155 143 
-0.566447 -0.484714 5.37995 72 29 23 
-1.57707 0.391258 6.22924 87 45 5 
-1.77183 0.47255 6.22502 162 128 21 
-1.73958 0.508305 6.24022 164 120 11 
-0.696424 -1.10462 5.04441 64 45 28 
-0.716546 -1.38899 5.02468 200 171 131 
-0.695494 -1.3832 5.02389 31 19 19 
0.963143 0.137137 4.48777 173 145 38 
0.711727 0.121467 4.68862 29 16 7 
0.431233 0.334245 5.44836 95 92 87 
-1.73599 0.500654 6.24587 182 140 20 
-0.398233 -0.226854 4.54868 121 118 101 
-1.40674 0.0433355 6.09698 84 82 83 
0.466141 0.275611 5.39057 153 157 158 
-1.6484 0.460553 6.21222 202 162 13 
-1.72458 0.477656 6.24954 60 14 0 
-0.69099 -1.36238 5.03314 190 162 122 
0.762177 0.0442443 4.65387 128 129 124 
-1.41536 0.0783291 6.09269 135 132 123 
0.488545 0.180472 5.46617 19 18 23 
0.974466 0.341616 4.5462 119 119 109 
-0.425271 -0.297808 4.54678 2 21 15 
1.00802 -0.57444 4.45781 242 211 71 
0.534465 -0.340006 5.33368 151 143 124 
-0.560106 0.985479 7.04968 66 42 0 
1.32502 -0.497873 4.25448 255 252 136 
0.989021 -0.563891 4.46358 237 213 81 
-0.469129 -0.150292 4.61269 56 19 11 
-0.560742 1.04931 7.12191 89 50 0 
-1.4753 0.0552667 6.09565 184 179 176 
-1.46949 0.0970906 6.0961 18 15 22 
-0.622624 -0.38263 4.59465 42 162 90 
1.33235 -0.418287 4.33449 123 50 0 
1.2413 -0.0513592 4.42378 250 208 25 
1.07332 -0.202749 4.75002 70 43 16 
-0.790861 -0.445092 4.79426 115 113 98 
-0.538414 -0.290696 4.58984 24 57 36 
0.969076 0.105171 4.49183 123 77 0 
-0.337931 -0.0306638 4.56563 18 17 0 
-1.16203 -0.0817113 4.4313 80 53 32 
-1.0967 -0.67511 6.43966 73 69 66 
-1.04977 -0.607002 6.36153 199 165 67 
-1.12945 -0.651136 6.45362 170 169 167 
0.726452 0.355356 5.03673 68 18 11 
-1.09151 -0.337111 6.0793 22 20 25 
-1.04439 -0.300547 6.09886 164 161 144 
-1.02386 -0.250437 6.09011 127 127 117 
-1.10814 -0.258349 6.06213 176 176 176 
-1.16801 -0.276345 6.10455 175 176 170 
-1.12303 0.276068 5.20452 71 46 6 
-1.51932 -0.0645414 6.1368 168 166 169 
-1.31685 0.0158534 6.21366 198 172 95 
-1.55759 0.0247852 6.10325 250 218 75 
-2.07097 0.178043 6.25702 190 118 0 
-1.77847 0.499555 6.23977 60 26 17 
-1.97646 0.469571 6.2774 64 25 10 
-0.975981 0.967404 7.71649 212 175 25 
0.490679 1.90949 6.70563 154 96 0 
0.822808 2.16545 6.55942 225 209 196 
0.743502 2.16121 6.5797 221 206 199 
-0.73472 -1.09851 5.02254 52 37 16 
1.04872 -0.223115 4.71576 218 156 9 
1.21937 -0.0238246 4.44363 242 203 12 
1.06634 -0.214539 4.77406 217 164 34 
1.07032 -0.175715 4.70344 49 31 17 
1.08206 -0.157273 4.69807 215 167 31 
-0.794449 -0.463315 4.79598 41 24 14 
-0.757163 -0.402125 4.8041 35 22 6 
-0.517082 -0.16042 4.58304 66 22 19 
-0.527527 -0.154805 4.61781 130 145 124 
0.715865 0.119847 4.69452 18 16 17 
-1.01803 -0.00275545 4.33779 92 66 51 
-1.03635 0.0271416 4.32848 222 201 138 
0.414098 0.25856 5.42825 169 169 171 
0.550185 0.421698 5.37119 140 117 21 
0.547128 0.441923 5.38231 22 13 4 
0.997436 0.725581 5.22659 126 84 2 
0.577135 0.561174 5.40959 16 5 3 
0.670581 0.711662 5.50525 17 13 10 
-1.53909 -0.0249558 6.11948 19 20 12 
-1.47669 0.0147011 6.07664 73 73 71 
-1.5582 -0.00286158 6.08764 32 33 28 
-1.46922 0.0831104 6.08362 27 22 19 
-1.4711 0.136196 6.10878 21 12 7 
-1.43638 0.297303 6.17204 147 113 23 
-1.3826 0.388546 6.31515 111 105 105 
-1.61161 0.375939 6.19238 246 206 49 
-1.6561 0.457012 6.21682 210 161 32 
-0.924793 0.48262 7.46639 135 87 3 
-0.579074 0.963497 6.97549 27 6 0 
0.458879 1.73485 6.76761 146 99 0 
0.536607 1.84796 6.71833 255 218 127 
0.47692 1.92407 6.66665 164 107 0 
-1.12479 1.43183 7.56693 179 161 151 
1.26957 -0.0799537 4.43416 130 75 10 
1.27003 -0.051682 4.4401 242 210 14 
1.04582 -0.0849468 4.65536 248 215 58 
-0.405023 -0.22435 4.53583 115 117 103 
-0.800435 -0.427389 4.81287 36 16 7 
-0.329955 -0.0440456 4.58739 12 27 6 
-1.06849 -0.309121 6.08047 149 149 141 
0.710531 0.734818 5.48949 110 106 103 
-1.51309 -0.0598384 6.1541 179 177 178 
-1.57562 -0.0522568 6.16984 22 24 21 
-1.67084 0.236029 6.21285 180 126 4 
-1.61932 0.332422 6.2156 174 126 2 
-0.832313 0.488356 7.33889 230 185 66 
-1.73992 0.506966 6.2401 182 143 4 
0.546598 1.85137 6.72139 245 205 120 
1.01689 2.04803 6.59888 202 158 7 
0.34623 1.7847 6.92103 214 173 5 
-1.15847 1.19008 7.76876 184 137 21 
-1.0888 1.24291 7.67798 234 217 191 
0.822247 2.04208 6.65525 188 141 25 
0.820675 2.16236 6.54724 222 206 193 
0.886631 2.20433 6.5199 229 215 206 
-0.531028 -0.265859 4.56943 156 170 145 
-0.452865 -0.224317 4.51452 19 75 50 
-0.50419 -0.168615 4.58248 72 20 24 
0.724593 0.0952544 4.67294 100 101 96 
0.718065 0.135427 4.71373 10 9 14 
-0.401971 0.00248338 4.57523 16 52 24 
0.744866 0.213471 4.66692 203 166 13 
0.725617 0.201466 4.70446 196 158 11 
0.962324 0.354506 4.54225 19 17 18 
0.830508 0.323923 4.58428 203 161 13 
-0.69543 0.185098 4.42245 106 82 34 
0.661918 0.0733029 5.53436 126 92 2 
0.866939 0.739095 5.51195 26 20 22 
-1.64618 0.465382 6.20964 210 165 22 
-0.549036 0.973385 7.0799 26 3 0 
1.01854 1.81338 6.71623 162 110 0 
0.449792 1.7708 6.76877 223 179 8 
0.327574 1.777 6.87146 218 175 8 
0.966201 2.06575 6.59756 248 238 229 
-1.09645 1.24022 7.69145 232 218 189 
0.393143 1.96464 6.69943 168 122 0 
-0.836165 1.50652 7.33315 218 209 192 
-1.17718 1.38085 7.62952 206 190 177 
-0.877957 1.51044 7.31924 221 211 199 
-0.80221 1.54936 7.36394 207 191 178 
0.889545 2.2545 6.65067 78 62 47 
-1.04097 1.49439 7.49798 167 151 138 
-1.20291 1.43717 7.76086 88 70 56 
0.795034 2.33638 6.58483 195 172 158 
0.87611 0.114723 4.53825 8 7 12 
0.99409 0.274937 4.47732 144 144 144 
0.745326 0.262103 4.63809 209 169 9 
-1.05567 -0.0246859 6.29285 164 121 8 
-1.59948 0.358643 6.1999 216 177 14 
-1.66864 0.522623 6.22174 151 81 11 
1.04891 1.9883 6.60329 250 218 13 
0.4797 1.78863 6.79014 225 181 12 
0.36635 1.79599 6.92581 224 175 10 
0.502657 1.90193 6.7183 160 102 3 
0.8234 2.02191 6.64895 195 148 8 
0.931164 2.07627 6.556 246 237 230 
0.895816 2.18282 6.52152 227 215 203 
0.626204 2.13889 6.60079 203 187 174 
3.54066 -9.60251 26.4682 183 167 144 
0.920898 0.319631 4.53601 16 14 19 
0.563147 0.528118 5.33189 151 114 8 
0.587689 1.85339 6.69805 252 221 131 
0.399894 1.89049 6.71284 213 169 10 
0.593768 1.96969 6.65449 194 148 10 
0.698561 2.02849 6.6137 232 216 200 
-0.906909 1.39762 7.4118 154 116 5 
-0.838413 1.53958 7.35937 213 201 187 
-1.06549 1.4609 7.57383 174 158 145 
0.801981 2.24114 6.46386 112 94 80 
-1.42964 -0.273296 6.34401 217 195 138 
