ply                 
format ascii 1.0    
element vertex 769
property float x    
property float y    
property float z    
property uchar red  
property uchar green
property uchar blue 
end_header          
-0.802676 0.0745781 4.43983 62 49 17 
1.4674 -0.474671 4.3477 116 54 5 
1.53522 -0.432842 4.10144 126 90 12 
-0.549667 -0.326257 4.63976 115 142 127 
-0.501607 -0.232357 4.63592 128 110 100 
-0.549195 -0.18749 4.70757 0 25 6 
1.15459 -0.172818 4.76352 120 79 0 
-0.288396 -0.107495 4.65558 113 106 80 
-0.338193 -0.0550189 4.62515 18 20 0 
-0.241889 -0.0463395 4.61857 103 81 44 
-1.06514 -0.0232397 4.38242 59 36 0 
0.844217 -0.0369928 4.68643 47 47 45 
-1.02142 -0.0113968 4.38571 107 84 43 
-0.704825 0.0161587 4.50852 163 160 119 
0.839553 0.0122936 4.6739 117 119 118 
-0.44829 0.0347642 4.63365 25 60 20 
-0.458742 0.0453261 4.6339 159 155 110 
-1.88807 0.0888937 6.44594 70 38 0 
-1.86837 0.12918 6.45046 54 28 0 
-1.90835 0.153663 6.42155 73 50 8 
-0.789364 0.135897 4.42434 44 33 1 
0.563267 0.221658 5.45961 147 149 148 
0.445726 0.253551 5.50098 132 128 127 
-1.50937 0.356659 6.34723 167 135 26 
-0.400181 0.274884 4.70575 124 103 76 
1.16947 0.345301 4.45488 183 186 191 
0.0874292 0.509995 5.40643 32 36 35 
0.40642 0.587591 5.98777 41 0 0 
0.337202 0.720282 5.92905 207 170 30 
1.19087 1.38126 6.54541 42 17 0 
1.20416 -0.832713 5.88706 138 118 91 
0.0243854 -0.628178 4.72636 52 124 74 
1.40099 -0.582241 4.30091 133 99 10 
0.688241 -0.575771 5.54017 36 94 69 
-0.524803 -0.300531 4.61832 24 78 52 
-0.432779 -0.267506 4.592 24 55 37 
-0.48339 -0.240786 4.63365 66 22 19 
-0.56151 -0.239925 4.72986 96 110 97 
-0.480035 -0.233748 4.60722 76 31 26 
-0.453113 -0.216128 4.62935 52 15 9 
-0.454223 -0.200377 4.64308 51 21 13 
-0.549366 -0.186878 4.705 0 25 6 
-0.452994 -0.169302 4.68311 96 102 90 
0.519351 -0.204247 5.67616 149 128 39 
-0.21117 -0.141414 4.68091 25 60 30 
-0.184425 -0.116903 4.67294 88 75 41 
-0.299078 -0.0828947 4.60607 11 24 4 
-0.267621 -0.0613996 4.59556 62 46 13 
-0.356613 -0.0478603 4.62765 139 130 101 
-0.31145 -0.0308043 4.60345 106 84 47 
-0.404941 -0.0242267 4.63099 5 51 22 
-0.283547 -0.0073127 4.58509 119 96 55 
0.83714 -0.00548691 4.6697 16 16 14 
0.781261 0.0161016 4.71122 143 144 146 
-1.91057 0.0546167 6.42976 205 153 8 
-1.00288 0.027369 4.39637 49 25 1 
-0.448411 0.0332774 4.63359 26 68 28 
-1.9036 0.0685653 6.43311 204 156 10 
-0.707478 0.0369624 4.50276 22 24 0 
0.337536 0.0431979 5.43059 119 120 122 
0.784072 0.0343525 4.71934 51 51 51 
1.07505 0.04625 4.50214 121 64 0 
1.05748 0.0812779 4.51154 84 46 0 
-1.88592 0.166403 6.42967 225 184 18 
1.02668 0.10022 4.52902 154 126 19 
1.03942 0.116371 4.53335 21 15 3 
-0.789244 0.133718 4.42817 43 34 5 
0.499937 0.200437 5.51416 2 2 2 
0.448538 0.253652 5.50183 131 127 126 
0.864782 0.22774 4.67184 36 27 12 
0.898482 0.253071 4.67384 158 133 17 
1.08722 0.247222 4.49201 124 122 125 
-1.67931 0.40942 6.4005 83 41 3 
0.917264 0.285761 4.61803 37 29 6 
0.54942 0.349415 5.44625 85 82 75 
0.914619 0.304464 4.621 200 170 36 
-1.88315 0.49384 6.38703 162 128 21 
-1.8344 0.500897 6.4196 44 17 0 
-1.80372 0.505266 6.40921 161 119 9 
-1.8428 0.52501 6.4011 162 124 13 
-1.79706 0.556037 6.39938 132 69 2 
0.0682116 0.516278 5.40814 136 137 139 
0.39221 0.606969 5.97593 141 113 6 
-2.29163 0.664944 6.07777 239 227 211 
0.293203 0.646996 5.85966 188 158 26 
-0.586789 1.09259 7.33302 72 44 0 
0.455479 1.41921 6.73842 61 29 0 
1.14516 -0.87774 5.88634 42 18 0 
1.21296 -0.833085 5.8873 128 115 83 
1.55276 -0.334906 4.18325 111 59 2 
-0.544961 -0.314177 4.62126 109 126 116 
-0.592164 -0.248411 4.77044 5 9 8 
-0.475377 -0.227366 4.61219 65 28 22 
-0.508767 -0.209093 4.64639 39 21 9 
-0.209576 -0.146073 4.68748 18 61 31 
-0.303454 -0.0865762 4.61717 7 32 10 
1.36493 -0.0810121 4.4624 238 198 14 
-0.27161 -0.0648114 4.61259 84 69 38 
-0.244156 -0.0665753 4.6133 192 175 132 
-0.308384 -0.033291 4.60726 103 83 46 
-0.406722 -0.0256378 4.63248 5 56 25 
0.836344 0.0206257 4.67284 109 111 110 
1.19414 0.0310254 4.5184 199 122 8 
-1.89175 0.0966199 6.45252 68 41 11 
1.07329 0.0451666 4.49363 121 64 0 
-0.806365 0.0850383 4.43106 31 22 5 
0.440458 0.140419 5.46458 126 123 116 
-0.789094 0.128873 4.42944 41 34 8 
0.291706 0.159857 5.44331 8 9 11 
-1.88314 0.220845 6.37866 73 40 9 
-0.377499 0.1759 4.65721 37 22 0 
0.518915 0.214469 5.49176 135 137 136 
0.587698 0.2303 5.44945 27 27 25 
0.511721 0.274831 5.44867 132 136 135 
0.922277 0.283713 4.62149 30 27 20 
1.11149 0.318758 4.48981 184 184 186 
-1.88211 0.485388 6.39488 162 129 13 
-1.83078 0.500304 6.41084 44 17 0 
-1.88251 0.523163 6.40705 58 24 0 
0.403126 0.583236 5.98515 48 8 0 
-2.25361 0.630352 6.13737 255 223 79 
-0.585246 1.01182 7.21296 64 40 0 
-1.2161 1.24126 7.94112 167 135 58 
3.14529 1.28627 8.41621 140 122 108 
-1.15778 1.28916 7.86917 223 209 180 
-1.03685 1.65912 7.53836 186 176 164 
0.0111373 -0.507898 4.64171 32 147 82 
0.607955 -0.576888 5.56099 11 53 39 
-0.528494 -0.266677 4.61712 118 133 114 
-0.593456 -0.248901 4.76197 5 9 8 
-0.818024 -0.106713 4.51459 212 189 137 
0.0275377 -0.112584 4.81226 5 27 14 
-0.862747 -0.0427388 4.47833 109 88 45 
-0.356068 -0.0371148 4.62405 149 131 91 
-0.40919 -0.0276924 4.63434 9 63 29 
-0.306997 0.00039694 4.59256 173 150 108 
1.19397 0.0297251 4.51158 200 125 6 
0.336876 0.054952 5.43292 114 115 117 
-1.87418 0.116862 6.42916 56 36 1 
0.417669 0.0807542 5.50969 125 124 119 
1.02659 0.0878817 4.52735 162 134 11 
0.354505 0.125625 5.44092 65 64 62 
-1.87268 0.174146 6.43156 231 176 11 
-1.83691 0.245876 6.37499 192 147 2 
1.1444 0.192783 4.51159 34 31 26 
0.573432 0.271341 5.41985 102 103 98 
1.16004 0.225099 4.47481 175 175 175 
1.18355 0.224729 4.48598 176 172 173 
-2.45637 0.343427 6.05371 217 204 187 
0.440663 0.291461 5.49505 4 5 0 
1.08434 0.25454 4.4851 131 129 134 
-1.67552 0.409384 6.39441 83 41 3 
0.546609 0.33718 5.44245 86 84 72 
-1.21994 1.23908 7.93338 164 136 73 
-1.1677 1.29326 7.88729 219 210 181 
-1.23874 1.32745 7.81187 235 225 213 
0.447601 1.31771 6.63415 152 120 7 
-0.8382 1.72233 7.65879 92 72 39 
-1.36095 1.75701 7.63703 107 91 76 
-2.62436 1.82403 7.51177 141 128 119 
1.35898 -0.370523 4.60085 237 186 15 
-0.526695 -0.263935 4.61917 118 130 108 
-0.425716 -0.240997 4.61026 106 110 93 
0.542587 -0.193933 5.64855 169 138 13 
-0.311694 0.00872827 4.58344 187 164 120 
1.06753 0.054076 4.48871 130 74 0 
0.411466 0.0982898 5.47996 122 123 117 
5.40942 0.21024 10.0968 162 148 139 
-0.376433 0.157525 4.62082 42 27 0 
-2.25676 0.477899 6.21976 150 97 5 
-1.24669 1.5095 7.85037 94 81 65 
-0.893035 1.58869 7.46666 197 188 171 
-1.01048 1.65201 7.57338 190 181 166 
-0.806131 -0.164072 4.57964 64 98 48 
0.551923 -0.194618 5.5907 148 116 5 
0.0203496 -0.135963 4.77803 16 45 25 
-0.447448 0.00351017 4.6096 33 92 46 
-0.685651 0.0429708 4.52256 11 80 35 
0.346932 0.18097 5.49368 64 61 56 
-1.79463 0.389425 6.38726 182 146 10 
-1.87801 0.517091 6.41987 54 22 0 
-1.32887 1.74407 7.6564 107 91 76 
0.0265825 -0.165857 4.8065 7 47 23 
-0.216442 -0.0752491 4.64382 191 174 128 
-0.563658 0.0642026 4.55115 34 93 45 
-0.413403 -0.270229 4.58044 104 115 99 
-0.298475 -0.0675131 4.6223 152 135 109 
0.296269 0.133684 5.41299 99 100 102 
0.406505 0.587261 5.98415 41 0 0 
1.11483 -0.466544 4.43359 97 41 0 
1.18476 0.288186 4.46042 234 234 236 
-0.00856337 0.568476 5.43536 96 95 93 
-0.586826 1.01611 7.24392 64 40 0 
0.5268 -0.193252 5.64867 152 125 12 
-1.90921 0.063488 6.42105 203 151 6 
-1.22549 1.24382 7.96462 164 136 73 
-1.17012 1.29699 7.91084 219 210 181 
-0.695907 0.0460559 4.52088 22 63 29 
-0.0258434 -0.1007 4.81958 129 106 62 
-0.535012 -0.307599 4.59297 146 163 147 
1.3549 -0.665498 4.53678 118 39 8 
0.327179 -0.475846 4.19808 135 110 70 
-0.524189 -0.294806 4.59371 25 80 51 
-0.543064 -0.29108 4.59219 165 174 157 
-0.936187 -0.171899 4.47555 240 218 168 
-0.516838 -0.199736 4.66765 56 16 8 
1.08316 -0.260878 4.90586 138 70 0 
-0.448535 -0.162642 4.66432 112 124 110 
-0.176897 -0.154308 4.70292 27 71 36 
1.36153 -0.0885582 4.47611 245 202 25 
-0.149927 -0.0856391 4.63378 120 97 56 
-0.239954 -0.0415416 4.59717 115 92 50 
0.518885 -0.203495 5.66714 172 148 48 
-0.368263 0.124444 4.57236 91 68 26 
0.80329 0.141329 4.77137 25 11 0 
-0.379611 0.174923 4.67053 45 23 0 
-1.68067 -0.0524892 6.24907 43 37 15 
-1.63404 -0.00217544 6.21285 67 60 44 
-1.94516 0.077463 6.31929 88 61 18 
0.337309 0.218729 5.49831 94 92 79 
0.574572 0.238307 5.41849 40 39 44 
-1.83807 0.208644 6.37442 98 70 5 
-1.84748 0.240765 6.3566 214 177 45 
-1.52138 0.304681 6.316 139 116 36 
-1.5104 0.317264 6.3338 34 19 0 
-1.50742 0.35814 6.33596 179 149 37 
-1.49434 0.436864 6.45112 33 30 23 
0.0947348 0.525097 5.40648 233 240 233 
-2.1026 0.496062 6.45073 90 49 5 
-1.89087 0.525083 6.42317 63 22 0 
0.405942 0.588149 5.97975 55 12 0 
0.863735 0.772594 5.59051 90 83 67 
0.91326 0.774276 5.64348 166 141 48 
-0.592379 1.01961 7.32562 52 23 0 
1.16438 1.44504 6.57186 109 70 0 
1.18517 1.52756 6.64236 71 40 0 
0.58531 0.26264 5.44001 121 117 114 
-0.837685 -1.53523 5.19744 27 14 5 
-0.817815 -1.45616 5.077 180 151 121 
-0.761619 -1.20115 5.10683 54 26 12 
-0.494758 -0.748132 4.45899 254 76 92 
1.40755 -0.588582 4.31874 157 111 33 
1.3616 -0.674225 4.56325 116 37 6 
0.0324604 -0.728339 4.83457 74 0 11 
1.47139 -0.450906 4.15442 155 108 26 
1.08544 -0.476422 4.43151 122 47 7 
-0.00408918 -0.378976 4.59659 185 156 114 
0.185428 -0.292395 4.3379 47 28 11 
-0.39048 -0.271955 4.58621 108 107 89 
-0.499812 -0.226915 4.61471 150 138 124 
-0.299467 -0.0886705 4.63091 16 36 8 
-1.08458 0.0090043 4.38206 235 212 160 
0.526471 -0.304756 5.73184 128 109 32 
-0.240146 -0.036291 4.58697 112 89 47 
0.838423 -0.00918486 4.68686 30 30 28 
0.782972 0.036182 4.71024 61 57 56 
-0.378962 0.211834 4.68424 66 45 18 
-1.64327 -0.0131465 6.24215 61 58 49 
0.869835 0.223516 4.69712 31 19 0 
-1.56053 0.00181427 6.19985 96 90 92 
0.296293 0.155518 5.41314 15 15 13 
-1.5236 0.0890209 6.21024 9 4 8 
0.549818 0.198933 5.50299 60 62 61 
0.338085 0.214957 5.51153 104 102 89 
0.579698 0.227228 5.44395 41 40 45 
0.658441 0.233469 5.3814 132 107 23 
0.57806 0.263024 5.41366 127 123 120 
0.446903 0.254784 5.49336 141 141 141 
-1.84805 0.15937 6.41321 227 177 2 
-1.88084 0.184042 6.4312 245 213 110 
0.521642 0.304999 5.45213 71 67 66 
-2.44023 0.355615 6.05294 223 208 175 
0.348801 0.359054 5.77929 136 117 22 
0.598751 0.425693 5.43699 128 108 22 
-2.38989 0.464702 6.03 250 237 221 
-1.48252 0.417264 6.47397 24 20 17 
0.105864 0.502351 5.41747 21 27 25 
-1.50035 0.431747 6.47584 24 21 16 
0.0677141 0.516452 5.40534 151 153 150 
-1.75411 0.476362 6.36814 208 167 25 
0.0597023 0.58608 5.42838 130 129 125 
-2.19827 0.717483 6.06687 171 138 69 
0.468367 1.27807 6.68996 42 18 0 
1.53133 -0.338902 4.20642 120 61 1 
-0.114641 -0.413558 4.55693 43 172 105 
-0.52652 -0.18325 4.66082 128 141 123 
-0.801802 -0.0718287 4.50582 153 127 76 
-0.173723 -0.0860358 4.63878 200 182 134 
-0.0244386 -0.0994975 4.76336 155 133 84 
0.0337707 -0.10185 4.84555 4 42 17 
-0.913337 0.0054474 4.44842 255 255 206 
-0.691716 0.0720487 4.51279 35 86 43 
0.98031 0.0835166 4.56861 10 8 9 
-0.688754 0.165605 4.44277 234 216 152 
-1.91179 0.011063 6.35702 122 59 5 
-1.48698 0.0351642 6.22412 84 82 83 
0.372471 0.183018 5.46987 120 116 113 
-1.92737 0.0749009 6.37531 240 195 70 
0.512554 0.275485 5.44364 153 157 158 
0.515992 0.311113 5.44427 75 71 70 
-1.87909 0.22369 6.35877 77 45 4 
-1.53193 0.299376 6.31484 145 109 12 
0.344895 0.366209 5.75083 146 124 12 
-1.71856 0.342837 6.35623 178 134 9 
-1.58077 0.357823 6.28435 127 79 0 
-2.35963 0.428635 6.11253 249 224 46 
-1.87645 0.4878 6.3692 190 147 32 
-2.10121 0.49648 6.43722 88 48 0 
-2.07844 0.532634 6.42409 244 201 9 
-1.86327 0.529307 6.46941 184 139 10 
0.783472 0.65055 5.22422 151 104 12 
-0.590977 1.01148 7.2897 50 23 0 
1.02265 1.11345 6.5856 136 100 4 
0.45761 1.4165 6.76145 75 36 0 
0.0394164 -0.749184 4.85784 87 0 18 
-0.403428 -0.257145 4.58059 119 116 99 
-0.436058 -0.234216 4.58863 132 135 114 
0.732277 -0.44476 5.4181 241 239 224 
-0.520372 -0.225442 4.6337 90 39 36 
-0.425032 -0.195467 4.63762 108 126 104 
-0.81163 -0.0982965 4.47924 229 205 159 
-0.775339 -0.0638321 4.52517 232 213 157 
1.29675 -0.0593952 4.47646 207 128 7 
-0.914515 0.00475974 4.45934 255 249 200 
0.547 -0.286567 5.73483 132 105 2 
-0.716402 0.01342 4.48608 219 199 148 
0.530698 -0.19039 5.6417 171 143 10 
1.19869 0.0790918 4.47187 254 219 13 
0.480666 -0.117255 5.71253 30 13 3 
0.808654 0.0730226 4.74183 103 100 95 
0.815519 0.0949642 4.85854 22 17 11 
0.33436 0.0589351 5.40973 130 131 133 
-1.66537 0.0105143 6.221 248 218 32 
0.35368 0.12724 5.43036 88 85 80 
-0.410868 0.276676 4.66152 143 121 82 
0.376703 0.185219 5.43415 116 112 109 
-1.54747 0.101281 6.20039 20 16 17 
0.904642 0.311141 4.63125 202 165 14 
-1.55543 0.153608 6.27569 21 18 11 
0.460802 0.25516 5.49424 143 143 143 
0.438863 0.292751 5.4848 8 4 3 
0.545899 0.337007 5.44355 101 99 87 
0.80167 0.433042 4.79921 131 96 6 
-2.48662 0.38755 6.09969 169 129 31 
0.524019 0.423639 5.78494 10 6 3 
-2.32037 0.42522 6.15616 252 222 12 
-1.66928 0.411277 6.37397 108 54 7 
-1.50038 0.417347 6.47093 22 17 13 
-1.23125 1.24107 8.00642 184 143 64 
-1.17602 1.29498 7.94811 227 215 189 
-0.020626 -0.577551 4.66589 28 26 11 
-0.524145 -0.258695 4.5992 142 154 130 
-0.669701 -0.239029 4.71426 2 77 38 
0.733847 -0.431468 5.42374 244 236 225 
-0.484918 -0.211748 4.63418 14 29 22 
-0.325795 -0.0814326 4.619 9 58 29 
0.0261324 -0.0947879 4.73453 1 45 18 
0.540278 -0.188107 5.6205 175 147 12 
0.971431 0.0744147 4.61976 11 9 10 
0.502295 -0.0712526 5.71343 150 122 12 
0.331068 0.191531 5.49802 98 94 91 
0.681856 0.242485 5.3973 167 130 16 
0.557028 0.390465 5.41507 22 18 17 
0.583947 0.49977 5.55519 26 17 10 
0.39556 0.581337 5.96786 94 55 0 
0.740952 0.719066 5.53919 21 19 24 
1.00456 1.17812 6.54433 208 173 11 
-0.251044 -0.100062 4.65698 162 149 105 
0.47799 0.254945 5.48917 144 148 149 
0.516202 0.351896 5.63217 78 75 68 
0.590076 -0.475624 5.47063 231 227 215 
-0.904826 0.0275201 4.44534 226 206 153 
0.558649 -0.206184 5.6452 157 125 6 
1.31423 0.23802 4.58727 27 23 22 
0.899668 0.293064 4.6582 198 159 4 
0.868034 0.758363 5.52992 23 22 18 
-0.107234 -0.45028 4.60036 42 173 103 
-0.0981599 -0.338257 4.56725 43 34 1 
0.0279219 -0.1791 4.86153 8 52 25 
-0.21549 -0.0708506 4.62442 210 190 137 
-0.453941 0.0193921 4.58016 36 111 55 
0.378135 0.285439 5.4967 8 6 9 
-0.108919 -0.234994 4.73377 29 64 24 
0.787265 0.016418 4.73508 143 144 148 
1.2844 -0.262524 4.63452 245 201 18 
1.3872 -0.114054 4.46461 127 71 10 
-1.84076 0.523808 6.38913 162 124 13 
-1.75296 0.53403 6.36255 127 69 0 
1.16736 -0.219307 4.76761 62 48 21 
0.521407 0.213638 5.50998 135 137 136 
-1.70404 0.388386 6.35892 210 169 25 
-1.20146 1.48449 7.78638 83 70 54 
-0.969301 1.6626 7.47468 198 188 176 
1.29265 -0.0548544 4.47835 190 115 13 
0.550185 2.06904 6.81544 219 197 176 
-0.690977 0.0463013 4.49462 22 63 29 
-1.55738 0.0761183 6.22135 24 20 21 
-0.768475 -1.20111 5.12669 80 55 33 
-1.06821 -0.0272447 4.39444 108 85 51 
-0.476244 -0.134664 4.65457 30 50 41 
-0.691154 0.0798726 4.49454 39 71 32 
1.09267 0.2449 4.51394 142 143 138 
0.718961 0.567096 5.16263 182 146 34 
0.53898 2.03388 6.84133 183 140 1 
-0.440233 -0.273494 4.61106 18 73 42 
0.927546 0.281178 4.64868 15 17 14 
-0.967828 1.66679 7.4796 209 197 183 
-1.67196 0.411076 6.38218 108 54 7 
1.24122 0.5649 4.95279 149 111 12 
-1.00485 1.64795 7.51782 206 194 180 
-0.499803 -0.185959 4.66832 55 22 13 
-0.595941 -0.588713 5.42275 173 155 143 
-0.593548 -0.539284 5.47729 72 29 23 
-1.66982 0.407049 6.37442 87 45 5 
-1.8779 0.494986 6.37081 162 128 21 
-1.84312 0.532978 6.38676 164 120 11 
-0.736349 -1.2054 5.12334 64 45 28 
-0.759527 -1.51014 5.10244 200 171 131 
-0.736898 -1.50398 5.10151 31 19 19 
1.05772 0.115051 4.5295 173 145 38 
0.785067 0.100538 4.74311 29 16 7 
0.478082 0.333429 5.54566 95 92 87 
-1.8392 0.524877 6.39173 182 140 20 
-0.409569 -0.26986 4.597 121 118 101 
-1.48987 0.03464 6.23385 84 82 83 
0.51554 0.270338 5.48476 153 157 158 
-1.74585 0.481526 6.35605 202 162 13 
-1.82706 0.500281 6.39548 60 14 0 
-0.731954 -1.48155 5.11128 190 162 122 
0.839044 0.0171973 4.70607 128 129 124 
-1.49894 0.07199 6.22946 135 132 123 
0.538048 0.168916 5.56387 19 18 23 
1.07067 0.335039 4.59174 119 119 109 
-0.439111 -0.346095 4.59503 2 21 15 
1.10133 -0.649305 4.49847 242 211 71 
0.585276 -0.387763 5.42494 151 143 124 
-0.582613 1.03509 7.21592 66 42 0 
1.44546 -0.570249 4.28193 255 252 136 
1.08095 -0.637873 4.50464 237 213 81 
-0.485789 -0.187462 4.66496 56 19 11 
-0.583106 1.10272 7.29032 89 50 0 
-1.56313 0.0468257 6.23136 184 179 176 
-1.55674 0.0914659 6.23172 18 15 22 
-0.652268 -0.437164 4.64634 42 162 90 
1.43964 -0.480056 4.35323 123 50 0 
1.34445 -0.0861333 4.44906 250 208 25 
1.1625 -0.246199 4.79871 70 43 16 
-0.835205 -0.50002 4.85569 115 113 98 
-0.563992 -0.335796 4.63433 24 57 36 
1.05418 0.0830481 4.52268 123 77 0 
-0.347594 -0.056972 4.60647 18 17 0 
-1.23551 -0.109253 4.46582 80 53 32 
-1.15621 -0.735083 6.60988 73 69 66 
-1.1062 -0.66295 6.52656 199 165 67 
-1.19107 -0.709289 6.6248 170 169 167 
0.794663 0.353653 5.106 68 18 11 
-1.15132 -0.375917 6.22682 22 20 25 
-1.10062 -0.336845 6.24702 164 161 144 
-1.07849 -0.283357 6.23738 127 127 117 
-1.1689 -0.29167 6.20839 176 176 176 
-1.23286 -0.310505 6.25388 175 176 170 
-1.18766 0.278117 5.29306 71 46 6 
-1.60836 -0.0823389 6.28951 168 166 169 
-1.39045 0.0031512 6.36923 198 172 95 
-1.64931 0.0133328 6.25372 250 218 75 
-2.19853 0.18026 6.41908 190 118 0 
-1.88326 0.522959 6.39753 60 26 17 
-2.09559 0.491972 6.43858 64 25 10 
-1.01338 1.0174 7.94691 212 175 25 
0.5507 2.01235 6.87884 154 96 0 
0.906594 2.28353 6.72444 225 209 196 
0.82205 2.27949 6.74605 221 206 199 
-0.776169 -1.20128 5.10336 52 37 16 
1.13628 -0.268079 4.76222 218 156 9 
1.32115 -0.0564677 4.47043 242 203 12 
1.15485 -0.258675 4.82441 217 164 34 
1.15969 -0.217469 4.74894 49 31 17 
1.17234 -0.197786 4.74312 215 167 31 
-0.839119 -0.519606 4.85765 41 24 14 
-0.798794 -0.45383 4.86581 35 22 6 
-0.540586 -0.195757 4.62641 66 22 19 
-0.551702 -0.189517 4.66372 130 145 124 
0.782732 0.100566 4.74042 18 16 17 
-1.08041 -0.0250561 4.36414 92 66 51 
-1.10013 0.00722324 4.35403 222 201 138 
0.459706 0.252521 5.52449 169 169 171 
0.606108 0.426154 5.46317 140 117 21 
0.602961 0.447814 5.47504 22 13 4 
1.08611 0.748531 5.3078 126 84 2 
0.635709 0.575201 5.50396 16 5 3 
0.736262 0.735626 5.60544 17 13 10 
-1.62954 -0.0399439 6.27107 19 20 12 
-1.56276 0.00209501 6.22501 73 73 71 
-1.6502 -0.0163267 6.2373 32 33 28 
-1.55442 0.0753298 6.23204 27 22 19 
-1.55604 0.132248 6.25849 21 12 7 
-1.51768 0.304662 6.32468 147 113 23 
-1.45863 0.402271 6.47566 111 105 105 
-1.70513 0.389723 6.34691 246 206 49 
-1.75231 0.476752 6.37272 210 161 32 
-0.962541 0.502038 7.68508 135 87 3 
-0.59407 1.0114 7.16682 27 6 0 
0.515503 1.82623 6.94373 146 99 0 
0.599094 1.94638 6.89182 255 218 127 
0.536225 2.0282 6.83789 164 107 0 
-1.17029 1.51214 7.79119 179 161 151 
1.37435 -0.116836 4.46007 130 75 10 
1.37506 -0.0865318 4.46646 242 210 14 
1.1343 -0.120385 4.69756 248 215 58 
-0.42053 -0.265136 4.57545 115 117 103 
-0.845372 -0.48083 4.87557 36 16 7 
-0.33906 -0.0712967 4.62978 12 27 6 
-1.12655 -0.346037 6.22776 149 149 141 
0.779091 0.760141 5.58854 110 106 103 
-1.60153 -0.07726 6.30779 179 177 178 
-1.66845 -0.068827 6.32487 22 24 21 
-1.76909 0.240327 6.36961 180 126 4 
-1.71339 0.34324 6.37178 174 126 2 
-0.864687 0.507473 7.55069 230 185 66 
-1.84185 0.530684 6.39764 182 143 4 
0.609741 1.94992 6.89501 245 205 120 
1.11201 2.15659 6.7649 202 158 7 
0.395863 1.87947 7.10585 214 173 5 
-1.20615 1.25498 8.0028 184 137 21 
-1.13227 1.31082 7.90732 234 217 191 
0.904699 2.15142 6.82497 188 141 25 
0.904329 2.28033 6.71158 222 206 193 
0.974979 2.32475 6.68268 229 215 206 
-0.556018 -0.309204 4.61229 156 170 145 
-0.472009 -0.265036 4.55277 19 75 50 
-0.526778 -0.204614 4.62575 72 20 24 
0.791986 0.0740968 4.71732 100 101 96 
0.785156 0.117309 4.76099 10 9 14 
-0.416248 -0.0210346 4.61691 16 52 24 
0.814419 0.2007 4.71074 203 166 13 
0.793648 0.188026 4.75098 196 158 11 
1.04844 0.350536 4.57665 19 17 18 
0.906997 0.318495 4.62196 203 161 13 
-0.731669 0.176226 4.45322 106 82 34 
0.722828 0.0537407 5.63619 126 92 2 
0.945915 0.763819 5.61181 26 20 22 
-1.74169 0.485646 6.36502 210 165 22 
-0.561664 1.02166 7.27647 26 3 0 
1.11137 1.906 6.8876 162 110 0 
0.506086 1.86459 6.94509 223 179 8 
0.375967 1.87163 7.0537 218 175 8 
1.05826 2.17588 6.76379 248 238 229 
-1.14035 1.30799 7.92146 232 218 189 
0.447249 2.0719 6.87284 168 122 0 
-0.863689 1.5903 7.54435 218 209 192 
-1.22597 1.45812 7.8571 206 190 177 
-0.908266 1.59481 7.52995 221 211 199 
-0.827158 1.63554 7.57648 207 191 178 
0.978066 2.37739 6.82075 78 62 47 
-1.08109 1.5783 7.71843 167 151 138 
-1.25228 1.51778 7.99478 88 70 56 
0.878327 2.46592 6.75198 195 172 158 
0.954562 0.0938633 4.57259 8 7 12 
1.08209 0.264919 4.50697 144 144 144 
0.815329 0.252751 4.6799 209 169 9 
-1.11052 -0.0409832 6.45144 164 121 8 
-1.69212 0.371168 6.3549 216 177 14 
-1.76546 0.547033 6.37773 151 81 11 
1.14556 2.09266 6.76922 250 218 13 
0.538007 1.88326 6.96751 225 181 12 
0.417321 1.89132 7.11078 224 175 10 
0.563384 2.00415 6.89214 160 102 3 
0.905759 2.12994 6.81821 195 148 8 
1.02124 2.18762 6.72018 246 237 230 
0.984603 2.30174 6.68432 227 215 203 
0.696922 2.25648 6.76862 203 187 174 
3.40216 -9.2628 25.7829 183 167 144 
1.00385 0.313341 4.57001 16 14 19 
0.620685 0.539836 5.42128 151 114 8 
0.653566 1.95189 6.87034 252 221 131 
0.453903 1.99275 6.88674 213 169 10 
0.660948 2.076 6.8247 194 148 10 
0.773067 2.13812 6.78157 232 216 200 
-0.939238 1.47471 7.62724 154 116 5 
-0.865793 1.62541 7.57189 213 201 187 
-1.10696 1.54261 7.79807 174 158 145 
0.885323 2.36507 6.62398 112 94 80 
-1.51154 -0.305118 6.50946 217 195 138 
0.633815 2.11905 6.77514 134 105 47 
-1.50731 0.31862 6.3244 34 19 0 
-1.84005 0.236718 6.35779 215 181 48 
-1.58277 0.360906 6.27691 132 85 0 
-1.49161 0.268962 6.29673 8 8 8 
0.589099 -0.39274 5.44022 151 143 124 
-1.75009 0.478087 6.35129 216 172 37 
-1.7484 0.537766 6.34858 157 87 2 
-1.39851 0.502446 6.56514 116 106 96 
0.837564 0.0175516 4.69066 145 147 146 
-1.84066 0.534061 6.37819 191 150 10 
0.652767 -0.407556 5.46094 241 234 218 
-0.75851 -1.22529 5.14969 53 29 25 
1.45053 -0.62412 4.5383 85 34 0 
-0.549667 -0.347141 4.66441 12 54 34 
-0.453004 -0.245281 4.64289 86 36 39 
0.900832 -0.0636473 4.7326 47 36 34 
0.811837 0.0176019 4.76644 73 73 65 
0.599034 -0.38995 5.45209 184 176 155 
0.793221 0.348517 5.12535 92 31 3 
-1.2402 -0.244719 6.16066 183 179 167 
0.702954 0.614004 5.23436 190 153 49 
0.651106 0.586478 5.49987 136 107 27 
0.723094 0.659972 5.53787 26 10 0 
-1.65833 0.0237664 6.20661 219 200 79 
-0.00500869 0.63631 5.62497 47 30 12 
-1.56519 0.14298 6.20915 23 25 14 
-1.5235 0.442585 6.41195 21 11 2 
1.06814 1.22314 6.47621 171 120 2 
1.1626 1.34378 6.47256 151 98 0 
0.446002 1.24364 6.56358 114 61 0 
0.444473 1.28757 6.59718 110 65 0 
-0.579453 0.904174 7.07346 99 54 0 
0.434857 1.4024 6.6316 38 14 2 
-0.60021 1.04056 7.1648 25 2 0 
-1.05811 1.02636 7.75169 221 172 41 
0.824679 0.338755 5.17126 88 24 0 
1.54588 -0.582853 4.28322 40 33 14 
-0.729604 -1.22772 5.1478 40 21 14 
-0.659525 -0.677349 4.70556 65 146 90 
-0.526386 -0.327782 4.63883 169 179 154 
-1.04952 -0.0499846 4.43972 95 69 34 
0.861936 -0.0159873 4.70432 31 27 24 
-1.02836 -0.0284313 4.45617 156 132 88 
0.863053 0.00269519 4.71941 152 146 146 
0.830121 0.0773291 4.76812 98 94 93 
0.823559 0.0855717 4.79384 20 14 16 
1.0959 0.35629 4.63018 15 9 19 
0.529505 -0.180396 5.66694 194 158 38 
19.5691 -3.81309 16.9424 36 34 37 
19.5993 -3.58067 16.5559 39 35 36 
0.80702 0.36788 5.13205 211 167 34 
0.579367 0.262197 5.45055 143 140 135 
0.543715 0.370379 5.47786 17 13 12 
0.674243 0.592727 5.20435 43 16 7 
-0.21508 0.394932 5.35283 118 102 69 
0.627509 0.553104 5.4924 156 117 14 
0.914952 0.774233 5.58222 27 16 22 
-1.55567 0.0769396 6.22413 29 15 12 
-1.51366 0.329732 6.2964 30 17 0 
-1.51329 0.368832 6.30779 197 164 33 
-1.46872 0.411461 6.42468 118 113 110 
-1.7868 0.50063 6.36137 211 158 20 
-1.79916 0.563296 6.35023 166 92 7 
0.982973 1.12792 6.49853 153 113 2 
-0.897416 0.476234 7.40919 168 124 3 
-0.9025 0.528459 7.39609 238 197 71 
0.466459 1.5296 6.79294 77 38 0 
-1.15637 1.61963 7.65448 87 69 55 
0.421867 2.22301 6.90477 66 39 22 
1.3392 -0.048328 4.57066 251 221 89 
-0.409858 -0.215209 4.69086 128 141 115 
19.7155 -7.16518 19.2509 65 56 47 
19.839 -5.93762 17.8781 215 206 189 
0.978999 0.307265 4.63786 23 23 13 
19.423 -5.83815 19.7054 87 73 62 
0.524131 0.384854 5.53281 101 99 86 
0.68815 0.588159 5.21039 43 15 3 
-1.77045 0.209413 6.32475 237 183 12 
-0.696548 0.455233 7.30372 239 201 76 
0.973162 1.21109 6.44762 231 196 18 
1.06282 1.22477 6.46731 170 119 4 
-0.59438 1.10517 7.25783 79 37 0 
0.926037 1.88345 6.77586 167 109 1 
0.560955 1.94162 6.79832 244 229 164 
1.0026 2.15439 6.67157 250 238 216 
0.619097 2.11433 6.75931 189 133 22 
0.986584 2.29885 6.63992 234 220 209 
0.857911 2.26932 6.62936 229 211 197 
0.747662 2.26342 6.63369 229 215 204 
-1.14968 1.62215 7.66206 77 59 45 
0.417038 2.22423 6.89169 65 39 24 
-1.52681 0.303955 6.2947 163 124 7 
0.416836 1.95204 6.87903 167 115 3 
1.45305 -0.717677 4.41703 17 11 15 
1.38265 -0.81801 4.5452 202 163 70 
1.47909 -0.744235 4.49847 13 13 11 
-0.273461 -0.311686 4.5549 20 54 30 
-0.501403 -0.307826 4.62524 4 84 49 
-0.441007 -0.286055 4.60929 11 75 49 
-0.519522 -0.286518 4.65315 165 174 145 
1.10451 0.168032 4.52845 20 14 24 
20.5375 -6.0127 17.8655 206 194 182 
19.7092 -5.90128 17.7835 219 210 193 
25.5946 -4.122 17.5777 23 21 22 
20.5111 -4.9457 18.0175 173 160 143 
19.2486 -5.7809 19.5506 86 72 61 
20.5026 -3.82801 16.9212 158 142 129 
19.3992 -3.77953 16.7946 35 35 35 
-1.23047 -0.26793 6.17758 183 182 178 
0.525243 0.37787 5.54519 102 101 83 
-1.12312 -0.183773 6.18066 121 118 113 
0.781817 0.806346 5.60438 84 79 73 
0.0222186 0.731883 5.87054 109 83 46 
-1.82972 0.506324 6.35353 101 38 0 
-0.636484 0.421746 7.30614 236 202 95 
0.986923 1.20483 6.45489 235 196 31 
-0.599771 1.10566 7.24214 83 41 1 
1.0737 2.15017 6.69588 212 161 34 
0.404407 1.93901 6.86992 163 113 2 
0.519102 2.11883 6.67394 233 218 195 
0.413452 2.06469 6.807 176 127 6 
-0.901506 1.58629 7.39512 229 218 200 
0.927367 2.30789 6.59889 237 221 208 
-1.18248 1.54178 7.62121 184 170 157 
-0.99434 1.65989 7.39763 224 211 202 
0.480621 2.30059 6.82338 89 69 58 
-0.475426 -0.232073 4.67394 15 17 14 
1.03638 0.0513269 4.55952 222 180 20 
22.2067 -7.67464 19.8237 39 35 36 
19.5839 -6.87151 18.2153 233 223 211 
25.7523 -5.07161 17.3519 117 107 95 
19.9526 -5.99101 18.017 218 209 194 
25.291 -4.38844 17.5213 116 106 96 
0.800707 0.337446 5.12119 95 36 2 
0.522055 0.366285 5.56189 94 92 80 
-1.37815 0.140014 6.3471 13 12 8 
-0.558315 0.3456 7.24013 218 178 91 
0.690864 0.959056 6.51573 132 86 1 
-0.646039 0.428524 7.29064 236 202 92 
0.483936 1.87541 6.8549 231 187 16 
0.584334 1.94614 6.78674 251 242 211 
0.355902 1.88151 6.98066 219 175 6 
-1.10648 1.34715 7.69434 195 150 7 
0.509098 1.99452 6.78639 176 112 6 
-1.20009 1.31972 7.73675 240 223 205 
0.856468 2.11976 6.72727 204 157 9 
0.627723 2.09232 6.76109 207 151 12 
0.522052 2.102 6.72596 238 222 199 
0.940423 2.2916 6.60742 234 222 208 
-1.16611 1.53715 7.61788 185 169 156 
0.725974 2.26212 6.65242 225 211 198 
19.3303 -3.58631 16.4025 37 33 32 
1.5297 -0.499479 4.39914 153 69 0 
-0.570852 -0.554649 4.6329 51 175 102 
-0.48255 -0.32071 4.58365 8 40 27 
19.8332 -6.94096 18.4549 227 217 205 
21.7975 -6.24158 17.7348 144 130 117 
25.6678 -5.07291 17.3421 119 109 97 
21.1569 -5.0707 17.8625 141 125 110 
0.58096 0.412048 5.52716 15 9 9 
-1.21169 1.3325 7.71155 239 224 205 
0.422589 1.98719 6.82379 228 181 17 
0.593175 2.06217 6.69279 209 159 10 
-0.763922 -0.017933 4.54554 228 209 151 
0.748818 0.343802 5.02083 140 92 7 
-1.7577 0.351405 6.37024 220 176 9 
-0.684053 0.418146 7.30842 223 186 79 
20.5564 -6.27784 18.794 185 169 153 
0.559747 0.444468 5.55934 29 21 8 
1.47034 -0.484897 4.38257 133 50 0 
1.12337 -0.47035 4.43875 140 66 3 
-1.63171 -0.0395327 6.26157 23 24 16 
-0.870045 0.449881 7.49745 167 123 2 
-2.12407 -0.281409 10.5398 153 135 123 
0.78652 0.0327745 4.74054 73 73 65 
1.10118 0.325556 4.52027 84 80 79 
-1.55562 0.0754554 6.22764 29 15 12 
0.569417 1.91184 6.86975 182 123 5 
0.65014 2.10888 6.81189 186 129 14 
0.515277 1.87061 6.91512 231 187 16 
-1.09134 1.33709 7.76138 195 150 7 
0.54093 1.99098 6.84356 176 112 6 
-1.17266 1.30266 7.8509 240 223 205 
0.836046 0.191045 4.77016 215 176 10 
0.629497 2.05825 6.76138 209 159 10 
