ply                 
format ascii 1.0    
element vertex 185
property float x    
property float y    
property float z    
property uchar red  
property uchar green
property uchar blue 
end_header          
-0.761484 0.0904941 4.38405 62 49 17 
1.34438 -0.405384 4.29008 116 54 5 
1.40388 -0.365077 4.06126 126 90 12 
-0.524948 -0.280557 4.56895 115 142 127 
-0.480806 -0.193091 4.56542 128 110 100 
-0.525334 -0.151951 4.63274 0 25 6 
1.05703 -0.12885 4.67889 120 79 0 
-0.283468 -0.076019 4.58324 113 106 80 
-0.329992 -0.0275033 4.55505 18 20 0 
-0.240633 -0.0188863 4.54853 103 81 44 
-1.00423 -0.00154419 4.33133 59 36 0 
0.76751 -0.00425715 4.6078 47 47 45 
-0.963758 0.0096704 4.33427 107 84 43 
-0.670568 0.0367407 4.44765 163 160 119 
0.762785 0.041492 4.59607 117 119 118 
-0.432694 0.0552015 4.56356 25 60 20 
-0.442456 0.0649472 4.56385 159 155 110 
-1.78995 0.0944248 6.2887 70 38 0 
-1.77163 0.132447 6.29301 54 28 0 
-1.80915 0.155298 6.26555 73 50 8 
-0.749403 0.147439 4.36964 44 33 1 
0.510019 0.233739 5.33557 147 149 148 
0.400404 0.262829 5.37522 132 128 127 
-1.43364 0.348495 6.19216 167 135 26 
-0.389288 0.278329 4.63097 124 103 76 
1.06433 0.352237 4.38982 183 186 191 
0.0642808 0.500094 5.28721 32 36 35 
0.364252 0.575178 5.83668 41 0 0 
0.298407 0.698845 5.78074 207 170 30 
1.09821 1.32485 6.35976 42 17 0 
1.1187 -0.750162 5.73871 138 118 91 
0.00993781 -0.558089 4.6473 52 124 74 
1.28305 -0.50514 4.2467 133 99 10 
0.631837 -0.510437 5.41151 36 94 69 
-0.501968 -0.256442 4.54888 24 78 52 
-0.416677 -0.225157 4.52402 24 55 37 
-0.463842 -0.200804 4.56321 66 22 19 
-0.536531 -0.200811 4.65355 96 110 97 
-0.460741 -0.194153 4.53849 76 31 26 
-0.435852 -0.177724 4.55913 52 15 9 
-0.436976 -0.163157 4.57201 51 21 13 
-0.525493 -0.151375 4.63035 0 25 6 
-0.436024 -0.134429 4.60952 96 102 90 
0.472793 -0.164801 5.54123 149 128 39 
-0.211552 -0.10715 4.60659 25 60 30 
-0.186853 -0.0842141 4.59906 88 75 41 
-0.293536 -0.0531065 4.53702 11 24 4 
-0.264455 -0.0329512 4.5271 62 46 13 
-0.347133 -0.0209681 4.55747 139 130 101 
-0.305297 -0.00482448 4.53469 106 84 47 
-0.392131 0.000690255 4.56081 5 51 22 
-0.279528 0.0171748 4.51746 119 96 55 
0.760622 0.0249845 4.59216 16 16 14 
0.708969 0.0446262 4.63117 143 144 146 
-1.81081 0.0620675 6.2732 205 153 8 
-0.946812 0.0456833 4.34423 49 25 1 
-0.4328 0.0538207 4.5635 26 68 28 
-1.80434 0.0752276 6.27641 204 156 10 
-0.673124 0.0560333 4.44232 22 24 0 
0.300309 0.0659754 5.3094 119 120 122 
0.711527 0.0615706 4.63874 51 51 51 
0.979368 0.0746244 4.43481 121 64 0 
0.962957 0.106979 4.44359 84 46 0 
-1.78816 0.167404 6.27324 225 184 18 
0.934468 0.12434 4.45998 154 126 19 
0.946204 0.139377 4.46395 21 15 3 
-0.749291 0.145415 4.3732 43 34 5 
0.451377 0.213541 5.38751 2 2 2 
0.403032 0.262939 5.37601 131 127 126 
0.784827 0.241562 4.59374 36 27 12 
0.81593 0.265246 4.59542 158 133 17 
0.989233 0.260942 4.42498 124 122 125 
-1.5944 0.397197 6.24437 83 41 3 
0.832669 0.295688 4.54315 37 29 6 
0.496262 0.352859 5.32275 85 82 75 
0.830122 0.313015 4.5459 200 170 36 
-1.78675 0.475483 6.23284 162 128 21 
-1.74117 0.482421 6.26381 44 17 0 
-1.71218 0.486686 6.25362 161 119 9 
-1.74902 0.505037 6.24613 162 124 13 
-1.70605 0.534466 6.24419 132 69 2 
0.0463255 0.505852 5.28892 136 137 139 
0.350776 0.593218 5.82542 141 113 6 
-2.16857 0.633565 5.93948 239 227 211 
0.25736 0.629903 5.71526 188 158 26 
-0.570924 1.04976 7.13596 72 44 0 
0.409234 1.35851 6.55061 61 29 0 
1.06373 -0.792668 5.73816 42 18 0 
1.12694 -0.750462 5.73891 128 115 83 
1.42044 -0.274751 4.13707 111 59 2 
-0.520618 -0.269235 4.55166 109 126 116 
-0.56504 -0.209024 4.69167 5 9 8 
-0.456454 -0.188221 4.54314 65 28 22 
-0.48759 -0.17157 4.57529 39 21 9 
-0.21004 -0.111487 4.61272 18 61 31 
-0.297575 -0.0565777 4.5474 7 32 10 
1.24825 -0.0416269 4.39694 238 198 14 
-0.268129 -0.0361834 4.54303 84 69 38 
-0.242634 -0.037667 4.54358 192 175 132 
-0.302436 -0.00712393 4.53824 103 83 46 
-0.393778 -0.000633329 4.56221 5 56 25 
0.759749 0.0492094 4.59508 109 111 110 
1.08993 0.0611439 4.44956 199 122 8 
-1.79352 0.101666 6.29505 68 41 11 
0.977671 0.0736257 4.42688 121 64 0 
-0.764934 0.100186 4.3759 31 22 5 
0.395951 0.157237 5.34098 126 123 116 
-0.749131 0.140923 4.37439 41 34 8 
0.256943 0.174572 5.32156 8 9 11 
-1.78529 0.218689 6.22436 73 40 9 
-0.367699 0.186584 4.58541 37 22 0 
0.468875 0.226762 5.3662 135 137 136 
0.532692 0.241945 5.32584 27 27 25 
0.461559 0.283072 5.32538 132 136 135 
0.837357 0.293816 4.54636 30 27 20 
1.01119 0.327344 4.42266 184 184 186 
-1.78581 0.467546 6.24035 162 129 13 
-1.73767 0.481874 6.25536 44 17 0 
-1.7865 0.503093 6.2521 58 24 0 
0.361179 0.57108 5.83422 48 8 0 
-2.1334 0.601413 5.99618 255 223 79 
-0.56887 0.972865 7.0197 64 40 0 
-1.17118 1.19107 7.73439 167 135 58 
2.97341 1.25768 8.1625 140 122 108 
-1.11549 1.23635 7.66312 223 209 180 
-1.00052 1.58467 7.33683 186 176 164 
-0.00322555 -0.445981 4.56844 32 147 82 
0.556999 -0.512067 5.43151 11 53 39 
-0.505574 -0.225032 4.54785 118 133 114 
-0.566225 -0.209454 4.68374 5 9 8 
-0.775009 -0.0778923 4.4535 212 189 137 
0.0102928 -0.0794022 4.72871 5 27 14 
-0.816738 -0.0187111 4.41997 109 88 45 
-0.346683 -0.0109813 4.55411 149 131 91 
-0.39606 -0.00255907 4.56396 9 63 29 
-0.301331 0.0241809 4.52454 173 150 108 
1.08971 0.0599504 4.44321 200 125 6 
0.299637 0.0769373 5.3116 114 115 117 
-1.77682 0.120852 6.27255 56 36 1 
0.375263 0.101348 5.38382 125 124 119 
0.934447 0.112905 4.45844 162 134 11 
0.31572 0.142979 5.31903 65 64 62 
-1.77573 0.174763 6.27498 231 176 11 
-1.74182 0.242493 6.22063 192 147 2 
1.04272 0.210802 4.44312 34 31 26 
0.518959 0.280165 5.29785 102 103 98 
1.05663 0.240855 4.40871 175 175 175 
1.0785 0.240634 4.41903 176 172 173 
-2.32162 0.330815 5.91682 217 204 187 
0.395427 0.298187 5.36956 4 5 0 
0.986451 0.267709 4.41853 131 129 134 
-1.59078 0.39718 6.23852 83 41 3 
0.49369 0.341429 5.31921 86 84 72 
-1.17478 1.18894 7.72685 164 136 73 
-1.12505 1.24031 7.68096 219 210 181 
-1.1923 1.27191 7.60759 235 225 213 
0.401887 1.26247 6.45113 152 120 7 
-0.812899 1.64642 7.45198 92 72 39 
-1.30903 1.67686 7.43566 107 91 76 
-2.50863 1.73394 7.32568 141 128 119 
1.24618 -0.310632 4.52629 237 186 15 
-0.50392 -0.222484 4.54976 118 130 108 
-0.41027 -0.200583 4.54112 106 110 93 
0.494285 -0.154929 5.51494 169 138 13 
-0.305736 0.0319063 4.51603 187 164 120 
0.972233 0.0818598 4.42231 130 74 0 
0.369221 0.11773 5.35571 122 123 117 
5.20037 0.246966 9.83251 162 148 139 
-0.366608 0.169571 4.55137 42 27 0 
-2.13668 0.458299 6.07481 150 97 5 
-1.20088 1.44482 7.64448 94 81 65 
-0.863596 1.51808 7.26608 197 188 171 
-0.975645 1.57839 7.37076 190 181 166 
-0.763864 -0.131246 4.5141 64 98 48 
0.502663 -0.155318 5.46007 148 116 5 
0.00365392 -0.101069 4.69663 16 45 25 
-0.431735 0.0262436 4.54103 33 92 46 
-0.652942 0.061693 4.46072 11 80 35 
0.308587 0.194535 5.3689 64 61 56 
-1.70283 0.377752 6.23236 182 146 10 
-1.78235 0.497422 6.26435 54 22 0 
-1.27866 1.66494 7.45434 107 91 76 
0.00967924 -0.128902 4.72326 7 47 23 
-0.216834 -0.0456416 4.572 191 174 128 
-0.539873 0.0820232 4.48696 34 93 45 
