ply                 
format ascii 1.0    
element vertex 994
property float x    
property float y    
property float z    
property uchar red  
property uchar green
property uchar blue 
end_header          
0.379141 -0.490396 1.22975 117 77 0 
0.406586 -0.468888 1.22166 194 161 82 
0.367298 -0.457086 1.22027 205 180 61 
0.403481 -0.431293 1.20843 120 84 6 
0.223207 -0.423168 1.19367 197 201 200 
0.348155 -0.422712 1.20823 175 147 22 
0.379827 -0.413547 1.20147 204 174 88 
-0.214445 -0.423046 1.24312 174 179 182 
0.289152 -0.374819 1.18431 204 208 207 
0.202208 -0.370365 1.17283 230 234 233 
0.320328 -0.358615 1.17282 111 84 0 
0.31437 -0.343196 1.16654 223 189 81 
0.139014 -0.337084 1.15773 196 164 41 
0.349494 -0.337194 1.16239 49 45 42 
-0.449584 -0.341593 1.21311 35 132 167 
-0.449326 -0.33943 1.21197 87 181 219 
0.345665 -0.319273 1.15402 221 218 209 
0.21877 -0.316544 1.15722 16 34 54 
0.327003 -0.310188 1.15018 187 155 70 
0.302556 -0.308049 1.14799 127 145 169 
0.303537 -0.306421 1.14684 51 75 113 
0.187361 -0.29522 1.14405 132 130 167 
0.335662 -0.292243 1.14143 66 40 0 
0.237962 -0.246442 1.12195 18 19 40 
0.239723 -0.24643 1.12182 143 137 173 
0.238898 -0.244715 1.12093 21 26 55 
0.228573 -0.239532 1.11855 49 53 80 
0.235448 -0.239067 1.11756 69 76 118 
0.29097 -0.231883 1.10905 188 157 74 
0.286301 -0.222726 1.10424 189 153 79 
-0.204211 -0.196999 1.11204 142 145 150 
-0.199409 -0.196519 1.11361 93 94 99 
-0.2041 -0.194843 1.11113 118 121 126 
-0.201131 -0.194882 1.11162 120 121 126 
-0.196685 -0.194924 1.11379 222 223 228 
-0.194467 -0.194299 1.11421 215 216 221 
-0.204869 -0.193026 1.10935 65 68 73 
-0.179178 -0.19323 1.11886 48 49 54 
-0.186961 -0.19213 1.11508 94 95 100 
-0.18057 -0.192459 1.11809 222 223 228 
-0.202634 -0.181988 1.10263 89 90 95 
-0.200187 -0.180994 1.10297 212 213 218 
-0.207179 -0.180212 1.10028 98 99 101 
-0.180613 -0.181733 1.11093 207 208 213 
-0.198644 -0.180213 1.1028 66 67 71 
-0.104736 -0.18187 1.13771 129 130 134 
-0.189564 -0.176429 1.10388 93 94 98 
-0.102327 -0.181659 1.13812 112 113 117 
-0.156322 -0.17482 1.11487 69 67 72 
-0.119794 -0.174963 1.12929 219 220 224 
-0.156752 -0.171384 1.11266 217 216 221 
-0.210234 -0.167817 1.09328 105 104 109 
-0.136913 -0.171456 1.12094 83 84 88 
-0.0602269 -0.175466 1.14785 89 89 91 
-0.20846 -0.166797 1.09324 79 80 84 
-0.170453 -0.168476 1.10596 227 228 232 
-0.0948012 -0.172933 1.13514 96 97 101 
-0.205761 -0.16597 1.09361 230 231 235 
-0.0525824 -0.17428 1.15019 71 71 73 
-0.157762 -0.16638 1.10951 228 227 232 
-0.124169 -0.168431 1.1234 220 221 225 
-0.145105 -0.166693 1.11462 51 52 56 
-0.185481 -0.161101 1.09612 77 78 82 
-0.0390406 -0.168531 1.15149 72 71 76 
-0.0954729 -0.16472 1.12956 244 245 249 
-0.0940355 -0.164185 1.12917 79 80 84 
-0.0830129 -0.164308 1.13316 92 93 97 
-0.195129 -0.158482 1.09211 85 86 88 
-0.100573 -0.162575 1.12718 137 138 142 
-0.14889 -0.159284 1.10819 146 145 150 
-0.148321 -0.158132 1.10768 202 201 206 
-0.0367 -0.163948 1.14942 221 220 225 
-0.171694 -0.155675 1.09726 121 122 126 
-0.0754164 -0.160206 1.13147 67 67 69 
-0.216604 -0.15369 1.08477 33 34 39 
-0.0723197 -0.159685 1.13248 79 79 81 
-0.214742 -0.15282 1.08516 218 219 224 
-0.168113 -0.154638 1.098 59 60 64 
-0.0809209 -0.158424 1.12946 125 126 130 
-0.106114 -0.157078 1.12184 123 124 128 
-0.0516107 -0.159699 1.14112 71 71 73 
-0.0788817 -0.156873 1.12914 69 70 74 
-0.165665 -0.152033 1.09679 71 72 76 
-0.036559 -0.156854 1.14522 54 55 59 
-0.220546 -0.147576 1.07919 112 113 118 
-0.167483 -0.149313 1.09465 209 210 214 
-0.0366854 -0.154241 1.14288 240 241 245 
-0.0657356 -0.15165 1.12998 226 226 228 
-0.0352404 -0.153401 1.14327 96 97 101 
-0.169993 -0.146406 1.09163 107 106 111 
-0.0488047 -0.151934 1.1373 64 64 66 
-0.0967939 -0.147703 1.11839 157 158 162 
-0.0806528 -0.148375 1.12227 70 74 75 
-0.113279 -0.145657 1.11234 203 202 207 
-0.112238 -0.140555 1.10944 181 180 185 
-0.188784 -0.135691 1.08175 173 176 181 
-0.0350123 -0.140319 1.13459 91 95 98 
-0.0131922 -0.141029 1.14189 70 71 75 
-0.0404294 -0.139271 1.13277 142 141 146 
-0.168368 -0.133384 1.08548 235 234 239 
-0.0700608 -0.136884 1.11996 140 125 130 
-0.154148 -0.132415 1.08928 38 37 42 
-0.147676 -0.130962 1.0919 36 34 39 
-0.0353319 -0.135234 1.1309 73 77 80 
-0.144009 -0.130062 1.09313 48 49 53 
-0.0648654 -0.131772 1.11944 143 132 138 
-0.150172 -0.127648 1.08832 42 40 45 
-0.0395165 -0.132462 1.12802 86 87 92 
-0.0355499 -0.132071 1.12874 50 54 57 
-0.106369 -0.128 1.10261 78 79 83 
-0.0558227 -0.130379 1.12172 43 43 45 
-0.0207164 -0.131356 1.13205 115 126 120 
-0.130627 -0.124287 1.09422 42 43 47 
-0.0978979 -0.124857 1.10223 0 0 4 
-0.0347985 -0.127517 1.12613 69 73 76 
-0.00249026 -0.12796 1.13766 101 111 103 
-0.0510314 -0.125522 1.12013 89 89 91 
-0.113338 -0.122445 1.09703 24 25 29 
-0.107106 -0.122186 1.0984 39 40 44 
-0.0936241 -0.121153 1.10111 50 51 55 
-0.0974559 -0.120749 1.10049 41 42 46 
-0.0778557 -0.121387 1.10816 32 31 36 
0.378643 -0.118486 1.08708 135 131 130 
-0.0868585 -0.120092 1.1027 139 138 143 
-0.0187404 -0.113749 1.12182 80 91 85 
-0.214039 -0.00525827 1.04606 7 0 34 
-0.214274 -0.00419377 1.04564 2 0 31 
-0.230512 -0.00341716 1.03613 8 0 37 
-0.214735 0.00960196 1.03193 0 0 32 
-0.214868 0.0160197 1.02583 10 0 39 
0.597489 0.0199353 0.993763 21 23 22 
0.38056 -0.480438 1.22713 197 166 60 
0.316911 -0.464021 1.21823 120 121 115 
0.389566 -0.433312 1.21064 220 183 95 
0.433198 -0.422219 1.21111 166 155 137 
0.285998 -0.407718 1.19779 173 175 174 
0.375812 -0.406243 1.19996 224 189 107 
0.288315 -0.40284 1.19692 200 198 199 
0.288055 -0.402846 1.19706 219 217 218 
0.206197 -0.390107 1.18251 209 204 200 
0.202036 -0.370371 1.17289 235 239 238 
0.36027 -0.371306 1.18096 60 52 15 
0.139036 -0.337018 1.15787 196 164 41 
0.212602 -0.333694 1.16123 141 151 186 
-0.44539 -0.347825 1.2172 119 190 218 
0.336546 -0.326568 1.15785 221 195 111 
0.330881 -0.294653 1.14142 212 185 80 
0.296261 -0.250979 1.12121 213 180 103 
0.2444 -0.247792 1.12268 155 151 201 
0.239074 -0.244539 1.1212 81 81 115 
0.234311 -0.236158 1.11591 154 150 201 
0.261228 -0.207788 1.09873 169 184 225 
-0.225032 -0.200588 1.10843 124 125 130 
0.184622 -0.191647 1.08661 74 84 119 
-0.192796 -0.196551 1.11615 83 84 89 
-0.180852 -0.192336 1.11826 224 225 230 
-0.18001 -0.189427 1.11595 93 94 99 
-0.181686 -0.18119 1.10919 57 58 63 
-0.190995 -0.179039 1.10495 216 217 221 
-0.0957566 -0.180996 1.13939 138 139 143 
-0.0915074 -0.180482 1.13999 125 124 129 
-0.120441 -0.174083 1.12783 130 131 135 
-0.159386 -0.165272 1.10675 217 216 221 
-0.204244 -0.156325 1.08932 136 137 141 
-0.119221 -0.160142 1.12045 224 225 229 
-0.236529 -0.154408 1.07877 227 230 235 
-0.371743 -0.157461 1.11309 59 115 52 
-0.21755 -0.15246 1.08405 225 226 231 
-0.208561 -0.151485 1.08581 234 235 240 
-0.209896 -0.15068 1.08576 100 101 106 
-0.216147 -0.149458 1.08351 200 201 206 
-0.204808 -0.149913 1.08599 226 229 234 
-0.199807 -0.149461 1.08687 228 229 234 
-0.187265 -0.149683 1.08912 224 224 234 
-0.0381747 -0.156938 1.14434 220 220 222 
-0.202467 -0.144192 1.08221 127 130 135 
-0.20895 -0.142778 1.08106 232 233 238 
-0.194344 -0.143706 1.08469 92 95 100 
-0.164891 -0.144068 1.09299 223 222 227 
-0.156519 -0.143897 1.09569 59 58 63 
-0.0375077 -0.147093 1.13857 61 62 66 
-0.338763 -0.140776 1.09778 161 149 149 
-0.142232 -0.141064 1.10169 71 72 76 
-0.189348 -0.138098 1.0835 95 98 103 
-0.112282 -0.140607 1.10936 226 225 230 
-0.163467 -0.133923 1.08711 46 45 50 
-0.112527 -0.133785 1.10454 141 140 145 
-0.160987 -0.129538 1.08623 36 35 40 
-0.0901203 -0.131674 1.10958 226 226 228 
-0.152186 -0.128779 1.08785 206 204 209 
-0.143838 -0.126044 1.09056 27 28 32 
-0.123304 -0.125328 1.09811 220 221 225 
-0.0348127 -0.127501 1.12616 66 70 73 
-0.10333 -0.122046 1.09929 60 61 65 
-0.100668 -0.121002 1.0997 32 33 37 
0.280913 -0.112767 1.07596 82 39 0 
-0.0130741 -0.114415 1.12491 61 126 60 
0.354589 -0.106481 1.06429 215 214 212 
-0.311048 -0.0882698 1.06742 157 131 160 
-0.230607 -0.0061583 1.03859 14 6 45 
-0.220688 0.0166348 1.0226 19 11 50 
0.598255 0.0190111 0.993833 21 23 20 
0.231992 0.0813387 1.06124 60 45 40 
0.272982 0.0909242 1.05577 94 165 197 
-0.166387 0.141201 0.905158 83 158 213 
0.327088 -0.482441 1.22388 195 197 196 
0.323752 -0.475461 1.22168 193 195 194 
0.402574 -0.467383 1.22287 203 164 89 
0.316812 -0.461221 1.21676 202 203 205 
0.397516 -0.451515 1.21394 205 171 84 
0.420699 -0.446514 1.21708 134 83 0 
0.393068 -0.442196 1.21097 209 174 90 
0.237529 -0.435675 1.19768 53 62 61 
0.407003 -0.441989 1.21305 180 143 65 
0.389617 -0.43325 1.21079 220 183 94 
0.22078 -0.419371 1.19318 202 204 203 
0.274814 -0.420837 1.20094 221 222 224 
0.41214 -0.422962 1.2056 236 231 225 
0.308356 -0.420373 1.20165 49 64 59 
0.376363 -0.41188 1.2021 224 185 92 
0.291702 -0.407084 1.19835 211 213 212 
0.366656 -0.394597 1.1936 189 165 93 
0.279133 -0.375642 1.18395 97 108 104 
0.20129 -0.370122 1.17279 234 240 240 
0.412414 -0.371443 1.18903 44 31 0 
0.278684 -0.360663 1.17758 31 33 32 
0.263243 -0.349456 1.17231 220 222 219 
0.144046 -0.344945 1.1595 179 138 14 
0.283082 -0.319904 1.15483 218 192 99 
0.19105 -0.29975 1.14542 123 126 161 
-0.317155 -0.326625 1.26554 102 118 117 
0.297745 -0.29126 1.13935 92 117 184 
0.182372 -0.271471 1.13363 55 40 83 
0.188167 -0.269052 1.13344 149 141 182 
0.302079 -0.263198 1.12581 234 198 110 
0.303247 -0.257195 1.12365 235 204 111 
0.186825 -0.254231 1.12603 79 65 116 
0.244555 -0.246785 1.12171 151 144 195 
0.234113 -0.240418 1.11849 135 141 173 
0.28504 -0.221061 1.10292 211 176 95 
0.242354 -0.210623 1.10078 194 210 244 
0.27632 -0.210025 1.09869 237 203 105 
0.276891 -0.208493 1.09798 230 192 95 
0.277444 -0.203984 1.09625 224 189 95 
-0.214743 -0.195459 1.10817 130 134 137 
-0.19837 -0.196314 1.11322 125 126 131 
-0.192737 -0.193717 1.11281 217 218 223 
-0.181738 -0.19154 1.11748 217 218 223 
0.101427 -0.184189 1.0813 142 154 192 
-0.165003 -0.176366 1.11248 151 152 157 
-0.0855362 -0.17917 1.14123 99 100 104 
-0.188287 -0.172168 1.10133 63 64 68 
-0.0987016 -0.178147 1.13633 55 56 60 
-0.146042 -0.173039 1.11728 127 128 132 
-0.110395 -0.175105 1.13199 102 103 107 
-0.0750862 -0.17719 1.14338 150 150 152 
-0.188183 -0.169753 1.10011 54 55 59 
-0.175418 -0.169676 1.1039 69 70 74 
-0.208374 -0.16711 1.09309 100 101 105 
-0.192494 -0.16522 1.09691 64 65 69 
-0.144713 -0.166162 1.11364 96 97 101 
-0.139544 -0.164115 1.11567 91 92 96 
-0.191994 -0.158655 1.09292 109 110 112 
-0.478635 -0.155251 1.089 191 64 83 
-0.216547 -0.153534 1.08504 34 35 40 
-0.208549 -0.151478 1.08583 234 235 240 
-0.193755 -0.149623 1.08829 225 225 237 
-0.183765 -0.147962 1.08819 223 223 235 
-0.138003 -0.145695 1.10571 222 221 226 
-0.101307 -0.143516 1.11397 95 96 100 
-0.188837 -0.137336 1.08123 108 111 116 
-0.0382647 -0.142552 1.13488 42 42 44 
-0.114902 -0.138116 1.10716 229 228 233 
-0.232355 -0.128362 1.06485 117 118 120 
-0.110323 -0.130551 1.10329 127 128 132 
-0.153092 -0.127599 1.08708 27 26 31 
-0.127517 -0.126703 1.09605 44 45 49 
-0.094652 -0.12485 1.10316 98 97 102 
0.0148778 -0.114916 1.13594 110 111 113 
0.0123101 -0.112959 1.13429 208 239 208 
-0.338048 -0.105448 1.06957 166 166 168 
0.608214 -0.073369 1.04549 8 4 3 
0.606707 -0.0688678 1.04293 114 112 100 
0.608373 -0.0649694 1.0405 5 6 0 
-0.064988 -0.0146447 1.04437 97 79 57 
-0.231181 0.0183277 1.01717 23 16 49 
0.600349 0.0206284 0.99275 123 125 122 
0.596298 0.0283173 0.988465 77 76 74 
0.207304 0.0525524 1.08252 9 109 124 
0.303726 0.0579742 1.07914 79 143 168 
0.178381 0.0757922 1.06643 0 26 23 
0.19836 0.0807124 1.06402 0 56 83 
0.319999 -0.468757 1.22015 201 203 202 
0.228557 -0.435523 1.19822 228 232 233 
0.238166 -0.435338 1.19828 66 66 66 
0.274155 -0.435083 1.20458 209 209 211 
0.265475 -0.432093 1.20442 230 232 231 
0.266049 -0.425895 1.20232 0 2 0 
0.269141 -0.408546 1.19647 200 200 200 
0.259943 -0.399712 1.19155 26 30 29 
0.371474 -0.400484 1.20165 231 197 110 
0.259439 -0.388359 1.18964 225 229 228 
-0.203483 -0.401156 1.24062 164 165 167 
0.195355 -0.370317 1.17037 22 23 25 
0.18939 -0.367513 1.17081 231 231 231 
0.203038 -0.366346 1.17058 42 52 53 
0.405148 -0.371195 1.18824 90 58 1 
0.15505 -0.36266 1.16616 187 162 35 
0.206774 -0.360377 1.16839 224 226 225 
0.272823 -0.362318 1.17888 0 2 1 
0.24481 -0.356869 1.17601 213 213 215 
0.405737 -0.358994 1.1836 45 36 3 
0.230906 -0.352947 1.17003 52 54 53 
0.241337 -0.350395 1.17225 238 238 240 
0.2373 -0.345702 1.17081 202 202 204 
0.129237 -0.339535 1.15748 162 123 6 
0.135344 -0.333408 1.15652 171 132 15 
0.133247 -0.33217 1.15421 181 141 20 
-0.317132 -0.326782 1.26516 102 118 117 
0.20596 -0.290255 1.14449 79 75 112 
-0.446001 -0.2731 1.17127 207 41 61 
-0.380233 -0.27093 1.18107 190 62 87 
0.228427 -0.236531 1.11677 175 176 206 
0.289209 -0.230493 1.10931 208 175 80 
0.246603 -0.22572 1.10931 178 206 253 
0.184961 -0.197136 1.08924 179 189 225 
0.219252 -0.192093 1.08159 78 92 129 
-0.0750863 -0.17719 1.14338 150 150 152 
-0.199464 -0.166083 1.09416 32 33 37 
-0.128815 -0.168316 1.12241 109 110 114 
-0.0457593 -0.172781 1.15209 98 98 100 
-0.0476018 -0.165465 1.1449 136 136 138 
-0.237204 -0.152881 1.08089 242 246 249 
-0.0358369 -0.162427 1.14896 82 81 86 
-0.0589953 -0.152839 1.13372 76 76 78 
-0.125376 -0.147024 1.10963 83 82 87 
-0.0148937 -0.140499 1.14141 172 173 177 
-0.0370327 -0.135108 1.13061 88 92 95 
-0.0469037 -0.126595 1.12201 117 117 119 
0.252816 -0.115669 1.06398 176 136 64 
0.607233 -0.0625059 1.0404 111 115 101 
-0.0651614 -0.0147422 1.04424 97 79 57 
-0.225808 -0.00169753 1.03535 11 4 38 
0.278583 0.0546058 1.08119 79 154 186 
0.320534 -0.468098 1.22186 225 227 224 
-0.166537 -0.426259 1.25217 62 67 71 
-0.179776 -0.415904 1.24968 195 199 202 
0.195934 -0.370338 1.17009 30 31 33 
0.404337 -0.376756 1.18836 76 47 0 
-0.37648 -0.351497 1.23296 228 221 151 
0.28506 -0.321659 1.15507 233 198 46 
0.171153 -0.262529 1.12851 111 102 147 
-0.380513 -0.266934 1.18001 251 215 215 
0.347472 -0.257016 1.13298 144 121 89 
0.236577 -0.243058 1.11925 32 44 60 
0.154498 -0.223719 1.10559 86 90 137 
0.261507 -0.210067 1.0983 153 180 235 
0.0881469 -0.196519 1.0858 204 209 239 
-0.179815 -0.190027 1.11582 101 102 107 
0.157538 -0.162403 1.06783 116 130 175 
-0.207586 -0.167289 1.09195 120 121 125 
-0.146059 -0.163448 1.11365 148 149 153 
-0.114306 -0.126278 1.09896 169 170 174 
-0.318726 -0.0798427 1.0581 47 40 73 
0.586873 0.0186295 0.994361 86 89 78 
-0.215383 0.0234606 1.01774 5 0 32 
0.599914 0.0237265 0.990892 13 15 12 
0.1803 0.0744394 1.07332 56 84 69 
-0.181437 -0.415261 1.24872 190 195 198 
0.228912 -0.349739 1.16715 209 213 216 
0.569123 -0.356408 1.20693 220 174 112 
0.210721 -0.335494 1.16134 145 156 202 
0.286252 -0.324636 1.15726 235 198 47 
0.270756 -0.224973 1.09955 29 27 28 
0.0847042 -0.189743 1.08439 70 81 103 
0.44157 -0.18326 1.17853 59 72 55 
0.602251 -0.126015 1.07359 150 145 103 
0.583728 -0.0496689 1.0353 178 183 176 
-0.0836622 0.101626 0.971299 82 72 62 
0.370548 -0.458004 1.21934 224 190 80 
0.357459 -0.441448 1.21557 205 173 70 
0.305061 -0.430406 1.20515 63 67 66 
0.238702 -0.424903 1.19515 181 182 184 
0.356853 -0.425397 1.20932 182 140 0 
0.346097 -0.422204 1.20595 139 109 0 
0.290411 -0.408543 1.1964 133 137 136 
0.40193 -0.410524 1.20134 133 133 125 
0.390914 -0.407664 1.19876 173 166 160 
0.404434 -0.37011 1.08626 145 117 52 
0.347784 -0.406566 1.20117 128 89 0 
0.168372 -0.399888 1.18634 171 141 17 
-0.216915 -0.415564 1.24372 176 181 187 
0.334977 -0.398849 1.19593 126 84 0 
0.15014 -0.388102 1.18327 166 137 19 
0.24717 -0.388762 1.18753 39 41 40 
0.330103 -0.385985 1.18877 203 172 64 
0.151022 -0.380489 1.1767 165 132 29 
0.383761 -0.379602 1.18622 12 9 0 
0.3226 -0.375588 1.18069 98 59 0 
0.253179 -0.37435 1.18048 193 193 193 
0.342458 -0.35212 1.11687 190 186 157 
0.431519 -0.374876 1.19429 154 124 70 
0.392626 -0.366919 1.18098 96 69 0 
0.369671 -0.361706 1.17432 191 177 164 
0.322134 -0.357155 1.16917 147 112 0 
0.352252 -0.356024 1.17085 55 42 25 
0.312655 -0.350213 1.16693 145 107 0 
0.383184 -0.365537 1.22207 23 18 0 
0.396874 -0.349723 1.17619 155 128 75 
0.382295 -0.345211 1.16979 65 42 0 
-0.4315 -0.360661 1.23804 208 206 207 
-0.4219 -0.358141 1.2368 143 143 145 
0.309401 -0.336692 1.16212 197 165 56 
0.355886 -0.336265 1.16024 43 48 41 
-0.405296 -0.358159 1.2381 131 124 118 
-0.387545 -0.355102 1.23859 28 29 13 
0.300088 -0.331212 1.16034 152 113 0 
0.375373 -0.328268 1.1598 111 82 2 
0.307094 -0.324754 1.15589 98 60 0 
0.342449 -0.315248 1.14937 93 86 60 
-0.403227 -0.334601 1.22184 248 197 212 
-0.412821 -0.332547 1.22022 215 112 133 
0.344246 -0.303193 1.14415 135 134 129 
0.356093 -0.302736 1.14514 160 161 147 
0.3198 -0.29503 1.13791 102 73 0 
0.283043 -0.284682 1.13387 153 185 244 
0.328832 -0.283251 1.13381 190 163 94 
0.18772 -0.282744 1.1389 81 73 120 
0.345956 -0.279501 1.13402 188 184 173 
0.356428 -0.277596 1.1393 43 40 35 
0.332329 -0.267788 1.12691 147 99 0 
-0.412958 -0.275 1.18428 234 108 122 
0.112828 -0.251932 1.1129 143 153 162 
0.233393 -0.214929 1.1013 107 134 187 
0.288582 -0.216748 1.1315 222 187 105 
0.109892 -0.203944 1.09181 141 153 191 
0.225771 -0.202757 1.09168 94 112 136 
0.3263 -0.190351 1.09591 189 190 195 
0.265867 -0.187497 1.08166 186 154 81 
0.256806 -0.180508 1.07481 95 59 0 
0.209989 -0.174753 1.07136 98 115 141 
0.309415 -0.171388 1.09514 53 51 64 
0.321445 -0.168243 1.08364 173 180 186 
0.318143 -0.166655 1.10084 69 71 84 
0.266403 -0.159149 1.0715 101 57 0 
0.280727 -0.159559 1.07731 124 75 6 
0.333557 -0.157956 1.07201 191 200 215 
-0.0599735 -0.167611 1.14399 212 212 214 
0.24616 -0.151166 1.06331 190 154 102 
0.189214 -0.148841 1.05709 119 136 154 
0.261545 -0.149494 1.06675 72 33 0 
0.275765 -0.150425 1.07297 88 39 0 
-0.0160356 -0.161257 1.15664 228 229 233 
-0.156141 -0.153688 1.10391 142 141 146 
0.292721 -0.146561 1.08276 129 99 47 
0.241822 -0.138459 1.05577 72 43 9 
0.256659 -0.13894 1.064 141 107 61 
-0.0836372 -0.139922 1.11889 241 240 245 
0.268033 -0.13353 1.06745 176 139 68 
-0.103977 -0.136019 1.11 120 119 124 
-0.00388846 -0.140149 1.14696 197 197 199 
0.398792 -0.131745 1.09011 123 119 118 
-0.203043 -0.125641 1.07382 243 244 246 
0.261609 -0.124439 1.06283 208 153 71 
0.384211 -0.127237 1.09295 153 152 150 
0.387068 -0.125313 1.08261 215 211 210 
0.383089 -0.118218 1.07103 40 36 35 
-0.0685194 -0.121942 1.11274 70 71 75 
0.369798 -0.115874 1.07881 91 87 86 
0.382806 -0.112716 1.06011 239 235 234 
0.262193 -0.111721 1.06251 142 117 77 
-0.348085 -0.10743 1.06706 124 120 119 
-0.273152 -0.0943814 1.01259 121 122 126 
0.0089181 -0.101931 1.12227 218 248 220 
-0.39072 -0.0967121 1.10872 167 211 162 
0.224027 -0.0862546 1.14278 98 99 55 
0.0772095 -0.0799479 1.14138 184 132 111 
0.0880271 -0.0732906 1.12063 30 43 34 
0.0908851 -0.0657208 1.11019 41 58 52 
-0.430525 -0.0522545 1.06661 147 173 144 
0.181097 -0.0417276 1.10699 180 202 225 
-0.22943 -0.0281943 1.05692 7 4 35 
-0.216266 -0.027054 1.06294 0 0 16 
-0.0753471 -0.0223264 1.04426 83 68 49 
-0.0420573 -0.0222136 1.04841 156 139 123 
0.158891 -0.0222658 1.12426 129 163 147 
-0.0848902 -0.0202348 1.04122 163 147 122 
-0.0575161 -0.0203308 1.04887 90 72 52 
-0.22996 -0.0201408 1.04976 0 0 25 
0.147088 -0.020473 1.12302 34 91 72 
-0.0326979 -0.0183751 1.05138 153 136 126 
-0.21354 -0.0181655 1.05605 0 0 27 
-0.479452 -0.0157253 1.08299 157 176 148 
-0.0459365 -0.010558 1.04481 177 152 130 
0.173561 -0.00919406 1.11581 4 100 99 
-0.282083 -0.00638466 1.00814 43 42 50 
0.316885 -0.00258078 1.10732 0 2 9 
0.106116 -0.00181673 1.09658 80 0 7 
-0.214215 0.000455903 1.03887 5 0 32 
0.0339994 0.00408438 1.09001 49 54 57 
-0.22938 0.00483687 1.02654 127 120 154 
-0.198737 0.00542223 1.04087 8 0 39 
-0.0307997 0.00726113 1.03169 115 91 65 
0.209825 0.00849027 1.10404 59 142 122 
-0.0831829 0.00924219 1.02428 169 144 124 
0.271224 0.0126846 1.09916 50 74 84 
-0.058758 0.0156289 1.01945 126 105 76 
0.307162 0.0222777 1.09287 90 167 175 
0.0525891 0.0233191 1.09474 37 71 81 
0.476829 0.0232425 1.08634 77 80 69 
0.335622 0.0240161 1.09082 82 127 160 
-0.0957174 0.023025 1.008 197 173 149 
-0.188722 0.0263092 1.02371 20 3 45 
0.20572 0.0275563 1.08241 0 17 23 
0.307725 0.0319274 1.08657 68 143 182 
0.295921 0.0371994 1.08504 56 129 174 
-0.0328044 0.0351387 1.01658 152 134 112 
-0.0875489 0.0346839 1.00354 127 101 74 
0.442433 0.0377726 1.08037 185 176 167 
0.487731 0.0374808 1.07316 90 90 64 
0.432571 0.0392872 1.07898 0 12 19 
-0.0709053 0.0369984 1.00386 130 108 84 
0.313178 0.040362 1.08168 70 124 170 
0.38542 0.0407797 1.07976 96 134 170 
0.474128 0.0424444 1.07541 27 33 23 
0.301154 0.0439202 1.08004 69 147 186 
0.457511 0.0452194 1.07527 51 62 54 
-0.398275 0.045055 1.02664 204 240 214 
0.333285 0.0485509 1.07572 65 121 158 
-0.0810893 0.0455769 0.996388 177 157 133 
0.0796675 0.0493354 1.07738 65 145 194 
0.271948 0.0533452 1.07459 67 149 187 
0.477943 0.0533265 1.06609 11 24 32 
0.495359 0.0546419 1.05375 22 33 37 
0.281988 0.0570572 1.07204 46 120 167 
0.306748 0.058631 1.06962 75 131 168 
0.0813964 0.0594012 1.07128 78 137 179 
-0.0245317 0.0567143 0.996901 174 148 123 
0.2913 0.0609639 1.06908 59 122 175 
0.269736 0.0616499 1.06902 51 132 179 
0.105753 0.0654072 1.06851 63 147 191 
0.0697873 0.0655964 1.06586 70 158 204 
0.177407 0.0676811 1.06111 0 27 13 
0.45466 0.0706269 1.05865 72 134 175 
0.28361 0.0743846 1.06156 0 65 114 
0.329121 0.0743204 1.06013 81 140 180 
-0.0329725 0.0697637 0.991848 170 145 125 
0.311936 0.0747567 1.05992 63 121 171 
0.0846722 0.0756687 1.06024 78 155 197 
-0.120324 0.0716356 0.988335 102 101 97 
0.171102 0.0773046 1.0589 65 123 163 
0.392708 0.0781805 1.05588 48 77 83 
0.119275 0.0803045 1.0566 71 144 189 
0.339044 0.0800954 1.05592 18 114 138 
0.357716 0.0810758 1.05508 83 147 172 
-0.0143501 0.0783032 0.99311 88 62 35 
0.162411 0.0836449 1.05359 76 105 137 
-0.0671771 0.0780078 0.977588 93 75 51 
0.444144 0.0832504 1.04765 100 147 175 
0.129251 0.0850115 1.05324 75 136 180 
0.0909491 0.0862924 1.05142 77 144 189 
0.296479 0.0864202 1.05177 78 117 158 
0.437244 0.0924698 1.03761 154 184 220 
-0.170717 0.092083 1.00045 213 227 227 
0.155001 0.097149 1.03991 71 147 196 
0.314981 0.101233 1.03226 80 127 171 
0.41079 0.105545 1.02203 144 207 242 
-0.074578 0.104845 0.968037 139 117 106 
-0.0834013 0.117465 0.960229 133 126 120 
-0.122707 0.117041 0.953599 128 155 166 
-0.0414576 0.123061 0.979883 34 57 71 
-0.187839 0.121865 0.967849 135 153 165 
-0.102124 0.123766 0.951856 87 88 90 
-0.115882 0.138074 0.898685 131 123 180 
-0.111773 0.239015 0.957304 241 240 235 
0.379758 0.250216 0.96144 147 138 131 
0.335934 -0.4734 1.19894 168 172 173 
0.319345 -0.477229 1.22405 171 173 172 
0.316213 -0.460821 1.21651 194 195 197 
0.268262 -0.437314 1.20355 179 184 180 
0.280815 -0.430365 1.20412 40 40 42 
0.379465 -0.413944 1.19974 213 184 92 
0.286386 -0.399668 1.19434 88 88 88 
0.399659 -0.400292 1.19504 200 200 192 
0.158333 -0.395625 1.18526 255 222 127 
0.420317 -0.364523 1.1612 167 136 82 
0.166419 -0.361116 1.16665 135 151 185 
0.131301 -0.360877 1.16882 203 174 48 
0.268377 -0.358279 1.17359 217 219 218 
0.435424 -0.371156 1.2219 126 104 54 
0.196394 -0.347932 1.16191 192 206 243 
0.385283 -0.323311 1.08497 143 115 75 
0.348945 -0.343974 1.16229 191 183 170 
0.338345 -0.339276 1.15975 191 172 106 
0.267179 -0.337883 1.16314 5 15 17 
0.412681 -0.341873 1.17784 138 114 66 
-0.429029 -0.352515 1.2319 189 164 193 
-0.397878 -0.343703 1.22913 242 215 220 
0.332511 -0.322508 1.15368 220 196 100 
0.355597 -0.316533 1.15041 196 191 195 
-0.42007 -0.291354 1.19486 255 211 214 
-0.40241 -0.289215 1.19778 255 158 169 
0.0651285 -0.24289 1.11084 83 63 10 
-0.364675 -0.253273 1.17702 87 114 47 
0.272123 -0.19865 1.09065 225 197 114 
0.276357 -0.175443 1.07868 234 179 99 
0.253758 -0.158313 1.06781 174 144 92 
0.236544 -0.125863 1.05227 122 98 64 
0.217986 -0.122618 1.04443 148 146 159 
-0.0037915 -0.119526 1.13179 208 238 214 
-0.412956 -0.0991436 1.10693 168 209 177 
0.237214 -0.0779673 1.12995 21 23 0 
0.468732 -0.00985447 1.10788 99 104 98 
-0.0927257 0.000330082 1.02598 98 74 50 
-0.0390539 0.0118089 1.02678 112 88 60 
0.322606 0.0155716 1.09623 76 141 179 
0.0592319 0.0318154 1.08917 67 144 186 
0.282362 0.0329763 1.08758 59 139 174 
-0.0108502 0.032233 1.02422 91 70 53 
0.452296 0.0341365 1.08305 136 126 117 
0.378585 0.049642 1.07383 68 132 168 
0.386453 0.0567185 1.06898 72 130 167 
0.42602 0.0567055 1.06864 72 127 158 
0.468204 0.0772804 1.0454 112 148 184 
-0.0242815 0.0777895 0.989865 167 143 117 
0.407444 0.0821227 1.05235 42 41 55 
-0.043666 0.0974711 0.97546 67 42 20 
0.231149 -0.442077 1.19887 225 225 225 
-0.215367 -0.449409 1.25682 180 184 187 
0.273117 -0.425441 1.19899 87 91 92 
0.21938 -0.421362 1.18872 0 1 0 
0.29662 -0.425357 1.20313 7 7 7 
0.313508 -0.422606 1.2007 207 212 208 
-0.210165 -0.433134 1.25262 161 162 164 
0.255971 -0.412554 1.19408 202 206 205 
0.229295 -0.404848 1.18819 185 183 184 
0.269003 -0.40694 1.19357 176 174 177 
0.2545 -0.401926 1.19123 13 15 14 
0.41054 -0.398617 1.19033 63 45 5 
0.302542 -0.399731 1.19245 211 213 212 
-0.378807 -0.398733 1.19491 74 60 49 
0.3654 -0.393402 1.18986 189 165 93 
0.16298 -0.386666 1.17707 200 170 38 
0.375444 -0.386163 1.18774 98 96 97 
0.216846 -0.379082 1.1776 220 219 215 
0.278682 -0.374434 1.18032 97 108 104 
0.240663 -0.361016 1.17394 14 14 16 
0.284115 -0.361808 1.17511 239 241 240 
0.382819 -0.355626 1.17323 138 103 0 
0.278677 -0.349222 1.17005 241 247 245 
0.419778 -0.352879 1.18621 138 111 66 
0.140895 -0.338912 1.152 169 132 26 
0.260712 -0.344008 1.1687 225 229 230 
0.376088 -0.339 1.1629 134 105 11 
0.296519 -0.321552 1.15321 105 70 0 
0.296405 -0.289661 1.13308 92 117 184 
0.385597 -0.287901 1.15699 125 102 61 
0.309933 -0.274619 1.12626 210 183 104 
-0.43242 -0.2843 1.18756 190 136 149 
-0.414483 -0.283557 1.1888 181 149 160 
-0.323283 -0.286377 1.21436 89 48 78 
0.539151 -0.286739 1.21637 188 189 184 
0.292073 -0.242988 1.11248 222 188 114 
0.164816 -0.236351 1.11514 162 169 221 
0.251742 -0.190661 1.08277 170 185 216 
0.160153 -0.185731 1.08224 68 73 102 
0.188755 -0.184981 1.07956 41 61 86 
0.269818 -0.18265 1.11113 83 49 0 
-0.329156 -0.18633 1.14241 170 168 169 
0.243129 -0.173087 1.07296 87 95 108 
0.228546 -0.143474 1.05607 91 108 134 
-0.349663 -0.130739 1.08639 165 167 164 
-0.349599 -0.118183 1.07427 185 185 183 
-0.0826264 -0.109937 1.09935 223 223 225 
-0.426089 -0.104485 1.10657 81 135 85 
0.264345 -0.100332 1.06452 176 119 40 
0.0218664 -0.0988439 1.12092 217 213 212 
0.273483 -0.094397 1.06748 181 131 58 
-0.425458 -0.081557 1.08941 116 147 113 
-0.348052 -0.0645648 1.02635 145 146 148 
-0.0308131 -0.0116401 1.04215 74 57 39 
0.279805 0.00730156 1.10227 27 57 68 
-0.0326852 0.0186378 1.02334 94 70 46 
-0.102075 0.0330451 1.00042 187 170 154 
0.200675 0.045672 1.08188 74 149 155 
0.291441 0.0469215 1.07839 87 162 193 
0.191159 0.0484621 1.07539 193 203 204 
0.507062 0.0651334 1.03008 115 177 224 
0.358814 0.0695054 1.06345 19 37 59 
-0.365028 0.0749331 1.04942 10 14 13 
-0.0180202 0.0707813 0.999933 166 140 117 
-0.0432175 0.0736547 0.98739 97 73 47 
0.476097 0.0781349 1.03933 136 159 191 
0.15457 0.0867771 1.04835 175 173 184 
-0.0699 0.0920042 0.967183 173 155 135 
0.224208 -0.432839 1.19439 39 45 45 
0.383161 -0.396736 1.187 73 75 64 
0.28246 -0.389884 1.18909 222 224 223 
0.203664 -0.383676 1.17791 228 234 230 
0.289702 -0.383443 1.18558 72 78 76 
0.362055 -0.37525 1.17963 42 41 10 
-0.392174 -0.380796 1.22233 113 99 86 
0.383673 -0.368733 1.18503 134 115 72 
0.560261 -0.35441 1.22356 138 142 125 
0.542165 -0.357974 1.24862 92 92 84 
-0.45599 -0.33392 1.21158 58 91 106 
0.386665 -0.320072 1.16678 28 19 0 
0.417262 -0.328783 1.20566 134 109 68 
0.300867 -0.302694 1.14116 61 88 131 
0.372211 -0.297376 1.14837 89 70 11 
0.199794 -0.27452 1.13294 50 47 76 
-0.379739 -0.280617 1.19324 203 24 46 
0.535292 -0.277569 1.21433 134 120 120 
0.329457 -0.20561 1.1125 190 169 150 
0.312182 -0.187174 1.08818 252 234 212 
0.309097 -0.179431 1.10167 253 228 188 
-0.337021 -0.116876 1.08266 155 133 135 
-0.00245594 -0.106161 1.12354 92 163 95 
0.430282 -0.0450713 1.12877 50 51 46 
-0.14564 -0.0183391 1.03528 208 191 183 
-0.159494 -0.0150401 1.03964 189 190 194 
0.406056 -0.0073313 1.10889 101 104 97 
0.208541 0.0328 1.09081 0 24 27 
0.501823 0.056989 1.04535 67 119 132 
-0.0597613 0.0649535 0.986682 118 94 70 
-0.0755311 0.0713052 0.98107 197 178 163 
0.283857 0.0852658 1.05201 78 152 189 
0.455729 0.0872699 1.03692 122 156 183 
-0.0795843 0.141222 0.89771 104 134 206 
0.445461 -0.458536 1.22814 114 73 9 
-0.18567 -0.445256 1.26127 191 192 196 
-0.224074 -0.425499 1.24973 33 37 40 
-0.201903 -0.414551 1.24587 26 42 41 
0.25761 -0.3852 1.18455 224 224 224 
0.402939 -0.375715 1.18486 76 47 0 
0.270392 -0.352803 1.16512 15 17 16 
0.55385 -0.371224 1.24006 124 130 120 
-0.394165 -0.365594 1.23985 89 81 58 
0.283275 -0.320119 1.14911 233 198 46 
-0.440936 -0.331778 1.21281 30 120 147 
-0.415323 -0.330888 1.2093 129 7 32 
-0.322334 -0.324298 1.26468 156 180 182 
-0.448049 -0.300469 1.19615 204 43 59 
-0.397114 -0.285089 1.18998 194 76 98 
-0.425121 -0.278516 1.18031 243 221 224 
0.114714 -0.255651 1.10093 169 179 206 
-0.348762 -0.147884 1.10278 161 166 170 
-0.0537711 -0.144614 1.13319 101 97 96 
0.314002 -0.107563 1.14034 81 75 15 
-0.322504 -0.0912805 1.06622 164 114 167 
-0.119363 -0.0253914 1.04168 86 74 62 
0.346882 0.00681321 1.10004 107 120 111 
-0.216651 0.0246284 1.01033 21 11 48 
-0.100916 0.0443918 1.00279 253 237 224 
-0.0828914 0.0633814 0.984461 140 119 98 
0.449146 0.0820164 1.05653 99 151 173 
-0.0972476 0.119703 0.959457 195 195 193 
0.246493 -0.445325 1.20392 200 198 201 
0.282408 -0.440283 1.20626 218 218 220 
0.319323 -0.434944 1.20625 229 235 233 
0.429888 -0.425004 1.20785 166 161 158 
-0.242008 -0.436488 1.24883 180 179 185 
0.415658 -0.419678 1.20639 194 196 191 
-0.168719 -0.41862 1.24943 29 37 39 
0.423792 -0.390546 1.19412 82 66 33 
-0.322631 -0.431128 1.3526 90 95 91 
0.158819 -0.350714 1.15724 11 10 28 
0.140984 -0.314674 1.15706 23 23 25 
0.129663 -0.292967 1.13819 28 22 0 
-0.54942 -0.307055 1.22394 119 116 65 
0.121314 -0.272508 1.10968 18 22 34 
0.272922 -0.274528 1.13228 30 57 78 
-0.304977 -0.293679 1.224 150 100 138 
0.115129 -0.262867 1.11232 46 24 0 
0.115222 -0.262386 1.12576 36 21 14 
0.230275 -0.251918 1.11873 31 43 59 
0.281087 -0.245664 1.11258 4 18 27 
0.12355 -0.233466 1.10711 109 109 147 
0.140122 -0.234251 1.10602 29 48 65 
0.1149 -0.226669 1.10435 107 108 139 
-0.343463 -0.214408 1.15398 169 169 171 
0.485524 -0.201054 1.1684 228 207 186 
0.0781289 -0.184643 1.07533 15 22 28 
0.438712 -0.182295 1.17161 59 72 55 
0.487307 -0.17354 1.15382 170 170 170 
0.229068 -0.157509 1.06235 68 83 114 
-0.401724 -0.0898445 1.10917 125 144 125 
-0.297972 -0.0290959 1.0128 44 126 174 
0.372785 -0.00482599 1.10795 101 105 90 
0.401516 0.0268972 1.08807 1 20 26 
0.410798 0.0291839 1.08336 10 11 6 
0.416059 -0.474405 1.2259 143 116 63 
0.370177 -0.471645 1.22339 86 47 0 
0.424935 -0.469258 1.22736 190 150 78 
0.434339 -0.466174 1.2262 208 170 99 
0.360161 -0.447437 1.21726 205 179 68 
0.266889 -0.441123 1.20809 4 6 5 
0.360356 -0.437354 1.21391 96 68 0 
0.284113 -0.435878 1.20954 167 168 170 
0.357242 -0.42544 1.21047 140 98 0 
0.420993 -0.423342 1.20765 145 138 128 
0.383872 -0.423651 1.20857 207 177 87 
0.351276 -0.4124 1.20557 101 66 0 
0.393782 -0.411164 1.20246 44 41 26 
0.406847 -0.408703 1.20164 130 132 118 
0.390153 -0.403208 1.19767 16 12 0 
0.337661 -0.403298 1.20066 117 78 0 
0.443787 -0.397864 1.20516 158 131 78 
0.338533 -0.393209 1.19636 217 180 76 
0.380753 -0.387177 1.19121 90 94 97 
0.331669 -0.386239 1.19207 211 187 97 
0.370115 -0.383869 1.18913 205 200 178 
0.323592 -0.376451 1.18571 70 31 0 
0.325996 -0.367421 1.17942 208 179 75 
0.388864 -0.361495 1.18051 120 96 10 
0.179207 -0.355329 1.16748 161 180 213 
0.289809 -0.353365 1.17569 72 72 70 
0.535389 -0.35012 1.26002 57 59 58 
0.313497 -0.350378 1.17211 77 41 0 
0.383046 -0.346601 1.1742 197 171 87 
0.350206 -0.34422 1.16907 219 216 201 
0.128512 -0.348536 1.16334 167 131 19 
0.36488 -0.341826 1.16982 30 27 8 
0.393502 -0.341344 1.17585 186 164 89 
0.387353 -0.333189 1.17227 111 78 0 
0.301142 -0.331216 1.16524 106 63 0 
0.308327 -0.324837 1.1625 76 35 0 
0.297956 -0.320615 1.15888 208 172 60 
0.389819 -0.318465 1.16895 20 12 0 
0.357398 -0.314294 1.1575 166 163 158 
0.235359 -0.312188 1.15694 100 123 139 
0.383004 -0.309458 1.16389 82 77 48 
0.376513 -0.298934 1.15808 27 18 0 
0.357166 -0.293074 1.14931 16 18 5 
0.313203 -0.286517 1.13849 196 167 97 
0.266897 -0.286774 1.14085 154 189 243 
0.35117 -0.282859 1.14368 75 72 55 
0.358476 -0.27629 1.14492 37 35 23 
0.201033 -0.277646 1.14 87 90 109 
0.344049 -0.270163 1.13681 156 143 98 
0.333961 -0.267572 1.13501 142 98 0 
0.178061 -0.232511 1.11376 85 91 139 
0.336837 -0.204327 1.12064 174 157 147 
-0.167363 -0.19267 1.12012 84 87 94 
-0.0713701 -0.168864 1.13698 95 95 97 
0.429156 -0.157623 1.17694 157 163 125 
0.400724 -0.154987 1.18394 35 31 0 
-0.0146562 -0.152804 1.14777 116 117 121 
-0.0158244 -0.138326 1.17194 88 92 91 
0.295363 -0.139987 1.0899 156 114 64 
-0.128852 -0.140237 1.10287 230 231 236 
0.399983 -0.13196 1.10328 138 137 135 
0.00658004 -0.126631 1.13995 80 92 80 
0.582129 -0.128984 1.08262 36 38 35 
0.394918 -0.127266 1.09663 204 199 205 
0.386649 -0.125882 1.10254 143 139 138 
0.405887 -0.12417 1.08939 156 155 153 
0.393063 -0.117812 1.07927 156 154 157 
0.377836 -0.107832 1.06832 69 65 64 
0.0728873 -0.0456526 1.07376 23 34 26 
0.349482 -0.00392492 1.1231 99 101 96 
0.313127 -0.00162337 1.12138 89 103 106 
0.336279 0.00676162 1.11678 0 8 15 
0.341567 0.0282897 1.1038 91 147 180 
0.308658 0.0467896 1.09236 80 143 186 
0.463149 0.0491972 1.09409 0 2 0 
0.323239 0.0510333 1.08984 79 126 172 
0.36185 0.0732977 1.07746 0 40 65 
0.332457 0.0792082 1.0745 91 153 194 
0.367634 0.0840348 1.07121 84 144 180 
0.391214 0.0886315 1.06848 130 145 166 
0.113116 0.116303 1.02187 37 127 153 
0.335808 -0.507722 1.22798 46 46 44 
0.329787 -0.454874 1.21615 198 198 198 
0.4744 -0.451914 1.22874 100 60 0 
0.414165 -0.434744 1.21097 172 149 95 
0.315563 -0.428763 1.20551 180 182 181 
0.261107 -0.415793 1.20021 2 2 2 
0.400195 -0.40036 1.1968 216 220 206 
0.211176 -0.401484 1.18964 103 105 104 
0.249387 -0.393558 1.19193 222 226 227 
0.278945 -0.382464 1.18976 216 216 216 
0.248545 -0.373549 1.18322 0 1 2 
0.159599 -0.373361 1.17226 161 127 27 
0.230317 -0.363803 1.17679 166 166 166 
0.272554 -0.335085 1.16783 235 240 243 
0.359115 -0.329874 1.16421 188 191 184 
0.38126 -0.323161 1.16747 78 49 0 
0.332732 -0.316068 1.15718 231 200 110 
0.344175 -0.302289 1.14955 26 21 0 
0.320911 -0.292863 1.14297 222 197 117 
0.306599 -0.271974 1.13221 215 188 109 
0.272056 -0.229741 1.11121 174 197 231 
0.260742 -0.170431 1.07661 181 152 94 
-0.178002 -0.139573 1.08191 119 120 125 
0.355394 0.0135675 1.11285 0 4 9 
0.364672 0.0163798 1.11008 109 129 127 
0.324878 0.0189061 1.10946 90 161 191 
0.408097 0.0330271 1.10253 0 11 13 
0.454597 0.0403787 1.09589 48 39 30 
0.446763 0.0488133 1.0937 32 69 78 
0.427051 0.0605698 1.08769 89 149 173 
0.374951 0.0638582 1.08368 79 154 186 
0.560859 0.0934625 0.959457 99 99 137 
0.260836 0.135017 0.92399 37 117 166 
0.343739 -0.513436 1.22972 195 201 201 
0.28863 -0.503731 1.22492 174 174 174 
0.337084 -0.49405 1.22625 13 24 18 
0.347431 -0.492651 1.22562 208 210 207 
0.593153 -0.462048 1.26798 166 134 95 
0.442769 -0.46106 1.22478 148 121 66 
0.457731 -0.456058 1.22813 160 130 70 
0.309983 -0.437641 1.21003 2 7 10 
0.208902 -0.425638 1.19416 156 154 155 
0.42101 -0.40722 1.20351 178 163 140 
0.232214 -0.408295 1.19435 190 190 192 
0.38186 -0.397832 1.19578 221 215 201 
0.392677 -0.390229 1.19237 8 7 0 
0.422099 -0.38982 1.19749 42 35 0 
0.29106 -0.383277 1.18963 8 15 8 
0.279245 -0.349127 1.17514 239 248 245 
0.524186 -0.338718 1.27034 67 72 66 
0.232767 -0.331385 1.1655 110 123 158 
0.540929 -0.286621 1.22329 192 191 187 
0.285799 -0.286656 1.13899 76 106 166 
0.329597 -0.282281 1.13908 203 180 110 
0.14202 -0.276929 1.12952 149 167 207 
0.263067 -0.266695 1.13461 63 68 72 
0.555942 -0.205429 1.15648 128 141 123 
0.330233 -0.187768 1.10417 48 52 64 
0.197411 -0.177301 1.07466 137 162 203 
-0.0884811 -0.154874 1.12328 149 150 154 
0.572228 -0.14353 1.10155 235 234 230 
-0.01197 -0.128096 1.13373 192 229 195 
0.351533 -0.114787 1.06952 111 75 77 
0.465674 -0.0314025 1.1398 108 105 98 
0.386232 -0.00445393 1.12317 120 125 118 
0.400381 -0.00410782 1.12374 91 93 92 
-0.250953 -0.000101446 1.02377 3 0 11 
0.430799 0.0415488 1.09849 114 135 138 
0.153726 0.0831628 1.0665 49 0 2 
0.169546 0.0899851 1.06177 88 164 200 
0.560127 0.067607 0.974337 82 128 161 
0.524487 0.0835337 1.00589 62 162 211 
0.513241 0.104731 0.95251 126 155 189 
0.339946 -0.47821 1.22295 215 217 216 
0.42446 -0.437206 1.21111 202 196 174 
0.294603 -0.43046 1.20661 215 216 218 
0.253243 -0.414981 1.14129 223 225 224 
0.283719 -0.390311 1.19413 227 226 222 
0.555599 -0.37156 1.24734 132 138 124 
0.56338 -0.349929 1.21268 125 137 125 
0.265446 -0.319396 1.15776 174 193 235 
0.216516 -0.271801 1.13787 41 42 72 
0.249161 -0.216753 1.10588 194 219 249 
0.530488 -0.162298 1.17239 5 6 8 
0.576243 -0.1664 1.10685 34 34 34 
0.445244 -0.151514 1.16449 198 204 96 
0.579656 -0.146976 1.09211 238 239 241 
0.573307 -0.122146 1.09117 204 202 163 
0.594466 -0.0580692 1.04148 146 151 145 
0.337527 -0.00369373 1.12244 91 91 89 
0.371659 -0.00401738 1.12252 112 115 108 
0.305523 0.0279743 1.10243 85 163 183 
-0.0937563 0.0102001 1.02561 174 148 125 
0.57019 0.0279009 1.00677 185 190 186 
0.578504 0.0746262 0.970847 81 161 172 
-0.197208 0.124556 0.984524 208 233 238 
0.448903 0.138021 0.931064 135 102 147 
0.376253 -0.508642 1.2342 220 187 58 
0.299377 -0.392676 1.1956 235 235 235 
0.35713 -0.303753 1.15361 224 223 219 
0.489263 -0.184906 1.16245 208 212 215 
0.557946 -0.178463 1.14373 192 195 188 
0.418784 -0.165943 1.18626 38 37 32 
0.60508 -0.154108 1.09446 157 160 153 
0.165281 -0.140817 1.04977 132 102 50 
0.417279 -0.00287108 1.12598 113 120 104 
0.573909 0.0322872 0.995297 166 154 158 
0.546411 0.0789245 0.96694 37 81 118 
0.374322 -0.434327 1.20705 44 16 0 
-0.159275 -0.416629 1.24793 119 120 122 
-0.167345 -0.405075 1.24207 161 163 160 
0.570615 -0.327623 1.19359 145 149 134 
0.563354 -0.320303 1.20415 142 149 131 
0.258204 -0.301717 1.1496 69 91 114 
0.534924 -0.289042 1.23364 124 131 115 
0.272715 -0.279204 1.13824 66 97 125 
0.233006 -0.253272 1.13079 9 25 38 
0.245248 -0.245313 1.13358 159 146 200 
-0.233208 -0.203202 1.10401 207 212 216 
0.477683 -0.18609 1.16659 225 227 222 
0.360529 -0.00159336 1.12223 105 109 95 
0.570846 0.0492531 0.987802 48 67 97 
