ply                 
format ascii 1.0    
element vertex 1220
property float x    
property float y    
property float z    
property uchar red  
property uchar green
property uchar blue 
end_header          
-0.198751 -0.4457 1.26219 71 88 82 
-0.185699 -0.437742 1.2623 193 194 198 
0.243497 -0.388117 1.18755 227 231 230 
0.144515 -0.321724 1.15957 12 12 4 
-0.379379 -0.31549 1.21429 212 56 93 
-0.43986 -0.296174 1.19504 212 39 59 
-0.324206 -0.305242 1.25457 211 232 237 
0.268437 -0.275817 1.13111 67 101 128 
-0.35963 -0.289843 1.20522 239 204 14 
0.119659 -0.270625 1.13299 26 30 31 
-0.427769 -0.279087 1.18234 250 197 213 
0.440166 -0.187854 1.17259 205 207 202 
0.481781 -0.18514 1.15768 205 206 208 
0.55123 -0.182481 1.13623 190 193 182 
-0.413968 -0.0682871 1.0894 84 177 106 
0.0661009 -0.0490875 1.094 188 91 98 
-0.142481 -0.0344146 1.03139 108 103 99 
-0.317833 -0.0289267 1.00834 136 88 128 
-0.148196 -0.00788691 1.04161 142 133 128 
0.339733 -0.512305 1.25649 6 11 14 
0.354563 -0.50693 1.24509 80 86 86 
0.38576 -0.494051 1.25545 187 161 51 
0.244679 -0.493885 1.24289 159 160 162 
0.348761 -0.491044 1.24127 16 18 17 
0.378873 -0.486607 1.24964 199 171 64 
0.319759 -0.477933 1.23584 60 70 62 
0.405898 -0.47682 1.24108 169 142 73 
0.378798 -0.476919 1.23691 198 170 86 
0.412544 -0.475104 1.25216 162 133 65 
0.371564 -0.470809 1.2424 107 77 0 
0.375627 -0.455279 1.11283 196 160 82 
0.42475 -0.467108 1.25099 190 150 78 
0.399704 -0.462818 1.23858 201 166 85 
0.596532 -0.461328 1.297 164 141 109 
0.368223 -0.45921 1.24093 189 165 65 
0.453796 -0.453216 1.25239 174 137 67 
0.361416 -0.451159 1.23619 200 174 55 
0.32751 -0.450851 1.22982 166 170 169 
0.467275 -0.445134 1.24878 176 142 78 
0.406025 -0.438665 1.23141 174 153 86 
0.359532 -0.438747 1.23081 75 49 0 
0.245804 -0.439037 1.21791 187 189 184 
0.459797 -0.434774 1.24248 160 130 66 
0.282594 -0.435883 1.22301 166 167 169 
0.423325 -0.430175 1.23071 31 30 10 
0.398138 -0.429832 1.22766 184 149 68 
0.224963 -0.430734 1.20936 204 204 202 
-0.207895 -0.440996 1.26409 66 76 78 
0.350007 -0.424688 1.22499 127 83 0 
0.263577 -0.424511 1.21504 40 36 37 
0.403522 -0.416338 1.21978 208 206 191 
0.206654 -0.41843 1.20418 117 115 116 
0.272282 -0.415626 1.21052 176 182 182 
0.346869 -0.413842 1.22105 183 166 76 
0.39485 -0.409896 1.21516 196 196 184 
0.444745 -0.406995 1.22198 142 116 55 
-0.213967 -0.420627 1.25935 179 184 187 
0.342796 -0.404873 1.21762 189 165 79 
0.38649 -0.402636 1.2098 105 101 90 
0.37335 -0.402196 1.21349 234 199 117 
0.399924 -0.400148 1.20683 137 141 140 
0.285476 -0.401728 1.20486 12 14 11 
0.461986 -0.399622 1.23685 20 20 18 
0.440261 -0.397543 1.21899 146 117 61 
0.340554 -0.396121 1.21188 217 187 89 
-0.213461 -0.408236 1.25131 156 166 167 
0.0390435 -0.400147 1.23028 137 68 71 
0.332031 -0.39171 1.20734 207 180 91 
0.459472 -0.389544 1.23427 60 54 54 
0.280719 -0.38987 1.19852 108 112 111 
0.452993 -0.386167 1.22492 129 128 126 
0.386845 -0.383178 1.20303 18 15 0 
0.00764952 -0.386672 1.14176 42 4 0 
0.151563 -0.384765 1.18109 178 148 36 
0.331744 -0.381599 1.20161 204 169 65 
0.366853 -0.381039 1.1984 205 200 178 
0.21073 -0.382111 1.19194 10 10 8 
0.446092 -0.377466 1.21576 143 140 135 
0.415909 -0.369403 1.20327 13 8 0 
0.359154 -0.368769 1.19278 203 202 174 
0.372955 -0.368729 1.19344 174 171 154 
0.427376 -0.364461 1.20145 136 114 67 
0.135187 -0.367006 1.18718 255 229 107 
0.438856 -0.36178 1.2146 61 56 50 
0.385252 -0.361433 1.18825 101 72 0 
0.084616 -0.369409 1.23984 122 84 75 
0.095266 -0.368108 1.24954 73 21 7 
0.2281 -0.363067 1.18533 6 6 4 
0.405157 -0.354712 1.193 23 18 0 
0.195605 -0.357531 1.1778 10 9 7 
0.14842 -0.356315 1.17221 181 149 30 
0.381411 -0.351984 1.18264 109 84 0 
0.31026 -0.351368 1.17398 179 143 29 
0.286756 -0.350701 1.18235 72 72 70 
0.416355 -0.348716 1.19946 152 130 80 
0.435258 -0.348474 1.2084 87 83 84 
0.355857 -0.348248 1.17929 56 58 57 
0.237794 -0.348477 1.17868 197 198 200 
-0.461586 -0.362588 1.23025 54 59 53 
0.391595 -0.342736 1.18638 186 161 104 
0.430492 -0.341543 1.2014 76 77 72 
0.082883 -0.350209 1.32542 63 31 16 
0.257807 -0.342502 1.17284 125 135 134 
0.359975 -0.33932 1.17081 30 27 8 
0.335173 -0.338665 1.1658 170 156 95 
0.0802276 -0.342905 1.31619 76 43 26 
0.42038 -0.333927 1.18652 68 63 60 
0.129857 -0.339282 1.15884 203 171 72 
0.0915815 -0.340819 1.31451 67 34 15 
0.424882 -0.330589 1.1996 50 49 45 
-0.44487 -0.346198 1.21621 109 186 206 
0.0791419 -0.329676 1.30083 74 40 28 
0.418231 -0.321358 1.19626 50 46 43 
0.0753733 -0.321058 1.30088 46 16 5 
-0.453934 -0.329407 1.20823 60 106 121 
0.412337 -0.312784 1.18766 54 50 51 
0.225276 -0.311851 1.1639 56 83 104 
0.32178 -0.309908 1.15505 201 174 97 
0.0709727 -0.313193 1.29154 46 20 5 
0.236299 -0.309587 1.158 100 127 138 
-0.394138 -0.305817 1.19912 184 173 0 
0.481223 -0.290104 1.23038 162 149 141 
0.0701788 -0.294943 1.16214 177 179 176 
-0.571788 -0.302757 1.16281 26 19 13 
0.528261 -0.281884 1.24573 89 94 87 
0.0721459 -0.287097 1.13985 195 197 196 
0.0624848 -0.286294 1.15432 192 194 193 
-0.31705 -0.280998 1.21337 140 106 130 
0.362092 -0.269138 1.14894 64 53 35 
-0.357463 -0.253919 1.17622 80 102 4 
0.350397 -0.243068 1.14385 82 68 55 
1.07975 -0.205788 1.60341 39 34 38 
0.510925 -0.235964 1.19442 192 159 154 
0.0651498 -0.243572 1.10136 188 171 119 
0.259485 -0.249063 0.933004 224 193 110 
0.511804 -0.228328 1.18173 194 159 153 
0.0971446 -0.227105 1.10681 57 41 5 
0.521848 -0.211902 1.17531 179 158 137 
0.0402557 -0.220157 1.09519 191 193 192 
0.0169716 -0.215854 1.10527 137 137 137 
0.48814 -0.19172 1.20352 157 150 158 
0.338988 -0.198159 1.11509 137 136 134 
0.350608 -0.196137 1.12651 21 22 14 
0.421564 -0.186913 1.18379 233 239 195 
0.0179205 -0.199904 1.08715 104 105 109 
-0.215626 -0.199833 1.10037 101 105 108 
0.427704 -0.183016 1.17627 145 193 135 
-0.00230224 -0.193285 1.08707 176 145 114 
0.0247585 -0.192828 1.07935 134 131 124 
0.420126 -0.174891 1.19511 221 227 167 
0.501651 -0.177172 1.15957 105 118 126 
-0.18458 -0.188494 1.10478 57 58 60 
0.330407 -0.182073 1.09929 99 106 122 
0.0381292 -0.187613 1.07609 95 61 0 
0.439921 -0.1679 1.18164 59 73 24 
-0.246464 -0.186298 1.0881 85 86 88 
0.420487 -0.166348 1.18942 68 65 0 
-0.0701166 -0.17764 1.13805 69 68 73 
0.319835 -0.175632 1.10835 101 110 115 
-0.0827906 -0.176974 1.13407 83 87 90 
-0.11246 -0.17721 1.12495 147 148 152 
0.314365 -0.176134 1.07936 112 123 125 
-0.101223 -0.174847 1.12959 88 89 91 
-0.0493984 -0.172532 1.14424 83 68 71 
0.0507039 -0.179061 1.0736 255 238 195 
-0.156691 -0.177693 1.10376 102 103 107 
-0.176858 -0.176998 1.10052 216 217 221 
-0.291847 -0.173575 1.133 28 12 38 
-0.0592264 -0.162667 1.13188 56 52 51 
0.309144 -0.159753 1.09967 187 172 149 
-0.0784161 -0.158905 1.1203 49 50 55 
-0.0344075 -0.15596 1.13466 251 250 255 
-0.00342992 -0.150734 1.15109 121 122 124 
0.311395 -0.151827 1.11163 98 78 43 
-0.290817 -0.156677 1.11938 24 0 14 
-0.182774 -0.159955 1.08388 155 156 161 
-0.13481 -0.155939 1.10452 72 73 75 
-0.0987478 -0.153734 1.11278 116 116 118 
-0.473696 -0.161658 1.08251 174 74 74 
-0.0427416 -0.149616 1.13242 101 99 104 
-0.0647726 -0.149668 1.1226 227 225 228 
-0.172954 -0.155179 1.08734 219 220 222 
-0.222285 -0.156634 1.07745 74 77 82 
-0.143478 -0.152948 1.09924 85 83 88 
0.307399 -0.143594 1.10515 103 79 51 
-0.159543 -0.1517 1.08493 228 227 232 
0.379051 -0.138118 1.13091 114 55 61 
-0.0472345 -0.1421 1.12714 64 61 68 
-0.0757954 -0.144133 1.11398 99 97 102 
-0.0981067 -0.144105 1.10479 249 249 251 
-0.00834392 -0.138844 1.1364 204 206 205 
-0.0560035 -0.139894 1.11673 249 250 254 
0.28543 -0.137618 1.08374 95 52 0 
-0.330186 -0.14297 1.08775 179 169 168 
0.412762 -0.133818 1.09863 176 179 184 
-0.0780773 -0.134462 1.11336 88 86 89 
-0.111458 -0.137086 1.09443 73 71 74 
-0.2902 -0.133054 1.10341 44 1 20 
-0.0547116 -0.128292 1.11179 71 71 73 
-0.0366066 -0.126076 1.11871 49 48 53 
0.273941 -0.12836 1.07771 83 46 0 
0.288131 -0.126379 1.08474 82 43 4 
-0.555694 -0.136522 1.04367 176 166 154 
-0.481547 -0.124962 1.10108 111 143 106 
-0.370416 -0.12622 1.08226 78 108 44 
-0.512746 -0.12512 1.07625 139 129 80 
0.331596 -0.103314 1.14763 77 87 88 
0.484995 -0.103822 1.13236 114 123 130 
0.241098 -0.116122 1.05304 175 133 75 
0.361888 -0.107934 1.07062 67 66 64 
-0.254909 -0.120032 1.02724 86 87 91 
-0.760153 -0.1038 1.14844 192 192 190 
-0.459518 -0.10871 1.07378 142 177 137 
0.333038 -0.0907418 1.13225 6 28 42 
-0.362161 -0.101985 1.09306 203 199 152 
-0.268636 -0.112344 1.01214 114 109 129 
-0.457012 -0.0957484 1.0884 125 155 129 
0.316069 -0.0828453 1.12549 6 7 12 
0.276873 -0.0882198 1.08283 85 66 51 
0.098103 -0.0791765 1.13356 58 70 66 
-0.440127 -0.0925379 1.07472 116 149 118 
0.0376295 -0.0754876 1.09089 91 90 88 
-0.471258 -0.0850179 1.05389 109 143 110 
0.252606 -0.0652949 1.11758 151 155 104 
-0.436065 -0.0814549 1.06018 143 203 151 
-0.425086 -0.0782703 1.07189 122 186 134 
-0.458194 -0.081908 1.05309 95 139 103 
-0.40132 -0.0783088 1.06834 213 249 221 
0.0840445 -0.0638248 1.09799 11 28 20 
-0.420975 -0.0724392 1.06304 130 154 128 
0.0767113 -0.0561934 1.10144 107 72 68 
-0.433297 -0.0588465 1.06953 195 235 201 
0.144285 -0.0453235 1.11597 129 156 173 
-0.419254 -0.0550535 1.07494 146 197 154 
0.468033 -0.0318961 1.13927 47 46 26 
-0.409065 -0.0510038 1.06194 166 199 172 
-0.252734 -0.0621252 0.986024 0 8 33 
-0.405104 -0.0487536 1.04901 199 255 205 
0.0675486 -0.0389541 1.07399 91 102 96 
-0.240911 -0.0578384 0.981196 130 128 133 
0.1175 -0.0245666 1.11904 127 127 125 
-0.482389 -0.0351484 1.0856 137 142 119 
0.204308 -0.0258818 1.08886 125 149 153 
-0.130157 -0.0322265 1.02841 120 106 93 
-0.370663 -0.0315188 1.02595 224 226 213 
-0.190285 -0.0310533 1.02411 103 105 118 
-0.0899344 -0.0291628 1.02983 142 128 115 
0.534288 -0.0111692 1.07723 254 255 251 
-0.125521 -0.0217967 1.02676 247 237 227 
-0.552174 -0.0330995 0.986567 19 22 13 
-0.117552 -0.0244957 1.01485 219 205 192 
-0.214344 -0.0172353 1.04084 8 5 34 
-0.103509 -0.0209802 1.02227 252 233 216 
-0.45332 -0.00733716 1.07242 67 106 59 
0.268825 0.00785917 1.11249 10 69 85 
-0.0818783 -0.0137836 1.03239 162 134 110 
0.0665161 0.00210432 1.08586 185 66 86 
0.179648 0.00939045 1.10434 0 13 10 
-0.366963 -0.0126729 1.02209 197 210 200 
-0.0551466 -0.00782428 1.03474 118 93 71 
-0.102841 -0.00909189 1.01468 231 218 210 
-0.0548572 -0.00389239 1.02435 121 95 70 
0.169845 0.015648 1.08907 51 46 43 
0.184853 0.0228628 1.09367 37 36 41 
-0.37509 0.00174855 1.01678 241 254 245 
0.318308 0.0267801 1.10101 69 130 174 
-0.0472705 0.00694634 1.02183 125 99 74 
-0.0633896 0.00656946 1.01885 193 167 142 
-0.183888 0.00967086 1.0294 5 0 37 
-0.119189 0.00758691 1.014 184 166 152 
-0.104162 0.00424913 0.995219 225 211 200 
-0.418847 0.0102391 1.02077 111 136 114 
-0.160674 0.0144597 1.03247 66 64 85 
-0.0951819 0.0080828 1.00592 117 94 63 
0.315443 0.0354124 1.09202 75 123 163 
-0.398569 0.0196023 1.03909 125 149 123 
0.0804537 0.0341545 1.08688 148 139 166 
-0.0695552 0.0140805 1.00574 184 160 132 
0.471809 0.0415155 1.08816 104 116 104 
-0.0139023 0.0251768 1.02681 85 63 40 
-0.116571 0.0189186 1.00132 187 165 154 
-0.0530548 0.0217487 1.0074 103 81 60 
-0.397342 0.0355741 1.04808 144 145 129 
0.0597883 0.0467878 1.08013 56 94 107 
-0.232843 0.0251658 0.982626 171 158 188 
-0.00968783 0.0370243 1.02122 73 52 31 
-0.101807 0.0331149 1.00784 154 138 125 
0.104302 0.0544076 1.07726 60 86 121 
0.384286 0.0570085 1.08186 71 136 176 
0.462183 0.0580452 1.08247 109 142 175 
-0.0587736 0.0330037 0.991281 237 219 197 
0.523066 0.0482558 1.03464 147 137 138 
0.179691 0.0578049 1.06928 55 97 93 
-0.140671 0.0361885 0.996428 237 230 246 
0.505634 0.0544087 1.0524 74 107 98 
-0.0367603 0.0370849 0.997608 223 206 188 
-0.00769291 0.043649 1.01183 146 119 98 
0.307549 0.0643158 1.07248 101 152 197 
0.376943 0.0667712 1.07279 68 125 168 
0.283353 0.0671988 1.07257 61 134 179 
-0.0884414 0.0426982 0.989469 126 105 88 
-0.0565871 0.0429209 0.991092 120 95 75 
0.114656 0.0687048 1.06836 78 154 206 
0.0501351 0.068172 1.06543 103 91 51 
0.472594 0.0679893 1.06302 124 179 200 
0.347302 0.0706853 1.0707 35 82 112 
0.439377 0.0707669 1.06911 75 123 169 
0.319823 0.0717816 1.0713 80 138 184 
-0.13538 0.0501539 0.991904 203 195 208 
-0.0112739 0.0538309 0.997906 219 201 181 
0.268742 0.0756369 1.06611 51 131 182 
0.12545 0.0746938 1.0621 85 157 205 
-0.077696 0.0521528 0.988818 176 154 131 
-0.0662856 0.0507622 0.983082 231 212 195 
0.106885 0.0772029 1.06584 88 177 219 
-0.552862 0.0385044 0.940798 101 99 87 
0.0057824 0.0597176 1.00497 83 58 38 
0.136456 0.0770947 1.0592 29 0 14 
-0.153495 0.0566696 0.993651 99 117 121 
-0.133555 0.0592115 1.00163 105 106 110 
-0.0334424 0.0586517 0.993137 188 157 126 
0.459005 0.0791021 1.05647 111 155 192 
0.427041 0.0820455 1.06341 67 125 173 
0.286857 0.0815216 1.06158 73 132 176 
-0.370324 0.0748237 1.04098 110 114 117 
0.108427 0.0803015 1.05369 82 167 208 
0.403685 0.0847229 1.06201 16 62 78 
0.348361 0.085182 1.06317 81 144 177 
0.506754 0.0718381 1.01803 69 158 216 
0.449698 0.0837289 1.05003 112 137 177 
-0.304117 0.0822631 1.0457 71 129 149 
0.141019 0.0855219 1.05332 74 137 188 
0.00539107 0.0701556 1.00301 152 125 96 
-0.0928677 0.0646845 0.979296 128 111 103 
0.433614 0.0896377 1.05488 112 156 191 
0.0743648 0.0890437 1.05186 91 169 205 
-0.256694 0.0793535 1.01977 247 240 230 
-0.038228 0.0701667 0.993526 175 145 119 
0.12934 0.0860759 1.03995 78 150 190 
0.115126 0.0901118 1.05108 69 141 189 
-0.0240218 0.0715252 0.992128 95 71 45 
0.299856 0.0932589 1.0556 107 150 185 
0.158375 0.0914078 1.04926 82 154 204 
0.0931625 0.0899197 1.04335 0 25 64 
0.319237 0.0917708 1.0476 123 132 131 
0.141312 0.0938381 1.04453 94 167 212 
0.0156651 0.0812565 0.998397 87 65 44 
0.413051 0.0960953 1.04055 92 124 163 
0.00792941 0.0779407 0.985594 216 183 148 
-0.0631968 0.075382 0.976635 83 61 40 
0.379287 0.100301 1.0422 84 143 185 
-0.00515303 0.0827224 0.989257 172 145 116 
0.132318 0.0978432 1.03211 92 174 212 
-0.0494798 0.0806144 0.980207 101 79 56 
-0.0243876 0.0822915 0.981341 184 150 125 
-0.0317127 0.0789225 0.969113 176 148 124 
-0.23418 0.0847043 0.983196 174 195 212 
-0.0703732 0.0793244 0.967354 127 108 91 
-0.0862436 0.0761205 0.957362 178 164 151 
0.274929 0.103272 1.03573 65 136 178 
-0.0958167 0.0836439 0.972751 183 164 149 
-0.0139401 0.0884269 0.984221 165 138 111 
0.18166 0.103625 1.02808 2 84 132 
0.395376 0.103905 1.02538 166 218 231 
0.0258818 0.0935251 0.991877 196 193 176 
-0.0322649 0.089872 0.979942 145 123 100 
0.434022 0.10375 1.02054 135 173 209 
-0.0783898 0.0860574 0.967489 216 199 189 
0.00526994 0.0948838 0.992395 153 140 123 
0.0864422 0.106187 1.02446 82 168 219 
0.455664 0.103002 1.00778 95 124 158 
0.0809911 0.106896 1.01531 56 91 111 
0.463266 0.102581 0.997886 104 166 179 
-0.281805 0.108908 1.01193 73 174 226 
-0.265389 0.108768 1.01217 85 156 202 
-0.178275 0.100397 0.982884 114 127 133 
-0.235272 0.111306 1.00959 77 144 197 
-0.126445 0.0941662 0.961384 82 112 114 
0.314745 0.110976 1.00714 78 116 161 
-0.0525255 0.0994878 0.97149 151 139 127 
0.174671 0.11337 1.01048 62 133 187 
-0.248957 0.111558 1.00095 4 103 162 
0.185321 0.112852 1.00677 66 136 185 
-0.0387068 0.103503 0.977505 59 56 51 
0.28838 0.114367 0.999559 80 151 193 
0.472309 0.104144 0.971221 107 115 161 
-0.0698931 0.104173 0.967412 121 120 118 
-0.0867961 0.101527 0.957646 195 169 146 
0.432033 0.113123 0.987479 98 127 167 
0.171994 0.116409 0.992985 57 153 203 
-0.198493 0.109936 0.972066 164 209 206 
-0.253321 0.119556 0.994633 76 170 221 
0.290147 0.117304 0.983494 110 197 240 
-0.0851396 0.111427 0.958616 62 56 58 
-0.17989 0.118474 0.966655 68 96 107 
-0.141365 0.109315 0.941303 53 90 96 
-0.158433 0.115719 0.957285 208 222 233 
-0.0991545 0.116488 0.957179 137 147 157 
-0.168057 0.120301 0.964936 111 125 138 
0.184489 0.12147 0.971354 78 141 195 
-0.196133 0.120819 0.966527 56 124 145 
-0.0506629 0.12031 0.965614 56 141 195 
0.363389 0.122157 0.966702 68 125 178 
-0.0445967 0.1215 0.956872 84 144 196 
-0.107794 0.121742 0.949987 67 89 100 
-0.17027 0.125128 0.954907 69 156 201 
-0.146663 0.121861 0.9436 93 123 134 
-0.16147 0.123895 0.948418 84 147 200 
-0.122288 0.122059 0.940535 125 173 187 
-0.46772 0.109031 0.902587 89 85 86 
-0.0909262 0.12348 0.942995 116 145 187 
0.370557 0.121702 0.938432 98 93 134 
-0.137055 0.123632 0.934625 61 87 112 
0.181975 0.122395 0.934054 92 149 202 
0.136749 0.122586 0.926873 142 113 169 
0.262503 0.123968 0.925547 53 134 190 
0.385363 0.124692 0.928355 114 86 135 
0.191227 0.123013 0.921059 69 138 203 
0.144436 0.125657 0.914542 63 147 211 
-0.0601314 0.125279 0.902517 117 154 209 
-0.181491 0.127423 0.90395 53 104 135 
-0.131737 0.12692 0.898557 113 158 199 
-0.192038 0.129182 0.901024 110 125 182 
-0.0706705 0.131836 0.896363 109 143 214 
-0.0478397 0.131489 0.893099 67 84 112 
-0.0577731 0.140657 0.887962 120 134 205 
-0.185733 0.151185 0.882474 76 113 140 
-0.198812 0.225887 0.967215 231 228 221 
-0.0106526 0.233123 0.970552 161 158 149 
-0.112779 0.23458 0.964401 248 247 243 
0.289579 -0.54529 1.27228 75 56 16 
0.32901 -0.488358 1.24686 153 154 156 
0.440841 -0.463168 1.25253 169 135 74 
0.31471 -0.460904 1.22999 66 65 63 
0.354787 -0.444673 1.22271 110 73 0 
0.390179 -0.444334 1.22845 215 178 98 
0.26462 -0.442596 1.21867 217 221 222 
0.139914 -0.456429 1.35969 161 86 109 
0.12851 -0.452715 1.35816 158 84 107 
0.397175 -0.414729 1.00469 170 136 73 
0.241109 -0.428311 1.20836 148 148 150 
0.278428 -0.427351 1.21674 15 19 18 
0.456068 -0.42474 1.23954 173 143 81 
0.428037 -0.420411 1.22825 10 7 0 
0.377701 -0.416916 1.21506 202 167 86 
0.311085 -0.416922 1.21501 132 134 133 
0.41167 -0.407957 1.21822 180 177 168 
0.361931 -0.390459 1.19782 185 160 94 
0.427892 -0.388983 1.21146 74 53 0 
0.0238376 -0.393044 1.18573 128 64 64 
0.296426 -0.388148 1.20155 209 214 210 
0.435149 -0.379608 1.21142 185 157 94 
0.292627 -0.378479 1.1974 212 216 217 
0.0728014 -0.382162 1.24477 95 28 9 
0.448434 -0.370226 1.22405 73 70 65 
0.198681 -0.36765 1.17523 219 221 218 
0.369554 -0.36122 1.18241 3 2 0 
0.353938 -0.359027 1.18672 194 187 169 
0.411319 -0.330955 1.20768 146 125 72 
-0.444889 -0.339069 1.20218 1 87 122 
-0.398336 -0.329367 1.21436 228 137 154 
0.397768 -0.308905 1.17466 150 128 78 
0.34973 -0.289809 1.13723 30 29 24 
-0.297749 -0.296093 1.22592 137 117 144 
0.178617 -0.281711 1.14245 50 52 93 
0.354187 -0.272641 1.14191 170 169 165 
0.367427 -0.267949 1.1583 66 42 8 
-0.301951 -0.274547 1.23089 134 111 140 
0.300999 -0.266866 1.12206 126 92 18 
-0.373995 -0.269962 1.171 170 45 59 
0.242679 -0.247997 1.10846 20 19 53 
-0.912671 -0.256382 1.2231 44 42 43 
-0.297732 -0.202229 1.16922 26 9 25 
0.468085 -0.184563 1.17112 198 235 204 
-0.214401 -0.200951 1.07701 103 106 111 
0.394655 -0.161165 1.19336 129 135 87 
0.413065 -0.160673 1.17909 67 70 0 
-0.488221 -0.178824 1.09381 66 17 0 
0.423984 -0.157429 1.17847 157 163 125 
-0.181927 -0.171793 1.08712 50 54 57 
0.52462 -0.149864 1.17104 6 12 34 
0.261606 -0.151028 1.08097 98 52 0 
0.0489005 -0.146411 1.11738 254 255 255 
-0.136072 -0.144245 1.0915 215 214 219 
0.37149 -0.135212 1.11622 109 53 54 
-0.150292 -0.143897 1.08508 47 45 48 
-0.502046 -0.147256 1.06618 150 146 101 
0.212988 -0.140436 1.04986 107 128 171 
-0.388115 -0.130885 1.0766 254 255 178 
-0.0920222 -0.125286 1.09039 225 225 227 
-0.0749467 -0.118847 1.09342 46 46 44 
-0.56475 -0.12291 1.05255 196 207 177 
0.399686 -0.110902 1.07159 199 200 202 
-0.522803 -0.107715 1.09423 70 67 32 
-0.47148 -0.104496 1.08806 218 233 212 
-0.379595 -0.100565 1.10045 128 169 127 
-0.489357 -0.102131 1.08669 215 219 205 
-0.418547 -0.100073 1.0849 155 211 162 
0.499404 -0.0709609 1.19024 142 132 120 
-0.375233 -0.0912417 1.10475 115 161 115 
0.264175 -0.0871703 1.06494 255 235 192 
-0.469469 -0.110243 0.947272 240 243 222 
0.260845 -0.0715605 1.11922 197 205 122 
-0.440224 -0.0817853 1.05048 113 146 115 
0.208141 -0.0515239 1.11387 2 20 40 
0.135261 -0.0497116 1.11779 130 172 170 
-0.360136 -0.0611299 1.05026 179 181 176 
0.187681 -0.0466496 1.10032 5 35 71 
-0.428715 -0.055284 1.05799 114 187 132 
0.158567 -0.0375321 1.11337 42 70 82 
-0.358007 -0.0489828 1.04365 161 162 154 
0.171863 -0.0302529 1.1067 180 213 222 
-0.138761 -0.0305727 1.03553 91 73 61 
-0.130686 -0.0345907 1.01211 223 207 192 
-0.144972 -0.0227002 1.04064 129 118 112 
-0.109368 -0.0126677 1.0232 245 230 223 
-0.0693042 -0.0120418 1.02557 107 86 65 
-0.39628 -0.0116926 1.01837 253 254 246 
-0.147266 -0.0044184 1.03891 131 119 119 
-0.357096 -0.0019141 1.00833 146 149 142 
-0.136979 0.00290256 1.01868 179 166 150 
-0.551248 -0.00862081 0.973357 25 25 25 
-0.57619 -0.00497961 0.969392 128 128 128 
0.471223 0.0323786 1.09277 27 33 23 
-0.1011 0.0143981 0.994908 179 160 146 
-0.5508 0.00714755 0.968227 32 31 29 
-0.160817 0.0236711 1.02447 84 82 104 
0.296774 0.0476666 1.08976 87 158 200 
0.190455 0.0499096 1.09119 211 227 226 
-0.364814 0.0412143 1.05092 80 110 82 
-0.318611 0.0310879 1.00288 177 179 176 
-0.293807 0.0310319 1.00067 183 184 178 
-0.0191513 0.0378226 1.00769 100 73 43 
0.324286 0.0587763 1.0744 70 131 175 
-0.0645612 0.0407107 1.00867 126 108 88 
-0.563751 0.0349967 0.943916 130 129 124 
-0.0921678 0.0518236 0.994641 239 221 207 
0.178023 0.0822921 1.09239 0 29 29 
-0.534994 0.0402515 0.941822 36 38 33 
0.411229 0.0903384 1.05118 94 146 185 
0.513235 0.079245 0.976158 70 162 213 
0.493774 0.0919341 0.980365 125 143 181 
-0.0644091 0.0904408 0.970141 104 77 56 
-0.391819 0.106197 0.996932 79 101 112 
0.385373 0.116102 0.991293 93 112 152 
-0.156206 0.126732 0.901581 87 126 193 
-0.181973 0.129468 0.893336 63 105 145 
0.109893 0.133256 0.903839 122 148 197 
0.23909 0.139795 0.898405 78 164 215 
0.57864 -0.571965 1.38563 51 46 42 
0.286897 -0.500651 1.24137 174 174 174 
0.176154 -0.499495 1.40594 54 58 57 
0.130364 -0.493236 1.40698 70 69 64 
0.141409 -0.48824 1.40793 9 9 7 
0.137957 -0.475522 1.38908 133 107 108 
0.100288 -0.47632 1.40425 8 3 7 
0.246282 -0.448271 1.22311 116 120 121 
0.106176 -0.466057 1.39516 141 110 116 
0.359408 -0.435089 1.21789 78 41 0 
0.307724 -0.434608 1.22366 2 7 10 
-0.318552 -0.461625 1.38956 120 136 126 
0.388115 -0.430799 1.22604 222 185 97 
0.411319 -0.423936 1.21708 89 83 49 
0.299678 -0.419211 1.21324 19 29 28 
0.439 -0.417112 1.23203 60 52 31 
0.218578 -0.415784 1.19902 201 203 202 
0.317058 -0.408704 1.21397 61 59 62 
-0.0179464 -0.411176 1.14584 229 207 194 
0.263359 -0.408375 1.20194 0 8 5 
0.288736 -0.398237 1.19355 3 4 0 
0.377801 -0.394827 1.20248 221 215 201 
0.5602 -0.396316 1.29183 129 142 133 
0.213348 -0.397216 1.19481 3 3 3 
-0.00706398 -0.392314 1.12416 240 219 202 
0.0149739 -0.393622 1.16821 133 62 68 
0.220762 -0.389166 1.19905 235 237 236 
-0.202258 -0.39916 1.24228 160 165 168 
0.256648 -0.385713 1.19528 217 218 220 
-0.00311515 -0.384382 1.11801 233 220 212 
0.416273 -0.379609 1.20834 31 27 2 
0.276512 -0.380441 1.19429 232 234 233 
0.0319356 -0.383535 1.18378 152 112 77 
-0.398024 -0.389473 1.18806 155 168 150 
0.14339 -0.37606 1.18743 245 213 112 
0.209053 -0.373049 1.18274 8 10 9 
0.287413 -0.370611 1.1915 242 248 248 
0.0834275 -0.37636 1.25223 134 99 80 
0.245141 -0.370622 1.18746 5 10 13 
0.15785 -0.370881 1.1801 159 126 23 
0.322586 -0.363211 1.17547 72 30 0 
0.16452 -0.358218 1.1713 132 146 175 
0.562483 -0.353161 1.27432 80 84 83 
-0.48456 -0.372461 1.2224 137 150 107 
0.130013 -0.358026 1.17185 178 148 28 
0.22558 -0.353282 1.17636 216 220 219 
0.535163 -0.349726 1.26875 71 75 76 
0.177342 -0.352009 1.17343 154 174 211 
-0.457503 -0.357378 1.22037 24 53 57 
0.31269 -0.339935 1.1725 69 30 0 
0.383589 -0.336742 1.17612 190 160 74 
0.524669 -0.336085 1.29415 67 72 66 
-0.406987 -0.35259 1.23225 100 102 99 
-0.392435 -0.349404 1.23617 75 70 74 
0.406928 -0.331252 1.18763 152 131 76 
0.25995 -0.331904 1.16835 187 189 188 
-0.90447 -0.350296 1.29342 67 62 56 
0.405924 -0.322632 1.2011 161 139 81 
0.351052 -0.317155 1.1561 2 4 0 
-0.311101 -0.325666 1.27487 193 202 197 
0.376941 -0.305548 1.16552 26 19 0 
0.2958 -0.304974 1.14255 153 178 219 
0.392796 -0.299136 1.17721 159 138 83 
-0.58554 -0.314749 1.16547 143 131 117 
-0.422196 -0.310654 1.18739 187 175 0 
-0.52003 -0.302931 1.23059 31 28 13 
0.531434 -0.284796 1.23067 61 67 55 
-0.436597 -0.298803 1.18344 186 60 38 
-0.911754 -0.301025 1.25024 31 28 21 
-0.336558 -0.289959 1.24489 112 122 121 
-0.540201 -0.293209 1.19397 100 62 59 
-0.294928 -0.279497 1.20299 179 132 176 
-0.584767 -0.285239 1.14829 130 120 111 
-0.367 -0.279741 1.17355 181 50 68 
-0.389414 -0.279352 1.18589 169 113 124 
-0.370871 -0.27873 1.18428 184 57 76 
-0.535616 -0.275112 1.20365 56 46 10 
-0.565253 -0.277139 1.13072 212 190 167 
-0.381318 -0.270461 1.18166 254 213 211 
0.279115 -0.215025 1.12157 229 198 107 
0.229461 -0.214945 1.0948 109 142 195 
0.351675 -0.204581 1.13558 179 176 171 
0.521096 -0.191978 1.19319 62 65 58 
0.558534 -0.193668 1.16824 173 178 171 
0.226408 -0.196039 1.10519 29 49 74 
0.0858043 -0.192732 1.07341 53 66 83 
0.50044 -0.17802 1.17062 191 212 203 
0.545549 -0.176648 1.15308 150 159 142 
-0.322552 -0.185861 1.13888 187 185 188 
-0.0114314 -0.183039 1.12652 197 187 175 
0.428394 -0.170293 1.17987 85 103 3 
0.48548 -0.172479 1.15577 37 45 47 
0.329129 -0.181512 1.08752 126 135 152 
0.527428 -0.160231 1.17191 167 151 152 
0.0714589 -0.175198 1.06574 54 11 0 
-0.115017 -0.170019 1.11682 101 102 106 
-0.0843057 -0.166281 1.12446 89 93 94 
-0.191277 -0.169004 1.08309 190 191 196 
-0.140245 -0.164681 1.10401 69 68 73 
-0.463874 -0.162362 1.09336 61 54 2 
0.00776355 -0.14677 1.14101 82 83 87 
-0.170492 -0.153583 1.07239 114 114 122 
0.391039 -0.137667 1.1277 220 210 209 
-0.291998 -0.145287 1.12126 143 64 96 
-0.238774 -0.151207 1.06495 92 92 94 
-0.111555 -0.126934 1.2346 114 114 114 
0.280324 -0.14382 1.07291 103 62 10 
-0.339758 -0.146421 1.08816 207 211 214 
-0.204392 -0.148443 1.06745 217 222 225 
0.189082 -0.139967 1.05235 173 194 247 
0.364025 -0.130563 1.1027 178 128 129 
-0.535084 -0.134998 1.09351 105 119 57 
-0.567351 -0.138433 1.0667 175 176 158 
0.000851832 -0.135935 1.04354 198 233 200 
-0.293152 -0.127506 1.11547 70 70 72 
-0.531234 -0.130229 1.10263 117 127 54 
-0.340094 -0.13268 1.07494 197 202 205 
0.234974 -0.128451 1.06448 177 146 100 
-0.571284 -0.135687 1.04224 194 189 185 
0.00888699 -0.113276 1.12266 212 235 217 
0.216723 -0.122045 1.05445 153 160 186 
-0.378727 -0.120759 1.09289 157 176 148 
-0.531024 -0.120925 1.09825 96 102 56 
-0.392559 -0.118394 1.09882 102 137 97 
-0.4716 -0.118901 1.09098 90 136 89 
-0.574917 -0.12413 1.04339 213 219 217 
0.369155 -0.107043 1.08236 255 254 252 
0.271128 -0.103819 1.07308 173 138 82 
-0.50228 -0.108864 1.07952 191 205 172 
0.373048 -0.104481 1.0592 170 171 166 
-0.400486 -0.0981078 1.08911 106 175 118 
-0.466281 -0.0886447 1.10384 84 142 94 
0.093953 -0.0814955 1.12179 51 57 45 
0.252399 -0.0801314 1.12033 28 20 0 
0.082602 -0.0757157 1.13504 26 24 9 
0.171543 -0.0590463 1.13627 96 111 108 
-0.469992 -0.072744 1.06705 113 136 110 
-0.412424 -0.0661634 1.09701 121 175 139 
0.544987 -0.0611075 1.09429 161 163 152 
0.428599 -0.0423436 1.14922 59 61 56 
-0.509118 -0.0558435 1.05027 156 168 146 
-0.412885 -0.0437328 1.05625 113 159 112 
-0.291625 -0.0496316 1.01926 174 159 192 
-0.149136 -0.042473 1.00975 132 132 132 
-0.448109 -0.0218077 1.0938 138 185 139 
-0.104197 -0.0342953 1.02656 60 49 43 
0.473982 -0.00899381 1.1223 129 126 111 
0.324785 -0.00669466 1.11826 112 113 108 
-0.153029 -0.030649 1.01416 189 190 194 
-0.47469 -0.0112673 1.09539 146 170 138 
-0.572158 -0.036303 0.984651 197 201 187 
-0.0412725 -0.0224288 1.02531 94 72 49 
0.0493504 0.00712181 1.10366 58 50 48 
-0.444727 -0.000886876 1.0696 211 242 201 
-0.41774 -0.00761429 1.02969 165 181 168 
-0.437219 0.011923 1.07024 159 174 169 
0.172404 0.0162709 1.06923 47 0 4 
-0.222923 0.00251724 1.00675 18 10 47 
0.410099 0.0314173 1.095 0 21 17 
-0.115565 0.00665485 1.00123 166 147 132 
-0.132169 0.00929706 1.00434 162 149 143 
-0.0752195 0.0128662 1.01777 170 143 114 
-0.402685 0.017736 1.02559 146 156 147 
-0.108816 0.0170241 1.01687 122 106 91 
-0.227931 0.0171839 1.01867 35 28 62 
-0.341703 0.0169625 1.0075 218 223 219 
-0.101779 0.0216326 1.0036 177 159 147 
0.471715 0.0538882 1.08581 126 146 144 
-0.395028 0.0336941 1.01645 137 186 141 
-0.282831 0.0346252 0.994175 186 172 159 
0.533204 0.0508478 1.01159 87 145 185 
-0.0697909 0.0448206 0.990696 115 96 81 
-0.252696 0.049335 0.99533 243 226 210 
0.151127 0.0758839 1.05501 49 0 2 
0.533174 0.0606802 0.981383 113 169 216 
-0.0568831 0.0674398 0.98313 186 162 134 
0.463902 0.0872201 1.03872 125 155 191 
-0.360136 0.0966081 1.04157 196 224 228 
-0.176981 0.0986041 0.994281 120 132 144 
-0.161062 0.105136 0.989059 195 209 222 
-0.06331 0.124981 0.93416 98 145 201 
-0.453566 0.113768 0.897121 111 133 147 
0.328089 0.122275 0.92405 94 97 142 
-0.416116 0.128325 0.897957 98 137 180 
0.391094 0.144281 0.901239 153 95 153 
-0.136416 0.145971 0.884308 120 150 220 
-0.099475 0.23209 0.971259 245 242 237 
0.307941 -0.545183 1.26606 255 198 119 
0.497461 -0.56551 1.43433 192 208 205 
0.319043 -0.476294 1.21863 0 5 0 
0.130311 -0.493946 1.42013 65 64 59 
0.216408 -0.469322 1.29262 242 205 135 
0.137638 -0.48447 1.42863 110 116 106 
0.0867689 -0.479881 1.37694 182 182 184 
0.141504 -0.478199 1.37408 15 20 16 
0.227276 -0.449085 1.22031 234 234 232 
0.0982978 -0.463347 1.38696 187 158 176 
0.3037 -0.437144 1.21092 232 233 237 
-0.184931 -0.444006 1.26255 194 199 203 
0.292141 -0.427215 1.21726 215 216 218 
0.236002 -0.42115 1.20013 201 205 206 
-0.24285 -0.430831 1.26194 174 178 179 
0.255617 -0.415775 1.20904 221 223 222 
0.231302 -0.410994 1.20518 211 211 213 
0.238757 -0.378205 1.19256 213 211 214 
0.0242476 -0.380437 1.15787 54 19 0 
0.270426 -0.366635 1.18255 11 13 12 
0.273448 -0.344687 1.17043 236 242 242 
0.130881 -0.333103 1.18431 230 197 66 
0.506677 -0.325452 1.29284 64 64 62 
0.340448 -0.314596 1.15182 240 238 226 
-0.301369 -0.323242 1.25086 221 223 220 
0.306209 -0.307017 1.15251 224 200 104 
0.337831 -0.294389 1.13979 30 28 15 
0.34247 -0.294221 1.15046 218 217 215 
-0.427646 -0.289218 1.19041 246 223 231 
0.521281 -0.273414 1.2537 76 79 72 
0.53312 -0.27235 1.22632 130 114 115 
-0.40514 -0.287526 1.18554 190 78 100 
0.141698 -0.276319 1.12691 163 181 217 
0.338256 -0.268258 1.12512 182 178 151 
0.357381 -0.260107 1.13797 158 144 118 
0.541269 -0.251909 1.22009 137 146 127 
-0.440132 -0.2652 1.16372 106 158 122 
-0.543697 -0.259624 1.14607 73 71 10 
0.517133 -0.225792 1.19194 126 94 81 
0.327391 -0.205124 1.10818 99 82 64 
0.565159 -0.166247 1.10053 35 37 32 
0.559046 -0.160913 1.12 164 140 140 
0.548941 -0.15149 1.13871 148 155 137 
-0.448465 -0.162711 1.09515 89 120 52 
0.54247 -0.145125 1.15485 179 181 168 
-0.462885 -0.157412 1.07792 57 41 42 
-0.471047 -0.15251 1.10632 228 230 227 
0.330537 -0.146921 1.08207 221 223 222 
0.329382 -0.146668 1.06816 214 217 210 
0.507161 -0.132224 1.14298 59 66 92 
0.274316 -0.141003 1.08184 85 44 0 
-0.509455 -0.146455 1.07504 228 224 199 
-0.231225 -0.184529 0.782389 175 161 158 
-0.574763 -0.141037 1.05322 167 174 166 
0.351731 -0.127553 1.08366 180 136 135 
-0.116458 -0.13032 1.07765 27 28 32 
-0.525358 -0.127236 1.07348 89 104 39 
0.345304 -0.114367 1.084 45 39 49 
-0.485619 -0.116132 1.09218 196 208 198 
-0.000913666 -0.108725 1.1116 78 139 82 
0.252658 -0.108729 1.04471 196 143 51 
0.317266 -0.0905354 1.11718 83 88 82 
0.376479 -0.0999033 1.03766 218 217 222 
-0.302485 -0.0938873 1.05296 170 133 174 
0.266709 -0.0796353 1.07748 240 213 194 
-0.417077 -0.0804484 1.07836 81 145 84 
-0.307782 -0.0842731 1.04086 61 50 84 
-0.286166 -0.0750273 1.04943 155 131 165 
0.575438 -0.0674738 1.05664 82 86 85 
0.0796254 -0.051754 1.08919 156 60 61 
-0.337507 -0.0685292 1.00354 34 38 37 
0.125431 -0.0337673 1.12988 75 154 148 
-0.188292 -0.0457937 1.00756 113 113 123 
-0.204483 -0.0464784 0.967772 2 0 26 
0.388824 -0.00754739 1.11984 88 90 89 
0.350566 -0.00845298 1.11337 109 112 105 
-0.192941 -0.0274221 1.03573 130 132 145 
-0.155836 -0.0167851 1.06587 84 79 85 
-0.417256 -0.0265788 1.01532 220 231 215 
-0.154342 -0.0131668 1.04603 243 239 238 
0.0576579 0.00176821 1.0921 20 0 0 
-0.218644 -0.0166601 1.00869 42 31 63 
-0.097869 -0.00335564 1.0272 188 159 127 
-0.546332 -0.0177889 0.960707 210 202 199 
-0.21845 0.0190765 1.05491 40 31 74 
0.200012 0.0445619 1.10322 12 31 35 
-0.125538 0.0178375 1.01042 243 228 205 
-0.389841 0.0440162 1.05785 125 127 114 
-0.325426 0.0346395 1.014 239 250 242 
-0.101137 0.0283194 0.978773 127 108 94 
-0.543074 0.0391583 0.95005 234 235 229 
0.1366 0.0739158 1.04805 42 10 25 
0.433207 0.066982 1.02169 105 165 193 
0.482483 0.0861185 1.02386 109 148 181 
0.433337 0.0986929 1.03064 107 153 179 
-0.170048 0.0902651 1.00044 116 129 135 
0.46956 0.096169 1.01247 106 171 193 
0.380261 0.107751 1.0302 90 150 187 
-0.203358 0.103753 0.986134 211 242 244 
-0.447618 0.114206 0.940302 57 83 106 
0.3057 0.126041 0.917091 66 163 214 
0.332055 0.14742 0.899462 52 93 147 
0.254229 0.150485 0.90217 74 73 107 
0.279159 -0.542803 1.30114 145 121 95 
0.571752 -0.518035 1.34186 132 122 112 
0.600166 -0.51336 1.34354 34 30 31 
0.374294 -0.505331 1.24886 220 187 58 
0.226087 -0.520212 1.40086 103 107 108 
0.145828 -0.518896 1.3977 230 230 228 
0.175835 -0.518526 1.40522 100 105 98 
0.231128 -0.511245 1.42085 250 241 244 
0.182412 -0.502395 1.42951 193 199 199 
-0.13489 -0.500765 1.39399 150 177 168 
0.0801687 -0.482469 1.39491 150 114 92 
0.218205 -0.470511 1.32186 243 212 122 
0.365227 -0.456639 1.22752 88 61 0 
0.10943 -0.469543 1.40961 122 125 116 
0.0987559 -0.462737 1.37031 190 169 184 
0.0631814 -0.449765 1.34712 167 151 162 
0.394071 -0.418546 1.20351 221 213 177 
0.162625 -0.423477 1.35395 183 86 127 
-0.200431 -0.410527 1.25622 21 32 26 
0.466582 -0.391003 1.24657 138 134 131 
0.375447 -0.387158 1.25845 189 185 158 
0.381937 -0.381602 1.18429 3 1 0 
0.0712943 -0.38307 1.23059 100 27 21 
0.371903 -0.364878 1.16386 226 221 192 
0.420999 -0.347725 1.24192 184 155 95 
-0.4403 -0.360074 1.20043 102 104 103 
0.571042 -0.342772 1.22818 155 159 145 
0.497249 -0.32684 1.2834 6 8 7 
0.407638 -0.308565 1.2538 167 142 88 
0.549149 -0.302432 1.23479 106 108 103 
0.198555 -0.303467 1.1636 120 123 168 
0.390352 -0.287591 1.25507 196 154 54 
0.234352 -0.289862 1.15384 69 75 107 
0.510427 -0.278474 1.21845 82 84 71 
-0.594968 -0.29291 1.17702 167 147 114 
0.517726 -0.268656 1.22397 97 78 80 
-0.415734 -0.282227 1.19176 183 80 99 
0.187438 -0.27408 1.13559 33 36 53 
-0.544 -0.275067 1.21784 48 27 6 
-0.548621 -0.271911 1.15968 113 91 33 
-0.311942 -0.267912 1.2353 179 135 186 
-0.545427 -0.268479 1.17245 121 122 44 
0.114531 -0.25216 1.14426 177 192 215 
0.513349 -0.210896 1.16783 63 47 34 
0.336932 -0.188838 1.12549 55 55 55 
0.154536 -0.187664 1.06863 75 80 102 
-0.295118 -0.176027 1.14907 128 97 131 
0.0734568 -0.175764 1.08269 51 42 27 
0.51602 -0.160234 1.16198 18 13 17 
0.564467 -0.157916 1.13589 160 134 133 
0.153425 -0.165785 1.03401 123 146 190 
-0.0122218 -0.151708 1.1419 190 191 195 
0.532545 -0.14238 1.16984 10 10 8 
0.0262937 -0.138258 1.0962 27 27 27 
-0.326899 -0.143257 1.06977 169 139 137 
0.603879 -0.126574 1.09044 150 151 119 
-0.526593 -0.138073 1.08454 52 58 0 
0.396202 -0.122892 1.07085 229 228 226 
-0.44458 -0.119941 1.10436 171 189 163 
0.403863 -0.10966 1.0829 116 117 121 
0.244664 -0.108447 1.08226 189 130 30 
-0.538551 -0.121196 1.02262 211 216 186 
-0.424691 -0.104679 1.09559 166 216 165 
-0.383816 -0.108202 1.03305 69 153 75 
-0.381238 -0.0848599 1.11882 202 214 190 
-0.43338 -0.0718893 1.08338 109 179 116 
-0.470137 -0.0684766 1.08091 129 159 133 
-0.405071 -0.0675945 1.06761 247 255 252 
0.571936 -0.0595909 1.04834 71 72 74 
0.19946 -0.0448423 1.12471 24 39 58 
0.581926 -0.0476081 1.04722 190 196 194 
-0.444542 -0.0329181 1.08231 70 88 64 
0.219839 -0.0271517 1.08653 134 168 195 
-0.211603 -0.0449009 1.00531 1 1 27 
0.10737 -0.0157276 1.08356 53 52 50 
0.321967 -0.00970067 1.10568 108 109 104 
-0.373225 -0.0148642 1.03102 236 241 235 
-0.191404 -0.00893507 1.03437 66 61 84 
-0.193478 0.00145134 1.04869 54 52 74 
-0.458613 0.0177047 1.09228 38 47 44 
0.179934 0.0244321 1.10384 108 108 110 
-0.408288 0.00099738 1.01489 235 255 242 
-0.33224 0.0040337 1.02353 252 253 248 
-0.53677 -0.00754483 0.939123 216 212 209 
-0.391518 0.0457598 1.07671 195 197 186 
-0.260616 0.0512242 0.980893 220 222 219 
-0.410873 0.117652 1.01115 143 174 176 
-0.102005 0.130307 0.999448 183 181 186 
-0.0989771 0.121805 0.969794 66 75 84 
-0.445469 0.134086 0.921066 86 97 125 
0.459622 -0.553609 1.36348 202 196 196 
0.384898 -0.476806 1.17501 112 76 26 
0.13105 -0.506561 1.39007 252 254 253 
0.164796 -0.501758 1.39114 163 135 132 
0.199253 -0.499531 1.4249 187 150 168 
0.150054 -0.494196 1.39438 197 178 172 
0.0774757 -0.479638 1.38343 141 95 72 
0.371822 -0.448082 1.17314 43 11 0 
0.0568333 -0.470555 1.38362 181 141 105 
0.524671 -0.448873 1.35746 136 149 139 
-0.198486 -0.452916 1.25412 117 128 130 
-0.178929 -0.452997 1.2633 117 127 126 
0.390525 -0.438566 1.31109 44 16 0 
-0.16518 -0.444287 1.26269 168 172 175 
-0.15858 -0.422914 1.27105 183 187 186 
0.350701 -0.397388 1.17308 41 15 0 
-0.340634 -0.418091 1.31487 13 17 16 
-0.180521 -0.412344 1.26383 188 192 195 
0.363246 -0.396714 1.24638 46 18 0 
0.0645216 -0.399077 1.31212 146 91 61 
0.206041 -0.391637 1.18286 225 225 225 
0.365351 -0.393511 1.27535 45 21 0 
0.420252 -0.387731 1.20356 85 73 47 
0.337522 -0.374378 1.16053 30 15 0 
0.336085 -0.367548 1.16902 48 29 0 
0.278152 -0.354781 1.17378 238 242 245 
0.171688 -0.354687 1.22772 89 110 153 
0.563375 -0.348203 1.22208 21 30 27 
0.558038 -0.345942 1.23214 138 142 127 
-0.383895 -0.361933 1.24344 5 4 0 
0.159331 -0.348769 1.20193 9 13 25 
0.20719 -0.33316 1.15504 143 162 204 
0.476801 -0.326282 1.26888 134 124 122 
0.390601 -0.31662 1.16304 178 153 89 
0.313819 -0.317508 1.15698 35 13 0 
0.215814 -0.316674 1.15637 133 159 218 
0.394623 -0.312585 1.26285 187 149 48 
-0.405553 -0.322669 1.17738 217 49 85 
-0.304525 -0.313437 1.25905 137 155 159 
0.40459 -0.302143 1.18038 131 120 114 
-0.325452 -0.304716 1.25947 208 228 235 
0.500253 -0.28804 1.24061 197 175 164 
0.527236 -0.28161 1.21355 26 33 26 
0.225436 -0.288165 1.16264 109 107 156 
-0.297479 -0.291018 1.21545 154 99 154 
-0.567038 -0.295146 1.14218 211 187 163 
-0.334636 -0.282405 1.21631 142 138 137 
0.290561 -0.275111 1.11427 38 33 14 
0.289387 -0.267543 1.13095 10 14 23 
0.525521 -0.257932 1.22029 113 107 85 
0.113639 -0.26202 1.0984 39 27 15 
0.282104 -0.255034 1.1175 0 7 16 
0.110205 -0.256065 1.08984 34 23 5 
0.527333 -0.245293 1.20325 111 113 99 
0.248301 -0.240999 1.1873 159 146 200 
0.254731 -0.236927 1.11022 20 50 76 
0.2788 -0.234599 1.13897 32 24 11 
0.113477 -0.226358 1.0962 105 108 143 
0.281315 -0.210858 1.20571 30 18 0 
0.276294 -0.218343 1.06998 143 114 48 
0.530126 -0.206774 1.18387 44 44 34 
0.512372 -0.191544 1.17096 13 19 17 
0.19657 -0.19742 1.09293 74 84 119 
0.313916 -0.187076 1.10374 215 214 209 
-0.0071125 -0.189942 1.11516 135 111 87 
0.318897 -0.187294 1.09046 74 74 86 
0.440455 -0.175891 1.17211 212 213 208 
0.238783 -0.190426 1.01122 14 16 11 
0.247781 -0.175392 1.09503 24 19 16 
0.602801 -0.166847 1.11317 13 15 12 
-0.338506 -0.166732 1.16846 47 45 48 
0.0267568 -0.163006 1.12965 60 61 63 
-0.330002 -0.165563 1.12794 45 45 45 
0.244841 -0.16286 1.08835 234 183 78 
0.446236 -0.14714 1.19551 194 203 78 
0.579622 -0.149915 1.14776 206 211 191 
-0.490429 -0.161081 1.10933 234 200 17 
0.172795 -0.135021 1.05569 228 194 122 
0.193239 -0.130517 1.08353 131 151 210 
0.568726 -0.110838 1.09813 58 58 56 
0.0797265 -0.10946 1.05515 254 255 255 
0.230687 -0.110848 1.04372 149 102 34 
0.251162 -0.103602 1.06963 216 155 40 
-0.36196 -0.0853129 1.08921 122 121 103 
0.268929 -0.0759249 1.09955 227 188 149 
0.569978 -0.0795177 1.06085 54 58 57 
-0.402288 -0.0763511 1.05706 84 159 100 
0.57764 -0.064731 1.03456 11 15 16 
0.446593 -0.0421296 1.1393 78 80 69 
0.116898 -0.0435776 1.1277 62 126 109 
0.116924 -0.0376255 1.14968 61 129 114 
0.586105 -0.0443156 1.05936 232 237 233 
-0.289092 -0.0467508 1.03204 171 183 197 
-0.43237 -0.0295789 1.07549 249 255 244 
0.468781 -0.0134123 1.09066 134 134 108 
-0.0938722 -0.0342137 1.00157 213 191 170 
0.36593 -0.00940751 1.09907 109 118 99 
0.349608 -0.0112044 1.092 105 109 95 
-0.0913227 -0.0182573 1.03512 87 74 66 
-0.557424 -0.0246873 0.985381 212 199 193 
-0.313302 -0.00321156 0.987615 253 252 248 
0.169072 0.0272493 1.07619 19 1 1 
-0.562634 0.00404672 0.985806 216 211 208 
-0.178258 0.0156638 1.00124 91 83 120 
0.510291 0.0535565 1.06162 44 49 45 
0.524267 0.0484521 1.02359 154 129 133 
0.546583 0.0384067 0.985298 146 151 119 
0.154828 0.0859336 1.0992 18 12 16 
-0.128715 0.050981 0.970084 100 107 115 
-0.264395 0.086869 1.04116 221 214 204 
-0.276263 0.0875604 1.02651 67 160 203 
-0.0754415 0.0916558 0.985099 237 220 204 
0.034452 0.10375 1.01411 92 81 59 
-0.0626312 0.109503 0.975962 0 12 29 
-0.16709 0.134367 0.998978 152 164 176 
-0.438484 0.125493 0.902292 91 85 113 
0.108954 0.146937 0.894713 186 183 152 
0.213201 0.149253 0.900724 89 74 131 
0.382438 -0.491725 1.22984 109 73 0 
0.353091 -0.359249 1.18182 188 186 163 
0.079403 -0.316556 1.28064 77 49 35 
0.105014 -0.00300226 1.11306 66 54 56 
0.284923 0.0470198 1.09198 60 124 168 
0.306507 0.0884689 1.06579 111 175 213 
0.446354 -0.441857 1.22232 55 47 28 
0.179347 -0.243014 1.12552 109 102 156 
0.341191 -0.122681 1.07418 97 55 57 
0.119712 0.147797 0.917617 85 175 237 
0.339822 -0.498595 1.22848 191 193 188 
0.402166 -0.480344 1.22664 108 74 2 
0.129071 -0.491448 1.37143 72 67 61 
0.204086 -0.182428 1.08223 48 77 107 
0.156051 0.0888405 1.06228 11 30 47 
0.424011 -0.388691 1.20341 60 42 4 
0.270804 0.0934772 1.06552 79 158 188 
0.43946 -0.420639 1.2172 201 192 163 
0.424209 -0.408367 1.209 112 98 61 
0.217291 -0.404173 1.19585 10 11 13 
0.396014 -0.339209 1.18262 36 34 21 
0.361615 -0.320585 1.16633 161 146 105 
0.437968 -0.177524 1.18843 47 64 46 
-0.425985 0.123994 0.997664 46 107 151 
0.148882 -0.492914 1.37048 195 170 166 
-0.194202 -0.432997 1.24532 39 40 42 
0.360062 -0.412199 1.20133 43 16 0 
0.331897 -0.355421 1.16792 26 8 0 
0.125414 -0.282175 1.1318 4 8 9 
0.281315 -0.248499 1.12776 0 7 17 
0.255909 -0.235859 1.12003 19 50 78 
0.458627 -0.00557292 1.12053 113 117 102 
0.317589 0.158322 0.922714 47 99 174 
0.28991 0.0132065 1.10724 61 131 167 
0.179115 0.137821 0.916815 56 143 210 
-0.466636 -0.326318 1.20527 113 196 228 
0.350553 0.137684 0.920816 124 94 144 
0.225871 -0.449007 1.2103 233 232 228 
0.148359 -0.332042 1.16489 35 22 3 
0.3703 0.014281 1.10662 1 11 10 
0.458633 -0.398966 1.22453 20 20 18 
0.452858 -0.388371 1.21717 127 121 121 
0.440924 -0.368432 1.2097 76 66 67 
-0.43407 -0.359187 1.23037 74 75 67 
-0.445475 -0.357596 1.22486 79 83 82 
-0.421153 -0.357476 1.2324 94 89 93 
-0.397251 -0.354061 1.23372 88 88 78 
-0.412542 -0.352495 1.22691 90 92 91 
-0.38703 -0.35129 1.23536 192 197 200 
-0.434241 -0.340233 1.2171 112 211 243 
-0.389506 -0.339632 1.22714 235 206 211 
0.0828418 -0.330707 1.30146 69 36 17 
-0.456973 -0.334601 1.20943 36 130 166 
-0.43408 -0.330228 1.20888 39 87 109 
-0.449689 -0.327291 1.2057 182 218 230 
-0.434368 -0.311455 1.19781 194 181 0 
0.478753 -0.290327 1.22214 162 149 141 
-0.426067 -0.291556 1.18713 255 192 203 
-0.355293 -0.286025 1.19914 149 66 0 
-0.405446 -0.272642 1.18166 245 124 139 
0.460136 -0.18245 1.16625 141 225 165 
0.300132 -0.168238 1.09812 255 239 197 
0.353691 -0.159919 1.12896 125 120 127 
-0.120417 -0.160957 1.11814 80 81 86 
-0.187312 -0.147621 1.08448 239 240 245 
0.243929 -0.118004 1.06648 132 107 67 
0.0800572 -0.065679 1.12013 78 101 91 
-0.0369115 -0.0193515 1.04723 173 152 125 
-0.0599675 -0.0198591 1.04252 212 196 180 
-0.0718415 -0.0133462 1.0412 169 143 118 
0.309397 0.0115506 1.11231 69 133 171 
0.374487 0.0247902 1.10307 66 135 168 
-0.0271145 0.00953958 1.02935 97 72 42 
-0.0622682 0.0199044 1.01678 135 113 90 
0.415772 0.0463613 1.08975 83 146 177 
-0.0580819 0.0294474 1.01548 182 160 139 
-0.0787075 0.033646 1.00563 195 169 142 
-0.0379068 0.0406175 1.00934 223 206 188 
0.375197 0.0784797 1.06911 79 134 175 
0.00978564 0.068634 1.01409 146 124 110 
0.129327 0.0932737 1.05518 14 90 140 
0.370176 0.0941614 1.05695 77 131 175 
0.308773 0.0984713 1.05011 80 138 175 
0.160174 0.104048 1.03826 80 161 214 
0.0785571 0.105299 1.0346 55 93 116 
0.326862 0.109379 1.02793 78 122 167 
-0.0521431 0.124885 0.977658 56 141 195 
-0.1724 0.128643 0.963979 69 156 201 
-0.130873 0.124624 0.944448 57 91 119 
-0.188561 0.131514 0.930301 118 132 177 
0.140621 -0.486507 1.39076 6 6 4 
0.460883 -0.433695 1.2316 166 131 73 
0.453384 -0.423751 1.22968 175 145 83 
-0.392859 -0.324019 1.21622 177 86 103 
-0.445467 -0.312429 1.1977 192 181 0 
-0.298788 -0.274882 1.21987 134 111 140 
-0.199164 -0.126419 1.07171 243 242 247 
-0.0515518 -0.0240767 1.04927 102 77 57 
0.2796 0.094432 1.05556 74 145 187 
0.350002 -0.498699 1.23845 204 210 210 
-0.314889 -0.45327 1.37244 109 122 113 
0.441454 -0.39922 1.20574 166 140 83 
0.434177 -0.381187 1.2047 179 150 94 
0.399855 -0.355044 1.18304 30 23 0 
-0.427755 -0.353129 1.22478 33 58 63 
-0.419043 -0.321391 1.20504 182 83 111 
-0.563915 -0.302898 1.16602 74 65 60 
-0.0881923 -0.141812 1.11741 163 163 165 
0.225767 -0.144021 1.05603 117 132 163 
-0.135498 -0.135836 1.10162 134 133 138 
-0.334136 -0.130357 1.09183 196 200 203 
0.142698 0.027587 1.08322 53 0 0 
-0.0271054 0.0252127 1.02614 150 130 106 
0.425629 0.0490875 1.09041 93 128 160 
-0.0620555 0.050351 1.00106 136 111 91 
-0.0195238 0.0941331 0.992253 91 67 43 
-0.175118 0.126113 0.977179 192 209 227 
0.254478 0.128505 0.923658 91 165 212 
0.243162 0.139581 0.915809 69 145 207 
0.119416 0.143536 0.910577 81 175 229 
0.290226 0.223029 0.990196 96 84 72 
0.452584 -0.459979 1.24195 206 143 40 
0.262473 -0.444394 1.21176 183 187 188 
0.235071 -0.370972 1.18772 216 216 216 
-0.401568 -0.320719 1.21183 110 0 11 
-0.570723 -0.306064 1.15629 188 170 160 
0.324656 -0.278248 1.13333 126 97 21 
-0.395599 -0.274058 1.18552 179 82 99 
-0.582834 -0.276837 1.14129 162 142 118 
0.537949 -0.252684 1.20976 137 146 127 
-0.444394 -0.255315 1.16786 79 129 70 
-0.495973 -0.25271 1.15036 177 175 150 
0.153324 -0.15508 1.05665 105 127 150 
-0.296097 -0.15684 0.981835 175 161 158 
-0.227863 -0.130165 1.06333 220 221 225 
-0.329538 -0.116807 1.07659 179 153 154 
-0.578243 -0.100614 1.03646 216 220 221 
0.429757 -0.0368775 1.14191 91 85 85 
0.446857 -0.00911943 1.12109 126 123 116 
-0.112669 -0.0194981 1.03191 119 109 100 
0.357041 0.153132 0.912265 80 65 98 
0.180494 -0.498329 1.39398 193 199 199 
0.0385347 -0.47937 1.36595 251 253 250 
-0.215623 -0.443796 1.25396 37 45 47 
-0.313561 -0.422509 1.3485 77 84 76 
0.387434 -0.371869 1.20907 131 111 48 
0.560251 -0.350144 1.245 132 138 126 
-0.363813 -0.357477 1.24424 150 147 132 
-0.583106 -0.355467 1.18351 144 116 104 
-0.420511 -0.345396 1.22134 132 186 224 
-0.425292 -0.278915 1.1768 253 211 221 
-0.306854 -0.268561 1.21716 179 135 186 
-0.446205 -0.220897 1.14058 54 116 75 
0.199573 -0.175415 1.0739 100 131 178 
-0.449338 -0.176088 1.11144 71 127 78 
-0.31643 -0.0925071 1.0646 172 125 180 
0.0780836 -0.478624 1.37451 141 95 72 
-0.183581 -0.438086 1.25905 185 186 191 
0.426966 -0.393541 1.20048 205 152 38 
-0.175093 -0.408618 1.27811 24 36 34 
0.327304 -0.34304 1.16561 39 15 0 
-0.375306 -0.348026 1.22942 36 40 43 
0.303466 -0.333369 1.18165 145 108 1 
0.337024 -0.279512 1.1367 218 211 183 
-0.538893 -0.267225 1.20263 72 71 15 
0.501974 -0.217271 1.15863 214 201 184 
-0.318857 -0.196093 1.15141 142 84 143 
0.562022 -0.179453 1.14235 25 30 23 
-0.445314 -0.174965 1.10214 58 137 90 
-0.48517 -0.162537 1.09736 234 200 17 
-0.336109 -0.130032 1.06403 158 166 169 
-0.423838 -0.035683 1.06596 154 159 136 
-0.564584 -0.0108803 0.995099 211 202 195 
