ply                 
format ascii 1.0    
element vertex 1223
property float x    
property float y    
property float z    
property uchar red  
property uchar green
property uchar blue 
end_header          
-0.030298 -0.0138862 1.04585 74 57 39 
0.276803 0.00509975 1.10648 27 57 68 
-0.032224 0.0161575 1.0275 94 70 46 
-0.101015 0.0304574 1.00516 187 170 154 
0.198443 0.0428854 1.08464 74 149 155 
0.288193 0.0442666 1.08131 87 162 193 
0.189065 0.0456666 1.07831 193 203 204 
0.502088 0.0628622 1.03423 115 177 224 
0.354916 0.066776 1.06679 19 37 59 
-0.360729 0.0712517 1.05295 10 14 13 
-0.017809 0.0679388 1.00467 166 140 117 
-0.0425754 0.0707137 0.990872 97 73 47 
0.471264 0.0756305 1.04328 136 159 191 
0.152934 0.0836568 1.0519 175 173 184 
-0.0693265 0.0891397 0.972717 173 155 135 
0.221818 -0.429337 1.19342 39 45 45 
0.378592 -0.393687 1.18653 73 75 64 
0.279237 -0.386987 1.18849 222 224 223 
0.201675 -0.381279 1.17851 228 234 230 
0.286395 -0.380652 1.18509 72 78 76 
0.357804 -0.372553 1.17938 42 41 10 
-0.384982 -0.378283 1.22009 113 99 86 
0.379085 -0.36608 1.18472 134 115 72 
0.552899 -0.351636 1.22267 138 142 125 
0.53474 -0.355029 1.24705 92 92 84 
-0.44791 -0.332253 1.20973 58 91 106 
0.382141 -0.318161 1.16707 28 19 0 
0.411991 -0.326554 1.20504 134 109 68 
0.29761 -0.301189 1.142 61 88 131 
0.368003 -0.295848 1.14914 89 70 11 
0.197819 -0.273492 1.13399 50 47 76 
-0.373218 -0.279796 1.19221 203 24 46 
0.528282 -0.275932 1.21387 134 120 120 
0.32594 -0.205346 1.11431 190 169 150 
0.309021 -0.187175 1.09054 252 234 212 
0.30586 -0.179507 1.10377 253 228 188 
-0.332543 -0.118401 1.08508 155 133 135 
-0.00204145 -0.107465 1.12508 92 163 95 
0.425166 -0.0466273 1.13062 50 51 46 
-0.143907 -0.0206303 1.03914 208 191 183 
-0.157588 -0.0173996 1.0434 189 190 194 
0.401353 -0.00931798 1.11121 101 104 97 
0.206195 0.0301327 1.09336 0 24 27 
0.496713 0.0547055 1.04917 67 119 132 
-0.0591843 0.0622033 0.991748 118 94 70 
-0.0748371 0.0685164 0.986282 197 178 163 
0.280812 0.0823191 1.05553 78 152 189 
0.451097 0.0846546 1.0409 122 156 183 
-0.0792563 0.138586 0.904768 104 134 206 
0.439723 -0.454285 1.22653 114 73 9 
-0.181595 -0.441297 1.25796 191 192 196 
-0.219438 -0.421975 1.24678 33 37 40 
-0.197624 -0.411236 1.2432 26 42 41 
0.254751 -0.382414 1.18405 224 224 224 
0.398105 -0.372955 1.18454 76 47 0 
0.267434 -0.350559 1.16521 15 17 16 
0.546382 -0.368121 1.23868 124 130 120 
-0.386764 -0.363221 1.23716 89 81 58 
0.28021 -0.318374 1.14971 233 198 46 
-0.433101 -0.33013 1.21096 30 120 147 
-0.407964 -0.329252 1.20759 129 7 32 
-0.315983 -0.322418 1.26143 156 180 182 
-0.440353 -0.29939 1.19487 204 43 59 
-0.390343 -0.284227 1.18899 194 76 98 
-0.418027 -0.277812 1.17957 243 221 224 
0.113868 -0.255041 1.10272 169 179 206 
-0.343871 -0.149048 1.1046 161 166 170 
-0.0526152 -0.145488 1.1344 101 97 96 
0.310307 -0.108498 1.1417 81 75 15 
-0.318419 -0.0930698 1.06914 164 114 167 
-0.117874 -0.0275991 1.04537 86 74 62 
0.34294 0.00455345 1.1034 107 120 111 
-0.214389 0.0219245 1.01485 21 11 48 
-0.0998679 0.0416832 1.00749 253 237 224 
-0.0821098 0.0606326 0.989594 140 119 98 
0.444368 0.0793274 1.06013 99 151 173 
-0.0965023 0.116631 0.965211 195 195 193 
0.243753 -0.441559 1.20269 200 198 201 
0.279249 -0.437054 1.20646 218 218 220 
0.315523 -0.431267 1.20509 229 235 233 
0.424529 -0.421394 1.20683 166 161 158 
-0.236596 -0.432606 1.24528 180 179 185 
0.410503 -0.416162 1.20541 194 196 191 
-0.165033 -0.415177 1.24659 29 37 39 
0.418611 -0.387513 1.19356 82 66 33 
-0.315334 -0.426791 1.34617 90 95 91 
0.157379 -0.348628 1.15742 11 10 28 
0.139739 -0.313083 1.15738 23 23 25 
0.12859 -0.29175 1.13902 28 22 0 
-0.539573 -0.305823 1.22166 119 116 65 
0.12039 -0.271661 1.11122 18 22 34 
0.270037 -0.273435 1.13341 30 57 78 
-0.299345 -0.29247 1.22212 150 100 138 
0.114262 -0.262133 1.11383 46 24 0 
0.114324 -0.261612 1.12696 36 21 14 
0.22796 -0.251185 1.12019 31 43 59 
0.278191 -0.244975 1.11423 4 18 27 
0.122555 -0.233091 1.10884 109 109 147 
0.138931 -0.233854 1.10779 29 48 65 
0.113855 -0.226088 1.10431 107 108 139 
-0.338014 -0.214629 1.15427 169 169 171 
0.479572 -0.200599 1.16912 228 207 186 
0.0776643 -0.184938 1.0779 15 22 28 
0.433285 -0.182127 1.17224 59 72 55 
0.48147 -0.173452 1.15498 170 170 170 
0.226942 -0.157945 1.0653 68 83 114 
-0.396085 -0.0918052 1.11089 125 144 125 
-0.294801 -0.0313872 1.01715 44 126 174 
0.368465 -0.00688552 1.11025 101 105 90 
0.397002 0.0245839 1.09087 1 20 26 
0.406225 0.0268787 1.08627 10 11 6 
0.410792 -0.469961 1.2243 143 116 63 
0.365618 -0.467294 1.22188 86 47 0 
0.419491 -0.464863 1.22563 190 150 78 
0.42875 -0.461824 1.22447 208 170 99 
0.355706 -0.443466 1.2157 205 179 68 
0.263888 -0.437379 1.20684 4 6 5 
0.355888 -0.433546 1.21234 96 68 0 
0.280823 -0.43218 1.20816 167 168 170 
0.352801 -0.421822 1.20889 140 98 0 
0.415614 -0.419728 1.20609 145 138 128 
0.379041 -0.420053 1.20701 207 177 87 
0.346915 -0.409001 1.20401 101 66 0 
0.388717 -0.408029 1.20051 44 41 26 
0.401677 -0.405343 1.20013 130 132 118 
0.385251 -0.399963 1.19624 16 12 0 
0.333512 -0.400069 1.19917 117 78 0 
0.437963 -0.3946 1.20336 158 131 78 
0.334367 -0.390149 1.19489 217 180 76 
0.375984 -0.384202 1.18983 90 94 97 
0.327615 -0.383309 1.19067 211 187 97 
0.36547 -0.381119 1.18752 205 200 178 
0.319674 -0.373703 1.18442 70 31 0 
0.322063 -0.364834 1.17824 208 179 75 
0.383967 -0.358937 1.17918 120 96 10 
0.177456 -0.353095 1.16661 161 180 213 
0.286381 -0.351023 1.17448 72 72 70 
0.52706 -0.34716 1.25554 57 59 58 
0.309739 -0.34808 1.17097 77 41 0 
0.378234 -0.344289 1.17292 197 171 87 
0.345916 -0.341995 1.16795 219 216 201 
0.127496 -0.34646 1.16254 167 131 19 
0.360357 -0.33962 1.16863 30 27 8 
0.38849 -0.33909 1.17444 186 164 89 
0.382432 -0.331073 1.17088 111 78 0 
0.297545 -0.329231 1.16412 106 63 0 
0.304624 -0.322949 1.16138 76 35 0 
0.294417 -0.318813 1.15784 208 172 60 
0.384827 -0.316572 1.1675 20 12 0 
0.352981 -0.312541 1.1564 166 163 158 
0.232711 -0.310564 1.15589 100 123 139 
0.378123 -0.307723 1.16251 82 77 48 
0.371739 -0.297382 1.15676 27 18 0 
0.352737 -0.291658 1.14822 16 18 5 
0.30948 -0.28527 1.13771 196 167 97 
0.263764 -0.285552 1.14028 154 189 243 
0.346837 -0.281615 1.14266 75 72 55 
0.353996 -0.275129 1.14378 37 35 23 
0.198868 -0.276618 1.13908 87 90 109 
0.33983 -0.269129 1.13588 156 143 98 
0.329723 -0.266668 1.13399 142 98 0 
0.176149 -0.232329 1.11253 85 91 139 
0.332575 -0.204315 1.11942 174 157 147 
-0.164207 -0.193315 1.11882 84 87 94 
-0.0696417 -0.169808 1.13474 95 95 97 
0.422594 -0.158284 1.17303 157 163 125 
0.394532 -0.155727 1.17973 35 31 0 
-0.0138352 -0.15397 1.14493 116 117 121 
-0.0149939 -0.139768 1.16803 88 92 91 
0.291687 -0.14103 1.08886 156 114 64 
-0.126334 -0.14172 1.1014 230 231 236 
0.39463 -0.133042 1.10168 138 137 135 
0.00702679 -0.128249 1.137 80 92 80 
0.574474 -0.129915 1.08162 36 38 35 
0.38969 -0.128422 1.09518 204 199 205 
0.381466 -0.127076 1.10088 143 139 138 
0.400573 -0.125355 1.08815 156 155 153 
0.388018 -0.119094 1.0783 156 154 157 
0.373074 -0.10927 1.06758 69 65 64 
0.0722429 -0.0485185 1.07192 23 34 26 
0.344 -0.00751234 1.11889 99 101 96 
0.308254 -0.00529171 1.11719 89 103 106 
0.331025 0.00297307 1.11264 0 8 15 
0.336246 0.0241331 1.09979 91 147 180 
0.303895 0.0422776 1.08848 80 143 186 
0.455847 0.0448179 1.09014 0 2 0 
0.318242 0.0464679 1.08599 79 126 172 
0.35624 0.0684012 1.07373 0 40 65 
0.327317 0.0741643 1.07076 91 153 194 
0.361939 0.0789644 1.06753 84 144 180 
0.385149 0.0835173 1.06483 130 145 166 
0.111641 0.110625 1.01936 37 127 153 
0.331879 -0.502886 1.22676 46 46 44 
0.325832 -0.450837 1.21473 198 198 198 
0.468092 -0.447703 1.22673 100 60 0 
0.408904 -0.430957 1.20943 172 149 95 
0.311808 -0.42517 1.20416 180 182 181 
0.258154 -0.412454 1.19893 2 2 2 
0.395138 -0.397154 1.19537 216 220 206 
0.208983 -0.398452 1.18857 103 105 104 
0.246587 -0.390589 1.19068 222 226 227 
0.27568 -0.37964 1.18843 216 216 216 
0.245745 -0.370914 1.18202 0 1 2 
0.158163 -0.370868 1.17145 161 127 27 
0.227793 -0.361357 1.1757 166 166 166 
0.26937 -0.333055 1.16668 235 240 243 
0.354677 -0.327868 1.16307 188 191 184 
0.376433 -0.321215 1.16614 78 49 0 
0.328685 -0.314311 1.15613 231 200 110 
0.339974 -0.30075 1.14858 26 21 0 
0.317064 -0.291503 1.14212 222 197 117 
0.302964 -0.270961 1.13146 215 188 109 
0.268906 -0.229425 1.11063 174 197 231 
0.257783 -0.171033 1.07641 181 152 94 
-0.17484 -0.141106 1.08111 119 120 125 
0.349831 0.00968303 1.10875 0 4 9 
0.358971 0.0124648 1.10604 109 129 127 
0.319823 0.0148927 1.1054 90 161 191 
0.401415 0.0271497 1.09425 0 11 13 
0.447466 0.0361603 1.09201 48 39 30 
0.439733 0.0444232 1.08977 32 69 78 
0.420344 0.0559502 1.08379 89 149 173 
0.369112 0.0591305 1.07987 79 154 186 
0.554019 0.0895 0.959511 99 99 137 
0.257828 0.130231 0.924462 37 117 166 
0.339698 -0.508505 1.22848 195 201 201 
0.285413 -0.49901 1.22378 174 174 174 
0.333092 -0.489406 1.22492 13 24 18 
0.343285 -0.488023 1.22428 208 210 207 
0.58443 -0.45727 1.26452 166 134 95 
0.437043 -0.456784 1.22303 148 121 66 
0.451709 -0.451809 1.2262 160 130 70 
0.306308 -0.433897 1.20864 2 7 10 
0.206795 -0.422255 1.19322 156 154 155 
0.415596 -0.403858 1.20189 178 163 140 
0.229703 -0.405123 1.19319 190 190 192 
0.377075 -0.394681 1.19436 221 215 201 
0.38773 -0.387199 1.19096 8 7 0 
0.416655 -0.386736 1.19589 42 35 0 
0.287619 -0.380433 1.18831 8 15 8 
0.27596 -0.346855 1.17391 239 248 245 
0.515827 -0.3359 1.26532 67 72 66 
0.230142 -0.329648 1.16456 110 123 158 
0.532665 -0.284872 1.21937 192 191 187 
0.282463 -0.285427 1.13822 76 106 166 
0.325616 -0.281079 1.13823 203 180 110 
0.14075 -0.275998 1.12895 149 167 207 
0.260008 -0.265789 1.13372 63 68 72 
0.547957 -0.205169 1.15392 128 141 123 
0.32615 -0.18803 1.10329 48 52 64 
0.195345 -0.177864 1.07462 137 162 203 
-0.086522 -0.156072 1.12133 149 150 154 
0.564488 -0.144262 1.1001 235 234 230 
-0.0112234 -0.129694 1.13103 192 229 195 
0.347152 -0.116148 1.06882 111 75 77 
0.457888 -0.0344892 1.13506 108 105 98 
0.380144 -0.00798548 1.11896 120 125 118 
0.394051 -0.00763297 1.11951 91 93 92 
-0.246923 -0.00394981 1.0229 3 0 11 
0.42401 0.0372582 1.09449 114 135 138 
0.151522 0.07787 1.06297 49 0 2 
0.167086 0.0845924 1.05828 88 164 200 
0.553227 0.0639577 0.974274 82 128 161 
0.517384 0.0792653 1.00457 62 162 211 
0.507013 0.100571 0.952621 126 155 189 
0.335847 -0.47417 1.22083 215 217 216 
0.419055 -0.433378 1.20958 202 196 174 
0.291158 -0.426851 1.20526 215 216 218 
0.250832 -0.412106 1.14194 223 225 224 
0.280379 -0.387346 1.19274 227 226 222 
0.547259 -0.36832 1.24359 132 138 124 
0.555322 -0.347219 1.20994 125 137 125 
0.262241 -0.317761 1.15673 174 193 235 
0.214123 -0.270848 1.13696 41 42 72 
0.246322 -0.216655 1.10533 194 219 249 
0.522365 -0.162782 1.16868 5 6 8 
0.568518 -0.166768 1.10552 34 34 34 
0.438543 -0.152268 1.16095 198 204 96 
0.571997 -0.147639 1.09102 238 239 241 
0.565579 -0.123208 1.08979 204 202 163 
0.586861 -0.0600055 1.04092 146 151 145 
0.332247 -0.00729714 1.11824 91 91 89 
0.365801 -0.00750134 1.1184 112 115 108 
0.300809 0.0237901 1.09848 85 163 183 
-0.0920033 0.00633223 1.02452 174 148 125 
0.562883 0.0246951 1.00621 185 190 186 
0.571387 0.0709109 0.970801 81 161 172 
-0.194033 0.118635 0.983084 208 233 238 
0.443548 0.133398 0.931358 135 102 147 
0.371656 -0.503705 1.23271 220 187 58 
0.295799 -0.389658 1.19417 235 235 235 
0.352707 -0.302167 1.15251 224 223 219 
0.482093 -0.185036 1.15945 208 212 215 
0.549955 -0.178651 1.14127 192 195 188 
0.412324 -0.166465 1.18212 38 37 32 
0.597075 -0.154641 1.09336 157 160 153 
0.16366 -0.141945 1.05004 132 102 50 
0.410634 -0.00641479 1.12165 113 120 104 
0.566729 0.0290948 0.995045 166 154 158 
0.539724 0.0751263 0.966956 37 81 118 
0.369699 -0.430607 1.20566 44 16 0 
-0.155746 -0.413231 1.24521 119 120 122 
-0.16277 -0.402548 1.23857 161 163 160 
0.56261 -0.32534 1.19126 145 149 134 
0.555242 -0.318085 1.20134 142 149 131 
0.255425 -0.300521 1.14908 69 91 114 
0.526616 -0.287218 1.22936 124 131 115 
0.26954 -0.278096 1.1374 66 97 125 
0.230356 -0.252597 1.12988 9 25 38 
0.242373 -0.244736 1.13248 159 146 200 
-0.229054 -0.203673 1.10354 207 212 216 
0.470645 -0.186207 1.16345 225 227 222 
0.354863 -0.0052055 1.11802 105 109 95 
0.563712 0.0458247 0.987563 48 67 97 
0.308821 -0.450142 1.21467 151 148 143 
0.350296 -0.43186 1.21338 188 158 36 
0.316247 -0.368306 1.17934 138 100 0 
-0.413849 -0.355581 1.2329 143 143 145 
-0.390877 -0.352486 1.23427 81 75 75 
-0.404248 -0.350528 1.23032 200 143 149 
0.342155 -0.327829 1.15775 106 100 74 
0.354091 -0.327733 1.15846 153 152 148 
-0.386514 -0.277443 1.18835 199 153 164 
-0.249988 -0.223671 1.11838 86 87 91 
0.208468 -0.206047 1.09337 91 98 108 
0.399092 -0.126378 1.08239 161 160 158 
0.338286 0.0405711 1.08313 70 135 165 
0.317507 0.0448949 1.08012 67 121 159 
0.430258 0.0481156 1.07653 81 128 158 
0.414194 -0.411845 1.20566 143 142 138 
0.434085 -0.388893 1.20442 150 121 65 
-0.381878 -0.347807 1.2317 188 157 155 
-0.395925 -0.330276 1.21759 184 110 125 
0.31792 -0.281688 1.13278 132 87 2 
0.27178 -0.192001 1.10908 202 171 91 
0.246129 -0.161105 1.04408 180 149 85 
-0.10848 -0.167294 1.12721 115 116 120 
0.332963 -0.133619 1.06551 222 209 193 
0.37967 -0.0100554 1.11269 95 105 96 
-0.048616 0.0347106 1.01336 91 65 40 
0.417761 0.0691271 1.06582 70 129 159 
-0.123679 0.14035 0.899424 115 110 177 
-0.100529 0.1416 0.898758 119 119 181 
-0.210744 -0.407207 1.24013 175 178 183 
0.329125 -0.309275 1.19294 217 189 105 
0.349746 -0.288842 1.14104 55 60 56 
-0.12865 -0.156167 1.11554 72 73 77 
0.152117 -0.148665 1.05982 134 148 174 
0.324649 -0.00109933 1.10789 120 129 136 
0.352204 0.0276185 1.09089 91 147 174 
0.349038 0.0377469 1.08353 60 123 156 
0.458797 0.0536371 1.07008 111 140 170 
0.368032 0.0564604 1.07205 77 148 176 
-0.0909511 0.0594592 0.990642 105 87 73 
-0.132803 0.11048 0.953081 149 197 199 
0.553285 -0.441549 1.26345 132 122 112 
0.397425 -0.36585 1.17925 90 58 1 
0.392604 -0.327978 1.16992 34 19 0 
0.379978 -0.316466 1.16056 28 19 0 
-0.435223 -0.312176 1.20052 189 180 0 
-0.417717 -0.290777 1.18996 251 194 200 
0.457161 -0.0369701 1.12716 82 80 68 
0.357686 0.0105477 1.09894 110 116 112 
0.427384 -0.409628 1.20647 121 91 37 
0.381664 -0.373378 1.18303 224 218 184 
-0.417697 -0.32338 1.20639 210 49 91 
0.334428 -0.306613 1.1444 242 231 203 
0.537847 -0.295733 1.22295 103 109 99 
0.534914 -0.293308 1.20734 20 25 19 
0.313692 -0.117029 1.15181 8 0 0 
-0.108434 0.0140473 1.0166 131 118 102 
0.37609 -0.439345 1.22175 40 10 0 
-0.197433 -0.446796 1.25743 71 88 82 
-0.184427 -0.438832 1.25756 193 194 198 
0.24367 -0.388494 1.18324 227 231 230 
0.144852 -0.322458 1.15546 12 12 4 
-0.37791 -0.317238 1.20984 212 56 93 
-0.438305 -0.298075 1.19067 212 39 59 
-0.322879 -0.306916 1.24994 211 232 237 
0.268413 -0.276421 1.12719 67 101 128 
-0.358249 -0.291609 1.20082 239 204 14 
0.119986 -0.271522 1.12905 26 30 31 
-0.426268 -0.281 1.17803 250 197 213 
0.439476 -0.188365 1.16855 205 207 202 
0.480991 -0.185575 1.15371 205 206 208 
0.55027 -0.182788 1.13236 190 193 182 
-0.412863 -0.0705735 1.08553 84 177 106 
0.0661729 -0.0505586 1.09032 188 91 98 
-0.141953 -0.0362503 1.02789 108 103 99 
-0.316967 -0.0310718 1.00486 136 88 128 
-0.147707 -0.00979556 1.03806 142 133 128 
0.339626 -0.512078 1.25082 6 11 14 
0.35441 -0.506693 1.23952 80 86 86 
0.38545 -0.493794 1.24978 187 161 51 
0.244909 -0.493926 1.23748 159 160 162 
0.348614 -0.490878 1.23578 16 18 17 
0.378589 -0.486393 1.24405 199 171 64 
0.319708 -0.477874 1.23044 60 70 62 
0.40551 -0.476587 1.23555 169 142 73 
0.378523 -0.476742 1.23144 198 170 86 
0.412106 -0.474862 1.24653 162 133 65 
0.371298 -0.470668 1.23691 107 77 0 
0.375562 -0.455199 1.1084 196 160 82 
0.424253 -0.466869 1.24536 190 150 78 
0.399325 -0.462648 1.23311 201 166 85 
0.595165 -0.46075 1.29072 164 141 109 
0.367954 -0.459117 1.23548 189 165 65 
0.453158 -0.452968 1.24675 174 137 67 
0.361169 -0.451109 1.23081 200 174 55 
0.327398 -0.45087 1.22453 166 170 169 
0.466579 -0.444889 1.24316 176 142 78 
0.4056 -0.438567 1.22604 174 153 86 
0.359282 -0.438743 1.22549 75 49 0 
0.245972 -0.43926 1.21283 187 189 184 
0.45913 -0.434581 1.23695 160 130 66 
0.282626 -0.436043 1.21785 166 167 169 
0.422822 -0.430073 1.22534 31 30 10 
0.397736 -0.429781 1.22235 184 149 68 
0.225197 -0.431025 1.20437 204 204 202 
-0.206473 -0.442112 1.25895 66 76 78 
0.34978 -0.42475 1.21976 127 83 0 
0.263666 -0.424746 1.20999 40 36 37 
0.403096 -0.416322 1.21455 208 206 191 
0.206931 -0.418795 1.19928 117 115 116 
0.272334 -0.415872 1.20551 176 182 182 
0.346643 -0.413946 1.21588 183 166 76 
0.394455 -0.409919 1.20999 196 196 184 
0.444142 -0.40693 1.21669 142 116 55 
-0.212576 -0.421811 1.25428 179 184 187 
0.342576 -0.405014 1.21249 189 165 79 
0.386126 -0.402699 1.2047 105 101 90 
0.373025 -0.402286 1.20837 234 199 117 
0.399511 -0.400192 1.20174 137 141 140 
0.285469 -0.401991 1.1999 12 14 11 
0.461272 -0.399549 1.23143 20 20 18 
0.439667 -0.397518 1.21376 146 117 61 
0.340339 -0.396295 1.20682 217 187 89 
-0.212098 -0.409453 1.24631 156 166 167 
0.0397515 -0.400895 1.22532 137 68 71 
0.331846 -0.391914 1.20234 207 180 91 
0.458759 -0.389511 1.22889 60 54 54 
0.280718 -0.390178 1.19364 108 112 111 
0.452321 -0.386156 1.21964 129 128 126 
0.386461 -0.383303 1.19801 18 15 0 
0.00847142 -0.387509 1.13752 42 4 0 
0.15197 -0.385335 1.17647 178 148 36 
0.331553 -0.381834 1.19667 204 169 65 
0.366546 -0.381208 1.19345 205 200 178 
0.210945 -0.382576 1.18719 10 10 8 
0.445453 -0.377497 1.21058 143 140 135 
0.415397 -0.369516 1.19825 13 8 0 
0.358864 -0.36899 1.18791 203 202 174 
0.372616 -0.368924 1.18854 174 171 154 
0.426818 -0.364567 1.19643 136 114 67 
0.135602 -0.367658 1.18255 255 229 107 
0.438222 -0.361876 1.20946 61 56 50 
0.384868 -0.361626 1.18339 101 72 0 
0.085128 -0.37016 1.2348 122 84 75 
0.0957357 -0.368843 1.24442 73 21 7 
0.228238 -0.363553 1.18065 6 6 4 
0.404682 -0.354889 1.18809 23 18 0 
0.19584 -0.358093 1.17321 10 9 7 
0.148794 -0.356968 1.1677 181 149 30 
0.381036 -0.352213 1.17785 109 84 0 
0.310138 -0.35173 1.16933 179 143 29 
0.286694 -0.351111 1.17766 72 72 70 
0.415817 -0.348893 1.1945 152 130 80 
0.434631 -0.348619 1.20334 87 83 84 
0.355569 -0.348534 1.17456 56 58 57 
0.237887 -0.348985 1.17406 197 198 200 
-0.45982 -0.364393 1.22557 54 59 53 
0.391162 -0.342974 1.18156 186 161 104 
0.429887 -0.341717 1.19642 76 77 72 
0.0832884 -0.351039 1.31967 63 31 16 
0.257836 -0.342988 1.16826 125 135 134 
0.359675 -0.339624 1.16615 30 27 8 
0.334963 -0.339015 1.16121 170 156 95 
0.0806354 -0.343761 1.31054 76 43 26 
0.41983 -0.334139 1.18168 68 63 60 
0.130265 -0.340012 1.15447 203 171 72 
0.0919512 -0.341659 1.30886 67 34 15 
0.424283 -0.330807 1.19465 50 49 45 
-0.443186 -0.348006 1.21165 109 186 206 
0.0795531 -0.330583 1.29453 74 40 28 
0.417649 -0.321616 1.19136 50 46 43 
0.0757676 -0.321986 1.29538 46 16 5 
-0.452274 -0.331268 1.20373 60 106 121 
0.41178 -0.313077 1.18285 54 50 51 
0.22536 -0.312479 1.15945 56 83 104 
0.321583 -0.310362 1.1506 201 174 97 
0.0713733 -0.31415 1.28613 46 20 5 
0.236465 -0.310236 1.15331 100 127 138 
-0.392636 -0.307616 1.19468 184 173 0 
0.480279 -0.290361 1.22516 162 149 141 
0.0706544 -0.295898 1.15781 177 179 176 
-0.570052 -0.304876 1.15868 26 19 13 
0.52708 -0.282092 1.24033 89 94 87 
0.0726202 -0.288058 1.1357 195 197 196 
0.0629696 -0.287281 1.15006 192 194 193 
-0.315731 -0.282719 1.20879 140 106 130 
0.361708 -0.269629 1.14455 64 53 35 
-0.356142 -0.255756 1.17193 80 102 4 
0.350013 -0.243649 1.13952 82 68 55 
1.07414 -0.205614 1.59345 39 34 38 
0.509865 -0.236322 1.18953 192 159 154 
0.0655893 -0.244627 1.09753 188 171 119 
0.259711 -0.249654 0.93027 224 193 110 
0.510759 -0.2287 1.17696 194 159 153 
0.0974738 -0.228145 1.10293 57 41 5 
0.520754 -0.212302 1.1706 179 158 137 
0.0407109 -0.221305 1.09142 191 193 192 
0.0174633 -0.21706 1.10144 137 137 137 
0.487067 -0.192261 1.19861 157 150 158 
0.338612 -0.198858 1.11104 137 136 134 
0.350174 -0.196831 1.12236 21 22 14 
0.420767 -0.187563 1.17911 233 239 195 
0.0183913 -0.20113 1.08345 104 105 109 
-0.2147 -0.20148 1.09661 101 105 108 
0.426895 -0.183661 1.17165 145 193 135 
-0.00180119 -0.194561 1.08337 176 145 114 
0.025206 -0.19405 1.07571 134 131 124 
0.419286 -0.17559 1.19034 221 227 167 
0.50061 -0.177697 1.15504 105 118 126 
-0.183727 -0.190116 1.10097 57 58 60 
0.330057 -0.182814 1.09538 99 106 122 
0.0385406 -0.18882 1.07247 95 61 0 
0.43903 -0.168574 1.17698 59 73 24 
-0.245509 -0.188019 1.08442 85 86 88 
0.419643 -0.167066 1.18471 68 65 0 
-0.069521 -0.179114 1.13398 69 68 73 
0.319486 -0.176416 1.10438 101 110 115 
-0.0821672 -0.178469 1.13003 83 87 90 
-0.111773 -0.178747 1.12099 147 148 152 
0.314083 -0.1769 1.07561 112 123 125 
-0.100563 -0.176375 1.12559 88 89 91 
-0.0488603 -0.173988 1.14012 83 68 71 
0.0510744 -0.180265 1.06998 255 238 195 
-0.155912 -0.179289 1.09996 102 103 107 
-0.176042 -0.178628 1.09674 216 217 221 
-0.290813 -0.175443 1.12899 28 12 38 
-0.0586804 -0.164153 1.12786 56 52 51 
0.308811 -0.160587 1.09577 187 172 149 
-0.0778326 -0.160422 1.11636 49 50 55 
-0.0339298 -0.157422 1.13061 251 250 255 
-0.0030411 -0.152172 1.1469 121 122 124 
0.31102 -0.152689 1.10764 98 78 43 
-0.289824 -0.158566 1.11547 24 0 14 
-0.181981 -0.161614 1.08022 155 156 161 
-0.134113 -0.157544 1.1007 72 73 75 
-0.0981291 -0.155291 1.1089 116 116 118 
-0.47244 -0.16382 1.07888 174 74 74 
-0.0422569 -0.151104 1.12839 101 99 104 
-0.0642362 -0.151183 1.11865 227 225 228 
-0.172185 -0.156837 1.08365 219 220 222 
-0.221427 -0.158365 1.07383 74 77 82 
-0.14277 -0.15457 1.09547 85 83 88 
0.307031 -0.144477 1.10122 103 79 51 
-0.158806 -0.153339 1.08126 228 227 232 
0.378412 -0.138927 1.12673 114 55 61 
-0.0467508 -0.14361 1.12314 64 61 68 
-0.0752431 -0.145672 1.11009 99 97 102 
-0.0975047 -0.145675 1.10096 249 249 251 
-0.00795782 -0.140304 1.13232 204 206 205 
-0.0555008 -0.141413 1.1128 249 250 254 
0.285147 -0.13853 1.07999 95 52 0 
-0.329169 -0.144925 1.08406 179 169 168 
0.41208 -0.134549 1.09468 176 179 184 
-0.0775367 -0.136029 1.10946 88 86 89 
-0.11084 -0.138684 1.09067 73 71 74 
-0.289252 -0.13498 1.09959 44 1 20 
-0.0542313 -0.129831 1.1079 71 71 73 
-0.0361724 -0.127597 1.11476 49 48 53 
0.273681 -0.129306 1.074 83 46 0 
0.287818 -0.127316 1.08098 82 43 4 
-0.554429 -0.138834 1.04028 176 166 154 
-0.480324 -0.127225 1.09732 111 143 106 
-0.369361 -0.128275 1.07859 78 108 44 
-0.511512 -0.12741 1.07266 139 129 80 
0.331003 -0.104315 1.14333 77 87 88 
0.483946 -0.104559 1.12809 114 123 130 
0.240936 -0.117124 1.04953 175 133 75 
0.361363 -0.108781 1.06693 67 66 64 
-0.254079 -0.12184 1.02395 86 87 91 
-0.758607 -0.106607 1.1445 192 192 190 
-0.458375 -0.110941 1.07018 142 177 137 
0.332445 -0.091757 1.12808 6 28 42 
-0.361152 -0.104088 1.08931 203 199 152 
-0.267803 -0.114174 1.00893 114 109 129 
-0.455883 -0.0980145 1.0847 125 155 129 
0.315522 -0.0839019 1.12137 6 7 12 
0.276519 -0.0892693 1.07908 85 66 51 
0.0981241 -0.08061 1.12944 58 70 66 
-0.439031 -0.094771 1.07108 116 149 118 
0.0378218 -0.0769746 1.08711 91 90 88 
-0.470149 -0.0872964 1.05038 109 143 110 
0.252216 -0.0664905 1.11354 151 155 104 
-0.435004 -0.0836874 1.05663 143 203 151 
-0.424028 -0.0805083 1.06824 122 186 134 
-0.457115 -0.0841662 1.04959 95 139 103 
-0.400307 -0.0804987 1.06473 213 249 221 
0.0841028 -0.0652742 1.09414 11 28 20 
-0.419944 -0.0746696 1.05945 130 154 128 
0.0767695 -0.057679 1.09756 107 72 68 
-0.432264 -0.0611331 1.0659 195 235 201 
0.144143 -0.0467486 1.11195 129 156 173 
-0.418239 -0.0573338 1.07126 146 197 154 
0.466882 -0.0328817 1.13495 47 46 26 
-0.408085 -0.0532579 1.05835 166 199 172 
-0.252017 -0.0639918 0.982952 0 8 33 
-0.404144 -0.0509885 1.0455 199 255 205 
0.0676184 -0.0404604 1.0703 91 102 96 
-0.240219 -0.0596876 0.97815 130 128 133 
0.117382 -0.0260985 1.11498 127 127 125 
-0.481308 -0.0375852 1.08186 137 142 119 
0.204009 -0.0272224 1.08503 125 149 153 
-0.129681 -0.0340089 1.02504 120 106 93 
-0.369796 -0.0337022 1.02257 224 226 213 
-0.189701 -0.0329386 1.02074 103 105 118 
-0.089536 -0.030889 1.02644 142 128 115 
0.533034 -0.01202 1.07337 254 255 251 
-0.125069 -0.0235941 1.02339 247 237 227 
-0.551142 -0.0355168 0.983456 19 22 13 
-0.117109 -0.026257 1.01156 219 205 192 
-0.213736 -0.0192177 1.03733 8 5 34 
-0.103097 -0.0227388 1.01892 252 233 216 
-0.452323 -0.00977567 1.0687 67 106 59 
0.26825 0.0064861 1.10842 10 69 85 
-0.0815214 -0.0155377 1.02896 162 134 110 
0.0665023 0.000463518 1.08201 185 66 86 
0.179321 0.00788401 1.10035 0 13 10 
-0.366134 -0.0148827 1.01872 197 210 200 
-0.0548521 -0.00955303 1.03129 118 93 71 
-0.10245 -0.0108644 1.01137 231 218 210 
-0.0545656 -0.00561593 1.02097 121 95 70 
0.16955 0.0141327 1.08519 51 46 43 
0.184499 0.0213432 1.08974 37 36 41 
-0.374264 -0.000504899 1.01341 241 254 245 
0.317574 0.0254477 1.09701 69 130 174 
-0.0470117 0.00521324 1.01845 125 99 74 
-0.0630986 0.00481673 1.01549 193 167 142 
-0.183376 0.00768991 1.02594 5 0 37 
-0.118793 0.00574515 1.01066 184 166 152 
-0.103786 0.00247032 0.992014 225 211 200 
-0.417967 0.00788981 1.01736 111 136 114 
-0.160208 0.0124955 1.02897 66 64 85 
-0.0948303 0.00629385 1.00264 117 94 63 
0.314715 0.0340655 1.08808 75 123 163 
-0.397716 0.0172374 1.03555 125 149 123 
0.080346 0.0324419 1.08297 148 139 166 
-0.0692606 0.0123189 1.00245 184 160 132 
0.470615 0.0403977 1.08421 104 116 104 
-0.013744 0.0234445 1.02337 85 63 40 
-0.116196 0.0170721 0.998046 187 165 154 
-0.0528054 0.019994 1.0041 103 81 60 
-0.396493 0.0331504 1.04443 144 145 129 
0.0597121 0.0450172 1.07626 56 94 107 
-0.232279 0.0231398 0.979434 171 158 188 
-0.00955504 0.0352738 1.01779 73 52 31 
-0.101482 0.0312451 1.0045 154 138 125 
0.104106 0.0526922 1.07341 60 86 121 
0.383335 0.0557219 1.07797 71 136 176 
0.460996 0.0568728 1.07856 109 142 175 
-0.058527 0.0312386 0.988075 237 219 197 
0.521835 0.0472926 1.0311 147 137 138 
0.179312 0.0562169 1.06549 55 97 93 
-0.140279 0.0342657 0.993148 237 230 246 
0.504396 0.0533691 1.04872 74 107 98 
-0.036564 0.0353337 0.994353 223 206 188 
-0.00757178 0.0419041 1.00847 146 119 98 
0.306816 0.0629047 1.06866 101 152 197 
0.376011 0.0654606 1.06896 68 125 168 
0.282679 0.0657402 1.06874 61 134 179 
-0.0881547 0.0408604 0.986246 126 105 88 
-0.0563601 0.0411319 0.987863 120 95 75 
0.114417 0.0669795 1.06456 78 154 206 
0.0500538 0.0663468 1.06163 103 91 51 
0.4714 0.0668397 1.05925 124 179 200 
0.346449 0.0693209 1.06688 35 82 112 
0.438262 0.0695467 1.0653 75 123 169 
0.319043 0.0703691 1.06748 80 138 184 
-0.135019 0.0482136 0.988637 203 195 208 
-0.0111561 0.0520774 0.994628 219 201 181 
0.268101 0.0741419 1.06233 51 131 182 
0.12518 0.0729773 1.05832 85 157 205 
-0.0774437 0.050308 0.985582 176 154 131 
-0.0660507 0.0489504 0.97989 231 212 195 
0.10665 0.0754427 1.06203 88 177 219 
-0.551962 0.0360135 0.937843 101 99 87 
0.00585275 0.0579598 1.00162 83 58 38 
0.136157 0.0753954 1.05544 29 0 14 
-0.153106 0.0546692 0.990328 99 117 121 
-0.13321 0.0572287 0.998274 105 106 110 
-0.0332861 0.0568535 0.989866 188 157 126 
0.457843 0.0779112 1.05275 111 155 192 
0.42595 0.0807829 1.05963 67 125 173 
0.286162 0.0800457 1.05782 73 132 176 
-0.369551 0.072334 1.03726 110 114 117 
0.108195 0.0785582 1.04997 82 167 208 
0.402659 0.0834192 1.05824 16 62 78 
0.347488 0.0837886 1.05939 81 144 177 
0.505564 0.0708158 1.01461 69 158 216 
0.448569 0.0825228 1.04635 112 137 177 
-0.303473 0.0798553 1.04195 71 129 149 
0.140698 0.083816 1.0496 74 137 188 
0.005445 0.068372 0.999661 152 125 96 
-0.0926053 0.062799 0.976097 128 111 103 
0.432507 0.0883789 1.05116 112 156 191 
0.0741989 0.0872177 1.04812 91 169 205 
-0.256145 0.0770784 1.01622 247 240 230 
-0.0380814 0.0683271 0.990226 175 145 119 
0.12906 0.0843739 1.03632 78 150 190 
0.114861 0.0883526 1.04736 69 141 189 
-0.0239058 0.0697107 0.988847 95 71 45 
0.299112 0.0917806 1.05187 107 150 185 
0.158005 0.0897189 1.04556 82 154 204 
0.092958 0.0881405 1.03968 0 25 64 
0.318458 0.0903429 1.04393 123 132 131 
0.140984 0.0921215 1.04085 94 167 212 
0.0156816 0.0794649 0.995056 87 65 44 
0.412021 0.094815 1.03694 92 124 163 
0.00797367 0.0761773 0.982365 216 183 148 
-0.0630059 0.0735217 0.973442 83 61 40 
0.378337 0.0989521 1.03857 84 143 185 
-0.00509255 0.0809147 0.985984 172 145 116 
0.132017 0.096126 1.02852 92 174 212 
-0.0493239 0.0787534 0.976978 101 79 56 
-0.0242839 0.0804662 0.978112 184 150 125 
-0.0315836 0.0771173 0.96597 176 148 124 
-0.233691 0.0825186 0.979877 174 195 212 
-0.0701724 0.0774585 0.964212 127 108 91 
-0.0860067 0.0742567 0.95429 178 164 151 
0.274261 0.101762 1.03213 65 136 178 
-0.095575 0.0817091 0.969544 183 164 149 
-0.0138688 0.0865966 0.980965 165 138 111 
0.181235 0.101979 1.02452 2 84 132 
0.39441 0.102605 1.02187 166 218 231 
0.0258593 0.0917291 0.988564 196 193 176 
-0.0321576 0.0880142 0.976702 145 123 100 
0.432962 0.10252 1.01707 135 173 209 
-0.0781863 0.0841629 0.96434 216 199 189 
0.00528753 0.0930476 0.989067 153 140 123 
0.0862397 0.104383 1.02089 82 168 219 
0.454575 0.101835 1.00442 95 124 158 
0.0808075 0.105103 1.01182 56 91 111 
0.462182 0.101448 0.994597 104 166 179 
-0.281246 0.106516 1.00835 73 174 226 
-0.264858 0.106402 1.00858 85 156 202 
-0.177905 0.0982563 0.979541 114 127 133 
-0.234801 0.108985 1.00602 77 144 197 
-0.126161 0.0921734 0.958221 82 112 114 
0.31401 0.109569 1.00376 78 116 161 
-0.0523909 0.0975839 0.968277 151 139 127 
0.174264 0.111718 1.00703 62 133 187 
-0.248465 0.109232 0.997434 4 103 162 
0.184896 0.111228 1.00335 66 136 185 
-0.038607 0.101595 0.974239 59 56 51 
0.287716 0.112922 0.996225 80 151 193 
0.471262 0.103077 0.968131 107 115 161 
-0.0697303 0.102231 0.964203 121 120 118 
-0.0865963 0.0995878 0.95451 195 169 146 
0.431034 0.111935 0.984258 98 127 167 
0.171609 0.114785 0.989668 57 153 203 
-0.198098 0.107754 0.968764 164 209 206 
-0.252832 0.11721 0.991141 76 170 221 
0.2895 0.11589 0.980279 110 197 240 
-0.0849574 0.109458 0.955447 62 56 58 
-0.179543 0.11631 0.96338 68 96 107 
-0.141075 0.107292 0.938227 53 90 96 
-0.158121 0.113617 0.954085 208 222 233 
-0.0989534 0.114483 0.954003 137 147 157 
-0.167732 0.118151 0.961664 111 125 138 
0.184093 0.119897 0.968188 78 141 195 
-0.195759 0.118622 0.963242 56 124 145 
-0.0505626 0.118358 0.962391 56 141 195 
0.362588 0.120883 0.96362 68 125 178 
-0.0445071 0.119573 0.953709 84 144 196 
-0.107582 0.119718 0.946833 67 89 100 
-0.169947 0.122979 0.951685 69 156 201 
-0.14638 0.119786 0.940474 93 123 134 
-0.161162 0.121778 0.945245 84 147 200 
-0.12205 0.120033 0.937442 125 173 187 
-0.466989 0.106569 0.899687 89 85 86 
-0.0907466 0.121494 0.93989 116 145 187 
0.369799 0.120504 0.93556 98 93 134 
-0.136792 0.121587 0.931557 61 87 112 
0.181631 0.120901 0.931156 92 149 202 
0.136504 0.121031 0.924006 142 113 169 
0.262001 0.122621 0.922734 53 134 190 
0.384586 0.123533 0.925553 114 86 135 
0.19088 0.121561 0.918255 69 138 203 
0.144184 0.124135 0.911759 63 147 211 
-0.0600009 0.123429 0.899695 117 154 209 
-0.181159 0.125356 0.901049 53 104 135 
-0.131487 0.12495 0.895716 113 158 199 
-0.191692 0.127099 0.898135 110 125 182 
-0.0705311 0.129965 0.893565 109 143 214 
-0.047737 0.129663 0.890329 67 84 112 
-0.0576658 0.138798 0.885197 120 134 205 
-0.185422 0.149078 0.879627 76 113 140 
-0.198536 0.223284 0.963551 231 228 221 
-0.0108125 0.230798 0.966936 161 158 149 
-0.112702 0.23209 0.960766 248 247 243 
0.289688 -0.545042 1.26646 75 56 16 
0.328924 -0.488243 1.24135 153 154 156 
0.440271 -0.46291 1.24688 169 135 74 
0.314659 -0.460916 1.22469 66 65 63 
0.354579 -0.444659 1.21746 110 73 0 
0.389828 -0.444249 1.22311 215 178 98 
0.264731 -0.44277 1.21355 217 221 222 
0.140295 -0.456793 1.35345 161 86 109 
0.128925 -0.453115 1.35195 158 84 107 
0.397189 -0.414726 1.0011 170 136 73 
0.241288 -0.428578 1.20337 148 148 150 
0.278469 -0.427547 1.21165 15 19 18 
0.455408 -0.424591 1.23405 173 143 81 
0.427506 -0.420333 1.22291 10 7 0 
0.377379 -0.416949 1.2099 202 167 86 
0.311 -0.417086 1.20992 132 134 133 
0.411203 -0.407953 1.21301 180 177 168 
0.361657 -0.390607 1.19287 185 160 94 
0.427348 -0.38901 1.20632 74 53 0 
0.0246033 -0.393838 1.18115 128 64 64 
0.296365 -0.388431 1.19663 209 214 210 
0.434564 -0.379653 1.20628 185 157 94 
0.29257 -0.378798 1.19253 212 216 217 
0.0733678 -0.382898 1.23968 95 28 9 
0.447757 -0.370278 1.21881 73 70 65 
0.198928 -0.368177 1.17065 219 221 218 
0.369235 -0.361442 1.17762 3 2 0 
0.353661 -0.359287 1.18192 194 187 169 
0.410754 -0.3312 1.20268 146 125 72 
-0.443245 -0.340889 1.19775 1 87 122 
-0.396768 -0.331125 1.20979 228 137 154 
0.397282 -0.309231 1.16997 150 128 78 
0.349442 -0.29026 1.13292 30 29 24 
-0.296436 -0.297748 1.22123 137 117 144 
0.178804 -0.282494 1.13823 50 52 93 
0.353848 -0.273133 1.13758 170 169 165 
0.367005 -0.268439 1.15382 66 42 8 
-0.300667 -0.276266 1.22617 134 111 140 
0.300846 -0.267458 1.11793 126 92 18 
-0.372627 -0.27179 1.16678 170 45 59 
0.242678 -0.248731 1.1045 20 19 53 
-0.910626 -0.259229 1.21883 44 42 43 
-0.296627 -0.204069 1.16499 26 9 25 
0.467149 -0.185131 1.16651 198 235 204 
-0.213486 -0.202572 1.07344 103 106 111 
0.393882 -0.161945 1.18864 129 135 87 
0.412258 -0.161411 1.17447 67 70 0 
-0.48693 -0.180981 1.09017 66 17 0 
0.423135 -0.158158 1.17384 157 163 125 
-0.181113 -0.17343 1.08344 50 54 57 
0.523419 -0.150445 1.1664 6 12 34 
0.261416 -0.151944 1.07724 98 52 0 
0.0491805 -0.147736 1.11344 254 255 255 
-0.135393 -0.145867 1.08777 215 214 219 
0.370898 -0.136025 1.11216 109 53 54 
-0.149588 -0.145536 1.08141 47 45 48 
-0.500812 -0.149472 1.06269 150 146 101 
0.212945 -0.141424 1.04639 107 128 171 
-0.38703 -0.132955 1.07298 254 255 178 
-0.0914643 -0.126873 1.08666 225 225 227 
-0.0744349 -0.120424 1.08966 46 46 44 
-0.563495 -0.125266 1.04912 196 207 177 
0.399057 -0.111681 1.06787 199 200 202 
-0.521557 -0.110076 1.0905 70 67 32 
-0.470326 -0.106765 1.0844 218 233 212 
-0.37856 -0.102706 1.09666 128 169 127 
-0.48818 -0.104435 1.08302 215 219 205 
-0.41746 -0.102267 1.0812 155 211 162 
0.498099 -0.0718487 1.18546 142 132 120 
-0.374212 -0.0934034 1.10091 115 161 115 
0.263881 -0.0882192 1.06133 255 235 192 
-0.468451 -0.112348 0.944449 240 243 222 
0.260442 -0.0727281 1.11517 197 205 122 
-0.439164 -0.0840139 1.04698 113 146 115 
0.207848 -0.0528257 1.10986 2 20 40 
0.135149 -0.0511423 1.11376 130 172 170 
-0.359224 -0.0632655 1.04675 179 181 176 
0.18745 -0.0479766 1.09643 5 35 71 
-0.427708 -0.0575535 1.05444 114 187 132 
0.158376 -0.0389525 1.10937 42 70 82 
-0.357118 -0.0511332 1.04016 161 162 154 
0.171632 -0.0316611 1.10274 180 213 222 
-0.13827 -0.032386 1.0321 91 73 61 
-0.130203 -0.0363467 1.00885 223 207 192 
-0.144482 -0.0245518 1.03716 129 118 112 
-0.108956 -0.0144608 1.01982 245 230 223 
-0.0689731 -0.0137674 1.02219 107 86 65 
-0.395409 -0.0139503 1.01502 253 254 246 
-0.146799 -0.00631842 1.03541 131 119 119 
-0.356292 -0.00412206 1.005 146 149 142 
-0.136542 0.00103304 1.01531 179 166 150 
-0.550256 -0.0110671 0.970281 25 25 25 
-0.575188 -0.00746586 0.96634 128 128 128 
0.470039 0.0312794 1.08879 27 33 23 
-0.100747 0.0126032 0.9917 179 160 146 
-0.549831 0.00467784 0.965156 32 31 29 
-0.160365 0.0216954 1.021 84 82 104 
0.296076 0.0462572 1.08583 87 158 200 
0.190036 0.0483228 1.08724 211 227 226 
-0.364024 0.0388249 1.04725 80 110 82 
-0.317909 0.0288725 0.999532 177 179 176 
-0.293148 0.0288634 0.997346 183 184 178 
-0.018995 0.0360812 1.00437 100 73 43 
0.323515 0.0574051 1.07058 70 131 175 
-0.0643216 0.038885 1.00533 126 108 88 
-0.562838 0.0324928 0.940955 130 129 124 
-0.0918897 0.0499462 0.991365 239 221 207 
0.177569 0.0805751 1.08837 0 29 29 
-0.53411 0.0377835 0.938858 36 38 33 
0.410193 0.0890511 1.04749 94 146 185 
0.51212 0.0782959 0.973046 70 162 213 
0.492673 0.0909129 0.977214 125 143 181 
-0.0642377 0.0885481 0.966959 104 77 56 
-0.391069 0.103657 0.99341 79 101 112 
0.384479 0.114825 0.988037 93 112 152 
-0.155914 0.124714 0.898706 87 126 193 
-0.181645 0.127418 0.890499 63 105 145 
0.109703 0.131676 0.901091 122 148 197 
0.238645 0.138429 0.895747 78 164 215 
0.577266 -0.570916 1.37828 51 46 42 
0.286992 -0.500581 1.23592 174 174 174 
0.176428 -0.499616 1.39915 54 58 57 
0.130798 -0.493475 1.40025 70 69 64 
0.141792 -0.488476 1.4012 9 9 7 
0.138349 -0.475817 1.38254 133 107 108 
0.100802 -0.476685 1.39761 8 3 7 
0.246457 -0.448463 1.21796 116 120 121 
0.106659 -0.466449 1.38861 141 110 116 
0.359177 -0.435098 1.21269 78 41 0 
0.307666 -0.434722 1.21847 2 7 10 
-0.316772 -0.462887 1.38343 120 136 126 
0.387756 -0.430764 1.22075 222 185 97 
0.410879 -0.423879 1.21185 89 83 49 
0.299639 -0.419391 1.20817 19 29 28 
0.438413 -0.417024 1.22665 60 52 31 
0.21882 -0.416135 1.19416 201 203 202 
0.316941 -0.408883 1.20889 61 59 62 
-0.0170169 -0.412001 1.14155 229 207 194 
0.26344 -0.40866 1.19701 0 8 5 
0.28873 -0.398503 1.18869 3 4 0 
0.377468 -0.394931 1.19746 221 215 201 
0.558933 -0.396068 1.28579 129 142 133 
0.213578 -0.397632 1.19001 3 3 3 
-0.00618585 -0.393163 1.12005 240 219 202 
0.015775 -0.39443 1.16376 133 62 68 
0.22095 -0.389592 1.19422 235 237 236 
-0.200942 -0.400379 1.23736 160 165 168 
0.256723 -0.38608 1.19045 217 218 220 
-0.00225865 -0.385243 1.11396 233 220 212 
0.415765 -0.379688 1.20325 31 27 2 
0.276515 -0.380785 1.18947 232 234 233 
0.0326634 -0.384338 1.17922 152 112 77 
-0.396349 -0.391089 1.18364 155 168 150 
0.143798 -0.376671 1.18277 245 213 112 
0.20927 -0.373542 1.17808 8 10 9 
0.287369 -0.370963 1.1867 242 248 248 
0.0839451 -0.377094 1.24711 134 99 80 
0.245237 -0.371054 1.18273 5 10 13 
0.158216 -0.371477 1.17551 159 126 23 
0.322441 -0.363515 1.17078 72 30 0 
0.164835 -0.358835 1.16687 132 146 175 
0.561191 -0.353067 1.26851 80 84 83 
-0.482742 -0.374286 1.21778 137 150 107 
0.130441 -0.358709 1.16734 178 148 28 
0.22572 -0.353799 1.17176 216 220 219 
0.533997 -0.349694 1.26303 71 75 76 
0.177625 -0.352619 1.1689 154 174 211 
-0.45578 -0.359186 1.2158 24 53 57 
0.312543 -0.340325 1.16788 69 30 0 
0.383195 -0.337011 1.1714 190 160 74 
0.523468 -0.336128 1.28824 67 72 66 
-0.405339 -0.354316 1.22753 100 102 99 
-0.390825 -0.35111 1.23144 75 70 74 
0.40642 -0.331497 1.1828 152 131 76 
0.259962 -0.332414 1.16382 187 189 188 
-0.902049 -0.35298 1.28859 67 62 56 
0.405379 -0.32291 1.19617 161 139 81 
0.350772 -0.317535 1.1516 2 4 0 
-0.309678 -0.32729 1.2698 193 202 197 
0.376538 -0.305918 1.16094 26 19 0 
0.295694 -0.305484 1.13822 153 178 219 
0.392305 -0.299501 1.17252 159 138 83 
-0.58377 -0.31687 1.16134 143 131 117 
-0.420661 -0.312488 1.18308 187 175 0 
-0.518296 -0.30498 1.22599 31 28 13 
0.530281 -0.284981 1.22539 61 67 55 
-0.435052 -0.300689 1.17913 186 60 38 
-0.909541 -0.303804 1.24575 31 28 21 
-0.335176 -0.291707 1.24011 112 122 121 
-0.538488 -0.295302 1.18962 100 62 59 
-0.293662 -0.281177 1.19848 179 132 176 
-0.583068 -0.287409 1.14427 130 120 111 
-0.365615 -0.281537 1.16928 181 50 68 
-0.38798 -0.281196 1.18154 169 113 124 
-0.36948 -0.28054 1.17995 184 57 76 
-0.533932 -0.27724 1.19922 56 46 10 
-0.563626 -0.27928 1.12683 212 190 167 
-0.379925 -0.272307 1.17735 254 213 211 
0.278932 -0.215789 1.11749 229 198 107 
0.229454 -0.215774 1.09097 109 142 195 
0.351234 -0.205259 1.13135 179 176 171 
0.519926 -0.192455 1.18834 62 65 58 
0.557288 -0.194058 1.16356 173 178 171 
0.226359 -0.196927 1.10128 29 49 74 
0.0861244 -0.193844 1.0698 53 66 83 
0.499378 -0.178555 1.16599 191 212 203 
0.544363 -0.177097 1.14855 150 159 142 
-0.321438 -0.187761 1.13484 187 185 188 
-0.0109506 -0.184388 1.12252 197 187 175 
0.427552 -0.170977 1.17524 85 103 3 
0.484498 -0.173041 1.15128 37 45 47 
0.328802 -0.182247 1.08369 126 135 152 
0.526233 -0.160776 1.16725 167 151 152 
0.0717836 -0.176367 1.06218 54 11 0 
-0.114337 -0.171569 1.11293 101 102 106 
-0.0836971 -0.167794 1.1205 89 93 94 
-0.190452 -0.17066 1.07944 190 191 196 
-0.139524 -0.166276 1.10021 69 68 73 
-0.462621 -0.164514 1.08966 61 54 2 
0.00812453 -0.148188 1.1369 82 83 87 
-0.169731 -0.155226 1.0688 114 114 122 
0.390369 -0.138454 1.12353 220 210 209 
-0.291023 -0.147204 1.11733 143 64 96 
-0.237903 -0.152964 1.06142 92 92 94 
-0.110975 -0.128707 1.22974 114 114 114 
0.280084 -0.144715 1.06923 103 62 10 
-0.338717 -0.148387 1.08447 207 211 214 
-0.203583 -0.15015 1.0639 217 222 225 
0.189091 -0.141 1.04887 173 194 247 
0.363473 -0.131385 1.09875 178 128 129 
-0.53378 -0.137327 1.08981 105 119 57 
-0.566051 -0.140779 1.0632 175 176 158 
0.00126153 -0.137285 1.04017 198 233 200 
-0.292201 -0.129462 1.11156 70 70 72 
-0.529936 -0.132567 1.09887 117 127 54 
-0.339082 -0.134662 1.07133 197 202 205 
0.234834 -0.129446 1.0609 177 146 100 
-0.570007 -0.138025 1.03887 194 189 185 
0.00919393 -0.114756 1.11867 212 235 217 
0.216629 -0.123075 1.05095 153 160 186 
-0.377659 -0.122852 1.08914 157 176 148 
-0.529748 -0.123276 1.09452 96 102 56 
-0.391472 -0.120519 1.09504 102 137 97 
-0.470411 -0.121148 1.08728 90 136 89 
-0.573661 -0.126492 1.04002 213 219 217 
0.368584 -0.107895 1.07857 255 254 252 
0.270836 -0.104825 1.06942 173 138 82 
-0.501071 -0.111175 1.07587 191 205 172 
0.372508 -0.105304 1.05559 170 171 166 
-0.399426 -0.100279 1.08538 106 175 118 
-0.465129 -0.0909609 1.10002 84 142 94 
0.0939997 -0.0829141 1.11777 51 57 45 
0.252035 -0.0812901 1.11629 28 20 0 
0.0826539 -0.0771861 1.13091 26 24 9 
0.171333 -0.0604153 1.13211 96 111 108 
-0.468889 -0.0750604 1.06345 113 136 110 
-0.411392 -0.0684305 1.09321 121 175 139 
0.54375 -0.0618257 1.09029 161 163 152 
0.427576 -0.0433731 1.14483 59 61 56 
-0.50802 -0.058231 1.04679 156 168 146 
-0.411921 -0.045997 1.05271 113 159 112 
-0.290847 -0.0516402 1.01593 174 159 192 
-0.148613 -0.0442332 1.00654 132 132 132 
-0.447081 -0.0242336 1.08996 138 185 139 
-0.103762 -0.0360304 1.0232 60 49 43 
0.472806 -0.0100134 1.11811 129 126 111 
0.324071 -0.0079452 1.11415 112 113 108 
-0.152515 -0.0324526 1.01088 189 190 194 
-0.473628 -0.0137668 1.09152 146 170 138 
-0.571109 -0.0387429 0.981561 197 201 187 
-0.0409758 -0.0240852 1.02194 94 72 49 
0.049354 0.00541246 1.09968 58 50 48 
-0.443747 -0.00332733 1.06588 211 242 201 
-0.41683 -0.00993639 1.02624 165 181 168 
-0.436264 0.00946202 1.06649 159 174 169 
0.172126 0.0147936 1.06551 47 0 4 
-0.22234 0.00052775 1.00345 18 10 47 
0.409099 0.0302243 1.09102 0 21 17 
-0.115176 0.00484747 0.997999 166 147 132 
-0.131755 0.0074502 1.00108 162 149 143 
-0.0749162 0.01108 1.01441 170 143 114 
-0.401823 0.0153807 1.02211 146 156 147 
-0.108456 0.0151729 1.01351 122 106 91 
-0.227358 0.0151319 1.01527 35 28 62 
-0.340954 0.0147444 1.00416 218 223 219 
-0.101437 0.0198035 1.00032 177 159 147 
0.4705 0.0527366 1.08187 126 146 144 
-0.394215 0.0313354 1.01302 137 186 141 
-0.282189 0.0324678 0.990861 186 172 159 
0.531999 0.0499354 1.00822 87 145 185 
-0.0695429 0.0430072 0.987469 115 96 81 
-0.252132 0.0471988 0.992019 243 226 210 
0.150799 0.0742223 1.0513 49 0 2 
0.532029 0.0597989 0.978238 113 169 216 
-0.0566935 0.0656002 0.979913 186 162 134 
0.462751 0.0860479 1.03513 125 155 191 
-0.359412 0.0940792 1.03782 196 224 228 
-0.17661 0.0964506 0.990872 120 132 144 
-0.16073 0.102998 0.985671 195 209 222 
-0.0631826 0.123059 0.93113 98 145 201 
-0.452861 0.111326 0.894244 111 133 147 
0.327455 0.121042 0.921272 94 97 142 
-0.415454 0.125893 0.895027 98 137 180 
0.390317 0.143139 0.898601 153 95 153 
-0.136182 0.143964 0.881497 120 150 220 
-0.0994261 0.229614 0.967589 245 242 237 
0.307991 -0.544899 1.26029 255 198 119 
0.496381 -0.564651 1.42667 192 208 205 
0.319021 -0.476246 1.21339 0 5 0 
0.130733 -0.49418 1.41329 65 64 59 
0.216626 -0.469496 1.28688 242 205 135 
0.138006 -0.484723 1.42171 110 116 106 
0.0873628 -0.480265 1.37056 182 182 184 
0.141905 -0.47848 1.36768 15 20 16 
0.227519 -0.449314 1.2152 234 234 232 
0.0988109 -0.463768 1.38051 187 158 176 
0.30368 -0.437259 1.20583 232 233 237 
-0.183562 -0.445069 1.25743 194 199 203 
0.292136 -0.427385 1.21216 215 216 218 
0.236196 -0.421449 1.19523 201 205 206 
-0.241367 -0.432044 1.25685 174 178 179 
0.255726 -0.416052 1.20405 221 223 222 
0.231486 -0.411334 1.20026 211 211 213 
0.238878 -0.378628 1.18778 213 211 214 
0.0250061 -0.38126 1.15352 54 19 0 
0.270443 -0.367029 1.17785 11 13 12 
0.273436 -0.345137 1.16585 236 242 242 
0.131247 -0.333855 1.17974 230 197 66 
0.50554 -0.325566 1.28698 64 64 62 
0.340206 -0.315 1.14738 240 238 226 
-0.299988 -0.324846 1.24599 221 223 220 
0.30606 -0.307506 1.1481 224 200 104 
0.337584 -0.294849 1.13546 30 28 15 
0.342189 -0.294678 1.14605 218 217 215 
-0.426135 -0.291111 1.18607 246 223 231 
0.520096 -0.273667 1.24825 76 79 72 
0.531952 -0.272572 1.22109 130 114 115 
-0.403664 -0.289381 1.18119 190 78 100 
0.14199 -0.277174 1.12283 163 181 217 
0.337989 -0.268781 1.12094 182 178 151 
0.357015 -0.260626 1.13367 158 144 118 
0.540052 -0.25218 1.21493 137 146 127 
-0.438145 -0.267241 1.15824 106 158 122 
-0.542108 -0.261767 1.14207 73 71 10 
0.516038 -0.226169 1.18708 126 94 81 
0.327074 -0.20582 1.10418 99 82 64 
0.564023 -0.166647 1.09642 35 37 32 
0.557871 -0.161356 1.11575 164 140 140 
0.547738 -0.151995 1.13432 148 155 137 
-0.447236 -0.164836 1.09145 89 120 52 
0.541237 -0.145675 1.15033 179 181 168 
-0.461655 -0.159559 1.07432 57 41 42 
-0.469786 -0.154705 1.10253 228 230 227 
0.330151 -0.147734 1.0783 221 223 222 
0.329026 -0.147468 1.0645 214 217 210 
0.506062 -0.132856 1.1386 59 66 92 
0.274072 -0.141923 1.07811 85 44 0 
-0.508207 -0.148693 1.0715 228 224 199 
-0.230394 -0.185962 0.780527 175 161 158 
-0.573461 -0.143381 1.04979 167 174 166 
0.351247 -0.128382 1.07987 180 136 135 
-0.115844 -0.13192 1.07403 27 28 32 
-0.524112 -0.129539 1.06992 89 104 39 
0.344812 -0.115241 1.08021 45 39 49 
-0.484409 -0.118412 1.08846 196 208 198 
-0.000587919 -0.110217 1.10771 78 139 82 
0.252466 -0.109719 1.04127 196 143 51 
0.316745 -0.0915583 1.11313 83 88 82 
0.375965 -0.100706 1.03421 218 217 222 
-0.301612 -0.0958581 1.04948 170 133 174 
0.266373 -0.0807163 1.07377 240 213 194 
-0.416036 -0.0826685 1.07471 81 145 84 
-0.30692 -0.0862606 1.03744 61 50 84 
-0.285344 -0.0770105 1.04593 155 131 165 
0.574213 -0.0680774 1.05292 82 86 85 
0.0796788 -0.0532275 1.08541 156 60 61 
-0.336652 -0.0705495 1.00035 34 38 37 
0.125299 -0.0352758 1.12575 75 154 148 
-0.187695 -0.0476135 1.00434 113 113 123 
-0.203867 -0.0482697 0.964806 2 0 26 
0.387918 -0.00869824 1.1157 88 90 89 
0.34979 -0.0096499 1.1093 109 112 105 
-0.192354 -0.0293392 1.03227 130 132 145 
-0.155331 -0.0187124 1.06218 84 79 85 
-0.416344 -0.0288319 1.01201 220 231 215 
-0.153849 -0.0150666 1.04249 243 239 238 
0.0576603 0.000107608 1.08822 20 0 0 
-0.218035 -0.0186051 1.0054 42 31 63 
-0.0974951 -0.00515957 1.02377 188 159 127 
-0.545351 -0.0201927 0.957714 210 202 199 
-0.217886 0.0169768 1.05126 40 31 74 
0.199563 0.0429841 1.09919 12 31 35 
-0.125149 0.0159694 1.0071 243 228 205 
-0.388993 0.0415551 1.05409 125 127 114 
-0.324719 0.0323928 1.01059 239 250 242 
-0.100801 0.0265122 0.975634 127 108 94 
-0.542161 0.0366596 0.947021 234 235 229 
0.136319 0.0722518 1.0444 42 10 25 
0.432229 0.0658582 1.01826 105 165 193 
0.481317 0.0850078 1.02038 109 148 181 
0.432266 0.0974566 1.0271 107 153 179 
-0.169678 0.0881356 0.997006 116 129 135 
0.468436 0.0950331 1.00907 106 171 193 
0.379317 0.106406 1.02666 90 150 187 
-0.202948 0.10156 0.982768 211 242 244 
-0.446855 0.111672 0.93713 57 83 106 
0.305118 0.124778 0.91435 66 163 214 
0.331402 0.146181 0.896816 52 93 147 
0.253724 0.149102 0.899468 74 73 107 
0.279259 -0.542576 1.2951 145 121 95 
0.570459 -0.517262 1.33508 132 122 112 
0.598722 -0.512545 1.3367 34 30 31 
0.374057 -0.505058 1.24324 220 187 58 
0.226212 -0.52015 1.39404 103 107 108 
0.146262 -0.519008 1.39099 230 230 228 
0.176146 -0.518574 1.3984 100 105 98 
0.231189 -0.511201 1.41384 250 241 244 
0.182639 -0.502485 1.42248 193 199 199 
-0.133546 -0.501527 1.38764 150 177 168 
0.0807746 -0.482855 1.38838 150 114 92 
0.218379 -0.470672 1.31586 243 212 122 
