ply                 
format ascii 1.0    
element vertex 379
property float x    
property float y    
property float z    
property uchar red  
property uchar green
property uchar blue 
end_header          
0.388252 -0.501467 1.22774 117 77 0 
0.416492 -0.479262 1.2194 194 161 82 
0.376106 -0.467148 1.21833 205 180 61 
0.413297 -0.440488 1.20608 120 84 6 
0.2274 -0.431818 1.19144 197 201 200 
0.356389 -0.431681 1.20626 175 147 22 
0.388932 -0.422167 1.19914 204 174 88 
-0.225085 -0.432503 1.24529 174 179 182 
0.295473 -0.382125 1.18201 204 208 207 
0.205735 -0.377303 1.17029 230 234 233 
0.32748 -0.36534 1.17005 111 84 0 
0.321326 -0.349431 1.16368 223 189 81 
0.140571 -0.342883 1.155 196 164 41 
0.357442 -0.343242 1.15928 49 45 42 
-0.468834 -0.34794 1.21532 35 132 167 
-0.468545 -0.345692 1.21412 87 181 219 
0.353457 -0.324747 1.15076 221 218 209 
0.22285 -0.321883 1.15454 16 34 54 
0.334234 -0.315366 1.14691 187 155 70 
0.309044 -0.313121 1.14471 127 145 169 
0.310043 -0.311437 1.14352 51 75 113 
0.190415 -0.299798 1.14103 132 130 167 
0.343094 -0.296861 1.13795 66 40 0 
0.242461 -0.249564 1.11833 18 19 40 
0.244273 -0.249551 1.11819 143 137 173 
0.24342 -0.247783 1.11728 21 26 55 
0.23278 -0.242429 1.11486 49 53 80 
0.239844 -0.241952 1.11382 69 76 118 
0.296879 -0.234571 1.10487 188 157 74 
0.292044 -0.225133 1.09995 189 153 79 
-0.213256 -0.198159 1.10903 142 145 150 
-0.208321 -0.197683 1.11068 93 94 99 
-0.213134 -0.195937 1.10809 118 121 126 
-0.210076 -0.195985 1.1086 120 121 126 
-0.205515 -0.196049 1.11088 222 223 228 
-0.203231 -0.195412 1.11133 215 216 221 
-0.213907 -0.194057 1.10623 65 68 73 
-0.187505 -0.194366 1.11624 48 49 54 
-0.195498 -0.193198 1.11227 94 95 100 
-0.188935 -0.193565 1.11543 222 223 228 
-0.211531 -0.182674 1.09923 89 90 95 
-0.209014 -0.181658 1.0996 212 213 218 
-0.216192 -0.18083 1.09677 98 99 101 
-0.188913 -0.182492 1.10798 207 208 213 
-0.207421 -0.180856 1.09943 66 67 71 
-0.110794 -0.182895 1.13625 129 130 134 
-0.198073 -0.176987 1.1006 93 94 98 
-0.108307 -0.182684 1.13668 112 113 117 
-0.163893 -0.175439 1.11219 69 67 72 
-0.126298 -0.175716 1.12742 219 220 224 
-0.164318 -0.171893 1.1099 217 216 221 
-0.219268 -0.168053 1.08951 105 104 109 
-0.143914 -0.172038 1.11864 83 84 88 
-0.0648381 -0.176416 1.14705 89 89 91 
-0.21744 -0.167007 1.08948 79 80 84 
-0.178391 -0.168849 1.10286 227 228 232 
-0.100517 -0.173692 1.13363 96 97 101 
-0.214663 -0.166163 1.08988 230 231 235 
-0.0569406 -0.175217 1.14954 71 71 73 
-0.165335 -0.16673 1.10663 228 227 232 
-0.130777 -0.168956 1.12127 220 221 225 
-0.152321 -0.167094 1.11202 51 52 56 
-0.19379 -0.1612 1.09255 77 78 82 
-0.0429373 -0.169315 1.15099 72 71 76 
-0.101181 -0.165205 1.12782 244 245 249 
-0.0996946 -0.164654 1.12741 79 80 84 
-0.0883281 -0.164815 1.13163 92 93 97 
-0.203693 -0.158478 1.08835 85 86 88 
-0.106436 -0.162978 1.12532 137 138 142 
-0.156175 -0.159438 1.1053 146 145 150 
-0.155584 -0.158251 1.10477 202 201 206 
-0.0405104 -0.164584 1.14886 221 220 225 
-0.179592 -0.155647 1.0938 121 122 126 
-0.0804725 -0.160593 1.12989 67 67 69 
-0.22574 -0.153494 1.08068 33 34 39 
-0.0772773 -0.160064 1.13097 79 79 81 
-0.223828 -0.152606 1.08109 218 219 224 
-0.175908 -0.15459 1.09459 59 60 64 
-0.0861499 -0.15874 1.12779 125 126 130 
-0.112128 -0.157287 1.11974 123 124 128 
-0.0559056 -0.160145 1.14011 71 71 73 
-0.0840419 -0.157145 1.12747 69 70 74 
-0.173374 -0.15191 1.09334 71 72 76 
-0.0403529 -0.157251 1.1445 54 55 59 
-0.229733 -0.147188 1.07485 112 113 118 
-0.175229 -0.149103 1.0911 209 210 214 
-0.040478 -0.154548 1.14205 240 241 245 
-0.0704642 -0.151786 1.12841 226 226 228 
-0.0389841 -0.153686 1.14248 96 97 101 
-0.177788 -0.146101 1.08794 107 106 111 
-0.0529922 -0.152131 1.13617 64 64 66 
-0.102486 -0.147635 1.1162 157 158 162 
-0.0858397 -0.148363 1.1203 70 74 75 
-0.119467 -0.145485 1.10983 203 202 207 
-0.118375 -0.140225 1.10682 181 180 185 
-0.197056 -0.135032 1.07764 173 176 181 
-0.0387257 -0.140169 1.13345 91 95 98 
-0.0161783 -0.140954 1.14118 70 71 75 
-0.0443199 -0.139076 1.13153 142 141 146 
-0.17606 -0.132701 1.08158 235 234 239 
-0.074891 -0.136537 1.11799 140 125 130 
-0.161443 -0.131736 1.0856 38 37 42 
-0.154796 -0.130258 1.08838 36 34 39 
-0.0390467 -0.134917 1.1296 73 77 80 
-0.151027 -0.129341 1.08969 48 49 53 
-0.0695229 -0.131278 1.1175 143 132 138 
-0.157338 -0.126838 1.08463 42 40 45 
-0.0433634 -0.132046 1.12658 86 87 92 
-0.0392663 -0.13165 1.12736 50 54 57 
-0.112278 -0.127295 1.09973 78 79 83 
-0.060191 -0.129861 1.11993 43 43 45 
-0.0239423 -0.130942 1.13087 115 126 120 
-0.137241 -0.123423 1.0909 42 43 47 
-0.103537 -0.124071 1.09937 0 0 4 
-0.0384827 -0.126951 1.12465 69 73 76 
-0.00510064 -0.127478 1.13688 101 111 103 
-0.0552362 -0.124861 1.11832 89 89 91 
-0.119432 -0.121558 1.09389 24 25 29 
-0.113013 -0.121303 1.09534 39 40 44 
-0.0991222 -0.120264 1.09823 50 51 55 
-0.103072 -0.119841 1.09757 41 42 46 
-0.0828866 -0.12054 1.10569 32 31 36 
0.387418 -0.118149 1.08328 135 131 130 
-0.0921506 -0.119185 1.09992 139 138 143 
-0.0218782 -0.112775 1.12027 80 91 85 
-0.222782 -0.000987577 1.04124 7 0 34 
-0.223019 0.000104936 1.04081 2 0 31 
-0.239584 0.000858667 1.03075 8 0 37 
-0.22331 0.0141901 1.02645 0 0 32 
-0.223364 0.0207357 1.02005 10 0 39 
0.610584 0.023459 0.987188 21 23 22 
0.389735 -0.491213 1.22514 197 166 60 
0.324119 -0.474207 1.21633 120 121 115 
0.399008 -0.442598 1.20844 220 183 95 
0.444013 -0.431247 1.20887 166 155 137 
0.292256 -0.416093 1.19575 173 175 174 
0.384821 -0.414654 1.19767 224 189 107 
0.294656 -0.411076 1.19489 200 198 199 
0.294392 -0.411086 1.19504 219 217 218 
0.209877 -0.397715 1.1802 209 204 200 
0.205559 -0.377311 1.17035 235 239 238 
0.368676 -0.378507 1.17827 60 52 15 
0.140595 -0.342817 1.15514 196 164 41 
0.216465 -0.339525 1.15854 141 151 186 
-0.464557 -0.354433 1.21957 119 190 218 
0.344099 -0.332273 1.15471 221 195 111 
0.338156 -0.299327 1.13791 212 185 80 
0.30243 -0.254278 1.11738 213 180 103 
0.249093 -0.250963 1.11907 155 151 201 
0.243605 -0.247605 1.11757 81 81 115 
0.238665 -0.23895 1.11212 154 150 201 
0.266243 -0.209737 1.0944 169 184 225 
-0.234686 -0.201795 1.10521 124 125 130 
0.187336 -0.192994 1.08194 74 84 119 
-0.201527 -0.197743 1.11335 83 84 89 
-0.189228 -0.19344 1.11562 224 225 230 
-0.188337 -0.190434 1.11321 93 94 99 
-0.190001 -0.181921 1.10615 57 58 63 
-0.199559 -0.179674 1.10169 216 217 221 
-0.101526 -0.182017 1.13803 138 139 143 
-0.0971381 -0.181497 1.13866 125 124 129 
-0.126956 -0.174801 1.12589 130 131 135 
-0.166985 -0.165574 1.10372 217 216 221 
-0.213057 -0.156237 1.08544 136 137 141 
-0.125651 -0.160416 1.11824 224 225 229 
-0.246184 -0.154179 1.07436 227 230 235 
-0.386367 -0.157306 1.11085 59 115 52 
-0.226707 -0.152227 1.07993 225 226 231 
-0.217468 -0.151244 1.08179 234 235 240 
-0.218845 -0.150415 1.08174 100 101 106 
-0.225258 -0.149144 1.07939 200 201 206 
-0.213605 -0.149635 1.08199 226 229 234 
-0.208462 -0.149181 1.08292 228 229 234 
-0.195562 -0.149435 1.08528 224 224 234 
-0.0420219 -0.157332 1.14357 220 220 222 
-0.21115 -0.143748 1.07804 127 130 135 
-0.217818 -0.142283 1.07686 232 233 238 
-0.202811 -0.143268 1.08066 92 95 100 
-0.172545 -0.14371 1.0894 223 222 227 
-0.16394 -0.143556 1.09226 59 58 63 
-0.0413159 -0.147162 1.13757 61 62 66 
-0.352004 -0.140119 1.09474 161 149 149 
-0.149261 -0.140683 1.09862 71 72 76 
-0.197655 -0.13751 1.07946 95 98 103 
-0.11842 -0.140279 1.10673 226 225 230 
-0.171026 -0.133266 1.0833 46 45 50 
-0.118642 -0.133244 1.10171 141 140 145 
-0.168465 -0.12876 1.08241 36 35 40 
-0.0955516 -0.131116 1.10707 226 226 228 
-0.15941 -0.127997 1.08413 206 204 209 
-0.150831 -0.125203 1.08702 27 28 32 
-0.129718 -0.124512 1.09501 220 221 225 
-0.0384974 -0.126935 1.12468 66 70 73 
-0.109124 -0.121166 1.09629 60 61 65 
-0.106381 -0.120097 1.09673 32 33 37 
0.286655 -0.112116 1.07176 82 39 0 
-0.0160261 -0.113474 1.12354 61 126 60 
0.362231 -0.10575 1.05953 215 214 212 
-0.32291 -0.0861268 1.0631 157 131 160 
-0.239717 -0.00194183 1.03332 14 6 45 
-0.229299 0.0213471 1.01665 19 11 50 
0.611358 0.0225087 0.987244 21 23 20 
0.237168 0.0879825 1.05924 60 45 40 
0.279438 0.0977786 1.05365 94 165 197 
-0.172098 0.147186 0.893933 83 158 213 
0.334587 -0.493196 1.22195 195 197 196 
0.331156 -0.486 1.21976 193 195 194 
0.412402 -0.477748 1.22073 203 164 89 
0.324006 -0.471306 1.21481 202 203 205 
0.407121 -0.461309 1.2116 205 171 84 
0.431092 -0.456253 1.21485 134 83 0 
0.402548 -0.451704 1.20863 209 174 90 
0.242154 -0.444719 1.19543 53 62 61 
0.41694 -0.451536 1.21075 180 143 65 
0.399064 -0.442538 1.2086 220 183 94 
0.224912 -0.427917 1.19098 202 204 203 
0.280706 -0.429594 1.19892 221 222 224 
0.422209 -0.431899 1.20318 236 231 225 
0.315281 -0.429144 1.19953 49 64 59 
0.385395 -0.420471 1.19985 224 185 92 
0.298147 -0.415455 1.19632 211 213 212 
0.375345 -0.402599 1.1912 189 165 93 
0.285138 -0.382956 1.18166 97 108 104 
0.204789 -0.377053 1.17025 234 240 240 
0.422524 -0.378808 1.18652 44 31 0 
0.284657 -0.36749 1.17517 31 33 32 
0.268727 -0.355902 1.16983 220 222 219 
0.145746 -0.350975 1.15675 179 138 14 
0.289042 -0.325353 1.15179 218 192 99 
0.194212 -0.304466 1.1424 123 126 161 
-0.332355 -0.333367 1.2708 102 118 117 
0.304037 -0.29579 1.13587 92 117 184 
0.185252 -0.275302 1.13039 55 40 83 
0.191229 -0.272824 1.1302 149 141 182 
0.308423 -0.266862 1.12202 234 198 110 
0.309625 -0.260685 1.11985 235 204 111 
0.189821 -0.257535 1.12261 79 65 116 
0.249244 -0.249921 1.11806 151 144 195 
0.238479 -0.243344 1.11478 135 141 173 
0.290734 -0.223413 1.09859 211 176 95 
0.246843 -0.212636 1.09655 194 210 244 
0.281755 -0.21205 1.09431 237 203 105 
0.282338 -0.210474 1.09359 230 192 95 
0.282903 -0.205838 1.09182 224 189 95 
-0.224076 -0.196536 1.10498 130 134 137 
-0.207244 -0.197471 1.11026 125 126 131 
-0.20143 -0.194807 1.10985 217 218 223 
-0.190135 -0.192615 1.1148 217 218 223 
0.10172 -0.185198 1.0765 142 154 192 
-0.172827 -0.177004 1.10966 151 152 157 
-0.0909734 -0.180161 1.14 99 100 104 
-0.196732 -0.172595 1.09794 63 64 68 
-0.104552 -0.179061 1.13483 55 56 60 
-0.153306 -0.173635 1.11475 127 128 132 
-0.116607 -0.175889 1.13027 102 103 107 
-0.0801828 -0.178148 1.1423 150 150 152 
-0.196613 -0.170107 1.09668 54 55 59 
-0.183489 -0.170065 1.10067 69 70 74 
-0.217349 -0.167328 1.08931 100 101 105 
-0.201025 -0.165428 1.09334 64 65 69 
-0.151908 -0.166543 1.11098 96 97 101 
-0.146591 -0.164455 1.11315 91 92 96 
-0.200471 -0.158664 1.0892 109 110 112 
-0.49618 -0.1548 1.0858 191 64 83 
-0.225685 -0.153335 1.08096 34 35 40 
-0.217456 -0.151237 1.0818 234 235 240 
-0.202242 -0.149361 1.0844 225 225 237 
-0.191944 -0.147668 1.08431 223 223 235 
-0.14493 -0.145465 1.10282 222 221 226 
-0.107121 -0.143303 1.11157 95 96 100 
-0.197102 -0.13672 1.07707 108 111 116 
-0.042089 -0.142467 1.13372 42 42 44 
-0.121109 -0.137705 1.10444 229 228 233 
-0.241717 -0.127401 1.05992 117 118 120 
-0.116362 -0.129916 1.10042 127 128 132 
-0.160337 -0.126781 1.08332 27 26 31 
-0.134046 -0.125916 1.09281 44 45 49 
-0.100194 -0.124071 1.10035 98 97 102 
0.0128703 -0.114044 1.13524 110 111 113 
0.010216 -0.112019 1.13352 208 239 208 
-0.350741 -0.103742 1.06526 166 166 168 
0.622354 -0.0721314 1.03979 8 4 3 
0.620777 -0.0675097 1.03721 114 112 100 
0.622435 -0.0635168 1.0347 5 6 0 
-0.0693373 -0.0108413 1.03947 97 79 57 
-0.24 0.0230532 1.01092 23 16 49 
0.613495 0.0241632 0.986157 123 125 122 
0.609273 0.0320304 0.981801 77 76 74 
0.21185 0.0584803 1.0813 9 109 124 
0.311417 0.0639242 1.07784 79 143 168 
0.181866 0.0823732 1.06458 0 26 23 
0.202487 0.0874108 1.06214 0 56 83 
0.327302 -0.479099 1.21826 201 203 202 
0.232917 -0.444572 1.19604 228 232 233 
0.242819 -0.444386 1.19606 66 66 66 
0.280006 -0.444266 1.20256 209 209 211 
0.271072 -0.441196 1.20246 230 232 231 
0.271665 -0.434802 1.20033 0 2 0 
0.274856 -0.416908 1.19441 200 200 200 
0.265349 -0.407756 1.18939 26 30 29 
0.380435 -0.408783 1.19957 231 197 110 
0.264863 -0.396083 1.18754 225 229 228 
-0.213717 -0.40992 1.24287 164 165 167 
0.198643 -0.377207 1.16772 22 23 25 
0.192511 -0.374335 1.16823 231 231 231 
0.206579 -0.373146 1.16796 42 52 53 
0.415029 -0.378537 1.18573 90 58 1 
0.157087 -0.369255 1.1635 187 162 35 
0.21043 -0.366993 1.16573 224 226 225 
0.278631 -0.369204 1.17653 0 2 1 
0.24975 -0.36355 1.17369 213 213 215 
0.415626 -0.365954 1.18104 45 36 3 
0.235353 -0.35942 1.16748 52 54 53 
0.246148 -0.356848 1.16983 238 238 240 
0.241991 -0.352008 1.16838 202 202 204 
0.130482 -0.345382 1.15472 162 123 6 
0.13679 -0.339091 1.15378 171 132 15 
0.134611 -0.337784 1.15137 181 141 20 
-0.332323 -0.333524 1.27039 102 118 117 
0.209606 -0.29473 1.14152 79 75 112 
-0.464292 -0.276777 1.17162 207 41 61 
-0.396348 -0.27471 1.18176 190 62 87 
0.23262 -0.239334 1.11303 175 176 206 
0.295082 -0.233146 1.10517 208 175 80 
0.251271 -0.228198 1.10531 178 206 253 
0.187694 -0.198642 1.08464 179 189 225 
0.222882 -0.193464 1.07664 78 92 129 
-0.0801828 -0.178148 1.1423 150 150 152 
-0.208178 -0.16629 1.09044 32 33 37 
-0.135567 -0.168826 1.12023 109 110 114 
-0.049889 -0.173691 1.15157 98 98 100 
-0.051774 -0.166111 1.14405 136 136 138 
-0.246914 -0.152621 1.07662 242 246 249 
-0.0396161 -0.163014 1.14839 82 81 86 
-0.0635134 -0.153036 1.13237 76 76 78 
-0.131931 -0.146865 1.10695 83 82 87 
-0.0179367 -0.140404 1.14068 172 173 177 
-0.0408035 -0.134784 1.1293 88 92 95 
-0.0509784 -0.125975 1.12029 117 117 119 
0.257514 -0.115039 1.05912 176 136 64 
0.621294 -0.0609865 1.03463 111 115 101 
-0.0695153 -0.0109423 1.03932 97 79 57 
-0.234736 0.0026155 1.02995 11 4 38 
0.28547 0.0604961 1.07996 79 154 186 
0.327887 -0.478462 1.22006 225 227 224 
-0.175475 -0.436013 1.25466 62 67 71 
-0.189197 -0.425296 1.25221 195 199 202 
0.199235 -0.377224 1.16741 30 31 33 
0.414155 -0.384239 1.18578 76 47 0 
-0.393315 -0.358509 1.23597 228 221 151 
0.291077 -0.327157 1.15202 233 198 46 
0.173672 -0.266057 1.12514 111 102 147 
-0.396629 -0.270579 1.18069 251 215 215 
0.35532 -0.260648 1.12954 144 121 89 
0.241011 -0.246063 1.11553 32 44 60 
0.156574 -0.225972 1.10159 86 90 137 
0.26651 -0.212072 1.09392 153 180 235 
0.0880526 -0.197854 1.08109 204 209 239 
-0.188134 -0.191051 1.11306 101 102 107 
0.159377 -0.162862 1.06258 116 130 175 
-0.216521 -0.167508 1.0881 120 121 125 
-0.153298 -0.163751 1.11103 148 149 153 
-0.120443 -0.125504 1.09589 169 170 174 
-0.330645 -0.0774641 1.05333 47 40 73 
0.599728 0.0221454 0.987835 86 89 78 
-0.223781 0.028309 1.01157 5 0 32 
0.613018 0.0273317 0.984268 13 15 12 
0.183934 0.0810589 1.07187 56 84 69 
-0.190912 -0.424614 1.25121 190 195 198 
0.233274 -0.356083 1.1645 209 213 216 
0.584355 -0.363732 1.20475 220 174 112 
0.214522 -0.341371 1.15864 145 156 202 
0.292321 -0.330242 1.15427 235 198 47 
0.275959 -0.227377 1.09501 29 27 28 
0.084519 -0.190892 1.07969 70 81 103 
0.454012 -0.185264 1.17846 59 72 55 
0.616623 -0.12617 1.06841 150 145 103 
0.597171 -0.0477816 1.02957 178 183 176 
-0.088144 0.107836 0.963476 82 72 62 
