ply                 
format ascii 1.0    
element vertex 116
property float x    
property float y    
property float z    
property uchar red  
property uchar green
property uchar blue 
end_header          
0.56867 -0.380028 1.72631 250 233 223 
0.258155 0.0564019 1.74543 49 27 13 
-0.697821 -0.58559 2.26076 208 199 200 
-0.135411 -0.845977 2.08869 217 212 208 
-0.589084 -0.144624 2.11103 213 195 181 
0.103409 -0.121275 1.82664 237 215 201 
0.268939 -0.115315 1.77417 254 228 213 
-0.0100321 -0.754745 2.01059 230 225 221 
-0.714994 -0.307631 2.19919 228 211 195 
-0.586114 -0.524832 2.19725 65 49 36 
0.115833 -0.790012 1.98015 181 164 156 
0.304449 -0.344309 1.80594 196 181 176 
0.243756 -0.0078104 1.76248 252 241 237 
-0.291622 -1.04842 2.20054 207 201 177 
-0.310622 -0.922164 2.17716 223 216 208 
-0.862582 -0.432381 2.29068 222 214 203 
0.59742 -0.46466 1.72824 159 151 138 
0.578036 -0.473717 1.73845 242 219 201 
0.80871 -0.434555 1.63132 215 204 176 
0.706355 -0.461078 1.68771 255 255 243 
0.739437 -0.238613 1.62249 255 255 243 
0.154923 0.231376 1.74085 229 226 211 
-0.714775 -0.310043 2.1985 221 206 185 
0.240532 0.230685 1.70987 221 208 176 
0.330355 -0.472444 1.82188 168 164 161 
0.189612 -0.197711 1.81797 242 227 208 
0.317528 -0.0869662 1.75369 242 214 200 
-0.566269 -0.560292 2.19892 58 38 39 
0.696886 -0.353398 1.6665 236 228 215 
0.296438 -0.207738 1.7832 255 248 238 
0.730389 -0.423783 1.66948 218 211 205 
0.615301 -0.50864 1.7285 250 248 223 
0.368035 -0.384638 1.79388 229 217 205 
0.583649 -0.433265 1.72744 255 248 231 
0.152985 -0.754565 1.95961 47 29 19 
0.629943 -0.347717 1.68927 241 224 204 
0.630465 -0.34642 1.69273 81 61 60 
0.628091 -0.344076 1.69191 249 239 214 
0.558875 -0.544288 1.75924 236 224 202 
0.56807 -0.38031 1.72555 246 234 222 
0.265763 0.0944079 1.73395 255 232 208 
0.253383 0.185562 1.7167 255 255 239 
0.256116 0.18377 1.71609 226 219 209 
0.116464 -0.78991 1.98153 175 151 139 
0.60562 -0.382006 1.70708 208 200 189 
0.261548 0.178925 1.71481 198 195 178 
0.176398 -0.667517 1.92358 201 200 196 
0.653588 -0.313545 1.67504 241 236 207 
0.243161 -0.00802823 1.76159 180 171 172 
-0.651615 -0.208979 2.15351 51 29 16 
0.141497 -0.675314 1.94363 46 39 29 
0.368392 -0.385157 1.79429 232 219 202 
-0.829312 -0.477516 2.28953 44 28 15 
-0.134046 -0.845814 2.08744 219 216 209 
0.846368 -0.314024 1.59433 245 234 232 
0.671804 -0.423241 1.69124 238 220 196 
0.583824 -0.433646 1.72758 243 230 213 
0.265862 0.0935631 1.73367 254 230 204 
0.331317 -0.472922 1.82415 229 225 224 
-0.60591 -0.4865 2.19911 83 66 48 
0.653995 -0.313954 1.67542 222 220 195 
0.68265 -0.450518 1.69332 228 210 196 
0.596679 -0.461659 1.73037 226 220 196 
0.597678 -0.46471 1.72815 197 190 174 
0.659814 -0.464779 1.70343 240 229 209 
0.836607 -0.191638 1.57293 234 223 191 
0.260517 0.0625545 1.74401 47 25 11 
0.101421 -0.735453 1.97186 180 175 172 
0.615205 -0.509211 1.72947 248 247 219 
0.650964 -0.505188 1.7086 255 252 251 
0.345161 -0.553721 1.83597 53 31 17 
0.154921 0.231292 1.74085 229 226 211 
0.559009 -0.54462 1.75974 236 224 202 
0.556935 -0.546178 1.76142 210 195 190 
0.268922 0.113028 1.73154 106 84 70 
0.266812 0.112079 1.72859 76 53 37 
0.646685 -0.537736 1.70572 224 224 222 
-0.715316 -0.310139 2.20177 204 189 168 
0.259024 0.178967 1.71577 246 248 224 
0.956027 -0.129517 1.50797 228 218 209 
0.706064 -0.461334 1.68735 230 226 217 
0.631709 -0.348245 1.69117 195 190 160 
0.351959 -0.726126 1.87855 209 202 173 
0.551227 -0.546552 1.76257 217 201 185 
0.396235 -0.640971 1.8384 84 69 64 
0.654145 -0.302307 1.67151 204 186 172 
0.353142 -0.733904 1.88003 241 235 213 
0.101819 -0.736 1.97247 205 198 192 
0.261086 0.179524 1.71744 157 156 136 
0.265509 0.0930767 1.73354 255 231 207 
0.235546 -0.179333 1.79559 60 38 27 
0.258594 0.179738 1.71389 241 252 212 
0.64672 -0.537551 1.7058 224 224 222 
0.556413 -0.545792 1.76025 210 195 190 
0.296866 -0.208166 1.78192 236 227 222 
-0.1056 -0.879634 2.08756 197 180 164 
0.367319 -0.38457 1.79229 169 159 150 
0.83535 -0.191276 1.57137 202 187 164 
0.561564 -0.540924 1.75669 220 201 195 
0.631859 -0.371546 1.69371 208 199 190 
0.628169 -0.343313 1.69197 225 216 183 
-0.606252 -0.486118 2.19725 108 92 77 
0.482656 -0.405207 1.76081 255 251 243 
0.682715 -0.450596 1.69303 228 210 196 
0.571277 -0.442113 1.73237 234 204 180 
0.595904 -0.464186 1.72636 145 135 123 
0.652855 -0.313433 1.67329 241 236 207 
0.379385 -0.520545 1.8162 239 220 205 
0.259359 0.179732 1.71665 246 248 224 
0.626509 -0.343545 1.68894 230 222 201 
0.739918 -0.238859 1.62171 236 236 226 
0.651622 -0.507207 1.71017 237 237 235 
0.379399 -0.520139 1.81754 225 206 191 
0.156737 0.29218 1.72282 227 222 202 
0.612787 -0.511863 1.72799 171 157 146 
0.576108 -0.418431 1.72626 63 36 19 
