# .PCD v0.7 - Point Cloud Data file format
VERSION 0.7
FIELDS x y z rgb
SIZE 4 4 4 4
TYPE F F F U
COUNT 1 1 1 1
WIDTH 306
HEIGHT 1
VIEWPOINT 0 0 0 1 0 0 0
POINTS 306
DATA ascii
-0.28572601 -0.83801401 3.86847 7497816
-0.28461099 -0.83892798 3.8620999 7432024
-0.28296801 -0.83359998 3.8664999 7563866
-0.28047299 -0.83833897 3.8431799 7432280
-0.29161501 -0.81587899 3.85867 7760732
-0.28685099 -0.818775 3.86253 7760988
-0.28100401 -0.82237399 3.86216 7760989
-0.28255901 -0.82708597 3.8663199 7695195
-0.281111 -0.82861203 3.8612299 7695195
-0.27622101 -0.83184898 3.8654799 7629403
-0.268655 -0.83819699 3.86762 7629402
-0.26387799 -0.84429997 3.87274 7563609
-0.29027101 -0.81051803 3.8541901 7826525
-0.281241 -0.81587702 3.86164 7826781
-0.27671701 -0.81905401 3.86502 7826781
-0.272241 -0.82215297 3.86816 7826781
-0.26325801 -0.83385199 3.8712399 7760988
-0.261271 -0.83970898 3.87288 7629403
-0.221174 -0.86664599 3.91487 7629659
-0.28910899 -0.805053 3.84917 7892574
-0.27968201 -0.81066501 3.8566699 7958366
-0.26776201 -0.82164598 3.86637 7892574
-0.26579899 -0.82759398 3.86778 7760989
-0.25997201 -0.83002299 3.8677001 7826781
-0.25251201 -0.83177698 3.8770599 7826781
-0.25026301 -0.83548802 3.87185 7761245
-0.248723 -0.84152299 3.8719299 7695452
-0.24719501 -0.84066403 3.8675101 7760988
-0.245656 -0.84669298 3.86759 7629403
-0.21931601 -0.86273199 3.89784 7629659
-0.28571999 -0.80118102 3.85217 8024159
-0.28518 -0.797589 3.84799 8089696
-0.281692 -0.80296302 3.8510399 8024159
-0.272607 -0.80895102 3.8594301 8024159
-0.275888 -0.803294 3.8540399 8089696
-0.247123 -0.831406 3.87498 7892574
-0.24814101 -0.82855803 3.87008 7892575
-0.21759 -0.86069298 3.88096 7629402
-0.237858 -0.831191 3.8742499 7958366
-0.23662899 -0.83165401 3.8696101 7958366
-0.216353 -0.85295701 3.8991899 7826780
-0.214008 -0.85506201 3.88362 7760988
-0.21558499 -0.85623598 3.88799 7695452
-0.212955 -0.847812 3.8764999 7827037
-0.214965 -0.84033298 3.8973501 8024160
-0.21232399 -0.84346199 3.8815899 7892574
-0.20487601 -0.84691602 3.8861599 7958367
-0.20621599 -0.84594703 3.8822501 7892575
-0.20903 -0.84864002 3.8715501 7826782
-0.19399799 -0.85504901 3.8910899 7892575
-0.193946 -0.85968798 3.8876801 7892318
-0.193937 -0.86184198 3.8762801 7760989
-0.23616999 -0.80912602 3.85461 8221795
-0.231295 -0.81675398 3.8606701 8155746
-0.232417 -0.81690699 3.8617401 8090209
-0.228554 -0.81691402 3.8599899 8155746
-0.212247 -0.833543 3.8873999 8090209
-0.207243 -0.835621 3.88587 8089953
-0.20758601 -0.84022301 3.8817899 8024160
-0.199683 -0.84403199 3.88765 8089697
-0.191549 -0.850541 3.89152 8024160
-0.188318 -0.85537702 3.8921299 7958368
-0.189264 -0.858307 3.88392 7892575
-0.18731999 -0.86080498 3.8869901 7892575
-0.248667 -0.79326898 3.83325 8353124
-0.24851801 -0.79807103 3.8275299 8221795
-0.23576701 -0.80856198 3.8478999 8221539
-0.20658199 -0.825876 3.9149499 8353124
-0.213853 -0.82348901 3.88662 8221795
-0.207045 -0.830989 3.8893299 8221538
-0.19387899 -0.83797801 3.89588 8221283
-0.192443 -0.84134197 3.8912599 8155746
-0.189519 -0.84575099 3.89079 8155490
-0.18494301 -0.84587997 3.89764 8155746
-0.186994 -0.85010201 3.8894701 8089953
-0.182138 -0.852633 3.8929701 8089953
-0.20096099 -0.82858199 3.90765 8352868
-0.193785 -0.83192301 3.89064 8221540
-0.190382 -0.83688802 3.8922801 8221539
-0.18873601 -0.83774501 3.89643 8221539
-0.18635499 -0.84198999 3.8943801 8221283
-0.180999 -0.84207398 3.8940001 8221539
-0.183734 -0.83758998 3.8950801 8287076
-0.17496701 -0.842228 3.89779 8287332
-0.138641 -0.83027899 3.69086 8550501
-0.131438 -0.83428198 3.68784 8616294
-0.135023 -0.82333499 3.6870799 8747624
-0.13683499 -0.825302 3.69432 8681831
-0.134399 -0.82915199 3.68643 8616294
-0.128856 -0.82892799 3.6861801 8747624
-0.13258 -0.82135999 3.6787701 8813673
-0.12860399 -0.82456797 3.68435 8879210
-0.123653 -0.827757 3.68348 8879209
-0.111309 -0.83738399 3.7047601 8879466
-0.13293 -0.81203198 3.6775401 8945259
-0.13139699 -0.815925 3.6752 8945003
-0.127323 -0.821401 3.6784201 8945259
-0.122579 -0.82020098 3.6767199 8945259
-0.113598 -0.83020401 3.69611 8945259
-0.13335 -0.80589902 3.67063 9076588
-0.125292 -0.81586897 3.6768301 9011052
-0.117646 -0.82332098 3.68419 9011051
-0.062459901 -0.865439 3.7506599 9208173
-0.117179 -0.81562603 3.67681 9076845
-0.057478402 -0.86336601 3.7448101 9273967
-0.134065 -0.79337102 3.6656001 9208173
-0.105647 -0.81234998 3.68572 9273967
-0.110296 -0.81263101 3.68453 9208174
-0.058847301 -0.85481203 3.72507 9339759
-0.15409499 -0.77057803 3.6285701 9142638
-0.131447 -0.78712499 3.6621101 9274223
-0.123838 -0.789213 3.6636701 9405552
-0.0650796 -0.841528 3.71505 9405808
-0.050901201 -0.85270602 3.7287099 9537137
-0.051461302 -0.85751802 3.73685 9405808
-0.10022 -0.78850901 3.8104999 9471603
-0.094617702 -0.79024702 3.80656 9602933
-0.16103899 -0.75277698 3.61814 9339760
-0.15004499 -0.76262897 3.62396 9339760
-0.12304 -0.78533399 3.66869 9405809
-0.115212 -0.79262203 3.66538 9471345
-0.115318 -0.79225898 3.6648099 9471345
-0.112809 -0.79799002 3.6679101 9405552
-0.068552203 -0.83504099 3.71084 9471602
-0.060940899 -0.83885902 3.7104499 9537394
-0.057367299 -0.84548497 3.7153299 9537137
-0.053961501 -0.84632099 3.72296 9537394
-0.047752801 -0.85125798 3.7251 9537393
-0.095470697 -0.78190303 3.7992201 9668726
-0.089536101 -0.79185897 3.8013501 9668726
-0.154595 -0.75012398 3.6156001 9405553
-0.15213101 -0.755319 3.61761 9405553
-0.146485 -0.75733 3.6245699 9471345
-0.12654901 -0.77270597 3.6549301 9602675
-0.114567 -0.78434098 3.6652801 9537394
-0.111513 -0.790537 3.65955 9537138
-0.111544 -0.79000098 3.65802 9537138
-0.108567 -0.796224 3.66219 9537138
-0.101067 -0.796229 3.6645601 9602931
-0.074521199 -0.82248503 3.6774499 9602930
-0.056414101 -0.83652002 3.7032101 9668723
-0.047740001 -0.845487 3.7191601 9603187
-0.090299301 -0.78353602 3.7941699 9734519
-0.085991301 -0.78482097 3.78743 9734775
-0.123433 -0.76732999 3.65555 9602931
-0.120751 -0.77288502 3.6582401 9668467
-0.11732 -0.77909303 3.66342 9602675
-0.107085 -0.78456903 3.6587 9668467
-0.111052 -0.78597897 3.6626301 9602930
-0.100644 -0.79211402 3.66891 9668467
-0.081900999 -0.81043601 3.66377 9602931
-0.074521601 -0.81493801 3.6729801 9668724
-0.067132898 -0.81945002 3.6822 9734516
-0.055293899 -0.83055103 3.6974699 9734517
-0.0506799 -0.83619303 3.70296 9734516
-0.12738299 -0.73893499 3.76736 9734518
-0.095372804 -0.774023 3.7940099 9668725
-0.108481 -0.76112801 3.74386 9734518
-0.142434 -0.749066 3.61903 9602931
-0.110242 -0.773929 3.6568799 9734516
-0.109628 -0.77864802 3.65539 9734260
-0.0549278 -0.82251298 3.6882401 9866102
-0.051927 -0.82853502 3.6919899 9865846
-0.122162 -0.736911 3.7701499 9800311
-0.122931 -0.74090302 3.7652099 9734518
-0.121019 -0.74500197 3.7629499 9734518
-0.120234 -0.74241197 3.7509699 9734774
-0.11236 -0.75064099 3.7439799 9734774
-0.111852 -0.755023 3.7402599 9734518
-0.10362 -0.75973302 3.7402899 9800567
-0.13967501 -0.74649799 3.6148801 9668468
-0.13420001 -0.74916899 3.6233799 9668724
-0.111493 -0.76983798 3.65925 9800053
-0.110041 -0.76720297 3.6494401 9800309
-0.102788 -0.77859998 3.65784 9800053
-0.081868596 -0.79782099 3.65239 9734772
-0.074393801 -0.806041 3.66259 9734517
-0.0815055 -0.79913998 3.64273 9734773
-0.067026101 -0.81063497 3.67224 9800310
-0.050749201 -0.82282501 3.6881001 9931895
-0.051601201 -0.820494 3.6827099 9997431
-0.044655699 -0.829732 3.69712 9931894
-0.118382 -0.738478 3.7662699 9800311
-0.115424 -0.74542499 3.7441599 9800311
-0.112758 -0.74370402 3.73493 9866104
-0.10458 -0.75471699 3.74124 9800567
-0.13061 -0.743595 3.62363 9734774
-0.075538903 -0.79782099 3.6552801 9866102
-0.0632625 -0.80389702 3.6703601 9932152
-0.116102 -0.73175597 3.76876 9865848
-0.116208 -0.735861 3.74454 9866104
-0.114524 -0.73354 3.7340801 9931640
-0.11012 -0.74039203 3.7200899 9866361
-0.098857999 -0.75351202 3.73842 9866104
-0.084455699 -0.76074803 3.7574 9997690
-0.080400102 -0.78246599 3.6369901 9997688
-0.053969499 -0.80992699 3.65958 10063224
-0.0156205 -0.83857697 3.7163301 10129530
-0.0076118102 -0.83999699 3.72456 10195323
-0.110821 -0.72816402 3.7479701 9997433
-0.115815 -0.72977799 3.7149899 9931897
-0.0980976 -0.74617302 3.7349501 9997690
-0.086500101 -0.75171602 3.74683 10063483
-0.079309098 -0.76247501 3.75281 10063484
-0.075149402 -0.76356298 3.7462299 10129020
-0.075934201 -0.78538501 3.6310201 10063223
-0.055396602 -0.80032903 3.6599901 10063480
-0.0107739 -0.832138 3.7142799 10260859
-0.113392 -0.723993 3.72282 9997433
-0.087003 -0.74546403 3.73823 10063483
-0.0815451 -0.753313 3.74194 10063484
-0.070869297 -0.75965899 3.73545 10195324
-0.060986899 -0.78658903 3.64586 10129272
-0.050826099 -0.794209 3.6586201 10129529
-0.0027568201 -0.83353698 3.72247 10326652
0.0054314402 -0.83627099 3.7364399 10392446
-0.11254 -0.71590102 3.71559 10063226
-0.11357 -0.72017801 3.7028699 9997690
-0.082031399 -0.74548203 3.7374599 10063483
-0.075859003 -0.74847901 3.72943 10195069
-0.073198698 -0.75382102 3.7327099 10195325
-0.0235625 -0.79475898 3.75826 10392703
-0.022465101 -0.801422 3.7544 10392701
-0.053682201 -0.78800899 3.6545501 10195321
-0.046258599 -0.78805399 3.6570899 10326650
0.0130303 -0.83480603 3.7430401 10524030
0.0104684 -0.83660698 3.7479899 10458237
0.0170143 -0.83882499 3.7467301 10589823
-0.078349002 -0.73993802 3.73596 10194813
-0.076003999 -0.74505502 3.73663 10195069
-0.070411399 -0.749816 3.7367401 10326398
-0.052669398 -0.76420999 3.73544 10392190
-0.0230074 -0.78738803 3.7544999 10589568
-0.018410999 -0.79665202 3.75471 10524031
-0.0063576102 -0.80641502 3.7595999 10655359
-0.0031244401 -0.813797 3.75965 10589567
0.000847766 -0.81131297 3.7523501 10721153
0.0103737 -0.82967001 3.7416799 10589822
0.0137632 -0.82783699 3.73878 10721408
0.021119 -0.83812797 3.7430601 10655615
0.0191542 -0.83679199 3.7388301 10655615
-0.088032097 -0.72731799 3.7010801 10260605
-0.067608498 -0.73725599 3.7409101 10392190
-0.0503029 -0.75946099 3.7374001 10392190
-0.043861501 -0.76386201 3.73242 10523776
-0.0182085 -0.785999 3.7568099 10721154
-0.0150549 -0.79114997 3.7571001 10721154
-0.0065611298 -0.79641598 3.75668 10786946
-0.0058891699 -0.80000299 3.7530899 10786689
-0.00381263 -0.804483 3.7516601 10786945
-0.00021288201 -0.80838901 3.7581999 10786945
0.00559521 -0.81494403 3.74734 10786688
0.0096929399 -0.81893098 3.73913 10787202
0.0175087 -0.82384199 3.7418001 10852995
0.0132023 -0.82456899 3.7425399 10721665
0.0186032 -0.82754099 3.73823 10787458
0.021129699 -0.83188802 3.7374401 10787458
-0.0674413 -0.72981501 3.7363801 10392447
-0.0578699 -0.74050301 3.7332101 10458240
-0.057198599 -0.74314702 3.7326601 10457984
-0.052633401 -0.74908102 3.73629 10457984
-0.044247001 -0.75677299 3.7230699 10655105
-0.0185687 -0.77605599 3.7548101 10721410
-0.0152972 -0.781389 3.75683 10721154
-0.013628 -0.78544497 3.7541599 10721154
-0.0129638 -0.78858298 3.7498 10786946
-0.0035484801 -0.79092002 3.7541101 10918532
-5.8311001e-05 -0.80189103 3.75123 10852740
0.0065943198 -0.80670899 3.7298999 11049860
0.0133382 -0.81480497 3.7422199 10984324
0.021589199 -0.81923503 3.74301 11115910
0.0230156 -0.822833 3.7393701 11115910
0.023688599 -0.826083 3.73404 11050374
0.0254902 -0.82368398 3.72733 11181959
0.0258267 -0.82658702 3.7210801 11116166
-0.062695801 -0.73147899 3.7309401 10458239
-0.058092602 -0.73265398 3.7274699 10589569
-0.0550198 -0.73823297 3.7313099 10589569
-0.0600213 -0.740071 3.7161701 10457985
-0.041241601 -0.75493503 3.7147801 10720898
-0.034968901 -0.762465 3.7249999 10655362
-0.0118611 -0.77657402 3.7569001 10852995
-0.0143884 -0.77809203 3.7464099 10852995
-0.0145505 -0.77831602 3.74579 10852995
-0.000909833 -0.78911602 3.7496099 11049861
0.00105053 -0.79291898 3.74774 11049862
0.0027375 -0.79425198 3.7381999 11050118
0.0078317104 -0.80343902 3.73755 11115396
0.0150404 -0.80344498 3.7400899 11181446
0.0170276 -0.809093 3.7418001 11181446
0.018923201 -0.814309 3.7424901 11115910
0.0258874 -0.818856 3.74088 11313031
0.029602399 -0.82049799 3.7319 11313288
0.0286604 -0.82264799 3.72261 11247751
-0.061545301 -0.72448403 3.7279401 10589568
-0.053523298 -0.73417097 3.72242 10720899
-0.0487055 -0.74050999 3.7239799 10786691
-0.0456459 -0.74521601 3.72102 10720898
-0.0345787 -0.75459999 3.7142799 10852739
-0.0064769499 -0.776658 3.7570701 10984581
-0.0120944 -0.77581501 3.7396801 10984324
0.0113793 -0.79071802 3.7683201 11116166
0.00121114 -0.787247 3.72876 11181446
0.0122448 -0.79730898 3.73647 11247239
0.0123248 -0.79736501 3.73664 11247239
0.024552001 -0.80974501 3.7467 11247751
