ply                 
format ascii 1.0    
element vertex 1252
property float x    
property float y    
property float z    
property uchar red  
property uchar green
property uchar blue 
end_header          
0.358816 -0.0997465 1.17776 59 46 55 
0.275615 -0.0965068 1.20901 52 39 46 
-0.486796 -0.119621 1.48745 127 108 128 
0.384821 -0.0605138 1.16409 61 43 57 
0.449371 -0.05785 1.14246 35 29 39 
0.435294 -0.0566565 1.14655 49 39 48 
0.35564 -0.0550889 1.17715 61 40 47 
-0.0384339 -0.0489137 1.24148 62 29 36 
-0.530709 -0.037118 1.49647 47 39 60 
0.0988535 -0.0240096 1.21989 56 33 43 
0.0589731 -0.0232665 1.23357 57 30 39 
0.0660542 -0.0229138 1.2311 55 32 40 
0.105839 -0.0189264 1.2164 54 27 36 
-0.569664 -0.0146193 1.50395 65 52 70 
0.37882 -0.00756812 1.16226 64 41 47 
-0.162227 -0.0102911 1.28419 56 29 38 
-0.160519 0.0103298 1.11135 59 27 38 
-0.0386553 0.0253892 1.23498 65 29 39 
-0.45807 0.0345896 1.46537 35 22 31 
0.394252 0.038242 1.14977 53 37 50 
0.452002 0.0398933 1.12724 132 115 131 
0.422044 0.0441167 1.13765 86 58 70 
0.0619846 0.0594945 1.22561 62 29 36 
0.299745 0.0710553 1.18337 68 52 65 
0.118411 0.0790047 1.20393 61 31 41 
-0.0260865 0.0835106 1.22514 60 27 34 
-0.552264 0.120761 1.48443 161 180 249 
0.35166 0.107482 1.15819 59 46 63 
-0.548918 0.13775 1.48137 92 95 136 
0.345049 0.114541 1.15554 22 62 175 
-0.118164 0.133948 1.20745 52 55 100 
-0.121256 0.137286 1.2084 128 141 186 
0.0286858 0.13658 1.15583 57 42 47 
-0.12349 0.142767 1.20918 74 42 55 
-0.10426 0.141953 1.20269 75 39 53 
-0.0149512 0.140456 1.17016 58 34 47 
-0.0503669 0.14381 1.18264 60 44 54 
0.0724977 0.138434 1.13768 74 44 54 
0.0888712 0.140791 1.13218 74 49 55 
0.0577539 0.143099 1.14335 58 39 45 
0.0625563 0.143649 1.14111 134 86 98 
0.151684 0.14138 1.10822 133 86 104 
-0.0872384 0.164703 1.19456 79 45 61 
0.00178969 0.162121 1.16254 75 41 57 
0.179811 0.158162 1.0981 81 45 57 
0.466359 0.184573 1.11055 66 50 63 
-0.26714 0.224704 0.981981 69 38 53 
0.409497 0.27492 1.1214 131 111 122 
-0.145605 0.246913 0.936279 90 44 55 
0.389947 -0.380009 1.19382 53 38 57 
0.38985 -0.328946 1.18414 46 40 54 
0.467669 -0.281523 1.15426 52 38 53 
0.173191 -0.306453 1.26543 87 60 67 
0.378975 -0.278694 1.18623 69 59 70 
0.388226 -0.233974 1.17751 53 43 54 
0.409446 -0.23257 1.17099 54 42 54 
-0.0430709 -0.228214 1.22495 132 79 95 
0.280888 -0.181743 1.21475 61 45 55 
0.215766 -0.177498 1.23531 74 54 66 
-0.0817405 -0.149566 1.26749 46 18 17 
0.359226 -0.0998203 1.17804 59 46 55 
0.448043 -0.0575196 1.14015 32 27 33 
0.31576 -0.0580188 1.19154 53 38 45 
0.105299 -0.0184088 1.21629 55 32 40 
-0.0371496 -0.0113083 1.23679 67 37 47 
0.377852 -0.00768446 1.1618 66 43 49 
-0.0381784 0.0266053 1.23452 73 41 54 
-0.0260009 0.0847096 1.22467 66 39 48 
-0.0131759 0.0842666 1.22015 62 33 38 
0.35455 0.10183 1.15438 129 103 114 
0.42909 0.101328 1.12827 135 111 124 
0.42446 0.105396 1.1307 75 54 63 
-0.547804 0.155048 1.47994 26 26 38 
-0.107478 0.136066 1.20281 126 142 194 
-0.0581004 0.137405 1.18636 66 40 53 
-0.309047 0.148786 1.27844 38 32 36 
-0.358153 0.151773 1.2912 63 48 51 
-0.0348354 0.141541 1.17719 50 34 45 
-0.0144271 0.140553 1.16949 61 37 50 
-0.0480407 0.143657 1.18218 58 49 54 
0.0401119 0.141554 1.14979 69 50 56 
0.0264326 0.162711 1.15263 57 37 46 
0.115593 0.160524 1.11998 52 36 37 
0.395709 0.193188 1.13629 124 114 139 
0.462655 0.328982 1.07179 13 16 23 
0.36317 -0.331193 1.19723 48 37 54 
0.408854 -0.232554 1.17104 52 40 52 
0.280825 -0.234582 1.22004 72 67 74 
0.422987 -0.139429 1.1578 59 42 50 
0.290374 -0.145207 1.209 59 49 60 
0.241241 -0.13632 1.22387 68 47 52 
0.366803 -0.0942575 1.17259 136 119 138 
0.315277 -0.0583902 1.19062 56 39 47 
-0.492439 0.0247303 1.47373 120 106 129 
-0.569912 0.121589 1.49422 158 175 247 
0.316217 0.108294 1.17527 51 38 48 
-0.556121 0.136145 1.4852 17 24 43 
0.436832 0.10724 1.12687 54 42 56 
-0.563927 0.144246 1.48529 156 173 242 
-0.109331 0.134845 1.20382 125 142 194 
-0.0589016 0.137295 1.18652 66 40 53 
0.0275611 0.137702 1.15584 56 41 48 
-0.0471603 0.144163 1.18189 62 49 56 
0.0408601 0.142257 1.1492 67 47 56 
0.116022 0.162891 1.11909 76 55 60 
0.394589 0.275782 1.12636 137 122 143 
0.423023 -0.140152 1.15743 54 41 50 
-0.111677 0.135965 1.20453 125 143 193 
-0.337404 0.27459 0.989454 151 111 137 
0.463388 0.331468 1.07165 13 15 27 
-0.134739 -0.0403014 1.27562 158 136 123 
-0.105278 0.0388971 1.21387 126 116 117 
-0.0730737 0.0518533 1.22641 184 171 165 
-0.0590779 0.053762 1.22104 105 85 84 
0.498697 0.331962 1.06201 11 28 84 
0.320058 -0.377754 1.22229 55 43 63 
0.309105 -0.374527 1.22247 83 58 77 
0.129883 -0.392206 1.29 57 42 63 
-0.0104476 -0.373682 1.25206 72 31 39 
0.187357 -0.374017 1.26721 75 54 73 
0.279265 -0.350625 1.23188 71 52 74 
0.430182 -0.332994 1.17392 41 29 49 
-0.259458 -0.403457 1.43159 126 111 132 
0.37492 -0.331837 1.19404 54 35 54 
0.149402 -0.354541 1.27825 91 59 80 
0.450704 -0.319924 1.16382 63 48 71 
-0.320342 -0.393143 1.45723 73 58 81 
-0.472458 -0.404082 1.51462 49 34 41 
0.156701 -0.333113 1.27565 74 60 75 
0.500874 -0.292192 1.14011 149 122 141 
0.147789 -0.325083 1.27791 61 46 65 
0.332357 -0.281276 1.20511 39 25 40 
0.111852 -0.298054 1.28542 75 51 67 
-0.60755 -0.355244 1.55911 65 48 67 
-0.587271 -0.350729 1.54997 140 121 141 
0.333338 -0.266907 1.20351 69 45 61 
0.173812 -0.277318 1.26292 67 46 63 
-0.334233 -0.314747 1.45524 55 38 46 
0.181321 -0.269011 1.25725 74 56 78 
0.302694 -0.23662 1.21096 59 38 53 
0.0852289 -0.22649 1.19277 59 20 25 
-0.564711 -0.290985 1.53677 58 42 52 
-0.164905 -0.235647 1.2741 53 23 35 
-0.200906 -0.230951 1.28995 46 23 31 
-0.189041 -0.229103 1.28028 60 30 38 
-0.404068 -0.259239 1.47567 52 39 49 
-0.0327599 -0.213884 1.2229 134 90 105 
-0.0036139 -0.210984 1.22463 58 19 24 
-0.482675 -0.259632 1.50588 50 37 57 
-0.29032 -0.222747 1.32542 140 87 97 
-0.592363 -0.25139 1.54253 66 52 67 
-0.637322 -0.253491 1.56009 68 50 66 
-0.0689517 -0.193235 1.26584 58 29 34 
-0.571759 -0.204442 1.53316 46 33 51 
-0.0886571 -0.157383 1.26952 52 21 27 
-0.105834 -0.157236 1.27766 54 22 27 
-0.12203 -0.150532 1.28166 61 24 32 
-0.135563 -0.138438 1.28532 65 30 37 
-0.666946 -0.158373 1.56241 60 48 62 
0.0497328 -0.109948 1.2454 54 25 30 
-0.102258 -0.097857 1.26151 44 18 27 
-0.088044 -0.0853262 1.26868 38 17 16 
-0.119127 -0.0646683 1.27446 146 130 114 
-0.0124966 -0.0596188 1.22962 57 22 28 
-0.12757 -0.0584128 1.27652 143 125 105 
0.0825787 -0.0461795 1.22792 59 28 34 
0.312003 -0.0426607 1.18807 71 52 71 
-0.0817748 -0.0460337 1.26756 206 199 173 
0.309048 -0.0329028 1.18792 138 117 132 
0.0751851 -0.0338868 1.22718 143 95 111 
-0.63638 -0.0438094 1.53916 65 53 65 
-0.0787109 -0.0290728 1.2583 214 204 177 
-0.132745 -0.0276972 1.27441 145 124 107 
-0.561414 -0.0325384 1.50944 47 34 52 
-0.699817 -0.031963 1.55959 60 68 104 
-0.391048 -0.0265484 1.34358 152 101 116 
-0.0940503 -0.0244115 1.26826 40 17 23 
0.441037 -0.0200144 1.13815 68 49 68 
0.311186 -0.0186629 1.18766 54 39 58 
-0.100732 -0.015851 1.24501 220 210 183 
-0.00276806 -0.0141769 1.22612 55 22 29 
-0.0863339 -0.0112552 1.24727 177 163 137 
-0.172419 -0.0103678 1.28883 54 21 28 
-0.196272 -0.00935976 1.29644 57 26 34 
0.390167 0.000862516 1.15352 45 32 52 
0.0805495 0.00154809 1.22071 84 41 50 
0.0304545 0.00183865 1.24411 62 27 34 
-0.0814807 0.00425839 1.26805 107 88 71 
-0.0263938 0.00776442 1.23222 62 26 30 
-0.0956487 0.0107827 1.26699 81 53 41 
-0.186493 0.0113348 1.29218 57 24 33 
-0.172807 0.0114984 1.28683 52 21 27 
-0.259176 0.0245199 1.33095 79 32 42 
-0.103574 0.0261994 1.22252 195 188 178 
0.0927109 0.026703 1.21571 50 19 25 
-0.188163 0.030239 1.29322 65 31 45 
-0.120295 0.0320256 1.23024 92 82 81 
-0.112271 0.0314229 1.22271 203 199 190 
-0.0928362 0.0351049 1.22248 120 104 104 
0.0312527 0.03662 1.24015 57 24 31 
0.336193 0.0385299 1.17234 68 49 68 
0.326545 0.0408318 1.17493 74 60 73 
0.376445 0.0408455 1.15686 124 113 127 
0.159109 0.0456212 1.19238 51 20 26 
-0.100244 0.0479724 1.21572 46 32 31 
-0.338647 0.0585359 1.37481 54 21 30 
-0.0935535 0.0551465 1.21609 39 21 19 
-0.117176 0.0562585 1.21503 131 116 93 
0.0831284 0.063658 1.2197 61 24 31 
-0.0501036 0.0657474 1.2316 130 116 116 
0.13627 0.0781839 1.19821 57 26 34 
0.169548 0.0879142 1.15694 143 95 111 
-0.555655 0.113045 1.49456 19 26 45 
-0.553099 0.132662 1.44794 26 26 54 
-0.57592 0.143743 1.49463 18 26 72 
-0.582277 0.15343 1.49578 22 24 47 
-0.571785 0.15686 1.49361 147 158 214 
-0.428621 0.150978 1.32194 38 27 35 
0.194862 0.131324 1.09359 44 24 33 
0.347789 0.139867 1.15094 82 121 212 
0.161685 0.136321 1.10526 57 30 37 
-0.316122 0.16666 1.28113 60 28 39 
0.289774 0.155527 1.17762 58 45 62 
-0.248283 0.16497 1.25283 77 36 50 
-0.0485785 0.159759 1.18112 69 41 53 
0.0638986 0.250302 1.81796 65 31 45 
0.277821 0.162876 1.1797 43 27 40 
0.128469 0.155522 1.11602 65 33 44 
0.193573 0.153846 1.0923 63 32 38 
-0.677957 0.248901 1.52334 42 34 55 
-0.683485 0.282739 1.52329 42 35 53 
0.315573 0.22209 1.16278 76 61 84 
-0.71259 0.294643 1.52992 76 87 119 
-0.672552 0.325724 1.50318 82 70 94 
0.124543 0.249848 1.10369 42 21 26 
-0.714365 0.347578 1.50345 23 30 48 
0.294894 0.274745 1.16516 39 35 50 
-0.0861738 0.216737 0.917222 79 37 49 
0.475359 0.261617 1.09442 65 47 63 
-0.0118347 0.223858 0.940619 102 48 64 
0.143122 0.270633 1.09561 69 43 52 
0.153126 0.26996 1.09232 80 33 49 
0.423388 0.276032 1.11295 74 57 73 
0.317826 0.285368 1.15072 68 61 69 
-0.0287226 0.230954 0.931443 100 49 66 
-0.317432 0.25505 0.999301 73 42 60 
-0.0149925 0.254067 0.935817 90 51 72 
-0.0247448 0.253813 0.931538 81 44 61 
0.46343 0.303358 1.0718 17 15 28 
0.5023 0.300997 1.05478 17 18 38 
0.474249 0.307106 1.06559 21 18 71 
0.493585 0.305897 1.06102 15 27 65 
0.472202 0.312099 1.04002 159 174 243 
0.486861 0.318304 1.06015 154 177 244 
0.507715 0.3274 1.05167 19 11 35 
0.47639 0.331386 1.06287 27 18 73 
-0.276665 0.310296 0.961831 121 132 150 
-0.205347 0.304751 0.905724 28 39 101 
0.283032 -0.368162 1.23004 86 65 82 
0.444944 -0.329898 1.16826 124 110 136 
-0.337103 -0.406412 1.4662 44 26 38 
-0.0717839 -0.344888 1.24859 55 29 40 
0.119136 -0.327246 1.28697 91 68 84 
0.296806 -0.304419 1.2209 128 116 138 
0.356913 -0.283161 1.19513 62 42 51 
-0.635818 -0.352354 1.56326 70 53 71 
-0.365821 -0.311273 1.46536 75 51 64 
-0.388636 -0.31054 1.47368 66 52 65 
0.00263271 -0.24276 1.21201 65 25 33 
-0.0509209 -0.236082 1.22447 45 22 28 
-0.632411 -0.291771 1.5618 65 49 60 
0.169183 -0.231556 1.25991 94 62 75 
-0.0174007 -0.214484 1.21901 137 90 106 
-0.180068 -0.212021 1.27856 131 85 98 
-0.195495 -0.211427 1.28477 131 84 100 
0.307934 -0.196362 1.20597 62 44 58 
0.402793 -0.186123 1.16853 66 44 57 
-0.200584 -0.201933 1.29337 124 74 85 
-0.148283 -0.19898 1.29599 63 31 42 
0.180818 -0.17912 1.25163 85 58 75 
-0.411739 -0.208079 1.47124 48 34 47 
0.442891 -0.140015 1.14711 63 47 58 
-0.048984 -0.151064 1.25651 46 23 31 
0.334696 -0.14037 1.19295 54 35 41 
-0.139286 -0.121387 1.28805 112 66 77 
0.328057 -0.104924 1.19122 58 45 55 
-0.372946 -0.126945 1.45017 59 41 57 
0.275722 -0.0724767 1.20669 57 39 53 
-0.102979 -0.0699189 1.26837 72 36 38 
-0.538038 -0.0738071 1.50034 125 106 126 
0.295417 -0.0556514 1.19695 65 44 49 
-0.622169 -0.0726492 1.5392 74 65 84 
-0.257744 -0.0600751 1.34236 58 22 24 
-0.189294 -0.0548377 1.29322 51 22 26 
0.0309091 -0.0448015 1.24739 63 33 41 
-0.619572 -0.0431499 1.5299 63 54 73 
-0.26154 -0.0366901 1.35366 56 30 39 
-0.245243 -0.0367753 1.3504 59 29 37 
-0.114393 -0.0326627 1.24923 214 203 181 
-0.0823363 -0.0209024 1.25298 189 182 156 
-0.0278089 0.0269253 1.23336 67 29 40 
-0.0114707 0.0268495 1.2239 70 39 47 
0.0558527 0.0276497 1.22552 57 26 32 
0.0888662 0.0359764 1.21568 50 21 25 
-0.294519 0.0398944 1.358 53 27 36 
-0.23975 0.0441096 1.34002 43 23 25 
-0.442459 0.0559142 1.45371 44 31 41 
-0.036424 0.0624871 1.2314 58 22 34 
-0.0267629 0.0626308 1.22842 59 26 33 
-0.0777984 0.0627636 1.22389 130 115 134 
-0.702099 0.0796621 1.54918 97 97 131 
-0.186705 0.0672336 1.28831 59 26 35 
-0.172493 0.066639 1.28172 59 28 34 
-0.149257 0.0694414 1.27362 45 24 31 
0.0545065 0.076584 1.22748 69 29 38 
-0.297702 0.0900483 1.35919 54 23 38 
-0.52356 0.109771 1.48082 119 105 120 
-0.575673 0.114787 1.49267 19 24 43 
0.156673 0.1066 1.14358 158 104 120 
-0.371778 0.14963 1.30238 52 32 41 
-0.38058 0.154525 1.30142 110 73 80 
-0.63466 0.18111 1.51555 131 118 144 
0.309023 0.145345 1.17227 135 130 150 
0.427634 0.152321 1.12645 61 44 62 
0.383178 0.160319 1.13985 71 56 75 
0.0364422 0.161803 1.15076 62 35 50 
0.205008 0.257666 1.79854 72 41 49 
-0.191969 0.188462 1.21281 69 48 55 
0.382178 0.178994 1.14021 122 117 140 
0.28447 0.186414 1.17551 126 123 142 
0.33862 0.185133 1.15454 138 114 128 
0.346111 0.192227 1.15122 139 129 154 
0.405092 0.188995 1.12982 127 115 135 
0.417962 0.189034 1.12365 127 113 130 
-0.563833 0.247155 1.48118 53 47 61 
0.320367 0.196323 1.16158 127 123 146 
-0.707894 0.256409 1.53197 72 83 111 
0.410809 0.215296 1.12596 63 50 67 
0.284811 0.227441 1.17263 109 107 131 
0.364372 0.222918 1.14334 61 48 65 
0.466404 0.215871 1.10341 64 50 65 
0.282924 0.237184 1.17109 121 117 142 
-0.710001 0.316782 1.52338 143 163 198 
-0.015367 0.200941 0.940435 86 55 73 
0.279855 0.261971 1.17217 40 25 32 
0.347303 0.264822 1.14296 60 44 55 
0.319531 0.26846 1.15513 55 45 56 
-0.312865 0.234871 0.998334 74 36 49 
0.359863 0.270722 1.1393 110 100 125 
0.306894 0.277229 1.15945 61 45 55 
0.378145 0.271419 1.13167 102 96 122 
0.191172 0.258763 1.07763 55 29 38 
0.463175 0.26621 1.09949 56 34 47 
-0.267889 0.234427 0.979675 65 43 56 
0.445992 0.276641 1.10493 140 130 154 
-0.00119989 0.238014 0.943884 78 40 61 
0.100843 0.290914 1.09679 146 101 121 
0.37099 0.302615 1.10856 69 57 77 
0.0234765 -0.346434 1.24508 147 96 111 
-0.095104 -0.342638 1.25885 133 80 96 
-0.148972 -0.340049 1.2753 135 81 94 
-0.692858 -0.397791 1.59743 76 63 93 
0.456254 -0.28238 1.16018 66 48 64 
0.322697 -0.272524 1.20626 126 109 127 
0.279814 -0.264701 1.22177 81 60 69 
0.205642 -0.259262 1.24857 88 68 80 
0.0345789 -0.240129 1.23103 39 19 21 
0.0150647 -0.240211 1.24275 36 18 18 
-0.58314 -0.284516 1.54219 148 134 147 
-0.218233 -0.228154 1.29409 31 14 20 
-0.0370542 -0.205495 1.23083 122 68 82 
-0.575543 -0.253983 1.53447 36 28 43 
-0.172301 -0.203703 1.28101 127 76 91 
-0.588597 -0.239076 1.54678 54 37 53 
0.155317 -0.179948 1.26432 65 45 56 
-0.0966714 -0.152684 1.27468 51 21 23 
-0.0495835 -0.113753 1.25655 30 12 12 
0.162415 -0.0926617 1.24473 73 47 60 
-0.0969025 -0.062546 1.26519 160 145 124 
0.276597 -0.0575057 1.20492 63 53 64 
-0.0305996 -0.0586525 1.23326 67 28 31 
-0.111005 -0.0511377 1.25868 206 198 175 
0.178127 -0.0388525 1.13246 140 86 102 
-0.116977 -0.042041 1.25369 195 179 154 
0.297747 -0.02997 1.19019 75 53 56 
0.430978 -0.0107657 1.1393 87 66 73 
0.265591 -0.00571494 1.2014 84 64 75 
0.252296 -0.00536346 1.20752 60 46 59 
0.287424 -0.004233 1.19103 63 43 45 
-0.0848606 0.0197812 1.26277 190 180 153 
-0.160802 0.0291819 1.28088 55 28 37 
-0.517708 0.0375323 1.49204 63 50 60 
0.0349228 0.0740516 1.23224 61 28 39 
-0.702656 0.0987741 1.55182 103 88 111 
-0.1734 0.0892249 1.27957 60 35 41 
0.32784 0.107561 1.16958 38 33 40 
-0.234945 0.131475 1.27275 100 58 70 
0.151415 0.122118 1.1337 87 57 59 
-0.406268 0.152929 1.31736 37 35 38 
-0.0247029 0.143824 1.17364 136 88 110 
0.323322 0.148818 1.20105 68 46 48 
0.128137 0.140092 1.11693 60 48 50 
0.294275 0.167089 1.17337 142 125 144 
-0.699902 0.241951 1.5356 71 61 88 
0.310279 0.185501 1.16332 68 50 62 
-0.303111 0.201508 1.25406 84 52 57 
0.434576 0.182711 1.11715 61 44 54 
0.0191457 0.204175 0.957168 81 52 70 
0.308339 0.262803 1.15676 72 55 63 
0.0928424 0.287646 1.10409 66 44 56 
0.262835 0.306189 1.14941 56 54 68 
0.110903 0.315782 1.08906 45 41 42 
0.502849 0.311506 1.0551 164 183 252 
-0.0599787 0.2773 0.898972 82 50 63 
0.465524 0.312612 1.06828 151 172 239 
0.0197961 -0.328221 1.20852 39 20 22 
-0.156195 -0.236465 1.28008 36 14 16 
-0.0974571 -0.202742 1.25433 135 86 105 
-0.0839902 -0.0987453 1.27116 30 16 15 
0.218125 -0.0948925 1.22934 88 57 72 
-0.023606 -0.0499826 1.23646 52 27 33 
-0.183449 -0.0462802 1.29874 53 32 39 
-0.397332 -0.046002 1.37741 67 25 26 
-0.381164 -0.0310452 1.34739 146 89 108 
-0.0727433 0.0195474 1.27599 44 19 22 
-0.116941 0.0354701 1.19933 184 176 187 
0.442783 0.0446554 1.13273 134 125 146 
-0.484752 0.0685072 1.47208 48 41 49 
0.385734 0.105186 1.14188 61 44 52 
-0.364857 0.132394 1.31641 73 48 51 
-0.575201 0.152325 1.5032 151 169 235 
0.0263311 0.125706 1.19907 73 50 60 
0.137973 0.120375 1.13651 77 51 60 
0.329567 0.194066 1.15637 137 121 147 
0.389242 0.272571 1.13378 56 50 60 
-0.0770778 0.275943 0.894221 84 45 50 
-0.0987277 -0.188348 1.27778 64 29 27 
-0.216114 -0.113971 1.33054 58 26 27 
-0.0989573 -0.0883727 1.26583 135 115 90 
-0.0882366 0.0168641 1.2725 160 143 117 
-0.140456 0.0563089 1.24979 125 114 118 
-0.0687606 0.191775 1.16882 53 42 48 
0.0701806 0.0379552 1.22885 79 31 27 
0.0241698 -0.231895 1.23677 40 20 19 
0.0570896 -0.221857 1.22682 136 83 103 
0.0981464 0.195195 1.08213 55 37 35 
-0.428824 -0.240559 1.47799 51 43 54 
-0.371523 -0.212518 1.45608 45 33 55 
-0.39506 -0.207039 1.46195 42 23 43 
-0.391138 -0.179041 1.45723 59 41 55 
-0.433937 -0.126167 1.46848 59 38 55 
-0.355688 -0.083793 1.43651 60 43 61 
-0.17248 -0.0553791 1.28629 52 23 28 
-0.207449 0.023652 1.08117 52 19 26 
0.29013 0.022735 1.19018 78 60 72 
-0.602613 0.0715876 1.50974 63 55 78 
-0.261966 0.0730435 1.34234 58 28 38 
-0.245527 0.0727942 1.33758 53 21 26 
-0.234828 0.0852696 1.33085 57 28 33 
-0.370376 0.0902387 1.34783 67 32 38 
-0.563861 0.137302 1.49647 14 25 70 
-0.550721 0.180592 1.4784 47 35 49 
-0.146303 0.232216 0.937641 81 44 61 
-0.271209 0.253743 0.980823 86 45 59 
-0.086743 0.250795 0.914583 78 46 61 
0.161481 -0.304645 1.26906 104 72 87 
0.231733 -0.265143 1.23846 97 71 84 
-0.439797 -0.240262 1.48053 72 50 62 
-0.426416 -0.211444 1.47397 67 54 71 
-0.516671 -0.154876 1.49875 122 112 136 
-0.447949 -0.0463359 1.46373 113 89 103 
-0.521453 -0.0380506 1.49067 40 34 46 
-0.497978 -0.0348006 1.48226 59 47 61 
0.0332609 0.0536214 1.54778 68 35 42 
0.323551 0.0604088 1.17479 56 42 59 
0.48145 0.149981 1.10532 64 43 52 
-0.0614934 0.163785 1.18389 79 40 58 
-0.146301 0.22237 0.938615 76 43 60 
-0.515364 0.335252 1.42764 37 36 42 
-0.226991 0.233918 0.965869 73 41 54 
-0.207766 0.238156 0.958979 96 45 62 
-0.254064 0.253341 0.974315 77 41 55 
0.218679 -0.302322 1.247 101 77 90 
0.449996 -0.23522 1.15577 60 51 70 
-0.445515 -0.0769764 1.46867 123 102 121 
0.409289 -0.0590425 1.15455 72 47 53 
0.341498 -0.0557157 1.17966 62 41 48 
-0.0263059 -0.0116174 1.23294 65 38 47 
0.0105824 0.13657 1.16215 68 51 61 
-0.0890315 0.145102 1.19602 85 58 75 
-0.176389 -0.189823 1.27309 143 88 107 
-0.0421443 -0.111827 1.24529 125 69 80 
-0.564268 0.128231 1.48556 166 183 253 
-0.056654 -0.235854 1.23179 38 23 26 
0.155255 -0.368276 1.2778 69 54 75 
0.408205 -0.380266 1.18341 53 37 50 
0.460067 -0.333049 1.15989 46 29 47 
-0.101407 -0.146683 1.23598 113 68 75 
-0.625723 -0.159089 1.54215 77 63 76 
-0.0554675 -0.122601 1.25478 104 65 70 
-0.0899813 -0.0146137 1.25707 93 69 59 
-0.112869 0.0243132 1.25027 187 184 193 
-0.0170504 0.17269 1.4359 61 37 50 
0.0262363 -0.236247 1.24598 36 18 18 
0.484966 0.308932 1.06429 16 24 35 
-0.126219 -0.341184 1.26604 82 30 52 
0.158202 -0.343002 1.27162 73 52 71 
0.214028 -0.330882 1.25375 68 49 68 
-0.300546 -0.337961 1.43815 61 35 46 
-0.506153 -0.339242 1.5165 58 45 62 
-0.327053 -0.307303 1.4454 78 60 76 
-0.608205 -0.290407 1.54983 58 39 59 
-0.471656 -0.269248 1.49374 53 38 57 
-0.577786 -0.210805 1.52301 140 131 148 
-0.588632 -0.202978 1.53204 44 35 56 
-0.226412 -0.0980735 1.34304 43 20 28 
5.95438e-05 -0.0502145 1.2265 56 25 33 
-0.0952834 -0.0483164 1.26708 150 133 103 
-0.159849 -0.046627 1.28453 55 24 30 
-0.198756 -0.0463038 1.2994 48 22 31 
-0.012599 -0.0137711 1.22807 61 28 37 
-0.19648 0.0666817 1.28808 60 27 36 
-0.314482 0.0899538 1.35716 54 27 36 
-0.181192 0.131533 1.24613 91 49 59 
0.141058 0.249502 1.09998 77 31 44 
0.441088 0.270176 1.11186 45 37 48 
0.0102208 -0.32574 1.19787 112 62 71 
-0.239256 -0.32512 1.28581 65 30 37 
-0.292218 -0.362624 1.44096 61 50 58 
0.332821 -0.320742 1.20467 86 71 90 
-0.447012 -0.345905 1.4928 56 41 62 
0.389055 -0.282743 1.18296 75 57 79 
0.0931596 -0.260004 1.2874 78 47 62 
-0.263307 -0.263216 1.42011 48 34 49 
-0.331758 -0.262312 1.4448 62 49 79 
0.363878 -0.232299 1.18572 69 56 74 
-0.209242 -0.218784 1.289 106 69 77 
-0.53872 -0.242117 1.51633 76 51 57 
-0.0120689 -0.200372 1.24092 159 102 121 
-0.0770048 -0.169307 1.3598 53 22 27 
-0.444876 -0.125901 1.46993 69 51 63 
-0.343376 -0.123495 1.43468 59 39 48 
0.440442 -0.105102 1.14217 76 58 74 
0.424573 -0.102729 1.15062 77 51 64 
-0.158454 -0.0947955 1.2667 109 68 82 
-0.0268796 -0.0320587 1.23481 67 35 46 
0.455866 -0.00861886 1.13068 71 56 63 
0.0699005 0.00109588 1.22317 99 52 62 
0.0607283 0.00603731 1.22529 88 45 55 
0.0874313 0.00694626 1.21491 95 45 54 
0.0563842 0.0156382 1.22781 67 34 45 
-0.000557234 0.0244512 1.2203 57 30 39 
-0.171807 0.030528 1.2814 69 37 48 
-0.116679 0.0375608 1.21013 196 194 199 
-0.0270521 0.0420921 1.22773 68 35 42 
-0.12662 0.0447581 1.22354 49 39 29 
-0.0839261 0.0526427 1.21683 102 87 94 
-0.131115 0.0551462 1.23231 54 37 30 
-0.180214 0.0596157 1.28131 150 93 108 
0.277434 0.0719899 1.19145 64 42 54 
0.312004 0.0974615 1.17254 72 51 66 
-0.16551 0.110961 1.25646 89 39 50 
-0.0365147 0.127657 1.19828 106 60 73 
0.10769 0.132759 1.12561 63 34 39 
-0.28217 0.146722 1.26632 72 36 50 
-0.212995 0.144996 1.23932 72 40 55 
0.17973 0.139065 1.09965 69 41 53 
-0.227099 0.1636 1.24503 79 41 54 
0.300742 0.184712 1.16786 70 46 60 
0.353815 0.223916 1.14772 58 44 61 
0.00343076 0.204282 0.951799 85 47 62 
-0.270052 0.205437 0.985451 74 34 45 
-0.282117 0.207119 0.987967 67 36 51 
-0.0515837 0.201428 0.925724 81 40 54 
-0.207898 0.220809 0.961425 86 42 55 
-0.0741963 0.268473 0.904433 115 72 91 
-0.230472 0.307339 0.905603 46 32 55 
0.397583 -0.332113 1.18827 40 32 43 
-0.00516758 -0.264122 1.22547 114 66 80 
-0.205621 -0.258185 1.29362 115 69 80 
-0.290995 -0.216311 1.33216 53 21 24 
-0.464608 -0.126693 1.48374 57 46 62 
-0.0987642 -0.0256374 1.25142 48 28 19 
0.28115 0.0029971 1.19533 136 120 146 
0.0790588 0.0409433 1.21607 36 20 21 
-0.140605 0.054134 1.26125 150 139 137 
-0.363972 0.133252 1.32136 78 54 52 
0.493431 0.182468 1.09722 64 49 56 
-0.475235 -0.306855 1.5021 88 64 77 
-0.177381 -0.232247 1.27587 73 37 41 
-0.161817 -0.217648 1.29114 36 16 15 
-0.13804 -0.184349 1.28606 70 40 50 
0.174866 -0.0225728 1.14385 66 34 39 
0.120217 0.0596097 1.2015 49 24 28 
0.448535 0.0626261 1.12687 77 61 72 
0.295562 0.112079 1.17881 126 106 131 
0.0234543 0.124562 1.18709 74 51 59 
-0.179778 0.190379 1.20789 63 48 55 
0.364167 0.258678 1.13627 130 103 118 
-0.198711 -0.186496 1.28243 138 84 100 
0.0954054 -0.183556 1.20663 67 28 29 
0.178321 -0.0600961 1.14918 88 37 36 
-0.388854 -0.045407 1.36185 71 30 26 
0.478215 0.322683 1.07178 164 182 254 
-0.099404 0.0256959 1.25207 201 193 190 
-0.253089 -0.299107 1.41889 48 35 55 
-0.00476402 -0.22477 1.21278 131 92 110 
-0.486584 -0.0819909 1.48277 62 46 72 
-0.216151 0.0386935 1.32831 44 19 25 
-0.517009 0.0581797 1.48008 67 56 72 
-0.499186 0.104141 1.46953 48 37 53 
-0.566059 0.134268 1.46929 26 20 58 
-0.447914 0.135517 1.44997 35 31 45 
-0.487356 0.204295 1.45653 46 35 49 
-0.530832 0.244451 1.46788 33 29 43 
-0.105438 -0.278039 1.2617 73 37 51 
0.30755 -0.31176 1.21638 65 52 62 
0.352641 -0.312507 1.20139 81 55 68 
0.233689 -0.304759 1.24349 80 56 70 
0.317026 -0.278754 1.21388 129 116 136 
-0.550923 -0.158832 1.5114 46 41 63 
0.388717 -0.141022 1.17103 70 46 62 
-0.345642 -0.0935831 1.43103 138 113 132 
-0.336433 -0.0890107 1.42904 141 114 129 
-0.541722 -0.07922 1.50068 61 48 65 
0.194124 0.0593563 1.73828 65 34 39 
-0.357313 0.167123 1.28981 60 29 34 
-0.481024 0.246292 1.45122 36 30 34 
-0.209076 0.250337 0.958096 78 44 60 
0.295685 -0.373913 1.22907 89 67 79 
-0.505856 -0.156072 1.49676 120 104 130 
-0.112593 -0.0577833 1.2671 93 51 61 
-0.573006 0.130686 1.49113 17 24 42 
-0.3249 0.144659 1.28204 70 47 53 
0.000515601 0.142572 1.1644 78 52 63 
-0.111455 -0.148212 1.27834 48 19 21 
0.361327 -0.14458 1.18172 64 60 75 
-0.150797 -0.109867 1.2926 132 76 87 
-0.185603 0.0492406 1.286 64 39 45 
-0.156422 0.0800909 1.26878 63 27 31 
-0.366805 0.130066 1.29505 81 52 54 
0.0836328 0.0380601 1.23428 83 34 30 
0.149527 -0.0631501 1.16765 148 119 139 
-0.109649 0.0609608 1.22094 38 26 30 
-0.0666964 0.00433945 1.25204 45 21 21 
-0.201356 0.00858728 0.987006 58 25 34 
0.0647762 0.0365897 1.82332 65 23 35 
0.354368 0.154332 1.1553 60 42 66 
-0.345025 0.171097 1.28539 56 30 39 
-0.0830303 -0.163358 1.31372 53 22 27 
0.76736 -0.149062 3.84279 63 36 45 
0.0686601 -0.0198695 1.82574 63 30 39 
-0.201366 -0.00689825 0.988762 51 24 33 
-0.25771 0.224484 0.978824 68 41 56 
-0.531274 -0.258036 1.51685 53 37 47 
0.104173 -0.0887602 1.80695 67 30 37 
-0.199613 -0.0350999 0.988928 48 26 29 
0.303813 0.143836 1.16212 136 133 154 
-0.425473 0.16975 1.31393 50 41 44 
-0.605517 0.247416 1.49169 59 53 65 
-0.197019 -0.214076 1.29157 116 67 86 
-0.124701 -0.140339 1.28312 51 21 21 
-0.0722889 0.0145637 1.2593 59 27 30 
-0.418161 0.155017 1.31387 118 110 121 
-0.034865 -0.195628 1.22073 153 100 118 
-0.0228239 -0.196189 1.21687 157 103 117 
-0.390699 -0.166507 1.45736 57 45 67 
-0.122305 -0.0848209 1.28292 92 75 57 
-0.0565795 0.0630009 1.22212 41 20 19 
0.391876 0.151424 1.14227 66 42 55 
-0.408581 0.171749 1.31026 65 27 40 
-0.559357 0.310144 1.02874 153 170 188 
0.248403 -0.388286 1.24717 139 118 137 
-0.256362 -0.311818 1.42056 121 99 122 
-0.555697 -0.263376 1.52692 59 47 61 
-0.205738 -0.243945 1.29479 61 26 32 
-0.162246 -0.176137 1.28086 70 31 36 
-0.460296 -0.160511 1.48254 49 36 46 
-0.62742 -0.124127 1.53908 60 49 66 
-0.245377 -0.111468 1.34871 70 27 36 
-0.468971 -0.0817025 1.4794 58 44 59 
0.993327 -0.102428 3.57925 69 39 49 
0.380973 0.0650738 1.1518 133 110 128 
0.35093 0.0900121 1.16077 78 59 78 
-0.499075 0.118506 1.46838 39 28 42 
-0.218785 0.11313 1.28341 83 36 44 
-0.580947 0.177816 1.48885 126 110 136 
-0.0774909 0.16455 1.19047 77 43 59 
-0.617432 0.245576 1.4974 64 57 75 
0.329752 0.26572 1.15071 57 35 48 
-0.387653 0.284099 1.28671 24 22 23 
-0.469578 0.326839 1.41949 107 91 102 
0.0361512 0.274855 0.946633 172 133 160 
-0.0343339 -0.232255 1.20512 151 98 114 
-0.166089 -0.22176 1.27322 106 60 73 
-0.0374743 -0.216696 1.22992 114 64 75 
-0.354873 -0.158107 1.44463 136 110 123 
-0.0619996 -0.0964932 1.23749 100 64 76 
1.02156 -0.201824 3.53876 64 30 31 
0.172764 -0.0486064 1.14347 148 99 118 
-0.124291 0.0300529 1.25409 165 155 154 
-0.0667604 0.0442828 1.2363 189 180 173 
0.346973 0.0755664 1.16652 144 123 138 
-0.401123 0.106611 1.35628 60 40 49 
0.342649 0.105994 1.1645 63 42 57 
-0.565805 0.130496 1.43199 17 22 42 
-0.0109021 -0.278194 1.23084 137 84 102 
-0.0161157 -0.235409 1.21608 78 41 49 
-0.369896 -0.237932 1.4556 80 68 80 
-0.0946617 -0.204791 1.2696 141 93 109 
0.268527 -0.185793 1.21898 82 66 77 
0.0704965 -0.0592612 1.23474 48 29 35 
0.995601 -0.177633 3.58762 54 31 37 
-0.449598 0.304979 1.29824 140 92 114 
0.309135 -0.0455646 1.19887 141 122 142 
-0.051494 0.0385747 1.24132 86 41 46 
0.0951071 0.0387738 1.25578 83 34 30 
-0.102429 0.0618387 1.2119 66 49 55 
-0.033439 -0.185485 1.2054 149 96 112 
-0.104451 0.0253553 1.23794 206 201 208 
-0.0957417 0.0611268 1.22547 63 52 60 
0.0630413 -0.327324 1.19668 136 115 130 
-0.332187 -0.281359 1.44774 47 34 60 
-0.318678 -0.267093 1.44004 91 62 80 
-0.282674 -0.260806 1.42629 69 41 63 
-0.341778 -0.20426 1.44164 82 54 68 
-0.386475 -0.199928 1.45847 80 57 75 
-0.0461907 -0.18246 1.23541 116 74 88 
-0.24779 -0.137188 1.34834 58 27 43 
-0.100637 -0.112561 1.29344 117 75 87 
-0.0744334 -0.108577 1.27526 124 106 104 
0.0659161 -0.115155 1.23369 133 92 108 
0.0691507 -0.0757197 1.22027 150 98 111 
-0.121355 -0.0453522 1.26788 179 164 131 
-0.414085 -0.00563255 1.44876 48 35 52 
-0.414961 0.00885225 1.44878 111 100 116 
-0.465389 0.0242459 1.46343 48 36 56 
-0.365161 0.100217 1.34989 155 107 121 
-0.44637 0.116542 1.44783 40 29 43 
-0.194289 0.14455 1.23446 82 43 61 
0.507714 0.149771 1.09856 65 50 71 
-0.176282 0.166705 1.22618 84 47 65 
-0.437699 0.19083 1.32074 60 43 51 
-0.495665 0.243348 1.45463 112 100 120 
-0.145781 0.207542 0.939803 93 43 55 
-0.104456 0.222128 0.923872 83 50 67 
-0.367589 0.335262 1.25431 124 144 179 
-0.35991 0.277559 1.05036 66 46 58 
-0.197502 0.297671 0.894249 56 54 103 
-0.335269 0.310233 0.984532 52 35 53 
-0.580392 0.115685 1.49413 16 23 42 
0.364283 -0.311919 1.19753 80 59 78 
-0.593493 -0.217974 1.53158 68 60 81 
0.0448928 -0.257533 1.22606 74 36 51 
0.387535 -0.300064 1.18852 66 56 81 
-0.295172 -0.235894 1.4273 81 66 89 
-0.558584 -0.20313 1.51842 58 45 62 
-0.410542 -0.192609 1.46587 71 58 75 
-0.506948 -0.122418 1.4923 55 43 65 
-0.404216 -0.121165 1.45779 138 117 136 
-0.58506 -0.03466 1.51019 126 112 138 
-0.458271 -0.0396015 1.47106 47 37 48 
-0.170513 -0.0437789 1.28974 59 27 38 
-0.0111468 -0.049454 1.23175 70 37 44 
-0.41308 -0.0163095 1.45013 57 44 54 
-0.183384 -0.0238064 1.29268 68 36 49 
-0.558413 0.0172907 1.49612 60 48 62 
-0.520239 0.0157018 1.48203 56 44 56 
0.122845 0.0126017 1.20959 70 36 50 
-0.0921173 0.0213055 1.23263 80 42 53 
0.000570135 0.0887396 1.21618 86 43 60 
0.366494 0.108278 1.15498 57 42 49 
-0.466206 0.130196 1.45555 40 30 38 
0.439703 0.118554 1.1253 96 67 85 
-0.166925 0.166469 1.22247 85 47 62 
-0.150693 0.16617 1.21609 78 45 56 
-0.265372 0.168924 1.25823 94 53 71 
0.0625565 0.181375 1.11895 74 44 56 
-0.350714 0.166942 1.02476 92 49 56 
-0.555569 0.284417 1.47125 52 43 60 
-0.567596 0.28971 1.47479 117 118 138 
-0.192966 0.222952 0.955345 91 39 52 
-0.298306 0.235132 0.992319 73 45 60 
-0.164426 0.255294 0.942286 94 61 82 
-0.285836 0.257648 0.986094 87 54 71 
-0.380802 0.335362 1.2556 117 130 164 
-0.251928 0.279914 0.95793 59 37 49 
0.0651124 -0.316317 1.22195 45 24 29 
-0.323885 -0.243021 1.4382 88 65 75 
-0.227047 -0.234405 1.32836 39 19 28 
0.080877 -0.221347 1.20223 64 29 33 
-0.108457 -0.173793 1.27722 71 39 52 
-0.557815 -0.124433 1.50561 119 103 129 
0.355312 -0.187713 1.18804 78 58 70 
-0.303461 -0.126947 1.41851 54 42 52 
-0.531404 -0.0510166 1.49537 74 55 77 
0.366596 -0.0572835 1.1754 68 57 73 
-0.39515 -0.0182201 1.34261 60 29 34 
-0.259813 0.00866813 1.34277 107 60 66 
-0.273472 0.0232332 1.34932 65 34 40 
-0.27377 0.0341324 1.34999 54 25 30 
0.119031 0.0520035 1.19328 65 23 25 
-0.51214 0.106765 1.47082 59 57 78 
0.151346 0.124623 1.15947 58 31 36 
-0.0710957 0.179215 1.18593 95 68 75 
0.439247 0.218527 1.11827 83 63 72 
-0.380219 -0.233977 1.45648 134 111 131 
0.0821608 -0.243478 1.19897 107 47 55 
-0.27612 -0.117453 1.33813 51 24 29 
0.0852061 -0.136562 1.20453 140 87 105 
-0.0930416 -0.072715 1.26525 175 163 141 
-0.526945 -0.00823699 0.625454 54 31 37 
-0.45303 -0.0103881 1.46277 117 90 107 
0.166472 -0.0286914 1.14528 64 25 30 
-0.467642 0.0117237 1.46774 46 31 36 
0.192354 0.0611669 1.154 79 48 63 
-0.448948 0.153592 1.44586 51 42 47 
0.118203 0.136043 1.12346 87 67 78 
-0.254821 0.143272 1.25985 89 58 74 
-0.345006 0.146819 1.28959 74 55 59 
0.0457199 -0.268753 1.22857 80 37 46 
-0.232927 -0.224891 1.33063 128 80 96 
-0.21977 -0.113671 1.34221 60 30 30 
0.189952 0.014021 1.15757 73 31 33 
-0.558266 0.150194 1.47565 172 187 255 
0.519818 0.292742 1.07145 147 133 158 
-0.0797589 0.062273 1.25024 55 47 58 
-0.107711 -0.0431732 1.26332 226 214 190 
0.16654 -0.449601 1.28329 78 55 84 
0.0225598 -0.421727 1.33585 67 41 68 
0.20641 -0.431225 1.26677 59 41 65 
0.24907 -0.417181 1.25032 139 124 143 
0.197366 -0.418116 1.26925 58 40 56 
0.186628 -0.416386 1.27519 62 45 63 
0.00618574 -0.458878 1.347 66 48 70 
-0.0241717 -0.418651 1.24914 72 40 51 
-0.201457 -0.491412 1.42726 55 41 67 
-0.0733234 -0.421232 1.27825 71 24 30 
-0.0489512 -0.408027 1.27565 91 35 48 
-0.52108 -0.531309 1.54977 72 48 62 
-0.167712 -0.421637 1.30116 59 31 43 
-0.179214 -0.417401 1.30843 60 32 44 
0.00850359 -0.37843 1.23953 153 103 114 
-0.0617495 -0.390341 1.27483 79 29 41 
-0.587869 -0.524785 1.57389 72 55 73 
-0.329227 -0.469092 1.47244 69 57 81 
-0.0189471 -0.377098 1.25886 146 93 109 
-0.275261 -0.451053 1.45363 63 45 57 
0.0978172 -0.369417 1.30009 82 57 76 
-0.787005 -0.494416 1.63268 29 40 96 
0.0944438 -0.314711 1.29136 40 23 33 
-0.6274 -0.434286 1.57669 68 50 66 
0.587776 -0.212888 1.22119 42 46 71 
-0.699222 -0.357738 1.59841 106 108 147 
0.00444977 -0.224131 1.23413 116 70 80 
-0.789876 -0.312165 1.61654 27 38 92 
-0.791659 -0.139542 1.60211 46 50 95 
-0.527597 -0.0800984 1.50704 57 42 61 
-0.0823684 0.0474373 1.22905 181 174 158 
0.243456 0.0767761 1.20361 121 109 129 
-0.814946 0.0786481 1.57142 27 55 95 
-0.803076 0.0798628 1.57986 28 33 55 
-0.80016 0.12009 1.57584 98 106 142 
-0.799611 0.131289 1.5748 82 95 129 
-0.796218 0.162256 1.5705 31 31 57 
-0.795766 0.175959 1.57129 28 32 67 
0.585238 0.229085 1.16839 49 61 99 
-0.818556 0.293459 1.54722 15 39 67 
-0.797229 0.301586 1.56133 23 28 57 
-0.821499 0.30521 1.54495 111 131 158 
0.590471 0.245437 1.16386 23 41 81 
-0.791043 0.340318 1.53901 116 101 120 
-0.719356 0.348132 1.48248 167 186 226 
-0.744264 0.345658 1.46838 122 134 146 
0.0847648 -0.453679 1.31674 83 60 76 
0.101626 -0.419584 1.30763 83 62 81 
-0.0401598 -0.387594 1.2671 83 41 55 
-0.0276426 -0.384229 1.26201 105 46 52 
0.0191904 -0.366111 1.24339 58 20 19 
0.592446 -0.298385 1.23047 145 173 212 
-0.586408 -0.474417 1.56767 54 37 53 
-0.32142 -0.408085 1.46154 55 39 50 
0.0991009 -0.325233 1.29273 68 33 37 
0.189899 -0.309035 1.26086 82 56 65 
-0.638285 -0.436061 1.58579 64 50 73 
-0.695857 -0.445025 1.60728 77 81 116 
-0.695524 -0.434247 1.60609 112 93 123 
-0.275269 -0.322708 1.32587 67 34 41 
-0.814188 -0.364433 1.61267 152 176 220 
-0.182155 -0.20974 1.29159 72 31 37 
-0.50203 -0.163762 1.50293 63 49 66 
0.613866 -0.0343066 1.22097 113 123 172 
-0.106944 0.0157397 1.24477 136 124 126 
-0.236884 0.0227924 1.3415 50 23 30 
-0.236467 0.0343104 1.34163 41 18 26 
0.319019 0.0713352 1.17438 73 58 81 
-0.798702 0.19147 1.57401 55 62 104 
-0.819178 0.270619 1.55311 37 47 74 
0.0196164 0.222699 0.95445 89 48 64 
0.24856 0.285359 1.17728 57 51 63 
0.131292 -0.413526 1.29039 93 79 104 
-0.279099 -0.480566 1.45049 82 69 89 
-0.327332 -0.480611 1.47176 81 58 74 
0.586395 -0.310804 1.22891 24 26 38 
-0.108144 -0.352344 1.25205 143 95 117 
-0.261596 -0.308201 1.34771 43 21 24 
0.586893 -0.193827 1.21987 57 59 84 
0.00650593 -0.233242 1.2254 122 68 81 
-0.243951 -0.262277 1.33624 61 30 36 
-0.168825 -0.164793 1.28562 24 12 14 
0.0069357 -0.10276 1.21137 59 24 30 
-0.213394 -0.112653 1.3218 61 30 35 
-0.09639 -0.089105 1.2784 143 123 98 
0.25997 -0.0533422 1.21426 55 42 51 
-0.402271 0.151798 1.31182 34 34 36 
0.0987169 0.182776 1.10716 86 54 59 
-0.711367 0.302671 1.52935 139 154 193 
0.581365 0.245622 1.17864 27 35 58 
0.58199 0.283832 1.17578 41 44 63 
-0.018453 -0.338562 1.20675 123 66 83 
-0.797655 -0.354086 1.61801 29 34 54 
-0.0150444 -0.19225 1.21085 154 98 111 
0.0838824 -0.128156 1.21559 55 23 26 
-0.482851 0.0679099 1.46631 52 44 55 
-0.304441 0.0712132 1.357 52 20 21 
-0.707569 0.318226 1.53942 86 81 104 
0.0462914 -0.235661 1.23328 139 85 99 
-0.25497 -0.318054 1.33993 58 32 35 
-0.252927 -0.282138 1.33508 115 88 103 
0.118009 -0.188149 1.26191 58 26 27 
-0.298002 -0.208548 1.37537 96 53 60 
-0.0979111 0.0610166 1.19715 40 31 32 
-0.0673936 0.00395745 1.26565 31 15 15 
-0.360285 0.303961 2.56568 50 33 43 
0.0703449 0.135721 0.961227 66 36 46 
0.0977371 0.196865 1.38746 71 38 49 
0.479901 0.315453 1.05047 158 175 244 
-0.214209 -0.332842 1.27945 146 88 100 
0.112184 0.178452 1.28491 67 37 45 
0.456624 0.27369 1.10148 143 126 144 
0.196461 -0.227167 1.2496 89 61 73 
0.0429894 0.154701 1.23599 62 39 47 
-0.0961589 -0.508206 1.36832 116 110 144 
-0.0615799 -0.497119 1.35274 16 34 48 
-0.0819557 -0.49645 1.36222 27 37 47 
0.582704 -0.370768 1.23734 146 159 193 
-0.100235 -0.49483 1.37307 153 146 130 
-0.091278 -0.490927 1.36661 151 144 125 
-0.0714506 -0.485471 1.35772 150 137 120 
0.575951 -0.363654 1.23254 145 156 188 
-0.200602 -0.518933 1.42962 43 32 48 
0.60257 -0.353417 1.2301 89 91 132 
-0.298302 -0.51754 1.44393 69 60 87 
-0.425371 -0.541418 1.51405 73 52 67 
0.596706 -0.328023 1.23412 72 65 116 
-0.182489 -0.404741 1.31187 73 26 32 
0.563593 -0.290866 1.21784 152 169 213 
-0.0370236 -0.345751 1.23053 46 21 27 
-0.967095 -0.543132 1.64239 52 39 57 
-0.476364 -0.441519 1.52361 74 51 67 
0.555217 -0.209955 1.20807 30 23 30 
0.149178 -0.227397 1.26778 84 59 80 
-0.294038 -0.229749 1.34664 77 28 34 
0.624365 -0.140624 1.2134 106 116 167 
-0.00283397 -0.179674 1.22769 37 15 18 
0.0931554 0.0164362 1.21944 63 30 39 
-0.795347 0.0415297 1.58631 30 44 83 
-0.796846 0.0794853 1.57048 21 28 47 
0.225662 0.148716 1.1434 59 33 46 
-0.942307 0.21531 1.63047 88 102 151 
-0.828374 0.316162 1.54839 121 136 169 
0.0395959 0.226333 0.983804 85 49 63 
-0.214027 0.307992 0.918845 197 214 255 
-0.185012 0.308618 0.915346 50 43 76 
0.332999 0.327038 1.02419 121 132 150 
-0.0136372 -0.479026 1.35247 136 117 139 
-0.405561 -0.571293 1.51132 84 60 74 
-0.211904 -0.516104 1.42747 55 53 77 
-0.252437 -0.522835 1.4463 82 61 76 
0.601608 -0.346242 1.23871 119 137 177 
-1.01672 -0.642128 1.62871 86 98 146 
-0.36161 -0.518038 1.48911 78 60 76 
0.588454 -0.322445 1.23215 44 49 79 
-0.0638489 -0.392846 1.28364 78 30 44 
0.00984377 -0.372017 1.2508 123 76 86 
-1.01659 -0.580973 1.63395 187 201 246 
0.587563 -0.28165 1.22855 36 36 62 
-0.965223 -0.533507 1.65094 158 171 216 
-0.61692 -0.428748 1.55805 62 49 66 
0.352553 -0.235585 1.19533 61 57 72 
0.131255 -0.261069 1.27685 87 61 72 
0.103904 -0.234265 1.19778 159 108 125 
0.436169 -0.196702 1.15637 76 55 74 
-0.241261 -0.251917 1.3372 67 33 49 
0.603474 -0.157981 1.22959 151 173 212 
-0.0017199 -0.199467 1.23912 64 28 32 
0.510557 -0.103546 1.12304 57 43 58 
0.127941 -0.135106 1.2653 66 44 57 
-0.259913 -0.0704941 1.35551 68 27 31 
-0.820357 0.0796861 1.58022 31 47 80 
0.608533 0.0861324 1.20285 122 133 178 
0.620268 0.0863063 1.20275 120 127 173 
-0.816974 0.126067 1.56963 26 43 73 
-1.39861 0.877195 7.21409 134 88 101 
-0.127826 0.276572 1.97865 54 31 37 
0.590659 0.226847 1.17703 148 170 211 
0.0759745 0.231928 1.0863 69 37 52 
0.0419151 0.221743 0.993353 76 47 67 
0.557159 0.2845 1.13988 22 21 27 
0.553022 0.289502 1.13066 126 117 134 
0.62046 0.319034 1.20829 73 78 98 
0.570361 0.303305 1.12533 143 130 148 
-0.230864 0.305535 0.900035 46 37 64 
-0.966527 -0.527111 1.63953 101 114 156 
-0.507594 -0.40683 1.53231 68 47 54 
-0.242507 -0.28944 1.34149 117 94 114 
0.0914649 -0.218879 1.19683 52 24 23 
-0.812652 -0.357307 1.61968 32 42 67 
-0.2829 -0.209121 1.33859 47 21 22 
-0.00639502 -0.167236 1.21746 26 10 11 
0.561346 -0.10373 1.20274 112 124 162 
-0.152733 -0.107346 1.28682 125 69 80 
-0.108321 -0.0797302 1.27726 48 22 23 
-0.174252 0.0476265 1.29127 63 33 41 
0.565203 0.0796708 1.19026 61 62 83 
-0.554756 0.151637 1.48117 154 171 240 
0.160747 0.113448 0.795994 88 58 68 
-0.823147 0.313791 1.53779 127 137 173 
-0.224901 0.309015 0.921726 192 217 255 
-0.188489 0.305866 0.899714 206 215 255 
0.599626 -0.339368 1.23069 65 60 92 
0.585725 -0.339643 1.23141 52 49 66 
-0.0580879 -0.406312 1.28259 142 88 111 
0.556577 -0.316743 1.228 20 18 23 
-0.80825 -0.552839 1.63944 41 52 80 
0.590878 -0.257852 1.22452 142 169 214 
-0.244112 -0.273152 1.34104 119 92 109 
0.034947 -0.121766 1.26805 62 30 33 
-0.792578 -0.150343 1.60898 140 153 198 
-0.0934302 -0.0877517 1.25924 131 115 92 
0.242958 -0.0555151 1.21678 75 47 61 
-0.0276599 -0.0508633 1.25921 52 31 38 
-0.246437 -0.0557497 1.35359 46 18 15 
0.184693 -0.0252515 1.13961 44 20 18 
-0.379883 -0.0142054 1.34953 54 22 23 
-0.119329 0.00841708 1.28194 61 29 30 
-0.12367 0.0363597 1.24397 179 178 176 
-0.817959 0.127138 1.57995 35 38 57 
0.317143 0.116033 1.16669 129 106 122 
-0.410082 0.161932 1.31746 108 67 81 
0.38919 0.187914 1.14344 72 60 74 
-0.826601 0.294927 1.56494 22 33 51 
-0.804632 0.31775 1.55841 21 23 36 
-0.831918 0.332718 1.52866 112 99 125 
-0.794401 0.342677 1.55058 120 111 130 
0.120359 0.236603 1.11208 51 42 45 
0.544549 0.285159 1.14761 16 14 17 
0.212021 0.289045 1.05835 169 119 144 
0.0472263 0.284858 0.965973 85 58 67 
0.523232 0.30149 1.05262 62 60 73 
0.0221829 -0.344629 1.22384 145 92 110 
-0.106718 -0.0752331 1.26339 67 36 42 
0.585324 0.0466124 1.19291 56 65 108 
-0.798873 0.148718 1.58702 133 148 191 
-0.829107 0.297313 1.57713 21 28 47 
-0.801858 0.341736 1.53007 23 18 22 
-0.791278 -0.489857 1.62143 42 53 85 
0.541336 -0.207472 1.2024 113 88 109 
0.551279 -0.191944 1.21582 24 23 31 
0.549068 -0.0519926 1.20016 65 48 64 
-0.0842116 -0.0638541 1.27953 85 45 53 
-0.786338 0.171984 1.54634 47 47 73 
0.0987377 0.192515 1.10244 30 18 18 
-0.825533 0.302931 1.53116 129 144 185 
-0.120631 0.00311854 1.25649 72 36 38 
0.565995 -0.417253 1.23589 178 195 238 
0.347117 -0.41883 1.21333 76 58 84 
0.0561343 0.016015 0.753978 47 20 29 
-0.107918 0.0504054 1.22433 155 152 147 
0.0332558 0.199238 1.41187 54 31 37 
0.593018 -0.370535 1.23511 176 197 240 
-0.00771609 0.0626637 1.21072 64 27 34 
-0.0614953 0.0396698 1.2564 162 149 133 
-0.195109 -0.183308 1.27941 130 78 91 
-0.108823 -0.0195204 1.25393 194 180 154 
0.177567 0.00521841 0.630175 108 92 77 
-0.378919 0.316599 2.37536 58 31 40 
-0.249384 0.256245 1.90727 59 30 35 
-0.422632 0.421385 3.13701 63 31 42 
-0.260399 0.262239 1.91087 60 33 42 
0.0552966 0.18096 1.30497 65 44 49 
-0.290163 0.274667 2.23319 134 83 100 
0.0898849 0.177565 1.25101 70 42 56 
0.0500736 0.174758 1.40787 60 46 46 
-0.0684351 0.0495701 1.25229 193 180 172 
0.0974227 0.173828 1.22177 71 40 55 
0.078062 0.171005 1.22642 65 44 49 
-0.0601863 0.0282229 1.39216 62 22 31 
0.0470635 0.148611 1.22116 71 39 50 
0.106662 0.16705 1.1989 63 31 42 
0.0787607 0.161973 1.29394 56 34 37 
0.0294233 -0.0898768 3.50296 72 51 58 
-0.0466781 0.0268407 1.35405 62 22 31 
0.193448 0.247091 1.7551 66 36 48 
0.22581 0.080012 1.5454 55 23 36 
-0.239582 0.168413 1.24858 84 40 55 
-0.0197357 -0.20346 0.756123 48 67 110 
0.387352 -0.0173667 0.989352 68 87 119 
0.395988 -0.0178886 0.979605 92 99 145 
0.429495 -0.0193113 0.968467 81 96 139 
-0.485706 -0.038364 1.479 49 37 47 
0.399219 -0.0612787 0.984353 73 84 116 
0.39612 -0.0334472 0.978827 78 92 127 
-0.36827 -0.224294 1.45825 49 35 60 
-0.12053 -0.207383 1.29013 73 39 55 
-0.467906 -0.141151 1.48321 63 50 76 
-0.381762 -0.0543273 1.44337 67 53 78 
-0.303176 -0.0552986 1.36264 72 31 39 
-0.397478 -0.0390544 1.44722 69 48 55 
2.45295 -0.226448 1.61391 183 198 241 
-0.121766 -0.0341654 1.27019 159 143 110 
-0.501089 0.0513927 1.47359 77 55 76 
0.527135 0.0673921 1.11533 78 59 81 
-0.511833 0.13103 1.47195 108 97 114 
-0.390081 0.149294 1.30278 45 26 30 
-0.357605 -0.241062 1.45428 71 51 63 
-0.237654 -0.239505 1.3313 114 69 89 
0.379186 -0.280405 1.19999 140 128 150 
-0.246624 -0.125973 1.34932 69 33 47 
-0.246403 -0.0980427 1.34967 64 28 32 
-0.394839 -0.0842362 1.45071 74 53 70 
-0.370241 -0.0780786 1.44143 81 64 83 
-0.300395 -0.0670381 1.36267 60 27 36 
0.0816845 -0.0807497 1.23318 86 36 45 
-0.531804 -0.0144036 1.49242 66 51 70 
-0.208983 -0.0362678 1.33618 50 23 32 
-0.517504 0.0256556 1.48267 49 44 64 
-0.317258 0.0152427 1.36227 79 32 38 
-0.127999 0.0461818 1.25304 149 137 123 
0.778695 0.0815057 1.91293 93 52 70 
0.774924 0.0967223 1.92673 93 38 41 
-0.138927 0.066469 1.25314 121 95 72 
0.0688041 0.0873887 1.22783 88 45 62 
-0.175416 0.147283 1.22927 82 43 61 
-0.541202 0.177445 1.47834 43 39 56 
-0.0510796 0.172518 1.18379 74 42 55 
-0.301412 0.173205 1.27004 106 59 77 
-0.343027 0.16443 1.00021 87 44 53 
-0.208143 0.207096 0.961964 82 46 58 
-0.319256 0.220189 0.999036 85 38 48 
-0.0845223 -0.10673 1.26496 150 137 121 
-0.0852316 -0.0954046 1.26498 67 32 30 
-0.573097 0.00602279 1.50651 51 45 59 
-0.249494 0.00880358 1.3396 100 51 57 
0.465146 -0.0117943 1.14627 86 73 90 
-0.0255744 -0.00213202 0.827138 125 137 177 
-0.127911 0.0469003 1.28452 131 116 111 
0.401035 0.0290806 1.16656 138 115 133 
-0.576804 0.13303 1.45829 21 28 47 
0.1557 0.132237 1.15169 145 102 122 
-0.102763 0.187529 1.181 57 50 58 
-0.341195 0.191697 1.26188 45 29 32 
-0.460913 0.232532 1.4425 85 78 96 
0.178646 0.068827 1.1619 162 119 138 
-0.396579 0.17214 1.10824 170 127 144 
-0.088142 -0.114626 1.29159 120 70 81 
0.176346 0.0935013 1.15265 153 100 118 
-0.586903 0.130249 1.43644 21 28 47 
0.15078 0.121645 1.15351 57 31 34 
-0.105424 -0.0712826 1.28349 66 37 42 
-0.0717456 -0.549654 1.36376 135 133 157 
-0.0369478 -0.533726 1.34731 24 30 46 
-0.0737688 -0.532688 1.36312 155 138 122 
-0.101134 -0.536141 1.3731 184 168 153 
-0.102743 -0.525459 1.37373 164 167 182 
-0.783772 -0.642715 1.64318 26 32 82 
-1.06575 -0.581805 1.54329 111 111 171 
-1.05601 -0.579603 1.55486 111 123 181 
-0.0615728 -0.55538 1.35694 71 56 79 
0.0937713 -0.511406 1.32104 58 35 53 
-0.0353741 -0.547395 1.35426 63 46 52 
-0.0845999 -0.558611 1.36792 200 196 167 
0.00706743 -0.532393 1.35009 64 47 63 
0.337395 -0.421623 1.219 67 49 65 
0.139494 -0.485846 1.29837 58 40 56 
-0.098454 -0.554559 1.37445 105 52 60 
-0.211941 -0.596455 1.44183 57 43 60 
-0.0661682 -0.537452 1.35564 179 169 144 
-0.251538 -0.60301 1.45577 74 50 72 
0.0500303 -0.498086 1.33366 67 48 68 
-0.0863745 -0.536182 1.37048 92 60 81 
-0.0403684 -0.510797 1.34554 196 191 188 
-0.0545853 -0.513778 1.35358 169 158 138 
-1.08957 -0.762256 1.53153 101 123 180 
0.0176847 -0.488747 1.34367 47 29 43 
-0.0832507 -0.514434 1.36526 160 136 136 
-0.0440503 -0.501159 1.34656 32 23 24 
-1.07449 -0.759703 1.5611 106 121 180 
-0.0715668 -0.501773 1.35783 14 31 39 
-1.11531 -0.654998 1.55526 92 114 172 
-1.07474 -0.641677 1.54924 110 122 180 
-1.0356 -0.634 1.59059 109 126 182 
-1.03783 -0.582517 1.59425 182 196 243 
0.610756 -0.012338 1.21886 87 89 130 
-0.0558111 0.0478248 1.24692 162 158 149 
-0.340399 0.181278 1.00686 133 152 192 
0.567435 0.288363 1.14706 22 22 32 
0.486178 0.313186 1.04225 150 167 236 
0.275208 0.319125 0.964645 153 163 188 
-0.0322271 -0.5263 1.35357 38 26 28 
0.0221986 -0.512388 1.34394 67 43 57 
0.565296 -0.358953 1.22803 123 134 179 
0.773442 -0.402346 1.51403 26 28 53 
-0.0347562 -0.515223 1.35268 29 20 23 
-0.335598 -0.616141 1.4917 62 44 58 
0.068226 -0.483842 1.32521 53 36 54 
-0.0775189 -0.522753 1.36297 197 194 189 
-1.06048 -0.757039 1.58368 104 126 184 
-1.07109 -0.699135 1.55188 108 127 183 
-0.303408 -0.507555 1.46596 72 57 76 
-1.05974 -0.638834 1.5709 107 127 186 
-1.06889 -0.591929 1.53867 120 142 199 
-0.423852 -0.478804 1.5072 68 52 63 
-1.05936 -0.591373 1.56516 116 141 197 
0.0959731 -0.343805 1.29914 99 75 97 
-1.05407 -0.576096 1.54335 178 192 241 
-0.0253931 -0.337571 1.20062 45 18 27 
-0.0301797 -0.237704 1.22977 124 73 90 
-0.0394543 -0.234365 1.2351 42 22 31 
-0.0791153 0.0291009 1.24013 97 80 72 
-0.0973781 0.0473294 1.18291 131 123 121 
-0.807341 0.125052 1.55751 25 39 68 
0.21128 0.154488 1.10187 52 33 39 
-0.124741 0.224986 1.62092 71 43 55 
0.513241 0.179482 1.09944 64 44 55 
-0.334056 0.193379 1.01036 130 149 189 
0.500023 0.266478 1.08525 44 30 43 
-0.686661 -0.72563 1.63457 105 83 104 
0.0422072 -0.488266 1.33408 72 46 57 
-0.0562321 -0.489033 1.36028 19 15 16 
0.603313 -0.331245 1.25274 144 164 201 
-0.114451 -0.376297 1.25205 36 20 21 
0.586862 -0.236354 1.22175 40 45 65 
0.519569 -0.109647 1.14378 46 34 36 
0.603706 -0.0899268 1.22108 79 87 126 
0.182362 -0.0479833 1.14291 77 31 34 
-0.0777054 -0.0342727 1.26843 168 159 130 
0.202351 0.00500527 1.1591 55 24 29 
-0.1141 0.0239833 1.23429 170 169 175 
-0.473155 0.0671306 1.45329 43 36 43 
0.560045 0.116362 1.18755 100 114 153 
0.214388 0.133121 1.114 37 26 30 
