ply                 
format ascii 1.0    
element vertex 559
property float x    
property float y    
property float z    
property uchar red  
property uchar green
property uchar blue 
end_header          
0.281288 -0.332204 1.23074 71 51 63 
-0.353928 -0.256959 1.45573 61 41 50 
-0.46588 -0.255522 1.49394 47 34 51 
0.323677 -0.183468 1.19991 50 31 50 
-0.1268 -0.191646 1.28723 58 27 35 
0.207592 -0.172362 1.24113 87 68 88 
-0.0730732 -0.151454 1.26609 53 24 29 
-0.406781 -0.164827 1.46378 51 39 53 
-0.595772 -0.158406 1.53059 45 41 58 
0.273656 -0.0973642 1.21132 52 36 47 
-0.114871 -0.0923184 1.27567 127 108 91 
-0.456394 -0.0766281 1.47349 118 101 120 
0.0663235 -0.0461996 1.2357 62 32 40 
-0.531006 -0.0358778 1.49912 47 39 60 
0.0810083 -0.0242381 1.22757 60 27 38 
-0.245768 -0.0148059 1.3481 54 26 40 
-0.262021 -0.0140404 1.35315 55 25 35 
-0.277721 -0.0139083 1.36074 50 23 30 
-0.160957 -0.00831639 1.11714 53 22 30 
-0.0134707 0.0071889 1.22987 58 25 32 
-0.0475589 0.0291295 1.47952 63 23 32 
-0.19923 0.0284174 1.29656 58 20 31 
0.112844 0.0286735 1.2118 53 23 31 
-0.112169 0.0476013 1.21462 175 172 167 
-0.0129263 0.0610887 1.22516 51 20 26 
-0.162921 0.0656665 1.2805 57 21 33 
-0.00835854 0.0629674 1.22364 132 79 89 
-0.120646 0.0651155 1.23919 105 90 67 
0.172411 0.0767443 1.15664 60 29 37 
0.185996 0.0764858 1.15272 54 28 39 
-0.0265336 0.0824929 1.22823 62 22 31 
-0.186451 0.0875487 1.28694 59 21 32 
-0.550945 0.121504 1.48612 159 179 248 
0.350209 0.105873 1.16071 59 46 63 
-0.121752 0.136796 1.21194 128 139 184 
-0.10578 0.136685 1.20599 126 142 193 
-0.301103 0.147795 1.27617 53 26 31 
-0.0154626 0.139854 1.1735 58 34 47 
0.0719782 0.137529 1.14115 72 36 48 
0.143487 0.13573 1.11597 48 27 32 
-0.328524 0.170884 1.28303 57 30 35 
0.0187585 0.157865 1.15844 56 29 36 
0.0895519 0.159904 1.13394 84 40 55 
0.099308 0.159288 1.12922 68 33 39 
-0.266727 0.22559 0.986246 69 38 53 
-0.257055 0.235241 0.981592 68 37 52 
-0.0857923 0.235649 0.919485 97 46 63 
0.44398 -0.382849 1.1743 60 43 61 
0.38646 -0.379843 1.196 57 39 61 
0.404376 -0.333627 1.18302 60 52 67 
0.38737 -0.329543 1.18866 46 38 53 
0.362412 -0.33179 1.20018 43 40 51 
0.358684 -0.265374 1.19446 55 41 56 
0.276485 -0.238486 1.2213 63 50 60 
-0.0275706 -0.231105 1.22182 51 24 31 
-0.383373 -0.25972 1.46788 60 44 55 
-0.354068 -0.257403 1.45523 60 43 53 
-0.0911426 -0.160405 1.29516 52 21 27 
0.420178 -0.140761 1.16066 55 38 44 
-0.0757078 -0.14617 1.26706 110 61 65 
-0.147205 -0.14838 1.29099 65 35 45 
0.208024 -0.140511 1.23867 68 54 71 
-0.421216 -0.164523 1.47192 62 44 58 
-0.0597776 -0.140438 1.25995 51 22 27 
-0.540646 -0.157657 1.51079 42 33 52 
0.356684 -0.100676 1.18019 59 46 55 
0.273705 -0.0972302 1.21137 54 41 51 
-0.48721 -0.118381 1.48976 127 108 128 
0.382766 -0.061662 1.16658 61 43 57 
0.447161 -0.0591709 1.14501 35 29 39 
0.433035 -0.0579309 1.1491 49 39 48 
0.353639 -0.0561804 1.17959 61 40 47 
-0.0392119 -0.0491075 1.24435 62 29 36 
-0.530847 -0.036009 1.49889 47 39 60 
0.0978204 -0.0245922 1.22254 56 33 43 
0.0580113 -0.0237502 1.23621 57 30 39 
0.0650897 -0.0234035 1.23384 55 32 40 
0.104813 -0.01954 1.2192 54 27 36 
-0.569724 -0.0134751 1.5065 65 52 70 
0.37686 -0.00888592 1.16477 64 41 47 
-0.162766 -0.0102594 1.28711 56 29 38 
-0.160684 0.0102791 1.11525 59 27 38 
-0.0392095 0.0250206 1.23787 65 29 39 
-0.458099 0.0353033 1.46772 35 22 31 
0.392527 0.0367183 1.15234 52 36 46 
0.450303 0.038189 1.12997 142 125 141 
0.420289 0.042482 1.14025 86 58 70 
0.0613165 0.058769 1.22841 62 29 36 
0.298304 0.0696338 1.18584 68 52 65 
0.117663 0.0780705 1.20663 61 31 41 
-0.0264791 0.0829764 1.22806 60 27 34 
-0.55199 0.121513 1.48704 161 180 249 
0.350253 0.1058 1.16074 59 46 63 
-0.548604 0.138451 1.48399 92 95 136 
0.34372 0.112857 1.15813 22 62 175 
-0.118067 0.133613 1.2108 52 55 100 
-0.121284 0.136978 1.21171 128 141 186 
0.0286041 0.135862 1.15905 57 42 47 
-0.123503 0.142457 1.21249 74 42 55 
-0.104186 0.141591 1.20592 75 39 53 
-0.0149999 0.139852 1.1734 58 34 47 
-0.0502391 0.143255 1.18581 60 44 54 
0.0724144 0.1376 1.14089 74 44 54 
0.088785 0.139909 1.13539 74 49 55 
0.0576728 0.142305 1.14661 58 39 45 
0.0625305 0.142822 1.14428 134 86 98 
0.151579 0.140333 1.11143 133 86 104 
-0.0871952 0.164262 1.19784 79 45 61 
0.001799 0.161439 1.16578 75 41 57 
0.179676 0.157022 1.10129 81 45 57 
0.464967 0.182324 1.11326 66 50 63 
-0.266801 0.225588 0.986181 69 38 53 
0.408533 0.272515 1.1241 131 111 122 
-0.144709 0.247496 0.940149 90 44 55 
0.386802 -0.379859 1.19613 53 38 57 
0.386924 -0.329041 1.18652 46 40 54 
0.46469 -0.282 1.15674 52 38 53 
0.170832 -0.306084 1.26756 87 60 67 
0.376213 -0.278957 1.1886 69 59 70 
0.385751 -0.2344 1.18005 52 41 55 
0.406764 -0.2331 1.17342 54 42 54 
-0.044271 -0.228075 1.228 132 79 95 
0.278662 -0.182148 1.21704 61 45 55 
0.213731 -0.177765 1.23757 74 54 66 
-0.082778 -0.149403 1.27031 46 18 17 
0.357087 -0.10075 1.18047 59 46 55 
0.446078 -0.0588536 1.14308 35 27 38 
0.313806 -0.0590187 1.19393 53 36 42 
0.104277 -0.0190249 1.21894 55 32 40 
-0.0378127 -0.0115954 1.23968 67 37 47 
0.376195 -0.00897363 1.16447 63 40 46 
-0.0387289 0.0262326 1.23742 73 41 54 
-0.0263889 0.0841728 1.22759 66 39 48 
-0.0135787 0.0836966 1.22307 62 33 38 
0.35315 0.100164 1.15696 129 103 114 
0.427528 0.0994722 1.13092 135 111 124 
0.422909 0.103536 1.13334 75 54 63 
-0.547444 0.155704 1.48256 26 26 38 
-0.107694 0.135713 1.20622 126 142 194 
-0.0581458 0.136922 1.18962 66 40 53 
-0.309044 0.148987 1.28193 38 32 36 
-0.358161 0.152122 1.29479 63 48 51 
-0.0348742 0.14099 1.18044 50 34 45 
-0.0144739 0.139948 1.17273 61 37 50 
-0.0480706 0.143137 1.18544 58 49 54 
0.0400477 0.140801 1.15301 69 50 56 
0.026439 0.161963 1.15586 57 37 46 
0.115561 0.159541 1.1232 52 36 37 
0.394476 0.191087 1.13892 124 114 139 
0.46205 0.326388 1.07471 13 16 23 
0.360269 -0.331195 1.19955 48 37 54 
0.406175 -0.233083 1.17347 52 40 52 
0.278425 -0.234772 1.22231 72 67 74 
0.420581 -0.140366 1.16029 59 42 50 
0.288219 -0.145774 1.21131 59 49 60 
0.239264 -0.136809 1.22617 68 47 52 
0.364626 -0.0952196 1.17505 136 119 138 
0.31345 -0.0593339 1.19308 55 36 42 
-0.492468 0.0255646 1.47617 120 106 129 
-0.569606 0.122386 1.49682 158 175 247 
0.314849 0.106694 1.17775 51 38 48 
-0.5558 0.13687 1.48782 17 24 43 
0.435254 0.105341 1.12952 54 42 56 
-0.563588 0.144978 1.48795 156 173 242 
-0.109566 0.134507 1.20719 125 142 194 
-0.0589872 0.136813 1.18986 66 40 53 
0.0274846 0.136986 1.15906 56 41 48 
-0.0471891 0.14364 1.18514 62 49 56 
0.0407989 0.141501 1.15242 67 47 56 
0.116 0.161904 1.12231 76 55 60 
0.393659 0.273414 1.12905 137 122 143 
0.420962 -0.141086 1.1602 57 42 47 
-0.111709 0.135634 1.20783 125 143 193 
-0.337244 0.275929 0.993829 151 111 137 
0.462787 0.328862 1.07457 13 15 27 
-0.135197 -0.0402056 1.27673 158 136 123 
-0.105496 0.0386672 1.21586 126 116 117 
-0.0733842 0.0514846 1.22832 184 171 165 
-0.0594103 0.0533565 1.22303 105 85 84 
0.49904 0.329977 1.06717 11 28 84 
0.316997 -0.377377 1.22423 55 43 63 
0.306106 -0.374145 1.22439 83 58 77 
0.127239 -0.391034 1.29082 57 42 63 
-0.01219 -0.372624 1.2533 72 31 39 
0.18492 -0.373514 1.26982 75 54 73 
0.276405 -0.350247 1.2337 71 52 74 
0.427217 -0.333268 1.17663 41 29 49 
-0.26038 -0.400687 1.4298 126 111 132 
0.372006 -0.331911 1.19645 54 35 54 
0.146837 -0.353659 1.27932 91 59 80 
0.447801 -0.320338 1.16669 63 48 71 
-0.320853 -0.390172 1.45492 73 58 81 
-0.471909 -0.400417 1.51108 49 34 41 
0.154174 -0.332363 1.27679 74 60 75 
0.498117 -0.292914 1.14334 149 122 141 
0.145316 -0.324345 1.27903 61 46 65 
0.329691 -0.281428 1.20745 39 25 40 
0.109833 -0.297663 1.28798 75 51 67 
-0.605767 -0.35143 1.55452 65 48 67 
-0.585661 -0.347037 1.54559 140 121 141 
0.330727 -0.267126 1.20588 69 45 61 
0.171442 -0.276927 1.26434 67 46 63 
-0.334454 -0.312274 1.45299 55 38 46 
0.178979 -0.268698 1.25877 74 56 78 
0.30003 -0.236776 1.21272 61 41 53 
0.0838154 -0.226409 1.19497 59 20 25 
-0.563148 -0.287842 1.53269 58 42 52 
-0.165767 -0.234741 1.27506 53 23 35 
-0.201642 -0.229933 1.29066 46 23 31 
-0.189808 -0.228151 1.28113 60 30 38 
-0.403673 -0.256904 1.47298 52 39 49 
-0.0338867 -0.213503 1.22465 134 90 105 
-0.00483757 -0.210665 1.2264 58 19 24 
-0.481691 -0.257011 1.5025 50 37 57 
-0.290698 -0.221452 1.32554 140 87 97 
-0.590472 -0.248458 1.53829 66 52 67 
-0.635031 -0.250382 1.55542 68 50 66 
-0.070036 -0.192711 1.26703 58 29 34 
-0.569916 -0.201932 1.52911 46 33 51 
-0.0894766 -0.157295 1.27257 52 21 27 
-0.106713 -0.156743 1.27868 54 22 27 
-0.122837 -0.150021 1.28262 61 24 32 
-0.136293 -0.137937 1.28622 65 30 37 
-0.664151 -0.15592 1.55761 60 48 62 
0.0484838 -0.110055 1.2471 54 25 30 
-0.102956 -0.097633 1.26281 44 18 27 
-0.0887798 -0.0851737 1.26991 38 17 16 
-0.119705 -0.0645162 1.27558 146 130 114 
-0.0133089 -0.0597791 1.23148 57 22 28 
-0.128104 -0.0582632 1.27762 143 125 105 
0.0815732 -0.046635 1.23073 59 28 34 
0.310304 -0.0436993 1.19098 71 52 71 
-0.0824285 -0.0460495 1.26884 206 199 173 
0.307391 -0.0339669 1.19085 138 117 132 
0.0741368 -0.0343524 1.22923 143 95 111 
-0.6336 -0.0423366 1.53485 65 53 65 
-0.0793057 -0.0291644 1.25973 214 204 177 
-0.133176 -0.0276558 1.27555 145 124 107 
-0.559267 -0.0313455 1.50586 47 34 52 
-0.696431 -0.0304171 1.55474 60 68 104 
-0.39048 -0.0258547 1.34337 152 101 116 
-0.0946026 -0.0244806 1.26953 40 17 23 
0.439443 -0.0214576 1.14186 68 49 68 
0.309565 -0.0197797 1.19062 54 39 58 
-0.101181 -0.015936 1.24659 220 210 183 
-0.00347951 -0.0145146 1.22808 55 22 29 
-0.086825 -0.0113927 1.24884 177 163 137 
-0.172677 -0.0102949 1.28972 54 21 28 
-0.196444 -0.00923136 1.29719 57 26 34 
0.388652 -0.000511174 1.15702 45 32 52 
0.0796124 0.000946277 1.22289 84 41 50 
0.0295855 0.00135672 1.24592 62 27 34 
-0.0820048 0.00404619 1.26937 107 88 71 
-0.0269908 0.00741229 1.23409 62 26 30 
-0.0960995 0.0105823 1.26831 81 53 41 
-0.186644 0.0113543 1.29302 57 24 33 
-0.173004 0.0114847 1.28777 52 21 27 
-0.259011 0.0246462 1.33111 79 32 42 
-0.10385 0.0259948 1.2244 195 188 178 
0.0918266 0.0259879 1.218 50 19 25 
-0.188258 0.0301844 1.29405 65 31 45 
-0.120525 0.0318405 1.232 92 82 81 
-0.112509 0.0312253 1.22458 203 199 190 
-0.0931205 0.0348449 1.22438 120 104 104 
0.0304919 0.036011 1.24206 57 24 31 
0.334796 0.0371747 1.17561 68 49 68 
0.325 0.0394964 1.17778 67 50 66 
0.374933 0.03934 1.16009 125 112 129 
0.158192 0.0446927 1.19509 51 20 26 
-0.100543 0.0476 1.21624 43 28 21 
-0.337985 0.0586561 1.37413 54 21 30 
-0.0937668 0.0548359 1.21809 39 21 19 
-0.117319 0.0560093 1.217 131 116 93 
0.0823551 0.0628409 1.22198 61 24 31 
-0.0504672 0.0652648 1.23349 130 116 116 
0.135481 0.0772098 1.20086 57 26 34 
0.168965 0.0868952 1.16008 143 95 111 
-0.553196 0.113189 1.49124 19 26 45 
-0.550881 0.132789 1.4456 26 26 54 
-0.573246 0.143723 1.49127 18 26 72 
-0.579529 0.153354 1.49238 22 24 47 
-0.569103 0.156736 1.49027 147 158 214 
-0.427496 0.151025 1.32203 38 27 35 
0.194807 0.130295 1.09737 44 24 33 
0.346872 0.138241 1.15463 82 121 212 
0.161598 0.135316 1.1088 57 30 37 
-0.315419 0.166451 1.28199 60 28 39 
0.288702 0.153933 1.18059 53 39 54 
-0.247813 0.164664 1.25419 77 36 50 
-0.0484653 0.159316 1.18499 69 41 53 
0.0605336 0.246104 1.80708 65 31 45 
0.27693 0.161303 1.18299 43 27 40 
0.128447 0.154586 1.11952 65 33 44 
0.193594 0.152797 1.09613 63 32 38 
-0.67411 0.248274 1.51913 42 34 55 
-0.679494 0.281863 1.51904 42 35 53 
0.314816 0.220246 1.16625 78 61 80 
-0.708316 0.293723 1.52546 76 87 119 
-0.668661 0.324603 1.49937 82 70 94 
0.124866 0.248843 1.10741 42 21 26 
-0.710148 0.346419 1.49955 23 30 48 
0.294409 0.272886 1.16882 39 35 50 
-0.0851773 0.217194 0.921228 79 37 49 
0.475108 0.259599 1.09915 65 47 63 
-0.0107396 0.223997 0.944748 102 48 64 
0.143369 0.269409 1.09874 60 35 41 
0.153537 0.268902 1.09622 80 33 49 
0.423089 0.274054 1.11742 74 57 73 
0.317441 0.283491 1.1546 68 61 69 
-0.0276045 0.231201 0.935559 100 49 66 
-0.316941 0.255943 1.00274 73 42 60 
-0.0138035 0.254298 0.93998 90 51 72 
-0.0235585 0.254096 0.935686 81 44 61 
0.463765 0.301378 1.077 20 18 31 
0.50262 0.29906 1.05993 17 18 38 
0.474156 0.305023 1.07001 19 20 76 
0.494207 0.304129 1.06667 17 30 72 
0.472788 0.310329 1.04518 159 174 243 
0.486875 0.316185 1.06459 153 178 245 
0.507752 0.325247 1.05624 22 11 43 
0.476756 0.329462 1.06795 27 18 73 
-0.275968 0.31136 0.965477 121 132 150 
-0.204454 0.305898 0.909582 28 39 101 
0.280115 -0.367721 1.23185 86 65 82 
0.441983 -0.33024 1.17105 124 110 136 
-0.337534 -0.403267 1.4637 44 26 38 
-0.0732078 -0.343864 1.24985 55 29 40 
0.116746 -0.326398 1.28792 91 68 84 
0.294092 -0.304333 1.22295 128 116 138 
0.354224 -0.283397 1.1976 62 42 51 
-0.633822 -0.348493 1.55858 70 53 71 
-0.365825 -0.308714 1.46289 75 51 64 
-0.38848 -0.307901 1.47103 66 52 65 
0.0013558 -0.242396 1.21389 65 25 33 
-0.0520528 -0.235588 1.22616 45 22 28 
-0.630258 -0.288375 1.55712 65 49 60 
0.166986 -0.231377 1.26143 94 62 75 
-0.0185653 -0.214145 1.22081 137 90 106 
-0.180819 -0.211157 1.27945 131 85 98 
-0.196195 -0.210513 1.28557 131 84 100 
0.305628 -0.196802 1.20841 62 44 58 
0.40048 -0.186914 1.17155 66 44 57 
-0.201246 -0.201016 1.29404 124 74 85 
-0.14914 -0.198172 1.29667 63 31 42 
0.178984 -0.179271 1.25434 85 58 75 
-0.41117 -0.206087 1.46864 48 34 47 
0.440799 -0.141101 1.1505 63 47 58 
-0.050004 -0.15077 1.25789 46 23 31 
0.332564 -0.141114 1.19568 54 35 41 
-0.139962 -0.120941 1.28892 112 66 77 
0.326076 -0.105783 1.19402 58 45 55 
-0.372441 -0.125625 1.44803 59 41 57 
0.273914 -0.073309 1.20929 57 39 53 
-0.103618 -0.0697904 1.26959 72 36 38 
-0.53621 -0.0723839 1.497 125 106 126 
0.293544 -0.0565865 1.19941 66 43 53 
-0.619568 -0.070993 1.53492 74 65 84 
-0.257805 -0.0595521 1.3423 58 22 24 
-0.18961 -0.0545407 1.294 51 22 26 
0.0298987 -0.0451095 1.24911 63 33 41 
-0.616965 -0.041728 1.52581 63 54 73 
-0.261516 -0.0362662 1.35342 56 30 39 
-0.245295 -0.0363925 1.35024 59 29 37 
-0.114851 -0.0326549 1.25072 214 203 181 
-0.082882 -0.0210157 1.25448 189 182 156 
-0.0283551 0.0265115 1.23524 67 29 40 
-0.0120357 0.0264004 1.22591 70 39 47 
0.0550496 0.0270204 1.22763 57 26 32 
0.0880208 0.0352408 1.21798 50 21 25 
-0.294136 0.0400145 1.35767 53 27 36 
-0.239613 0.044083 1.34007 43 23 25 
-0.441035 0.0562202 1.45142 44 31 41 
-0.0368402 0.061979 1.23332 58 22 34 
-0.0272001 0.0621005 1.23039 59 26 33 
-0.0780643 0.0623762 1.22576 130 113 132 
-0.698426 0.0803454 1.54447 97 97 131 
-0.186704 0.0670299 1.28924 59 26 35 
-0.17254 0.0664093 1.28276 59 28 34 
-0.149371 0.0691502 1.27481 45 24 31 
0.053829 0.0757885 1.22963 69 29 38 
-0.297169 0.0899186 1.35885 54 23 38 
-0.521382 0.109882 1.47784 119 105 120 
-0.573103 0.114979 1.48937 19 24 43 
0.15627 0.105602 1.14685 158 104 120 
-0.370904 0.149579 1.30285 52 32 41 
-0.379666 0.154483 1.30188 110 73 80 
-0.631364 0.180911 1.51162 131 118 144 
0.308043 0.143755 1.17568 135 130 150 
0.426774 0.150511 1.13058 61 44 62 
0.382329 0.158577 1.14376 71 56 75 
0.0364276 0.161013 1.15378 62 35 50 
0.199845 0.25307 1.78868 72 41 49 
-0.191573 0.188062 1.21477 69 48 55 
0.381386 0.177211 1.14416 122 117 140 
0.283664 0.18477 1.1789 126 123 142 
0.337834 0.183411 1.15826 138 114 128 
0.345247 0.190431 1.15476 138 128 153 
0.404185 0.187106 1.13356 128 115 135 
0.417278 0.187185 1.12785 127 113 130 
-0.561004 0.246407 1.47808 53 47 61 
0.319603 0.1946 1.16521 127 123 146 
-0.703758 0.255769 1.5275 72 83 111 
0.410204 0.213407 1.13018 63 50 67 
0.284149 0.225697 1.17612 109 107 131 
0.363737 0.221076 1.1473 61 48 65 
0.465913 0.213909 1.10795 64 50 65 
0.282312 0.235427 1.17461 121 117 142 
-0.705729 0.315718 1.51906 143 163 198 
-0.014467 0.200898 0.943771 88 55 74 
0.279315 0.260154 1.17571 40 25 32 
0.346736 0.262913 1.1467 51 35 46 
0.319048 0.266594 1.15894 55 45 56 
-0.31242 0.235724 1.00178 74 36 49 
0.359429 0.268809 1.14337 110 100 125 
0.306264 0.275364 1.16272 61 45 55 
0.377497 0.269365 1.13535 105 101 126 
0.191603 0.257672 1.0817 55 29 38 
0.462906 0.264196 1.10416 56 34 47 
-0.26736 0.235223 0.983253 65 43 56 
0.445734 0.274636 1.10953 140 130 154 
-6.2458e-05 0.238132 0.948045 78 40 61 
0.101356 0.28997 1.10056 146 101 121 
0.370887 0.300746 1.11285 66 57 76 
0.0217019 -0.345579 1.24647 147 96 111 
-0.096466 -0.341526 1.25995 133 80 96 
-0.150166 -0.33877 1.27616 135 81 94 
-0.690363 -0.393266 1.59194 76 63 93 
0.45349 -0.282964 1.16317 66 48 64 
0.320091 -0.272687 1.20858 126 109 127 
0.277292 -0.264748 1.22387 81 60 69 
0.203272 -0.259076 1.25024 88 68 80 
0.0331113 -0.23976 1.23272 39 19 21 
0.0136171 -0.239757 1.24428 36 18 18 
-0.58141 -0.281361 1.53797 148 134 147 
-0.218902 -0.227096 1.29472 31 14 20 
-0.038173 -0.205106 1.23249 122 68 82 
-0.573818 -0.2511 1.53042 36 28 43 
-0.17306 -0.202878 1.28188 127 76 91 
-0.586663 -0.236224 1.54243 54 37 53 
0.153299 -0.179958 1.26584 65 45 56 
-0.0975663 -0.152236 1.27576 51 21 23 
-0.0505031 -0.113599 1.25797 30 12 12 
0.160739 -0.0931014 1.24664 73 47 60 
-0.0975367 -0.0624633 1.26647 160 145 124 
0.274587 -0.0583885 1.20686 62 52 61 
-0.0313612 -0.0587694 1.23505 67 28 31 
-0.111543 -0.0510681 1.26004 206 198 175 
0.177342 -0.039592 1.13565 140 86 102 
-0.11746 -0.0419922 1.25511 195 179 154 
0.296122 -0.031015 1.19308 75 53 56 
0.42946 -0.012175 1.14304 87 66 73 
0.26395 -0.00679484 1.20383 81 61 72 
0.250772 -0.00637766 1.21018 60 46 59 
0.285907 -0.0053374 1.19394 63 43 45 
-0.0853169 0.0195209 1.26417 190 180 153 
-0.16099 0.0290702 1.28193 55 28 37 
-0.515717 0.0381184 1.48885 63 50 60 
0.0342856 0.0733102 1.23429 61 28 39 
-0.698893 0.0993024 1.54704 103 88 111 
-0.173383 0.0889124 1.28065 60 35 41 
0.326708 0.106031 1.17299 38 33 40 
-0.234601 0.131188 1.27385 100 58 70 
0.151135 0.121125 1.13706 87 57 59 
-0.405227 0.152917 1.31754 37 35 38 
-0.0247268 0.143178 1.17629 136 88 110 
0.322024 0.147096 1.2042 68 46 48 
0.128067 0.139178 1.1204 60 48 50 
0.293399 0.165477 1.17677 142 125 144 
-0.695833 0.241385 1.53107 71 61 88 
0.309498 0.183828 1.16689 68 50 62 
-0.302391 0.201238 1.25532 84 52 57 
0.4339 0.180849 1.12143 61 44 54 
0.0201642 0.204116 0.961306 81 52 70 
0.307856 0.260974 1.16052 72 55 63 
0.0933138 0.28669 1.10778 66 44 56 
0.262676 0.304439 1.15319 56 54 68 
0.111517 0.314828 1.09294 45 41 42 
0.5032 0.30956 1.06026 164 183 252 
-0.0586993 0.27792 0.903095 82 50 63 
0.465779 0.310702 1.07326 151 172 239 
0.0182491 -0.32763 1.21035 39 20 22 
-0.157097 -0.23555 1.28096 36 14 16 
-0.098431 -0.202161 1.25563 135 86 105 
-0.0847836 -0.0985457 1.27234 30 16 15 
0.216311 -0.0954758 1.23153 88 57 72 
-0.0243808 -0.0501441 1.23823 52 27 33 
-0.18377 -0.0460294 1.29945 53 32 39 
-0.39669 -0.0451864 1.37661 67 25 26 
-0.380634 -0.0303544 1.34712 146 89 108 
-0.0732839 0.0192477 1.27722 44 19 22 
-0.117106 0.0352947 1.20146 184 176 187 
0.441456 0.0430412 1.13663 134 125 146 
-0.482968 0.0688152 1.46934 48 41 49 
0.384683 0.103562 1.14568 61 44 52 
-0.364017 0.132353 1.31667 73 48 51 
-0.572449 0.152213 1.49965 151 169 235 
0.0260163 0.124894 1.20154 73 50 60 
0.1377 0.119417 1.13981 77 51 60 
0.328818 0.192341 1.16007 137 121 147 
0.388792 0.270596 1.13798 56 50 60 
-0.075836 0.27664 0.898307 84 45 50 
-0.099716 -0.187744 1.27878 64 29 27 
-0.216498 -0.113306 1.33069 58 26 27 
-0.0996533 -0.088186 1.26707 135 115 90 
-0.0887136 0.0166177 1.27376 160 143 117 
-0.140596 0.0560763 1.2513 125 114 118 
-0.0685454 0.191167 1.17148 53 42 48 
0.0693345 0.0372495 1.23096 79 31 27 
0.0227362 -0.231513 1.23839 40 20 19 
0.055605 -0.221612 1.22861 136 83 103 
0.0984892 0.194416 1.08587 55 37 35 
-0.42903 -0.239393 1.48151 51 43 54 
-0.371745 -0.211497 1.45939 45 33 55 
-0.39523 -0.205997 1.46537 42 23 43 
-0.391242 -0.178066 1.46065 59 41 55 
-0.433834 -0.125211 1.47208 59 38 55 
-0.355601 -0.0830849 1.43982 60 43 61 
-0.172702 -0.0552698 1.28974 52 23 28 
-0.207346 0.0237028 1.08549 52 19 26 
0.288392 0.0215393 1.19251 78 60 72 
-0.601895 0.0726925 1.51426 63 55 78 
-0.261694 0.0731863 1.34579 58 28 38 
-0.245304 0.0728999 1.3409 53 21 26 
-0.234574 0.0853143 1.33423 57 28 33 
-0.369965 0.0906946 1.35191 67 32 38 
-0.562942 0.138217 1.50072 14 25 70 
-0.549741 0.181435 1.48268 47 35 49 
-0.145458 0.232725 0.941517 81 44 61 
-0.270655 0.254757 0.985157 86 45 59 
-0.0857129 0.251159 0.918263 78 46 61 
0.159398 -0.304337 1.27137 104 72 87 
0.229492 -0.265129 1.24076 97 71 84 
-0.439991 -0.239086 1.48412 72 50 62 
-0.426549 -0.210341 1.4775 67 54 71 
-0.516568 -0.153721 1.50273 122 112 136 
-0.447625 -0.0454924 1.46745 113 89 103 
-0.521036 -0.0370444 1.49472 40 34 46 
-0.497568 -0.0338545 1.48619 59 47 61 
0.0315786 0.0528988 1.54689 68 35 42 
0.321771 0.0589835 1.17713 56 42 59 
0.479294 0.147795 1.10774 64 43 52 
-0.0612896 0.163329 1.18737 79 40 58 
-0.145468 0.22272 0.942511 76 43 60 
-0.51411 0.335905 1.43199 37 36 42 
-0.226356 0.234709 0.970033 73 41 54 
-0.207066 0.238893 0.963069 96 45 62 
-0.253459 0.254293 0.978578 77 41 55 
0.216391 -0.302144 1.24929 101 77 90 
0.446988 -0.235808 1.15812 60 51 70 
-0.445266 -0.0760818 1.47233 123 102 121 
0.406869 -0.060221 1.1569 72 47 53 
0.33935 -0.0567401 1.18198 62 41 48 
-0.0267208 -0.0119373 1.23606 65 38 47 
0.0106149 0.135914 1.16545 68 51 61 
-0.0889473 0.144695 1.19948 85 58 75 
-0.176945 -0.189585 1.27672 143 88 107 
-0.0427788 -0.111913 1.24845 125 69 80 
-0.563431 0.129174 1.48993 166 183 253 
-0.0575138 -0.235788 1.23516 38 23 26 
