ply                 
format ascii 1.0    
element vertex 709
property float x    
property float y    
property float z    
property uchar red  
property uchar green
property uchar blue 
end_header          
0.281061 -0.331946 1.23061 71 51 63 
-0.353775 -0.256806 1.45558 61 41 50 
-0.465662 -0.255379 1.49378 47 34 51 
0.323423 -0.183319 1.19982 50 31 50 
-0.126781 -0.191548 1.2872 58 27 35 
0.207408 -0.172229 1.24103 87 68 88 
-0.0731282 -0.151374 1.26613 53 24 29 
-0.40661 -0.164743 1.46362 51 39 53 
-0.595492 -0.158339 1.53041 45 41 58 
0.273434 -0.0972799 1.21124 52 36 47 
-0.114869 -0.0922777 1.27565 127 108 91 
-0.456206 -0.0766083 1.47333 118 101 120 
0.0662279 -0.0461701 1.23566 62 32 40 
-0.530779 -0.0358914 1.49894 47 39 60 
0.0808873 -0.0242246 1.22759 60 27 38 
-0.245712 -0.0148172 1.34803 54 26 40 
-0.261957 -0.0140533 1.35308 55 25 35 
-0.277649 -0.0139223 1.36067 50 23 30 
-0.160937 -0.00833697 1.11729 53 22 30 
-0.0135248 0.00717898 1.22987 58 25 32 
-0.0476437 0.0291059 1.47917 63 23 32 
-0.199203 0.0283824 1.29654 58 20 31 
0.112716 0.0286553 1.21181 53 23 31 
-0.112179 0.0475626 1.21467 175 172 167 
-0.0129856 0.0610485 1.22516 51 20 26 
-0.162915 0.0656127 1.28048 57 21 33 
-0.00842001 0.0629264 1.22364 132 79 89 
-0.120657 0.0650663 1.23921 105 90 67 
0.172271 0.0767088 1.15666 60 29 37 
0.185858 0.0764504 1.15273 54 28 39 
-0.0265889 0.0824398 1.22824 62 22 31 
-0.186437 0.0874806 1.28693 59 21 32 
-0.550729 0.121377 1.48595 159 179 248 
0.349943 0.105829 1.16067 59 46 63 
-0.121768 0.136712 1.21199 128 139 184 
-0.105802 0.136602 1.20604 126 142 193 
-0.301053 0.147691 1.27621 53 26 31 
-0.0155339 0.13979 1.1736 58 34 47 
0.0719077 0.13746 1.14121 72 36 48 
0.143376 0.135667 1.11603 48 27 32 
-0.328467 0.170766 1.28306 57 30 35 
0.0186902 0.157782 1.1585 56 29 36 
0.0894583 0.159826 1.134 84 40 55 
0.0992116 0.15921 1.12928 68 33 39 
-0.266734 0.225524 0.98649 69 38 53 
-0.257064 0.235175 0.981836 68 37 52 
-0.0857978 0.235596 0.919717 97 46 63 
0.443646 -0.382537 1.17418 60 43 61 
0.386164 -0.379538 1.19587 57 39 61 
0.404071 -0.333359 1.18291 60 52 67 
0.387072 -0.329278 1.18855 46 38 53 
0.362133 -0.331526 1.20006 43 40 51 
0.358409 -0.265161 1.19435 55 41 56 
0.276263 -0.2383 1.2212 63 50 60 
-0.0275887 -0.230988 1.22183 51 24 31 
-0.383202 -0.259567 1.46772 60 44 55 
-0.353916 -0.25725 1.45507 60 43 53 
-0.0911473 -0.160316 1.29511 52 21 27 
0.419862 -0.140636 1.16058 55 38 44 
-0.0757185 -0.146094 1.26704 110 61 65 
-0.147182 -0.148309 1.29097 65 35 45 
0.207838 -0.140401 1.23858 68 54 71 
-0.421036 -0.164439 1.47176 62 44 58 
-0.0597962 -0.140365 1.25993 51 22 27 
-0.540399 -0.157587 1.51061 42 33 52 
0.356411 -0.100583 1.18011 59 46 55 
0.273479 -0.0971458 1.21129 54 41 51 
-0.486998 -0.118334 1.4896 127 108 128 
0.382479 -0.0615947 1.16651 61 43 57 
0.446836 -0.0591005 1.14495 35 29 39 
0.432713 -0.0578629 1.14903 49 39 48 
0.353367 -0.0561185 1.17951 61 40 47 
-0.0392491 -0.0490868 1.24434 62 29 36 
-0.53062 -0.0360225 1.49871 47 39 60 
0.0977077 -0.0245738 1.2225 56 33 43 
0.0579183 -0.0237351 1.23617 57 30 39 
0.0650591 -0.023397 1.23375 55 32 40 
0.104746 -0.0195297 1.21911 54 27 36 
-0.569479 -0.0135076 1.50632 65 52 70 
0.376574 -0.00885504 1.16471 64 41 47 
-0.162751 -0.0102696 1.2871 56 29 38 
-0.160667 0.0102522 1.1154 59 27 38 
-0.0392539 0.0249988 1.23787 65 29 39 
-0.457924 0.0352444 1.46755 35 22 31 
0.392238 0.0367209 1.15229 52 36 46 
0.449984 0.0381947 1.12993 142 125 141 
0.419986 0.0424829 1.14021 86 58 70 
0.0612326 0.0587345 1.22839 62 29 36 
0.298063 0.0696083 1.18578 68 52 65 
0.117535 0.0780287 1.20661 61 31 41 
-0.0265344 0.082923 1.22806 60 27 34 
-0.551774 0.121386 1.48687 161 180 249 
0.349987 0.105755 1.1607 59 46 63 
-0.548392 0.138312 1.48382 92 95 136 
0.34346 0.112808 1.15809 22 62 175 
-0.118084 0.133531 1.21085 52 55 100 
-0.121301 0.136894 1.21176 128 141 186 
0.0285335 0.13579 1.1591 57 42 47 
-0.123519 0.14237 1.21254 74 42 55 
-0.104209 0.141506 1.20597 75 39 53 
-0.0150551 0.139775 1.17346 58 34 47 
-0.0503197 0.143201 1.18593 60 44 54 
0.0723288 0.137531 1.14096 74 44 54 
0.0886932 0.139839 1.13545 74 49 55 
0.0576392 0.142223 1.14663 58 39 45 
0.0624372 0.142778 1.14438 134 86 98 
0.151466 0.140269 1.1115 133 86 104 
-0.0872269 0.164167 1.1979 79 45 61 
0.00173596 0.161353 1.16584 75 41 57 
0.179559 0.15695 1.10137 81 45 57 
0.464645 0.182243 1.11325 66 50 63 
-0.266808 0.225522 0.986426 69 38 53 
0.408242 0.272379 1.1241 131 111 122 
-0.144717 0.247438 0.940385 90 44 55 
0.386505 -0.379554 1.196 53 38 57 
0.386632 -0.328779 1.18641 46 40 54 
0.464346 -0.281766 1.15663 52 38 53 
0.170675 -0.305856 1.26744 87 60 67 
0.375927 -0.278733 1.18849 69 59 70 
0.38546 -0.234209 1.17995 52 41 55 
0.406459 -0.232908 1.17332 54 42 54 
-0.0442819 -0.227961 1.22801 132 79 95 
0.278435 -0.182003 1.21695 61 45 55 
0.213544 -0.177629 1.23748 74 54 66 
-0.0827849 -0.149327 1.27029 46 18 17 
0.356814 -0.100657 1.1804 59 46 55 
0.44575 -0.0587843 1.14302 35 27 38 
0.313558 -0.0589579 1.19386 53 36 42 
0.104161 -0.0190096 1.21891 55 32 40 
-0.037854 -0.0115963 1.23967 67 37 47 
0.375912 -0.00894228 1.16442 63 40 46 
-0.0387735 0.0262102 1.23741 73 41 54 
-0.0264443 0.0841188 1.2276 66 39 48 
-0.0136396 0.0836438 1.22308 62 33 38 
0.352885 0.100124 1.15693 129 103 114 
0.427224 0.0994379 1.13089 135 111 124 
0.422607 0.103499 1.13331 75 54 63 
-0.547235 0.155551 1.48239 26 26 38 
-0.107715 0.135631 1.20627 126 142 194 
-0.0581852 0.136843 1.18967 66 40 53 
-0.308991 0.148881 1.28196 38 32 36 
-0.358091 0.152011 1.29482 63 48 51 
-0.0349223 0.140911 1.1805 50 34 45 
-0.0145291 0.139871 1.17279 61 37 50 
-0.0481142 0.143056 1.18549 58 49 54 
0.039973 0.140727 1.15307 69 50 56 
0.0263676 0.161878 1.15593 57 37 46 
0.115459 0.159464 1.12326 52 36 37 
0.394188 0.190995 1.1389 124 114 139 
0.46176 0.326237 1.07475 13 16 23 
0.359992 -0.330932 1.19943 48 37 54 
0.405871 -0.232891 1.17337 52 40 52 
0.278199 -0.234588 1.2222 72 67 74 
0.42027 -0.140241 1.16021 59 42 50 
0.287987 -0.145655 1.21122 59 49 60 
0.23906 -0.136699 1.22607 68 47 52 
0.364348 -0.0951309 1.17497 136 119 138 
0.313201 -0.0592729 1.19301 55 36 42 
-0.492273 0.0255101 1.47601 120 106 129 
-0.569377 0.122255 1.49663 158 175 247 
0.314599 0.106646 1.17771 51 38 48 
-0.555583 0.136731 1.48764 17 24 43 
0.434945 0.105303 1.12949 54 42 56 
-0.563369 0.144833 1.48778 156 173 242 
-0.109586 0.134425 1.20724 125 142 194 
-0.0590263 0.136734 1.18992 66 40 53 
0.0274143 0.136914 1.15912 56 41 48 
-0.0472331 0.143558 1.1852 62 49 56 
0.040724 0.141427 1.15248 67 47 56 
0.115898 0.161827 1.12238 76 55 60 
0.393376 0.273276 1.12904 137 122 143 
0.420651 -0.14096 1.16012 57 42 47 
-0.111729 0.135551 1.20788 125 143 193 
-0.337262 0.275855 0.994083 151 111 137 
0.462497 0.328711 1.07461 13 15 27 
-0.13516 -0.0401913 1.27642 158 136 123 
-0.105485 0.0386199 1.21564 126 116 117 
-0.0733981 0.0514317 1.22809 184 171 165 
-0.0594334 0.0533036 1.22281 105 85 84 
0.49877 0.329854 1.06729 11 28 84 
0.316748 -0.377079 1.22411 55 43 63 
0.305865 -0.373851 1.22427 83 58 77 
0.127104 -0.39071 1.29058 57 42 63 
-0.012207 -0.37236 1.2531 72 31 39 
0.184759 -0.373231 1.26967 75 54 73 
0.276178 -0.349969 1.23355 71 52 74 
0.426918 -0.333014 1.17658 41 29 49 
-0.260194 -0.400311 1.42926 126 111 132 
0.371731 -0.331655 1.19637 54 35 54 
0.146687 -0.35337 1.27909 91 59 80 
0.447495 -0.320096 1.16665 63 48 71 
-0.320604 -0.389796 1.4543 73 58 81 
-0.471484 -0.400009 1.51031 49 34 41 
0.154018 -0.332091 1.27657 74 60 75 
0.497796 -0.292695 1.14333 149 122 141 
0.145164 -0.324079 1.2788 61 46 65 
0.329436 -0.281208 1.20735 39 25 40 
0.109676 -0.297379 1.28756 75 51 67 
-0.605167 -0.351058 1.55361 65 48 67 
-0.58509 -0.346672 1.5447 140 121 141 
0.330471 -0.266916 1.20579 69 45 61 
0.171272 -0.276702 1.26413 67 46 63 
-0.334196 -0.311976 1.45236 55 38 46 
0.178805 -0.268481 1.25857 74 56 78 
0.299789 -0.236589 1.2126 61 41 53 
0.0837337 -0.226264 1.19486 59 20 25 
-0.562611 -0.287547 1.53181 58 42 52 
-0.165688 -0.234583 1.27478 53 23 35 
-0.201536 -0.229775 1.29035 46 23 31 
-0.189711 -0.227998 1.28084 60 30 38 
-0.403341 -0.256657 1.47227 52 39 49 
-0.0338994 -0.213367 1.22447 134 90 105 
-0.00487091 -0.210527 1.22622 58 19 24 
-0.481262 -0.256757 1.5017 50 37 57 
-0.290518 -0.221295 1.32515 140 87 97 
-0.5899 -0.248206 1.53737 66 52 67 
-0.634394 -0.250124 1.55445 68 50 66 
-0.0700321 -0.192577 1.26678 58 29 34 
-0.569373 -0.201734 1.52821 46 33 51 
-0.0894586 -0.157194 1.27284 52 21 27 
-0.106686 -0.156635 1.2784 54 22 27 
-0.122799 -0.149918 1.28232 61 24 32 
-0.136246 -0.137845 1.28591 65 30 37 
-0.663473 -0.155772 1.55658 60 48 62 
0.0483958 -0.109975 1.24689 54 25 30 
-0.102937 -0.0975742 1.26254 44 18 27 
-0.0887733 -0.0851212 1.26963 38 17 16 
-0.119677 -0.0644816 1.27529 146 130 114 
-0.0133538 -0.0597457 1.23127 57 22 28 
-0.128071 -0.0582339 1.27731 143 125 105 
0.081453 -0.0466177 1.2305 59 28 34 
0.310055 -0.0436507 1.1909 71 52 71 
-0.0824308 -0.0460267 1.26856 206 199 173 
0.307143 -0.0339251 1.19077 138 117 132 
0.0740283 -0.0343287 1.22905 143 95 111 
-0.632972 -0.0423282 1.53384 65 53 65 
-0.0793109 -0.0291555 1.25946 214 204 177 
-0.133141 -0.0276513 1.27524 145 124 107 
-0.55875 -0.0313473 1.50494 47 34 52 
-0.695708 -0.0304264 1.55365 60 68 104 
-0.390221 -0.0258681 1.34286 152 101 116 
-0.0945979 -0.0244756 1.26925 40 17 23 
0.439148 -0.0214169 1.14187 68 49 68 
0.309314 -0.0197472 1.19054 54 39 58 
-0.10117 -0.015941 1.24633 220 210 183 
-0.00353535 -0.014513 1.22788 55 22 29 
-0.0868252 -0.0113994 1.24858 177 163 137 
-0.172614 -0.0103065 1.28937 54 21 28 
-0.196361 -0.00924541 1.29682 57 26 34 
0.388374 -0.000486721 1.157 45 32 52 
0.0794986 0.000944715 1.22272 84 41 50 
0.0294996 0.00135194 1.24569 62 27 34 
-0.0820126 0.00403024 1.26908 107 88 71 
-0.0270338 0.00739633 1.23387 62 26 30 
-0.0960971 0.0105597 1.26802 81 53 41 
-0.186572 0.0113239 1.29266 57 24 33 
-0.172943 0.0114551 1.28742 52 21 27 
-0.258874 0.0245995 1.33065 79 32 42 
-0.10384 0.025957 1.22417 195 188 178 
0.0917035 0.0259695 1.21783 50 19 25 
-0.188186 0.0301383 1.29368 65 31 45 
-0.120504 0.0317972 1.23176 92 82 81 
-0.112493 0.0311829 1.22435 203 199 190 
-0.0931184 0.0348019 1.22416 120 104 104 
0.0304027 0.0359803 1.24183 57 24 31 
0.334535 0.0371713 1.17555 68 49 68 
0.324744 0.0394906 1.17771 67 50 66 
0.374658 0.0393386 1.16006 125 112 129 
0.158033 0.0446673 1.19497 51 20 26 
-0.100537 0.0475469 1.21602 43 28 21 
-0.337769 0.0585708 1.37356 54 21 30 
-0.0937657 0.0547784 1.21787 39 21 19 
-0.117302 0.0559485 1.21678 131 116 93 
0.082233 0.0627955 1.22179 61 24 31 
-0.0504995 0.0652042 1.23326 130 116 116 
0.13533 0.0771602 1.20072 57 26 34 
0.168812 0.0868441 1.16001 143 95 111 
-0.552695 0.113016 1.4903 19 26 45 
-0.550411 0.132597 1.44477 26 26 54 
-0.57272 0.143511 1.49032 18 26 72 
-0.578994 0.153128 1.49142 22 24 47 
-0.568583 0.156508 1.48932 147 158 214 
-0.427219 0.150845 1.3215 38 27 35 
0.194669 0.130227 1.09738 44 24 33 
0.346612 0.138177 1.15461 82 121 212 
0.161437 0.135215 1.10864 57 30 37 
-0.315255 0.166276 1.28157 60 28 39 
0.288457 0.15385 1.18051 53 39 54 
-0.247708 0.164503 1.25384 77 36 50 
-0.0485007 0.159193 1.18481 69 41 53 
0.0602078 0.245753 1.80542 65 31 45 
0.27669 0.161214 1.1829 43 27 40 
0.128329 0.154495 1.11949 65 33 44 
0.193454 0.152717 1.09613 63 32 38 
-0.673431 0.247908 1.51801 42 34 55 
-0.678806 0.281451 1.5179 42 35 53 
0.314559 0.220127 1.1662 78 61 80 
-0.707582 0.293288 1.52429 76 87 119 
-0.668001 0.324142 1.49827 82 70 94 
0.124746 0.248702 1.10738 42 21 26 
-0.70943 0.345921 1.49842 23 30 48 
0.294159 0.272732 1.16876 39 35 50 
-0.0851654 0.217093 0.921309 79 37 49 
0.474819 0.259494 1.09922 65 47 63 
-0.0107508 0.223897 0.944836 102 48 64 
0.143273 0.269359 1.09889 60 35 41 
0.153406 0.268758 1.09621 80 33 49 
0.422809 0.27393 1.11746 74 57 73 
0.317187 0.283338 1.15457 68 61 69 
-0.0276102 0.231099 0.935647 100 49 66 
-0.316851 0.255775 1.00267 73 42 60 
-0.0138161 0.254189 0.940067 90 51 72 
-0.0235677 0.253987 0.935774 81 44 61 
0.463502 0.30126 1.0771 20 18 31 
0.502357 0.298954 1.06005 17 18 38 
0.473895 0.304907 1.07012 19 20 76 
0.493941 0.304017 1.06679 17 30 72 
0.472552 0.310221 1.04532 159 174 243 
0.486287 0.31588 1.0641 153 178 245 
0.50749 0.325132 1.05637 22 11 43 
0.476495 0.329337 1.06807 27 18 73 
-0.275906 0.311187 0.965446 121 132 150 
-0.204422 0.305759 0.909618 28 39 101 
0.279889 -0.367431 1.23171 86 65 82 
0.441678 -0.329989 1.17101 124 110 136 
-0.337265 -0.402874 1.46306 44 26 38 
-0.0731836 -0.343631 1.24965 55 29 40 
0.116614 -0.326128 1.28768 91 68 84 
0.293855 -0.304093 1.22283 128 116 138 
0.353959 -0.283177 1.19752 62 42 51 
-0.633187 -0.348124 1.55765 70 53 71 
-0.365533 -0.308416 1.46223 75 51 64 
-0.388162 -0.307602 1.47035 66 52 65 
0.00132472 -0.242241 1.21374 65 25 33 
-0.052051 -0.235439 1.22599 45 22 28 
-0.629626 -0.288073 1.55616 65 49 60 
0.166816 -0.231188 1.26123 94 62 75 
-0.0185876 -0.214009 1.22065 137 90 106 
-0.180731 -0.211016 1.27916 131 85 98 
-0.196095 -0.210372 1.28526 131 84 100 
0.305383 -0.196644 1.20831 62 44 58 
0.400195 -0.186765 1.1715 66 44 57 
-0.201143 -0.200879 1.29372 124 74 85 
-0.149077 -0.198031 1.29636 63 31 42 
0.17879 -0.179182 1.25411 85 58 75 
-0.410834 -0.205894 1.46792 48 34 47 
0.440503 -0.140984 1.15049 63 47 58 
-0.050018 -0.150668 1.25765 46 23 31 
0.332304 -0.140996 1.1956 54 35 41 
-0.139914 -0.120861 1.2886 112 66 77 
0.325819 -0.10569 1.19394 58 45 55 
-0.372157 -0.125518 1.44734 59 41 57 
0.27368 -0.0732407 1.20917 57 39 53 
-0.103602 -0.0697513 1.26931 72 36 38 
-0.535726 -0.072338 1.49613 125 106 126 
0.293301 -0.0565296 1.19931 66 43 53 
-0.618959 -0.0709488 1.53393 74 65 84 
-0.257661 -0.0595226 1.34184 58 22 24 
-0.189529 -0.0545175 1.29365 51 22 26 
0.0298167 -0.0450793 1.24889 63 33 41 
-0.616365 -0.0417201 1.52483 63 54 73 
-0.261369 -0.036256 1.35294 56 30 39 
-0.245163 -0.0363811 1.34977 59 29 37 
-0.114829 -0.0326483 1.25046 214 203 181 
-0.0828848 -0.0210141 1.25422 189 182 156 
-0.0283994 0.0264815 1.23501 67 29 40 
-0.0120894 0.0263717 1.22571 70 39 47 
0.0549484 0.026998 1.22744 57 26 32 
0.0878993 0.0352155 1.21781 50 21 25 
-0.293964 0.0399513 1.35715 53 27 36 
-0.239494 0.0440212 1.3396 43 23 25 
-0.440684 0.0561269 1.45064 44 31 41 
-0.0368819 0.0619222 1.23309 58 22 34 
-0.027248 0.0620445 1.23017 59 26 33 
-0.0780758 0.0623148 1.22553 130 113 132 
-0.697701 0.0801941 1.54335 97 97 131 
-0.186637 0.0669532 1.28887 59 26 35 
-0.172484 0.0663347 1.28241 59 28 34 
-0.149333 0.0690759 1.27448 45 24 31 
0.0537227 0.0757309 1.22943 69 29 38 
-0.296997 0.0898077 1.35831 54 23 38 
-0.520927 0.109718 1.47695 119 105 120 
-0.572579 0.114802 1.48843 19 24 43 
0.156129 0.105539 1.14679 158 104 120 
-0.370685 0.14941 1.30237 52 32 41 
-0.379439 0.154308 1.30141 110 73 80 
-0.63075 0.180641 1.51057 131 118 144 
0.30779 0.143681 1.17561 135 130 150 
0.426487 0.15045 1.1306 61 44 62 
0.382055 0.158506 1.14376 71 56 75 
0.0363474 0.160903 1.15368 62 35 50 
0.199306 0.252729 1.78713 72 41 49 
-0.191516 0.187897 1.2145 69 48 55 
0.381111 0.177129 1.14415 122 117 140 
0.28342 0.184667 1.17882 126 123 142 
0.337572 0.183318 1.15823 138 114 128 
0.344984 0.190335 1.15473 138 128 153 
0.403905 0.187023 1.13357 128 115 135 
0.416997 0.187104 1.12787 127 113 130 
-0.560501 0.246072 1.47712 53 47 61 
0.319346 0.194497 1.16516 127 123 146 
-0.703031 0.255386 1.52635 72 83 111 
0.409922 0.21331 1.1302 63 50 67 
0.283903 0.225569 1.17604 109 107 131 
0.363466 0.220966 1.14729 61 48 65 
0.465622 0.213823 1.10801 64 50 65 
0.282067 0.235292 1.17453 121 117 142 
-0.705003 0.315255 1.51789 143 163 198 
-0.0144747 0.200804 0.943861 88 55 74 
0.279069 0.260004 1.17563 40 25 32 
0.346472 0.262778 1.14669 51 35 46 
0.318791 0.266449 1.1589 55 45 56 
-0.312332 0.235567 1.00172 74 36 49 
0.359161 0.268673 1.14336 110 100 125 
0.305931 0.275117 1.16243 61 45 55 
0.377226 0.269233 1.13535 105 101 126 
0.191463 0.257543 1.08172 55 29 38 
0.462618 0.264086 1.10423 56 34 47 
-0.267293 0.235077 0.983226 65 43 56 
0.445449 0.274517 1.10959 140 130 154 
-7.88164e-05 0.238027 0.948133 78 40 61 
0.101246 0.289808 1.10053 146 101 121 
0.370635 0.300605 1.11288 66 57 76 
0.0216592 -0.345333 1.24629 147 96 111 
-0.0964266 -0.341292 1.25974 133 80 96 
-0.150089 -0.338534 1.27591 135 81 94 
-0.689637 -0.392831 1.59093 76 63 93 
0.453181 -0.282748 1.16314 66 48 64 
0.319842 -0.272474 1.20847 126 109 127 
0.277063 -0.264539 1.22374 81 60 69 
0.203083 -0.258867 1.25006 88 68 80 
0.0330529 -0.239594 1.23255 39 19 21 
0.0135694 -0.239588 1.24408 36 18 18 
-0.580848 -0.281072 1.53707 148 134 147 
-0.218782 -0.22694 1.2944 31 14 20 
-0.0381851 -0.204973 1.2323 122 68 82 
-0.57327 -0.250847 1.52953 36 28 43 
-0.172979 -0.202741 1.28159 127 76 91 
-0.586092 -0.235983 1.5415 54 37 53 
0.153132 -0.179808 1.26563 65 45 56 
-0.0975469 -0.152131 1.27548 51 21 23 
-0.0505207 -0.113524 1.25772 30 12 12 
0.160566 -0.0930225 1.24645 73 47 60 
-0.0975256 -0.0624297 1.26619 160 145 124 
0.274352 -0.0583309 1.20675 62 52 61 
-0.0313942 -0.0587379 1.23484 67 28 31 
-0.111522 -0.0510458 1.25977 206 198 175 
0.17721 -0.0395685 1.13561 140 86 102 
-0.117435 -0.0419782 1.25484 195 179 154 
0.295879 -0.030976 1.19299 75 53 56 
0.42917 -0.0121407 1.14305 87 66 73 
0.263719 -0.00677427 1.20372 81 61 72 
0.250547 -0.00635805 1.21005 60 46 59 
0.285669 -0.00531661 1.19384 63 43 45 
-0.0853232 0.0194921 1.26389 190 180 153 
-0.16094 0.0290272 1.28159 55 28 37 
-0.515262 0.0380386 1.48797 63 50 60 
0.0341919 0.0732522 1.23408 61 28 39 
-0.698165 0.0991262 1.54591 103 88 111 
-0.173328 0.0888192 1.2803 60 35 41 
0.326448 0.105983 1.17293 38 33 40 
-0.234501 0.131054 1.27348 100 58 70 
0.151 0.121053 1.13701 87 57 59 
-0.404972 0.152739 1.31703 37 35 38 
-0.0247738 0.14307 1.17614 136 88 110 
0.321741 0.147017 1.20409 68 46 48 
0.127951 0.139095 1.12037 60 48 50 
0.293152 0.165388 1.17669 142 125 144 
-0.695114 0.241022 1.52992 71 61 88 
0.309247 0.183731 1.16684 68 50 62 
-0.302246 0.201041 1.25494 84 52 57 
0.433615 0.180774 1.12147 61 44 54 
0.0201424 0.204022 0.961393 81 52 70 
0.307604 0.260831 1.16048 72 55 63 
0.0932054 0.286526 1.10774 66 44 56 
0.262451 0.304267 1.15314 56 54 68 
0.111403 0.314656 1.09292 45 41 42 
0.502936 0.309449 1.06039 164 183 252 
-0.0586971 0.277812 0.903189 82 50 63 
0.465519 0.310582 1.07336 151 172 239 
0.0182168 -0.327419 1.21022 39 20 22 
-0.157025 -0.235387 1.28068 36 14 16 
-0.098404 -0.202028 1.2554 135 86 105 
-0.084779 -0.098482 1.27206 30 16 15 
0.216106 -0.0953929 1.23137 88 57 72 
-0.0244203 -0.0501175 1.23802 52 27 33 
-0.183694 -0.0460117 1.29909 53 32 39 
-0.396411 -0.0451777 1.37605 67 25 26 
-0.380381 -0.0303623 1.34661 146 89 108 
-0.073301 0.0192212 1.27692 44 19 22 
-0.117086 0.035248 1.20127 184 176 187 
0.441161 0.0430436 1.13664 134 125 146 
-0.482562 0.0687032 1.4685 48 41 49 
0.38441 0.103523 1.14567 61 44 52 
-0.363798 0.132198 1.31618 73 48 51 
-0.571919 0.151988 1.49867 151 169 235 
0.0259324 0.1248 1.20137 73 50 60 
0.137572 0.119344 1.13975 77 51 60 
0.32856 0.192242 1.16003 137 121 147 
0.388512 0.270464 1.13799 56 50 60 
-0.0758294 0.276532 0.898399 84 45 50 
-0.0996916 -0.187612 1.27851 64 29 27 
-0.216387 -0.113228 1.33028 58 26 27 
-0.099638 -0.088133 1.2668 135 115 90 
-0.088718 0.0165915 1.27346 160 143 117 
-0.140563 0.0560132 1.25101 125 114 118 
-0.0685693 0.191023 1.17132 53 42 48 
0.069221 0.0372214 1.23076 79 31 27 
0.0226827 -0.231352 1.23821 40 20 19 
0.0555301 -0.221458 1.22844 136 83 103 
0.0983964 0.194306 1.08587 55 37 35 
-0.428764 -0.23929 1.48151 51 43 54 
-0.371513 -0.211403 1.45937 45 33 55 
-0.394986 -0.20591 1.46536 42 23 43 
-0.391003 -0.177994 1.46064 59 41 55 
-0.433577 -0.125173 1.47209 59 38 55 
-0.355392 -0.0830635 1.43982 60 43 61 
-0.17261 -0.055258 1.2898 52 23 28 
-0.207263 0.0236709 1.08573 52 19 26 
0.288168 0.0215448 1.19245 78 60 72 
-0.601573 0.0726093 1.51431 63 55 78 
-0.261563 0.0731267 1.34584 58 28 38 
-0.245189 0.0728587 1.34094 53 21 26 
-0.234459 0.0852499 1.33427 57 28 33 
-0.369789 0.0906223 1.35201 67 32 38 
-0.562642 0.1381 1.50076 14 25 70 
-0.549458 0.181297 1.48273 47 35 49 
-0.145409 0.23268 0.941789 81 44 61 
-0.270598 0.254708 0.985461 86 45 59 
-0.0856717 0.251114 0.918522 78 46 61 
0.159273 -0.304117 1.27126 104 72 87 
0.229313 -0.264929 1.24066 97 71 84 
-0.439719 -0.238985 1.48412 72 50 62 
-0.426287 -0.210254 1.4775 67 54 71 
-0.516265 -0.153677 1.50276 122 112 136 
-0.447369 -0.0455006 1.46746 113 89 103 
-0.520742 -0.0370633 1.49475 40 34 46 
-0.497286 -0.0338731 1.48621 59 47 61 
0.0314754 0.0528596 1.54645 68 35 42 
0.321523 0.0589664 1.17708 56 42 59 
0.478937 0.14773 1.10771 64 43 52 
-0.0612421 0.163238 1.18749 79 40 58 
-0.14538 0.222705 0.942783 76 43 60 
-0.513873 0.335695 1.43207 37 36 42 
-0.2263 0.234662 0.970324 73 41 54 
-0.207012 0.238846 0.963355 96 45 62 
-0.253403 0.254244 0.978877 77 41 55 
0.216222 -0.301918 1.24919 101 77 90 
0.446633 -0.235606 1.15802 60 51 70 
-0.445007 -0.0760725 1.47234 123 102 121 
0.406554 -0.0601513 1.15682 72 47 53 
0.339086 -0.0566779 1.18191 62 41 48 
-0.0267133 -0.0119365 1.2361 65 38 47 
0.0106009 0.135846 1.16555 68 51 61 
-0.0887754 0.144651 1.19964 85 58 75 
-0.176841 -0.189512 1.2768 143 88 107 
-0.0427555 -0.111861 1.24849 125 69 80 
-0.563137 0.129064 1.48998 166 183 253 
-0.0574711 -0.235679 1.23521 38 23 26 
0.152655 -0.36736 1.28013 69 54 75 
0.405285 -0.380286 1.18721 53 37 50 
0.457296 -0.333447 1.16396 46 29 47 
-0.102259 -0.146502 1.23861 113 68 75 
-0.624877 -0.157105 1.54218 77 63 76 
-0.0564538 -0.122492 1.25718 104 65 70 
-0.0905828 -0.014774 1.25948 93 69 59 
-0.113284 0.0240843 1.25279 187 184 193 
-0.0181765 0.171405 1.43581 61 37 50 
0.0247059 -0.235903 1.24849 36 18 18 
0.48428 0.306518 1.06797 16 24 35 
-0.127141 -0.340697 1.26972 82 30 52 
0.156378 -0.342624 1.2752 73 52 71 
0.212115 -0.330698 1.2575 68 49 68 
-0.301036 -0.336455 1.441 61 35 46 
-0.506107 -0.337398 1.51981 58 45 62 
-0.327388 -0.305875 1.44837 78 60 76 
-0.607957 -0.28864 1.55393 58 39 59 
-0.471563 -0.267743 1.49728 53 38 57 
-0.577504 -0.209365 1.52748 140 131 148 
-0.588305 -0.20152 1.53656 44 35 56 
-0.226529 -0.0976913 1.3466 43 20 28 
-0.000465365 -0.0505263 1.22989 56 25 33 
-0.095578 -0.0483965 1.27053 150 133 103 
-0.159975 -0.0465723 1.28818 55 24 30 
-0.198798 -0.0461588 1.30316 48 22 31 
-0.0130062 -0.0141354 1.23144 61 28 37 
-0.196234 0.0666316 1.29194 60 27 36 
-0.313956 0.0902098 1.36148 54 27 36 
-0.180796 0.131368 1.25013 91 49 59 
0.140938 0.248154 1.1029 77 31 44 
0.439115 0.267629 1.11436 45 37 48 
0.00918739 -0.325724 1.20177 112 62 71 
-0.23996 -0.324549 1.28964 65 30 37 
-0.29279 -0.361004 1.4437 61 50 58 
0.330859 -0.321017 1.20897 86 71 90 
-0.447116 -0.344127 1.49591 56 41 62 
0.387108 -0.283283 1.1874 75 57 79 
0.0916374 -0.259692 1.29061 78 47 62 
-0.263722 -0.262063 1.42306 48 34 49 
-0.33197 -0.261038 1.44788 62 49 79 
0.361975 -0.232875 1.18988 69 56 74 
-0.20971 -0.218371 1.29278 106 69 77 
-0.538484 -0.240612 1.52033 76 51 57 
-0.0129161 -0.200318 1.24443 159 102 121 
-0.0778273 -0.168823 1.36255 53 22 27 
-0.44455 -0.124884 1.47394 69 51 63 
-0.343232 -0.122673 1.4382 59 39 48 
0.438554 -0.106225 1.14617 76 58 74 
0.422686 -0.10381 1.15456 77 51 64 
-0.158692 -0.0946995 1.27044 109 68 82 
-0.0274689 -0.0323161 1.23754 67 35 46 
0.453945 -0.0100591 1.13437 71 56 63 
0.0692061 0.000524325 1.22633 99 52 62 
0.0600743 0.00547386 1.22845 88 45 55 
0.0866943 0.00631374 1.21805 95 45 54 
0.0557503 0.0150604 1.23093 67 34 45 
-0.000906248 0.0239705 1.22363 57 30 39 
-0.171708 0.030469 1.28513 69 37 48 
-0.116619 0.0373167 1.21394 196 194 199 
-0.0272855 0.0416385 1.23108 68 35 42 
-0.126541 0.0445362 1.22731 49 39 29 
-0.0839242 0.0523029 1.22046 102 87 94 
-0.13101 0.0549259 1.23607 54 37 30 
-0.18002 0.0595313 1.28511 150 93 108 
0.275929 0.070701 1.19435 64 42 54 
0.310435 0.0959897 1.17543 72 51 66 
-0.165203 0.110764 1.26032 89 39 50 
-0.0364542 0.127062 1.20171 106 60 73 
0.107449 0.131763 1.12883 63 34 39 
-0.281621 0.14689 1.27099 72 36 50 
-0.212513 0.144938 1.24357 72 40 55 
0.179311 0.137862 1.10279 69 41 53 
-0.226553 0.16358 1.24937 79 41 54 
0.299293 0.182915 1.17047 70 46 60 
0.35217 0.221807 1.15025 58 44 61 
0.00418865 0.203792 0.955102 85 47 62 
-0.269556 0.206081 0.990187 74 34 45 
-0.281658 0.207824 0.9928 67 36 51 
-0.0507334 0.201193 0.929098 81 40 54 
-0.207192 0.221254 0.965653 86 42 55 
-0.0731694 0.26851 0.907697 115 72 91 
-0.229609 0.308405 0.909687 46 32 55 
0.39559 -0.332572 1.19292 40 32 43 
-0.00612068 -0.264031 1.22915 114 66 80 
-0.206197 -0.257684 1.29734 115 69 80 
-0.29132 -0.215686 1.33602 53 21 24 
-0.464234 -0.125618 1.48782 57 46 62 
-0.0989687 -0.0257818 1.25497 48 28 19 
0.279562 0.00195178 1.19843 136 120 146 
0.0784215 0.0402375 1.21917 36 20 21 
-0.140501 0.0539518 1.26495 150 139 137 
-0.363399 0.133673 1.32648 78 54 52 
0.491375 0.180219 1.10024 64 49 56 
-0.475192 -0.305181 1.50543 88 64 77 
-0.177937 -0.231881 1.2796 73 37 41 
-0.162384 -0.217241 1.2947 36 16 15 
-0.138569 -0.184051 1.28961 70 40 50 
0.174066 -0.0233962 1.1473 66 34 39 
0.119473 0.0587463 1.20454 49 24 28 
0.446604 0.0609597 1.13024 77 61 72 
0.294052 0.11059 1.18162 126 106 131 
0.0233124 0.123795 1.19033 74 51 59 
-0.179215 0.190215 1.21205 63 48 55 
0.362535 0.256393 1.13872 130 103 118 
-0.19911 -0.186169 1.28624 138 84 100 
0.0943703 -0.183783 1.21023 67 28 29 
0.177424 -0.0608402 1.15269 88 37 36 
-0.388649 -0.0448472 1.36652 71 30 26 
0.476268 0.31984 1.07422 164 182 254 
-0.0994786 0.0254587 1.25561 201 193 190 
-0.25363 -0.297885 1.42178 48 35 55 
-0.0058299 -0.224753 1.21597 131 92 110 
-0.486128 -0.0809225 1.48639 62 46 72 
-0.216055 0.0387679 1.33153 44 19 25 
-0.51627 0.0590581 1.4836 67 56 72 
-0.498383 0.104879 1.47294 48 37 53 
-0.56526 0.135165 1.47311 26 20 58 
-0.447115 0.136037 1.45317 35 31 45 
-0.486383 0.204789 1.45976 46 35 49 
-0.529745 0.245001 1.47116 33 29 43 
-0.106329 -0.277705 1.2651 73 37 51 
0.303637 -0.311136 1.21791 65 52 62 
0.348339 -0.311926 1.20286 81 55 68 
0.230372 -0.304078 1.24512 80 56 70 
0.313139 -0.278321 1.21541 129 116 136 
-0.550543 -0.157516 1.51543 46 41 63 
0.384915 -0.141558 1.17274 70 46 62 
-0.345482 -0.0927979 1.43418 138 113 132 
-0.336283 -0.0882515 1.43214 141 114 129 
-0.541208 -0.0780419 1.50453 61 48 65 
0.188487 0.0585846 1.73052 65 34 39 
-0.356843 0.167476 1.294 60 29 34 
-0.479977 0.246673 1.45437 36 30 34 
-0.208233 0.25097 0.962526 78 44 60 
0.291584 -0.372859 1.23049 89 67 79 
-0.505507 -0.154832 1.50056 120 104 130 
-0.112946 -0.0578197 1.27038 93 51 61 
-0.572105 0.131592 1.49474 17 24 42 
-0.324471 0.144917 1.28614 70 47 53 
0.000591683 0.141857 1.16784 78 52 63 
-0.112051 -0.148035 1.28156 48 19 21 
0.357716 -0.14504 1.18343 64 60 75 
-0.151188 -0.109685 1.29591 132 76 87 
-0.185524 0.0491886 1.28943 64 39 45 
-0.156325 0.0799047 1.27217 63 27 31 
-0.366413 0.130457 1.29931 81 52 54 
0.082647 0.0373516 1.23681 83 34 30 
0.148223 -0.0637936 1.17045 148 119 139 
-0.109624 0.0606609 1.2245 38 26 30 
