ply                 
format ascii 1.0    
element vertex 893
property float x    
property float y    
property float z    
property uchar red  
property uchar green
property uchar blue 
end_header          
0.282219 -0.333014 1.23113 71 51 63 
-0.354376 -0.257565 1.45644 61 41 50 
-0.466548 -0.256112 1.49465 47 34 51 
0.324649 -0.183897 1.20018 50 31 50 
-0.126818 -0.192059 1.28751 58 27 35 
0.20832 -0.172767 1.24148 87 68 88 
-0.0731163 -0.151772 1.26644 53 24 29 
-0.407347 -0.165215 1.46444 51 39 53 
-0.596689 -0.15877 1.53124 45 41 58 
0.274501 -0.0975854 1.21158 52 36 47 
-0.114884 -0.0925228 1.2759 127 108 91 
-0.457066 -0.0768169 1.47412 118 101 120 
0.0666694 -0.0463006 1.23592 62 32 40 
-0.531826 -0.0359785 1.49974 47 39 60 
0.0813285 -0.024307 1.22793 60 27 38 
-0.246028 -0.0148504 1.34846 54 26 40 
-0.262312 -0.0140841 1.35351 55 25 35 
-0.278041 -0.0139522 1.36112 50 23 30 
-0.161123 -0.00837125 1.11685 53 22 30 
-0.0133163 0.00719751 1.23 58 25 32 
-0.0472875 0.0292536 1.48072 63 23 32 
-0.199413 0.0284606 1.29677 58 20 31 
0.113229 0.0287178 1.21205 53 23 31 
-0.112224 0.0476715 1.21462 175 172 167 
-0.0127808 0.0612103 1.22526 51 20 26 
-0.163044 0.0657888 1.28067 57 21 33 
-0.00820491 0.0630933 1.22374 132 79 89 
-0.120707 0.0652282 1.23926 105 90 67 
0.172882 0.0769072 1.15663 60 29 37 
0.186498 0.0766423 1.15269 54 28 39 
-0.0264165 0.0826584 1.22833 62 22 31 
-0.186583 0.0876804 1.28707 59 21 32 
-0.55181 0.121743 1.48666 159 179 248 
0.351135 0.106145 1.16077 59 46 63 
-0.121836 0.137034 1.21191 128 139 184 
-0.105839 0.136923 1.20595 126 142 193 
-0.30147 0.148034 1.27619 53 26 31 
-0.0154462 0.14012 1.17347 58 34 47 
0.0722015 0.137775 1.14102 72 36 48 
0.143824 0.13598 1.1158 48 27 32 
-0.328936 0.171161 1.28304 57 30 35 
0.0188942 0.158151 1.15833 56 29 36 
0.0898004 0.160199 1.13379 84 40 55 
0.0995703 0.15958 1.12906 68 33 39 
-0.267037 0.225682 0.985629 69 38 53 
-0.257362 0.235341 0.980973 68 37 52 
-0.0860059 0.235771 0.918868 97 46 63 
0.445265 -0.383779 1.17459 60 43 61 
0.387627 -0.38077 1.19633 57 39 61 
0.40556 -0.334431 1.18331 60 52 67 
0.388511 -0.330332 1.18896 46 38 53 
0.363513 -0.332594 1.2005 43 40 51 
0.359753 -0.266007 1.19474 55 41 56 
0.277364 -0.239053 1.22164 63 50 60 
-0.0274247 -0.231581 1.22196 51 24 31 
-0.383881 -0.260331 1.4686 60 44 55 
-0.354517 -0.25801 1.45593 60 43 53 
-0.091087 -0.160763 1.29549 52 21 27 
0.421337 -0.141082 1.16082 55 38 44 
-0.0756462 -0.146416 1.26732 110 61 65 
-0.147268 -0.148702 1.29125 65 35 45 
0.208745 -0.140838 1.23901 68 54 71 
-0.421812 -0.164912 1.4726 62 44 58 
-0.0597111 -0.140774 1.26023 51 22 27 
-0.541466 -0.158023 1.51144 42 33 52 
0.357696 -0.100897 1.18037 59 46 55 
0.274551 -0.0974473 1.21163 54 41 51 
-0.487938 -0.118663 1.49041 127 108 128 
0.383815 -0.0617868 1.16672 61 43 57 
0.448339 -0.0592869 1.1451 35 29 39 
0.434197 -0.058052 1.14919 49 39 48 
0.354636 -0.0562933 1.17976 61 40 47 
-0.0390939 -0.0492186 1.24452 62 29 36 
-0.531666 -0.0361099 1.49951 47 39 60 
0.0982225 -0.0246433 1.22272 56 33 43 
0.0583359 -0.0238011 1.23642 57 30 39 
0.0654501 -0.0234663 1.23398 55 32 40 
0.105241 -0.019586 1.21933 54 27 36 
-0.570611 -0.0135292 1.50709 65 52 70 
0.377895 -0.00889146 1.16488 64 41 47 
-0.162878 -0.0102941 1.28733 56 29 38 
-0.160854 0.0102502 1.11495 59 27 38 
-0.0391048 0.0250654 1.23801 65 29 39 
-0.458791 0.0353656 1.46831 35 22 31 
0.393558 0.0368292 1.1524 52 36 46 
0.451437 0.0383043 1.12998 142 125 141 
0.421366 0.0426066 1.14028 86 58 70 
0.0616163 0.0588988 1.22852 62 29 36 
0.299148 0.069821 1.18597 68 52 65 
0.118081 0.0782492 1.20674 61 31 41 
-0.026362 0.0831428 1.22816 60 27 34 
-0.552858 0.121752 1.48758 161 180 249 
0.351179 0.106071 1.1608 59 46 63 
-0.549467 0.138727 1.48452 92 95 136 
0.344621 0.113142 1.15817 22 62 175 
-0.118162 0.13387 1.21077 52 55 100 
-0.121368 0.137216 1.21168 128 141 186 
0.0287622 0.136109 1.15895 57 42 47 
-0.12359 0.142705 1.21246 74 42 55 
-0.104293 0.141837 1.20592 75 39 53 
-0.0149135 0.140103 1.17332 58 34 47 
-0.0503094 0.143555 1.18586 60 44 54 
0.0726393 0.137851 1.14077 74 44 54 
0.089036 0.140165 1.13525 74 49 55 
0.0578828 0.142558 1.14647 58 39 45 
0.0626949 0.143094 1.14427 134 86 98 
0.151927 0.140592 1.11125 133 86 104 
-0.0872281 0.164554 1.19779 79 45 61 
0.00190854 0.161732 1.16568 75 41 57 
0.180079 0.157306 1.1011 81 45 57 
0.466078 0.182772 1.11317 66 50 63 
-0.267111 0.225679 0.985564 69 38 53 
0.409507 0.273165 1.12401 131 111 122 
-0.144957 0.247622 0.93953 90 44 55 
0.38797 -0.380786 1.19646 53 38 57 
0.388064 -0.329831 1.18681 46 40 54 
0.465977 -0.282667 1.15693 52 38 53 
0.171517 -0.306829 1.26803 87 60 67 
0.377321 -0.279623 1.18888 69 59 70 
0.386861 -0.234952 1.18029 52 41 55 
0.407919 -0.233648 1.17364 54 42 54 
-0.0441545 -0.228545 1.22815 132 79 95 
0.279542 -0.182576 1.21735 61 45 55 
0.214469 -0.178183 1.23792 74 54 66 
-0.082721 -0.149729 1.27056 46 18 17 
0.358101 -0.100971 1.18066 59 46 55 
0.447263 -0.0589766 1.14315 35 27 38 
0.314728 -0.0591457 1.19414 53 36 42 
0.10469 -0.0190634 1.21912 55 32 40 
-0.0376996 -0.0116275 1.23983 67 37 47 
0.377214 -0.00897155 1.16459 63 40 46 
-0.0386236 0.02628 1.23755 73 41 54 
-0.0262721 0.0843415 1.22769 66 39 48 
-0.0134389 0.0838651 1.22316 62 33 38 
0.354076 0.100421 1.15701 129 103 114 
0.428593 0.0997287 1.13091 135 111 124 
0.423968 0.103802 1.13333 75 54 63 
-0.548307 0.156017 1.48309 26 26 38 
-0.107517 0.135961 1.20606 126 142 194 
-0.0581276 0.137165 1.18956 66 40 53 
-0.309425 0.14923 1.28195 38 32 36 
-0.358615 0.152361 1.29481 63 48 51 
-0.0348197 0.141242 1.18037 50 34 45 
-0.014387 0.140199 1.17265 61 37 50 
-0.0480373 0.143393 1.18537 58 49 54 
0.0402214 0.141056 1.1529 69 50 56 
0.0265867 0.162257 1.15575 57 37 46 
0.115849 0.159834 1.12303 52 36 37 
0.39546 0.191557 1.1389 124 114 139 
0.463027 0.327114 1.07446 13 16 23 
0.361362 -0.331996 1.19987 48 37 54 
0.407328 -0.23363 1.17369 52 40 52 
0.279321 -0.235333 1.22265 72 67 74 
0.421732 -0.140682 1.16044 59 42 50 
0.289108 -0.146114 1.21159 59 49 60 
0.240048 -0.137125 1.22647 68 47 52 
0.365656 -0.0954324 1.17522 136 119 138 
0.314364 -0.0594562 1.19329 55 36 42 
-0.493219 0.025601 1.47675 120 106 129 
-0.57051 0.122626 1.49737 158 175 247 
0.315717 0.10697 1.17786 51 38 48 
-0.556677 0.137142 1.48835 17 24 43 
0.436337 0.105612 1.1295 54 42 56 
-0.564477 0.145265 1.48848 156 173 242 
-0.109386 0.13474 1.20706 125 142 194 
-0.0589237 0.13705 1.18971 66 40 53 
0.0276403 0.137235 1.15896 56 41 48 
-0.0471545 0.143896 1.18508 62 49 56 
0.0409734 0.141758 1.15231 67 47 56 
0.116287 0.162202 1.12214 76 55 60 
0.394605 0.274066 1.12896 137 122 143 
0.422114 -0.141403 1.16035 57 42 47 
-0.111778 0.135869 1.20779 125 143 193 
-0.337588 0.276026 0.993172 151 111 137 
0.463765 0.329594 1.07432 13 15 27 
-0.135308 -0.0403176 1.27742 158 136 123 
-0.105567 0.0387304 1.2162 126 116 117 
-0.0733778 0.0515871 1.2287 184 171 165 
-0.0593754 0.0534621 1.22338 105 85 84 
0.499877 0.330531 1.06644 11 28 84 
0.318061 -0.378345 1.22478 55 43 63 
0.307138 -0.375102 1.22494 83 58 77 
0.127883 -0.392102 1.29172 57 42 63 
-0.0119739 -0.373553 1.25397 72 31 39 
0.185597 -0.374435 1.27017 75 54 73 
0.277366 -0.351146 1.23427 71 52 74 
0.428463 -0.334075 1.17693 41 29 49 
-0.260805 -0.401949 1.43156 126 111 132 
0.373147 -0.33273 1.19684 54 35 54 
0.147513 -0.354609 1.28013 91 59 80 
0.449072 -0.321103 1.16694 63 48 71 
-0.32148 -0.391436 1.45686 73 58 81 
-0.473078 -0.401795 1.51346 49 34 41 
0.154865 -0.333251 1.27757 74 60 75 
0.499451 -0.293591 1.14346 149 122 141 
0.145983 -0.325212 1.27981 61 46 65 
0.330726 -0.28212 1.20784 39 25 40 
0.110309 -0.298351 1.28818 75 51 67 
-0.607475 -0.352702 1.55729 65 48 67 
-0.587283 -0.34828 1.54828 140 121 141 
0.331757 -0.267779 1.20626 69 45 61 
0.172152 -0.277649 1.26502 67 46 63 
-0.335134 -0.313284 1.45492 55 38 46 
0.179698 -0.269393 1.25941 74 56 78 
0.300984 -0.237355 1.2131 61 41 53 
0.0841826 -0.226932 1.19528 59 20 25 
-0.564686 -0.288862 1.53528 58 42 52 
-0.165932 -0.235338 1.2758 53 23 35 
-0.201895 -0.230531 1.29149 46 23 31 
-0.190031 -0.228737 1.28191 60 30 38 
-0.404601 -0.257754 1.47507 52 39 49 
-0.0337645 -0.214013 1.2251 134 90 105 
-0.00464584 -0.211171 1.22686 58 19 24 
-0.482912 -0.257892 1.50484 50 37 57 
-0.291185 -0.222056 1.32659 140 87 97 
-0.592128 -0.249346 1.54095 66 52 67 
-0.636878 -0.251295 1.55824 68 50 66 
-0.0699738 -0.193202 1.2677 58 29 34 
-0.571496 -0.202646 1.53171 46 33 51 
-0.0895294 -0.157552 1.27265 52 21 27 
-0.10674 -0.157149 1.27941 54 22 27 
-0.122904 -0.150412 1.28337 61 24 32 
-0.136394 -0.1383 1.28699 65 30 37 
-0.666143 -0.156491 1.5605 60 48 62 
0.0488169 -0.110329 1.24761 54 25 30 
-0.102987 -0.0978856 1.26343 44 18 27 
-0.0887737 -0.0853959 1.27056 38 17 16 
-0.119775 -0.0646887 1.27627 146 130 114 
-0.0131487 -0.0599315 1.2319 57 22 28 
-0.128196 -0.0584204 1.27832 143 125 105 
0.0819301 -0.0467603 1.2309 59 28 34 
0.31119 -0.0437931 1.19112 71 52 71 
-0.0824112 -0.0461728 1.26948 206 199 173 
0.308267 -0.0340379 1.19098 138 117 132 
0.0745027 -0.0344381 1.22961 143 95 111 
-0.63547 -0.0424798 1.53757 65 53 65 
-0.0792873 -0.029246 1.26031 214 204 177 
-0.133284 -0.027736 1.27623 145 124 107 
-0.560817 -0.0314447 1.5083 47 34 52 
-0.698584 -0.0305193 1.55767 60 68 104 
-0.391272 -0.0259422 1.34456 152 101 116 
-0.0946174 -0.0245504 1.27017 40 17 23 
0.440515 -0.0214968 1.14174 68 49 68 
0.310442 -0.0198173 1.19074 54 39 58 
-0.101223 -0.0159893 1.2471 220 210 183 
-0.00330387 -0.0145596 1.22847 55 22 29 
-0.0868324 -0.0114333 1.24936 177 163 137 
-0.172883 -0.0103314 1.29049 54 21 28 
-0.19671 -0.00926558 1.29802 57 26 34 
0.389635 -0.000505307 1.15695 45 32 52 
0.0799789 0.000944144 1.22322 84 41 50 
0.0298575 0.00135727 1.24638 62 27 34 
-0.0819913 0.00404954 1.26999 107 88 71 
-0.0268678 0.00741851 1.2345 62 26 30 
-0.0961222 0.0106004 1.26893 81 53 41 
-0.186888 0.0113737 1.29382 57 24 33 
-0.173214 0.011504 1.28853 52 21 27 
-0.259451 0.0247082 1.33216 79 32 42 
-0.103913 0.0260331 1.22479 195 188 178 
0.0922128 0.0260444 1.21829 50 19 25 
-0.188508 0.0302533 1.29485 65 31 45 
-0.120622 0.0318938 1.23243 92 82 81 
-0.112591 0.0312748 1.22497 203 199 190 
-0.0931594 0.0349047 1.22476 120 104 104 
0.0307581 0.0360952 1.24248 57 24 31 
0.335686 0.0372658 1.17561 68 49 68 
0.32587 0.0395926 1.17779 67 50 66 
0.375879 0.0394335 1.16001 125 112 129 
0.158698 0.0447894 1.19523 51 20 26 
-0.100604 0.0476841 1.21658 43 28 21 
-0.338676 0.0588294 1.3755 54 21 30 
-0.0938122 0.0549382 1.21843 39 21 19 
-0.117418 0.0561109 1.21735 131 116 93 
0.0827195 0.0629849 1.22226 61 24 31 
-0.0504058 0.0654054 1.23389 130 116 116 
0.135938 0.0773807 1.20101 57 26 34 
0.169427 0.0870638 1.16004 143 95 111 
-0.554741 0.113605 1.4936 19 26 45 
-0.552337 0.133232 1.44762 26 26 54 
-0.574871 0.144248 1.49366 18 26 72 
-0.581181 0.153915 1.49479 22 24 47 
-0.570715 0.157308 1.49265 147 158 214 
-0.428397 0.151413 1.32312 38 27 35 
0.195201 0.1305 1.09704 44 24 33 
0.347711 0.138539 1.15446 82 121 212 
0.161988 0.13556 1.10869 57 30 37 
-0.316 0.166849 1.28277 60 28 39 
0.289466 0.15428 1.18054 53 39 54 
-0.248218 0.165036 1.25477 77 36 50 
-0.0484828 0.159498 1.18432 69 41 53 
0.0615582 0.247564 1.81195 65 31 45 
0.27767 0.161667 1.18295 43 27 40 
0.128749 0.154846 1.11928 65 33 44 
0.193979 0.15304 1.09577 63 32 38 
-0.676203 0.249223 1.52186 42 34 55 
-0.681621 0.282944 1.52179 42 35 53 
0.31559 0.220722 1.16608 78 61 80 
-0.710575 0.294862 1.5283 76 87 119 
-0.670714 0.325816 1.50196 82 70 94 
0.125129 0.249255 1.10708 42 21 26 
-0.712366 0.347717 1.5022 23 30 48 
0.295132 0.273472 1.16863 39 35 50 
-0.0853743 0.217261 0.920488 79 37 49 
0.476028 0.260086 1.0986 65 47 63 
-0.0108588 0.224116 0.944015 102 48 64 
0.143779 0.270028 1.09897 60 35 41 
0.15383 0.269337 1.09582 80 33 49 
0.423953 0.274584 1.11695 74 57 73 
0.318178 0.284079 1.15433 68 61 69 
-0.0277473 0.23131 0.934812 100 49 66 
-0.31735 0.25613 1.00232 73 42 60 
-0.0139329 0.254436 0.939224 90 51 72 
-0.0237 0.254225 0.934927 81 44 61 
0.464577 0.301897 1.07634 20 18 31 
0.503452 0.299555 1.05919 17 18 38 
0.474964 0.305538 1.06932 19 20 76 
0.495043 0.304641 1.06596 17 30 72 
0.473513 0.310808 1.04441 159 174 243 
0.487923 0.316774 1.0643 153 178 245 
0.50857 0.325776 1.05546 22 11 43 
0.477553 0.330012 1.06723 27 18 73 
-0.276325 0.31155 0.964928 121 132 150 
-0.204743 0.305991 0.908864 28 39 101 
0.281087 -0.368665 1.23243 86 65 82 
0.443254 -0.331034 1.17133 124 110 136 
-0.338217 -0.404586 1.46571 44 26 38 
-0.0731476 -0.344707 1.25048 55 29 40 
0.117346 -0.327278 1.28876 91 68 84 
0.295069 -0.305098 1.22344 128 116 138 
0.355304 -0.284086 1.19795 62 42 51 
-0.635637 -0.349759 1.56139 70 53 71 
-0.366613 -0.309723 1.46489 75 51 64 
-0.389347 -0.308917 1.4731 66 52 65 
0.00155383 -0.242965 1.2143 65 25 33 
-0.0519693 -0.236149 1.22664 45 22 28 
-0.632079 -0.289426 1.55994 65 49 60 
0.16767 -0.231973 1.26206 94 62 75 
-0.0184104 -0.214654 1.22125 137 90 106 
-0.181023 -0.2117 1.28021 131 85 98 
-0.196437 -0.211059 1.28637 131 84 100 
0.306578 -0.197275 1.20875 62 44 58 
0.401589 -0.187344 1.1717 66 44 57 
-0.201502 -0.201544 1.29489 124 74 85 
-0.149264 -0.198696 1.29752 63 31 42 
0.179614 -0.179771 1.25462 85 58 75 
-0.412128 -0.206765 1.4707 48 34 47 
0.441941 -0.141412 1.15052 63 47 58 
-0.0499024 -0.151151 1.25849 46 23 31 
0.333542 -0.141442 1.19591 54 35 41 
-0.140073 -0.121261 1.2897 112 66 77 
0.327025 -0.106025 1.19421 58 45 55 
-0.373268 -0.126025 1.44992 59 41 57 
0.274755 -0.0734762 1.20954 57 39 53 
-0.10365 -0.0699748 1.27024 72 36 38 
-0.537653 -0.0726265 1.49935 125 106 126 
0.29441 -0.0567118 1.1996 66 43 53 
-0.621378 -0.0712408 1.53763 74 65 84 
-0.258235 -0.0597234 1.34343 58 22 24 
-0.189854 -0.0546928 1.29482 51 22 26 
0.0301801 -0.0452232 1.24961 63 33 41 
-0.618755 -0.041868 1.52845 63 54 73 
-0.261964 -0.0363713 1.35462 56 30 39 
-0.245697 -0.036497 1.35141 59 29 37 
-0.114922 -0.0327489 1.25126 214 203 181 
-0.0828761 -0.0210783 1.25503 189 182 156 
-0.0282363 0.0265634 1.23565 67 29 40 
-0.0118864 0.02645 1.22627 70 39 47 
0.0553599 0.0270793 1.22798 57 26 32 
0.0883968 0.0353185 1.21826 50 21 25 
-0.294688 0.0401285 1.35891 53 27 36 
-0.240007 0.0442059 1.34116 43 23 25 
-0.442123 0.0564191 1.45339 44 31 41 
-0.0367466 0.0621133 1.23371 58 22 34 
-0.0270862 0.0622345 1.23076 59 26 33 
-0.0780712 0.062502 1.22613 130 113 132 
-0.700606 0.0806648 1.54737 97 97 131 
-0.186955 0.0671928 1.29 59 26 35 
-0.172755 0.0665683 1.28348 59 28 34 
-0.149529 0.069314 1.27547 45 24 31 
0.0541331 0.0759645 1.22996 69 29 38 
-0.297737 0.0901796 1.36009 54 23 38 
-0.522792 0.110278 1.48007 119 105 120 
-0.574715 0.115398 1.49174 19 24 43 
0.15668 0.105797 1.14674 158 104 120 
-0.371637 0.149949 1.30378 52 32 41 
-0.380421 0.154864 1.30282 110 73 80 
-0.633254 0.181592 1.51423 131 118 144 
0.308843 0.144079 1.1756 135 130 150 
0.427725 0.150823 1.13027 61 44 62 
0.383214 0.158911 1.14351 71 56 75 
0.036595 0.161307 1.15373 62 35 50 
0.201569 0.254555 1.79325 72 41 49 
-0.191848 0.18845 1.21511 69 48 55 
0.382265 0.177584 1.1439 122 117 140 
0.284405 0.185182 1.17882 126 123 142 
0.33865 0.183805 1.15807 138 114 128 
0.346069 0.190836 1.15455 138 128 153 
0.405082 0.187491 1.13324 128 115 135 
0.418188 0.187565 1.1275 127 113 130 
-0.562591 0.247294 1.48038 53 47 61 
0.320392 0.195022 1.16504 127 123 146 
-0.705989 0.256759 1.53034 72 83 111 
0.411096 0.213839 1.12982 63 50 67 
0.284876 0.226193 1.176 109 107 131 
0.364572 0.221538 1.14702 61 48 65 
0.466859 0.214324 1.10748 64 50 65 
0.283029 0.235941 1.17447 121 117 142 
-0.70797 0.316932 1.52185 143 163 198 
-0.0145881 0.200993 0.943048 88 55 74 
0.280023 0.260721 1.17556 40 25 32 
0.347521 0.263453 1.1464 51 35 46 
0.319803 0.267155 1.1587 55 45 56 
-0.312821 0.235886 1.00136 74 36 49 
0.360231 0.269359 1.14304 110 100 125 
0.307132 0.275927 1.16288 61 45 55 
0.378317 0.269906 1.13498 105 101 126 
0.191939 0.258073 1.08123 55 29 38 
0.463815 0.264697 1.10363 56 34 47 
-0.267707 0.235363 0.982755 65 43 56 
0.44662 0.27516 1.10902 140 130 154 
-0.000170175 0.23827 0.947307 78 40 61 
0.101561 0.290439 1.10019 146 101 121 
0.371621 0.301306 1.11237 66 57 76 
0.0219938 -0.346437 1.24709 147 96 111 
-0.0964568 -0.342374 1.26064 133 80 96 
-0.150282 -0.339626 1.27694 135 81 94 
-0.692442 -0.394744 1.59504 76 63 93 
0.454754 -0.28363 1.16337 66 48 64 
0.3211 -0.273356 1.20897 126 109 127 
0.278215 -0.265408 1.22433 81 60 69 
0.204042 -0.259739 1.25083 88 68 80 
0.0334045 -0.240343 1.23323 39 19 21 
0.0138743 -0.240349 1.24484 36 18 18 
-0.583023 -0.282364 1.54061 148 134 147 
-0.219198 -0.22769 1.29558 31 14 20 
-0.0380556 -0.205602 1.23298 122 68 82 
-0.575399 -0.251989 1.53301 36 28 43 
-0.173246 -0.203402 1.28265 127 76 91 
-0.588318 -0.237073 1.54513 54 37 53 
0.153945 -0.180419 1.26647 65 45 56 
-0.0975724 -0.152629 1.27647 51 21 23 
-0.0504065 -0.113888 1.25856 30 12 12 
0.16136 -0.0933282 1.24711 73 47 60 
-0.0975563 -0.0626287 1.2671 160 145 124 
0.275421 -0.0585193 1.20709 62 52 61 
-0.031241 -0.0589206 1.2355 67 28 31 
-0.111601 -0.0512062 1.26064 206 198 175 
0.177799 -0.0396902 1.13557 140 86 102 
-0.117534 -0.0421087 1.25568 195 179 154 
0.296973 -0.0310797 1.19322 75 53 56 
0.430507 -0.0121945 1.14292 87 66 73 
0.264739 -0.00680305 1.20401 81 61 72 
0.251542 -0.00638455 1.21039 60 46 59 
0.286729 -0.00534257 1.19406 63 43 45 
-0.0853159 0.0195611 1.26476 190 180 153 
-0.161172 0.0291339 1.28264 55 28 37 
-0.517107 0.0382663 1.49115 63 50 60 
0.0345483 0.0734808 1.23466 61 28 39 
-0.701091 0.0996976 1.54997 103 88 111 
-0.173602 0.0891278 1.28136 60 35 41 
0.327554 0.106273 1.17293 38 33 40 
-0.234975 0.131498 1.27453 100 58 70 
0.151516 0.121342 1.1369 87 57 59 
-0.406064 0.153308 1.31859 37 35 38 
-0.02466 0.14345 1.17637 136 88 110 
0.322928 0.147457 1.20425 68 46 48 
0.128372 0.13941 1.12018 60 48 50 
0.294162 0.165846 1.17669 142 125 144 
-0.698037 0.242324 1.53393 71 61 88 
0.310271 0.184228 1.16675 68 50 62 
-0.302929 0.201694 1.25594 84 52 57 
0.434829 0.181212 1.12106 61 44 54 
0.0200934 0.204244 0.960603 81 52 70 
0.308591 0.261524 1.1603 72 55 63 
0.0935153 0.287164 1.10745 66 44 56 
0.263287 0.305055 1.15293 56 54 68 
0.111725 0.315326 1.09252 45 41 42 
0.504029 0.310071 1.05952 164 183 252 
-0.0588943 0.278009 0.902283 82 50 63 
0.46658 0.31123 1.07258 151 172 239 
0.0184928 -0.328394 1.21079 39 20 22 
-0.15724 -0.236155 1.28174 36 14 16 
-0.0984432 -0.202666 1.25625 135 86 105 
-0.0847649 -0.0988019 1.27301 30 16 15 
0.217051 -0.0957036 1.23192 88 57 72 
-0.0242422 -0.0502743 1.23869 52 27 33 
-0.184 -0.0461589 1.3003 53 32 39 
-0.397531 -0.0453267 1.37802 67 25 26 
-0.381402 -0.0304532 1.34833 146 89 108 
-0.0732456 0.0192933 1.27788 44 19 22 
-0.117207 0.0353425 1.20174 184 176 187 
0.442495 0.0431396 1.13643 134 125 146 
-0.484223 0.0690639 1.47148 48 41 49 
0.385595 0.103785 1.14548 61 44 52 
-0.364742 0.132691 1.31769 73 48 51 
-0.574091 0.152778 1.5021 151 169 235 
0.0262182 0.125157 1.20172 73 50 60 
0.138058 0.119631 1.13967 77 51 60 
0.329616 0.192754 1.15989 137 121 147 
0.389643 0.271146 1.13762 56 50 60 
-0.0760448 0.276717 0.897498 84 45 50 
-0.0997224 -0.18823 1.27952 64 29 27 
-0.216808 -0.113622 1.33175 58 26 27 
-0.0996752 -0.0884158 1.26772 135 115 90 
-0.0887159 0.0166537 1.27441 160 143 117 
-0.140737 0.0561946 1.25183 125 114 118 
-0.0685764 0.191526 1.17154 53 42 48 
0.0696824 0.0373358 1.23131 79 31 27 
0.0230091 -0.23208 1.23892 40 20 19 
0.0559468 -0.222149 1.22908 136 83 103 
0.098681 0.194702 1.0855 55 37 35 
-0.429814 -0.239854 1.48182 51 43 54 
-0.372418 -0.21192 1.45973 45 33 55 
-0.39595 -0.206403 1.46569 42 23 43 
-0.391957 -0.178418 1.46095 59 41 55 
-0.43464 -0.125454 1.47233 59 38 55 
-0.356254 -0.0832542 1.44012 60 43 61 
-0.172945 -0.055387 1.28982 52 23 28 
-0.207632 0.0236765 1.08505 52 19 26 
0.28925 0.0216054 1.19269 78 60 72 
-0.603014 0.0728001 1.51425 63 55 78 
-0.262142 0.073321 1.34591 58 28 38 
-0.245685 0.0730333 1.34107 53 21 26 
-0.234966 0.0854756 1.33435 57 28 33 
-0.370609 0.0908327 1.35186 67 32 38 
-0.564016 0.138448 1.50076 14 25 70 
-0.550785 0.181738 1.48269 47 35 49 
-0.145688 0.232843 0.940914 81 44 61 
-0.271003 0.254863 0.984503 86 45 59 
-0.0858862 0.251303 0.917664 78 46 61 
0.159984 -0.30505 1.27178 104 72 87 
0.230242 -0.265751 1.24112 97 71 84 
-0.440795 -0.239542 1.48441 72 50 62 
-0.427331 -0.210747 1.4778 67 54 71 
-0.517521 -0.154001 1.50291 122 112 136 
-0.448465 -0.0455842 1.46765 113 89 103 
-0.522012 -0.0371188 1.49485 40 34 46 
-0.498503 -0.0339236 1.48634 59 47 61 
0.031998 0.0531327 1.54837 68 35 42 
0.322704 0.0591404 1.17727 56 42 59 
0.48056 0.148164 1.10771 64 43 52 
-0.0613198 0.163587 1.18722 79 40 58 
-0.145702 0.222951 0.941899 76 43 60 
-0.515076 0.336469 1.4319 37 36 42 
-0.226662 0.234811 0.969404 73 41 54 
-0.207355 0.239003 0.962446 96 45 62 
-0.253792 0.254403 0.977932 77 41 55 
0.217114 -0.302854 1.24968 101 77 90 
0.44824 -0.236359 1.15832 60 51 70 
-0.4461 -0.0762312 1.47256 123 102 121 
0.408011 -0.0603497 1.15704 72 47 53 
0.340338 -0.0568615 1.18217 62 41 48 
-0.0266584 -0.0119691 1.23614 65 38 47 
0.0107154 0.136155 1.16534 68 51 61 
-0.0889128 0.144976 1.19942 85 58 75 
-0.17718 -0.189943 1.27678 143 88 107 
-0.0427416 -0.112146 1.24857 125 69 80 
-0.564489 0.129382 1.48993 166 183 253 
-0.057505 -0.236245 1.23525 38 23 26 
0.15344 -0.368583 1.28067 69 54 75 
0.406631 -0.381447 1.18719 53 37 50 
0.458746 -0.334453 1.16386 46 29 47 
-0.102281 -0.146832 1.23889 113 68 75 
-0.626369 -0.157613 1.54357 77 63 76 
-0.0563386 -0.12281 1.25759 104 65 70 
-0.0905615 -0.0147931 1.25986 93 69 59 
-0.113327 0.0241737 1.2531 187 184 193 
-0.0177511 0.171911 1.43732 61 37 50 
0.0250448 -0.236573 1.24889 36 18 18 
0.485887 0.307381 1.06828 16 24 35 
-0.127356 -0.341467 1.26973 82 30 52 
0.156941 -0.343628 1.27533 73 52 71 
0.212824 -0.331669 1.25758 68 49 68 
-0.301748 -0.337396 1.44143 61 35 46 
-0.507353 -0.338261 1.52009 58 45 62 
-0.328171 -0.306703 1.44871 78 60 76 
-0.609372 -0.289275 1.55382 58 39 59 
-0.472688 -0.268383 1.49734 53 38 57 
-0.578777 -0.209769 1.52705 140 131 148 
-0.589598 -0.201906 1.5361 44 35 56 
-0.227016 -0.0979019 1.34652 43 20 28 
-0.000327563 -0.0506399 1.22999 56 25 33 
-0.0957143 -0.0484954 1.27054 150 133 103 
-0.160288 -0.0466513 1.28805 55 24 30 
-0.199209 -0.0462309 1.30296 48 22 31 
-0.0129024 -0.014158 1.23154 61 28 37 
-0.196644 0.0667862 1.29162 60 27 36 
-0.314634 0.0903757 1.36083 54 27 36 
-0.181163 0.131647 1.24972 91 49 59 
0.141639 0.248852 1.10334 77 31 44 
0.441365 0.268579 1.11548 45 37 48 
0.00929268 -0.326439 1.20167 112 62 71 
-0.240437 -0.325208 1.28957 65 30 37 
-0.293483 -0.362041 1.44419 61 50 58 
0.331833 -0.321932 1.20885 86 71 90 
-0.448219 -0.345038 1.49627 56 41 62 
0.388245 -0.284104 1.18726 75 57 79 
0.0920629 -0.260474 1.29089 78 47 62 
-0.26433 -0.262779 1.42337 48 34 49 
-0.33276 -0.261726 1.44813 62 49 79 
0.363122 -0.233578 1.18988 69 56 74 
-0.210131 -0.218805 1.29267 106 69 77 
-0.539727 -0.241134 1.52016 76 51 57 
-0.0128268 -0.200801 1.2445 159 102 121 
-0.077892 -0.169341 1.36295 53 22 27 
-0.445557 -0.125143 1.47359 69 51 63 
-0.344031 -0.122963 1.4381 59 39 48 
0.440104 -0.106601 1.14638 76 58 74 
0.424187 -0.104179 1.15478 77 51 64 
-0.158996 -0.094867 1.27029 109 68 82 
-0.0272787 -0.0324168 1.23811 67 35 46 
0.455712 -0.0101517 1.13479 71 56 63 
0.069589 0.000516271 1.2266 99 52 62 
0.0604281 0.00548004 1.22871 88 45 55 
0.0871422 0.00632104 1.21835 95 45 54 
0.0560979 0.0150916 1.23121 67 34 45 
-0.000761272 0.0240403 1.22375 57 30 39 
-0.172054 0.0305555 1.28492 69 37 48 
-0.11682 0.0374414 1.21371 196 194 199 
-0.0272212 0.0417514 1.23116 68 35 42 
-0.126766 0.0446705 1.2271 49 39 29 
-0.0840357 0.0524504 1.22034 102 87 94 
-0.131247 0.055077 1.23586 54 37 30 
-0.180389 0.0596749 1.28484 150 93 108 
0.277158 0.0708756 1.19497 64 42 54 
0.311828 0.0962517 1.17611 72 51 66 
-0.165535 0.111009 1.26 89 39 50 
-0.03642 0.127376 1.20172 106 60 73 
0.107961 0.132127 1.12908 63 34 39 
-0.28219 0.147148 1.27016 72 36 50 
-0.212948 0.145225 1.243 72 40 55 
0.180094 0.138258 1.10316 69 41 53 
-0.227019 0.163886 1.24873 79 41 54 
0.300738 0.183482 1.1713 70 46 60 
0.353911 0.222536 1.15121 58 44 61 
0.00429739 0.204273 0.954984 85 47 62 
-0.269963 0.206336 0.989057 74 34 45 
-0.282071 0.208067 0.991612 67 36 51 
-0.050782 0.201631 0.928823 81 40 54 
-0.207539 0.221571 0.964807 86 42 55 
-0.0732608 0.269003 0.907404 115 72 91 
-0.229963 0.308658 0.908747 46 32 55 
0.396677 -0.333502 1.19267 40 32 43 
-0.00603102 -0.264645 1.22915 114 66 80 
-0.206608 -0.258224 1.29728 115 69 80 
-0.291934 -0.216107 1.33587 53 21 24 
-0.465286 -0.125878 1.48743 57 46 62 
-0.099116 -0.0258164 1.25492 48 28 19 
0.280738 0.00190671 1.19894 136 120 146 
0.0788462 0.0403361 1.21947 36 20 21 
-0.140771 0.0540889 1.26475 150 139 137 
-0.364106 0.133878 1.32537 78 54 52 
0.493686 0.180813 1.10113 64 49 56 
-0.476349 -0.30595 1.50564 88 64 77 
-0.178279 -0.232356 1.27953 73 37 41 
-0.162688 -0.217723 1.29472 36 16 15 
-0.138819 -0.18446 1.28961 70 40 50 
0.174746 -0.0234499 1.1475 66 34 39 
0.120054 0.0588965 1.20492 49 24 28 
0.448484 0.0611026 1.13084 77 61 72 
0.295394 0.1109 1.18232 126 106 131 
0.0235463 0.124116 1.19049 74 51 59 
-0.179575 0.19058 1.21152 63 48 55 
0.364368 0.257262 1.13975 130 103 118 
-0.199508 -0.186527 1.28609 138 84 100 
0.0947536 -0.18425 1.21031 67 28 29 
0.178103 -0.0609947 1.15287 88 37 36 
-0.38944 -0.0448758 1.3658 71 30 26 
0.478797 0.321039 1.07545 164 182 254 
-0.0996319 0.0255357 1.25554 201 193 190 
-0.254176 -0.298721 1.42231 48 35 55 
-0.0057065 -0.22526 1.21602 131 92 110 
-0.48718 -0.0811436 1.4869 62 46 72 
-0.216405 0.0388614 1.33177 44 19 25 
-0.517312 0.0591949 1.48426 67 56 72 
-0.49936 0.105139 1.47363 48 37 53 
-0.566328 0.135505 1.47376 26 20 58 
-0.447962 0.136382 1.45385 35 31 45 
-0.487282 0.205328 1.46053 46 35 49 
-0.530719 0.245663 1.47202 33 29 43 
-0.106462 -0.278336 1.2652 73 37 51 
0.305074 -0.312244 1.21853 65 52 62 
0.349965 -0.313057 1.20347 81 55 68 
0.231514 -0.305135 1.24576 80 56 70 
0.314579 -0.279312 1.216 129 116 136 
-0.551778 -0.157902 1.51582 46 41 63 
0.386385 -0.142051 1.17306 70 46 62 
-0.3462 -0.0930616 1.43469 138 113 132 
-0.336978 -0.0885059 1.43265 141 114 129 
-0.54238 -0.078249 1.50503 61 48 65 
0.190343 0.058572 1.73465 65 34 39 
-0.357372 0.167851 1.29398 60 29 34 
-0.480843 0.247333 1.45517 36 30 34 
-0.208599 0.251236 0.961587 78 44 60 
0.293067 -0.374224 1.23123 89 67 79 
-0.506644 -0.155225 1.501 120 104 130 
-0.113092 -0.0579385 1.27045 93 51 61 
-0.573228 0.131927 1.4955 17 24 42 
-0.324962 0.145247 1.2861 70 47 53 
0.000565577 0.14217 1.16754 78 52 63 
-0.11219 -0.148379 1.28171 48 19 21 
0.3591 -0.145542 1.18378 64 60 75 
-0.151419 -0.109934 1.29605 132 76 87 
-0.185813 0.0493158 1.28951 64 39 45 
-0.156554 0.0801009 1.27221 63 27 31 
-0.36697 0.130759 1.29928 81 52 54 
0.0829777 0.0374318 1.23694 83 34 30 
0.148681 -0.0639328 1.17041 148 119 139 
-0.109788 0.0608228 1.22436 38 26 30 
-0.0672344 0.00408631 1.25497 45 21 21 
-0.201522 0.0085426 0.990506 58 25 34 
0.0624618 0.0360723 1.82044 65 23 35 
0.354129 0.152929 1.15853 60 42 66 
-0.345045 0.171695 1.28914 56 30 39 
-0.0838445 -0.163472 1.31688 53 22 27 
0.735583 -0.145318 3.75548 63 36 45 
0.0661845 -0.0200107 1.82287 63 30 39 
-0.201572 -0.00699759 0.992272 51 24 33 
-0.257523 0.225398 0.982292 68 41 56 
-0.532261 -0.257047 1.52038 53 37 47 
0.101341 -0.0885368 1.80435 67 30 37 
-0.199886 -0.0353045 0.992445 48 26 29 
0.30362 0.142578 1.16532 136 133 154 
-0.425605 0.170583 1.31788 50 41 44 
-0.605357 0.248669 1.49563 59 53 65 
-0.197897 -0.214096 1.29508 116 67 86 
-0.125387 -0.140454 1.28647 51 21 21 
-0.0725881 0.0143276 1.26256 59 27 30 
-0.418409 0.155806 1.31746 118 110 121 
-0.0357147 -0.196044 1.22402 153 100 118 
-0.0236763 -0.196632 1.22015 157 103 117 
-0.391494 -0.165798 1.46041 57 45 67 
-0.122941 -0.0849281 1.28609 92 75 57 
-0.0567803 0.0627161 1.22533 41 20 19 
0.391231 0.149867 1.14524 66 42 55 
-0.408773 0.17253 1.31382 65 27 40 
-0.560585 0.312464 1.03251 153 170 188 
0.246261 -0.388688 1.24989 139 118 137 
-0.25757 -0.311309 1.4235 121 99 122 
-0.556736 -0.262287 1.53028 59 47 61 
-0.206753 -0.243966 1.2982 61 26 32 
-0.163085 -0.176212 1.28418 70 31 36 
-0.461072 -0.159646 1.48568 49 36 46 
-0.628182 -0.122888 1.54249 60 49 66 
-0.246088 -0.111237 1.35188 70 27 36 
-0.46956 -0.080837 1.4825 58 44 59 
0.953391 -0.0998771 3.49812 69 39 49 
0.380074 0.0636401 1.15474 133 110 128 
0.350149 0.08863 1.16369 78 59 78 
-0.49921 0.119412 1.47144 39 28 42 
-0.218919 0.1133 1.28667 83 36 44 
-0.580996 0.178958 1.49202 126 110 136 
-0.0773628 0.164389 1.19376 77 43 59 
-0.617344 0.246833 1.50056 64 57 75 
0.329574 0.26424 1.15368 57 35 48 
-0.387554 0.284967 1.29021 24 22 23 
-0.46926 0.327697 1.42254 107 91 102 
0.037323 0.274907 0.949878 172 133 160 
-0.0352351 -0.232741 1.20847 151 98 114 
-0.167031 -0.221878 1.27661 106 60 73 
-0.0383965 -0.217087 1.23318 114 64 75 
-0.355656 -0.157481 1.44762 136 110 123 
-0.0626228 -0.0967949 1.24072 100 64 76 
0.98096 -0.196324 3.45989 64 30 31 
0.172257 -0.0495014 1.14665 148 99 118 
-0.1246 0.0299397 1.25732 165 155 154 
-0.0670323 0.0440231 1.23948 189 180 173 
0.34613 0.0742106 1.16943 144 123 138 
-0.401393 0.107278 1.35968 60 40 49 
0.341915 0.104616 1.16741 63 42 57 
-0.566148 0.13163 1.43552 17 22 42 
-0.0120081 -0.278621 1.23407 137 84 102 
-0.0170695 -0.235876 1.21937 78 41 49 
-0.370867 -0.237236 1.45865 80 68 80 
-0.0955897 -0.204989 1.27283 141 93 109 
0.26698 -0.186597 1.22178 82 66 77 
0.0697801 -0.059816 1.23774 48 29 35 
0.955322 -0.172709 3.50606 54 31 37 
-0.449568 0.306087 1.30183 140 92 114 
0.307911 -0.0466609 1.20169 141 122 142 
-0.0518043 0.038278 1.24446 86 41 46 
0.0944923 0.0381195 1.2586 83 34 30 
-0.102593 0.0616718 1.21522 66 49 55 
-0.0342261 -0.185944 1.20873 149 96 112 
-0.104752 0.0251836 1.2412 206 201 208 
-0.0959348 0.060944 1.22874 63 52 60 
0.061638 -0.327891 1.19971 136 115 130 
-0.332898 -0.28102 1.45192 47 34 60 
-0.319365 -0.266769 1.44415 91 62 80 
-0.283377 -0.260524 1.43022 69 41 63 
-0.342301 -0.20388 1.44585 82 54 68 
-0.386976 -0.199475 1.46291 80 57 75 
-0.0469816 -0.182843 1.23874 116 74 88 
-0.248219 -0.137081 1.35235 58 27 43 
-0.101233 -0.112718 1.29677 117 75 87 
-0.0750609 -0.108806 1.27852 124 106 104 
0.0648003 -0.115634 1.23637 133 92 108 
0.0681481 -0.0762537 1.22296 150 98 111 
-0.121699 -0.0455021 1.27139 179 164 131 
-0.414126 -0.00495379 1.45328 48 35 52 
-0.414967 0.0095492 1.45328 111 100 116 
-0.465392 0.0250908 1.46822 48 36 56 
-0.365016 0.100878 1.35446 155 107 121 
-0.446138 0.117453 1.45248 40 29 43 
-0.194038 0.144763 1.23832 82 43 61 
0.504151 0.147604 1.09975 65 50 71 
-0.17599 0.166887 1.22995 84 47 65 
-0.437498 0.191973 1.32583 60 43 51 
-0.495175 0.244612 1.4595 112 100 120 
-0.145125 0.20805 0.943166 93 43 55 
-0.103708 0.222539 0.927046 83 50 67 
-0.366964 0.336584 1.25897 124 144 179 
-0.359643 0.279179 1.05487 66 46 58 
-0.196725 0.298913 0.897468 56 54 103 
-0.334897 0.312052 0.988645 52 35 53 
-0.580353 0.117016 1.49959 16 23 42 
0.360748 -0.312277 1.19912 80 59 78 
-0.594265 -0.217261 1.53726 68 60 81 
0.0436135 -0.257977 1.22901 74 36 51 
0.383855 -0.30048 1.19005 66 56 81 
-0.295803 -0.235595 1.43129 81 66 89 
-0.55925 -0.202437 1.52386 58 45 62 
-0.411029 -0.192116 1.47044 71 58 75 
-0.507343 -0.121685 1.4974 55 43 65 
-0.404529 -0.120616 1.46229 138 117 136 
-0.585385 -0.0336159 1.51574 126 112 138 
-0.458411 -0.0388507 1.47581 47 37 48 
-0.170782 -0.0438095 1.29344 59 27 38 
-0.011766 -0.0498494 1.23479 70 37 44 
-0.413146 -0.0156434 1.45464 57 44 54 
-0.183589 -0.0237927 1.29643 68 36 49 
-0.558561 0.0183682 1.50148 60 48 62 
-0.52033 0.0166766 1.48717 56 44 56 
0.12176 0.0118782 1.21199 70 36 50 
-0.0923205 0.0210965 1.23604 80 42 53 
0.00024311 0.0882903 1.2191 86 43 60 
0.363951 0.106687 1.15645 57 42 49 
-0.465952 0.131187 1.46029 40 30 38 
0.43664 0.116708 1.12663 96 67 85 
-0.166641 0.16662 1.22619 85 47 62 
-0.150425 0.166265 1.21974 78 45 56 
-0.265046 0.169415 1.26241 94 53 71 
0.0624752 0.180768 1.12179 74 44 56 
-0.350714 0.167994 1.02921 92 49 56 
-0.555077 0.285994 1.47646 52 43 60 
-0.567116 0.291348 1.48008 117 118 138 
-0.192363 0.223707 0.958905 91 39 52 
-0.297962 0.23636 0.996383 73 45 60 
-0.16369 0.25608 0.945686 94 61 82 
-0.285399 0.25894 0.990073 87 54 71 
-0.380203 0.336753 1.26034 117 130 164 
-0.251341 0.281206 0.961652 59 37 49 
0.0636294 -0.316763 1.22486 45 24 29 
-0.324511 -0.242687 1.44234 88 65 75 
-0.227716 -0.23448 1.33242 39 19 28 
0.0795832 -0.221882 1.20507 64 29 33 
-0.109138 -0.174013 1.28073 71 39 52 
-0.558309 -0.123621 1.51105 119 103 129 
0.352143 -0.188425 1.18962 78 58 70 
-0.303824 -0.1266 1.42251 54 42 52 
-0.53166 -0.0501203 1.50059 74 55 77 
0.363632 -0.0583891 1.1769 68 57 73 
-0.395351 -0.0177219 1.34753 60 29 34 
-0.259883 0.00892365 1.34675 107 60 66 
-0.273498 0.0235391 1.35335 65 34 40 
-0.27377 0.0344496 1.35401 54 25 30 
0.118119 0.0512387 1.19574 65 23 25 
-0.512002 0.107867 1.47587 59 57 78 
0.150526 0.123691 1.16186 58 31 36 
-0.0709105 0.17905 1.18924 95 68 75 
0.436405 0.216359 1.11956 83 63 72 
-0.380805 -0.23357 1.46092 134 111 131 
0.0808285 -0.244022 1.20183 107 47 55 
-0.276483 -0.117322 1.34236 51 24 29 
0.0840546 -0.13712 1.20727 140 87 105 
-0.0935149 -0.0729284 1.26862 175 163 141 
-0.529875 -0.00820374 0.626302 54 31 37 
-0.453104 -0.00961887 1.46751 117 90 107 
0.165324 -0.0295363 1.14777 64 25 30 
-0.467671 0.0125598 1.47254 46 31 36 
0.191175 0.0601829 1.15627 79 48 63 
-0.448629 0.154559 1.45051 51 42 47 
0.117749 0.135234 1.1261 87 67 78 
-0.254556 0.14368 1.26399 89 58 74 
-0.344777 0.147534 1.2942 74 55 59 
0.044407 -0.269186 1.23152 80 37 46 
-0.233568 -0.224946 1.33471 128 80 96 
-0.220173 -0.113585 1.34604 60 30 30 
0.188679 0.0131004 1.15987 73 31 33 
-0.558126 0.151529 1.481 172 187 255 
0.516559 0.290041 1.07263 147 133 158 
-0.0799425 0.0620574 1.25349 55 47 58 
-0.108074 -0.0433526 1.26676 226 214 190 
