ply                 
format ascii 1.0    
element vertex 1007
property float x    
property float y    
property float z    
property uchar red  
property uchar green
property uchar blue 
end_header          
0.281984 -0.332795 1.23096 71 51 63 
-0.354276 -0.25743 1.45622 61 41 50 
-0.466389 -0.255981 1.49441 47 34 51 
0.324394 -0.183778 1.20003 50 31 50 
-0.126825 -0.191984 1.28744 58 27 35 
0.208131 -0.172664 1.24134 87 68 88 
-0.0731287 -0.151716 1.26639 53 24 29 
-0.407228 -0.165144 1.46422 51 39 53 
-0.596469 -0.158707 1.53097 45 41 58 
0.274274 -0.0975256 1.21145 52 36 47 
-0.114902 -0.0924997 1.27584 127 108 91 
-0.45693 -0.0768066 1.47389 118 101 120 
0.0665691 -0.04629 1.23584 62 32 40 
-0.531652 -0.0359987 1.49949 47 39 60 
0.0814111 -0.0243118 1.22812 62 29 36 
-0.246003 -0.0148731 1.34836 54 26 40 
-0.262281 -0.0141081 1.3534 55 25 35 
-0.278003 -0.013977 1.36101 50 23 30 
-0.161115 -0.00839829 1.11697 53 22 30 
-0.0133769 0.00717426 1.22997 58 25 32 
-0.0473969 0.0292101 1.48032 63 23 32 
-0.19941 0.0284166 1.29672 58 20 31 
0.113111 0.0286938 1.21199 53 23 31 
-0.112245 0.0476253 1.21464 175 172 167 
-0.0128441 0.0611602 1.22523 51 20 26 
-0.163056 0.0657278 1.28063 57 21 33 
-0.00826995 0.0630425 1.22371 132 79 89 
-0.12073 0.065172 1.23925 105 90 67 
0.172752 0.0768592 1.1566 60 29 37 
0.186358 0.0765977 1.15267 54 28 39 
-0.026476 0.0825969 1.22831 62 22 31 
-0.186582 0.087606 1.28702 59 21 32 
-0.551642 0.121611 1.48642 159 179 248 
0.35088 0.106083 1.16068 59 46 63 
-0.12186 0.136948 1.21193 128 139 184 
-0.105867 0.136839 1.20598 126 142 193 
-0.301446 0.147932 1.27619 53 26 31 
-0.0154923 0.140044 1.1735 58 34 47 
0.072125 0.137704 1.14105 72 36 48 
0.143727 0.135911 1.11583 48 27 32 
-0.328905 0.171046 1.28304 57 30 35 
0.0188322 0.158066 1.15836 56 29 36 
0.0897184 0.160117 1.13383 84 40 55 
0.0994861 0.159499 1.1291 68 33 39 
-0.267047 0.225636 0.985853 69 38 53 
-0.257371 0.235296 0.981197 68 37 52 
-0.0859923 0.235737 0.919074 97 46 63 
0.444924 -0.383506 1.1744 60 43 61 
0.387324 -0.380505 1.19615 57 39 61 
0.405249 -0.3342 1.18313 60 52 67 
0.388209 -0.330107 1.18878 46 38 53 
0.363228 -0.332368 1.20033 43 40 51 
0.359474 -0.265829 1.19458 55 41 56 
0.277136 -0.238901 1.22148 63 50 60 
-0.0274592 -0.231491 1.22194 51 24 31 
-0.383764 -0.260194 1.46837 60 44 55 
-0.354416 -0.257875 1.45571 60 43 53 
-0.0911142 -0.160697 1.2954 52 21 27 
0.421021 -0.140985 1.16068 55 38 44 
-0.0756742 -0.146362 1.26726 110 61 65 
-0.147271 -0.148651 1.29119 65 35 45 
0.208556 -0.140756 1.23887 68 54 71 
-0.421685 -0.164841 1.47237 62 44 58 
-0.0597458 -0.140722 1.26017 51 22 27 
-0.541276 -0.15796 1.51119 42 33 52 
0.357426 -0.100832 1.18024 59 46 55 
0.274227 -0.0973968 1.21141 52 39 46 
-0.48778 -0.118625 1.49018 127 108 128 
0.383532 -0.0617451 1.16659 61 43 57 
0.448017 -0.0592427 1.14497 35 29 39 
0.433876 -0.0580074 1.14907 49 39 48 
0.354368 -0.0562566 1.17963 61 40 47 
-0.0391425 -0.0492144 1.24448 62 29 36 
-0.531492 -0.0361301 1.49926 47 39 60 
0.0981083 -0.0246431 1.22265 56 33 43 
0.0582386 -0.0238035 1.23635 57 30 39 
0.0653571 -0.0234656 1.23391 55 32 40 
0.105129 -0.019585 1.21927 54 27 36 
-0.57042 -0.0135671 1.50684 65 52 70 
0.37761 -0.00888103 1.16477 64 41 47 
-0.162885 -0.010316 1.28727 56 29 38 
-0.160847 0.0102182 1.11507 59 27 38 
-0.0391572 0.0250318 1.23797 65 29 39 
-0.458663 0.0352997 1.46809 35 22 31 
0.393276 0.0368099 1.1523 52 36 46 
0.451192 0.0382751 1.12993 136 122 137 
0.421071 0.0425853 1.14018 86 58 70 
0.0615212 0.058854 1.22847 62 29 36 
0.298915 0.0697771 1.18587 68 52 65 
0.117956 0.0781949 1.20669 61 31 41 
-0.0264215 0.0830811 1.22813 60 27 34 
-0.55269 0.12162 1.48734 161 180 249 
0.350923 0.106009 1.16071 59 46 63 
-0.549302 0.138584 1.48428 92 95 136 
0.344372 0.113076 1.15809 22 62 175 
-0.118189 0.133792 1.21078 52 55 100 
-0.121392 0.137131 1.2117 128 141 186 
0.0286975 0.136033 1.15898 57 42 47 
-0.123614 0.142617 1.21248 74 42 55 
-0.104315 0.141752 1.20595 75 39 53 
-0.014966 0.140023 1.17335 58 34 47 
-0.0503427 0.143475 1.1859 60 44 54 
0.0725632 0.137777 1.1408 74 44 54 
0.0889549 0.140091 1.13528 74 49 55 
0.0578096 0.142486 1.14651 58 39 45 
0.0626204 0.143023 1.14431 134 86 98 
0.151828 0.140521 1.11129 133 86 104 
-0.0872626 0.16446 1.19781 79 45 61 
0.00185052 0.161644 1.16571 75 41 57 
0.179963 0.157233 1.10113 81 45 57 
0.465767 0.182671 1.1131 66 50 63 
-0.267121 0.225634 0.985789 69 38 53 
0.409232 0.273014 1.12395 131 111 122 
-0.144952 0.247584 0.939744 90 44 55 
0.387666 -0.380521 1.19628 53 38 57 
0.387767 -0.329606 1.18664 46 40 54 
0.46563 -0.282468 1.15677 52 38 53 
0.171348 -0.306637 1.26786 87 60 67 
0.377031 -0.279434 1.18871 69 59 70 
0.386464 -0.23486 1.18004 53 43 54 
0.407612 -0.233489 1.17349 54 42 54 
-0.0441833 -0.228457 1.22812 132 79 95 
0.279313 -0.182462 1.2172 61 45 55 
0.214278 -0.178077 1.23778 74 54 66 
-0.0827481 -0.149674 1.2705 46 18 17 
0.357831 -0.100906 1.18053 59 46 55 
0.447018 -0.0589505 1.14312 32 24 35 
0.314486 -0.0590852 1.19403 53 38 45 
0.104573 -0.0190659 1.21905 55 32 40 
-0.0377504 -0.0116425 1.23979 67 37 47 
0.376813 -0.009014 1.16437 66 43 49 
-0.0386762 0.0262458 1.23752 73 41 54 
-0.0263316 0.0842793 1.22766 66 39 48 
-0.0135028 0.0838039 1.22314 62 33 38 
0.353821 0.100363 1.15693 129 103 114 
0.428299 0.099674 1.13082 135 111 124 
0.423676 0.103745 1.13324 75 54 63 
-0.548144 0.155862 1.48285 26 26 38 
-0.107538 0.135879 1.20609 126 142 194 
-0.0581684 0.137084 1.18959 66 40 53 
-0.309397 0.149126 1.28196 38 32 36 
-0.358574 0.152252 1.29481 63 48 51 
-0.0348669 0.14116 1.1804 50 34 45 
-0.0144395 0.14012 1.17268 61 37 50 
-0.0480812 0.143309 1.1854 58 49 54 
0.0401539 0.140979 1.15293 69 50 56 
0.0265223 0.162171 1.15579 57 37 46 
0.11576 0.159754 1.12307 52 36 37 
0.395185 0.191448 1.13882 124 114 139 
0.462753 0.326948 1.07444 13 16 23 
0.361079 -0.331771 1.1997 48 37 54 
0.407022 -0.233471 1.17353 52 40 52 
0.279091 -0.235182 1.22249 72 67 74 
0.421422 -0.140586 1.1603 59 42 50 
0.288871 -0.146022 1.21145 59 49 60 
0.239842 -0.137043 1.22634 68 47 52 
0.365376 -0.0953686 1.17509 136 119 138 
0.314029 -0.0594613 1.19309 56 39 47 
-0.493074 0.02554 1.47653 120 106 129 
-0.57033 0.122491 1.49712 158 175 247 
0.315476 0.106905 1.17776 51 38 48 
-0.556508 0.136999 1.48811 17 24 43 
0.436038 0.105554 1.12942 54 42 56 
-0.564305 0.145116 1.48824 156 173 242 
-0.109405 0.134658 1.20708 125 142 194 
-0.058964 0.136969 1.18974 66 40 53 
0.027576 0.137159 1.15899 56 41 48 
-0.0471986 0.143813 1.18511 62 49 56 
0.0409058 0.14168 1.15234 67 47 56 
0.116198 0.162121 1.12218 76 55 60 
0.394338 0.273914 1.12891 137 122 143 
0.421576 -0.14133 1.16003 54 41 50 
-0.111804 0.135785 1.20782 125 143 193 
-0.337614 0.275978 0.993408 151 111 137 
0.463491 0.329427 1.0743 13 15 27 
-0.1353 -0.040315 1.27716 158 136 123 
-0.105576 0.0386859 1.21607 126 116 117 
-0.073407 0.0515365 1.22855 184 171 165 
-0.0594113 0.0534118 1.22324 105 85 84 
0.499668 0.33043 1.0666 11 28 84 
0.317801 -0.378087 1.22459 55 43 63 
0.306887 -0.374849 1.22476 83 58 77 
0.127731 -0.391828 1.29144 57 42 63 
-0.0120144 -0.373345 1.25379 72 31 39 
0.185416 -0.374186 1.26995 75 54 73 
0.277132 -0.350911 1.23408 71 52 74 
0.42815 -0.333851 1.17679 41 29 49 
-0.260666 -0.401604 1.43094 126 111 132 
0.372865 -0.332509 1.19669 54 35 54 
0.14735 -0.354366 1.27988 91 59 80 
0.448751 -0.320889 1.16681 63 48 71 
-0.321277 -0.391083 1.45614 73 58 81 
-0.472684 -0.401386 1.51251 49 34 41 
0.154697 -0.333024 1.27733 74 60 75 
0.499109 -0.293397 1.14336 149 122 141 
0.14582 -0.324991 1.27957 61 46 65 
0.33047 -0.281937 1.2077 39 25 40 
0.110173 -0.298159 1.28796 75 51 67 
-0.606873 -0.352306 1.55609 65 48 67 
-0.586717 -0.347897 1.54712 140 121 141 
0.331502 -0.267606 1.20612 69 45 61 
0.171975 -0.277466 1.2648 67 46 63 
-0.33492 -0.313005 1.45418 55 38 46 
0.179519 -0.269217 1.2592 74 56 78 
0.300847 -0.237247 1.21322 59 38 53 
0.0840996 -0.226827 1.19521 59 20 25 
-0.564157 -0.288557 1.53416 58 42 52 
-0.165892 -0.235214 1.27556 53 23 35 
-0.201831 -0.230405 1.2912 46 23 31 
-0.189976 -0.228616 1.28165 60 30 38 
-0.404306 -0.257518 1.47422 52 39 49 
-0.0337957 -0.213914 1.22498 134 90 105 
-0.00469374 -0.21107 1.22673 58 19 24 
-0.482509 -0.257639 1.50385 50 37 57 
-0.291053 -0.221923 1.32619 140 87 97 
-0.591553 -0.249082 1.53976 66 52 67 
-0.636223 -0.251018 1.55696 68 50 66 
-0.0699947 -0.1931 1.26749 58 29 34 
-0.570955 -0.202443 1.53055 46 33 51 
-0.0895334 -0.157494 1.2726 52 21 27 
-0.106742 -0.157069 1.27917 54 22 27 
-0.122896 -0.150336 1.28311 61 24 32 
-0.136379 -0.138231 1.28672 65 30 37 
-0.665429 -0.156332 1.55914 60 48 62 
0.0487233 -0.110274 1.24744 54 25 30 
-0.102994 -0.0978464 1.26321 44 18 27 
-0.0887908 -0.0853621 1.27033 38 17 16 
-0.119775 -0.0646693 1.27602 146 130 114 
-0.0132041 -0.0599143 1.23176 57 22 28 
-0.12819 -0.0584054 1.27806 143 125 105 
0.0818247 -0.0467441 1.23081 59 28 34 
0.310961 -0.0437654 1.19105 71 52 71 
-0.0824348 -0.046164 1.26925 206 199 173 
0.30804 -0.034016 1.19091 138 117 132 
0.0743964 -0.0344298 1.22948 143 95 111 
-0.634814 -0.0424757 1.53626 65 53 65 
-0.0793126 -0.0292485 1.26009 214 204 177 
-0.133277 -0.0277417 1.27597 145 124 107 
-0.560298 -0.0314538 1.50716 47 34 52 
-0.697803 -0.0305326 1.55622 60 68 104 
-0.391055 -0.0259598 1.34401 152 101 116 
-0.0946349 -0.0245562 1.26993 40 17 23 
0.440241 -0.0214751 1.14173 68 49 68 
0.310214 -0.0198033 1.19067 54 39 58 
-0.101234 -0.0160022 1.24691 220 210 183 
-0.00336684 -0.0145679 1.22833 55 22 29 
-0.0868528 -0.011448 1.24916 177 163 137 
-0.172851 -0.0103507 1.29018 54 21 28 
-0.196661 -0.00928687 1.29768 57 26 34 
0.389383 -0.00049764 1.15693 45 32 52 
0.0798701 0.000932243 1.2231 84 41 50 
0.0297682 0.00134223 1.24621 62 27 34 
-0.0820186 0.00402589 1.26975 107 88 71 
-0.0269209 0.00739617 1.23435 62 26 30 
-0.096141 0.0105716 1.26869 81 53 41 
-0.186848 0.0113382 1.29349 57 24 33 
-0.173183 0.0114694 1.28822 52 21 27 
-0.259352 0.0246569 1.33171 79 32 42 
-0.103923 0.0259953 1.22464 195 188 178 
0.0920977 0.0260192 1.21818 50 19 25 
-0.188468 0.0302042 1.29452 65 31 45 
-0.120624 0.0318512 1.23226 92 82 81 
-0.112597 0.0312334 1.22481 203 199 190 
-0.0931761 0.0348626 1.22461 120 104 104 
0.0306673 0.0360592 1.24232 57 24 31 
0.335453 0.0372501 1.17558 68 49 68 
0.325705 0.0395551 1.1779 74 60 73 
0.375712 0.0394577 1.16016 124 113 127 
0.158557 0.0447592 1.19517 51 20 26 
-0.100604 0.0477007 1.21667 46 32 31 
-0.338495 0.0587396 1.37488 54 21 30 
-0.0938291 0.0548852 1.2183 39 21 19 
-0.117422 0.0560558 1.2172 131 116 93 
0.0826055 0.062938 1.22215 61 24 31 
-0.0504495 0.0653477 1.23373 130 116 116 
0.135805 0.0773314 1.20095 57 26 34 
0.169301 0.0870175 1.16005 143 95 111 
-0.554234 0.113414 1.49245 19 26 45 
-0.551868 0.133027 1.44661 26 26 54 
-0.574331 0.144015 1.49248 18 26 72 
-0.58063 0.153667 1.49359 22 24 47 
-0.570182 0.157058 1.49147 147 158 214 
-0.428155 0.151239 1.32255 38 27 35 
0.195103 0.13045 1.09715 44 24 33 
0.34749 0.138476 1.15448 82 121 212 
0.16189 0.135505 1.10877 57 30 37 
-0.315875 0.16669 1.28237 60 28 39 
0.289262 0.154168 1.18054 58 45 62 
-0.248148 0.164894 1.25448 77 36 50 
-0.0485183 0.159413 1.18435 69 41 53 
0.0611869 0.247128 1.80998 65 31 45 
0.277465 0.161584 1.18292 43 27 40 
0.128661 0.15478 1.11936 65 33 44 
0.193881 0.152983 1.09589 63 32 38 
-0.675463 0.248811 1.52043 42 34 55 
-0.680867 0.28248 1.52033 42 35 53 
0.315334 0.220627 1.16599 76 61 84 
-0.70976 0.294368 1.52678 76 87 119 
-0.669995 0.325302 1.50057 82 70 94 
0.125044 0.249161 1.10718 42 21 26 
-0.711568 0.347155 1.50074 23 30 48 
0.294927 0.273341 1.16865 39 35 50 
-0.0853646 0.217242 0.920748 79 37 49 
0.475791 0.259992 1.0987 65 47 63 
-0.0108514 0.224093 0.944277 102 48 64 
0.143598 0.269865 1.09888 69 43 52 
0.153742 0.269243 1.09594 80 33 49 
0.423727 0.274478 1.11704 74 57 73 
0.317973 0.283951 1.15437 68 61 69 
-0.0277384 0.231289 0.935077 100 49 66 
-0.317318 0.256038 1.00239 73 42 60 
-0.0139263 0.254415 0.93949 90 51 72 
-0.0236926 0.254205 0.935194 81 44 61 
0.464375 0.301801 1.07649 20 18 31 
0.503249 0.299467 1.05935 17 18 38 
0.474765 0.305444 1.06948 19 20 76 
0.494562 0.304388 1.06568 15 27 65 
0.473344 0.310727 1.0446 159 174 243 
0.487764 0.31673 1.06448 154 177 244 
0.508728 0.325811 1.05619 20 11 40 
0.477356 0.329913 1.0674 27 18 73 
-0.276313 0.311475 0.965049 121 132 150 
-0.204745 0.305964 0.909076 28 39 101 
0.280852 -0.368418 1.23224 86 65 82 
0.442934 -0.330813 1.17119 124 110 136 
-0.337994 -0.404214 1.46496 44 26 38 
-0.0731532 -0.344526 1.25032 55 29 40 
0.1172 -0.327055 1.2885 91 68 84 
0.294829 -0.304898 1.22327 128 116 138 
0.355037 -0.283902 1.19782 62 42 51 
-0.63499 -0.349362 1.56015 70 53 71 
-0.366363 -0.309442 1.46411 75 51 64 
-0.38907 -0.308631 1.47228 66 52 65 
0.00150872 -0.242853 1.2142 65 25 33 
-0.0519896 -0.236039 1.22651 45 22 28 
-0.631432 -0.289102 1.55867 65 49 60 
0.167497 -0.231823 1.26186 94 62 75 
-0.0184489 -0.214555 1.22113 137 90 106 
-0.180975 -0.211589 1.27995 131 85 98 
-0.196378 -0.210947 1.28609 131 84 100 
0.30634 -0.197151 1.20862 62 44 58 
0.40131 -0.187225 1.17161 66 44 57 
-0.20144 -0.201435 1.29459 124 74 85 
-0.149237 -0.198585 1.29723 63 31 42 
0.179437 -0.17966 1.25444 85 58 75 
-0.411827 -0.206583 1.46984 48 34 47 
0.441652 -0.141322 1.15046 63 47 58 
-0.0499366 -0.151077 1.2583 46 23 31 
0.333294 -0.141354 1.19581 54 35 41 
-0.140057 -0.121203 1.28942 112 66 77 
0.326783 -0.105959 1.19413 58 45 55 
-0.37302 -0.125932 1.44913 59 41 57 
0.274537 -0.0734319 1.20944 57 39 53 
-0.103659 -0.0699519 1.27001 72 36 38 
-0.537175 -0.0725858 1.49827 125 106 126 
0.294178 -0.0566825 1.1995 65 44 49 
-0.620747 -0.0711985 1.53635 74 65 84 
-0.258131 -0.0597063 1.34297 58 22 24 
-0.189808 -0.0546819 1.2945 51 22 26 
0.0300927 -0.0452096 1.24944 63 33 41 
-0.618134 -0.0418649 1.52719 63 54 73 
-0.261856 -0.0363722 1.35412 56 30 39 
-0.245602 -0.0364971 1.35093 59 29 37 
-0.114925 -0.0327522 1.25106 214 203 181 
-0.0828989 -0.0210865 1.25483 189 182 156 
-0.0282903 0.0265297 1.2355 67 29 40 
-0.0119468 0.0264178 1.22614 70 39 47 
0.0552612 0.0270508 1.22785 57 26 32 
0.0882832 0.0352879 1.21816 50 21 25 
-0.294553 0.0400604 1.35837 53 27 36 
-0.239922 0.0441396 1.3407 43 23 25 
-0.441794 0.0563151 1.45248 44 31 41 
-0.0367978 0.0620584 1.23356 58 22 34 
-0.027142 0.0621804 1.23062 59 26 33 
-0.0781865 0.062396 1.22484 130 115 134 
-0.699817 0.080492 1.5459 97 97 131 
-0.186918 0.0671177 1.28968 59 26 35 
-0.172728 0.0664954 1.28318 59 28 34 
-0.149518 0.0692419 1.2752 45 24 31 
0.054031 0.0759076 1.22983 69 29 38 
-0.297601 0.0900668 1.35953 54 23 38 
-0.52234 0.110098 1.479 119 105 120 
-0.574179 0.115203 1.49057 19 24 43 
0.156567 0.105744 1.14677 158 104 120 
-0.371458 0.14979 1.3033 52 32 41 
-0.380234 0.1547 1.30234 110 73 80 
-0.632602 0.181292 1.5129 131 118 144 
0.308626 0.144007 1.17559 135 130 150 
0.427478 0.150762 1.13031 61 44 62 
0.382982 0.158843 1.14355 71 56 75 
0.0365265 0.161223 1.15373 62 35 50 
0.200969 0.254125 1.7914 72 41 49 
-0.19182 0.188313 1.21492 69 48 55 
0.382033 0.177507 1.14393 122 117 140 
0.284199 0.185088 1.17881 126 123 142 
0.33843 0.18372 1.15809 138 114 128 
0.345868 0.190757 1.15461 139 129 154 
0.405004 0.187446 1.1336 127 115 135 
0.417951 0.187488 1.12756 127 113 130 
-0.562075 0.246931 1.47921 53 47 61 
0.320177 0.194929 1.16506 127 123 146 
-0.705185 0.256325 1.52884 72 83 111 
0.410862 0.213751 1.12988 63 50 67 
0.284672 0.22608 1.17599 109 107 131 
0.364348 0.22144 1.14706 61 48 65 
0.466615 0.214243 1.10756 64 50 65 
0.282827 0.235824 1.17448 121 117 142 
-0.707164 0.316409 1.52035 143 163 198 
-0.0145261 0.201049 0.943621 86 55 73 
0.27982 0.260593 1.17557 40 25 32 
0.34733 0.263317 1.1465 60 44 55 
0.319594 0.267033 1.15873 55 45 56 
-0.312789 0.235801 1.00143 74 36 49 
0.360014 0.269243 1.1431 110 100 125 
0.306908 0.275792 1.16286 61 45 55 
0.378278 0.26988 1.13542 102 96 122 
0.191848 0.257991 1.08138 55 29 38 
0.46358 0.264599 1.10374 56 34 47 
-0.267689 0.235294 0.982874 65 43 56 
0.44639 0.275056 1.10912 140 130 154 
-0.000164638 0.238246 0.947569 78 40 61 
0.101485 0.290333 1.1003 146 101 121 
0.371435 0.301188 1.11249 69 57 77 
0.0219329 -0.346244 1.24693 147 96 111 
-0.0964506 -0.34219 1.26045 133 80 96 
-0.150245 -0.339437 1.27671 135 81 94 
-0.691681 -0.394264 1.59366 76 63 93 
0.454434 -0.283442 1.16325 66 48 64 
0.320851 -0.273181 1.20883 126 109 127 
0.277987 -0.265237 1.22417 81 60 69 
0.203851 -0.259571 1.25064 88 68 80 
0.0333347 -0.240219 1.23309 39 19 21 
0.0138119 -0.240221 1.24468 36 18 18 
-0.582463 -0.282062 1.53945 148 134 147 
-0.219123 -0.227564 1.29528 31 14 20 
-0.038087 -0.205505 1.23284 122 68 82 
-0.574854 -0.251727 1.53187 36 28 43 
-0.173203 -0.203295 1.28239 127 76 91 
-0.587744 -0.236821 1.54393 54 37 53 
0.153776 -0.180304 1.26626 65 45 56 
-0.0975802 -0.152552 1.27623 51 21 23 
-0.050443 -0.113836 1.25836 30 12 12 
0.161193 -0.093275 1.24695 73 47 60 
-0.097569 -0.0626106 1.26688 160 145 124 
0.275321 -0.0584803 1.20732 63 53 64 
-0.0312872 -0.0589048 1.23535 67 28 31 
-0.111605 -0.051197 1.26042 206 198 175 
0.177691 -0.0396802 1.13561 140 86 102 
-0.117535 -0.0421061 1.25547 195 179 154 
0.296752 -0.0310601 1.19315 75 53 56 
0.430226 -0.0122242 1.14288 87 66 73 
0.264499 -0.00676879 1.20384 84 64 75 
0.251336 -0.00638141 1.2103 60 46 59 
0.286514 -0.00533817 1.194 63 43 45 
-0.0853415 0.0195272 1.26453 190 180 153 
-0.161151 0.029088 1.28235 55 28 37 
-0.516658 0.0381742 1.49007 63 50 60 
0.0344557 0.0734235 1.23452 61 28 39 
-0.700296 0.0994963 1.54848 103 88 111 
-0.173576 0.0890393 1.28105 60 35 41 
0.327328 0.106221 1.17291 38 33 40 
-0.23491 0.131376 1.27421 100 58 70 
0.15141 0.121285 1.13695 87 57 59 
-0.405847 0.153137 1.31805 37 35 38 
-0.0247085 0.143364 1.17633 136 88 110 
0.322675 0.147376 1.20418 68 46 48 
0.128285 0.139349 1.12026 60 48 50 
0.293953 0.165763 1.17668 142 125 144 
-0.697245 0.241912 1.53243 71 61 88 
0.310061 0.18414 1.16676 68 50 62 
-0.302823 0.201519 1.25561 84 52 57 
0.434589 0.181141 1.12112 61 44 54 
0.0200968 0.204216 0.960858 81 52 70 
0.308386 0.261403 1.16033 72 55 63 
0.0934386 0.287055 1.10754 66 44 56 
0.263111 0.304919 1.15297 56 54 68 
0.111649 0.315218 1.09265 45 41 42 
0.503826 0.30998 1.05969 164 183 252 
-0.0588836 0.278004 0.902563 82 50 63 
0.466382 0.311133 1.07273 151 172 239 
0.0184456 -0.328236 1.21069 39 20 22 
-0.157205 -0.236027 1.28148 36 14 16 
-0.0984447 -0.202565 1.25606 135 86 105 
-0.0847839 -0.098759 1.27278 30 16 15 
0.216857 -0.095647 1.23178 88 57 72 
-0.0242938 -0.0502626 1.23853 52 27 33 
-0.183958 -0.0461529 1.29996 53 32 39 
-0.397292 -0.0453248 1.37739 67 25 26 
-0.381192 -0.0304662 1.34779 146 89 108 
-0.0732808 0.0192601 1.27763 44 19 22 
-0.117209 0.0352998 1.20163 184 176 187 
0.442228 0.0431283 1.13644 134 125 146 
-0.48383 0.0689394 1.47048 48 41 49 
0.385359 0.103742 1.1455 61 44 52 
-0.364562 0.132543 1.31718 73 48 51 
-0.573545 0.152531 1.50089 151 169 235 
0.0261389 0.125077 1.20164 73 50 60 
0.137957 0.119573 1.13972 77 51 60 
0.3294 0.192664 1.1599 137 121 147 
0.389414 0.271031 1.13768 56 50 60 
-0.076035 0.276713 0.897776 84 45 50 
-0.0997268 -0.188129 1.27928 64 29 27 
-0.216735 -0.113563 1.33134 58 26 27 
-0.0996849 -0.0883815 1.26749 135 115 90 
-0.0887404 0.0166213 1.27416 160 143 117 
-0.14073 0.0561344 1.25161 125 114 118 
-0.0686077 0.191415 1.17149 53 42 48 
0.0695734 0.0373022 1.23118 79 31 27 
0.0229428 -0.231959 1.23877 40 20 19 
0.0558644 -0.222034 1.22895 136 83 103 
0.098619 0.194632 1.08563 55 37 35 
-0.429594 -0.239773 1.48177 51 43 54 
-0.372231 -0.211847 1.45967 45 33 55 
-0.395751 -0.206336 1.46563 42 23 43 
-0.391762 -0.178366 1.4609 59 41 55 
-0.434426 -0.125434 1.4723 59 38 55 
-0.356085 -0.0832499 1.44007 60 43 61 
-0.172892 -0.0553888 1.28983 52 23 28 
-0.207595 0.0236463 1.08523 52 19 26 
0.289007 0.021592 1.19257 78 60 72 
-0.60273 0.0727091 1.51427 63 55 78 
-0.262046 0.0732513 1.34591 58 28 38 
-0.245591 0.0729646 1.34107 53 21 26 
-0.234885 0.0854013 1.33435 57 28 33 
-0.37047 0.0907536 1.35193 67 32 38 
-0.563752 0.138325 1.50078 14 25 70 
-0.550535 0.181596 1.48272 47 35 49 
-0.145684 0.232809 0.941126 81 44 61 
-0.270988 0.254825 0.984753 86 45 59 
-0.0858903 0.251269 0.917861 78 46 61 
0.159838 -0.304868 1.27162 104 72 87 
0.230045 -0.265588 1.24096 97 71 84 
-0.440569 -0.239463 1.48436 72 50 62 
-0.427115 -0.210681 1.47775 67 54 71 
-0.517263 -0.153974 1.50289 122 112 136 
-0.44825 -0.0456066 1.46762 113 89 103 
-0.521759 -0.0371506 1.49484 40 34 46 
-0.498262 -0.0339555 1.48633 59 47 61 
0.0318816 0.0530623 1.54789 68 35 42 
0.322437 0.059106 1.17716 56 42 59 
0.480187 0.148085 1.10761 64 43 52 
-0.0613374 0.163501 1.18728 79 40 58 
-0.145711 0.222917 0.942108 76 43 60 
-0.514867 0.336261 1.43196 37 36 42 
-0.22665 0.234774 0.969639 73 41 54 
-0.207345 0.238967 0.962675 96 45 62 
-0.253778 0.254365 0.978176 77 41 55 
0.216928 -0.302668 1.24951 101 77 90 
0.447885 -0.236195 1.15815 60 51 70 
-0.445883 -0.0762374 1.47253 123 102 121 
0.407685 -0.060304 1.1569 72 47 53 
0.34006 -0.0568227 1.18204 62 41 48 
-0.0266848 -0.0119817 1.23612 65 38 47 
0.0106681 0.136081 1.16538 68 51 61 
-0.0889161 0.144896 1.19947 85 58 75 
-0.17712 -0.189888 1.2768 143 88 107 
-0.0427543 -0.112111 1.24855 125 69 80 
-0.56423 0.129265 1.48996 166 183 253 
-0.0575023 -0.236159 1.23524 38 23 26 
0.153276 -0.368337 1.28045 69 54 75 
0.406319 -0.381182 1.18701 53 37 50 
0.458405 -0.334219 1.16369 46 29 47 
-0.102289 -0.146783 1.23882 113 68 75 
-0.625933 -0.157511 1.54279 77 63 76 
-0.0563746 -0.122763 1.25748 104 65 70 
-0.0905888 -0.0148071 1.25976 93 69 59 
-0.113345 0.0241375 1.25301 187 184 193 
-0.0178793 0.17175 1.43684 61 37 50 
0.0249748 -0.236455 1.24877 36 18 18 
0.485627 0.307263 1.06832 16 24 35 
-0.127317 -0.341328 1.26968 82 30 52 
0.156789 -0.343413 1.27514 73 52 71 
0.212633 -0.331456 1.25739 68 49 68 
-0.301587 -0.337205 1.44117 61 35 46 
-0.507034 -0.338068 1.51976 58 45 62 
-0.327993 -0.306535 1.44845 78 60 76 
-0.608973 -0.289121 1.55346 58 39 59 
-0.472406 -0.268246 1.49706 53 38 57 
-0.578421 -0.20968 1.52676 140 131 148 
-0.589229 -0.201821 1.53578 44 35 56 
-0.226929 -0.0978796 1.34643 43 20 28 
-0.000366095 -0.0506296 1.22997 56 25 33 
-0.0957037 -0.0484928 1.27051 150 133 103 
-0.160244 -0.0466546 1.28803 55 24 30 
-0.199145 -0.0462372 1.30293 48 22 31 
-0.0129354 -0.014166 1.23152 61 28 37 
-0.196586 0.066727 1.29163 60 27 36 
-0.314509 0.0902918 1.36078 54 27 36 
-0.181119 0.131567 1.24978 91 49 59 
0.141539 0.248759 1.10342 77 31 44 
0.441015 0.268445 1.11539 45 37 48 
0.00926612 -0.32631 1.20165 112 62 71 
-0.240344 -0.325093 1.28955 65 30 37 
-0.293326 -0.361829 1.44392 61 50 58 
0.331561 -0.321719 1.20866 86 71 90 
-0.447947 -0.344842 1.49596 56 41 62 
0.387931 -0.28391 1.18708 75 57 79 
0.0919536 -0.260319 1.29072 78 47 62 
-0.2642 -0.26264 1.42314 48 34 49 
-0.332582 -0.261589 1.44788 62 49 79 
0.362827 -0.23342 1.18971 69 56 74 
-0.210055 -0.218733 1.29265 106 69 77 
-0.539395 -0.241019 1.51986 76 51 57 
-0.0128542 -0.200717 1.24445 159 102 121 
-0.0778937 -0.169252 1.36275 53 22 27 
-0.445311 -0.125108 1.47337 69 51 63 
-0.343856 -0.122924 1.4379 59 39 48 
0.439757 -0.106517 1.14623 76 58 74 
0.42385 -0.104098 1.15463 77 51 64 
-0.158951 -0.0948497 1.27029 109 68 82 
-0.0272999 -0.0324185 1.23811 67 35 46 
0.455352 -0.0101256 1.13465 71 56 63 
0.0695048 0.00050751 1.22655 99 52 62 
0.0603491 0.0054681 1.22867 88 45 55 
0.0870484 0.00631068 1.21831 95 45 54 
0.0560207 0.0150744 1.23116 67 34 45 
-0.000801598 0.0240156 1.22374 57 30 39 
-0.172007 0.0305147 1.28491 69 37 48 
-0.116801 0.037405 1.21378 196 194 199 
-0.0272484 0.0417167 1.23116 68 35 42 
-0.126743 0.0446299 1.22715 49 39 29 
-0.0840323 0.0524092 1.22039 102 87 94 
-0.131222 0.0550313 1.23591 54 37 30 
-0.18034 0.0596203 1.28484 150 93 108 
0.276923 0.0708412 1.19487 64 42 54 
0.311571 0.0962059 1.17601 72 51 66 
-0.165497 0.110936 1.26004 89 39 50 
-0.0364416 0.127309 1.20177 106 60 73 
0.107878 0.132072 1.12914 63 34 39 
-0.282106 0.147058 1.27024 72 36 50 
-0.212893 0.145142 1.24309 72 40 55 
0.179976 0.138205 1.10321 69 41 53 
-0.226959 0.163794 1.24882 79 41 54 
0.300489 0.183388 1.17122 70 46 60 
0.353624 0.222422 1.15112 58 44 61 
0.00429739 0.204252 0.955221 85 47 62 
-0.269948 0.20632 0.9894 74 34 45 
-0.282057 0.208051 0.991959 67 36 51 
-0.0507695 0.201621 0.929093 81 40 54 
-0.207523 0.221561 0.965135 86 42 55 
-0.0732481 0.269007 0.907695 115 72 91 
-0.229963 0.308687 0.909108 46 32 55 
0.396353 -0.333272 1.19248 40 32 43 
-0.00605686 -0.264535 1.22911 114 66 80 
-0.206532 -0.25813 1.29724 115 69 80 
-0.291813 -0.216035 1.33582 53 21 24 
-0.465021 -0.125842 1.48719 57 46 62 
-0.0991039 -0.0258257 1.25492 48 28 19 
0.280501 0.00191261 1.19882 136 120 146 
0.0787561 0.0403082 1.21943 36 20 21 
-0.140741 0.0540405 1.26477 150 139 137 
-0.363976 0.13378 1.32542 78 54 52 
0.4933 0.18073 1.10103 64 49 56 
-0.476058 -0.305782 1.50533 88 64 77 
-0.178219 -0.232276 1.27951 73 37 41 
-0.162635 -0.217642 1.29466 36 16 15 
-0.13878 -0.184393 1.28956 70 40 50 
0.17462 -0.0234399 1.1475 66 34 39 
0.11994 0.0588622 1.20488 49 24 28 
0.448129 0.0610858 1.13072 77 61 72 
0.295147 0.110845 1.18223 126 106 131 
0.0234945 0.124052 1.19053 74 51 59 
-0.179537 0.190489 1.21164 63 48 55 
0.364077 0.257132 1.13967 130 103 118 
-0.199439 -0.18647 1.28608 138 84 100 
0.0946661 -0.184165 1.21025 67 28 29 
0.177975 -0.0609672 1.15285 88 37 36 
-0.389275 -0.0448966 1.36577 71 30 26 
0.478436 0.320887 1.07539 164 182 254 
-0.0996216 0.025503 1.25554 201 193 190 
-0.254014 -0.298607 1.42227 48 35 55 
-0.00573046 -0.225175 1.21601 131 92 110 
-0.486905 -0.0811615 1.48697 62 46 72 
-0.216318 0.0388108 1.33178 44 19 25 
-0.517038 0.0591151 1.48435 67 56 72 
-0.4991 0.10504 1.4737 48 37 53 
-0.566053 0.135394 1.47389 26 20 58 
-0.447732 0.13627 1.4539 35 31 45 
-0.487039 0.205184 1.4606 46 35 49 
-0.530458 0.2455 1.47211 33 29 43 
-0.106421 -0.278239 1.2652 73 37 51 
0.30483 -0.312044 1.21836 65 52 62 
0.349685 -0.312851 1.2033 81 55 68 
0.231325 -0.304948 1.2456 80 56 70 
0.314325 -0.279131 1.21583 129 116 136 
-0.551464 -0.157898 1.51593 46 41 63 
0.386075 -0.141952 1.17291 70 46 62 
-0.346004 -0.0930595 1.43469 138 113 132 
-0.336787 -0.0885049 1.43265 141 114 129 
-0.542078 -0.0782741 1.50514 61 48 65 
0.190068 0.0584945 1.73378 65 34 39 
-0.357253 0.16775 1.2941 60 29 34 
-0.480608 0.247169 1.45523 36 30 34 
-0.208632 0.251187 0.961787 78 44 60 
0.292833 -0.373984 1.23105 89 67 79 
-0.506351 -0.155215 1.50108 120 104 130 
-0.113064 -0.0579365 1.27046 93 51 61 
-0.572936 0.131815 1.49562 17 24 42 
-0.324854 0.145155 1.28621 70 47 53 
0.000509162 0.142094 1.16757 78 52 63 
-0.112153 -0.148335 1.2817 48 19 21 
0.35881 -0.145442 1.18363 64 60 75 
-0.151361 -0.109911 1.29606 132 76 87 
-0.185752 0.0492641 1.28954 64 39 45 
-0.156514 0.0800374 1.27223 63 27 31 
-0.366844 0.130671 1.29941 81 52 54 
0.0828777 0.0374008 1.23687 83 34 30 
0.148551 -0.0639065 1.17037 148 119 139 
-0.109778 0.0607733 1.2244 38 26 30 
-0.0672761 0.00406286 1.25492 45 21 21 
-0.201497 0.00851788 0.990733 58 25 34 
0.0622511 0.0360048 1.81931 65 23 35 
0.353864 0.15285 1.15847 60 42 66 
-0.344936 0.171591 1.28923 56 30 39 
-0.0838328 -0.163406 1.31681 53 22 27 
0.732031 -0.144713 3.74308 63 36 45 
0.0659715 -0.0200048 1.82173 63 30 39 
-0.201546 -0.00702158 0.992498 51 24 33 
-0.257508 0.225366 0.982551 68 41 56 
-0.531969 -0.256951 1.52026 53 37 47 
0.101087 -0.0884403 1.80324 67 30 37 
-0.199859 -0.035327 0.992669 48 26 29 
0.303392 0.142505 1.16528 136 133 154 
-0.425462 0.170474 1.31798 50 41 44 
-0.605064 0.248477 1.49558 59 53 65 
-0.197825 -0.214029 1.29508 116 67 86 
-0.125354 -0.140411 1.28645 51 21 21 
-0.07259 0.0143003 1.26255 59 27 30 
-0.418264 0.155702 1.31757 118 110 121 
-0.03571 -0.195982 1.22404 153 100 118 
-0.0236775 -0.196568 1.22017 157 103 117 
-0.391263 -0.165764 1.46041 57 45 67 
-0.122897 -0.0849147 1.2861 92 75 57 
-0.0567894 0.0626701 1.22536 41 20 19 
0.390992 0.149807 1.14522 66 42 55 
-0.408634 0.172419 1.31392 65 27 40 
-0.560612 0.312402 1.03278 153 170 188 
0.24612 -0.388474 1.2498 139 118 137 
-0.257403 -0.311191 1.42347 121 99 122 
-0.556404 -0.262235 1.53035 59 47 61 
-0.206655 -0.2439 1.29825 61 26 32 
-0.163015 -0.176166 1.28422 70 31 36 
-0.460802 -0.159623 1.4857 49 36 46 
-0.627831 -0.122901 1.54259 60 49 66 
-0.245968 -0.111221 1.3519 70 27 36 
-0.469294 -0.0808507 1.48253 58 44 59 
0.950251 -0.099502 3.48953 69 39 49 
0.379843 0.0636216 1.15471 133 110 128 
0.349931 0.0885965 1.16367 78 59 78 
-0.498952 0.119301 1.47147 39 28 42 
-0.21885 0.11322 1.28672 83 36 44 
-0.580703 0.178816 1.49207 126 110 136 
-0.077376 0.164304 1.19382 77 43 59 
-0.617037 0.246655 1.50061 64 57 75 
0.32936 0.26412 1.15367 57 35 48 
-0.387441 0.284815 1.29031 24 22 23 
-0.469053 0.327487 1.42257 107 91 102 
0.0372586 0.274853 0.950027 172 133 160 
-0.0352287 -0.232668 1.2085 151 98 114 
-0.166957 -0.221817 1.27665 106 60 73 
-0.0383877 -0.217015 1.23321 114 64 75 
-0.355446 -0.157447 1.44761 136 110 123 
-0.0626129 -0.0967736 1.24075 100 64 76 
0.977771 -0.195631 3.45151 64 30 31 
0.172152 -0.0494826 1.14667 148 99 118 
-0.124571 0.0299024 1.25735 165 155 154 
-0.0670333 0.0439838 1.23951 189 180 173 
0.345912 0.0741838 1.1694 144 123 138 
-0.401228 0.107188 1.35975 60 40 49 
0.341698 0.104573 1.16739 63 42 57 
-0.565894 0.131519 1.43562 17 22 42 
-0.0120061 -0.27852 1.23409 137 84 102 
-0.0170701 -0.235796 1.21939 78 41 49 
-0.37064 -0.237167 1.45865 80 68 80 
-0.0955498 -0.204923 1.27284 141 93 109 
0.266815 -0.186494 1.22171 82 66 77 
0.0697195 -0.0597972 1.23772 48 29 35 
0.952179 -0.17209 3.49743 54 31 37 
-0.449434 0.305927 1.30195 140 92 114 
0.307714 -0.0466284 1.20163 141 122 142 
-0.0518113 0.0382419 1.24448 86 41 46 
0.0944079 0.0380913 1.25855 83 34 30 
-0.102584 0.0616248 1.21527 66 49 55 
-0.0342245 -0.185889 1.20877 149 96 112 
-0.104734 0.0251501 1.24123 206 201 208 
-0.0959263 0.0608967 1.22878 63 52 60 
0.0615386 -0.327736 1.19964 136 115 130 
-0.332686 -0.280929 1.45191 47 34 60 
-0.319164 -0.266682 1.44414 91 62 80 
-0.283202 -0.260433 1.43019 69 41 63 
-0.34209 -0.203827 1.44586 82 54 68 
-0.386736 -0.199431 1.46294 80 57 75 
-0.0470066 -0.182774 1.23871 116 74 88 
-0.248097 -0.137054 1.35237 58 27 43 
-0.101217 -0.112685 1.29673 117 75 87 
-0.0750663 -0.108772 1.27848 124 106 104 
0.0646856 -0.115581 1.23628 133 92 108 
0.0680294 -0.0762241 1.22288 150 98 111 
-0.121677 -0.0455059 1.27138 179 164 131 
-0.413887 -0.00499849 1.45334 48 35 52 
-0.414728 0.00949807 1.45335 111 100 116 
-0.465126 0.0250302 1.46832 48 36 56 
-0.364849 0.100798 1.35457 155 107 121 
-0.445891 0.117354 1.45257 40 29 43 
-0.19399 0.144676 1.2384 82 43 61 
0.503627 0.147512 1.09959 65 50 71 
-0.175955 0.166791 1.23002 84 47 65 
-0.437325 0.191869 1.32601 60 43 51 
-0.494913 0.24446 1.45962 112 100 120 
-0.145158 0.208008 0.94335 93 43 55 
-0.103753 0.222496 0.927219 83 50 67 
-0.366849 0.33644 1.25915 124 144 179 
-0.359617 0.279122 1.05513 66 46 58 
-0.196762 0.298884 0.897681 56 54 103 
-0.3349 0.312012 0.988908 52 35 53 
-0.580039 0.116917 1.49977 16 23 42 
0.360356 -0.312045 1.19888 80 59 78 
-0.593913 -0.217252 1.53744 68 60 81 
0.043524 -0.257852 1.22893 74 36 51 
0.383439 -0.300253 1.18981 66 56 81 
-0.295621 -0.235518 1.43127 81 66 89 
-0.558915 -0.202425 1.52402 58 45 62 
-0.410775 -0.19208 1.47049 71 58 75 
-0.507041 -0.121692 1.49752 55 43 65 
-0.404285 -0.12061 1.46234 138 117 136 
-0.585054 -0.0336634 1.51592 126 112 138 
-0.458141 -0.0388846 1.4759 47 37 48 
-0.170726 -0.043818 1.29345 59 27 38 
-0.0118235 -0.0498418 1.23475 70 37 44 
-0.412906 -0.0156833 1.4547 57 44 54 
-0.183525 -0.0238115 1.29645 68 36 49 
-0.558247 0.0183048 1.50164 60 48 62 
-0.520035 0.0166162 1.4873 56 44 56 
0.121593 0.0118611 1.2119 70 36 50 
-0.0923259 0.0210635 1.23605 80 42 53 
0.000169383 0.0882268 1.21907 86 43 60 
0.363555 0.106617 1.15629 57 42 49 
-0.465695 0.131081 1.46039 40 30 38 
0.436179 0.116635 1.12646 96 67 85 
-0.166612 0.166524 1.22626 85 47 62 
-0.150406 0.16617 1.2198 78 45 56 
-0.26496 0.169317 1.26252 94 53 71 
0.0623569 0.180674 1.12181 74 44 56 
-0.350695 0.167952 1.02947 92 49 56 
-0.554788 0.28583 1.47663 52 43 60 
-0.566822 0.291183 1.48025 117 118 138 
-0.192385 0.223663 0.959107 91 39 52 
-0.297961 0.236316 0.996624 73 45 60 
-0.163721 0.256034 0.945881 94 61 82 
-0.285402 0.258895 0.99031 87 54 71 
-0.380083 0.336611 1.26053 117 130 164 
-0.251356 0.281164 0.96188 59 37 49 
0.0635267 -0.316604 1.22477 45 24 29 
-0.324309 -0.242613 1.44234 88 65 75 
-0.227607 -0.234409 1.33244 39 19 28 
0.0794638 -0.221775 1.20499 64 29 33 
-0.109116 -0.173953 1.2807 71 39 52 
-0.557985 -0.123636 1.51121 119 103 129 
0.351758 -0.188286 1.1894 78 58 70 
-0.303646 -0.126578 1.4225 54 42 52 
-0.531351 -0.0501568 1.50072 74 55 77 
0.363234 -0.0583425 1.1767 68 57 73 
-0.395171 -0.0177594 1.34767 60 29 34 
-0.259763 0.00888424 1.34678 107 60 66 
-0.27337 0.0234921 1.35338 65 34 40 
-0.273642 0.0343975 1.35404 54 25 30 
0.117955 0.0511992 1.19566 65 23 25 
-0.511719 0.107772 1.476 59 57 78 
0.150337 0.123613 1.1618 58 31 36 
-0.070942 0.17895 1.18928 95 68 75 
0.435945 0.216216 1.11941 83 63 72 
-0.380567 -0.233511 1.46095 134 111 131 
0.0807095 -0.243903 1.20175 107 47 55 
-0.27635 -0.117309 1.3424 51 24 29 
0.0839272 -0.137056 1.20719 140 87 105 
-0.0935105 -0.0729162 1.2686 175 163 141 
-0.530127 -0.00824475 0.626443 54 31 37 
-0.452841 -0.00966442 1.4676 117 90 107 
0.165132 -0.0295263 1.1477 64 25 30 
-0.467401 0.0125041 1.47263 46 31 36 
0.190954 0.060143 1.15619 79 48 63 
-0.448384 0.154444 1.4506 51 42 47 
0.117592 0.135158 1.12608 87 67 78 
-0.254472 0.143591 1.26409 89 58 74 
-0.344645 0.147444 1.29434 74 55 59 
0.0443173 -0.269055 1.23143 80 37 46 
-0.233455 -0.22488 1.33473 128 80 96 
-0.22007 -0.113564 1.34604 60 30 30 
0.188462 0.0130876 1.15979 73 31 33 
-0.557829 0.151419 1.48117 172 187 255 
0.516036 0.289853 1.0725 147 133 158 
-0.0799562 0.0620036 1.25347 55 47 58 
-0.108062 -0.0433563 1.26675 226 214 190 
0.163966 -0.448598 1.28325 78 55 84 
0.0204426 -0.419988 1.33403 67 41 68 
0.20385 -0.43055 1.26723 59 41 65 
0.246532 -0.416812 1.25129 139 124 143 
0.194853 -0.417446 1.26964 58 40 56 
0.184117 -0.415647 1.27542 62 45 63 
0.00402415 -0.456793 1.34484 66 48 70 
-0.0257566 -0.417374 1.24842 72 40 51 
-0.202425 -0.487706 1.42198 55 41 67 
-0.0747756 -0.419567 1.27674 71 24 30 
-0.0504798 -0.406527 1.27436 91 35 48 
-0.518543 -0.524902 1.53888 72 48 62 
-0.168702 -0.419471 1.29861 59 31 43 
-0.180131 -0.415165 1.30567 60 32 44 
0.00692381 -0.377487 1.23919 153 103 114 
-0.0631734 -0.388883 1.27348 79 29 41 
-0.584313 -0.517953 1.56176 72 55 73 
-0.328958 -0.464712 1.46516 69 57 81 
-0.0204822 -0.375946 1.25806 146 93 109 
-0.275486 -0.447177 1.44723 63 45 57 
0.0956296 -0.36843 1.29941 82 57 76 
-0.779975 -0.486598 1.61698 29 40 96 
0.0924531 -0.314012 1.29084 40 23 33 
-0.623082 -0.428294 1.56418 68 50 66 
0.585293 -0.21427 1.22449 42 46 71 
-0.693546 -0.352221 1.58466 106 108 147 
0.00328584 -0.223772 1.23395 116 70 80 
-0.782552 -0.306772 1.60141 27 38 92 
-0.783629 -0.136326 1.58668 25 33 79 
-0.524184 -0.0784692 1.49751 57 42 61 
-0.082531 0.0470678 1.22855 181 174 158 
0.242569 0.0755737 1.20554 121 109 129 
-0.806831 0.0792863 1.55761 27 55 95 
-0.795056 0.0804481 1.56594 28 33 55 
-0.79204 0.120186 1.56191 99 113 150 
-0.791456 0.131195 1.56087 85 98 132 
-0.788218 0.161888 1.55697 31 31 57 
-0.786722 0.175197 1.55589 17 27 62 
0.584687 0.226909 1.17262 49 61 99 
-0.810178 0.291735 1.53422 15 39 67 
-0.788707 0.299514 1.54762 22 23 53 
-0.813076 0.303372 1.53199 111 131 158 
0.590022 0.243248 1.16818 23 41 81 
-0.783049 0.338093 1.52654 116 101 120 
-0.712832 0.346083 1.47214 167 186 226 
-0.73755 0.343745 1.45814 122 134 146 
0.0823407 -0.452127 1.31563 83 60 76 
0.0992563 -0.418323 1.30681 83 62 81 
-0.0416543 -0.386273 1.26602 83 41 55 
-0.0291684 -0.382998 1.2611 105 46 52 
0.0175868 -0.365227 1.24307 58 20 19 
0.589592 -0.299518 1.2336 145 173 212 
-0.582797 -0.468207 1.55575 54 37 53 
-0.321104 -0.404338 1.45462 55 39 50 
0.0970571 -0.324494 1.29221 68 33 37 
0.187747 -0.308814 1.26141 82 56 65 
-0.633756 -0.429941 1.57292 64 50 73 
-0.690353 -0.438408 1.59325 77 81 116 
-0.690009 -0.427771 1.5921 112 93 123 
-0.275342 -0.320563 1.32215 67 34 41 
-0.806631 -0.358308 1.59738 152 176 220 
-0.18255 -0.208669 1.28924 72 31 37 
-0.499122 -0.16141 1.49367 63 49 66 
0.611832 -0.0361877 1.22454 113 123 172 
-0.107115 0.0155343 1.24385 136 124 126 
-0.236386 0.022822 1.33803 50 23 30 
-0.235944 0.0342717 1.33817 41 18 26 
0.31824 0.0700035 1.17708 73 58 81 
-0.790568 0.190758 1.56039 55 62 104 
-0.810919 0.269012 1.54019 37 52 75 
0.0206063 0.222641 0.957291 89 48 64 
0.24841 0.283814 1.17971 57 51 63 
0.128906 -0.412512 1.29004 93 79 104 
-0.279363 -0.476458 1.44411 82 69 89 
-0.327109 -0.476143 1.4645 81 58 74 
0.58354 -0.311893 1.23203 24 26 38 
-0.109215 -0.351036 1.25076 143 95 117 
-0.261707 -0.306078 1.3437 43 21 24 
0.584481 -0.195259 1.2232 57 59 84 
0.00534415 -0.232889 1.22536 122 68 81 
-0.244084 -0.260548 1.33261 61 30 36 
-0.169182 -0.164002 1.28349 24 12 14 
0.00614673 -0.102873 1.21162 59 24 30 
-0.213376 -0.111925 1.31876 61 30 35 
-0.0969236 -0.0888875 1.27696 143 123 98 
0.258629 -0.0542685 1.21606 55 42 51 
-0.400373 0.151502 1.30769 34 34 36 
0.0989302 0.18197 1.10937 86 54 59 
-0.704649 0.300799 1.51787 139 154 193 
0.580726 0.243392 1.18276 27 35 58 
0.581494 0.281565 1.17996 41 44 63 
-0.0197269 -0.337867 1.20672 123 66 83 
-0.790287 -0.348125 1.60273 29 34 54 
-0.0159824 -0.19202 1.21089 154 98 111 
0.0827822 -0.128397 1.21625 55 23 26 
-0.479806 0.068071 1.45827 52 44 55 
-0.303337 0.0710942 1.35275 52 20 21 
-0.700785 0.316133 1.52773 86 81 104 
0.044957 -0.235391 1.23338 139 85 99 
-0.255157 -0.315933 1.33611 58 32 35 
-0.253047 -0.280266 1.33139 115 88 103 
0.116404 -0.188165 1.26208 58 26 27 
-0.297572 -0.20684 1.37061 96 53 60 
-0.0979208 0.0606763 1.197 40 31 32 
-0.0678067 0.00369281 1.26468 31 15 15 
-0.356905 0.297137 2.52124 50 33 43 
0.0711042 0.135412 0.964625 66 36 46 
0.0963711 0.195262 1.38696 71 38 49 
0.481024 0.314034 1.05514 158 175 244 
-0.21541 -0.331633 1.27889 146 88 100 
0.111215 0.177334 1.28664 67 37 45 
0.457002 0.272016 1.10546 143 126 144 
0.194509 -0.22758 1.25199 89 61 73 
0.0422821 0.153951 1.23836 62 39 47 
