ply                 
format ascii 1.0    
element vertex 1167
property float x    
property float y    
property float z    
property uchar red  
property uchar green
property uchar blue 
end_header          
0.283554 -0.334211 1.23158 71 51 63 
-0.355211 -0.258493 1.45638 61 41 50 
-0.467694 -0.257014 1.49439 47 34 51 
0.326104 -0.184532 1.2007 50 31 50 
-0.126941 -0.192595 1.28722 58 27 35 
0.209349 -0.173375 1.24196 87 68 88 
-0.073214 -0.152176 1.2662 53 24 29 
-0.408358 -0.165828 1.46423 51 39 53 
-0.598167 -0.159354 1.53062 45 41 58 
0.275766 -0.0979011 1.21213 52 36 47 
-0.115019 -0.0927771 1.27565 127 108 91 
-0.458235 -0.077162 1.47377 118 101 120 
0.0670895 -0.046428 1.23607 62 32 40 
-0.533191 -0.0362221 1.49922 47 39 60 
0.0820959 -0.0243671 1.22852 62 29 36 
-0.246578 -0.0149359 1.34819 54 26 40 
-0.262906 -0.0141699 1.35321 55 25 35 
-0.27868 -0.0140424 1.3608 50 23 30 
-0.16137 -0.00828277 1.11585 53 22 30 
-0.0131977 0.00724093 1.22992 58 25 32 
-0.0471657 0.0292626 1.4823 63 23 32 
-0.199831 0.0285219 1.2964 58 20 31 
0.113778 0.0288497 1.21222 53 23 31 
-0.112413 0.0478176 1.21416 175 172 167 
-0.0126811 0.0614095 1.22519 51 20 26 
-0.16338 0.0659574 1.28037 57 21 33 
-0.00809187 0.063299 1.22368 132 79 89 
-0.120924 0.0654111 1.2389 105 90 67 
0.173566 0.0772024 1.15679 60 29 37 
0.187257 0.0769433 1.15288 54 28 39 
-0.0263655 0.082915 1.22825 62 22 31 
-0.187012 0.0878944 1.28676 59 21 32 
-0.553225 0.121889 1.48594 159 179 248 
0.352642 0.106611 1.16144 59 46 63 
-0.122085 0.137385 1.21146 128 139 184 
-0.106047 0.137281 1.20554 126 142 193 
-0.302129 0.148327 1.27536 53 26 31 
-0.0154367 0.140528 1.1732 58 34 47 
0.072489 0.138206 1.1409 72 36 48 
0.144315 0.136426 1.11577 48 27 32 
-0.329654 0.171481 1.28214 57 30 35 
0.0190122 0.158611 1.15813 56 29 36 
0.0901237 0.160692 1.13371 84 40 55 
0.0999208 0.160075 1.12898 68 33 39 
-0.267433 0.225844 0.984223 69 38 53 
-0.25776 0.235507 0.979601 68 37 52 
-0.0862988 0.23605 0.917984 97 46 63 
0.447165 -0.385132 1.17502 60 43 61 
0.389333 -0.382125 1.19677 57 39 61 
0.407317 -0.335608 1.18376 60 52 67 
0.390196 -0.331479 1.18941 46 38 53 
0.36513 -0.333776 1.20096 43 40 51 
0.361347 -0.266942 1.19523 55 41 56 
0.278635 -0.239885 1.2221 63 50 60 
-0.0272657 -0.232162 1.22162 51 24 31 
-0.384804 -0.261268 1.4685 60 44 55 
-0.355352 -0.258937 1.45587 60 43 53 
-0.0911232 -0.161253 1.29539 52 21 27 
0.423179 -0.141542 1.16139 55 38 44 
-0.0756642 -0.146813 1.26716 110 61 65 
-0.147467 -0.149115 1.29095 65 35 45 
0.20977 -0.141329 1.23951 68 54 71 
-0.42287 -0.16553 1.47238 62 44 58 
-0.0596838 -0.141152 1.26008 51 22 27 
-0.54282 -0.158608 1.51096 42 33 52 
0.359262 -0.101218 1.18095 59 46 55 
0.275788 -0.0977703 1.21216 52 39 46 
-0.489177 -0.119136 1.49003 127 108 128 
0.385472 -0.0619553 1.16732 61 43 57 
0.450248 -0.0594366 1.14574 35 29 39 
0.436106 -0.0581959 1.14982 49 39 48 
0.356194 -0.0564482 1.18037 61 40 47 
-0.0390293 -0.0493422 1.24439 62 29 36 
-0.533031 -0.0363537 1.49898 47 39 60 
0.0987402 -0.0246957 1.22291 56 33 43 
0.0587197 -0.0238569 1.23656 57 30 39 
0.0658297 -0.0235129 1.23411 55 32 40 
0.105768 -0.0196112 1.21948 54 27 36 
-0.57205 -0.0137165 1.50642 65 52 70 
0.379583 -0.00885443 1.16552 64 41 47 
-0.163182 -0.0103281 1.28702 56 29 38 
-0.161111 0.0103644 1.11395 59 27 38 
-0.0390699 0.0251548 1.23789 65 29 39 
-0.460003 0.0353331 1.46794 35 22 31 
0.39523 0.0370347 1.15305 53 37 50 
0.453261 0.0385596 1.1306 132 115 131 
0.42315 0.0428451 1.14095 86 58 70 
0.0619593 0.0591126 1.22867 62 29 36 
0.300465 0.0701341 1.18661 68 52 65 
0.118634 0.0785375 1.207 61 31 41 
-0.0263111 0.0834007 1.22808 60 27 34 
-0.554278 0.121897 1.48686 161 180 249 
0.352686 0.106537 1.16147 59 46 63 
-0.550881 0.138912 1.4838 92 95 136 
0.346088 0.113631 1.15882 22 62 175 
-0.118485 0.134216 1.21027 52 55 100 
-0.121616 0.137567 1.21123 128 141 186 
0.0289174 0.136517 1.15876 57 42 47 
-0.123845 0.143069 1.21201 74 42 55 
-0.10452 0.142204 1.20552 75 39 53 
-0.0148825 0.140504 1.17306 58 34 47 
-0.0504092 0.143952 1.18552 60 44 54 
0.0729174 0.138277 1.14064 74 44 54 
0.0893621 0.140604 1.13515 74 49 55 
0.0581306 0.143003 1.14632 58 39 45 
0.0629561 0.143538 1.14409 134 86 98 
0.152438 0.141052 1.11123 133 86 104 
-0.0873991 0.164985 1.19741 79 45 61 
0.00197887 0.162194 1.16546 75 41 57 
0.180728 0.15783 1.10113 81 45 57 
0.468048 0.183575 1.11396 66 50 63 
-0.267507 0.225841 0.984158 69 38 53 
0.411241 0.274308 1.12481 131 111 122 
-0.145304 0.247867 0.938497 90 44 55 
0.389678 -0.382142 1.1969 53 38 57 
0.38975 -0.330986 1.18724 46 40 54 
0.467944 -0.283647 1.15743 52 38 53 
0.172452 -0.307936 1.26844 87 60 67 
0.378975 -0.280604 1.18936 69 59 70 
0.388468 -0.235825 1.18072 53 43 54 
0.409678 -0.234455 1.17415 54 42 54 
-0.0440404 -0.229117 1.22779 132 79 95 
0.280836 -0.183214 1.21786 61 45 55 
0.215519 -0.178807 1.23839 74 54 66 
-0.0827388 -0.150149 1.27035 46 18 17 
0.359671 -0.101293 1.18124 59 46 55 
0.448996 -0.0590943 1.14351 32 27 33 
0.316178 -0.0592804 1.19476 53 38 45 
0.105226 -0.0190959 1.21931 55 32 40 
-0.0376462 -0.0116422 1.2397 67 37 47 
0.378671 -0.00897565 1.16508 66 43 49 
-0.0385879 0.026373 1.23744 73 41 54 
-0.0262214 0.084603 1.22761 66 39 48 
-0.0133494 0.0841291 1.2231 62 33 38 
0.355584 0.100864 1.15767 129 103 114 
0.430399 0.10019 1.13161 135 111 124 
0.425759 0.104279 1.13403 75 54 63 
-0.549723 0.156242 1.48236 26 26 38 
-0.107752 0.136313 1.20564 126 142 194 
-0.058212 0.137542 1.18923 66 40 53 
-0.310103 0.149522 1.28112 38 32 36 
-0.35938 0.152631 1.29384 63 48 51 
-0.0348434 0.141638 1.18008 50 34 45 
-0.014355 0.140601 1.1724 61 37 50 
-0.048097 0.143789 1.18506 58 49 54 
0.0404062 0.14148 1.15273 69 50 56 
0.0267255 0.162731 1.15557 57 37 46 
0.116248 0.160336 1.12298 52 36 37 
0.397145 0.192372 1.13965 124 114 139 
0.464893 0.328454 1.07522 13 16 23 
0.362967 -0.333172 1.20032 48 37 54 
0.409085 -0.234438 1.1742 52 40 52 
0.280625 -0.236166 1.22313 72 67 74 
0.423537 -0.141142 1.16101 59 42 50 
0.290434 -0.14661 1.21213 59 49 60 
0.241185 -0.137597 1.22698 68 47 52 
0.367278 -0.0957263 1.17579 136 119 138 
0.315705 -0.0596583 1.19382 56 39 47 
-0.494498 0.0255344 1.47626 120 106 129 
-0.571976 0.122764 1.49663 158 175 247 
0.317098 0.10743 1.17853 51 38 48 
-0.558109 0.13732 1.48762 17 24 43 
0.43818 0.106099 1.13022 54 42 56 
-0.565919 0.145456 1.48771 156 173 242 
-0.109626 0.135089 1.20663 125 142 194 
-0.0590086 0.137426 1.18938 66 40 53 
0.0277919 0.137645 1.15878 56 41 48 
-0.047212 0.144294 1.18477 62 49 56 
0.0411599 0.142183 1.15214 67 47 56 
0.116686 0.162709 1.12208 76 55 60 
0.396277 0.275205 1.12975 137 122 143 
0.423654 -0.141877 1.16071 54 41 50 
-0.112001 0.136221 1.20736 125 143 193 
-0.337991 0.276087 0.991553 151 111 137 
0.465635 0.330945 1.07508 13 15 27 
-0.135639 -0.0404767 1.27823 158 136 123 
-0.105797 0.0388517 1.21649 126 116 117 
-0.073499 0.0517734 1.2291 184 171 165 
-0.0594482 0.0536552 1.22374 105 85 84 
0.501103 0.331474 1.06554 11 28 84 
0.319656 -0.379797 1.22566 55 43 63 
0.308685 -0.37654 1.22582 83 58 77 
0.128795 -0.393776 1.29307 57 42 63 
-0.0117239 -0.375006 1.2549 72 31 39 
0.186505 -0.375707 1.27036 75 54 73 
0.2788 -0.352503 1.23518 71 52 74 
0.430329 -0.335232 1.17744 41 29 49 
-0.26172 -0.403998 1.43398 126 111 132 
0.37486 -0.333926 1.19748 54 35 54 
0.14848 -0.356085 1.28136 91 59 80 
0.450973 -0.322187 1.16737 63 48 71 
-0.32274 -0.393491 1.45949 73 58 81 
-0.475235 -0.404033 1.51657 49 34 41 
0.155852 -0.334626 1.27877 74 60 75 
0.50143 -0.294521 1.14372 149 122 141 
0.146932 -0.326557 1.28102 61 46 65 
0.332274 -0.283135 1.2085 39 25 40 
0.110956 -0.29939 1.2885 75 51 67 
-0.610491 -0.354753 1.56075 65 48 67 
-0.590162 -0.350288 1.55166 140 121 141 
0.333298 -0.268734 1.20689 69 45 61 
0.17317 -0.278755 1.26606 67 46 63 
-0.336482 -0.314921 1.45747 55 38 46 
0.180734 -0.270453 1.2604 74 56 78 
0.302638 -0.238304 1.21434 59 38 53 
0.0846926 -0.227711 1.19572 59 20 25 
-0.567422 -0.29051 1.53851 58 42 52 
-0.166322 -0.236268 1.27669 53 23 35 
-0.202435 -0.231465 1.29248 46 23 31 
-0.190518 -0.229649 1.28283 60 30 38 
-0.406355 -0.259131 1.47776 52 39 49 
-0.0336648 -0.214788 1.22568 134 90 105 
-0.00443746 -0.211938 1.22746 58 19 24 
-0.485142 -0.259318 1.50779 50 37 57 
-0.292117 -0.223007 1.32781 140 87 97 
-0.595039 -0.250781 1.5442 66 52 67 
-0.640089 -0.252767 1.56166 68 50 66 
-0.070003 -0.193956 1.26857 58 29 34 
-0.574288 -0.203807 1.53487 46 33 51 
-0.0896791 -0.157972 1.27239 52 21 27 
-0.106925 -0.157774 1.28033 54 22 27 
-0.123155 -0.151014 1.28431 61 24 32 
-0.136704 -0.138857 1.28794 65 30 37 
-0.669554 -0.157425 1.5639 60 48 62 
0.0492241 -0.110727 1.24832 54 25 30 
-0.103173 -0.0982629 1.26418 44 18 27 
-0.0889082 -0.0857249 1.27137 38 17 16 
-0.120038 -0.0649419 1.2771 146 130 114 
-0.0130142 -0.0601394 1.23242 57 22 28 
-0.128493 -0.0586505 1.27915 143 125 105 
0.0823616 -0.0468762 1.23098 59 28 34 
0.312494 -0.0438717 1.19141 71 52 71 
-0.0825319 -0.0463447 1.27026 206 199 173 
0.309554 -0.0340811 1.19126 138 117 132 
0.0749641 -0.0345321 1.23013 143 95 111 
-0.638672 -0.0427511 1.5407 65 53 65 
-0.079402 -0.0293508 1.261 214 204 177 
-0.133609 -0.0278447 1.27702 145 124 107 
-0.563531 -0.0316404 1.51115 47 34 52 
-0.702201 -0.0307346 1.56098 60 68 104 
-0.392689 -0.0260909 1.34576 152 101 116 
-0.0947924 -0.0246388 1.27093 40 17 23 
0.442107 -0.0214714 1.14168 68 49 68 
0.311731 -0.0198075 1.191 54 39 58 
-0.101425 -0.0160504 1.24766 220 210 183 
-0.00314837 -0.0145968 1.22893 55 22 29 
-0.0869821 -0.0114733 1.24994 177 163 137 
-0.173375 -0.0103766 1.29137 54 21 28 
-0.197301 -0.00931012 1.29894 57 26 34 
0.391092 -0.000416646 1.15697 45 32 52 
0.080441 0.000983661 1.22366 84 41 50 
0.0301529 0.00139432 1.24698 62 27 34 
-0.0821249 0.00407776 1.27074 107 88 71 
-0.0268031 0.00745923 1.23499 62 26 30 
-0.0963132 0.0106505 1.26966 81 53 41 
-0.187443 0.0114142 1.2947 57 24 33 
-0.173712 0.0115462 1.28937 52 21 27 
-0.260344 0.0248048 1.33334 79 32 42 
-0.104135 0.0261158 1.22515 195 188 178 
0.0927059 0.0261784 1.21868 50 19 25 
-0.189077 0.0303708 1.29573 65 31 45 
-0.120906 0.0319974 1.23284 92 82 81 
-0.112845 0.0313736 1.22532 203 199 190 
-0.0933466 0.0350221 1.22512 120 104 104 
0.0310422 0.0362651 1.24303 57 24 31 
0.336994 0.0374817 1.17571 68 49 68 
0.327306 0.039811 1.17826 74 60 73 
0.377429 0.0397103 1.16032 124 113 127 
0.159393 0.0449952 1.19545 51 20 26 
-0.100761 0.0479155 1.21787 46 32 31 
-0.339987 0.0590864 1.37703 54 21 30 
-0.0940076 0.0551214 1.21873 39 21 19 
-0.117694 0.0562898 1.21763 131 116 93 
0.0831707 0.0632564 1.22265 61 24 31 
-0.0504456 0.0656542 1.23433 130 116 116 
0.136549 0.077701 1.20124 57 26 34 
0.170069 0.0873843 1.15999 143 95 111 
-0.557427 0.114195 1.49626 19 26 45 
-0.554824 0.133856 1.44972 26 26 54 
-0.577666 0.144997 1.49629 18 26 72 
-0.584015 0.154716 1.49742 22 24 47 
-0.573492 0.158129 1.49527 147 158 214 
-0.429952 0.151968 1.32402 38 27 35 
0.195761 0.130878 1.09658 44 24 33 
0.34894 0.139081 1.15431 82 121 212 
0.162501 0.135992 1.10841 57 30 37 
-0.317065 0.167445 1.2834 60 28 39 
0.290668 0.154907 1.18081 58 45 62 
-0.249 0.165603 1.2552 77 36 50 
-0.0485813 0.159943 1.18396 69 41 53 
0.0626742 0.250007 1.81972 65 31 45 
0.278732 0.162309 1.18297 43 27 40 
0.129151 0.155302 1.11892 65 33 44 
0.194524 0.153476 1.09529 63 32 38 
-0.679668 0.250566 1.52474 42 34 55 
-0.685129 0.284476 1.52466 42 35 53 
0.316748 0.221609 1.16602 76 61 84 
-0.714264 0.296464 1.53123 76 87 119 
-0.674086 0.327534 1.50459 82 70 94 
0.125465 0.249945 1.10656 42 21 26 
-0.715942 0.349528 1.50479 23 30 48 
0.296164 0.274468 1.16845 39 35 50 
-0.085614 0.217341 0.91924 79 37 49 
0.477384 0.260929 1.09795 65 47 63 
-0.0110103 0.224298 0.942845 102 48 64 
0.144117 0.270753 1.0985 69 43 52 
0.154219 0.270064 1.09523 80 33 49 
0.425221 0.275497 1.11641 74 57 73 
0.319237 0.28508 1.15404 68 61 69 
-0.0279275 0.23147 0.933608 100 49 66 
-0.317883 0.256312 1.00116 73 42 60 
-0.0141007 0.25464 0.938018 90 51 72 
-0.0238823 0.254412 0.933708 81 44 61 
0.465574 0.302831 1.0752 17 15 28 
0.504673 0.300404 1.05829 17 18 38 
0.476465 0.306573 1.06901 21 18 71 
0.496001 0.305392 1.06467 15 27 65 
0.474576 0.311629 1.04344 159 174 243 
0.48931 0.317863 1.06384 154 177 244 
0.510192 0.326898 1.05518 19 11 35 
0.478723 0.330948 1.06635 27 18 73 
-0.276776 0.311718 0.963644 121 132 150 
-0.205081 0.306031 0.907481 28 39 101 
0.28254 -0.370093 1.23335 86 65 82 
0.445156 -0.332167 1.1718 124 110 136 
-0.339574 -0.406733 1.46842 44 26 38 
-0.0731473 -0.346023 1.25133 55 29 40 
0.118182 -0.32865 1.29003 91 68 84 
0.296527 -0.306238 1.22423 128 116 138 
0.356922 -0.28509 1.19855 62 42 51 
-0.638809 -0.351795 1.56486 70 53 71 
-0.368138 -0.311359 1.46753 75 51 64 
-0.391005 -0.310564 1.4758 66 52 65 
0.00178514 -0.24383 1.21483 65 25 33 
-0.0519292 -0.237006 1.22722 45 22 28 
-0.635256 -0.291119 1.56338 65 49 60 
0.168646 -0.232878 1.26304 94 62 75 
-0.0182561 -0.215426 1.2218 137 90 106 
-0.18148 -0.212543 1.28112 131 85 98 
-0.196957 -0.211908 1.28731 131 84 100 
0.307989 -0.197954 1.20932 62 44 58 
0.403246 -0.18793 1.17201 66 44 57 
-0.202052 -0.202368 1.29589 124 74 85 
-0.149612 -0.199513 1.2986 63 31 42 
0.180461 -0.180356 1.25482 85 58 75 
-0.413924 -0.207864 1.47331 48 34 47 
0.443641 -0.141804 1.15064 63 47 58 
-0.0498675 -0.151728 1.25927 46 23 31 
0.334995 -0.141887 1.19633 54 35 41 
-0.140403 -0.121752 1.29066 112 66 77 
0.32843 -0.106334 1.19459 58 45 55 
-0.37485 -0.126678 1.45231 59 41 57 
0.275985 -0.0736767 1.20998 57 39 53 
-0.103847 -0.0702451 1.27103 72 36 38 
-0.5402 -0.0730413 1.50212 125 106 126 
0.29579 -0.0568566 1.20024 65 44 49 
-0.624498 -0.0716719 1.54078 74 65 84 
-0.259113 -0.0599926 1.34476 58 22 24 
-0.190402 -0.0549212 1.29574 51 22 26 
0.0304946 -0.0453679 1.25027 63 33 41 
-0.621832 -0.0421324 1.53148 63 54 73 
-0.262881 -0.0365379 1.35604 56 30 39 
-0.24654 -0.0366609 1.35282 59 29 37 
-0.11517 -0.0328756 1.25186 214 203 181 
-0.0830075 -0.021153 1.25567 189 182 156 
-0.0281816 0.0266758 1.23613 67 29 40 
-0.0117767 0.026561 1.22669 70 39 47 
0.0557252 0.0272126 1.22843 57 26 32 
0.0888722 0.0354858 1.21864 50 21 25 
-0.295775 0.0403004 1.36032 53 27 36 
-0.240837 0.0443996 1.34243 43 23 25 
-0.444105 0.0566994 1.45568 44 31 41 
-0.0367353 0.062354 1.23415 58 22 34 
-0.0270406 0.0624761 1.23118 59 26 33 
-0.0782434 0.0626956 1.2261 130 115 134 
-0.704236 0.081081 1.55054 97 97 131 
-0.187524 0.0674568 1.29082 59 26 35 
-0.173264 0.0668282 1.28425 59 28 34 
-0.149945 0.0695848 1.27619 45 24 31 
0.054481 0.0762828 1.23039 69 29 38 
-0.298855 0.0905786 1.36148 54 23 38 
-0.52527 0.110844 1.4826 119 105 120 
-0.577486 0.115986 1.49434 19 24 43 
0.157243 0.106157 1.14659 158 104 120 
-0.372938 0.150491 1.30456 52 32 41 
-0.381752 0.15542 1.30358 110 73 80 
-0.636441 0.182559 1.51705 131 118 144 
0.310003 0.144659 1.17559 135 130 150 
0.429129 0.151394 1.12994 61 44 62 
0.384516 0.159514 1.14327 71 56 75 
0.036763 0.161804 1.15355 62 35 50 
0.203881 0.257062 1.80066 72 41 49 
-0.192407 0.18905 1.21525 69 48 55 
0.383556 0.178247 1.14363 122 117 140 
0.285469 0.1859 1.17879 126 123 142 
0.339839 0.184499 1.1579 138 114 128 
0.347361 0.1916 1.15455 139 129 154 
0.406614 0.188241 1.13331 127 115 135 
0.419529 0.18824 1.12712 127 113 130 
-0.565317 0.248582 1.48285 53 47 61 
0.321536 0.19576 1.16491 127 123 146 
-0.709646 0.25815 1.53329 72 83 111 
0.412409 0.214597 1.12943 63 50 67 
0.285916 0.227045 1.17591 109 107 131 
0.365793 0.22234 1.14674 61 48 65 
0.468255 0.215056 1.10694 64 50 65 
0.284053 0.236822 1.17437 121 117 142 
-0.711623 0.318642 1.5247 143 163 198 
-0.0146614 0.201201 0.942343 86 55 73 
0.281029 0.261687 1.17544 40 25 32 
0.348752 0.264414 1.14627 60 44 55 
0.320891 0.268115 1.15845 55 45 56 
-0.313342 0.236042 1.0002 74 36 49 
0.361399 0.2703 1.14268 110 100 125 
0.308281 0.276954 1.16293 61 45 55 
0.379756 0.270975 1.13506 102 96 122 
0.192405 0.258751 1.08058 55 29 38 
0.465154 0.265561 1.10302 56 34 47 
-0.268156 0.235501 0.981571 65 43 56 
0.447924 0.276061 1.10843 140 130 154 
-0.000309541 0.238483 0.946137 78 40 61 
0.101805 0.291208 1.09961 146 101 121 
0.372745 0.302304 1.1119 69 57 77 
0.0223659 -0.347769 1.24797 147 96 111 
-0.0965458 -0.343702 1.26155 133 80 96 
-0.150582 -0.340971 1.27792 135 81 94 
-0.696048 -0.397122 1.59888 76 63 93 
0.456641 -0.284562 1.16373 66 48 64 
0.322608 -0.274339 1.20962 126 109 127 
0.279586 -0.266386 1.22508 81 60 69 
0.205162 -0.260742 1.25176 88 68 80 
0.0337741 -0.241232 1.23392 39 19 21 
0.014179 -0.241258 1.24561 36 18 18 
-0.585874 -0.283984 1.54388 148 134 147 
-0.219809 -0.228618 1.29659 31 14 20 
-0.0379703 -0.206357 1.2336 122 68 82 
-0.578193 -0.253425 1.53618 36 28 43 
-0.173677 -0.204217 1.28358 127 76 91 
-0.591237 -0.238447 1.54845 54 37 53 
0.154851 -0.181111 1.26743 65 45 56 
-0.097722 -0.153232 1.27736 51 21 23 
-0.0503846 -0.114318 1.25931 30 12 12 
0.162226 -0.0936407 1.24784 73 47 60 
-0.0977316 -0.0628682 1.26786 160 145 124 
0.276884 -0.0586685 1.20816 63 53 64 
-0.0311725 -0.0591286 1.23604 67 28 31 
-0.111833 -0.0514027 1.26133 206 198 175 
0.178459 -0.0397851 1.13549 140 86 102 
-0.11779 -0.0422713 1.25632 195 179 154 
0.298223 -0.0311143 1.19351 75 53 56 
0.432092 -0.0121793 1.14291 87 66 73 
0.265974 -0.00671838 1.20459 84 64 75 
0.252654 -0.00633381 1.21077 60 46 59 
0.287931 -0.00528437 1.19433 63 43 45 
-0.0854676 0.0196473 1.26545 190 180 153 
-0.161625 0.029247 1.28344 55 28 37 
-0.519571 0.0384563 1.49383 63 50 60 
0.0348271 0.073788 1.23512 61 28 39 
-0.704748 0.100226 1.55318 103 88 111 
-0.17412 0.0894751 1.2821 60 35 41 
0.328791 0.106725 1.17294 38 33 40 
-0.235727 0.131979 1.27516 100 58 70 
0.152035 0.121735 1.13668 87 57 59 
-0.407528 0.153873 1.31947 37 35 38 
-0.0246624 0.143904 1.17635 136 88 110 
0.324239 0.1481 1.20443 68 46 48 
0.12878 0.139823 1.11984 60 48 50 
0.295263 0.166498 1.17667 142 125 144 
-0.701668 0.243647 1.53693 71 61 88 
0.31139 0.18493 1.16664 68 50 62 
-0.303909 0.202371 1.25633 84 52 57 
0.436201 0.181862 1.12064 61 44 54 
0.020005 0.204453 0.959502 81 52 70 
0.309648 0.262465 1.16007 72 55 63 
0.0937501 0.287941 1.10691 66 44 56 
0.264146 0.306095 1.15262 56 54 68 
0.111976 0.316141 1.09188 45 41 42 
0.505247 0.310946 1.05861 164 183 252 
-0.0591332 0.27811 0.900966 82 50 63 
0.467756 0.312132 1.07175 151 172 239 
0.0188102 -0.329565 1.21138 39 20 22 
-0.1576 -0.237098 1.28268 36 14 16 
-0.0985809 -0.203442 1.25702 135 86 105 
-0.0848793 -0.0991855 1.27386 30 16 15 
0.218116 -0.0960096 1.23255 88 57 72 
-0.0241481 -0.0504487 1.23925 52 27 33 
-0.184532 -0.0463517 1.30127 53 32 39 
-0.399057 -0.0455604 1.37956 67 25 26 
-0.382791 -0.0306187 1.34958 146 89 108 
-0.0733475 0.0193889 1.27869 44 19 22 
-0.117474 0.0354387 1.20192 184 176 187 
0.444035 0.043378 1.13626 134 125 146 
-0.48647 0.0694136 1.47394 48 41 49 
0.386941 0.104214 1.14531 61 44 52 
-0.366047 0.133189 1.3186 73 48 51 
-0.576924 0.153589 1.50484 151 169 235 
0.026415 0.125609 1.2019 73 50 60 
0.138541 0.120018 1.13946 77 51 60 
0.330775 0.193478 1.15972 137 121 147 
0.390887 0.27209 1.13721 56 50 60 
-0.0762974 0.276793 0.896167 84 45 50 
-0.0998702 -0.18898 1.28047 64 29 27 
-0.217483 -0.114116 1.33302 58 26 27 
-0.0998513 -0.0887576 1.2685 135 115 90 
-0.0888794 0.0167325 1.27518 160 143 117 
-0.141106 0.056396 1.25236 125 114 118 
-0.0687339 0.192105 1.17144 53 42 48 
0.0701048 0.0375142 1.23179 79 31 27 
0.0233416 -0.232947 1.23965 40 20 19 
0.0563953 -0.222963 1.22974 136 83 103 
0.0989241 0.195188 1.08492 55 37 35 
-0.43123 -0.240517 1.48082 51 43 54 
-0.373687 -0.212538 1.45892 45 33 55 
-0.397282 -0.206994 1.46479 42 23 43 
-0.393282 -0.178939 1.46006 59 41 55 
-0.436092 -0.12584 1.47128 59 38 55 
-0.357501 -0.0835484 1.43934 60 43 61 
-0.173513 -0.0555113 1.28917 52 23 28 
-0.208087 0.0238381 1.08371 52 19 26 
0.290651 0.0217277 1.19336 78 60 72 
-0.604831 0.0727604 1.51237 63 55 78 
-0.263054 0.0734503 1.3452 58 28 38 
-0.246515 0.0731553 1.34046 53 21 26 
-0.235793 0.0856448 1.33373 57 28 33 
-0.371761 0.0909528 1.35061 67 32 38 
-0.565804 0.138525 1.4991 14 25 70 
-0.55252 0.181884 1.48102 47 35 49 
-0.14597 0.233122 0.939903 81 44 61 
-0.27146 0.255016 0.983054 86 45 59 
-0.0860548 0.251646 0.916859 78 46 61 
0.160676 -0.306086 1.27203 104 72 87 
0.231244 -0.266663 1.24147 97 71 84 
-0.442235 -0.240196 1.48336 72 50 62 
-0.428746 -0.211338 1.47679 67 54 71 
-0.519151 -0.154428 1.50153 122 112 136 
-0.449961 -0.0457897 1.4665 113 89 103 
-0.523676 -0.0373139 1.49341 40 34 46 
-0.50012 -0.034111 1.485 59 47 61 
0.0323351 0.0532222 1.55065 68 35 42 
0.324295 0.0594173 1.17802 56 42 59 
0.483038 0.148863 1.10868 64 43 52 
-0.061498 0.164012 1.1868 79 40 58 
-0.146016 0.22324 0.940874 76 43 60 
-0.516681 0.336829 1.43025 37 36 42 
-0.227065 0.235013 0.96811 73 41 54 
-0.207733 0.239225 0.961227 96 45 62 
-0.254229 0.254576 0.976551 77 41 55 
0.218046 -0.303889 1.24999 101 77 90 
0.450223 -0.23718 1.15887 60 51 70 
-0.447592 -0.0765068 1.47146 123 102 121 
0.409948 -0.0605231 1.15775 72 47 53 
0.341949 -0.0570302 1.18283 62 41 48 
-0.0267269 -0.0119751 1.23589 65 38 47 
0.0107849 0.136558 1.1651 68 51 61 
-0.0891876 0.145347 1.19893 85 58 75 
-0.177713 -0.190322 1.27594 143 88 107 
-0.0428685 -0.112413 1.24821 125 69 80 
-0.566234 0.129443 1.48819 166 183 253 
-0.0576723 -0.236757 1.23465 38 23 26 
0.154314 -0.369876 1.28092 69 54 75 
0.408111 -0.382542 1.1868 53 37 50 
0.460298 -0.335349 1.16334 46 29 47 
-0.102387 -0.14724 1.23876 113 68 75 
-0.628208 -0.158256 1.54362 77 63 76 
-0.0563044 -0.12318 1.25763 104 65 70 
-0.0906754 -0.0148296 1.25985 93 69 59 
-0.113526 0.0242522 1.25302 187 184 193 
-0.017549 0.17265 1.43859 61 37 50 
0.0253821 -0.23731 1.24896 36 18 18 
0.487363 0.30843 1.068 16 24 35 
-0.127731 -0.342231 1.26893 82 30 52 
0.157347 -0.344561 1.27475 73 52 71 
0.213374 -0.332547 1.25694 68 49 68 
-0.302763 -0.338315 1.44057 61 35 46 
-0.508859 -0.339024 1.51841 58 45 62 
-0.329266 -0.307521 1.44774 78 60 76 
-0.610981 -0.289813 1.55139 58 39 59 
-0.47412 -0.269001 1.4957 53 38 57 
-0.580316 -0.210172 1.52461 140 131 148 
-0.591158 -0.202295 1.53357 44 35 56 
-0.227787 -0.0981584 1.34562 43 20 28 
-0.000348681 -0.0507404 1.22954 56 25 33 
-0.0960552 -0.0486073 1.26995 150 133 103 
-0.160834 -0.0467617 1.28728 55 24 30 
-0.199874 -0.0463443 1.30207 48 22 31 
-0.0129644 -0.0141643 1.2311 61 28 37 
-0.19732 0.0669257 1.29072 60 27 36 
-0.315675 0.0905019 1.35944 54 27 36 
-0.18177 0.131931 1.24882 91 49 59 
0.142195 0.249649 1.10329 77 31 44 
0.44316 0.269643 1.11566 45 37 48 
0.00929039 -0.32713 1.20092 112 62 71 
-0.241092 -0.325863 1.28854 65 30 37 
-0.294475 -0.363044 1.4434 61 50 58 
0.332604 -0.322685 1.20796 86 71 90 
-0.449607 -0.345871 1.49488 56 41 62 
0.38913 -0.284733 1.18632 75 57 79 
0.0923179 -0.261218 1.29048 78 47 62 
-0.265249 -0.263513 1.42258 48 34 49 
-0.333878 -0.262425 1.44711 62 49 79 
0.364033 -0.234115 1.18909 69 56 74 
-0.210758 -0.219276 1.29173 106 69 77 
-0.541254 -0.241637 1.51807 76 51 57 
-0.0128906 -0.201285 1.24394 159 102 121 
-0.0782119 -0.169867 1.3626 53 22 27 
-0.446938 -0.125465 1.47185 69 51 63 
-0.345196 -0.123308 1.43689 59 39 48 
0.441301 -0.106788 1.14571 76 58 74 
0.425361 -0.104368 1.15414 77 51 64 
-0.159508 -0.0950737 1.26948 109 68 82 
-0.0273474 -0.0324699 1.23779 67 35 46 
0.457082 -0.0100726 1.1343 71 56 63 
0.0698137 0.000557501 1.22632 99 52 62 
0.0606216 0.00553388 1.22843 88 45 55 
0.0874339 0.00638359 1.2181 95 45 54 
0.0562815 0.0151719 1.23094 67 34 45 
-0.000779829 0.0241391 1.22335 57 30 39 
-0.172647 0.030623 1.28411 69 37 48 
-0.117199 0.0375525 1.21298 196 194 199 
-0.0273314 0.0418908 1.23073 68 35 42 
-0.127183 0.0447929 1.22637 49 39 29 
-0.0843253 0.0526034 1.21974 102 87 94 
-0.131686 0.0552201 1.23513 54 37 30 
-0.181013 0.0598057 1.284 150 93 108 
0.278174 0.0711769 1.19492 64 42 54 
0.312979 0.0966468 1.17607 72 51 66 
-0.166107 0.111261 1.25918 89 39 50 
-0.0365521 0.127737 1.20128 106 60 73 
0.108344 0.132559 1.12884 63 34 39 
-0.283047 0.147378 1.26876 72 36 50 
-0.21363 0.145507 1.24194 72 40 55 
0.180728 0.138732 1.10299 69 41 53 
-0.227744 0.164191 1.24761 79 41 54 
0.301935 0.184189 1.17143 70 46 60 
0.355345 0.223404 1.15138 58 44 61 
0.0043845 0.204742 0.954596 85 47 62 
-0.27041 0.206495 0.9877 74 34 45 
-0.282529 0.208208 0.99019 67 36 51 
-0.0508218 0.20203 0.928338 81 40 54 
-0.207902 0.221818 0.963773 86 42 55 
-0.0733369 0.269462 0.906944 115 72 91 
-0.230305 0.308851 0.907722 46 32 55 
0.397511 -0.334224 1.1916 40 32 43 
-0.00607512 -0.265252 1.22849 114 66 80 
-0.207222 -0.258789 1.29636 115 69 80 
-0.292793 -0.216566 1.33472 53 21 24 
-0.466715 -0.126201 1.48559 57 46 62 
-0.0994602 -0.0258638 1.2543 48 28 19 
0.281707 0.00198203 1.19876 136 120 146 
0.0791124 0.0404964 1.21924 36 20 21 
-0.141266 0.054222 1.26402 150 139 137 
-0.365163 0.134024 1.32355 78 54 52 
0.495463 0.181526 1.10102 64 49 56 
-0.477798 -0.306664 1.50407 88 64 77 
-0.178813 -0.232862 1.27866 73 37 41 
-0.163199 -0.218234 1.29394 36 16 15 
-0.139274 -0.1849 1.28888 70 40 50 
0.175288 -0.0234357 1.14714 66 34 39 
0.120478 0.0591237 1.20474 49 24 28 
0.449958 0.0613995 1.13053 77 61 72 
0.296505 0.111343 1.18232 126 106 131 
0.0236276 0.124499 1.19019 74 51 59 
-0.180153 0.190968 1.21058 63 48 55 
0.365873 0.258265 1.13996 130 103 118 
-0.200113 -0.186927 1.28516 138 84 100 
0.0950064 -0.184682 1.20978 67 28 29 
0.178643 -0.0610818 1.15247 88 37 36 
-0.390549 -0.0449926 1.36406 71 30 26 
0.480758 0.3223 1.07566 164 182 254 
-0.0999894 0.025613 1.25493 201 193 190 
-0.25499 -0.299658 1.42192 48 35 55 
-0.00564492 -0.225728 1.21559 131 92 110 
-0.488626 -0.0814948 1.48599 62 46 72 
-0.217067 0.0388965 1.33133 44 19 25 
-0.518806 0.0591177 1.4833 67 56 72 
-0.500815 0.105156 1.47273 48 37 53 
-0.567831 0.13554 1.47251 26 20 58 
-0.44931 0.136488 1.45313 35 31 45 
-0.488706 0.205538 1.4597 46 35 49 
-0.53222 0.245905 1.47107 33 29 43 
-0.106762 -0.278914 1.26453 73 37 51 
0.306997 -0.313518 1.2193 65 52 62 
0.352189 -0.314365 1.20433 81 55 68 
0.232976 -0.306341 1.24641 80 56 70 
0.316579 -0.280465 1.21683 129 116 136 
-0.553354 -0.158408 1.5147 46 41 63 
0.388871 -0.142621 1.17408 70 46 62 
-0.347293 -0.0934281 1.43413 138 113 132 
-0.338047 -0.0888646 1.43214 141 114 129 
-0.54393 -0.0785951 1.50395 61 48 65 
0.193012 0.0584078 1.74099 65 34 39 
-0.358299 0.168058 1.29277 60 29 34 
-0.482252 0.247624 1.45438 36 30 34 
-0.209052 0.251469 0.960316 78 44 60 
0.294916 -0.375761 1.23196 89 67 79 
-0.508137 -0.155735 1.50001 120 104 130 
-0.113407 -0.0580606 1.27003 93 51 61 
-0.574805 0.131951 1.49437 17 24 42 
-0.325833 0.14545 1.28498 70 47 53 
0.000649093 0.14259 1.16732 78 52 63 
-0.112501 -0.148725 1.28125 48 19 21 
0.361398 -0.146124 1.18475 64 60 75 
-0.151865 -0.110193 1.29554 132 76 87 
-0.186368 0.0494122 1.28897 64 39 45 
-0.157016 0.0802783 1.27174 63 27 31 
-0.367913 0.130918 1.29801 81 52 54 
0.0835531 0.0375616 1.2373 83 34 30 
0.149482 -0.0640388 1.17057 148 119 139 
-0.110101 0.0610032 1.22385 38 26 30 
-0.0672753 0.00411428 1.25491 45 21 21 
-0.201865 0.00869057 0.989093 58 25 34 
0.0631892 0.0360929 1.82586 65 23 35 
0.355764 0.153571 1.15908 60 42 66 
-0.34606 0.17196 1.2878 56 30 39 
-0.0841198 -0.163953 1.31669 53 22 27 
0.754767 -0.149926 3.82343 63 36 45 
0.0669381 -0.0203964 1.82828 63 30 39 
-0.201911 -0.00685287 0.990855 51 24 33 
-0.257958 0.225523 0.980757 68 41 56 
-0.533993 -0.257767 1.51943 53 37 47 
0.102357 -0.0893996 1.8096 67 30 37 
-0.200214 -0.0351646 0.991024 48 26 29 
0.304993 0.143159 1.16578 136 133 154 
-0.426776 0.170787 1.31622 50 41 44 
-0.607197 0.248925 1.4937 59 53 65 
-0.198491 -0.214574 1.29434 116 67 86 
-0.125791 -0.140802 1.28598 51 21 21 
-0.0728345 0.0143827 1.26223 59 27 30 
-0.419409 0.156014 1.31642 118 110 121 
-0.0357312 -0.196455 1.22362 153 100 118 
-0.0236493 -0.197047 1.21977 157 103 117 
-0.392661 -0.166435 1.46048 57 45 67 
-0.123239 -0.0851437 1.28582 92 75 57 
-0.0569058 0.0629125 1.22502 41 20 19 
0.393629 0.150574 1.14627 66 42 55 
-0.40976 0.172766 1.3128 65 27 40 
-0.560688 0.312106 1.02999 153 170 188 
0.247945 -0.390291 1.25073 139 118 137 
-0.258287 -0.31241 1.42367 121 99 122 
-0.558401 -0.263258 1.53036 59 47 61 
-0.207292 -0.244499 1.29759 61 26 32 
-0.163508 -0.176606 1.28369 70 31 36 
-0.462448 -0.160278 1.48573 49 36 46 
-0.630025 -0.123449 1.54254 60 49 66 
-0.246768 -0.111575 1.35161 70 27 36 
-0.470959 -0.0812372 1.48254 58 44 59 
0.987435 -0.105339 3.57798 69 39 49 
0.382419 0.0639817 1.15573 133 110 128 
0.352284 0.0890602 1.16464 78 59 78 
-0.500668 0.119556 1.47139 39 28 42 
-0.219537 0.113536 1.28616 83 36 44 
-0.582645 0.17922 1.4919 126 110 136 
-0.0776075 0.164792 1.19325 77 43 59 
-0.619077 0.247243 1.50043 64 57 75 
0.3315 0.265347 1.15459 57 35 48 
-0.388498 0.285348 1.28919 24 22 23 
-0.47058 0.328313 1.42227 107 91 102 
0.037113 0.275366 0.949015 172 133 160 
-0.0352658 -0.233188 1.20795 151 98 114 
-0.167463 -0.222345 1.27601 106 60 73 
-0.0384088 -0.217571 1.23282 114 64 75 
-0.356713 -0.15809 1.44772 136 110 123 
-0.0627358 -0.0969883 1.24039 100 64 76 
1.01548 -0.20452 3.53779 64 30 31 
0.173089 -0.0495322 1.1467 148 99 118 
-0.124935 0.0300326 1.25693 165 155 154 
-0.0671785 0.044166 1.23921 189 180 173 
0.348255 0.0745787 1.17039 144 123 138 
-0.402445 0.107426 1.35899 60 40 49 
0.343997 0.105106 1.16836 63 42 57 
-0.567575 0.131766 1.43488 17 22 42 
-0.0118997 -0.279298 1.23379 137 84 102 
-0.0170103 -0.23639 1.21899 78 41 49 
-0.371967 -0.238094 1.45874 80 68 80 
-0.0957831 -0.205492 1.27251 141 93 109 
0.268703 -0.187324 1.22261 82 66 77 
0.0702686 -0.0599741 1.23794 48 29 35 
0.989498 -0.18033 3.58628 54 31 37 
-0.450581 0.306436 1.30067 140 92 114 
0.309865 -0.0468144 1.20264 141 122 142 
-0.0518839 0.0384052 1.24428 86 41 46 
0.0951613 0.0382502 1.25912 83 34 30 
-0.102892 0.0618608 1.21467 66 49 55 
-0.0342587 -0.186291 1.20825 149 96 112 
-0.105032 0.0252796 1.24077 206 201 208 
-0.0961998 0.0611263 1.22829 63 52 60 
0.0618743 -0.328591 1.19928 136 115 130 
-0.334282 -0.281705 1.4508 47 34 60 
-0.320697 -0.267432 1.44309 91 62 80 
-0.284584 -0.2612 1.42931 69 41 63 
-0.343689 -0.204401 1.44474 82 54 68 
-0.388502 -0.199965 1.46161 80 57 75 
-0.0471452 -0.183193 1.23822 116 74 88 
-0.249178 -0.137378 1.3514 58 27 43 
-0.101611 -0.112999 1.29637 117 75 87 
-0.0753238 -0.109063 1.27816 124 106 104 
0.0652137 -0.115948 1.23645 133 92 108 
0.0685951 -0.0764377 1.22305 150 98 111 
-0.122121 -0.04558 1.27086 179 164 131 
-0.415675 -0.00510419 1.45201 48 35 52 
-0.416517 0.00942088 1.45203 111 100 116 
-0.467061 0.0249747 1.46672 48 36 56 
-0.366224 0.100967 1.35316 155 107 121 
-0.447736 0.117478 1.45115 40 29 43 
-0.194619 0.145053 1.23757 82 43 61 
0.507774 0.148361 1.10121 65 50 71 
-0.176499 0.167228 1.22929 84 47 65 
-0.438719 0.192098 1.32408 60 43 51 
-0.49686 0.24476 1.45802 112 100 120 
-0.145218 0.208442 0.942247 93 43 55 
-0.103704 0.222975 0.926275 83 50 67 
-0.367926 0.336886 1.25763 124 144 179 
-0.360099 0.279299 1.05322 66 46 58 
-0.196779 0.299194 0.896556 56 54 103 
-0.335185 0.312144 0.987177 52 35 53 
-0.582213 0.116946 1.49752 16 23 42 
0.362913 -0.313537 1.19991 80 59 78 
-0.596226 -0.217632 1.53489 68 60 81 
0.0438247 -0.258595 1.22874 74 36 51 
0.386189 -0.301708 1.1909 66 56 81 
-0.297044 -0.236205 1.43034 81 66 89 
-0.56116 -0.20282 1.5217 58 45 62 
-0.412618 -0.192578 1.46904 71 58 75 
-0.50914 -0.121997 1.49557 55 43 65 
-0.406086 -0.120963 1.46098 138 117 136 
-0.587288 -0.0338178 1.51354 126 112 138 
-0.460092 -0.0390632 1.47432 47 37 48 
-0.171401 -0.0438932 1.29276 59 27 38 
-0.0117079 -0.049937 1.23462 70 37 44 
-0.414696 -0.015812 1.45337 57 44 54 
-0.184249 -0.0238383 1.29573 68 36 49 
-0.560414 0.0182186 1.49946 60 48 62 
-0.522113 0.0165362 1.48536 56 44 56 
0.122566 0.0119438 1.21239 70 36 50 
-0.0925833 0.0211906 1.2356 80 42 53 
0.000427546 0.0885616 1.21911 86 43 60 
0.366478 0.107174 1.15768 57 42 49 
-0.467602 0.131216 1.45888 40 30 38 
0.439707 0.11728 1.12796 96 67 85 
-0.167116 0.166968 1.22556 85 47 62 
-0.150839 0.166627 1.21916 78 45 56 
-0.26585 0.169683 1.26141 94 53 71 
0.0629914 0.181337 1.12181 74 44 56 
-0.35112 0.168203 1.02747 92 49 56 
-0.556862 0.2861 1.47468 52 43 60 
-0.568918 0.291439 1.47823 117 118 138 
-0.192538 0.224048 0.957849 91 39 52 
-0.298281 0.236571 0.994953 73 45 60 
-0.163796 0.25645 0.944767 94 61 82 
-0.285695 0.259154 0.988721 87 54 71 
-0.381184 0.337028 1.25892 117 130 164 
-0.251556 0.281447 0.96047 59 37 49 
0.0639031 -0.317537 1.22457 45 24 29 
-0.325851 -0.243293 1.44127 88 65 75 
-0.228608 -0.234904 1.33135 39 19 28 
0.0799858 -0.222404 1.2049 64 29 33 
-0.109563 -0.174371 1.28012 71 39 52 
-0.56018 -0.123907 1.50892 119 103 129 
0.354347 -0.189181 1.19052 78 58 70 
-0.305057 -0.126977 1.42162 54 42 52 
-0.533492 -0.0503431 1.49868 74 55 77 
0.36603 -0.0586159 1.17797 68 57 73 
-0.396594 -0.0177474 1.34585 60 29 34 
-0.260841 0.00889261 1.34591 107 60 66 
-0.274504 0.0235279 1.35248 65 34 40 
-0.274775 0.0344568 1.35316 54 25 30 
0.11891 0.0514427 1.19609 65 23 25 
-0.513748 0.107836 1.47417 59 57 78 
0.151532 0.12415 1.1623 58 31 36 
-0.0710005 0.179504 1.18894 95 68 75 
0.439569 0.21739 1.121 83 63 72 
-0.382315 -0.234116 1.45961 134 111 131 
0.0812194 -0.244587 1.20161 107 47 55 
-0.277499 -0.117536 1.34123 51 24 29 
0.0845378 -0.137445 1.20725 140 87 105 
-0.0938345 -0.0730748 1.26818 175 163 141 
-0.528462 -0.007222 0.625663 54 31 37 
-0.454754 -0.00978247 1.46605 117 90 107 
0.166285 -0.0295205 1.14798 64 25 30 
-0.469356 0.0124228 1.47103 46 31 36 
0.192378 0.0604549 1.15675 79 48 63 
-0.450225 0.154636 1.4492 51 42 47 
0.118532 0.135723 1.12628 87 67 78 
-0.255342 0.143921 1.26302 89 58 74 
-0.345808 0.147709 1.29285 74 55 59 
0.0446146 -0.269838 1.23124 80 37 46 
-0.234479 -0.225353 1.33363 128 80 96 
-0.221033 -0.113858 1.34525 60 30 30 
0.189835 0.0132198 1.16029 73 31 33 
-0.559916 0.151508 1.47905 172 187 255 
0.520389 0.291497 1.0742 147 133 158 
-0.0801446 0.062223 1.25324 55 47 58 
-0.108442 -0.0434258 1.26628 226 214 190 
0.165422 -0.451358 1.28642 78 55 84 
0.0210395 -0.422941 1.33846 67 41 68 
0.205483 -0.433073 1.27001 59 41 65 
0.248338 -0.419136 1.25369 139 124 143 
0.196436 -0.419904 1.27246 58 40 56 
0.185656 -0.418131 1.27836 62 45 63 
0.00452249 -0.460104 1.34958 66 48 70 
-0.0255717 -0.419968 1.2517 72 40 51 
-0.203693 -0.491978 1.42908 55 41 67 
-0.0749047 -0.422365 1.28063 71 24 30 
-0.0504427 -0.40919 1.27808 91 35 48 
-0.523781 -0.530781 1.55022 72 48 62 
-0.169527 -0.422481 1.30321 59 31 43 
-0.181052 -0.418189 1.31042 60 32 44 
0.00729535 -0.379742 1.24213 153 103 114 
-0.0632247 -0.391428 1.27719 79 29 41 
-0.590559 -0.524006 1.574 72 55 73 
-0.3316 -0.469174 1.47367 69 57 81 
-0.0202631 -0.378296 1.26136 146 93 109 
-0.277517 -0.451291 1.45507 63 45 57 
0.0966663 -0.370778 1.30292 82 57 76 
-0.7895 -0.492925 1.63173 29 40 96 
0.0934312 -0.315957 1.29412 40 23 33 
-0.629801 -0.433299 1.57641 68 50 66 
0.588558 -0.21516 1.2255 42 46 71 
-0.701326 -0.356455 1.59755 106 108 147 
0.00359336 -0.225051 1.23652 116 70 80 
-0.791732 -0.310597 1.6151 27 38 92 
-0.792993 -0.137982 1.60038 46 50 95 
-0.528935 -0.0792271 1.50651 57 42 61 
-0.0827695 0.0473189 1.23073 181 174 158 
0.243939 0.0760276 1.20657 121 109 129 
-0.815387 0.0801567 1.56888 27 55 95 
-0.803524 0.0813467 1.57734 28 33 55 
-0.800834 0.121598 1.57389 98 106 142 
-0.800261 0.132793 1.57285 82 95 129 
-0.796392 0.163656 1.5678 31 31 57 
-0.796308 0.177444 1.56932 28 32 67 
0.587327 0.228096 1.17263 49 61 99 
-0.818223 0.294761 1.54412 15 39 67 
-0.797453 0.303041 1.55926 23 28 57 
-0.821118 0.306504 1.54182 111 131 158 
0.592641 0.244492 1.16812 23 41 81 
-0.790611 0.341519 1.53595 116 101 120 
-0.719098 0.34927 1.48001 167 186 226 
-0.743975 0.346851 1.46585 122 134 146 
0.0833525 -0.455162 1.3196 83 60 76 
0.100351 -0.42105 1.3105 83 62 81 
-0.0415661 -0.388748 1.26955 83 41 55 
-0.0290013 -0.385416 1.26449 105 46 52 
0.0180254 -0.367407 1.24601 58 20 19 
0.592995 -0.300877 1.2348 145 173 212 
-0.588943 -0.473599 1.56768 54 37 53 
-0.323616 -0.40812 1.46271 55 39 50 
0.0980713 -0.326511 1.29551 68 33 37 
0.189215 -0.310556 1.26395 82 56 65 
-0.640684 -0.435025 1.58544 64 50 73 
-0.698252 -0.443794 1.60664 77 81 116 
-0.697884 -0.433011 1.60543 112 93 123 
-0.277052 -0.323011 1.32734 67 34 41 
-0.816221 -0.362836 1.61132 152 176 220 
-0.183462 -0.210096 1.29325 72 31 37 
-0.503627 -0.163001 1.50272 63 49 66 
0.615149 -0.0361504 1.22535 113 123 172 
-0.107495 0.015617 1.24639 136 124 126 
-0.237751 0.0230019 1.34244 50 23 30 
-0.237305 0.034534 1.34255 41 18 26 
0.319821 0.0704085 1.17764 73 58 81 
-0.798764 0.192844 1.57121 55 62 104 
-0.819457 0.272131 1.55101 37 47 74 
0.0205131 0.222873 0.956156 89 48 64 
0.249603 0.285142 1.1801 57 51 63 
0.130148 -0.415094 1.29337 93 79 104 
-0.281431 -0.480854 1.45197 82 69 89 
-0.329735 -0.480721 1.47302 81 58 74 
0.586905 -0.313315 1.23322 24 26 38 
-0.109585 -0.35328 1.25424 143 95 117 
-0.263346 -0.308463 1.34916 43 21 24 
0.587724 -0.196049 1.22417 57 59 84 
0.00565562 -0.234203 1.22782 122 68 81 
-0.245546 -0.262515 1.33769 61 30 36 
-0.169987 -0.165095 1.28724 24 12 14 
0.00641512 -0.10342 1.21363 59 24 30 
-0.214549 -0.112714 1.32311 61 30 35 
-0.0972365 -0.0894339 1.28019 143 123 98 
0.26018 -0.0544526 1.21739 55 42 51 
-0.402875 0.152492 1.31185 34 34 36 
0.0993445 0.182611 1.10943 86 54 59 
-0.71125 0.303797 1.52686 139 154 193 
0.583422 0.244685 1.18287 27 35 58 
0.584156 0.283021 1.18001 41 44 63 
-0.0195566 -0.339778 1.20923 123 66 83 
-0.799651 -0.352511 1.61665 29 34 54 
-0.0158158 -0.193079 1.21314 154 98 111 
0.0834749 -0.12905 1.21815 55 23 26 
-0.483763 0.0687138 1.46577 52 44 55 
-0.305255 0.0716278 1.35753 52 20 21 
-0.707408 0.319324 1.53688 86 81 104 
0.0455077 -0.236711 1.23583 139 85 99 
-0.256729 -0.31837 1.34145 58 32 35 
-0.254584 -0.282396 1.33655 115 88 103 
0.117414 -0.189208 1.26462 58 26 27 
-0.299568 -0.208499 1.37644 96 53 60 
-0.0982437 0.0609516 1.19877 40 31 32 
-0.0679469 0.00373492 1.26743 31 15 15 
-0.362038 0.303895 2.55821 50 33 43 
0.07116 0.135533 0.963468 66 36 46 
0.0975172 0.1967 1.38997 71 38 49 
0.482342 0.31503 1.05404 158 175 244 
-0.215995 -0.333523 1.2816 146 88 100 
0.112245 0.178235 1.28778 67 37 45 
0.458665 0.273126 1.10516 143 126 144 
0.195999 -0.228558 1.25286 89 61 73 
0.0429241 0.154591 1.23889 62 39 47 
-0.0978516 -0.508738 1.36936 116 110 144 
-0.0631884 -0.497772 1.35393 16 34 48 
-0.0836006 -0.497027 1.36332 27 37 47 
0.582782 -0.373117 1.24078 146 159 193 
-0.101921 -0.495339 1.37411 153 146 130 
-0.0929336 -0.491471 1.36769 151 144 125 
-0.0730578 -0.486082 1.35888 150 137 120 
0.576054 -0.365984 1.23595 145 156 188 
-0.202501 -0.519051 1.43018 43 32 48 
0.602766 -0.355795 1.23359 89 91 132 
-0.300226 -0.517355 1.44408 69 60 87 
-0.427399 -0.540714 1.51352 73 52 67 
0.596934 -0.330342 1.23761 72 65 116 
-0.183946 -0.405127 1.31273 73 26 32 
0.563913 -0.293067 1.22121 152 169 213 
-0.0380201 -0.3466 1.23199 46 21 27 
-0.96829 -0.540576 1.63906 52 39 57 
-0.478268 -0.440728 1.52302 74 51 67 
0.555756 -0.212 1.21142 30 23 30 
0.148602 -0.228476 1.26998 84 59 80 
-0.295447 -0.2297 1.34739 77 28 34 
0.625208 -0.142683 1.21698 106 116 167 
-0.00348014 -0.180385 1.22946 37 15 18 
0.0930998 0.015879 1.22167 63 30 39 
-0.79692 0.0431011 1.58539 30 44 83 
-0.798428 0.0810791 1.56969 21 28 47 
0.226469 0.148176 1.14598 59 33 46 
-0.943846 0.217319 1.62932 88 102 151 
-0.829986 0.318119 1.54812 121 136 169 
0.0404675 0.226493 0.985736 85 49 63 
-0.213968 0.309148 0.920263 197 214 255 
-0.184812 0.309709 0.916807 50 43 76 
0.334976 0.32683 1.0268 121 132 150 
-0.0151749 -0.479801 1.35386 136 117 139 
-0.407626 -0.570623 1.51083 84 60 74 
-0.213798 -0.516198 1.42801 55 53 77 
-0.254381 -0.522773 1.44664 82 61 76 
0.601781 -0.348596 1.24222 119 137 177 
-1.01771 -0.639208 1.6249 86 98 146 
-0.363602 -0.517582 1.48893 78 60 76 
0.588684 -0.324735 1.2356 44 49 79 
-0.0650991 -0.393575 1.28495 78 30 44 
0.00881763 -0.372969 1.25239 123 76 86 
-1.01761 -0.578196 1.63029 187 201 246 
0.587907 -0.283874 1.232 36 36 62 
-0.967616 -0.531614 1.64916 163 173 222 
-0.618733 -0.427525 1.55682 62 49 66 
0.352635 -0.237233 1.19806 61 57 72 
0.13055 -0.262141 1.27896 87 61 72 
0.103459 -0.235339 1.19977 159 108 125 
0.436692 -0.198512 1.1593 76 55 74 
-0.242623 -0.252022 1.33809 67 33 49 
0.604149 -0.160013 1.23313 151 173 212 
-0.00242921 -0.200197 1.24087 64 28 32 
0.511629 -0.105352 1.12614 57 43 58 
0.127518 -0.135998 1.26751 66 44 57 
-0.261101 -0.0703414 1.35662 68 27 31 
-0.821942 0.0813331 1.57934 31 47 80 
0.609938 0.0845935 1.2064 122 133 178 
0.621702 0.0847417 1.20633 120 127 173 
-0.818559 0.127742 1.56889 26 43 73 
-1.38764 0.866678 7.09332 134 88 101 
-0.129672 0.276781 1.97914 54 31 37 
0.592478 0.22569 1.1805 148 170 211 
0.0766888 0.231985 1.08852 69 37 52 
0.0427587 0.221879 0.995313 76 47 67 
0.559201 0.28358 1.1432 22 21 27 
0.555107 0.288607 1.13394 126 117 134 
0.622424 0.318034 1.21187 73 78 98 
0.572549 0.30241 1.12864 143 130 148 
-0.230875 0.306745 0.901391 46 37 64 
-0.967717 -0.524592 1.63624 101 114 156 
-0.509457 -0.405961 1.53164 68 47 54 
-0.24392 -0.28956 1.3423 117 94 114 
0.0910266 -0.219902 1.1988 52 24 23 
-0.814197 -0.355526 1.61759 32 42 67 
-0.284253 -0.209089 1.3394 47 21 22 
-0.00699584 -0.16793 1.21922 26 10 11 
0.56218 -0.105583 1.20613 112 124 162 
-0.153671 -0.107544 1.28821 125 69 80 
-0.109118 -0.0799913 1.27883 48 22 23 
-0.175017 0.0477502 1.29283 63 33 41 
0.566546 0.078209 1.19368 61 62 83 
-0.556205 0.15279 1.48157 154 171 240 
0.162458 0.112916 0.797509 88 58 68 
-0.824779 0.315745 1.53757 127 137 173 
-0.224896 0.310201 0.923135 192 217 255 
-0.188291 0.306971 0.901134 206 215 255 
0.599848 -0.341717 1.23417 65 60 92 
0.585913 -0.341959 1.23485 52 49 66 
-0.0593521 -0.407069 1.28391 142 88 111 
0.556771 -0.318955 1.23135 20 18 23 
-0.80979 -0.550712 1.63678 41 52 80 
0.591306 -0.260047 1.22798 142 169 214 
-0.245507 -0.27326 1.34187 119 92 109 
0.0343624 -0.122425 1.27001 62 30 33 
-0.79413 -0.148778 1.6075 140 153 198 
-0.0941698 -0.0880745 1.26084 131 115 92 
0.243108 -0.0565557 1.21936 75 47 61 
-0.0282124 -0.0512668 1.26105 52 31 38 
-0.247577 -0.0556074 1.35474 46 18 15 
0.185041 -0.0261487 1.14195 44 20 18 
-0.381166 -0.0137118 1.35036 54 22 23 
-0.12002 0.00834012 1.2836 61 29 30 
-0.124248 0.0363319 1.24565 179 178 176 
-0.819534 0.128816 1.57917 35 38 57 
0.31804 0.115204 1.16949 129 106 122 
-0.411222 0.162814 1.31853 108 67 81 
0.390536 0.187115 1.1464 72 60 74 
-0.828208 0.296836 1.5646 22 33 51 
-0.806237 0.319658 1.55822 21 23 36 
-0.833567 0.334732 1.52848 112 99 125 
-0.795991 0.344612 1.55048 120 111 130 
0.121144 0.236563 1.11443 51 42 45 
0.546524 0.284269 1.15092 16 14 17 
0.213387 0.288984 1.06081 169 119 144 
0.048285 0.285231 0.967916 85 58 67 
0.525618 0.300727 1.05565 62 60 73 
0.021302 -0.345629 1.22549 145 92 110 
-0.107478 -0.0755026 1.26498 67 36 42 
0.586624 0.0450298 1.19638 56 65 108 
-0.800428 0.150373 1.58632 133 148 191 
-0.830706 0.299223 1.57676 21 28 47 
-0.80348 0.343705 1.53001 23 18 22 
-0.792871 -0.487944 1.61911 42 53 85 
0.541876 -0.209487 1.2057 113 88 109 
0.551818 -0.193938 1.21918 24 23 31 
0.550011 -0.0537121 1.20354 65 48 64 
-0.0849431 -0.06414 1.28119 85 45 53 
-0.787917 0.173642 1.54585 47 47 73 
0.0994006 0.19239 1.10469 30 18 18 
-0.827175 0.304876 1.53093 129 144 185 
-0.12128 0.00302107 1.25814 72 36 38 
0.565977 -0.419842 1.23975 178 195 238 
0.346656 -0.42094 1.21653 76 58 84 
0.0572329 0.01544 0.755298 47 20 29 
-0.108355 0.0503705 1.22598 155 152 147 
0.0329491 0.199104 1.41382 54 31 37 
0.593184 -0.373092 1.23905 176 197 240 
-0.00789402 0.0624316 1.21271 64 27 34 
-0.0619371 0.0395135 1.2582 162 149 133 
-0.196326 -0.183545 1.28082 130 78 91 
-0.109479 -0.019683 1.25559 194 180 154 
0.179555 0.00425722 0.631296 108 92 77 
-0.380465 0.316608 2.37077 58 31 40 
-0.250789 0.256496 1.90683 59 30 35 
-0.424288 0.42011 3.12236 63 31 42 
-0.261788 0.262506 1.91036 60 33 42 
0.0551821 0.180858 1.30741 65 44 49 
-0.291823 0.274406 2.23013 134 83 100 
0.0899398 0.177391 1.25376 70 42 56 
0.0496163 0.174561 1.41036 60 46 46 
-0.0690927 0.0494671 1.25464 193 180 172 
0.0975332 0.173629 1.22469 71 40 55 
0.0780961 0.170841 1.22929 65 44 49 
-0.0612876 0.0280239 1.39477 62 22 31 
0.046958 0.148474 1.22399 71 39 50 
0.106853 0.166831 1.20182 63 31 42 
0.0785853 0.16174 1.29684 56 34 37 
0.0228624 -0.089889 3.48566 72 51 58 
