ply                 
format ascii 1.0    
element vertex 1235
property float x    
property float y    
property float z    
property uchar red  
property uchar green
property uchar blue 
end_header          
0.283788 -0.334495 1.2318 71 51 63 
-0.355428 -0.258656 1.45674 61 41 50 
-0.467998 -0.25717 1.49478 47 34 51 
0.326359 -0.184685 1.20084 50 31 50 
-0.126987 -0.192702 1.28735 58 27 35 
0.209532 -0.173508 1.24212 87 68 88 
-0.0732149 -0.152257 1.26631 53 24 29 
-0.408596 -0.165906 1.46459 51 39 53 
-0.598562 -0.159414 1.53108 45 41 58 
0.275999 -0.0979841 1.21224 52 36 47 
-0.115039 -0.0928105 1.27575 127 108 91 
-0.458494 -0.0771534 1.47415 118 101 120 
0.0671778 -0.0464434 1.23614 62 32 40 
-0.533508 -0.0361663 1.49965 47 39 60 
0.0822091 -0.0243679 1.22857 62 29 36 
-0.246659 -0.0148953 1.34838 54 26 40 
-0.262997 -0.014127 1.3534 55 25 35 
-0.278782 -0.0139975 1.361 50 23 30 
-0.161404 -0.008266 1.11572 53 22 30 
-0.0131513 0.00727014 1.22995 58 25 32 
-0.0470817 0.0293481 1.48279 63 23 32 
-0.199874 0.0285877 1.2965 58 20 31 
0.113897 0.0288825 1.21222 53 23 31 
-0.112412 0.0478782 1.21415 175 172 167 
-0.0126268 0.0614758 1.22521 51 20 26 
-0.163396 0.066047 1.28045 57 21 33 
-0.00803526 0.0633661 1.2237 132 79 89 
-0.120921 0.065489 1.23892 105 90 67 
0.173694 0.0772548 1.15674 60 29 37 
0.187389 0.0769897 1.15283 54 28 39 
-0.0263143 0.0829977 1.22827 62 22 31 
-0.187052 0.0880086 1.28686 59 21 32 
-0.553528 0.122112 1.48637 159 179 248 
0.352888 0.106672 1.16142 59 46 63 
-0.122072 0.137505 1.21143 128 139 184 
-0.106028 0.137398 1.2055 126 142 193 
-0.302195 0.148486 1.27542 53 26 31 
-0.015388 0.140628 1.17313 58 34 47 
0.0725608 0.138291 1.14079 72 36 48 
0.144412 0.136504 1.11565 48 27 32 
-0.329729 0.171662 1.2822 57 30 35 
0.0190768 0.158719 1.15804 56 29 36 
0.0902088 0.160791 1.13359 84 40 55 
0.100008 0.160171 1.12886 68 33 39 
-0.26741 0.225923 0.983943 69 38 53 
-0.257734 0.235587 0.979316 68 37 52 
-0.0862861 0.236093 0.917652 97 46 63 
0.447526 -0.385485 1.17525 60 43 61 
0.389649 -0.382468 1.197 57 39 61 
0.407639 -0.335906 1.18396 60 52 67 
0.39053 -0.331779 1.18961 46 38 53 
0.365423 -0.334069 1.20117 43 40 51 
0.36163 -0.267171 1.19541 55 41 56 
0.278878 -0.240087 1.22228 63 50 60 
-0.0272711 -0.232296 1.22169 51 24 31 
-0.385044 -0.261432 1.46887 60 44 55 
-0.355568 -0.2591 1.45622 60 43 53 
-0.0911396 -0.161342 1.29554 52 21 27 
0.423503 -0.141673 1.16149 55 38 44 
-0.0757016 -0.146858 1.26725 110 61 65 
-0.147516 -0.149187 1.29107 65 35 45 
0.209954 -0.141435 1.23965 68 54 71 
-0.42312 -0.165606 1.47276 62 44 58 
-0.0597238 -0.14119 1.26016 51 22 27 
-0.543166 -0.158671 1.51138 42 33 52 
0.359531 -0.101306 1.18104 59 46 55 
0.276007 -0.0978477 1.21227 52 39 46 
-0.489471 -0.119165 1.49043 127 108 128 
0.385751 -0.0620151 1.16738 61 43 57 
0.450562 -0.0595012 1.14579 35 29 39 
0.436422 -0.0582647 1.14987 49 39 48 
0.356459 -0.0565009 1.18044 61 40 47 
-0.0390034 -0.0493504 1.24445 62 29 36 
-0.533347 -0.0362981 1.49942 47 39 60 
0.0988463 -0.0246985 1.22297 56 33 43 
0.0588061 -0.0238551 1.23663 57 30 39 
0.0659261 -0.0235145 1.23417 55 32 40 
0.105881 -0.0196109 1.2195 54 27 36 
-0.572394 -0.0136344 1.50687 65 52 70 
0.379861 -0.00888249 1.16556 64 41 47 
-0.163212 -0.0102957 1.28712 56 29 38 
-0.16114 0.0103902 1.11382 59 27 38 
-0.0390327 0.0251993 1.23793 65 29 39 
-0.460243 0.0354528 1.46832 35 22 31 
0.3955 0.0370426 1.15306 53 37 50 
0.453542 0.0385595 1.13058 132 115 131 
0.423431 0.0428555 1.14095 86 58 70 
0.0620576 0.0591735 1.22868 62 29 36 
0.300694 0.0701789 1.18663 68 52 65 
0.118758 0.0786041 1.20701 61 31 41 
-0.0262599 0.0834838 1.22809 60 27 34 
-0.554582 0.122121 1.4873 161 180 249 
0.352932 0.106597 1.16145 59 46 63 
-0.551179 0.139154 1.48423 92 95 136 
0.346327 0.113696 1.1588 22 62 175 
-0.118479 0.134336 1.21026 52 55 100 
-0.121602 0.137687 1.2112 128 141 186 
0.0289834 0.136613 1.15868 57 42 47 
-0.123832 0.143193 1.21198 74 42 55 
-0.104511 0.142331 1.2055 75 39 53 
-0.0148303 0.140609 1.17299 58 34 47 
-0.0503734 0.144067 1.18547 60 44 54 
0.0729957 0.138367 1.14054 74 44 54 
0.0894453 0.140692 1.13504 74 49 55 
0.0582026 0.143092 1.14621 58 39 45 
0.0630285 0.143633 1.14398 134 86 98 
0.152537 0.141131 1.1111 133 86 104 
-0.0873682 0.165116 1.19736 79 45 61 
0.00203918 0.162309 1.16538 75 41 57 
0.180826 0.157908 1.10099 81 45 57 
0.468324 0.183663 1.11387 66 50 63 
-0.267484 0.22592 0.983878 69 38 53 
0.411484 0.27445 1.12469 131 111 122 
-0.145281 0.247924 0.938176 90 44 55 
0.389995 -0.382485 1.19713 53 38 57 
0.390057 -0.331277 1.18744 46 40 54 
0.468303 -0.283902 1.15759 52 38 53 
0.172607 -0.308184 1.26867 87 60 67 
0.379272 -0.280847 1.18953 69 59 70 
0.388738 -0.236024 1.18085 53 43 54 
0.409991 -0.23466 1.1743 54 42 54 
-0.0440539 -0.229248 1.22786 132 79 95 
0.281063 -0.183362 1.21801 61 45 55 
0.215704 -0.178945 1.23854 74 54 66 
-0.0827523 -0.150227 1.27046 46 18 17 
0.35994 -0.101381 1.18133 59 46 55 
0.449282 -0.0591603 1.14352 32 27 33 
0.31642 -0.0593367 1.19483 53 38 45 
0.105336 -0.0190954 1.21937 55 32 40 
-0.0376142 -0.0116237 1.23975 67 37 47 
0.378932 -0.00899793 1.16511 66 43 49 
-0.0385504 0.0264183 1.23747 73 41 54 
-0.0261701 0.0846867 1.22762 66 39 48 
-0.0132926 0.0842108 1.22311 62 33 38 
0.355829 0.10092 1.15765 129 103 114 
0.430673 0.100235 1.13157 135 111 124 
0.426032 0.104327 1.13399 75 54 63 
-0.550017 0.156503 1.4828 26 26 38 
-0.107742 0.136435 1.20563 126 142 194 
-0.0581749 0.137652 1.18918 66 40 53 
-0.310174 0.149685 1.28119 38 32 36 
-0.359475 0.152803 1.29392 63 48 51 
-0.0347977 0.141746 1.18002 50 34 45 
-0.0143027 0.140705 1.17232 61 37 50 
-0.0480555 0.143901 1.185 58 49 54 
0.0404756 0.141577 1.15264 69 50 56 
0.026793 0.162841 1.15547 57 37 46 
0.116339 0.160429 1.12285 52 36 37 
0.397399 0.192476 1.13958 124 114 139 
0.46511 0.328591 1.07502 13 16 23 
0.363257 -0.333463 1.20053 48 37 54 
0.409397 -0.234642 1.17435 52 40 52 
0.280854 -0.23636 1.22331 72 67 74 
0.423847 -0.141268 1.16111 59 42 50 
0.29068 -0.146733 1.21226 59 49 60 
0.241387 -0.137703 1.22711 68 47 52 
0.367561 -0.0958159 1.17587 136 119 138 
0.315942 -0.0597104 1.1939 56 39 47 
-0.494767 0.0256477 1.47666 120 106 129 
-0.572299 0.122994 1.49709 158 175 247 
0.317333 0.107497 1.17853 51 38 48 
-0.558415 0.137562 1.48806 17 24 43 
0.438458 0.106147 1.13018 54 42 56 
-0.566229 0.145708 1.48815 156 173 242 
-0.10962 0.135211 1.20662 125 142 194 
-0.058979 0.137545 1.18934 66 40 53 
0.0278575 0.137742 1.15869 56 41 48 
-0.04717 0.144407 1.18471 62 49 56 
0.0412295 0.14228 1.15205 67 47 56 
0.116777 0.162804 1.12196 76 55 60 
0.396516 0.27535 1.12964 137 122 143 
0.423938 -0.142001 1.16079 54 41 50 
-0.111984 0.136339 1.20733 125 143 193 
-0.337956 0.276194 0.99128 151 111 137 
0.465853 0.331083 1.07489 13 15 27 
-0.135655 -0.0404605 1.27828 158 136 123 
-0.105794 0.0389152 1.21648 126 116 117 
-0.0734764 0.0518355 1.2291 184 171 165 
-0.0594193 0.0537168 1.22375 105 85 84 
0.501398 0.331591 1.06547 11 28 84 
0.31985 -0.380064 1.22564 55 43 63 
0.308872 -0.376803 1.2258 83 58 77 
0.128893 -0.394053 1.29314 57 42 63 
-0.0117293 -0.375206 1.25493 72 31 39 
0.186655 -0.375991 1.27049 75 54 73 
0.278976 -0.35275 1.23518 71 52 74 
0.430566 -0.335466 1.17737 41 29 49 
-0.261875 -0.404273 1.43422 126 111 132 
0.375077 -0.33416 1.19743 54 35 54 
0.148592 -0.356333 1.28142 91 59 80 
0.451216 -0.322411 1.16728 63 48 71 
-0.322937 -0.393758 1.45976 73 58 81 
-0.475547 -0.4043 1.5169 49 34 41 
0.155971 -0.33486 1.27882 74 60 75 
0.501688 -0.294726 1.1436 149 122 141 
0.147046 -0.326784 1.28108 61 46 65 
0.332479 -0.283335 1.20847 39 25 40 
0.111064 -0.299607 1.28864 75 51 67 
-0.610888 -0.354964 1.5611 65 48 67 
-0.590543 -0.350496 1.552 140 121 141 
0.333505 -0.268924 1.20686 69 45 61 
0.173303 -0.278948 1.26611 67 46 63 
-0.336671 -0.315118 1.45773 55 38 46 
0.18087 -0.270638 1.26044 74 56 78 
0.302846 -0.238476 1.21435 59 38 53 
0.0847473 -0.227814 1.1957 59 20 25 
-0.567768 -0.290668 1.53882 58 42 52 
-0.166388 -0.236353 1.27673 53 23 35 
-0.202518 -0.231546 1.29253 46 23 31 
-0.190596 -0.229727 1.28287 60 30 38 
-0.40658 -0.259277 1.47802 52 39 49 
-0.033665 -0.214869 1.22568 134 90 105 
-0.00442075 -0.212026 1.22747 58 19 24 
-0.485422 -0.259457 1.50807 50 37 57 
-0.292245 -0.223077 1.32788 140 87 97 
-0.595391 -0.250902 1.54451 66 52 67 
-0.640473 -0.252886 1.56198 68 50 66 
-0.070011 -0.194038 1.26862 58 29 34 
-0.574612 -0.203892 1.53516 46 33 51 
-0.0896907 -0.158055 1.2725 52 21 27 
-0.106946 -0.157831 1.28039 54 22 27 
-0.123184 -0.151065 1.28436 61 24 32 
-0.136737 -0.138899 1.288 65 30 37 
-0.669924 -0.157464 1.56419 60 48 62 
0.0492938 -0.110778 1.24836 54 25 30 
-0.103184 -0.0982804 1.26422 44 18 27 
-0.0889087 -0.0857409 1.27142 38 17 16 
-0.120051 -0.0649418 1.27715 146 130 114 
-0.0129774 -0.060145 1.23244 57 22 28 
-0.128509 -0.0586458 1.2792 143 125 105 
0.0824535 -0.0468938 1.231 59 28 34 
0.312711 -0.04392 1.1914 71 52 71 
-0.0825225 -0.04634 1.27031 206 199 173 
0.30977 -0.0341233 1.19125 138 117 132 
0.0750544 -0.0345406 1.23015 143 95 111 
-0.638982 -0.042709 1.54095 65 53 65 
-0.0793899 -0.029335 1.26104 214 204 177 
-0.133623 -0.0278219 1.27707 145 124 107 
-0.563792 -0.0315978 1.51138 47 34 52 
-0.702542 -0.0306773 1.56122 60 68 104 
-0.392821 -0.0260347 1.34581 152 101 116 
-0.094786 -0.0246201 1.27098 40 17 23 
0.442372 -0.0215187 1.14161 68 49 68 
0.311951 -0.0198421 1.19099 54 39 58 
-0.101424 -0.0160202 1.24768 220 210 183 
-0.00309993 -0.0145796 1.22895 55 22 29 
-0.0869729 -0.011444 1.24997 177 163 137 
-0.173405 -0.0103406 1.29143 54 21 28 
-0.197342 -0.00927084 1.299 57 26 34 
0.391341 -0.000447122 1.15692 45 32 52 
0.0805375 0.000994936 1.22368 84 41 50 
0.0302279 0.00140974 1.24702 62 27 34 
-0.082107 0.00410958 1.27079 107 88 71 
-0.0267625 0.00749059 1.23501 62 26 30 
-0.096302 0.0106885 1.2697 81 53 41 
-0.187476 0.0114635 1.29475 57 24 33 
-0.173738 0.0115942 1.28942 52 21 27 
-0.260409 0.0248661 1.33342 79 32 42 
-0.104132 0.0261716 1.22515 195 188 178 
0.0928114 0.0262019 1.21869 50 19 25 
-0.189106 0.03043 1.29579 65 31 45 
-0.120908 0.0320574 1.23285 92 82 81 
-0.112845 0.0314333 1.22532 203 199 190 
-0.0933368 0.0350803 1.22513 120 104 104 
0.0311218 0.0362999 1.24306 57 24 31 
0.337228 0.0374773 1.17569 68 49 68 
0.327543 0.0398132 1.17827 74 60 73 
0.37768 0.0397066 1.16029 124 113 127 
0.15953 0.0450213 1.19545 51 20 26 
-0.100746 0.0479878 1.21799 46 32 31 
-0.340087 0.0591719 1.37714 54 21 30 
-0.093996 0.0551898 1.21873 39 21 19 
-0.117693 0.0563627 1.21762 131 116 93 
0.0832777 0.0633002 1.22267 61 24 31 
-0.0504081 0.0657187 1.23435 130 116 116 
0.136681 0.0777468 1.20125 57 26 34 
0.170202 0.0874346 1.15996 143 95 111 
-0.557641 0.114328 1.49645 19 26 45 
-0.555008 0.134002 1.44983 26 26 54 
-0.577878 0.14515 1.49647 18 26 72 
-0.584227 0.154875 1.4976 22 24 47 
-0.573699 0.158289 1.49545 147 158 214 
-0.430048 0.152111 1.32402 38 27 35 
0.195883 0.130949 1.09652 44 24 33 
0.349182 0.139131 1.15429 82 121 212 
0.162582 0.13605 1.10821 57 30 37 
-0.317118 0.167584 1.28339 60 28 39 
0.290904 0.15498 1.18084 58 45 62 
-0.24903 0.165736 1.2552 77 36 50 
-0.0485386 0.160071 1.18395 69 41 53 
0.0630108 0.250206 1.82078 65 31 45 
0.278953 0.16238 1.18298 43 27 40 
0.129254 0.15539 1.11888 65 33 44 
0.194648 0.153556 1.09523 63 32 38 
-0.679894 0.250782 1.52489 42 34 55 
-0.685346 0.284709 1.5248 42 35 53 
0.316998 0.221713 1.16603 76 61 84 
-0.714486 0.296702 1.53136 76 87 119 
-0.674274 0.327781 1.5047 82 70 94 
0.125576 0.25007 1.10652 42 21 26 
-0.716127 0.349782 1.50486 23 30 48 
0.296404 0.274593 1.16845 39 35 50 
-0.0856236 0.21746 0.919086 79 37 49 
0.47768 0.26102 1.0979 65 47 63 
-0.0110044 0.224415 0.942709 102 48 64 
0.144239 0.270873 1.09837 69 43 52 
0.154341 0.270193 1.09518 80 33 49 
0.425503 0.275603 1.11638 74 57 73 
0.319483 0.285206 1.15404 68 61 69 
-0.0279256 0.231587 0.933468 100 49 66 
-0.317876 0.256444 1.00095 73 42 60 
-0.0140919 0.254759 0.937884 90 51 72 
-0.0238761 0.254531 0.933571 81 44 61 
0.465845 0.302944 1.07513 17 15 28 
0.504959 0.300506 1.05822 17 18 38 
0.476736 0.306685 1.06893 21 18 71 
0.496263 0.305492 1.06456 15 27 65 
0.474836 0.311737 1.04337 159 174 243 
0.489526 0.317942 1.06361 154 177 244 
0.510461 0.32701 1.05508 19 11 35 
0.479007 0.331068 1.06629 27 18 73 
-0.276759 0.31184 0.963443 121 132 150 
-0.205073 0.306146 0.907296 28 39 101 
0.282716 -0.370351 1.23334 86 65 82 
0.445398 -0.332398 1.17172 124 110 136 
-0.339786 -0.407012 1.4687 44 26 38 
-0.0731847 -0.346186 1.25136 55 29 40 
0.11828 -0.328878 1.2901 91 68 84 
0.296716 -0.306453 1.22422 128 116 138 
0.357136 -0.285291 1.19851 62 42 51 
-0.639222 -0.351996 1.5652 70 53 71 
-0.368348 -0.31155 1.46779 75 51 64 
-0.391232 -0.310753 1.47607 66 52 65 
0.00179703 -0.243931 1.21483 65 25 33 
-0.0519424 -0.237096 1.22723 45 22 28 
-0.63565 -0.291271 1.56371 65 49 60 
0.16878 -0.233037 1.26309 94 62 75 
-0.0182488 -0.21551 1.22181 137 90 106 
-0.18155 -0.212613 1.28116 131 85 98 
-0.197035 -0.211977 1.28736 131 84 100 
0.308192 -0.198097 1.2093 62 44 58 
0.403485 -0.18807 1.17195 66 44 57 
-0.20213 -0.202434 1.29595 124 74 85 
-0.149662 -0.199593 1.29867 63 31 42 
0.180615 -0.180484 1.2549 85 58 75 
-0.414141 -0.207966 1.47356 48 34 47 
0.443895 -0.141919 1.15056 63 47 58 
-0.0498592 -0.151786 1.25931 46 23 31 
0.335215 -0.141997 1.19631 54 35 41 
-0.140435 -0.121784 1.29072 112 66 77 
0.32865 -0.106422 1.19457 58 45 55 
-0.375022 -0.126722 1.45253 59 41 57 
0.276185 -0.0737404 1.20999 57 39 53 
-0.103853 -0.0702494 1.27108 72 36 38 
-0.540457 -0.0730282 1.50235 125 106 126 
0.296011 -0.0569101 1.20026 65 44 49 
-0.624811 -0.0716522 1.54103 74 65 84 
-0.259195 -0.0599816 1.34486 58 22 24 
-0.190448 -0.0549067 1.2958 51 22 26 
0.0305637 -0.0453793 1.25032 63 33 41 
-0.62213 -0.0420906 1.53172 63 54 73 
-0.262961 -0.0365158 1.35615 56 30 39 
-0.246611 -0.0366412 1.35293 59 29 37 
-0.115178 -0.0328524 1.25189 214 203 181 
-0.0829968 -0.0211308 1.25571 189 182 156 
-0.0281384 0.026717 1.23616 67 29 40 
-0.011727 0.0266011 1.22671 70 39 47 
0.0558129 0.0272411 1.22845 57 26 32 
0.0889767 0.0355148 1.21866 50 21 25 
-0.295856 0.0403712 1.36042 53 27 36 
-0.240889 0.0444667 1.34253 43 23 25 
-0.444271 0.0567879 1.45587 44 31 41 
-0.0366914 0.0624147 1.23417 58 22 34 
-0.0269922 0.0625357 1.2312 59 26 33 
-0.0782121 0.0627718 1.22623 130 115 134 
-0.704536 0.0812092 1.55075 97 97 131 
-0.187546 0.0675353 1.29087 59 26 35 
-0.17328 0.0669051 1.2843 59 28 34 
-0.14995 0.0696607 1.27623 45 24 31 
0.0545762 0.0763368 1.23041 69 29 38 
-0.298927 0.0906769 1.36158 54 23 38 
-0.525467 0.110973 1.48278 119 105 120 
-0.577704 0.116123 1.49452 19 24 43 
0.157365 0.106219 1.14655 158 104 120 
-0.373015 0.150628 1.30456 52 32 41 
-0.381831 0.15556 1.30358 110 73 80 
-0.636671 0.182737 1.51722 131 118 144 
0.310236 0.144716 1.17559 135 130 150 
0.429404 0.151439 1.1299 61 44 62 
0.384776 0.15957 1.14324 71 56 75 
0.0368365 0.161905 1.15352 62 35 50 
0.204395 0.257251 1.80168 72 41 49 
-0.192412 0.189185 1.21522 69 48 55 
0.383818 0.178312 1.14361 122 117 140 
0.285695 0.185982 1.1788 126 123 142 
0.340085 0.184572 1.15789 138 114 128 
0.347615 0.191682 1.15454 139 129 154 
0.40688 0.188312 1.13326 127 115 135 
0.419802 0.188305 1.12708 127 113 130 
-0.565492 0.248788 1.483 53 47 61 
0.321777 0.195842 1.16491 127 123 146 
-0.70988 0.258371 1.53343 72 83 111 
0.412684 0.214676 1.12939 63 50 67 
0.286147 0.227148 1.17592 109 107 131 
0.366053 0.22243 1.14672 61 48 65 
0.468545 0.215127 1.10689 64 50 65 
0.284283 0.23693 1.17438 121 117 142 
-0.711833 0.318889 1.52481 143 163 198 
-0.0146535 0.201323 0.942243 86 55 73 
0.281262 0.261808 1.17545 40 25 32 
0.349011 0.264533 1.14626 60 44 55 
0.321139 0.268233 1.15845 55 45 56 
-0.313339 0.236175 0.999998 74 36 49 
0.361661 0.270414 1.14267 110 100 125 
0.308474 0.277062 1.16278 61 45 55 
0.380022 0.271091 1.13504 102 96 122 
0.192536 0.258871 1.08052 55 29 38 
0.465448 0.265656 1.10297 56 34 47 
-0.268156 0.235631 0.981375 65 43 56 
0.448214 0.276164 1.10839 140 130 154 
-0.000298641 0.2386 0.946006 78 40 61 
0.101908 0.291348 1.09956 146 101 121 
0.372994 0.302432 1.11186 69 57 77 
0.0223832 -0.347956 1.248 147 96 111 
-0.0965943 -0.343863 1.26159 133 80 96 
-0.150659 -0.341125 1.27797 135 81 94 
-0.696526 -0.397368 1.59927 76 63 93 
0.45689 -0.284764 1.16365 66 48 64 
0.322809 -0.274532 1.2096 126 109 127 
0.27977 -0.266573 1.22507 81 60 69 
0.205312 -0.260923 1.25179 88 68 80 
0.0338102 -0.241349 1.23393 39 19 21 
0.0142071 -0.241377 1.24564 36 18 18 
-0.58623 -0.284133 1.5442 148 134 147 
-0.219901 -0.228695 1.29665 31 14 20 
-0.0379696 -0.206437 1.23362 122 68 82 
-0.578533 -0.253548 1.53648 36 28 43 
-0.173742 -0.204285 1.28363 127 76 91 
-0.591586 -0.238562 1.54876 54 37 53 
0.154986 -0.181236 1.26749 65 45 56 
-0.0977375 -0.153287 1.27741 51 21 23 
-0.0503706 -0.114355 1.25935 30 12 12 
0.16237 -0.0937058 1.24789 73 47 60 
-0.0977336 -0.0628688 1.26791 160 145 124 
0.277099 -0.058722 1.2082 63 53 64 
-0.0311445 -0.0591311 1.23605 67 28 31 
-0.111841 -0.0513923 1.26136 206 198 175 
0.178567 -0.0397909 1.13543 140 86 102 
-0.117801 -0.0422535 1.25635 195 179 154 
0.298434 -0.0311533 1.1935 75 53 56 
0.432349 -0.0122168 1.14284 87 66 73 
0.266187 -0.00673763 1.20463 84 64 75 
0.252849 -0.00635468 1.21078 60 46 59 
0.288139 -0.0053073 1.19433 63 43 45 
-0.0854498 0.019689 1.2655 190 180 153 
-0.161642 0.0293033 1.28348 55 28 37 
-0.519788 0.0385395 1.49404 63 50 60 
0.0349122 0.0738432 1.23515 61 28 39 
-0.705043 0.100365 1.55338 103 88 111 
-0.174132 0.0895636 1.28214 60 35 41 
0.329029 0.106759 1.17292 38 33 40 
-0.235759 0.132096 1.27518 100 58 70 
0.152153 0.121805 1.13664 87 57 59 
-0.407617 0.154016 1.31947 37 35 38 
-0.0246134 0.144005 1.17632 136 88 110 
0.3245 0.148155 1.20445 68 46 48 
0.128882 0.139905 1.11979 60 48 50 
0.295491 0.166568 1.17667 142 125 144 
-0.701908 0.243861 1.53709 71 61 88 
0.311624 0.185008 1.16663 68 50 62 
-0.303947 0.202522 1.2563 84 52 57 
0.436478 0.181922 1.12059 61 44 54 
0.0200186 0.204566 0.959374 81 52 70 
0.309889 0.262582 1.16007 72 55 63 
0.0938526 0.288082 1.10686 66 44 56 
0.264362 0.306237 1.15262 56 54 68 
0.112084 0.316288 1.09183 45 41 42 
0.505536 0.311053 1.05854 164 183 252 
-0.0591346 0.278227 0.90082 82 50 63 
0.468035 0.312245 1.07169 151 172 239 
0.0188175 -0.329717 1.21137 39 20 22 
-0.157662 -0.237189 1.28273 36 14 16 
-0.0986082 -0.203516 1.25705 135 86 105 
-0.0848792 -0.099211 1.27391 30 16 15 
0.218289 -0.0960822 1.23257 88 57 72 
-0.0241141 -0.050449 1.23927 52 27 33 
-0.184573 -0.0463354 1.30133 53 32 39 
-0.399205 -0.0455226 1.37966 67 25 26 
-0.382922 -0.0305679 1.34965 146 89 108 
-0.0733207 0.0194258 1.27876 44 19 22 
-0.117478 0.0355051 1.20189 184 176 187 
0.444307 0.0433652 1.1362 134 125 146 
-0.486658 0.0695137 1.47414 48 41 49 
0.387195 0.104241 1.14528 61 44 52 
-0.366129 0.133319 1.31862 73 48 51 
-0.577139 0.153747 1.50503 151 169 235 
0.0264932 0.125694 1.2019 73 50 60 
0.138653 0.120089 1.13943 77 51 60 
0.331018 0.193557 1.15971 137 121 147 
0.391163 0.2722 1.13719 56 50 60 
-0.0763009 0.276909 0.896017 84 45 50 
-0.0998923 -0.189057 1.28053 64 29 27 
-0.217552 -0.114142 1.33312 58 26 27 
-0.0998586 -0.0887721 1.26855 135 115 90 
-0.0888623 0.0167714 1.27524 160 143 117 
-0.141111 0.0564674 1.25238 125 114 118 
-0.068697 0.192229 1.17141 53 42 48 
0.0702038 0.0375452 1.23182 79 31 27 
0.0233748 -0.23306 1.23967 40 20 19 
0.0564467 -0.223074 1.22976 136 83 103 
0.0990056 0.195295 1.08485 55 37 35 
-0.431487 -0.240669 1.48124 51 43 54 
-0.373892 -0.212669 1.45931 45 33 55 
-0.397503 -0.207118 1.46519 42 23 43 
-0.393493 -0.179038 1.46045 59 41 55 
-0.436326 -0.125888 1.4717 59 38 55 
-0.357663 -0.0835622 1.43971 60 43 61 
-0.173548 -0.0555127 1.28928 52 23 28 
-0.208131 0.0238809 1.08353 52 19 26 
0.290893 0.021732 1.19341 78 60 72 
-0.60517 0.0729352 1.51294 63 55 78 
-0.263113 0.0735618 1.34539 58 28 38 
-0.246599 0.0732698 1.34064 53 21 26 
-0.235834 0.085762 1.3339 57 28 33 
-0.371875 0.0910893 1.35081 67 32 38 
-0.566097 0.13877 1.49964 14 25 70 
-0.552787 0.182174 1.48153 47 35 49 
-0.145995 0.233174 0.939557 81 44 61 
-0.271452 0.255103 0.982751 86 45 59 
-0.0860974 0.251683 0.916491 78 46 61 
0.160872 -0.306349 1.27229 104 72 87 
0.231492 -0.266895 1.2417 97 71 84 
-0.4425 -0.240347 1.48378 72 50 62 
-0.428994 -0.211464 1.47721 67 54 71 
-0.51946 -0.154497 1.50199 122 112 136 
-0.450187 -0.0457596 1.46692 113 89 103 
-0.523963 -0.0372685 1.49388 40 34 46 
-0.500386 -0.0340646 1.48546 59 47 61 
0.0325637 0.0533159 1.55137 68 35 42 
0.324545 0.0594433 1.17804 56 42 59 
0.48332 0.148919 1.10861 64 43 52 
-0.061471 0.164143 1.18675 79 40 58 
-0.146032 0.223286 0.940533 76 43 60 
-0.516874 0.337273 1.43067 37 36 42 
-0.227069 0.235084 0.967793 73 41 54 
-0.20774 0.239292 0.9609 96 45 62 
-0.254225 0.254657 0.976239 77 41 55 
0.218289 -0.304156 1.25024 101 77 90 
0.450644 -0.237411 1.15906 60 51 70 
-0.447825 -0.0765067 1.47188 123 102 121 
0.410278 -0.0605933 1.15783 72 47 53 
0.342237 -0.0570903 1.18292 62 41 48 
-0.0266842 -0.0119595 1.23594 65 38 47 
0.0108321 0.136652 1.16501 68 51 61 
-0.0891712 0.145462 1.19888 85 58 75 
-0.177776 -0.190416 1.27605 143 88 107 
-0.0428429 -0.112467 1.2483 125 69 80 
-0.566522 0.129674 1.48871 166 183 253 
-0.0576771 -0.236891 1.23474 38 23 26 
0.154439 -0.370148 1.28106 69 54 75 
0.408381 -0.382832 1.18685 53 37 50 
0.460592 -0.335604 1.16336 46 29 47 
-0.102413 -0.147296 1.2388 113 68 75 
-0.628791 -0.15835 1.54449 77 63 76 
-0.0562973 -0.123232 1.2577 104 65 70 
-0.0906703 -0.0148064 1.25994 93 69 59 
-0.113528 0.0243041 1.25309 187 184 193 
-0.0174284 0.172851 1.43907 61 37 50 
0.0254186 -0.237444 1.24901 36 18 18 
0.487535 0.308494 1.0677 16 24 35 
-0.127792 -0.342413 1.26902 82 30 52 
0.157512 -0.344835 1.27494 73 52 71 
0.213579 -0.332815 1.25711 68 49 68 
-0.302948 -0.338623 1.44119 61 35 46 
-0.509301 -0.339388 1.5194 58 45 62 
-0.329474 -0.307805 1.44841 78 60 76 
-0.611588 -0.290152 1.55266 58 39 59 
-0.474501 -0.269274 1.49665 53 38 57 
-0.580858 -0.210394 1.52584 140 131 148 
-0.591725 -0.202513 1.53486 44 35 56 
-0.227856 -0.0982027 1.34603 43 20 28 
-0.000304713 -0.0507494 1.22956 56 25 33 
-0.0960417 -0.0486099 1.27009 150 133 103 
-0.160852 -0.046758 1.2875 55 24 30 
-0.199914 -0.0463382 1.30235 48 22 31 
-0.01292 -0.0141504 1.23112 61 28 37 
-0.197338 0.0670237 1.29101 60 27 36 
-0.315783 0.0906538 1.36006 54 27 36 
-0.181771 0.132069 1.249 91 49 59 
0.142201 0.24971 1.10294 77 31 44 
0.443229 0.269673 1.11528 45 37 48 
0.00928168 -0.327277 1.20087 112 62 71 
-0.241214 -0.326032 1.28869 65 30 37 
-0.294657 -0.363378 1.44401 61 50 58 
0.332882 -0.322948 1.20808 86 71 90 
-0.449964 -0.346223 1.49575 56 41 62 
0.389439 -0.284968 1.18641 75 57 79 
0.0924401 -0.261416 1.29068 78 47 62 
-0.265384 -0.263743 1.42317 48 34 49 
-0.334083 -0.262665 1.44781 62 49 79 
0.364305 -0.234302 1.18915 69 56 74 
-0.210841 -0.219388 1.29193 106 69 77 
-0.541735 -0.241894 1.5192 76 51 57 
-0.012869 -0.201387 1.24399 159 102 121 
-0.0781747 -0.17 1.36298 53 22 27 
-0.44726 -0.125561 1.47283 69 51 63 
-0.345387 -0.123397 1.43766 59 39 48 
0.441548 -0.106884 1.14562 76 58 74 
0.42561 -0.104462 1.15407 77 51 64 
-0.159539 -0.0950996 1.26964 109 68 82 
-0.0273097 -0.0324659 1.23783 67 35 46 
0.457296 -0.0101158 1.13414 71 56 63 
0.0698968 0.000568614 1.22631 99 52 62 
0.0607022 0.00554904 1.22843 88 45 55 
0.0875182 0.00639602 1.21806 95 45 54 
0.0563617 0.0151931 1.23095 67 34 45 
-0.000728639 0.024174 1.22335 57 30 39 
-0.172657 0.0306874 1.28435 69 37 48 
-0.117197 0.037612 1.21301 196 194 199 
-0.0272849 0.0419399 1.23075 68 35 42 
-0.12718 0.0448586 1.22643 49 39 29 
-0.0843055 0.052667 1.21976 102 87 94 
-0.131681 0.0552936 1.23522 54 37 30 
-0.181023 0.0598944 1.28425 150 93 108 
0.278336 0.0711962 1.19481 64 42 54 
0.31313 0.0966706 1.17591 72 51 66 
-0.166102 0.111383 1.25937 89 39 50 
-0.036511 0.127832 1.20124 106 60 73 
0.108368 0.132613 1.12859 63 34 39 
-0.283103 0.147558 1.2691 72 36 50 
-0.213644 0.145661 1.24213 72 40 55 
0.180737 0.138769 1.10266 69 41 53 
-0.227762 0.164365 1.24784 79 41 54 
0.302062 0.184245 1.17121 70 46 60 
0.355456 0.223457 1.1511 58 44 61 
0.00428878 0.204751 0.954089 85 47 62 
-0.270415 0.206598 0.987466 74 34 45 
-0.282533 0.208317 0.989974 67 36 51 
-0.0509086 0.20204 0.927834 81 40 54 
-0.207915 0.221889 0.963441 86 42 55 
-0.0734134 0.269449 0.906429 115 72 91 
-0.230296 0.3089 0.907369 46 32 55 
0.397852 -0.334512 1.19174 40 32 43 
-0.00606737 -0.265384 1.22851 114 66 80 
-0.20731 -0.25893 1.29655 115 69 80 
-0.292932 -0.216694 1.33507 53 21 24 
-0.46707 -0.126303 1.48664 57 46 62 
-0.0994499 -0.0258481 1.25441 48 28 19 
0.281882 0.00196518 1.19869 136 120 146 
0.0791985 0.0405289 1.21921 36 20 21 
-0.141257 0.0542988 1.26419 150 139 137 
-0.365299 0.134229 1.32415 78 54 52 
0.495565 0.181536 1.10068 64 49 56 
-0.478191 -0.306983 1.50502 88 64 77 
-0.178881 -0.232978 1.27881 73 37 41 
-0.163253 -0.218352 1.29413 36 16 15 
-0.139306 -0.184997 1.28906 70 40 50 
0.175345 -0.0234428 1.14695 66 34 39 
0.120571 0.0591592 1.20467 49 24 28 
0.450133 0.0613879 1.13032 77 61 72 
0.296655 0.111377 1.18217 126 106 131 
0.0236798 0.124579 1.1901 74 51 59 
-0.180147 0.191136 1.21068 63 48 55 
0.365963 0.258318 1.13964 130 103 118 
-0.200183 -0.187016 1.28535 138 84 100 
0.0950734 -0.184778 1.20976 67 28 29 
0.178705 -0.0611058 1.1523 88 37 36 
-0.390749 -0.0449744 1.36468 71 30 26 
0.480741 0.322298 1.07517 164 182 254 
-0.0999684 0.025663 1.25505 201 193 190 
-0.255178 -0.299843 1.42219 48 35 55 
-0.00557881 -0.225887 1.21571 131 92 110 
-0.489008 -0.0814595 1.48614 62 46 72 
-0.217178 0.0389815 1.33141 44 19 25 
-0.519198 0.0592703 1.48341 67 56 72 
-0.501187 0.105345 1.47284 48 37 53 
-0.568241 0.135753 1.47258 26 20 58 
-0.449635 0.136698 1.45324 35 31 45 
-0.489056 0.205811 1.45979 46 35 49 
-0.532603 0.246217 1.47115 33 29 43 
-0.106784 -0.279099 1.26468 73 37 51 
0.307382 -0.313815 1.21959 65 52 62 
0.352621 -0.31467 1.20462 81 55 68 
0.233286 -0.30662 1.24671 80 56 70 
0.316971 -0.280731 1.21711 129 116 136 
-0.553799 -0.158421 1.51485 46 41 63 
0.389303 -0.142763 1.17426 70 46 62 
-0.347549 -0.0934243 1.43431 138 113 132 
-0.338294 -0.0888581 1.43232 141 114 129 
-0.544358 -0.0785492 1.50409 61 48 65 
0.19339 0.0586266 1.74211 65 34 39 
-0.35848 0.168229 1.2927 60 29 34 
-0.482593 0.247933 1.45446 36 30 34 
-0.209059 0.251522 0.959987 78 44 60 
0.295299 -0.376121 1.23229 89 67 79 
-0.508545 -0.155754 1.50018 120 104 130 
-0.11343 -0.0580723 1.2701 93 51 61 
-0.575235 0.13217 1.49447 17 24 42 
-0.325994 0.145601 1.28493 70 47 53 
0.000714138 0.142695 1.16724 78 52 63 
-0.112528 -0.148808 1.28137 48 19 21 
0.361807 -0.146266 1.18494 64 60 75 
-0.151924 -0.110239 1.29564 132 76 87 
-0.186446 0.0494926 1.289 64 39 45 
-0.157067 0.0803769 1.27176 63 27 31 
-0.368104 0.131063 1.29796 81 52 54 
0.0836926 0.0376104 1.23738 83 34 30 
0.14967 -0.06409 1.17063 148 119 139 
-0.110113 0.0610712 1.22383 38 26 30 
-0.0672545 0.00415171 1.25498 45 21 21 
-0.201905 0.00873711 0.989043 58 25 34 
0.0634964 0.0361616 1.82692 65 23 35 
0.355796 0.153621 1.15866 60 42 66 
-0.346155 0.172175 1.28818 56 30 39 
-0.084114 -0.164049 1.31686 53 22 27 
0.758223 -0.150552 3.83364 63 36 45 
0.0672436 -0.0204078 1.82933 63 30 39 
-0.201955 -0.00681335 0.990804 51 24 33 
-0.257963 0.225688 0.980767 68 41 56 
-0.534353 -0.257935 1.51996 53 37 47 
0.102689 -0.0895099 1.81059 67 30 37 
-0.200264 -0.0351376 0.990971 48 26 29 
0.305042 0.143215 1.16542 136 133 154 
-0.426938 0.171019 1.31671 50 41 44 
-0.60759 0.249324 1.49464 59 53 65 
-0.198567 -0.214695 1.29454 116 67 86 
-0.12581 -0.140873 1.28614 51 21 21 
-0.0728023 0.0144259 1.26234 59 27 30 
-0.419614 0.156222 1.31673 118 110 121 
-0.0357084 -0.196579 1.22368 153 100 118 
-0.0236228 -0.19717 1.21982 157 103 117 
-0.392971 -0.166478 1.46063 57 45 67 
-0.123262 -0.0851754 1.28596 92 75 57 
-0.0568565 0.0629903 1.22508 41 20 19 
0.39341 0.150607 1.14562 66 42 55 
-0.409953 0.17299 1.31312 65 27 40 
-0.560828 0.312481 1.03045 153 170 188 
0.247869 -0.390451 1.25046 139 118 137 
-0.258502 -0.312575 1.42382 121 99 122 
-0.558853 -0.263297 1.5303 59 47 61 
-0.207383 -0.244655 1.29778 61 26 32 
-0.163558 -0.176713 1.28385 70 31 36 
-0.462819 -0.1603 1.48583 49 36 46 
-0.63051 -0.123404 1.54244 60 49 66 
-0.246901 -0.111614 1.35181 70 27 36 
-0.471328 -0.0812063 1.48267 58 44 59 
0.985583 -0.104859 3.57517 69 39 49 
0.382223 0.0639994 1.15513 133 110 128 
0.352132 0.0890915 1.16409 78 59 78 
-0.501039 0.119748 1.47158 39 28 42 
-0.219583 0.113686 1.28637 83 36 44 
-0.583081 0.179463 1.49205 126 110 136 
-0.0775346 0.164954 1.19333 77 43 59 
-0.61954 0.247544 1.50059 64 57 75 
0.331372 0.265436 1.15402 57 35 48 
-0.388648 0.285696 1.28952 24 22 23 
-0.470884 0.328719 1.42258 107 91 102 
0.0372472 0.275502 0.948838 172 133 160 
-0.0352395 -0.233341 1.20801 151 98 114 
-0.167515 -0.222489 1.27618 106 60 73 
-0.0383941 -0.217709 1.23288 114 64 75 
-0.356989 -0.158134 1.44788 136 110 123 
-0.0627149 -0.097037 1.24047 100 64 76 
1.01363 -0.204054 3.53499 64 30 31 
0.173108 -0.0495546 1.14647 148 99 118 
-0.124927 0.0300926 1.25707 165 155 154 
-0.0671412 0.0442316 1.23929 189 180 173 
0.34811 0.0746077 1.16985 144 123 138 
-0.402669 0.10759 1.35927 60 40 49 
0.343857 0.105145 1.16782 63 42 57 
-0.567968 0.131961 1.43508 17 22 42 
-0.0118904 -0.279473 1.23383 137 84 102 
-0.0169885 -0.23654 1.21903 78 41 49 
-0.37227 -0.238188 1.45888 80 68 80 
-0.0958034 -0.205619 1.27262 141 93 109 
0.268633 -0.187391 1.22227 82 66 77 
0.0703011 -0.0599906 1.23786 48 29 35 
0.987628 -0.179851 3.58345 54 31 37 
-0.450789 0.306812 1.30103 140 92 114 
0.309765 -0.0468202 1.2022 141 122 142 
-0.0518469 0.0384662 1.24434 86 41 46 
0.0951899 0.0383055 1.259 83 34 30 
-0.102847 0.0619389 1.21478 66 49 55 
-0.0342262 -0.18641 1.20831 149 96 112 
-0.105008 0.0253313 1.24089 206 201 208 
-0.096161 0.0612061 1.2284 63 52 60 
0.0621811 -0.328928 1.19959 136 115 130 
-0.334498 -0.281881 1.45113 47 34 60 
-0.320902 -0.267596 1.44341 91 62 80 
-0.284752 -0.261366 1.42963 69 41 63 
-0.343927 -0.204498 1.445 82 54 68 
-0.38878 -0.200052 1.46187 80 57 75 
-0.0470835 -0.183329 1.23836 116 74 88 
-0.249364 -0.137425 1.35148 58 27 43 
-0.101617 -0.113057 1.29651 117 75 87 
-0.0752977 -0.109123 1.2783 124 106 104 
0.0655078 -0.116051 1.23672 133 92 108 
0.0688743 -0.0764989 1.22327 150 98 111 
-0.122195 -0.0455785 1.27088 179 164 131 
-0.416002 -0.00501879 1.45211 48 35 52 
-0.416846 0.00951812 1.45213 111 100 116 
-0.467428 0.0250885 1.46681 48 36 56 
-0.366557 0.101091 1.35298 155 107 121 
-0.448102 0.117658 1.45116 40 29 43 
-0.194853 0.145164 1.23732 82 43 61 
0.509366 0.148605 1.10172 65 50 71 
-0.17672 0.167351 1.22904 84 47 65 
-0.439114 0.192233 1.32372 60 43 51 
-0.497269 0.245029 1.45795 112 100 120 
-0.145576 0.208395 0.941698 93 43 55 
-0.104025 0.222936 0.925756 83 50 67 
-0.368324 0.337025 1.25712 124 144 179 
-0.360552 0.279228 1.05247 66 46 58 
-0.197215 0.299072 0.895903 56 54 103 
-0.335656 0.312013 0.986403 52 35 53 
-0.582658 0.11714 1.49759 16 23 42 
0.364192 -0.314075 1.2007 80 59 78 
-0.59666 -0.217717 1.53523 68 60 81 
0.0440954 -0.25885 1.22904 74 36 51 
0.387547 -0.302239 1.19169 66 56 81 
-0.297231 -0.236343 1.43063 81 66 89 
-0.56157 -0.202892 1.52201 58 45 62 
-0.412919 -0.192654 1.46929 71 58 75 
-0.509521 -0.121999 1.49579 55 43 65 
-0.40639 -0.120975 1.46118 138 117 136 
-0.587726 -0.0337399 1.51373 126 112 138 
-0.460447 -0.0390001 1.47447 47 37 48 
-0.171535 -0.043882 1.29276 59 27 38 
-0.0116068 -0.0499576 1.23473 70 37 44 
-0.415021 -0.0157351 1.45349 57 44 54 
-0.184402 -0.0238105 1.29571 68 36 49 
-0.560839 0.0183362 1.4996 60 48 62 
-0.522515 0.0166484 1.48547 56 44 56 
0.12295 0.0119743 1.21262 70 36 50 
-0.092649 0.0212345 1.23555 80 42 53 
0.000509162 0.0886622 1.21913 86 43 60 
0.367563 0.107338 1.15812 57 42 49 
-0.467981 0.131409 1.45889 40 30 38 
0.441047 0.117464 1.12844 96 67 85 
-0.167327 0.167091 1.22531 85 47 62 
-0.151033 0.16675 1.21893 78 45 56 
-0.26615 0.169804 1.26111 94 53 71 
0.0630985 0.181478 1.1217 74 44 56 
-0.351564 0.168143 1.02677 92 49 56 
-0.557308 0.286404 1.47461 52 43 60 
-0.56937 0.291748 1.47815 117 118 138 
-0.192936 0.223988 0.957249 91 39 52 
-0.298729 0.236489 0.994255 73 45 60 
-0.16418 0.256392 0.944176 94 61 82 
-0.286144 0.259067 0.988021 87 54 71 
-0.381589 0.337164 1.2584 117 130 164 
-0.252003 0.281348 0.959783 59 37 49 
0.0642352 -0.317871 1.22493 45 24 29 
-0.326066 -0.243431 1.44156 88 65 75 
-0.228765 -0.235033 1.33146 39 19 28 
0.0803143 -0.222632 1.20518 64 29 33 
-0.109584 -0.174482 1.28025 71 39 52 
-0.560595 -0.123907 1.50915 119 103 129 
0.355533 -0.189492 1.19119 78 58 70 
-0.305272 -0.127009 1.42182 54 42 52 
-0.533895 -0.0502828 1.49886 74 55 77 
0.367198 -0.0587107 1.17856 68 57 73 
-0.396937 -0.0176951 1.34569 60 29 34 
-0.261064 0.00895916 1.34589 107 60 66 
-0.274741 0.023607 1.35245 65 34 40 
-0.275014 0.0345441 1.35313 54 25 30 
0.119258 0.0515119 1.19626 65 23 25 
-0.514153 0.108015 1.47421 59 57 78 
0.151913 0.124288 1.16241 58 31 36 
-0.0710986 0.179639 1.18875 95 68 75 
0.440861 0.217733 1.12141 83 63 72 
-0.382584 -0.234235 1.45988 134 111 131 
0.0815542 -0.24484 1.20191 107 47 55 
-0.277727 -0.117561 1.34124 51 24 29 
0.0848574 -0.137579 1.2075 140 87 105 
-0.0938575 -0.0731002 1.26825 175 163 141 
-0.528786 -0.00733744 0.625163 54 31 37 
-0.455109 -0.00969688 1.46616 117 90 107 
0.166737 -0.0295555 1.14817 64 25 30 
-0.469723 0.0125278 1.47113 46 31 36 
0.192888 0.0605266 1.15695 79 48 63 
-0.450597 0.154842 1.44918 51 42 47 
0.118788 0.135845 1.12627 87 67 78 
-0.255627 0.144033 1.26275 89 58 74 
-0.346155 0.147823 1.29253 74 55 59 
0.0448924 -0.270107 1.23156 80 37 46 
-0.234643 -0.225472 1.33374 128 80 96 
-0.221189 -0.113891 1.34535 60 30 30 
0.190355 0.0132367 1.16052 73 31 33 
-0.560351 0.151718 1.47905 172 187 255 
0.521947 0.291977 1.07459 147 133 158 
-0.0801823 0.062306 1.25322 55 47 58 
-0.108497 -0.0434247 1.26631 226 214 190 
0.165552 -0.451725 1.28662 78 55 84 
0.0210756 -0.423314 1.33882 67 41 68 
0.205636 -0.433416 1.27016 59 41 65 
0.248515 -0.419459 1.2538 139 124 143 
0.196587 -0.420237 1.27262 58 40 56 
0.185802 -0.418467 1.27853 62 45 63 
0.00454119 -0.460518 1.34996 66 48 70 
-0.0255976 -0.420263 1.25192 72 40 51 
-0.203879 -0.492477 1.42972 55 41 67 
-0.0749645 -0.42268 1.28093 71 24 30 
-0.0504809 -0.409495 1.27836 91 35 48 
-0.524407 -0.531416 1.55131 72 48 62 
-0.169666 -0.422805 1.30358 59 31 43 
-0.1812 -0.418514 1.31082 60 32 44 
0.00729803 -0.380002 1.24233 153 103 114 
-0.0632707 -0.391716 1.27748 79 29 41 
-0.591293 -0.52465 1.57519 72 55 73 
-0.331937 -0.469677 1.47448 69 57 81 
-0.0202761 -0.378566 1.26161 146 93 109 
-0.277783 -0.451762 1.45581 63 45 57 
0.096762 -0.371085 1.30318 82 57 76 
-0.790577 -0.493565 1.63319 29 40 96 
0.0935289 -0.316212 1.29438 40 23 33 
-0.630579 -0.433819 1.57764 68 50 66 
0.58895 -0.21536 1.22543 42 46 71 
-0.702215 -0.356878 1.59888 106 108 147 
0.00361572 -0.225192 1.23673 116 70 80 
-0.792768 -0.310956 1.61654 27 38 92 
-0.793993 -0.138085 1.6018 46 50 95 
-0.529473 -0.0792584 1.50755 57 42 61 
-0.0827698 0.0473932 1.23101 181 174 158 
0.244156 0.0760701 1.20667 121 109 129 
-0.816352 0.0803687 1.57025 27 55 95 
-0.80448 0.0815583 1.57873 28 33 55 
-0.80178 0.121866 1.57528 98 106 142 
-0.801205 0.133077 1.57425 82 95 129 
-0.797315 0.16398 1.56918 31 31 57 
-0.797235 0.177788 1.57071 28 32 67 
0.58772 0.228165 1.17256 49 61 99 
-0.819132 0.295261 1.54546 15 39 67 
-0.798353 0.303556 1.56065 23 28 57 
-0.822027 0.307019 1.54315 111 131 158 
0.593033 0.244569 1.16803 23 41 81 
-0.791465 0.342073 1.53726 116 101 120 
-0.719799 0.349796 1.48114 167 186 226 
-0.744696 0.347374 1.46695 122 134 146 
0.0834311 -0.455553 1.31989 83 60 76 
0.100445 -0.421406 1.31077 83 62 81 
-0.0415957 -0.389031 1.26981 83 41 55 
-0.0290215 -0.385693 1.26474 105 46 52 
0.0180391 -0.367662 1.24621 58 20 19 
0.593389 -0.301138 1.23473 145 173 212 
-0.589663 -0.47417 1.56886 54 37 53 
-0.323931 -0.408544 1.4635 55 39 50 
0.0981717 -0.326776 1.29577 68 33 37 
0.189371 -0.310798 1.26411 82 56 65 
-0.641485 -0.435554 1.58669 64 50 73 
-0.699157 -0.444348 1.60799 77 81 116 
-0.698786 -0.433549 1.60677 112 93 123 
-0.277276 -0.323252 1.32783 67 34 41 
-0.8173 -0.363266 1.61275 152 176 220 
-0.18358 -0.210229 1.29364 72 31 37 
-0.504143 -0.163137 1.50373 63 49 66 
0.615581 -0.0362402 1.2253 113 123 172 
-0.107517 0.01567 1.2467 136 124 126 
-0.237886 0.0230699 1.34298 50 23 30 
-0.237437 0.0346127 1.3431 41 18 26 
0.320061 0.0704362 1.17767 73 58 81 
-0.799689 0.193209 1.5726 55 62 104 
-0.820387 0.272605 1.55238 37 47 74 
0.0205304 0.223002 0.956098 89 48 64 
0.249838 0.285312 1.18019 57 51 63 
0.13026 -0.415433 1.29359 93 79 104 
-0.281706 -0.481355 1.45271 82 69 89 
-0.330071 -0.481237 1.47383 81 58 74 
0.587292 -0.313583 1.23316 24 26 38 
-0.109665 -0.353516 1.25451 143 95 117 
-0.263558 -0.308706 1.34969 43 21 24 
0.588117 -0.196236 1.22411 57 59 84 
0.00567557 -0.234346 1.22801 122 68 81 
-0.245732 -0.262711 1.33819 61 30 36 
-0.170086 -0.165189 1.28762 24 12 14 
0.00645184 -0.103464 1.21382 59 24 30 
-0.21468 -0.112769 1.32359 61 30 35 
-0.0972629 -0.0894727 1.28053 143 123 98 
0.260395 -0.0545004 1.21748 55 42 51 
-0.40314 0.152707 1.31243 34 34 36 
0.0994437 0.182736 1.10948 86 54 59 
-0.711989 0.304282 1.5281 139 154 193 
0.583827 0.244767 1.18281 27 35 58 
0.584564 0.283123 1.17995 41 44 63 
-0.0195759 -0.339982 1.2094 123 66 83 
-0.800707 -0.352931 1.61809 29 34 54 
-0.0158087 -0.193183 1.21332 154 98 111 
0.0835624 -0.129125 1.21831 55 23 26 
-0.484198 0.0688599 1.46671 52 44 55 
-0.30545 0.0717518 1.35814 52 20 21 
-0.708148 0.319832 1.53815 86 81 104 
0.0455585 -0.236865 1.23602 139 85 99 
-0.256935 -0.318618 1.34195 58 32 35 
-0.254781 -0.282608 1.33704 115 88 103 
0.117536 -0.189349 1.26484 58 26 27 
-0.299805 -0.208657 1.37705 96 53 60 
-0.0982573 0.0610402 1.19901 40 31 32 
-0.0679368 0.00376959 1.26776 31 15 15 
-0.362386 0.304447 2.5627 50 33 43 
0.0711844 0.135634 0.963363 66 36 46 
0.0977548 0.196836 1.39033 71 38 49 
0.482589 0.315132 1.05394 158 175 244 
-0.2161 -0.333698 1.28181 146 88 100 
0.112445 0.178384 1.28794 67 37 45 
0.458915 0.273216 1.10496 143 126 144 
0.196172 -0.22871 1.25286 89 61 73 
0.0430646 0.15473 1.23895 62 39 47 
-0.0979574 -0.509245 1.36992 116 110 144 
-0.0632606 -0.498258 1.35445 16 34 48 
-0.0836912 -0.497517 1.36386 27 37 47 
0.583197 -0.37346 1.24082 146 159 193 
-0.102027 -0.495834 1.37467 153 146 130 
-0.0930315 -0.491958 1.36824 151 144 125 
-0.0731367 -0.486559 1.35941 150 137 120 
0.57646 -0.366318 1.23599 145 156 188 
-0.202712 -0.519606 1.43089 43 32 48 
0.603188 -0.356122 1.23362 89 91 132 
-0.300553 -0.517914 1.44486 69 60 87 
-0.427898 -0.541348 1.51451 73 52 67 
0.597358 -0.330649 1.23764 72 65 116 
-0.184134 -0.405481 1.31325 73 26 32 
0.564304 -0.293335 1.22125 152 169 213 
-0.0380805 -0.346865 1.23233 46 21 27 
-0.969686 -0.541287 1.64064 52 39 57 
-0.47882 -0.441235 1.52406 74 51 67 
0.556141 -0.212202 1.21145 30 23 30 
0.148737 -0.228671 1.27028 84 59 80 
-0.295714 -0.22988 1.34802 77 28 34 
0.625645 -0.142843 1.21697 106 116 167 
-0.00348217 -0.180507 1.22979 37 15 18 
0.0932056 0.0159068 1.22195 63 30 39 
-0.797893 0.0432592 1.58681 30 44 83 
-0.799387 0.0812917 1.57109 21 28 47 
0.226646 0.14828 1.14612 59 33 46 
-0.945076 0.217758 1.63098 88 102 151 
-0.830943 0.318661 1.54952 121 136 169 
0.0404676 0.226665 0.985854 85 49 63 
-0.214088 0.30939 0.920439 197 214 255 
-0.184919 0.309945 0.916972 50 43 76 
0.335154 0.326998 1.02681 121 132 150 
-0.0151947 -0.480271 1.35435 136 117 139 
-0.408105 -0.571295 1.5118 84 60 74 
-0.214022 -0.516748 1.42872 55 53 77 
-0.254653 -0.523342 1.4474 82 61 76 
0.602211 -0.34892 1.24226 119 137 177 
-1.0192 -0.640058 1.62646 86 98 146 
-0.36401 -0.518171 1.48984 78 60 76 
0.589101 -0.325036 1.23564 44 49 79 
-0.0651755 -0.393911 1.28537 78 30 44 
0.00880033 -0.373273 1.25273 123 76 86 
-1.01909 -0.578956 1.63187 187 201 246 
0.588325 -0.284141 1.23204 36 36 62 
-0.969019 -0.532319 1.65077 163 173 222 
-0.619494 -0.428028 1.55802 62 49 66 
0.352875 -0.237429 1.19818 61 57 72 
0.130669 -0.262368 1.27928 87 61 72 
0.10352 -0.235509 1.20002 159 108 125 
0.43696 -0.198675 1.15935 76 55 74 
-0.242839 -0.252227 1.33868 67 33 49 
0.604589 -0.160188 1.23315 151 173 212 
-0.00242962 -0.20034 1.24121 64 28 32 
0.51192 -0.105451 1.12613 57 43 58 
0.12765 -0.136109 1.26782 66 44 57 
-0.261302 -0.0703636 1.35726 68 27 31 
-0.822945 0.0815496 1.58077 31 47 80 
0.610376 0.0845887 1.20638 122 133 178 
0.622146 0.084735 1.2063 120 127 173 
-0.819542 0.128023 1.57031 26 43 73 
-1.39549 0.872534 7.13974 134 88 101 
-0.129513 0.277176 1.98101 54 31 37 
0.592895 0.225772 1.18047 148 170 211 
0.0767554 0.232165 1.08869 69 37 52 
0.0427633 0.222049 0.995435 76 47 67 
0.559572 0.283696 1.14316 22 21 27 
0.555468 0.288725 1.1339 126 117 134 
0.622894 0.318162 1.21184 73 78 98 
0.572914 0.30253 1.12859 143 130 148 
-0.231002 0.306984 0.90156 46 37 64 
-0.969108 -0.525276 1.63782 101 114 156 
-0.510048 -0.406426 1.53272 68 47 54 
-0.244145 -0.289806 1.3429 117 94 114 
0.0910799 -0.220057 1.19905 52 24 23 
-0.815286 -0.355951 1.61905 32 42 67 
-0.284505 -0.209246 1.34002 47 21 22 
-0.0070026 -0.168037 1.21954 26 10 11 
0.562574 -0.105708 1.20615 112 124 162 
-0.153777 -0.1076 1.2887 125 69 80 
-0.10918 -0.0800257 1.27928 48 22 23 
-0.175115 0.0478394 1.29334 63 33 41 
0.566948 0.0782083 1.19368 61 62 83 
-0.556745 0.153052 1.48263 154 171 240 
0.162392 0.113013 0.797503 88 58 68 
-0.82572 0.31628 1.53894 127 137 173 
-0.22502 0.310446 0.923316 192 217 255 
-0.188401 0.307202 0.90129 206 215 255 
0.600269 -0.342032 1.23421 65 60 92 
0.586326 -0.342274 1.23489 52 49 66 
-0.0594259 -0.407418 1.28433 142 88 111 
0.557164 -0.319248 1.2314 20 18 23 
-0.810922 -0.551445 1.63827 41 52 80 
0.591724 -0.260294 1.22801 142 169 214 
-0.24573 -0.273488 1.34247 119 92 109 
0.0344188 -0.122514 1.27037 62 30 33 
-0.795145 -0.148899 1.60895 140 153 198 
-0.0942241 -0.088114 1.26126 131 115 92 
0.243313 -0.0566051 1.21956 75 47 61 
-0.0282016 -0.0512829 1.26144 52 31 38 
-0.247761 -0.0556161 1.35538 46 18 15 
0.185162 -0.026154 1.14211 44 20 18 
-0.381488 -0.0136579 1.35107 54 22 23 
-0.120075 0.0083861 1.28406 61 29 30 
-0.12431 0.0364072 1.24607 179 178 176 
-0.820526 0.129099 1.58061 35 38 57 
0.318285 0.115271 1.16961 129 106 122 
-0.411541 0.163051 1.31922 108 67 81 
0.390816 0.187212 1.14646 72 60 74 
-0.829176 0.297353 1.56603 22 33 51 
-0.807161 0.320199 1.55963 21 23 36 
-0.834512 0.335293 1.52984 112 99 125 
-0.796889 0.345183 1.55187 120 111 130 
0.121251 0.23674 1.11461 51 42 45 
0.546896 0.284389 1.15089 16 14 17 
0.213525 0.289165 1.06091 169 119 144 
0.0482912 0.285426 0.968026 85 58 67 
0.525894 0.300846 1.05558 62 60 73 
0.0212895 -0.345895 1.2258 145 92 110 
-0.10754 -0.07553 1.26541 67 36 42 
0.587036 0.0450047 1.19637 56 65 108 
-0.801391 0.150683 1.58777 133 148 191 
-0.831686 0.299746 1.57822 21 28 47 
-0.804377 0.344271 1.53136 23 18 22 
-0.793949 -0.488568 1.62054 42 53 85 
0.542248 -0.209684 1.20574 113 88 109 
0.55221 -0.194128 1.21921 24 23 31 
0.5504 -0.0537981 1.20356 65 48 64 
-0.0849793 -0.0641638 1.28163 85 45 53 
-0.788829 0.17398 1.5472 47 47 73 
0.0994823 0.192543 1.10486 30 18 18 
-0.828117 0.305396 1.53229 129 144 185 
-0.121343 0.00306586 1.25857 72 36 38 
0.566369 -0.420202 1.23974 178 195 238 
0.346887 -0.421268 1.2166 76 58 84 
0.0571603 0.015526 0.755196 47 20 29 
-0.108378 0.0504539 1.22631 155 152 147 
0.0331168 0.1993 1.4144 54 31 37 
0.593596 -0.373417 1.23903 176 197 240 
-0.00784203 0.062509 1.21297 64 27 34 
-0.0619203 0.0395787 1.25855 162 149 133 
-0.196457 -0.183655 1.28124 130 78 91 
-0.109511 -0.0196586 1.25595 194 180 154 
0.179415 0.0043768 0.631189 108 92 77 
-0.380807 0.317149 2.37429 58 31 40 
-0.250837 0.256819 1.90857 59 30 35 
-0.424922 0.421152 3.12991 63 31 42 
-0.261852 0.262841 1.91211 60 33 42 
0.0553611 0.180993 1.30769 65 44 49 
-0.292194 0.27515 2.23368 134 83 100 
0.0901331 0.177541 1.2539 70 42 56 
0.0498196 0.17476 1.41083 60 46 46 
-0.0690181 0.0495376 1.25484 193 180 172 
0.0977378 0.17379 1.22472 71 40 55 
0.0782906 0.171004 1.22934 65 44 49 
-0.061171 0.0281016 1.39514 62 22 31 
0.0471286 0.14861 1.22405 71 39 50 
0.107046 0.166968 1.20185 63 31 42 
0.0787927 0.161909 1.29702 56 34 37 
0.0235338 -0.089921 3.49647 72 51 58 
-0.0474417 0.0266241 1.35673 62 22 31 
0.192848 0.246439 1.75803 66 36 48 
0.224674 0.079083 1.5479 55 23 36 
-0.240545 0.169143 1.25097 84 40 55 
-0.0203217 -0.204438 0.756883 48 67 110 
0.387457 -0.0187251 0.991274 68 87 119 
0.396125 -0.0192682 0.981513 92 99 145 
0.429678 -0.0207757 0.970372 81 96 139 
-0.488077 -0.0376819 1.48192 49 37 47 
0.399209 -0.0627632 0.986247 73 84 116 
0.396211 -0.034862 0.980724 78 92 127 
-0.371097 -0.224327 1.46064 49 35 60 
-0.122828 -0.207876 1.29206 73 39 55 
-0.470733 -0.140765 1.48579 63 50 76 
-0.384148 -0.0539039 1.4458 67 53 78 
-0.305341 -0.055056 1.36488 72 31 39 
-0.399858 -0.0385545 1.44968 69 48 55 
2.43041 -0.231649 1.61209 183 198 241 
-0.123526 -0.0343023 1.27219 159 143 110 
-0.503491 0.0523955 1.47622 77 55 76 
0.52555 0.0657526 1.11714 78 59 81 
-0.514057 0.132283 1.4746 108 97 114 
-0.391797 0.150334 1.30506 45 26 30 
-0.360455 -0.241157 1.45665 71 51 63 
-0.240201 -0.23984 1.33336 114 69 89 
0.37643 -0.281913 1.20157 140 128 150 
-0.248887 -0.126027 1.35146 69 33 47 
-0.248588 -0.098033 1.35183 64 28 32 
-0.397336 -0.0838586 1.45316 74 53 70 
-0.372667 -0.0777417 1.44384 81 64 83 
-0.302586 -0.066831 1.36491 60 27 36 
0.079897 -0.0814527 1.23502 86 36 45 
-0.534469 -0.0135108 1.49511 66 51 70 
-0.210931 -0.0362055 1.33832 50 23 32 
-0.520023 0.0266278 1.48533 49 44 64 
-0.319254 0.0156952 1.36455 79 32 38 
-0.129497 0.0462382 1.25507 149 137 123 
0.773238 0.0788349 1.91277 93 52 70 
0.76948 0.094025 1.92652 93 38 41 
-0.140377 0.0666002 1.25519 121 95 72 
0.0675604 0.0869947 1.22979 88 45 62 
-0.176635 0.14772 1.23133 82 43 61 
-0.543391 0.178911 1.48102 43 39 56 
-0.0520082 0.172668 1.18578 74 42 55 
-0.302828 0.174063 1.27223 106 59 77 
-0.344216 0.165564 1.00173 87 44 53 
-0.208792 0.207985 0.963454 82 46 58 
-0.320211 0.221446 1.0006 85 38 48 
-0.0864608 -0.107102 1.26689 150 137 121 
-0.08714 -0.0957522 1.26692 67 32 30 
-0.575834 0.0070775 1.50928 51 45 59 
-0.251373 0.00907026 1.3418 100 51 57 
0.463316 -0.013334 1.14803 86 73 90 
-0.0263217 -0.00235485 0.828201 125 137 177 
-0.12946 0.0469472 1.2866 131 116 111 
0.399418 0.0277319 1.16836 138 115 133 
-0.5792 0.134489 1.46097 21 28 47 
0.154762 0.131709 1.15359 145 102 122 
-0.103688 0.187873 1.183 57 50 58 
-0.342883 0.19276 1.26377 45 29 32 
-0.46272 0.233919 1.44507 85 78 96 
0.17746 0.0681252 1.16376 162 119 138 
-0.398036 0.173393 1.11008 170 127 144 
-0.0901528 -0.115005 1.29356 120 70 81 
0.17527 0.0928491 1.15452 153 100 118 
-0.589326 0.131742 1.4391 21 28 47 
0.149801 0.121112 1.1554 57 31 34 
-0.107302 -0.0715367 1.28548 66 37 42 
