ply                 
format ascii 1.0    
element vertex 1253
property float x    
property float y    
property float z    
property uchar red  
property uchar green
property uchar blue 
end_header          
0.0729913 0.138396 1.14049 74 44 54 
0.0894428 0.140722 1.135 74 49 55 
0.0581966 0.14312 1.14617 58 39 45 
0.0630231 0.143661 1.14393 134 86 98 
0.152542 0.141163 1.11106 133 86 104 
-0.0873926 0.165142 1.19732 79 45 61 
0.00202536 0.162338 1.16533 75 41 57 
0.180834 0.157943 1.10095 81 45 57 
0.468382 0.183717 1.11384 66 50 63 
-0.267528 0.22593 0.983799 69 38 53 
0.411531 0.274516 1.12466 131 111 122 
-0.145321 0.247942 0.938103 90 44 55 
0.390062 -0.38252 1.1971 53 38 57 
0.390121 -0.331304 1.18741 46 40 54 
0.468376 -0.283919 1.15756 52 38 53 
0.172643 -0.308215 1.26864 87 60 67 
0.379334 -0.280867 1.1895 69 59 70 
0.388788 -0.236031 1.18081 53 43 54 
0.410055 -0.234672 1.17427 54 42 54 
-0.044054 -0.229267 1.22782 132 79 95 
0.281109 -0.183371 1.21798 61 45 55 
0.215741 -0.178955 1.23852 74 54 66 
-0.0827598 -0.150239 1.27043 46 18 17 
0.359993 -0.101374 1.1813 59 46 55 
0.449345 -0.0591449 1.14349 32 27 33 
0.316463 -0.0593238 1.1948 53 38 45 
0.105347 -0.0190848 1.21934 55 32 40 
-0.0376228 -0.0116166 1.23971 67 37 47 
0.378975 -0.00897379 1.16508 66 43 49 
-0.0385609 0.0264303 1.23744 73 41 54 
-0.0261818 0.0847066 1.22759 66 39 48 
-0.0133026 0.0842311 1.22307 62 33 38 
0.355873 0.100957 1.15762 129 103 114 
0.430728 0.100275 1.13154 135 111 124 
0.426086 0.104367 1.13396 75 54 63 
-0.550094 0.156511 1.48276 26 26 38 
-0.107766 0.136456 1.20558 126 142 194 
-0.0581946 0.137676 1.18914 66 40 53 
-0.310221 0.1497 1.28114 38 32 36 
-0.359527 0.152816 1.29386 63 48 51 
-0.0348149 0.141772 1.17997 50 34 45 
-0.0143175 0.140731 1.17228 61 37 50 
-0.0480743 0.143926 1.18496 58 49 54 
0.0404673 0.141605 1.15259 69 50 56 
0.026782 0.162871 1.15543 57 37 46 
0.116339 0.160463 1.12281 52 36 37 
0.397447 0.192529 1.13955 124 114 139 
0.465159 0.328666 1.07499 13 16 23 
0.363319 -0.333491 1.2005 48 37 54 
0.409461 -0.234654 1.17432 52 40 52 
0.280902 -0.236377 1.22328 72 67 74 
0.42391 -0.141266 1.16108 59 42 50 
0.290726 -0.146737 1.21224 59 49 60 
0.241426 -0.137706 1.22709 68 47 52 
0.367615 -0.0958092 1.17584 136 119 138 
0.315984 -0.0596963 1.19387 56 39 47 
-0.494834 0.0256431 1.47663 120 106 129 
-0.572377 0.122997 1.49705 158 175 247 
0.317373 0.107534 1.1785 51 38 48 
-0.558492 0.137568 1.48803 17 24 43 
0.438514 0.106188 1.13015 54 42 56 
-0.566307 0.145713 1.48811 156 173 242 
-0.109644 0.135232 1.20657 125 142 194 
-0.0589983 0.137568 1.1893 66 40 53 
0.0278478 0.137769 1.15865 56 41 48 
-0.0471888 0.144432 1.18467 62 49 56 
0.0412212 0.142308 1.15201 67 47 56 
0.116777 0.162837 1.12192 76 55 60 
0.396561 0.275416 1.12961 137 122 143 
0.423987 -0.141992 1.16075 54 41 50 
-0.11201 0.136361 1.20728 125 143 193 
-0.338005 0.276201 0.991196 151 111 137 
0.465902 0.331159 1.07485 13 15 27 
-0.135675 -0.0404614 1.27825 158 136 123 
-0.105815 0.038925 1.21644 126 116 117 
-0.073493 0.0518482 1.22906 184 171 165 
-0.0594343 0.0537302 1.22371 105 85 84 
0.50145 0.331663 1.06543 11 28 84 
0.31991 -0.380103 1.22562 55 43 63 
0.308931 -0.376842 1.22578 83 58 77 
0.128929 -0.394106 1.29314 57 42 63 
-0.0117186 -0.375256 1.25493 72 31 39 
0.186696 -0.376035 1.27048 75 54 73 
0.27903 -0.352787 1.23516 71 52 74 
0.430633 -0.33549 1.17732 41 29 49 
-0.261901 -0.404343 1.43425 126 111 132 
0.37514 -0.334188 1.1974 54 35 54 
0.148629 -0.356378 1.28142 91 59 80 
0.451284 -0.322432 1.16724 63 48 71 
-0.322973 -0.393827 1.45979 73 58 81 
-0.475606 -0.404374 1.51693 49 34 41 
0.156008 -0.334901 1.27882 74 60 75 
0.501758 -0.294741 1.14355 149 122 141 
0.147082 -0.326823 1.28107 61 46 65 
0.332536 -0.283358 1.20844 39 25 40 
0.111092 -0.299642 1.28862 75 51 67 
-0.610964 -0.355029 1.56111 65 48 67 
-0.590617 -0.35056 1.55201 140 121 141 
0.333561 -0.268945 1.20684 69 45 61 
0.17334 -0.278978 1.2661 67 46 63 
-0.33671 -0.315171 1.45775 55 38 46 
0.180908 -0.270667 1.26043 74 56 78 
0.302887 -0.238487 1.2143 59 38 53 
0.0847637 -0.227836 1.19568 59 20 25 
-0.567837 -0.29072 1.53883 58 42 52 
-0.166405 -0.236383 1.27672 53 23 35 
-0.20254 -0.231575 1.29252 46 23 31 
-0.190616 -0.229756 1.28286 60 30 38 
-0.40663 -0.259321 1.47802 52 39 49 
-0.0336654 -0.214892 1.22566 134 90 105 
-0.00441697 -0.212048 1.22745 58 19 24 
-0.485482 -0.259503 1.50807 50 37 57 
-0.292279 -0.223108 1.32787 140 87 97 
-0.595462 -0.250946 1.5445 66 52 67 
-0.640548 -0.252932 1.56196 68 50 66 
-0.0700162 -0.194059 1.26861 58 29 34 
-0.57468 -0.203929 1.53514 46 33 51 
-0.089701 -0.158068 1.27247 52 21 27 
-0.106957 -0.157848 1.28037 54 22 27 
-0.123198 -0.151081 1.28435 61 24 32 
-0.136753 -0.138914 1.28798 65 30 37 
-0.669996 -0.157495 1.56415 60 48 62 
0.0493026 -0.110784 1.24834 54 25 30 
-0.103198 -0.0982882 1.26419 44 18 27 
-0.0889207 -0.0857467 1.27139 38 17 16 
-0.120067 -0.0649455 1.27712 146 130 114 
-0.012981 -0.0601449 1.23241 57 22 28 
-0.128528 -0.0586489 1.27917 143 125 105 
0.0824632 -0.046889 1.23097 59 28 34 
0.312755 -0.0439078 1.19137 71 52 71 
-0.0825352 -0.0463402 1.27028 206 199 173 
0.309813 -0.0341098 1.19122 138 117 132 
0.075063 -0.0345344 1.23013 143 95 111 
-0.639048 -0.0427247 1.54088 65 53 65 
-0.0794031 -0.0293327 1.26101 214 204 177 
-0.133643 -0.0278209 1.27704 145 124 107 
-0.563854 -0.0316102 1.51133 47 34 52 
-0.702608 -0.0306935 1.56114 60 68 104 
-0.392867 -0.0260411 1.34576 152 101 116 
-0.0948012 -0.0246176 1.27095 40 17 23 
0.44243 -0.021499 1.14157 68 49 68 
0.311994 -0.0198264 1.19096 54 39 58 
-0.101441 -0.0160168 1.24765 220 210 183 
-0.00310416 -0.014573 1.22892 55 22 29 
-0.0869882 -0.0114396 1.24994 177 163 137 
-0.17343 -0.0103386 1.29139 54 21 28 
-0.19737 -0.00926947 1.29896 57 26 34 
0.391392 -0.000426041 1.15689 45 32 52 
0.0805451 0.00100634 1.22366 84 41 50 
0.0302288 0.00141964 1.247 62 27 34 
-0.0821215 0.00411628 1.27076 107 88 71 
-0.0267708 0.00749942 1.23498 62 26 30 
-0.0963188 0.0106956 1.26967 81 53 41 
-0.187503 0.0114677 1.29471 57 24 33 
-0.173764 0.0115989 1.28938 52 21 27 
-0.260444 0.0248696 1.33337 79 32 42 
-0.104151 0.0261801 1.22511 195 188 178 
0.0928194 0.0262172 1.21866 50 19 25 
-0.189135 0.0304365 1.29575 65 31 45 
-0.12093 0.0320661 1.23281 92 82 81 
-0.112866 0.0314421 1.22528 203 199 190 
-0.0933554 0.0350902 1.22509 120 104 104 
0.0311212 0.0363147 1.24303 57 24 31 
0.337271 0.0375023 1.17566 68 49 68 
0.327581 0.0398398 1.17822 74 60 73 
0.377717 0.0397348 1.16023 124 113 127 
0.159547 0.0450414 1.19542 51 20 26 
-0.100759 0.0480089 1.21807 46 32 31 
-0.340131 0.0591766 1.37709 54 21 30 
-0.0940156 0.0552019 1.21868 39 21 19 
-0.117715 0.0563741 1.21757 131 116 93 
0.0832829 0.0633204 1.22264 61 24 31 
-0.0504219 0.0657341 1.23431 130 116 116 
0.136692 0.0777706 1.20122 57 26 34 
0.170216 0.0874603 1.15993 143 95 111 
-0.5577 0.11433 1.49636 19 26 45 
-0.555061 0.134004 1.44973 26 26 54 
-0.577935 0.145153 1.49637 18 26 72 
-0.584284 0.154877 1.4975 22 24 47 
-0.573757 0.158292 1.49535 147 158 214 
-0.430094 0.152117 1.32392 38 27 35 
0.195894 0.13098 1.09648 44 24 33 
0.349223 0.139171 1.15426 82 121 212 
0.162588 0.136081 1.10817 57 30 37 
-0.31716 0.167597 1.28332 60 28 39 
0.29094 0.15502 1.18082 58 45 62 
-0.249067 0.165752 1.25513 77 36 50 
-0.0485577 0.160095 1.1839 69 41 53 
0.0630393 0.25028 1.82089 65 31 45 
0.278984 0.162421 1.18295 43 27 40 
0.129256 0.155421 1.11883 65 33 44 
0.194658 0.15359 1.09519 63 32 38 
-0.679946 0.250782 1.52474 42 34 55 
-0.685396 0.284708 1.52465 42 35 53 
0.317033 0.221761 1.166 76 61 84 
-0.714533 0.296699 1.53119 76 87 119 
-0.674321 0.32778 1.50454 82 70 94 
0.125573 0.250112 1.10647 42 21 26 
-0.716167 0.349775 1.50468 23 30 48 
0.296432 0.274652 1.16842 39 35 50 
-0.0856576 0.217476 0.919012 79 37 49 
0.477733 0.261082 1.09786 65 47 63 
-0.0110323 0.224438 0.942644 102 48 64 
0.144252 0.270926 1.09835 69 43 52 
0.15434 0.270238 1.09513 80 33 49 
0.425549 0.275666 1.11634 74 57 73 
0.319514 0.285267 1.154 68 61 69 
-0.0279556 0.231609 0.9334 100 49 66 
-0.317913 0.256444 1.00084 73 42 60 
-0.0141215 0.254784 0.937817 90 51 72 
-0.0239067 0.254555 0.933503 81 44 61 
0.465888 0.303003 1.07508 17 15 28 
0.505012 0.300573 1.05818 17 18 38 
0.476778 0.306744 1.06888 21 18 71 
0.496266 0.305531 1.06444 15 27 65 
0.474881 0.311804 1.04333 159 174 243 
0.48954 0.31799 1.06352 154 177 244 
0.510487 0.327062 1.05501 19 11 35 
0.479055 0.331139 1.06625 27 18 73 
-0.276799 0.311841 0.963329 121 132 150 
-0.205113 0.306151 0.907198 28 39 101 
0.282771 -0.370391 1.23333 86 65 82 
0.445466 -0.332422 1.17167 124 110 136 
-0.339825 -0.407085 1.46873 44 26 38 
-0.0731848 -0.346231 1.25135 55 29 40 
0.118312 -0.328919 1.2901 91 68 84 
0.29677 -0.306482 1.2242 128 116 138 
0.357195 -0.285313 1.19848 62 42 51 
-0.6393 -0.35206 1.5652 70 53 71 
-0.368392 -0.311603 1.4678 75 51 64 
-0.391279 -0.310807 1.47609 66 52 65 
0.00180256 -0.243957 1.21481 65 25 33 
-0.0519446 -0.237123 1.22721 45 22 28 
-0.635725 -0.291323 1.56371 65 49 60 
0.168815 -0.23306 1.26308 94 62 75 
-0.0182471 -0.215533 1.22179 137 90 106 
-0.18157 -0.21264 1.28115 131 85 98 
-0.197056 -0.212003 1.28734 131 84 100 
0.308242 -0.198108 1.20928 62 44 58 
0.403545 -0.188076 1.17192 66 44 57 
-0.202153 -0.202459 1.29593 124 74 85 
-0.149678 -0.199617 1.29865 63 31 42 
0.180647 -0.180497 1.25488 85 58 75 
-0.414192 -0.208001 1.47355 48 34 47 
0.443957 -0.141916 1.15052 63 47 58 
-0.0498634 -0.1518 1.25929 46 23 31 
0.335267 -0.141999 1.19628 54 35 41 
-0.140453 -0.121796 1.2907 112 66 77 
0.328699 -0.106419 1.19454 58 45 55 
-0.375069 -0.126742 1.45251 59 41 57 
0.276226 -0.0737339 1.20996 57 39 53 
-0.103868 -0.0702535 1.27105 72 36 38 
-0.540518 -0.073045 1.50231 125 106 126 
0.29605 -0.0568971 1.20022 65 44 49 
-0.624877 -0.0716709 1.54098 74 65 84 
-0.259228 -0.0599887 1.34483 58 22 24 
-0.190474 -0.054911 1.29577 51 22 26 
0.0305669 -0.045376 1.25029 63 33 41 
-0.622194 -0.0421058 1.53166 63 54 73 
-0.262995 -0.0365199 1.35612 56 30 39 
-0.246644 -0.0366449 1.3529 59 29 37 
-0.115196 -0.0328515 1.25185 214 203 181 
-0.083011 -0.0211275 1.25567 189 182 156 
-0.0281476 0.0267283 1.23612 67 29 40 
-0.0117342 0.0266129 1.22667 70 39 47 
0.0558157 0.0272554 1.22842 57 26 32 
0.0889838 0.0355313 1.21863 50 21 25 
-0.295895 0.0403754 1.36037 53 27 36 
-0.240924 0.0444734 1.34249 43 23 25 
-0.444324 0.056789 1.45581 44 31 41 
-0.0367033 0.0624302 1.23413 58 22 34 
-0.027003 0.0625515 1.23117 59 26 33 
-0.0782207 0.0627956 1.2263 130 115 134 
-0.704595 0.0812017 1.55064 97 97 131 
-0.187575 0.067546 1.29082 59 26 35 
-0.173308 0.0669163 1.28425 59 28 34 
-0.149976 0.0696731 1.27619 45 24 31 
0.0545768 0.0763578 1.23038 69 29 38 
-0.298968 0.0906865 1.36153 54 23 38 
-0.525524 0.110976 1.4827 119 105 120 
-0.577761 0.116124 1.49442 19 24 43 
0.157375 0.106246 1.14652 158 104 120 
-0.37306 0.150637 1.30447 52 32 41 
-0.381875 0.155569 1.30349 110 73 80 
-0.636728 0.182739 1.51711 131 118 144 
0.310272 0.144756 1.17556 135 130 150 
0.429454 0.151483 1.12986 61 44 62 
0.38482 0.159614 1.1432 71 56 75 
0.0368268 0.161934 1.15347 62 35 50 
0.204459 0.257334 1.8018 72 41 49 
-0.192446 0.189205 1.21516 69 48 55 
0.383862 0.178358 1.14357 122 117 140 
0.285726 0.186027 1.17877 126 123 142 
0.340123 0.184619 1.15786 138 114 128 
0.347649 0.191726 1.1545 139 129 154 
0.406909 0.188353 1.13319 127 115 135 
0.41985 0.188355 1.12704 127 113 130 
-0.565547 0.248796 1.48288 53 47 61 
0.321812 0.19589 1.16487 127 123 146 
-0.709928 0.258369 1.53328 72 83 111 
0.41273 0.214729 1.12935 63 50 67 
0.286176 0.227199 1.17589 109 107 131 
0.366093 0.222482 1.14668 61 48 65 
0.468599 0.215181 1.10685 64 50 65 
0.284311 0.236982 1.17434 121 117 142 
-0.711878 0.318886 1.52465 143 163 198 
-0.0146667 0.201379 0.942259 86 55 73 
0.281288 0.261864 1.17542 40 25 32 
0.349043 0.264583 1.14622 60 44 55 
0.321171 0.268291 1.15842 55 45 56 
-0.313376 0.236176 0.999885 74 36 49 
0.361699 0.270473 1.14263 110 100 125 
0.308505 0.277119 1.16275 61 45 55 
0.380051 0.271139 1.13498 102 96 122 
0.192541 0.258917 1.08048 55 29 38 
0.4655 0.265719 1.10293 56 34 47 
-0.268194 0.235635 0.981271 65 43 56 
0.448263 0.276228 1.10835 140 130 154 
-0.00032597 0.238625 0.945941 78 40 61 
0.101899 0.291392 1.09951 146 101 121 
0.373018 0.302481 1.1118 69 57 77 
0.0223977 -0.348 1.24799 147 96 111 
-0.0965977 -0.34391 1.26158 133 80 96 
-0.15067 -0.341172 1.27797 135 81 94 
-0.696613 -0.397442 1.59928 76 63 93 
0.456958 -0.284781 1.1636 66 48 64 
0.322865 -0.274554 1.20958 126 109 127 
0.27982 -0.266596 1.22505 81 60 69 
0.205352 -0.260949 1.25178 88 68 80 
0.0338213 -0.241375 1.23392 39 19 21 
0.0142159 -0.241403 1.24563 36 18 18 
-0.586301 -0.284184 1.5442 148 134 147 
-0.219925 -0.228725 1.29663 31 14 20 
-0.0379707 -0.206459 1.2336 122 68 82 
-0.578601 -0.253593 1.53647 36 28 43 
-0.173761 -0.20431 1.28361 127 76 91 
-0.591656 -0.238605 1.54875 54 37 53 
0.155016 -0.181251 1.26747 65 45 56 
-0.097748 -0.153303 1.2774 51 21 23 
-0.0503764 -0.114364 1.25933 30 12 12 
0.162397 -0.0937062 1.24787 73 47 60 
-0.0977478 -0.0628716 1.26788 160 145 124 
0.277137 -0.0587105 1.20816 63 53 64 
-0.0311506 -0.0591314 1.23603 67 28 31 
-0.111858 -0.0513938 1.26133 206 198 175 
0.178585 -0.039782 1.1354 140 86 102 
-0.117819 -0.042254 1.25632 195 179 154 
0.298475 -0.0311397 1.19347 75 53 56 
0.432383 -0.0121912 1.14276 87 66 73 
0.266225 -0.00671936 1.20461 84 64 75 
0.252884 -0.00633881 1.21076 60 46 59 
0.288178 -0.00529017 1.1943 63 43 45 
-0.0854656 0.0196976 1.26546 190 180 153 
-0.161667 0.0293105 1.28344 55 28 37 
-0.519847 0.038536 1.49398 63 50 60 
0.0349101 0.0738631 1.23512 61 28 39 
-0.705102 0.100359 1.55327 103 88 111 
-0.174161 0.0895772 1.28209 60 35 41 
0.329069 0.106794 1.17289 38 33 40 
-0.235795 0.13211 1.27512 100 58 70 
0.152161 0.121834 1.1366 87 57 59 
-0.407663 0.154023 1.31938 37 35 38 
-0.0246293 0.144029 1.17627 136 88 110 
0.32454 0.148197 1.20442 68 46 48 
0.128884 0.139935 1.11975 60 48 50 
0.295523 0.166611 1.17663 142 125 144 
-0.701958 0.243859 1.53694 71 61 88 
0.311658 0.185054 1.1666 68 50 62 
-0.303989 0.202536 1.25622 84 52 57 
0.436528 0.181971 1.12056 61 44 54 
0.0199954 0.204591 0.959313 81 52 70 
0.30992 0.262639 1.16003 72 55 63 
0.0938431 0.288126 1.10681 66 44 56 
0.264383 0.306297 1.15258 56 54 68 
0.112075 0.316336 1.09177 45 41 42 
0.505589 0.311122 1.0585 164 183 252 
-0.05917 0.278247 0.900746 82 50 63 
0.468083 0.312313 1.07165 151 172 239 
0.018829 -0.329756 1.21136 39 20 22 
-0.157678 -0.237219 1.28272 36 14 16 
-0.0986174 -0.20354 1.25703 135 86 105 
-0.0848901 -0.0992188 1.27389 30 16 15 
0.218323 -0.0960812 1.23255 88 57 72 
-0.0241195 -0.0504479 1.23924 52 27 33 
-0.184598 -0.0463384 1.3013 53 32 39 
-0.399251 -0.0455315 1.37961 67 25 26 
-0.382967 -0.0305745 1.3496 146 89 108 
-0.0733344 0.0194349 1.27873 44 19 22 
-0.1175 0.0355139 1.20184 184 176 187 
0.444363 0.0433942 1.13616 134 125 146 
-0.486714 0.0695145 1.47407 48 41 49 
0.387242 0.104277 1.14524 61 44 52 
-0.366174 0.133328 1.31854 73 48 51 
-0.577197 0.153751 1.50494 151 169 235 
0.0264861 0.12572 1.20186 73 50 60 
0.138659 0.120117 1.13939 77 51 60 
0.331055 0.193605 1.15968 137 121 147 
0.391205 0.272261 1.13716 56 50 60 
-0.0763375 0.276927 0.89594 84 45 50 
-0.0999017 -0.189079 1.28051 64 29 27 
-0.217579 -0.114156 1.3331 58 26 27 
-0.099872 -0.0887786 1.26852 135 115 90 
-0.0888782 0.0167796 1.2752 160 143 117 
-0.141135 0.0564782 1.25234 125 114 118 
-0.0687203 0.192256 1.17135 53 42 48 
0.0702087 0.0375614 1.23179 79 31 27 
0.0233843 -0.233085 1.23966 40 20 19 
0.0564606 -0.223097 1.22975 136 83 103 
0.0989992 0.195328 1.0848 55 37 35 
-0.431536 -0.240706 1.48121 51 43 54 
-0.373936 -0.212701 1.45929 45 33 55 
-0.39755 -0.20715 1.46516 42 23 43 
-0.39354 -0.179066 1.46043 59 41 55 
-0.436379 -0.125911 1.47168 59 38 55 
-0.357709 -0.0835774 1.43969 60 43 61 
-0.173572 -0.0555143 1.28925 52 23 28 
-0.208162 0.0238925 1.08346 52 19 26 
0.290933 0.0217537 1.19339 78 60 72 
-0.605246 0.0729301 1.51291 63 55 78 
-0.26315 0.073571 1.34536 58 28 38 
-0.246636 0.073279 1.34062 53 21 26 
-0.235869 0.0857737 1.33387 57 28 33 
-0.371923 0.0910964 1.35077 67 32 38 
-0.566171 0.138774 1.49962 14 25 70 
-0.55286 0.182183 1.48151 47 35 49 
-0.14603 0.233196 0.939486 81 44 61 
-0.271491 0.25512 0.982677 86 45 59 
-0.0861317 0.251709 0.916421 78 46 61 
0.160903 -0.30638 1.27227 104 72 87 
0.231532 -0.266919 1.24168 97 71 84 
-0.442551 -0.240384 1.48376 72 50 62 
-0.429044 -0.211498 1.47718 67 54 71 
-0.519521 -0.154525 1.50197 122 112 136 
-0.450243 -0.0457729 1.4669 113 89 103 
-0.524028 -0.0372832 1.49386 40 34 46 
-0.500449 -0.0340782 1.48544 59 47 61 
0.0325846 0.0533283 1.55143 68 35 42 
0.324589 0.0594718 1.17801 56 42 59 
0.483384 0.148966 1.10858 64 43 52 
-0.0614901 0.164168 1.1867 79 40 58 
-0.146066 0.223308 0.940462 76 43 60 
-0.516945 0.337301 1.43064 37 36 42 
-0.227107 0.235103 0.96772 73 41 54 
-0.207778 0.239312 0.960828 96 45 62 
-0.254263 0.254675 0.976166 77 41 55 
0.218328 -0.304186 1.25021 101 77 90 
0.450716 -0.237423 1.15903 60 51 70 
-0.44788 -0.0765238 1.47186 123 102 121 
0.410339 -0.0605799 1.1578 72 47 53 
0.342288 -0.0570788 1.1829 62 41 48 
-0.0266926 -0.0119512 1.2359 65 38 47 
0.0108212 0.136679 1.16497 68 51 61 
-0.0891929 0.145486 1.19883 85 58 75 
-0.177797 -0.190431 1.276 143 88 107 
-0.0428506 -0.112471 1.24826 125 69 80 
-0.566594 0.129677 1.48868 166 183 253 
-0.0576845 -0.236908 1.23469 38 23 26 
0.154476 -0.370192 1.28105 69 54 75 
0.408447 -0.382864 1.18681 53 37 50 
0.46066 -0.335627 1.16331 46 29 47 
-0.102424 -0.147309 1.23876 113 68 75 
-0.628872 -0.158382 1.54448 77 63 76 
-0.0563033 -0.123241 1.25767 104 65 70 
-0.0906856 -0.0148024 1.2599 93 69 59 
-0.113548 0.0243123 1.25306 187 184 193 
-0.0174337 0.172889 1.43909 61 37 50 
0.0254287 -0.237468 1.24898 36 18 18 
0.487585 0.308561 1.06765 16 24 35 
-0.127803 -0.342447 1.26898 82 30 52 
0.157543 -0.344873 1.27492 73 52 71 
0.213617 -0.332849 1.25708 68 49 68 
-0.302981 -0.338677 1.4412 61 35 46 
-0.509364 -0.339449 1.51942 58 45 62 
-0.329512 -0.307855 1.44842 78 60 76 
-0.611667 -0.290208 1.55268 58 39 59 
-0.47456 -0.269323 1.49667 53 38 57 
-0.580933 -0.210437 1.52585 140 131 148 
-0.591802 -0.202555 1.53487 44 35 56 
-0.227884 -0.0982143 1.34601 43 20 28 
-0.000308672 -0.050746 1.22952 56 25 33 
-0.0960564 -0.0486096 1.27006 150 133 103 
-0.160874 -0.0467593 1.28747 55 24 30 
-0.199941 -0.0463408 1.30232 48 22 31 
-0.0129265 -0.014143 1.23108 61 28 37 
-0.197367 0.0670345 1.29098 60 27 36 
-0.315827 0.0906632 1.36004 54 27 36 
-0.181801 0.132087 1.24896 91 49 59 
0.142199 0.249751 1.1029 77 31 44 
0.443278 0.269732 1.11525 45 37 48 
0.0092836 -0.327301 1.20082 112 62 71 
-0.241238 -0.326065 1.28866 65 30 37 
-0.294689 -0.363436 1.44402 61 50 58 
0.332934 -0.322975 1.20804 86 71 90 
-0.450019 -0.346283 1.49576 56 41 62 
0.389497 -0.284988 1.18637 75 57 79 
0.0924601 -0.261444 1.29066 78 47 62 
-0.265414 -0.263784 1.42317 48 34 49 
-0.334123 -0.262708 1.44782 62 49 79 
0.364358 -0.234316 1.18911 69 56 74 
-0.210864 -0.21941 1.29189 106 69 77 
-0.541805 -0.24194 1.51921 76 51 57 
-0.0128701 -0.201402 1.24395 159 102 121 
-0.0781797 -0.170022 1.36298 53 22 27 
-0.447318 -0.125587 1.47284 69 51 63 
-0.345432 -0.123419 1.43766 59 39 48 
0.441607 -0.106877 1.14558 76 58 74 
0.425667 -0.104455 1.15403 77 51 64 
-0.15956 -0.0951055 1.2696 109 68 82 
-0.0273164 -0.0324618 1.2378 67 35 46 
0.457354 -0.010095 1.1341 71 56 63 
0.0699016 0.000579619 1.22628 99 52 62 
0.0607056 0.0055604 1.2284 88 45 55 
0.0875248 0.00640838 1.21803 95 45 54 
0.0563645 0.0152055 1.23092 67 34 45 
-0.000734855 0.0241863 1.22331 57 30 39 
-0.172683 0.0306949 1.28432 69 37 48 
-0.117219 0.0376232 1.21297 196 194 199 
-0.0272946 0.0419535 1.23072 68 35 42 
-0.127203 0.04487 1.22639 49 39 29 
-0.0843234 0.0526804 1.21972 102 87 94 
-0.131704 0.0553058 1.23518 54 37 30 
-0.18105 0.059905 1.28422 150 93 108 
0.27837 0.0712222 1.19478 64 42 54 
0.313167 0.0967013 1.17588 72 51 66 
-0.16613 0.1114 1.25934 89 39 50 
-0.0365258 0.127855 1.2012 106 60 73 
0.108366 0.132641 1.12854 63 34 39 
-0.283144 0.147575 1.26906 72 36 50 
-0.213678 0.14568 1.24209 72 40 55 
0.180743 0.1388 1.10261 69 41 53 
-0.227798 0.164385 1.2478 79 41 54 
0.302096 0.184288 1.17118 70 46 60 
0.355496 0.223506 1.15106 58 44 61 
0.00426105 0.204778 0.954016 85 47 62 
-0.270453 0.206612 0.987384 74 34 45 
-0.282571 0.20833 0.989892 67 36 51 
-0.0509409 0.202063 0.927758 81 40 54 
-0.207952 0.221906 0.963361 86 42 55 
-0.0734493 0.269472 0.906353 115 72 91 
-0.230335 0.308913 0.907287 46 32 55 
0.397913 -0.334539 1.1917 40 32 43 
-0.00606704 -0.265405 1.22847 114 66 80 
-0.207332 -0.258956 1.29652 115 69 80 
-0.292965 -0.216719 1.33504 53 21 24 
-0.467131 -0.12633 1.48665 57 46 62 
-0.0994662 -0.0258446 1.25437 48 28 19 
0.281919 0.00198177 1.19866 136 120 146 
0.0792032 0.0405452 1.21917 36 20 21 
-0.14128 0.0543101 1.26416 150 139 137 
-0.365348 0.134241 1.32411 78 54 52 
0.495622 0.181584 1.10064 64 49 56 
-0.47825 -0.307038 1.50503 88 64 77 
-0.1789 -0.233 1.27877 73 37 41 
-0.163271 -0.218374 1.2941 36 16 15 
-0.139323 -0.185015 1.28903 70 40 50 
0.175358 -0.0234297 1.1469 66 34 39 
0.12058 0.0591792 1.20463 49 24 28 
0.450188 0.0614181 1.13028 77 61 72 
0.29669 0.111409 1.18213 126 106 131 
0.0236723 0.124603 1.19006 74 51 59 
-0.180179 0.191159 1.21063 63 48 55 
0.366002 0.258372 1.13961 130 103 118 
-0.200207 -0.187034 1.28532 138 84 100 
0.0950845 -0.184788 1.20972 67 28 29 
0.17872 -0.0610971 1.15225 88 37 36 
-0.390798 -0.0449827 1.36466 71 30 26 
0.480789 0.322364 1.07513 164 182 254 
-0.0999861 0.0256723 1.25502 201 193 190 
-0.255211 -0.29988 1.42216 48 35 55 
-0.00558168 -0.2259 1.21566 131 92 110 
-0.489073 -0.081477 1.4861 62 46 72 
-0.217213 0.0389879 1.33137 44 19 25 
-0.519268 0.0592665 1.48338 67 56 72 
-0.501256 0.105347 1.47281 48 37 53 
-0.568315 0.135755 1.47254 26 20 58 
-0.4497 0.136706 1.45321 35 31 45 
-0.489127 0.205824 1.45976 46 35 49 
-0.532679 0.246233 1.47112 33 29 43 
-0.106799 -0.27912 1.26463 73 37 51 
0.307439 -0.313845 1.21957 65 52 62 
0.352686 -0.3147 1.2046 81 55 68 
0.23333 -0.306651 1.24668 80 56 70 
0.317029 -0.280756 1.21709 129 116 136 
-0.553869 -0.158448 1.5148 46 41 63 
0.38937 -0.142764 1.17423 70 46 62 
-0.347598 -0.0934391 1.43428 138 113 132 
-0.338342 -0.0888723 1.43229 141 114 129 
-0.544429 -0.0785679 1.50405 61 48 65 
0.193469 0.0586392 1.74227 65 34 39 
-0.358529 0.168243 1.29266 60 29 34 
-0.482664 0.247952 1.45444 36 30 34 
-0.209094 0.251542 0.959917 78 44 60 
0.295356 -0.376161 1.23227 89 67 79 
-0.50861 -0.155779 1.50014 120 104 130 
-0.11345 -0.058072 1.27007 93 51 61 
-0.575312 0.132171 1.49443 17 24 42 
-0.32604 0.145615 1.28488 70 47 53 
0.000702775 0.142723 1.1672 78 52 63 
-0.112545 -0.148818 1.28133 48 19 21 
0.361868 -0.146268 1.18491 64 60 75 
-0.151947 -0.110246 1.2956 132 76 87 
-0.186476 0.0495021 1.28897 64 39 45 
-0.157095 0.080391 1.27172 63 27 31 
-0.368153 0.131073 1.29791 81 52 54 
0.0837003 0.0376273 1.23736 83 34 30 
0.149686 -0.064082 1.17059 148 119 139 
-0.110135 0.0610856 1.22379 38 26 30 
-0.0672676 0.00415796 1.25495 45 21 21 
-0.201937 0.00874894 0.988947 58 25 34 
0.0635617 0.0361654 1.8272 65 23 35 
0.355855 0.153662 1.15866 60 42 66 
-0.346201 0.17219 1.28813 56 30 39 
-0.0841216 -0.164067 1.31684 53 22 27 
0.759325 -0.150781 3.83716 63 36 45 
0.067312 -0.0204231 1.82962 63 30 39 
-0.201986 -0.00680156 0.990709 51 24 33 
-0.258001 0.225696 0.980668 68 41 56 
-0.534421 -0.257983 1.51998 53 37 47 
0.102771 -0.0895471 1.81086 67 30 37 
-0.200295 -0.0351258 0.990875 48 26 29 
0.305089 0.143253 1.16541 136 133 154 
-0.42699 0.171031 1.31666 50 41 44 
-0.607675 0.249346 1.49464 59 53 65 
-0.198589 -0.214716 1.2945 116 67 86 
-0.125826 -0.140885 1.28611 51 21 21 
-0.0728158 0.0144336 1.26231 59 27 30 
-0.419669 0.156231 1.31667 118 110 121 
-0.0357103 -0.196593 1.22364 153 100 118 
-0.0236226 -0.197184 1.21979 157 103 117 
-0.393021 -0.166507 1.46063 57 45 67 
-0.123279 -0.0851807 1.28593 92 75 57 
-0.0568713 0.0630042 1.22504 41 20 19 
0.393514 0.150653 1.14565 66 42 55 
-0.410008 0.173001 1.31305 65 27 40 
-0.560858 0.312463 1.03031 153 170 188 
0.24796 -0.390517 1.2505 139 118 137 
-0.258529 -0.312623 1.42382 121 99 122 
-0.558925 -0.263346 1.53031 59 47 61 
-0.207407 -0.244678 1.29774 61 26 32 
-0.163579 -0.176727 1.28381 70 31 36 
-0.462879 -0.16033 1.48583 49 36 46 
-0.630594 -0.123434 1.54246 60 49 66 
-0.246933 -0.111626 1.35178 70 27 36 
-0.471391 -0.0812253 1.48267 58 44 59 
0.987158 -0.10505 3.57877 69 39 49 
0.382328 0.0640282 1.15516 133 110 128 
0.352225 0.0891239 1.16412 78 59 78 
-0.501109 0.119755 1.47158 39 28 42 
-0.21962 0.113699 1.28633 83 36 44 
-0.583161 0.179475 1.49205 126 110 136 
-0.0775587 0.164976 1.19328 77 43 59 
-0.619627 0.247565 1.50059 64 57 75 
0.331447 0.265497 1.15404 57 35 48 
-0.388704 0.285713 1.28945 24 22 23 
-0.470953 0.328748 1.42255 107 91 102 
0.0372168 0.275526 0.948763 172 133 160 
-0.0352413 -0.233357 1.20798 151 98 114 
-0.167535 -0.222507 1.27614 106 60 73 
-0.038395 -0.217726 1.23285 114 64 75 
-0.357035 -0.15816 1.44788 136 110 123 
-0.0627241 -0.0970408 1.24044 100 64 76 
1.01523 -0.204366 3.53851 64 30 31 
0.173143 -0.0495475 1.14645 148 99 118 
-0.12495 0.0301009 1.25703 165 155 154 
-0.0671562 0.0442431 1.23926 189 180 173 
0.348203 0.0746372 1.16988 144 123 138 
-0.402724 0.107597 1.35923 60 40 49 
0.343947 0.10518 1.16785 63 42 57 
-0.56804 0.131966 1.43505 17 22 42 
-0.0118834 -0.279499 1.2338 137 84 102 
-0.0169855 -0.236559 1.219 78 41 49 
-0.372316 -0.238226 1.45888 80 68 80 
-0.0958128 -0.205637 1.27259 141 93 109 
0.268717 -0.187414 1.2223 82 66 77 
0.0703197 -0.05999 1.23786 48 29 35 
0.989214 -0.180138 3.58708 54 31 37 
-0.450849 0.306828 1.30096 140 92 114 
0.309855 -0.0468152 1.20223 141 122 142 
-0.0518584 0.0384773 1.24431 86 41 46 
0.0952138 0.0383199 1.259 83 34 30 
-0.102871 0.0619514 1.21474 66 49 55 
-0.0342295 -0.186422 1.20827 149 96 112 
-0.105029 0.0253399 1.24085 206 201 208 
-0.0961822 0.0612186 1.22836 63 52 60 
0.0621657 -0.328942 1.19952 136 115 130 
-0.334558 -0.281909 1.45107 47 34 60 
-0.320961 -0.267622 1.44335 91 62 80 
-0.284805 -0.261392 1.42958 69 41 63 
-0.343987 -0.20452 1.44495 82 54 68 
-0.388846 -0.200073 1.46181 80 57 75 
-0.0471021 -0.183337 1.23831 116 74 88 
-0.249405 -0.137437 1.35144 58 27 43 
-0.101642 -0.113063 1.29647 117 75 87 
-0.0753196 -0.109128 1.27825 124 106 104 
0.0654952 -0.116052 1.23667 133 92 108 
0.0688628 -0.0764951 1.22322 150 98 111 
-0.122218 -0.0455773 1.27084 179 164 131 
-0.41607 -0.00502482 1.45207 48 35 52 
-0.416914 0.00951339 1.45208 111 100 116 
-0.467502 0.0250836 1.46676 48 36 56 
-0.366607 0.101099 1.35295 155 107 121 
-0.448172 0.117663 1.45112 40 29 43 
-0.194877 0.145185 1.23729 82 43 61 
0.509351 0.148641 1.10165 65 50 71 
-0.176742 0.167374 1.229 84 47 65 
-0.439166 0.192248 1.32368 60 43 51 
-0.497346 0.245045 1.45791 112 100 120 
-0.145578 0.208422 0.941648 93 43 55 
-0.104027 0.222965 0.925705 83 50 67 
-0.368363 0.337061 1.25709 124 144 179 
-0.360564 0.279256 1.05243 66 46 58 
-0.197214 0.299103 0.895857 56 54 103 
-0.33566 0.312044 0.986364 52 35 53 
-0.582745 0.117138 1.49752 16 23 42 
0.36418 -0.314083 1.20062 80 59 78 
-0.596747 -0.217738 1.53512 68 60 81 
0.0440799 -0.258862 1.22899 74 36 51 
0.387534 -0.302245 1.19162 66 56 81 
-0.297285 -0.236367 1.43058 81 66 89 
-0.561654 -0.202913 1.52191 58 45 62 
-0.412988 -0.192675 1.46923 71 58 75 
-0.5096 -0.122016 1.49571 55 43 65 
-0.406457 -0.120991 1.46112 138 117 136 
-0.587813 -0.0337524 1.51364 126 112 138 
-0.460521 -0.0390104 1.47441 47 37 48 
-0.171564 -0.0438822 1.29272 59 27 38 
-0.011622 -0.0499533 1.23468 70 37 44 
-0.415089 -0.0157421 1.45344 57 44 54 
-0.184432 -0.0238091 1.29566 68 36 49 
-0.560923 0.0183277 1.49952 60 48 62 
-0.522595 0.0166411 1.48541 56 44 56 
0.122942 0.0119883 1.21258 70 36 50 
-0.0926678 0.0212441 1.23551 80 42 53 
0.000496905 0.0886815 1.21909 86 43 60 
0.367559 0.107367 1.15806 57 42 49 
-0.468055 0.131414 1.45885 40 30 38 
0.441038 0.117496 1.12838 96 67 85 
-0.167349 0.167114 1.22528 85 47 62 
-0.151053 0.166774 1.2189 78 45 56 
-0.266181 0.169825 1.26108 94 53 71 
0.0630915 0.181509 1.12165 74 44 56 
-0.351572 0.168162 1.02672 92 49 56 
-0.557392 0.28642 1.47456 52 43 60 
-0.569456 0.291763 1.47811 117 118 138 
-0.192938 0.224015 0.957202 91 39 52 
-0.298734 0.236515 0.994211 73 45 60 
-0.164182 0.256422 0.944129 94 61 82 
-0.286148 0.259095 0.987979 87 54 71 
-0.381628 0.337199 1.25838 117 130 164 
-0.252004 0.281379 0.95974 59 37 49 
0.0642194 -0.317887 1.22486 45 24 29 
-0.326124 -0.243456 1.44151 88 65 75 
-0.228802 -0.235052 1.33141 39 19 28 
0.0803011 -0.222639 1.20513 64 29 33 
-0.109609 -0.174493 1.2802 71 39 52 
-0.560679 -0.123924 1.50906 119 103 129 
0.355524 -0.189491 1.19112 78 58 70 
-0.305326 -0.127024 1.42177 54 42 52 
-0.533977 -0.0502954 1.49879 74 55 77 
0.367191 -0.058697 1.17849 68 57 73 
-0.396988 -0.0176985 1.34563 60 29 34 
-0.261105 0.00896076 1.34585 107 60 66 
-0.274784 0.0236097 1.35242 65 34 40 
-0.275057 0.0345478 1.35309 54 25 30 
0.11925 0.0515302 1.19622 65 23 25 
-0.514232 0.108016 1.47416 59 57 78 
0.151908 0.124315 1.16237 58 31 36 
-0.0711121 0.179667 1.18871 95 68 75 
0.440854 0.217775 1.12135 83 63 72 
-0.38265 -0.234259 1.45982 134 111 131 
0.0815406 -0.244849 1.20185 107 47 55 
-0.277769 -0.117571 1.34119 51 24 29 
0.0848457 -0.137579 1.20745 140 87 105 
-0.0938796 -0.0731011 1.26821 175 163 141 
-0.528734 -0.00731969 0.625131 54 31 37 
-0.455182 -0.00970444 1.46611 117 90 107 
0.166728 -0.0295424 1.14812 64 25 30 
-0.469797 0.0125216 1.47108 46 31 36 
0.192882 0.0605482 1.1569 79 48 63 
-0.450668 0.154851 1.44914 51 42 47 
0.118781 0.135872 1.12622 87 67 78 
-0.255658 0.144051 1.26271 89 58 74 
-0.346196 0.147838 1.29249 74 55 59 
0.0448767 -0.27012 1.2315 80 37 46 
-0.234682 -0.22549 1.33368 128 80 96 
-0.221227 -0.113901 1.3453 60 30 30 
0.190348 0.0132537 1.16047 73 31 33 
-0.560433 0.151721 1.47899 172 187 255 
0.52193 0.292025 1.07452 147 133 158 
-0.0802012 0.0623199 1.25319 55 47 58 
-0.108519 -0.0434228 1.26627 226 214 190 
0.165585 -0.451763 1.28653 78 55 84 
0.0210969 -0.423367 1.33877 67 41 68 
0.205672 -0.433448 1.27007 59 41 65 
0.248552 -0.419486 1.2537 139 124 143 
0.196622 -0.42027 1.27253 58 40 56 
0.185836 -0.418501 1.27845 62 45 63 
0.00456209 -0.460576 1.34991 66 48 70 
-0.0255857 -0.42029 1.25183 72 40 51 
-0.203885 -0.492563 1.42971 55 41 67 
-0.0749564 -0.422717 1.28086 71 24 30 
-0.0504717 -0.409532 1.2783 91 35 48 
-0.524486 -0.531553 1.5514 72 48 62 
-0.169671 -0.422854 1.30354 59 31 43 
-0.181208 -0.418565 1.31078 60 32 44 
0.00731069 -0.380027 1.24226 153 103 114 
-0.0632649 -0.391756 1.27743 79 29 41 
-0.591399 -0.524801 1.57532 72 55 73 
-0.331977 -0.469785 1.47454 69 57 81 
-0.0202656 -0.378598 1.26155 146 93 109 
-0.277813 -0.451862 1.45586 63 45 57 
0.0967893 -0.371126 1.30314 82 57 76 
-0.790794 -0.493753 1.63346 29 40 96 
0.0935546 -0.316248 1.29435 40 23 33 
-0.630749 -0.433979 1.57789 68 50 66 
0.589012 -0.215358 1.22533 42 46 71 
-0.702474 -0.357048 1.59929 106 108 147 
0.00362152 -0.225213 1.23674 116 70 80 
-0.793121 -0.311131 1.61706 27 38 92 
-0.794431 -0.138201 1.60248 46 50 95 
-0.529751 -0.0793172 1.50813 57 42 61 
-0.0828035 0.0474202 1.23121 181 174 158 
0.244194 0.0761009 1.20668 121 109 129 
-0.817034 0.0804058 1.57133 27 55 95 
-0.805149 0.0815955 1.5798 28 33 55 
-0.802267 0.121898 1.57602 98 106 142 
-0.80169 0.133115 1.57499 82 95 129 
-0.798038 0.164094 1.57035 31 31 57 
-0.797725 0.177853 1.57146 28 32 67 
0.587721 0.228185 1.17236 49 61 99 
-0.819993 0.295527 1.54683 15 39 67 
-0.798864 0.3037 1.56142 23 28 57 
-0.822902 0.3073 1.54453 111 131 158 
0.593031 0.244587 1.16784 23 41 81 
-0.792319 0.342393 1.53865 116 101 120 
-0.720538 0.35011 1.4824 167 186 226 
-0.745473 0.347691 1.46823 122 134 146 
0.0834592 -0.455601 1.31982 83 60 76 
0.100474 -0.421451 1.31071 83 62 81 
-0.0415868 -0.389065 1.26976 83 41 55 
-0.0290118 -0.385726 1.26468 105 46 52 
0.0180527 -0.367688 1.24614 58 20 19 
0.59346 -0.30115 1.23464 145 173 212 
-0.589793 -0.474323 1.56904 54 37 53 
-0.323983 -0.408649 1.4636 55 39 50 
0.0981983 -0.326813 1.29574 68 33 37 
0.189406 -0.310823 1.26406 82 56 65 
-0.641661 -0.435718 1.58696 64 50 73 
-0.699359 -0.444523 1.60827 77 81 116 
-0.698994 -0.433724 1.60707 112 93 123 
-0.277321 -0.323316 1.3279 67 34 41 
-0.817625 -0.363449 1.6132 152 176 220 
-0.183617 -0.210271 1.29375 72 31 37 
-0.504365 -0.163227 1.5042 63 49 66 
0.615626 -0.0362203 1.22516 113 123 172 
-0.107557 0.0156861 1.24691 136 124 126 
-0.237989 0.0230798 1.34334 50 23 30 
-0.237542 0.0346273 1.34346 41 18 26 
0.320097 0.0704668 1.17762 73 58 81 
-0.800437 0.193353 1.57381 55 62 104 
-0.820914 0.272732 1.55316 37 47 74 
0.0205097 0.223084 0.956193 89 48 64 
0.249874 0.285377 1.18023 57 51 63 
0.13029 -0.415473 1.29353 93 79 104 
-0.28173 -0.481452 1.45273 82 69 89 
-0.330107 -0.481343 1.47387 81 58 74 
0.587364 -0.313598 1.23307 24 26 38 
-0.109668 -0.35355 1.25447 143 95 117 
-0.263605 -0.308774 1.34978 43 21 24 
0.588176 -0.196231 1.224 57 59 84 
0.00568156 -0.234365 1.22801 122 68 81 
-0.245782 -0.262771 1.33831 61 30 36 
-0.170128 -0.165223 1.28777 24 12 14 
0.00645236 -0.103467 1.21388 59 24 30 
-0.214747 -0.112801 1.32381 61 30 35 
-0.0972894 -0.0894872 1.28069 143 123 98 
0.260434 -0.0544881 1.21746 55 42 51 
-0.403389 0.152791 1.313 34 34 36 
0.0994511 0.182797 1.10956 86 54 59 
-0.712689 0.304539 1.52934 139 154 193 
0.583833 0.244786 1.18262 27 35 58 
0.584563 0.283138 1.17975 41 44 63 
-0.0195691 -0.34 1.20933 123 66 83 
-0.801036 -0.353115 1.61856 29 34 54 
-0.0158091 -0.193198 1.21335 154 98 111 
0.0835781 -0.129128 1.21833 55 23 26 
-0.484497 0.0688861 1.46738 52 44 55 
-0.305605 0.071783 1.3586 52 20 21 
-0.708849 0.320104 1.5394 86 81 104 
0.0455714 -0.236884 1.23601 139 85 99 
-0.256976 -0.318684 1.34203 58 32 35 
-0.25483 -0.282671 1.33715 115 88 103 
0.117562 -0.189367 1.26485 58 26 27 
-0.299889 -0.208722 1.37727 96 53 60 
-0.0982988 0.061074 1.19921 40 31 32 
-0.0679608 0.00378074 1.26794 31 15 15 
-0.362517 0.30451 2.5641 50 33 43 
0.0711832 0.135692 0.963345 66 36 46 
0.0978016 0.196873 1.39046 71 38 49 
0.482587 0.31517 1.05383 158 175 244 
-0.216121 -0.333739 1.28181 146 88 100 
0.112485 0.178418 1.28798 67 37 45 
0.458935 0.273259 1.10489 143 126 144 
0.196206 -0.228731 1.25285 89 61 73 
0.0430973 0.154763 1.23895 62 39 47 
-0.0981185 -0.509579 1.37054 116 110 144 
-0.0633965 -0.498574 1.35504 16 34 48 
-0.0838411 -0.497838 1.36447 27 37 47 
0.583368 -0.3736 1.24108 146 159 193 
-0.102187 -0.496156 1.37529 153 146 130 
-0.093185 -0.492275 1.36885 151 144 125 
-0.0732769 -0.486867 1.36 150 137 120 
0.576628 -0.366454 1.23625 145 156 188 
-0.202949 -0.51998 1.43161 43 32 48 
0.603364 -0.356251 1.23387 89 91 132 
-0.300873 -0.518307 1.44564 69 60 87 
-0.428336 -0.541801 1.51542 73 52 67 
0.597531 -0.330766 1.23789 72 65 116 
-0.184332 -0.405721 1.3138 73 26 32 
0.564458 -0.293434 1.22149 152 169 213 
-0.03818 -0.347026 1.23273 46 21 27 
-0.970749 -0.541868 1.64198 52 39 57 
-0.479237 -0.441582 1.52489 74 51 67 
0.556284 -0.212265 1.21169 30 23 30 
0.148744 -0.228759 1.27058 84 59 80 
-0.29588 -0.229994 1.34843 77 28 34 
0.625809 -0.142879 1.2172 106 116 167 
-0.00352642 -0.180565 1.23005 37 15 18 
0.0932174 0.0159171 1.22207 63 30 39 
-0.797963 0.0432115 1.58698 30 44 83 
-0.799401 0.0812493 1.57118 21 28 47 
0.226674 0.148321 1.14617 59 33 46 
-0.944887 0.217689 1.63083 88 102 151 
-0.830621 0.318559 1.54918 121 136 169 
0.0404972 0.22669 0.985738 85 49 63 
-0.213896 0.309327 0.920109 197 214 255 
-0.184747 0.309887 0.916655 50 43 76 
0.335167 0.327062 1.02682 121 132 150 
-0.0152935 -0.480562 1.3549 136 117 139 
-0.408543 -0.571783 1.51274 84 60 74 
-0.214266 -0.517119 1.42943 55 53 77 
-0.254932 -0.523732 1.44816 82 61 76 
0.602388 -0.349047 1.24251 119 137 177 
-1.02051 -0.640829 1.62803 86 98 146 
-0.364378 -0.518582 1.49068 78 60 76 
0.589271 -0.325153 1.23589 44 49 79 
-0.0652969 -0.394123 1.28585 78 30 44 
0.00872117 -0.373456 1.25315 123 76 86 
-1.0203 -0.579615 1.63332 187 201 246 
0.58849 -0.284238 1.23228 36 36 62 
-0.968907 -0.532247 1.6506 158 171 216 
-0.620023 -0.428383 1.55891 62 49 66 
0.352944 -0.237504 1.19843 61 57 72 
0.130667 -0.262476 1.27961 87 61 72 
0.103498 -0.235589 1.2003 159 108 125 
0.437048 -0.198724 1.15957 76 55 74 
-0.242995 -0.252353 1.33909 67 33 49 
0.604751 -0.160233 1.23338 151 173 212 
-0.00247736 -0.20041 1.24149 64 28 32 
0.51202 -0.105459 1.12632 57 43 58 
0.127658 -0.136153 1.26807 66 44 57 
-0.261369 -0.0704 1.35748 68 27 31 
-0.822956 0.0815052 1.58086 31 47 80 
0.610515 0.084633 1.20659 122 133 178 
0.62229 0.0847799 1.20651 120 127 173 
-0.819491 0.127979 1.57031 26 43 73 
-1.39708 0.873175 7.15019 134 88 101 
-0.129438 0.27716 1.98133 54 31 37 
0.593012 0.225857 1.18066 148 170 211 
0.076785 0.232192 1.08862 69 37 52 
0.0427927 0.222074 0.995323 76 47 67 
0.559664 0.283793 1.14333 22 21 27 
0.555556 0.288824 1.13406 126 117 134 
0.623026 0.318275 1.21206 73 78 98 
0.573006 0.302635 1.12875 143 130 148 
-0.230789 0.306914 0.901211 46 37 64 
-0.970152 -0.525834 1.63913 101 114 156 
-0.510465 -0.406741 1.53352 68 47 54 
-0.244323 -0.289961 1.34336 117 94 114 
0.0910554 -0.220129 1.19933 52 24 23 
-0.81591 -0.356257 1.61996 32 42 67 
-0.284658 -0.209346 1.34039 47 21 22 
-0.00704728 -0.168088 1.21979 26 10 11 
0.56271 -0.105728 1.20637 112 124 162 
-0.153841 -0.107639 1.28894 125 69 80 
-0.109223 -0.0800522 1.27948 48 22 23 
-0.175116 0.0478403 1.29342 63 33 41 
0.567068 0.0782502 1.19387 61 62 83 
-0.556677 0.153023 1.4826 154 171 240 
0.162368 0.113078 0.79746 88 58 68 
-0.825392 0.316178 1.5386 127 137 173 
-0.22482 0.31038 0.92298 192 217 255 
-0.188222 0.307143 0.900967 206 215 255 
0.600443 -0.342155 1.23445 65 60 92 
0.586495 -0.342397 1.23514 52 49 66 
-0.059547 -0.40764 1.28481 142 88 111 
0.557321 -0.319362 1.23166 20 18 23 
-0.811804 -0.552018 1.63955 41 52 80 
0.591888 -0.26038 1.22825 142 169 214 
-0.245901 -0.27363 1.34292 119 92 109 
0.0344019 -0.122553 1.2706 62 30 33 
-0.795485 -0.149024 1.60949 140 153 198 
-0.0942682 -0.0881403 1.26147 131 115 92 
0.24335 -0.0566118 1.21974 75 47 61 
-0.0282204 -0.0512966 1.26162 52 31 38 
-0.247821 -0.0556476 1.35559 46 18 15 
0.185175 -0.0261414 1.14224 44 20 18 
-0.381539 -0.0136785 1.35121 54 22 23 
-0.12009 0.00838307 1.28419 61 29 30 
-0.124313 0.0364134 1.24615 179 178 176 
-0.820478 0.129054 1.58062 35 38 57 
0.31833 0.115312 1.16971 129 106 122 
-0.411454 0.163038 1.31912 108 67 81 
0.390867 0.187271 1.14655 72 60 74 
-0.828884 0.29726 1.56573 22 33 51 
-0.806841 0.320096 1.55928 21 23 36 
-0.83415 0.335178 1.52946 112 99 125 
-0.796547 0.345069 1.5515 120 111 130 
0.121279 0.236772 1.11456 51 42 45 
0.546986 0.284483 1.15105 16 14 17 
0.213544 0.289206 1.06086 169 119 144 
0.0483291 0.285436 0.967875 85 58 67 
0.525953 0.300947 1.0557 62 60 73 
0.0212189 -0.346052 1.22618 145 92 110 
-0.10758 -0.0755522 1.2656 67 36 42 
0.587167 0.0450371 1.19657 56 65 108 
-0.801325 0.150638 1.58776 133 148 191 
-0.831393 0.299653 1.57792 21 28 47 
-0.804019 0.344154 1.53097 23 18 22 
-0.794722 -0.489037 1.62167 42 53 85 
0.542384 -0.209745 1.20597 113 88 109 
0.552352 -0.194185 1.21945 24 23 31 
0.550527 -0.0537991 1.20376 65 48 64 
-0.0850132 -0.0641853 1.28182 85 45 53 
-0.788722 0.173934 1.54713 47 47 73 
0.0995048 0.192578 1.10483 30 18 18 
-0.827798 0.305298 1.53196 129 144 185 
-0.121358 0.00306514 1.25869 72 36 38 
0.56652 -0.420283 1.23982 178 195 238 
0.346982 -0.421356 1.21668 76 58 84 
0.0571384 0.0155236 0.755151 47 20 29 
-0.108416 0.05046 1.22646 155 152 147 
0.033124 0.199363 1.41461 54 31 37 
0.59375 -0.373484 1.2391 176 197 240 
-0.0078516 0.0625215 1.21309 64 27 34 
-0.0619429 0.0395843 1.25871 162 149 133 
-0.196514 -0.183723 1.28145 130 78 91 
-0.109546 -0.0196716 1.25612 194 180 154 
0.179379 0.00439753 0.63113 108 92 77 
-0.380933 0.317289 2.37528 58 31 40 
-0.250882 0.2569 1.90907 59 30 35 
-0.425125 0.421434 3.13194 63 31 42 
-0.261902 0.262925 1.91262 60 33 42 
0.0553877 0.18103 1.30778 65 44 49 
-0.292236 0.275244 2.23441 134 83 100 
0.0901673 0.177573 1.25394 70 42 56 
0.0498635 0.174794 1.41093 60 46 46 
-0.0690017 0.0495422 1.25489 193 180 172 
0.0977723 0.173817 1.22473 71 40 55 
0.0783236 0.17103 1.22936 65 44 49 
-0.061127 0.0281001 1.3952 62 22 31 
0.0471628 0.148634 1.22405 71 39 50 
0.107082 0.166997 1.20184 63 31 42 
0.0788378 0.161938 1.29704 56 34 37 
0.0237954 -0.0900681 3.49871 72 51 58 
-0.0473972 0.0266228 1.35677 62 22 31 
0.192941 0.246514 1.75826 66 36 48 
0.224753 0.0791054 1.54803 55 23 36 
-0.240575 0.169164 1.25094 84 40 55 
-0.0203218 -0.204415 0.756822 48 67 110 
0.387533 -0.0187052 0.991261 68 87 119 
0.396202 -0.0192479 0.981498 92 99 145 
0.429761 -0.0207547 0.970358 81 96 139 
-0.488153 -0.0376925 1.48186 49 37 47 
0.399287 -0.062749 0.986232 73 84 116 
0.396288 -0.0348437 0.980708 78 92 127 
-0.371144 -0.224358 1.46061 49 35 60 
-0.122816 -0.207902 1.29205 73 39 55 
-0.4708 -0.140785 1.48574 63 50 76 
-0.384204 -0.0539148 1.44577 67 53 78 
-0.30538 -0.055063 1.36485 72 31 39 
-0.399917 -0.0385641 1.44964 69 48 55 
2.43354 -0.231856 1.61305 183 198 241 
-0.12352 -0.0343015 1.27218 159 143 110 
-0.50357 0.0523909 1.47616 77 55 76 
0.525851 0.0657971 1.11722 78 59 81 
-0.51414 0.132284 1.47453 108 97 114 
-0.391856 0.150344 1.305 45 26 30 
-0.3605 -0.24119 1.45662 71 51 63 
-0.240218 -0.239868 1.33334 114 69 89 
0.376659 -0.281977 1.20164 140 128 150 
-0.24891 -0.126042 1.35144 69 33 47 
-0.248612 -0.0980447 1.3518 64 28 32 
-0.397394 -0.0838731 1.45313 74 53 70 
-0.37272 -0.0777552 1.44381 81 64 83 
-0.302624 -0.0668393 1.36488 60 27 36 
0.0799746 -0.0814582 1.23504 86 36 45 
-0.534549 -0.0135215 1.49505 66 51 70 
-0.210949 -0.0362085 1.33831 50 23 32 
-0.520103 0.0266206 1.48527 49 44 64 
-0.319298 0.0156957 1.36451 79 32 38 
-0.129496 0.0462509 1.25506 149 137 123 
0.773936 0.078883 1.91341 93 52 70 
0.770177 0.0940821 1.92718 93 38 41 
-0.14038 0.0666153 1.25517 121 95 72 
0.0676275 0.0870228 1.22981 88 45 62 
-0.176651 0.147743 1.23131 82 43 61 
-0.54348 0.178912 1.48095 43 39 56 
-0.0519898 0.172704 1.18577 74 42 55 
-0.302873 0.174081 1.27219 106 59 77 
-0.344256 0.165576 1.00165 87 44 53 
-0.208816 0.208008 0.963391 82 46 58 
-0.32025 0.22146 1.00052 85 38 48 
-0.0864414 -0.107112 1.26689 150 137 121 
-0.0871212 -0.0957605 1.26691 67 32 30 
-0.57592 0.00706696 1.5092 51 45 59 
-0.251402 0.00907231 1.34177 100 51 57 
0.463584 -0.0133167 1.14811 86 73 90 
-0.0263068 -0.00233144 0.828146 125 137 177 
-0.129458 0.0469593 1.28659 131 116 111 
0.399648 0.0277593 1.16843 138 115 133 
-0.579287 0.134486 1.46089 21 28 47 
0.154859 0.131751 1.15361 145 102 122 
-0.103686 0.187907 1.18298 57 50 58 
-0.342934 0.192776 1.26372 45 29 32 
-0.4628 0.233931 1.44502 85 78 96 
0.17757 0.0681553 1.16379 162 119 138 
-0.398085 0.173401 1.10999 170 127 144 
-0.0901335 -0.115018 1.29356 120 70 81 
0.175377 0.0928846 1.15454 153 100 118 
-0.58941 0.131738 1.43901 21 28 47 
0.149896 0.121152 1.15542 57 31 34 
-0.10729 -0.0715421 1.28548 66 37 42 
-0.0739541 -0.551443 1.36663 135 133 157 
-0.038989 -0.535588 1.35027 24 30 46 
-0.0759394 -0.534419 1.36598 155 138 122 
-0.103404 -0.537791 1.37588 184 168 153 
-0.104992 -0.527072 1.3765 164 167 182 
-0.787727 -0.642219 1.64367 26 32 82 
-1.06964 -0.580519 1.54269 111 111 171 
-1.05989 -0.578325 1.55429 111 123 181 
-0.0637544 -0.557225 1.35984 71 56 79 
0.0922204 -0.513604 1.3244 58 35 53 
-0.0374596 -0.549294 1.35725 63 46 52 
-0.0868724 -0.560383 1.37076 200 196 167 
0.00514408 -0.534373 1.35322 64 47 63 
0.337158 -0.424311 1.22291 67 49 65 
0.138204 -0.488118 1.30183 58 40 56 
-0.100765 -0.55627 1.37725 105 52 60 
-0.214753 -0.59786 1.44433 57 43 60 
-0.0683151 -0.539231 1.35851 179 169 144 
-0.254475 -0.604294 1.45815 74 50 72 
0.0483518 -0.500101 1.33689 67 48 68 
-0.0886015 -0.537879 1.37331 92 60 81 
-0.0423591 -0.512581 1.34847 196 191 188 
-0.0566386 -0.515519 1.35649 169 158 138 
-1.09394 -0.76123 1.53093 101 123 180 
0.015913 -0.490629 1.3468 47 29 43 
-0.0854057 -0.516081 1.36809 160 136 136 
-0.0460293 -0.502901 1.34948 32 23 24 
-1.07884 -0.758664 1.56055 106 121 180 
-0.0736444 -0.503424 1.36067 14 31 39 
-1.1194 -0.653668 1.5545 92 114 172 
-1.07879 -0.640459 1.54864 110 122 180 
-1.03962 -0.632819 1.59012 109 126 182 
-1.04171 -0.58124 1.59374 182 196 243 
0.61257 -0.0141788 1.22352 87 89 130 
-0.0562603 0.0477621 1.24937 162 158 149 
-0.340875 0.182301 1.00771 133 152 192 
0.570039 0.287795 1.15124 22 22 32 
0.488854 0.312927 1.0458 150 167 236 
0.277264 0.319361 0.967251 153 163 188 
-0.0342512 -0.528144 1.35655 38 26 28 
0.0203811 -0.514356 1.34709 67 43 57 
0.566065 -0.362013 1.2327 123 134 179 
0.773883 -0.405846 1.52015 26 28 53 
-0.0367578 -0.517027 1.35565 29 20 23 
-0.338788 -0.617158 1.49382 62 44 58 
0.0666557 -0.485873 1.32848 53 36 54 
-0.0796749 -0.524445 1.36581 197 194 189 
-1.06482 -0.755996 1.58318 104 126 184 
-1.07528 -0.69802 1.55132 108 127 183 
-0.306228 -0.508423 1.46812 72 57 76 
-1.06378 -0.63762 1.57034 107 127 186 
-1.07281 -0.590659 1.53806 120 142 199 
-0.426872 -0.479207 1.50894 68 52 63 
-1.06327 -0.590091 1.56458 116 141 197 
0.0948914 -0.345484 1.30239 99 75 97 
-1.05795 -0.574835 1.54279 178 192 241 
-0.0265989 -0.338996 1.20323 45 18 27 
-0.0312183 -0.238759 1.23239 124 73 90 
-0.0405231 -0.235381 1.2377 42 22 31 
-0.0796618 0.0290322 1.24249 97 80 72 
-0.097812 0.0473542 1.18507 131 123 121 
-0.809309 0.126892 1.55754 25 39 68 
0.212308 0.154187 1.10479 52 33 39 
-0.125701 0.225531 1.62354 71 43 55 
0.515521 0.178611 1.10332 64 44 55 
-0.334489 0.194429 1.01124 130 149 189 
0.502503 0.265986 1.08902 44 30 43 
-0.690755 -0.725595 1.63547 105 83 104 
0.0405288 -0.490227 1.33728 72 46 57 
-0.0582433 -0.490685 1.36318 19 15 16 
0.604217 -0.334277 1.2576 144 164 201 
-0.116117 -0.377559 1.25449 36 20 21 
0.588033 -0.239001 1.22643 40 45 65 
0.521034 -0.111674 1.14795 46 34 36 
0.605299 -0.0920497 1.22575 79 87 126 
0.182685 -0.0489558 1.14594 77 31 34 
-0.0784623 -0.0345377 1.27089 168 159 130 
0.202829 0.00418126 1.16223 55 24 29 
-0.114745 0.0239792 1.23653 170 169 175 
-0.474818 0.068099 1.45455 43 36 43 
0.562066 0.115132 1.1919 100 114 153 
0.215342 0.132734 1.11698 37 26 30 
0.553946 0.156742 1.18281 29 27 28 
0.0417912 0.164096 0.963087 153 115 136 
0.597427 0.28549 1.19835 144 163 205 
0.564271 -0.268751 1.22692 115 133 173 
-0.0894782 -0.508405 1.38485 50 83 90 
-0.0662982 -0.485507 1.36952 27 16 20 
0.585455 -0.279174 1.21607 28 26 37 
-0.802269 -0.547744 1.62687 41 51 78 
-1.00533 -0.572696 1.61821 182 199 243 
-0.239352 -0.271518 1.33001 127 103 117 
-0.00888493 -0.167949 1.23138 23 13 14 
0.0233668 -0.0890596 1.2575 35 17 15 
-0.0558298 0.0269062 1.24772 58 37 32 
-0.809648 0.00724575 1.5831 32 45 62 
0.529154 0.0584754 1.14309 39 27 29 
0.583841 -0.32785 1.24471 29 27 28 
0.583324 -0.299888 1.24439 13 12 18 
0.0247141 -0.343308 1.21593 130 75 94 
-0.104563 -0.207617 1.28036 122 79 99 
-0.0861495 -0.0808576 1.28163 37 17 16 
-0.803108 -0.643758 1.65036 35 39 66 
-1.00499 -0.54983 1.62828 70 39 45 
0.0510478 -0.21992 1.24045 131 77 90 
-0.793414 -0.306739 1.60229 41 52 74 
0.190783 -0.0632577 1.16366 80 32 32 
-0.102894 0.00993765 1.25984 61 29 30 
0.577303 -0.242689 1.21882 21 21 23 
-0.262882 -0.321215 1.35901 35 19 22 
0.0141493 -0.0866112 1.252 47 19 18 
0.120509 -0.196542 1.25924 61 25 25 
0.230232 -0.00603572 1.20441 64 28 30 
-2.8866 0.764669 6.50337 127 81 94 
-0.175322 -0.236038 1.29623 113 67 80 
-0.601461 -0.0297392 1.53216 43 36 54 
-2.89652 0.763553 6.5218 126 79 95 
-0.157167 0.215579 1.75458 125 82 99 
-0.0046741 0.193768 1.38351 71 43 55 
-0.0160193 0.194032 1.38248 56 31 37 
