ply                 
format ascii 1.0    
element vertex 175
property float x    
property float y    
property float z    
property uchar red  
property uchar green
property uchar blue 
end_header          
0.283832 -0.335113 1.23298 71 51 63 
-0.356229 -0.258955 1.45796 61 41 50 
-0.469004 -0.257481 1.49625 47 34 51 
0.32647 -0.185083 1.20179 50 31 50 
-0.127419 -0.192937 1.28793 58 27 35 
0.209469 -0.173827 1.24295 87 68 88 
-0.073283 -0.152511 1.2668 53 24 29 
-0.409407 -0.166028 1.46586 51 39 53 
-0.599806 -0.159519 1.53294 45 41 58 
0.275968 -0.0982249 1.21298 52 36 47 
-0.115387 -0.0929124 1.27621 127 108 91 
-0.459328 -0.0770772 1.4755 118 101 120 
0.0669984 -0.0465492 1.23659 62 32 40 
-0.534483 -0.0359622 1.50125 47 39 60 
0.0819009 -0.0244435 1.22844 60 27 38 
-0.247083 -0.0148135 1.34902 54 26 40 
-0.263438 -0.0140365 1.35406 55 25 35 
-0.279242 -0.0138977 1.3617 50 23 30 
-0.161666 -0.00833118 1.11558 53 22 30 
-0.0133611 0.00724822 1.23024 58 25 32 
-0.0473358 0.0295164 1.48394 63 23 32 
-0.200203 0.0286909 1.29692 58 20 31 
0.113932 0.0288355 1.21257 53 23 31 
-0.112646 0.0479251 1.21429 175 172 167 
-0.0128065 0.0615123 1.22542 51 20 26 
-0.163669 0.0661807 1.28078 57 21 33 
-0.00821127 0.0634022 1.22391 132 79 89 
-0.121156 0.0655765 1.23911 105 90 67 
0.173629 0.0772077 1.15693 60 29 37 
0.187251 0.0769344 1.15301 54 28 39 
-0.0264902 0.0830646 1.22846 62 22 31 
-0.187327 0.0882209 1.28719 59 21 32 
-0.554434 0.122757 1.48796 159 179 248 
0.352999 0.106599 1.16186 59 46 63 
-0.122252 0.13766 1.21147 128 139 184 
-0.106201 0.13754 1.20552 126 142 193 
-0.302498 0.148811 1.27571 53 26 31 
-0.015352 0.140691 1.17309 58 34 47 
0.0725143 0.138321 1.14076 72 36 48 
0.144336 0.136488 1.11561 48 27 32 
-0.330044 0.172054 1.28253 57 30 35 
0.0189635 0.158792 1.15796 56 29 36 
0.0901199 0.160821 1.13351 84 40 55 
0.0999219 0.160194 1.12878 68 33 39 
-0.267395 0.226047 0.983222 69 38 53 
-0.25771 0.235709 0.978573 68 37 52 
-0.0862922 0.236051 0.916797 97 46 63 
0.447949 -0.386342 1.17672 60 43 61 
0.389926 -0.383263 1.1984 57 39 61 
0.407943 -0.336623 1.18528 60 52 67 
0.390797 -0.332523 1.1909 46 38 53 
0.365632 -0.334748 1.20244 43 40 51 
0.361817 -0.267725 1.19654 55 41 56 
0.279032 -0.240551 1.2233 63 50 60 
-0.0276341 -0.232615 1.22219 51 24 31 
-0.385899 -0.261739 1.47016 60 44 55 
-0.356369 -0.259401 1.45745 60 43 53 
-0.0915187 -0.161537 1.29615 52 21 27 
0.423719 -0.142063 1.16247 55 38 44 
-0.0760003 -0.147159 1.26772 110 61 65 
-0.147935 -0.149357 1.29162 65 35 45 
0.209897 -0.14171 1.24043 68 54 71 
-0.423961 -0.165725 1.47408 62 44 58 
-0.0599718 -0.141391 1.26059 51 22 27 
-0.54426 -0.158772 1.51304 42 33 52 
0.359685 -0.101603 1.18187 59 46 55 
0.276066 -0.0980963 1.21304 54 41 51 
-0.490407 -0.119176 1.49191 127 108 128 
0.38594 -0.0622755 1.16817 61 43 57 
0.450862 -0.0597904 1.14664 35 29 39 
0.436468 -0.0585934 1.15073 49 39 48 
0.356602 -0.0567393 1.18119 61 40 47 
-0.039264 -0.0494261 1.24482 62 29 36 
-0.534322 -0.0360945 1.50101 47 39 60 
0.098701 -0.0247941 1.22339 56 33 43 
0.0586304 -0.0239315 1.23704 57 30 39 
0.0656363 -0.0235354 1.23463 55 32 40 
0.1056 -0.0196899 1.21999 54 27 36 
-0.57345 -0.0133554 1.50859 65 52 70 
0.379907 -0.00907482 1.16624 64 41 47 
-0.16354 -0.0102659 1.28753 56 29 38 
-0.161385 0.0103447 1.11366 59 27 38 
-0.0392487 0.0252105 1.2382 65 29 39 
-0.460995 0.0357944 1.46964 35 22 31 
0.395688 0.0368953 1.15367 52 36 46 
0.453897 0.0383586 1.13131 142 125 141 
0.423646 0.0426946 1.14156 86 58 70 
0.0617922 0.0591543 1.22902 62 29 36 
0.300756 0.0701004 1.1871 68 52 65 
0.118662 0.0786026 1.20727 61 31 41 
-0.0264354 0.083551 1.22828 60 27 34 
-0.555491 0.122768 1.48889 161 180 249 
0.353043 0.106524 1.16189 59 46 63 
-0.552067 0.139846 1.4858 92 95 136 
0.346429 0.113629 1.1592 22 62 175 
-0.118549 0.134456 1.21034 52 55 100 
-0.121782 0.137842 1.21124 128 141 186 
0.0288636 0.136664 1.15864 57 42 47 
-0.12401 0.143356 1.21202 74 42 55 
-0.104597 0.142477 1.20545 75 39 53 
-0.0149638 0.140691 1.17296 58 34 47 
-0.0502496 0.144125 1.18542 60 44 54 
0.0728925 0.138391 1.14048 74 44 54 
0.089349 0.140709 1.13499 74 49 55 
0.0580378 0.14312 1.14618 58 39 45 
0.0630847 0.143593 1.1439 134 86 98 
0.152466 0.141113 1.11106 133 86 104 
-0.0875161 0.165274 1.19734 79 45 61 
0.00192217 0.162397 1.16531 75 41 57 
0.180699 0.157852 1.10093 81 45 57 
0.468545 0.183596 1.11427 66 50 63 
-0.267468 0.226044 0.983157 69 38 53 
0.411608 0.274445 1.12487 131 111 122 
-0.145261 0.247938 0.937327 90 44 55 
0.390272 -0.383281 1.19853 53 38 57 
0.390319 -0.331971 1.18873 46 40 54 
0.468736 -0.284568 1.1589 52 38 53 
0.172467 -0.308688 1.2697 87 60 67 
0.379498 -0.281439 1.19072 69 59 70 
0.389074 -0.236487 1.18205 52 41 55 
0.410269 -0.235192 1.17544 54 42 54 
-0.044431 -0.229558 1.22836 132 79 95 
0.281102 -0.183732 1.21892 61 45 55 
0.215648 -0.179275 1.23938 74 54 66 
-0.0831142 -0.150415 1.27098 46 18 17 
0.360095 -0.101679 1.18216 59 46 55 
0.449723 -0.0594629 1.14468 35 27 38 
0.316431 -0.0595737 1.19553 53 36 42 
0.105197 -0.0191882 1.21977 55 32 40 
-0.0378512 -0.0116559 1.24006 67 37 47 
0.379281 -0.00915499 1.16594 63 40 46 
-0.0387653 0.0264305 1.23774 73 41 54 
-0.0263451 0.0847548 1.22781 66 39 48 
-0.0134608 0.0842708 1.22329 62 33 38 
0.355943 0.10084 1.15809 129 103 114 
0.430878 0.100123 1.13208 135 111 124 
0.42623 0.10422 1.1345 75 54 63 
-0.550891 0.157244 1.48435 26 26 38 
-0.108124 0.136563 1.20575 126 142 194 
-0.0583269 0.137761 1.18917 66 40 53 
-0.310486 0.150023 1.28151 38 32 36 
-0.35984 0.153192 1.29433 63 48 51 
-0.0349381 0.141843 1.17999 50 34 45 
-0.014436 0.140786 1.17229 61 37 50 
-0.0482 0.144009 1.18498 58 49 54 
0.040362 0.141623 1.15259 69 50 56 
0.0266841 0.162912 1.15539 57 37 46 
0.116258 0.160443 1.12277 52 36 37 
0.397537 0.192443 1.1399 124 114 139 
0.46524 0.328557 1.07509 13 16 23 
0.363461 -0.334139 1.20179 48 37 54 
0.409674 -0.235174 1.17548 52 40 52 
0.280892 -0.236812 1.22431 72 67 74 
0.424124 -0.141658 1.16209 59 42 50 
0.290767 -0.147022 1.21312 59 49 60 
0.241371 -0.137989 1.22791 68 47 52 
0.367724 -0.0960812 1.1767 136 119 138 
0.316094 -0.0599024 1.19467 55 36 42 
-0.495598 0.0259848 1.47808 120 106 129 
-0.573262 0.123667 1.49877 158 175 247 
0.317409 0.107443 1.17895 51 38 48 
-0.559325 0.138259 1.48967 17 24 43 
0.438672 0.106037 1.13069 54 42 56 
-0.567154 0.146436 1.48977 156 173 242 
-0.110006 0.135351 1.20672 125 142 194 
-0.0591726 0.137652 1.18941 66 40 53 
0.0277376 0.137794 1.15865 56 41 48 
-0.0473139 0.144514 1.18469 62 49 56 
0.0411163 0.142326 1.15199 67 47 56 
0.116697 0.162818 1.12187 76 55 60 
0.396626 0.275352 1.1298 137 122 143 
0.42451 -0.142384 1.162 57 42 47 
-0.11216 0.136485 1.20736 125 143 193 
-0.337906 0.276453 0.990571 151 111 137 
0.465983 0.33105 1.07495 13 15 27 
