ply                 
format ascii 1.0    
element vertex 1253
property float x    
property float y    
property float z    
property uchar red  
property uchar green
property uchar blue 
end_header          
0.427433 -0.329753 1.16992 41 29 49 
-0.257168 -0.40112 1.42672 126 111 132 
0.372552 -0.328714 1.18998 54 35 54 
0.148661 -0.351718 1.27392 91 59 80 
0.447786 -0.316728 1.15987 63 48 71 
-0.317623 -0.390996 1.45226 73 58 81 
-0.468597 -0.402162 1.50945 49 34 41 
0.155867 -0.330417 1.27133 74 60 75 
0.497555 -0.289076 1.13627 149 122 141 
0.147002 -0.322459 1.27359 61 46 65 
0.330187 -0.278572 1.20107 39 25 40 
0.11126 -0.295681 1.28111 75 51 67 
-0.602785 -0.353921 1.55381 65 48 67 
-0.582669 -0.349397 1.54471 140 121 141 
0.331133 -0.264295 1.19948 69 45 61 
0.172745 -0.274958 1.2587 67 46 63 
-0.331571 -0.313154 1.45034 55 38 46 
0.180183 -0.266691 1.25306 74 56 78 
0.300639 -0.234266 1.20694 59 38 53 
0.0845742 -0.224627 1.18921 59 20 25 
-0.560396 -0.290012 1.5316 58 42 52 
-0.1638 -0.234228 1.27033 53 23 35 
-0.19955 -0.229636 1.28612 46 23 31 
-0.187781 -0.227775 1.2765 60 30 38 
-0.401006 -0.258159 1.47074 52 39 49 
-0.0326305 -0.212339 1.21931 134 90 105 
-0.00367851 -0.209401 1.22099 58 19 24 
-0.479029 -0.258707 1.50083 50 37 57 
-0.288339 -0.221666 1.32147 140 87 97 
-0.587923 -0.25074 1.53737 66 52 67 
-0.63254 -0.252918 1.55486 68 50 66 
-0.0685682 -0.191905 1.262 58 29 34 
-0.567563 -0.204069 1.52805 46 33 51 
-0.0882012 -0.156344 1.26578 52 21 27 
-0.105261 -0.156217 1.27381 54 22 27 
-0.121357 -0.14959 1.27781 61 24 32 
-0.134819 -0.137602 1.28146 65 30 37 
-0.662132 -0.158506 1.55723 60 48 62 
0.0491502 -0.108929 1.24157 54 25 30 
-0.101843 -0.0972162 1.2578 44 18 27 
-0.087737 -0.0847427 1.2649 38 17 16 
-0.118647 -0.0642826 1.27069 146 130 114 
-0.0127856 -0.0590443 1.22602 57 22 28 
-0.127044 -0.0580853 1.27275 143 125 105 
0.0816405 -0.0455111 1.22422 59 28 34 
0.309505 -0.0415586 1.18431 71 52 71 
-0.0815854 -0.0456962 1.2638 206 199 173 
0.30655 -0.0318702 1.18418 138 117 132 
0.0742686 -0.0333118 1.22348 143 95 111 
-0.632029 -0.0446594 1.53414 65 53 65 
-0.0785865 -0.0288371 1.2546 214 204 177 
-0.132246 -0.0275808 1.27068 145 124 107 
-0.557651 -0.0333097 1.50455 47 34 52 
-0.695014 -0.0330241 1.5545 60 68 104 
-0.388744 -0.0269635 1.33972 152 101 116 
-0.0938205 -0.0242401 1.26452 40 17 23 
0.437608 -0.0187917 1.13458 68 49 68 
0.308647 -0.0177192 1.18392 54 39 58 
-0.100506 -0.0157383 1.24145 220 210 183 
-0.00321193 -0.0138796 1.22256 55 22 29 
-0.0862085 -0.0111462 1.24367 177 163 137 
-0.171671 -0.0104479 1.28505 54 21 28 
-0.195358 -0.00949545 1.29264 57 26 34 
0.387045 0.00184524 1.14992 45 32 52 
0.0795227 0.00190404 1.21707 84 41 50 
0.029784 0.00208612 1.24037 62 27 34 
-0.0813885 0.00426514 1.2643 107 88 71 
-0.0267171 0.00787024 1.22865 62 26 30 
-0.0954772 0.01072 1.26327 81 53 41 
-0.185689 0.0110831 1.28841 57 24 33 
-0.172102 0.0112744 1.28308 52 21 27 
-0.257858 0.0240234 1.32701 79 32 42 
-0.103441 0.0260424 1.21914 195 188 178 
0.0915507 0.0269199 1.2121 50 19 25 
-0.187382 0.0298588 1.28946 65 31 45 
-0.120054 0.0317949 1.22683 92 82 81 
-0.112091 0.0312152 1.21934 203 199 190 
-0.0927904 0.0349102 1.21909 120 104 104 
0.0305059 0.0366424 1.23646 57 24 31 
0.333369 0.0391551 1.1687 68 49 68 
0.323777 0.0414222 1.17128 74 60 73 
0.373338 0.0415404 1.15327 124 113 127 
0.157452 0.0458528 1.18886 51 20 26 
-0.100188 0.0476807 1.21233 46 32 31 
-0.336794 0.0576384 1.37066 54 21 30 
-0.0935501 0.0548232 1.21276 39 21 19 
-0.117023 0.0558836 1.21174 131 116 93 
0.081965 0.0636126 1.21609 61 24 31 
-0.0503831 0.0654288 1.2281 130 116 116 
0.134706 0.0781564 1.19469 57 26 34 
0.167705 0.0879104 1.15367 143 95 111 
-0.552227 0.111296 1.48981 19 26 45 
-0.549817 0.130815 1.44357 26 26 54 
-0.57241 0.141747 1.48993 18 26 72 
-0.57874 0.151354 1.49108 22 24 47 
-0.56833 0.154781 1.48891 147 158 214 
-0.42644 0.149326 1.31835 38 27 35 
0.192709 0.131127 1.09074 44 24 33 
0.344681 0.139868 1.1475 82 121 212 
0.159754 0.136028 1.10242 57 30 37 
-0.314779 0.165144 1.27769 60 28 39 
0.287031 0.155297 1.17406 58 45 62 
-0.247426 0.163612 1.2495 77 36 50 
-0.0491076 0.158883 1.17814 69 41 53 
0.0632014 0.248521 1.80971 65 31 45 
0.275152 0.162576 1.17616 43 27 40 
0.12672 0.155031 1.11312 65 33 44 
0.191384 0.153504 1.08948 63 32 38 
-0.673885 0.245966 1.51858 42 34 55 
-0.679436 0.279558 1.51854 42 35 53 
0.312523 0.221485 1.15932 76 61 84 
-0.70835 0.291319 1.52516 76 87 119 
-0.668698 0.322284 1.49858 82 70 94 
0.122627 0.248753 1.10093 42 21 26 
-0.710266 0.343907 1.49892 23 30 48 
0.29189 0.273762 1.16176 39 35 50 
-0.0869333 0.215597 0.91597 79 37 49 
0.471156 0.261116 1.09126 65 47 63 
-0.0130344 0.222797 0.939118 102 48 64 
0.141032 0.269449 1.0929 69 43 52 
0.150977 0.2688 1.08962 80 33 49 
0.419506 0.275325 1.10975 74 57 73 
0.31464 0.284371 1.1474 68 61 69 
-0.0298434 0.229824 0.930027 100 49 66 
-0.316719 0.253177 0.997856 73 42 60 
-0.0162365 0.252817 0.934366 90 51 72 
-0.0259336 0.25255 0.930128 81 44 61 
0.459192 0.302579 1.06881 17 15 28 
0.497826 0.300329 1.05189 17 18 38 
0.469931 0.306329 1.06264 21 18 71 
0.489161 0.305176 1.0581 15 27 65 
0.46789 0.311317 1.03727 159 174 243 
0.482449 0.317488 1.05723 154 177 244 
0.503143 0.326571 1.04878 19 11 35 
0.47203 0.33047 1.05997 27 18 73 
-0.276369 0.308187 0.960596 121 132 150 
-0.205564 0.302858 0.904749 28 39 101 
0.281376 -0.364983 1.22584 86 65 82 
0.442086 -0.326647 1.16428 124 110 136 
-0.334231 -0.404208 1.46118 44 26 38 
-0.0711158 -0.342569 1.24482 55 29 40 
0.118554 -0.324664 1.28263 91 68 84 
0.29493 -0.301634 1.21678 128 116 138 
0.354575 -0.280395 1.19112 62 42 51 
-0.63086 -0.351108 1.55797 70 53 71 
-0.362937 -0.309766 1.46043 75 51 64 
-0.385585 -0.309084 1.46873 66 52 65 
0.00257209 -0.240956 1.20842 65 25 33 
-0.0506286 -0.234428 1.22089 45 22 28 
-0.627589 -0.290928 1.55653 65 49 60 
0.168057 -0.229507 1.25574 94 62 75 
-0.0173756 -0.212905 1.21542 137 90 106 
-0.178902 -0.210787 1.27479 131 85 98 
-0.19422 -0.210229 1.28098 131 84 100 
0.305768 -0.194265 1.20201 62 44 58 
0.399948 -0.1839 1.1647 66 44 57 
-0.19928 -0.200808 1.28952 124 74 85 
-0.147325 -0.197773 1.29205 63 31 42 
0.179503 -0.177394 1.24752 85 58 75 
-0.40873 -0.207359 1.46637 48 34 47 
0.439679 -0.13801 1.1434 63 47 58 
-0.0488245 -0.14997 1.25273 46 23 31 
0.332236 -0.138586 1.18907 54 35 41 
-0.138546 -0.120671 1.28419 112 66 77 
0.325573 -0.103384 1.18738 58 45 55 
-0.370386 -0.126693 1.44543 59 41 57 
0.273536 -0.0712561 1.20284 57 39 53 
-0.102604 -0.0694654 1.26462 72 36 38 
-0.534374 -0.0742488 1.49547 125 106 126 
0.293054 -0.0544984 1.19313 65 44 49 
-0.617861 -0.0732746 1.53416 74 65 84 
-0.256257 -0.0600118 1.33829 58 22 24 
-0.188344 -0.0546586 1.28942 51 22 26 
0.0303287 -0.044248 1.24361 63 33 41 
-0.615355 -0.0439685 1.52493 63 54 73 
-0.260055 -0.0367942 1.34952 56 30 39 
-0.243871 -0.0368463 1.34627 59 29 37 
-0.114041 -0.0324679 1.24565 214 203 181 
-0.0822109 -0.020725 1.24934 189 182 156 
-0.0281581 0.0269024 1.2298 67 29 40 
-0.0119387 0.0268629 1.22038 70 39 47 
0.0549439 0.0277853 1.22189 57 26 32 
0.0877134 0.0361253 1.21208 50 21 25 
-0.292952 0.0392144 1.35391 53 27 36 
-0.238583 0.0435151 1.33599 43 23 25 
-0.439767 0.0547942 1.44911 44 31 41 
-0.0367871 0.0622159 1.22788 58 22 34 
-0.0271933 0.0623787 1.22491 59 26 33 
-0.0779071 0.0624128 1.22042 130 115 134 
-0.697503 0.0778335 1.5442 97 97 131 
-0.186011 0.0666144 1.2846 59 26 35 
-0.171902 0.0660544 1.27803 59 28 34 
-0.148835 0.0688869 1.26996 45 24 31 
0.0535154 0.0763953 1.22387 69 29 38 
-0.296207 0.0890263 1.35511 54 23 38 
-0.52037 0.108115 1.47614 119 105 120 
-0.572116 0.11299 1.48797 19 24 43 
0.154865 0.106459 1.14043 158 104 120 
-0.370003 0.148107 1.29885 52 32 41 
-0.378757 0.152954 1.29791 110 73 80 
-0.630778 0.17873 1.51076 131 118 144 
0.306176 0.145223 1.16873 135 130 150 
0.423965 0.152408 1.12308 61 44 62 
0.379793 0.160262 1.13644 71 56 75 
0.0353149 0.161073 1.14776 62 35 50 
0.203243 0.256114 1.79028 72 41 49 
-0.191585 0.187085 1.20969 69 48 55 
0.378764 0.178814 1.13682 122 117 140 
0.28171 0.185977 1.17201 126 123 142 
0.33549 0.184821 1.15111 138 114 128 
0.342911 0.191883 1.14779 139 129 154 
0.4015 0.1888 1.12647 127 115 135 
0.414285 0.188869 1.12033 127 113 130 
-0.560622 0.24448 1.47659 53 47 61 
0.317341 0.195899 1.15813 127 123 146 
-0.703612 0.253358 1.52717 72 83 111 
0.407131 0.214946 1.12265 63 50 67 
0.281968 0.22674 1.16917 109 107 131 
0.360995 0.222418 1.13998 61 48 65 
0.462349 0.215639 1.10018 64 50 65 
0.280074 0.236417 1.16765 121 117 142 
-0.705832 0.313315 1.51868 143 163 198 
-0.0165066 0.200007 0.938899 86 55 73 
0.276979 0.261036 1.16874 40 25 32 
0.343951 0.264016 1.13963 60 44 55 
0.31637 0.267572 1.15176 55 45 56 
-0.312144 0.233133 0.996881 74 36 49 
0.356422 0.269908 1.136 110 100 125 
0.3038 0.276255 1.15608 61 45 55 
0.374572 0.270638 1.12838 102 96 122 
0.188784 0.257758 1.07496 55 29 38 
0.459045 0.265652 1.09633 56 34 47 
-0.267474 0.23279 0.978281 65 43 56 
0.441958 0.27598 1.10176 140 130 154 
-0.00248828 0.236882 0.942354 78 40 61 
0.0989928 0.289517 1.09414 146 101 121 
0.367387 0.301639 1.10546 69 57 77 
0.0235174 -0.343915 1.24118 147 96 111 
-0.0942737 -0.34038 1.25503 133 80 96 
-0.147771 -0.337916 1.27145 135 81 94 
-0.687362 -0.396348 1.59195 76 63 93 
0.453227 -0.279419 1.15627 66 48 64 
0.320576 -0.269896 1.20222 126 109 127 
0.277977 -0.262211 1.21769 81 60 69 
0.204314 -0.256957 1.24441 88 68 80 
0.0343272 -0.238282 1.22726 39 19 21 
0.0149557 -0.238404 1.23893 36 18 18 
-0.578703 -0.283624 1.537 148 134 147 
-0.216764 -0.226892 1.29026 31 14 20 
-0.0369025 -0.204015 1.22719 122 68 82 
-0.571229 -0.253282 1.52934 36 28 43 
-0.171198 -0.202509 1.27721 127 76 91 
-0.584197 -0.238503 1.54158 54 37 53 
0.154189 -0.178269 1.26017 65 45 56 
-0.096171 -0.151676 1.27083 51 21 23 
-0.0494912 -0.112905 1.25279 30 12 12 
0.161053 -0.0915398 1.24075 73 47 60 
-0.0965855 -0.062128 1.26146 160 145 124 
0.274368 -0.0563796 1.20106 63 53 64 
-0.0307672 -0.0581205 1.22967 67 28 31 
-0.110626 -0.0508191 1.25502 206 198 175 
0.176444 -0.0380082 1.12928 140 86 102 
-0.116583 -0.0417915 1.25008 195 179 154 
0.29532 -0.0289792 1.18644 75 53 56 
0.427603 -0.00962253 1.13575 87 66 73 
0.263333 -0.00494883 1.19761 84 64 75 
0.250138 -0.00462833 1.20373 60 46 59 
0.285017 -0.0034306 1.18731 63 43 45 
-0.0847829 0.0196819 1.25907 190 180 153 
-0.160218 0.028867 1.27717 55 28 37 
-0.514402 0.0363742 1.48724 63 50 60 
0.0340708 0.0738395 1.22862 61 28 39 
-0.698084 0.096811 1.54683 103 88 111 
-0.172849 0.0884907 1.27591 60 35 41 
0.324939 0.107722 1.16601 38 33 40 
-0.234081 0.130349 1.26924 100 58 70 
0.149601 0.121873 1.13063 87 57 59 
-0.404246 0.151309 1.31377 37 35 38 
-0.0253719 0.14308 1.17055 136 88 110 
0.320399 0.148681 1.19729 68 46 48 
0.126421 0.139698 1.11402 60 48 50 
0.291485 0.166797 1.16986 142 125 144 
-0.695641 0.239013 1.53076 71 61 88 
0.307341 0.185127 1.15987 68 50 62 
-0.301964 0.199806 1.25081 84 52 57 
0.430798 0.182622 1.11385 61 44 54 
0.0178123 0.203282 0.955508 81 52 70 
0.305262 0.261929 1.1534 72 55 63 
0.0910578 0.286249 1.1014 66 44 56 
0.259966 0.304954 1.14618 56 54 68 
0.108932 0.314252 1.08645 45 41 42 
0.498352 0.310772 1.05221 164 183 252 
-0.0610386 0.275853 0.897828 82 50 63 
0.461273 0.311789 1.06535 151 172 239 
0.0197819 -0.325827 1.2049 39 20 22 
-0.155136 -0.235024 1.27625 36 14 16 
-0.0968841 -0.201403 1.25062 135 86 105 
-0.0836809 -0.0980667 1.26735 30 16 15 
0.216383 -0.0936434 1.22539 88 57 72 
-0.0238319 -0.0494951 1.23284 52 27 33 
-0.182546 -0.0461486 1.29489 53 32 39 
-0.39489 -0.0463139 1.37329 67 25 26 
-0.378909 -0.0314132 1.34348 146 89 108 
-0.0727271 0.0194661 1.27218 44 19 22 
-0.116772 0.0352392 1.19614 184 176 187 
0.439219 0.0454643 1.12923 134 125 146 
-0.481765 0.0672112 1.46739 48 41 49 
0.382437 0.105489 1.13843 61 44 52 
-0.36307 0.130989 1.31277 73 48 51 
-0.571695 0.150264 1.49843 151 169 235 
0.0253967 0.12516 1.19572 73 50 60 
0.136252 0.120114 1.13344 77 51 60 
0.326481 0.193677 1.15295 137 121 147 
0.385603 0.271805 1.13048 56 50 60 
-0.0780371 0.274476 0.893129 84 45 50 
-0.0981415 -0.187111 1.2739 64 29 27 
-0.214819 -0.113466 1.32648 58 26 27 
-0.0985767 -0.0877893 1.26208 135 115 90 
-0.0881179 0.0167727 1.26874 160 143 117 
-0.140101 0.0558705 1.24628 125 114 118 
-0.0692426 0.19064 1.16585 53 42 48 
0.0691618 0.0380487 1.22518 79 31 27 
0.0239778 -0.230124 1.23298 40 20 19 
0.05665 -0.220085 1.22306 136 83 103 
0.0964793 0.194416 1.07953 55 37 35 
-0.425673 -0.239722 1.47343 51 43 54 
-0.368831 -0.211741 1.45158 45 33 55 
-0.392216 -0.206347 1.45746 42 23 43 
-0.38838 -0.178522 1.45277 59 41 55 
-0.430985 -0.126082 1.46406 59 38 55 
-0.353373 -0.0838169 1.43218 60 43 61 
-0.171641 -0.0551722 1.28267 52 23 28 
-0.206848 0.0233784 1.07902 52 19 26 
0.28763 0.0233659 1.18642 78 60 72 
-0.598892 0.0700477 1.50547 63 55 78 
-0.260706 0.0722223 1.33856 58 28 38 
-0.244371 0.0720047 1.33382 53 21 26 
-0.233784 0.0844263 1.3271 57 28 33 
-0.368446 0.0891003 1.34423 67 32 38 
-0.56053 0.135417 1.49224 14 25 70 
-0.547588 0.178462 1.47429 47 35 49 
-0.14669 0.230856 0.936381 81 44 61 
-0.27081 0.251997 0.979522 86 45 59 
-0.0875648 0.249444 0.913375 78 46 61 
0.160564 -0.302135 1.26482 104 72 87 
0.230232 -0.262744 1.23433 97 71 84 
-0.436571 -0.23945 1.47598 72 50 62 
-0.423342 -0.210791 1.46945 67 54 71 
-0.513085 -0.15478 1.49427 122 112 136 
-0.445067 -0.0467949 1.45941 113 89 103 
-0.518072 -0.0387176 1.48632 40 34 46 
-0.494766 -0.0354395 1.47791 59 47 61 
0.0328692 0.0533806 1.54191 68 35 42 
0.320737 0.0608622 1.1711 56 42 59 
0.477327 0.150178 1.10189 64 43 52 
-0.0619415 0.16285 1.18089 79 40 58 
-0.146687 0.221073 0.937342 76 43 60 
-0.512839 0.332223 1.42389 37 36 42 
-0.226846 0.232383 0.964574 73 41 54 
-0.207757 0.236634 0.957695 96 45 62 
-0.253779 0.251633 0.973024 77 41 55 
0.217347 -0.299707 1.24281 101 77 90 
0.446873 -0.232561 1.15185 60 51 70 
-0.442582 -0.0772335 1.4643 123 102 121 
0.406102 -0.0576272 1.1508 72 47 53 
0.33879 -0.0544638 1.17585 62 41 48 
-0.0265777 -0.0113881 1.22943 65 38 47 
0.00969432 0.135949 1.15913 68 51 61 
-0.0892463 0.144222 1.19296 85 58 75 
-0.175289 -0.188754 1.2695 143 88 107 
-0.0421048 -0.110984 1.24168 125 69 80 
-0.560939 0.12641 1.4814 166 183 253 
-0.056302 -0.234236 1.22824 38 23 26 
0.154496 -0.365348 1.27343 69 54 75 
0.405674 -0.376741 1.17929 53 37 50 
0.45708 -0.329731 1.15587 46 29 47 
-0.100943 -0.145719 1.23246 113 68 75 
-0.621242 -0.159143 1.5371 77 63 76 
-0.0553234 -0.12171 1.25107 104 65 70 
-0.0898153 -0.0144963 1.25345 93 69 59 
-0.112638 0.024136 1.24676 187 184 193 
-0.0174911 0.171583 1.43089 61 37 50 
0.0260503 -0.234449 1.24214 36 18 18 
0.480578 0.308165 1.06132 16 24 35 
-0.125173 -0.339019 1.26228 82 30 52 
0.15736 -0.340235 1.26729 73 52 71 
0.212765 -0.32808 1.24946 68 49 68 
-0.298097 -0.336162 1.43336 61 35 46 
-0.50219 -0.337843 1.51142 58 45 62 
-0.324473 -0.305762 1.44061 78 60 76 
-0.603583 -0.289539 1.54466 58 39 59 
-0.468099 -0.268251 1.48882 53 38 57 
-0.573573 -0.210414 1.51805 140 131 148 
-0.584342 -0.202663 1.52702 44 35 56 
-0.225058 -0.0977071 1.33899 43 20 28 
-0.000320485 -0.0496786 1.22297 56 25 33 
-0.0949913 -0.0479936 1.26341 150 133 103 
-0.159115 -0.0464469 1.28085 55 24 30 
-0.197747 -0.0462068 1.29567 48 22 31 
-0.0129628 -0.0134967 1.22458 61 28 37 
-0.195717 0.066052 1.2845 60 27 36 
-0.312885 0.088906 1.35325 54 27 36 
-0.180712 0.130539 1.24287 91 49 59 
0.13906 0.248463 1.0973 77 31 44 
0.437063 0.269528 1.10858 45 37 48 
0.010259 -0.323396 1.19438 112 62 71 
-0.237478 -0.323289 1.2821 65 30 37 
-0.289773 -0.360643 1.43612 61 50 58 
0.33068 -0.31776 1.20052 86 71 90 
-0.443476 -0.344344 1.48782 56 41 62 
0.386438 -0.279895 1.17889 75 57 79 
0.092621 -0.257923 1.28312 78 47 62 
-0.261276 -0.261841 1.41544 48 34 49 
-0.329233 -0.261081 1.44005 62 49 79 
0.361346 -0.229839 1.18171 69 56 74 
-0.207855 -0.217581 1.28528 106 69 77 
-0.534723 -0.241437 1.51135 76 51 57 
-0.0120689 -0.198888 1.23722 159 102 121 
-0.076483 -0.168181 1.35532 53 22 27 
-0.441812 -0.125813 1.46523 69 51 63 
-0.341054 -0.123216 1.4301 59 39 48 
0.43712 -0.103319 1.13843 76 58 74 
0.421361 -0.100995 1.14685 77 51 64 
-0.157663 -0.0942926 1.26312 109 68 82 
-0.0271109 -0.0316975 1.23126 67 35 46 
0.452255 -0.00743542 1.12705 71 56 63 
0.0689596 0.00143368 1.21958 99 52 62 
0.0598412 0.00632439 1.2217 88 45 55 
0.0863547 0.00728354 1.21135 95 45 54 
0.0555107 0.0158533 1.22421 67 34 45 
-0.00108123 0.0245049 1.21687 57 30 39 
-0.171145 0.0301843 1.2778 69 37 48 
-0.116487 0.0373154 1.20698 196 194 199 
-0.0274271 0.0419772 1.22429 68 35 42 
-0.12636 0.0444402 1.2203 49 39 29 
-0.0839652 0.0523585 1.21358 102 87 94 
-0.130834 0.0547478 1.22903 54 37 30 
-0.179553 0.0590667 1.27775 150 93 108 
0.27494 0.0722745 1.18776 64 42 54 
0.309214 0.0976557 1.16895 72 51 66 
-0.165078 0.110122 1.25309 89 39 50 
-0.0370258 0.126991 1.19513 106 60 73 
0.106152 0.132379 1.12274 63 34 39 
-0.281041 0.145427 1.26308 72 36 50 
-0.212347 0.14386 1.23617 72 40 55 
0.177685 0.138796 1.09684 69 41 53 
-0.226387 0.162315 1.24187 79 41 54 
0.297864 0.18432 1.16438 70 46 60 
0.350491 0.223381 1.1443 58 44 61 
0.00222453 0.203399 0.950326 85 47 62 
-0.269565 0.20402 0.984199 74 34 45 
-0.281557 0.205667 0.986718 67 36 51 
-0.0524821 0.200484 0.924508 81 40 54 
-0.207847 0.219434 0.960241 86 42 55 
-0.0751128 0.267108 0.903429 115 72 91 
-0.230538 0.305461 0.904859 46 32 55 
0.395 -0.328919 1.18412 40 32 43 
-0.00511158 -0.262208 1.22183 114 66 80 
-0.204175 -0.25672 1.28983 115 69 80 
-0.289014 -0.215293 1.32825 53 21 24 
-0.461384 -0.126641 1.47896 57 46 62 
-0.0985131 -0.0254619 1.2479 48 28 19 
0.278761 0.00373907 1.19156 136 120 146 
0.0779749 0.0410429 1.21253 36 20 21 
-0.140219 0.0537073 1.25776 150 139 137 
-0.362198 0.131851 1.31783 78 54 52 
0.489197 0.182494 1.0939 64 49 56 
-0.471567 -0.305613 1.4971 88 64 77 
-0.176194 -0.230892 1.27218 73 37 41 
-0.160736 -0.216359 1.28732 36 16 15 
-0.137185 -0.183229 1.28225 70 40 50 
0.173195 -0.021843 1.14063 66 34 39 
0.118811 0.0596741 1.19801 49 24 28 
0.444843 0.0633309 1.12333 77 61 72 
0.292861 0.112143 1.1752 126 106 131 
0.0225464 0.124035 1.18391 74 51 59 
-0.179475 0.189039 1.20494 63 48 55 
0.360702 0.257945 1.13295 130 103 118 
-0.197462 -0.185481 1.27875 138 84 100 
0.094624 -0.18196 1.203 67 28 29 
0.176702 -0.0591202 1.14589 88 37 36 
-0.386509 -0.0457074 1.35796 71 30 26 
0.47382 0.321799 1.06876 164 182 254 
-0.099245 0.0255368 1.24857 201 193 190 
-0.25101 -0.297541 1.41446 48 35 55 
-0.00479124 -0.223116 1.20927 131 92 110 
-0.483299 -0.0823199 1.47852 62 46 72 
-0.215117 0.0381858 1.32456 44 19 25 
-0.513801 0.0569015 1.47598 67 56 72 
-0.496197 0.102609 1.46549 48 37 53 
-0.562711 0.132424 1.46542 26 20 58 
-0.445346 0.133889 1.44595 35 31 45 
-0.484656 0.202153 1.45259 46 35 49 
-0.527912 0.241971 1.46398 33 29 43 
-0.104629 -0.276262 1.25803 73 37 51 
0.305628 -0.308906 1.21226 65 52 62 
0.3504 -0.309554 1.19731 81 55 68 
0.232282 -0.302106 1.23933 80 56 70 
0.31497 -0.276096 1.20979 129 116 136 
-0.547035 -0.158815 1.50707 46 41 63 
0.385851 -0.139112 1.16717 70 46 62 
-0.343332 -0.0935357 1.4268 138 113 132 
-0.334194 -0.0889736 1.4248 141 114 129 
-0.538061 -0.0796843 1.49644 61 48 65 
0.192917 0.0592701 1.73074 65 34 39 
-0.355686 0.165553 1.28666 60 29 34 
-0.478453 0.243896 1.44731 36 30 34 
-0.209135 0.248726 0.956787 78 44 60 
0.293984 -0.370679 1.22486 89 67 79 
-0.502283 -0.155974 1.49243 120 104 130 
-0.112154 -0.0574391 1.26351 93 51 61 
-0.569563 0.12884 1.48713 17 24 42 
-0.32345 0.143295 1.27886 70 47 53 
-0.000337343 0.141888 1.16137 78 52 63 
-0.11083 -0.147287 1.27463 48 19 21 
0.358665 -0.142705 1.17782 64 60 75 
-0.149965 -0.109272 1.28889 132 76 87 
-0.184861 0.0487445 1.28247 64 39 45 
-0.155959 0.0794597 1.26532 63 27 31 
-0.365038 0.128711 1.29187 81 52 54 
0.0825381 0.038174 1.23059 83 34 30 
0.148101 -0.0622174 1.16425 148 119 139 
-0.109534 0.0605668 1.21771 38 26 30 
-0.0667265 0.00437926 1.24846 45 21 21 
-0.200893 0.00849118 0.98574 58 25 34 
0.0643294 0.0363206 1.81405 65 23 35 
0.35096 0.154207 1.1514 60 42 66 
-0.343523 0.169537 1.28232 56 30 39 
-0.0825425 -0.16228 1.3096 53 22 27 
0.759724 -0.146832 3.79919 63 36 45 
0.0682892 -0.019689 1.81639 63 30 39 
-0.20087 -0.00690675 0.987475 51 24 33 
-0.257347 0.223066 0.977877 68 41 56 
-0.527304 -0.257233 1.5119 53 37 47 
0.103626 -0.0879618 1.79767 67 30 37 
-0.199074 -0.0349438 0.987618 48 26 29 
0.30082 0.143692 1.15831 136 133 154 
-0.423417 0.168023 1.31079 50 41 44 
-0.60206 0.244644 1.48732 59 53 65 
-0.195712 -0.212903 1.2879 116 67 86 
-0.124017 -0.139491 1.27937 51 21 21 
-0.0722738 0.0145245 1.25571 59 27 30 
-0.416067 0.15342 1.31091 118 110 121 
-0.0347591 -0.194225 1.2172 153 100 118 
-0.0228089 -0.194755 1.21333 157 103 117 
-0.38793 -0.166062 1.4528 57 45 67 
-0.12172 -0.0843312 1.27924 92 75 57 
-0.0567894 0.0627025 1.21883 41 20 19 
0.38773 0.151338 1.13802 66 42 55 
-0.406583 0.17007 1.30731 65 27 40 
-0.557338 0.307784 1.02846 153 170 188 
0.246564 -0.384841 1.24218 139 118 137 
-0.254274 -0.310131 1.41591 121 99 122 
-0.551528 -0.262596 1.52196 59 47 61 
-0.204273 -0.242621 1.29118 61 26 32 
-0.161218 -0.175147 1.27727 70 31 36 
-0.457037 -0.160244 1.47789 49 36 46 
-0.623007 -0.124429 1.53415 60 49 66 
-0.243829 -0.111075 1.34482 70 27 36 
-0.465809 -0.0819789 1.47484 58 44 59 
0.979292 -0.100118 3.53329 69 39 49 
0.377082 0.065584 1.14744 133 110 128 
0.347287 0.0902859 1.15648 78 59 78 
-0.496114 0.116841 1.46409 39 28 42 
-0.217914 0.112178 1.28016 83 36 44 
-0.577522 0.175575 1.48452 126 110 136 
-0.0777693 0.163603 1.18758 77 43 59 
-0.613874 0.242792 1.49306 64 57 75 
0.325998 0.26473 1.14673 57 35 48 
-0.386033 0.281792 1.28399 24 22 23 
-0.467292 0.323911 1.41575 107 91 102 
0.0346345 0.273666 0.945226 172 133 160 
-0.034179 -0.230616 1.20169 151 98 114 
-0.164958 -0.220489 1.26968 106 60 73 
-0.0373029 -0.215163 1.2263 114 64 75 
-0.352377 -0.157645 1.44011 136 110 123 
-0.0618635 -0.0957901 1.23399 100 64 76 
1.00733 -0.198001 3.4935 64 30 31 
0.170927 -0.0476959 1.1399 148 99 118 
-0.123934 0.0298184 1.25074 165 155 154 
-0.0668503 0.0440756 1.23292 189 180 173 
0.343395 0.0759325 1.16219 144 123 138 
-0.39897 0.105308 1.35286 60 40 49 
0.339058 0.106137 1.16022 63 42 57 
-0.562517 0.128661 1.42819 17 22 42 
-0.0108148 -0.276198 1.22708 137 84 102 
-0.0160795 -0.233706 1.21249 78 41 49 
-0.367132 -0.23697 1.45097 80 68 80 
-0.0940631 -0.203466 1.26586 141 93 109 
0.266145 -0.183748 1.21432 82 66 77 
0.0695673 -0.058527 1.23081 48 29 35 
0.98164 -0.174218 3.54138 54 31 37 
-0.447623 0.30242 1.29558 140 92 114 
0.306132 -0.0444236 1.19433 141 122 142 
-0.0516784 0.0384288 1.23785 86 41 46 
0.0938204 0.0388865 1.25165 83 34 30 
-0.102324 0.0614724 1.20886 66 49 55 
-0.0333756 -0.184143 1.202 149 96 112 
-0.104239 0.0251977 1.23466 206 201 208 
-0.0956688 0.0607673 1.22229 63 52 60 
0.0629576 -0.32497 1.19328 136 115 130 
-0.329476 -0.280137 1.44346 47 34 60 
-0.3161 -0.265926 1.43578 91 62 80 
-0.280367 -0.259598 1.42204 69 41 63 
-0.339178 -0.203532 1.43743 82 54 68 
-0.383558 -0.199329 1.45428 80 57 75 
-0.0459589 -0.181187 1.23189 116 74 88 
-0.246182 -0.136635 1.34444 58 27 43 
-0.100092 -0.111861 1.28967 117 75 87 
-0.0740933 -0.107845 1.27156 124 106 104 
0.0654345 -0.11411 1.23012 133 92 108 
0.0685284 -0.0749061 1.21678 150 98 111 
-0.120913 -0.0451055 1.26428 179 164 131 
-0.411399 -0.0062995 1.44475 48 35 52 
-0.412298 0.00809233 1.44477 111 100 116 
-0.462395 0.0232856 1.4595 48 36 56 
-0.363295 0.0990117 1.34624 155 107 121 
-0.443718 0.115044 1.44395 40 29 43 
-0.19392 0.143429 1.23116 82 43 61 
0.504631 0.150164 1.09568 65 50 71 
-0.17609 0.165474 1.22291 84 47 65 
-0.435637 0.188907 1.3174 60 43 51 
-0.492923 0.240962 1.45091 112 100 120 
-0.146653 0.20623 0.938173 93 43 55 
-0.10562 0.220818 0.922315 83 50 67 
-0.366463 0.332514 1.25121 124 144 179 
-0.359337 0.275261 1.04831 66 46 58 
-0.19839 0.295648 0.892978 56 54 103 
-0.335109 0.307776 0.982849 52 35 53 
-0.576765 0.113938 1.49048 16 23 42 
0.362989 -0.309249 1.19406 80 59 78 
-0.589059 -0.217775 1.52768 68 60 81 
0.0448116 -0.255644 1.22252 74 36 51 
0.386122 -0.297425 1.1851 66 56 81 
-0.292837 -0.234866 1.42306 81 66 89 
-0.554426 -0.202928 1.51444 58 45 62 
-0.407468 -0.192111 1.46171 71 58 75 
-0.503332 -0.122573 1.4883 55 43 65 
-0.401343 -0.121094 1.45367 138 117 136 
-0.581078 -0.035518 1.50642 126 112 138 
-0.455177 -0.0401545 1.46705 47 37 48 
-0.169729 -0.0436466 1.28606 59 27 38 
-0.0113957 -0.0489573 1.22826 70 37 44 
-0.410376 -0.0169081 1.44611 57 44 54 
-0.182557 -0.0238292 1.28901 68 36 49 
-0.554731 0.0161795 1.49233 60 48 62 
-0.516832 0.0146805 1.47818 56 44 56 
0.121742 0.0129694 1.20616 70 36 50 
-0.0920832 0.0211952 1.2292 80 42 53 
-8.38434e-05 0.0883815 1.21279 86 43 60 
0.364047 0.108576 1.1518 57 42 49 
-0.463432 0.128573 1.45169 40 30 38 
0.436937 0.118963 1.12228 96 67 85 
-0.166799 0.165261 1.21921 85 47 62 
-0.15068 0.164999 1.21284 78 45 56 
-0.26455 0.16749 1.25489 94 53 71 
0.0611235 0.180595 1.1161 74 44 56 
-0.350057 0.165441 1.0228 92 49 56 
-0.55248 0.281681 1.46767 52 43 60 
-0.564432 0.286923 1.47124 117 118 138 
-0.193567 0.221424 0.953664 91 39 52 
-0.298204 0.233277 0.990519 73 45 60 
-0.165289 0.253614 0.940674 94 61 82 
-0.285874 0.255665 0.984328 87 54 71 
-0.379588 0.332589 1.25251 117 130 164 
-0.252294 0.277861 0.956308 59 37 49 
0.065059 -0.314041 1.21841 45 24 29 
-0.321329 -0.242013 1.43397 88 65 75 
-0.225427 -0.233181 1.3245 39 19 28 
0.0804819 -0.219608 1.19882 64 29 33 
-0.10779 -0.172708 1.27352 71 39 52 
-0.553845 -0.124692 1.50172 119 103 129 
0.353711 -0.18574 1.18463 78 58 70 
-0.301317 -0.126614 1.41437 54 42 52 
-0.527762 -0.0516592 1.49148 74 55 77 
0.364605 -0.0560286 1.17208 68 57 73 
-0.392889 -0.0187103 1.33901 60 29 34 
-0.258441 0.00826203 1.33895 107 60 66 
-0.272025 0.0227031 1.3455 65 34 40 
-0.272341 0.0335307 1.34617 54 25 30 
0.117815 0.0521259 1.18995 65 23 25 
-0.508987 0.105202 1.46703 59 57 78 
0.149728 0.124371 1.15634 58 31 36 
-0.0716481 0.178134 1.18279 95 68 75 
0.436216 0.218355 1.1153 83 63 72 
-0.377281 -0.233153 1.45227 134 111 131 
0.0818024 -0.241602 1.19556 107 47 55 
-0.274414 -0.117073 1.33432 51 24 29 
0.0846035 -0.135336 1.20112 140 87 105 
-0.092707 -0.0722388 1.26162 175 163 141 
-0.52591 -0.00864795 0.626123 54 31 37 
-0.450049 -0.0111081 1.4588 117 90 107 
0.165108 -0.0279525 1.14218 64 25 30 
-0.464597 0.010835 1.46379 46 31 36 
0.190693 0.0613977 1.15086 79 48 63 
-0.446357 0.151856 1.44201 51 42 47 
0.116621 0.13567 1.12055 87 67 78 
-0.254007 0.142029 1.25649 89 58 74 
-0.343546 0.145368 1.28622 74 55 59 
0.0456675 -0.266796 1.22501 80 37 46 
-0.231284 -0.223739 1.32677 128 80 96 
-0.218394 -0.113212 1.33831 60 30 30 
0.188418 0.0145355 1.1544 73 31 33 
-0.554895 0.14828 1.472 172 187 255 
0.516291 0.292362 1.06875 147 133 158 
-0.0798273 0.0619113 1.24672 55 47 58 
-0.107363 -0.0429127 1.25973 226 214 190 
0.16586 -0.446078 1.27877 78 55 84 
0.022858 -0.418654 1.3311 67 41 68 
0.205412 -0.427753 1.26233 59 41 65 
0.247747 -0.413726 1.24597 139 124 143 
0.196406 -0.414748 1.26482 58 40 56 
0.185742 -0.41305 1.27072 62 45 63 
0.00668017 -0.45558 1.34216 66 48 70 
-0.0236719 -0.415695 1.24511 72 40 51 
-0.199356 -0.488259 1.422 55 41 67 
-0.0724501 -0.418347 1.27405 71 24 30 
-0.0482709 -0.405186 1.27144 91 35 48 
-0.516418 -0.528435 1.54384 72 48 62 
-0.166167 -0.418923 1.29689 59 31 43 
-0.177588 -0.414737 1.30411 60 32 44 
0.00869612 -0.375682 1.23554 153 103 114 
-0.0610179 -0.387643 1.27066 79 29 41 
-0.582686 -0.522075 1.56783 72 55 73 
-0.326198 -0.466324 1.46697 69 57 81 
-0.0185492 -0.37441 1.25476 146 93 109 
-0.272678 -0.448314 1.44827 63 45 57 
0.0974644 -0.366561 1.29556 82 57 76 
-0.780289 -0.492281 1.62634 29 40 96 
0.0939997 -0.312231 1.28693 40 23 33 
-0.622096 -0.432302 1.5707 68 50 66 
0.583818 -0.210153 1.21679 42 46 71 
-0.693494 -0.356441 1.59235 106 108 147 
0.00436823 -0.222422 1.23027 116 70 80 
-0.783527 -0.31137 1.61044 27 38 92 
-0.785662 -0.140005 1.59623 46 50 95 
-0.523837 -0.0804578 1.5017 57 42 61 
-0.0823961 0.0471724 1.22545 181 174 158 
0.241186 0.0769544 1.19985 121 109 129 
-0.809273 0.0765739 1.56593 27 55 95 
-0.797471 0.0777978 1.57429 28 33 55 
-0.79465 0.11774 1.57029 98 106 142 
-0.794129 0.12886 1.56927 82 95 129 
-0.790845 0.159615 1.56503 31 31 57 
-0.790404 0.173217 1.5658 28 32 67 
0.580433 0.228948 1.16458 49 61 99 
-0.813329 0.289849 1.54204 15 39 67 
-0.792116 0.29794 1.55598 23 28 57 
-0.816278 0.301513 1.5398 111 131 158 
0.585599 0.245207 1.16009 23 41 81 
-0.786124 0.336434 1.53389 116 101 120 
-0.715099 0.344386 1.47776 167 186 226 
-0.739858 0.341894 1.46381 122 134 146 
0.0846795 -0.450275 1.31205 83 60 76 
0.101351 -0.416381 1.30301 83 62 81 
-0.0395888 -0.384875 1.26296 83 41 55 
-0.0271687 -0.381509 1.2579 105 46 52 
0.0192928 -0.363426 1.23937 58 20 19 
0.588624 -0.295079 1.22594 145 173 212 
-0.581345 -0.472069 1.56169 54 37 53 
-0.318581 -0.405733 1.45618 55 39 50 
0.0986471 -0.322673 1.28828 68 33 37 
0.188773 -0.306413 1.25655 82 56 65 
-0.632879 -0.434084 1.57973 64 50 73 
-0.689966 -0.443086 1.60109 77 81 116 
-0.689658 -0.432386 1.59992 112 93 123 
-0.27314 -0.320868 1.32158 67 34 41 
-0.807569 -0.363302 1.6066 152 176 220 
-0.180931 -0.208489 1.28751 72 31 37 
-0.498301 -0.163478 1.49755 63 49 66 
0.6094 -0.0326977 1.21663 113 123 172 
-0.106725 0.0156314 1.24107 136 124 126 
-0.235654 0.0223403 1.33721 50 23 30 
-0.235261 0.0337802 1.33735 41 18 26 
0.31624 0.0717108 1.17075 73 58 81 
-0.793357 0.188611 1.56853 55 62 104 
-0.813865 0.267161 1.54784 37 47 74 
0.01824 0.221677 0.952756 89 48 64 
0.245836 0.284195 1.1738 57 51 63 
0.130788 -0.41031 1.28587 93 79 104 
-0.276438 -0.477628 1.44514 82 69 89 
-0.324295 -0.477758 1.46629 81 58 74 
0.582636 -0.307427 1.2244 24 26 38 
-0.107204 -0.34999 1.24812 143 95 117 
-0.259553 -0.306434 1.34324 43 21 24 
0.582904 -0.191219 1.21548 57 59 84 
0.00641727 -0.231466 1.2216 122 68 81 
-0.242136 -0.260791 1.33186 61 30 36 
-0.167786 -0.16382 1.28159 24 12 14 
0.00657785 -0.101848 1.20774 59 24 30 
-0.212096 -0.112128 1.31757 61 30 35 
-0.0959952 -0.0885033 1.27438 143 123 98 
0.257849 -0.0522782 1.21034 55 42 51 
-0.400206 0.150167 1.30802 34 34 36 
0.097091 0.182046 1.10431 86 54 59 
-0.706974 0.299219 1.52421 139 154 193 
0.576558 0.245362 1.17477 27 35 58 
0.577105 0.283327 1.17195 41 44 63 
-0.0181983 -0.336132 1.20306 123 66 83 
-0.791166 -0.352999 1.61188 29 34 54 
-0.0150863 -0.190786 1.2072 154 98 111 
0.0830681 -0.126931 1.21183 55 23 26 
-0.479773 0.066608 1.46133 52 44 55 
-0.302814 0.0702918 1.35269 52 20 21 
-0.70321 0.314661 1.5342 86 81 104 
0.0459522 -0.233796 1.22937 139 85 99 
-0.252966 -0.316208 1.33551 58 32 35 
-0.251014 -0.280534 1.33072 115 88 103 
0.117134 -0.186471 1.25773 58 26 27 
-0.295853 -0.207539 1.37077 96 53 60 
-0.0979052 0.0606491 1.19382 40 31 32 
-0.067389 0.00399349 1.26174 31 15 15 
-0.356678 0.300293 2.5504 50 33 43 
0.0688198 0.135343 0.959412 66 36 46 
0.0963954 0.195844 1.3826 71 38 49 
0.475539 0.314654 1.04764 158 175 244 
-0.212593 -0.330852 1.27556 146 88 100 
0.110665 0.177658 1.28083 67 37 45 
0.452517 0.273066 1.09828 143 126 144 
0.195126 -0.225082 1.24528 89 61 73 
0.0419098 0.153971 1.23239 62 39 47 
-0.0948297 -0.504734 1.36337 116 110 144 
-0.0605298 -0.49366 1.34787 16 34 48 
-0.0807547 -0.493033 1.35729 27 37 47 
0.579068 -0.366981 1.23268 146 159 193 
-0.0988974 -0.491458 1.36808 153 146 130 
-0.0900177 -0.487566 1.36167 151 144 125 
-0.0703486 -0.482111 1.35282 150 137 120 
0.572343 -0.359927 1.22792 145 156 188 
-0.198446 -0.515578 1.42431 43 32 48 
0.598767 -0.349709 1.22548 89 91 132 
-0.295441 -0.514372 1.43862 69 60 87 
-0.421457 -0.538312 1.50833 73 52 67 
0.592897 -0.324497 1.22949 72 65 116 
-0.180834 -0.40214 1.30746 73 26 32 
0.55992 -0.287646 1.21337 152 169 213 
-0.0365766 -0.343273 1.22657 46 21 27 
-0.958993 -0.540998 1.63623 52 39 57 
-0.472257 -0.439216 1.51791 74 51 67 
0.551441 -0.207287 1.20373 30 23 30 
0.14818 -0.225383 1.26343 84 59 80 
-0.291894 -0.228566 1.34218 77 28 34 
0.620015 -0.138289 1.209 106 116 167 
-0.00293849 -0.178255 1.2238 37 15 18 
0.0920205 0.0167174 1.2156 63 30 39 
-0.789678 0.0397528 1.5806 30 44 83 
-0.791265 0.0774382 1.56491 21 28 47 
0.223317 0.148412 1.14002 59 33 46 
-0.935749 0.211949 1.62459 88 102 151 
-0.823027 0.312346 1.5431 121 136 169 
0.0381605 0.225262 0.981706 85 49 63 
-0.214046 0.305943 0.91749 197 214 255 
-0.185226 0.306624 0.913981 50 43 76 
0.329511 0.325863 1.02158 121 132 150 
-0.0129526 -0.475604 1.34755 136 117 139 
-0.401736 -0.567939 1.50559 84 60 74 
-0.209677 -0.512789 1.4222 55 53 77 
-0.249886 -0.519546 1.44093 82 61 76 
0.597803 -0.342586 1.23404 119 137 177 
-1.0081 -0.639372 1.62269 86 98 146 
-0.358233 -0.514982 1.48353 78 60 76 
0.584687 -0.318971 1.22755 44 49 79 
-0.0630659 -0.390104 1.27931 78 30 44 
0.0100472 -0.369277 1.24664 123 76 86 
-1.00807 -0.578657 1.6279 187 201 246 
0.583724 -0.278449 1.22399 36 36 62 
-0.957107 -0.531427 1.64468 158 171 216 
-0.611762 -0.426795 1.55224 62 49 66 
0.350147 -0.233117 1.19126 61 57 72 
0.130452 -0.258862 1.27243 87 61 72 
0.103153 -0.23227 1.19395 159 108 125 
0.43311 -0.194327 1.15249 76 55 74 
-0.239455 -0.250481 1.33274 67 33 49 
0.599302 -0.155576 1.22509 151 173 212 
-0.00178104 -0.197916 1.23514 64 28 32 
0.506814 -0.101634 1.11937 57 43 58 
0.126909 -0.133757 1.26103 66 44 57 
-0.258294 -0.0703519 1.35102 68 27 31 
-0.814582 0.077587 1.5746 31 47 80 
0.603858 0.0869485 1.19868 122 133 178 
0.615517 0.0871439 1.19857 120 127 173 
-0.811328 0.123643 1.56411 26 43 73 
-1.37659 0.861051 7.13676 134 88 101 
-0.12701 0.274122 1.96936 54 31 37 
0.585821 0.226726 1.17313 148 170 211 
0.0744015 0.23082 1.08349 69 37 52 
0.0404839 0.220699 0.991188 76 47 67 
0.552403 0.283964 1.13629 22 21 27 
0.548277 0.288932 1.12713 126 117 134 
0.615281 0.318353 1.20422 73 78 98 
0.565477 0.302685 1.12184 143 130 148 
-0.230795 0.303485 0.898821 46 37 64 
-0.958464 -0.525092 1.6334 101 114 156 
-0.503312 -0.404831 1.52659 68 47 54 
-0.240615 -0.287748 1.33699 117 94 114 
0.0907665 -0.21701 1.19303 52 24 23 
-0.806072 -0.356233 1.61361 32 42 67 
-0.280884 -0.208058 1.33418 47 21 22 
-0.00651089 -0.165905 1.21365 26 10 11 
0.557329 -0.101753 1.1985 112 124 162 
-0.151881 -0.106722 1.2827 125 69 80 
-0.107838 -0.0792062 1.27317 48 22 23 
-0.17354 0.0471486 1.28721 63 33 41 
0.560811 0.0804524 1.18621 61 62 83 
-0.551254 0.149591 1.4761 154 171 240 
0.158553 0.113454 0.794895 88 58 68 
-0.817856 0.310012 1.53257 127 137 173 
-0.224847 0.306937 0.920365 192 217 255 
-0.188697 0.303897 0.898454 206 215 255 
0.595816 -0.33576 1.22607 65 60 92 
0.582007 -0.336059 1.2268 52 49 66 
-0.0573197 -0.403467 1.27826 142 88 111 
0.553005 -0.313365 1.22346 20 18 23 
-0.801305 -0.550342 1.63313 41 52 80 
0.58697 -0.254804 1.22 142 169 214 
-0.242241 -0.271576 1.33655 119 92 109 
0.0345216 -0.120683 1.26386 62 30 33 
-0.78654 -0.15073 1.60303 140 153 198 
-0.0930565 -0.0871378 1.25527 131 115 92 
0.240955 -0.0544654 1.21278 75 47 61 
-0.0278048 -0.0503756 1.25519 52 31 38 
-0.244943 -0.0556832 1.3491 46 18 15 
0.182947 -0.0244797 1.1362 44 20 18 
-0.377539 -0.0146782 1.34523 54 22 23 
-0.118932 0.00831673 1.27787 61 29 30 
-0.123345 0.0360798 1.24019 179 178 176 
-0.812287 0.124698 1.57434 35 38 57 
0.314279 0.116109 1.16305 129 106 122 
-0.407904 0.160197 1.31349 108 67 81 
0.3857 0.187672 1.13992 72 60 74 
-0.821195 0.291257 1.55951 22 33 51 
-0.799445 0.313961 1.55302 21 23 36 
-0.826614 0.328791 1.52353 112 99 125 
-0.789352 0.338734 1.54525 120 111 130 
0.118511 0.235534 1.10906 51 42 45 
0.539878 0.284589 1.14398 16 14 17 
0.209418 0.287851 1.05562 169 119 144 
0.0456099 0.283434 0.96401 85 58 67 
0.518601 0.300839 1.04963 62 60 73 
0.0222201 -0.342048 1.21987 145 92 110 
-0.106272 -0.0747312 1.2594 67 36 42 
0.580865 0.0476482 1.1888 56 65 108 
-0.793369 0.146153 1.58134 133 148 191 
-0.823662 0.293611 1.57161 21 28 47 
-0.796793 0.337802 1.52491 23 18 22 
-0.784612 -0.487785 1.61527 42 53 85 
0.537643 -0.204844 1.19811 113 88 109 
0.547501 -0.189405 1.21144 24 23 31 
0.545032 -0.0503801 1.19598 65 48 64 
-0.0839212 -0.0633937 1.27541 85 45 53 
-0.78105 0.1693 1.54098 47 47 73 
0.0971066 0.191702 1.09948 30 18 18 
-0.820219 0.299231 1.526 129 144 185 
-0.120247 0.0030641 1.2526 72 36 38 
0.562559 -0.413199 1.23126 178 195 238 
0.345105 -0.415167 1.20909 76 58 84 
0.0546825 0.0164566 0.753332 47 20 29 
-0.107783 0.0500714 1.22075 155 152 147 
0.0323881 0.198048 1.40683 54 31 37 
0.589317 -0.366743 1.23048 176 197 240 
-0.00829313 0.062447 1.20713 64 27 34 
-0.0616088 0.0394799 1.25253 162 149 133 
-0.19386 -0.182252 1.27541 130 78 91 
-0.108508 -0.0194005 1.2501 194 180 154 
0.175261 0.00601906 0.630126 108 92 77 
-0.375522 0.312984 2.36232 58 31 40 
-0.247659 0.253737 1.89851 59 30 35 
-0.417717 0.416089 3.1157 63 31 42 
-0.258597 0.259662 1.90209 60 33 42 
0.054169 0.180021 1.30075 65 44 49 
-0.287616 0.271631 2.22139 134 83 100 
0.0884587 0.176754 1.24718 70 42 56 
0.0491082 0.173775 1.40291 60 46 46 
-0.0685807 0.0493069 1.2486 193 180 172 
0.0959282 0.173085 1.21811 71 40 55 
0.0767016 0.170241 1.22276 65 44 49 
-0.0601918 0.0280496 1.38751 62 22 31 
0.0459235 0.147933 1.21763 71 39 50 
0.10508 0.166378 1.19544 63 31 42 
0.0774757 0.161221 1.28985 56 34 37 
0.0316345 -0.0897975 3.4772 72 51 58 
-0.0471862 0.0267648 1.3507 62 22 31 
0.192925 0.246455 1.75176 66 36 48 
0.228495 0.0803386 1.54486 55 23 36 
-0.23867 0.167095 1.24572 84 40 55 
-0.01881 -0.202273 0.75665 48 67 110 
0.389886 -0.016344 0.990291 68 87 119 
0.398623 -0.0168476 0.980613 92 99 145 
0.432502 -0.0182079 0.969662 81 96 139 
-0.482283 -0.0390738 1.47579 49 37 47 
0.402047 -0.0601655 0.985385 73 84 116 
0.398818 -0.0323806 0.979846 78 92 127 
-0.364533 -0.224025 1.45573 49 35 60 
-0.117646 -0.20669 1.28856 73 39 55 
-0.463957 -0.141439 1.48053 63 50 76 
-0.378493 -0.0547628 1.44067 67 53 78 
-0.300596 -0.0555131 1.35995 72 31 39 
-0.394182 -0.0395899 1.44449 69 48 55 
2.5684 -0.229126 1.64898 183 198 241 
-0.119522 -0.0341305 1.26849 159 143 110 
-0.497488 0.0502399 1.47079 77 55 76 
0.537863 0.0686998 1.11861 78 59 81 
-0.508362 0.129512 1.46914 108 97 114 
-0.388287 0.147747 1.29944 45 26 30 
-0.353872 -0.240703 1.45179 71 51 63 
-0.234792 -0.238753 1.329 114 69 89 
0.38822 -0.280133 1.20256 140 128 150 
-0.243937 -0.125766 1.34695 69 33 47 
-0.243785 -0.0979623 1.34729 64 28 32 
-0.391424 -0.084574 1.44802 74 53 70 
-0.366951 -0.0783882 1.43878 81 64 83 
-0.297787 -0.0671912 1.36 60 27 36 
0.0853874 -0.0803037 1.23306 86 36 45 
-0.527826 -0.0153531 1.48976 66 51 70 
-0.206563 -0.0364 1.33397 50 23 32 
-0.513725 0.0245772 1.47994 49 44 64 
-0.314841 0.0146535 1.35948 79 32 38 
-0.126128 0.0458595 1.25124 149 137 123 
0.800432 0.0835759 1.92645 93 52 70 
0.796671 0.0989179 1.94042 93 38 41 
-0.137155 0.0660272 1.25126 121 95 72 
0.0717548 0.0874135 1.22748 88 45 62 
-0.174143 0.146322 1.22709 82 43 61 
-0.537659 0.175683 1.47559 43 39 56 
-0.0495956 0.171834 1.18249 74 42 55 
-0.300055 0.171731 1.26709 106 59 77 
-0.343088 0.162641 0.997786 87 44 53 
-0.208335 0.205492 0.960456 82 46 58 
-0.319501 0.218021 0.99672 85 38 48 
-0.0819085 -0.106363 1.26357 150 137 121 
-0.0826523 -0.0950807 1.26358 67 32 30 
-0.568898 0.004897 1.504 51 45 59 
-0.247223 0.00838812 1.33713 100 51 57 
0.474753 -0.0108553 1.14919 86 73 90 
-0.0236501 -0.00196039 0.827399 125 137 177 
-0.12584 0.0465746 1.28274 131 116 111 
0.409056 0.0299805 1.16895 138 115 133 
-0.573152 0.131353 1.45535 21 28 47 
0.159149 0.132418 1.15199 145 102 122 
-0.101626 0.186576 1.17933 57 50 58 
-0.339493 0.190081 1.25918 45 29 32 
-0.45805 0.230612 1.43955 85 78 96 
0.182683 0.0691921 1.16243 162 119 138 
-0.396041 0.170183 1.10503 170 127 144 
-0.0853569 -0.114261 1.29021 120 70 81 
0.180222 0.0938212 1.15313 153 100 118 
-0.58334 0.128533 1.43332 21 28 47 
0.15422 0.121832 1.15378 57 31 34 
-0.102911 -0.0710855 1.28194 66 37 42 
-0.0706125 -0.54596 1.35906 135 133 157 
-0.0361031 -0.530082 1.34271 24 30 46 
-0.0726551 -0.529111 1.35844 155 138 122 
-0.0998127 -0.532587 1.36836 184 168 153 
-0.101431 -0.52198 1.36899 164 167 182 
-0.776827 -0.639516 1.63677 26 32 82 
-1.05699 -0.579546 1.53794 111 111 171 
-1.0473 -0.577342 1.5494 111 123 181 
-0.0605067 -0.551631 1.35228 71 56 79 
0.0936628 -0.507691 1.31655 58 35 53 
-0.0345054 -0.543656 1.34961 63 46 52 
-0.0833562 -0.554878 1.36319 200 196 167 
0.00761451 -0.528683 1.34545 64 47 63 
0.335431 -0.418076 1.21507 67 49 65 
0.139009 -0.482223 1.29402 58 40 56 
-0.0971146 -0.550876 1.36969 105 52 60 
-0.20964 -0.592669 1.43663 57 43 60 
-0.0651068 -0.533831 1.351 179 169 144 
-0.248925 -0.599242 1.45049 74 50 72 
0.0502032 -0.494534 1.32912 67 48 68 
-0.0851583 -0.532604 1.36575 92 60 81 
-0.0395464 -0.507313 1.34097 196 191 188 
-0.0536509 -0.510297 1.34897 169 158 138 
-1.08028 -0.758712 1.52618 101 123 180 
0.0180691 -0.485312 1.33909 47 29 43 
-0.0821043 -0.510997 1.36058 160 136 136 
-0.0432206 -0.497745 1.34199 32 23 24 
-1.06524 -0.756142 1.55549 106 121 180 
-0.0705342 -0.498401 1.35319 14 31 39 
-1.10599 -0.652282 1.5498 92 114 172 
-1.06577 -0.638992 1.54381 110 122 180 
-1.02685 -0.631297 1.5848 109 126 182 
-1.02916 -0.580198 1.58846 182 196 243 
0.606315 -0.0108839 1.2149 87 89 130 
-0.0560805 0.0476051 1.24335 162 158 149 
-0.339421 0.179793 1.00527 133 152 192 
0.562647 0.287896 1.14373 22 22 32 
0.481766 0.312481 1.03967 150 167 236 
0.272005 0.318023 0.962763 153 163 188 
-0.0314209 -0.522698 1.34893 38 26 28 
0.0225979 -0.508787 1.33934 67 43 57 
0.561794 -0.355411 1.22391 123 134 179 
0.768889 -0.398211 1.50783 26 28 53 
-0.0339552 -0.511699 1.34805 29 20 23 
-0.332305 -0.612416 1.4862 62 44 58 
0.0682402 -0.480353 1.32072 53 36 54 
-0.0763987 -0.51925 1.35829 197 194 189 
-1.0513 -0.753467 1.57788 104 126 184 
-1.06202 -0.69602 1.54639 108 127 183 
-0.300596 -0.504534 1.46069 72 57 76 
-1.05084 -0.63614 1.56528 107 127 186 
-1.0601 -0.589602 1.53334 120 142 199 
-0.420166 -0.476189 1.50172 68 52 63 
-1.05058 -0.58903 1.55961 116 141 197 
0.0955072 -0.34119 1.29488 99 75 97 
-1.04541 -0.573859 1.53799 178 192 241 
-0.0251826 -0.335198 1.19714 45 18 27 
-0.0300931 -0.235999 1.22614 124 73 90 
-0.0393059 -0.2327 1.23145 42 22 31 
-0.0792029 0.0289627 1.23661 97 80 72 
-0.0974558 0.0470671 1.17982 131 123 121 
-0.801951 0.122675 1.55227 25 39 68 
0.208917 0.154185 1.09909 52 33 39 
-0.124388 0.223204 1.61472 71 43 55 
0.508957 0.179617 1.09641 64 44 55 
-0.333136 0.191827 1.00875 130 149 189 
0.495646 0.266057 1.08237 44 30 43 
-0.680308 -0.721666 1.62812 105 83 104 
0.0424145 -0.484792 1.32955 72 46 57 
-0.0553254 -0.48572 1.35563 19 15 16 
0.59954 -0.327815 1.24844 144 164 201 
-0.113507 -0.373833 1.24827 36 20 21 
0.582992 -0.233541 1.2177 40 45 65 
0.515822 -0.107724 1.14035 46 34 36 
0.599456 -0.0880007 1.21709 79 87 126 
0.180607 -0.0470804 1.13979 77 31 34 
-0.0776438 -0.0340054 1.26468 168 159 130 
0.200384 0.00560102 1.15588 55 24 29 
-0.113953 0.0238147 1.23084 170 169 175 
-0.470281 0.0658668 1.44856 43 36 43 
0.555651 0.116928 1.1839 100 114 153 
0.212057 0.132952 1.11113 37 26 30 
0.547401 0.158089 1.17495 29 27 28 
0.0395316 0.163363 0.959469 153 115 136 
0.589955 0.285708 1.19027 144 163 205 
0.5596 -0.263094 1.21827 115 133 173 
-0.0861161 -0.503435 1.37722 50 83 90 
-0.0633058 -0.480637 1.36195 27 16 20 
0.580567 -0.273308 1.20742 28 26 37 
-0.791725 -0.545947 1.62028 41 51 78 
-0.993049 -0.571594 1.61258 182 199 243 
-0.235806 -0.269444 1.32373 127 103 117 
-0.00828423 -0.165786 1.22512 23 13 14 
0.0234087 -0.0875522 1.25094 35 17 15 
-0.0555683 0.0269543 1.24169 58 37 32 
-0.801676 0.00407141 1.5775 32 45 62 
0.523119 0.0607359 1.13564 39 27 29 
0.579293 -0.321528 1.23576 29 27 28 
0.578662 -0.29385 1.23546 13 12 18 
0.0256968 -0.339254 1.20951 130 75 94 
-0.102714 -0.205524 1.27402 122 79 99 
-0.0850205 -0.0799173 1.27532 37 17 16 
-0.792056 -0.641122 1.64348 35 39 66 
-0.992794 -0.548945 1.62259 70 39 45 
0.0513283 -0.216994 1.23381 131 77 90 
-0.784097 -0.307052 1.59612 41 52 74 
0.188751 -0.0612184 1.1573 80 32 32 
-0.102076 0.00994361 1.25388 61 29 30 
0.572356 -0.237231 1.21021 21 21 23 
-0.258811 -0.318797 1.35253 35 19 22 
0.0142497 -0.085163 1.24553 47 19 18 
0.120083 -0.193562 1.25216 61 25 25 
0.227716 -0.00442716 1.19755 64 28 30 
-2.8651 0.747039 6.49993 127 81 94 
-0.172629 -0.233987 1.29 113 67 80 
-0.595011 -0.0316671 1.52579 43 36 54 
-2.87501 0.74589 6.51852 126 79 95 
-0.155018 0.21309 1.74467 125 82 99 
-0.00509526 0.192313 1.37608 71 43 55 
-0.0163356 0.192529 1.37511 56 31 37 
-0.809274 0.12496 1.58233 30 34 46 
-0.792425 -0.30953 1.60773 41 42 70 
-0.789295 0.00332136 1.5681 34 46 62 
-0.780904 0.145056 1.56644 130 145 188 
-0.785488 0.170664 1.5476 31 33 54 
-0.109561 0.0741385 1.234 53 24 26 
-0.354621 0.237565 1.79904 57 31 42 
0.152924 0.151788 1.05989 71 43 55 
0.0891106 0.13085 1.07688 56 33 41 
0.0836704 0.210922 1.50822 71 38 49 
-0.0912502 -0.159096 1.28031 54 25 30 
-0.10135 -0.149208 1.26425 111 68 78 
-0.135085 -0.311913 1.16587 82 30 52 
0.469872 0.0860439 1.72099 58 25 34 
-0.514132 0.0362281 1.47617 50 46 61 
-0.434174 0.116134 1.44061 32 24 35 
-0.352985 0.259228 1.04629 58 37 44 
0.467304 -0.0105181 1.14542 86 73 90 
-0.422244 0.248836 1.29656 40 29 33 
3.20829 -1.19216 1.17669 117 131 180 
2.69573 -1.05635 1.47216 115 119 167 
3.53598 -1.21289 0.996381 75 68 101 
2.73156 -1.00174 1.45411 102 96 124 
3.2182 -0.985854 1.18865 57 45 95 
3.47751 -0.932272 0.992288 193 200 184 
2.86572 -0.472257 1.30864 103 67 81 
3.40186 -0.0874376 1.04346 56 72 105 
3.29659 0.0267254 1.06352 85 89 153 
3.38126 0.0369446 1.03013 61 79 117 
3.39511 -1.36221 1.13023 188 205 248 
0.360623 -0.450721 1.22249 86 81 111 
0.284835 -0.425398 1.24757 150 131 150 
0.481877 -0.469187 1.18182 49 40 61 
2.76182 -1.08914 1.44124 123 139 188 
3.21068 -1.17971 1.17301 103 118 161 
3.26015 -1.19004 1.15185 112 126 173 
3.26058 -1.17656 1.14133 183 206 250 
2.68244 -1.04025 1.4658 126 125 169 
3.22088 -1.15533 1.16053 106 90 126 
3.28775 -1.16185 1.12729 114 102 140 
3.1539 -1.11372 1.20744 107 114 168 
3.14819 -1.10789 1.1941 165 190 231 
2.74366 -1.0225 1.44281 124 109 140 
2.72654 -0.992314 1.46625 81 55 68 
3.15978 -1.07923 1.19611 104 113 168 
0.422271 -0.381468 1.19361 67 44 70 
3.1771 -1.06329 1.18962 130 123 156 
3.24197 -1.06739 1.1449 105 117 165 
3.3129 -1.07709 1.12665 107 120 165 
3.48798 -1.07618 0.988139 184 185 169 
2.73182 -0.925378 1.47291 178 197 240 
3.16613 -1.00019 1.18549 40 23 59 
3.46938 -1.05883 0.999871 59 51 64 
3.27234 -1.01081 1.14217 40 23 68 
3.28487 -1.00689 1.15225 173 191 229 
3.1812 -0.983974 1.18464 39 32 65 
3.38223 -1.02528 1.11289 24 32 45 
3.26326 -0.990696 1.14127 55 45 105 
3.55282 -1.04806 0.997066 154 146 133 
3.40367 -1.01239 0.993548 159 157 142 
3.33185 -1.00249 1.13279 29 31 56 
3.28243 -0.985874 1.17339 130 158 195 
3.47241 -1.01597 1.0044 81 75 111 
3.50797 -1.02294 0.993781 52 45 61 
0.406292 -0.331129 1.19387 44 37 55 
3.29565 -0.971462 1.17987 63 78 133 
0.441695 -0.333349 1.18196 61 41 69 
3.32406 -0.967991 1.14279 116 125 184 
3.28082 -0.95765 1.16793 168 187 229 
3.32801 -0.963538 1.1241 65 67 118 
3.49443 -0.989449 0.98791 167 159 148 
3.28471 -0.949533 1.1462 197 212 255 
0.462855 -0.332079 1.17373 75 63 83 
3.34696 -0.906367 1.11131 88 95 150 
3.38602 -0.892205 1.09455 181 194 238 
3.20193 -0.856145 1.17747 62 60 107 
0.371108 -0.283559 1.20318 72 55 73 
3.29129 -0.86864 1.14584 190 211 254 
3.36686 -0.86853 1.08937 175 197 238 
0.470892 -0.282889 1.16784 66 51 74 
0.374482 -0.265516 1.19989 61 48 66 
0.483838 -0.282394 1.16322 64 44 71 
0.399982 -0.233306 1.18498 57 44 64 
0.422622 -0.232956 1.17876 70 57 75 
