ply                 
format ascii 1.0    
element vertex 1285
property float x    
property float y    
property float z    
property uchar red  
property uchar green
property uchar blue 
end_header          
-1.25655 1.07753 7.14785 90 96 110 
-1.25371 1.06576 7.13712 21 24 39 
-1.28369 0.466962 7.30612 220 213 203 
-1.24671 1.03847 7.10886 83 91 104 
-1.34786 -2.47877 7.70123 65 79 90 
-1.3563 -2.50625 7.75323 66 84 94 
-1.35477 -2.57706 7.75145 106 123 133 
-1.24673 1.09661 7.14045 12 14 27 
-1.33465 4.01519 7.62949 168 160 149 
-1.24566 1.11019 7.15365 97 98 116 
-1.33824 -2.49122 7.71364 152 170 184 
-1.18486 -1.66594 6.85841 198 151 11 
-1.24161 1.13651 7.15467 17 24 40 
-1.24321 1.15038 7.18015 63 72 87 
-1.33622 -2.65323 7.7371 96 110 123 
-1.31233 3.9169 7.55789 11 25 28 
-1.23431 1.08281 7.13923 15 21 35 
-1.32948 -2.58714 7.71469 104 121 129 
-1.23305 1.12995 7.16095 70 80 92 
-1.21946 0.931539 7.0941 75 78 97 
-1.16614 -1.91596 6.82489 240 131 66 
-1.16417 -1.93413 6.81712 247 162 56 
-1.22755 1.08832 7.15624 48 56 69 
-1.16941 -1.88198 6.85317 216 164 26 
-1.22733 1.10058 7.16329 7 10 25 
-1.22456 1.13505 7.15075 5 14 29 
-1.31835 -2.56686 7.72425 96 114 128 
-1.1651 -1.93757 6.85642 179 81 6 
-1.47495 3.73384 8.57875 79 96 78 
-1.21707 1.05498 7.14106 60 67 77 
-1.31095 -2.42196 7.71886 128 145 155 
-1.15164 -1.90331 6.82819 233 147 44 
-1.20216 0.931195 7.10182 75 78 97 
-1.15191 -1.93651 6.84352 244 165 64 
-1.22264 1.17465 7.22525 9 21 33 
-1.15184 -1.92484 6.84566 241 138 63 
-1.19984 0.907125 7.10464 5 14 29 
-1.29473 -2.74666 7.6903 52 65 71 
-1.29654 -2.83144 7.70875 50 66 79 
-1.14279 -1.92969 6.83795 169 78 0 
-1.20221 1.04805 7.15996 24 32 45 
-1.19883 1.0574 7.1867 51 59 70 
-1.28556 -2.77388 7.72059 59 77 79 
-1.39744 0.417804 8.37423 64 54 44 
-1.44397 3.71864 8.63068 180 162 100 
-1.42826 3.71763 8.54511 35 53 39 
-1.29347 3.86198 7.75098 177 212 234 
-1.27054 -2.80094 7.66611 51 73 84 
-1.18965 1.06938 7.17673 82 92 104 
-1.13191 -1.93843 6.86216 241 158 52 
-1.12616 -1.90105 6.8436 232 158 51 
-1.45265 5.80939 8.74531 16 22 34 
-1.12041 -1.93866 6.84614 171 90 0 
-1.12318 -1.92263 6.86389 194 75 17 
-1.47866 3.66611 8.9268 193 146 56 
-1.11879 -1.90598 6.85132 175 80 0 
-1.16741 0.86884 7.12265 10 18 37 
-1.1838 1.06152 7.22078 3 11 22 
-1.26583 -2.54196 7.72967 99 117 129 
-1.18091 1.0413 7.21634 61 67 79 
-1.39273 0.397206 8.4982 58 46 34 
-1.17797 1.09211 7.21219 20 26 40 
-1.11338 -1.92942 6.85257 244 137 59 
-1.25864 -2.50338 7.72453 127 139 139 
-1.43725 3.71248 8.76073 119 91 28 
-1.43107 3.72715 8.73989 190 165 108 
-1.4185 3.74668 8.67146 183 178 120 
-1.10827 -1.93232 6.87001 176 87 0 
-1.35813 3.79398 8.32824 24 33 40 
-1.25478 3.84148 7.71439 25 57 78 
-1.44963 3.67371 8.90135 110 75 7 
-1.36033 0.439422 8.39 100 91 76 
-1.24505 3.84283 7.67635 200 232 255 
-1.42734 3.70506 8.77026 182 160 100 
-1.41044 3.72762 8.68898 115 103 43 
-1.16177 1.04464 7.20896 27 25 39 
-1.10112 -1.88272 6.87418 219 161 35 
-1.38286 3.73712 8.53875 12 39 24 
-1.40804 3.71971 8.69555 181 160 103 
-1.44891 3.65846 8.96077 182 147 83 
-1.23699 3.84724 7.69711 42 76 103 
-1.23384 -2.40744 7.74761 160 173 189 
-1.24305 3.85871 7.7769 197 224 245 
-1.41935 3.64828 8.87802 175 150 94 
-1.41153 3.64174 8.82288 110 86 26 
-1.36219 3.73027 8.52557 169 187 165 
-1.22627 3.85092 7.71845 83 113 137 
-1.38972 3.68309 8.72154 132 106 29 
-1.22667 3.85079 7.73759 44 70 93 
-1.22062 -2.58221 7.74864 53 65 79 
-1.22467 -2.28031 7.78738 53 63 65 
-1.3881 3.67277 8.76785 134 104 32 
-1.40275 3.65674 8.86533 179 151 86 
-1.3834 0.399545 8.77434 148 141 122 
-1.42052 3.65482 8.99308 112 72 21 
-1.40016 3.64733 8.87594 125 99 40 
-1.21773 3.84896 7.76166 194 212 232 
-1.20151 -2.58641 7.73556 43 61 73 
-1.34306 3.69064 8.56103 215 183 82 
-1.20295 -2.56525 7.74544 128 133 129 
-1.38773 3.64479 8.86154 126 100 39 
-1.38396 3.6557 8.85837 173 148 84 
-1.24401 1.06429 7.99843 36 27 18 
-1.30184 0.452481 8.37245 99 85 72 
-1.38616 3.63472 8.90339 109 83 24 
-1.32958 3.74044 8.54181 159 163 136 
-1.36097 3.67835 8.75006 216 180 70 
-1.19488 -2.61478 7.75334 128 147 153 
-1.2948 0.410277 8.37721 57 49 38 
-1.33235 3.71471 8.58786 205 184 93 
-1.19594 3.85639 7.75043 192 208 231 
-1.26622 3.78704 8.18102 189 192 173 
-1.20147 1.10152 7.81276 63 60 55 
-1.18756 -2.40723 7.75185 131 135 136 
-1.29462 0.216645 8.42584 181 167 154 
-1.34676 3.69588 8.71322 155 120 30 
-1.33345 3.71111 8.64053 196 165 83 
-1.32687 3.71749 8.6263 130 107 31 
-1.3106 3.74134 8.53713 36 43 9 
-1.29321 0.373383 8.46436 78 72 60 
-1.36526 3.65094 8.88583 109 84 17 
-1.30166 3.7552 8.48088 110 120 109 
-1.28428 0.193126 8.41657 96 84 72 
-1.25314 3.83198 8.18918 134 140 126 
-1.17274 3.84106 7.69356 29 47 61 
-1.29949 0.329029 8.52071 86 79 73 
-1.18466 1.07936 7.78943 195 190 171 
-1.29998 3.74303 8.50694 142 153 136 
-1.17583 -2.62516 7.76697 76 93 109 
-1.28487 0.252483 8.46834 114 101 95 
-1.23816 0.644997 8.18308 218 213 193 
-1.25569 3.76943 8.26087 33 58 54 
-1.28941 3.7447 8.48039 44 51 35 
-1.28676 0.379029 8.49856 50 32 18 
-1.276 0.208228 8.43883 94 83 77 
-1.17501 1.06997 7.78303 116 111 92 
-1.20145 0.807099 7.9638 163 138 107 
-1.24035 3.83174 8.19125 71 71 19 
-1.34966 3.63883 8.89525 122 88 16 
-1.18968 0.827336 7.90432 142 97 56 
-1.30075 3.73808 8.60408 121 108 40 
-1.16227 -2.66987 7.75411 134 150 165 
-1.19999 0.877865 7.97875 181 128 74 
-1.26642 0.405376 8.43025 184 168 145 
-1.16487 -2.36975 7.80168 53 60 76 
-1.32241 3.66704 8.77323 185 158 81 
-1.27519 0.37393 8.49912 190 172 148 
-1.15986 -2.38169 7.77809 116 129 145 
-1.23345 3.80445 8.21265 119 136 118 
-1.21897 0.629129 8.15836 151 147 146 
-1.2672 0.385106 8.47922 115 94 75 
-1.29135 3.74774 8.62607 186 173 95 
-1.26773 3.75679 8.47907 163 166 135 
-1.32333 3.67959 8.86164 144 108 32 
-1.15021 -2.34225 7.77574 133 136 141 
-1.3067 3.66074 8.76303 149 121 56 
-1.15408 1.08252 7.80913 214 202 178 
-1.21245 3.80247 8.15875 183 196 91 
-1.20468 0.606172 8.15595 65 51 42 
-1.26938 3.70424 8.57256 146 123 45 
-1.2316 3.73092 8.33128 130 139 120 
-1.29409 5.78115 8.75919 114 112 123 
-1.01054 -1.7427 6.94231 18 21 30 
-1.24844 3.74881 8.49212 186 189 180 
-1.2804 3.68455 8.7134 215 186 94 
-1.38298 3.56956 9.41122 105 95 83 
-1.2473 3.73243 8.50869 34 49 46 
-1.11871 4.03792 7.66312 220 205 186 
-1.32733 -4.6167 9.12019 164 147 139 
-1.25043 3.71341 8.55242 141 126 45 
-1.17589 3.82721 8.06547 170 158 120 
-1.2155 3.76121 8.33053 141 143 129 
-1.17802 3.85125 8.08345 39 35 32 
-1.22962 3.73553 8.44935 59 61 47 
-1.19937 3.79022 8.25605 202 202 178 
-1.1769 0.601732 8.12595 33 25 23 
-1.26096 3.6871 8.67938 132 103 23 
-1.20575 3.77818 8.33407 46 49 32 
-1.13982 0.864178 7.94283 155 103 46 
-1.11546 -2.571 7.78883 91 109 123 
-1.21119 0.531325 8.41807 223 197 160 
-1.24405 3.72631 8.61438 216 185 68 
-1.13532 0.702094 7.90938 160 138 99 
-1.2171 3.74607 8.43932 61 63 52 
-1.22337 3.73982 8.48451 32 46 23 
-1.18655 3.77502 8.25003 148 143 114 
-1.20814 3.73925 8.38379 64 69 46 
-1.17537 3.80655 8.17139 195 194 166 
-1.11072 -2.42367 7.79226 83 100 118 
-1.13643 0.828703 7.94282 183 149 124 
-1.22709 3.72017 8.56026 208 184 84 
-1.15497 3.83223 8.07608 138 137 116 
-1.1689 3.78946 8.18369 195 195 167 
-1.128 0.875526 7.94197 85 18 10 
-1.19256 3.74468 8.37505 169 169 143 
-1.0964 -2.83525 7.77025 137 149 163 
-1.24672 3.66845 8.76458 156 115 10 
-1.29325 3.77744 9.07843 166 123 18 
-1.09384 -2.71436 7.79222 92 109 125 
-1.16113 3.81274 8.19724 198 197 169 
-1.13424 0.640157 8.04415 39 25 0 
-1.14051 3.82586 8.07443 58 57 52 
-1.17561 3.76912 8.31604 37 45 24 
-1.08679 -2.3848 7.75632 89 105 121 
-1.1172 0.86302 7.95018 95 24 32 
-1.1298 0.665814 8.04307 196 166 130 
-1.13041 3.85123 8.01817 128 127 109 
-1.19136 3.72764 8.45448 43 52 25 
-1.2169 3.7021 8.61776 193 157 47 
-1.11256 0.833283 7.94551 176 143 126 
-1.1112 0.685869 7.9525 41 14 0 
-1.10492 0.880184 7.93977 81 16 0 
-1.17242 3.74077 8.39402 199 197 172 
-1.14786 3.78969 8.22237 144 146 124 
-1.09994 0.67062 7.93985 63 32 3 
-1.07319 -2.68771 7.79122 69 84 103 
-1.08077 1.07399 7.81791 183 164 147 
-1.10691 0.618667 8.01956 151 124 105 
-1.09204 0.870396 7.93023 152 102 41 
-1.08871 0.866701 7.91029 158 109 40 
-1.14743 3.76967 8.30608 194 200 172 
-1.14142 3.79018 8.29632 141 141 113 
-1.05614 -2.65302 7.7872 71 88 108 
-0.961624 -1.58679 7.11119 134 37 44 
-1.10062 3.82072 8.09827 61 59 44 
-1.08006 3.81673 7.9599 123 133 124 
-1.07781 0.659068 8.02259 138 93 62 
-1.04121 -2.63066 7.79472 85 100 119 
-1.03556 1.02964 7.74373 115 106 97 
-1.13238 3.73106 8.4187 41 53 39 
-1.08603 0.60363 8.12212 22 22 22 
-1.11561 3.7441 8.35465 149 144 115 
-1.15755 3.73923 8.64595 183 146 57 
-1.11517 3.80265 8.35882 80 84 61 
-1.07134 0.627867 8.06437 44 31 14 
-1.01208 4.03298 7.62343 141 135 121 
-1.02983 -2.58088 7.80546 108 124 139 
-1.05643 0.668813 8.00071 127 83 54 
-1.13175 3.73452 8.52155 205 186 83 
-1.06365 0.541231 8.10431 192 157 129 
-1.05927 3.81393 8.05277 135 139 124 
-1.01573 -2.60306 7.79551 77 90 107 
-1.01134 0.966299 7.74271 139 119 94 
-1.10021 3.7314 8.39761 30 39 36 
-1.09086 3.74636 8.36553 192 191 171 
-1.03479 0.857346 7.96757 181 144 136 
-1.0127 1.12563 7.79602 27 25 26 
-1.09766 3.72716 8.43394 17 30 10 
-1.02541 0.879232 7.94344 91 27 41 
-1.11599 3.70278 8.6126 215 180 88 
-1.04623 3.80637 8.10809 185 178 162 
-0.997017 -2.49998 7.79885 110 128 140 
-1.14985 3.77446 8.93348 206 168 69 
-1.04887 3.79485 8.17233 46 46 44 
-1.02413 0.521501 8.06518 199 155 128 
-1.10219 3.71393 8.62394 143 109 19 
-1.02585 0.577856 8.08868 132 86 53 
-1.06522 3.75135 8.35404 24 28 27 
-1.01837 0.60834 8.03692 214 175 136 
-0.985972 1.09167 7.78702 195 176 159 
-1.03418 3.76653 8.14413 184 187 178 
-1.00163 0.863958 7.94362 178 133 128 
-1.06161 3.72705 8.41762 38 48 11 
-0.985989 -2.53312 7.88499 48 60 74 
-1.01184 0.659647 8.07478 24 22 33 
-0.88096 -1.99299 7.08804 229 182 78 
-0.879197 -1.97125 7.08173 57 38 23 
-1.00655 0.54759 8.06211 104 58 32 
-0.992239 0.875621 7.95545 85 36 19 
-1.04358 3.78105 8.33797 192 191 161 
-1.04336 3.7449 8.36225 21 31 32 
-1.05153 3.7598 8.44688 26 33 2 
-1.01989 3.79082 8.20055 20 36 35 
-0.957063 1.0573 7.76007 33 20 12 
-0.977559 0.863698 7.93381 188 154 127 
-1.07965 3.62916 8.70924 174 134 36 
-0.970702 0.884084 7.93781 165 113 65 
-0.957992 1.02317 7.86822 185 130 47 
-1.00864 3.75153 8.25596 35 37 32 
-1.06379 3.68157 8.69985 184 141 37 
-0.939904 -2.57626 7.81361 15 26 44 
-0.974862 3.91939 8.037 255 255 216 
-0.940419 1.07723 7.81662 199 183 167 
-0.969917 3.90386 8.03816 121 107 70 
-1.00836 3.75885 8.33788 129 149 96 
-0.953388 -2.85118 7.96765 18 30 44 
-0.994981 3.761 8.26206 140 154 105 
-0.943499 1.05112 7.89196 98 66 27 
-0.980946 3.61611 8.20991 210 168 60 
-0.833197 -1.842 7.07821 138 70 83 
-1.00154 3.75982 8.39038 144 156 80 
-0.918234 4.05535 7.74683 93 94 76 
-0.930176 0.888525 7.96385 162 111 64 
-0.98243 3.73067 8.38735 199 191 152 
-0.822848 -1.7562 7.12174 147 72 0 
-0.898793 4.09351 7.71177 57 52 46 
-0.923978 3.99946 7.92919 138 134 97 
-0.997026 3.70253 8.54509 126 116 106 
-0.922155 1.03257 7.96253 190 146 99 
-0.824526 -1.75449 7.17409 147 70 0 
-0.991112 3.7132 8.50439 122 113 98 
-0.984236 3.73066 8.4778 133 122 104 
-0.914545 1.13393 7.97797 51 47 44 
-0.953445 3.83775 8.27368 145 96 38 
-0.961701 3.83384 8.33052 138 99 40 
-0.951406 3.80091 8.30627 231 184 116 
-0.906261 0.886994 7.96049 97 25 29 
-0.907387 3.93703 8.00676 81 77 42 
-0.897461 0.899308 7.96628 89 13 0 
-0.927218 0.70184 8.2332 125 106 92 
-0.944726 3.77866 8.34612 216 201 178 
-0.871512 4.06528 7.74778 233 208 178 
-0.933536 0.627001 8.33437 81 51 25 
-0.885181 0.896082 7.97211 179 113 61 
-0.924047 0.616311 8.32463 167 137 113 
-0.9085 0.528166 8.21512 150 116 89 
-0.911203 3.93151 8.19577 197 162 120 
-0.924247 0.645388 8.36605 211 182 152 
-0.880134 0.911685 7.9817 208 141 36 
-0.783639 -1.9509 7.24093 112 103 106 
-0.784606 -1.9962 7.26464 24 22 25 
-0.852438 4.01482 7.81267 32 39 45 
-0.85957 1.0466 7.95945 137 124 82 
-0.775081 -2.0104 7.23196 134 132 133 
-0.847567 -2.68338 7.87007 24 29 33 
-0.858728 0.883411 7.98305 173 115 78 
-0.898994 3.79917 8.31607 179 128 47 
-0.89397 0.561635 8.31705 203 172 144 
-0.841115 -2.66691 7.85796 121 123 135 
-0.884418 3.89619 8.2081 18 14 11 
-0.764495 -1.84198 7.19488 142 39 42 
-0.901583 0.651359 8.40697 75 51 27 
-0.835696 3.93251 7.80894 108 97 69 
-0.808634 1.18231 7.59683 36 34 35 
-0.831034 4.0232 7.77413 31 35 46 
-0.852937 1.00998 8.03593 117 79 30 
-0.877644 0.731081 8.25076 190 157 126 
-0.827216 -2.81715 7.85811 82 85 94 
-0.820071 -2.64137 7.85233 9 12 19 
-0.986032 5.56026 9.31959 94 93 99 
-0.855951 0.731486 8.16987 43 11 0 
-0.81973 4.06461 7.80092 158 161 154 
-0.859352 0.612621 8.22421 119 89 61 
-0.836815 3.94497 7.99297 82 83 52 
-0.813194 -2.63699 7.86091 149 153 156 
-0.875072 0.704022 8.42169 54 32 9 
-0.866912 0.589494 8.35156 121 86 54 
-0.867537 0.683897 8.36815 171 149 128 
-0.80476 4.10322 7.77105 16 21 17 
-0.799951 -2.83727 7.87523 155 159 160 
-0.79615 -2.47942 7.85306 49 58 75 
-0.798077 -2.66013 7.87196 144 146 141 
-0.836003 0.711247 8.21563 224 188 136 
-0.923458 3.51781 9.01515 124 73 72 
-0.916224 3.413 8.96374 144 141 134 
-0.774138 -3.75112 7.69587 96 87 80 
-0.872812 3.71237 8.5703 122 113 96 
-0.842749 0.667145 8.33829 212 182 146 
-0.805023 0.840969 7.98709 176 161 140 
-0.847313 3.76557 8.38032 128 115 98 
-0.832181 0.737614 8.26188 191 154 102 
-0.82642 3.91502 8.17287 10 7 24 
-0.783424 -2.82594 7.82852 30 36 32 
-0.709303 -1.75296 7.12857 5 8 17 
-0.784139 -2.81724 7.85635 26 30 31 
-0.877521 3.6652 8.6982 188 143 60 
-0.787082 -2.66374 7.89764 24 26 23 
-0.781231 4.0022 7.78907 46 44 45 
-0.826209 0.556835 8.30517 224 196 148 
-0.791231 0.918843 8.01325 117 73 26 
-0.774942 -2.42362 7.88019 82 91 108 
-0.788904 0.857402 7.99926 179 146 113 
-0.886659 3.67801 8.92397 121 83 44 
-0.773103 -2.66008 7.88153 168 170 169 
-0.771481 -2.8238 7.87294 155 155 153 
-0.786517 0.955749 7.99865 136 84 24 
-0.851094 3.71805 8.60094 204 181 139 
-0.770229 -2.40268 7.87607 46 58 74 
-0.818076 0.681131 8.32766 190 155 117 
-0.738583 1.13767 7.56045 158 141 121 
-0.766403 4.01417 7.82633 225 215 180 
-0.887919 3.54063 9.04144 159 141 121 
-0.762155 -2.79086 7.87295 26 28 27 
-0.775895 0.841255 8.00604 183 159 131 
-0.760048 -2.80583 7.87178 160 157 148 
-0.736653 1.08979 7.61216 53 41 29 
-0.827119 3.75633 8.49861 202 186 163 
-0.753806 -2.81549 7.88232 179 175 164 
-0.768662 0.860181 8.01713 88 36 22 
-0.761861 3.97133 7.93253 218 209 176 
-0.76349 3.94457 7.9585 99 101 77 
-0.7484 -2.8666 7.88263 19 29 21 
-0.800713 3.74816 8.3609 200 176 138 
-0.856497 3.7735 8.91814 160 131 87 
-0.785064 0.735863 8.26315 153 123 71 
-0.801655 3.78923 8.37708 199 176 145 
-0.789344 0.6998 8.30291 152 119 76 
-0.743648 -2.87282 7.87302 186 196 188 
-0.758135 3.93144 7.96317 246 247 216 
-0.760176 3.92811 7.98264 167 158 127 
-0.761406 0.903945 8.04667 168 135 102 
-0.795794 3.80966 8.36532 213 171 121 
-0.824618 3.73501 8.73201 193 154 79 
-0.734063 -2.81863 7.88142 168 164 153 
-0.761194 3.93585 8.10619 226 208 160 
-0.733524 -2.74847 7.8861 82 82 90 
-0.757212 0.883337 8.11257 168 112 61 
-0.732148 -2.85198 7.88481 25 31 31 
-0.772578 0.720752 8.29714 205 182 140 
-0.863117 3.66861 9.19509 89 65 39 
-0.815135 3.75642 8.7167 87 64 22 
-0.72792 -2.79033 7.88403 29 25 26 
-0.748172 0.899926 8.1028 88 30 0 
-0.741821 0.847089 8.0486 187 138 108 
-0.817129 3.72654 8.79085 177 162 143 
-0.776689 3.79401 8.3845 130 95 39 
-0.79277 3.75297 8.57326 76 61 30 
-0.719213 3.99709 7.83924 144 136 99 
-0.809833 3.73694 8.79791 83 67 52 
-0.705544 4.0707 7.70345 116 94 97 
-0.768098 0.711787 8.41517 72 63 46 
-0.734182 0.833254 8.07268 187 152 132 
-0.685014 1.17393 7.52559 223 211 187 
-0.71167 -2.81719 7.85844 144 142 143 
-0.733295 0.727266 8.08005 49 46 31 
-0.766229 0.702255 8.44871 62 49 30 
-0.733942 0.910246 8.10609 201 132 57 
-0.769163 3.82098 8.43624 199 163 79 
-0.745492 3.8211 8.21436 121 88 43 
-0.730452 0.856641 8.09413 98 29 34 
-0.76432 3.80863 8.45063 90 63 16 
-0.701966 -2.8843 7.89007 169 169 171 
-0.707715 3.96297 7.88322 221 215 181 
-0.779532 3.74919 8.6592 214 167 63 
-0.757474 3.83215 8.43495 206 156 71 
-0.802657 3.73202 8.98575 190 134 51 
-0.71486 0.82505 8.09613 181 151 125 
-0.675411 4.04322 7.65713 206 185 180 
-0.716129 3.92143 8.1142 217 198 156 
-0.687907 -2.32574 7.88367 141 153 167 
-0.661936 4.06623 7.59997 241 233 212 
-0.66585 4.05329 7.63013 138 135 120 
-0.743466 3.82039 8.50183 219 166 70 
-0.754884 3.76741 8.63909 183 149 78 
-0.758701 3.75969 8.71439 65 53 39 
-0.67903 -2.44737 7.90321 135 135 137 
-0.659848 4.04457 7.64429 71 58 50 
-0.674199 -2.47621 7.89763 22 26 37 
-0.674013 -2.51555 7.89748 11 15 27 
-0.755705 3.76132 8.74757 161 147 134 
-0.721582 0.665456 8.4231 69 58 54 
-0.740514 3.76145 8.58632 167 141 84 
-0.725747 3.83526 8.42682 59 47 25 
-0.649304 4.06177 7.6305 40 39 35 
-0.730527 3.80227 8.5486 173 139 76 
-0.665431 -2.45354 7.888 10 14 17 
-0.689742 0.844664 8.14068 89 25 23 
-0.640403 -2.04706 7.61531 87 57 46 
-0.743808 3.76447 8.7378 89 75 49 
-0.751753 3.76281 8.83269 100 74 25 
-0.721504 3.84929 8.49625 60 48 26 
-0.661324 4.00398 7.84363 220 208 170 
-0.771242 3.76008 9.09068 132 101 83 
-0.653702 -2.45758 7.87101 103 107 118 
-0.727983 3.78384 8.65306 94 85 68 
-0.673747 0.798154 8.1045 174 146 122 
-0.654712 -2.84936 7.90216 150 149 154 
-0.69243 0.671131 8.33719 23 33 22 
-0.713822 3.83129 8.53049 66 54 30 
-0.708413 3.83696 8.47414 146 134 120 
-0.651025 -2.51682 7.90119 21 24 31 
-0.716201 3.80009 8.6097 94 73 54 
-0.772175 3.73243 9.25625 27 33 47 
-0.71419 3.81487 8.58402 86 68 48 
-0.625637 -1.74554 7.64791 1 3 15 
-0.720166 3.77948 8.70499 95 84 66 
-0.674064 0.940169 8.20037 95 24 0 
-0.689817 0.646179 8.39896 32 33 28 
-0.64518 4.00309 7.83478 135 123 81 
-0.657331 3.92423 8.01093 212 225 172 
-0.668958 0.694633 8.20946 53 41 29 
-0.640976 -2.53876 7.9007 144 144 146 
-0.647838 3.93294 7.91428 241 231 195 
-0.646178 3.96952 7.91239 128 134 100 
-0.666134 0.897525 8.23293 175 117 71 
-0.639059 3.96767 7.87855 220 218 180 
-0.633626 -2.38576 7.89086 89 92 107 
-0.688907 3.85878 8.4756 87 66 49 
-0.695262 3.81009 8.60889 173 166 140 
-0.695419 3.79626 8.61473 87 76 56 
-0.601854 -1.65787 7.57494 6 10 21 
-0.586987 3.99118 7.3336 119 103 104 
-0.735748 3.73548 9.10902 132 134 149 
-0.697452 3.79792 8.65983 85 69 44 
-0.627152 -2.5275 7.89638 20 15 19 
-0.627652 -2.83802 7.9064 190 191 196 
-0.647053 0.715352 8.11421 176 159 139 
-0.680854 3.82696 8.56598 86 66 39 
-0.679641 3.80723 8.55753 103 81 58 
-0.576212 3.96046 7.32108 29 24 21 
-0.619955 -2.69095 7.9276 109 109 119 
-0.650778 0.971582 8.29827 146 93 39 
-0.614553 -2.93264 7.92586 192 165 144 
-0.618486 3.94377 7.89329 97 111 78 
-0.615464 -2.75227 7.93691 107 101 111 
-0.643907 0.592645 8.39561 96 80 67 
-0.633474 3.93733 8.20807 57 45 45 
-0.638434 3.65021 8.29467 201 167 106 
-0.703689 5.60139 9.11199 94 93 101 
-0.626621 3.8851 8.33731 125 90 22 
-0.642799 3.75967 8.59876 196 162 55 
-0.689324 3.7399 9.23456 75 80 100 
-0.620662 0.806326 8.40817 57 51 55 
-0.650603 3.79858 8.7732 149 111 30 
-0.613911 0.730052 8.41641 54 40 27 
-0.610909 0.746699 8.3979 181 168 160 
-0.52177 3.99073 7.3586 60 47 56 
-0.626898 3.79855 8.76516 194 156 81 
-0.590577 3.91472 8.29771 199 151 79 
-0.591618 3.89625 8.47829 138 100 3 
-0.57749 3.91988 8.30045 123 85 23 
-0.482031 -2.79328 7.11997 106 84 71 
-0.642033 3.75696 9.31893 98 98 124 
-0.625698 3.68741 9.45426 122 118 117 
-0.514221 3.90589 8.06144 125 54 0 
-0.557787 3.82863 8.78678 107 103 94 
-0.585757 5.53504 9.26786 98 93 100 
-0.548575 3.83086 8.81709 166 165 163 
-0.538466 3.83342 8.68606 41 30 26 
-0.534454 3.83684 8.65279 103 91 91 
-0.575628 3.71923 9.4113 106 107 125 
-0.487974 3.90951 8.09127 96 49 0 
-0.529169 3.82908 8.75134 30 25 29 
-0.539223 3.8161 8.94918 37 28 47 
-0.429333 3.98078 7.31329 61 43 41 
-0.533512 3.78344 9.05817 41 29 51 
-0.519497 3.82728 9.08895 103 91 111 
-0.48632 3.85716 8.5727 122 125 130 
-0.513416 3.72846 9.11631 108 103 125 
-0.476563 3.86127 8.5037 65 63 68 
-0.522259 3.7007 9.39244 105 104 120 
-0.461288 3.84902 8.33946 117 112 106 
-0.480609 3.80366 8.75028 166 159 153 
-0.484444 3.76422 8.86149 47 49 64 
-0.353796 -2.77227 6.82254 41 25 26 
-0.441521 3.81212 8.30188 31 30 35 
-0.47023 3.77508 8.87487 139 136 153 
-0.448092 3.81647 8.57891 142 138 137 
-0.448065 3.82032 8.68744 158 156 159 
-0.486724 3.67751 9.41647 101 100 114 
-0.440339 3.83415 8.57709 144 144 146 
-0.440534 0.904538 8.71805 171 108 116 
-0.431207 0.939638 8.60108 60 11 14 
-0.451184 3.76642 8.92569 142 140 161 
-0.471421 3.68824 9.37164 104 97 115 
-0.463083 3.6719 9.38073 47 42 39 
-0.304927 -2.62816 6.78099 254 252 231 
-0.401539 3.73981 8.87009 121 115 143 
-0.388671 3.79327 8.63272 136 136 134 
-0.336871 -3.66288 7.78215 212 189 157 
-0.362093 3.85705 8.35224 97 94 85 
-0.287483 -2.89561 6.9487 48 35 26 
-0.301788 -3.71471 7.86259 192 177 158 
-0.254906 -2.19253 6.82898 166 158 155 
-0.306415 1.15528 7.98981 161 111 100 
-0.256453 -2.91761 6.88121 46 41 38 
-0.244534 -2.15911 6.77748 16 5 0 
-0.304342 1.08957 8.33768 33 6 21 
-0.28875 1.1469 8.03532 90 51 54 
-0.285353 1.01857 8.04081 51 29 31 
-0.320682 0.701783 8.94487 91 74 56 
-0.311766 3.71612 8.79849 150 113 43 
-0.222959 -2.14551 6.77301 36 21 0 
-0.228299 -3.2322 6.91252 45 44 39 
-0.304285 3.7079 8.90715 121 91 18 
-0.260362 1.1158 7.97434 76 51 57 
-0.256976 1.10261 8.00513 38 24 37 
-0.19967 -2.30163 6.62715 42 29 0 
-0.241235 1.17621 7.72793 232 202 191 
-0.201422 -2.32243 6.70093 54 39 6 
-0.205668 -2.08095 6.81093 49 29 0 
-0.246539 1.07523 7.99635 32 32 84 
-0.201908 -2.05414 6.79912 26 12 0 
-0.198553 -3.02103 6.85676 156 129 108 
-0.194488 -2.08055 6.78847 154 140 113 
-0.197175 -2.95692 6.87365 85 50 31 
-0.195586 -3.07962 6.82797 108 87 68 
-0.239061 0.970261 8.08413 126 115 121 
-0.192135 -2.10997 6.78976 32 20 0 
-0.190507 -3.09493 6.73315 103 87 71 
-0.190986 -2.09283 6.8013 22 14 0 
-0.23299 0.992655 8.11715 33 31 55 
-0.191534 -1.77651 6.89971 118 84 75 
-0.187843 -2.06636 6.81844 164 145 105 
-0.220961 1.09432 7.95293 20 25 63 
-0.181761 -2.09435 6.78988 204 194 167 
-0.18197 -3.01863 6.85315 137 104 85 
-0.184356 -2.91144 6.86555 200 180 156 
-0.1775 -2.39858 6.72188 161 135 78 
-0.183716 -1.75368 6.92868 27 7 0 
-0.215218 1.06803 7.94827 99 107 146 
-0.212853 1.14468 7.95011 16 27 73 
-0.179624 -2.98454 6.92335 85 46 17 
-0.177357 -2.04512 6.8179 15 4 0 
-0.213581 1.00589 8.08393 197 199 214 
-0.171466 -2.37897 6.72306 84 46 0 
-0.172327 -2.3873 6.82264 208 175 62 
-0.170489 -2.28667 6.7119 33 22 28 
-0.170497 -2.33103 6.73219 186 156 66 
-0.167612 -3.09115 6.686 223 203 178 
-0.168973 -2.36812 6.72031 207 166 78 
-0.169452 -2.0594 6.79289 40 22 0 
-0.170275 -2.03635 6.82488 23 9 0 
-0.167434 -3.00648 6.83065 84 52 31 
-0.205045 0.993747 8.12912 72 67 63 
-0.163237 -2.37564 6.71685 93 56 0 
-0.194401 1.06853 7.90345 112 115 156 
-0.161058 -2.93291 6.86819 90 66 42 
-0.168448 -1.59959 7.175 62 66 78 
-0.216543 0.798699 8.93514 227 180 154 
-0.184019 3.93455 7.78226 178 74 39 
-0.15241 -2.87622 6.77165 255 255 230 
-0.152684 -2.10724 6.81041 41 24 0 
-0.183465 1.02355 7.99722 192 191 209 
-0.148229 -2.37012 6.73734 196 163 86 
-0.147391 -2.36637 6.72438 169 135 64 
-0.147069 -2.35273 6.72977 179 156 115 
-0.209493 3.98064 8.99704 43 43 31 
-0.146213 -3.21937 6.75991 59 21 0 
-0.144151 -2.40724 6.70723 32 21 0 
-0.142246 -2.97531 6.79401 255 251 207 
-0.140365 -2.3145 6.71982 180 155 99 
-0.141705 -2.05114 6.82566 39 30 0 
-0.145028 -1.71869 6.96441 135 112 104 
-0.134751 -3.21665 6.75115 50 10 0 
-0.188819 0.827833 8.90983 130 79 48 
-0.132102 -2.40728 6.71617 255 255 197 
-0.134377 -2.95946 6.76806 122 89 46 
-0.134394 -2.04373 6.83699 194 186 139 
-0.13212 -3.17123 6.76035 104 64 39 
-0.130885 -2.39751 6.71302 66 32 0 
-0.133669 -2.11568 6.82641 189 167 126 
-0.130901 -2.42138 6.71558 22 4 0 
-0.131076 -2.33756 6.73983 159 146 111 
-0.133839 -2.95453 6.83363 56 21 0 
-0.159713 1.02483 8.00749 164 159 165 
-0.132582 -1.7093 6.92794 83 55 52 
-0.174512 0.811718 8.94793 216 169 141 
-0.12324 -2.133 6.84665 167 147 122 
-0.121077 -2.03915 6.79741 14 10 0 
-0.166177 0.82153 8.91665 135 88 62 
-0.116965 -3.21178 6.72233 68 30 21 
-0.117277 -2.41711 6.6972 216 199 153 
-0.118023 -3.01097 6.80834 155 117 81 
-0.11932 -2.94901 6.84197 133 91 67 
-0.114138 -2.39847 6.70599 223 198 158 
-0.116449 -1.7403 6.93753 98 70 69 
-0.10998 -2.39117 6.72143 95 71 27 
-0.112919 -2.95136 6.81031 74 33 3 
-0.112434 -2.59117 6.7292 24 19 23 
-0.139109 1.02303 8.01881 134 133 128 
-0.151652 0.18593 8.82581 32 37 56 
-0.106181 -3.20172 6.6916 144 106 83 
-0.146393 -0.0961016 8.82019 38 38 36 
-0.145733 0.152104 8.82435 37 40 59 
-0.108675 -1.77737 6.95071 129 100 94 
-0.102588 -2.34917 6.74007 148 126 76 
-0.142802 0.113334 8.66712 138 140 137 
-0.10038 -2.34706 6.67083 71 44 0 
-0.0998385 -2.92803 6.89416 47 31 31 
-0.152841 4.89502 9.59832 239 173 63 
-0.098096 -2.16493 6.8042 130 125 95 
-0.097468 -2.43731 6.72409 18 11 0 
-0.137714 0.505766 8.96131 192 182 157 
-0.096467 -2.94916 6.80991 98 55 23 
-0.0938454 -2.14618 6.79323 49 37 13 
-0.124883 -0.168199 8.76801 130 130 130 
-0.0919982 -1.76631 6.93411 41 18 12 
-0.0883653 -2.27056 6.74974 35 21 0 
-0.0877302 -2.3107 6.7436 211 202 173 
-0.120945 -0.155486 8.77691 15 15 13 
-0.086176 -2.28191 6.75605 157 142 111 
-0.118399 -0.230336 8.76285 107 108 112 
-0.0870638 -1.73769 6.91217 27 3 0 
-0.116379 -0.241499 8.73689 25 26 28 
-0.0839229 -2.4117 6.76175 31 16 9 
-0.0840084 -2.94168 6.82382 72 28 0 
-0.119162 0.838507 8.9479 169 126 109 
-0.0822734 -2.30535 6.76044 136 128 92 
-0.109284 -0.286781 8.73121 75 82 75 
-0.0971241 1.03608 8.04339 137 129 126 
-0.0765913 -2.88971 6.82405 44 40 28 
-0.102228 -0.384828 8.68506 103 34 55 
-0.0766375 -1.78466 6.99332 108 85 79 
-0.0993899 -0.411247 8.64826 91 39 52 
-0.0710713 -2.20736 6.81086 34 22 0 
-0.0969221 -0.20796 8.77517 144 144 142 
-0.0690551 -2.28417 6.75471 160 149 119 
-0.0956525 -0.2491 8.75559 131 133 132 
-0.0673538 -2.95191 6.82361 63 21 0 
-0.0664585 -2.30424 6.78589 35 20 0 
-0.0676682 -1.77419 6.96673 31 6 1 
-0.0877236 -0.493216 8.56292 94 46 62 
-0.0905918 -0.317089 8.72398 132 137 131 
-0.0626242 -2.24842 6.75536 166 153 118 
-0.0918057 0.830436 8.92553 148 101 85 
-0.0607399 -2.24313 6.77042 142 125 82 
-0.0620121 -2.20097 6.81404 48 39 0 
-0.0867485 -0.179567 8.76924 139 139 139 
-0.0851069 -0.368036 8.69533 156 113 123 
-0.0599991 -2.22664 6.79871 149 140 97 
-0.0595952 -2.28782 6.77762 41 29 3 
-0.0824396 -0.398632 8.6713 155 115 124 
-0.0572486 -2.27613 6.77542 128 116 92 
-0.0804784 -0.16023 8.79674 144 144 146 
-0.0563731 -3.01458 6.83939 143 98 65 
-0.0802728 0.635955 8.93471 198 166 151 
-0.0845702 4.02123 8.956 137 100 71 
-0.0538572 -2.21612 6.79506 62 53 20 
-0.0767798 0.592295 8.92 123 102 111 
-0.0732924 -0.233921 8.72085 24 25 27 
-0.049443 -2.26724 6.75763 34 21 0 
-0.068754 -0.350516 8.71125 77 54 60 
-0.061217 1.02913 8.02159 95 86 77 
-0.0459123 -3.02642 6.75029 166 126 100 
-0.0630421 -0.414552 8.68372 76 45 50 
-0.0628149 0.444279 8.89782 104 90 115 
-0.0382695 -2.9527 6.83645 100 55 26 
-0.054107 -0.15933 8.77979 55 55 57 
-0.0524854 -0.462444 8.64865 151 108 118 
-0.0302594 -2.23228 6.81098 125 110 91 
-0.0449498 -0.214011 8.7506 21 19 20 
-0.0285922 -3.16466 6.76041 111 67 40 
-0.0415934 -0.25131 8.74842 135 133 134 
-0.0368989 -0.349633 8.70251 78 49 53 
-0.034662 1.01859 8.10432 162 153 148 
-0.0356595 -0.218028 8.75917 88 86 87 
-0.0214593 -2.92071 6.86642 169 137 112 
-0.0334922 -0.500629 8.67281 82 47 54 
-0.021133 -2.38941 6.85408 15 9 13 
-0.0174771 -3.19935 6.73494 62 19 0 
-0.028161 -0.227939 8.75859 40 39 37 
-0.0156862 -2.23479 6.79389 135 128 102 
-0.0225826 1.06011 7.91626 173 182 215 
-0.0217713 -0.156663 8.77402 132 133 128 
-0.0196529 -0.480271 8.65536 149 107 117 
-0.0142136 4.24941 7.45002 51 40 34 
-0.0195702 3.97381 7.89145 153 61 48 
-0.0168423 1.04831 7.99084 197 192 189 
-0.00918067 -3.17916 6.79304 84 40 13 
-0.00937584 -2.99431 6.85631 150 114 90 
-0.00877584 -2.26854 6.79353 123 109 96 
-0.0170253 -0.371263 8.71809 104 40 56 
-0.00797307 -2.17347 6.82531 47 31 0 
-0.0161874 0.563468 8.901 97 60 77 
-0.00207796 -3.16303 6.76442 153 109 84 
-0.011004 -0.317179 8.74298 139 136 127 
-0.00183802 -2.27956 6.80292 120 107 91 
-0.00839444 -0.172036 8.76183 136 136 134 
-0.0082163 -0.189294 8.77225 138 138 136 
-0.00654391 -0.448357 8.69357 85 42 51 
-0.00617091 -0.420625 8.66044 131 130 128 
0.00341092 -2.21702 6.83437 60 46 1 
0.0037342 -2.22829 6.82636 167 153 118 
-0.00145413 -0.484401 8.69634 91 34 49 
0.00497892 -2.86366 6.81361 107 94 78 
-0.000578465 -0.349062 8.72726 90 53 60 
0.00526276 -0.391515 8.71373 81 55 58 
0.0127569 -2.23192 6.84528 27 15 0 
0.0114971 1.05028 7.99425 66 62 85 
0.0140541 -0.368696 8.70291 138 130 128 
0.0144195 -0.330736 8.72707 145 129 130 
0.0128872 4.01703 7.81785 199 146 42 
0.016587 -2.04987 6.90357 121 112 95 
0.0172742 1.10821 7.91 55 66 130 
0.0190704 -0.203619 8.77071 135 135 135 
0.0209342 -0.234636 8.76118 141 141 139 
0.0234034 -2.16841 6.86835 125 115 88 
0.0228392 1.03749 8.04808 190 186 177 
0.0234015 1.18232 7.45912 168 157 137 
0.0270321 -2.04553 6.93112 115 100 79 
0.0278871 -2.27237 6.81769 93 76 58 
0.0281971 -2.28361 6.82143 30 19 0 
0.0306858 -0.297653 8.75261 137 136 131 
0.0291959 -2.13402 6.89062 89 73 50 
0.0309578 -0.216196 8.77362 84 84 82 
0.0297541 -2.11338 6.9077 47 29 0 
0.0346872 -2.1244 6.89568 103 86 66 
0.0352992 -2.05235 6.93553 27 10 0 
0.0349808 1.19005 7.47665 255 253 234 
0.0398237 -0.383377 8.68235 90 44 54 
0.0425487 0.828785 8.58371 179 126 120 
0.0465842 -0.274131 8.74011 92 88 85 
0.048189 -1.65805 7.26041 100 60 25 
0.0475952 -2.69089 6.81607 22 16 18 
0.0511205 1.03465 8.07303 170 169 185 
0.0492515 -2.07177 6.94302 34 18 0 
0.0613734 -0.366504 8.7171 161 141 142 
0.0569574 -1.66077 7.27279 255 228 183 
0.0559229 -2.28208 6.87331 57 45 5 
0.0665588 -0.311402 8.74531 134 134 126 
0.0580441 -2.35684 6.83041 66 43 11 
0.0681615 -0.143467 8.80523 18 18 18 
0.0606715 -2.07516 6.93163 47 28 0 
0.073484 0.49856 8.94047 127 70 89 
0.0661168 -1.66413 7.30571 74 37 8 
0.0741041 0.465756 8.91371 59 25 39 
0.0651544 -2.2914 6.87888 39 29 0 
0.0685327 -2.36903 6.82768 124 98 49 
0.0826797 -0.186936 8.77272 142 143 138 
0.0716638 -2.34923 6.83653 43 26 0 
0.0725082 -2.40541 6.78911 43 26 0 
0.0885416 -0.246821 8.78223 134 133 129 
0.0737779 -2.3377 6.83488 39 25 0 
0.0884629 -0.475946 8.68311 154 117 124 
0.0763784 -2.13142 6.96828 27 14 0 
0.0814981 1.22296 7.6023 72 50 37 
0.0791584 -3.10851 6.93214 102 92 82 
0.0931771 -0.315487 8.75499 134 136 125 
0.0978034 -0.229647 8.75728 32 32 30 
0.0819145 -2.41847 6.81402 22 3 0 
0.0838013 -2.34318 6.81822 255 255 211 
0.103022 3.79921 9.31892 88 93 89 
0.0855166 -2.31753 6.86578 49 26 0 
0.0863386 -2.32947 6.84672 34 20 0 
0.0864631 -2.43401 6.83773 119 102 84 
0.087604 -2.39263 6.82943 255 254 201 
0.107032 -0.211383 8.77417 135 135 133 
0.0967527 -0.192982 7.82982 135 135 133 
0.1085 -0.471072 8.72049 81 38 47 
0.110252 0.486242 8.92682 52 38 51 
0.0927893 -2.11526 7.00275 117 91 74 
0.111114 0.44095 8.9219 167 85 99 
0.0986415 -1.70111 7.33585 172 148 124 
0.11284 -0.22028 8.7703 46 46 44 
0.103868 -3.29179 7.88416 120 113 105 
0.100401 1.1971 7.59609 255 255 227 
0.0934581 -2.34282 6.85882 27 12 0 
0.0938907 -2.59454 6.95513 34 19 24 
0.115473 0.220107 8.89426 122 38 71 
0.0954374 -2.14857 6.94081 25 13 0 
0.0980479 -2.15887 6.94975 140 125 106 
0.0991981 -2.14396 6.95706 125 112 93 
0.0982775 -2.31627 6.87313 130 110 77 
0.119023 -0.45635 8.68636 154 127 134 
0.110581 -3.29456 7.92155 57 53 44 
0.112627 -0.182921 7.8428 136 136 134 
0.125274 -0.240402 8.76517 136 136 134 
0.124445 -0.465059 8.69428 152 125 130 
0.129862 -0.217548 8.76958 40 40 38 
0.131143 -0.189503 8.78367 5 5 3 
0.109254 -2.1499 6.99397 34 16 0 
0.130659 3.90419 8.96429 73 73 61 
0.135991 -0.152436 8.77718 127 126 124 
0.112837 -2.35803 6.90655 34 13 0 
0.114337 -2.15975 6.94351 115 94 77 
0.142849 0.473306 8.91738 64 32 45 
0.113974 -2.41197 6.87556 120 104 79 
0.131613 -3.27087 7.93493 131 115 89 
0.117006 -2.39359 6.86931 141 121 97 
0.115925 -2.32711 6.8971 132 107 85 
0.117076 -2.38236 6.87222 33 18 0 
0.145363 -0.15311 8.78828 36 35 33 
0.120663 -2.33945 6.90858 45 23 0 
0.150167 -0.448774 8.71284 164 123 129 
0.151603 -0.340377 8.74213 87 47 56 
0.124098 -2.40408 6.88841 63 43 10 
0.125213 -2.35072 6.91679 80 58 44 
0.15307 -0.267023 8.77066 85 85 85 
0.154292 -0.460309 8.70544 76 39 47 
0.138645 1.2432 7.70313 165 113 100 
0.128473 -2.40635 6.87408 146 120 103 
0.132345 -2.37624 6.88661 139 107 92 
0.136585 -2.34759 6.8941 37 8 0 
0.178596 3.30801 9.39877 23 19 18 
0.173035 -0.21634 8.78134 137 138 132 
0.173436 -0.375949 8.72873 154 125 130 
0.176256 -0.440585 8.73497 83 36 44 
0.145947 -2.33835 6.87849 140 108 85 
0.192245 -0.264448 8.76353 78 79 74 
0.176922 1.21236 7.99483 205 144 113 
0.20466 0.42771 8.90645 153 46 72 
0.202667 -0.493706 8.68507 147 121 120 
0.21111 -0.139498 8.7936 149 149 147 
0.196432 1.21091 8.03176 196 117 104 
0.216042 -0.130016 8.80321 17 18 13 
0.216086 -0.201925 8.77933 20 20 18 
0.217367 -0.495461 8.70571 78 37 43 
0.21784 -0.482082 8.70992 101 40 58 
0.187518 -2.83792 7.14416 78 43 41 
0.229119 -0.372678 8.79475 90 55 59 
0.229946 -0.491641 8.7036 153 131 133 
0.235295 0.0179088 8.81553 59 68 73 
0.238797 -0.199187 8.80863 137 138 133 
0.237024 -0.402429 8.75905 142 137 131 
0.219644 -3.2787 7.915 75 61 34 
0.244539 0.404158 8.90237 151 47 84 
0.243468 -0.13633 8.79735 139 140 135 
0.201435 -2.82056 7.13515 164 141 135 
0.244539 -0.337542 8.77868 146 131 128 
0.22282 1.21453 7.9691 182 133 92 
0.246348 -0.358778 8.7951 155 125 127 
0.232293 1.18733 8.10907 128 72 75 
0.252449 -0.379079 8.74049 92 47 54 
0.241552 3.92255 8.43149 34 26 23 
0.239341 1.19417 8.05795 141 76 80 
0.26714 -0.152839 8.79452 46 47 42 
0.269539 0.326148 8.88579 34 17 33 
0.265752 -0.130915 8.80716 54 54 52 
0.244693 1.22015 8.0031 135 90 48 
0.275573 0.902234 8.97499 197 154 138 
0.25095 1.19745 8.05635 56 17 20 
0.274342 -0.215368 8.75812 40 43 34 
0.230036 -2.81771 7.11138 204 180 154 
0.282826 -0.389446 8.7382 147 133 132 
0.291475 0.891822 8.99759 58 20 0 
0.2867 -0.352457 8.74665 142 131 129 
0.287087 -0.375797 8.72806 77 55 58 
0.305551 0.459676 8.90714 120 115 138 
0.30539 0.417542 8.90639 59 25 60 
0.268591 4.05976 7.70821 120 125 118 
0.30965 -0.126415 8.84243 153 153 151 
0.254919 -2.74703 7.13833 88 65 49 
0.307527 -0.335099 8.75611 98 51 57 
0.316289 0.884694 8.99343 60 25 5 
0.311521 0.0583561 8.80785 57 64 72 
0.312669 -0.368978 8.73265 93 52 58 
0.319338 0.375926 8.90316 34 20 33 
0.262499 -2.73899 7.13392 193 172 153 
0.326807 0.885191 9.00323 185 150 130 
0.334721 -0.190683 8.78834 136 138 133 
0.272444 -2.6632 7.0781 80 35 56 
0.339841 0.42469 8.91124 190 161 155 
0.336389 -0.167935 8.78829 134 137 130 
0.345521 0.349232 8.88677 50 22 36 
0.34476 0.882686 8.74036 170 123 117 
0.282868 -2.69719 7.06372 204 181 150 
0.351984 0.3012 8.89733 38 29 46 
0.283616 -2.67856 7.04393 200 173 156 
0.357605 0.854968 8.99305 189 149 123 
0.349924 -0.174466 8.81135 138 139 134 
0.349303 -0.369325 8.76698 82 39 46 
0.360402 0.391884 8.93034 173 155 143 
0.359402 0.264961 8.87797 163 163 151 
0.32849 1.16683 8.07304 162 147 128 
0.358489 -0.195936 8.77465 125 125 123 
0.370092 0.912147 9.02656 167 124 117 
0.363318 -0.369923 8.71017 151 124 129 
0.337454 1.19853 8.10022 26 17 12 
0.372223 0.408467 8.92085 172 168 167 
0.369433 -0.123801 8.81319 136 137 132 
0.299362 -2.67304 7.05793 76 41 35 
0.379861 0.876871 8.99875 67 24 15 
0.375324 -0.133468 8.78443 36 37 32 
0.381456 0.423082 8.91978 53 42 56 
0.306591 -2.82084 7.0267 240 180 169 
0.350748 1.14392 8.06217 219 188 168 
0.385295 0.158448 8.86759 133 136 141 
0.385015 0.185423 8.84559 36 43 69 
0.35322 1.07524 8.09053 170 149 120 
0.383225 0.238277 8.83205 41 46 76 
0.3093 -2.63693 6.99878 205 179 162 
0.352944 1.12141 8.05799 132 108 82 
0.35718 1.07367 8.11611 204 184 157 
0.385735 -0.195579 8.77355 28 27 23 
0.392089 0.511495 8.90401 87 46 64 
0.388268 -0.177807 8.7733 26 25 23 
0.39632 0.564244 8.94739 115 64 71 
0.392418 -0.38259 8.74548 84 41 51 
0.404127 0.5037 8.96795 89 50 79 
0.32188 -2.59369 7.0174 225 202 170 
0.373 1.12555 8.19155 215 191 163 
0.371294 1.20767 8.10223 35 17 13 
0.404296 -0.168543 8.78563 134 136 131 
0.406971 -0.378656 8.76501 164 134 142 
0.332248 -2.90895 7.04104 248 181 155 
0.411387 -0.341602 8.76771 145 127 127 
0.413655 -0.182793 8.77992 60 62 57 
0.37963 1.14271 8.03597 146 119 98 
0.337307 -2.86811 7.04505 178 16 29 
0.377467 1.24472 7.90217 173 135 116 
0.342229 -3.17108 7.11003 52 35 41 
0.423915 -0.203366 8.79705 143 145 142 
0.392022 1.08122 8.07694 239 215 181 
0.353934 -3.22991 7.18306 190 173 147 
0.394272 1.11691 8.03688 255 217 181 
0.433437 -0.318548 8.76919 90 61 66 
0.403529 1.08057 8.10995 244 213 193 
0.436896 -0.359292 8.75388 104 58 71 
0.405236 1.21216 8.08311 37 24 18 
0.438712 -0.385936 8.74474 73 59 58 
0.407508 1.08763 8.09583 247 209 190 
0.404158 1.11253 8.03537 131 47 21 
0.454896 0.736547 9.03418 195 163 150 
0.40837 1.0996 8.04887 122 43 28 
0.412879 1.08883 8.06573 110 51 35 
0.41653 1.15385 8.04344 201 98 83 
0.41761 1.09407 8.04938 223 145 125 
0.459184 -0.185433 8.79241 116 117 119 
0.423148 1.13614 8.0121 103 1 0 
0.468057 -0.177085 8.81782 48 50 49 
0.427381 1.16227 8.02622 97 31 15 
0.430855 1.1447 8.00748 180 115 87 
0.386531 -2.089 7.12515 164 145 112 
0.480825 0.126114 8.89134 28 38 63 
0.436109 1.12753 8.0251 191 123 102 
0.388605 -2.36336 7.08779 189 166 122 
0.479622 -0.183452 8.82458 57 59 56 
0.439279 1.15882 8.04091 82 58 20 
0.389257 -2.57689 7.06574 126 69 86 
0.493163 0.739721 9.02792 95 72 78 
0.386581 -2.86069 7.00384 232 211 168 
0.443445 1.13698 8.04735 71 26 0 
0.442927 1.12428 8.05194 56 10 0 
0.396883 -2.08249 7.11154 187 168 138 
0.39163 -2.87156 7.04376 228 205 171 
0.445646 1.09909 8.05488 203 139 129 
0.399768 -2.13584 7.12631 140 128 86 
0.398762 -2.33884 7.06459 246 229 185 
0.450099 1.15183 8.02846 189 185 114 
0.453192 1.22236 8.08565 20 14 18 
0.452797 1.13243 8.02639 201 198 127 
0.408372 -3.35936 7.16382 189 173 157 
0.403347 -2.30197 7.04007 60 40 29 
0.40664 -2.3404 7.09034 53 36 6 
0.458954 1.17263 8.03372 21 26 0 
0.460242 1.1076 8.04826 220 207 139 
0.462281 1.18312 8.03854 142 139 108 
0.411579 -2.09112 7.11346 29 12 0 
0.466224 1.08469 8.09032 214 199 166 
0.461359 1.14508 8.03712 32 41 0 
0.465093 1.18976 8.0298 32 32 0 
0.414806 -2.12141 7.08057 28 18 0 
0.423021 -1.77306 7.19407 63 26 0 
0.471964 1.14609 8.0248 41 44 0 
0.47228 1.12943 8.0227 92 87 6 
0.419972 -2.4277 7.06522 199 172 127 
0.518843 -0.340454 8.79116 135 97 108 
0.474741 1.15962 8.01872 142 147 53 
0.420855 -2.32837 7.06561 53 40 8 
0.441118 -3.36745 7.42612 229 206 175 
0.425683 -2.11281 7.09685 22 7 0 
0.4804 1.15595 8.03087 184 191 96 
0.424785 -2.42093 7.04457 207 180 137 
0.47936 1.17243 8.00316 51 52 0 
0.481102 1.19391 8.02565 49 47 22 
0.428769 -2.12553 7.09827 252 243 202 
0.425161 -3.0996 7.00748 228 208 173 
0.485503 1.11413 8.03713 199 202 99 
0.430081 -2.16018 7.06853 172 151 122 
0.437889 -3.38461 7.17102 61 94 101 
0.532311 -0.316388 8.79014 79 44 51 
0.435918 -2.06324 7.14493 154 138 102 
0.436523 -2.1165 7.10998 96 79 59 
0.433067 -2.40405 7.04302 248 219 153 
0.492084 1.2048 8.04636 137 127 117 
0.435458 -2.17109 7.08507 196 177 145 
0.488358 1.25261 7.97399 68 42 29 
0.494019 1.1115 8.05671 207 205 118 
0.492532 1.13896 8.01882 119 115 51 
0.441334 -2.04395 7.11731 169 145 109 
0.437117 -2.41634 7.03073 185 161 125 
0.495869 1.14865 8.01496 189 184 154 
0.436995 -2.42648 6.98888 77 58 51 
0.439117 -2.40299 7.01678 92 63 3 
0.446608 -2.05745 7.12921 41 24 0 
0.44332 -3.40679 7.10923 71 96 92 
0.444218 -2.16374 7.08122 23 7 0 
0.50026 1.18558 8.02213 15 0 0 
0.453618 -1.77776 7.20619 214 180 134 
0.448424 -2.03663 7.12592 46 16 5 
0.448558 -2.14613 7.07608 38 22 0 
0.452008 -2.13886 7.10308 33 12 0 
0.508657 1.1076 8.03009 235 228 158 
0.50804 1.17528 8.01131 196 167 159 
0.507961 1.15623 8.01072 30 12 0 
0.456437 -1.73665 7.15874 52 13 0 
0.508609 1.1306 8.01549 244 228 179 
0.456921 -2.0618 7.12771 18 0 0 
0.454111 -2.41355 7.03742 73 44 0 
0.520096 1.10015 8.07156 224 220 156 
0.456906 -2.36241 7.04068 56 41 0 
0.451135 -2.56569 6.94749 234 215 175 
0.458997 -2.42636 7.01826 81 70 38 
0.523771 1.19227 8.00585 30 2 0 
0.524688 1.21233 8.04417 92 63 57 
0.465948 -2.0733 7.07728 199 185 138 
0.462894 -2.37071 7.01672 192 167 113 
0.522829 1.15607 7.97895 225 123 119 
0.469621 -2.12944 7.11434 54 39 10 
0.475723 -1.70731 7.20348 134 92 78 
0.578003 -0.317452 8.80006 89 53 57 
0.471782 -3.47025 7.13534 202 181 154 
0.529147 1.24827 8.02294 103 66 39 
0.467625 -2.42527 7.02888 191 177 132 
0.48044 -1.72712 7.21641 74 32 18 
0.468471 -2.35798 7.03994 63 53 0 
0.475921 -3.42276 7.14222 229 221 200 
0.473882 -2.14679 7.0773 152 134 94 
0.468574 -2.43196 7.01222 93 82 37 
0.477881 -2.06693 7.14911 37 11 0 
0.47541 -2.07361 7.08419 41 18 2 
0.48684 -1.72159 7.25113 66 24 8 
0.609956 0.957624 9.12883 53 19 33 
0.487329 -1.74426 7.21711 60 23 0 
0.538962 1.17852 7.98343 183 105 92 
0.481476 -2.03937 7.11101 45 19 18 
0.59408 -0.316098 8.82159 146 117 119 
0.478235 -2.41153 7.04155 55 38 0 
0.477281 -2.42178 7.02563 51 35 0 
0.480728 -2.13679 7.07287 51 39 1 
0.671521 3.38388 9.98485 117 110 100 
0.478396 -2.36475 7.02641 73 53 2 
0.480533 -2.3596 7.04337 179 165 118 
0.598781 -0.333301 8.83962 146 113 120 
0.543478 1.16311 8.01077 157 48 27 
0.493279 -1.7761 7.22927 73 39 0 
0.543404 1.25134 7.99418 81 50 19 
0.493458 -1.72111 7.22733 163 121 99 
0.480065 -2.38296 7.02242 176 148 74 
0.482976 -2.35475 7.06048 54 41 0 
0.494734 -1.72868 7.21611 67 25 0 
0.547759 1.1409 8.01167 110 48 1 
0.487479 -3.46004 7.08756 200 197 164 
0.616522 0.938417 9.0169 116 82 96 
0.621957 0.929924 9.05658 35 2 13 
0.552242 1.15617 8.01699 203 117 94 
0.490565 -2.14689 7.07287 36 28 0 
0.488226 -2.31791 7.03544 210 188 141 
0.500524 -1.76978 7.19272 213 178 124 
0.502307 -1.7221 7.21389 160 118 93 
0.49376 -2.13423 7.08173 80 69 24 
0.559911 1.13218 8.01195 219 194 137 
0.498636 -2.17058 7.08214 202 188 143 
0.501087 -2.32868 7.05415 73 49 3 
0.502049 -2.15255 7.0797 59 44 5 
0.504467 -2.30171 7.13427 255 255 192 
0.582109 1.08896 8.2323 37 17 19 
0.626244 -0.335584 8.83406 99 59 67 
0.569125 1.25176 8.00086 185 150 110 
0.499847 -3.33849 7.01516 230 211 171 
0.572234 1.22687 8.03357 147 89 75 
0.627986 -0.323374 8.84251 153 116 123 
0.571202 1.12441 8.00052 69 54 0 
0.50959 -2.35209 7.05893 52 40 0 
0.580946 1.10944 8.05883 188 179 110 
0.583987 1.15443 7.96916 97 57 21 
0.519578 -2.11504 7.05632 31 4 0 
0.587509 1.17874 7.98972 122 49 32 
0.651898 -0.355068 8.86095 76 47 51 
0.535347 -1.72867 7.22597 47 9 0 
0.536354 -1.76852 7.21558 126 97 55 
0.528865 -2.19546 7.08098 94 78 53 
0.671902 0.899204 9.0332 150 87 95 
0.659511 -0.340059 8.83944 129 120 113 
0.543314 -1.77946 7.21418 47 15 0 
0.599011 1.15617 7.99637 221 209 123 
0.530936 -2.24048 7.04815 198 177 114 
0.53228 -3.4738 7.06493 57 103 56 
0.604512 1.11899 8.03457 208 211 96 
0.534134 -2.22423 7.05375 191 173 127 
0.536351 -2.21589 7.06385 52 34 0 
0.54117 -2.21124 7.07973 177 154 122 
0.552663 -1.73431 7.21868 176 143 112 
0.542008 -2.27962 7.05124 149 135 98 
0.545752 -2.24764 7.09971 55 37 0 
0.612635 1.12711 7.98489 202 223 86 
0.694426 0.762965 9.04815 157 100 106 
0.540762 -3.212 7.00671 206 66 75 
0.546398 -2.26703 7.04964 209 192 104 
0.630297 1.11059 8.16498 158 129 29 
0.703922 0.874256 9.09219 140 92 106 
0.690394 -0.0835481 8.87078 92 90 78 
0.553007 -2.20978 7.08148 156 137 95 
0.642725 1.09863 8.23233 131 104 17 
0.554292 -2.28184 7.06993 62 46 0 
0.557356 -2.22001 7.07374 245 228 174 
0.570959 -1.70539 7.24513 110 70 70 
0.712129 0.940602 9.05901 137 86 95 
0.662985 1.09953 8.34398 108 88 35 
0.709412 0.0714786 8.95458 106 68 83 
0.56585 -2.20862 7.08811 51 36 0 
0.557331 -3.01229 6.96733 156 43 73 
0.566026 -2.27045 7.07674 68 48 0 
0.636634 1.19379 7.98056 135 42 25 
0.565389 -2.25016 7.05849 160 135 68 
0.657247 1.09231 8.22946 217 200 130 
0.569027 -2.18384 7.07902 49 27 0 
0.641039 1.20684 7.99093 119 31 21 
0.72721 0.964558 9.08878 95 67 81 
0.580717 -1.75076 7.20831 46 12 0 
0.570534 -2.24214 7.06985 64 43 0 
0.73374 0.307546 9.13777 36 26 37 
0.655037 1.12283 8.13698 79 72 0 
0.793044 3.35401 9.9106 6 8 20 
0.661739 1.09618 8.20578 70 51 0 
0.575869 -2.26915 7.064 237 223 174 
0.737577 0.961566 9.07763 26 5 12 
0.579043 -2.19148 7.06724 91 68 1 
0.743933 0.888555 9.14378 81 66 73 
0.738194 0.955613 9.03693 40 20 29 
0.654434 1.17151 7.98317 248 218 180 
0.672827 1.08926 8.20215 140 129 99 
0.672429 1.09471 8.18521 53 41 0 
0.578676 -3.0424 6.96882 92 45 53 
0.662517 1.14281 7.99315 32 23 0 
0.662968 1.15608 7.9691 109 76 43 
0.679999 1.11469 8.13433 218 205 101 
0.594463 -3.28998 7.06881 238 214 178 
0.596807 -2.13052 7.0649 34 7 0 
0.595433 -2.22333 7.04784 44 23 0 
0.593877 -2.96075 6.98231 174 53 84 
0.604456 -2.23077 7.10543 52 24 0 
0.597539 -3.25692 7.02497 245 212 181 
0.677066 1.19812 7.97165 211 162 157 
0.680978 1.13183 8.01045 224 222 181 
0.604767 -2.12156 7.07785 54 21 2 
0.678971 1.228 7.98178 104 77 68 
0.677487 1.20875 7.95654 34 1 0 
0.68716 1.14624 7.9949 206 179 150 
0.686044 1.23851 7.97863 36 0 0 
0.602694 -2.62974 6.94998 236 210 185 
0.693844 1.27752 8.00285 188 107 80 
0.693826 1.13563 7.99742 45 35 0 
0.613325 -2.26519 7.04481 117 100 80 
0.624184 -2.18121 7.11979 138 119 89 
0.623169 -2.13797 7.08422 178 163 132 
0.610996 -3.00489 6.93386 129 43 92 
0.613889 -2.96303 6.94691 246 208 195 
0.612249 -2.68462 6.90852 242 220 197 
0.614762 -2.69379 6.93636 242 221 200 
0.705055 1.19605 7.96575 19 0 0 
0.637114 -2.03395 7.17056 55 19 7 
0.621429 -2.50892 6.99164 68 57 51 
0.71397 1.15289 8.01521 39 23 7 
0.70191 1.26722 7.84612 70 67 78 
0.712561 1.19892 7.94364 233 205 181 
0.626358 -2.64522 6.95962 254 214 202 
0.647767 -2.06781 7.17255 52 34 10 
0.816024 0.899962 9.06397 132 68 84 
0.644343 -3.68226 7.10969 227 212 183 
0.653411 -2.05902 7.16733 165 148 128 
0.828043 0.640123 9.08614 56 51 55 
0.749071 1.10084 8.18923 100 96 95 
0.658247 -2.04677 7.14722 29 12 0 
0.660648 -2.06866 7.16525 40 24 0 
0.655347 -2.26919 7.08153 161 142 109 
0.824729 0.513244 8.9636 150 72 88 
0.666458 -2.03191 7.16884 70 23 15 
0.762625 1.09929 8.2428 140 128 132 
0.659735 -2.15303 7.08692 32 17 0 
0.759767 1.10169 8.19296 112 97 76 
0.744296 1.25927 8.01172 186 162 128 
0.739881 1.27931 7.94937 190 177 124 
0.695588 -1.59272 7.4658 17 7 8 
0.673769 -1.96459 7.18429 199 149 150 
0.65283 -2.69037 6.94609 128 81 91 
0.67235 -3.89124 7.13725 233 210 179 
0.667289 -3.64247 7.07125 230 222 199 
0.671 -2.34354 7.08395 90 84 52 
0.855002 0.812176 9.06766 196 159 141 
0.68419 -2.05412 7.20413 64 22 8 
0.855573 0.609646 9.06461 72 72 72 
0.757507 1.26368 7.98842 48 33 14 
0.675858 -2.29431 7.09592 29 11 0 
0.678163 -3.75947 7.12953 91 74 46 
0.671928 -2.17534 7.05493 33 5 0 
0.670055 -2.17022 7.03403 26 0 0 
0.860493 0.748679 9.07478 132 99 68 
0.680372 -2.09466 7.13184 101 86 65 
0.786218 1.10536 8.26488 223 193 63 
0.681645 -2.26809 7.11894 39 6 1 
0.783333 1.10765 8.17463 225 188 22 
0.684263 -3.69903 7.10311 57 98 58 
0.775815 1.24969 8.04857 35 27 24 
0.688605 -2.30209 7.11392 169 148 121 
0.690285 -2.0928 7.1384 21 8 0 
0.690698 -3.82328 7.14764 206 28 40 
0.692664 -2.15374 7.16719 40 24 1 
0.778154 1.27384 8.03387 161 135 102 
0.703104 -2.02491 7.24024 79 17 20 
0.687752 -2.32636 7.06911 43 33 0 
0.700502 -2.08109 7.187 158 137 110 
0.699032 -2.08625 7.16565 44 22 1 
0.859921 -0.482119 8.84457 116 115 110 
