ply                 
format ascii 1.0    
element vertex 1293
property float x    
property float y    
property float z    
property uchar red  
property uchar green
property uchar blue 
end_header          
1.00174 1.01493 8.13732 164 142 119 
0.63725 -2.2397 6.90694 255 252 180 
1.04874 1.23908 7.80245 234 185 83 
0.694921 -2.27891 6.8886 215 192 150 
1.11615 1.0396 8.14067 66 42 18 
1.10204 1.07421 7.98423 184 173 143 
1.09073 1.23246 7.76699 218 115 20 
1.13136 1.08158 7.86954 227 193 60 
1.16729 1.08701 8.00067 209 194 161 
1.15365 1.10372 7.89888 140 85 2 
1.1791 1.08543 7.93712 226 200 175 
1.17853 1.10522 7.87622 79 56 2 
1.21434 1.03521 8.09707 145 126 112 
0.768252 -2.46542 6.82466 80 71 56 
1.20838 1.21437 7.77477 237 191 10 
1.22245 1.23567 7.83056 239 190 10 
1.24969 0.989786 8.10357 121 103 89 
1.26554 1.09265 8.10733 228 199 9 
1.2757 1.06417 8.16086 119 100 86 
0.785795 -2.53672 6.80745 237 210 181 
1.25807 1.24493 7.85492 40 19 2 
1.2674 1.08549 7.98192 165 144 0 
1.28083 1.09054 8.01659 180 156 6 
1.31615 1.08657 8.18745 89 46 27 
1.27637 1.24145 7.83958 47 31 16 
0.820865 -2.53931 6.85682 190 80 81 
1.2918 1.22508 7.87932 104 77 56 
1.29823 1.2885 7.83635 213 168 109 
1.3296 1.24723 7.85099 146 119 90 
1.36734 1.00096 7.96925 194 173 144 
1.43661 1.28057 7.89242 90 33 14 
1.48581 1.24943 8.12986 51 24 17 
1.45688 1.27266 7.87662 177 91 58 
1.06276 -2.04868 7.14145 219 184 4 
1.70727 1.12828 9.20416 25 16 17 
1.53499 1.23524 8.18438 146 93 77 
1.48594 1.32284 7.78094 209 129 130 
1.55292 1.25033 8.12735 149 88 87 
1.48776 1.29572 7.71551 82 34 30 
1.57168 1.24466 8.16589 94 33 28 
1.53887 1.27746 7.93293 207 143 107 
1.53277 1.28805 7.89135 141 95 43 
1.57437 1.298 7.96 200 154 104 
1.79188 0.849848 9.11165 79 73 61 
1.58805 1.30493 7.86991 161 125 91 
1.66914 1.04401 8.11706 145 125 116 
1.64598 1.30501 7.82493 202 160 100 
1.65788 1.25529 7.7919 160 57 40 
1.97618 2.56039 8.36567 199 183 168 
1.38262 -1.10173 6.92353 228 193 112 
1.40246 -1.50701 7.11805 86 81 41 
1.47676 -2.12785 6.96017 229 204 15 
1.62029 -1.47174 6.72791 70 74 59 
1.99354 -2.5619 7.46807 215 198 170 
2.03399 -2.58154 7.47362 52 56 57 
2.03088 -2.70256 7.46103 44 39 45 
2.02302 -2.75392 7.45172 54 46 44 
2.0643 -2.69638 7.48223 114 111 102 
2.08431 -2.58341 7.48095 19 19 19 
2.09177 -2.86458 7.45997 52 38 29 
2.15242 -2.65718 7.49109 75 66 71 
2.22565 -2.56773 7.52932 205 191 164 
2.26763 -2.61437 7.52279 40 38 39 
2.40057 -2.38757 7.50319 204 179 157 
-1.89591 -0.639404 7.5824 3 43 94 
-1.68393 1.01941 7.4181 129 124 118 
-1.65957 0.875575 7.44248 53 54 56 
-1.6359 0.969986 7.42372 143 129 126 
-1.98106 3.21461 9.3157 162 160 161 
-1.56406 1.01474 7.45624 38 37 53 
-1.34578 0.972462 7.00397 83 92 107 
-1.32575 1.02222 7.01205 73 82 97 
-1.30274 1.03124 7.01403 10 19 34 
-1.2896 0.995263 6.99698 12 21 38 
-1.26734 1.07783 7.02582 18 25 41 
-1.24945 0.995677 7.00273 74 82 95 
-1.25117 1.03647 7.01556 13 19 33 
-1.23522 0.84916 6.94896 91 100 115 
-1.24463 1.04778 7.02097 109 106 123 
-1.22576 0.84752 6.9557 2 10 23 
-1.22786 1.00334 7.0123 21 24 39 
-1.21213 0.873295 6.96715 63 66 81 
-1.21834 0.986212 7.0065 25 31 45 
-1.43453 3.57951 8.1741 23 33 43 
-1.19169 0.846719 6.96917 105 114 129 
-1.20325 1.02617 7.03519 48 56 69 
-1.19499 1.04664 7.05394 90 96 110 
-1.17398 0.847406 6.97586 5 14 29 
-1.17796 0.970201 7.03416 5 17 31 
-1.18442 1.05561 7.07068 17 25 38 
-1.32418 3.63259 8.09176 24 33 40 
-1.20375 3.66789 7.44254 42 76 103 
-1.38626 3.54283 8.58156 123 104 35 
-1.38648 3.51775 8.65337 110 86 26 
-1.35998 3.53819 8.57611 134 104 32 
-1.38593 3.50395 8.75709 112 72 21 
-1.35865 3.50956 8.66496 126 100 39 
-1.36956 3.50413 8.74361 180 151 85 
-1.35333 3.51521 8.65076 173 148 84 
-1.30626 3.57823 8.39645 205 184 93 
-1.3118 3.55893 8.46726 217 185 84 
-1.31691 3.55422 8.50674 155 120 30 
-1.29898 3.5764 8.4242 130 107 31 
-1.33484 3.51255 8.6821 109 84 17 
-1.27408 3.60985 8.27367 110 120 109 
-1.29262 3.58142 8.40233 144 127 49 
-1.14337 3.66604 7.4474 29 47 61 
-1.31857 3.51865 8.6249 212 166 55 
-1.31027 3.53531 8.59337 137 100 12 
-1.22965 3.62579 8.0626 33 58 54 
-1.26311 3.60384 8.28272 44 51 35 
-1.21066 3.66917 7.95767 71 71 19 
-1.30426 3.51794 8.59372 223 182 90 
-1.27073 3.58678 8.38068 121 108 40 
-1.29481 3.53106 8.57762 185 158 81 
-1.28493 3.54041 8.51531 198 172 98 
-1.27023 3.57964 8.42389 189 164 100 
-1.20718 3.6544 8.00296 119 136 118 
-1.18467 0.570062 7.95955 151 147 146 
-1.25826 3.58796 8.38317 186 173 95 
-1.27265 3.54025 8.50956 145 118 47 
-1.26261 3.53719 8.53187 155 128 39 
-1.23765 3.57741 8.3987 207 187 88 
-1.25293 3.54503 8.51129 215 186 94 
-1.3512 3.4324 9.19614 105 95 83 
-1.21824 3.58733 8.31269 77 89 77 
-1.18834 3.61548 8.12647 141 143 129 
-1.20497 3.59688 8.25661 59 61 47 
-1.17329 3.63684 8.03745 202 202 178 
-1.23801 3.5582 8.50302 132 103 23 
-1.16726 3.65317 8.01028 193 197 180 
-1.19238 3.60215 8.23553 61 63 52 
-1.1953 3.59111 8.26902 32 46 23 
-1.17683 3.60061 8.13651 136 141 111 
-1.14998 3.65544 7.96056 195 194 166 
-1.12833 3.67194 7.84944 138 137 116 
-1.2196 3.52609 8.55376 156 115 10 
-1.22368 3.51574 8.58436 166 123 18 
-1.11387 3.66407 7.8445 58 57 52 
-1.15096 3.62059 8.10553 37 45 24 
-1.10332 3.68515 7.78201 128 127 109 
-1.16764 3.58481 8.2519 43 52 25 
-1.19302 3.56472 8.42229 193 157 47 
-1.11549 3.66947 7.89365 127 128 110 
-1.13453 3.61957 8.0796 123 128 105 
-1.09962 3.67994 7.83464 131 133 112 
-1.14891 3.59979 8.1968 199 197 172 
-1.13367 3.62169 8.1031 186 195 168 
-1.12206 3.62155 8.09652 194 200 172 
-1.1078 3.58564 8.21112 41 53 39 
-1.07323 3.63323 7.96667 129 125 98 
-1.08207 3.62394 8.08366 80 84 61 
-1.10254 3.57946 8.29055 205 186 83 
-1.03752 3.66065 7.83922 135 139 124 
-1.04477 3.66178 7.93161 126 126 102 
-1.04368 3.6603 7.92078 135 133 112 
-1.05947 3.62845 8.0437 176 176 142 
-1.07997 3.59385 8.20709 30 39 36 
-1.03997 3.64742 7.97459 50 52 41 
-1.11522 3.50963 8.5759 152 116 22 
-0.967229 0.915108 7.61279 224 204 180 
-1.07738 3.56463 8.40204 143 109 19 
-1.04438 3.6087 8.15435 24 28 27 
-0.962151 1.02384 7.61477 195 176 159 
-1.01813 3.63451 7.97187 184 187 178 
-1.0737 3.56262 8.43069 218 182 86 
-1.03999 3.58457 8.21583 38 48 11 
-1.01069 3.64302 8.02535 21 27 23 
-1.019 3.62617 8.11377 192 191 161 
-1.02121 3.59902 8.15512 21 31 32 
-1.02565 3.60186 8.21231 26 33 2 
-0.997868 3.63911 7.98652 20 36 35 
-1.02684 3.58595 8.22499 144 152 79 
-0.994695 3.62369 7.99966 157 166 161 
-0.967047 3.60402 8.22118 199 191 152 
-0.967264 3.59422 8.28878 133 122 104 
-0.948874 3.60736 8.21293 100 93 77 
-0.925905 3.63016 8.13468 216 201 178 
-0.89317 3.60248 8.24683 143 139 128 
-0.842881 3.761 7.76923 246 245 201 
-0.847253 3.59156 8.37928 176 164 148 
-0.840616 3.596 8.44048 204 181 139 
-0.812577 3.62047 8.31077 202 186 163 
-0.788521 3.65145 8.18835 199 176 145 
-0.809074 3.59837 8.53757 193 154 79 
-0.812317 3.58487 8.61899 103 82 51 
-0.800937 3.62214 8.52902 87 64 22 
-0.803141 3.59374 8.60335 177 162 143 
-0.783084 3.63391 8.42161 76 61 30 
-0.800299 3.57429 8.63921 210 157 79 
-0.794896 3.59895 8.59904 83 67 52 
-0.704278 3.78785 7.61805 144 141 108 
-0.756497 3.68251 8.24718 199 163 79 
-0.787595 3.60204 8.58966 154 140 114 
-0.751203 3.66618 8.25159 90 63 16 
-0.767015 3.618 8.47864 214 167 63 
-0.774364 3.60411 8.57526 169 162 136 
-0.77459 3.60251 8.59431 79 68 40 
-0.752301 3.65398 8.35002 180 144 86 
-0.776317 3.6106 8.60233 115 103 77 
-0.762616 3.61922 8.55057 98 83 54 
-0.661183 3.85607 7.39988 206 185 180 
-0.700962 3.75608 7.88084 217 198 156 
-0.735188 3.6603 8.32917 160 116 43 
-0.761776 3.61165 8.64386 114 83 19 
-0.731025 3.68105 8.30934 219 166 70 
-0.741572 3.63027 8.44661 183 149 78 
-0.794665 3.57458 9.04864 91 82 75 
-0.746468 3.62717 8.53025 65 53 39 
-0.669594 3.7703 7.71025 228 229 187 
-0.74633 3.60589 8.65742 185 149 71 
-0.635899 3.87198 7.37025 40 39 35 
-0.718239 3.66227 8.35269 173 139 76 
-0.731994 3.62719 8.54271 89 75 49 
-0.738275 3.62348 8.63115 100 74 25 
-0.759684 3.63444 8.91731 132 101 83 
-0.71576 3.64961 8.46764 94 85 68 
-0.650294 3.80409 7.66229 229 217 179 
-0.723465 3.62613 8.58043 174 150 104 
-0.704561 3.66329 8.4202 94 73 54 
-0.698133 3.64406 8.31874 86 68 48 
-0.687155 3.68815 8.35521 168 163 133 
-0.629153 3.80187 7.65194 220 218 180 
-0.727855 3.62068 8.95961 132 134 149 
-0.686167 3.65426 8.45315 85 69 44 
-0.641855 3.78378 8.05901 186 150 88 
-0.60862 3.78443 7.67739 97 111 78 
-0.688084 3.63977 8.83828 32 33 51 
-0.613392 3.78738 7.91653 184 174 138 
-0.660937 3.65703 8.59868 194 163 96 
-0.619396 3.75194 8.16408 125 90 22 
-0.665208 3.62181 8.9412 28 30 45 
-0.570887 3.77592 7.67336 224 210 181 
-0.629489 3.6699 8.53694 138 102 6 
-0.639969 3.63172 8.76649 28 30 43 
-0.620453 3.68002 8.6141 194 156 81 
-0.65639 3.5761 9.10469 21 29 42 
-0.581988 3.76649 8.09452 199 151 79 
-0.608426 3.68131 8.46655 157 114 1 
-0.598429 3.72993 8.35676 141 106 14 
-0.656826 3.56718 9.15775 24 25 45 
-0.542583 3.74657 7.68805 42 70 47 
-0.583127 3.7534 8.28234 138 100 3 
-0.628531 3.59847 9.06092 98 98 124 
-0.567974 3.76133 8.20455 193 153 68 
-0.592491 3.69563 8.63538 27 31 32 
-0.518302 3.81479 7.56812 206 172 12 
-0.581285 3.69088 8.5711 29 32 37 
-0.614777 3.55913 9.19445 57 56 62 
-0.537108 3.7531 8.13072 196 158 61 
-0.470386 3.79126 7.10857 100 84 84 
-0.507424 3.74636 7.8386 125 54 0 
-0.544943 3.69548 8.5079 164 164 156 
-0.53225 3.69917 8.50171 41 30 26 
-0.528717 3.70563 8.47643 103 91 91 
-0.529683 3.69019 8.60029 20 21 23 
-0.480978 3.75197 7.87267 96 49 0 
-0.532336 3.66621 8.72385 37 28 47 
-0.505026 3.71975 8.35965 147 143 144 
-0.491671 3.72504 8.13717 155 148 142 
-0.525194 3.63833 8.83913 41 29 51 
-0.49354 3.68998 8.57129 25 24 29 
-0.507912 3.58662 8.899 108 103 125 
-0.514863 3.55139 9.151 105 104 120 
-0.498303 3.61256 8.84975 111 99 121 
-0.465788 0.33831 8.561 219 194 154 
-0.476667 3.67995 8.58691 166 159 153 
-0.479183 3.67617 8.62226 47 43 40 
-0.469769 3.69409 8.48142 136 135 130 
-0.491001 3.59009 8.88334 117 114 135 
-0.473378 3.66648 8.63069 145 141 142 
-0.446061 3.69617 8.37398 136 135 140 
-0.485408 3.5537 9.14347 108 107 121 
-0.452668 3.6657 8.66113 31 35 36 
-0.4226 0.877741 8.42512 60 11 14 
-0.44565 3.61482 8.6922 142 140 161 
-0.460984 3.56083 8.97544 28 30 45 
-0.464199 3.54882 9.15397 104 97 115 
-0.461304 3.52336 9.18724 40 33 27 
-0.42981 3.63638 8.63853 150 149 145 
-0.413032 3.62929 8.63844 165 165 165 
-0.424936 3.56415 8.93971 100 102 115 
-0.405767 3.64184 8.58096 118 117 112 
-0.399401 3.60944 8.68503 121 115 143 
-0.394207 3.62046 8.64053 167 168 173 
-0.411496 3.60256 9.01755 64 45 41 
-0.382942 3.6446 8.4191 130 130 130 
-0.365112 3.58592 8.70658 68 48 47 
-0.347184 0.680315 8.6973 80 71 64 
-0.336354 3.59171 8.64824 209 175 88 
-0.33631 3.5837 8.67546 127 100 21 
-0.317905 3.57011 8.68199 131 105 56 
-0.309617 3.58489 8.61207 150 113 43 
-0.279414 3.57889 8.63186 199 158 70 
-0.20907 3.78113 7.57816 87 78 11 
-0.183137 3.79558 7.63016 255 138 140 
-0.171825 3.79436 7.63288 188 94 94 
-0.155837 3.8925 7.58294 194 143 26 
-0.155499 3.79747 7.60383 175 66 43 
-0.150047 3.82276 7.57972 203 164 11 
-0.140991 1.00063 7.6891 16 24 70 
-0.147367 3.79408 7.7603 243 149 150 
-0.138994 3.79216 7.61458 251 147 136 
-0.13874 3.79932 7.78823 177 65 61 
-0.127578 3.79605 7.6018 175 64 19 
-0.128828 -0.213557 8.48923 12 12 12 
-0.124858 3.85926 7.58343 140 24 25 
-0.126415 -0.250708 8.47978 29 30 32 
-0.126627 0.0545807 8.55956 135 137 132 
-0.120865 -0.321107 8.45378 61 63 58 
-0.115971 -0.393038 8.42652 143 133 131 
-0.116851 -0.18934 8.49401 15 15 13 
-0.110892 -0.290328 8.4737 138 139 134 
-0.104743 3.87689 7.59128 191 112 107 
-0.097168 -0.258569 8.48785 112 113 117 
-0.0942018 3.8868 7.58991 205 114 121 
-0.0913414 -0.280084 8.47997 131 133 132 
-0.097229 3.86771 8.62557 78 42 26 
-0.0807745 -0.395363 8.43759 156 113 123 
-0.0844183 3.88375 7.58864 136 45 50 
-0.0932539 3.89944 8.46686 55 37 23 
-0.0799476 -0.255315 8.48161 139 139 139 
-0.0787151 -0.425129 8.42654 155 115 124 
-0.088885 3.86329 8.72358 137 100 71 
-0.0733923 3.88723 7.5893 200 114 115 
-0.0689163 3.859 7.59139 128 48 23 
-0.0766353 3.84281 8.78806 87 47 21 
-0.0495556 -0.48721 8.40915 151 108 118 
-0.0507962 3.7924 7.65366 158 40 56 
-0.0412734 -0.236286 8.48945 150 149 145 
-0.0553088 3.84687 8.75628 89 44 23 
-0.0351028 -0.477827 8.41008 93 43 54 
-0.0357451 -0.265525 8.48406 129 127 128 
-0.0304142 -0.469273 8.42373 70 45 48 
-0.0465575 3.87233 8.60798 52 46 24 
-0.0302645 -0.523592 8.41624 82 47 54 
-0.0302227 3.87608 7.59409 203 128 123 
-0.0297215 3.80718 7.72953 192 100 125 
-0.0278635 3.81118 7.66876 153 61 48 
-0.0160001 -0.493626 8.41768 151 105 116 
-0.0254214 3.80476 7.70708 164 56 72 
-0.00929752 -0.318773 8.46889 140 145 138 
-0.00782418 -0.20544 8.49759 136 136 134 
-0.00441058 -0.472424 8.42116 85 42 51 
0.00140947 -0.507039 8.41905 91 34 49 
-0.00371934 3.88587 7.59799 126 41 38 
0.014945 -0.395955 8.44709 138 130 128 
0.0149132 -0.35867 8.46291 145 129 130 
0.0200683 -0.235879 8.49282 135 135 135 
0.0215999 -0.30532 8.48266 78 79 74 
0.0300996 -0.454816 8.43449 131 136 132 
0.030927 -0.326489 8.46891 137 136 131 
0.0187513 3.81799 7.86685 137 137 129 
0.0344594 -0.50824 8.42247 84 34 46 
0.0195907 3.81363 7.87678 52 40 0 
0.0248056 3.82913 7.62367 222 203 15 
0.0269462 3.81751 7.64959 223 195 95 
0.031799 3.81685 7.66512 74 54 3 
0.0583634 -0.186485 8.50547 123 122 127 
0.0697574 -0.201813 8.50417 19 19 17 
0.0685798 0.267796 8.57722 34 20 35 
0.0800072 -0.30428 8.48253 117 119 116 
0.0758386 -2.31131 6.62844 43 26 0 
0.0927294 -0.20025 8.50844 35 35 33 
0.0926182 0.478766 8.61236 144 80 96 
0.099726 -0.183912 8.51343 130 130 130 
0.0902538 -2.38302 6.60116 119 102 84 
0.105845 -0.172957 8.51179 37 37 35 
0.105574 0.468111 8.61851 88 27 45 
0.0983804 3.8106 8.67206 25 25 15 
0.108885 -0.233892 8.50061 17 17 17 
0.109323 -0.25162 8.50082 46 46 44 
0.117152 -0.480891 8.43567 154 127 134 
0.118558 -0.17105 8.51629 136 136 134 
0.124179 -0.298521 8.49455 52 52 52 
0.125842 -0.389169 8.47011 100 46 60 
0.132419 0.446201 8.61557 130 67 86 
0.134302 0.417291 8.61558 64 32 45 
0.140693 -0.186552 8.51232 36 35 33 
0.128345 3.87938 8.22697 18 20 6 
0.136974 3.75198 8.72925 110 111 97 
0.156084 -0.215199 8.50726 141 142 137 
0.164813 -0.17394 8.5197 29 29 27 
0.165382 -0.382298 8.46132 151 112 117 
0.169782 -0.402661 8.46996 154 125 130 
0.171665 -0.183819 8.51598 132 133 128 
0.173135 -0.274537 8.49552 136 137 131 
0.173983 -0.231094 8.50023 17 17 15 
0.176243 -0.252764 8.50291 19 20 14 
0.181846 0.293813 8.59646 92 53 74 
0.18527 -0.171131 8.50764 138 139 134 
0.196142 0.372978 8.60601 153 46 72 
0.189789 3.72104 8.7577 25 29 15 
0.204284 -0.173497 8.51365 149 149 147 
0.223585 0.846119 8.68888 100 50 53 
0.226548 -0.0212485 8.53623 59 68 73 
0.231344 -0.23089 8.5123 137 138 133 
0.239268 -0.224631 8.50791 17 18 13 
0.240924 -0.0215131 8.55011 131 139 142 
0.246537 -0.156689 8.51593 146 147 142 
0.227415 3.78689 8.24956 34 26 23 
0.248933 -0.18262 8.50947 142 142 140 
0.260661 -0.4188 8.47424 83 42 50 
0.266812 -0.24729 8.50651 40 43 34 
0.242383 3.81786 8.03054 110 113 104 
0.257708 3.78699 8.33152 11 9 12 
0.255867 3.80913 8.17254 71 61 62 
0.284538 -0.158282 8.51202 16 17 11 
0.290523 0.404571 8.60418 120 115 138 
0.29182 0.363464 8.59796 59 25 60 
0.294589 -0.22012 8.50033 39 40 35 
0.299762 0.0181817 8.53407 57 64 72 
0.272757 3.82085 8.07606 61 60 56 
0.304415 -0.209465 8.5049 139 144 138 
0.306185 0.322832 8.59382 34 20 33 
0.305898 -0.224504 8.50531 54 59 53 
0.280209 3.79415 8.04921 8 4 5 
0.276787 3.83161 7.88912 118 122 108 
0.283789 3.81682 8.04822 17 16 21 
0.323796 -0.222538 8.50369 136 138 133 
0.298604 3.83053 8.0205 97 103 91 
0.330414 0.297753 8.57949 50 22 36 
0.331751 -0.154985 8.51582 27 27 25 
0.337181 0.251362 8.58705 38 29 46 
0.289427 3.87509 7.48292 127 131 116 
0.344299 0.216935 8.57311 163 163 151 
0.355753 0.319627 8.60262 57 64 72 
0.357927 -0.213337 8.50166 17 17 15 
0.362055 0.45468 8.63643 190 171 156 
0.362833 -0.167328 8.50749 36 37 32 
0.371388 0.114141 8.57132 133 136 141 
0.371474 -0.143571 8.51443 137 138 133 
0.344613 1.00223 7.89068 204 184 157 
0.373819 -0.227434 8.50314 28 27 23 
0.376395 0.456602 8.63421 87 46 64 
0.376154 -0.210395 8.50112 26 25 23 
0.379697 0.505933 8.65389 115 64 71 
0.382567 -0.219515 8.50676 138 138 136 
0.385559 0.44612 8.64538 89 50 79 
0.389142 -0.211047 8.50362 22 22 20 
0.394955 -0.403961 8.48261 164 134 142 
0.399746 -0.169071 8.51932 112 114 111 
0.413268 -0.217154 8.50934 128 130 127 
0.377892 1.18498 7.70778 174 112 101 
0.389529 1.04286 7.82572 131 47 21 
0.392948 1.02925 7.83094 122 43 28 
0.402441 1.02413 7.83343 223 145 125 
0.411138 1.09185 7.8203 97 31 15 
0.420312 1.05747 7.81531 191 123 102 
0.372304 -2.4834 6.72693 126 69 86 
0.436164 1.06163 7.81177 201 198 127 
0.441454 1.09943 7.81218 21 26 0 
0.444568 1.10902 7.81381 142 139 108 
0.455127 1.07322 7.8006 41 44 0 
0.456943 1.08799 7.80368 142 147 53 
0.463828 1.06562 7.80148 221 221 123 
0.474223 1.13054 7.82471 137 127 117 
0.474194 1.0382 7.81956 207 205 118 
0.489597 1.10372 7.79926 196 167 159 
0.441958 -2.36374 6.80074 73 44 0 
0.504612 1.11939 7.79299 30 2 0 
0.452955 -2.37422 6.79436 191 177 132 
0.571042 0.88962 8.73237 43 0 0 
0.586125 0.815179 8.78231 28 5 13 
0.519571 1.10789 7.78076 183 105 92 
0.528409 1.06924 7.79253 110 48 1 
0.59488 0.858889 8.75618 35 2 13 
0.532294 1.08276 7.78949 203 117 94 
0.5524 1.07171 7.78627 70 45 0 
0.58594 5.31613 8.28224 58 43 36 
0.631647 0.895311 8.7495 96 36 44 
0.507794 -2.22918 6.87237 195 170 129 
0.513827 -2.20454 6.87063 49 30 0 
0.577138 1.08406 7.77593 221 209 123 
0.529059 -2.25392 6.83991 58 45 13 
0.614495 1.12121 7.76519 135 42 25 
0.700819 0.871424 8.78711 23 0 3 
0.760182 3.20707 9.6252 6 8 20 
0.706065 0.889289 8.77339 26 5 12 
0.640292 1.07209 7.77944 32 23 0 
0.641919 1.05976 7.79169 37 41 0 
0.641333 1.08681 7.76731 109 76 43 
0.644353 1.07822 7.77253 216 195 166 
0.654187 1.12521 7.75584 211 162 157 
0.657752 1.06057 7.79101 224 222 181 
0.66359 1.07457 7.77633 206 179 150 
0.75755 0.677487 8.75819 127 75 79 
0.67079 1.0983 7.74471 166 112 102 
0.682018 1.12405 7.7555 19 0 0 
0.68872 1.07911 7.78248 39 23 7 
0.783475 0.832268 8.77981 132 68 84 
0.793703 0.57804 8.76315 56 51 55 
0.796442 0.0575157 8.67951 58 35 45 
0.715218 1.19741 7.79061 86 64 25 
0.825799 0.751176 8.82505 196 159 141 
0.819835 0.550006 8.75191 72 72 72 
0.657015 -2.28202 6.8654 255 251 212 
0.827078 0.57755 8.76383 158 150 137 
0.753249 1.03564 7.93792 225 188 22 
0.833048 0.0470802 8.7061 133 133 121 
0.888234 -2.43801 8.44404 38 3 1 
0.940292 0.248175 8.44896 42 26 10 
0.883015 1.15365 7.86362 194 154 0 
1.27614 0.745637 8.94454 172 146 123 
1.17904 1.08582 7.93155 217 192 170 
1.51086 2.83373 9.59542 166 156 144 
1.30953 1.25704 7.83428 59 35 9 
1.32938 1.24455 7.83622 151 125 92 
1.42001 4.05303 8.341 68 64 55 
1.43178 0.997411 8.06774 133 111 97 
1.6189 3.63535 8.96115 12 13 18 
1.57022 1.24196 8.14895 87 21 23 
1.64433 3.7652 8.38293 30 25 29 
1.50298 -1.80367 6.99452 9 5 2 
1.84228 0.894811 8.53955 50 47 42 
1.88398 3.14717 8.3716 78 75 70 
-1.24579 0.326316 8.31216 198 178 169 
-1.17724 0.449988 8.22085 232 209 168 
-0.930605 3.45015 8.73388 203 176 147 
-0.890269 3.54812 8.54469 151 96 14 
-0.808014 3.74787 7.94288 12 10 24 
-0.969769 3.39871 9.19772 44 41 68 
-0.849808 3.59076 8.37679 175 160 153 
-0.881442 3.48879 8.77947 122 116 120 
-0.813512 3.61798 8.30669 210 194 171 
-0.782114 3.66449 8.16517 226 183 132 
-0.813945 3.61236 8.49509 145 122 68 
-0.805992 3.62119 8.44946 154 131 89 
-0.801844 3.62031 8.52567 84 57 14 
-0.804369 3.59184 8.59975 193 177 151 
-0.771395 3.65195 8.35528 76 55 34 
-0.757027 3.68034 8.24391 211 167 92 
-0.837819 0.525888 8.08712 119 88 59 
-0.795548 3.59491 8.59262 72 58 32 
-0.76749 3.63418 8.40873 195 164 99 
-0.744049 3.68305 8.22771 199 143 60 
-0.69984 3.74201 7.86366 219 196 154 
-0.756975 3.65075 8.35772 192 165 98 
-0.733771 3.70077 8.18863 84 61 45 
-0.778501 3.60928 8.5577 90 74 48 
-0.768349 3.61737 8.47686 213 170 68 
-0.748469 3.67053 8.32369 199 166 87 
-0.776069 3.60221 8.57148 183 173 148 
-0.669854 3.75435 7.69078 220 224 187 
-0.722547 3.70153 8.18276 148 130 118 
-0.731973 3.6771 8.30339 215 169 57 
-0.720555 3.69376 8.21327 58 41 23 
-0.742301 3.62702 8.44139 204 165 90 
-0.763155 3.60522 8.63356 128 86 38 
-0.715089 3.69104 8.2283 51 36 13 
-0.747923 3.62538 8.52679 69 58 38 
-0.784278 0.681936 8.01406 170 133 89 
-0.7438 3.62477 8.55498 167 155 131 
-0.719077 3.65791 8.3462 183 149 86 
-0.795615 3.56761 9.03702 95 85 76 
-0.775958 3.60198 8.88296 111 76 36 
-0.698817 3.70853 8.24095 84 70 61 
-0.733084 3.62488 8.55447 96 81 48 
-0.732426 3.6253 8.53979 96 81 58 
-0.739177 3.61828 8.62298 100 67 14 
-0.788919 3.58712 9.08208 15 16 21 
-0.771695 3.56741 8.9205 107 98 81 
-0.701531 3.67933 8.31579 60 51 34 
-0.774942 3.57528 8.98984 23 20 29 
-0.761541 3.63551 8.9176 129 99 71 
-0.688884 3.70757 8.25705 192 177 154 
-0.70511 3.66132 8.41698 107 91 68 
-0.724334 3.62564 8.57926 200 173 118 
-0.691744 3.69518 8.31387 79 72 64 
-0.681726 3.71481 8.25478 78 59 29 
-0.697352 3.66809 8.40352 194 182 158 
-0.678419 3.7108 8.27051 69 54 25 
-0.695501 3.65241 8.46219 216 201 180 
-0.633872 3.77965 7.9137 67 51 28 
-0.666869 3.71208 8.29583 165 142 100 
-0.71641 3.61225 8.81425 134 130 153 
-0.730258 3.62802 8.96923 129 128 146 
-0.710336 0.790964 7.87208 93 28 26 
-0.613026 3.77044 7.8956 190 177 133 
-0.676099 1.05574 7.77772 129 117 101 
-0.570692 3.76388 7.65899 208 204 167 
-0.69084 3.64476 8.84388 28 34 50 
-0.614604 3.76527 8.10578 132 87 2 
-0.506934 3.76305 7.05506 35 25 33 
-0.570433 3.74379 7.89507 168 142 31 
-0.661413 3.63034 8.82309 80 84 96 
-0.511865 3.88588 7.36732 205 129 139 
-0.594278 3.74243 8.20113 213 167 45 
-0.582455 3.75974 8.08565 197 165 82 
-0.542333 3.73494 7.67418 31 74 47 
-0.666374 3.62552 8.94567 25 29 41 
-0.620155 3.66199 8.47666 140 99 9 
-0.637102 3.65459 8.67919 108 114 138 
-0.651025 3.64332 8.85356 31 33 48 
-0.599428 3.72287 8.34669 132 100 1 
-0.642123 3.63255 8.76645 24 23 39 
-0.547903 3.73276 7.80452 219 190 148 
-0.572229 3.75674 8.08611 191 153 72 
-0.650296 3.63662 8.86609 73 72 88 
-0.65806 0.876098 8.00058 106 34 0 
-0.622099 3.68686 8.62264 205 166 75 
-0.583828 3.74868 8.27565 142 111 20 
-0.470713 3.75844 7.0729 111 85 86 
-0.569198 3.75754 8.19879 201 165 79 
-0.657949 3.56007 9.07893 21 24 41 
-0.565418 3.75296 8.15654 132 90 16 
-0.531641 3.73595 7.81763 52 24 0 
-0.66605 0.594916 8.13426 61 67 63 
-0.659405 3.56684 9.15588 20 23 38 
-0.525592 3.74063 7.79293 237 211 184 
-0.593973 3.6906 8.62724 27 34 42 
-0.51416 3.73417 7.83833 239 190 71 
-0.62822 3.58366 9.03846 99 99 123 
-0.516456 3.73402 7.87215 226 199 24 
-0.537262 3.73693 8.10966 203 162 70 
-0.63662 3.56559 9.15289 87 85 107 
-0.503585 3.74126 7.80357 92 42 0 
-0.617988 0.5864 7.96853 70 61 44 
-0.621617 0.528543 8.11959 82 69 50 
-0.48439 3.74196 7.79084 227 202 37 
-0.546349 3.69289 8.50341 185 176 179 
-0.538163 3.69988 8.45413 176 173 166 
-0.538837 3.6934 8.52481 148 139 134 
-0.48055 3.74163 7.86004 90 49 0 
-0.533188 3.6983 8.49991 32 20 20 
-0.529091 3.70775 8.47894 65 57 46 
-0.533 3.69349 8.58126 185 185 177 
-0.492941 3.72356 8.13461 171 165 167 
-0.532101 3.68496 8.59154 24 27 18 
-0.566554 3.58946 8.94276 114 108 134 
-0.456438 3.75173 7.74878 241 222 180 
-0.501126 3.7192 8.32724 168 164 163 
-0.529149 3.67151 8.68048 117 118 138 
-0.523909 3.69224 8.64323 25 26 30 
-0.530728 3.66187 8.7186 23 20 37 
-0.489372 3.71617 8.33693 175 175 175 
-0.525988 3.63004 8.82647 40 26 51 
-0.506775 3.68179 8.6246 12 13 15 
-0.472443 3.7238 8.28761 32 30 31 
-0.478988 3.69044 8.38047 22 25 30 
-0.496979 3.68135 8.62896 187 187 187 
-0.458205 3.70705 8.14608 136 132 133 
-0.470939 3.69521 8.48223 167 167 165 
-0.50887 3.5807 8.89006 111 106 128 
-0.481335 3.67508 8.61948 27 30 23 
-0.478191 3.68348 8.59084 155 156 150 
-0.461542 3.68122 8.53129 59 57 58 
-0.513719 3.54444 9.14102 109 108 124 
-0.464313 3.66302 8.58869 160 160 160 
-0.466549 3.64182 8.68661 142 140 154 
-0.447142 3.68993 8.46927 53 49 46 
-0.442934 3.68915 8.4264 43 46 37 
-0.454314 3.66066 8.65283 22 25 30 
-0.445627 3.60531 8.67877 147 143 166 
-0.462713 3.54758 8.95465 22 27 33 
-0.465739 3.54057 9.14009 96 97 115 
-0.40247 3.64829 8.40283 17 18 22 
-0.414918 3.62892 8.63672 181 179 182 
-0.4334 3.5726 8.85886 116 113 140 
-0.407458 3.63793 8.57437 111 110 108 
-0.400788 3.60908 8.68388 126 126 150 
-0.395993 3.62113 8.64033 179 177 180 
-0.386075 3.62163 8.64475 22 23 25 
-0.361931 3.63093 8.4347 26 27 31 
-0.352695 3.57664 8.71934 218 173 80 
-0.337949 3.59223 8.64783 211 176 84 
-0.33866 3.58973 8.68252 126 96 6 
-0.328645 3.58628 8.65849 213 179 107 
-0.340142 3.54707 8.9748 152 128 84 
-0.319962 3.5697 8.68011 131 102 46 
-0.31072 3.58309 8.60855 151 116 58 
-0.296628 3.58858 8.52418 217 169 58 
-0.294741 3.57831 8.60502 146 109 31 
-0.209928 3.76798 7.56263 74 69 3 
-0.319903 1.02695 7.93789 59 27 32 
-0.211078 3.78335 7.79426 220 191 149 
-0.313377 0.891323 7.84636 43 22 19 
-0.186006 3.78109 7.58277 177 70 36 
-0.184477 3.78445 7.61662 255 151 155 
-0.276257 3.54355 9.38745 40 42 63 
-0.333293 0.831494 8.57651 207 123 138 
-0.206049 3.66365 8.12846 82 55 36 
-0.172847 3.7838 7.62002 179 79 81 
-0.180477 3.78463 7.86746 224 206 182 
-0.157237 3.87094 7.55781 187 140 24 
-0.267298 1.02925 7.8068 165 134 132 
-0.157281 3.781 7.58426 176 64 44 
-0.152755 3.80286 7.55565 207 167 10 
-0.252766 1.03326 7.79908 24 13 30 
-0.138602 3.87996 7.57144 139 30 27 
-0.140342 3.78772 7.7737 169 59 58 
-0.126129 3.8453 7.56698 135 22 28 
-0.129105 3.78544 7.58896 172 63 30 
-0.271699 0.700694 8.62999 228 193 139 
-0.105231 3.86597 7.57897 199 116 108 
-0.21304 1.03453 7.74642 106 110 148 
-0.210847 1.08149 7.77552 14 26 68 
-0.095558 3.86763 7.56772 217 136 133 
-0.0972049 3.84093 7.57149 122 36 23 
-0.208579 0.937594 7.86697 204 205 210 
-0.126597 3.87325 8.60215 115 86 68 
-0.0865273 3.89621 7.5715 138 75 68 
-0.112907 3.85959 8.5642 64 33 13 
-0.0748445 3.87177 7.57128 218 132 135 
-0.0739056 3.8617 7.56719 198 114 114 
-0.0716741 3.84015 7.56871 132 56 24 
-0.0701922 3.89554 7.56807 161 92 85 
-0.180256 0.95695 7.79329 186 187 207 
-0.177013 0.949125 7.80734 52 49 56 
-0.0978767 3.85906 8.61371 75 43 22 
-0.0589614 3.78841 7.63582 171 75 37 
-0.0615439 3.7981 7.74366 157 74 92 
-0.0900633 3.85044 8.70558 138 97 77 
-0.0490606 3.85433 7.57 206 126 117 
-0.0515691 3.77764 7.6361 173 53 65 
-0.0522036 3.79928 7.71462 120 2 26 
-0.0789609 3.83006 8.76963 103 57 31 
-0.0730648 3.84431 8.75618 148 103 80 
-0.0318657 3.86074 7.57605 210 126 116 
-0.137601 1.01687 7.7043 127 136 179 
-0.0307515 3.7978 7.71812 220 115 129 
-0.0222 3.84221 7.56626 137 62 20 
-0.0267095 3.7957 7.6959 143 41 55 
-0.134295 0.958683 7.7829 60 56 73 
-0.168623 0.75276 8.62216 118 71 53 
-0.0487526 3.86416 8.59614 56 54 29 
-0.0440805 3.82997 8.79732 147 102 61 
-0.00570875 3.86809 7.5771 108 33 28 
-0.00112647 3.85547 7.57053 198 109 101 
-0.158183 0.257249 8.57537 33 36 51 
0.00934972 3.7974 7.68873 98 25 36 
-0.148923 0.139183 8.55124 32 34 59 
-0.121065 0.798705 8.61814 192 149 133 
-0.134154 0.439468 8.6169 194 183 155 
0.0162718 3.80459 7.86441 51 44 18 
0.0166778 3.80698 7.85268 143 135 124 
0.018983 3.8113 7.87392 48 34 0 
0.0293245 3.80713 7.65292 57 40 0 
-0.131219 -0.194114 8.48091 32 32 30 
0.0313208 3.93567 8.26885 12 14 11 
0.0435921 3.80349 7.69363 169 136 65 
-0.113798 -0.248066 8.47133 146 145 143 
0.046192 3.80777 8.79744 40 51 37 
-0.0970282 -0.266223 8.45171 141 141 141 
-0.0944942 -0.437777 8.42113 91 38 48 
-0.0855759 -0.191033 8.48322 11 11 9 
0.0655389 3.81883 8.66597 22 24 10 
0.072353 3.78588 8.7261 30 31 25 
-0.0183826 0.976648 7.76298 209 194 191 
-0.0749928 -0.230599 8.49505 134 136 133 
-0.0714101 -0.249523 8.47704 21 23 20 
-0.0634217 -0.315303 8.45747 130 129 125 
0.0895209 3.78466 8.74821 110 110 102 
-0.0678009 -0.49244 8.39133 149 129 130 
0.096351 3.80904 8.66866 27 28 22 
-0.0570342 -0.249168 8.47358 42 47 43 
-0.0515862 -0.421552 8.43125 146 131 134 
-0.045561 -0.319117 8.44874 54 52 53 
-0.0406527 -0.283861 8.47255 137 137 137 
0.0128104 0.959688 7.88266 177 169 167 
0.126314 3.87914 8.22567 16 18 5 
-0.0307943 -0.236747 8.48266 45 47 44 
-0.0293216 -0.320372 8.46518 139 139 139 
-0.00740558 0.297404 8.54475 64 10 33 
-0.00580567 -0.183791 8.48927 138 138 138 
-0.0086904 -0.348101 8.45526 134 139 132 
0.159366 3.94486 7.61677 78 85 77 
0.155895 3.86619 8.16932 52 43 46 
0.159279 3.93475 7.60569 78 85 78 
-0.00461348 -0.266501 8.47846 130 128 129 
0.163697 3.94055 7.63733 64 71 63 
0.164522 3.82192 8.2347 19 10 1 
0.00683113 -0.261598 8.48527 34 32 33 
0.0134284 -0.250627 8.48568 144 144 144 
0.175591 3.84786 8.08629 15 14 12 
0.190691 3.72202 8.77635 19 25 15 
0.0424586 -0.178103 8.49906 139 139 137 
0.205985 3.82598 8.10795 64 54 53 
0.106745 1.18096 7.44876 63 13 2 
0.0509432 -0.358341 8.47574 147 131 132 
0.0609107 -0.247718 8.49144 139 139 139 
0.0645924 -0.231784 8.49014 143 143 141 
0.227553 3.78713 8.24989 29 25 16 
0.0729125 -0.264339 8.49007 13 12 10 
0.240734 3.81161 8.02213 121 129 118 
0.24315 3.78296 8.26827 59 59 51 
0.0772719 -0.490619 8.431 92 39 49 
0.254067 3.8064 8.16812 74 59 52 
0.250745 3.84778 7.421 130 137 129 
0.255596 3.7923 8.07823 76 64 48 
0.104154 -0.26163 8.48507 138 137 132 
0.273124 3.80524 7.85675 122 128 114 
0.12083 -0.271085 8.50817 138 137 132 
0.281267 3.80749 8.03573 15 16 11 
0.130872 -0.174192 8.50517 23 22 18 
0.285935 3.86162 7.46685 129 136 128 
0.133463 -0.379584 8.47156 169 123 133 
0.294966 3.81552 8.00068 100 101 96 
0.198456 1.12392 7.89756 177 92 99 
0.148556 -0.474421 8.44206 165 122 131 
0.172437 -0.466721 8.43789 99 41 56 
0.230141 1.01823 7.88511 25 26 31 
0.232189 1.11749 7.89951 47 12 16 
0.234751 1.14721 7.79223 133 89 44 
0.196368 -0.254498 8.49677 133 134 129 
0.242177 1.12999 7.86661 55 15 13 
0.192755 -0.489858 8.44623 150 119 127 
0.207722 -0.228781 8.49425 2 2 0 
0.371131 3.94348 8.09027 24 25 30 
0.214212 -0.462608 8.45081 95 47 61 
0.219772 -0.37033 8.47103 89 52 59 
0.271626 1.12866 7.87398 102 98 89 
0.226287 -0.45876 8.45408 74 49 55 
0.236155 -0.244467 8.49075 24 26 23 
0.251951 -0.153168 8.50318 23 24 19 
0.416501 3.59517 8.87501 67 74 84 
0.267336 -0.0241308 8.51279 138 137 132 
0.263311 -0.156372 8.50059 150 150 148 
0.258484 -0.365007 8.46921 91 34 49 
0.272755 0.00543891 8.52845 87 95 97 
0.280152 0.0374368 8.55474 28 28 36 
0.31254 1.15126 7.79027 62 54 67 
0.280049 -0.222197 8.49669 23 21 24 
0.281648 -0.239215 8.49655 22 21 19 
0.286075 -0.230335 8.49608 130 128 129 
0.340867 1.15207 7.82462 164 154 144 
0.344867 1.14207 7.861 161 149 137 
0.340497 1.00398 7.8644 173 153 120 
0.346653 1.14765 7.84949 72 58 45 
0.346418 1.00273 7.89325 222 203 171 
0.336834 0.246133 8.56962 26 21 28 
0.321928 -0.171733 8.50262 140 141 136 
0.345235 0.332748 8.60165 186 173 157 
0.356296 1.13061 7.86909 33 19 10 
0.350561 0.109029 8.54593 140 136 135 
0.337859 -0.376147 8.47809 98 33 53 
0.347888 -0.179962 8.49716 11 12 7 
0.340968 -0.356709 8.475 87 31 40 
0.376531 1.08816 7.83389 219 182 163 
0.367831 0.190983 8.56251 36 42 66 
0.379452 1.06344 7.8316 247 209 188 
0.370592 0.109777 8.55487 134 134 136 
0.379966 1.04741 7.82373 255 219 199 
0.365705 -0.220917 8.49624 78 80 77 
0.393814 1.02997 7.83365 117 42 23 
0.398675 1.01865 7.84747 109 41 18 
0.403036 1.02475 7.83559 223 126 110 
0.408544 1.07098 7.82349 109 8 0 
0.407696 1.01283 7.84958 218 136 122 
0.381492 -0.410019 8.4713 86 35 50 
0.405551 -0.152852 8.50084 21 23 18 
0.424877 1.04022 7.82051 216 132 130 
0.426187 1.068 7.80732 83 59 21 
0.433659 1.08075 7.81253 184 185 127 
0.41311 -0.402414 8.46833 153 128 131 
0.44641 1.10969 7.8171 127 121 87 
0.444025 1.03628 7.82588 230 222 159 
0.444879 1.01805 7.84528 76 55 2 
0.446444 1.08021 7.80345 183 187 111 
0.420056 -0.348685 8.472 94 59 65 
0.450923 0.931046 7.90344 250 234 209 
0.455409 1.07249 7.79938 53 55 0 
0.458313 1.08937 7.80821 137 138 60 
0.460758 1.11722 7.82282 135 134 90 
0.463916 1.10597 7.81211 44 43 0 
0.289872 -2.1441 6.96545 146 117 119 
0.449906 -0.235037 8.51181 143 145 142 
0.475498 1.13093 7.82675 155 144 138 
0.45566 -0.226202 8.52177 34 36 35 
0.476686 1.0543 7.81046 112 108 37 
0.482467 1.11333 7.80606 19 6 0 
0.487593 1.16966 7.83755 170 149 132 
0.489071 1.02345 7.86923 243 216 187 
0.490408 1.08586 7.79956 46 24 10 
0.490949 1.06074 7.8027 247 234 190 
0.498161 1.17033 7.82168 79 53 30 
0.496917 1.04302 7.82822 192 185 117 
0.602874 3.67791 7.65092 116 121 115 
0.505773 1.0604 7.79467 255 227 172 
0.524655 1.09042 7.78993 133 25 15 
0.528951 1.06932 7.79339 117 55 16 
0.532612 1.08176 7.78785 219 134 113 
0.516158 -0.345558 8.51808 83 50 57 
0.539999 1.06087 7.79311 227 202 145 
0.545164 1.03895 7.819 98 92 8 
0.554534 1.15133 7.81092 154 88 72 
0.549396 1.08229 7.78796 255 209 172 
0.552405 1.05665 7.79858 47 40 0 
0.564739 1.09755 7.77481 88 22 0 
0.565078 1.07861 7.78646 207 197 128 
0.56734 1.08992 7.78472 64 27 0 
0.568933 1.11001 7.78882 136 60 37 
0.577728 1.07623 7.78619 81 90 0 
0.578308 1.08459 7.77843 223 219 130 
0.587226 1.10217 7.77672 110 56 0 
0.580451 -0.363039 8.54373 146 113 120 
0.603264 0.00686044 8.58804 38 36 47 
0.395484 -2.31407 6.83154 238 218 185 
0.606977 -0.353435 8.55004 158 115 125 
0.612711 1.10338 7.76755 229 197 122 
0.626948 0.00325478 8.61617 43 33 34 
0.627383 1.06611 7.78416 208 222 111 
0.628798 1.05858 7.79624 213 220 116 
0.640792 1.07257 7.78105 22 8 0 
0.642269 1.08884 7.77256 96 55 27 
0.691118 0.746388 8.62129 101 78 86 
0.657767 1.15503 7.77141 104 71 54 
0.655111 1.12567 7.75765 196 148 138 
0.656396 1.141 7.76438 34 0 0 
0.655406 1.07886 7.76835 39 9 0 
0.65855 1.06072 7.79216 231 217 182 
0.664925 1.07518 7.77889 204 182 158 
0.669783 1.09862 7.74449 169 104 86 
0.67354 1.14454 7.76119 26 17 12 
0.460497 -2.21192 6.8467 43 2 8 
0.683073 1.1251 7.75857 17 0 0 
0.458323 -2.36784 6.79678 63 48 5 
0.685179 1.09142 7.75938 53 34 19 
0.688597 1.07722 7.77861 36 18 4 
0.690561 1.1324 7.75447 233 212 181 
0.510326 -2.09791 6.92212 31 7 7 
0.51954 -2.16797 6.88968 110 90 66 
0.536985 -2.19815 6.87796 54 34 0 
0.535947 -2.22338 6.86082 216 179 73 
0.844492 0.728846 8.80552 71 54 46 
0.539756 -2.24221 6.84829 51 28 0 
0.803724 1.0322 8.03542 233 197 57 
0.558531 -2.2113 6.87561 58 36 0 
0.5676 -2.22436 6.87359 51 38 3 
0.578908 -2.22994 6.86816 45 34 6 
0.826226 1.06243 7.9163 233 202 156 
0.837729 1.18826 7.87816 183 146 40 
0.870349 0.118227 8.70308 58 23 21 
0.844281 1.20949 7.84254 210 178 105 
0.59706 -2.2305 6.87139 29 20 0 
0.875322 1.23273 7.78883 80 81 63 
0.894387 1.22617 7.78251 106 92 53 
1.19022 3.22932 9.59964 3 8 14 
0.672201 -2.08101 6.98712 137 122 99 
0.944646 0.25095 8.43373 176 161 140 
0.719999 -2.10218 7.00287 26 1 0 
0.961889 1.23589 7.7722 228 183 102 
0.977003 1.16182 7.83748 189 146 0 
0.820267 -1.79576 7.20081 65 43 0 
1.0505 1.09482 7.81523 189 153 0 
1.08045 1.0773 7.98875 61 50 28 
1.19707 1.08252 7.96582 214 214 186 
0.941833 -1.95371 7.10734 88 76 4 
1.24592 1.0523 8.09036 64 41 25 
1.21936 1.23019 7.81057 238 185 9 
1.26087 1.08738 8.08288 229 190 7 
1.25779 1.09578 7.95318 144 119 0 
1.27262 1.20652 7.83728 114 82 67 
1.27509 1.23904 7.82785 39 21 19 
1.00631 -1.94433 7.03223 140 130 58 
1.29617 1.28273 7.82754 207 162 103 
1.0189 -1.94238 7.01483 118 100 16 
1.30892 1.25672 7.83289 57 39 19 
1.03929 -1.91332 7.03043 124 106 40 
1.36245 0.959168 8.15633 161 136 116 
1.62427 3.65462 8.98811 10 12 11 
1.04198 -1.96641 7.01078 128 99 5 
1.04911 -1.94653 7.01966 187 164 32 
1.06285 -1.95228 7.00763 126 94 0 
1.0727 -1.92367 7.00345 201 175 4 
1.11216 -1.69686 6.99001 175 159 100 
1.67105 3.35787 8.79229 83 82 87 
1.42748 0.990769 8.05035 133 106 99 
1.64253 3.76558 8.38179 20 20 22 
1.43563 1.27736 7.87695 68 19 0 
1.60619 0.767221 8.97417 161 146 125 
1.10214 -1.91497 6.83392 133 93 0 
1.44892 1.27284 7.88722 177 107 82 
1.14164 -1.93982 7.01482 250 220 48 
1.49242 1.243 8.0777 60 23 15 
1.4994 1.23529 8.10587 122 89 80 
1.51337 1.27855 7.93853 127 59 38 
1.55825 1.12774 8.12672 97 30 47 
1.49423 1.30156 7.72819 86 37 22 
1.53776 1.2751 7.91842 200 147 115 
1.57784 1.25866 8.03974 107 35 38 
1.55979 1.25205 7.94753 133 64 67 
1.25945 -1.6354 7.08945 152 110 0 
1.56679 1.28741 7.92329 190 144 95 
1.57202 1.30387 7.82479 102 67 37 
1.58143 1.29619 7.8448 162 126 90 
1.2917 -1.64054 7.08138 233 203 9 
1.61822 1.30535 7.83197 109 72 43 
1.66901 1.04122 8.09967 144 125 111 
1.6875 1.01261 8.13905 128 107 104 
1.6424 1.29836 7.80232 193 155 108 
1.88243 3.14854 8.37167 76 75 71 
1.70146 1.19123 7.93692 178 92 101 
1.41987 -1.6374 6.93909 204 145 5 
1.42063 -1.57819 6.90936 186 114 3 
1.42371 -1.65951 6.93725 253 201 79 
1.43529 -1.54989 6.9478 179 106 0 
1.43426 -1.58396 6.93289 249 188 63 
1.96437 1.4251 7.47779 12 15 4 
-1.19218 3.66842 7.46116 67 97 135 
-1.25168 0.587915 7.99806 160 129 100 
-1.24977 0.334528 8.2843 97 83 74 
-1.23582 0.190263 8.26086 72 58 45 
-1.08041 3.61816 8.28237 38 46 31 
-1.14194 0.624734 7.87792 41 42 37 
-1.12248 0.519474 7.94436 59 35 23 
-1.0992 0.565439 7.83975 160 126 116 
-1.09264 0.551498 7.94383 38 28 27 
-1.07448 0.586374 7.82816 128 93 65 
-1.07052 0.560739 7.85936 28 23 20 
-1.12345 0.460578 8.21346 224 198 147 
-1.02454 0.819457 7.77893 158 100 62 
-0.963224 1.02522 7.6167 201 183 169 
-1.01494 0.688902 7.95555 115 101 98 
-0.977862 0.704748 7.77088 220 196 170 
-0.939763 1.00992 7.64651 35 25 26 
-0.966043 0.831087 7.78857 95 36 2 
-0.975774 0.698022 7.92511 18 16 21 
-0.921138 1.01467 7.66246 200 191 186 
-0.926392 0.999177 7.76144 107 80 50 
-0.911403 1.03136 7.7258 46 37 32 
-0.809876 3.77119 7.97196 14 11 28 
-0.943248 0.633558 7.98047 18 22 31 
-0.833397 3.6311 8.25281 108 99 92 
-0.931907 0.697187 7.97173 204 160 123 
-0.845146 3.61591 8.4662 202 184 148 
-0.81539 3.63373 8.3274 201 188 169 
-0.836819 1.10081 7.55659 56 54 59 
-0.784799 3.68732 8.19435 216 178 131 
-0.875284 0.795647 7.76744 181 149 138 
-0.815565 3.5993 8.63749 101 76 45 
-0.80594 3.66508 8.58728 88 64 38 
-0.882425 0.601673 8.01699 224 188 154 
-0.801767 3.58175 8.64903 206 156 71 
-0.739877 3.72637 8.1873 165 133 95 
-0.86785 0.68287 8.00437 202 166 116 
-0.746231 3.70951 8.26218 207 154 78 
-0.733693 3.69767 8.33046 216 164 78 
-0.842206 0.664085 8.06498 42 26 10 
-0.84719 0.480981 8.08497 196 169 140 
-0.852029 0.576159 8.15378 154 129 99 
-0.750922 3.6475 8.71519 195 151 76 
-0.720341 3.68626 8.51598 87 74 58 
-0.762812 3.63351 8.9134 126 96 68 
-0.740015 1.08103 7.5391 218 206 194 
-0.618894 3.78817 8.00245 66 55 49 
-0.589649 3.73978 7.73475 91 111 86 
-0.630123 3.7517 8.16296 153 107 45 
-0.659256 3.70664 8.48263 182 153 83 
-0.69294 3.68176 8.89706 30 29 47 
-0.664072 3.6816 8.63143 197 162 72 
-0.671831 1.06056 7.51355 228 215 198 
-0.662149 3.64498 8.84414 77 74 93 
-0.620388 3.65802 8.47083 143 100 5 
-0.638565 3.67616 8.70915 122 126 155 
-0.601371 3.75296 8.3861 143 106 15 
-0.642951 3.65509 8.79879 19 21 34 
-0.696959 0.809675 7.91209 171 111 57 
-0.652856 1.12513 7.7273 72 61 57 
-0.518237 3.74189 7.88088 227 200 33 
-0.481896 3.76135 7.88373 141 95 0 
-0.507375 3.73441 8.37776 158 148 139 
-0.530563 3.69162 8.7079 117 115 152 
-0.524895 3.73258 8.69929 22 21 35 
-0.479366 3.71125 8.40834 16 23 31 
-0.420534 3.7514 7.82495 232 205 14 
-0.478581 3.70469 8.62004 152 149 142 
-0.435664 3.70737 8.17574 24 27 34 
-0.704318 -2.66647 7.33941 34 32 35 
-0.699238 -2.67504 7.30401 170 161 144 
-0.591645 0.559621 8.11745 72 63 48 
-0.466249 3.65508 8.70559 130 127 156 
-0.446472 3.62614 8.70795 141 142 163 
-0.668316 -2.66626 7.35008 31 30 35 
-0.663068 -2.68505 7.31587 84 75 66 
-0.416906 3.63983 8.68406 45 44 58 
-0.652884 -2.68151 7.3352 40 35 41 
-0.382844 3.64375 8.41793 127 127 119 
-0.632143 -2.40297 7.48711 26 28 43 
-0.353173 3.59629 8.74695 209 169 84 
-0.463737 1.00317 8.20496 43 38 45 
-0.340263 3.58358 8.77731 156 117 40 
-0.353455 3.58739 9.11081 137 114 80 
-0.342675 3.53711 8.958 157 133 69 
-0.319951 3.58439 8.70085 139 104 48 
-0.310198 3.59375 8.62371 163 124 55 
-0.295944 3.61407 8.55977 215 169 57 
-0.468149 0.302175 8.42152 223 198 158 
-0.198098 3.8208 7.79379 173 45 42 
-0.181273 3.80089 7.88651 225 210 187 
-0.272151 3.57782 9.4439 33 41 60 
-0.152331 3.81305 7.56748 205 170 8 
-0.125559 3.85441 7.57762 140 30 17 
-0.347414 0.674752 8.67923 73 68 64 
-0.26484 1.0999 7.67587 138 126 100 
-0.0975686 3.85292 7.58485 137 73 27 
-0.0711125 3.85136 7.58161 145 74 28 
-0.0633843 3.82069 7.77922 155 80 100 
-0.0571691 3.81467 7.85696 82 109 116 
-0.0515727 3.81674 7.73512 143 19 43 
-0.0212505 3.86208 7.58899 133 64 25 
-0.0252228 3.81914 7.79418 151 131 158 
-0.0471931 3.88834 8.62854 62 57 35 
-0.0440309 3.84772 8.82111 151 102 70 
-0.00422241 3.82119 7.79241 146 127 149 
-0.141516 1.16261 7.47422 215 173 113 
0.0212894 3.81501 7.60556 233 205 10 
-0.211966 0.231259 8.58186 181 173 154 
0.0641287 3.81647 8.66181 35 36 20 
0.0706228 3.78872 8.72855 32 38 24 
-0.0739255 0.967641 7.80597 98 91 85 
-0.132706 -0.127459 8.52105 145 145 143 
-0.0959228 -0.203478 8.4652 65 65 67 
0.16491 3.83561 8.1049 32 23 26 
-0.0823389 -0.305858 8.47468 139 141 140 
-0.191596 -2.30945 6.47635 92 85 59 
-0.0704879 -0.259711 8.4755 33 33 33 
-0.0517658 -0.196225 8.48402 80 80 80 
-0.0470773 -0.385173 8.4352 142 126 127 
-0.0405463 -0.284517 8.47016 139 139 137 
-0.0339216 -0.206554 8.47903 127 127 127 
-0.0329833 -0.252873 8.47107 62 61 66 
0.239863 3.82075 8.03215 119 124 117 
-0.0263212 -0.419139 8.44204 93 55 66 
-0.0133797 -0.492993 8.42713 115 73 83 
0.0788463 0.95504 7.91271 31 33 74 
0.275406 3.82459 7.88034 122 128 116 
0.0229515 -0.247624 8.47856 45 45 43 
0.0162161 -0.395545 8.45189 136 132 131 
0.0607007 0.24548 8.4876 36 22 35 
0.286031 3.87245 7.47839 130 136 126 
0.065528 0.253169 8.52256 38 22 33 
0.126512 1.18292 7.46528 194 103 118 
0.0446495 -0.277316 8.48518 141 142 137 
0.130787 1.20772 7.36055 157 127 103 
0.0370976 -0.504176 8.4502 90 42 54 
-0.0881835 -2.38004 6.44866 27 17 5 
0.341207 3.94212 8.07155 22 25 32 
0.0811756 -0.250273 8.46947 138 138 136 
0.169229 1.13944 7.78212 213 156 111 
0.104746 -0.503116 8.38826 89 46 56 
0.158935 -0.244378 8.49348 135 137 134 
-0.0178067 -2.32685 6.52273 17 10 18 
0.185718 -0.296993 8.48065 92 95 88 
0.269839 1.13706 7.84906 75 58 40 
0.226483 -0.482568 8.44225 150 130 132 
0.238418 -0.384747 8.471 160 133 138 
0.232094 -0.505184 8.43959 91 69 71 
0.305614 0.321566 8.58855 51 19 40 
0.333539 0.468006 8.62209 181 168 151 
0.305959 0.0797232 8.53825 36 24 36 
0.283587 -0.255472 8.47016 138 139 133 
0.292669 -0.401279 8.47947 147 131 132 
0.36669 1.10085 7.84611 176 157 125 
0.378171 1.05809 7.81919 251 208 189 
0.388392 1.13976 7.87072 54 32 19 
0.349436 0.105835 8.5337 134 134 132 
0.356753 -0.159876 8.50761 136 138 135 
0.409962 1.01721 7.82028 182 89 84 
0.432181 1.14178 7.84654 34 29 23 
0.393718 -0.346693 8.48204 90 65 68 
0.400522 -0.393566 8.47439 89 63 62 
0.491402 1.10661 7.80764 156 127 123 
0.50201 1.07508 7.79804 78 27 10 
0.761352 3.22188 9.64923 6 11 17 
0.520915 1.2108 7.69484 187 158 124 
0.560884 1.05151 7.80516 67 62 0 
0.966848 5.66721 8.75115 34 23 19 
0.607034 0.0118652 8.61186 40 40 52 
0.62565 1.05992 7.77019 200 213 97 
0.70157 0.854319 8.83364 117 86 92 
0.657913 1.05885 7.78791 214 190 164 
0.672679 1.20722 7.79337 202 109 78 
0.670473 1.03284 7.91992 227 198 36 
0.669203 1.08027 7.77278 196 172 146 
0.674069 1.14409 7.76109 30 16 13 
0.713568 1.19291 7.78047 129 100 60 
0.719178 1.17603 7.76335 187 157 131 
0.408258 -2.15023 6.87446 42 19 11 
0.743374 1.08119 7.80404 244 214 186 
0.432896 -2.10831 6.86504 184 158 133 
0.45984 -2.21151 6.84195 41 0 6 
0.811732 1.22895 7.77241 216 174 100 
0.825436 1.05875 7.90837 234 202 163 
0.502896 -2.11596 6.9076 175 153 116 
0.852538 1.1991 7.8666 130 92 0 
0.517883 -2.16712 6.87746 111 99 61 
0.872191 1.19611 7.8403 147 109 2 
0.877273 1.21465 7.82544 206 176 114 
0.863636 1.23438 7.5576 149 137 115 
0.900582 1.151 7.863 193 154 0 
0.906595 1.24131 7.75956 218 176 90 
0.917494 1.21676 7.82372 94 79 72 
0.917883 0.251028 8.41927 44 31 23 
0.566288 -2.22377 6.86705 61 38 4 
0.948629 1.22524 7.8003 113 72 26 
0.595598 -2.10579 6.88652 171 144 117 
0.601939 -2.20669 6.88401 170 146 100 
0.632133 -2.15044 6.8749 171 150 119 
0.653686 -2.13563 6.87919 166 146 119 
0.660564 -2.1572 6.87111 45 16 2 
0.692226 -2.03341 6.98656 59 25 16 
1.05049 1.23732 7.69544 226 175 86 
1.10006 1.07202 7.97455 184 173 143 
1.05605 1.24283 7.52917 141 116 75 
1.42039 4.06104 8.3493 73 63 62 
1.13255 1.0835 7.87621 227 193 60 
1.26146 0.726878 8.88201 153 138 115 
1.16194 1.08063 7.97427 209 194 161 
1.14893 1.09633 7.87165 140 85 2 
1.15405 1.28411 7.69918 176 87 19 
1.17596 1.08022 7.91766 226 200 175 
1.19567 1.06617 8.05054 46 88 66 
1.17544 1.10032 7.85835 79 56 2 
1.21028 1.03052 8.07662 145 126 112 
1.23742 1.06921 8.07749 62 78 41 
1.20758 1.21171 7.76676 237 191 10 
1.21859 1.22876 7.80728 239 190 10 
1.27342 1.23514 7.81923 47 31 16 
1.32436 1.23676 7.81755 146 119 90 
1.67373 3.35029 8.81336 21 21 21 
1.37913 0.976474 8.20754 161 134 123 
1.43141 1.27104 7.86212 90 33 14 
1.02031 -1.94266 7.02017 112 93 34 
1.59385 0.902334 8.79854 39 34 38 
1.52753 1.22417 8.14544 146 93 77 
1.51251 1.27657 7.93429 144 62 50 
1.07462 -1.92409 7.00903 214 184 28 
1.54913 1.24605 8.11088 149 88 87 
1.5643 1.23493 8.13083 94 33 28 
1.09369 -1.98893 7.05979 240 208 29 
1.55549 1.12022 8.11018 92 31 47 
1.52905 1.282 7.87168 141 95 43 
2.31935 6.50842 9.63086 126 123 106 
1.56624 1.2858 7.91995 200 154 104 
1.1539 -1.92509 7.01094 145 106 0 
2.47481 6.50948 9.75439 169 156 139 
1.48957 -1.66652 6.99081 123 76 46 
3.10401 6.47857 10.1611 169 155 144 
1.58242 -1.59094 6.79199 81 85 71 
-2.14457 -0.0775268 8.05247 139 122 128 
-2.18094 -0.139464 8.24583 81 72 93 
-2.19643 -0.0985579 8.31383 136 109 126 
-2.14229 -0.649585 8.2182 60 57 74 
-2.07858 -0.605273 7.92649 137 130 138 
-2.10891 -1.01105 8.23594 56 62 78 
-2.165 -0.131728 8.25263 205 193 195 
-2.11435 -0.682563 8.22867 50 12 33 
-2.17483 -0.178394 8.37125 91 33 58 
-2.12208 -0.835511 8.35042 180 182 197 
-2.08106 -0.855714 8.16539 179 182 197 
-2.45563 3.29542 8.78034 0 62 97 
-2.12528 -0.761084 8.3523 66 30 44 
-2.17878 -0.125433 8.42731 48 41 72 
-2.42748 3.22602 8.68594 0 38 62 
-2.13459 0.0328198 8.18653 189 199 209 
-2.15556 -0.175446 8.35106 173 68 98 
-2.11322 -0.644582 8.28277 55 19 47 
-2.41215 3.20827 8.63025 137 181 206 
-2.15828 -0.198178 8.38382 213 227 253 
-2.11418 -0.275313 8.20605 180 192 208 
-2.11948 -0.646801 8.34876 44 10 37 
-2.11832 -0.188977 8.21592 72 28 64 
-2.12943 -0.16001 8.26159 179 226 255 
-2.06801 -0.892207 8.19256 47 34 51 
-2.09728 -0.476524 8.21599 181 190 207 
-2.06598 -1.0105 8.26608 63 41 53 
-2.36697 3.38379 8.46769 49 58 73 
-2.43564 3.30382 8.83786 76 146 215 
-2.0881 -0.658825 8.26941 106 107 137 
-2.38479 3.31372 8.59095 87 107 118 
-2.11447 -0.181722 8.30769 159 170 215 
-2.21678 0.535089 8.62572 106 113 129 
-2.22949 0.552096 8.68418 106 115 130 
-2.40019 3.24424 8.77542 89 161 219 
-2.04298 -1.03003 8.24335 186 175 191 
-2.02814 -1.03548 8.1763 186 175 191 
-2.05403 -0.822874 8.24519 120 42 56 
-2.10433 -0.174197 8.30783 16 79 132 
-2.13934 0.0824359 8.43472 120 141 160 
-2.29741 3.3632 8.31823 63 68 87 
-2.16514 0.615397 8.45361 141 163 187 
-2.06466 -0.207902 8.21273 126 198 246 
-2.04785 -0.516469 8.24896 178 188 200 
-2.11967 0.119762 8.4399 81 109 130 
-2.19972 0.565445 8.72485 79 87 100 
-2.00581 -0.792952 8.16722 179 178 192 
-2.01967 -0.550115 8.17757 23 45 84 
-1.99198 -1.00465 8.21274 176 176 186 
-2.0185 -0.898942 8.32042 82 84 97 
-2.22483 3.46515 8.14016 81 95 106 
-2.01368 -0.556563 8.20629 33 84 129 
-2.01856 -0.613414 8.2548 15 40 81 
