ply                 
format ascii 1.0    
element vertex 1287
property float x    
property float y    
property float z    
property uchar red  
property uchar green
property uchar blue 
end_header          
-0.18751 3.74168 7.8878 226 208 196 
-0.189837 0.679157 8.3076 215 166 134 
-0.149181 3.56554 8.60428 46 40 28 
-0.185857 3.81098 7.72342 250 134 135 
-0.182217 0.634299 8.28157 134 88 64 
-0.181966 3.85795 7.6646 186 144 0 
-0.143589 3.4081 8.52295 121 101 90 
-0.135877 3.72703 8.47646 124 92 79 
-0.162539 3.83834 7.87976 240 167 160 
-0.123641 3.71499 8.68134 74 42 27 
-0.174597 3.8995 7.52287 129 13 34 
-0.12633 3.69898 8.56249 117 84 69 
-0.173226 3.93471 7.51634 136 27 50 
-0.163567 3.84061 7.59805 198 145 41 
-0.163665 3.7565 7.62904 193 63 49 
-0.191755 1.16193 7.47493 209 175 103 
-0.156067 3.83126 7.66463 213 166 16 
-0.155939 3.82298 7.65482 214 167 17 
-0.179658 0.969813 7.69682 38 48 83 
-0.183786 1.14628 7.54967 219 180 115 
-0.1443 3.77594 7.83378 184 62 59 
-0.143533 0.389834 8.44296 192 181 159 
-0.110702 3.69752 8.46532 90 52 29 
-0.144711 0.672369 8.25173 201 156 137 
-0.146278 3.75497 7.64459 255 145 145 
-0.0867875 3.27136 8.80188 83 83 73 
-0.0974709 3.60247 8.52164 97 53 24 
-0.089496 3.49911 8.65439 130 113 97 
-0.132798 0.717268 8.3134 143 74 79 
-0.224642 -2.09038 7.02315 15 3 15 
-0.133919 3.77885 7.65567 185 69 30 
-0.130533 3.84514 7.64203 153 45 35 
-0.142338 0.90007 7.83725 77 68 61 
-0.0800192 3.64032 8.47751 154 108 85 
-0.141008 0.89002 7.83146 78 68 59 
-0.0744773 3.63023 8.52496 95 51 24 
-0.0714478 3.08483 8.63985 5 8 23 
-0.147887 0.946825 7.60267 21 30 85 
-0.108346 0.445393 8.30459 132 114 112 
-0.140744 1.18064 7.56457 215 173 113 
-0.107006 -0.258277 8.42154 48 49 53 
-0.0708023 3.57541 8.35193 146 110 84 
-0.0691138 3.62981 8.34946 64 57 31 
-0.104593 0.459011 8.25869 189 163 146 
-0.099056 3.89104 7.67003 214 129 122 
-0.101566 3.84659 7.65246 150 81 24 
-0.104943 3.93807 7.52388 102 43 45 
-0.0974924 -0.372956 8.47045 95 41 57 
-0.102001 -0.309041 8.38684 68 70 67 
-0.0988362 -0.209183 8.4104 62 63 65 
-0.10195 -0.275615 8.37001 127 128 130 
-0.196501 -2.13408 6.83667 54 42 20 
-0.12581 1.17129 7.43611 135 96 67 
-0.0850025 0.296486 8.26776 118 103 126 
-0.0822383 3.84154 7.61072 214 131 125 
-0.0647096 3.74849 7.85025 85 112 133 
-0.0681834 3.75823 7.76991 173 107 109 
-0.11434 -1.58216 7.90365 10 14 25 
-0.068941 0.283616 8.33547 77 24 50 
-0.0639814 -0.395514 8.47952 93 77 80 
-0.081418 5.36487 7.03844 56 51 48 
-0.0658605 -0.215725 8.41266 131 132 136 
-0.0622155 -0.367802 8.46842 88 65 71 
-0.113446 -1.59902 7.82079 71 83 97 
-0.0562931 3.77093 7.70248 187 57 69 
-0.0627457 -0.259007 8.39153 71 72 76 
-0.179033 -2.15529 6.79593 26 19 9 
-0.0560414 -0.202487 8.42482 90 91 96 
-0.054248 -0.424869 8.47294 81 60 65 
-0.0555837 3.83427 7.62097 217 137 110 
-0.081092 1.03874 7.74406 32 45 98 
-0.0788822 0.896843 7.79926 143 134 125 
-0.0836449 0.920131 7.72547 109 100 85 
-0.156942 -2.13581 7.07753 103 95 76 
-0.166581 -2.14353 6.91279 52 38 3 
-0.0995665 -1.58228 7.86167 57 63 75 
-0.0476364 -0.479333 8.47521 100 73 78 
-0.159478 -2.0914 6.97497 138 121 91 
-0.0855675 1.19907 7.51991 171 131 70 
-0.0425099 -0.478967 8.50762 101 72 77 
-0.0103615 4.87917 7.96195 67 49 45 
-0.0411592 -0.38537 8.49635 140 134 136 
-0.0434345 -0.492997 8.49603 146 127 131 
-0.0460952 0.252719 8.30344 142 53 81 
-0.185728 -2.33301 6.56737 11 8 15 
-0.036391 3.86 7.65004 207 126 122 
-0.0361971 -0.25609 8.42226 51 52 54 
-0.03602 -0.37731 8.4104 80 53 60 
0.0232988 3.57753 8.5431 48 54 42 
-0.0398736 -0.484089 8.32647 89 37 50 
-0.170517 -2.31083 6.62968 148 133 100 
-0.012683 3.7719 7.80698 150 145 168 
-0.0220357 -0.400189 8.50657 78 42 52 
-0.0174993 -0.489242 8.58 75 42 51 
-0.0237542 3.97461 7.58542 138 134 105 
-0.0676273 4.76729 6.70263 31 40 47 
-0.0441215 0.90794 7.82288 186 172 169 
0.0507008 3.35807 8.7238 97 101 100 
-0.166926 -2.29581 6.58506 61 42 2 
-0.129933 -2.11674 7.0444 43 32 12 
0.0396644 3.51547 8.41632 40 44 30 
-0.15765 -2.29438 6.66733 172 151 98 
0.0381091 3.57502 8.39923 30 33 14 
-0.091187 -1.76056 7.52673 217 214 183 
-0.014984 -0.493595 8.42896 154 121 128 
0.0108701 3.78877 7.919 81 72 57 
-0.00915608 -0.341337 8.45497 134 136 133 
-0.0406695 1.06704 7.67979 19 15 66 
0.0463817 3.52567 8.45385 41 44 35 
-0.131548 -2.12491 6.93577 59 49 14 
-0.159206 -2.35723 6.55427 186 163 109 
-0.0425912 1.14308 7.55183 120 47 56 
-0.0549764 1.17654 7.33538 152 129 87 
-0.124905 -2.11864 6.95793 163 152 120 
-0.0412689 1.19393 7.50002 163 80 48 
-0.02088 0.927676 7.79757 180 163 156 
-0.0324392 1.07905 7.59481 80 40 48 
-0.0306576 0.983178 7.64451 23 43 114 
0.00976569 -0.404145 8.4836 76 51 55 
0.0362002 3.78325 7.99187 44 47 30 
-0.0666747 -1.72709 7.59113 143 145 158 
0.0178998 3.80724 7.6719 234 208 10 
0.0384329 3.78858 7.9578 61 45 0 
0.0511472 3.84766 8.09979 93 105 85 
-0.126139 -2.14538 6.82983 53 45 22 
-0.141479 -2.29626 6.62256 89 69 19 
0.0742733 3.6098 8.46359 30 32 27 
0.0234038 3.78997 7.70631 88 61 16 
-0.136998 -2.29048 6.66902 204 178 104 
0.0205921 3.88188 7.62734 193 164 98 
-0.141781 -2.34596 6.60072 165 133 50 
-0.136649 -2.3845 6.64432 20 13 5 
0.0210997 -0.283633 8.42199 131 133 132 
-0.103459 -2.07984 7.0318 65 57 34 
-0.142407 -2.3734 6.55786 23 15 12 
-0.10593 -2.12794 6.99817 61 47 34 
-0.132181 -2.28495 6.64244 169 144 64 
0.0150995 0.679351 8.10247 177 103 116 
-0.101093 -2.02453 7.03071 25 22 33 
-0.0221303 1.15309 7.47678 255 224 156 
0.0904967 3.55448 8.50973 123 117 117 
-0.0142548 1.08771 7.5709 115 67 67 
-0.112342 -2.14638 6.86588 145 138 112 
0.114243 3.02328 8.9253 123 112 110 
0.0575188 3.8117 7.97098 90 92 81 
0.0261035 -0.333051 8.39803 137 137 139 
0.0127271 4.83542 7.1112 154 111 69 
0.000517733 0.924518 7.74812 211 198 182 
-0.118686 -2.35418 6.75241 155 128 51 
0.10021 3.5292 8.52999 120 122 111 
-0.0976592 -2.11644 6.95604 181 171 136 
-0.134945 -2.35609 6.51841 190 162 99 
0.0395557 0.702186 8.24366 147 117 125 
-0.122599 -2.27398 6.63951 178 164 101 
0.0469452 -0.474465 8.58054 82 40 50 
-0.0872992 -2.08504 7.06568 176 173 122 
0.0285922 0.678185 8.09775 39 9 17 
0.046088 -0.389776 8.52923 98 39 57 
0.0390133 -0.31103 8.40224 84 86 85 
0.112906 3.54709 8.50281 124 120 119 
0.12578 2.91894 8.81461 21 21 29 
0.118074 3.29464 8.5823 81 82 84 
0.00486212 1.11394 7.53986 196 179 161 
0.114541 3.55029 8.48527 36 32 31 
0.00409985 1.19313 7.52489 175 108 82 
0.0521792 -0.418053 8.44537 146 127 129 
-0.0047455 1.15825 7.35782 225 196 178 
0.12412 3.54383 8.49108 26 22 19 
0.0613013 -0.38431 8.46908 144 132 134 
-0.116479 -2.35631 6.53664 82 56 21 
0.104879 3.72197 8.09604 28 29 15 
0.0375149 0.932569 7.81004 193 195 208 
0.00415803 1.19264 7.32343 98 67 62 
0.0622921 0.347217 8.24335 125 76 95 
-0.0825802 -2.18 6.85658 222 224 200 
-0.0711137 -2.08613 6.94631 21 13 28 
0.0748798 0.305015 8.31489 159 82 100 
-0.103838 -2.33752 6.54881 143 122 59 
-0.105717 -2.37508 6.48009 230 221 166 
0.126327 3.66331 8.10036 88 89 73 
0.0967178 -0.242763 8.52774 35 36 38 
-0.0673111 -2.16079 6.86174 116 111 91 
0.155727 3.4587 8.46907 28 33 26 
0.165357 3.65965 8.5194 82 90 69 
0.0626124 0.899594 7.80544 32 38 88 
0.139531 3.68207 8.1452 31 29 16 
0.145606 3.80298 8.16139 64 53 57 
-0.0805606 -2.28979 6.64657 59 48 18 
0.146988 3.71034 8.16117 28 21 13 
-0.0873797 -2.33659 6.5712 153 131 71 
0.104754 0.337441 8.33075 61 31 41 
0.100387 -0.227054 8.39948 132 134 133 
0.135265 3.99342 7.87185 66 77 60 
0.159858 3.69839 8.20645 22 18 15 
0.114124 -0.472514 8.52522 89 51 62 
0.136387 3.62621 7.91095 36 24 28 
0.115186 -0.268103 8.48273 133 135 132 
-0.0801663 -2.3732 6.56514 160 144 82 
0.0637802 1.16364 7.45268 103 76 55 
0.122781 0.741467 8.22189 211 110 124 
0.175884 3.61262 8.21168 85 94 77 
0.132302 -0.461285 8.56413 148 115 124 
0.183512 3.7316 8.25134 75 65 63 
-0.0401204 -2.18537 6.87007 112 107 87 
-0.0765047 -2.35367 6.4683 35 20 17 
0.181018 3.6616 8.18708 28 30 17 
0.0758894 1.15912 7.48165 85 64 37 
0.16737 4.79618 7.69166 188 172 156 
-0.0579917 -2.26573 6.59838 79 67 51 
0.145989 3.89455 7.63193 89 101 87 
0.0272331 -1.77977 7.46419 44 16 0 
0.193066 3.68467 8.2045 90 85 79 
0.1591 3.9592 7.73349 80 92 78 
-0.040277 -2.23473 6.7721 199 196 129 
0.0923862 1.14563 7.53813 107 85 74 
0.198501 3.80175 8.14932 67 56 60 
-0.0402397 -2.26509 6.72283 52 47 28 
0.153366 -0.437559 8.54209 92 61 69 
-0.0456944 -2.2819 6.65473 189 185 137 
0.202978 3.65505 8.14725 28 17 15 
0.096226 1.08919 7.52318 72 53 47 
0.200626 3.68713 8.13335 30 18 20 
0.153262 -0.187893 8.42323 42 44 43 
0.148855 3.84639 7.47649 86 88 83 
-0.0707529 -2.54323 6.35714 255 252 223 
0.13252 1.07523 7.7605 205 102 105 
-0.0383219 -2.18665 6.57391 63 54 39 
0.174941 -0.243099 8.5186 29 31 30 
-0.013773 -2.15132 6.81649 19 11 26 
0.171676 -0.418739 8.49239 133 134 128 
-0.00228414 -2.17843 6.91732 32 20 8 
0.11912 1.18223 7.53872 87 43 40 
0.167011 -0.462484 8.41293 97 40 57 
0.121444 1.12492 7.57357 79 61 51 
0.227555 3.61148 8.14047 8 8 8 
0.181223 -0.290152 8.47768 91 93 90 
0.133375 1.12559 7.64911 103 84 77 
0.225207 3.73976 8.00362 125 129 128 
0.234378 3.69116 8.09116 76 65 59 
0.128111 1.15366 7.48854 216 142 143 
0.018322 -2.16697 6.99736 16 11 7 
0.192513 -0.493804 8.52174 144 135 136 
0.240108 3.64218 8.10657 10 8 11 
0.129703 1.22352 7.44625 217 177 118 
-0.00757466 -2.24187 6.73911 160 149 121 
0.193728 -0.186052 8.42238 120 122 121 
0.169442 1.01511 7.90633 97 64 73 
0.234355 3.67122 7.99512 90 76 67 
0.138426 1.13257 7.50731 230 187 180 
-0.0101459 -2.24514 6.66104 23 13 14 
0.201381 -0.376097 8.48137 150 128 131 
0.201677 -0.238227 8.45319 56 58 53 
0.0070953 -2.22662 6.79688 131 122 93 
0.217763 0.706262 8.31641 182 146 124 
0.219112 -0.354801 8.51213 73 46 53 
0.179649 1.06409 7.79327 194 102 113 
0.264056 3.71901 7.99564 18 17 13 
0.0227563 -2.23932 6.80944 111 98 79 
0.256913 3.73854 7.84609 134 141 125 
0.0206593 -2.20669 6.75144 130 117 82 
0.233694 -0.409298 8.52978 136 132 129 
0.280658 4.76006 7.80002 43 60 28 
0.0650449 -2.05581 7.13926 106 88 64 
0.267823 3.65048 7.91508 127 126 124 
0.239128 -0.479186 8.54421 79 61 61 
0.23569 -0.374162 8.48496 146 127 131 
0.283653 3.76386 8.00842 108 111 102 
0.137844 -1.67976 7.74438 136 97 56 
0.205728 1.06333 7.81707 136 66 76 
0.0336066 -2.20966 6.76766 31 18 2 
0.238033 -0.0650571 8.30745 138 140 137 
0.0735528 -2.06157 7.10823 41 19 0 
0.251257 0.31982 8.29899 109 103 131 
0.255554 0.00419623 8.38993 36 38 53 
0.26377 -0.386349 8.54211 105 42 59 
0.268836 0.729258 8.33211 115 78 69 
0.268791 0.707327 8.32359 188 155 138 
0.21612 1.04808 7.71 63 26 33 
0.269244 -0.349039 8.48415 89 67 70 
0.277288 0.692028 8.34129 89 52 43 
0.166446 -1.69263 7.75459 88 66 42 
0.273133 -0.402203 8.50144 146 119 124 
0.274746 0.259548 8.35519 44 18 29 
0.276804 3.84981 7.5266 138 144 130 
0.226315 4.75305 6.81379 234 218 205 
0.270459 0.287586 8.27618 75 42 61 
0.275758 -0.015479 8.36936 62 75 84 
0.289696 0.0630571 8.45039 44 33 47 
0.286076 0.334759 8.34653 77 73 87 
0.294837 0.73061 8.33624 128 87 85 
0.292554 -0.387278 8.51317 155 135 137 
0.305836 0.417267 8.44351 186 173 154 
0.293314 -0.358163 8.46735 98 50 62 
0.291718 -0.235216 8.41867 67 66 71 
0.291667 0.224233 8.29771 51 19 32 
0.354368 3.85568 8.05441 27 30 39 
0.236892 1.13041 7.57315 209 179 127 
0.104905 -2.08223 7.03951 49 28 1 
0.315122 0.696781 8.38053 86 47 40 
0.0771282 -2.20722 6.78987 27 15 19 
0.252524 4.72257 6.8061 39 50 54 
0.244052 1.17516 7.53938 116 69 39 
0.307228 0.261268 8.33061 172 169 164 
0.313247 0.165086 8.36064 165 164 159 
0.0987153 -2.14401 6.88612 112 86 59 
0.249747 1.18637 7.53226 229 158 116 
0.313603 0.352881 8.27824 194 156 155 
0.0633718 -2.33324 6.57899 139 108 61 
0.0688108 -2.32491 6.61035 137 105 46 
0.317983 0.0598198 8.32674 135 135 135 
0.121293 -2.14299 7.00929 46 22 0 
0.337902 0.421526 8.36435 119 56 73 
0.330944 0.176308 8.33664 27 29 54 
0.339044 0.354927 8.32119 80 34 63 
0.336748 -0.238073 8.39843 84 86 83 
0.338509 0.512244 8.23403 195 163 150 
0.29289 1.09917 7.70947 74 71 82 
0.344748 -0.0424466 8.43419 135 137 134 
0.341474 0.0985336 8.37465 35 45 70 
0.08222 -2.3119 6.57185 64 39 19 
0.128765 -2.14732 6.90414 83 56 39 
0.347015 -0.233125 8.39918 82 84 83 
0.296513 -1.66075 8.2906 122 92 68 
0.359491 -0.196602 8.43775 139 140 142 
0.31131 1.11596 7.70165 71 60 54 
0.361992 -0.386019 8.49032 84 47 55 
0.412051 4.80372 7.70744 195 177 157 
0.107304 -2.2825 6.69631 144 118 83 
0.322074 1.08341 7.76113 152 137 130 
0.321456 1.10478 7.75312 164 158 142 
0.116985 -2.27779 6.71534 38 12 0 
0.332704 1.072 7.76778 41 26 19 
0.120314 -2.2962 6.70256 64 42 3 
0.313432 1.22375 7.53724 255 252 185 
0.302437 1.18923 7.41746 93 70 29 
0.383055 -0.22537 8.41783 82 83 87 
0.39071 -0.333333 8.50907 80 58 61 
0.343394 1.04414 7.74786 200 181 149 
0.394721 -0.359795 8.49013 144 133 131 
0.400466 -0.375986 8.52618 87 62 66 
0.398106 -0.402298 8.46916 138 133 130 
0.32011 1.21778 7.4481 106 84 63 
0.358783 0.917593 7.80586 38 32 34 
0.412684 -0.239282 8.4487 126 131 127 
0.416432 0.000877523 8.37747 40 35 42 
0.429762 0.731611 8.29925 119 93 92 
0.481264 4.73069 7.7588 69 50 43 
0.385499 0.890526 7.81747 253 238 219 
0.439799 -0.381225 8.51169 140 119 124 
0.37991 0.949638 7.69032 203 96 80 
0.199658 -2.20503 6.96346 77 38 43 
0.452998 -0.216689 8.49603 55 56 58 
0.393769 1.0276 7.73134 199 125 116 
0.413818 1.04859 7.79939 73 44 0 
0.413179 1.07398 7.76066 119 119 85 
0.414703 1.03893 7.70647 73 79 7 
0.479334 -0.378716 8.50456 80 42 53 
0.65489 2.83435 9.02168 10 13 22 
0.499085 0.742083 8.30658 71 26 33 
0.521578 0.764272 8.43175 75 48 53 
0.497276 -0.35095 8.44011 68 41 48 
0.514875 0.698162 8.28183 54 15 20 
0.52436 -0.365842 8.58067 91 44 62 
0.531229 0.686628 8.39594 106 90 93 
0.452434 1.14581 7.68642 213 167 118 
0.532536 0.633732 8.37663 149 107 117 
0.467452 1.15287 7.74331 202 171 117 
0.541955 -0.349765 8.58288 132 118 118 
0.475282 1.00369 7.76961 207 199 127 
0.470493 1.13788 7.67744 205 164 112 
0.478107 0.977481 7.75748 242 230 170 
0.557307 0.752455 8.33664 111 52 56 
0.485973 1.08029 7.74134 60 6 6 
0.485656 1.02405 7.74513 246 213 159 
0.564583 -0.362097 8.62535 88 41 59 
0.495659 1.0604 7.70785 202 108 98 
0.571879 -0.353475 8.54654 145 107 118 
0.513548 0.941252 7.80087 108 50 36 
0.271733 -2.23849 6.8072 34 3 11 
0.521846 1.17433 7.74812 82 57 50 
0.59395 -0.358695 8.53776 99 63 75 
0.536422 0.965281 7.74334 105 69 47 
0.539582 1.01669 7.75729 74 74 0 
0.616392 0.745683 8.35239 103 72 80 
0.542098 1.06087 7.71013 145 73 33 
0.63378 -0.330127 8.64607 82 51 57 
0.577864 0.996555 7.939 100 58 16 
0.552055 1.07019 7.72469 142 73 18 
0.380309 -2.10291 7.22695 63 8 13 
0.636201 -0.13731 8.47308 89 90 84 
0.570893 1.16009 7.71175 224 181 113 
0.598379 0.959623 7.86924 239 217 118 
0.600335 0.953545 7.81954 111 93 29 
0.730745 4.74667 7.71282 128 90 69 
0.371187 -2.13601 7.0079 173 143 119 
0.600537 1.02137 7.71347 221 227 105 
0.734038 3.90289 7.86262 32 35 40 
0.477387 -1.78969 7.53499 107 62 59 
0.862742 5.1146 8.34632 138 107 76 
0.629112 0.962624 7.77715 229 211 49 
0.703581 0.50303 8.37291 178 122 107 
0.626798 1.03679 7.74311 42 29 10 
0.723856 4.75287 7.43367 156 110 76 
0.634326 1.05038 7.73783 108 60 38 
0.635277 1.02613 7.7457 208 191 148 
0.719299 0.473522 8.40669 56 51 55 
0.424917 -2.05901 7.14594 65 41 17 
0.850786 3.43282 8.46515 3 7 18 
0.626833 1.23695 7.57221 87 71 58 
0.64953 1.05335 7.74629 211 180 151 
0.64843 1.10393 7.70556 30 11 15 
0.64397 1.05591 7.68303 187 111 98 
0.507167 -1.76858 7.49863 92 57 19 
0.66462 0.948729 7.81211 147 168 169 
0.776557 3.84863 7.78014 40 40 42 
0.622282 1.12831 7.47375 193 124 109 
0.636666 1.20431 7.54489 63 49 38 
0.740902 0.443011 8.38118 70 71 73 
0.651053 1.03262 7.65668 57 39 29 
0.75129 0.474661 8.4117 158 144 131 
0.66625 1.04519 7.73944 45 33 17 
0.742866 0.00883326 8.44143 58 37 52 
0.690158 0.981981 7.87756 120 132 130 
0.780993 5.07417 7.42535 162 116 80 
0.698792 0.944338 7.9014 110 48 59 
0.545355 -1.76232 7.56817 62 23 24 
0.766056 0.285982 8.41508 116 74 86 
0.684836 1.08986 7.70803 239 217 180 
0.764357 -0.0151729 8.40164 128 130 129 
0.718318 0.970218 7.89036 232 207 53 
0.484634 -2.05172 7.18398 54 35 0 
0.682328 1.19023 7.56579 207 188 158 
0.493876 -2.04569 7.22079 209 184 144 
0.689706 -1.48087 8.26219 181 153 113 
0.714348 1.15964 7.76292 74 48 21 
0.713184 0.9691 7.80488 237 202 14 
0.892237 5.16392 7.83621 31 24 31 
0.768486 0.265964 8.29408 148 138 129 
0.582402 -1.72325 7.64255 140 108 83 
0.722748 1.05291 7.77433 252 211 191 
0.731144 1.16882 7.78111 186 163 111 
0.725253 1.09262 7.75465 72 63 24 
0.611106 -1.64319 7.73819 54 34 33 
0.836878 0.10774 8.65497 81 34 52 
0.508306 -2.06589 7.22887 163 139 101 
0.58524 -1.7742 7.5904 183 160 116 
1.15616 5.59083 9.1593 75 74 72 
0.737741 1.11054 7.77185 153 139 76 
0.84708 0.112245 8.65194 72 29 38 
0.843348 0.106491 8.62815 66 25 33 
0.745202 1.13417 7.75175 92 85 77 
0.787082 0.983571 8.00992 179 140 21 
0.589489 -1.76718 7.51585 65 35 37 
0.76249 1.09126 7.82407 168 137 0 
1.01597 2.74901 8.90461 12 13 15 
0.763543 1.11404 7.78952 198 173 18 
0.50955 -2.11833 7.09779 52 28 4 
0.604631 -1.73869 7.52434 207 195 153 
0.889764 3.77058 7.81203 24 24 32 
0.619604 -1.77225 7.58486 221 208 164 
0.783829 0.996673 7.78766 235 208 165 
0.623385 -1.73739 7.52576 250 250 200 
0.784079 1.13769 7.72712 174 144 90 
0.756894 1.18587 7.53311 198 190 177 
0.881822 -0.000494747 8.51648 159 146 127 
0.763841 1.25286 7.52937 43 32 14 
0.640643 -1.75653 7.56574 124 135 93 
0.59643 -1.9075 7.34086 30 13 23 
0.636137 -1.76511 7.52127 92 99 68 
1.2305 5.59322 9.01924 133 124 127 
0.817194 1.14805 7.78321 150 112 13 
0.659387 -1.7141 7.57619 115 119 128 
0.880095 0.843669 8.16291 121 65 48 
0.949531 0.532161 8.6258 191 167 139 
0.873824 0.213267 8.27077 40 29 23 
0.636965 -1.75554 7.44158 60 70 36 
1.10334 2.88196 8.87534 99 101 100 
0.707769 -1.71716 7.73667 24 26 38 
1.11746 2.73458 8.88883 133 133 131 
0.82134 1.18312 7.6228 86 87 91 
0.662827 -1.74585 7.45346 29 30 48 
0.842126 1.17998 7.70911 80 79 84 
0.695055 -1.78485 7.56171 4 6 19 
0.684726 -1.76841 7.47503 93 94 96 
0.846667 1.20137 7.58215 76 73 64 
0.843293 1.21319 7.55416 209 197 171 
0.784447 -1.46302 7.90479 38 21 13 
0.882051 1.1698 7.75162 99 94 91 
0.910509 0.934911 7.94717 119 97 84 
0.935857 0.928147 7.91781 177 151 138 
1.13348 3.79827 8.12558 1 6 12 
0.819928 -1.60358 7.818 39 19 18 
0.986901 0.961375 7.97166 85 38 28 
0.821035 -1.64514 7.75074 188 144 117 
0.851541 -1.54201 7.87721 98 60 23 
0.922141 1.26281 7.53034 145 95 58 
1.14079 3.80932 7.96413 75 74 72 
0.771541 -1.83024 7.48942 20 3 9 
0.98012 1.17967 7.74707 229 176 62 
1.09207 0.741834 8.40578 61 52 53 
1.15805 3.74414 7.91804 7 7 19 
0.766342 -1.94437 7.367 31 14 7 
1.03329 1.01836 7.87345 60 68 45 
1.28948 2.37817 8.77398 180 171 162 
1.00207 1.03075 7.69634 199 166 0 
1.02396 1.03241 7.80414 171 138 43 
1.05221 0.961513 7.95035 102 66 34 
1.02097 1.19098 7.7183 235 192 90 
1.00076 1.29334 7.56741 212 180 139 
1.00557 1.22093 7.58171 210 178 95 
1.03322 1.22714 7.7126 233 187 101 
1.06137 1.02768 7.89594 196 185 155 
1.00506 1.25675 7.56413 217 192 128 
1.03791 1.23729 7.67968 126 97 41 
1.08833 0.989111 7.9407 237 210 180 
1.08545 0.993347 7.91945 240 230 205 
1.06493 1.20343 7.74246 232 119 23 
1.21425 3.4759 7.85265 52 51 49 
1.03609 1.27577 7.54557 153 124 82 
0.885564 -1.72157 7.58473 74 52 15 
1.03613 1.22746 7.53878 136 119 76 
0.805094 -2.00401 7.26771 58 36 15 
1.07641 1.23856 7.68931 227 164 84 
1.12168 0.991736 7.95211 62 87 58 
0.918322 -1.63919 7.66346 142 121 64 
1.10047 0.885149 7.87267 201 184 156 
1.1104 1.01969 7.853 225 209 184 
1.14358 1.00245 8.00553 65 77 57 
1.30694 3.76255 8.03954 80 72 61 
1.10519 1.22313 7.76411 234 115 33 
1.06843 1.26948 7.56537 207 175 118 
1.10188 1.0425 7.77316 153 85 12 
0.874869 -1.94503 7.47541 134 107 18 
1.08255 1.26775 7.61206 220 185 103 
0.94247 -1.60898 7.68505 149 126 72 
1.10602 1.27815 7.69726 226 184 98 
0.941198 -1.62914 7.66474 94 67 22 
1.13253 1.03144 7.83056 233 214 174 
1.12563 1.03877 7.79698 236 205 174 
1.16122 0.975739 7.9642 160 140 113 
1.13316 1.05418 7.77997 64 31 0 
1.11438 1.23845 7.63715 172 85 6 
0.964528 -1.70392 7.65882 199 169 13 
0.943744 -1.79743 7.57362 98 86 90 
1.20104 0.990011 7.99272 40 9 4 
1.19899 0.935975 7.98097 148 130 106 
1.46107 3.35917 8.51293 6 9 18 
1.20531 1.02354 7.95143 236 203 10 
0.956657 -1.80667 7.56655 74 63 33 
1.51976 3.42668 8.70886 20 18 21 
1.17233 1.17404 7.71885 244 199 10 
1.12295 1.19655 7.47604 216 108 43 
1.22171 1.06412 7.90678 160 138 3 
1.23843 1.00166 7.98942 79 26 10 
1.2169 1.20567 7.77009 92 69 51 
1.26974 1.0326 8.03755 153 105 56 
1.23179 1.03441 7.83195 232 208 14 
1.34917 0.832454 8.36675 157 84 101 
1.22916 1.18489 7.74184 48 29 25 
1.27577 1.02452 7.96385 152 115 27 
1.25561 1.13966 7.84618 100 69 41 
1.25901 1.11774 7.8635 64 39 17 
1.29698 1.08697 8.00856 85 28 1 
1.29828 0.887135 7.99188 177 155 132 
1.2717 1.21895 7.78437 57 33 5 
1.54412 3.08354 8.45996 23 22 28 
1.27299 1.17912 7.72232 163 123 97 
1.0401 -1.75328 7.4755 10 9 14 
1.34891 1.15013 7.96626 44 34 24 
1.54599 3.55263 8.16113 31 30 35 
1.55892 3.58493 8.2045 31 30 35 
1.46005 0.625822 8.51585 181 165 142 
1.34272 1.14643 7.8537 112 90 67 
1.47394 0.785285 8.45346 46 45 41 
1.59246 3.15029 8.27732 11 14 21 
1.33123 1.28677 7.69031 221 181 111 
1.43846 1.16928 7.98013 132 100 89 
1.14215 -1.55278 7.50311 157 140 71 
1.44147 1.03047 7.99905 113 59 59 
1.42447 1.24253 7.84609 200 102 63 
1.46197 1.15567 8.00975 158 99 83 
1.17257 -1.55574 7.54364 99 79 16 
1.45063 0.865629 7.99145 155 130 123 
1.47247 0.893385 8.06631 156 133 127 
1.46745 1.17694 7.96023 110 58 44 
1.16271 -1.57163 7.47436 155 142 87 
1.46138 1.1785 7.92291 103 43 33 
1.16547 -1.59436 7.47954 103 87 35 
1.49331 1.19109 8.00999 160 100 92 
1.49766 1.16669 7.99626 95 32 27 
1.18151 -1.5837 7.47749 97 77 26 
1.47564 1.20878 7.80144 218 158 121 
1.47703 1.22992 7.7891 143 101 51 
1.45091 1.25937 7.67459 78 20 16 
1.51841 1.15749 7.93629 208 96 108 
1.19042 -1.72772 7.4049 136 114 3 
1.50027 1.21714 7.79675 215 161 117 
1.63455 2.60386 7.94036 48 50 47 
1.18591 -1.61984 7.33928 177 152 25 
1.19466 -1.66568 7.37436 80 69 13 
1.1867 -1.69149 7.31179 166 148 82 
1.52142 1.23014 7.77917 142 100 52 
1.66869 2.55261 7.9601 90 91 95 
1.54204 1.28226 7.81441 127 88 57 
1.53613 1.2546 7.78771 176 139 95 
1.25739 -1.54585 7.47548 220 193 62 
1.34761 -1.35275 7.68384 53 37 3 
1.52872 1.30571 7.63365 194 113 110 
1.54959 1.28216 7.70971 129 81 67 
1.7441 3.49046 7.84332 197 185 173 
1.80184 3.00107 8.17469 205 191 180 
1.62634 1.00917 7.96931 138 125 119 
1.57195 1.33055 7.66357 186 119 110 
1.5849 1.24129 7.71239 210 167 112 
1.31487 -1.55646 7.4668 146 113 0 
1.30322 -1.60931 7.43139 139 101 2 
1.60805 1.32908 7.70734 115 72 56 
1.61038 1.30145 7.72216 174 135 96 
1.5839 1.17786 7.64119 173 69 42 
1.72804 1.25267 8.00254 214 169 114 
1.44589 -1.44492 7.69928 192 160 25 
1.66063 1.27175 7.71136 165 69 44 
1.82927 2.34522 8.02075 210 193 183 
1.84591 2.29084 8.06754 203 199 190 
1.74993 1.9831 7.68983 37 39 25 
1.66916 1.30773 7.55445 36 31 27 
1.66802 1.27613 7.53566 177 137 125 
1.89273 2.32969 7.87973 208 194 181 
1.83289 1.83867 7.73961 205 205 195 
1.52146 -1.22566 7.444 176 99 17 
1.5185 -1.33356 7.40379 213 159 51 
1.53538 -1.3218 7.40173 177 102 9 
1.61214 -1.65892 7.72335 96 88 51 
1.56096 -1.29944 7.44175 236 196 75 
2.01453 1.94611 8.0135 189 185 173 
1.57498 -1.38586 7.4772 178 100 17 
1.54615 -1.34185 7.36975 216 173 68 
1.57663 -1.40495 7.4667 175 100 17 
1.55726 -1.4256 7.39884 181 101 14 
1.60285 -1.27115 7.47816 176 145 80 
1.5538 -1.44311 7.37265 192 109 17 
2.0214 1.98702 7.93298 210 197 180 
1.59096 -1.21019 7.40844 62 61 59 
1.61226 -1.56213 7.53807 202 125 11 
2.08347 1.88316 8.08681 40 43 24 
1.62003 -1.28461 7.44304 55 50 47 
1.8939 1.51948 7.51624 64 64 54 
1.92995 1.11865 7.61934 18 24 14 
1.98762 1.47749 7.62793 8 12 0 
2.02497 1.46746 7.66143 39 42 35 
2.02093 1.17803 7.7049 10 14 13 
1.70653 -1.26836 7.35418 48 51 34 
1.69996 -1.26978 7.33482 46 50 33 
2.30344 1.72737 8.13815 36 38 33 
2.24561 0.795995 7.77435 37 40 33 
2.20922 0.687422 7.69661 207 195 179 
2.18864 0.668083 7.64419 206 198 179 
-1.89336 -0.924373 7.31001 41 43 58 
-1.84954 -1.02575 7.33742 174 172 175 
-1.83372 -0.86074 7.35537 124 44 53 
-1.79566 -1.01231 7.35392 176 165 169 
-1.7948 -0.835259 7.38878 180 181 186 
-2.00322 -0.00115217 8.05714 184 204 215 
-1.76112 -0.871796 7.39632 174 175 180 
-1.88766 0.748245 7.70802 134 147 164 
-1.91639 0.236584 8.00974 168 178 190 
-1.66168 0.953932 7.303 99 88 94 
-1.64329 0.976574 7.30782 149 137 137 
-1.63547 0.910775 7.34132 165 152 136 
-1.59803 0.931475 7.33168 147 137 125 
-1.54755 0.501545 7.34456 121 119 122 
-1.2095 -1.72751 6.56549 42 42 44 
-1.54579 0.964579 7.38876 44 50 74 
-1.50679 0.84698 7.43036 141 133 130 
-1.51128 0.979364 7.42013 133 124 127 
-1.10971 -1.61243 6.55178 206 159 29 
-1.24875 0.567251 7.04057 218 205 188 
-1.21606 0.902691 6.82008 20 29 46 
-1.22775 0.129467 8.14966 140 128 116 
-1.27524 3.43661 7.59546 24 32 43 
-1.09347 0.587012 7.86508 198 170 130 
-0.806714 -1.71741 6.87044 84 22 25 
-1.08172 0.777193 7.77941 94 24 34 
-1.27181 3.37527 8.01001 160 167 133 
-1.31621 3.28127 8.39585 127 89 26 
-1.26203 3.39053 7.99475 67 78 48 
-1.25075 3.32971 8.02198 217 188 71 
-1.28363 3.28362 8.32554 187 149 86 
-1.26124 3.30346 8.16604 226 191 65 
-1.04703 0.983149 7.66863 187 167 142 
-1.05021 0.756971 7.79262 179 153 126 
-1.19217 3.45194 7.73538 201 202 186 
-1.24738 3.31428 8.24487 151 117 17 
-1.00704 0.94059 7.59327 130 113 103 
-1.0149 1.02059 7.67679 41 37 36 
-1.22124 3.28688 8.22809 164 127 23 
-0.735075 -1.93514 6.9907 34 24 25 
-1.18897 3.36105 7.98799 159 159 85 
-1.18326 3.39271 7.94886 178 173 153 
-1.1496 3.44962 7.70214 79 83 46 
-0.994706 0.794903 7.7872 95 24 22 
-1.19191 3.32126 8.15964 217 193 85 
-1.17773 3.35513 8.05861 214 194 97 
-1.18097 3.34126 8.16975 141 110 19 
-0.958713 0.494701 7.86808 171 132 93 
-1.15822 3.35749 8.06035 222 194 85 
-0.956064 0.998366 7.62145 207 191 168 
-1.15784 3.32642 8.11192 222 187 85 
-1.1038 3.45948 7.74788 210 205 175 
-0.938926 0.507498 7.88923 227 193 156 
-1.11543 3.37178 7.93815 70 76 40 
-1.09783 3.4075 7.80039 87 86 56 
-1.11022 3.33274 7.99877 216 186 54 
-1.07428 3.41376 7.80335 202 199 168 
-0.92204 0.996141 7.73643 186 177 160 
-1.06851 3.43141 7.79139 158 157 126 
-0.922427 0.5173 8.03171 100 74 57 
-0.910597 1.00339 7.73515 49 41 28 
-0.902176 0.439139 7.9553 210 180 142 
-1.05957 3.37281 7.89834 34 44 10 
-1.03557 3.41182 7.78108 105 100 70 
-1.05462 3.36828 7.9784 207 185 73 
-0.880208 1.02656 7.72632 55 51 42 
-1.02752 3.37037 7.87149 37 44 26 
-0.868775 0.498369 8.12231 197 167 133 
-0.857371 0.82996 7.85478 218 152 39 
-1.02769 3.34255 8.05944 165 128 22 
-0.98843 3.44942 7.70256 88 87 69 
-0.994102 3.37818 7.80582 36 33 24 
-0.99389 3.36624 7.88989 86 85 39 
-1.01781 3.35579 8.11329 224 189 85 
-0.973098 3.4488 7.76602 21 24 13 
-0.955377 3.42417 7.72703 197 202 170 
-0.785322 1.08706 7.43377 40 30 31 
-0.949017 3.40502 7.77204 38 38 26 
-0.947039 3.41088 7.84842 150 161 105 
-0.954759 3.38358 7.9675 223 183 72 
-0.93222 3.39624 7.93972 216 203 148 
-0.768672 0.872793 7.87177 150 94 37 
-0.919818 3.38246 7.95838 132 125 109 
-0.907397 3.3844 7.87875 132 123 114 
-0.726546 1.03226 7.46055 226 211 182 
-0.887338 3.41575 7.82566 230 214 180 
-0.858379 3.57032 7.71316 221 184 139 
-0.683236 1.09436 7.3907 99 84 65 
-0.714684 0.776579 7.96232 94 21 30 
-0.716607 0.82673 7.96092 206 133 54 
-0.845231 3.43736 7.80295 200 148 47 
-0.813258 3.58147 7.55875 243 237 205 
-0.678197 0.821008 8.007 193 123 61 
-0.673265 0.76384 7.99641 114 29 32 
-0.826403 3.29861 8.31476 139 100 45 
-0.831977 3.19474 8.48169 174 152 138 
-0.804071 3.37546 8.10398 211 181 147 
-0.80773 3.35961 8.27207 152 122 62 
-0.642157 0.732482 8.05346 97 40 11 
-0.768817 3.41186 7.92135 204 180 152 
-0.774611 3.36542 8.16792 203 171 94 
-0.742323 3.38233 7.82992 137 107 47 
-0.742132 3.41403 7.85382 138 109 53 
-0.719753 3.56288 7.49899 201 193 144 
-0.769176 3.40352 8.19735 100 67 22 
-0.735787 3.38999 8.12556 216 181 81 
-0.74072 3.3723 8.22075 147 126 95 
-0.854798 5.16014 8.84959 130 126 125 
-0.714231 3.37583 8.29245 201 161 66 
-0.676374 3.37433 7.87172 186 150 88 
-0.728954 3.41252 8.56889 136 102 57 
-0.724539 3.35264 8.64026 34 34 46 
-0.694278 3.38873 8.57158 142 143 148 
-0.653881 3.41921 8.0502 117 98 65 
-0.649867 3.41455 8.03148 115 92 58 
-0.617025 3.61239 7.45441 168 174 126 
-0.7021 3.28867 8.87891 53 60 88 
-0.633079 3.54621 7.81609 167 111 24 
-0.629711 3.58558 7.77449 92 66 29 
-0.620449 3.52653 7.8119 228 175 69 
-0.659186 3.40298 8.45614 41 43 55 
-0.634374 3.42008 8.22578 201 168 89 
-0.640286 3.38664 8.55607 35 35 47 
-0.630911 3.39642 8.4427 92 90 101 
-0.610331 3.37779 8.34361 46 43 62 
-0.561238 3.57559 7.47476 131 134 87 
-0.628409 3.3398 8.70549 32 31 47 
-0.595761 3.43723 8.23005 196 171 87 
-0.603043 3.35404 8.64528 116 113 134 
-0.565319 3.53956 7.98423 167 128 9 
-0.569614 3.45559 8.25942 48 33 26 
-0.429297 0.886112 8.26046 179 121 119 
-0.518095 3.54503 7.57162 98 68 0 
-0.507728 3.64657 7.38721 219 181 8 
-0.549507 3.40957 8.50351 129 109 134 
-0.532695 3.44272 8.25675 44 40 41 
-0.517192 3.51385 7.99627 36 39 30 
-0.532206 3.47456 8.27299 148 133 128 
-0.546706 3.33316 8.76623 132 130 143 
-0.507391 3.46998 8.09663 156 145 125 
-0.514069 3.42539 8.3382 47 43 58 
-0.157862 -1.66993 6.62864 34 2 13 
-0.504965 3.39179 8.43172 56 39 58 
-0.455652 3.57504 7.36697 77 102 47 
-0.496083 3.41385 8.32365 51 47 61 
-0.456026 3.57893 7.37491 77 102 47 
-0.476336 3.50917 7.94087 153 149 138 
-0.499209 3.32058 8.75894 133 131 145 
-0.485181 3.38586 8.34969 112 99 117 
-0.492798 3.38241 8.58816 130 120 145 
-0.462321 3.45372 8.24214 175 172 165 
-0.448339 3.39649 8.28702 141 143 155 
-0.430585 3.44225 8.0241 155 150 146 
-0.445813 3.33386 8.60073 37 38 43 
-0.434848 3.394 8.34818 158 157 175 
-0.441372 3.29018 8.736 67 53 52 
-0.290311 0.94609 7.99777 57 24 31 
-0.407896 3.47589 7.84376 47 43 32 
-0.420795 3.39086 8.31277 153 151 165 
-0.272439 1.01495 7.88198 182 151 148 
-0.398983 3.38587 8.24355 159 161 160 
-0.394286 3.40401 8.20294 159 157 145 
-0.07712 -1.6991 6.61592 42 11 19 
-0.0474677 -2.19766 6.6158 132 110 50 
-0.245939 0.98621 7.83587 35 29 73 
-0.648891 6.83708 10.9742 29 29 29 
-0.351591 3.39569 8.0656 38 38 36 
-0.0371626 -2.07356 6.69123 22 12 21 
-0.343729 3.32746 8.48031 217 172 43 
-0.330915 3.37034 8.29979 221 184 80 
-0.187241 0.140665 8.92715 146 140 140 
-0.312433 3.34027 8.30891 159 125 53 
-0.297806 3.55467 7.6844 96 93 74 
-0.300447 3.35768 8.37095 153 119 32 
-0.14371 0.0617173 8.64764 145 147 144 
-0.275223 3.41995 7.817 41 30 12 
-0.115549 -0.267773 8.46523 96 96 96 
-0.167712 0.736729 8.72247 148 101 75 
-0.129413 0.0428256 8.57789 150 151 143 
-0.0991817 -0.413024 8.37491 111 31 60 
-0.0981645 -0.442173 8.4333 99 35 52 
-0.098459 -0.274407 8.47938 152 152 150 
-0.0969378 -0.204346 8.49414 37 37 35 
-0.249286 3.4899 7.85748 139 123 97 
-0.0854964 -0.349262 8.41807 147 148 142 
-0.0667712 -0.381098 8.41454 90 70 72 
-0.0604664 -0.441309 8.37952 91 66 69 
-0.0580603 -0.471687 8.36763 104 67 74 
-0.048831 -0.402684 8.41716 150 145 141 
0.0779568 -2.31406 6.65925 153 129 57 
-0.0411337 -0.287779 8.47637 146 147 139 
-0.213904 3.57744 8.38558 40 41 36 
-0.0675165 0.375292 8.6914 104 98 124 
-0.0162928 -0.516218 8.30991 150 139 137 
-0.0204048 -0.377633 8.41796 172 135 142 
-0.018003 -0.400382 8.41681 111 42 60 
-0.0219345 -0.312729 8.47593 89 89 87 
-0.0542441 0.342975 8.7169 72 17 49 
-0.0115977 -0.349063 8.43643 145 146 140 
-0.00986501 -0.228925 8.49765 148 147 143 
0.00223833 -0.419617 8.41803 90 53 61 
0.0139126 -0.494327 8.37608 152 132 134 
-0.156256 3.65282 7.39334 214 177 8 
0.0238164 -0.455814 8.41176 149 146 139 
0.016813 -0.309807 8.45334 97 97 95 
0.031667 -0.508393 8.3943 90 42 56 
0.0362667 -0.413945 8.44179 106 48 63 
0.0350588 -0.223825 8.51409 149 149 147 
0.0411578 -0.309564 8.48363 100 100 98 
0.0563678 -0.395994 8.42862 157 137 138 
-0.113356 3.70809 7.41168 190 108 94 
-0.113281 3.5998 8.30146 95 55 30 
0.0368922 0.185445 8.56484 123 22 62 
0.0693313 -0.489423 8.37271 109 50 70 
0.0374786 0.277848 8.6632 111 49 74 
-0.0983439 3.59965 8.31196 163 114 84 
0.0768984 -0.22672 8.52269 146 146 144 
0.0813981 -0.28285 8.49762 148 148 146 
0.0865168 -0.347012 8.45058 141 143 140 
0.0627834 0.255844 8.6711 34 15 34 
0.100778 -0.490347 8.34514 91 45 56 
0.101655 -0.437063 8.41063 144 146 135 
0.0655946 0.397106 8.72031 60 22 37 
0.064387 0.42732 8.72746 139 75 89 
-0.067494 3.61173 7.60829 102 118 117 
-0.0673831 3.59899 8.37743 113 59 25 
-0.0673869 3.61194 8.25009 140 113 83 
-0.0620998 3.58204 7.38013 151 38 42 
0.11454 -0.503277 8.36489 161 135 138 
-0.0673736 3.79546 7.44234 45 45 35 
-0.0559192 3.61511 8.21707 65 55 30 
0.119715 -0.391306 8.43045 130 74 87 
0.125015 -0.270982 9.16218 79 79 79 
0.106481 0.161016 8.66525 131 37 74 
0.0992991 0.372143 8.70005 169 86 102 
0.128044 -0.238295 8.52386 24 23 21 
0.244063 -2.80355 7.04765 210 186 148 
0.143659 -0.301544 8.48669 97 96 91 
0.152931 -0.342241 8.47337 144 147 136 
0.14628 -0.188238 8.53629 151 150 148 
0.15236 -0.247474 8.53418 150 150 142 
0.227629 -2.12951 6.90137 85 45 46 
0.128379 0.404289 8.71549 58 26 39 
0.180951 -0.299324 8.49275 103 103 91 
0.205888 -0.503993 8.40703 111 47 63 
0.177483 0.280714 8.67508 88 50 71 
0.0481655 3.40792 8.74035 58 56 44 
0.203005 -0.240203 8.52145 61 60 55 
0.211888 -0.369563 8.45361 85 51 52 
0.0490949 3.57029 8.27877 27 31 4 
0.188517 0.35979 8.67992 165 45 80 
0.224151 -0.427697 8.43169 149 144 140 
0.224144 -0.237106 8.52795 153 152 147 
0.231332 -0.386775 8.47081 169 145 143 
0.0746637 3.53625 8.33773 108 110 96 
0.22711 0.339253 8.71277 165 50 89 
0.325003 -2.55267 6.91067 226 203 171 
0.252607 -0.238295 8.51234 93 92 90 
0.12508 3.24512 9.24858 147 134 117 
0.109194 3.50513 8.35815 121 119 106 
0.250486 0.263868 8.67376 34 5 25 
0.271423 -0.381965 8.46304 151 147 136 
0.146572 3.02205 8.92723 41 31 32 
0.24836 0.439901 8.66595 79 42 73 
0.133262 3.41421 8.67563 93 91 79 
0.278814 -0.255484 8.50888 146 144 132 
0.109329 3.67973 7.90822 88 93 73 
0.297929 -0.230422 8.50962 80 79 77 
0.285288 0.350681 8.68207 61 18 64 
0.176442 3.48185 8.37027 82 84 81 
0.330918 -0.356879 8.44726 97 37 49 
0.307433 0.429549 8.72071 191 177 166 
0.329348 -0.23733 8.51484 10 10 10 
0.321267 0.499965 8.60924 197 183 156 
0.338723 0.205579 8.66266 179 175 166 
0.33785 0.326447 8.70771 183 166 159 
0.356201 -0.224655 8.50574 81 81 79 
0.3702 -0.396958 8.45587 104 40 54 
0.366699 -0.193882 8.52775 143 144 138 
0.258006 3.25994 9.27487 116 107 98 
0.307848 1.07833 7.92371 186 161 139 
0.365804 0.18178 8.67154 44 50 74 
0.212988 3.61779 7.71155 43 55 45 
0.388956 -0.370184 8.45818 156 138 134 
0.203999 4.9915 9.0287 102 98 95 
0.370902 0.442594 8.71297 100 59 77 
0.392376 -0.22115 8.52848 47 48 43 
0.379026 0.432521 8.73092 103 59 84 
0.409342 -0.348081 8.45411 99 56 63 
0.413148 -0.19492 8.50124 148 149 144 
0.352961 1.08701 7.92634 192 168 134 
0.357481 1.06242 7.93511 164 138 101 
0.37058 1.08723 7.90672 117 66 49 
0.378586 0.994919 7.95402 241 217 179 
0.425012 0.656095 8.81513 210 175 156 
0.460662 -0.369024 8.4977 162 125 132 
0.455848 0.0732842 8.67163 30 33 52 
0.471359 -1.98796 6.90949 47 22 18 
0.493127 -0.370242 8.52245 171 121 132 
0.302877 3.68117 7.25126 67 66 64 
0.511019 -0.385179 8.51529 92 45 55 
0.341627 3.7422 7.82574 22 26 37 
0.515604 -1.70341 6.90492 126 95 66 
0.463333 1.11567 7.896 159 142 126 
0.549525 -0.348218 8.53343 85 45 54 
0.481164 1.04815 7.89104 245 223 173 
0.480063 1.07108 7.87376 75 44 23 
0.493809 1.10759 7.88053 58 8 7 
0.496538 1.07212 7.84981 235 136 115 
0.59251 -0.364331 8.54245 120 77 86 
0.51133 1.09729 7.87801 203 108 90 
0.658831 -0.126083 8.65589 104 105 91 
0.656318 0.685312 8.86264 165 109 112 
0.682165 0.241889 8.75907 35 19 30 
0.654092 -2.23152 6.87658 47 23 11 
0.620029 1.08386 7.82733 254 216 177 
0.664932 -1.98499 6.90018 142 113 81 
0.664474 -2.17099 6.80576 71 44 25 
0.669966 -1.93184 6.88372 55 13 15 
0.643127 1.13885 7.82968 119 80 65 
0.657758 1.06718 7.85157 190 143 123 
0.750607 0.666172 8.88542 141 85 84 
0.705213 3.02041 9.2807 8 12 15 
0.56872 5.30614 8.44079 70 52 40 
0.698697 0.984872 8.05823 64 43 40 
0.782063 0.563085 8.83212 60 55 51 
0.794326 0.452352 8.87847 170 78 91 
0.698447 1.1055 7.83554 248 226 185 
0.816854 -0.501791 8.54122 83 84 76 
0.811296 0.537157 8.85281 80 80 72 
0.812594 0.537895 8.86434 80 80 72 
0.816988 0.562811 8.84118 171 160 138 
0.74263 1.02384 8.0276 225 189 43 
0.843637 0.110757 8.68019 99 48 55 
0.883898 0.706306 8.97697 181 158 127 
0.895171 0.417101 8.54923 183 159 133 
0.826713 -1.69307 7.02177 55 26 28 
0.842276 -1.77206 7.12178 42 24 12 
0.911614 0.247981 8.52329 42 27 20 
0.863126 -1.80019 7.05522 201 170 20 
0.856733 -1.68421 7.03569 207 182 56 
0.773105 3.87545 7.90124 75 71 62 
0.922027 -2.23577 7.3137 170 139 33 
0.913937 0.990241 8.1272 164 146 126 
0.953534 -1.88872 6.95055 109 85 11 
1.06416 1.04462 8.0999 218 193 153 
1.00841 -1.54111 6.90312 109 88 21 
1.07955 -2.07654 7.10576 167 126 0 
1.13222 0.97864 8.10882 144 123 96 
1.10341 -2.10138 7.11972 241 209 26 
1.22681 0.970234 8.12932 148 127 98 
1.31576 3.12483 9.17363 163 153 143 
1.23398 1.0625 8.08381 214 191 51 
1.36418 1.1191 8.1729 172 140 27 
1.40205 0.9788 8.08517 156 130 115 
1.40046 0.977533 8.07529 156 130 115 
1.44229 -1.63891 7.16157 229 175 53 
1.56621 3.62032 8.22503 26 26 28 
1.64211 1.02932 8.14903 166 140 123 
1.63061 1.14118 8.06008 182 84 97 
2.00322 0.778491 7.84066 63 57 43 
2.23098 1.39097 8.19091 32 26 12 
2.40046 0.867371 8.20969 203 190 171 
-1.88422 1.16614 6.82696 244 253 255 
-1.56028 -2.54208 7.45654 20 19 25 
-1.54711 -2.61157 7.47083 140 142 129 
-1.51843 -2.56119 7.46899 88 88 98 
-1.50422 -2.54183 7.47165 104 104 112 
-1.49574 -2.46226 7.45798 111 111 121 
-1.4961 -2.39455 7.44952 99 102 119 
-1.48778 -2.45175 7.46145 51 51 61 
-1.48233 -2.46711 7.45716 50 50 58 
-1.47062 -2.8532 7.55248 40 46 60 
-1.42803 -2.7919 7.53086 139 137 140 
-1.38278 -2.4255 7.48241 133 147 147 
-1.37723 -2.40024 7.47645 59 71 87 
-1.36385 -2.84386 7.5632 34 46 62 
-1.29872 -2.76977 7.55393 102 109 119 
-1.21952 -2.69918 7.55222 162 174 174 
-1.21267 -2.75266 7.53617 57 78 105 
-1.19485 -2.7578 7.56151 126 144 156 
-1.19036 -2.44119 7.50907 128 142 155 
-1.13777 -2.50115 7.53512 133 136 145 
-1.11958 -2.34371 7.51051 139 142 147 
-1.04043 -2.77121 7.60171 121 135 144 
-0.989485 -2.44341 7.51616 49 56 74 
-0.975943 -2.45565 7.55636 146 145 143 
-0.955118 -2.53256 7.56345 70 85 106 
-0.938841 -2.433 7.5644 97 110 127 
-0.882194 -2.72912 7.63021 26 33 49 
-1.28357 3.34159 8.3001 226 191 65 
-1.22259 3.33116 8.3358 142 111 5 
-1.15785 3.47972 7.8344 72 74 61 
-0.766353 -2.53933 7.62056 39 39 51 
-0.748415 -2.75361 7.64874 119 119 129 
-1.17596 3.3912 8.17489 222 194 85 
-0.74592 -2.57712 7.6157 121 121 119 
-0.726951 -2.76312 7.65267 143 144 149 
-1.1175 3.48773 7.83662 210 205 175 
-1.133 3.40688 8.05504 70 76 40 
-1.11351 3.44255 7.91364 87 86 56 
-0.712162 -2.72863 7.65942 168 161 151 
-1.10239 3.42085 8.00197 182 182 146 
-0.692232 -2.72815 7.65696 176 168 157 
-1.08221 3.45994 7.88252 158 157 126 
-0.682048 -2.82244 7.7093 54 51 60 
-1.07738 3.41006 8.02174 34 44 10 
-1.05351 3.45077 7.90635 105 100 70 
-1.07123 3.40325 8.09553 207 185 73 
-0.660012 -2.75845 7.66262 42 41 49 
-0.663667 -2.73248 7.68311 36 35 43 
-1.05973 3.40585 8.03052 157 166 119 
-1.04354 3.40659 7.99128 37 44 26 
-1.04565 3.38048 8.1891 165 128 22 
-1.01341 3.42235 7.95028 36 33 24 
-1.01127 3.40394 8.01496 86 85 39 
-1.02993 3.38142 8.201 224 189 85 
-0.629872 -2.36255 7.59723 134 137 130 
-0.811263 0.773884 7.78074 188 157 137 
-0.60513 -2.4327 7.61972 33 31 42 
-0.978605 3.43185 7.97232 117 128 111 
-0.598714 -2.38086 7.60765 19 18 36 
-0.595438 -2.45576 7.61908 148 145 136 
-0.958028 3.43864 7.93853 150 161 105 
-0.772353 0.760626 7.77822 177 160 142 
-0.944324 3.39353 8.1045 167 155 141 
-0.922743 3.42217 8.00303 132 123 114 
-0.86273 3.35323 8.29616 168 115 13 
-0.791588 3.58259 7.77992 13 13 23 
-0.792725 3.43233 8.09264 212 187 165 
-0.782413 3.44892 8.04247 204 180 152 
-0.78538 3.42528 8.22741 161 127 82 
-0.778979 3.4294 8.28499 100 67 22 
-0.77815 3.3827 8.40503 214 163 72 
-0.747881 3.42283 8.23647 216 181 81 
-0.755064 3.41266 8.35964 147 126 95 
-0.738167 3.47614 8.15905 198 164 92 
-0.724886 3.40549 8.39512 201 161 66 
-0.643715 3.58267 7.92788 167 111 24 
-0.623371 3.41938 8.48834 46 43 62 
-0.615139 3.39193 8.78299 116 113 134 
-0.510062 3.59352 7.6008 229 221 185 
-0.522848 3.50299 8.26703 128 114 101 
-0.516911 3.50743 8.21886 156 145 125 
-0.463472 3.61178 7.46892 77 102 47 
-0.470444 3.59654 7.62464 184 167 59 
-0.500247 3.41032 8.68781 130 120 145 
-0.473273 3.49397 8.3155 184 182 169 
-0.470397 3.48674 8.35235 175 172 165 
-0.458281 3.43979 8.43568 141 143 155 
-0.402359 3.44006 8.32508 159 157 145 
-0.0459607 -2.19061 6.59968 132 110 50 
-0.0565186 -1.71058 6.71776 46 17 13 
-0.352205 3.38286 8.47222 217 178 83 
-0.0172351 -2.16042 6.65039 90 69 26 
-0.320281 3.37699 8.43804 159 125 53 
-0.150805 0.141151 8.59759 12 15 46 
-0.164294 0.737634 8.65872 148 101 75 
-0.126904 0.046168 8.54117 150 151 143 
-0.0960294 -0.306772 8.42981 77 77 77 
-0.096926 -0.201257 8.46902 37 37 35 
-0.0890709 -0.259948 8.43899 32 32 30 
-0.0652609 -0.378577 8.39642 90 70 72 
-0.0576325 -0.43948 8.3663 91 66 69 
-0.0544549 -0.496836 8.34223 98 74 74 
-0.0528542 -0.483235 8.34464 156 115 121 
-0.0878883 0.525628 8.63179 136 117 123 
0.0828251 -2.28438 6.65827 77 52 11 
-0.0336554 -0.378954 8.39351 96 59 66 
-0.0280409 -0.416871 8.38734 90 50 58 
-0.0651571 0.378503 8.63213 104 98 124 
-0.0197875 -0.476811 8.35288 175 132 141 
-0.0172047 -0.50355 8.35489 171 135 145 
-0.016215 -0.397939 8.39933 111 42 60 
-0.0192342 -0.308143 8.4409 89 89 87 
-0.0526794 0.347005 8.64847 72 17 49 
-0.0218937 -0.195272 8.46048 117 118 113 
-0.0209496 -0.0855176 8.51731 147 147 139 
-0.00822163 -0.22528 8.46793 148 147 143 
0.00344704 -0.415336 8.38864 90 53 61 
-0.169357 3.75689 7.49555 212 154 18 
-0.163911 3.64739 7.48361 181 89 38 
-0.16062 3.68268 7.47658 214 177 8 
-0.150515 3.64755 7.50565 252 140 116 
0.017002 -0.307514 8.43621 97 97 95 
-0.146814 3.64611 7.64837 187 79 50 
-0.137644 3.64571 7.48311 186 85 7 
0.0497357 -0.501483 8.36341 171 138 145 
0.0368102 -0.219114 8.47537 149 149 147 
-0.115321 3.73549 7.48702 190 108 94 
0.0359124 0.188501 8.52648 123 22 62 
-0.108307 3.71529 7.48484 143 65 17 
0.0655121 -0.198616 8.4851 13 13 11 
0.0788941 -0.221301 8.47819 146 146 144 
-0.0835705 3.71429 7.48188 154 77 25 
0.0633138 0.259958 8.61133 34 15 34 
0.0968068 -0.466119 8.37721 89 58 64 
0.0999856 -0.245241 8.47933 119 119 117 
-0.0699157 3.8223 7.51401 45 45 35 
0.118074 -0.301164 8.45439 87 88 83 
0.116992 -0.237392 8.47572 131 131 131 
-0.0535532 3.72879 7.48818 143 55 31 
0.119856 -0.271946 8.46224 143 144 138 
-0.0469716 3.64712 7.55648 214 121 113 
0.132376 -0.501091 8.37171 90 50 58 
0.0997439 0.375901 8.63243 169 86 102 
0.130585 -0.251101 8.44849 148 146 147 
0.14744 -0.18323 8.49381 151 150 148 
0.153221 -0.241298 8.48485 150 150 142 
0.163607 -0.395927 8.4258 168 126 136 
0.169584 -0.431165 8.40758 148 143 139 
0.161486 -0.242641 8.47201 140 140 132 
0.000415722 3.64601 7.52718 139 82 62 
0.169917 -0.237774 8.46801 8 8 0 
0.169448 -0.186405 8.50214 113 111 112 
0.175518 -0.166945 8.49084 145 144 140 
0.181104 -0.294714 8.45798 103 103 91 
0.186556 -0.233293 8.47869 50 49 44 
0.206107 -0.50052 8.38492 111 47 63 
0.286887 -2.62718 6.90698 204 182 159 
0.177525 0.284744 8.61391 88 50 71 
0.204197 -0.235691 8.4848 61 60 55 
0.219297 -0.51317 8.37377 162 131 136 
0.22209 -0.204945 8.49029 146 146 138 
0.321773 -2.74078 6.90151 227 202 161 
0.22545 0.344571 8.62387 165 50 89 
0.2489 -0.158487 8.49766 3 2 0 
0.324182 -2.52729 6.8568 226 203 171 
0.254395 -0.234298 8.47927 93 92 90 
0.249859 0.268764 8.60094 34 5 25 
0.272736 -0.400583 8.42272 101 72 74 
0.2718 -0.377885 8.43423 151 147 136 
0.278222 -0.251255 8.47593 146 144 132 
0.121548 3.8193 7.61361 48 52 37 
0.285999 0.353813 8.62609 61 18 64 
0.141365 3.65728 8.07508 26 24 12 
0.285287 0.395703 8.63187 118 111 142 
0.141442 3.65198 8.06622 33 29 18 
0.30704 0.433542 8.63807 191 177 166 
0.340775 -0.373776 8.44425 94 32 45 
0.384924 -2.48717 6.84609 100 63 70 
0.346057 -0.393629 8.44778 161 127 126 
0.329675 0.245612 8.61158 40 29 43 
0.348353 -0.157647 8.50183 155 151 148 
0.338202 0.210628 8.59392 179 175 166 
0.33708 0.330716 8.63638 183 166 159 
0.357316 -0.221811 8.48197 81 81 79 
0.367321 -0.189832 8.49338 143 144 138 
0.357233 0.441268 8.64382 205 164 168 
0.212056 3.6481 7.86458 123 126 119 
0.382158 -0.218788 8.47412 31 32 27 
0.38957 -0.36802 8.44252 156 138 134 
0.385261 -0.155638 8.49921 21 20 18 
0.389484 -0.158839 8.50885 37 36 32 
0.377544 0.435742 8.66477 103 59 84 
0.403799 -0.217955 8.49887 112 113 108 
0.41035 -0.347013 8.44594 99 56 63 
0.250108 3.58772 7.94545 70 69 64 
0.355781 1.06051 7.85157 164 138 101 
0.428135 -0.227412 8.50349 54 54 56 
0.267077 3.63285 7.87151 111 106 112 
0.22342 5.35993 8.35246 189 173 158 
0.369615 1.08568 7.84802 117 66 49 
0.459549 -0.217149 8.5289 31 30 35 
0.397916 1.03685 7.83643 233 111 96 
0.455169 1.04872 7.82557 228 231 124 
0.542277 -0.00916401 8.61117 139 142 131 
0.339841 5.2396 8.36565 44 62 20 
0.479067 1.04659 7.82011 245 223 173 
0.367373 5.39247 8.24279 127 88 57 
0.509661 1.09441 7.80472 203 108 90 
0.597893 0.0164169 8.65234 44 37 45 
0.606055 -2.6423 6.79612 240 218 181 
0.566835 1.0739 7.79665 221 204 96 
0.678554 0.244217 8.72772 35 19 30 
0.655358 -2.23068 6.87437 47 23 11 
0.608843 1.13715 7.79231 108 54 28 
0.675478 -2.20959 6.8955 71 44 25 
0.62253 1.10197 7.77358 150 72 50 
0.671233 1.00371 7.98474 110 98 76 
0.74049 -2.44538 6.8652 70 54 41 
0.807084 0.539456 8.78954 80 80 72 
0.813659 0.56474 8.78243 171 160 138 
0.769068 -2.44014 6.88487 65 46 39 
0.872019 -2.57958 6.96403 154 51 104 
0.883639 -2.6863 6.98336 130 49 90 
1.48966 -1.61562 6.80626 9 8 6 
1.87511 2.36058 8.13163 34 40 26 
1.99547 -2.89805 7.5672 230 214 178 
2.00098 -2.63447 7.56821 225 208 180 
2.02898 -2.73536 7.56577 75 64 68 
2.02925 -2.67737 7.55005 57 51 55 
2.02823 -2.55371 7.54964 68 68 80 
2.03598 -2.77873 7.54658 56 47 48 
2.05152 -2.63519 7.54237 37 28 29 
2.06914 -2.85101 7.56065 88 75 69 
2.15095 1.08874 8.04813 38 42 27 
2.07605 -2.5535 7.54914 36 28 25 
2.10192 -2.7814 7.57416 96 83 75 
2.11606 -2.72691 7.60141 157 144 136 
2.13758 -2.71591 7.57538 161 147 146 
2.16971 -2.72868 7.58085 44 31 40 
2.19634 -2.76242 7.57165 171 155 140 
2.21282 -2.5355 7.59208 213 199 172 
-1.82815 -0.862434 7.50872 180 181 186 
-1.62148 0.964974 7.35252 51 52 72 
-1.35966 -2.84494 7.56498 34 46 62 
-1.3255 0.945969 6.96849 53 61 74 
-1.28698 1.01587 6.9789 70 69 83 
-1.27321 0.966391 6.96067 24 28 40 
-0.968835 -1.73908 6.83573 30 29 37 
-0.981029 -2.47218 7.59656 146 145 143 
-0.817917 -1.74283 6.9412 84 22 25 
-0.787052 -1.7461 6.96308 169 92 4 
-1.03029 0.569847 7.83991 228 199 165 
-1.19513 3.45263 7.95782 38 68 70 
-1.17404 3.49721 7.84982 79 83 46 
-0.990496 0.795183 7.74419 95 24 22 
-0.749698 -2.59561 7.65888 121 121 119 
-1.12602 3.50909 7.79285 65 59 23 
-1.09563 3.51849 7.72594 83 79 54 
-0.712683 -2.73857 7.68191 168 161 151 
-0.680889 -2.83011 7.72613 54 51 60 
-1.05969 3.45818 7.92844 105 100 70 
-0.635301 -2.38651 7.65654 134 137 130 
-0.626014 -2.44676 7.6678 108 107 121 
-1.00155 3.43175 7.99461 78 83 63 
-0.990675 3.48404 7.87585 21 24 13 
-0.622705 -2.46666 7.6597 24 24 36 
-0.98166 3.48441 7.84475 35 44 39 
