ply                 
format ascii 1.0    
element vertex 1292
property float x    
property float y    
property float z    
property uchar red  
property uchar green
property uchar blue 
end_header          
-1.32162 0.523665 7.39341 139 139 141 
-1.32957 1.13235 7.29542 17 24 40 
-1.30152 0.543802 7.27348 221 208 199 
-1.39209 0.437676 8.28574 133 120 114 
-1.29281 0.528153 7.33487 145 136 137 
-1.37368 0.328411 8.22543 75 75 77 
-1.29554 0.514162 7.45971 209 203 205 
-1.51797 3.38857 8.75205 115 97 75 
-1.27211 0.565179 7.28755 222 209 200 
-1.2754 0.653712 7.29953 214 202 190 
-1.37213 0.450844 8.33405 68 55 49 
-1.37962 0.511278 8.41312 56 46 54 
-1.35326 0.607029 8.13586 78 75 82 
-1.35719 0.366702 8.29209 143 132 130 
-1.47898 3.5302 8.50074 6 13 31 
-1.43996 3.58378 8.10929 197 196 192 
-1.24422 0.54694 7.28538 147 136 130 
-1.4282 3.56261 8.21805 25 34 49 
-1.4343 3.53469 8.35733 75 90 83 
-1.23441 0.554459 7.26774 112 99 91 
-1.2408 0.952608 7.24121 44 45 63 
-1.29222 0.243756 8.13984 188 166 145 
-1.30316 0.530865 8.20833 126 116 107 
-1.2978 0.541868 8.17152 76 66 54 
-1.29961 0.348863 8.26903 72 61 57 
-1.30733 3.75104 7.27219 24 24 26 
-1.27138 0.547447 7.96292 161 127 100 
-1.27717 0.537447 8.03877 112 85 55 
-1.38175 3.57287 8.32428 109 136 91 
-1.39848 3.41158 8.63279 123 88 34 
-1.40335 3.40003 8.71172 188 139 60 
-1.21164 1.18324 7.31204 15 25 37 
-1.28206 3.76725 7.31218 51 53 40 
-1.3655 3.52218 8.32643 40 54 37 
-1.25174 0.306624 8.13774 87 83 74 
-1.24326 0.33242 8.12479 97 85 73 
-1.19143 1.02948 7.30674 16 23 39 
-1.23742 0.566569 7.97427 160 137 106 
-1.37334 3.42516 8.61446 182 157 90 
-1.22249 0.567373 7.87824 189 158 130 
-1.36928 3.42963 8.58907 120 95 28 
-1.19287 1.12665 7.38664 74 80 92 
-1.23626 0.189798 8.19471 87 77 75 
-1.22228 0.563026 7.92376 24 8 11 
-1.23721 0.531173 8.12732 150 120 92 
-1.35962 3.36866 8.62033 126 89 36 
-1.24152 0.315433 8.27645 64 49 42 
-1.22802 0.499752 8.07383 149 123 96 
-1.32359 3.62302 8.14531 17 27 36 
-1.35211 3.50449 8.54235 153 123 51 
-1.22545 0.575829 8.04994 24 12 12 
-1.21553 0.60374 7.94943 183 164 134 
-1.1672 0.911912 7.30817 19 29 41 
-1.21973 0.463827 8.06376 203 179 141 
-1.16978 1.09026 7.28115 28 30 42 
-1.21555 0.576926 7.99162 143 133 123 
-1.16381 1.00082 7.30218 78 80 95 
-1.24367 3.77796 7.36632 210 189 162 
-1.21075 0.496734 8.08875 146 119 98 
-1.33244 3.40214 8.59777 184 151 97 
-1.23615 3.79727 7.34043 94 87 77 
-1.3049 3.47043 8.31975 211 183 83 
-1.31735 3.4612 8.49888 214 178 64 
-1.14534 0.986658 7.25245 34 33 49 
-1.19444 0.57918 8.01196 101 90 60 
-1.18923 0.594827 7.94555 58 67 48 
-1.19697 0.601901 8.06246 249 243 217 
-1.23337 3.71659 7.48893 53 87 115 
-1.31337 3.3686 8.60088 119 94 53 
-1.31003 3.38643 8.5618 121 90 26 
-1.14224 0.992694 7.31061 38 37 51 
-1.30405 3.48393 8.47179 160 129 39 
-1.18656 0.596145 8.04442 69 71 47 
-1.22142 3.80011 7.36719 201 193 174 
-1.27319 3.63006 8.12978 92 125 80 
-1.17148 0.55326 7.95055 200 192 173 
-1.30403 3.51838 8.63386 142 110 35 
-1.2162 3.65591 7.47684 186 217 245 
-1.17691 0.570914 8.05399 67 53 40 
-1.28243 3.52206 8.38498 141 116 49 
-1.28816 3.48011 8.50127 142 118 44 
-1.17045 0.577576 8.0093 17 18 10 
-1.27362 3.50394 8.33854 188 174 103 
-1.25059 3.60206 8.08476 113 139 110 
-1.21564 3.70004 7.61042 197 224 245 
-1.15262 1.10919 7.75329 99 95 94 
-1.2607 3.5165 8.29223 155 156 112 
-1.24595 3.65698 8.07015 193 191 170 
-1.26613 3.42759 8.41921 195 172 96 
-1.2427 3.63448 8.04083 193 191 170 
-1.1563 0.507321 7.9973 148 129 122 
-1.26565 3.5628 8.41307 117 103 40 
-1.25596 3.56092 8.28957 36 37 42 
-1.114 0.579119 7.50415 163 147 132 
-1.18965 3.80925 7.35233 38 45 38 
-1.1449 0.646927 7.8743 78 71 43 
-1.26141 3.40627 8.45645 151 129 71 
-1.2607 3.50229 8.4373 164 136 73 
-1.26806 3.47277 8.58787 174 145 77 
-1.13999 0.585773 7.95384 14 24 34 
-1.1568 0.50501 8.21304 169 159 150 
-1.14022 0.637544 7.95838 55 58 49 
-1.22495 3.58853 8.07959 32 48 47 
-1.19346 3.70308 7.61323 173 198 218 
-1.23373 3.54908 8.24166 147 148 132 
-1.22331 3.67621 8.07879 38 41 48 
-1.23228 3.57783 8.29201 166 164 151 
-1.23721 3.45176 8.44323 215 183 80 
-1.21205 3.67375 8.0297 95 87 22 
-1.22799 3.56759 8.35751 41 47 33 
-1.23512 3.47 8.55214 209 175 65 
-1.19824 3.67747 8.01171 144 142 57 
-1.22874 3.51194 8.50251 152 118 44 
-1.11242 0.504191 7.93679 46 27 29 
-1.16658 3.68046 7.61369 24 37 53 
-1.23094 3.57046 8.55341 147 113 49 
-1.00304 -1.76343 7.28729 20 20 32 
-1.19656 3.64825 8.07068 77 80 95 
-1.18059 3.68635 7.917 25 34 39 
-1.20564 3.51308 8.36864 219 187 76 
-1.20394 3.5791 8.36882 38 47 28 
-1.14089 3.79955 7.3784 193 196 177 
-1.09694 0.607022 7.87983 206 168 132 
-1.10761 0.424454 8.12545 217 189 149 
-1.18545 3.60209 8.1753 141 144 137 
-1.14224 3.65031 7.56507 20 37 47 
-1.09587 0.481225 7.99747 33 19 18 
-1.14316 3.73349 7.63895 209 226 236 
-1.08641 0.801819 7.81963 105 34 40 
-1.19097 3.44049 8.42595 176 139 33 
-1.12639 3.81431 7.35104 94 96 85 
-1.18898 3.47613 8.40584 178 140 39 
-1.18821 3.42499 8.40374 176 139 32 
-1.17423 3.57651 8.16964 143 143 117 
-1.08404 0.478903 8.02939 36 31 25 
-1.17921 3.46458 8.34597 190 152 51 
-1.16895 3.59094 8.22883 171 169 157 
-1.15956 3.52803 8.16299 74 70 69 
-1.06866 0.582256 7.85939 142 96 80 
-1.11419 3.82584 7.39067 207 205 192 
-1.11383 3.78896 7.39629 191 189 177 
-1.13793 3.66079 7.83017 23 37 40 
-1.16154 3.6059 8.22367 189 187 166 
-1.16324 3.552 8.27251 47 52 46 
-1.0681 0.99807 7.76842 87 65 54 
-1.06458 0.554644 7.88187 35 23 27 
-1.15204 3.5838 8.14364 156 152 140 
-1.06126 0.799079 7.79084 164 111 59 
-1.14654 3.58797 8.12747 37 34 27 
-1.10309 3.82761 7.44656 110 103 95 
-1.09905 3.84537 7.39888 77 73 64 
-1.146 3.57412 8.22731 200 194 180 
-1.12858 3.68462 7.95897 49 55 51 
-1.09519 3.81713 7.45643 52 51 47 
-1.11418 3.64825 7.89045 53 56 47 
-1.11729 3.66273 7.95092 141 143 132 
-1.03772 0.548045 7.84503 69 55 46 
-1.03847 0.581316 7.88081 229 199 165 
-1.10798 3.71089 7.88003 140 135 103 
-1.03477 0.490234 7.88996 175 139 123 
-1.10764 3.73528 7.9703 141 141 113 
-1.03098 0.460289 7.91282 59 30 22 
-1.03226 0.564949 7.93136 35 31 32 
-1.03586 0.444622 8.12583 134 103 72 
-1.10322 3.54944 8.22766 15 21 19 
-1.01785 0.809119 7.798 163 111 63 
-1.02333 0.674594 7.95175 37 22 27 
-1.01256 0.978655 7.66584 125 111 110 
-1.09128 3.58177 8.16213 185 180 151 
-1.09388 3.51842 8.27233 211 181 69 
-1.06746 3.66939 7.75731 141 152 112 
-1.0689 3.69202 7.8282 26 39 32 
-1.10072 3.40138 8.48285 157 119 34 
-1.07587 3.71333 7.98212 140 145 123 
-1.00168 0.520144 7.86642 130 92 53 
-1.04318 3.82213 7.41261 230 206 178 
-1.05978 3.63856 7.79263 140 151 135 
-1.07292 3.71269 8.04691 184 177 151 
-1.05928 3.74049 7.80289 135 143 70 
-0.992542 0.925082 7.67528 124 110 99 
-0.998184 0.816545 7.80849 99 26 37 
-1.08649 3.50417 8.39681 213 179 89 
-0.997508 0.471407 7.93081 203 153 126 
-1.0734 3.52562 8.17943 23 35 47 
-0.992938 0.592775 7.87431 31 29 34 
-0.990148 0.552106 7.8971 209 171 132 
-1.07165 3.57417 8.29086 14 21 13 
-0.988755 0.651871 7.88777 42 22 11 
-1.06958 3.50435 8.38231 152 119 38 
-0.981568 0.489074 7.92807 188 143 110 
-1.07975 3.25264 8.67576 99 86 77 
-1.02163 3.85033 7.39904 103 99 87 
-1.04599 3.70287 7.92912 30 40 41 
-1.08805 3.20724 8.88406 129 115 102 
-1.04376 3.63644 7.95519 150 154 119 
-1.04085 3.66481 7.90949 138 141 130 
-0.978183 0.504467 7.94962 119 75 48 
-1.04143 3.61241 7.97964 35 38 19 
-0.97842 0.45675 7.97594 182 151 130 
-0.972513 0.698993 7.79935 224 198 171 
-0.972082 0.503912 7.90663 183 144 113 
-0.98239 0.432731 8.10865 217 191 158 
-1.04185 3.65398 8.04886 54 56 45 
-1.05458 3.48804 8.34526 214 181 88 
-0.965165 0.928903 7.69748 226 207 190 
-1.03963 3.55815 8.1517 22 32 34 
-0.964422 0.984142 7.69966 212 199 182 
-1.02879 3.69148 7.90446 136 160 102 
-0.967752 0.677907 7.90806 25 10 17 
-0.961422 0.802621 7.7825 101 48 32 
-1.03541 3.56856 8.23213 117 129 117 
-0.953463 0.455972 7.93225 170 142 120 
-1.02018 3.64232 8.04747 194 196 183 
-0.955197 0.44425 7.99259 122 108 99 
-0.948502 1.01097 7.7274 218 210 191 
-0.947702 0.521044 7.91158 228 194 166 
-1.01759 3.56394 8.17336 24 31 37 
-1.01623 3.57912 8.20454 15 18 23 
-1.01423 3.68044 8.13973 32 32 32 
-0.980878 3.83476 7.42372 201 205 191 
-0.935571 1.00464 7.68353 22 7 10 
-1.00766 3.55116 8.19888 129 144 89 
-1.00155 3.66876 8.09071 25 30 49 
-0.932304 0.427163 7.92617 97 75 51 
-0.934429 0.644115 7.91205 184 149 127 
-0.934172 0.611497 7.9561 20 21 26 
-0.994092 3.60164 8.03581 192 194 183 
-1.02176 3.25593 8.74153 148 122 87 
-0.926373 0.694888 7.79522 177 149 112 
-0.926937 0.787682 7.78852 177 159 137 
-0.926622 0.475308 7.96652 216 182 144 
-0.923594 0.436081 7.9502 229 203 176 
-0.925282 0.563203 8.01696 112 83 53 
-0.921591 0.663268 7.91325 203 161 111 
-0.917298 1.01064 7.70212 203 195 184 
-0.927413 0.450081 8.13058 135 108 87 
-0.913545 0.514032 7.93275 125 84 62 
-0.912597 0.997931 7.73932 120 97 83 
-0.91754 0.586471 8.01408 178 151 124 
-0.974398 3.74823 8.05435 105 80 39 
-1.00042 3.255 8.8415 27 38 68 
-0.994471 3.26606 8.81047 33 33 45 
-0.906383 0.478699 7.92545 209 176 145 
-0.904699 0.472724 7.9559 154 123 92 
-0.961265 3.78202 7.88156 101 97 49 
-0.906875 1.03361 7.78143 41 34 26 
-0.957036 3.83319 7.87227 88 82 48 
-0.962269 3.54542 8.20668 199 186 144 
-0.897079 0.963647 7.81355 193 149 110 
-0.889388 0.458706 7.99047 212 177 158 
-0.945519 3.56531 8.22128 110 99 97 
-0.881566 0.814966 7.79737 100 34 35 
-0.961469 3.24905 8.76993 158 121 68 
-0.884947 0.672938 7.9877 201 165 131 
-0.882522 0.987854 7.81187 147 118 88 
-0.914346 3.85009 7.42094 107 113 101 
-0.940168 3.56528 8.16544 160 142 140 
-0.928159 3.85567 7.82547 164 160 89 
-0.932095 3.61267 8.07937 155 120 39 
-0.8713 0.784952 7.78242 183 151 138 
-0.872653 0.563292 7.9381 209 176 141 
-0.928349 3.6776 8.10603 154 105 47 
-0.947398 3.22887 8.79249 36 36 48 
-0.814453 -1.77872 7.60637 162 75 0 
-0.86876 0.620298 7.92188 59 36 22 
-0.866412 1.03917 7.71538 42 48 46 
-0.924137 3.59577 8.15351 230 208 195 
-0.934486 3.06016 8.71552 48 45 76 
-0.866201 0.536392 8.03701 97 70 51 
-0.895356 3.80346 7.4714 110 104 90 
-0.862102 1.01726 7.85816 47 36 18 
-0.891475 3.83372 7.46292 174 170 143 
-0.854251 0.823576 7.77261 217 151 54 
-0.857167 0.476409 7.99365 196 162 134 
-0.85366 0.55153 8.03249 85 58 39 
-0.900163 3.66649 8.0539 250 189 100 
-0.847643 0.63367 7.9651 188 157 129 
-0.895617 3.58153 8.06224 235 187 103 
-0.906841 3.15178 8.59052 101 74 53 
-0.845281 0.520659 8.03314 173 143 117 
-0.895462 3.78766 8.06821 205 164 132 
-0.882293 3.7343 7.84247 114 112 71 
-0.891564 3.56049 8.25363 139 129 127 
-0.838799 0.566352 8.06915 90 62 48 
-0.834751 0.977145 7.81586 148 125 71 
-0.903954 3.2481 8.81527 43 35 46 
-0.830908 0.795643 7.77251 165 110 71 
-0.893372 3.16551 8.64073 167 151 152 
-0.830752 0.608929 7.93698 53 35 33 
-0.829225 0.638149 7.9089 43 25 21 
-0.82748 0.478598 7.97123 115 82 51 
-0.886242 3.17658 8.56073 138 88 89 
-0.823614 0.653445 7.89791 206 187 154 
-0.824787 0.665463 7.93283 209 189 152 
-0.820637 0.911151 7.77879 132 90 40 
-0.812634 0.809305 7.81137 96 36 28 
-0.882506 3.05393 9.07404 164 153 149 
-0.811685 0.567313 8.00376 197 166 137 
-0.809669 0.712473 7.90689 141 121 94 
-0.847155 3.72217 7.83094 38 25 6 
-0.848519 3.76627 7.84055 224 209 186 
-0.865701 3.31175 8.57765 134 125 142 
-0.854714 3.85675 8.05423 100 76 74 
-0.861313 3.21034 8.59397 169 149 125 
-0.804507 0.859203 7.87484 210 143 30 
-0.802282 0.878463 7.82592 160 93 23 
-0.862124 3.17475 8.70699 64 62 83 
-0.845004 3.87368 7.89589 135 134 86 
-0.799393 0.694262 7.82803 58 40 18 
-0.791027 1.11603 7.48977 29 27 38 
-0.795353 0.889037 7.78454 153 100 46 
-0.85372 3.25197 8.70749 159 139 130 
-0.845318 3.54536 8.27678 128 119 114 
-0.791174 0.867708 7.7763 196 140 89 
-0.836311 3.51297 8.38762 210 190 163 
-0.823504 3.82216 7.84959 35 44 41 
-0.829379 3.58608 8.25779 107 91 91 
-0.776398 1.13411 7.54033 156 148 146 
-0.775668 1.1293 7.5293 156 148 146 
-0.781589 0.600824 8.03439 137 103 66 
-0.779432 1.03937 7.81557 121 122 108 
-0.806818 3.83376 7.4898 154 149 146 
-0.770213 0.610747 7.83616 182 148 102 
-0.809877 3.73477 7.82212 102 85 69 
-0.771425 0.687323 7.8819 28 39 35 
-0.804466 3.80353 7.67982 226 215 195 
-0.818295 3.46502 8.36405 130 94 42 
-0.816074 3.49649 8.37274 126 94 43 
-0.808172 3.74111 8.00014 21 17 34 
-0.77038 0.616371 8.03487 208 173 133 
-0.827009 3.26134 8.9463 237 224 218 
-0.810145 3.56284 8.29616 208 191 171 
-0.809673 3.58489 8.52073 150 130 80 
-0.805683 3.49593 8.55476 110 87 53 
-0.790446 3.77346 7.82305 225 212 195 
-0.802366 3.49745 8.45832 212 171 91 
-0.755777 0.62971 8.03059 160 123 81 
-0.800448 3.5888 8.37105 117 89 49 
-0.751389 0.789554 7.79814 183 136 118 
-0.804058 4.77409 7.97877 116 116 126 
-0.782613 3.8262 7.64168 14 24 25 
-0.798899 3.57427 8.49557 102 82 45 
-0.795653 3.47672 8.49891 184 164 140 
-0.797115 3.57354 8.52424 98 64 19 
-0.77172 3.90264 7.47283 132 129 112 
-0.772235 3.80669 7.59256 19 22 15 
-0.781893 3.63818 8.19516 216 175 119 
-0.786788 3.47436 8.48426 84 68 45 
-0.73449 1.05191 7.60016 247 234 215 
-0.786379 4.83606 7.87073 16 22 34 
-0.741325 0.621018 8.13919 30 20 11 
-0.779905 3.56762 8.39342 87 65 24 
-0.782725 3.3805 8.67267 186 141 74 
-0.732321 0.754208 7.83192 173 148 126 
-0.72909 1.05068 7.54703 220 207 190 
-0.772831 3.5348 8.31465 80 58 19 
-0.736134 0.620707 8.1498 27 20 10 
-0.769404 4.81947 7.67929 122 122 130 
-0.768206 3.60422 8.35486 77 61 27 
-0.756001 3.83832 7.64862 233 224 191 
-0.769233 3.47094 8.46515 93 76 58 
-0.761393 3.49327 8.36742 218 174 75 
-0.75264 3.79455 7.81115 117 123 89 
-0.724212 0.578302 8.15928 175 157 137 
-0.754031 3.77728 7.9521 230 211 179 
-0.715833 0.606274 8.02697 110 107 76 
-0.748576 3.57251 8.18974 107 70 17 
-0.71359 0.615154 7.99851 37 39 25 
-0.750781 3.59818 8.33755 184 147 79 
-0.71365 0.851955 7.9615 202 135 56 
-0.713924 0.657866 8.10123 69 76 68 
-0.733569 3.83972 7.47023 30 22 35 
-0.708018 0.77612 7.87131 97 33 31 
-0.704125 1.07026 7.53346 224 207 189 
-0.747987 3.40869 8.64544 130 101 71 
-0.742235 3.64608 8.24348 216 161 68 
-0.707452 0.678861 8.14896 28 33 13 
-0.738914 3.40062 8.42493 202 156 62 
-0.704017 0.64232 7.9531 140 139 118 
-0.742189 3.53569 8.46459 81 63 39 
-0.738916 3.41278 8.44235 202 156 62 
-0.736943 3.51123 8.3449 197 162 104 
-0.735364 3.45599 8.48271 195 153 81 
-0.724792 3.9474 7.54263 21 8 17 
-0.697481 0.622873 8.00977 45 49 32 
-0.729345 3.70509 8.22099 123 95 71 
-0.694936 0.732828 7.85248 189 157 132 
-0.694263 0.633498 7.96236 67 64 33 
-0.728812 3.60959 8.27675 216 166 69 
-0.727788 3.56847 8.39538 182 156 97 
-0.725871 3.48044 8.3988 114 90 64 
-0.6869 0.816624 7.8642 128 49 34 
-0.712248 3.79858 7.74146 154 157 128 
-0.717666 3.65277 8.11915 107 73 35 
-0.709072 3.79005 7.68583 156 151 113 
-0.722925 3.38344 8.82218 22 31 46 
-0.716438 3.68312 8.18469 110 89 62 
-0.716315 3.58482 8.31074 187 147 86 
-0.682687 0.769157 7.94376 192 141 112 
-0.718745 3.52422 8.49866 184 154 100 
-0.711505 3.66393 8.19795 170 160 135 
-0.708667 3.68537 8.10048 149 109 48 
-0.712372 3.56908 8.41943 94 86 73 
-0.703166 3.77992 7.69718 225 221 183 
-0.703342 3.7651 7.95754 224 204 167 
-0.697258 3.80991 7.63063 200 188 150 
-0.669727 1.0542 7.54756 236 221 198 
-0.689579 3.8111 7.25883 53 41 43 
-0.669075 0.759032 7.91655 93 36 19 
-0.700432 3.57409 8.3972 225 213 187 
-0.686527 3.91966 7.4609 21 13 11 
-0.661161 0.733665 7.95722 173 144 126 
-0.694837 3.40932 8.7196 42 45 62 
-0.69412 3.40342 8.71075 41 44 61 
-0.658216 0.577366 7.90405 30 31 15 
-0.683734 3.80487 7.79587 129 137 113 
-0.686144 3.71264 8.21196 193 149 74 
-0.658027 0.806915 7.91926 117 60 5 
-0.669977 3.92509 7.45142 45 39 17 
-0.649631 0.84949 7.95065 178 110 65 
-0.667099 3.84151 7.44781 205 182 174 
-0.673666 3.70566 8.2035 128 81 13 
-0.645853 0.702234 7.85848 190 148 124 
-0.643838 0.552199 7.8439 33 31 18 
-0.646499 0.77441 7.87105 188 131 78 
-0.67332 4.77644 7.3577 206 187 172 
-0.673564 3.54577 8.50389 120 88 27 
-0.657027 3.80507 7.36375 150 143 117 
-0.665645 3.71332 8.30517 208 167 105 
-0.657684 3.82011 7.74599 230 224 188 
-0.654535 3.85673 7.38667 255 255 206 
-0.659495 3.61591 8.16525 212 168 103 
-0.658925 3.68585 8.31953 134 102 51 
-0.631821 0.508842 7.99126 34 30 27 
-0.632158 0.760241 7.86665 102 44 22 
-0.657172 3.53123 8.48394 204 169 87 
-0.658052 3.44671 8.74266 17 26 41 
-0.654641 3.71042 8.20147 221 169 68 
-0.628101 0.573016 7.88018 74 61 52 
-0.653649 3.40062 8.54966 91 93 114 
-0.642235 3.90573 7.42985 96 82 53 
-0.642024 3.85144 7.41147 70 59 37 
-0.622049 0.709257 7.9757 107 72 53 
-0.640437 3.83087 7.58105 217 200 184 
-0.640106 3.78021 7.77091 228 217 189 
-0.618089 0.49079 8.02987 114 97 87 
-0.638441 3.81407 7.70755 158 154 119 
-0.643236 3.42229 8.61339 80 79 97 
-0.635293 3.73949 7.92807 76 64 52 
-0.636985 3.49999 8.63679 19 27 40 
-0.636211 3.37049 9.05627 36 32 33 
-0.630956 3.72938 7.93471 72 60 60 
-0.60967 0.622476 8.02338 215 193 170 
-0.63249 3.50659 8.53069 126 127 158 
-0.627283 3.54133 8.42013 153 112 22 
-0.604441 0.513356 8.01973 230 210 175 
-0.627552 3.29473 8.79472 95 95 119 
-0.622595 3.88296 7.64668 39 26 18 
-0.583033 -1.73602 7.9283 6 6 18 
-0.622188 3.36639 8.76935 105 105 133 
-0.615572 3.85222 7.41794 62 53 36 
-0.617203 3.541 8.37268 159 112 4 
-0.616564 3.79486 7.93513 83 86 57 
-0.615411 3.71586 8.21411 189 146 68 
-0.613738 3.80874 7.77145 120 135 104 
-0.618851 3.67674 8.67235 205 167 70 
-0.614841 3.27662 8.85358 128 123 130 
-0.609655 3.75777 8.11888 210 151 83 
-0.60784 3.77386 7.85266 70 102 65 
-0.608174 3.74686 7.7399 114 129 98 
-0.588295 0.526569 8.04455 90 78 56 
-0.584295 0.494034 7.99957 219 210 195 
-0.596831 3.88622 7.37724 51 31 33 
-0.580706 0.564297 8.01677 68 63 60 
-0.598432 3.61905 8.27077 151 108 13 
-0.597199 3.88739 7.62969 29 28 24 
-0.593892 3.87972 7.42129 255 246 234 
-0.575785 0.530117 8.02387 63 59 56 
-0.592861 3.86132 7.95042 85 111 82 
-0.590361 3.32794 8.74757 64 65 95 
-0.590509 3.56731 8.51731 31 32 34 
-0.584102 3.69883 8.07142 204 160 73 
-0.584588 3.93237 7.4516 64 23 27 
-0.583811 3.73365 8.32014 152 107 22 
-0.582717 3.76893 7.78171 99 109 84 
-0.579081 3.43593 8.44976 19 29 39 
-0.579373 3.87526 7.55414 119 78 74 
-0.582784 4.76521 7.29904 41 40 38 
-0.574045 3.65396 8.14625 150 109 19 
-0.574553 3.79627 7.76282 213 201 177 
-0.54159 -1.74609 7.68089 133 106 76 
-0.570325 3.73218 8.23068 210 171 78 
-0.577553 4.83133 7.83887 121 118 125 
-0.569688 3.37828 8.63979 74 63 93 
-0.568185 3.81844 7.70619 116 115 59 
-0.566616 3.70414 8.1571 141 100 12 
-0.551592 3.30974 8.8037 114 118 143 
-0.555267 3.75439 7.64619 168 177 130 
-0.554053 3.89447 7.49363 104 14 40 
-0.551567 3.77591 7.92235 218 194 130 
-0.550335 3.79009 7.66505 208 197 89 
-0.545386 3.59117 8.42623 180 177 170 
-0.544093 3.44998 8.57617 111 98 118 
-0.545057 3.69908 7.94081 66 60 46 
-0.545928 3.88607 7.4267 251 163 177 
-0.54547 3.83881 7.86506 31 83 60 
-0.539204 3.68316 8.10385 209 175 68 
-0.537564 3.58915 8.44403 168 163 157 
-0.540323 3.71082 7.5884 46 96 59 
-0.533061 3.5119 8.5648 28 26 48 
-0.534993 3.74437 7.8924 54 28 3 
-0.530874 3.52446 8.4297 25 27 26 
-0.524961 3.44985 8.62455 40 28 52 
-0.522253 3.55691 8.51507 17 19 32 
-0.524816 3.82434 7.64301 217 179 8 
-0.520036 3.71154 7.90788 225 204 17 
-0.522187 3.85061 7.49365 170 41 80 
-0.510101 3.40597 8.6893 121 100 139 
-0.504401 3.25118 8.85799 25 28 37 
-0.506984 3.62436 8.29401 171 159 161 
-0.510993 3.72943 7.88124 155 74 11 
-0.506724 3.72178 7.84305 97 41 0 
-0.49991 3.34581 8.51693 124 111 137 
-0.493258 3.33988 8.57174 135 126 157 
-0.486687 3.30549 8.99777 137 138 143 
-0.510133 5.23073 6.84611 5 12 22 
-0.493303 3.67098 8.25586 139 135 136 
-0.490334 3.41911 8.57774 99 94 116 
-0.497866 3.79342 7.16026 182 167 170 
-0.473146 0.910486 8.57624 33 30 37 
-0.484353 3.78004 7.97233 104 45 0 
-0.480966 3.57614 8.28799 26 34 36 
-0.479346 3.63254 8.47162 10 17 25 
-0.468243 3.29636 8.82183 108 113 133 
-0.472121 3.60095 8.41537 164 165 169 
-0.466401 0.899678 7.96668 42 40 41 
-0.466654 3.47484 8.50977 140 143 162 
-0.464909 3.54185 8.48113 148 147 145 
-0.461443 3.19991 8.69898 42 32 43 
-0.452378 3.20301 8.76968 113 96 80 
-0.460503 3.64629 8.12937 139 140 142 
-0.454339 3.52407 8.52163 17 21 24 
-0.478366 5.22438 6.8187 127 126 131 
-0.462832 3.90023 7.50216 124 21 50 
-0.448939 3.41872 8.47038 143 144 175 
-0.461032 3.88053 7.524 211 61 107 
-0.448085 3.62081 8.33479 146 148 147 
-0.44386 3.24295 8.51683 19 27 46 
-0.435087 3.56306 8.30918 173 177 178 
-0.436183 3.63282 8.14306 25 28 33 
-0.429988 3.30652 8.61177 114 111 132 
-0.419619 3.49357 8.53757 29 28 44 
-0.417255 3.46599 8.46653 175 176 180 
-0.40813 3.54062 8.49949 151 149 152 
-0.404864 3.46021 8.53022 135 139 166 
-0.39805 3.26377 8.90127 120 96 70 
-0.405222 3.47383 8.47211 52 56 59 
-0.398952 3.46429 8.47824 163 167 166 
-0.397348 3.55472 8.35753 169 174 170 
-0.411053 3.88511 7.53275 200 76 104 
-0.417254 5.31889 6.87858 177 182 178 
-0.379347 3.18626 8.76684 18 19 24 
-0.404812 3.93459 7.47352 123 21 43 
-0.386161 3.54188 8.33934 129 133 132 
-0.390157 3.75393 8.01979 66 62 50 
-0.398647 3.89171 7.49698 137 18 46 
-0.37632 3.43304 8.46421 14 28 29 
-0.383217 3.55586 8.16637 22 26 35 
-0.403094 5.35514 6.93132 82 80 83 
-0.3648 3.53593 8.36581 18 19 23 
-0.358215 3.38439 8.50058 212 173 78 
-0.346306 3.36245 8.51507 150 113 32 
-0.342054 3.44442 8.53421 155 121 34 
-0.342411 3.43673 8.48594 210 176 78 
-0.362119 0.978022 7.75315 193 164 108 
-0.368817 -1.64843 7.49013 113 71 47 
-0.323306 3.25639 8.88675 14 12 25 
-0.332842 3.43351 8.50016 212 179 102 
-0.350471 0.854818 7.99076 24 11 21 
-0.32578 3.41443 8.51602 140 111 45 
-0.315252 3.45164 8.48208 163 125 42 
-0.344597 1.04212 7.68132 215 181 133 
-0.3404 1.03528 7.72496 192 158 112 
-0.322503 0.541037 8.37383 80 68 56 
-0.348017 5.22623 6.887 27 16 24 
-0.33643 4.8275 7.23118 217 199 177 
-0.326924 0.734725 7.93078 122 73 56 
-0.339615 0.807858 7.42064 54 35 37 
-0.301605 3.72709 8.18596 74 72 60 
-0.326357 -1.58647 7.79139 24 17 24 
-0.281295 3.49636 8.77124 23 18 38 
-0.290094 3.38478 8.4126 206 166 78 
-0.296882 3.72983 8.07623 85 79 67 
-0.260266 3.47494 8.85419 29 28 33 
-0.314464 5.30396 6.92084 110 46 63 
-0.2817 3.54467 8.06741 17 6 2 
-0.296952 1.08803 7.84776 180 126 102 
-0.250098 3.54855 8.91406 88 90 79 
-0.283973 0.577871 8.26117 222 187 147 
-0.26981 3.62034 8.12359 46 22 0 
-0.263138 3.80628 8.22396 184 182 167 
-0.290439 1.02623 7.73073 92 42 33 
-0.281557 1.08152 7.7879 92 72 65 
-0.251732 3.74248 8.20924 93 71 57 
-0.274717 4.83525 7.3883 218 197 176 
-0.259706 0.709181 8.31423 188 127 106 
-0.246923 3.8456 8.18007 171 165 143 
-0.22185 3.54665 8.79123 56 41 34 
-0.271755 0.997579 7.76933 171 132 133 
-0.241797 3.63231 8.12602 134 110 76 
-0.264669 1.094 7.63392 148 124 120 
-0.228146 3.64039 8.16814 187 147 95 
-0.237609 3.83447 7.8666 226 212 185 
-0.220299 3.74408 8.34527 195 142 76 
-0.216335 3.71688 8.41686 72 41 21 
-0.20625 3.74003 8.14983 52 50 38 
-0.21403 3.7831 7.85768 228 192 156 
-0.219374 3.71444 7.56179 100 86 23 
-0.172676 3.60819 8.61775 109 102 92 
-0.201651 3.78679 7.81775 184 47 37 
-0.176627 3.8546 8.222 129 128 108 
-0.21519 0.896066 7.7982 196 190 190 
-0.187883 3.76076 7.9004 226 208 196 
-0.190723 0.681311 8.31879 215 166 134 
-0.14918 3.59278 8.63398 46 40 28 
-0.186238 3.82831 7.73263 250 134 135 
-0.183094 0.635981 8.29168 134 88 64 
-0.182324 3.87488 7.67281 186 144 0 
-0.143582 3.43307 8.55033 121 101 90 
-0.135804 3.75386 8.50305 124 92 79 
-0.162769 3.85795 7.89238 240 167 160 
-0.123402 3.74463 8.71351 74 42 27 
-0.174935 3.91483 7.52837 129 13 34 
-0.12616 3.72679 8.59134 117 84 69 
-0.173554 3.95016 7.5218 136 27 50 
-0.163848 3.85661 7.60496 198 145 41 
-0.163955 3.77235 7.63635 193 63 49 
-0.192699 1.16178 7.47021 209 175 103 
-0.156297 3.84814 7.67294 213 166 16 
-0.156173 3.83965 7.66288 214 167 17 
-0.18058 0.970074 7.69541 38 48 83 
-0.184697 1.14653 7.54632 219 180 115 
-0.144446 3.7946 7.84541 184 62 59 
-0.144256 0.39069 8.45547 192 181 159 
-0.110453 3.72404 8.4917 90 52 29 
-0.145394 0.674219 8.26164 201 156 137 
-0.146479 3.77108 7.65231 255 145 145 
-0.0862607 3.29872 8.83665 83 83 73 
-0.0971146 3.62899 8.54935 97 53 24 
-0.0890379 3.52648 8.6854 130 113 97 
-0.1334 0.719641 8.32483 143 74 79 
-0.228435 -2.09184 6.95787 15 3 15 
-0.134054 3.79527 7.66369 185 69 30 
-0.130646 3.8618 7.64991 153 45 35 
-0.143112 0.900815 7.8385 77 68 61 
-0.0795535 3.66658 8.50417 154 108 85 
-0.141782 0.890678 7.83253 78 68 59 
-0.0739475 3.65707 8.55289 95 51 24 
-0.0708989 3.10871 8.66997 5 8 23 
-0.148751 0.946395 7.59918 21 30 85 
-0.108946 0.445953 8.31391 132 114 112 
-0.141511 1.18117 7.56177 215 173 113 
-0.107907 -0.26154 8.42758 48 49 53 
-0.0703416 3.59951 8.3753 146 110 84 
-0.068634 3.65432 8.37291 64 57 31 
-0.105195 0.459436 8.26696 189 163 146 
-0.0989988 3.90842 7.67866 214 129 122 
-0.101536 3.86342 7.6606 150 81 24 
-0.104955 3.95382 7.52974 102 43 45 
-0.0983853 -0.376708 8.47676 95 41 57 
-0.10294 -0.312689 8.39134 68 70 67 
-0.0996766 -0.21219 8.41673 62 63 65 
-0.10288 -0.279133 8.37439 127 128 130 
-0.200789 -2.13413 6.76583 54 42 20 
-0.126584 1.17096 7.4308 135 96 67 
-0.0856024 0.295905 8.27483 118 103 126 
-0.0821267 3.85789 7.61815 214 131 125 
-0.0644199 3.76738 7.86247 85 112 133 
-0.0679447 3.77617 7.78048 173 107 109 
-0.116927 -1.58932 7.87487 10 14 25 
-0.0694272 0.283266 8.34425 77 24 50 
-0.064751 -0.399389 8.48574 93 77 80 
-0.0813428 5.3808 7.03752 56 51 48 
-0.0665738 -0.218787 8.41888 131 132 136 
-0.0629679 -0.371553 8.47463 88 65 71 
-0.116146 -1.606 7.7894 71 83 97 
-0.0560219 3.78811 7.71173 187 57 69 
-0.0634913 -0.262368 8.39675 71 72 76 
-0.183582 -2.15484 6.72331 26 19 9 
-0.0566913 -0.205428 8.43157 90 91 96 
-0.0549979 -0.428905 8.47876 81 60 65 
-0.0553399 3.85075 7.62866 217 137 110 
-0.0816414 1.03967 7.74417 32 45 98 
-0.0794539 0.897335 7.79969 143 134 125 
-0.0842684 0.920289 7.72439 109 100 85 
-0.161301 -2.137 7.01164 103 95 76 
-0.171075 -2.14382 6.84306 52 38 3 
-0.102219 -1.58937 7.83169 57 63 75 
-0.0484125 -0.483689 8.48026 100 73 78 
-0.163828 -2.09263 6.90861 138 121 91 
-0.0861761 1.19946 7.51651 171 131 70 
-0.043226 -0.483232 8.51373 101 72 77 
-0.00957769 4.90712 7.97814 67 49 45 
-0.0418034 -0.389131 8.5033 140 134 136 
-0.0441866 -0.497385 8.50149 146 127 131 
-0.0465232 0.252028 8.3111 142 53 81 
-0.191013 -2.32829 6.48178 11 8 15 
-0.0360335 3.87707 7.65843 207 126 122 
-0.036814 -0.259371 8.42825 51 52 54 
-0.0367347 -0.381279 8.41479 80 53 60 
0.0245549 3.60435 8.57172 48 54 42 
-0.0407704 -0.488801 8.32727 89 37 50 
-0.175829 -2.30693 6.54641 148 133 100 
-0.0121235 3.79056 7.81858 150 145 168 
-0.0226131 -0.404039 8.51347 78 42 52 
-0.0180544 -0.493429 8.58797 75 42 51 
-0.0233534 3.99152 7.59274 138 134 105 
-0.0676581 4.77603 6.69637 31 40 47 
-0.044546 0.908661 7.824 186 172 169 
0.052286 3.38545 8.75701 97 101 100 
-0.172304 -2.29188 6.50148 61 42 2 
-0.134501 -2.11799 6.97841 43 32 12 
0.040941 3.54027 8.44178 40 44 30 
-0.163007 -2.291 6.58553 172 151 98 
0.0393624 3.6 8.42425 30 33 14 
-0.094555 -1.76635 7.4836 217 214 183 
-0.0156936 -0.498131 8.43254 154 121 128 
0.0116348 3.80904 7.9331 81 72 57 
-0.0096854 -0.344986 8.4611 134 136 133 
-0.0411062 1.06775 7.67883 19 15 66 
0.04773 3.55097 8.48018 41 44 35 
-0.136273 -2.12554 6.86709 59 49 14 
-0.164939 -2.35191 6.46688 186 163 109 
-0.0430833 1.14338 7.54871 120 47 56 
-0.0556174 1.17562 7.32836 152 129 87 
-0.129639 -2.11945 6.88995 163 152 120 
-0.0417671 1.19415 7.49619 163 80 48 
-0.0212344 0.928342 7.79824 180 163 156 
-0.0329025 1.07929 7.59219 80 40 48 
-0.0311315 0.983205 7.64225 23 43 114 
0.00929054 -0.40808 8.48979 76 51 55 
0.0371586 3.80444 8.00758 44 47 30 
-0.0699854 -1.73319 7.55033 143 145 158 
0.0185375 3.82441 7.68085 234 208 10 
0.0393824 3.80938 7.9728 61 45 0 
0.0522918 3.87076 8.11811 93 105 85 
-0.131136 -2.1452 6.75787 53 45 22 
-0.147104 -2.29256 6.53964 89 69 19 
0.0758453 3.63595 8.49041 30 32 27 
0.0240876 3.80746 7.71591 88 61 16 
-0.142579 -2.28716 6.58735 204 178 104 
0.0212255 3.89892 7.63552 193 164 98 
-0.147614 -2.34118 6.51484 165 133 50 
-0.14262 -2.37923 6.55725 20 13 5 
0.0206933 -0.287078 8.42769 131 133 132 
-0.108158 -2.08144 6.96682 65 57 34 
-0.148417 -2.36775 6.46952 23 15 12 
-0.110796 -2.12882 6.93056 61 47 34 
-0.137837 -2.28158 6.56053 169 144 64 
0.0150045 0.680295 8.10844 177 103 116 
-0.105673 -2.02671 6.96763 25 22 33 
-0.0226106 1.15296 7.47227 255 224 156 
0.0922242 3.58084 8.53773 123 117 117 
-0.014676 1.08785 7.56787 115 67 67 
-0.117411 -2.14638 6.79464 145 138 112 
0.116491 3.05025 8.96379 123 112 110 
0.0585896 3.83283 7.98631 90 92 81 
0.0256431 -0.336843 8.40247 137 137 139 
0.0131477 4.85045 7.11136 154 111 69 
0.000190737 0.924848 7.74766 211 198 182 
-0.12456 -2.35024 6.66932 155 128 51 
0.102028 3.55565 8.55853 120 122 111 
-0.102621 -2.11726 6.88801 181 171 136 
-0.141052 -2.35053 6.4302 190 162 99 
0.0397289 0.704087 8.25342 147 117 125 
-0.128331 -2.27078 6.55806 178 164 101 
0.046678 -0.478584 8.58867 82 40 50 
-0.0920843 -2.08673 7.00122 176 173 122 
0.0285462 0.679086 8.10358 39 9 17 
0.045834 -0.39352 8.53693 98 39 57 
0.0386315 -0.314684 8.4071 84 86 85 
0.114791 3.57334 8.5307 124 120 119 
0.127974 2.94363 8.84967 21 21 29 
0.120043 3.31989 8.61192 81 82 84 
0.00449505 1.11406 7.53649 196 179 161 
0.116424 3.57637 8.51274 36 32 31 
0.00375387 1.19353 7.52163 175 108 82 
0.051807 -0.422178 8.45023 146 127 129 
-0.00526209 1.1574 7.35115 225 196 178 
0.126078 3.56995 8.51873 26 22 19 
0.0610294 -0.388192 8.47502 144 132 134 
-0.122786 -2.35087 6.44883 82 56 21 
0.10634 3.74425 8.11427 28 29 15 
0.0373814 0.933347 7.81109 193 195 208 
0.0036591 1.19175 7.3164 98 67 62 
0.0623368 0.346835 8.25034 125 76 95 
-0.0880425 -2.17949 6.78372 222 224 200 
-0.0762314 -2.08726 6.87909 21 13 28 
0.0750324 0.30469 8.32337 159 82 100 
-0.110211 -2.33254 6.46216 143 122 59 
-0.11236 -2.36884 6.39003 230 221 166 
0.127921 3.68531 8.11871 88 89 73 
0.0968109 -0.245665 8.53696 35 36 38 
-0.0728437 -2.16056 6.78976 116 111 91 
0.15787 3.48384 8.49602 28 33 26 
0.167667 3.6871 8.54803 82 90 69 
0.0625416 0.900152 7.80617 32 38 88 
0.141253 3.70476 8.1646 31 29 16 
0.147407 3.82679 8.18141 64 53 57 
-0.0868315 -2.28633 6.56429 59 48 18 
0.148783 3.73349 8.18104 28 21 13 
-0.0939149 -2.33176 6.48497 153 131 71 
0.10509 0.337405 8.34 61 31 41 
0.100313 -0.230276 8.4051 132 134 133 
0.136748 4.01473 7.88573 66 77 60 
0.161788 3.72209 8.22746 22 18 15 
0.114061 -0.47676 8.53174 89 51 62 
0.137833 3.6455 7.92494 36 24 28 
0.115254 -0.271325 8.4902 133 135 132 
-0.086964 -2.36759 6.47682 160 144 82 
0.0635257 1.16344 7.44794 103 76 55 
0.123343 0.743498 8.23142 211 110 124 
0.177907 3.63576 8.23268 85 94 77 
0.132392 -0.465376 8.57197 148 115 124 
0.185667 3.75624 8.27362 75 65 63 
-0.0459833 -2.18484 6.7971 112 107 87 
-0.0834682 -2.3478 6.37911 35 20 17 
0.183049 3.68475 8.20753 28 30 17 
0.0756977 1.1591 7.47749 85 64 37 
0.16898 4.82012 7.70294 188 172 156 
-0.064523 -2.2624 6.51627 79 67 51 
0.147268 3.91206 7.6407 89 101 87 
0.0232547 -1.78529 7.41849 44 16 0 
0.195212 3.7083 8.22554 90 85 79 
0.16057 3.9785 7.7445 80 92 78 
-0.0465231 -2.23293 6.69489 199 196 129 
0.092287 1.14588 7.53496 107 85 74 
0.20064 3.82554 8.16928 67 56 60 
-0.0467122 -2.2625 6.64318 52 47 28 
0.15352 -0.441594 8.54942 92 61 69 
-0.0523232 -2.27862 6.57288 189 185 137 
0.205122 3.67781 8.16701 28 17 15 
0.0960902 1.08907 7.5194 72 53 47 
0.202727 3.7098 8.15266 30 18 20 
0.15348 -0.190824 8.42996 42 44 43 
0.149986 3.86164 7.48221 86 88 83 
-0.0790544 -2.5318 6.25415 255 252 223 
0.132765 1.07655 7.76157 205 102 105 
-0.0448037 -2.18453 6.49501 63 54 39 
0.175354 -0.246068 8.52743 29 31 30 
-0.0198706 -2.15098 6.74377 19 11 26 
0.171837 -0.422797 8.49847 133 134 128 
-0.00838066 -2.17823 6.84551 32 20 8 
0.119129 1.1827 7.53585 87 43 40 
0.166965 -0.46696 8.41623 97 40 57 
0.12146 1.12531 7.57102 79 61 51 
0.229832 3.63381 8.15998 8 8 8 
0.181543 -0.293516 8.48485 91 93 90 
0.133517 1.12646 7.6481 103 84 77 
0.227327 3.76129 8.02028 125 129 128 
0.236651 3.71344 8.10969 76 65 59 
0.128069 1.15365 7.48452 216 142 143 
0.0122596 -2.16732 6.9277 16 11 7 
0.192719 -0.498217 8.52772 144 135 136 
0.242426 3.6643 8.12536 10 8 11 
0.129675 1.22365 7.44197 217 177 118 
-0.01427 -2.23976 6.66079 160 149 121 
0.194113 -0.188984 8.42909 120 122 121 
0.169968 1.01697 7.9102 97 64 73 
0.236496 3.69211 8.01141 90 76 67 
0.138421 1.13258 7.50352 230 187 180 
-0.0170038 -2.24252 6.58102 23 13 14 
0.201687 -0.379957 8.48759 150 128 131 
0.202082 -0.241392 8.46009 56 58 53 
0.000443789 -2.22507 6.72041 131 122 93 
0.218889 0.708574 8.32813 182 146 124 
0.219579 -0.358455 8.51953 73 46 53 
0.180099 1.06555 7.79501 194 102 113 
0.266393 3.74032 8.01215 18 17 13 
0.0159192 -2.23764 6.73262 111 98 79 
0.259011 3.75806 7.85936 134 141 125 
0.0138497 -2.2052 6.67493 130 117 82 
0.234183 -0.413235 8.53698 136 132 129 
0.28305 4.78579 7.81394 43 60 28 
0.0593446 -2.0581 7.07693 106 88 64 
0.270056 3.6703 7.92972 127 126 124 
0.239583 -0.48348 8.55101 79 61 61 
0.236144 -0.37801 8.4913 146 127 131 
0.286141 3.7857 8.02538 108 111 102 
0.13431 -1.68641 7.70789 136 97 56 
0.206305 1.06493 7.81932 136 66 76 
0.0266897 -2.20821 6.69132 31 18 2 
0.238518 -0.0676813 8.31229 138 140 137 
0.0676968 -2.06366 7.04499 41 19 0 
0.252176 0.319478 8.3072 109 103 131 
0.25634 0.00226631 8.39766 36 38 53 
0.264441 -0.390126 8.54995 105 42 59 
0.270263 0.731822 8.34447 115 78 69 
0.270188 0.709697 8.33558 188 155 138 
0.216567 1.04892 7.70987 63 26 33 
0.269866 -0.35275 8.49078 89 67 70 
0.278744 0.694384 8.35361 89 52 43 
0.162829 -1.69926 7.71796 88 66 42 
0.273736 -0.406176 8.50791 146 119 124 
0.275819 0.259079 8.36441 44 18 29 
0.278615 3.86603 7.53373 138 144 130 
0.227283 4.76433 6.81022 234 218 205 
0.271386 0.286932 8.28351 75 42 61 
0.276567 -0.0176075 8.37634 62 75 84 
0.290816 0.061715 8.46035 44 33 47 
0.287256 0.33473 8.35615 77 73 87 
0.296408 0.733217 8.34876 128 87 85 
0.293273 -0.391152 8.52008 155 135 137 
0.307386 0.418259 8.45647 186 173 154 
0.293977 -0.361988 8.47332 98 50 62 
0.292428 -0.23848 8.42466 67 66 71 
0.292665 0.223285 8.30508 51 19 32 
0.357397 3.87893 8.07279 27 30 39 
0.237271 1.13085 7.57081 209 179 127 
0.0985605 -2.0838 6.97395 49 28 1 
0.316848 0.699389 8.39395 86 47 40 
0.0698408 -2.20592 6.71408 27 15 19 
0.253568 4.73371 6.80248 39 50 54 
0.244443 1.17566 7.5367 116 69 39 
0.308393 0.260683 8.33914 172 169 164 
0.314398 0.164023 8.36912 165 164 159 
0.0917619 -2.1441 6.81491 112 86 59 
0.250152 1.18687 7.52951 229 158 116 
0.314787 0.352639 8.28621 194 156 155 
0.0550127 -2.32853 6.49303 139 108 61 
0.0605247 -2.32056 6.52546 137 105 46 
0.318962 0.057967 8.33328 135 135 135 
0.114482 -2.1437 6.94073 46 22 0 
0.339449 0.422151 8.37521 119 56 73 
0.332132 0.175207 8.34456 27 29 54 
0.340434 0.3549 8.33033 80 34 63 
0.337592 -0.241419 8.40385 84 86 83 
0.339892 0.512843 8.24233 195 163 150 
0.293647 1.10033 7.70979 74 71 82 
0.345951 -0.0445327 8.44262 135 137 134 
0.342699 0.0970957 8.38284 35 45 70 
0.073735 -2.30756 6.48689 64 39 19 
0.121573 -2.14745 6.83312 83 56 39 
0.3479 -0.236454 8.40462 82 84 83 
0.29422 -1.66867 8.26935 122 92 68 
0.360563 -0.199611 8.44463 139 140 142 
0.312137 1.11718 7.70198 71 60 54 
0.362936 -0.389968 8.49653 84 47 55 
0.415094 4.82876 7.72005 195 177 157 
0.0990651 -2.27947 6.61528 144 118 83 
0.323013 1.08481 7.76249 152 137 130 
0.322394 1.10625 7.75443 164 158 142 
0.108705 -2.27493 6.63474 38 12 0 
0.333684 1.07338 7.76922 41 26 19 
0.111865 -2.29296 6.62092 64 42 3 
0.314078 1.22452 7.53494 255 252 185 
0.302818 1.18903 7.41262 93 70 29 
0.384137 -0.228611 8.42385 82 83 87 
0.39189 -0.336944 8.5164 80 58 61 
0.34435 1.04523 7.74869 200 181 149 
0.395834 -0.363604 8.49663 144 133 131 
0.40167 -0.379798 8.53352 87 62 66 
0.399111 -0.406403 8.47454 138 133 130 
0.320616 1.21793 7.44404 106 84 63 
0.359784 0.918299 7.80708 38 32 34 
0.413936 -0.242526 8.45537 126 131 127 
0.417861 -0.00116756 8.38477 40 35 42 
0.43193 0.734007 8.31092 119 93 92 
0.484792 4.75622 7.77261 69 50 43 
0.386594 0.891148 7.81878 253 238 219 
0.441113 -0.385119 8.5185 140 119 124 
0.380799 0.949867 7.6894 203 96 80 
0.191743 -2.20471 6.89142 77 38 43 
0.454578 -0.219665 8.50429 55 56 58 
0.394856 1.02851 7.73178 199 125 116 
0.41514 1.05004 7.80146 73 44 0 
0.414443 1.07534 7.76208 119 119 85 
0.415828 1.03976 7.70652 73 79 7 
0.480787 -0.382628 8.51116 80 42 53 
0.661989 2.86134 9.06417 10 13 22 
0.501629 0.744598 8.31859 71 26 33 
0.524583 0.767664 8.44722 75 48 53 
0.498656 -0.354881 8.44519 68 41 48 
0.517379 0.700222 8.29285 54 15 20 
0.526244 -0.3695 8.58958 91 44 62 
0.534104 0.68925 8.40988 106 90 93 
0.453757 1.14714 7.68682 213 167 118 
0.535308 0.635874 8.38966 149 107 117 
0.468961 1.15461 7.74497 202 171 117 
0.543947 -0.353327 8.59203 132 118 118 
0.476725 1.00472 7.77085 207 199 127 
0.471853 1.13911 7.67764 205 164 112 
0.4795 0.978276 7.75826 242 230 170 
0.560236 0.755217 8.34956 111 52 56 
0.48747 1.08159 7.7425 60 6 6 
0.4871 1.02504 7.74599 246 213 159 
0.566785 -0.365629 8.63559 88 41 59 
0.497095 1.06138 7.7082 202 108 98 
0.573872 -0.357167 8.55454 145 107 118 
0.51513 0.942099 7.80236 108 50 36 
0.262411 -2.23685 6.73062 34 3 11 
0.523595 1.17625 7.75011 82 57 50 
0.595994 -0.36245 8.54542 99 63 75 
0.537979 0.965937 7.74383 105 69 47 
0.541243 1.01773 7.75843 74 74 0 
0.619658 0.748482 8.3657 103 72 80 
0.543704 1.06188 7.71059 145 73 33 
0.636411 -0.333435 8.65721 82 51 57 
0.580112 0.998594 7.94404 100 58 16 
0.553743 1.07135 7.72554 142 73 18 
0.372473 -2.10513 7.16481 63 8 13 
0.638615 -0.139931 8.48148 89 90 84 
0.572722 1.16171 7.71296 224 181 113 
0.600481 0.961009 7.87248 239 217 118 
0.602304 0.954597 7.82165 111 93 29 
0.735711 4.77239 7.72668 128 90 69 
0.362388 -2.13684 6.9399 173 143 119 
0.602312 1.02219 7.71381 221 227 105 
0.739098 3.92483 7.87823 32 35 40 
0.471717 -1.79538 7.48969 107 62 59 
0.870479 5.15335 8.37528 138 107 76 
0.631087 0.963488 7.77846 229 211 49 
0.70702 0.504213 8.38488 178 122 107 
0.628766 1.03788 7.74422 42 29 10 
0.7281 4.77452 7.4421 156 110 76 
0.636325 1.05152 7.73894 108 60 38 
0.63727 1.02718 7.74681 208 191 148 
0.722883 0.474665 8.41929 56 51 55 
0.416733 -2.06134 7.08388 65 41 17 
0.85817 3.45895 8.49427 3 7 18 
0.628597 1.23814 7.5712 87 71 58 
0.651612 1.05457 7.74762 211 180 151 
0.65046 1.1052 7.70639 30 11 15 
0.645863 1.05676 7.68305 187 111 98 
0.501357 -1.77428 7.45322 92 57 19 
0.666806 0.949723 7.81411 147 168 169 
0.781642 3.86924 7.79406 40 40 42 
0.623643 1.12827 7.47011 193 124 109 
0.638351 1.20514 7.54315 63 49 38 
0.74446 0.443814 8.39286 70 71 73 
0.652867 1.03317 7.65601 57 39 29 
0.755054 0.475837 8.42448 158 144 131 
0.668364 1.04633 7.7406 45 33 17 
0.745893 0.00698705 8.4505 58 37 52 
0.692677 0.983576 7.88128 120 132 130 
0.785629 5.09781 7.43423 162 116 80 
0.701366 0.945843 7.90538 110 48 59 
0.539684 -1.76823 7.52438 62 23 24 
0.769595 0.28586 8.42624 116 74 86 
0.686989 1.09107 7.70887 239 217 180 
0.767284 -0.0173215 8.40937 128 130 129 
0.720973 0.971825 7.89431 232 207 53 
0.476238 -2.05429 7.12299 54 35 0 
0.684205 1.19113 7.56445 207 188 158 
0.485575 -2.04846 7.16058 209 184 144 
0.687928 -1.48879 8.24343 181 153 113 
0.716862 1.16163 7.76544 74 48 21 
0.715561 0.970187 7.80695 237 202 14 
0.898701 5.19488 7.8537 31 24 31 
0.771568 0.265173 8.30184 148 138 129 
0.577097 -1.72953 7.60161 140 108 83 
0.725185 1.05433 7.77637 252 211 191 
0.73379 1.17099 7.7841 186 163 111 
0.727695 1.09415 7.75655 72 63 24 
0.606504 -1.64997 7.70177 54 34 33 
0.841355 0.107375 8.67113 81 34 52 
0.499898 -2.06853 7.16856 163 139 101 
0.579479 -1.78013 7.5469 183 160 116 
1.16955 5.64907 9.21197 75 74 72 
0.740306 1.11229 7.77425 153 139 76 
0.851594 0.111882 8.66798 72 29 38 
0.847743 0.105998 8.64348 66 25 33 
0.747768 1.13594 7.7539 92 85 77 
0.790421 0.985996 8.01676 179 140 21 
0.583452 -1.77294 7.47095 65 35 37 
0.765288 1.09323 7.8275 168 137 0 
1.02582 2.77417 8.94426 12 13 15 
0.76627 1.11594 7.79238 198 173 18 
0.500244 -2.11985 7.03291 52 28 4 
0.598682 -1.74461 7.48024 207 195 153 
0.895586 3.79124 7.82679 24 24 32 
0.613703 -1.77818 7.54125 221 208 164 
0.786461 0.99784 7.78967 235 208 165 
0.617398 -1.74332 7.48184 250 250 200 
0.786725 1.13934 7.72886 174 144 90 
0.758921 1.18658 7.53124 198 190 177 
0.885746 -0.00215716 8.52753 159 146 127 
0.765972 1.25392 7.52787 43 32 14 
0.634672 -1.76249 7.52219 124 135 93 
0.588893 -1.91189 7.2881 30 13 23 
0.629953 -1.7709 7.47652 92 99 68 
1.24411 5.64917 9.06812 133 124 127 
0.820161 1.15013 7.78625 150 112 13 
0.653614 -1.72027 7.53406 115 119 128 
0.884183 0.846079 8.17246 121 65 48 
0.955275 0.534844 8.64511 191 167 139 
0.877167 0.212026 8.27746 40 29 23 
0.630517 -1.76117 7.39556 60 70 36 
1.11394 2.9082 8.9148 99 101 100 
0.702567 -1.72371 7.69824 24 26 38 
1.12813 2.75952 8.92822 133 133 131 
0.82386 1.1844 7.62278 86 87 91 
0.656379 -1.75157 7.40797 29 30 48 
0.844999 1.18181 7.71087 80 79 84 
0.688748 -1.79066 7.51741 4 6 19 
0.678173 -1.77407 7.4294 93 94 96 
0.849173 1.20251 7.58149 76 73 64 
0.845714 1.21422 7.55303 209 197 171 
0.781098 -1.47044 7.87684 38 21 13 
0.885203 1.17184 7.75424 99 94 91 
0.914098 0.936673 7.95241 119 97 84 
0.939434 0.929698 7.92237 177 151 138 
1.14202 3.82366 8.14814 1 6 12 
0.815427 -1.61065 7.78444 39 19 18 
0.990949 0.963463 7.97773 85 38 28 
0.816007 -1.65197 7.71462 188 144 117 
0.847597 -1.5493 7.84665 98 60 23 
0.924835 1.26402 7.52924 145 95 58 
1.14878 3.83274 7.98309 75 74 72 
0.764367 -1.83562 7.44241 20 3 9 
0.983659 1.18177 7.74982 229 176 62 
1.09802 0.744891 8.42082 61 52 53 
1.16594 3.7665 7.93588 7 7 19 
0.757928 -1.94863 7.31423 31 14 7 
1.03725 1.02024 7.87784 60 68 45 
1.30078 2.39853 8.80914 180 171 162 
1.00525 1.03164 7.69702 199 166 0 
1.02765 1.03398 7.80715 171 138 43 
1.05647 0.963508 7.95609 102 66 34 
1.02458 1.19299 7.72061 235 192 90 
1.00392 1.29501 7.56738 212 180 139 
1.00867 1.22226 7.58146 210 178 95 
1.03692 1.22935 7.71508 233 187 101 
1.06556 1.02978 7.90096 196 185 155 
1.00816 1.25818 7.56379 217 192 128 
1.04153 1.23936 7.68158 126 97 41 
1.09274 0.991221 7.94643 237 210 180 
1.08978 0.995379 7.92479 240 230 205 
1.06883 1.20568 7.74541 232 119 23 
1.22207 3.49551 7.86856 52 51 49 
1.03925 1.2772 7.54505 153 124 82 
0.879113 -1.72776 7.54294 74 52 15 
1.03919 1.22856 7.53779 136 119 76 
0.795651 -2.00747 7.21151 58 36 15 
1.08021 1.24071 7.69148 227 164 84 
1.12629 0.993936 7.95816 62 87 58 
0.912727 -1.64586 7.62589 142 121 64 
1.10446 0.886208 7.87615 201 184 156 
1.11461 1.0215 7.85712 225 209 184 
1.14854 1.00506 8.01292 65 77 57 
1.31635 3.78687 8.0606 80 72 61 
1.10939 1.22569 7.76779 234 115 33 
1.07178 1.27102 7.56525 207 175 118 
1.10576 1.04396 7.77568 153 85 12 
0.866685 -1.94972 7.42584 134 107 18 
1.08613 1.26959 7.61288 220 185 103 
0.937024 -1.61579 7.64838 149 126 72 
1.11005 1.28062 7.69992 226 184 98 
0.935537 -1.63585 7.62713 94 67 22 
1.13675 1.03318 7.83427 233 214 174 
1.12971 1.04037 7.80007 236 205 174 
1.16604 0.977935 7.97051 160 140 113 
1.13723 1.05576 7.78278 64 31 0 
1.11813 1.24027 7.6383 172 85 6 
0.958441 -1.71037 7.61962 199 169 13 
0.936749 -1.80327 7.53033 98 86 90 
1.20618 0.99246 7.99978 40 9 4 
1.20395 0.937974 7.9873 148 130 106 
1.47347 3.38612 8.54484 6 9 18 
1.21036 1.02598 7.95786 236 203 10 
0.949542 -1.81245 7.52296 74 63 33 
1.53369 3.45682 8.74639 20 18 21 
1.17652 1.17601 7.72131 244 199 10 
1.12603 1.19715 7.47387 216 108 43 
1.22669 1.06653 7.91246 160 138 3 
1.24375 1.00418 7.99655 79 26 10 
1.22155 1.20819 7.77394 92 69 51 
1.27551 1.03566 8.04614 153 105 56 
1.23644 1.03621 7.83588 232 208 14 
1.35648 0.835952 8.38166 157 84 101 
1.23369 1.18708 7.74494 48 29 25 
1.28119 1.02706 7.97066 152 115 27 
1.26063 1.14224 7.8512 100 69 41 
1.2641 1.12031 7.86882 64 39 17 
1.30283 1.09021 8.01686 85 28 1 
1.30365 0.888929 7.99831 177 155 132 
1.27666 1.22165 7.78866 57 33 5 
1.55668 3.10744 8.48989 23 22 28 
1.27759 1.18116 7.72501 163 123 97 
1.03263 -1.75909 7.43195 10 9 14 
1.35491 1.15353 7.97408 44 34 24 
1.55752 3.57716 8.18517 31 30 35 
1.5708 3.6103 8.2297 31 30 35 
1.46833 0.628588 8.53315 181 165 142 
1.34816 1.14912 7.85906 112 90 67 
1.48231 0.788944 8.47044 46 45 41 
1.60452 3.17277 8.30305 11 14 21 
1.33615 1.28935 7.69327 221 181 111 
1.44501 1.17295 7.98858 132 100 89 
1.13569 -1.55944 7.46477 157 140 71 
1.44785 1.03332 8.00699 113 59 59 
1.43043 1.24582 7.85205 200 102 63 
1.46875 1.15944 8.01881 158 99 83 
1.16627 -1.56246 7.50617 99 79 16 
1.4566 0.867276 7.99782 155 130 123 
1.479 0.895651 8.07466 156 133 127 
1.47408 1.18058 7.96841 110 58 44 
1.15599 -1.57817 7.43533 155 142 87 
1.46778 1.1819 7.93024 103 43 33 
1.1585 -1.60084 7.43962 103 87 35 
1.50036 1.19517 8.01948 160 100 92 
1.50458 1.17049 8.00521 95 32 27 
1.17466 -1.59022 7.43821 97 77 26 
1.48154 1.2116 7.80636 218 158 121 
1.48294 1.23284 7.79398 143 101 51 
1.45618 1.2617 7.6772 78 20 16 
1.5251 1.16084 7.94384 208 96 108 
1.18235 -1.73351 7.36141 136 114 3 
1.50628 1.22001 7.8017 215 161 117 
1.6445 2.61824 7.95636 48 50 47 
1.17813 -1.62596 7.297 177 152 25 
1.18682 -1.67168 7.33188 80 69 13 
1.17834 -1.69723 7.26752 166 148 82 
1.52748 1.23301 7.78393 142 100 52 
1.6789 2.56682 7.97643 90 91 95 
1.54849 1.28572 7.82034 127 88 57 
1.54234 1.2577 7.79285 176 139 95 
1.25073 -1.55249 7.43768 220 193 62 
1.34314 -1.36006 7.65409 53 37 3 
1.53423 1.30815 7.63602 194 113 110 
1.55549 1.28489 7.71335 129 81 67 
1.7554 3.51108 7.86077 197 185 173 
1.81476 3.02143 8.19809 205 191 180 
1.63335 1.01173 7.97663 138 125 119 
1.57785 1.33336 7.66679 186 119 110 
1.59087 1.2438 7.71589 210 167 112 
1.30802 -1.56305 7.42894 146 113 0 
1.29587 -1.61566 7.3918 139 101 2 
1.61431 1.33216 7.71141 115 72 56 
1.61666 1.30444 7.72633 174 135 96 
1.58935 1.17953 7.64284 173 69 42 
1.73631 1.25717 8.01253 214 169 114 
1.44123 -1.45212 7.6694 192 160 25 
1.66701 1.27451 7.71525 165 69 44 
1.84051 2.35851 8.03792 210 193 183 
1.8574 2.30406 8.08543 203 199 190 
1.75819 1.99071 7.69795 37 39 25 
1.6748 1.30973 7.55553 36 31 27 
1.67351 1.27784 7.53621 177 137 125 
1.90355 2.34167 7.89396 208 194 181 
1.84159 1.84574 7.74822 205 205 195 
1.51612 -1.23291 7.4127 176 99 17 
1.51245 -1.3406 7.37036 213 159 51 
1.52932 -1.32886 7.36841 177 102 9 
1.6062 -1.66577 7.69028 96 88 51 
1.55522 -1.30658 7.40949 236 196 75 
2.02609 1.95621 8.02879 189 185 173 
1.56898 -1.39289 7.44416 178 100 17 
1.53985 -1.34883 7.33584 216 173 68 
1.57039 -1.41194 7.43296 175 100 17 
1.55064 -1.43243 7.36401 181 101 14 
1.59751 -1.27835 7.44726 176 145 80 
1.54694 -1.44987 7.33712 192 109 17 
2.03263 1.99686 7.94687 210 197 180 
1.58577 -1.21738 7.37805 62 61 59 
1.60577 -1.56886 7.50367 202 125 11 
2.09576 1.89336 8.10347 40 43 24 
1.61433 -1.29177 7.41123 55 50 47 
1.9008 1.52273 7.51852 64 64 54 
1.93657 1.12007 7.62099 18 24 14 
1.9955 1.48128 7.63228 8 12 0 
2.03325 1.47148 7.66655 39 42 35 
2.02877 1.18052 7.70916 10 14 13 
1.7004 -1.27545 7.32184 48 51 34 
1.69377 -1.27684 7.30233 46 50 33 
2.31713 1.73688 8.15564 36 38 33 
2.25356 0.7964 7.7772 37 40 33 
2.21609 0.686792 7.69695 207 195 179 
2.19512 0.667187 7.6436 206 198 179 
-1.90413 -0.930066 7.32826 41 43 58 
-1.86004 -1.032 7.35565 174 172 175 
-1.84392 -0.865944 7.37284 124 44 53 
-1.80576 -1.01843 7.37182 176 165 169 
-1.80465 -0.840251 7.40581 180 181 186 
-2.01097 -0.00111718 8.06356 184 204 215 
-1.77079 -0.876998 7.4134 174 175 180 
-1.89548 0.751433 7.71593 134 147 164 
-1.92383 0.237572 8.01621 168 178 190 
-1.66952 0.958338 7.31421 99 88 94 
-1.651 0.981074 7.31887 149 137 137 
-1.64314 0.914953 7.35241 165 152 136 
-1.60557 0.935764 7.34292 147 137 125 
