ply                 
format ascii 1.0    
element vertex 1293
property float x    
property float y    
property float z    
property uchar red  
property uchar green
property uchar blue 
end_header          
-0.133068 -2.03693 6.70089 39 30 0 
-0.137019 -1.71045 6.83571 135 112 104 
-0.124197 -3.18651 6.64206 50 10 0 
-0.18614 0.782418 8.75686 130 79 48 
-0.122952 -2.38729 6.59605 255 255 197 
-0.124251 -2.93179 6.65418 122 89 46 
-0.125923 -2.02963 6.71206 194 186 139 
-0.121687 -3.14143 6.65025 104 64 39 
-0.121774 -2.37767 6.59284 66 32 0 
-0.125073 -2.10033 6.70214 189 167 126 
-0.121747 -2.40116 6.59556 22 4 0 
-0.122082 -2.31862 6.61867 159 146 111 
-0.12376 -2.92671 6.71873 56 21 0 
-0.157617 0.976373 7.86872 164 159 165 
-0.124822 -1.70122 6.7996 83 55 52 
-0.172126 0.766641 8.79436 216 169 141 
-0.11483 -2.11733 6.72233 167 147 122 
-0.112856 -2.02513 6.67288 14 10 0 
-0.163977 0.776303 8.76368 135 88 62 
-0.106709 -3.18167 6.6134 68 30 21 
-0.108381 -2.39693 6.57732 216 199 153 
-0.108126 -2.98259 6.6948 155 117 81 
-0.109519 -2.92119 6.72683 133 91 67 
-0.10534 -2.37855 6.58579 223 198 158 
-0.108962 -1.7316 6.80926 98 70 69 
-0.101287 -2.37138 6.60109 95 71 27 
-0.103215 -2.92359 6.69568 74 33 3 
-0.10333 -2.56826 6.61068 24 19 23 
-0.137441 0.974608 7.87972 134 133 128 
-0.148356 0.154302 8.67097 32 37 56 
-0.0961125 -3.17174 6.58281 144 106 83 
-0.142616 -0.121601 8.66452 38 38 36 
-0.142495 0.121222 8.66947 37 40 59 
-0.101281 -1.76794 6.82245 129 100 94 
-0.0941204 -2.32994 6.61891 148 126 76 
-0.139455 0.08336 8.5141 138 140 137 
-0.0919236 -2.32799 6.55061 71 44 0 
-0.090457 -2.90031 6.7781 47 31 31 
-0.160542 4.78362 9.48237 239 173 63 
-0.0900941 -2.14864 6.68051 130 125 95 
-0.0889251 -2.41668 6.60391 18 11 0 
-0.135474 0.467224 8.80598 192 182 157 
-0.0870633 -2.92134 6.69515 98 55 23 
-0.0859563 -2.13022 6.66951 49 37 13 
-0.121396 -0.192066 8.61293 130 130 130 
-0.0849527 -1.75705 6.80596 41 18 12 
-0.0803247 -2.25255 6.62767 35 21 0 
-0.0796223 -2.29203 6.62195 211 202 173 
-0.117576 -0.179624 8.62178 15 15 13 
-0.07816 -2.2637 6.63399 157 142 111 
-0.114922 -0.252834 8.60773 107 108 112 
-0.080161 -1.72897 6.7841 27 3 0 
-0.112907 -0.263743 8.58209 25 26 28 
-0.0757089 -2.39138 6.64085 31 16 9 
-0.0748506 -2.91385 6.70868 72 28 0 
-0.118028 0.793005 8.79472 169 126 109 
-0.0742911 -2.28673 6.63853 136 128 92 
-0.105868 -0.308022 8.57626 75 82 75 
-0.0963772 0.987493 7.90431 137 129 126 
-0.0676632 -2.86248 6.70811 44 40 28 
-0.0987387 -0.403907 8.53074 103 34 55 
-0.069901 -1.77498 6.8645 108 85 79 
-0.0958866 -0.429737 8.4944 91 39 52 
-0.0635229 -2.19028 6.68744 34 22 0 
-0.0939665 -0.230906 8.61996 144 144 142 
-0.0613655 -2.26585 6.63259 160 149 119 
-0.0926282 -0.27114 8.60058 131 133 132 
-0.0584798 -2.9239 6.70857 63 21 0 
-0.0587982 -2.28554 6.66352 35 20 0 
-0.0611178 -1.76469 6.83814 31 6 1 
-0.084255 -0.509882 8.4101 94 46 62 
-0.0875157 -0.337628 8.56905 132 137 131 
-0.0551291 -2.23068 6.63292 166 153 118 
-0.0912305 0.785188 8.77271 148 101 85 
-0.0533007 -2.22546 6.64775 142 125 82 
-0.0546529 -2.18392 6.69034 48 39 0 
-0.0840691 -0.203109 8.61412 139 139 139 
-0.082031 -0.387448 8.5409 156 113 123 
-0.0526228 -2.20922 6.67556 149 140 97 
-0.0520958 -2.26939 6.65524 41 29 3 
-0.0793442 -0.417366 8.51712 155 115 124 
-0.0498159 -2.25788 6.65293 128 116 92 
-0.0779927 -0.184188 8.64135 144 144 146 
-0.047591 -2.98576 6.72508 143 98 65 
-0.0795399 0.594809 8.78072 198 166 151 
-0.0911487 3.9221 8.83614 137 100 71 
-0.0466187 -2.19883 6.67179 62 53 20 
-0.0760213 0.552087 8.76596 123 102 111 
-0.0707662 -0.256236 8.56637 24 25 27 
-0.0421694 -2.24914 6.63528 34 21 0 
-0.0660794 -0.370279 8.55661 77 54 60 
-0.0611918 0.980799 7.88289 95 86 77 
-0.0372456 -2.99766 6.6373 166 126 100 
-0.0603445 -0.432903 8.52944 76 45 50 
-0.0620346 0.407263 8.74337 104 90 115 
-0.0299295 -2.9245 6.72106 100 55 26 
-0.0521882 -0.183247 8.62469 55 55 57 
-0.0498976 -0.479723 8.49476 151 108 118 
-0.0234599 -2.21461 6.68752 125 110 91 
-0.0430999 -0.236709 8.59579 21 19 20 
-0.0199761 -3.13437 6.64951 111 67 40 
-0.0397367 -0.27319 8.59335 135 133 134 
-0.0349154 -0.369348 8.54807 78 49 53 
-0.0352168 0.970425 7.96439 162 153 148 
-0.0340088 -0.240623 8.60422 88 86 87 
-0.0135069 -2.89277 6.75015 169 137 112 
-0.0312539 -0.517041 8.51854 82 47 54 
-0.0142254 -2.36904 6.7314 15 9 13 
-0.00897342 -3.16874 6.62489 62 19 0 
-0.0266528 -0.250302 8.60362 40 39 37 
-0.00915678 -2.21704 6.67059 135 128 102 
-0.0233634 1.01137 7.77935 173 182 215 
-0.0205589 -0.180569 8.61904 132 133 128 
-0.0177475 -0.497097 8.50145 149 107 117 
-0.0216647 4.15473 7.3526 51 40 34 
-0.0265969 3.87975 7.78501 153 61 48 
-0.0177631 0.99975 7.85289 197 192 189 
-0.000897065 -3.14851 6.68179 84 40 13 
-0.00149248 -2.96543 6.74113 150 114 90 
-0.00231393 -2.25022 6.67053 123 109 96 
-0.0154398 -0.39047 8.56346 104 40 56 
-0.00173793 -2.15671 6.70111 47 31 0 
-0.0166659 0.524004 8.74709 97 60 77 
0.00606523 -3.13264 6.65336 153 109 84 
-0.00967607 -0.337558 8.58801 139 136 127 
0.00450439 -2.26102 6.67991 120 107 91 
-0.00743457 -0.195576 8.60706 136 136 134 
-0.00723102 -0.212461 8.61724 138 138 136 
-0.00501302 -0.465857 8.53917 85 42 51 
-0.00468369 -0.438718 8.5063 131 130 128 
0.00950424 -2.19947 6.71038 60 46 1 
0.00984906 -2.21056 6.70256 167 153 118 
3.84814e-05 -0.501104 8.54179 91 34 49 
0.0123635 -2.83646 6.69714 107 94 78 
0.000597334 -0.36872 8.57254 90 53 60 
0.00640698 -0.410234 8.55917 81 55 58 
0.0186899 -2.21407 6.72122 27 15 0 
0.0099816 1.00174 7.85634 66 62 85 
0.0149667 -0.387891 8.54854 138 130 128 
0.015231 -0.350763 8.57239 145 129 130 
0.00525622 3.92303 7.71315 199 146 42 
0.0220347 -2.03512 6.77733 121 112 95 
0.0155721 1.05865 7.77372 55 66 130 
0.0194916 -0.226418 8.61571 135 135 135 
0.0213845 -0.256752 8.60627 141 141 139 
0.0289813 -2.15161 6.74352 125 115 88 
0.0210804 0.989158 7.90929 190 186 177 
0.0217058 1.13183 7.32919 168 157 137 
0.0322445 -2.03081 6.80452 115 100 79 
0.0336235 -2.25382 6.69428 93 76 58 
0.0339481 -2.26488 6.69809 30 19 0 
0.0310586 -0.318374 8.59772 137 136 131 
0.0345737 -2.11776 6.76514 89 73 50 
0.031144 -0.238697 8.61862 84 84 82 
0.0350672 -2.09745 6.78181 47 29 0 
0.0399328 -2.10828 6.77004 103 86 66 
0.0403574 -2.03747 6.80885 27 10 0 
0.0330225 1.13944 7.34662 255 253 234 
0.0402185 -0.402194 8.52823 90 44 54 
0.0404624 0.784207 8.43629 179 126 120 
0.0465704 -0.295328 8.58549 92 88 85 
0.0519559 -1.6503 7.12729 100 60 25 
0.0538251 -2.66586 6.69719 22 16 18 
0.0487636 0.986449 7.93413 170 169 185 
0.0540661 -2.05648 6.81634 34 18 0 
0.0612419 -0.385653 8.56259 161 141 142 
0.060541 -1.65294 7.1395 255 228 183 
0.0610926 -2.26324 6.74931 57 45 5 
0.0661828 -0.331747 8.59052 134 134 126 
0.0633582 -2.3368 6.70757 66 43 11 
0.0673674 -0.167484 8.65004 18 18 18 
0.065272 -2.05978 6.80504 47 28 0 
0.0711755 0.460661 8.78606 127 70 89 
0.069496 -1.65617 7.17188 74 37 8 
0.0718661 0.428568 8.75944 59 25 39 
0.0701579 -2.27235 6.75476 39 29 0 
0.07367 -2.34878 6.705 124 98 49 
0.0816794 -0.209967 8.61783 142 143 138 
0.0766909 -2.32923 6.71341 43 26 0 
0.0776712 -2.38457 6.66714 43 26 0 
0.0875303 -0.268538 8.62715 134 133 129 
0.0787403 -2.31789 6.7117 39 25 0 
0.0879879 -0.492646 8.52885 154 117 124 
0.080759 -2.11496 6.84161 27 14 0 
0.0784446 1.17169 7.47107 72 50 37 
0.0856219 -3.07772 6.81728 102 92 82 
0.0922221 -0.33569 8.59997 134 136 125 
0.0965716 -0.251712 8.60256 32 32 30 
0.086906 -2.39738 6.6919 22 3 0 
0.0885898 -2.32324 6.69517 255 255 211 
0.0932455 3.70242 9.19236 88 93 89 
0.0901839 -2.29797 6.74195 49 26 0 
0.0910282 -2.30972 6.72318 34 20 0 
0.0913817 -2.41256 6.71526 119 102 84 
0.0924171 -2.37187 6.70671 255 254 201 
0.10555 -0.233831 8.61927 135 135 133 
0.0960948 -0.215549 7.68814 135 135 133 
0.107554 -0.487845 8.5658 81 38 47 
0.107184 0.4487 8.77268 52 38 51 
0.0967837 -2.09901 6.87551 117 91 74 
0.108121 0.404372 8.76756 167 85 99 
0.101407 -1.69235 7.20185 172 148 124 
0.111253 -0.242522 8.61546 46 46 44 
0.109593 -3.2558 7.75786 120 113 105 
0.0970195 1.14638 7.46481 255 255 227 
0.0980282 -2.32281 6.73522 27 12 0 
0.0989309 -2.57034 6.83267 34 19 24 
0.11285 0.188279 8.73923 122 38 71 
0.0994926 -2.13177 6.81455 25 13 0 
0.102068 -2.14191 6.82355 140 125 106 
0.103157 -2.12723 6.83058 125 112 93 
0.102686 -2.29668 6.74914 130 110 77 
0.117841 -0.473416 8.5322 154 127 134 
0.116159 -3.25843 7.79478 57 53 44 
0.111602 -0.205673 7.70099 136 136 134 
0.123461 -0.262178 8.61042 136 136 134 
0.123157 -0.481925 8.54 152 125 130 
0.127899 -0.239814 8.61479 40 40 38 
0.129086 -0.212381 8.62876 5 5 3 
0.112999 -2.13299 6.86701 34 16 0 
0.120422 3.80753 8.84427 73 73 61 
0.133757 -0.176107 8.62246 127 126 124 
0.117025 -2.33764 6.7824 34 13 0 
0.118038 -2.14271 6.8173 115 94 77 
0.13911 0.436121 8.76344 64 32 45 
0.11828 -2.39072 6.75227 120 104 79 
0.136728 -3.23491 7.80749 131 115 89 
0.121219 -2.37268 6.74605 141 121 97 
0.11999 -2.3072 6.77269 132 107 85 
0.121259 -2.36161 6.74878 33 18 0 
0.142919 -0.176752 8.63342 36 35 33 
0.124654 -2.31931 6.78411 45 23 0 
0.148273 -0.465946 8.55838 164 123 129 
0.149436 -0.359915 8.58746 87 47 56 
0.12818 -2.38294 6.76494 63 43 10 
0.129134 -2.33038 6.79237 80 58 44 
0.1507 -0.288164 8.6156 85 85 85 
0.152337 -0.477219 8.55102 76 39 47 
0.134319 1.19157 7.57095 165 113 100 
0.132485 -2.38517 6.7508 146 120 103 
0.136205 -2.35552 6.76286 139 107 92 
0.140291 -2.32729 6.76992 37 8 0 
0.168283 3.21803 9.26496 23 19 18 
0.170121 -0.238546 8.62645 137 138 132 
0.170875 -0.394663 8.57417 154 125 130 
0.17376 -0.457885 8.58016 83 36 44 
0.149459 -2.31821 6.75443 140 108 85 
0.189022 -0.285562 8.60874 78 79 74 
0.171665 1.16107 7.85865 205 144 113 
0.199685 0.391634 8.75255 153 46 72 
0.19974 -0.509785 8.53092 147 121 120 
0.207205 -0.163299 8.63888 149 149 147 
0.190751 1.15966 7.8952 196 117 104 
0.212004 -0.154017 8.64839 17 18 13 
0.212208 -0.224354 8.62463 20 20 18 
0.214109 -0.511475 8.5513 78 37 43 
0.214541 -0.498387 8.55544 101 40 58 
0.191166 -2.80941 7.0216 78 43 41 
0.225289 -0.391364 8.63928 90 55 59 
0.226407 -0.507712 8.54922 153 131 133 
0.230534 -0.00926216 8.66111 59 68 73 
0.234397 -0.221638 8.65352 137 138 133 
0.233106 -0.420441 8.60398 142 137 131 
0.223118 -3.24232 7.78756 75 61 34 
0.238751 0.368669 8.74846 151 47 84 
0.238851 -0.160134 8.64265 139 140 135 
0.204782 -2.79226 7.01246 164 141 135 
0.240315 -0.356959 8.62362 146 131 128 
0.216637 1.16335 7.83345 182 133 92 
0.242116 -0.377732 8.63976 155 125 127 
0.225861 1.13654 7.97141 128 72 75 
0.248164 -0.397565 8.58582 92 47 54 
0.229725 3.82831 8.31955 34 26 23 
0.23279 1.14332 7.92102 141 76 80 
0.262042 -0.176235 8.63981 46 47 42 
0.263376 0.292387 8.73179 34 17 33 
0.260625 -0.154799 8.65213 54 54 52 
0.238025 1.16888 7.86714 135 90 48 
0.268112 0.856351 8.82333 197 154 138 
0.244157 1.14657 7.91955 56 17 20 
0.269241 -0.237378 8.60377 40 43 34 
0.232847 -2.78941 6.98892 204 180 154 
0.277904 -0.407644 8.58367 147 133 132 
0.283675 0.846164 8.84555 58 20 0 
0.281613 -0.371454 8.59207 142 131 129 
0.282052 -0.394281 8.57366 77 55 58 
0.298342 0.42315 8.75376 120 115 138 
0.298264 0.381904 8.75272 59 25 60 
0.256674 3.96722 7.6072 120 125 118 
0.303538 -0.150313 8.68721 153 153 151 
0.257055 -2.71965 7.01467 88 65 49 
0.301944 -0.354434 8.60148 98 51 57 
0.307976 0.83924 8.84145 60 25 5 
0.305034 0.0304762 8.65387 57 64 72 
0.307059 -0.387558 8.57825 93 52 58 
0.311995 0.341211 8.74941 34 20 33 
0.264466 -2.71166 7.01003 193 172 153 
0.318263 0.839745 8.85115 185 150 130 
0.328234 -0.213114 8.63372 136 138 133 
0.274073 -2.63705 6.954 80 35 56 
0.331955 0.388973 8.75763 190 161 155 
0.329818 -0.190858 8.63368 134 137 130 
0.337678 0.31515 8.73317 50 22 36 
0.336054 0.837587 8.59215 170 123 117 
0.284394 -2.67053 6.94022 204 181 150 
0.344083 0.268149 8.74331 38 29 46 
0.285101 -2.65225 6.92058 200 173 156 
0.348471 0.810233 8.84107 189 149 123 
0.343051 -0.197227 8.65637 138 139 134 
0.342866 -0.387829 8.61207 82 39 46 
0.35212 0.356897 8.77634 173 155 143 
0.351424 0.232709 8.72404 163 163 151 
0.320149 1.11672 7.93606 162 147 128 
0.351505 -0.2182 8.62023 125 125 123 
0.360556 0.866222 8.87443 167 124 117 
0.356627 -0.388373 8.55618 151 124 129 
0.328849 1.1478 7.96313 26 17 12 
0.363665 0.373165 8.76715 172 168 167 
0.36204 -0.147621 8.6585 136 137 132 
0.300507 -2.64668 6.93413 76 41 35 
0.370204 0.831718 8.84679 67 24 15 
0.367847 -0.157056 8.63017 36 37 32 
0.37267 0.387484 8.76613 53 42 56 
0.308006 -2.79236 6.90505 240 180 169 
0.342 1.09433 7.92524 219 188 168 
0.376969 0.128539 8.71334 133 136 141 
0.376664 0.154949 8.69183 36 43 69 
0.344523 1.02697 7.95274 170 149 120 
0.374818 0.206666 8.6786 41 46 76 
0.310215 -2.61123 6.87543 205 179 162 
0.344198 1.07228 7.92103 132 108 82 
0.348386 1.02542 7.97805 204 184 157 
0.378161 -0.217793 8.61921 28 27 23 
0.382923 0.474064 8.75115 87 46 64 
0.380606 -0.200401 8.61908 26 25 23 
0.38693 0.525682 8.79424 115 64 71 
0.385089 -0.400712 8.59097 84 41 51 
0.394663 0.466414 8.81414 89 50 79 
0.322419 -2.56857 6.89326 225 202 170 
0.363725 1.07625 8.05292 215 191 163 
0.361976 1.15684 7.96527 35 17 13 
0.396257 -0.19131 8.63129 134 136 131 
0.399301 -0.396839 8.61024 164 134 142 
0.333387 -2.87908 6.92014 248 181 155 
0.403546 -0.360584 8.61303 145 127 127 
0.405442 -0.20523 8.62556 60 62 57 
0.370317 1.09326 7.89952 146 119 98 
0.338235 -2.83877 6.92355 178 16 29 
0.368131 1.19345 7.76827 173 135 116 
0.343828 -3.13761 6.99173 52 35 41 
0.415502 -0.225341 8.64232 143 145 142 
0.382528 1.03294 7.93952 239 215 181 
0.355412 -3.19554 7.06467 190 173 147 
0.384704 1.06799 7.9003 255 217 181 
0.425071 -0.337987 8.61461 90 61 66 
0.393769 1.0323 7.97209 244 213 193 
0.428544 -0.377833 8.59936 104 58 71 
0.395237 1.16138 7.94669 37 24 18 
0.430381 -0.40389 8.59026 73 59 58 
0.397669 1.03925 7.95828 247 209 190 
0.394395 1.06372 7.89877 131 47 21 
0.443871 0.69446 8.88116 195 163 150 
0.398532 1.05103 7.91202 122 43 28 
0.402953 1.04047 7.92858 110 51 35 
0.406437 1.10426 7.90712 201 98 83 
0.407591 1.04563 7.91249 223 145 125 
0.44998 -0.207721 8.638 116 117 119 
0.412972 1.08693 7.876 103 1 0 
0.458622 -0.199544 8.66309 48 50 49 
0.417068 1.11258 7.89027 97 31 15 
0.420515 1.09537 7.87161 180 115 87 
0.384408 -2.07217 6.99516 164 145 112 
0.470475 0.0970936 8.73684 28 38 63 
0.425676 1.07853 7.88889 191 123 102 
0.38716 -2.34169 6.96032 189 166 122 
0.469941 -0.205752 8.66973 57 59 56 
0.428716 1.10921 7.90479 82 58 20 
0.38837 -2.55167 6.94043 126 69 86 
0.481318 0.697654 8.87506 95 72 78 
0.386573 -2.83132 6.88252 232 211 168 
0.432829 1.0878 7.911 71 26 0 
0.432333 1.0753 7.91529 56 10 0 
0.394552 -2.0658 6.98181 187 168 138 
0.391516 -2.84193 6.92202 228 205 171 
0.435042 1.05063 7.9181 203 139 129 
0.397489 -2.11811 6.99659 140 128 86 
0.39707 -2.31758 6.93718 246 229 185 
0.439337 1.10239 7.89245 189 185 114 
0.442192 1.17149 7.94938 20 14 18 
0.442014 1.08337 7.89026 201 198 127 
0.409229 -3.32329 7.04732 189 173 157 
0.401491 -2.28137 6.91268 60 40 29 
0.40477 -2.31907 6.9626 53 36 6 
0.447974 1.12282 7.89789 21 26 0 
0.44933 1.05902 7.9117 220 207 139 
0.451212 1.13311 7.90276 142 139 108 
0.408962 -2.07421 6.98364 29 12 0 
0.455195 1.03654 7.95312 214 199 166 
0.450365 1.09577 7.90088 32 41 0 
0.453963 1.13964 7.89419 32 32 0 
0.412229 -2.10396 6.95137 28 18 0 
0.419327 -1.76209 7.06146 63 26 0 
0.460768 1.09681 7.88886 41 44 0 
0.461108 1.08048 7.88668 92 87 6 
0.41808 -2.40484 6.93843 199 172 127 
0.508641 -0.359245 8.63631 135 97 108 
0.463473 1.1101 7.88302 142 147 53 
0.418684 -2.30719 6.93795 53 40 8 
0.441097 -3.33027 7.30573 229 206 175 
0.422844 -2.09546 6.96729 22 7 0 
0.469014 1.10652 7.89504 184 191 96 
0.422805 -2.39823 6.91812 207 180 137 
0.46799 1.12269 7.86778 51 52 0 
0.469642 1.14374 7.89017 49 47 22 
0.425899 -2.10794 6.96881 252 243 202 
0.425091 -3.06687 6.88904 228 208 173 
0.474072 1.0655 7.90082 199 202 99 
0.427293 -2.14197 6.93961 172 151 122 
0.438283 -3.34821 7.0549 61 94 101 
0.52177 -0.335676 8.6354 79 44 51 
0.4327 -2.04672 7.01439 154 138 102 
0.433459 -2.09904 6.98026 96 79 59 
0.43087 -2.38157 6.91629 248 219 153 
0.480364 1.15444 7.91073 137 127 117 
0.432572 -2.15265 6.95597 196 177 145 
0.476701 1.20141 7.83971 68 42 29 
0.482407 1.06293 7.92024 207 205 118 
0.480934 1.08989 7.88299 119 115 51 
0.437983 -2.0278 6.98703 169 145 109 
0.434877 -2.39362 6.90415 185 161 125 
0.48419 1.0994 7.87925 189 184 154 
0.434833 -2.4037 6.86309 77 58 51 
0.43682 -2.38054 6.89036 92 63 3 
0.443173 -2.04104 6.99888 41 24 0 
0.443735 -3.3702 6.994 71 96 92 
0.441141 -2.14542 6.95216 23 7 0 
0.488426 1.13562 7.88667 15 0 0 
0.449287 -1.76661 7.0734 214 180 134 
0.444897 -2.02057 6.99539 46 16 5 
0.44535 -2.1281 6.94691 38 22 0 
0.448683 -2.12092 6.97346 33 12 0 
0.496772 1.05916 7.89393 235 228 158 
0.496075 1.12555 7.87594 196 167 159 
0.496029 1.10687 7.8752 30 12 0 
0.451992 -1.72632 7.02637 52 13 0 
0.496702 1.08173 7.87971 244 228 179 
0.453283 -2.04526 6.99734 18 0 0 
0.451523 -2.39086 6.91081 73 44 0 
0.507956 1.05184 7.93491 224 220 156 
0.45412 -2.34056 6.91355 56 41 0 
0.449101 -2.54062 6.8234 234 215 175 
0.456361 -2.40346 6.89196 81 70 38 
0.511474 1.1423 7.87092 30 2 0 
0.512288 1.16189 7.90865 92 63 57 
0.462201 -2.05657 6.94763 199 185 138 
0.460034 -2.34875 6.88999 192 167 113 
0.510623 1.10678 7.84389 225 123 119 
0.465907 -2.11164 6.98457 54 39 10 
0.470765 -1.69748 7.07039 134 92 78 
0.566462 -0.336625 8.64527 89 53 57 
0.471843 -3.43277 7.02059 202 181 154 
0.516621 1.19719 7.88804 103 66 39 
0.464799 -2.40232 6.90236 191 177 132 
0.475422 -1.71689 7.08326 74 32 18 
0.465437 -2.33616 6.91269 63 53 0 
0.475761 -3.38583 7.02683 229 221 200 
0.470167 -2.12872 6.94822 152 134 94 
0.465758 -2.40889 6.88589 93 82 37 
0.473799 -2.05019 7.01836 37 11 0 
0.471459 -2.05682 6.95436 41 18 2 
0.481642 -1.71142 7.11747 66 24 8 
0.595169 0.91126 8.97648 53 19 33 
0.482205 -1.73367 7.08398 60 23 0 
0.526399 1.12887 7.84871 183 105 92 
0.477291 -2.02319 6.98066 45 19 18 
0.582166 -0.335273 8.66651 146 117 119 
0.475148 -2.38877 6.91474 55 38 0 
0.474253 -2.39886 6.89908 51 35 0 
0.476839 -2.11884 6.94358 51 39 1 
0.651195 3.29332 9.84737 117 110 100 
0.475193 -2.34281 6.89937 73 53 2 
0.477262 -2.33773 6.91615 179 165 118 
0.586783 -0.352096 8.68426 146 113 120 
0.530815 1.11372 7.87547 157 48 27 
0.488098 -1.76487 7.09612 73 39 0 
0.530619 1.20029 7.85985 81 50 19 
0.488141 -1.71095 7.09396 163 121 99 
0.476883 -2.36071 6.89561 176 148 74 
0.479624 -2.33293 6.93296 54 41 0 
0.489414 -1.71837 7.08284 67 25 0 
0.535041 1.09194 7.87617 110 48 1 
0.487294 -3.42288 6.97352 200 197 164 
0.601741 0.892581 8.86614 116 82 96 
0.607037 0.884234 8.90519 35 2 13 
0.539404 1.10692 7.88157 203 117 94 
0.486503 -2.12874 6.94367 36 28 0 
0.484687 -2.29672 6.90785 210 188 141 
0.495208 -1.75867 7.05999 213 178 124 
0.496819 -1.71191 7.08067 160 118 93 
0.489587 -2.11627 6.95225 80 69 24 
0.546957 1.08341 7.87638 219 194 137 
0.494451 -2.15193 6.95281 202 188 143 
0.497303 -2.30726 6.92644 73 49 3 
0.497753 -2.13423 6.95031 59 44 5 
0.500444 -2.28058 7.00501 255 255 192 
0.568562 1.04084 8.09355 37 17 19 
0.613653 -0.35427 8.67875 99 59 67 
0.555814 1.20076 7.86655 185 150 110 
0.499105 -3.3026 6.89978 230 211 171 
0.558871 1.17632 7.89868 147 89 75 
0.615315 -0.342325 8.68697 153 116 123 
0.55804 1.07583 7.86506 69 54 0 
0.505686 -2.33021 6.93123 52 40 0 
0.567558 1.06112 7.92258 188 179 110 
0.570561 1.10537 7.83457 97 57 21 
0.514856 -2.09741 6.92707 31 4 0 
0.57395 1.12919 7.85502 122 49 32 
0.63876 -0.373283 8.70523 76 47 51 
0.529167 -1.71824 7.09248 47 9 0 
0.530263 -1.75732 7.08244 126 97 55 
0.524126 -2.17626 6.95175 94 78 53 
0.655999 0.854282 8.88209 150 87 95 
0.646202 -0.358581 8.68412 129 120 113 
0.537112 -1.76805 7.08119 47 15 0 
0.585246 1.10707 7.86143 221 209 123 
0.526314 -2.22052 6.91976 198 177 114 
0.531334 -3.43626 6.95099 57 103 56 
0.590649 1.07056 7.89875 208 211 96 
0.529394 -2.20454 6.92512 191 173 127 
0.531529 -2.19631 6.93497 52 34 0 
0.536219 -2.19171 6.95056 177 154 122 
0.546146 -1.72374 7.08535 176 143 112 
0.537255 -2.25891 6.92299 149 135 98 
0.540787 -2.22743 6.97056 55 37 0 
0.598646 1.07861 7.84987 202 223 86 
0.678254 0.720884 8.89595 157 100 106 
0.538846 -3.17734 6.88925 206 66 75 
0.541524 -2.24653 6.92131 209 192 104 
0.6158 1.06226 8.02754 158 129 29 
0.687316 0.829851 8.94003 140 92 106 
0.675913 -0.107592 8.71609 92 90 78 
0.547804 -2.19023 6.95221 156 137 95 
0.627926 1.05049 8.09394 131 104 17 
0.549272 -2.26103 6.94138 62 46 0 
0.552106 -2.20029 6.94471 245 228 174 
0.56396 -1.69532 7.11128 110 70 70 
0.695286 0.894906 8.90795 137 86 95 
0.647662 1.05132 8.20421 108 88 35 
0.694154 0.0440872 8.79936 106 68 83 
0.56038 -2.18906 6.95879 51 36 0 
0.554504 -2.98017 6.84755 156 43 73 
0.560727 -2.24979 6.94797 68 48 0 
0.622067 1.14409 7.84628 135 42 25 
0.560068 -2.22988 6.92982 160 135 68 
0.642164 1.04434 8.09111 217 200 130 
0.563437 -2.16474 6.94967 49 27 0 
0.626354 1.15689 7.85665 119 31 21 
0.70999 0.918395 8.93762 95 67 81 
0.57366 -1.73979 7.07511 46 12 0 
0.565075 -2.22199 6.94098 64 43 0 
0.717376 0.275051 8.98133 36 26 37 
0.640046 1.07436 8.0001 79 72 0 
0.770548 3.26458 9.77453 6 8 20 
0.646582 1.04816 8.06779 70 51 0 
0.570383 -2.2485 6.93541 237 223 174 
0.720154 0.915499 8.92664 26 5 12 
0.573279 -2.17223 6.93807 91 68 1 
0.72641 0.843912 8.99118 81 66 73 
0.720813 0.909714 8.88652 40 20 29 
0.639537 1.12228 7.84873 248 218 180 
0.657452 1.0414 8.06413 140 129 99 
0.657076 1.04677 8.04752 53 41 0 
0.575521 -3.00973 6.8492 92 45 53 
0.647488 1.09413 7.85837 32 23 0 
0.647934 1.10717 7.83474 109 76 43 
0.664517 1.06645 7.99755 218 205 101 
0.591698 -3.2539 6.95116 238 214 178 
0.590521 -2.11234 6.93537 34 7 0 
0.589437 -2.20346 6.91908 44 23 0 
0.590147 -2.92909 6.86137 174 53 84 
0.59823 -2.21067 6.97589 52 24 0 
0.594664 -3.22136 6.90749 245 212 181 
0.661687 1.14846 7.8377 211 162 157 
0.665577 1.0834 7.87545 224 222 181 
0.598278 -2.10351 6.94807 54 21 2 
0.663497 1.17775 7.84792 104 77 68 
0.662095 1.15889 7.82282 34 1 0 
0.671631 1.09757 7.86028 206 179 150 
0.67041 1.18808 7.84485 36 0 0 
0.597798 -2.603 6.82569 236 210 185 
0.677982 1.22637 7.86924 188 107 80 
0.678173 1.08717 7.86268 45 35 0 
0.607074 -2.24451 6.91627 117 100 80 
0.617402 -2.16193 6.98969 138 119 89 
0.616336 -2.11955 6.95438 178 163 132 
0.607121 -2.9726 6.81392 129 43 92 
0.60981 -2.93129 6.82629 246 208 195 
0.607376 -2.65706 6.7853 242 220 197 
0.609834 -2.66602 6.81286 242 221 200 
0.689122 1.14651 7.83197 19 0 0 
0.629621 -2.01734 7.03891 55 19 7 
0.615747 -2.484 6.86554 68 57 51 
0.697866 1.10413 7.88044 39 23 7 
0.686067 1.21648 7.71453 70 67 78 
0.696494 1.14936 7.81018 233 205 181 
0.621019 -2.61811 6.83521 254 214 202 
0.640144 -2.05055 7.04109 52 34 10 
0.79706 0.85535 8.91299 132 68 84 
0.64204 -3.6421 6.9981 227 212 183 
0.645651 -2.0419 7.03585 165 148 128 
0.809187 0.600864 8.93294 56 51 55 
0.732146 1.05297 8.05184 100 96 95 
0.650372 -2.02987 7.01588 29 12 0 
0.65276 -2.05132 7.03377 40 24 0 
0.648199 -2.24824 6.95236 161 142 109 
0.806255 0.4767 8.81111 150 72 88 
0.65836 -2.01528 7.03723 70 23 15 
0.745364 1.05143 8.10467 140 128 132 
0.652184 -2.13422 6.95705 32 17 0 
0.742617 1.05383 8.05553 112 97 76 
0.727436 1.20858 7.87801 186 162 128 
0.723154 1.22831 7.81669 190 177 124 
0.685464 -1.58449 7.32848 17 7 8 
0.665321 -1.94921 7.05208 199 149 150 
0.647104 -2.66244 6.8221 128 81 91 
0.670345 -3.84943 7.02931 233 210 179 
0.664467 -3.60263 6.95928 230 222 199 
0.663752 -2.32126 6.95541 90 84 52 
0.835345 0.76945 8.91612 196 159 141 
0.67575 -2.037 7.0722 64 22 8 
0.836204 0.571102 8.91161 72 72 72 
0.740401 1.21296 7.8551 48 33 14 
0.668353 -2.27287 6.9668 29 11 0 
0.675516 -3.71842 7.01883 91 74 46 
0.664212 -2.15609 6.9255 33 5 0 
0.662384 -2.15108 6.90483 26 0 0 
0.840801 0.707257 8.92264 132 99 68 
0.672183 -2.07682 7.00095 101 86 65 
0.768451 1.05743 8.12666 223 193 63 
0.673918 -2.24706 6.98928 39 6 1 
0.765736 1.05979 8.03781 225 188 22 
0.681301 -3.65849 6.99156 57 98 58 
0.758307 1.19924 7.91452 35 27 24 
0.680839 -2.28044 6.98457 169 148 121 
0.681874 -2.07494 7.00734 21 8 0 
0.688048 -3.7816 7.03778 206 28 40 
0.684326 -2.13468 7.03598 40 24 1 
0.760572 1.22294 7.90014 161 135 102 
0.694133 -2.00821 7.10744 79 17 20 
0.680107 -2.30428 6.94037 43 33 0 
0.691798 -2.06339 7.05526 158 137 110 
0.69039 -2.06846 7.03416 44 22 1 
0.842503 -0.497125 8.68898 116 115 110 
0.683627 -2.32622 6.93978 43 30 0 
0.76496 1.11888 7.87746 67 47 22 
0.70532 -3.84513 7.0631 234 203 172 
0.78244 1.19657 7.97106 165 135 49 
0.700807 -3.62943 7.00899 127 139 103 
0.690966 -2.29537 6.91984 213 196 140 
0.696211 -2.0592 6.97351 37 13 0 
0.692676 -2.36081 6.92676 138 129 98 
0.695448 -2.3221 6.93515 36 23 0 
0.709239 -2.06303 7.09091 168 143 113 
0.735447 -1.66801 7.35706 42 19 5 
0.736571 -1.64352 7.35751 217 173 112 
0.698735 -2.30702 6.94283 209 193 141 
0.702732 -2.29135 6.98518 255 255 177 
0.792221 1.13627 7.95308 212 174 13 
0.707241 -2.30149 6.96698 175 164 102 
0.812863 1.05532 8.12516 238 185 81 
0.715822 -2.11273 7.04535 183 172 144 
0.713291 -2.26302 6.9984 47 17 0 
0.855856 0.288296 8.52986 135 123 107 
0.717366 -2.2826 6.98859 80 61 18 
0.720986 -2.10953 7.00574 32 12 0 
0.822655 1.06053 8.09369 156 76 39 
0.736531 -3.85082 7.12081 66 37 21 
0.737163 -3.63332 7.01973 226 217 184 
0.843564 1.04528 8.16987 93 33 22 
0.725228 -2.40637 6.87264 70 56 43 
0.727583 -2.5833 6.86868 246 220 185 
0.838289 1.09206 8.03275 224 199 145 
0.731167 -2.53531 6.87471 241 189 178 
0.749987 -2.29174 6.98768 179 163 127 
0.752153 -3.62896 6.97146 51 34 26 
0.740249 -2.54159 6.87713 173 139 114 
0.745718 -2.48739 6.89417 64 40 30 
0.744818 -2.52792 6.87854 245 208 182 
0.763318 -2.3157 7.02886 143 124 84 
0.747062 -2.58158 6.87357 244 219 188 
0.938824 -0.484788 8.72454 27 23 12 
0.752984 -2.96407 6.85906 156 132 96 
0.771665 -2.32029 7.00934 90 76 41 
0.877525 1.06615 8.06884 183 68 61 
0.764342 -2.53871 6.91431 236 216 183 
0.93474 0.272833 8.5628 38 24 11 
0.765758 -2.54826 6.91233 164 143 116 
0.871913 1.20117 7.96888 220 183 7 
0.768712 -2.51122 6.90895 235 209 182 
0.905204 1.05148 8.19097 91 28 21 
0.820179 -1.7009 7.31182 98 74 46 
0.956888 0.265224 8.60348 42 26 10 
0.916674 1.06031 8.23279 89 30 24 
0.784887 -2.53939 6.938 236 210 183 
0.900233 1.07299 8.0621 87 71 0 
0.824587 -1.71626 7.28935 64 39 8 
0.909477 1.05796 8.13258 226 174 153 
0.88524 1.23641 7.89484 209 178 123 
0.790036 -2.54959 6.93506 159 133 108 
0.821289 -2.037 7.18414 200 163 145 
0.805387 -2.58173 6.96287 234 211 177 
0.933261 1.05281 8.19668 62 45 35 
0.798151 -2.55008 6.90465 243 214 184 
0.851229 -1.98861 7.33745 25 5 7 
1.02268 0.590075 8.91058 184 159 128 
0.815862 -2.49495 6.96924 66 48 26 
0.818208 -2.49976 6.98562 66 48 26 
0.854047 -1.60977 7.28141 152 130 72 
0.911121 1.2581 7.80596 209 167 91 
0.846976 -2.30451 7.18072 67 32 0 
0.854964 -1.75156 7.22194 34 23 17 
0.926273 1.23681 7.89132 103 86 68 
0.861795 -1.81297 7.23891 48 30 20 
0.845623 -2.49457 7.03198 76 60 47 
0.875902 -1.7001 7.26324 200 157 26 
0.848434 -2.97595 6.99933 223 201 162 
0.841272 -2.88893 6.91553 69 45 67 
0.847603 -2.90712 6.96689 70 46 70 
0.857976 -3.03064 7.03141 52 37 40 
0.851814 -2.71277 6.9305 147 123 99 
0.88804 -1.74645 7.25406 201 174 57 
0.884954 -1.84495 7.18194 199 163 15 
1.00729 1.0458 8.2437 171 144 133 
0.85549 -2.65354 6.89139 234 203 185 
1.00691 1.04344 8.23225 165 137 126 
0.862583 -2.69837 6.94272 239 206 189 
0.883814 -2.6264 7.01189 147 50 93 
0.891212 -2.80491 7.0017 98 97 105 
0.897197 -2.55858 7.05316 83 50 31 
0.90307 -2.52266 7.07178 225 201 175 
1.21712 3.27951 9.73638 3 7 16 
0.909535 -2.68198 7.06044 121 64 73 
0.910053 -2.66613 7.05594 230 179 175 
0.953026 -2.11099 7.40686 142 116 55 
1.05762 1.06121 8.24561 67 26 20 
0.933318 -2.69303 7.13353 98 69 51 
1.00687 1.24179 7.73682 128 105 53 
0.982206 -2.28534 7.36027 120 101 61 
0.959257 -1.95836 7.13251 93 76 0 
1.06287 1.12041 7.90919 173 133 0 
1.00429 -2.23413 7.36821 33 21 7 
1.09205 1.10103 8.0778 61 47 20 
1.1307 1.07601 8.23598 66 39 18 
1.08785 1.20001 7.8837 174 122 0 
1.12096 1.08403 8.08408 59 48 28 
1.10727 1.11322 7.98424 223 192 13 
1.03241 -2.2753 7.32777 174 157 113 
1.00446 -1.95269 7.06266 102 81 14 
1.0092 -1.53707 7.08659 159 145 82 
1.16116 1.01372 8.12464 129 107 93 
1.02084 -1.95239 7.06745 107 86 5 
1.02156 -1.93903 7.03156 117 94 14 
1.0311 -1.57555 7.01441 77 63 16 
1.03903 -1.90782 7.04002 118 107 41 
1.04102 -1.91792 7.00932 124 107 25 
1.03756 -1.60938 6.9777 202 177 50 
1.04727 -1.89608 6.9942 164 143 62 
1.05692 -1.89652 7.01692 110 83 0 
1.06217 -1.83498 6.97994 140 118 0 
1.09965 -2.16571 7.2225 241 212 59 
1.06646 -1.57853 7.0094 86 69 15 
1.06094 -1.87554 6.96204 200 171 51 
1.07099 -1.59458 7.00834 155 140 75 
1.22195 1.0994 8.05818 59 63 38 
1.07793 -1.92472 7.04614 203 171 26 
1.10541 -2.12661 7.21947 160 118 6 
1.61445 7.07765 10.734 153 145 132 
1.07578 -1.8156 6.99485 127 105 0 
1.08037 -1.57568 7.00389 156 137 42 
1.11409 -2.17215 7.19636 131 90 11 
1.10127 -1.98771 7.08476 243 208 44 
1.26695 1.01443 8.21725 116 100 77 
1.08469 -1.62318 6.96716 168 145 67 
1.12248 -2.13902 7.18812 232 202 18 
1.26696 1.10189 8.18554 214 188 29 
1.09142 -1.82451 6.97576 210 183 80 
1.08949 -1.73339 6.94021 154 135 33 
1.09478 -1.80672 6.96842 153 129 29 
1.26932 1.10536 8.14429 220 187 22 
1.28104 1.07216 8.18862 126 99 92 
1.10276 -1.73496 6.9502 149 126 24 
1.10377 -1.71968 6.95835 197 173 77 
1.10362 -1.68922 6.94929 108 91 11 
1.53864 2.89689 9.78261 166 156 144 
1.28841 1.116 8.10641 149 129 0 
1.13634 -1.95282 7.05275 152 108 0 
1.12539 -1.82645 6.9699 177 153 21 
1.3017 1.06979 8.09915 86 55 53 
1.31338 1.03266 8.13635 197 173 147 
1.14576 -1.93768 7.03709 245 213 34 
1.3221 1.04226 8.18386 198 174 148 
1.15175 -1.54526 7.06523 220 191 55 
1.2873 1.26822 7.92572 32 22 13 
1.15715 -1.92238 7.03048 116 70 0 
1.1582 -1.91084 7.01624 255 222 82 
1.29946 1.28645 7.9233 116 89 68 
1.36662 0.977578 8.21543 161 135 118 
1.32042 1.28081 7.91093 59 35 9 
1.18021 -1.75363 7.00878 158 123 21 
1.18965 -1.6164 7.04252 213 184 44 
1.20971 -2.16726 7.13766 188 157 14 
1.21279 -2.20635 7.13512 158 128 16 
1.22835 -2.20083 7.14082 211 179 66 
1.22644 -2.18606 7.1207 147 116 0 
1.39398 1.04553 8.09086 253 232 205 
1.23114 -2.16786 7.0901 216 187 57 
1.23857 -1.53776 7.09609 194 166 43 
1.24695 -1.94838 7.14852 243 215 10 
1.24358 -2.19028 7.10848 155 125 13 
1.25875 -0.699857 7.20026 215 167 65 
1.2465 -2.20137 7.08818 137 109 0 
1.39474 1.28937 7.92494 115 62 22 
1.25958 -2.16669 7.08534 225 194 67 
1.43528 1.05326 8.11517 202 177 157 
1.45177 1.0259 8.19827 133 111 97 
1.26783 -2.19581 7.08234 144 117 2 
1.43166 1.30328 7.9306 180 104 70 
1.28774 -1.63121 7.07938 230 200 8 
1.28829 -2.17763 7.05873 229 199 49 
1.44212 1.29425 7.92556 77 21 0 
1.69427 2.59523 9.29927 161 151 141 
1.30177 -0.452213 7.07432 241 191 78 
1.30436 -0.399694 7.08173 223 189 117 
1.51343 1.26335 8.20113 120 91 77 
1.50948 1.27153 8.17828 69 29 21 
1.30352 -0.916528 7.01415 143 101 0 
1.45812 1.30047 7.8754 81 23 1 
1.32273 -0.490851 7.06675 132 107 67 
1.32393 -0.571946 7.06571 237 201 104 
1.32642 -0.640218 7.05849 251 205 107 
1.54974 1.25824 8.26473 140 86 74 
1.33435 -0.742979 7.0561 235 191 92 
1.36813 -1.42305 7.21918 183 153 33 
1.52088 1.27701 8.03412 177 96 103 
1.54762 1.27741 8.15851 89 30 26 
1.334 -1.10005 6.9736 174 122 13 
1.52516 1.30052 8.00918 134 68 46 
1.34411 -1.19791 7.00643 102 73 17 
1.35214 -1.21856 7.02851 64 44 7 
1.51172 1.30947 7.89871 185 143 105 
1.35185 -1.20239 6.9987 198 157 67 
1.35833 -0.846636 7.03673 94 66 18 
1.34459 -1.12099 6.94686 244 195 66 
1.58257 1.26358 8.2203 87 21 23 
1.35003 -1.15309 6.93448 254 205 86 
1.87812 2.63173 9.7112 184 170 157 
1.36119 -1.25347 6.9663 209 161 87 
1.54058 1.31031 7.91103 181 136 94 
1.39477 -1.82085 7.08248 216 178 55 
1.3788 -0.927688 6.99351 87 67 34 
1.80295 0.843453 9.2001 173 160 141 
1.39956 -1.792 7.06075 115 85 12 
1.60819 1.25726 8.1677 188 87 95 
1.79815 0.856938 9.1362 96 83 74 
1.39253 -1.81877 6.99258 142 102 7 
1.39936 -1.14273 6.98515 173 150 82 
1.43969 -1.69503 7.16107 69 37 0 
1.40251 -1.85285 6.97433 219 177 79 
1.41057 -1.84809 6.99159 118 71 0 
1.42313 -2.09275 7.0403 217 192 110 
1.39991 -1.36694 6.92745 167 102 0 
1.41703 -1.84208 6.98358 237 189 104 
1.41707 -1.40974 6.97723 170 103 0 
1.43264 -2.06475 7.04027 143 122 15 
1.41408 -1.60497 6.95348 234 173 66 
1.41244 -1.35733 6.94035 207 166 52 
1.42814 -1.21382 7.00822 159 137 96 
1.4701 -1.57426 7.21072 214 158 45 
1.40995 -1.27718 6.9136 238 190 79 
1.44928 -2.06365 7.09936 130 109 18 
1.42732 -1.86366 6.989 215 178 64 
1.41151 -1.43135 6.91487 172 101 11 
1.41658 -1.62861 6.9327 198 141 0 
1.4432 -2.07362 7.05268 180 157 81 
1.4178 -1.64886 6.91882 243 193 80 
1.67899 1.12854 8.23004 33 5 4 
1.42862 -1.8257 6.96444 111 56 17 
1.42559 -1.40857 6.95178 215 165 52 
1.45039 -2.10591 7.06165 195 174 67 
1.45685 -2.04178 7.08938 220 191 51 
1.43243 -1.5806 6.9743 193 118 3 
1.44838 -2.12714 7.04697 231 206 77 
1.4624 -2.17641 7.10601 246 211 57 
1.42622 -1.5044 6.92976 182 104 0 
1.42311 -1.43635 6.90815 229 174 58 
1.42559 -1.57145 6.90451 255 189 72 
1.45597 -2.06367 7.04118 179 162 108 
1.46739 -2.17489 7.09301 151 104 0 
1.68737 1.07002 8.20795 145 128 112 
1.43611 -1.64434 6.93967 242 192 79 
1.46501 -2.08859 7.07571 158 145 100 
1.43385 -1.66027 6.9175 120 61 21 
1.46804 -2.13527 7.07296 109 74 0 
1.4525 -1.26676 7.00166 49 41 30 
1.87036 0.896398 9.06993 178 166 142 
1.48389 -2.05841 7.13174 65 49 13 
1.47355 -2.10441 7.07779 35 18 2 
1.88395 0.83154 9.10086 167 155 131 
1.46703 -2.11713 7.01819 237 205 42 
1.45173 -1.60435 6.94953 238 187 42 
1.87053 0.242409 9.00319 185 168 140 
1.49281 -2.06244 7.10448 173 152 47 
1.71773 1.10118 8.20552 119 107 107 
1.7213 1.14399 8.20158 19 17 22 
1.84627 -0.561751 8.77302 28 13 32 
1.48683 -1.8379 7.01976 132 95 69 
1.47983 -1.64961 6.98371 116 67 1 
1.86498 -0.530693 8.84026 109 95 84 
1.4718 -1.67947 6.93887 120 66 38 
1.5452 -2.19159 7.26796 233 204 16 
1.48098 -1.37988 6.9591 8 4 0 
1.67191 1.28032 7.86212 144 55 23 
1.885 -0.4452 8.84975 112 99 82 
1.94471 0.966165 9.12666 141 132 123 
1.54504 -1.89817 7.20135 8 7 5 
1.50379 -1.4558 6.9939 7 0 0 
1.49756 -1.78658 6.96441 9 5 2 
1.50122 -1.48701 6.96126 23 8 1 
1.47364 -1.55837 6.77344 8 8 8 
1.45616 -1.47777 6.6834 9 8 4 
1.69547 1.30475 7.73021 140 55 24 
1.52507 -1.64803 6.88204 14 13 11 
1.49764 -1.52554 6.74301 85 94 67 
2.03289 -0.150705 9.14489 117 108 99 
1.70016 1.33623 7.58412 22 21 26 
1.85184 -4.55939 8.1388 193 156 112 
2.00119 -0.732652 8.72885 170 146 118 
1.62935 -1.87398 7.07054 70 71 57 
1.7891 1.35515 7.67899 17 16 24 
1.59786 -1.51111 6.73664 71 78 47 
1.64026 -1.69128 6.88585 57 58 42 
1.97404 2.49087 8.34353 31 37 25 
1.67239 -1.80872 6.95932 63 64 50 
1.6348 -1.53499 6.80219 90 96 70 
1.74518 -1.25864 7.244 87 87 75 
1.71136 -1.83848 6.98128 14 11 2 
1.71209 -1.81682 6.96988 63 64 50 
1.78982 -2.08923 7.02592 24 27 8 
1.99579 1.24002 7.70681 51 50 55 
1.75674 -1.64839 6.74837 45 46 32 
2.00884 1.3972 7.72252 26 27 21 
2.02248 1.38595 7.74093 190 186 174 
2.03188 0.820926 7.72459 22 24 21 
2.06475 1.27628 7.82359 190 176 163 
2.07713 -2.57534 7.71706 67 63 52 
1.97869 -2.03256 7.3061 0 3 0 
1.91858 -1.02099 6.93228 69 74 67 
2.29479 1.35264 8.24644 44 45 31 
3.04053 7.18123 10.9135 164 151 143 
2.45216 1.29276 8.44014 194 180 154 
2.47937 1.28342 8.46775 202 192 182 
2.1061 -1.46133 7.1677 180 177 158 
2.40135 1.17505 8.17495 193 181 157 
2.45703 1.21475 8.35588 194 187 158 
2.44426 0.813814 8.22845 201 186 157 
2.18093 -0.671425 7.19788 60 66 54 
2.07539 -1.62987 6.81284 94 99 76 
2.20671 -1.44825 7.21809 179 167 151 
2.32969 -0.7275 7.33759 12 21 16 
2.44428 0.454396 7.68614 201 189 165 
2.46737 0.222266 7.75481 52 62 27 
2.30937 -0.956471 7.24009 67 75 51 
2.40133 -0.696917 7.49826 22 29 13 
2.45711 0.173895 7.64497 32 40 25 
2.39085 -0.689199 7.42548 175 179 152 
2.40232 -0.676328 7.43061 28 31 14 
2.4021 -0.730703 7.40716 194 185 152 
2.42873 -0.587526 7.46757 202 187 164 
2.39557 -1.96519 7.3572 5 5 15 
2.43186 -0.556968 7.46491 65 52 36 
2.24266 -2.12542 6.85382 73 52 25 
2.4355 -0.653242 7.4379 189 197 176 
2.44391 -0.562942 7.44167 29 26 17 
2.45528 -0.596637 7.47217 190 188 173 
2.42227 -0.921705 7.35128 97 101 74 
2.48178 -0.649007 7.48515 31 35 18 
2.46607 -0.798552 7.42429 192 183 154 
2.48196 -0.658651 7.46314 192 195 176 
2.44005 -1.99978 7.30315 145 149 132 
2.47039 -0.889022 7.39299 29 31 9 
2.48559 -0.815799 7.4174 49 58 39 
2.4089 -1.27405 7.17631 190 190 166 
2.41392 -1.27375 7.14773 139 136 119 
2.41336 -1.03968 7.14461 92 96 73 
2.5802 -0.154782 7.64657 31 35 20 
2.51822 -0.809564 7.45858 203 188 165 
2.53305 -0.822035 7.46595 203 179 155 
2.57049 -0.309463 7.57626 191 190 169 
2.5995 -0.181694 7.66267 200 185 164 
2.44219 -1.31738 7.1647 104 107 78 
2.60108 -0.326343 7.6308 29 32 11 
2.60936 -0.15827 7.65037 96 87 56 
2.55284 -0.761187 7.47571 29 32 11 
2.61327 -0.31155 7.64583 45 44 23 
2.62627 -0.206002 7.67777 38 39 25 
2.45099 -1.26552 7.1457 202 185 157 
2.632 -0.186822 7.68572 199 197 174 
2.64286 -0.185306 7.71633 200 196 171 
2.59508 -0.749471 7.5677 27 28 10 
2.63341 -0.173749 7.68373 202 193 164 
2.59191 -0.767631 7.54372 199 195 166 
2.61777 -0.313844 7.61064 206 202 177 
2.61017 -0.754533 7.56183 49 51 30 
2.55351 -0.969433 7.39175 30 34 7 
2.61889 -0.776157 7.57585 70 59 41 
2.63444 -0.767944 7.57373 202 189 172 
2.61854 -0.46407 7.52394 200 187 155 
2.64347 -0.333493 7.59169 34 38 24 
2.64708 -0.318859 7.59411 45 47 25 
2.6591 -0.13333 7.62865 201 189 167 
2.6386 -0.463471 7.52735 91 85 49 
2.68283 -0.066999 7.64506 56 64 40 
2.64462 -0.652462 7.52829 206 189 163 
2.68042 -0.250693 7.60621 32 40 25 
2.67435 -0.728145 7.58638 209 188 171 
2.63954 -0.787018 7.47405 212 188 162 
2.68098 -0.737323 7.57028 207 194 175 
2.6935 -0.719956 7.57448 37 44 28 
2.83832 -1.85382 7.97333 204 189 150 
2.69693 -0.7601 7.56108 213 192 171 
2.73906 -0.0635119 7.66806 46 60 35 
2.55144 -1.98937 7.12272 35 51 22 
2.58289 -1.93263 7.14028 218 195 164 
2.77003 -0.211649 7.65434 211 189 165 
2.62376 -1.22428 7.22858 60 64 41 
2.59143 -1.31058 7.11974 213 197 163 
2.73256 -1.00692 7.48733 56 65 44 
2.77317 -0.358699 7.59062 41 53 39 
2.61167 -2.00312 7.07293 220 200 165 
2.70729 -2.2479 7.33589 110 96 61 
-2.20785 -2.51932 6.99866 134 19 62 
-2.20015 -2.46711 7.0438 191 72 114 
-2.19101 -2.47431 7.12402 123 9 45 
-2.10677 -2.48827 6.98111 100 0 25 
-2.09637 -2.44927 6.9597 181 57 94 
-2.10518 -2.41485 7.12867 137 12 54 
-2.11681 -0.278038 7.9435 160 164 191 
-2.07969 -0.248063 7.84816 56 28 50 
-2.1292 -0.286846 8.03937 114 121 139 
-2.06196 -0.82461 7.77624 64 57 73 
-2.00781 -0.944667 7.62746 46 47 67 
-2.05739 -0.287914 7.87545 186 193 209 
-2.0489 -0.771978 7.80879 96 93 110 
-1.99201 -1.04889 7.63027 36 43 61 
-2.00001 -0.762966 7.67993 55 26 44 
-1.97097 -0.828297 7.61897 61 25 39 
-2.00291 -0.848274 7.76164 214 182 193 
-1.97439 -0.277656 7.71377 36 63 108 
-1.96168 -0.938692 7.64713 43 40 49 
-2.09306 0.0929323 8.21663 200 231 249 
-1.96122 -0.159838 7.70862 181 192 210 
-2.14136 0.542832 8.44468 31 41 53 
-2.08066 0.0685941 8.19557 219 242 255 
-2.15453 0.516027 8.51589 63 70 80 
-2.08384 0.0084552 8.24054 215 232 242 
-1.94279 0.815262 7.81445 45 57 81 
-2.03048 0.124804 8.1209 168 184 207 
-1.9091 -0.625418 7.60853 16 51 93 
-1.93236 -0.113118 7.75023 59 89 113 
-1.91325 -1.04052 7.61394 79 38 52 
-1.9238 -0.994537 7.66483 119 42 60 
-2.052 0.0718268 8.2554 213 255 255 
-1.88541 -0.637877 7.57441 36 87 134 
-1.88441 1.01123 7.7141 33 50 66 
-1.90711 -1.04586 7.63692 81 44 61 
-1.87992 0.89427 7.74722 84 106 129 
-1.88973 -0.850508 7.67276 174 177 186 
-1.88997 -1.43661 7.72552 160 163 168 
-1.93587 0.170482 8.14153 157 187 198 
-1.97396 0.0886301 8.34912 165 180 185 
-1.72155 0.963199 7.44859 86 82 96 
-1.88056 0.264675 8.1397 178 193 198 
-1.87313 0.333565 8.13552 47 46 51 
-1.67106 0.959837 7.41833 160 144 131 
-1.87524 0.246956 8.20488 87 97 107 
-1.63815 0.484227 7.36949 156 166 176 
-1.68115 -2.06598 7.33098 102 101 80 
-1.78474 -2.9242 7.72223 122 111 105 
-1.72015 -2.45085 7.54566 59 61 73 
-1.87582 0.353338 8.48844 177 174 169 
-1.61574 -1.92163 7.17036 39 39 37 
-1.61046 0.507341 7.41226 83 84 89 
-1.71923 -2.51531 7.55861 76 78 91 
-1.71266 -2.69144 7.51875 14 20 34 
-1.7065 -2.91731 7.563 17 17 25 
-1.5956 -1.9266 7.21061 139 125 96 
-1.52638 0.960214 7.3858 132 127 124 
-1.53838 0.73338 7.45786 42 36 36 
-1.43586 -2.09714 6.94976 27 27 37 
-1.62665 0.377413 8.17375 201 201 193 
-1.57804 -2.61928 7.60301 125 125 133 
-1.65214 0.310006 8.31452 163 156 140 
-1.59601 0.370661 8.1239 255 255 213 
-1.52813 -2.38041 7.57226 159 170 172 
-1.53064 -2.50078 7.57384 123 133 143 
-1.61924 0.322304 8.38378 244 232 216 
-1.43179 0.434566 7.52012 75 71 72 
-1.51392 -2.44693 7.55264 112 121 136 
-1.51565 -2.58439 7.60529 80 82 95 
-1.47234 -2.25244 7.59026 155 159 160 
-1.28252 0.481651 7.05786 221 209 195 
-1.47456 -2.84249 7.60952 145 146 148 
-1.27843 0.459266 7.08379 138 129 132 
-1.47108 -2.88822 7.62169 94 101 119 
-1.25475 0.46693 6.99118 155 144 138 
-1.27858 0.61533 7.13867 216 203 184 
-1.43607 -2.47928 7.61377 146 153 159 
-1.21835 1.0136 6.98781 11 18 34 
-1.43038 -2.45254 7.60533 51 65 76 
-1.43257 -2.34423 7.63271 180 181 185 
-1.22678 1.06618 7.0549 88 96 109 
-1.24082 0.454779 7.06668 148 139 134 
-1.23073 -1.94106 6.71529 229 176 36 
-1.40918 -2.36748 7.59179 140 155 162 
-1.20895 -1.92927 6.68452 168 88 0 
-1.2013 1.12696 7.11704 14 22 41 
-1.2103 -1.92267 6.72413 189 58 30 
-1.20555 -1.93211 6.70796 248 140 78 
-1.20844 -1.91084 6.73845 254 152 77 
-1.41191 -2.90433 7.67201 27 39 53 
-1.17245 0.856505 6.95974 6 13 29 
-1.19071 0.467827 7.00722 178 164 153 
-1.19911 -1.93561 6.72333 178 96 0 
-1.17261 0.864037 7.0033 90 100 112 
-1.20704 -1.91711 6.78488 176 81 0 
-1.37682 -2.45772 7.6221 165 174 173 
-1.36312 -2.25513 7.60587 184 144 75 
-1.17408 -1.90667 6.66929 174 68 6 
-1.36728 -2.48261 7.64436 52 66 79 
-1.37563 -2.54221 7.71346 59 73 82 
-1.34743 -2.25549 7.6145 140 93 47 
-1.16096 1.04992 7.11963 23 29 43 
-1.34476 -2.33284 7.61634 116 131 138 
-1.15174 0.834387 7.05223 10 22 36 
-1.33895 -2.51465 7.57515 140 154 167 
-1.34181 -2.51834 7.59173 140 154 167 
-1.41648 0.235411 8.44058 191 172 155 
-1.14846 0.929664 7.0647 58 68 77 
-1.35322 -2.26114 7.71746 130 83 37 
-1.17079 -1.67578 6.81552 199 154 11 
-1.3225 -2.24839 7.56939 177 146 115 
-1.14404 0.928994 7.08591 67 76 85 
-1.16554 -1.93246 6.76402 253 159 61 
-1.33281 -2.84469 7.61842 97 109 123 
-1.32659 -2.56369 7.64707 112 124 140 
-1.32156 -2.27062 7.65961 69 63 49 
-1.14523 -1.88067 6.76178 222 169 27 
-1.14218 -1.92242 6.76106 205 96 40 
-1.31681 -2.83986 7.60392 39 51 67 
-1.32191 0.552336 8.17308 60 50 41 
-1.13576 -1.93723 6.74125 163 84 0 
-1.33078 0.400397 8.24316 102 87 84 
-1.29168 0.398713 8.2268 201 190 158 
-1.33416 0.346631 8.49389 189 174 151 
-1.25006 0.585099 8.05146 120 95 73 
-1.10344 -1.92513 6.79419 182 52 16 
-1.10549 -1.94625 6.80118 179 84 0 
-1.24174 0.582941 8.06556 33 12 0 
-1.09953 -1.93768 6.81059 240 129 74 
-1.26188 -2.75111 7.64177 180 189 188 
-1.26096 0.551755 8.23082 106 79 50 
-1.18717 0.633901 7.80389 223 207 182 
-1.259 0.502591 8.21039 227 203 165 
-1.26428 -2.81959 7.67832 54 74 98 
-1.21203 0.594886 8.01864 135 132 91 
-1.17619 0.79378 7.83499 137 100 47 
-1.16623 3.59072 8.25666 36 45 14 
-1.23699 -2.49648 7.64208 128 139 145 
-1.2625 0.204518 8.29289 88 79 70 
-1.25964 0.283666 8.2882 81 70 66 
-1.13283 1.0345 7.68691 225 206 192 
-1.25873 0.340263 8.33906 43 25 25 
-1.24945 0.339376 8.29646 65 47 45 
-1.2488 0.194309 8.28007 255 247 238 
-1.2508 0.175241 8.29993 77 67 58 
-1.24333 0.369028 8.29802 197 176 155 
-1.2319 -2.87078 7.66214 69 80 84 
-1.24041 0.199188 8.29832 76 64 52 
-1.20394 -2.25269 7.64544 127 131 140 
-1.22048 -2.86947 7.66982 176 178 177 
-1.15554 0.668323 7.9055 91 80 58 
-1.25008 0.209224 8.43151 201 184 166 
-1.12007 0.823124 7.83598 161 108 54 
-1.14477 0.547683 7.98248 157 140 130 
-1.18094 -2.55545 7.6552 130 129 134 
-1.19356 -2.61738 7.72319 47 61 70 
-1.18552 -2.58877 7.69169 43 57 66 
-1.1767 -2.61032 7.68519 136 150 159 
-1.1676 -2.40181 7.67102 142 142 132 
-1.09537 0.817351 7.81778 94 28 38 
-1.12053 0.686842 7.96758 72 42 16 
-1.06725 3.60684 8.16464 207 206 186 
-1.09077 0.788882 7.81843 173 141 128 
-1.06684 3.55582 8.17071 14 29 10 
-1.06642 1.03208 7.72535 179 164 143 
-1.16081 -2.4669 7.66829 108 125 133 
-1.10661 0.623224 7.90367 202 165 138 
-1.07859 0.834144 7.84997 157 112 45 
-1.09616 0.587882 7.95232 177 155 131 
-1.07438 3.55677 8.3831 141 105 21 
-1.14903 -2.78871 7.67409 92 111 125 
-1.00202 -1.75876 6.93606 18 20 33 
-1.03994 3.58846 8.21725 31 43 7 
-1.1234 -2.32593 7.64732 129 141 139 
-0.988957 3.60781 7.92583 22 42 33 
-1.13065 0.474369 8.27448 220 191 147 
-1.02084 0.989209 7.65257 119 106 98 
-1.05362 0.613449 7.86395 139 89 66 
-0.997869 3.58181 8.11256 127 138 124 
-1.05474 0.60965 7.9495 233 200 167 
-0.994396 0.922059 7.62846 143 121 100 
-1.04875 0.586207 7.98189 33 23 13 
-1.04176 0.595938 7.95502 200 175 153 
-0.990144 3.61135 8.26113 208 176 77 
-1.00913 0.836716 7.829 89 24 32 
-1.02242 0.519906 7.95748 58 16 0 
-0.959145 3.57724 8.15953 205 195 146 
-1.07736 -2.52773 7.73614 76 95 112 
-1.01512 0.720449 8.03329 97 92 86 
-0.878463 3.73962 7.72191 83 87 50 
-1.00301 0.572523 7.93488 226 185 139 
-0.9691 0.840308 7.81769 91 30 11 
-0.938532 1.00868 7.63241 35 24 18 
-0.988413 0.615437 7.92455 21 23 20 
-0.981152 0.711138 7.97427 23 16 23 
-0.955025 0.995458 7.83709 171 116 49 
-0.933424 1.04516 7.76698 208 194 185 
-0.977663 0.470431 8.03302 108 77 49 
-0.927566 1.00438 7.77207 106 76 42 
-0.970145 0.735258 8.03983 176 150 115 
-0.851411 3.76095 7.84822 33 24 29 
-1.01773 -2.51597 7.70763 139 143 129 
-0.961014 0.48629 7.97926 88 49 18 
-0.951754 0.500712 7.94048 224 186 150 
-0.913738 1.03473 7.80059 135 108 87 
-1.00525 3.42512 9.02716 40 49 80 
-0.936448 0.707389 8.00612 202 154 116 
-0.858203 3.6638 8.11761 215 154 47 
-0.893999 1.0273 7.87882 151 117 71 
-0.877273 -2.01053 7.03978 224 174 13 
-0.891302 0.84445 7.84518 102 26 38 
-0.925581 0.50149 8.04749 145 111 73 
-0.88206 3.51277 8.46537 151 96 14 
-0.842204 1.11404 7.5935 62 58 59 
-0.870442 0.71196 7.81476 223 190 149 
-0.861698 0.864264 7.8454 222 149 55 
-0.909786 3.40162 8.83979 123 74 70 
-0.874841 3.59173 8.61954 192 141 58 
-0.893817 0.626617 8.12726 220 184 150 
-0.840413 3.59803 8.43225 206 186 149 
-0.74287 3.76038 7.69807 106 107 76 
-0.791983 1.1279 7.45552 33 29 30 
-0.846224 1.00382 7.85515 138 130 84 
-0.877435 3.47365 8.73942 122 116 120 
-0.828346 -1.72599 7.03059 162 36 11 
-0.861786 3.49872 8.62868 125 94 47 
-0.811356 3.61107 8.2854 210 194 171 
-0.830209 -1.86385 7.10962 155 80 85 
-0.875298 3.42694 8.87266 150 137 120 
-0.77687 3.64234 8.11624 226 183 132 
-0.797585 3.59903 8.30014 108 85 43 
-0.865834 0.51073 8.0964 211 182 152 
-0.81567 3.50586 8.45338 166 138 98 
-0.866329 3.40094 8.85713 142 127 124 
-0.862345 0.688599 8.1159 191 160 131 
-0.669587 3.8885 7.35106 22 24 21 
-0.829329 0.814993 7.8767 180 153 136 
-0.821142 0.970735 7.85547 180 139 73 
-0.805877 -1.75751 7.03969 140 68 0 
-0.70026 3.78278 7.61075 133 124 91 
-0.822624 0.844065 7.87701 95 25 23 
-0.703163 3.78403 7.67439 149 144 115 
-0.899585 -2.75145 7.59491 24 31 49 
-0.862952 0.581909 8.20085 204 178 153 
-0.84311 0.693981 8.06718 39 18 13 
-0.752057 3.59467 8.07408 113 86 19 
-0.787837 3.55044 8.38028 84 57 14 
-0.84395 0.672937 8.09658 54 35 31 
-0.759401 3.5108 8.17119 73 57 32 
-0.857247 0.592426 8.22522 159 136 104 
-0.838111 3.49076 8.89504 92 64 40 
-0.811409 0.719127 7.91556 107 80 50 
-0.847034 0.545389 8.1847 119 88 59 
