ply                 
format ascii 1.0    
element vertex 1292
property float x    
property float y    
property float z    
property uchar red  
property uchar green
property uchar blue 
end_header          
-1.09493 3.67023 8.37711 17 30 10 
-1.05793 3.72525 8.09402 50 52 41 
-1.13641 3.5945 8.7304 152 116 22 
-1.12354 3.60484 8.65969 196 162 65 
-1.02743 0.560538 7.99274 126 84 44 
-1.12931 3.66052 8.74584 206 168 69 
-0.983841 0.947509 7.72154 224 204 180 
-1.09686 3.64577 8.54131 143 109 19 
-1.06327 3.69126 8.28971 24 28 27 
-1.03539 3.71158 8.09017 184 187 178 
-0.867594 -1.98189 7.03771 57 38 23 
-1.02609 3.71494 8.1335 21 27 23 
-0.983856 0.842986 7.88173 85 36 19 
-1.03958 3.67961 8.2864 21 31 32 
-1.01446 3.7136 8.09923 20 36 35 
-1.02339 3.68837 8.29693 119 127 116 
-0.844777 -1.77044 7.06678 75 23 27 
-1.00624 3.69829 8.27195 129 149 96 
-0.833032 -1.87828 7.05924 26 24 25 
-0.817475 -1.76302 7.10241 201 129 47 
-0.985183 3.68751 8.36015 199 191 152 
-0.815403 -1.77405 7.10218 147 72 0 
-0.997427 3.65274 8.5034 126 116 106 
-0.990743 3.66089 8.45661 122 113 98 
-0.945467 0.645429 8.20344 155 135 111 
-0.9542 3.75288 8.22302 138 99 40 
-0.975563 3.67979 8.41601 126 118 107 
-0.966906 3.68947 8.34826 100 93 77 
-0.958667 3.69586 8.30068 136 127 110 
-0.94205 3.71081 8.2646 216 201 178 
-0.864323 3.96204 7.60482 233 208 178 
-0.909339 3.68348 8.38069 143 139 128 
-0.844425 0.868028 7.93544 80 11 0 
-0.856075 0.558086 8.25089 121 86 54 
-0.769234 -2.83525 7.7989 30 36 32 
-0.861778 3.69661 8.44655 113 110 101 
-0.842155 3.73095 8.30649 222 194 170 
-0.856701 3.68085 8.58769 204 181 139 
-0.752827 -2.83247 7.81024 24 28 27 
-0.740464 1.06173 7.54702 228 215 199 
-0.742811 -2.80104 7.8031 160 157 148 
-0.828376 3.70406 8.45099 202 186 163 
-0.79015 0.666958 8.19571 198 167 123 
-0.838887 3.69526 8.61913 115 93 35 
-0.818557 3.72511 8.40702 194 179 140 
-0.735046 -2.82766 7.81333 49 47 50 
-0.84597 3.67871 8.77392 160 131 87 
-0.72958 -2.78585 7.80549 26 23 18 
-0.81246 3.71045 8.46562 107 81 30 
-0.796784 3.75016 8.30202 213 171 121 
-0.723627 -2.84854 7.805 140 151 147 
-0.824926 3.68459 8.69031 193 154 79 
-0.828047 3.66879 8.76862 103 82 51 
-0.691838 1.14579 7.43285 102 91 73 
-0.815191 3.70162 8.66481 87 64 22 
-0.709281 -2.89128 7.82479 44 44 42 
-0.818242 3.68047 8.75936 177 162 143 
-0.797445 3.71681 8.56256 76 61 30 
-0.792916 3.73193 8.55404 74 57 27 
-0.8099 3.6866 8.75701 83 67 52 
-0.697768 -2.852 7.809 33 38 41 
-0.717458 3.87211 7.73837 144 141 108 
-0.73099 0.802653 8.00902 187 152 132 
-0.78437 3.73959 8.50091 79 57 34 
-0.802783 3.69036 8.74869 154 140 114 
-0.776541 3.75667 8.46716 67 48 16 
-0.781331 3.72721 8.57228 179 150 80 
-0.766054 3.75519 8.40108 90 63 16 
-0.782589 3.70837 8.63874 214 167 63 
-0.67788 3.94156 7.48563 54 45 38 
-0.766294 3.73687 8.48839 180 144 86 
-0.789811 3.69899 8.76206 115 103 77 
-0.6764 3.97689 7.49088 255 253 244 
-0.713409 3.836 7.99917 217 198 156 
-0.744457 3.76612 8.45095 219 166 70 
-0.757282 3.72118 8.60637 183 149 78 
-0.760251 3.71197 8.67846 65 53 39 
-0.658614 -2.47365 7.82516 22 26 37 
-0.680558 3.88815 7.77787 234 214 187 
-0.758571 3.71368 8.71186 161 147 134 
-0.744792 3.72539 8.57607 167 141 84 
-0.625375 -1.74111 7.48601 0 1 10 
-0.653579 -2.50831 7.84325 94 101 109 
-0.64742 3.96202 7.49374 40 39 35 
-0.732025 3.74811 8.49753 173 139 76 
-0.746403 3.7191 8.70795 89 75 49 
-0.650755 -2.53211 7.85578 20 22 34 
-0.776059 3.7344 9.11084 132 101 83 
-0.729297 3.73434 8.61318 94 85 68 
-0.726565 3.73158 8.58106 92 75 55 
-0.736275 3.71099 8.73029 174 150 104 
-0.635286 -2.51665 7.83787 21 24 31 
-0.722672 3.72753 8.65952 95 84 66 
-0.721859 3.7305 8.64462 150 139 121 
-0.716648 3.74266 8.59509 182 169 152 
-0.644433 3.91244 7.71208 135 123 81 
-0.757168 4.00796 9.11751 164 149 130 
-0.637556 3.88047 7.76272 220 218 180 
-0.689912 3.76781 8.55681 109 95 66 
-0.682855 3.77707 8.52519 86 66 39 
-0.619563 3.86481 7.79137 97 111 78 
-0.68978 3.74004 8.74604 104 79 23 
-0.676078 3.72073 8.61148 169 146 78 
-0.678037 3.7561 8.66391 187 158 88 
-0.673775 3.74645 8.75795 194 163 96 
-0.601457 3.82853 7.85219 81 101 74 
-0.691974 3.70175 9.22548 75 80 100 
-0.62814 3.88681 8.40153 178 139 72 
-0.673954 3.73864 9.0296 81 83 96 
-0.678695 3.71425 9.11764 28 30 45 
-0.641782 3.76051 8.69689 138 102 6 
-0.647942 3.75048 8.85295 126 125 141 
-0.65204 3.71988 8.92783 28 30 43 
-0.630905 3.75965 8.64685 133 91 0 
-0.62997 3.75261 8.73384 194 156 81 
-0.617368 3.78541 8.55731 135 89 0 
-0.593362 3.85525 8.23565 199 151 79 
-0.610117 3.82105 8.51085 141 106 14 
-0.589109 3.85131 8.24507 208 158 69 
-0.593114 3.83293 8.40838 138 100 3 
-0.64164 3.69684 9.25648 98 98 124 
-0.603819 3.78555 8.79502 27 31 32 
-0.563867 3.80994 8.21307 163 127 39 
-0.541142 3.82457 7.94715 54 25 7 
-0.547522 3.84128 8.27211 196 158 61 
-0.50544 3.83694 7.74524 28 92 78 
-0.604205 3.6868 9.28612 66 67 87 
-0.515873 3.82847 7.96141 125 54 0 
-0.465937 3.87904 7.22137 116 86 84 
-0.511312 3.83322 7.93931 100 43 0 
-0.581787 3.73457 9.05026 115 97 121 
-0.555559 3.78385 8.66074 164 164 156 
-0.551582 3.78218 8.78029 166 165 163 
-0.543602 3.79197 8.66401 41 30 26 
-0.529121 3.80747 8.47278 173 172 178 
-0.534023 3.78842 8.59449 157 145 145 
-0.540495 3.7859 8.77254 20 21 23 
-0.490485 3.83042 7.98749 96 49 0 
-0.52898 3.79851 8.65545 146 136 137 
-0.544548 3.76079 8.8969 37 28 47 
-0.528454 3.79732 8.68053 141 131 132 
-0.515013 3.80879 8.50952 147 143 144 
-0.511988 3.80668 8.565 32 32 24 
-0.536018 3.73389 9.01973 41 29 51 
-0.497047 3.80589 8.48565 163 164 159 
-0.517349 3.73399 8.94795 103 91 111 
-0.518008 3.67974 9.07762 108 103 125 
-0.507535 3.71604 9.05229 111 99 121 
-0.465144 3.79437 8.2863 117 112 106 
-0.501348 3.69246 9.08451 117 114 135 
-0.483934 3.76133 8.80234 145 141 142 
-0.431355 3.83063 7.94179 223 200 8 
-0.472141 3.75834 8.75719 134 130 131 
-0.464469 3.76117 8.74715 19 20 22 
-0.452875 3.77755 8.6255 84 80 77 
-0.461173 3.75616 8.82422 31 35 36 
-0.453996 3.71093 8.87218 142 140 161 
-0.438897 3.76625 8.55713 157 156 161 
-0.476574 3.65205 9.36547 104 97 115 
-0.467406 3.63943 9.38513 47 42 39 
-0.441541 3.70945 8.83776 136 133 152 
-0.433407 3.66587 9.14266 100 102 115 
-0.412712 3.72661 8.73012 118 117 112 
-0.395928 3.73615 8.54251 122 123 125 
-0.407265 3.70049 8.85234 121 115 143 
-0.413101 3.64209 9.06738 64 45 41 
-0.389641 3.73103 8.56836 130 130 130 
-0.405664 3.66032 9.05555 64 48 32 
-0.367579 3.7187 8.5874 34 33 38 
-0.362042 3.67888 9.10892 208 161 47 
-0.342293 3.67194 8.83755 127 100 21 
-0.324453 3.66149 8.85191 131 105 56 
-0.315762 3.67355 8.77337 150 113 43 
-0.299945 3.6691 8.77506 152 107 24 
-0.247707 0.783556 8.81888 148 93 72 
-0.176772 -1.76591 6.88945 27 7 0 
-0.215436 1.11252 7.88705 16 27 73 
-0.223364 3.87067 7.9005 87 76 30 
-0.214085 3.87517 7.71729 87 78 11 
-0.218469 0.740673 8.81989 82 36 13 
-0.201739 3.8912 7.90248 178 46 41 
-0.213027 0.764855 8.82269 227 180 154 
-0.191821 3.86969 7.70718 178 74 39 
-0.186776 3.87451 7.74026 255 138 140 
-0.159768 3.98433 7.71368 194 143 26 
-0.158476 3.8845 7.72944 175 66 43 
-0.167375 0.79041 8.83379 135 88 62 
-0.145706 3.88618 7.81733 237 150 143 
-0.142255 3.87908 7.74017 251 147 136 
-0.150079 0.303023 8.75283 36 37 65 
-0.142039 3.88265 7.91009 177 65 61 
-0.13072 3.8805 7.72201 175 64 19 
-0.136141 0.473702 8.8054 192 182 157 
-0.12814 3.94488 7.70332 140 24 25 
-0.117528 -0.199436 8.64267 24 24 24 
-0.116496 -0.248073 8.63134 107 108 112 
-0.115222 -0.219245 8.63319 139 139 137 
-0.0993276 -0.515224 8.53512 148 132 135 
-0.0990565 -0.253979 8.61236 133 134 138 
-0.11302 3.96247 8.73674 66 38 17 
-0.097343 3.93861 7.70452 129 54 12 
-0.0965389 -0.18181 8.65664 86 85 90 
-0.0928725 0.799742 8.84935 148 101 85 
-0.0990786 3.96307 8.78963 78 42 26 
-0.0821006 0.60567 8.83282 198 166 151 
-0.0713952 -0.398922 8.57042 75 52 58 
-0.0724562 -0.187645 8.64883 39 39 41 
-0.0753776 3.97739 7.71731 200 114 115 
-0.0669553 -0.36626 8.59003 77 54 60 
-0.0619287 -0.429279 8.56336 76 45 50 
-0.0773885 3.94562 8.97425 87 47 21 
-0.0651435 3.96137 7.71801 203 129 118 
-0.0556827 -0.253753 8.45023 143 145 144 
-0.0634691 0.416279 8.79253 104 90 115 
-0.053862 -0.506053 8.53107 150 125 129 
-0.0551763 -0.488298 8.54213 77 48 53 
-0.0485014 -0.388598 8.5895 137 127 126 
-0.0510724 0.381452 8.77936 63 23 47 
-0.0528201 3.87676 7.775 158 40 56 
-0.0557676 3.94657 8.93446 89 44 23 
-0.0364455 -0.468745 8.56877 93 43 54 
-0.0155447 -2.27534 6.77762 121 114 85 
-0.0355722 -0.366066 8.59764 78 49 53 
-0.0430669 3.97328 7.71671 192 118 117 
-0.0407369 3.96206 7.71778 141 64 56 
-0.0319482 -0.513114 8.53698 82 47 54 
-0.0303048 -0.408563 8.56568 82 45 52 
-0.0265275 0.350516 8.75354 131 52 73 
-0.031259 3.89418 7.85721 192 100 125 
-0.0199522 -0.294537 8.61791 94 94 92 
-0.0187524 -0.494991 8.55399 149 107 117 
-0.0184977 -0.362873 8.59568 162 130 135 
-0.0167318 -0.386371 8.59084 104 40 56 
-0.00999481 -0.333148 8.61646 139 136 127 
-0.0202929 3.94961 7.71236 129 53 29 
-0.00849967 -0.207465 8.6533 138 138 136 
-0.00522513 -0.463236 8.58057 85 42 51 
-0.000312229 -0.364692 8.60476 90 53 60 
0.00527498 -0.406351 8.5878 81 55 58 
-0.0059672 3.98982 7.72141 195 114 113 
-0.0037391 3.90078 7.79615 168 76 55 
-0.00338001 3.89115 7.81151 228 125 142 
0.0161415 -0.483982 8.54816 140 118 121 
0.0313132 -0.314374 8.6217 137 136 131 
0.0243593 3.91427 7.74471 222 203 15 
0.0391421 -0.399018 8.58568 90 44 54 
0.0436253 0.315812 8.77366 109 49 75 
0.0455596 -0.291239 8.63004 92 88 85 
0.0319525 3.90155 7.78675 74 54 3 
0.0523906 -0.414969 8.58991 146 127 123 
0.0391397 3.93289 7.99538 197 172 106 
0.0605937 -0.381987 8.6018 161 141 142 
0.0617295 0.813913 8.51759 183 140 134 
0.0692467 -0.181024 8.67501 16 16 16 
0.071879 0.291022 8.74871 34 20 35 
0.0705848 0.468658 8.80966 127 70 89 
0.0714101 0.437742 8.80055 59 25 39 
0.0806126 -0.39801 8.60113 95 45 56 
0.0790111 -2.43103 6.77242 138 125 108 
0.0871532 -0.263759 8.63831 134 133 129 
0.0947944 -0.331752 8.61879 134 136 125 
0.0991709 -0.45713 8.58044 75 44 49 
0.0945886 3.77834 9.34722 88 93 89 
0.107267 -0.425519 8.59574 136 137 132 
0.107131 -0.483645 8.57878 81 38 47 
0.106618 0.412747 8.79462 167 85 99 
0.10123 3.90775 8.84434 25 25 15 
0.119735 -0.494949 8.56087 138 120 120 
0.121556 -0.217257 8.65354 136 136 134 
0.122063 -0.478367 8.57466 152 125 130 
0.128049 -0.146105 8.68347 12 13 8 
0.127268 -0.23488 8.64347 40 40 38 
0.134803 -0.217214 8.65786 18 18 16 
0.137216 0.445249 8.80175 64 32 45 
0.144486 -0.155594 8.68482 137 137 135 
0.130905 3.97813 8.38785 18 20 6 
0.147808 -0.449219 8.5898 79 47 52 
0.150884 -0.283153 8.64888 85 85 85 
0.142639 3.85912 8.83788 31 34 25 
0.156794 -0.383862 8.61652 89 45 58 
0.163177 -0.326569 8.62492 135 135 123 
0.167201 -0.158703 8.67773 29 29 27 
0.172548 -0.420893 8.60441 136 133 128 
0.187528 0.317609 8.76765 92 53 74 
0.169776 3.92811 8.40338 22 12 11 
0.187956 -0.50528 8.57727 138 123 116 
0.170546 4.02839 7.86275 15 23 12 
0.193546 3.91712 8.83925 76 87 70 
0.213133 -0.219965 8.65653 20 20 18 
0.225759 -0.386079 8.6313 90 55 59 
0.216937 -0.47885 8.06677 153 131 133 
0.233218 -0.492478 8.58444 71 50 55 
0.233712 -0.415591 8.6139 142 137 131 
0.238387 0.377495 8.78635 151 47 84 
0.240703 -0.371751 8.62105 155 125 127 
0.261622 0.483763 8.80048 83 49 76 
0.262477 0.300031 8.75074 34 17 33 
0.262709 -0.149275 8.67392 54 54 52 
0.264935 -0.218493 8.6524 60 61 56 
0.239346 1.18598 7.9271 135 90 48 
0.268913 -0.164443 8.66142 134 135 130 
0.244852 3.90832 8.17097 110 113 104 
0.277369 -0.403535 8.62008 147 133 132 
0.256757 3.8918 8.39534 59 54 60 
0.260229 3.9015 8.32157 71 61 62 
0.283523 -0.39101 8.62168 77 55 58 
0.26144 3.81123 8.28326 9 4 10 
0.26205 3.88507 8.22799 70 60 50 
0.295052 0.523449 8.80553 90 81 102 
0.298071 0.431906 8.79168 120 115 138 
0.274419 3.89572 8.34918 14 10 11 
0.301193 0.38984 8.79671 59 25 60 
0.300904 0.844843 8.88029 169 136 117 
0.274957 3.91378 8.20216 33 36 25 
0.303026 -0.350482 8.63469 98 51 57 
0.28108 3.91378 8.33454 14 8 12 
0.30531 0.0372122 8.70252 57 64 72 
0.278699 3.90708 8.21049 61 60 56 
0.310761 -0.210146 8.66338 54 59 53 
0.287203 3.87214 8.28712 77 77 79 
0.285739 3.90867 8.24152 8 4 5 
0.281342 3.92427 8.031 118 122 108 
0.288566 3.90773 8.19097 17 16 21 
0.320422 0.469907 8.79772 184 179 173 
0.279028 -2.66143 7.02018 80 35 56 
0.334068 0.85123 8.89738 81 44 26 
0.330426 -0.185354 8.67172 134 137 130 
0.303284 3.90814 8.20582 99 100 104 
0.334524 0.373131 8.78583 143 75 74 
0.303029 3.91772 8.15426 97 103 91 
0.337814 0.323008 8.76575 50 22 36 
0.338964 -0.361166 8.63756 94 30 46 
0.288173 -2.69282 7.00039 204 181 150 
0.345188 -0.342652 8.63438 90 36 49 
0.293262 3.96406 7.60623 127 131 116 
0.351389 0.301302 8.7683 86 73 90 
0.318887 3.91686 8.18327 12 15 20 
0.351756 0.239846 8.74616 163 163 151 
0.322151 1.13451 8.00385 162 147 128 
0.351736 -0.21447 8.65034 122 124 119 
0.362965 0.876929 8.90867 167 124 117 
0.372073 0.483348 8.83223 190 171 156 
0.371962 0.84519 8.90306 67 24 15 
0.37421 0.396002 8.80476 53 42 56 
0.3709 -0.204459 8.66453 69 69 67 
0.371554 -0.00438954 8.70506 136 137 129 
0.372797 -0.396643 8.62818 151 120 125 
0.378591 0.214934 8.7443 41 46 76 
0.380998 -0.172214 8.67078 136 137 132 
0.388661 0.535418 8.83849 115 64 71 
0.386508 -0.337725 8.65715 91 39 52 
0.328256 -2.59506 6.9651 225 202 170 
0.40413 0.899296 8.92252 95 70 65 
0.40217 -0.140255 8.67781 47 48 43 
0.404638 -0.356094 8.63388 145 127 127 
0.406896 -0.200101 8.66394 60 62 57 
0.37321 1.11099 7.9693 146 119 98 
0.40945 -0.397761 8.62595 138 128 126 
0.34292 -2.8587 6.97244 178 16 29 
0.377746 1.08581 7.95992 163 138 108 
0.415547 -0.158113 8.67593 79 81 76 
0.387436 1.05606 7.9817 153 131 92 
0.426606 -0.333655 8.63901 90 61 66 
0.396691 1.08035 7.96102 131 47 21 
0.442528 -0.334434 8.64049 148 118 126 
0.417162 1.10615 7.95395 103 1 0 
0.42426 1.11451 7.94959 180 115 87 
0.471703 -0.2008 8.68678 57 59 56 
0.496589 -0.371603 8.68116 74 32 44 
0.473907 1.10412 7.94331 221 221 123 
0.52539 -0.332046 8.68497 79 44 51 
0.483532 1.0753 7.95442 207 205 118 
0.530196 -0.371031 8.67106 89 52 60 
0.486776 1.11536 7.93322 189 184 154 
0.500107 1.14162 7.93321 196 167 159 
0.500042 1.12355 7.93669 30 12 0 
0.571301 -0.333453 8.70481 89 53 57 
0.586096 0.930099 8.94289 43 0 0 
0.529392 1.14776 7.92241 183 105 92 
0.589064 -0.347762 8.70865 146 113 120 
0.532503 1.12929 7.92496 157 48 27 
0.606201 0.860542 8.98 112 86 95 
0.539432 1.10747 7.93157 110 48 1 
0.607352 0.908937 8.94881 116 82 96 
0.61235 0.898707 8.97343 35 2 13 
0.611195 0.9337 8.9604 53 3 14 
0.616858 -0.350077 8.72465 99 59 67 
0.559849 1.12624 7.92861 255 191 163 
0.560828 1.21795 7.92846 185 150 110 
0.62168 -0.338736 8.71211 153 116 123 
0.564306 1.10969 7.92444 70 45 0 
0.607998 5.52327 8.56554 58 43 36 
0.647753 0.935786 8.95812 96 36 44 
0.641452 -0.368822 8.72964 76 47 51 
0.662407 0.868931 8.95451 150 87 95 
0.588626 1.12183 7.9093 221 209 123 
0.680598 0.93742 8.97189 48 3 8 
0.603909 1.10312 7.92804 207 230 90 
0.543319 -3.19726 6.93364 206 66 75 
0.679467 -0.10176 8.76405 92 90 78 
0.625408 1.14757 7.89185 131 63 18 
0.645754 1.0591 8.14219 217 200 130 
0.781387 3.30875 9.87201 6 8 20 
0.644072 1.13824 7.90312 248 218 180 
0.655238 1.09904 7.93786 37 41 0 
0.65454 1.12445 7.90069 109 76 43 
0.657526 1.1167 7.91143 216 195 166 
0.659374 1.10615 7.91424 29 22 0 
0.595492 -2.94099 6.88805 174 53 84 
0.665964 1.16476 7.89196 211 162 157 
0.673306 1.15649 7.90264 51 0 0 
0.680669 1.11721 7.90148 207 181 148 
0.683211 1.10457 7.92739 45 35 0 
0.701743 1.11722 7.91737 39 23 7 
0.70472 1.16838 7.88476 233 205 181 
0.812459 0.610128 8.96217 56 51 55 
0.812959 0.0776218 8.86206 58 35 45 
0.840179 0.581297 8.95271 72 72 72 
0.84727 0.609098 8.9603 158 150 137 
0.914781 0.756296 9.08563 164 147 121 
0.829853 1.07717 8.16018 156 76 39 
0.844525 1.10643 8.0798 224 199 145 
0.941651 0.281262 8.6121 38 24 11 
1.09194 3.30157 9.91567 19 19 19 
0.857117 -2.93362 7.02453 69 45 67 
0.859599 -2.93645 7.03744 70 46 70 
0.984033 1.26776 7.97121 216 140 65 
0.892733 -2.64412 7.06134 147 50 93 
1.30536 3.30848 9.88627 101 101 103 
1.00236 -1.98062 7.24711 99 83 8 
1.1857 1.12017 8.12425 206 196 160 
1.28514 1.12582 8.23233 220 187 22 
1.56077 2.94007 9.89128 166 156 144 
1.33295 1.29957 7.97287 59 35 9 
1.35508 1.28947 7.98914 151 125 92 
1.45433 4.17634 8.54607 68 64 55 
1.46037 1.31859 8.01847 77 21 0 
1.71199 3.46951 8.9679 24 23 28 
1.60167 1.28618 8.30806 87 21 23 
1.73721 3.48703 8.6745 12 13 17 
1.70418 1.08653 8.27188 145 128 112 
1.75383 1.1086 8.28471 37 26 30 
1.69146 1.30113 7.9374 144 55 23 
1.74386 1.2875 7.90926 187 151 93 
1.79407 1.29667 7.86672 27 21 23 
1.9688 2.37554 8.28942 70 60 50 
1.87921 1.22087 7.58489 62 50 50 
2.07375 -2.75437 7.66555 223 208 179 
2.08154 -2.8012 7.64385 47 41 27 
2.09079 -2.74903 7.65704 42 43 37 
2.09638 -2.62542 7.677 51 60 57 
2.09826 -2.8031 7.6464 132 128 117 
2.10501 -2.75622 7.65497 122 117 111 
2.15016 -2.71588 7.67007 131 126 120 
2.16576 -2.78907 7.65997 147 137 127 
2.21208 -2.70061 7.67796 77 71 73 
3.17107 7.01535 10.9232 64 51 45 
2.25896 -2.78851 7.66878 77 63 63 
2.28964 -2.60961 7.72124 208 191 171 
2.33286 -2.65725 7.71547 57 55 58 
3.3722 7.10152 10.9819 160 146 135 
3.38618 7.06599 10.9845 73 63 53 
-1.99611 -0.831724 7.70156 61 25 39 
-1.95886 -1.0565 7.70142 53 38 43 
-1.94803 -1.0712 7.72754 182 175 182 
-1.90245 -1.03244 7.69629 52 55 64 
-1.71412 1.06225 7.52937 141 132 133 
-1.91005 0.35088 8.27455 47 46 51 
-1.63114 0.520376 7.48428 83 84 89 
-1.2715 0.513328 8.28069 227 203 165 
-1.19788 0.47569 8.36205 232 209 168 
-1.04466 1.0833 7.76584 48 46 49 
-1.09275 0.598535 8.01919 35 23 11 
-1.06343 0.619252 7.99518 233 200 167 
-1.00761 0.938162 7.68829 143 121 100 
-1.05627 0.59365 8.01545 33 23 13 
-1.02934 0.565545 8.00912 116 72 37 
-0.94278 0.637107 8.17656 171 145 118 
-0.893706 0.874292 7.93086 92 18 0 
-0.902003 0.636828 8.1794 220 184 150 
-0.872422 0.702322 8.18337 191 160 131 
-0.835825 0.826644 7.92899 180 153 136 
-0.832641 0.85876 7.94024 95 25 23 
-0.863057 0.440031 8.12562 130 104 79 
-0.852964 0.706332 8.12306 39 18 13 
-0.859165 3.60322 9.12371 92 64 40 
-0.813911 0.863973 7.96973 167 115 78 
-0.847375 0.489244 8.1929 155 124 95 
-0.855858 -3.24897 7.53984 204 180 152 
-0.790255 0.669863 8.20685 213 176 132 
-0.779052 3.74546 9.12533 129 99 71 
-0.696108 1.109 7.57758 166 152 139 
-0.778849 0.69507 8.23862 161 125 77 
-0.688124 1.10816 7.5844 223 207 191 
-0.682103 1.08974 7.61235 228 213 190 
-0.723515 0.822522 7.99962 93 28 26 
-0.707279 0.841688 8.05111 171 119 44 
-0.703866 0.890766 8.07158 117 36 17 
-0.676592 3.7421 9.03226 80 84 96 
-0.68054 3.72472 9.13194 25 29 41 
-0.605505 3.78267 8.78868 27 34 42 
-0.650424 3.67743 9.3758 87 85 107 
-0.543273 3.78584 8.76987 24 27 18 
-0.502451 3.82708 8.42505 142 135 127 
-0.533209 3.784 8.80499 25 26 30 
-0.523006 3.65349 9.35976 109 108 124 
-0.473821 3.75594 8.75177 160 160 160 
-0.47549 3.73938 8.86317 142 140 154 
-0.462988 3.75342 8.81782 22 25 30 
-0.432798 3.73886 8.7689 183 183 183 
-0.420007 3.74073 8.70131 157 155 156 
-0.469563 3.64628 9.39372 39 29 28 
-0.42313 3.72708 8.8136 181 179 182 
-0.414429 3.7219 8.72105 111 110 108 
-0.390941 3.72999 8.56514 140 140 140 
-0.403876 3.71822 8.81535 179 177 180 
-0.369241 3.71928 8.58658 26 27 31 
-0.390676 3.69997 9.01033 50 39 19 
-0.360007 3.67955 8.9104 218 173 80 
-0.36481 3.68978 9.12343 213 162 47 
-0.33884 3.66598 8.95005 144 107 18 
-0.326684 3.66636 8.85716 131 102 46 
-0.316977 3.67492 8.77364 151 116 58 
-0.320871 3.6608 8.91938 156 117 26 
-0.322869 0.893217 7.98144 54 23 18 
-0.205428 3.86027 7.86253 175 37 35 
-0.28542 3.67832 9.66679 40 42 63 
-0.213865 3.80524 8.28587 59 29 19 
-0.348484 0.655469 8.91308 185 164 137 
-0.161102 3.96075 7.68423 187 140 24 
-0.320187 0.671667 8.86264 86 73 57 
-0.257552 1.07031 7.93323 24 13 30 
-0.143614 3.86703 7.88943 169 59 58 
-0.12936 3.92724 7.68129 135 22 28 
-0.132184 3.86662 7.70428 172 63 30 
-0.276398 0.739339 8.83861 228 193 139 
-0.232962 0.96087 8.03762 21 23 46 
-0.212612 0.973964 8.0084 204 205 210 
-0.128737 3.96735 8.7603 115 86 68 
-0.0880416 3.9546 7.68478 117 33 33 
-0.0880213 3.94443 7.68701 125 45 44 
-0.203818 0.960079 8.04591 58 57 52 
-0.0767849 3.96001 7.69562 218 132 135 
-0.163849 3.54681 9.93553 127 118 113 
-0.215314 0.758079 8.7962 222 175 155 
-0.0704499 3.87403 7.97887 136 140 115 
-0.0637209 3.88475 7.87121 157 74 92 
-0.0956095 3.94176 8.99562 131 94 68 
-0.05032 3.9388 7.68879 206 126 117 
-0.0536166 3.85824 7.75156 173 53 65 
-0.0419781 3.944 7.69525 137 53 42 
-0.0796844 3.93938 8.96304 103 57 31 
-0.0331964 3.94143 7.68835 210 126 116 
-0.141992 1.0533 7.83656 123 132 173 
-0.179577 0.82696 8.81803 218 169 136 
-0.0239482 3.93705 7.68524 131 51 42 
-0.0240017 3.92209 7.67718 137 62 20 
-0.0195632 3.88234 7.93964 45 79 104 
-0.00782644 3.9741 7.70173 199 124 118 
-0.0941577 1.04497 7.86728 18 35 91 
-0.147361 0.101305 8.7134 148 149 151 
-0.144789 0.141759 8.73308 25 31 53 
-0.113257 0.872487 8.84245 110 55 50 
-0.143346 -0.119694 8.65415 19 19 17 
0.029391 3.88772 7.76843 57 40 0 
-0.126671 -0.239529 8.63363 31 30 28 
0.0488181 3.91319 8.98591 40 51 37 
-0.102983 -0.373211 8.58494 97 40 55 
-0.0370554 0.987283 8.03512 166 158 155 
0.0683121 3.93322 8.86719 22 24 10 
-0.0859827 -0.199638 8.64115 142 144 141 
0.0743986 3.91058 8.94945 30 31 25 
-0.0851381 -0.447489 8.56667 155 124 130 
-0.0180253 1.01309 7.901 209 194 191 
0.0993762 3.91087 8.84645 27 28 22 
0.0936952 3.79359 9.36964 91 91 93 
-0.024458 0.352487 8.76541 141 53 78 
0.111009 3.88849 8.88136 36 33 28 
-0.0466801 -0.38865 8.59554 141 133 131 
0.129268 3.98381 8.39402 16 18 5 
-0.033758 -0.238544 8.62156 52 57 53 
0.131019 3.97627 8.34197 76 79 58 
0.123935 3.78287 9.29791 34 34 34 
0.139308 3.86525 8.86793 69 65 62 
0.140791 3.85404 8.82926 25 24 19 
0.154696 4.03536 7.79144 76 86 75 
0.152466 3.96108 8.24718 20 22 17 
0.161738 4.03944 7.75015 78 85 77 
0.158023 3.94983 8.29883 52 43 46 
0.151809 3.81289 8.88537 39 42 31 
-0.00761855 -0.435656 8.60532 136 139 130 
0.167375 3.91576 8.38542 19 10 1 
0.0678295 0.999428 8.00866 127 130 165 
0.0271886 -0.173707 8.66112 83 84 79 
0.191347 3.91453 8.83329 72 79 63 
0.0792279 0.989411 8.05103 31 30 64 
0.193038 3.8048 9.2554 64 64 66 
0.0706804 0.464995 8.79721 131 74 91 
0.0708469 0.435023 8.79038 63 27 41 
0.20629 3.82872 8.95854 91 92 94 
0.0506387 -0.346538 8.60501 147 131 132 
0.0514456 -0.493618 8.54469 155 129 132 
0.0648784 -0.327819 8.63296 138 139 134 
0.072121 -0.243565 8.64492 30 30 30 
0.243486 3.9043 8.16524 121 129 118 
0.252058 3.89011 8.39015 58 55 50 
0.253249 3.9047 8.10497 103 108 102 
0.258675 3.90123 8.31991 74 59 52 
0.260721 3.88906 8.23211 76 64 48 
0.273796 3.90611 8.36197 8 6 9 
0.277497 3.89611 7.99392 122 128 114 
0.28442 3.9113 8.24385 11 5 5 
0.286077 3.8985 8.17752 15 16 11 
0.289694 3.94816 7.58629 129 136 128 
0.299058 3.89911 8.12811 100 101 96 
0.202494 1.16522 8.04658 177 92 99 
0.315915 3.90947 8.17179 20 20 28 
0.168303 -0.178866 8.65735 8 9 4 
0.174358 -0.456298 8.594 99 41 56 
0.187054 -0.230883 8.64478 150 150 148 
0.188372 -0.282115 8.63783 86 85 81 
0.234472 1.05302 8.01387 25 26 31 
0.238308 1.15963 8.05528 47 12 16 
0.239845 1.18635 7.92858 133 89 44 
0.189377 -0.391019 8.6113 99 47 59 
0.248505 1.17324 8.02571 55 15 13 
0.26057 0.895132 8.88614 98 42 41 
0.206356 -0.37456 8.61486 153 131 133 
0.259056 1.19301 7.84968 190 151 92 
0.271975 -0.0465803 10.7902 134 135 127 
0.224438 -0.390322 8.60555 87 50 57 
0.239709 -0.156673 8.66605 147 147 145 
0.23226 -0.418902 8.59279 136 136 128 
0.240454 -0.375951 8.59979 158 128 130 
0.303578 0.899669 8.89874 108 60 58 
0.257456 -0.136832 8.67375 23 24 19 
0.259745 -0.153547 8.64788 24 24 22 
0.273104 -0.00325871 8.70399 138 137 132 
0.263314 -0.394298 8.61461 102 41 56 
0.286102 0.0583833 8.73077 28 28 36 
0.328663 0.900817 8.91879 105 60 55 
0.327523 0.874736 8.90239 178 144 134 
0.319019 1.19157 7.93115 62 54 67 
0.277485 -0.344249 8.63691 80 49 54 
0.311417 0.100224 8.69378 30 23 39 
0.36153 0.872015 8.89219 162 121 117 
0.371189 0.843421 8.89736 57 18 11 
0.352523 1.03462 8.01006 222 203 171 
0.354305 0.360536 8.79123 186 173 157 
0.379931 0.902685 8.92105 132 86 86 
0.363714 1.17186 8.01708 33 19 10 
0.351555 0.236631 8.73461 165 162 147 
0.32848 -0.376525 8.62287 168 115 125 
0.358905 0.131629 8.72928 140 136 135 
0.374548 1.1132 7.976 140 111 79 
0.391192 1.19018 7.97267 151 136 117 
0.394809 0.470473 8.82221 81 41 67 
0.600745 5.48729 8.52477 62 43 36 
0.397625 1.08151 7.96512 104 31 16 
0.370987 -0.385457 8.62157 80 38 42 
0.417133 1.10787 7.95796 109 8 0 
0.418909 1.06698 7.99954 224 121 112 
0.385197 -0.341066 8.63804 87 35 47 
0.385316 -0.385305 8.61125 103 28 48 
0.421922 1.13092 7.95838 97 30 21 
0.399221 -0.188519 8.66033 144 144 146 
0.397215 -0.335239 8.61172 77 40 47 
0.433415 1.10313 7.93078 83 59 21 
0.432187 -0.402082 8.6126 92 67 70 
0.464662 1.22841 7.85628 171 110 105 
0.449302 -0.381277 8.63732 142 117 120 
0.48107 1.2236 7.86573 204 154 131 
0.48839 1.19766 7.99087 25 18 10 
0.484566 1.10652 7.94249 84 75 18 
0.487062 1.11508 7.93331 203 189 160 
0.470985 -0.203835 8.67174 64 66 65 
0.491354 1.14784 7.92543 19 6 0 
0.500874 1.12424 7.93911 46 24 10 
0.503302 1.22179 7.87471 202 159 104 
0.505764 1.08193 7.97019 192 185 117 
0.515151 1.09797 7.93002 255 227 172 
0.518556 1.16165 7.94049 41 2 5 
0.494355 -0.37444 8.66256 81 43 54 
0.53742 1.22245 7.93993 70 46 22 
0.556171 1.07597 7.95613 98 92 8 
0.562785 1.21951 7.93353 195 151 104 
0.569323 1.10139 7.93311 212 205 124 
0.577008 1.12476 7.90526 64 27 0 
0.589545 1.1213 7.90924 223 219 130 
0.613856 1.09845 7.90429 209 225 101 
0.627656 1.07887 8.0423 228 202 66 
0.639794 1.10482 7.92485 208 222 111 
0.644709 1.1381 7.9036 243 218 177 
0.639853 -0.338654 8.71594 88 50 61 
0.71409 0.928595 8.9778 90 62 74 
0.64011 -0.371268 8.71542 80 55 59 
0.652446 1.20016 7.92213 86 38 18 
0.663423 1.05834 8.13089 153 135 115 
0.650714 1.15623 7.89988 98 43 23 
0.638417 1.25743 7.63065 164 152 136 
0.660552 1.10647 7.91623 34 16 0 
0.666999 1.16508 7.89402 196 148 138 
0.667078 1.11661 7.90134 39 9 0 
0.670682 1.09843 7.92783 231 217 182 
0.682337 1.13818 7.88427 169 104 86 
0.684741 1.10642 7.9335 45 27 3 
0.686404 1.18367 7.89664 26 17 12 
0.699897 1.1319 7.90673 53 34 19 
0.701273 1.11426 7.91034 36 18 4 
0.729761 0.0393544 8.81859 70 39 47 
0.705507 1.16989 7.88881 233 212 181 
0.73847 1.07165 8.12231 93 119 84 
0.802236 0.650536 8.95812 168 115 99 
0.828563 0.723413 9.00721 184 133 104 
0.832179 1.07918 8.16719 186 83 52 
0.842137 1.24748 7.99515 164 136 89 
0.8541 -0.495354 8.7928 114 119 113 
0.870003 1.24331 8.01585 125 89 11 
0.892483 1.27369 7.92699 80 81 63 
0.933139 1.07311 8.27929 125 98 77 
0.94009 0.279238 8.60337 36 23 14 
0.945949 1.0823 8.22381 230 212 172 
0.945622 -0.481633 8.78613 19 16 7 
0.984112 1.04008 8.22626 90 73 65 
1.07253 1.13758 7.9716 189 153 0 
1.08276 1.30591 7.82955 103 77 16 
1.10036 1.22204 7.96395 184 130 0 
1.13485 1.07591 8.27583 69 45 19 
1.18362 1.11881 8.11922 199 194 156 
1.24344 1.27424 7.95935 238 185 9 
1.28644 1.12855 8.23915 229 190 7 
1.29946 1.28304 7.9753 39 21 19 
1.31158 1.30472 7.98515 99 79 55 
1.34783 1.12327 8.22452 124 77 0 
1.31699 1.32122 7.94959 207 162 103 
1.33216 1.29885 7.97061 57 39 19 
1.71233 3.44768 9.01435 24 23 29 
1.6498 0.811884 9.2143 161 146 125 
1.50436 1.35326 7.88435 209 136 130 
1.6585 4.01732 7.94397 161 150 144 
1.52133 1.34656 7.8701 86 37 22 
1.56843 1.32199 8.07569 200 147 115 
1.70432 3.96596 7.93208 108 104 93 
1.59749 1.34342 7.94892 102 67 37 
1.6099 1.3391 7.98326 162 126 90 
1.70218 1.08502 8.2664 144 125 111 
1.67397 1.34536 7.95398 193 155 108 
1.69186 1.30225 7.93935 144 53 32 
1.89167 0.251665 9.08761 185 168 140 
1.47943 -3.60765 8.02889 58 47 45 
2.01097 -0.695671 8.79267 21 10 16 
2.24974 -2.78458 7.64337 79 65 65 
2.29686 -2.77229 7.69412 61 51 50 
2.48259 0.180185 7.70501 32 38 26 
2.3298 -2.88878 7.678 156 143 127 
2.64156 -0.206985 7.6984 42 38 27 
2.63919 -0.188625 7.68421 206 197 180 
2.64437 -0.0377576 7.6733 208 189 159 
-2.14126 -2.50053 6.97259 169 54 97 
-2.10758 -2.46311 6.99299 185 59 106 
-2.10204 -2.41539 7.10689 136 13 57 
-2.09543 -0.256835 7.97417 106 33 62 
-2.13194 0.0203208 8.26109 123 140 156 
-1.99871 -0.830464 7.71069 57 23 39 
-1.96771 -0.942892 7.66155 35 26 43 
-1.97802 -1.05386 7.70795 180 182 194 
-1.9578 -0.105692 7.82943 65 93 114 
-1.91875 -0.627487 7.63587 9 51 101 
-1.906 -0.637469 7.63465 31 79 127 
-2.0316 0.28222 8.32331 106 120 131 
-1.90582 -0.853629 7.72467 175 177 189 
-1.88148 -0.790568 7.69652 21 69 105 
-1.87781 -1.01948 7.72885 68 78 90 
-1.73984 1.06021 7.51322 59 63 75 
-1.74475 0.927172 7.5821 129 129 131 
-1.70494 0.899204 7.45866 136 136 136 
-1.69729 0.985863 7.51927 164 150 141 
-1.91813 0.210549 8.32489 132 145 161 
-1.67891 1.04141 7.51228 52 53 73 
-1.72258 -2.45705 7.54922 58 61 76 
-1.71821 0.323033 8.41839 114 106 104 
-1.36509 1.01383 7.09575 57 64 80 
-1.59965 -2.66689 7.56052 137 142 138 
-1.56975 -2.61478 7.55821 101 104 109 
-1.57135 -2.86843 7.56117 144 148 134 
-1.57003 -2.82676 7.56189 150 150 150 
-1.32599 1.07085 7.10604 16 23 39 
-1.31936 1.04892 7.09225 71 78 94 
-1.51302 -2.24803 7.61463 173 170 163 
-1.26924 0.479521 7.05592 160 151 142 
-1.23968 1.12425 7.13722 50 57 73 
-1.47001 -2.84104 7.58055 144 143 148 
-1.46275 -2.67094 7.5907 33 37 46 
-1.45275 -2.68453 7.59543 158 162 165 
-1.21643 1.15011 7.19393 13 25 39 
-1.43015 -2.3333 7.64464 169 170 154 
-1.41413 -2.49274 7.56711 43 55 71 
-1.41764 -2.73367 7.61676 70 78 91 
-1.17938 1.07687 7.21146 28 29 49 
-1.2233 -1.94667 6.75806 181 77 4 
-1.37452 -2.22705 7.64997 164 108 0 
-1.37972 -2.46579 7.63218 156 172 171 
-1.38071 -2.82024 7.60993 82 93 111 
-1.35963 -2.52656 7.61699 44 58 71 
-1.3522 -2.34516 7.65105 118 131 140 
-1.34622 -2.27805 7.69938 180 149 102 
-1.33853 -2.81976 7.60798 98 111 119 
-1.27367 0.615351 8.12579 160 129 100 
-1.33379 -2.8091 7.61707 41 51 63 
-1.3255 -2.5673 7.6377 106 123 131 
-1.33171 -2.84865 7.6095 92 105 114 
-1.26333 0.628497 8.13229 59 40 25 
-1.16388 -1.90505 6.87925 220 171 42 
-1.31476 -2.58431 7.63577 89 106 113 
-1.26159 0.384291 8.39401 191 178 162 
-1.27804 -2.81541 7.62851 162 176 179 
-1.2636 -2.75935 7.6492 169 171 170 
-1.242 -2.50834 7.66906 125 132 140 
-1.213 0.520275 8.36195 130 103 74 
-1.23784 -2.81824 7.65305 136 150 161 
-1.12047 0.681939 7.94497 106 75 47 
-1.1432 0.546835 8.07547 59 35 23 
-1.17843 0.489007 8.33625 194 167 124 
-1.09002 0.849635 7.91937 158 108 55 
-1.21668 -2.86821 7.64165 170 173 166 
-1.09423 0.613907 7.95094 128 93 65 
-1.18574 -2.56851 7.68535 131 135 136 
-1.149 0.494097 8.38712 224 198 147 
-1.18708 -2.7894 7.67285 141 158 168 
-0.999881 -1.76319 6.92731 19 22 31 
-0.980527 1.00157 7.72026 214 198 182 
-1.03136 0.572426 8.03186 160 118 80 
-1.02281 0.728768 8.07413 95 85 86 
-0.99459 0.732387 7.8857 220 196 170 
-1.01362 0.583943 7.99386 214 176 139 
-0.95585 1.04156 7.75601 35 25 26 
-0.936881 1.04632 7.77175 200 191 186 
-0.992775 0.511734 8.01824 206 162 127 
-0.925388 1.05923 7.82178 46 37 32 
-1.07101 -2.52293 7.68651 77 93 109 
-0.962155 0.664687 8.12034 18 22 31 
-0.949495 0.729426 8.11336 204 160 123 
-0.943289 0.517081 8.01605 160 121 88 
-0.891485 0.827498 7.89302 181 149 138 
-0.809194 1.16893 7.59457 22 21 29 
-0.883771 -2.02522 7.09465 218 175 10 
-0.82311 0.884409 7.9288 208 141 50 
-0.859468 0.699814 8.22975 42 26 10 
-0.846775 0.482504 8.16604 157 126 97 
-0.817328 -1.77562 7.14227 149 64 0 
-0.770271 0.847814 7.95571 175 130 111 
-0.693059 1.16675 7.4848 56 46 37 
-0.685099 0.815491 8.07901 93 27 29 
-0.690087 0.666881 8.25313 131 136 96 
-0.680087 0.585245 8.32387 168 152 127 
-0.661843 0.588055 8.30341 186 180 164 
-0.749313 -2.7848 7.80919 34 32 37 
-0.741625 -2.79412 7.76814 170 161 144 
-0.602702 0.590506 8.26805 72 63 48 
-0.738889 -2.84144 7.7516 43 44 48 
-0.70964 -2.7861 7.8247 31 30 35 
-0.4378 -1.63595 6.86621 117 63 27 
-0.315981 0.912862 7.99055 212 190 179 
-0.304224 0.910982 7.99715 194 171 155 
-0.264586 1.10506 7.88953 123 110 94 
-0.214629 1.17446 7.66805 129 63 29 
-0.234277 0.962143 8.03958 22 23 53 
-0.219638 1.08218 7.87377 29 35 69 
-0.204832 0.957993 8.03843 60 54 56 
-0.191001 1.03413 7.82872 102 106 144 
-0.192522 1.0304 7.94201 23 33 92 
-0.212339 0.766909 8.83142 220 174 151 
0.0207457 3.89547 7.71924 233 205 10 
-0.186706 0.864053 8.81576 168 99 92 
-0.216 0.256177 8.73829 181 173 154 
-0.142377 1.05127 7.83106 115 121 157 
-0.179368 0.650344 8.79823 220 189 145 
-0.120607 0.806367 8.84449 151 114 98 
-0.0743142 1.00725 7.9551 98 91 85 
-0.0381732 1.12977 7.81819 15 28 83 
-0.0871681 0.57599 8.83222 118 106 108 
-0.214975 -2.15344 6.77487 58 45 29 
-0.215655 -2.16932 6.75081 134 120 91 
-0.122076 -0.302069 8.62995 77 79 76 
-0.113037 -0.277386 8.62809 143 145 142 
-0.183195 -1.79271 6.90244 192 177 144 
-0.106116 -0.239507 8.63335 42 42 44 
-0.017734 1.01369 7.90341 201 189 177 
-0.0980908 -0.185895 8.63306 65 65 67 
-0.0628806 0.413829 8.78536 98 90 111 
-0.19753 -2.17477 6.73793 23 14 5 
-0.10368 -0.376131 8.56804 97 34 53 
-0.0521139 0.373306 8.74841 72 18 44 
-0.0730488 -0.167021 8.67999 135 135 135 
-0.0842651 -0.383467 8.58779 159 117 127 
-0.152779 -2.10867 6.78745 50 39 19 
0.0450846 1.14713 7.70056 255 198 187 
0.00481865 0.542629 8.80051 119 55 72 
-0.0573339 -0.458927 8.57271 99 66 75 
-0.0556178 -0.491433 8.5232 107 82 85 
0.0654051 1.20085 7.51235 72 39 30 
0.0571138 1.01696 8.01252 43 47 85 
-0.0252482 -0.439541 8.53592 137 136 134 
-0.0234797 -0.437784 8.55292 138 137 135 
-0.123801 -2.12656 6.80716 156 148 102 
-0.139364 -2.37102 6.67844 178 143 61 
0.113864 1.21811 7.57325 82 34 32 
0.29064 3.96602 7.60728 130 136 126 
0.39491 5.54633 8.28999 110 80 52 
0.0324842 -0.341237 8.61592 94 57 65 
0.0360834 -0.494522 8.57342 90 42 54 
0.106883 0.412656 8.79636 149 78 92 
0.108796 0.191181 8.75786 126 39 74 
-0.0514729 -2.26552 6.79344 137 122 81 
0.201389 1.16409 8.04199 183 93 103 
0.1044 -0.492272 8.52314 89 46 56 
0.121686 -0.481994 8.55618 148 117 125 
0.153188 -0.166591 8.65624 142 141 137 
-0.0156674 -2.27484 6.78074 150 145 107 
0.23444 1.1671 8.01145 166 85 91 
0.167025 -0.162081 8.66302 30 29 24 
0.236025 1.0538 8.0181 25 26 31 
0.169113 -0.227316 8.65833 137 139 136 
0.177566 -0.170817 8.6662 112 111 107 
0.179439 -0.236618 8.65856 27 28 30 
0.256331 1.22738 7.60344 208 146 107 
0.188549 -0.225555 8.67384 136 137 139 
0.174484 -0.457943 8.5872 88 40 54 
0.277537 1.17598 7.98863 75 58 40 
0.213401 -0.223044 8.64289 40 42 39 
0.301622 0.868873 8.87831 174 139 120 
0.262643 0.298952 8.74922 40 20 32 
0.603425 5.48198 8.52127 62 43 37 
0.222186 -0.393945 8.58152 90 57 64 
0.242376 -0.248455 8.62661 139 140 135 
0.328088 0.879225 8.91586 175 137 126 
0.229343 -0.470285 8.60353 150 130 132 
0.321706 1.19696 7.94706 70 62 77 
0.300006 0.433537 8.8017 97 100 117 
0.323223 1.13496 8.00676 163 144 130 
0.302342 0.388378 8.79263 60 25 58 
0.269178 -0.0116101 8.66315 140 143 134 
0.266065 -0.221245 8.64255 31 30 36 
0.338883 1.17459 7.98902 110 100 101 
0.319476 0.393302 8.75708 70 39 57 
0.35985 0.830568 8.90647 188 153 133 
0.329743 0.431661 8.78007 71 71 79 
0.342351 0.502306 8.81223 181 168 151 
0.352868 1.03239 8.00534 233 218 179 
0.363967 1.17227 8.01846 42 28 17 
0.364684 1.22037 7.89632 202 168 122 
0.33886 0.324091 8.77189 48 15 24 
0.375521 1.14378 7.99904 176 157 125 
0.371895 1.0861 7.97526 226 203 171 
0.334755 -0.181141 8.70385 136 142 132 
0.390209 0.536631 8.84553 107 53 67 
0.401425 1.16333 8.00526 129 92 83 
0.377335 0.25886 8.75958 37 34 65 
0.432385 0.909316 8.95261 94 69 62 
0.406887 0.978152 8.09436 206 194 172 
0.371279 -0.00733194 8.69505 136 137 132 
0.418197 1.09249 7.96855 226 103 105 
0.4205 1.06613 7.99994 182 89 84 
0.425116 1.11365 7.94922 174 107 101 
0.37167 -0.206936 8.65687 98 98 98 
0.433165 1.08739 8.01955 174 79 73 
0.362004 -0.395506 8.63671 138 129 120 
0.382012 -0.173917 8.66717 131 133 130 
0.439438 1.09603 7.97974 88 33 13 
0.37136 -0.400113 8.60818 142 116 115 
0.440468 1.06564 7.98117 209 121 109 
0.380873 -0.346961 8.59996 92 36 49 
0.398792 -0.139378 8.65507 40 42 39 
0.458117 1.12418 7.9476 173 177 92 
0.405822 -0.202468 8.65214 90 92 89 
0.461225 1.08006 7.95462 122 128 30 
0.404361 -0.358791 8.6216 142 131 127 
0.471763 1.12528 7.9386 175 186 94 
0.410141 -0.343363 8.58755 146 124 127 
0.410173 -0.399864 8.61819 141 136 130 
0.486055 1.08038 7.96916 215 214 122 
0.489145 1.12101 7.94955 168 148 123 
0.425902 -0.337303 8.62126 92 61 69 
0.431728 -0.371024 8.64293 101 49 62 
0.501874 1.14393 7.9402 156 127 123 
0.502609 1.12649 7.94672 54 25 27 
0.188961 -2.76062 7.08348 51 34 27 
0.442049 -0.35656 8.62465 146 115 121 
0.506904 1.08363 7.97602 214 206 133 
0.521696 1.16819 7.95927 49 7 9 
0.516276 1.10004 7.93637 232 205 152 
0.531992 1.24997 7.82526 187 158 124 
0.533803 1.15383 7.94185 173 88 83 
0.56683 1.22706 7.95481 200 159 105 
0.607249 0.923806 8.92858 50 3 13 
0.562124 1.12855 7.93663 255 194 170 
0.579531 1.21909 7.9929 112 71 39 
0.570922 1.06826 7.95135 194 186 105 
0.572152 1.09032 7.94433 67 62 0 
0.524383 -0.335967 8.66595 77 44 51 
0.647709 0.932544 8.9505 113 51 64 
0.280257 -2.62883 7.02009 139 124 117 
0.278225 -2.66005 7.01369 69 15 47 
0.844466 4.13911 8.09312 37 36 41 
0.56761 -0.3409 8.66371 92 47 67 
0.631003 1.15945 7.92463 130 48 26 
0.618818 0.0355608 8.78802 40 40 52 
0.646444 1.05703 8.13929 214 190 116 
0.653171 1.06185 8.11736 117 81 31 
0.64663 1.14206 7.91471 248 224 180 
0.299898 -2.78476 6.94681 216 192 158 
0.652177 1.16079 7.9114 113 49 40 
0.616013 -0.351542 8.7174 107 71 81 
0.329245 -2.59561 6.96857 224 202 165 
0.687903 1.08408 8.10845 227 198 36 
0.638351 -0.340189 8.70601 84 53 61 
0.638481 -0.372733 8.70528 91 62 67 
0.681539 1.11755 7.90352 196 172 146 
0.687957 1.18558 7.90288 30 16 13 
0.679437 -0.102104 8.76336 93 93 83 
0.706468 1.17111 7.89264 226 208 184 
0.729465 1.24292 7.94597 129 100 60 
0.800666 0.648551 8.95012 165 114 95 
0.756603 1.11784 7.93328 244 214 186 
0.773563 1.06921 8.16506 232 200 65 
0.809789 0.604507 8.94226 56 51 55 
0.777747 1.11838 8.02926 164 119 51 
0.445401 -2.31892 7.043 97 75 62 
0.792379 1.11316 8.02509 118 89 0 
0.839747 0.578809 8.94597 65 61 62 
0.849672 0.610555 8.9693 146 133 116 
0.823014 1.07638 8.20571 242 192 57 
0.833338 1.07968 8.1702 184 70 46 
0.479615 -2.3473 7.05303 68 50 26 
0.850096 1.05932 8.23432 99 43 26 
0.845202 1.10526 8.07826 234 202 163 
0.871839 1.07755 8.2072 222 154 131 
0.506949 -2.33224 7.00191 72 47 0 
0.871052 1.24425 8.01941 130 92 0 
0.889004 1.08785 8.1627 194 61 56 
0.895843 1.28062 7.94383 84 77 67 
0.55232 -2.26277 7.0164 217 186 78 
0.9273 1.29285 7.92683 218 176 90 
0.939397 0.279705 8.60303 44 31 23 
0.597136 -2.1483 7.04957 62 29 14 
0.986216 1.04182 8.23249 90 74 61 
0.615154 -2.14052 7.05284 171 144 117 
0.625667 -2.26005 7.04468 54 40 5 
1.01966 1.05192 8.27675 164 142 119 
0.653576 -2.27232 7.06054 255 252 180 
1.06824 1.2806 7.93812 234 185 83 
0.71271 -2.31262 7.04217 215 192 150 
1.13603 1.07685 8.2795 66 42 18 
1.1221 1.1124 8.12193 184 173 143 
1.1111 1.2739 7.9023 218 115 20 
1.15227 1.1201 8.0063 227 193 60 
1.18846 1.12531 8.1382 209 194 161 
1.17489 1.14257 8.03576 140 85 2 
1.20067 1.12382 8.07418 226 200 175 
1.20027 1.14411 8.01282 79 56 2 
1.23605 1.07233 8.23526 145 126 112 
0.788199 -2.50436 6.97897 80 71 56 
1.23086 1.25533 7.90982 237 191 10 
1.24498 1.27683 7.96584 239 190 10 
1.27206 1.02612 8.24203 121 103 89 
1.28805 1.13066 8.24503 228 199 9 
1.29826 1.10159 8.29908 119 100 86 
0.806308 -2.57767 6.96216 237 210 181 
1.28114 1.28611 7.99009 40 19 2 
1.29039 1.1237 8.11904 165 144 0 
1.30393 1.12873 8.1538 180 156 6 
1.3393 1.12426 8.32555 89 46 27 
1.29982 1.2826 7.97464 47 31 16 
0.842088 -2.57997 7.01204 190 80 81 
1.31541 1.26585 8.01476 104 77 56 
1.32201 1.3304 7.97092 213 168 109 
1.35395 1.28839 7.98592 146 119 90 
1.3922 1.03761 8.10637 194 173 144 
1.46264 1.32203 8.02699 90 33 14 
1.51183 1.28969 8.26587 51 24 17 
1.48333 1.31398 8.01103 177 91 58 
1.08809 -2.07509 7.29492 219 184 4 
1.73259 1.16378 9.3434 25 16 17 
1.56164 1.27503 8.32052 146 93 77 
1.51318 1.36521 7.91424 209 129 130 
1.58007 1.29048 8.26301 149 88 87 
1.5153 1.33779 7.84847 82 34 30 
1.59899 1.28461 8.30173 94 33 28 
1.5665 1.31858 8.06732 207 143 107 
1.56043 1.32946 8.02541 141 95 43 
1.60247 1.33934 8.09431 200 154 104 
1.81909 0.881399 9.25207 79 73 61 
1.61674 1.3466 8.00352 161 125 91 
1.6985 1.08065 8.25349 145 125 116 
1.67582 1.34669 7.95792 202 160 100 
1.68811 1.2962 7.92492 160 57 40 
2.00735 2.61856 8.49254 199 183 168 
1.41433 -1.10667 7.06577 228 193 112 
1.43453 -1.52059 7.26569 86 81 41 
1.51223 -2.15694 7.11082 229 204 15 
1.65862 -1.48584 6.86959 70 74 59 
2.0385 -2.59822 7.62542 215 198 170 
2.07979 -2.61825 7.63098 52 56 57 
2.07698 -2.74228 7.61931 44 39 45 
2.06914 -2.79497 7.61039 54 46 44 
2.11095 -2.73577 7.64048 114 111 102 
2.1311 -2.62007 7.63812 19 19 19 
2.13952 -2.90819 7.61926 52 38 29 
2.20071 -2.69546 7.6486 75 66 71 
2.27496 -2.60355 7.68603 205 191 164 
2.31792 -2.65128 7.67958 40 38 39 
2.45298 -2.41913 7.6571 204 179 157 
-1.9329 -0.633452 7.71395 3 43 94 
-1.71569 1.05605 7.54187 129 124 118 
-1.69094 0.909587 7.56694 53 54 56 
-1.66681 1.00574 7.54774 143 129 126 
-2.01091 3.28049 9.44858 162 160 161 
-1.59355 1.05127 7.58056 38 37 53 
-1.37225 1.00888 7.12343 83 92 107 
-1.35177 1.05955 7.13146 73 82 97 
-1.32832 1.06874 7.13346 10 19 34 
-1.31499 1.03212 7.11631 12 21 38 
-1.29219 1.11619 7.14527 18 25 41 
-1.27406 1.03254 7.12217 74 82 95 
-1.27576 1.07408 7.13504 13 19 33 
-1.25977 0.883352 7.06825 91 100 115 
-1.26907 1.08559 7.14047 109 106 123 
-1.25011 0.88167 7.07506 2 10 23 
-1.25203 1.04035 7.13187 21 24 39 
-1.23618 0.907923 7.08659 63 66 81 
-1.24235 1.0229 7.12605 25 31 45 
-1.45879 3.65721 8.30011 23 33 43 
-1.21536 0.880852 7.08875 105 114 129 
-1.2269 1.06358 7.15499 48 56 69 
-1.21843 1.08439 7.17391 90 96 110 
-1.1973 0.88155 7.09555 5 14 29 
-1.20117 1.00658 7.15417 5 17 31 
-1.20763 1.09352 7.19085 17 25 38 
-1.34678 3.71163 8.21709 24 33 40 
-1.22544 3.7511 7.5616 42 76 103 
-1.40891 3.61771 8.71063 123 104 35 
-1.40899 3.59184 8.78294 110 86 26 
-1.38223 3.61303 8.70515 134 104 32 
-1.40822 3.57726 8.88731 112 72 21 
-1.38071 3.58346 8.7946 126 100 39 
-1.39162 3.5775 8.87372 180 151 85 
-1.37532 3.58926 8.78029 173 148 84 
-1.32799 3.6547 8.52423 205 184 93 
-1.33349 3.63468 8.59553 217 185 84 
-1.3386 3.62969 8.63531 155 120 30 
-1.32054 3.65268 8.55217 130 107 31 
-1.35648 3.58639 8.81183 109 84 17 
-1.29551 3.68751 8.40049 110 120 109 
-1.31412 3.6579 8.53013 144 127 49 
-1.16397 3.74918 7.56649 29 47 61 
-1.34007 3.5929 8.75427 212 166 55 
-1.3317 3.61 8.72253 137 100 12 
-1.25072 3.70487 8.18767 33 58 54 
-1.28434 3.68135 8.40961 44 51 35 
-1.23159 3.74955 8.08179 71 71 19 
-1.32559 3.59235 8.72289 223 182 90 
-1.29191 3.66346 8.50831 121 108 40 
-1.31602 3.60577 8.70668 185 158 81 
-1.3061 3.61561 8.64395 198 172 98 
-1.29132 3.65597 8.55186 189 164 100 
-1.22797 3.7343 8.12751 119 136 118 
-1.20663 0.598317 8.09084 151 147 146 
-1.27923 3.66465 8.51083 186 173 95 
-1.29363 3.61548 8.63817 145 118 47 
-1.28339 3.61225 8.66064 155 128 39 
-1.25826 3.65384 8.52649 207 187 88 
-1.2736 3.62033 8.6399 215 186 94 
-1.37208 3.50223 9.32867 105 95 83 
-1.23869 3.6644 8.43984 77 89 77 
-1.2086 3.69401 8.25206 141 143 129 
-1.2253 3.67441 8.3833 59 61 47 
-1.19346 3.71624 8.16232 202 202 178 
-1.25845 3.63375 8.63155 132 103 23 
-1.18737 3.73299 8.13489 193 197 180 
-1.21254 3.67989 8.36206 61 63 52 
-1.21545 3.66847 8.39581 32 46 23 
-1.1969 3.67887 8.26225 136 141 111 
-1.16987 3.73557 8.08472 195 194 166 
-1.14803 3.75297 7.97256 138 137 116 
-1.23966 3.60085 8.6827 156 115 10 
-1.24376 3.59018 8.71352 166 123 18 
-1.13334 3.74498 7.96758 58 57 52 
-1.17064 3.69935 8.23099 37 45 24 
-1.1227 3.76677 7.90449 128 127 109 
-1.18737 3.66217 8.37857 43 52 25 
-1.21288 3.64084 8.55029 193 157 47 
-1.13491 3.75021 8.01719 127 128 110 
-1.15398 3.69844 8.20482 123 128 105 
-1.11886 3.76118 7.95762 131 133 112 
-1.16842 3.67771 8.32303 199 197 172 
-1.15308 3.70048 8.22855 186 195 168 
-1.14128 3.70036 8.2219 194 200 172 
-1.1266 3.66323 8.33746 41 53 39 
-1.09182 3.71293 8.09087 129 125 98 
-1.10064 3.70286 8.20892 80 84 61 
-1.12114 3.65651 8.41751 205 186 83 
-1.0557 3.74155 7.96228 135 139 124 
-1.06293 3.74217 8.0555 126 126 102 
-1.06183 3.74074 8.04459 135 133 112 
-1.07772 3.70768 8.16864 176 176 142 
-1.09833 3.67161 8.33342 30 39 36 
-1.05798 3.72733 8.09887 50 52 41 
-1.13359 3.58403 8.70504 152 116 22 
-0.985637 0.949811 7.73979 224 204 180 
-1.09541 3.64084 8.52988 143 109 19 
-1.06222 3.68698 8.28023 24 28 27 
-0.980404 1.06047 7.74143 195 176 159 
-1.03579 3.71422 8.09615 184 187 178 
-1.09162 3.63865 8.55877 218 182 86 
-1.05767 3.66211 8.34223 38 48 11 
-1.02815 3.72257 8.15008 21 27 23 
-1.03647 3.70495 8.23927 192 191 161 
-1.03867 3.67713 8.28099 21 31 32 
-1.04309 3.6797 8.33864 26 33 2 
-1.01516 3.71881 8.11091 20 36 35 
-1.04429 3.66346 8.35145 144 152 79 
-1.01192 3.70307 8.1242 157 166 161 
-0.983518 3.68185 8.3476 199 191 152 
-0.983651 3.67152 8.41574 133 122 104 
-0.965055 3.68528 8.33927 100 93 77 
-0.941803 3.70889 8.26037 216 201 178 
-0.908397 3.68015 8.37348 143 139 128 
-0.857776 3.84395 7.89148 246 245 201 
-0.861579 3.66834 8.50698 176 164 148 
-0.854764 3.6725 8.56862 204 181 139 
-0.826406 3.69806 8.43788 202 186 163 
-0.802077 3.73023 8.31447 199 176 145 
-0.822607 3.67436 8.66637 193 154 79 
-0.825816 3.6602 8.74835 103 82 51 
-0.814343 3.69855 8.65774 87 64 22 
-0.816511 3.66931 8.73262 177 162 143 
-0.796314 3.71111 8.54956 76 61 30 
-0.81359 3.64935 8.76874 210 157 79 
-0.808138 3.67462 8.72827 83 67 52 
-0.716913 3.87206 7.73871 144 141 108 
-0.769457 3.76145 8.37372 199 163 79 
-0.80073 3.67781 8.71882 154 140 114 
-0.764077 3.74484 8.37819 90 63 16 
-0.779932 3.69464 8.60702 214 167 63 
-0.787305 3.68 8.70434 169 162 136 
-0.787514 3.67826 8.72351 79 68 40 
-0.7651 3.7319 8.47741 180 144 86 
-0.789262 3.68645 8.73161 115 103 77 
-0.775391 3.69547 8.67945 98 83 54 
-0.673226 3.94268 7.51813 206 185 180 
-0.713316 3.83826 8.0041 217 198 156 
-0.747726 3.73843 8.45638 160 116 43 
-0.774447 3.68727 8.77338 114 83 19 
-0.74351 3.75963 8.43637 219 166 70 
-0.754108 3.70727 8.57473 183 149 78 
-0.807433 3.64738 9.18054 91 82 75 
-0.759004 3.70366 8.65899 65 53 39 
-0.681552 3.85369 7.83186 228 229 187 
-0.758746 3.68135 8.78705 185 149 71 
-0.647511 3.95902 7.48814 40 39 35 
-0.730479 3.7403 8.48009 173 139 76 
-0.744287 3.70361 8.67154 89 75 49 
-0.750584 3.69935 8.76058 100 74 25 
-0.772043 3.70888 9.04845 132 101 83 
-0.727857 3.7268 8.59589 94 85 68 
-0.66195 3.88833 7.78339 229 217 179 
-0.735588 3.70233 8.70952 174 150 104 
-0.716518 3.74095 8.54809 94 73 54 
-0.710083 3.72201 8.44593 86 68 48 
-0.698882 3.76657 8.48259 168 163 133 
-0.640449 3.88611 7.77292 220 218 180 
-0.739691 3.69468 9.09103 132 134 149 
-0.697802 3.73161 8.58132 85 69 44 
-0.653059 3.86543 8.18386 186 150 88 
-0.619545 3.86823 7.79865 97 111 78 
-0.699417 3.71474 8.96899 32 33 51 
-0.624223 3.86989 8.04009 184 174 138 
-0.672044 3.7336 8.72785 194 163 96 
-0.630152 3.83246 8.28986 125 90 22 
-0.676103 3.69592 9.0725 28 30 45 
-0.58116 3.85959 7.79457 224 210 181 
-0.640144 3.74702 8.66568 138 102 6 
-0.650618 3.70698 8.8968 28 30 43 
-0.630902 3.75686 8.74334 194 156 81 
-0.667028 3.64864 9.23695 21 29 42 
-0.59217 3.84765 8.21969 199 151 79 
-0.618795 3.759 8.59478 157 114 1 
-0.608706 3.80901 8.48411 141 106 14 
-0.667429 3.63931 9.2903 24 25 45 
-0.552363 3.82965 7.80944 42 70 47 
-0.593202 3.83327 8.40907 138 100 3 
-0.638779 3.67158 9.19292 98 98 124 
