ply                 
format ascii 1.0    
element vertex 909
property float x    
property float y    
property float z    
property uchar red  
property uchar green
property uchar blue 
end_header          
-4.16091 1.96363 13.4249 253 253 253 
-2.33392 3.63576 7.64895 144 142 147 
-2.14492 -2.45435 7.09395 170 51 89 
-2.38719 3.56849 8.03232 147 157 182 
-2.54122 3.55462 8.55232 116 205 247 
-2.32312 3.6298 7.83574 116 124 127 
-2.07808 1.17254 7.02193 173 210 239 
-2.3544 3.5783 7.95511 155 141 130 
-2.77956 3.39402 9.4002 62 78 93 
-2.07076 1.17327 7.05396 55 67 83 
-2.3342 3.5802 7.94403 43 52 69 
-2.31579 3.62121 7.92435 81 94 100 
-2.27466 3.66857 7.81702 27 29 41 
-2.26763 3.64892 7.83159 26 29 46 
-2.32024 3.60506 8.02414 22 30 51 
-2.29573 3.60694 7.96625 50 64 73 
-2.29867 3.64222 8.03124 10 22 38 
-2.38372 3.51853 8.36091 152 211 245 
-2.15772 3.77546 7.59931 117 132 137 
-2.23431 3.69095 7.87422 35 48 57 
-2.28445 3.67589 8.05164 21 31 43 
-2.28242 3.65627 8.06632 130 142 158 
-2.18404 3.79136 7.7249 17 30 38 
-2.27813 3.65362 8.05544 135 147 163 
-2.27148 3.70667 8.04815 69 79 91 
-2.42267 3.47257 8.57706 153 182 216 
-2.19372 3.79965 7.77906 89 104 109 
-2.37656 3.51018 8.4544 134 146 160 
-2.21323 3.76614 7.9639 71 80 95 
-2.50136 3.42013 9.06392 4 34 42 
-2.27043 3.71269 8.29923 5 19 30 
-2.19489 3.73935 8.03237 84 92 105 
-2.27536 3.74282 8.33176 70 94 106 
-2.17117 3.79432 7.95746 40 56 71 
-2.45205 3.4214 8.97359 96 150 196 
-2.44148 3.42348 8.96606 106 143 185 
-2.26396 3.71818 8.34284 47 61 72 
-2.49347 3.39954 9.19942 37 54 70 
-2.49347 3.39954 9.19942 37 54 70 
-2.18753 3.7632 8.07771 23 35 49 
-2.17016 3.7775 8.06965 87 98 104 
-2.24603 3.70527 8.37901 79 91 105 
-2.19839 3.72761 8.27326 103 199 249 
-2.22423 3.71467 8.36532 3 32 48 
-2.14642 3.7679 8.09976 74 110 142 
-2.23675 3.68653 8.46002 101 100 96 
-2.23675 3.68653 8.46002 101 100 96 
-2.10345 3.84411 8.00161 16 38 49 
-2.21091 3.72282 8.41833 40 55 60 
-2.0096 3.90555 7.72089 127 158 163 
-2.00223 -0.80725 7.71765 61 29 42 
-2.00415 -0.807164 7.7254 61 29 42 
-1.98802 3.90927 7.71449 38 67 75 
-2.02475 3.87433 7.91523 40 59 74 
-2.00167 -0.127073 7.849 189 186 205 
-1.98046 3.89842 7.77944 103 146 152 
-1.94787 -1.0222 7.72385 80 42 53 
-1.95329 -0.975659 7.75251 113 42 50 
-2.23027 3.68692 8.82138 25 38 54 
-1.96711 -1.09653 7.80936 169 172 177 
-1.94146 -0.602053 7.71468 3 43 94 
-1.97783 3.84674 7.8792 50 85 123 
-1.93571 -0.61177 7.74631 28 76 122 
-1.97604 -0.0781468 7.90632 57 98 130 
-1.97604 -0.0781468 7.90632 57 98 130 
-1.92041 3.8857 7.70533 52 68 67 
-1.85632 3.92653 7.54555 105 129 139 
-2.05176 -1.46145 8.34153 154 157 162 
-2.13775 3.73524 8.67515 89 120 140 
-1.89709 -0.991632 7.76823 68 76 87 
-1.89709 -0.991632 7.76823 68 76 87 
-1.91485 3.82972 7.87097 45 77 116 
-1.86124 3.84464 7.65795 79 158 215 
-2.26069 5.64301 9.3033 125 124 129 
-1.83113 3.83676 7.67357 32 85 137 
-2.03397 3.72628 8.55576 25 28 43 
-2.16059 5.68231 9.07807 131 129 134 
-2.02026 3.7182 8.50518 13 30 58 
-1.97773 3.70638 8.33162 81 126 168 
-1.80663 0.932987 7.67684 129 132 139 
-2.03081 3.65971 8.66983 7 18 36 
-1.8263 -2.93851 7.85075 119 109 108 
-1.9563 3.70021 8.39462 68 137 196 
-1.77708 -2.543 7.67276 8 12 24 
-1.92926 3.69636 8.35431 94 146 193 
-1.7568 -2.70238 7.65291 12 16 28 
-1.73659 -2.91611 7.63922 15 16 20 
-1.65104 -1.91479 7.28158 45 41 40 
-1.70002 1.00696 7.53773 154 140 131 
-1.88322 3.69363 8.4011 83 124 156 
-1.62728 -1.88981 7.30177 37 26 8 
-1.63717 0.546346 7.52409 89 84 90 
-1.65724 -2.55593 7.64602 101 104 113 
-1.62978 -2.66069 7.65114 144 147 138 
-1.60228 1.06177 7.57989 40 41 62 
-1.73464 3.63594 8.3224 26 38 50 
-1.57954 0.800888 7.61779 33 26 20 
-1.56778 1.07522 7.59949 123 119 118 
-1.56083 0.985325 7.59825 147 144 135 
-1.78822 3.60095 8.71567 128 118 117 
-1.78822 3.60095 8.71567 128 118 117 
-1.56922 -2.52182 7.68316 37 41 50 
-1.55939 -2.38016 7.67464 149 158 163 
-1.54946 -2.52835 7.67107 86 93 103 
-1.54872 -2.45123 7.67188 114 124 136 
-1.54332 -2.58202 7.68645 69 79 88 
-1.41127 -3.36329 7.13654 166 143 125 
-1.40795 1.14578 7.18816 12 23 41 
-1.50026 -2.83935 7.67783 137 145 147 
-1.49727 -2.88599 7.69176 86 94 107 
-1.49727 -2.88599 7.69176 86 94 107 
-1.46142 -2.30785 7.6833 154 166 166 
-1.46237 -2.4762 7.69552 142 155 163 
-1.46237 -2.4762 7.69552 142 155 163 
-1.46142 -2.45645 7.71941 47 66 73 
-1.45958 -2.34164 7.72296 161 161 161 
-1.45958 -2.34164 7.72296 161 161 161 
-1.28406 -1.76412 6.82853 35 35 43 
-1.44876 -2.34257 7.72435 74 80 78 
-1.44012 -2.45972 7.69331 97 110 118 
-1.43883 -2.36762 7.69477 149 164 171 
-1.32982 1.09338 7.133 10 19 34 
-1.43464 -2.89785 7.72566 31 38 54 
-1.59019 3.61317 8.54468 16 26 38 
-1.59019 3.61317 8.54468 16 26 38 
-1.40748 -2.54076 7.71671 141 156 163 
-1.29603 0.509216 7.11151 217 210 192 
-1.29803 0.492612 7.16662 131 128 119 
-1.2613 0.991609 6.98304 18 30 44 
-1.22093 -1.92134 6.7896 180 97 0 
-1.39209 -2.47863 7.72044 55 65 74 
-1.2393 -1.54638 6.91095 9 18 25 
-1.39377 -2.53042 7.75164 45 60 67 
-1.28519 0.493912 7.16971 118 115 108 
-1.37204 -2.52138 7.69764 125 142 152 
-1.25498 0.513499 7.0974 156 149 133 
-1.36383 -2.81154 7.72752 36 46 56 
-1.36585 -2.85698 7.74117 94 100 114 
-1.35805 -2.56962 7.76144 106 123 133 
-1.23843 0.51596 7.09269 99 87 73 
-1.19191 -1.66003 6.88198 198 151 11 
-1.22295 1.17457 7.22881 9 21 33 
-1.19774 0.905851 7.08735 5 14 29 
-1.30728 -2.81699 7.73577 171 185 194 
-1.19332 0.906604 7.10636 99 108 123 
-1.41231 3.69331 8.43777 98 131 88 
-1.43446 3.68166 8.58828 180 162 100 
-1.28313 3.81721 7.69821 177 212 234 
-1.28446 -2.81265 7.72925 51 73 84 
-1.45735 5.65579 8.78148 124 123 131 
-1.18031 1.09283 7.2183 20 26 40 
-1.26432 -2.49813 7.7414 127 139 139 
-1.26171 -2.81144 7.72957 128 146 148 
-1.23809 3.80904 7.64508 200 232 255 
-1.22265 3.79601 7.60293 144 179 199 
-1.37589 0.361283 8.58076 179 161 139 
-1.23344 3.81278 7.72166 197 224 245 
-1.37125 3.67903 8.5725 121 120 63 
-1.36279 3.68518 8.53105 139 158 102 
-1.35229 3.69338 8.48333 169 187 165 
-1.22221 -2.54703 7.74812 54 64 74 
-1.21881 -2.4942 7.75746 149 152 159 
-1.37342 0.395721 8.72012 148 141 122 
-1.20958 -2.58574 7.76496 43 61 73 
-1.34176 3.67362 8.56343 215 183 82 
-1.20887 -2.30719 7.75373 122 134 134 
-1.20831 -2.55971 7.76142 128 133 129 
-1.26293 3.76437 8.17123 189 192 173 
-1.26211 3.76195 8.16724 189 192 173 
-1.29192 0.224918 8.37813 185 168 158 
-1.19353 -2.40263 7.77075 131 135 136 
-1.35549 3.61179 8.8356 109 84 17 
-1.34237 3.62977 8.80583 212 166 55 
-1.25497 3.75421 8.26709 33 58 54 
-1.28591 0.377923 8.48681 50 32 18 
-1.27656 0.208366 8.43433 94 83 77 
-1.16868 -2.66604 7.77478 134 150 165 
-1.1638 -2.31853 7.75989 55 63 74 
-1.26761 0.405073 8.432 184 168 145 
-1.21952 3.79971 8.13777 140 135 44 
-1.26029 0.210208 8.43774 186 172 159 
-1.2571 3.71299 8.42225 163 166 135 
-1.15241 -2.33027 7.76983 133 136 141 
-1.20585 3.76658 8.12106 183 196 91 
-1.20682 3.74524 8.23126 203 200 167 
-1.2738 3.65248 8.68089 215 186 94 
-1.2738 3.65248 8.68089 215 186 94 
-1.35829 3.50219 9.2844 105 95 83 
-1.24003 3.69835 8.47286 34 49 46 
-1.11144 3.97188 7.61199 79 79 69 
-1.15484 0.71082 7.92413 220 198 174 
-1.1711 3.79503 8.03647 170 158 120 
-1.25046 3.64146 8.61543 132 103 23 
-1.15637 3.78832 8.01751 56 52 14 
-1.14815 3.78235 7.97824 134 135 121 
-1.15779 0.604126 8.09744 29 25 26 
-1.1675 3.76405 8.16824 195 195 167 
-1.0972 -2.70409 7.79362 92 109 125 
-1.15391 3.77375 8.15298 198 197 169 
-1.13689 3.79563 8.04939 58 57 52 
-1.13689 3.79563 8.04939 58 57 52 
-1.16818 3.73276 8.27634 37 45 24 
-1.09096 -2.37712 7.76511 89 105 121 
-1.11758 0.861514 7.94677 95 24 32 
-1.12995 0.66461 8.03528 196 166 130 
-1.11938 3.79935 7.949 128 127 109 
-1.1884 3.69908 8.43112 43 52 25 
-1.13248 0.626962 8.06192 157 126 105 
-1.11276 0.832692 7.94888 176 143 126 
-1.08372 1.07517 7.83728 183 164 147 
-1.11259 0.620515 8.04405 151 124 105 
-1.09601 0.871668 7.95083 152 102 41 
-1.10085 0.636748 7.99175 137 102 70 
-1.09411 0.869144 7.94021 158 109 40 
-1.1298 3.73664 8.21964 141 141 113 
-1.09559 3.78546 8.06246 61 59 44 
-1.05242 1.06904 7.80552 108 95 87 
-1.07702 0.657799 8.01093 138 93 62 
-1.13003 3.70565 8.40221 41 53 39 
-1.10368 3.74852 8.2809 80 84 61 
-1.05792 3.78616 7.95471 27 38 30 
-1.12406 3.69534 8.47398 205 186 83 
-1.11066 3.69481 8.40052 138 160 121 
-1.06915 3.76695 8.10593 189 189 165 
-1.06915 3.76695 8.10593 189 189 165 
-1.05954 3.80071 8.06278 135 139 124 
-1.0582 3.79415 8.04905 135 139 124 
-1.01328 0.965777 7.74616 139 119 94 
-1.07124 3.75858 8.17694 62 64 50 
-1.06243 3.78473 8.11326 135 133 112 
-1.09473 3.69913 8.36576 30 39 36 
-1.08851 3.7154 8.33733 192 191 171 
-1.01936 -2.52641 7.84492 23 36 55 
-1.05797 3.76329 8.14989 50 52 41 
-1.02783 0.878774 7.94862 91 27 41 
-1.02783 0.878774 7.94862 91 27 41 
-1.14415 5.62238 8.82565 108 108 118 
-1.12181 3.63008 8.68401 196 162 65 
-1.04193 3.77373 8.07719 185 178 162 
-1.0975 3.67978 8.5873 143 109 19 
-1.07494 3.65576 8.55549 214 178 82 
-1.03804 3.71013 8.32518 21 31 32 
-1.01345 3.74722 8.14583 20 36 35 
-1.01345 3.74722 8.14583 20 36 35 
-0.958057 1.05535 7.75721 33 20 12 
-0.958057 1.05535 7.75721 33 20 12 
-1.01046 3.73723 8.17184 157 166 161 
-0.999446 3.71341 8.27757 129 149 96 
-1.02563 0.440705 8.50417 132 116 101 
-0.941099 -2.79459 7.83899 18 30 44 
-0.992154 3.63249 8.28531 210 168 60 
-0.930378 -2.5966 7.85004 24 33 48 
-0.978962 3.6987 8.35601 199 191 152 
-0.947028 3.79458 8.22124 145 96 38 
-0.947028 3.79458 8.22124 145 96 38 
-0.952878 3.78111 8.25683 138 99 40 
-0.971336 3.69542 8.42031 126 118 107 
-0.965013 3.71773 8.38219 100 93 77 
-0.908858 0.886235 7.96445 97 25 29 
-0.908858 0.886235 7.96445 97 25 29 
-0.94045 3.76024 8.22402 144 98 36 
-0.8657 4.01891 7.69688 233 208 178 
-0.928372 3.71558 8.38463 90 81 72 
-0.860502 -2.66496 7.84669 101 106 112 
-0.783622 -1.97359 7.22221 24 22 25 
-0.846056 3.9726 7.7681 32 39 45 
-0.846056 3.9726 7.7681 32 39 45 
-0.890838 0.557852 8.27657 203 172 144 
-0.809598 1.17931 7.58816 36 34 35 
-0.876273 0.701974 8.26064 213 183 147 
-0.87653 0.7031 8.26621 213 183 147 
-0.859404 0.731494 8.18208 43 11 0 
-0.868392 0.61568 8.27603 119 89 61 
-0.81638 -2.62407 7.85315 149 153 156 
-0.867342 0.587398 8.3368 121 86 54 
-0.800484 4.05937 7.72574 16 21 17 
-0.846108 0.666257 8.34165 212 182 146 
-0.80591 0.839209 7.98016 176 161 140 
-0.82171 3.8719 8.1226 10 7 24 
-0.85728 3.71661 8.46274 113 110 101 
-0.799405 3.88656 7.92876 255 244 202 
-0.778635 3.9645 7.75281 46 44 45 
-0.825705 0.553879 8.27553 224 196 148 
-0.754909 1.12804 7.65307 223 208 185 
-0.784861 0.898374 8.01219 82 54 30 
-0.760592 3.96241 7.76322 225 215 180 
-0.764895 -2.79827 7.87995 160 157 148 
-0.764895 -2.79827 7.87995 160 157 148 
-0.739659 1.08891 7.61444 53 41 29 
-0.854231 3.68103 8.77262 136 106 56 
-0.771018 0.859228 8.02074 88 36 22 
-0.853505 3.64758 8.82764 198 145 67 
-0.758705 3.93067 7.88946 218 209 176 
-0.742018 4.05455 7.71659 18 11 27 
-0.792743 0.699354 8.31396 152 119 76 
-0.690306 -1.62418 7.26008 21 22 27 
-0.757436 0.879334 8.09211 168 112 61 
-0.739883 -2.85549 7.92376 25 31 31 
-0.695028 1.17244 7.45916 102 91 73 
-0.858101 3.62903 9.14349 89 65 39 
-0.730468 -2.88545 7.89011 44 44 42 
-0.814384 3.68635 8.82255 210 157 79 
-0.687401 1.17191 7.52092 223 211 187 
-0.721568 3.89614 7.90788 238 225 193 
-0.718988 3.92382 7.88272 134 136 99 
-0.744747 3.79749 8.203 121 88 43 
-0.754374 3.79204 8.38781 206 156 71 
-0.68753 1.12001 7.67437 225 214 182 
-0.801497 3.70323 8.96267 190 134 51 
-0.787018 3.71942 8.77711 115 103 77 
-0.71251 3.87644 8.06038 217 198 156 
-0.65862 4.03362 7.5526 222 213 198 
-0.682659 -2.41225 7.87019 118 118 130 
-0.680531 -2.43002 7.87858 135 135 137 
-0.680531 -2.43002 7.87858 135 135 137 
-0.677691 -2.4641 7.88976 22 26 37 
-0.679561 3.93348 7.8496 234 214 187 
-0.648652 -2.07013 7.58335 99 77 66 
-0.671407 -2.49341 7.88937 94 101 109 
-0.648195 4.02445 7.59667 40 39 35 
-0.745401 3.74674 8.7397 89 75 49 
-0.66617 -2.51708 7.89877 20 22 34 
-0.742555 3.67254 8.79322 116 81 27 
-0.658009 -2.44858 7.87347 103 107 118 
-0.659618 3.93214 7.85211 229 217 179 
-0.679978 0.800677 8.14276 174 146 122 
-0.652322 -2.49722 7.87045 21 24 31 
-0.690877 0.642982 8.3771 32 33 28 
-0.675171 0.867196 8.19983 167 114 44 
-0.643176 3.96155 7.79091 135 123 81 
-0.66962 0.69074 8.1793 53 41 29 
-0.644652 -2.52674 7.89391 144 144 146 
-0.64689 3.89966 7.88482 241 231 195 
-0.644346 3.92846 7.86842 128 134 100 
-0.696145 3.79029 8.50696 168 163 133 
-0.664649 3.87673 8.28513 143 98 30 
-0.643997 3.9178 8.13535 71 55 39 
-0.643524 3.9144 8.12995 68 52 39 
-0.649881 3.89161 8.21563 186 150 88 
-0.618048 3.90773 7.85852 97 111 78 
-0.631384 3.90018 8.17048 57 45 45 
-0.621767 3.89966 8.07966 184 174 138 
-0.605929 3.90051 7.97665 81 101 74 
-0.624144 0.755008 8.36371 65 44 39 
-0.563463 3.30594 7.54467 213 173 51 
-0.645755 3.74621 8.60959 196 162 55 
-0.585626 3.86769 7.89778 101 111 59 
-0.579352 3.89761 7.85136 224 210 181 
-0.615488 3.81074 8.58513 135 89 0 
-0.589819 3.9004 8.32451 208 158 69 
-0.551606 3.87179 7.8747 42 70 47 
-0.524883 3.94554 7.76141 206 172 12 
-0.538644 3.85903 7.99712 54 25 7 
-0.526922 3.8585 7.95136 227 203 167 
-0.562864 3.78783 8.79841 31 30 46 
-0.562864 3.78783 8.79841 31 30 46 
-0.557184 3.79355 8.75003 107 103 94 
-0.557184 3.79355 8.75003 107 103 94 
-0.531074 3.80642 8.60612 157 145 145 
-0.531074 3.80642 8.60612 157 145 145 
-0.49004 3.87066 7.98181 222 198 27 
-0.4742 3.88824 7.7784 56 89 58 
-0.488172 3.86714 8.04227 96 49 0 
-0.488172 3.86714 8.04227 96 49 0 
-0.497263 3.84377 8.43216 142 139 132 
-0.484 3.83456 8.28421 19 13 0 
-0.484 3.83456 8.28421 19 13 0 
-0.513508 3.69647 9.08442 108 103 125 
-0.464678 3.8091 8.34146 38 36 39 
-0.48208 3.77856 8.7356 166 159 153 
-0.48208 3.77856 8.7356 166 159 153 
-0.430422 3.87115 8.00335 223 200 8 
-0.444244 3.80491 8.32549 31 30 35 
-0.45825 3.76529 8.8136 31 35 36 
-0.421793 3.81948 8.3567 33 34 38 
-0.437389 0.944201 8.67185 60 11 14 
-0.451018 3.72516 8.87292 142 140 161 
-0.388572 3.7667 8.61969 130 130 130 
-0.379121 3.73423 8.61968 152 151 149 
-0.361126 0.739464 8.93973 80 71 64 
-0.314213 3.69501 8.7916 150 113 43 
-0.298751 3.69923 8.69713 211 168 55 
-0.260781 1.09887 7.99516 38 24 37 
-0.238491 0.98831 8.10002 33 31 55 
-0.194372 -2.9174 6.91262 200 180 156 
-0.177597 -2.27604 6.71945 33 22 28 
-0.210424 0.990531 8.12094 72 67 63 
-0.210424 0.990531 8.12094 72 67 63 
-0.200223 3.91526 7.93151 178 46 41 
-0.17478 -1.59075 7.18019 62 66 78 
-0.17478 -1.59075 7.18019 62 66 78 
-0.216913 0.792402 8.90546 227 180 154 
-0.209645 3.95288 8.98044 43 43 31 
-0.182974 3.91274 7.79915 255 138 140 
-0.191638 0.268275 8.84117 157 158 153 
-0.154814 3.92621 7.79552 175 66 43 
-0.126953 3.93043 7.80424 175 64 19 
-0.14031 0.499027 8.89078 192 182 157 
-0.124881 3.98883 7.77306 140 24 25 
-0.124881 3.98883 7.77306 140 24 25 
-0.135431 0.0966526 8.82066 135 137 132 
-0.125064 -0.165347 8.7515 65 65 67 
-0.121965 -0.229137 8.73567 107 108 112 
-0.118904 -0.258629 8.72037 138 139 134 
-0.0909255 -2.94206 6.85663 72 28 0 
-0.123286 0.832306 8.92305 169 126 109 
-0.10281 4.00306 7.77445 191 112 107 
-0.10179 1.03002 7.9847 140 138 141 
-0.10324 -0.162398 8.75817 86 85 90 
-0.099767 -0.24773 8.72801 131 133 132 
-0.099767 -0.24773 8.72801 131 133 132 
-0.0828868 4.02202 7.79442 136 45 50 
-0.0906237 3.99432 8.60098 55 37 23 
-0.0850033 0.629174 8.88341 198 166 151 
-0.072817 -0.34843 8.68781 77 54 60 
-0.072817 -0.34843 8.68781 77 54 60 
-0.0673854 0.441796 8.89277 104 90 115 
-0.0618982 -0.472008 8.64742 77 48 53 
-0.0587996 -0.158362 8.7409 55 55 57 
-0.0587996 -0.158362 8.7409 55 55 57 
-0.0544784 4.09165 7.79775 44 44 34 
-0.0555327 3.91135 8.0003 81 104 110 
-0.0551726 0.407418 8.90107 63 23 47 
-0.0458912 -0.249723 8.72426 135 133 134 
-0.0422774 -0.451201 8.6564 93 43 54 
-0.0406343 -0.348232 8.69497 78 49 53 
-0.0376369 1.02349 8.07647 90 79 75 
-0.0398696 -0.216743 8.72792 88 86 87 
-0.0438703 3.98047 8.77377 52 46 24 
-0.038149 -0.496531 8.63167 82 47 54 
-0.0284009 -2.38243 6.87108 15 9 13 
-0.0234539 -0.345301 8.69616 162 130 135 
-0.0234539 -0.345301 8.69616 162 130 135 
-0.0170146 -2.96388 6.81844 150 114 90 
-0.0217761 -0.369011 8.69139 104 40 56 
-0.0127984 -0.18845 8.75093 138 138 136 
-0.00754848 -3.16286 6.82773 84 42 20 
-0.00754848 -3.16286 6.82773 84 42 20 
-0.0111538 -0.446356 8.68249 85 42 51 
-0.0146844 3.92622 8.00298 62 97 119 
-0.00562698 -0.347085 8.7045 90 53 60 
-0.000487717 -0.388232 8.66802 81 55 58 
-0.00260373 4.04705 7.81659 195 114 113 
0.00911419 -0.366027 8.66675 138 130 128 
0.0153403 -0.274128 8.73156 78 79 74 
0.0185255 1.03505 8.04592 190 186 177 
0.0166607 3.98409 7.74076 138 17 36 
0.0258981 -0.215085 8.74624 84 84 82 
0.0258981 -0.215085 8.74624 84 84 82 
0.0288461 -0.479661 8.61341 84 34 46 
0.0288461 -0.479661 8.61341 84 34 46 
0.0352751 -0.183066 8.7497 125 126 121 
0.0352751 -0.183066 8.7497 125 126 121 
0.0395614 -0.243378 8.72901 136 136 134 
0.0385003 0.244787 8.80301 117 30 62 
0.0361046 3.94135 7.84939 74 54 3 
0.0373448 -2.70131 6.87668 22 16 18 
0.0562302 -0.364478 8.69509 161 141 142 
0.0609579 -0.309623 8.72007 134 134 126 
0.066129 -0.206463 8.76675 25 25 23 
0.066006 0.316809 8.87059 34 20 35 
0.0764938 -0.380399 8.68676 95 45 56 
0.0594738 -3.10063 6.85627 145 129 113 
0.0786261 -0.186074 8.74633 142 143 138 
0.0786261 -0.186074 8.74633 142 143 138 
0.0822676 -0.244593 8.71935 134 133 129 
0.0778242 -2.34212 6.85223 255 255 211 
0.101454 -0.210522 8.7579 135 135 133 
0.104897 0.436805 8.88422 167 85 99 
0.0875371 -2.59781 6.99837 34 19 24 
0.108645 0.218765 8.88933 122 38 71 
0.0906871 -2.11918 6.96428 32 17 0 
0.102177 -3.25668 7.85608 57 53 44 
0.119444 -0.239023 8.73259 136 136 134 
0.118522 -0.463268 8.68965 152 125 130 
0.152066 3.54102 9.76067 109 99 89 
0.147254 -0.265145 8.7335 85 85 85 
0.150928 -0.146337 8.76493 147 146 144 
0.156663 -0.207884 8.74876 139 140 134 
0.158866 0.322212 8.87117 32 18 31 
0.158866 0.322212 8.87117 32 18 31 
0.164283 -0.139584 8.78471 29 29 27 
0.171174 -0.43861 8.72089 83 36 44 
0.168458 4.86902 8.40804 85 85 85 
0.167309 4.00993 8.34342 28 26 29 
0.144559 -2.32927 6.91655 38 7 2 
0.171373 3.98749 8.34053 38 32 32 
0.162479 4.08666 7.86203 75 81 69 
0.184972 0.34193 8.87115 92 53 74 
0.195778 3.81759 8.90611 25 29 15 
0.176101 4.07554 7.93913 15 23 12 
0.203105 -0.233838 8.75556 136 137 129 
0.190249 1.20667 8.02354 196 117 104 
0.210013 -0.201182 8.76137 20 20 18 
0.210751 -0.4784 8.67141 101 40 58 
0.217263 0.0749726 8.85147 112 38 63 
0.219006 -0.337889 8.72875 88 58 60 
0.222316 -0.37042 8.76429 90 55 59 
0.231493 -0.398948 8.70467 142 137 131 
0.231493 -0.398948 8.70467 142 137 131 
0.235305 -0.394347 8.78352 136 132 123 
0.236411 0.39994 8.85392 151 47 84 
0.196458 -2.8237 7.17416 164 141 135 
0.237704 -0.354297 8.70346 155 125 127 
0.246594 -0.377262 8.72373 92 47 54 
0.262358 0.322923 8.84605 34 17 33 
0.260964 -0.130376 8.77545 54 54 52 
0.279521 -0.350254 8.71597 142 131 129 
0.28087 -0.373865 8.70807 77 55 58 
0.28087 -0.373865 8.70807 77 55 58 
0.298222 0.455779 8.87831 120 115 138 
0.293132 -0.370417 8.71994 148 132 132 
0.299628 0.414432 8.88849 59 25 60 
0.256935 3.98154 7.58159 22 21 17 
0.305953 -0.366887 8.70766 93 52 58 
0.308526 0.370273 8.81758 34 20 33 
0.286373 3.96124 8.08825 118 122 108 
0.265495 -2.64957 7.07458 80 35 56 
0.330299 -0.167032 8.74612 134 137 130 
0.337031 0.34579 8.8471 50 22 36 
0.334134 0.567735 8.78403 191 177 148 
0.334134 0.567735 8.78403 191 177 148 
0.343333 0.298016 8.85392 38 29 46 
0.343923 0.29784 8.85314 38 29 46 
0.350234 0.323588 8.83681 86 73 90 
0.352425 0.387634 8.88414 173 155 143 
0.352425 0.387634 8.88414 173 155 143 
0.352196 0.26228 8.84194 163 163 151 
0.322334 1.16549 8.08318 162 147 128 
0.35676 -0.368663 8.70827 151 124 129 
0.360348 -0.122924 8.7481 136 137 132 
0.376553 0.420413 8.91342 53 42 56 
0.370681 -0.186307 8.77093 69 69 67 
0.370681 -0.186307 8.77093 69 69 67 
0.372252 0.0154669 8.81174 136 137 129 
0.372252 0.0154669 8.81174 136 137 129 
0.375998 0.182789 8.78109 36 43 69 
0.380763 -0.153703 8.77189 136 137 132 
0.386261 0.509012 8.90461 87 46 64 
0.38941 0.559875 8.92394 115 64 71 
0.310161 -2.79598 7.04103 217 197 162 
0.395545 0.498244 8.91893 89 50 79 
0.398988 -0.315034 8.73027 65 45 47 
0.398988 -0.315034 8.73027 65 45 47 
0.403849 -0.33963 8.73815 145 127 127 
0.403849 -0.33963 8.73815 145 127 127 
0.403849 -0.33963 8.73815 145 127 127 
0.403713 -0.363064 8.71248 75 53 55 
0.403713 -0.363064 8.71248 75 53 55 
0.405838 -0.181987 8.7601 60 62 57 
0.372216 1.13903 8.02858 146 119 98 
0.408368 -0.381384 8.72784 138 128 126 
0.330031 -2.85553 7.04522 178 16 29 
0.334413 -3.1644 7.12429 52 35 41 
0.387701 1.17172 8.04891 100 57 41 
0.426268 -0.317096 8.74941 90 61 66 
0.426268 -0.317096 8.74941 90 61 66 
0.432858 -0.15617 8.80828 129 131 126 
0.427078 -0.355757 8.6913 104 58 71 
0.471191 0.124476 8.84902 28 38 63 
0.37666 -2.53262 6.97791 126 69 86 
0.477222 -0.337447 8.74404 148 121 128 
0.477222 -0.337447 8.74404 148 121 128 
0.452076 1.1021 8.02717 220 207 139 
0.510124 -0.33826 8.75326 135 97 108 
0.466553 1.15543 8.00824 142 147 53 
0.466553 1.15543 8.00824 142 147 53 
0.416769 -3.08443 7.00293 228 208 173 
0.526639 -0.316017 8.79856 79 44 51 
0.484507 1.20071 8.03916 137 127 117 
0.484507 1.20071 8.03916 137 127 117 
0.491402 1.17785 7.9896 15 0 0 
0.50021 1.17129 8.00277 196 167 159 
0.501276 1.15352 8.01049 30 12 0 
0.500868 1.12686 8.00707 244 228 179 
0.54946 -0.336199 8.77125 136 125 123 
0.438779 -2.54121 6.91592 234 215 175 
0.581252 -0.484634 8.76802 30 32 19 
0.581252 -0.484634 8.76802 30 32 19 
0.592139 -0.332906 8.84537 146 113 120 
0.615953 0.963966 9.07557 53 3 14 
0.623252 0.883045 9.01342 170 119 124 
0.494607 -2.14149 7.08015 59 44 5 
0.620233 0.0547829 8.87742 44 41 52 
0.571662 1.08089 8.19368 37 17 19 
0.617721 -0.334253 8.81742 99 59 67 
0.617721 -0.334253 8.81742 99 59 67 
0.561252 1.15615 8.00233 255 191 163 
0.505859 -2.42546 7.05053 255 254 204 
0.623124 5.60028 8.67891 58 43 36 
0.653681 0.964602 9.0627 96 36 44 
0.504414 -2.95669 6.95144 150 44 64 
0.642719 -0.353423 8.83628 76 47 51 
0.517015 -2.22299 7.06394 49 30 0 
0.517015 -2.22299 7.06394 49 30 0 
0.521158 -2.18453 7.0822 94 78 53 
0.663957 0.894153 9.02575 150 87 95 
0.522785 -2.23597 7.07074 198 177 114 
0.523072 -3.45717 7.0581 57 103 56 
0.687447 0.758948 9.04726 157 100 106 
0.533117 -3.20111 7.01143 206 66 75 
0.533117 -3.20111 7.01143 206 66 75 
0.680784 -0.0835809 8.84863 92 90 78 
0.647283 1.0851 8.26027 108 88 35 
0.556261 -2.14402 7.08837 44 15 9 
0.693415 0.863963 8.82278 134 91 100 
0.649967 1.08989 8.23334 217 200 130 
0.715052 0.301404 9.02443 36 26 37 
0.646541 1.11783 8.1218 79 72 0 
0.557383 -3.0168 6.93468 228 195 186 
0.64571 1.16713 7.97138 248 218 180 
0.595771 -1.73635 7.26312 53 15 2 
0.660668 1.13409 7.97685 29 22 0 
0.581419 -3.24588 7.00203 238 214 178 
0.59527 -3.24801 7.05877 249 203 179 
0.682715 1.14691 7.97645 207 181 148 
0.682715 1.14691 7.97645 207 181 148 
0.686009 1.1324 7.99281 45 35 0 
0.779773 0.736744 9.0442 127 75 79 
0.60302 -2.99801 6.94857 129 43 92 
0.621277 -3.77861 7.13295 229 208 177 
0.606737 -2.95382 6.95554 246 208 195 
0.606737 -2.95382 6.95554 246 208 195 
0.607167 -2.68476 6.9413 242 220 197 
0.726854 1.06424 8.2009 53 34 36 
0.705913 1.19789 7.95419 233 205 181 
0.706272 1.19731 7.95231 233 205 181 
0.631158 -2.28432 7.08261 157 148 119 
0.809248 0.896361 9.07209 132 68 84 
0.818538 0.635406 9.06861 56 51 55 
0.742171 1.09958 8.20074 100 96 95 
0.646682 -3.71104 7.09203 81 103 64 
0.723581 1.18321 7.94088 232 214 178 
0.723581 1.18321 7.94088 232 214 178 
0.834055 0.759764 9.11862 197 143 109 
0.819293 0.512522 8.99227 150 72 88 
0.731455 1.26975 8.00991 86 64 25 
0.654568 -2.32005 7.06969 91 80 48 
0.660506 -3.78474 7.12916 174 102 90 
0.642806 -2.67597 6.94213 128 81 91 
0.660807 -3.86325 7.1102 233 210 179 
0.846929 0.605541 9.05341 72 72 72 
0.753281 1.26639 8.02431 48 33 14 
0.753281 1.26639 8.02431 48 33 14 
0.853551 0.632762 9.04968 158 150 137 
0.67405 -3.67893 7.0898 57 98 58 
0.67405 -3.67893 7.0898 57 98 58 
0.679763 -3.79389 7.11711 206 28 40 
0.679763 -3.79389 7.11711 206 28 40 
0.770682 1.27126 8.03787 161 135 102 
0.678341 -2.31119 7.05801 43 33 0 
0.851678 -0.480577 8.83524 116 115 110 
0.690133 -3.94105 7.15695 228 210 190 
0.695632 -3.85519 7.13678 234 203 172 
0.695186 -2.30919 7.04574 209 193 141 
0.700466 -2.2968 7.09871 255 255 177 
0.804164 1.1854 8.10706 212 174 13 
0.822475 1.09926 8.25705 238 185 81 
0.871696 0.321688 8.73281 135 123 107 
0.742654 -3.6691 7.15474 223 198 168 
0.848763 1.13633 8.16169 224 199 145 
0.74978 -3.66657 7.10291 51 34 26 
0.892198 1.11482 8.23339 183 68 61 
0.943732 0.302681 8.68905 38 24 11 
0.943732 0.302681 8.68905 38 24 11 
0.765077 -2.55752 7.02418 164 143 116 
0.913117 1.11901 8.20699 87 71 0 
0.795945 -2.56918 7.01413 234 211 177 
1.03915 0.625593 9.06699 184 159 128 
0.93794 1.28434 8.02435 103 86 68 
0.882369 -1.7048 7.41103 200 157 26 
0.85257 -2.70049 7.06078 238 212 175 
0.889149 -1.84855 7.31379 199 163 15 
0.889149 -1.84855 7.31379 199 163 15 
0.987915 1.29773 8.04753 216 140 65 
0.875704 -2.74641 7.09373 231 195 183 
0.885571 -2.64252 7.13759 147 50 93 
0.892562 -2.74366 7.122 91 31 57 
0.893377 -2.8268 7.13365 98 97 105 
0.915158 -2.60915 7.19676 226 201 161 
1.07122 1.1036 8.37259 67 26 20 
0.930868 -2.69539 7.21896 98 69 51 
0.939418 -2.7228 7.2495 214 189 169 
1.10524 1.1456 8.21067 61 47 20 
1.12131 1.15756 8.11394 223 192 13 
1.03704 -2.28371 7.4473 174 157 113 
1.01789 -1.53757 7.22934 159 145 82 
1.05747 -2.3025 7.46391 105 82 12 
1.04521 -1.58294 7.18418 77 63 16 
1.18963 1.14557 8.18316 206 196 160 
1.04736 -1.91661 7.18582 118 107 41 
1.05036 -1.9275 7.15699 124 107 25 
1.20712 1.15439 8.15552 217 192 170 
1.20571 1.17037 8.07951 72 43 0 
1.20571 1.17037 8.07951 72 43 0 
1.07424 -1.84671 7.14241 140 118 0 
1.07992 -1.58558 7.1778 86 69 15 
1.0825 -1.59799 7.15803 155 140 75 
1.08436 -1.92721 7.16636 203 171 26 
1.1145 -2.13808 7.35755 160 118 6 
1.07804 -1.81035 7.09288 127 105 0 
1.09613 -1.59307 7.1751 104 88 0 
1.12383 -2.18576 7.33873 131 90 11 
1.27853 1.05182 8.31284 116 100 77 
1.27853 1.05182 8.31284 116 100 77 
1.09682 -1.62889 7.12463 168 145 67 
1.10186 -1.74324 7.10495 154 135 33 
1.10285 -1.81035 7.10142 153 129 29 
1.28873 1.15097 8.28935 220 187 22 
1.11305 -1.73982 7.09365 149 126 24 
1.28707 1.17088 8.1444 126 104 3 
1.3263 1.12024 8.28189 86 55 53 
1.15722 -1.94726 7.18216 245 213 34 
1.16424 -1.54712 7.21175 220 191 55 
1.19257 -1.7591 7.15183 158 123 21 
1.19631 -1.61296 7.15965 213 184 44 
1.21634 -2.17148 7.24833 188 157 14 
1.36126 1.31784 8.0599 151 125 92 
1.3847 -3.59539 8.15127 160 151 134 
1.70248 3.49503 9.97624 187 174 155 
1.24732 -2.20597 7.23157 215 189 78 
1.26694 -1.96916 7.33388 243 215 10 
1.24748 -1.60978 7.18979 223 188 24 
1.25692 -2.21328 7.22212 137 109 0 
1.27928 -0.752456 7.29552 194 154 84 
1.41228 1.3353 8.04894 115 62 22 
1.45889 1.05869 8.25987 133 111 97 
1.30121 -1.63346 7.21829 230 200 8 
1.77007 2.72828 9.6837 161 151 141 
1.51386 1.32266 8.28462 142 92 85 
1.53439 1.30839 8.32972 120 91 77 
1.34353 -0.639878 7.18654 245 209 113 
1.56993 1.30281 8.3919 140 86 74 
1.34362 -1.06364 7.17395 214 163 72 
1.35057 -0.647081 7.18816 121 100 53 
1.60871 1.31282 8.37537 87 21 23 
1.53149 1.37868 7.95776 83 40 23 
1.57161 1.34518 8.13111 179 129 92 
1.88832 2.66014 9.73201 184 170 157 
1.40969 -1.79169 7.17593 115 85 12 
1.63497 1.3057 8.31826 188 87 95 
1.59949 1.35193 8.11224 197 141 108 
1.41902 -1.0761 7.14396 83 58 17 
1.42372 -1.85252 7.1216 118 71 0 
1.42372 -1.85252 7.1216 118 71 0 
1.4341 -2.09851 7.15886 217 192 110 
1.41856 -1.36644 7.07779 167 102 0 
1.42522 -1.8311 7.11161 226 181 54 
1.44215 -1.88602 7.15544 223 185 26 
1.44526 -2.07303 7.16941 143 122 15 
1.43638 -1.20172 7.10962 159 137 96 
1.4602 -2.06888 7.21746 130 109 18 
1.43339 -1.43518 7.07963 172 101 11 
1.43154 -1.63036 7.06911 198 141 0 
1.45637 -2.08254 7.18328 180 157 81 
1.44858 -1.83796 7.12633 111 56 17 
1.45969 -2.10929 7.17124 195 174 67 
1.47023 -2.04896 7.21502 220 191 51 
1.46162 -2.0724 7.17902 126 105 12 
1.46232 -2.13737 7.17822 231 206 77 
1.44551 -1.50741 7.0829 182 104 0 
1.44735 -1.54099 7.08715 188 113 0 
1.43748 -1.4331 7.03804 229 174 58 
1.46006 -1.24178 7.12429 56 47 30 
1.46438 -2.06592 7.14991 179 162 108 
1.47625 -2.17876 7.20033 151 104 0 
1.47625 -2.17876 7.20033 151 104 0 
1.71382 1.11392 8.35227 145 128 112 
1.45528 -1.6689 7.07948 120 61 21 
1.47699 -2.13831 7.17953 109 74 0 
1.90509 0.936915 9.24172 178 166 142 
1.47961 -2.10235 7.1685 35 18 2 
1.64813 4.05617 7.99313 53 49 50 
1.89992 0.269163 9.15274 185 168 140 
1.48823 -2.11862 7.17267 228 202 65 
1.87301 -0.338707 8.93422 111 99 87 
1.67424 4.05337 7.99517 148 141 131 
1.51119 -2.13349 7.16589 233 204 16 
1.70108 1.33077 8.01626 144 55 23 
1.50234 -1.47567 7.0781 228 187 105 
1.9196 -0.431769 9.01946 112 99 82 
1.9196 -0.431769 9.01946 112 99 82 
1.51733 -1.79601 7.11855 9 5 2 
1.51478 -1.46709 7.08815 15 0 0 
1.51558 -1.46725 7.08837 17 6 10 
1.49754 -1.5662 6.94197 8 8 8 
1.74665 4.10402 8.02088 111 103 100 
1.71619 1.34877 7.84283 140 55 24 
2.03379 -0.724097 8.88788 170 146 118 
2.07815 -0.833984 8.90072 164 141 100 
1.66097 -1.69595 7.02613 57 58 42 
1.66097 -1.69595 7.02613 57 58 42 
2.00437 2.55225 8.47058 31 37 25 
2.00437 2.55225 8.47058 31 37 25 
1.94292 -3.61961 8.16169 90 73 57 
1.88735 1.15563 7.9407 132 115 95 
1.65454 -1.53661 6.94481 90 96 70 
1.99162 -3.55237 8.18133 191 172 132 
2.01017 2.16623 8.26034 192 179 163 
2.00014 -3.56339 8.21309 195 176 134 
2.04172 2.4229 8.38116 196 180 164 
2.01883 -3.60168 8.24564 68 51 41 
1.73847 -1.80159 7.07585 15 17 3 
1.77731 -1.64989 6.87826 45 46 32 
2.06605 -2.71193 7.75782 224 201 167 
2.08788 -2.81043 7.72974 47 41 27 
2.09792 -2.75868 7.74671 42 43 37 
2.10716 -2.63779 7.77921 51 60 57 
2.10649 -2.83452 7.73533 138 131 125 
2.10649 -2.83452 7.73533 138 131 125 
2.1095 -2.95815 7.74742 54 45 40 
2.10947 -2.81841 7.74655 132 128 117 
2.12041 -2.7421 7.72753 126 121 115 
2.13656 -2.93666 7.74529 74 65 60 
2.13281 -2.86184 7.7188 92 86 72 
2.14631 -2.67008 7.73996 32 28 27 
3.04844 7.23969 10.9583 149 136 127 
2.14594 -2.74272 7.72784 114 111 106 
2.15274 -2.71846 7.73956 131 126 120 
2.15373 -2.92138 7.71985 49 31 31 
2.1698 -2.79402 7.73271 147 137 127 
2.17669 -2.96336 7.70813 51 42 25 
2.20183 -2.70083 7.78229 25 23 24 
2.2341 0.975207 7.87265 75 56 39 
2.20654 -2.79466 7.75157 145 138 128 
2.21823 -2.70705 7.75823 77 71 73 
2.3071 1.01124 8.02886 199 183 158 
2.23831 -2.80754 7.75566 36 27 28 
2.39116 -3.79238 8.26335 70 65 61 
2.27798 -2.81031 7.78519 77 63 63 
2.27798 -2.81031 7.78519 77 63 63 
2.2709 -2.84656 7.75999 164 154 144 
2.11668 -0.631165 7.21729 1 9 0 
2.29649 -2.61573 7.80134 208 191 171 
2.29069 -2.95728 7.75849 174 158 143 
2.29576 -2.87106 7.76009 152 141 135 
2.29767 -3.87489 7.75945 9 10 12 
2.29767 -3.87489 7.75945 9 10 12 
2.3094 -2.79613 7.77788 78 73 69 
2.31549 -2.68781 7.79528 103 97 97 
2.30559 -2.88233 7.75514 66 52 41 
2.32769 -2.74653 7.78842 49 47 50 
2.34772 -2.91057 7.78925 155 143 127 
2.34385 -3.01067 7.76391 227 212 189 
2.33987 -4.07896 7.72968 0 1 3 
2.21914 -0.635416 7.34165 124 132 117 
2.34214 -3.99668 7.71754 73 73 65 
2.37564 -3.04486 7.77288 61 58 53 
2.38274 -2.98021 7.76417 79 74 70 
2.38274 -2.98021 7.76417 79 74 70 
2.3444 -2.67919 7.59262 28 26 31 
2.38651 -3.48734 7.70997 49 41 38 
2.42171 -3.01327 7.77166 218 199 166 
2.42171 -3.01327 7.77166 218 199 166 
2.39619 -2.8819 7.66699 34 26 24 
2.22646 -1.76912 7.11048 22 26 11 
2.53828 -3.66214 8.03901 152 144 131 
2.42245 -0.710103 7.54704 32 30 7 
2.45358 -0.352587 7.62617 41 39 18 
2.45454 -0.3525 7.62809 41 39 18 
2.46878 -2.87104 7.66535 110 97 81 
2.47493 -2.89596 7.67422 40 31 22 
2.59364 -3.26758 8.00956 111 32 87 
2.49365 -4.09454 7.69527 4 2 5 
2.46236 -0.572543 7.59629 202 187 164 
2.53283 -2.43625 7.76263 214 184 156 
2.59869 -3.48616 7.90419 95 26 70 
2.61325 -3.50609 7.91217 99 21 73 
2.54065 0.0046062 7.69999 34 41 25 
2.60478 -3.51519 7.87146 113 25 86 
2.50025 -0.787336 7.55446 192 183 154 
2.61214 -4.16585 7.87214 125 51 104 
2.5918 -3.76079 7.79177 165 119 129 
2.60145 -3.8432 7.7781 157 114 123 
2.60145 -3.8432 7.7781 157 114 123 
2.61151 -0.00873703 7.77563 207 194 162 
2.6165 -0.133437 7.7705 31 35 20 
2.60597 -0.315423 7.73899 73 80 64 
2.54512 -0.908058 7.54076 98 101 82 
2.56626 -0.81083 7.58979 203 179 155 
2.60333 -0.289885 7.69515 191 190 169 
2.60333 -0.289885 7.69515 191 190 169 
2.48036 -1.28138 7.28947 85 81 56 
2.66476 -0.185367 7.81129 38 39 25 
2.66504 -0.165605 7.80253 199 197 174 
2.67148 -0.163921 7.81962 200 196 171 
2.62451 -0.75538 7.66318 199 195 166 
2.65169 -0.743619 7.70298 49 51 30 
2.6804 -0.0980487 7.77455 206 187 157 
2.66744 -0.755734 7.69223 202 189 172 
2.66744 -0.755734 7.69223 202 189 172 
2.67784 -0.314528 7.71035 34 38 24 
2.68322 -0.689107 7.71892 60 63 42 
2.72442 -0.231146 7.75386 32 40 25 
2.69862 -0.712977 7.67944 209 188 171 
2.70751 -0.818524 7.66832 206 190 164 
2.73986 -0.750292 7.7006 213 192 171 
2.72112 -0.786665 7.64454 213 189 163 
2.58322 -1.99735 7.24315 35 51 22 
2.79742 -0.19045 7.75208 211 189 165 
2.89156 -1.85686 7.98914 77 80 53 
2.91898 -1.70152 8.06163 56 73 31 
2.91898 -1.70152 8.06163 56 73 31 
2.64839 -1.31916 7.31174 213 197 163 
2.81321 -0.340984 7.7184 41 53 39 
2.81321 -0.340984 7.7184 41 53 39 
2.6636 -2.02323 7.24875 216 202 163 
2.65348 -2.01883 7.22075 220 200 165 
2.98745 -1.82966 8.01401 53 59 31 
