ply                 
format ascii 1.0    
element vertex 1030
property float x    
property float y    
property float z    
property uchar red  
property uchar green
property uchar blue 
end_header          
-2.17619 -2.48538 7.08688 157 48 87 
-2.1496 -2.45614 7.13827 170 51 89 
-2.38634 3.58422 8.05092 53 62 69 
-2.54761 3.56854 8.62535 116 205 247 
-2.08406 1.17859 7.07517 173 210 239 
-2.36208 3.59467 8.02663 155 141 130 
-2.07665 1.1793 7.1074 55 67 83 
-2.34175 3.59645 8.01518 43 52 69 
-2.32339 3.6378 7.99568 81 94 100 
-2.32752 3.62113 8.09565 22 30 51 
-2.44981 3.50864 8.51875 83 172 204 
-2.30589 3.65849 8.10298 10 22 38 
-2.39008 3.5328 8.43289 152 211 245 
-2.24183 3.70815 7.94569 35 48 57 
-2.29162 3.6923 8.12365 21 31 43 
-2.28952 3.67251 8.13829 130 142 158 
-2.192 3.80996 7.79664 17 30 38 
-2.28524 3.66987 8.12732 135 147 163 
-2.27864 3.72327 8.1203 69 79 91 
-2.42841 3.48576 8.64922 153 182 216 
-2.20158 3.81809 7.85107 89 104 109 
-2.38259 3.52403 8.5265 134 146 160 
-2.6304 3.39401 9.40158 87 108 125 
-2.22102 3.78045 7.98537 117 138 143 
-2.50924 3.42359 9.03418 107 195 235 
-2.22051 3.78345 8.0361 71 80 95 
-2.17238 -0.176891 7.91178 88 92 103 
-2.5057 3.43121 9.13647 4 34 42 
-2.27682 3.72825 8.372 5 19 30 
-2.20186 3.75619 8.10459 84 92 105 
-2.17833 3.8118 8.02972 40 56 71 
-2.45648 3.43269 9.04573 96 150 196 
-2.44594 3.43487 9.03835 106 143 185 
-2.24844 3.69483 8.31519 61 74 90 
-2.27019 3.73357 8.41571 47 61 72 
-2.1944 3.78006 8.15031 23 35 49 
-2.44546 3.42965 9.11947 43 115 187 
-2.17696 3.79438 8.14211 87 98 104 
-2.20776 3.77887 8.25624 11 24 43 
-2.2521 3.72046 8.45193 79 91 105 
-2.06276 -0.804277 7.80247 59 54 74 
-2.2303 3.73 8.43831 3 32 48 
-2.15304 3.7846 8.17224 74 110 142 
-2.24247 3.70118 8.53281 101 100 96 
-2.24247 3.70118 8.53281 101 100 96 
-2.11027 3.86167 8.07418 16 38 49 
-2.2168 3.738 8.49153 40 55 60 
-2.26912 0.529927 8.74411 195 195 195 
-2.00504 -0.806076 7.76569 61 29 42 
-2.00695 -0.805989 7.77348 61 29 42 
-1.99528 3.9285 7.78644 38 67 75 
-2.03154 3.89243 7.98763 40 59 74 
-2.0044 -0.124977 7.89926 189 186 205 
-1.95055 -1.02128 7.77137 80 42 53 
-1.95584 -0.97466 7.79991 113 42 50 
-2.23491 3.70013 8.89487 25 38 54 
-1.96957 -1.09564 7.85683 169 172 177 
-1.94418 -0.60062 7.76291 3 43 94 
-1.93835 -0.610346 7.79459 28 76 122 
-1.97861 -0.0760001 7.95679 57 98 130 
-1.97861 -0.0760001 7.95679 57 98 130 
-2.21845 3.72514 8.91091 77 90 106 
-1.99065 3.83418 8.02987 43 71 110 
-1.92739 3.90478 7.77703 52 68 67 
-2.32595 5.62756 9.39662 26 29 44 
-1.86347 3.94652 7.61675 105 129 139 
-2.05291 -1.46046 8.389 154 157 162 
-2.1426 3.74926 8.74857 89 120 140 
-1.89582 -0.788237 7.79339 55 80 100 
-1.89955 -0.990652 7.81564 68 76 87 
-1.89955 -0.990652 7.81564 68 76 87 
-1.92123 3.84754 7.94264 45 77 116 
-1.868 3.8635 7.729 79 158 215 
-2.26733 5.66883 9.39372 125 124 129 
-1.83767 3.85537 7.74439 32 85 137 
-2.03873 3.74052 8.62845 25 28 43 
-2.16755 5.70985 9.16826 131 129 134 
-2.02515 3.73268 8.57789 13 30 58 
-1.98295 3.7215 8.40384 81 126 168 
-2.00237 0.119611 8.50353 156 169 177 
-1.81005 0.937318 7.73058 129 132 139 
-2.03516 3.67307 8.74225 7 18 36 
-1.829 -2.93992 7.89745 119 109 108 
-1.96119 3.71485 8.46659 68 137 196 
-1.75445 -2.43542 7.58448 5 7 22 
-1.77993 -2.5441 7.71884 8 12 24 
-1.93422 3.71124 8.42636 94 146 193 
-1.75975 -2.70379 7.69905 12 16 28 
-1.91322 0.406984 8.40581 102 97 94 
-1.73972 -2.91803 7.68572 15 16 20 
-1.65441 -1.91552 7.32684 45 41 40 
-1.70359 1.01164 7.59136 154 140 131 
-1.70359 1.01164 7.59136 154 140 131 
-1.88787 3.70822 8.47306 83 124 156 
-1.63056 -1.89048 7.3471 37 26 8 
-1.90572 3.62081 8.74998 109 107 110 
-1.64037 0.549842 7.57569 89 84 90 
-1.66006 -2.55719 7.69225 101 104 113 
-1.6326 -2.66212 7.69742 144 147 138 
-1.6055 1.06646 7.63338 40 41 62 
-1.85556 3.71306 8.81998 14 26 40 
-1.73888 3.65024 8.39329 26 38 50 
-1.58253 0.804881 7.67051 33 26 20 
-1.58253 0.804881 7.67051 33 26 20 
-1.57096 1.07999 7.65344 123 119 118 
-1.56394 0.989833 7.65176 147 144 135 
-1.79158 3.61347 8.78703 128 118 117 
-1.79158 3.61347 8.78703 128 118 117 
-1.57185 -2.52299 7.72954 37 41 50 
-1.56195 -2.38111 7.72088 149 158 163 
-1.55212 -2.5296 7.71756 86 93 103 
-1.55131 -2.4523 7.71815 114 124 136 
-1.84587 5.67463 9.19104 169 158 152 
-1.54959 -2.44209 7.73854 86 99 108 
-1.54592 -2.58326 7.73276 69 79 88 
-1.41564 -3.36841 7.18424 166 143 125 
-1.50299 -2.84116 7.72452 137 145 147 
-1.5 -2.88788 7.73858 86 94 107 
-1.5 -2.88788 7.73858 86 94 107 
-1.46382 -2.30869 7.72954 154 166 166 
-1.46483 -2.4773 7.74193 142 155 163 
-1.46483 -2.4773 7.74193 142 155 163 
-1.46383 -2.4575 7.76591 47 66 73 
-1.46191 -2.34248 7.76933 161 161 161 
-1.46191 -2.34248 7.76933 161 161 161 
-1.28778 -1.76526 6.87283 35 35 43 
-1.4511 -2.34344 7.77082 74 80 78 
-1.44121 -2.36855 7.7411 149 164 171 
-1.33341 1.09877 7.18536 10 19 34 
-1.43728 -2.8998 7.77285 31 38 54 
-1.59336 3.62624 8.61541 16 26 38 
-1.59336 3.62624 8.61541 16 26 38 
-1.40988 -2.54199 7.76333 141 156 163 
-1.29934 0.512904 7.16142 217 210 192 
-1.67309 5.64266 9.19816 17 30 39 
-1.23125 -1.89554 6.8335 245 138 68 
-1.30119 0.496186 7.21647 131 128 119 
-1.26498 0.996876 7.03449 18 30 44 
-1.22464 -1.92288 6.83372 180 97 0 
-1.3944 -2.4797 7.76685 55 65 74 
-1.24269 -1.54696 6.95546 9 18 25 
-1.39606 -2.53153 7.79819 45 60 67 
-1.2942 0.646312 7.23893 211 198 182 
-1.28833 0.497489 7.21959 118 115 108 
-1.37439 -2.52255 7.74399 125 142 152 
-1.3663 -2.81328 7.77447 36 46 56 
-1.36832 -2.85881 7.78827 94 100 114 
-1.35549 -2.48721 7.77053 66 84 94 
-1.36026 -2.57074 7.80782 106 123 133 
-1.2507 1.11562 7.20748 97 98 116 
-1.1953 -1.66089 6.9264 198 151 11 
-1.22608 1.18001 7.28148 9 21 33 
-1.20098 0.91065 7.13852 5 14 29 
-1.20098 0.91065 7.13852 5 14 29 
-1.30966 -2.81874 7.78276 171 185 194 
-1.19652 0.911392 7.15764 99 108 123 
-1.50798 3.67341 9.03644 89 62 32 
-1.4152 3.70698 8.50822 98 131 88 
-1.43709 3.69469 8.659 180 162 100 
-1.28728 3.83492 7.76775 177 212 234 
-1.28683 -2.81443 7.77627 51 73 84 
-1.1306 -1.93476 6.91512 171 90 0 
-1.1306 -1.93476 6.91512 171 90 0 
-1.18334 1.09804 7.27067 20 26 40 
-1.26647 -2.49926 7.78802 127 139 139 
-1.26406 -2.81325 7.77666 128 146 148 
-1.11699 -1.92528 6.92809 176 87 0 
-1.24215 3.82683 7.71421 200 232 255 
-1.37634 0.363529 8.63265 179 161 139 
-1.23734 3.83029 7.79111 197 224 245 
-1.37373 3.69211 8.64317 121 120 63 
-1.36535 3.69849 8.60173 139 158 102 
-1.35491 3.70687 8.55386 169 187 165 
-1.22087 -2.49531 7.8041 149 152 159 
-1.37357 0.397884 8.77202 148 141 122 
-1.39487 3.62712 8.91376 125 99 40 
-1.21162 -2.58694 7.81147 43 61 73 
-1.34417 3.68668 8.63398 215 183 82 
-1.21039 -2.56096 7.80824 128 133 129 
-1.35606 3.65625 8.78272 216 180 70 
-1.26597 3.77959 8.24156 189 192 173 
-1.26517 3.77718 8.23757 189 192 173 
-1.29266 0.227132 8.4294 185 168 158 
-1.19551 -2.40359 7.81741 131 135 136 
-1.33778 3.66576 8.72664 155 120 30 
-1.34421 3.64149 8.87621 212 166 55 
-1.3301 3.64145 8.80319 137 100 12 
-1.25778 3.76892 8.3375 33 58 54 
-1.32567 3.67138 8.78033 144 114 42 
-1.28644 0.380227 8.53849 50 32 18 
-1.27714 0.210504 8.48531 94 83 77 
-1.17076 -2.6675 7.82181 134 150 165 
-1.16573 -2.31938 7.80649 55 63 74 
-1.26825 0.407456 8.48381 184 168 145 
-1.31187 3.66937 8.77716 198 172 98 
-1.22251 3.81524 8.20814 140 135 44 
-1.26085 0.212346 8.48875 186 172 159 
-1.25955 3.72672 8.49254 163 166 135 
-1.15431 -2.33111 7.8164 133 136 141 
-1.2088 3.78199 8.19121 183 196 91 
-1.05116 4.42929 7.14442 117 111 121 
-1.27574 3.66482 8.75122 215 186 94 
-1.27574 3.66482 8.75122 215 186 94 
-1.24232 3.71178 8.54312 34 49 46 
-1.1152 3.99101 7.68206 79 79 69 
-1.15641 0.714179 7.97664 220 198 174 
-1.17411 3.81093 8.10647 170 158 120 
-1.21891 3.75933 8.40512 141 143 129 
-1.25245 3.65398 8.68555 132 103 23 
-1.15936 3.80426 8.08743 56 52 14 
-1.23673 3.69578 8.62696 216 185 68 
-1.15117 3.79835 8.04787 134 135 121 
-1.15894 0.607039 8.1493 29 25 26 
-1.22462 3.70178 8.60022 208 184 84 
-1.17023 3.77919 8.23838 195 195 167 
-1.09915 -2.70557 7.84061 92 109 125 
-1.15663 3.78902 8.22314 198 197 169 
-1.13976 3.81145 8.11937 58 57 52 
-1.13976 3.81145 8.11937 58 57 52 
-1.17064 3.74714 8.34628 37 45 24 
-1.09282 -2.37807 7.81176 89 105 121 
-1.11904 0.865101 7.99957 95 24 32 
-1.1312 0.667705 8.0874 196 166 130 
-1.12237 3.81558 8.01866 128 127 109 
-1.19063 3.71268 8.50129 43 52 25 
-1.19063 3.71268 8.50129 43 52 25 
-1.13373 0.630006 8.11423 157 126 105 
-1.11418 0.836194 8.00144 176 143 126 
-1.0854 1.07942 7.89094 183 164 147 
-1.09744 0.875278 8.00371 152 102 41 
-1.10215 0.639839 8.04374 137 102 70 
-1.09556 0.872773 7.99313 158 109 40 
-1.13228 3.75134 8.28961 141 141 113 
-1.09828 3.8011 8.1323 61 59 44 
-1.05409 1.0733 7.85903 108 95 87 
-1.07826 0.66091 8.06303 138 93 62 
-1.04043 1.03396 7.80789 115 106 97 
-1.13213 3.71935 8.47224 41 53 39 
-1.10596 3.76299 8.35098 80 84 61 
-1.06068 3.80226 8.02425 27 38 30 
-1.126 3.70864 8.544 205 186 83 
-1.1127 3.70842 8.47042 138 160 121 
-1.07165 3.78224 8.17567 189 189 165 
-1.07165 3.78224 8.17567 189 189 165 
-1.0621 3.81639 8.1326 135 139 124 
-1.06079 3.80988 8.11885 135 139 124 
-1.01496 0.96985 7.79903 139 119 94 
-1.06491 3.80012 8.18316 135 133 112 
-1.09677 3.71285 8.43548 30 39 36 
-1.0906 3.72934 8.40713 192 191 171 
-1.02108 -2.52756 7.89206 23 36 55 
-1.09368 3.70112 8.45512 17 30 10 
-1.06034 3.77837 8.21969 50 52 41 
-1.02917 0.882407 8.00157 91 27 41 
-1.02917 0.882407 8.00157 91 27 41 
-1.14689 5.64859 8.91117 108 108 118 
-1.12327 3.64202 8.75361 196 162 65 
-1.04439 3.7892 8.14691 185 178 162 
-1.09914 3.69248 8.65729 143 109 19 
-1.03652 3.76312 8.2127 184 187 178 
-1.06121 3.71326 8.46631 38 48 11 
-1.01209 0.661406 8.11934 24 22 33 
-1.07655 3.66842 8.6252 214 178 82 
-1.03998 3.72402 8.39478 21 31 32 
-1.01567 3.76217 8.21543 20 36 35 
-1.01567 3.76217 8.21543 20 36 35 
-0.959611 1.05959 7.81027 33 20 12 
-0.959611 1.05959 7.81027 33 20 12 
-1.01261 3.75196 8.24135 157 166 161 
-1.00135 3.72747 8.34699 129 149 96 
-1.02591 0.443022 8.55583 132 116 101 
-0.942847 -2.79628 7.88645 18 30 44 
-0.85092 -1.86398 7.17285 26 24 25 
-0.993963 3.64596 8.35406 210 168 60 
-0.847163 -1.84666 7.17982 138 70 83 
-0.939432 1.09976 7.95915 46 35 29 
-0.931985 -2.59782 7.89704 24 33 48 
-0.975201 3.67572 8.36222 207 188 129 
-0.980665 3.71236 8.42551 199 191 152 
-0.829483 -1.74825 7.17489 147 72 0 
-0.948885 3.80925 8.29083 145 96 38 
-0.948885 3.80925 8.29083 145 96 38 
-0.954711 3.79566 8.32663 138 99 40 
-0.972883 3.7087 8.48972 126 118 107 
-0.966633 3.73136 8.4518 100 93 77 
-0.948588 3.77904 8.33694 231 184 116 
-0.909961 0.889811 8.01719 97 25 29 
-0.909961 0.889811 8.01719 97 25 29 
-0.941293 3.75368 8.36993 216 201 178 
-0.868294 4.03758 7.76679 233 208 178 
-1.0475 3.58499 9.33583 42 43 63 
-0.908462 3.90595 8.21982 197 162 120 
-0.929833 3.72896 8.45378 90 81 72 
-0.862068 -2.66636 7.89388 101 106 112 
-0.785825 -1.97479 7.26782 24 22 25 
-0.848415 3.99048 7.83771 32 39 45 
-0.848415 3.99048 7.83771 32 39 45 
-0.89132 0.560446 8.32798 203 172 144 
-0.811169 1.18411 7.64134 36 34 35 
-0.876799 0.704821 8.31271 213 183 147 
-0.877052 0.70595 8.31835 213 183 147 
-0.828643 -2.6419 7.92781 9 12 19 
-0.860051 0.734491 8.23431 43 11 0 
-0.868875 0.618379 8.32781 119 89 61 
-0.865421 0.721397 8.30445 54 22 23 
-0.817871 -2.62541 7.90037 149 153 156 
-0.86773 0.590004 8.38858 121 86 54 
-0.811688 3.9361 7.85914 225 209 193 
-0.802784 4.07811 7.79583 16 21 17 
-0.841507 0.714877 8.28851 224 188 136 
-0.846504 0.66901 8.39399 212 182 146 
-0.806814 0.842638 8.03258 176 161 140 
-0.835086 0.739619 8.32058 191 154 102 
-0.823367 3.88746 8.19241 10 7 24 
-0.858438 3.72977 8.53222 113 110 101 
-0.858438 3.72977 8.53222 113 110 101 
-0.801309 3.90313 7.99828 255 244 202 
-0.88334 3.67324 8.80105 188 143 60 
-0.780776 3.98244 7.82239 46 44 45 
-0.826124 0.556466 8.32695 224 196 148 
-0.882413 3.64844 8.93971 121 83 44 
-0.882413 3.64844 8.93971 121 83 44 
-0.756264 1.13259 7.70613 223 208 185 
-0.785681 0.901859 8.06475 82 54 30 
-0.762634 3.98019 7.83265 225 215 180 
-0.766348 -2.79992 7.92745 160 157 148 
-0.766348 -2.79992 7.92745 160 157 148 
-0.741035 1.0934 7.66723 53 41 29 
-0.854838 3.69255 8.84195 136 106 56 
-0.827117 3.74108 8.54501 202 186 163 
-0.816055 3.75697 8.48901 194 179 140 
-0.771793 0.862608 8.07307 88 36 22 
-0.854022 3.65877 8.89693 198 145 67 
-0.760533 3.94765 7.95902 218 209 176 
-0.74411 4.07329 7.78661 18 11 27 
-0.845059 3.7119 8.86044 160 131 87 
-0.79309 0.702125 8.366 152 119 76 
-0.692225 -1.62473 7.30601 21 22 27 
-0.808869 3.73599 8.5336 107 81 30 
-0.794708 3.78644 8.39353 213 171 121 
-0.857017 5.57258 9.11472 16 18 31 
-0.758088 0.882663 8.1446 168 112 61 
-0.741274 -2.85721 7.97156 25 31 31 
-0.827016 3.6998 8.84998 103 82 51 
-0.696534 1.17735 7.51176 102 91 73 
-0.858092 3.63872 9.21257 89 65 39 
-0.809749 3.71802 8.71213 87 64 22 
-0.731915 -2.88733 7.93796 44 44 42 
-0.809188 5.65396 8.79959 15 19 28 
-0.809188 5.65396 8.79959 15 19 28 
-0.814822 3.6977 8.89196 210 157 79 
-0.688828 1.17679 7.57394 223 211 187 
-0.723216 3.91273 7.97714 238 225 193 
-0.720689 3.9408 7.95226 134 136 99 
-0.745975 3.81202 8.2721 121 88 43 
-0.777357 3.72423 8.68499 214 167 63 
-0.755373 3.80587 8.45748 206 156 71 
-0.688743 1.12454 7.72761 225 214 182 
-0.801647 3.71383 9.03178 190 134 51 
-0.768055 3.78962 8.61824 180 144 86 
-0.787474 3.73114 8.8467 115 103 77 
-0.713892 3.89219 8.12985 217 198 156 
-0.742748 3.80071 8.53928 219 166 70 
-0.660608 4.05287 7.62174 222 213 198 
-0.683876 -2.41318 7.91707 118 118 130 
-0.683876 -2.41318 7.91707 118 118 130 
-0.681737 -2.43097 7.92548 135 135 137 
-0.681737 -2.43097 7.92548 135 135 137 
-0.678879 -2.46505 7.93658 22 26 37 
-0.68117 3.95065 7.91904 234 214 187 
-0.672611 -2.49445 7.93639 94 101 109 
-0.753635 3.70203 8.8453 185 149 71 
-0.650074 4.0434 7.66586 40 39 35 
-0.728117 3.7723 8.56313 173 139 76 
-0.644134 -2.03839 7.66275 87 57 46 
-0.667352 -2.51812 7.94569 20 22 34 
-0.742839 3.68379 8.8622 116 81 27 
-0.659201 -2.44957 7.92036 103 107 118 
-0.661143 3.94922 7.92142 229 217 179 
-0.680439 0.803773 8.19486 174 146 122 
-0.65353 -2.49831 7.91743 21 24 31 
-0.691012 0.645576 8.42882 32 33 28 
-0.675557 0.870352 8.2523 167 114 44 
-0.644734 3.97908 7.8602 135 123 81 
-0.645898 3.95246 7.89541 144 137 108 
-0.64583 -2.52784 7.94098 144 144 146 
-0.648309 3.91633 7.95393 241 231 195 
-0.645787 3.94539 7.93767 128 134 100 
-0.609556 -1.65907 7.66652 6 10 21 
-0.732294 3.70577 9.1274 132 134 149 
-0.734958 3.7281 9.16941 133 135 150 
-0.656786 3.90329 8.24684 60 46 19 
-0.66555 3.89145 8.35501 143 98 30 
-0.645055 3.93344 8.20516 71 55 39 
-0.644588 3.93005 8.19974 68 52 39 
-0.650841 3.90675 8.28549 186 150 88 
-0.619407 3.92458 7.92763 97 111 78 
-0.701167 5.55171 9.12934 94 93 101 
-0.622826 3.91543 8.14921 184 174 138 
-0.670083 3.7665 8.81448 194 163 96 
-0.607064 3.91665 8.04577 81 101 74 
-0.624217 0.757733 8.41555 65 44 39 
-0.564892 3.32 7.60868 213 173 51 
-0.646094 3.75866 8.6789 196 162 55 
-0.687902 3.71693 9.27079 75 80 100 
-0.586799 3.88401 7.96658 101 111 59 
-0.669923 3.75721 9.08351 81 83 96 
-0.58057 3.91432 7.9202 224 210 181 
-0.644453 3.77318 8.9164 126 125 141 
-0.59805 3.87894 8.30237 93 47 0 
-0.647619 3.74153 8.98932 28 30 43 
-0.647619 3.74153 8.98932 28 30 43 
-0.615795 3.82363 8.6548 135 89 0 
-0.606368 3.844 8.57429 141 106 14 
-0.59043 3.91496 8.39437 208 158 69 
-0.552693 3.88822 7.94343 42 70 47 
-0.637315 3.71023 9.29757 98 98 124 
-0.52604 3.96301 7.83032 206 172 12 
-0.539518 3.87478 8.06598 54 25 7 
-0.52781 3.8744 8.02001 227 203 167 
-0.562733 3.79956 8.86791 31 30 46 
-0.562733 3.79956 8.86791 31 30 46 
-0.540956 3.85627 8.54619 11 18 24 
-0.557104 3.80552 8.81952 107 103 94 
-0.557104 3.80552 8.81952 107 103 94 
-0.538422 3.81268 8.72328 41 30 26 
-0.531118 3.81908 8.67555 157 145 145 
-0.531118 3.81908 8.67555 157 145 145 
-0.490775 3.88655 8.05069 222 198 27 
-0.475138 3.90518 7.84689 56 89 58 
-0.48882 3.88269 8.11119 96 49 0 
-0.48882 3.88269 8.11119 96 49 0 
-0.536461 5.56519 8.96955 100 99 104 
-0.536461 5.56519 8.96955 100 99 104 
-0.536461 5.56519 8.96955 100 99 104 
-0.512564 3.83952 8.59041 147 143 144 
-0.497443 3.85741 8.5016 142 139 132 
-0.484314 3.84869 8.35314 19 13 0 
-0.484314 3.84869 8.35314 19 13 0 
-0.512869 3.70638 9.15317 108 103 125 
-0.494447 5.60985 8.82617 13 16 25 
-0.464859 3.82281 8.41028 38 36 39 
-0.481825 3.79043 8.80481 166 159 153 
-0.481825 3.79043 8.80481 166 159 153 
-0.430917 3.88677 8.07195 223 200 8 
-0.44438 3.8186 8.39413 31 30 35 
-0.471031 3.76388 8.93546 139 136 153 
-0.457836 3.7767 8.88268 31 35 36 
-0.493357 3.77684 9.61784 25 27 39 
-0.436898 0.946767 8.72424 60 11 14 
-0.450504 3.73604 8.94162 142 140 161 
-0.462697 3.64911 9.4176 47 42 39 
-0.409455 3.74704 8.78824 118 117 112 
-0.388205 3.77882 8.68833 130 130 130 
-0.378735 3.74625 8.68824 152 151 149 
-0.360291 0.741467 8.99119 80 71 64 
-0.31347 3.70593 8.85973 150 113 43 
-0.31347 3.70593 8.85973 150 113 43 
-0.298074 3.7106 8.76525 211 168 55 
-0.26083 1.10267 8.04793 38 24 37 
-0.238411 0.99172 8.1524 33 31 55 
-0.18511 -2.3875 6.76362 161 135 78 
-0.229637 3.91747 8.44164 81 52 46 
-0.179315 -2.27924 6.76506 33 22 28 
-0.176575 -2.3562 6.76007 207 166 78 
-0.210286 0.993914 8.17334 72 67 63 
-0.210286 0.993914 8.17334 72 67 63 
-0.20003 3.93134 7.99991 178 46 41 
-0.175887 -1.59143 7.226 62 66 78 
-0.175887 -1.59143 7.226 62 66 78 
-0.216036 0.794437 8.95682 227 180 154 
-0.194142 1.05199 8.02259 23 37 86 
-0.19087 0.269956 8.89052 157 158 153 
-0.141516 -2.09734 6.84456 189 167 126 
-0.141516 -2.09734 6.84456 189 167 126 
-0.141508 -2.95646 6.90522 56 21 0 
-0.15459 3.94293 7.86355 175 66 43 
-0.126333 -3.22602 6.81612 68 30 21 
-0.126333 -3.22602 6.81612 68 30 21 
-0.126622 3.94708 7.8722 175 64 19 
-0.139448 0.500806 8.94085 192 182 157 
-0.124565 4.00606 7.84138 140 24 25 
-0.124565 4.00606 7.84138 140 24 25 
-0.134686 0.0982411 8.86936 135 137 132 
-0.124419 -0.163833 8.79978 65 65 67 
-0.121339 -0.227658 8.78342 107 108 112 
-0.118297 -0.257154 8.76818 138 139 134 
-0.0900941 -2.23118 6.81938 21 7 0 
-0.0924398 -2.94744 6.90433 72 28 0 
-0.102412 4.02034 7.84279 191 112 107 
-0.101615 1.03362 8.03687 140 138 141 
-0.108505 3.98371 8.79994 66 38 17 
-0.0927965 4.04285 7.86479 205 114 121 
-0.102582 -0.160884 8.80654 86 85 90 
-0.0991443 -0.246258 8.77575 131 133 132 
-0.0991443 -0.246258 8.77575 131 133 132 
-0.0738761 -2.29274 6.82624 35 20 0 
-0.0686988 -2.23695 6.82673 142 125 82 
-0.0823985 4.03932 7.8629 136 45 50 
-0.0894923 4.00757 8.67059 55 37 23 
-0.0652032 -3.01922 6.91622 143 98 65 
-0.0841076 0.631058 8.93399 198 166 151 
-0.0829563 0.586289 8.89213 123 102 111 
-0.0568267 -2.26351 6.82099 34 21 0 
-0.0722368 -0.346991 8.73541 77 54 60 
-0.0722368 -0.346991 8.73541 77 54 60 
-0.0665042 0.443517 8.94253 104 90 115 
-0.0613687 -0.470614 8.69488 77 48 53 
-0.0581394 -0.156859 8.78896 55 55 57 
-0.0581394 -0.156859 8.78896 55 55 57 
-0.0538758 4.10947 7.86675 44 44 34 
-0.0548016 3.92693 8.06853 81 104 110 
-0.0542865 0.409122 8.95081 63 23 47 
-0.0452559 -0.248247 8.77236 135 133 134 
-0.04173 -0.449802 8.70362 93 43 54 
-0.0318649 -2.17321 6.85809 192 177 138 
-0.0400377 -0.3468 8.74239 78 49 53 
-0.0372968 1.02693 8.12862 90 79 75 
-0.0392237 -0.215266 8.77575 88 86 87 
-0.0424822 3.99279 8.84332 52 46 24 
-0.0376278 -0.49515 8.67898 82 47 54 
-0.0283515 -2.27107 6.86947 30 15 12 
-0.0296327 -2.38577 6.9175 15 9 13 
-0.0259466 -3.22179 6.84639 62 19 0 
-0.0275517 4.02312 7.85235 203 128 123 
-0.0228503 -0.343869 8.74366 162 130 135 
-0.0228503 -0.343869 8.74366 162 130 135 
-0.0211799 -0.367587 8.73882 104 40 56 
-0.0121212 -0.186971 8.79879 138 138 136 
-0.00889109 -3.16945 6.8764 84 42 20 
-0.00889109 -3.16945 6.8764 84 42 20 
-0.0105751 -0.44496 8.72968 85 42 51 
-0.00916353 -0.2048 8.77554 141 140 136 
-0.00916353 -0.2048 8.77554 141 140 136 
-0.00501149 -0.345656 8.75203 90 53 60 
9.43223e-05 -0.386815 8.71554 81 55 58 
-0.00181013 4.0644 7.88526 195 114 113 
0.0057666 -2.21709 6.87483 27 15 0 
0.0097018 -0.364604 8.71418 138 130 128 
0.0159972 -0.272674 8.77943 78 79 74 
0.018922 1.03855 8.0981 190 186 177 
0.0174535 4.00132 7.80872 138 17 36 
0.026578 -0.213621 8.79398 84 84 82 
0.026578 -0.213621 8.79398 84 84 82 
0.0293799 -0.478282 8.6606 84 34 46 
0.0293799 -0.478282 8.6606 84 34 46 
0.0359661 -0.181592 8.7975 125 126 121 
0.0359661 -0.181592 8.7975 125 126 121 
0.0399183 -0.449711 8.69155 147 124 130 
0.0393166 0.246474 8.85249 117 30 62 
0.0370317 3.95772 7.91725 74 54 3 
0.0362372 -2.70587 6.92417 22 16 18 
0.0562803 -0.272308 8.7764 135 137 134 
0.0568538 -0.363063 8.74246 161 141 142 
0.0616121 -0.308191 8.76764 134 134 126 
0.0668912 0.318461 8.91992 34 20 35 
0.0771143 -0.378992 8.73406 95 45 56 
0.0793254 -0.18461 8.794 142 143 138 
0.0793254 -0.18461 8.794 142 143 138 
0.0829397 -0.243141 8.76701 134 133 129 
0.0768453 -2.34537 6.89847 255 255 211 
0.0793452 -2.12127 7.02212 87 74 58 
0.102165 -0.209067 8.80563 135 135 133 
0.0825531 -2.36084 6.90035 41 28 0 
0.105828 0.438507 8.93388 167 85 99 
0.0866573 -2.60166 7.0457 34 19 24 
0.109537 0.220355 8.93842 122 38 71 
0.0898478 -2.12155 7.01039 32 17 0 
0.0898523 -2.35053 6.90296 37 21 0 
0.10184 -3.26025 7.90595 57 53 44 
0.120136 -0.237579 8.78013 136 136 134 
0.119142 -0.461893 8.73682 152 125 130 
0.154355 3.54654 9.82563 109 99 89 
0.147955 -0.263706 8.78126 85 85 85 
0.151668 -0.144871 8.81269 147 146 144 
0.157383 -0.206435 8.79642 139 140 134 
0.159779 0.323843 8.92035 32 18 31 
0.159779 0.323843 8.92035 32 18 31 
0.165042 -0.138122 8.83251 29 29 27 
0.171831 -0.437235 8.76794 83 36 44 
0.170444 4.88888 8.48296 85 85 85 
0.16897 4.02416 8.41217 28 26 29 
0.143788 -2.33237 6.96295 38 7 2 
0.173033 4.00154 8.40904 38 32 32 
0.16388 4.10371 7.93042 75 81 69 
0.185898 0.343566 8.92036 92 53 74 
0.174613 3.97491 8.52043 22 12 11 
0.177591 4.0922 8.00773 15 23 12 
0.203839 -0.232404 8.80321 136 137 129 
0.190914 1.21051 8.07612 196 117 104 
0.210754 -0.199744 8.80889 20 20 18 
0.211388 -0.477041 8.71859 101 40 58 
0.21813 0.0765002 8.90006 112 38 63 
0.219701 -0.33649 8.77598 88 58 60 
0.223031 -0.369031 8.81162 90 55 59 
0.232163 -0.397568 8.75175 142 137 131 
0.232163 -0.397568 8.75175 142 137 131 
0.237363 0.401632 8.90346 151 47 84 
0.195925 -2.82784 7.22217 164 141 135 
0.23839 -0.352902 8.75076 155 125 127 
0.247287 -0.375877 8.77094 92 47 54 
0.263289 0.324554 8.89514 34 17 33 
0.261745 -0.12892 8.82323 54 54 52 
0.261468 -0.388792 8.74543 83 42 50 
0.274918 -0.183161 8.80844 137 137 135 
0.280225 -0.348864 8.76323 142 131 129 
0.281563 -0.372483 8.75522 77 55 58 
0.281563 -0.372483 8.75522 77 55 58 
0.289344 -0.193933 8.79275 127 128 123 
0.299208 0.457438 8.9276 120 115 138 
0.300604 0.41605 8.93755 59 25 60 
0.258482 3.99907 7.64831 22 21 17 
0.306655 -0.365506 8.75483 93 52 58 
0.309473 0.371954 8.86689 34 20 33 
0.28824 3.9763 8.15613 118 122 108 
0.265089 -2.65345 7.12215 80 35 56 
0.331067 -0.165598 8.79357 134 137 130 
0.337989 0.347414 8.89613 50 22 36 
0.335132 0.569586 8.83403 191 177 148 
0.335132 0.569586 8.83403 191 177 148 
0.33765 0.88258 8.80065 170 123 117 
0.275457 -2.68321 7.09625 204 181 150 
0.344283 0.299611 8.90283 38 29 46 
0.344878 0.299445 8.90216 38 29 46 
0.351178 0.325192 8.88563 86 73 90 
0.35341 0.389242 8.93318 173 155 143 
0.35341 0.389242 8.93318 173 155 143 
0.353127 0.263851 8.8906 163 163 151 
0.323204 1.16912 8.13553 162 147 128 
0.289334 -2.83225 7.11004 179 137 113 
0.357478 -0.367288 8.75546 151 124 129 
0.361145 -0.12147 8.79584 136 137 132 
0.371464 -0.184891 8.81827 69 69 67 
0.371464 -0.184891 8.81827 69 69 67 
0.373112 0.0169462 8.85974 136 137 129 
0.373112 0.0169462 8.85974 136 137 129 
0.376889 0.184356 8.82953 36 43 69 
0.381558 -0.152277 8.81934 136 137 132 
0.387297 0.510663 8.95398 87 46 64 
0.39047 0.561539 8.97346 115 64 71 
0.309858 -2.80054 7.08913 217 197 162 
0.396592 0.499885 8.96834 89 50 79 
0.314419 -2.5837 7.06048 225 202 170 
0.399737 -0.313651 8.77747 65 45 47 
0.399737 -0.313651 8.77747 65 45 47 
0.404594 -0.338256 8.78526 145 127 127 
0.404594 -0.338256 8.78526 145 127 127 
0.404594 -0.338256 8.78526 145 127 127 
0.404442 -0.361695 8.75953 75 53 55 
0.404442 -0.361695 8.75953 75 53 55 
0.406641 -0.180562 8.80773 60 62 57 
0.373124 1.14269 8.08075 146 119 98 
0.409094 -0.380024 8.77474 138 128 126 
0.329779 -2.8603 7.09344 178 16 29 
0.334246 -3.17038 7.17414 52 35 41 
0.388649 1.1754 8.10119 100 57 41 
0.427026 -0.315721 8.7965 90 61 66 
0.427026 -0.315721 8.7965 90 61 66 
0.433674 -0.154765 8.85559 129 131 126 
0.427818 -0.354384 8.73857 104 58 71 
0.397833 1.21243 8.13231 37 24 18 
0.472123 0.125972 8.8973 28 38 63 
0.376498 -2.53641 7.02521 126 69 86 
0.43648 1.12048 8.07053 56 10 0 
0.477989 -0.336082 8.79113 148 121 128 
0.453077 1.10565 8.07904 220 207 139 
0.405666 -2.09131 7.19078 29 12 0 
0.510898 -0.336902 8.80027 135 97 108 
0.467592 1.15912 8.06035 142 147 53 
0.467592 1.15912 8.06035 142 147 53 
0.416785 -3.09048 7.0523 228 208 173 
0.429582 -3.37072 7.20442 61 94 101 
0.527428 -0.314662 8.84548 79 44 51 
0.428102 -2.10263 7.13934 96 79 59 
0.48559 1.20443 8.09134 137 127 117 
0.48559 1.20443 8.09134 137 127 117 
0.433372 -2.03468 7.16249 169 145 109 
0.492475 1.1816 8.04169 15 0 0 
0.505683 1.11313 8.1147 235 228 158 
0.5013 1.17502 8.05488 196 167 159 
0.502358 1.15718 8.06246 30 12 0 
0.501941 1.13048 8.059 244 228 179 
0.55025 -0.334847 8.81825 136 125 123 
0.262867 -1.34197 4.06649 63 53 0 
0.581992 -0.483321 8.81447 30 32 19 
0.581992 -0.483321 8.81447 30 32 19 
0.592945 -0.331568 8.89218 146 113 120 
0.48404 -1.76137 7.25055 73 39 0 
0.617258 0.965707 9.12629 53 3 14 
0.624521 0.884812 9.06395 170 119 124 
0.492359 -2.31712 7.09232 73 49 3 
0.494737 -2.14385 7.12671 59 44 5 
0.621155 0.0561942 8.92502 44 41 52 
0.572853 1.08412 8.24553 37 17 19 
0.618538 -0.332912 8.86441 99 59 67 
0.618538 -0.332912 8.86441 99 59 67 
0.562418 1.15982 8.05426 255 191 163 
0.511512 -1.75479 7.27957 62 17 0 
0.574709 1.11041 8.11076 188 179 110 
0.506037 -2.42878 7.09781 255 254 204 
0.627145 5.62379 8.75869 58 43 36 
0.654976 0.966318 9.11318 96 36 44 
0.504649 -2.96235 7.00027 150 44 64 
0.52873 -1.7588 7.25748 126 97 55 
0.517204 -2.22564 7.11072 49 30 0 
0.517204 -2.22564 7.11072 49 30 0 
0.521356 -2.18702 7.12893 94 78 53 
0.665234 0.895886 9.07615 150 87 95 
0.535267 -1.71532 7.28233 62 21 3 
0.523002 -2.23868 7.11773 198 177 114 
0.523513 -3.46503 7.10941 57 103 56 
0.688655 0.760518 9.09685 157 100 106 
0.533494 -3.20772 7.06127 206 66 75 
0.533494 -3.20772 7.06127 206 66 75 
0.681688 -0.0821933 8.89611 92 90 78 
0.620722 1.25112 8.0765 81 52 12 
0.648569 1.08821 8.31204 108 88 35 
0.556546 -2.14642 7.13513 44 15 9 
0.694673 0.865932 8.87326 134 91 100 
0.651245 1.09303 8.285 217 200 130 
0.716125 0.302828 9.07298 36 26 37 
0.647817 1.1212 8.17353 79 72 0 
0.779762 3.30454 9.86779 6 8 20 
0.646998 1.17086 8.02329 248 218 180 
0.596148 -1.73744 7.30948 53 15 2 
0.661956 1.13772 8.02854 29 22 0 
0.581964 -3.25282 7.0522 238 214 178 
0.595866 -3.25479 7.10911 249 203 179 
0.684052 1.15059 8.0283 207 181 148 
0.684052 1.15059 8.0283 207 181 148 
0.780999 0.738308 9.09379 127 75 79 
0.603584 -3.00403 6.99793 129 43 92 
0.622151 -3.78809 7.186 229 208 177 
0.616529 -2.2821 7.10924 49 34 11 
0.607266 -2.9595 7.0044 246 208 195 
0.607266 -2.9595 7.0044 246 208 195 
0.607628 -2.68932 6.98914 242 220 197 
0.699415 1.19764 8.0215 19 0 0 
0.728206 1.06737 8.25237 53 34 36 
0.707299 1.2017 8.00612 233 205 181 
0.707666 1.20113 8.00432 233 205 181 
0.631616 -2.28714 7.12955 157 148 119 
0.810545 0.897981 9.12215 132 68 84 
0.625358 -2.62189 7.00557 122 67 70 
0.639443 -2.1717 7.13003 138 117 88 
0.819721 0.636875 9.11773 56 51 55 
0.743561 1.10277 8.25237 100 96 95 
0.647626 -3.72035 7.1448 81 103 64 
0.724991 1.18702 7.99279 232 214 178 
0.724991 1.18702 7.99279 232 214 178 
0.835265 0.761201 9.16783 197 143 109 
0.820463 0.514047 9.04144 150 72 88 
0.732928 1.27364 8.06229 86 64 25 
0.737142 1.25726 8.04729 186 162 128 
0.655086 -2.32302 7.11671 91 80 48 
0.661521 -3.79432 7.18232 174 102 90 
0.658755 -2.15316 7.12734 151 131 106 
0.661896 -3.87358 7.16409 233 210 179 
0.535842 -1.83121 5.79549 84 56 35 
0.848094 0.606995 9.10233 72 72 72 
0.66533 -2.28939 7.13257 42 27 6 
0.66533 -2.28939 7.13257 42 27 6 
0.754765 1.27021 8.07649 48 33 14 
0.754765 1.27021 8.07649 48 33 14 
0.669308 -2.2712 7.133 168 142 115 
0.854719 0.634219 9.0986 158 150 137 
0.675082 -3.68811 7.1425 57 98 58 
0.675082 -3.68811 7.1425 57 98 58 
0.680869 -3.80369 7.17049 206 28 40 
0.680869 -3.80369 7.17049 206 28 40 
0.772193 1.27506 8.09006 161 135 102 
0.696212 -2.01436 7.27878 79 17 20 
0.678927 -2.31419 7.10511 43 33 0 
0.852474 -0.479294 8.88162 116 115 110 
0.691344 -3.95163 7.21122 228 210 190 
0.696828 -3.86533 7.1906 234 203 172 
0.695805 -2.3122 7.09275 209 193 141 
0.80568 1.18891 8.15899 212 174 13 
0.823958 1.10236 8.30867 238 185 81 
0.708671 -2.38027 7.12129 29 17 0 
0.872828 0.323322 8.78168 135 123 107 
0.724348 -2.12533 7.20259 32 12 0 
0.743877 -3.67789 7.2073 223 198 168 
0.850295 1.13963 8.21332 224 199 145 
0.751046 -3.6756 7.15549 51 34 26 
0.875523 1.10608 8.32363 219 149 137 
0.893766 1.11797 8.28498 183 68 61 
0.76357 -2.5008 7.07141 57 38 21 
0.944878 0.304313 8.73772 38 24 11 
0.944878 0.304313 8.73772 38 24 11 
0.76594 -2.56148 7.07195 164 143 116 
0.914709 1.12219 8.25852 87 71 0 
0.789137 -2.55822 7.08167 159 133 108 
0.92794 1.12656 8.28095 245 227 161 
0.796903 -2.57324 7.062 234 211 177 
1.04036 0.627032 9.11599 184 159 128 
0.81337 -2.49119 7.08568 66 48 26 
0.925105 1.31208 8.00162 209 167 91 
0.939693 1.28816 8.07645 103 86 68 
0.833359 -2.57504 7.12767 178 89 85 
0.883276 -1.70567 7.45756 200 157 26 
0.853711 -2.70495 7.10914 238 212 175 
0.890111 -1.84989 7.36048 199 163 15 
0.890111 -1.84989 7.36048 199 163 15 
0.989774 1.30158 8.09991 216 140 65 
0.876907 -2.75095 7.14225 231 195 183 
0.886736 -2.64653 7.18574 147 50 93 
0.893778 -2.74806 7.17039 91 31 57 
0.894645 -2.83155 7.18248 98 97 105 
1.23721 3.34303 9.90029 3 7 16 
1.07291 1.10644 8.42384 67 26 20 
0.932139 -2.69938 7.26737 98 69 51 
0.940706 -2.7268 7.29801 214 189 169 
1.01805 1.2896 7.895 128 105 53 
1.10709 1.14883 8.26234 61 47 20 
1.12318 1.1609 8.16531 223 192 13 
1.0383 -2.28588 7.4947 174 157 113 
1.0588 -2.30473 7.51154 105 82 12 
1.31357 0.807636 9.28654 172 146 123 
1.04651 -1.5839 7.23046 77 63 16 
1.19158 1.1488 8.23463 206 196 160 
1.04872 -1.91838 7.23257 118 107 41 
1.05174 -1.92935 7.20373 124 107 25 
1.20909 1.15766 8.20696 217 192 170 
1.20775 1.17383 8.13112 72 43 0 
1.20775 1.17383 8.13112 72 43 0 
1.07023 -1.95635 7.19216 139 102 0 
1.07023 -1.95635 7.19216 139 102 0 
1.07566 -1.84838 7.18899 140 118 0 
1.08131 -1.58659 7.22425 86 69 15 
1.08389 -1.59903 7.20432 155 140 75 
1.0858 -1.92904 7.21306 203 171 26 
1.11593 -2.14007 7.40461 160 118 6 
1.07949 -1.81201 7.13941 127 105 0 
1.09754 -1.59408 7.22143 104 88 0 
1.12531 -2.18794 7.38596 131 90 11 
1.28043 1.05465 8.36386 116 100 77 
1.28043 1.05465 8.36386 116 100 77 
1.09828 -1.63006 7.171 168 145 67 
1.10337 -1.74474 7.15153 154 135 33 
1.10435 -1.81199 7.1479 153 129 29 
1.29072 1.15399 8.34066 220 187 22 
1.11456 -1.74131 7.14006 149 126 24 
1.32831 1.12322 8.3331 86 55 53 
1.32474 1.16133 8.29685 165 143 0 
1.15884 -1.94916 7.22908 245 213 34 
1.16579 -1.54801 7.25817 220 191 55 
1.30704 1.31815 8.10543 32 22 13 
1.19423 -1.76056 7.19833 158 123 21 
1.19799 -1.6141 7.20621 213 184 44 
1.2181 -2.17386 7.29563 188 157 14 
1.3636 1.32159 8.11185 151 125 92 
1.38672 -3.59951 8.20241 160 151 134 
1.70541 3.49783 10.0362 187 174 155 
1.25881 -2.21585 7.26951 137 109 0 
1.28102 -0.751745 7.34198 194 154 84 
1.26558 -2.2143 7.25363 222 194 58 
1.46101 1.06157 8.31075 133 111 97 
1.30306 -1.63457 7.26485 230 200 8 
1.77245 2.73037 9.73965 161 151 141 
1.51623 1.32598 8.33654 142 92 85 
1.53671 1.31156 8.38138 120 91 77 
1.3455 -0.638996 7.23302 245 209 113 
1.57223 1.30585 8.44353 140 86 74 
1.34554 -1.06358 7.22014 214 163 72 
1.38865 -1.42466 7.41644 183 153 33 
1.35256 -0.646215 7.23471 121 100 53 
1.61108 1.31592 8.42706 87 21 23 
1.5342 1.38272 8.0098 83 40 23 
1.57414 1.34874 8.18275 179 129 92 
1.3878 -1.22756 7.15165 167 104 0 
1.41185 -1.79328 7.22271 115 85 12 
1.63741 1.30887 8.36987 188 87 95 
1.60211 1.35559 8.16407 197 141 108 
1.42113 -1.07612 7.19023 83 58 17 
1.41405 -1.31494 7.13193 162 93 0 
1.42906 -1.11244 7.20421 79 61 37 
1.42598 -1.85436 7.16841 118 71 0 
1.42598 -1.85436 7.16841 118 71 0 
1.42074 -1.36713 7.12401 167 102 0 
1.42749 -1.8329 7.15841 226 181 54 
1.44443 -1.8879 7.20235 223 185 26 
1.4476 -2.07538 7.21663 143 122 15 
1.43432 -1.35733 7.13595 207 166 52 
1.46058 -2.11598 7.27063 53 32 0 
1.43858 -1.20203 7.15594 159 137 96 
1.4625 -2.07112 7.26463 130 109 18 
1.43561 -1.43603 7.12591 172 101 11 
1.43383 -1.63172 7.11568 198 141 0 
1.45091 -1.83977 7.17318 111 56 17 
1.46208 -2.11175 7.21855 195 174 67 
1.47253 -2.05112 7.26203 220 191 51 
1.464 -2.07475 7.22628 126 105 12 
1.46471 -2.13989 7.22555 231 206 77 
1.44779 -1.50845 7.12934 182 104 0 
1.44962 -1.54209 7.13355 188 113 0 
1.43977 -1.43401 7.08434 229 174 58 
1.46229 -1.24216 7.17055 56 47 30 
1.47867 -2.18136 7.24777 151 104 0 
1.47867 -2.18136 7.24777 151 104 0 
1.71613 1.11668 8.40305 145 128 112 
1.4576 -1.67033 7.126 120 61 21 
1.47942 -2.14083 7.22685 109 74 0 
1.90629 0.938061 9.29034 178 166 142 
1.49796 -2.06469 7.29197 65 49 13 
1.48204 -2.1048 7.21576 35 18 2 
1.90074 0.27024 9.19931 185 168 140 
1.4907 -2.12112 7.22002 228 202 65 
1.68014 4.068 8.06062 148 141 131 
1.7039 1.33452 8.06779 144 55 23 
1.92021 -0.430619 9.06466 112 99 82 
1.92021 -0.430619 9.06466 112 99 82 
1.51719 -1.46803 7.13452 15 0 0 
1.51802 -1.46821 7.13487 17 6 10 
1.50009 -1.56757 6.98825 8 8 8 
1.75279 4.11879 8.08662 111 103 100 
1.7192 1.35286 7.89423 140 55 24 
1.5441 -1.65013 7.05545 14 13 11 
2.03455 -0.722972 8.93316 170 146 118 
2.07871 -0.832837 8.94519 164 141 100 
1.66384 -1.69757 7.07263 57 58 42 
1.66384 -1.69757 7.07263 57 58 42 
2.00826 2.55782 8.52709 31 37 25 
2.00826 2.55782 8.52709 31 37 25 
1.94591 -3.62387 8.21272 90 73 57 
1.65749 -1.53795 6.9912 90 96 70 
1.68233 -1.41331 6.99104 79 84 61 
1.99468 -3.55646 8.2324 191 172 132 
2.01391 2.17133 8.31504 192 179 163 
2.00315 -3.56737 8.26412 195 176 134 
2.02187 -3.60568 8.29681 68 51 41 
1.74154 -1.80345 7.12268 15 17 3 
1.78071 -1.65166 6.92472 45 46 32 
2.06916 -2.71473 7.80627 224 201 167 
2.09122 -2.81367 7.77868 47 41 27 
2.10119 -2.7617 7.79542 42 43 37 
2.11025 -2.64035 7.82747 51 60 57 
2.10988 -2.83782 7.78434 138 131 125 
2.10988 -2.83782 7.78434 138 131 125 
2.11304 -2.96185 7.79695 54 45 40 
2.11285 -2.82165 7.79558 132 128 117 
2.12375 -2.74514 7.77622 126 121 115 
2.14004 -2.94021 7.79446 74 65 60 
2.13638 -2.86535 7.7681 92 86 72 
2.14959 -2.67286 7.78836 32 28 27 
2.14936 -2.74579 7.77664 114 111 106 
2.15609 -2.72139 7.78814 131 126 120 
2.16675 -2.68929 7.8181 81 77 76 
2.15731 -2.92499 7.76905 49 31 31 
2.17328 -2.79722 7.78157 147 137 127 
2.187 -2.69409 7.80015 105 103 106 
2.18042 -2.96719 7.75759 51 42 25 
2.20517 -2.7036 7.83078 25 23 24 
2.23755 0.978411 7.92262 75 56 39 
2.21004 -2.7978 7.80038 145 138 128 
2.22165 -2.70992 7.80677 77 71 73 
2.24186 -2.8107 7.80446 36 27 28 
2.39507 -3.79712 8.31527 70 65 61 
2.28152 -2.81337 7.8339 77 63 63 
2.28152 -2.81337 7.8339 77 63 63 
2.27455 -2.84984 7.80893 164 154 144 
2.29993 -2.61827 7.84973 208 191 171 
2.29448 -2.9609 7.8077 174 158 143 
2.29951 -2.87444 7.80917 152 141 135 
2.30293 -3.88259 7.81311 9 10 12 
2.30293 -3.88259 7.81311 9 10 12 
2.31299 -2.79917 7.82653 78 73 69 
2.31894 -2.69048 7.84354 103 97 97 
2.30937 -2.88577 7.80425 66 52 41 
2.33124 -2.7494 7.8369 49 47 50 
2.35156 -2.91402 7.83848 155 143 127 
2.22263 -0.634606 7.38826 124 132 117 
2.34784 -4.00526 7.77185 73 73 65 
2.37971 -3.04878 7.8225 61 58 53 
2.38675 -2.98392 7.81352 79 74 70 
2.38675 -2.98392 7.81352 79 74 70 
2.34841 -2.68248 7.64117 28 26 31 
2.39141 -3.49328 7.76153 49 41 38 
2.42578 -3.01705 7.82101 218 199 166 
2.42578 -3.01705 7.82101 218 199 166 
2.4004 -2.88566 7.71624 34 26 24 
2.2306 -1.77093 7.15722 22 26 11 
2.54269 -3.66719 8.09024 152 144 131 
2.56248 -3.24386 8.0283 172 116 129 
2.42583 -0.70939 7.59348 32 30 7 
2.45694 -0.351337 7.67299 41 39 18 
2.45791 -0.351249 7.67495 41 39 18 
2.47307 -2.87473 7.71438 110 97 81 
2.49657 -4.13884 7.77692 129 119 118 
2.47932 -2.89978 7.72357 40 31 22 
2.59773 -3.27137 8.0594 111 32 87 
2.50006 -4.10387 7.75018 4 2 5 
2.46573 -0.571617 7.64285 202 187 164 
2.53652 -2.43842 7.8103 214 184 156 
2.58911 -3.5182 7.91727 112 47 79 
2.60352 -3.49132 7.95542 95 26 70 
2.61803 -3.51118 7.96318 99 21 73 
2.54414 0.00634747 7.74734 34 41 25 
2.60976 -3.52058 7.92281 113 25 86 
2.50374 -0.786751 7.60086 192 183 154 
2.61831 -4.17442 7.92667 125 51 104 
2.5974 -3.76766 7.84439 165 119 129 
2.60731 -3.85059 7.83123 157 114 123 
2.60731 -3.85059 7.83123 157 114 123 
2.61483 -0.00707909 7.82266 207 194 162 
2.61973 -0.131951 7.81717 31 35 20 
2.60675 -0.288576 7.74191 191 190 169 
2.60675 -0.288576 7.74191 191 190 169 
2.48435 -1.28183 7.33553 85 81 56 
2.6279 -0.75472 7.70943 199 195 166 
2.65227 -0.743054 7.74214 49 51 30 
2.655 -0.742932 7.74916 49 51 30 
2.67087 -0.755075 7.73857 202 189 172 
2.67087 -0.755075 7.73857 202 189 172 
2.68658 -0.688349 7.76523 60 63 42 
2.72788 -0.229786 7.80061 32 40 25 
2.70214 -0.712267 7.72584 209 188 171 
2.71095 -0.817955 7.71436 206 190 164 
2.74328 -0.749623 7.74668 213 192 171 
2.72471 -0.786071 7.6908 213 189 163 
2.58806 -1.99961 7.29035 35 51 22 
2.80101 -0.189042 7.7989 211 189 165 
2.89461 -1.8574 8.03511 77 80 53 
2.92172 -1.70172 8.10718 56 73 31 
2.92172 -1.70172 8.10718 56 73 31 
2.63942 -1.98751 7.32874 33 49 20 
2.81678 -0.339777 7.76484 41 53 39 
2.81678 -0.339777 7.76484 41 53 39 
2.66855 -2.02553 7.2958 216 202 163 
2.99059 -1.83016 8.06006 53 59 31 
