ply                 
format ascii 1.0    
element vertex 1319
property float x    
property float y    
property float z    
property uchar red  
property uchar green
property uchar blue 
end_header          
2.34694 4.72559 9.84449 125 103 82 
2.37965 4.76873 9.94005 136 105 87 
2.0757 4.96072 12.4582 174 90 106 
2.15426 -3.19835 13.317 120 102 92 
2.97297 -0.764518 12.6711 48 57 62 
3.00418 -1.10651 12.7772 34 35 39 
3.05787 -1.35535 12.9097 78 77 73 
3.2877 -0.73564 13.0284 36 38 33 
3.61888 -0.373649 12.8404 220 205 184 
0.0223806 4.40817 9.90394 145 104 84 
0.449015 3.06294 11.4838 92 31 62 
0.4451 3.288 11.497 42 50 61 
0.445767 3.30598 11.497 69 77 88 
0.46864 3.08822 11.5029 150 123 138 
0.483724 3.11431 11.5226 90 55 79 
0.489113 2.89556 11.5143 133 128 135 
0.513208 2.92542 11.5282 91 43 67 
0.511739 2.95604 11.5376 96 48 74 
0.5232 3.1114 11.5548 81 49 70 
0.526636 3.04421 11.5537 91 51 75 
0.53078 2.90649 11.5489 132 106 119 
0.530361 3.39884 11.5532 62 75 83 
0.533209 3.25887 11.5552 128 136 147 
0.551907 3.16044 11.6015 130 139 146 
0.564642 3.10914 11.5916 82 48 72 
0.572285 2.91549 11.5865 141 129 143 
0.619077 3.40225 11.6507 70 80 89 
0.626636 3.13024 11.6409 137 130 137 
0.646582 3.03642 11.6603 88 46 68 
0.647662 3.30174 11.6661 97 107 117 
0.67902 3.1446 11.6855 129 139 148 
0.688518 3.33634 11.675 132 140 151 
0.705034 3.06874 11.7062 106 62 85 
0.736303 3.09771 11.7284 77 50 67 
0.75311 2.99353 11.7508 127 138 140 
0.796167 2.87304 11.7766 101 42 72 
0.802328 2.94125 11.7821 87 42 65 
0.823632 3.08252 11.7933 82 49 66 
0.837633 3.29117 11.785 59 66 72 
0.870461 3.33708 11.81 133 144 150 
0.894119 3.05408 11.8412 136 138 135 
0.916243 3.38436 11.821 68 73 79 
1.01668 3.27422 11.8887 110 119 128 
1.01705 3.01248 11.927 103 30 59 
1.05991 4.30184 11.7807 70 48 86 
1.09091 4.23597 11.8111 92 108 142 
1.07052 2.97763 11.9623 74 58 69 
1.11246 3.94514 11.8686 156 162 158 
1.16833 4.17139 11.896 50 36 71 
2.02858 4.97484 10.7799 106 37 42 
2.05275 4.93741 10.7847 114 29 22 
2.15832 4.93441 10.8222 171 174 143 
2.17451 4.98699 10.8217 27 21 21 
2.40272 4.94228 10.8869 97 53 50 
2.42873 4.95561 10.8946 185 141 140 
-0.8462 -0.549357 10.4984 73 86 102 
-0.745148 -0.180732 10.3778 113 126 142 
-0.70502 -0.12117 10.3595 82 94 120 
-0.707533 4.37654 10.2155 145 136 137 
-0.689074 4.15735 10.2431 85 83 97 
-0.694945 4.12301 10.2654 255 254 239 
-0.708455 4.1171 10.298 91 86 92 
-0.687736 -0.32512 10.5195 123 127 136 
-0.673406 -0.286496 10.5146 121 127 143 
-0.651744 -0.269703 10.5325 22 29 45 
-0.627289 -0.224708 10.5221 25 35 45 
-0.701462 -0.534082 10.6573 35 43 54 
-0.636345 -0.248876 10.541 144 148 149 
-0.676105 -0.539551 10.6503 128 137 146 
-0.630109 -0.279547 10.5717 150 154 163 
0.0576809 0.536045 9.43116 28 28 40 
-0.618671 -0.351316 10.5936 56 63 79 
-0.601672 -0.268228 10.5644 28 34 50 
-0.64492 -0.486944 10.6581 177 175 178 
-0.5986 -0.280405 10.5924 161 172 174 
-0.630939 -0.500878 10.6787 107 106 111 
-0.5157 0.125766 10.4745 63 75 99 
-0.615994 -0.590509 10.7288 34 40 52 
-0.470893 0.150141 10.5013 65 77 103 
-0.595392 -0.615772 10.7778 42 45 52 
-0.49173 -0.335404 10.7581 119 121 133 
-0.426404 -0.0401183 10.6484 17 25 48 
-0.486932 -0.38178 10.7738 112 114 129 
-0.820216 -4.03357 11.509 174 114 86 
-0.435171 -0.035615 10.6989 20 27 46 
-0.421228 -0.0978899 10.6961 16 19 38 
-0.527594 -0.611686 10.9095 24 23 39 
-0.421577 -0.127735 10.717 153 152 157 
-0.459521 -0.331235 10.8017 103 107 119 
-0.441693 -0.243196 10.7804 77 85 96 
-0.42326 -0.185416 10.7662 88 93 112 
-0.394503 -0.0989086 10.7167 82 81 97 
-0.474962 4.5076 10.6707 133 128 124 
-0.389748 -0.12101 10.7277 12 15 34 
-0.0208678 4.47894 9.91961 148 114 89 
0.0763653 4.48369 10.381 231 207 183 
0.207973 4.70128 10.3677 188 171 143 
0.202148 4.69308 10.3957 90 83 54 
1.01182 0.684123 8.98841 118 65 25 
0.246569 4.70715 10.3645 25 49 51 
0.517997 -1.40363 10.1087 152 132 123 
0.609511 -1.31419 10.0605 82 55 48 
0.421995 4.56203 10.3238 41 32 33 
0.689565 -1.34378 10.0918 152 120 95 
0.952776 -0.415322 9.65125 69 46 0 
0.771373 -1.25757 10.1286 67 22 1 
0.787817 -1.11793 10.2063 112 104 93 
0.806797 -1.67744 10.2061 150 114 88 
0.783399 -1.20643 10.2463 174 157 150 
1.03081 0.0112841 9.77271 42 30 30 
1.03577 -0.0537622 9.78053 161 151 115 
0.895998 0.828478 10.0878 55 67 93 
1.0448 -0.0591179 9.80755 65 54 34 
0.865798 -1.52421 10.2745 166 164 151 
0.846295 -1.38073 10.3254 35 36 40 
1.09947 -0.197925 9.81099 30 23 13 
1.13583 -0.0480639 9.83884 12 6 18 
0.929214 0.92533 10.3363 9 6 17 
1.13808 -0.176339 9.93533 84 73 28 
1.14063 -0.191863 9.97266 135 117 69 
0.399309 3.36114 11.6003 44 50 64 
1.1604 -0.145188 9.95965 43 30 13 
0.386492 3.56838 11.6257 68 76 89 
0.398505 3.4267 11.6042 44 50 66 
0.403768 3.338 11.6297 44 50 66 
0.40572 3.35359 11.6246 84 90 104 
1.17484 -0.177072 9.96 42 27 0 
0.395014 3.39208 11.6545 124 133 142 
0.4185 3.27117 11.6278 82 89 105 
0.426591 3.31814 11.6461 129 139 151 
0.433409 3.11566 11.6577 79 63 76 
0.448024 3.15677 11.6393 88 50 73 
0.427013 3.08006 11.7008 82 51 69 
1.18334 -0.394119 10.0726 43 25 11 
0.471767 3.33978 11.6327 60 70 79 
0.471735 2.99747 11.6664 99 34 66 
0.477492 3.25454 11.6557 95 105 115 
0.462929 4.27566 11.6721 74 89 128 
0.488114 3.08811 11.6805 72 36 62 
0.477551 3.16422 11.7051 83 39 64 
0.483882 3.45809 11.7073 62 70 83 
0.488724 3.31341 11.7026 128 137 146 
0.504335 3.12098 11.7014 96 26 60 
0.510722 2.99816 11.6927 80 30 59 
1.21747 -0.350117 10.1306 44 20 16 
0.878114 -1.44445 11.0161 147 130 136 
0.50817 4.4643 11.6662 185 185 175 
0.511866 3.26578 11.7113 81 89 102 
0.519106 3.20133 11.7127 130 140 152 
1.03034 -0.992067 10.6602 204 186 176 
0.536857 3.12492 11.7376 130 131 135 
0.529159 3.64169 11.7558 129 139 149 
0.555598 3.33734 11.709 67 71 82 
0.552182 3.33326 11.7274 36 43 53 
0.555012 3.43349 11.742 39 45 57 
0.563928 3.25819 11.7375 72 80 93 
0.553289 3.24685 11.8078 130 137 147 
0.583512 4.37319 11.7282 93 96 131 
0.592157 3.17206 11.7594 130 127 136 
0.571587 3.2772 11.8099 87 97 106 
0.587068 4.32926 11.7552 71 26 65 
1.12408 -1.11433 10.6503 208 199 182 
1.20568 -2.63321 10.511 78 64 63 
0.592874 3.16783 11.8395 94 40 66 
0.974973 -1.76549 11.0887 191 181 172 
0.604304 3.35985 11.8194 114 122 135 
0.60977 3.45956 11.8277 108 118 130 
0.627511 2.99514 11.81 83 44 65 
0.617052 3.37153 11.8237 55 62 78 
1.19574 -0.789137 10.5268 83 27 62 
1.17532 -0.84429 10.5892 198 186 174 
0.623603 3.43979 11.8252 50 58 71 
1.19571 -0.742076 10.5452 139 133 133 
0.646311 3.18592 11.8013 127 138 144 
1.15798 -1.18434 10.6801 199 182 174 
0.651591 3.38669 11.8072 130 134 145 
1.16808 -1.17359 10.6888 231 205 188 
0.662087 4.06467 11.7842 106 20 67 
1.19822 -0.818198 10.6189 85 44 62 
0.671749 2.98853 11.8333 87 38 60 
1.08832 -1.82337 10.9664 59 121 136 
0.663352 3.12173 11.8565 94 45 67 
1.20379 -1.10442 10.6415 178 21 40 
1.07109 -1.62953 11.0169 224 214 204 
1.23088 -0.795922 10.602 205 187 177 
0.675856 3.45488 11.8913 72 80 91 
0.691555 3.47137 11.8737 131 135 147 
0.699153 3.11006 11.887 81 37 60 
0.71332 2.99003 11.8825 92 39 65 
0.727915 4.14807 11.8069 31 18 38 
1.2867 -0.73009 10.568 224 213 195 
0.691039 3.77839 11.9637 26 22 39 
0.743784 3.37795 11.8674 129 139 148 
0.771615 3.26016 11.8184 128 136 149 
1.28184 -1.11519 10.6687 228 216 200 
0.752117 4.38502 11.8499 64 31 58 
0.764897 3.24652 11.8802 83 93 102 
0.762623 3.43063 11.9003 107 110 125 
0.780909 3.45266 11.8979 136 139 146 
1.35118 -0.978854 10.5778 216 200 177 
0.803963 3.34023 11.9149 50 58 69 
0.808776 3.44422 11.9361 119 124 128 
0.861439 3.35299 11.8479 131 140 145 
0.82848 3.3455 11.9444 122 131 136 
0.832662 4.38713 11.9086 53 28 60 
0.856571 3.10618 11.9896 133 133 135 
1.41903 -0.0799602 10.5639 43 16 9 
0.863865 3.34215 11.9809 65 74 79 
1.42323 -0.0097521 10.5781 56 5 14 
1.42656 -0.0696396 10.5917 155 130 99 
1.45708 -0.636455 10.57 148 138 137 
1.44042 -0.103242 10.6018 120 100 65 
1.4556 -0.348262 10.5976 63 41 20 
0.896972 3.4533 12.02 61 70 77 
1.46983 -0.48562 10.5827 180 162 122 
1.46441 -0.455793 10.5985 194 176 128 
0.897274 3.13832 12.0647 147 115 126 
0.923375 3.31719 11.9869 62 71 78 
1.47647 -0.310355 10.5987 142 119 111 
0.925146 3.34317 12.0112 60 70 80 
1.4851 -0.4548 10.5883 79 58 0 
0.937564 3.74962 11.9795 31 34 53 
1.4784 0.0172355 10.5976 161 140 95 
1.47982 -0.467551 10.6187 223 199 137 
0.914212 3.12095 12.0809 102 34 59 
1.47049 0.0333598 10.6293 34 4 0 
1.48847 -0.350141 10.6006 66 39 28 
1.48729 -0.0254659 10.605 40 29 11 
1.48766 -0.431095 10.6319 211 180 74 
0.934016 4.18042 12.055 41 22 44 
0.961402 3.427 12.0103 106 113 121 
0.973239 3.36465 11.9942 129 136 144 
1.51229 -0.14395 10.6014 51 18 13 
1.51746 0.00384958 10.593 31 19 7 
0.978547 3.33274 12.0478 118 126 137 
1.32531 -2.2315 11.2992 237 228 213 
1.52997 -0.120198 10.6089 235 223 173 
0.983539 3.0618 12.0684 104 30 63 
0.994856 3.32823 12.035 72 81 90 
1.54035 -0.0394798 10.6216 101 87 61 
1.53811 -0.107727 10.6335 197 183 157 
1.00331 3.44124 12.0581 122 129 135 
1.55312 -0.120009 10.6079 39 29 2 
1.00764 3.42581 12.0669 58 67 74 
0.999153 3.07086 12.1075 92 58 72 
1.01065 3.0345 12.0862 134 135 140 
1.01374 3.09768 12.0838 127 125 128 
1.02289 3.44013 12.0432 73 76 83 
1.55271 -0.0969678 10.6376 45 35 10 
1.52592 -1.34948 10.7865 122 34 94 
1.55117 0.0664782 10.6507 173 144 114 
1.01852 3.3919 12.08 125 136 142 
1.55645 -0.43837 10.6637 164 144 71 
1.01737 3.34344 12.0936 114 121 131 
1.00095 3.33205 12.1476 127 137 146 
1.02712 3.65066 12.0701 129 138 145 
1.56281 -0.0628795 10.6595 35 22 6 
1.53969 -1.30353 10.7869 187 36 105 
1.54092 -1.26093 10.782 243 230 221 
1.06085 4.17248 11.9713 35 18 34 
1.02251 3.38171 12.1209 122 133 139 
1.57357 0.0418337 10.6378 34 13 0 
1.04239 3.34899 12.1115 65 72 80 
1.04636 3.43869 12.0964 63 72 79 
1.057 3.85667 12.0522 130 134 143 
1.55613 -1.33046 10.8235 248 228 221 
1.07118 4.02419 12.0491 159 163 164 
1.06229 3.3196 12.1483 123 133 142 
1.58783 0.496382 10.6926 62 27 0 
1.60927 -0.0834772 10.6706 50 37 2 
1.60308 -0.294736 10.7071 85 65 28 
1.09209 4.20964 12.0661 167 165 166 
1.62548 -0.304201 10.6968 43 32 2 
1.63378 -0.344188 10.6743 37 24 5 
1.0736 3.11686 12.2297 124 123 128 
1.62634 0.565826 10.6914 125 91 63 
1.66925 -0.0995883 10.6195 47 34 17 
1.13201 5.05663 12.074 114 94 95 
1.13552 3.13146 12.2412 82 40 60 
1.15321 4.38508 12.1403 70 38 77 
1.67229 0.520749 10.7264 73 47 24 
1.67513 0.561989 10.7289 52 21 3 
1.24847 3.71408 11.9789 8 19 39 
1.15915 3.07053 12.3094 82 38 61 
1.68679 0.571246 10.7578 130 102 91 
1.15878 2.88672 12.3267 121 130 135 
1.70037 -0.728829 10.8139 255 239 223 
1.70571 0.527812 10.7639 136 123 104 
1.70739 -0.102605 10.791 65 21 20 
1.48645 2.54731 11.3855 28 37 42 
1.73207 -0.11257 10.7923 118 102 77 
1.2107 3.13303 12.3452 82 50 71 
1.72418 0.553742 10.8494 28 16 20 
1.23134 4.23629 12.3545 44 11 40 
1.23336 3.06991 12.4005 85 53 68 
1.76406 0.528743 10.7968 18 4 3 
1.76997 -0.759406 10.8394 204 99 139 
1.79942 -0.247107 10.7892 66 16 19 
1.80774 -0.758151 10.7995 212 127 158 
1.79963 -0.829001 10.8783 247 235 221 
1.30855 3.68084 12.3433 28 24 47 
1.84365 -0.170054 10.7758 182 166 151 
1.81635 -0.78378 10.9044 250 233 223 
1.84458 -0.190624 10.7844 63 23 21 
1.83133 -0.76769 10.8874 159 142 132 
1.83949 -0.746018 10.893 232 212 205 
1.3497 3.62511 12.3685 118 129 131 
1.34098 3.63735 12.4076 118 129 131 
1.32731 3.50123 12.4878 89 94 90 
1.86745 -0.743367 10.9078 238 226 214 
1.8879 -0.671857 10.9079 65 54 52 
1.8863 -0.691919 10.9264 236 223 217 
1.47005 5.05481 12.3308 74 25 46 
1.51202 3.72742 12.5463 48 29 51 
1.54565 4.92649 12.3724 142 91 110 
1.92763 0.522868 11.2798 61 40 9 
1.97039 0.604292 11.229 78 56 17 
1.98235 0.401906 11.268 65 40 33 
1.99631 0.641921 11.2201 91 70 23 
1.98353 0.461101 11.3424 78 77 83 
1.98172 0.420222 11.375 164 155 140 
1.64428 4.51825 12.5268 54 47 65 
2.00148 0.475516 11.366 32 38 52 
1.92959 0.0287832 11.6663 81 68 49 
2.03674 0.710607 11.2208 145 124 81 
2.04819 0.675727 11.1848 90 73 17 
2.06021 0.572563 11.2136 195 169 33 
1.96523 1.0207 11.6298 19 10 11 
2.00701 -0.0420545 11.6011 108 93 62 
2.12938 0.0831853 11.2814 96 71 0 
2.18929 0.138172 11.2135 89 86 35 
2.11471 0.961919 11.5375 156 134 32 
2.18948 0.12735 11.3463 104 102 54 
1.91439 3.94141 12.3637 36 23 30 
1.92424 4.96369 12.3716 196 107 135 
2.26102 0.119115 11.1812 153 145 98 
2.21513 -0.0961063 11.4632 130 96 0 
2.2055 -0.169084 11.5217 62 30 0 
2.2336 -0.129427 11.5038 238 219 39 
2.21993 4.92956 11.4543 66 33 44 
2.35451 0.167219 11.2062 113 100 30 
2.3516 0.0452838 11.2417 250 230 57 
2.38988 0.717 11.1071 156 140 91 
2.41273 0.232542 11.1322 140 119 28 
2.35362 -0.289278 11.4937 179 155 23 
2.44376 0.263394 11.114 137 119 35 
2.31508 4.92017 11.5412 128 107 42 
2.46387 0.666377 11.0931 82 69 24 
2.47109 0.606431 11.067 97 90 46 
2.398 -0.223867 11.4767 221 201 80 
2.47469 0.639347 11.0807 158 149 106 
2.49602 0.613224 11.0732 85 77 40 
2.50285 0.439448 11.0641 124 106 42 
2.47635 0.12599 11.2887 252 232 81 
2.52936 0.532221 11.0587 173 162 82 
2.52634 0.48736 11.0959 67 61 25 
2.53037 0.427325 11.1013 108 102 44 
2.49181 -0.208538 11.4363 191 165 54 
2.52818 0.0651561 11.3631 239 220 32 
2.11837 -0.59722 13.5944 204 190 164 
2.58097 0.672659 11.2031 202 181 56 
2.65388 0.504001 11.1313 213 188 33 
2.65136 0.505311 11.1579 214 189 34 
2.63955 0.570724 11.2214 110 80 0 
2.65906 0.56043 11.2608 206 178 34 
2.68098 0.58238 11.1986 148 121 0 
2.70492 0.586905 11.2815 167 137 13 
2.68102 -0.258803 11.4653 249 233 49 
2.7163 0.521684 11.3285 245 224 45 
2.7079 -0.339344 11.6399 138 125 91 
2.70564 -0.340371 11.6676 137 125 101 
2.61373 4.69243 11.986 73 43 51 
2.74485 -0.229477 11.4977 112 94 8 
2.75184 -0.172094 11.4667 220 208 72 
2.75246 -0.187252 11.4877 70 50 0 
2.69707 4.87893 11.6265 228 215 199 
2.74967 -0.271564 11.5975 191 167 7 
2.76604 -0.169674 11.5041 90 77 0 
2.76495 -0.189952 11.5508 177 170 79 
2.77049 -0.226543 11.5843 153 128 25 
2.78681 -0.159725 11.5573 155 143 103 
2.91178 0.180408 11.3227 119 62 32 
2.61254 -2.24476 13.8608 62 61 66 
2.9969 0.580293 11.2151 9 2 0 
3.00066 0.515332 11.2011 215 169 58 
2.91847 4.87083 11.7061 29 84 78 
3.04591 0.869129 11.1357 211 165 69 
3.0758 0.778017 11.1254 173 99 26 
3.08064 0.958347 11.081 167 91 16 
2.93755 4.58969 11.9853 164 158 146 
2.87574 -1.24227 12.9396 43 42 38 
2.79329 4.72685 13.4195 69 68 73 
2.90317 -1.10542 12.8908 27 29 26 
2.91886 -0.744844 12.8088 216 213 198 
2.91527 -1.21793 12.9101 76 69 63 
3.07664 0.227616 11.6399 57 63 51 
3.1356 0.741847 11.2186 166 142 80 
2.94417 -0.980248 12.8805 125 125 133 
3.15653 0.967331 11.2251 59 60 64 
3.01231 -0.836388 12.9095 25 25 35 
2.99025 -2.57837 13.2262 134 132 120 
3.23971 0.158102 11.483 71 76 69 
3.07095 -1.04961 13.0007 26 24 27 
3.07084 -0.901921 13.0044 77 71 85 
3.20429 -0.0994037 11.8553 47 53 43 
3.10715 -1.03512 13.0179 76 72 73 
3.26732 0.118897 11.5753 10 14 13 
3.29461 0.30621 11.3307 59 67 52 
3.133 -0.914361 13.103 58 56 59 
3.15855 -1.18668 13.1558 155 151 150 
3.17482 -0.767681 13.0707 204 202 190 
3.1821 -0.960297 13.0738 52 53 58 
3.1822 -0.873093 13.069 103 90 99 
3.35035 0.544205 11.3928 66 82 56 
3.3468 -0.0443303 11.5743 68 74 64 
3.40195 0.613586 11.0786 0 1 6 
3.33999 1.05364 11.6904 87 91 94 
3.2156 -0.844849 13.1101 57 57 57 
3.39911 0.503309 11.2257 80 93 67 
3.24374 -1.35706 13.1582 218 215 208 
3.41297 4.79075 12.2351 140 129 125 
3.35949 -1.34044 13.3246 68 69 73 
3.41454 -0.594777 13.1124 5 6 11 
3.4863 -0.546013 13.0718 211 199 187 
3.77001 0.6684 11.9412 111 112 104 
3.7792 -0.312911 11.9095 88 101 73 
3.83885 -0.283267 12.0717 5 16 10 
3.89586 -0.238811 12.0715 217 207 195 
3.96662 -0.184713 11.963 59 71 57 
3.94414 0.30273 13.464 104 102 87 
4.12371 0.731758 12.0516 128 131 112 
4.15132 0.721711 12.0383 22 28 14 
4.16733 0.573976 12.1707 50 58 45 
4.18162 1.56616 12.1625 207 211 188 
4.19373 -0.0846723 12.3995 223 214 197 
4.2232 -0.15597 12.3644 33 49 22 
4.28799 -0.184976 12.2546 223 213 201 
4.28772 1.17978 12.4535 20 31 23 
4.28946 -0.260394 12.1666 224 216 197 
4.32233 1.68182 12.6053 198 194 182 
4.32552 2.76859 12.2169 196 194 179 
4.33209 0.47114 11.5491 221 213 190 
4.44944 3.77577 12.0671 205 196 191 
-0.7556 -0.151268 10.3573 89 99 124 
-0.746997 -0.180153 10.3808 113 126 142 
-0.76541 -0.307339 10.4429 49 60 80 
-0.0357603 0.330231 9.29045 44 36 23 
-0.718505 -0.12 10.3805 82 94 120 
-0.695326 -0.299395 10.4981 110 116 130 
-0.724803 -0.449295 10.5516 57 69 85 
-0.673895 -0.286822 10.5154 121 127 143 
-0.654879 -0.29483 10.5414 55 64 81 
-0.633573 -0.24846 10.5367 144 148 149 
-0.67546 -0.480721 10.6181 22 30 51 
-0.674954 -0.506881 10.625 23 32 47 
-0.685212 -0.598164 10.6488 38 52 65 
-0.65958 -0.50853 10.6422 121 128 136 
-0.648549 -0.510245 10.6612 34 36 48 
-0.642127 -0.486731 10.6537 177 175 178 
-0.637886 -0.521841 10.6594 36 38 53 
-0.552036 -0.0126671 10.4979 48 60 84 
-0.623013 -0.49136 10.6834 173 173 173 
-0.636914 -0.610465 10.7117 39 46 62 
-0.614131 -0.590114 10.7259 34 40 52 
-0.589073 -0.614833 10.7674 42 45 52 
-0.529641 -0.565345 10.8147 32 34 47 
-0.428619 -0.0785609 10.6617 105 109 120 
-0.40158 -0.0258298 10.6644 122 129 145 
-0.401069 -0.108283 10.7014 16 18 33 
0.43729 4.51476 10.1488 66 64 49 
0.988388 -0.0283012 9.71474 111 105 73 
1.00427 -0.0929786 9.73629 172 151 106 
1.00464 0.470973 9.73654 37 14 22 
1.07379 -0.369476 9.8023 34 22 0 
1.10324 -0.236972 9.84043 120 113 84 
0.335167 4.58404 11.4324 167 154 138 
1.11964 -0.214816 9.87479 104 100 73 
1.158 -0.276681 9.94294 88 78 68 
0.418214 3.34442 11.5576 44 50 64 
0.440257 3.12252 11.5351 99 36 63 
0.425787 4.03167 11.5394 153 158 161 
1.1715 -0.35434 9.96895 46 32 29 
0.43415 3.30802 11.5589 44 50 66 
0.452342 3.41041 11.5332 106 112 126 
0.458286 3.05896 11.5591 152 124 138 
0.461761 3.10255 11.5504 148 126 138 
0.469424 2.94577 11.5436 127 123 137 
0.454197 3.31102 11.5726 130 136 148 
0.470827 3.07993 11.569 79 63 76 
0.482303 2.9078 11.5577 131 130 138 
0.471357 3.13444 11.5841 88 50 73 
0.484794 2.9344 11.5608 82 62 73 
0.470959 3.03849 11.5963 82 51 69 
0.473452 3.23207 11.5982 77 87 97 
0.468858 3.33557 11.6082 106 116 126 
0.477487 3.43337 11.5874 63 69 81 
0.481453 3.3403 11.5935 41 51 60 
0.478355 3.2289 11.6177 86 96 106 
0.489042 3.32214 11.5915 60 70 79 
0.485997 3.42643 11.6027 119 125 137 
0.498394 2.97277 11.6028 99 34 66 
0.492274 3.43786 11.6089 133 137 149 
0.508725 3.22324 11.5808 95 105 115 
0.500108 3.30063 11.5984 117 125 138 
0.522288 2.92193 11.6009 129 110 116 
0.515499 3.06178 11.6145 72 36 62 
0.513547 3.12784 11.6178 83 39 64 
0.517029 3.42489 11.6284 62 70 83 
0.537526 2.97316 11.6278 80 30 59 
0.541172 3.2371 11.6406 81 89 102 
0.540084 3.18056 11.6617 130 140 152 
0.55213 3.06328 11.6571 79 39 65 
0.546487 3.3608 11.6613 130 138 149 
0.553658 3.12904 11.6545 94 52 76 
0.553707 3.31008 11.6498 61 64 79 
0.568999 3.59746 11.6582 129 139 149 
0.564824 3.40091 11.6814 127 136 145 
0.569501 3.32219 11.6745 67 71 82 
0.583618 2.99534 11.6592 127 136 143 
0.58195 2.93535 11.6688 92 46 72 
0.594141 2.95488 11.6802 136 130 140 
0.592005 3.16078 11.6854 85 41 68 
0.608314 3.32303 11.6959 79 87 100 
0.616687 3.14839 11.6987 130 127 136 
0.609912 3.3411 11.7116 66 73 83 
0.62141 3.09043 11.7062 133 132 137 
0.62486 2.9358 11.7074 93 40 66 
0.633262 3.44003 11.7057 127 135 146 
0.631701 3.3977 11.7136 128 138 148 
0.635851 3.05752 11.7232 96 51 74 
0.635107 3.29666 11.7383 120 128 139 
0.643731 2.9367 11.7332 85 46 64 
0.630958 3.33227 11.7526 114 122 135 
0.641657 3.4254 11.7475 108 118 130 
0.670928 3.36604 11.7581 130 134 145 
1.21517 -0.816454 10.5748 85 44 62 
0.69275 2.94613 11.7662 85 36 58 
0.694929 2.96518 11.7733 87 38 60 
0.684905 3.09915 11.8005 94 45 67 
0.693971 3.32323 11.7708 105 115 125 
1.21507 -1.10331 10.6117 178 21 40 
0.705275 3.28629 11.7642 126 136 145 
0.708685 3.36863 11.7727 129 133 144 
0.706951 3.10541 11.7878 145 113 128 
0.704198 3.27808 11.7914 123 133 142 
1.23997 -0.796023 10.5779 205 187 177 
0.714951 2.95239 11.7904 142 108 125 
1.22213 -1.05426 10.6476 188 117 115 
0.728747 3.11599 11.7915 83 39 64 
0.736841 3.44419 11.7927 35 38 53 
0.740591 3.01793 11.825 127 135 138 
0.740533 3.0985 11.8288 136 114 126 
0.750898 2.87701 11.8132 129 130 135 
0.763441 3.35733 11.8163 129 139 148 
0.766447 3.40662 11.8104 129 138 145 
1.18345 -1.89085 10.9498 233 225 212 
1.17131 -2.06685 11.0126 224 233 216 
0.780435 3.29502 11.8348 42 53 59 
0.786195 3.22383 11.8238 83 93 102 
1.33978 -0.689923 10.5187 231 223 212 
0.790352 3.40067 11.8275 107 110 125 
0.799537 3.41174 11.8404 49 53 64 
0.802243 2.93161 11.8689 124 123 129 
0.804054 3.32766 11.8518 64 74 84 
0.811465 3.10799 11.8595 89 44 67 
1.32788 -0.983941 10.6413 216 200 177 
0.81454 3.27408 11.8576 129 138 147 
0.81341 3.39577 11.8635 127 136 143 
0.822693 3.3198 11.8647 50 58 69 
0.830876 3.4157 11.8671 121 126 130 
0.833976 3.02537 11.8899 145 129 139 
0.852839 3.31922 11.8788 122 131 136 
0.853602 3.04438 11.9025 107 31 67 
0.881047 3.42139 11.8815 46 53 59 
0.880618 3.08101 11.9235 133 133 135 
0.892435 3.3096 11.9019 65 74 79 
0.894824 3.04668 11.9227 139 117 129 
0.907488 3.09579 11.9434 93 44 63 
0.916024 3.30025 11.9209 49 59 61 
0.908991 3.05434 11.9637 90 49 63 
1.48823 -0.706946 10.5251 236 229 213 
0.932016 3.08092 11.9623 92 61 67 
0.950528 3.08158 11.978 102 34 59 
1.49468 -0.456027 10.5947 77 46 0 
0.962939 3.10718 11.9707 97 43 66 
0.968082 3.02344 11.9866 134 137 142 
1.46351 -1.39607 10.7768 240 221 217 
0.982461 3.35235 11.9668 129 136 144 
1.00425 3.038 12.0077 104 30 63 
1.01483 3.10597 12.0051 88 39 61 
1.03685 3.39082 11.9822 58 67 74 
1.03499 3.07416 12.0218 127 125 128 
1.04049 3.36445 12.015 125 136 142 
1.54872 -1.30102 10.7599 187 36 105 
1.5752 0.0108818 10.6241 41 26 5 
1.06334 3.11065 12.0475 86 47 66 
1.07758 3.39999 12.004 63 72 79 
1.59014 -0.0325687 10.6251 90 77 32 
1.58814 0.0523835 10.6361 182 157 127 
1.07834 3.29128 12.0179 50 59 66 
1.0771 3.0885 12.0605 124 95 115 
1.08373 3.30713 12.037 103 112 121 
1.0817 3.0228 12.0585 119 118 126 
1.6176 -0.0846863 10.6454 50 37 2 
1.61517 0.471706 10.6627 177 143 79 
1.1039 3.08114 12.1373 124 123 128 
1.62799 0.53968 10.6667 60 30 4 
1.68547 -0.968161 10.66 246 232 219 
1.66015 0.47683 10.698 87 58 26 
1.15458 3.04653 12.1864 88 35 63 
1.68195 -0.286281 10.6997 94 74 23 
1.74072 -0.931186 10.6242 137 109 123 
1.17946 2.84601 12.2354 28 37 44 
1.69288 0.483082 10.7282 59 25 24 
1.18369 3.04127 12.2319 82 38 61 
1.21429 3.08202 12.2598 126 106 115 
1.23014 3.10875 12.2822 82 50 71 
1.24154 3.05968 12.3146 143 109 125 
1.78368 -0.757802 10.7942 204 99 139 
1.81548 -0.70101 10.7747 211 129 167 
1.83063 -0.781713 10.8559 250 233 223 
1.84325 -0.765924 10.8472 159 142 132 
1.41898 4.02705 12.4307 57 22 55 
2.23771 -0.130194 11.4858 238 219 39 
2.06938 -3.38245 13.6962 196 167 133 
2.16686 -1.83693 13.521 152 138 129 
2.72717 0.475966 11.2561 222 198 27 
2.81501 -1.26253 12.8082 230 220 210 
2.86367 -1.25545 12.834 45 41 40 
2.90431 -0.870604 12.7828 220 218 203 
2.90979 -1.10269 12.8401 27 29 26 
2.93154 -0.955619 12.816 44 43 48 
2.9315 -1.11887 12.8609 181 183 178 
2.94176 -1.15702 12.8721 69 69 69 
2.96684 -0.946056 12.8432 117 117 127 
2.97069 -0.769393 12.8076 56 60 72 
2.97115 -0.906769 12.8472 24 20 34 
2.96594 -1.27779 12.9433 48 49 41 
2.97286 -1.10773 12.908 38 38 38 
3.00689 -0.912851 12.8673 141 140 148 
3.00199 -1.11642 12.9288 38 33 39 
3.02547 -2.91529 13.3356 0 0 7 
3.07577 -1.04783 12.9571 26 24 27 
3.07964 -0.900036 12.9254 77 71 85 
3.09541 -1.25333 13.0135 169 165 166 
3.09866 -1.10092 13.0054 160 162 159 
3.12527 -1.11976 13.0246 17 15 20 
3.12675 -1.34439 13.133 221 219 204 
3.18152 -0.765821 13.0064 204 202 190 
3.18672 -0.871872 13.0241 103 90 99 
3.18654 -1.30767 13.1278 81 80 88 
3.22182 -0.84261 13.0474 57 57 57 
3.2658 -1.25747 13.1198 114 116 111 
3.41762 -0.595818 13.07 5 6 11 
3.68952 -4.36342 12.39 112 105 99 
0.432705 3.32895 11.5233 44 50 64 
0.432979 3.51864 11.5173 68 76 89 
0.434291 3.39115 11.5215 44 50 66 
0.453049 3.02706 11.5085 92 26 54 
0.446302 3.2952 11.5301 44 50 66 
0.470686 3.04691 11.53 152 124 138 
0.470982 3.09418 11.5292 148 126 138 
0.464294 3.30214 11.5497 130 136 148 
0.48719 3.11904 11.5468 88 50 73 
0.48863 3.42121 11.5607 63 69 81 
0.491169 3.40208 11.5667 46 54 65 
0.491978 3.32976 11.5686 41 51 60 
0.532643 2.91148 11.5758 129 110 116 
0.528193 3.04945 11.5841 72 36 62 
0.531132 3.40904 11.5938 62 70 83 
0.56715 3.04791 11.6202 79 39 65 
0.566271 3.11583 11.6236 94 52 76 
0.561904 3.30138 11.6298 61 64 79 
0.588943 2.89675 11.6289 94 35 65 
0.577968 3.38714 11.6492 127 136 145 
0.595381 2.98521 11.6312 127 136 143 
0.595519 2.92234 11.6355 92 46 72 
0.600121 3.22073 11.648 72 80 93 
0.606289 2.94279 11.6501 136 130 140 
0.604451 3.14989 11.6557 85 41 68 
0.609275 3.05205 11.6527 93 33 58 
0.621452 3.02636 11.6683 137 131 145 
0.628357 3.13584 11.6694 130 127 136 
0.561518 3.51413 11.8834 127 135 146 
0.643011 3.38424 11.6846 128 138 148 
0.64726 3.0458 11.6946 96 51 74 
0.651332 3.28001 11.6978 120 128 139 
0.655612 3.41061 11.7125 108 118 130 
0.782925 3.27457 11.3931 115 125 137 
0.664766 3.28946 11.7002 47 54 70 
0.68048 3.00277 11.7124 123 133 135 
0.689154 2.96997 11.7191 131 132 137 
0.688295 3.34676 11.7136 130 134 145 
0.70572 3.41444 11.7282 63 64 82 
0.708666 3.27894 11.7283 126 136 146 
0.707797 3.3089 11.7357 105 115 125 
0.714743 3.28952 11.7306 63 71 82 
0.739073 3.41765 11.75 131 135 147 
0.752796 4.11439 11.7412 31 18 38 
0.457377 3.61386 12.5485 66 77 83 
0.756113 3.0824 11.7881 136 114 126 
0.758121 3.03859 11.7885 139 125 138 
0.773154 3.30342 11.7876 128 139 145 
0.784103 3.04308 11.8122 88 44 67 
0.792487 3.28177 11.8031 42 53 59 
0.794518 3.31218 11.797 62 72 82 
0.794874 3.21395 11.8007 83 93 102 
0.794648 3.37492 11.7948 41 47 61 
0.79594 3.40374 11.7908 55 59 70 
0.805149 3.38321 11.7878 107 110 125 
0.802548 3.07008 11.8147 133 128 135 
0.804769 3.38677 11.7987 113 116 131 
0.837968 3.3032 11.8239 50 58 69 
0.846702 3.39742 11.8243 121 126 130 
0.869432 3.3425 11.8255 131 140 145 
0.866334 3.30297 11.8416 122 131 136 
0.866184 3.37254 11.8407 129 140 142 
0.869208 3.28347 11.8391 53 62 67 
0.873691 3.26831 11.8506 129 138 147 
0.879115 3.38204 11.8325 41 50 55 
0.887171 3.3952 11.8451 117 124 130 
0.895738 3.0642 11.8818 133 133 135 
0.904667 3.29655 11.8688 65 74 79 
0.912806 3.42297 11.8564 42 53 59 
0.906729 3.03396 11.8903 139 117 129 
0.934565 3.42165 11.8613 133 144 148 
0.934324 3.38001 11.8788 62 69 79 
0.944332 3.39788 11.888 61 70 77 
0.948083 3.08404 11.9226 147 115 126 
0.964001 3.299 11.9023 60 70 80 
0.979172 3.69612 11.862 31 34 53 
0.966629 3.06547 11.9336 102 34 59 
0.976369 3.09374 11.9335 97 43 66 
1.00053 4.19192 11.8356 148 51 96 
0.982292 3.01122 11.9485 134 137 142 
1.00437 4.08427 11.8567 41 22 44 
0.998409 3.381 11.9039 106 113 121 
0.954581 3.3874 12.0478 129 136 144 
1.01774 3.02485 11.9701 104 30 63 
1.02663 3.29053 11.9432 72 81 90 
1.04479 3.39174 11.9383 122 129 135 
1.05056 3.37408 11.9424 58 67 74 
1.04194 3.02477 11.9836 92 58 72 
0.928719 3.11819 12.3219 134 135 140 
1.05585 3.34634 11.9708 125 136 142 
1.10459 4.40266 11.8719 78 82 119 
1.08858 3.29314 11.9751 65 72 80 
1.08646 3.39 11.9785 63 72 79 
1.09597 3.80601 11.9386 130 134 143 
1.11222 3.96767 11.9283 159 163 164 
1.10635 3.26646 12.0168 123 133 142 
1.13724 4.14393 11.9319 167 165 166 
1.17059 3.09263 12.1345 82 40 60 
1.20391 4.30867 11.9865 70 38 77 
1.21369 3.09234 12.1927 86 44 64 
1.26645 2.91152 12.5358 126 135 142 
1.36364 -0.165322 12.4425 81 41 39 
1.49487 4.94414 12.1709 55 24 42 
1.46545 2.81223 12.493 98 107 112 
1.57612 2.82758 12.6073 47 52 56 
1.93232 4.94983 12.3413 196 107 135 
2.07807 4.98114 12.5072 193 99 126 
0.450466 3.33762 11.5255 124 133 142 
0.463148 3.43668 11.5312 131 141 151 
0.483849 3.0695 11.5394 79 63 76 
0.496043 2.89619 11.5258 131 130 138 
0.488656 3.31615 11.5614 106 116 126 
0.513799 3.07791 11.5607 127 137 138 
0.512871 3.28885 11.5687 117 125 138 
0.530524 3.11135 11.5772 83 39 64 
0.536625 3.26559 11.5876 128 137 146 
0.55487 3.22376 11.6077 81 89 102 
0.552039 3.38739 11.6142 128 134 146 
0.57457 3.28804 11.6287 129 137 148 
0.597169 3.34123 11.5948 131 140 149 
0.58644 3.13707 11.6318 134 135 140 
0.607362 3.21486 11.6309 72 80 93 
0.686116 3.14645 11.7009 127 138 144 
0.695156 2.96505 11.7042 131 132 137 
-0.4069 6.93467 14.456 183 106 124 
0.702217 3.31395 11.7127 53 59 71 
0.719272 3.3705 11.7188 119 123 135 
0.734759 2.95197 11.733 84 52 73 
0.747295 2.8834 11.7648 88 46 70 
0.719016 3.09038 11.8356 81 37 60 
0.750657 3.31179 11.7521 27 36 51 
0.536327 3.53172 12.3441 66 77 83 
0.758568 2.99964 11.7781 127 135 138 
0.803108 3.3658 11.7726 41 47 61 
0.803402 2.87444 11.7967 97 31 59 
0.860528 3.38626 11.7971 119 124 128 
0.872119 3.41658 11.8194 131 135 146 
0.89182 4.30831 11.7506 53 28 60 
0.909626 3.2913 11.8553 65 74 79 
0.917413 3.41837 11.8441 42 53 59 
0.936193 3.02441 11.8875 90 49 63 
0.952082 3.39108 11.8675 61 70 77 
0.954298 3.04018 11.9007 148 117 125 
0.970045 3.29276 11.8857 60 70 80 
0.975361 3.05649 11.9091 102 34 59 
1.05093 3.38428 11.9205 122 129 135 
1.0499 3.01584 11.9603 92 58 72 
1.09337 3.38221 11.9585 63 72 79 
1.21473 4.3993 11.9705 109 61 85 
1.20702 2.81654 12.1501 28 37 44 
1.50391 4.93177 12.1428 55 24 42 
1.46458 2.82424 12.476 33 42 49 
1.47401 2.80161 12.4624 98 107 112 
1.58818 2.81202 12.562 47 52 56 
1.67547 4.92441 12.272 51 26 47 
1.7549 4.66849 12.386 187 149 128 
1.78928 4.65018 12.4116 61 56 63 
1.95871 3.85583 12.1777 36 23 30 
0.535296 2.91109 11.5701 129 110 116 
0.586276 3.13619 11.6312 134 135 140 
0.630774 3.35875 11.681 130 136 148 
0.656195 3.10263 11.6789 94 40 66 
0.683481 3.14889 11.7073 127 138 144 
0.748434 3.32386 11.7403 26 34 45 
0.785962 3.33106 11.7558 129 139 148 
0.930993 3.3614 11.8516 132 136 148 
0.927133 3.07537 11.8889 93 44 63 
1.02265 3.27862 11.9189 118 126 137 
1.05055 3.38178 11.9191 122 129 135 
1.08013 3.02369 11.9861 95 46 75 
1.09745 3.01799 12.0094 126 115 121 
0.942078 -0.448928 9.74782 189 165 93 
0.962389 -0.433494 9.77097 54 40 1 
0.971135 -0.509414 9.84991 255 254 205 
1.00394 -0.148146 9.83145 157 150 124 
1.01195 -0.133736 9.84356 121 110 92 
1.01601 -0.165133 9.85603 150 144 122 
0.811621 -1.51755 10.4278 143 134 125 
0.24789 -1.29377 11.669 65 62 53 
1.18285 -0.38168 10.2706 40 22 12 
1.00967 -0.997269 10.7111 196 184 172 
1.03426 -1.05824 10.7334 203 187 172 
1.07494 -0.875907 10.7279 179 166 158 
1.14395 -0.796046 10.6594 64 16 54 
1.13986 -0.796863 10.6697 71 23 61 
1.12324 -0.890949 10.7296 197 183 170 
1.17017 -0.823925 10.691 85 42 69 
1.201 -0.801649 10.6796 191 177 164 
1.26074 -0.733527 10.637 218 206 192 
1.19654 -0.914159 10.7678 141 128 112 
0.330202 3.42832 11.7601 28 37 44 
0.328703 3.49518 11.7654 24 32 45 
0.342811 3.39604 11.7708 35 44 49 
0.343959 3.41208 11.7673 91 100 105 
1.2436 -0.726717 10.8852 246 218 217 
0.374943 3.13723 11.7553 146 119 138 
0.370823 3.18837 11.7641 143 116 131 
0.343453 3.51708 11.7853 103 112 117 
0.385006 3.16162 11.7721 70 49 68 
0.393026 3.06172 11.774 73 39 55 
0.35351 3.46248 11.7853 124 133 140 
0.364447 3.39945 11.7832 118 127 136 
0.394131 3.11192 11.7793 84 51 72 
0.360873 3.38248 11.8003 126 132 144 
0.381318 3.22006 11.7969 80 40 64 
0.41968 3.04137 11.7886 89 31 56 
0.416605 3.17178 11.793 122 127 133 
0.384208 3.48794 11.8123 128 134 146 
0.390101 3.40176 11.8155 36 45 54 
0.389625 3.50415 11.8062 32 41 50 
0.396127 3.41318 11.811 58 65 75 
0.439188 2.99906 11.8011 126 109 119 
0.443297 2.96669 11.8038 124 127 134 
0.441524 3.01921 11.809 128 96 109 
0.405379 3.39567 11.8244 117 126 135 
0.410198 3.51819 11.8018 125 134 143 
0.428368 3.21037 11.8224 83 33 60 
0.422795 3.39515 11.8106 43 50 58 
0.46101 2.99374 11.8189 96 31 63 
0.417463 3.48976 11.8261 119 128 137 
0.437526 3.36332 11.8249 128 137 146 
0.450674 3.17297 11.8313 105 31 64 
0.427723 3.42949 11.8395 35 44 53 
0.429385 3.51299 11.8372 68 74 86 
0.481251 3.01249 11.8416 120 121 126 
0.467935 3.25185 11.837 123 133 142 
0.450586 3.32688 11.8597 69 77 88 
0.458711 3.38343 11.8468 127 136 145 
0.458843 3.48291 11.8392 129 136 146 
0.469118 3.39456 11.8547 61 69 80 
0.484239 3.17512 11.8659 129 135 133 
0.50339 3.07367 11.8577 123 132 137 
1.47689 -0.418205 10.7288 225 204 159 
0.477201 3.24071 11.8975 128 115 122 
1.48266 -0.456899 10.7408 223 197 102 
1.47951 -0.509353 10.754 181 171 120 
0.472295 3.52602 11.8767 45 52 58 
0.485859 3.45393 11.8655 125 132 142 
0.51792 3.14392 11.8799 104 40 66 
0.500741 3.3214 11.8929 67 76 83 
0.508071 3.24497 11.8932 100 43 75 
0.496139 3.49491 11.8864 34 40 54 
0.534537 3.111 11.8844 131 129 140 
0.516162 3.37555 11.8822 130 134 143 
0.510281 3.50498 11.8871 113 119 131 
0.53459 3.13928 11.9232 81 45 59 
1.46298 -0.946827 10.9252 129 114 109 
0.539105 3.17282 11.9125 127 127 135 
0.523244 3.32642 11.9303 77 86 95 
0.527899 3.46912 11.939 122 133 137 
0.542566 3.53342 11.93 126 135 144 
1.55002 -0.342144 10.7625 204 195 156 
0.554441 3.38032 11.9408 123 130 140 
0.558188 3.40911 11.935 105 114 123 
0.535761 4.42726 11.8414 93 99 133 
2.04509 2.08726 9.62653 135 122 131 
0.566385 3.50654 11.9377 114 121 131 
0.589387 3.20271 11.9433 120 121 126 
0.600093 3.05918 11.9472 121 124 133 
0.590321 3.24338 11.9438 123 132 141 
0.585094 3.35519 11.9535 124 134 135 
0.599319 3.441 11.9393 122 133 139 
0.628696 3.15789 11.9462 103 44 72 
0.603924 3.41673 11.9625 47 53 65 
0.619675 3.39759 11.9589 113 116 125 
0.61582 3.40608 11.9709 117 120 129 
1.63791 -0.960779 10.8269 236 222 211 
0.624815 3.49679 11.9635 104 117 125 
0.623779 3.45875 11.9902 120 130 139 
0.627475 3.51904 11.9886 19 29 31 
0.651011 3.19736 11.9946 80 41 60 
0.678119 2.94877 12.005 120 129 128 
0.647858 3.51672 11.9852 114 121 127 
0.644139 3.49432 12.003 55 58 65 
0.670799 3.16996 12.0114 134 108 121 
0.675437 3.19951 12.0106 124 122 127 
0.708011 3.32829 11.9859 123 132 137 
0.686151 3.44082 12.0186 121 130 137 
0.675548 3.79283 12.0017 22 19 36 
0.702092 3.31445 12.047 85 94 101 
0.706343 3.37656 12.0315 40 50 60 
0.70487 3.41153 12.0346 41 51 63 
0.709807 3.47052 12.0197 31 39 52 
0.708076 4.58788 11.8757 122 56 83 
0.714978 3.48406 12.0267 102 110 123 
0.16616 3.93267 12.943 104 112 125 
0.702649 4.06011 11.9969 112 35 79 
0.723936 3.49586 12.0411 32 40 51 
0.731782 3.40912 12.0458 52 56 67 
0.731187 3.36437 12.0806 125 134 141 
0.749212 3.40171 12.0625 31 37 49 
0.763026 3.36348 12.0526 128 137 146 
0.759985 3.49509 12.0574 119 127 140 
0.771158 3.50458 12.0515 44 52 65 
0.755357 4.37788 11.9731 154 82 102 
0.789551 3.35996 12.0789 130 141 147 
0.799969 3.49507 12.0831 104 113 120 
0.806855 3.50698 12.0846 37 46 53 
0.796638 4.43067 12.0014 48 20 43 
0.821945 3.5091 12.0837 113 122 129 
0.816595 3.39643 12.1116 51 60 67 
0.827393 3.46523 12.0997 75 84 91 
0.825816 3.52325 12.0954 38 46 59 
1.75017 -0.835961 11.0432 240 228 216 
1.79589 -0.772747 11.0074 146 134 122 
0.881689 3.39456 12.1344 58 65 73 
1.80468 -0.686593 11.0371 69 56 50 
0.923311 3.42243 12.1361 123 135 135 
0.915239 3.50623 12.1501 54 63 68 
0.955481 3.17332 12.1777 95 37 61 
0.90699 4.21162 12.1275 32 14 36 
1.82517 -0.803424 11.1358 236 224 210 
0.964731 3.48775 12.1698 110 120 121 
0.972229 3.3749 12.1839 43 54 60 
0.980951 3.43811 12.1903 122 134 134 
0.986551 3.40324 12.211 35 44 53 
1.00335 3.1809 12.2262 88 39 61 
0.985713 3.70335 12.191 123 132 139 
1.01355 3.38536 12.1977 55 62 72 
1.00683 3.48786 12.2134 37 48 54 
1.00657 4.24894 12.128 40 16 38 
1.02941 4.07803 12.1691 148 156 159 
1.02924 4.20652 12.1553 35 2 23 
1.0582 4.25715 12.1651 157 155 156 
1.06529 4.02568 12.1933 29 37 73 
1.07631 5.00153 12.0783 168 140 129 
1.07664 3.17931 12.3533 127 114 124 
1.08202 5.01887 12.1008 79 51 39 
1.09213 4.30064 12.1846 42 45 76 
1.08862 4.30484 12.1946 44 49 81 
1.11771 4.45275 12.2118 84 40 63 
1.1782 3.81291 12.1977 17 29 53 
1.12787 4.41799 12.2134 69 30 75 
1.11975 5.02277 12.1588 83 55 52 
1.13096 4.52055 12.2199 102 52 81 
1.14001 3.1775 12.4232 85 41 66 
1.15465 3.15509 12.4507 125 103 115 
1.15618 4.97588 12.1884 177 149 138 
1.15375 5.08081 12.2115 99 69 69 
1.18163 3.16982 12.4393 81 48 65 
1.17052 4.99183 12.2024 72 42 40 
1.23686 5.08989 12.2911 60 59 64 
1.29974 3.69682 12.5364 119 122 129 
2.1906 0.450763 11.3076 6 6 8 
2.26789 0.123999 11.3296 117 107 22 
1.44724 5.09393 12.4056 38 0 22 
2.17634 -0.0903475 11.6297 150 118 5 
1.47292 5.08083 12.4183 55 19 33 
1.46043 4.90438 12.4748 18 1 11 
1.45485 4.92963 12.4842 98 78 90 
2.23766 0.739857 11.3946 65 54 0 
1.49334 5.09201 12.43 106 41 61 
2.36273 0.134642 11.2833 194 176 38 
1.50484 5.10284 12.4876 100 46 70 
1.51335 4.98795 12.4859 140 88 111 
1.55718 5.07162 12.4809 38 0 22 
1.56325 5.04505 12.5276 125 80 101 
2.31836 -0.285656 11.6576 114 90 0 
2.32993 -0.276791 11.6475 209 189 77 
2.46584 0.381728 11.2562 141 131 46 
1.58946 4.75469 12.6423 120 71 93 
2.36495 -0.219559 11.6334 200 181 53 
2.44244 0.123029 11.4149 108 75 6 
1.60497 4.58773 12.671 51 52 57 
1.60943 4.65139 12.6562 170 118 105 
1.62762 5.08935 12.5662 107 66 84 
2.3966 -0.261291 11.6278 207 188 94 
2.41143 -0.274749 11.6302 134 115 23 
2.4411 -0.274284 11.6259 112 90 0 
2.48575 -0.252254 11.6109 141 121 50 
2.49111 -0.266047 11.6003 137 119 45 
1.71341 4.7972 12.7046 59 59 57 
1.89982 3.9676 12.4227 30 27 36 
2.61493 0.53024 11.3228 212 188 40 
2.60896 0.583369 11.3775 115 88 1 
2.64174 0.70172 11.4701 184 160 54 
2.70468 -0.235944 11.6815 254 241 110 
2.72076 -0.204734 11.6704 13 4 0 
2.67107 -0.337211 11.8522 131 125 99 
2.7366 -0.103536 11.7185 129 111 11 
2.74404 -0.222776 11.7424 101 76 10 
2.20642 -3.43887 13.6989 212 196 180 
2.78995 0.2912 11.5718 120 96 24 
2.13112 -1.85816 13.708 146 140 128 
2.16431 -1.88805 13.7046 190 177 158 
2.18079 -1.92083 13.6839 67 56 52 
2.97572 0.417906 11.4431 120 65 26 
3.02323 0.596551 11.3658 173 98 0 
3.04265 0.698766 11.3425 178 110 13 
3.04619 0.727322 11.3361 175 104 12 
3.04471 0.751341 11.336 167 95 10 
3.05291 0.906832 11.2957 173 103 17 
3.07196 0.764771 11.3057 215 173 75 
3.04811 0.500621 11.5135 8 0 0 
4.32437 -0.403407 8.19833 0 2 0 
2.892 4.96758 11.6667 219 199 26 
2.69919 -2.63456 13.6542 13 12 20 
2.83557 -1.26796 13.0427 30 28 29 
2.81466 -2.79159 13.4492 81 81 81 
3.21622 0.170637 11.6839 62 65 58 
3.27136 0.319846 11.5334 61 65 48 
2.87682 -0.880257 12.9863 217 214 197 
2.88259 -1.04311 13.0154 43 41 46 
2.8813 -1.15164 13.0444 121 120 116 
2.88398 -1.11396 13.0357 45 45 47 
2.89937 -1.04404 13.0299 125 123 128 
2.90533 -0.964568 13.0173 44 43 48 
3.24861 0.129277 11.7427 10 11 15 
2.90622 -1.13004 13.0564 190 192 189 
2.90197 -1.23897 13.0898 72 67 64 
2.91826 -1.15041 13.0726 173 175 172 
2.91352 -1.17098 13.0916 70 68 69 
2.92711 -0.981769 13.0162 118 119 123 
2.92153 -1.06498 13.0553 104 105 109 
3.37812 0.640367 11.3081 9 11 10 
2.92637 -1.21685 13.1046 48 29 31 
2.94589 -0.776573 13.0009 53 60 70 
2.91899 -1.27626 13.1773 89 86 81 
2.94285 -1.1342 13.0799 186 187 182 
2.94794 -0.913173 13.0324 26 24 29 
3.3184 0.429169 11.6017 0 2 0 
2.94633 -1.22999 13.1066 106 85 80 
3.38127 0.518226 11.3957 80 95 62 
2.94159 -1.29165 13.1384 49 45 46 
2.95099 -1.11789 13.083 42 42 42 
3.3983 0.569757 11.3805 97 112 81 
2.97377 4.99018 11.9436 168 158 24 
2.96328 -1.13273 13.1109 109 101 98 
2.96968 -1.14533 13.1361 106 98 96 
2.98181 -0.921385 13.072 122 121 127 
2.97643 -1.12906 13.1381 35 33 34 
2.99699 -0.896647 13.0783 154 151 160 
2.96691 -3.01117 13.6002 4 2 5 
2.98894 -3.11109 13.6018 141 56 123 
3.03611 -0.787517 13.0775 137 138 133 
2.69338 4.89718 13.2164 40 41 45 
3.05317 -1.05572 13.158 29 24 28 
3.06571 -0.792525 13.0772 21 17 18 
3.0556 -0.905828 13.1385 76 71 77 
3.07252 -1.26934 13.2158 165 161 160 
3.06854 -2.9592 13.5714 134 52 114 
3.07622 -1.11153 13.2074 157 155 156 
3.08879 -0.89744 13.1446 74 72 73 
3.10111 -1.14836 13.2163 161 159 160 
3.10842 -1.35746 13.3037 223 217 203 
3.12315 -0.885042 13.1661 65 61 58 
3.12586 -1.15519 13.223 148 147 143 
3.13447 -1.03823 13.2143 85 82 89 
3.13794 -1.38162 13.3656 150 148 151 
3.16031 -0.771471 13.2102 206 197 188 
3.1668 -0.878409 13.2178 109 103 103 
3.16502 -0.966479 13.2406 66 64 69 
3.16657 -1.32192 13.3241 79 76 83 
3.16492 -0.604438 13.2207 99 100 102 
3.19093 -0.873234 13.2249 6 1 5 
3.14163 -2.42876 13.7028 189 150 171 
3.13211 -2.22237 13.7201 101 49 87 
3.15022 -2.41403 13.6935 101 62 83 
3.20261 -0.849503 13.2395 44 42 43 
3.23467 -1.36338 13.2525 215 213 201 
3.28562 -1.22611 13.2047 24 23 21 
3.30016 -0.973522 13.1733 25 25 25 
3.23653 5.10521 12.4337 110 48 63 
3.29458 4.88195 12.3875 131 113 109 
3.40172 -0.594263 13.2747 6 7 12 
3.47375 -0.545324 13.2439 202 186 170 
3.40662 4.98826 12.4481 13 6 14 
4.1101 -0.0745457 12.5881 203 202 184 
4.32024 -0.37187 12.0333 17 23 9 
4.36542 -0.373538 12.0723 98 94 67 
4.38282 -0.375291 12.0538 214 206 183 
4.51307 2.43757 12.7552 46 50 33 
0.301079 4.8182 11.5647 80 75 81 
0.857149 2.70915 10.9914 81 23 45 
0.386719 3.09534 11.6872 99 22 58 
0.36538 3.40101 11.7076 28 37 44 
0.364316 3.46749 11.7124 24 32 45 
0.37412 3.37298 11.7242 35 44 49 
0.375606 3.38868 11.7202 91 100 105 
0.40272 3.16427 11.716 143 116 131 
0.438532 2.98455 11.7014 80 56 70 
0.409623 3.46756 11.6869 103 112 117 
0.409651 3.143 11.7348 70 49 68 
0.410829 3.09902 11.7538 84 51 72 
0.394434 3.35651 11.7497 126 132 144 
0.415397 3.19441 11.7452 80 40 64 
0.398554 3.49341 11.7581 58 67 74 
0.437861 3.15525 11.7603 122 127 133 
0.397063 3.93065 11.7293 123 133 142 
0.435123 3.3839 11.7521 58 65 75 
0.468498 2.97746 11.756 126 109 119 
0.444983 5.01249 11.5432 210 166 153 
0.460858 3.12175 11.7721 86 42 67 
0.453983 3.19268 11.7836 83 33 60 
0.486429 3.02763 11.7751 84 37 57 
0.463719 3.34324 11.7849 128 137 146 
0.478241 3.15219 11.7888 105 31 64 
0.499473 2.94287 11.7918 127 122 128 
0.457492 3.49129 11.7944 68 74 86 
0.458579 3.47908 11.8058 60 67 77 
0.456148 3.78301 11.7741 126 135 144 
0.440927 4.30142 11.7389 73 82 113 
0.511448 2.98821 11.794 120 121 126 
0.494385 3.23197 11.7962 123 133 142 
0.505071 3.11469 11.7973 83 43 67 
0.482034 3.30234 11.8111 69 77 88 
0.500389 3.18579 11.8075 93 46 66 
0.524899 2.96787 11.815 96 38 63 
0.51126 3.15498 11.8239 129 135 133 
0.530916 3.05276 11.8145 123 132 137 
0.503816 3.46305 11.8406 117 126 135 
0.533451 3.29637 11.8418 67 76 83 
0.539149 3.22027 11.8443 100 43 75 
0.526403 3.4703 11.8391 34 40 54 
0.576639 2.98848 11.8519 92 41 60 
0.565917 3.20291 11.8491 135 124 138 
0.568799 3.14947 11.8653 127 127 135 
0.542315 4.97732 11.6714 132 101 99 
1.48432 0.038036 10.7612 205 190 169 
0.56191 3.48078 11.8513 67 71 82 
0.547904 5.0086 11.6768 207 169 156 
1.51051 0.0357802 10.7399 24 13 0 
0.560922 4.40606 11.8034 93 99 133 
0.618112 3.07169 11.8951 123 127 138 
0.586521 3.46178 11.9058 121 128 136 
0.612728 3.18136 11.9051 120 121 126 
1.53683 0.476979 10.7111 85 45 43 
0.619394 3.22066 11.8972 123 132 141 
0.605773 3.49479 11.9004 42 45 60 
0.626407 3.41944 11.8961 122 133 139 
0.646677 3.14368 11.917 103 44 72 
0.654375 3.34686 11.9076 119 126 136 
0.672576 2.9674 11.9302 140 108 121 
0.628491 4.11263 11.8998 104 21 65 
0.678734 3.13822 11.9632 92 48 65 
0.691994 3.01686 11.961 100 37 56 
0.701181 2.93033 11.9667 120 129 128 
0.670673 3.49898 11.9486 114 121 127 
0.698369 3.22375 11.9734 122 133 139 
0.741481 3.30167 11.931 123 132 137 
0.740693 2.94382 11.9855 101 33 58 
0.715998 3.41559 11.9694 121 130 137 
0.684557 3.78846 11.9882 22 19 36 
0.74706 3.01208 11.9901 95 42 60 
0.735011 3.28776 11.9924 85 94 101 
0.72767 3.35798 11.9959 40 50 60 
0.715338 4.58664 11.8662 122 56 83 
0.754079 2.9503 12.0174 81 54 63 
0.759448 2.98251 12.0079 127 122 126 
0.739905 3.46311 11.9855 102 110 123 
0.758247 3.48726 11.9849 130 139 144 
0.483989 3.60006 12.4533 52 56 67 
0.765516 3.33509 12.0229 125 134 141 
0.777999 3.37768 12.0143 31 37 49 
0.784678 3.13643 12.0351 132 121 127 
1.68376 0.101597 10.871 39 3 3 
1.67607 0.530492 10.8448 70 38 25 
0.354751 3.73155 12.7568 48 57 64 
0.808835 3.09957 12.0502 101 37 63 
0.802275 3.45596 12.031 124 132 145 
0.836708 3.13607 12.0696 129 126 133 
0.816304 4.41413 11.9699 48 20 43 
0.865546 3.46317 12.0242 72 81 90 
0.867639 4.18168 12.0026 24 15 34 
0.891521 3.1156 12.1059 149 114 121 
0.90456 3.37434 12.0945 58 65 73 
0.901302 3.14151 12.1349 100 34 61 
0.919779 3.16292 12.1198 99 35 61 
0.933122 3.37547 12.1006 123 130 136 
0.909845 3.79861 12.0943 29 22 55 
0.94987 3.39996 12.0898 123 135 135 
0.964251 3.09248 12.1512 100 28 52 
0.646546 3.40494 12.7158 95 37 61 
0.655038 3.31472 12.7338 136 114 126 
0.983622 3.09759 12.1763 78 50 64 
0.991055 3.06648 12.1721 123 121 124 
0.99523 3.12759 12.1642 129 130 134 
0.988162 3.45889 12.1505 51 61 60 
0.997284 3.33975 12.1649 123 134 138 
1.00106 3.42036 12.1545 122 134 134 
0.997661 4.42675 12.0434 75 49 88 
1.02488 3.16199 12.1872 88 39 61 
1.00754 3.68253 12.152 123 132 139 
1.02898 3.3714 12.1699 55 62 72 
1.02812 3.46912 12.1753 37 48 54 
1.04464 3.15559 12.2002 124 111 118 
1.03667 4.22021 12.0755 40 16 38 
1.05232 4.05767 12.1292 148 156 159 
1.10304 3.9238 12.123 25 38 72 
1.07725 4.23963 12.1318 157 155 156 
1.10941 4.28693 12.1551 42 45 76 
1.11983 3.16 12.3155 70 35 57 
1.12134 3.07788 12.3481 122 116 126 
1.14717 2.89709 12.3923 41 47 59 
1.14239 3.10112 12.3904 88 40 64 
1.16052 3.15681 12.3833 85 41 66 
1.19733 3.15566 12.4091 81 48 65 
1.22023 3.09493 12.4669 82 49 68 
1.23034 3.14597 12.4652 81 35 61 
2.04709 0.576966 11.296 189 164 22 
1.41834 2.88403 12.704 80 89 94 
2.28185 0.172671 11.258 108 98 13 
1.48804 3.78263 12.6827 49 22 41 
1.53247 4.96503 12.4475 140 88 111 
2.40713 -0.255667 11.5793 117 97 8 
1.90927 3.95879 12.4025 30 27 36 
3.0472 -0.788051 13.0402 137 138 133 
3.06724 -1.05455 13.1105 29 24 28 
3.06762 -0.905575 13.0978 76 71 77 
3.09002 -1.10974 13.1602 157 155 156 
3.14717 -1.10509 13.1927 17 15 16 
3.1722 -0.771006 13.1684 206 197 188 
3.17948 -0.877788 13.173 109 103 103 
3.21346 -0.849176 13.2004 44 42 43 
3.24256 -1.36251 13.2234 215 213 201 
3.32867 4.81697 12.2765 131 113 109 
3.42532 -0.448068 13.2245 198 185 169 
4.09857 0.100538 12.7241 211 204 186 
0.762792 -1.2569 10.15 136 93 59 
1.02138 0.479666 9.79389 43 28 25 
1.05475 0.549635 9.82885 120 99 104 
1.09382 -0.178588 9.86827 93 86 70 
1.21124 -0.782531 10.614 80 38 62 
1.20988 -0.823049 10.6306 85 42 69 
1.36095 -0.702765 10.5835 127 74 92 
0.403632 3.37358 11.6512 28 37 44 
0.419147 3.33864 11.6569 35 44 49 
0.444824 3.08628 11.6501 146 119 138 
0.44676 3.1318 11.6496 143 116 131 
1.43166 -0.722577 10.604 244 216 215 
1.15514 2.87341 10.5725 53 62 69 
0.439254 3.3412 11.6704 118 127 136 
1.41364 -0.3253 10.6139 48 23 16 
0.446223 3.4701 11.6821 44 53 58 
1.45328 -0.667164 10.6167 138 129 134 
0.45842 3.33029 11.6916 127 136 143 
1.43015 -0.384041 10.6316 202 179 148 
1.41676 -1.31502 10.7877 243 212 207 
1.43868 -0.396346 10.6328 52 34 0 
0.47157 3.33077 11.6991 50 59 66 
1.42329 -0.082697 10.6206 34 7 0 
1.22839 -2.40716 11.2604 221 220 202 
1.35302 -1.7347 10.9719 204 125 131 
0.484806 3.33346 11.7031 117 126 135 
1.24076 -2.38725 11.2534 73 110 93 
1.25424 -2.31502 11.2283 225 229 214 
1.23759 -2.46576 11.2878 225 128 139 
1.46998 -0.323347 10.6314 34 14 7 
0.503216 3.45603 11.7248 68 74 86 
0.526943 3.26852 11.7419 69 77 88 
1.40207 -1.71905 10.9788 235 216 202 
0.540938 3.15573 11.7448 93 46 66 
1.49951 -0.399375 10.6537 114 79 0 
1.5051 -0.479076 10.6642 223 190 111 
1.50649 -0.467815 10.6626 241 212 95 
1.42604 -1.65259 10.9535 237 217 210 
1.49614 -0.118299 10.6344 30 4 0 
0.542603 3.25889 11.7552 70 79 88 
1.51029 -0.399519 10.659 215 192 114 
1.518 -0.420184 10.6619 225 204 159 
1.47457 -1.45175 10.873 238 219 221 
1.4984 -0.0626776 10.6496 51 37 0 
1.51581 -0.387797 10.6663 215 189 112 
1.5572 -0.148842 10.5897 40 20 21 
