ply                 
format ascii 1.0    
element vertex 1313
property float x    
property float y    
property float z    
property uchar red  
property uchar green
property uchar blue 
end_header          
-2.32812 -0.256106 8.73858 194 151 179 
-2.30381 -0.49787 8.65863 201 164 197 
-2.31651 -0.278053 8.72122 211 191 219 
-2.31123 -0.306616 8.70814 164 159 181 
-2.30604 -0.278644 8.71968 119 21 60 
-1.95061 1.24288 9.40787 177 207 231 
-1.99989 4.91389 9.81037 94 98 109 
-1.75773 1.13928 9.1318 66 69 78 
-1.73612 1.20386 9.13607 206 235 251 
-1.71799 1.16719 9.11522 65 106 136 
-1.71894 1.20072 9.12846 39 78 107 
-1.71894 1.20072 9.12846 39 78 107 
-1.11087 0.315752 10.0575 81 70 52 
-1.08514 4.36393 9.87679 119 113 113 
-1.08479 4.59995 9.90115 139 148 163 
-1.08609 4.41312 9.9178 133 127 127 
-1.09173 4.36621 9.99276 74 64 55 
-1.10166 -0.122002 10.2571 94 104 114 
-1.10166 -0.122002 10.2571 94 104 114 
-1.07889 -0.182258 10.3018 111 121 123 
-1.06246 0.166244 10.1685 118 133 136 
-1.04717 4.43845 9.94936 48 48 38 
-1.04376 4.44495 9.92123 112 109 104 
-1.07128 -0.115252 10.2675 125 118 112 
-1.07005 -0.166953 10.2753 40 49 54 
-0.957731 4.53446 9.17263 94 102 115 
-1.0394 4.50929 9.95221 114 99 76 
-1.06475 -0.264445 10.3416 116 125 132 
-0.93313 4.69368 9.14282 107 147 172 
-1.05389 -0.501977 10.4519 123 131 133 
-1.03059 4.3929 10.1509 146 129 119 
-0.990702 0.108697 10.2433 121 113 110 
-0.98063 0.319174 10.1643 110 111 115 
-0.98063 0.319174 10.1643 110 111 115 
-0.996191 4.46823 10.2678 113 102 100 
-0.976344 0.237433 10.1946 116 113 108 
-0.977322 0.092251 10.2448 45 52 58 
-0.965369 -0.119296 10.3441 80 90 102 
-0.968847 -0.291274 10.4627 76 89 97 
-0.944293 0.147906 10.2529 104 112 125 
-0.921201 0.199417 10.2559 117 119 108 
-0.924006 -0.0647173 10.3577 73 85 97 
-0.916219 0.156914 10.272 83 90 100 
-0.917094 0.11301 10.3039 85 95 104 
-0.881837 4.51906 9.93117 55 43 43 
-0.903494 0.0857496 10.3194 77 87 99 
-0.91331 -0.370512 10.5088 78 92 101 
-0.860855 4.51686 9.96471 210 197 191 
-0.892047 -0.226534 10.4581 92 102 114 
-0.86193 0.501888 10.1749 74 79 83 
-0.856514 0.511357 10.1929 9 12 17 
-0.852108 0.586254 10.1424 14 6 4 
-0.85171 0.586819 10.1568 14 6 4 
-0.874283 -0.142092 10.4404 101 111 121 
-0.874283 -0.142092 10.4404 101 111 121 
-0.88422 -0.562331 10.6094 52 60 71 
-0.865565 -0.0682084 10.4198 124 125 111 
-0.828929 4.51398 10.0001 255 255 227 
-0.869491 -0.513632 10.6069 72 76 88 
-0.860033 -0.537704 10.6206 69 71 83 
-0.849397 -0.244989 10.5112 103 116 125 
-0.849397 -0.244989 10.5112 103 116 125 
-0.849397 -0.244989 10.5112 103 116 125 
-0.836517 4.40917 10.254 94 84 75 
-0.724227 5.13505 8.97799 115 113 116 
-0.833995 -0.0501864 10.4155 23 37 46 
-0.811887 -0.0383942 10.4483 97 112 119 
-0.795052 0.0339358 10.4208 69 79 91 
-0.795052 0.0339358 10.4208 69 79 91 
-0.779975 -0.114766 10.5112 65 75 85 
-0.660296 5.12288 8.94433 130 126 127 
-0.775706 -0.167832 10.5315 100 104 113 
-0.76364 -0.176994 10.5411 23 32 41 
-0.752878 -0.183813 10.552 80 90 99 
-0.618623 5.11619 8.91329 90 81 82 
-0.604555 5.10934 8.89705 134 125 128 
-0.718987 -0.303001 10.6311 16 20 19 
-0.709948 -0.312798 10.6468 112 114 109 
-0.712282 -0.510907 10.7276 151 152 146 
-0.712282 -0.510907 10.7276 151 152 146 
-0.685813 4.38098 10.3564 193 181 167 
-0.69561 -0.274288 10.642 111 114 121 
-0.66584 4.46262 10.1641 74 63 61 
-0.680564 4.40224 10.388 86 74 60 
-0.668577 4.16447 10.3134 71 60 58 
-0.650445 4.43789 10.1719 239 223 207 
-0.563532 5.11893 8.9287 125 116 117 
-0.677077 -0.497039 10.7455 131 130 126 
-0.667059 -0.245687 10.6568 20 21 16 
-0.667547 -0.554868 10.7817 37 36 34 
-0.655214 -0.23532 10.6558 133 129 120 
-0.654787 -0.213907 10.6558 26 25 23 
-0.65427 -0.278008 10.6515 14 18 21 
-0.628396 4.40757 10.1454 96 79 61 
-0.654218 -0.247785 10.6622 156 148 135 
-0.658178 -0.475344 10.7593 165 158 140 
-0.658178 -0.475344 10.7593 165 158 140 
-0.54529 5.11198 8.94776 32 30 35 
-0.655402 -0.507522 10.76 58 48 46 
-0.645099 -0.268382 10.6728 143 129 126 
-0.527146 5.09056 8.84801 129 125 126 
-0.610566 4.43539 10.1487 182 162 138 
-0.63194 -0.494959 10.7849 155 148 130 
-0.514479 5.11951 8.8403 139 134 140 
-0.625648 -0.458952 10.7684 151 145 129 
-0.618205 -0.491666 10.7836 48 44 32 
-0.59563 -0.539234 10.8316 162 161 159 
-0.476011 5.10007 8.83966 95 86 89 
-0.480576 4.59412 8.96268 54 47 37 
-0.579096 -0.58215 10.8634 179 176 161 
-0.579096 -0.58215 10.8634 179 176 161 
-0.572398 -0.607018 10.8944 39 34 30 
-0.562927 -0.564752 10.9102 33 32 30 
-0.557617 -0.540399 10.8614 132 130 131 
-0.557617 -0.540399 10.8614 132 130 131 
-0.523404 -0.230194 10.7546 90 85 91 
-0.528315 -0.57585 10.8974 116 114 115 
-0.421286 5.10329 8.80986 155 146 151 
-0.523929 -0.526982 10.8848 164 163 159 
-0.523929 -0.526982 10.8848 164 163 159 
-0.521189 -0.603182 10.9435 39 34 38 
-0.521189 -0.603182 10.9435 39 34 38 
-0.412476 5.09961 8.82609 83 79 76 
-0.494711 -0.322182 10.8208 124 124 124 
-0.493552 -0.36946 10.8472 113 111 116 
-0.493552 -0.36946 10.8472 113 111 116 
-0.487032 -0.327145 10.8247 33 35 32 
-0.40211 4.41896 9.03059 70 64 52 
-0.396746 5.08372 8.92915 32 33 37 
-0.457451 4.5585 10.2967 165 131 86 
-0.394354 4.54698 9.11624 48 51 56 
-0.394354 4.54698 9.11624 48 51 56 
-0.473766 -0.379289 10.8775 48 42 46 
-0.459067 -0.317395 10.8472 93 87 91 
-0.444057 -0.0652589 10.7517 90 89 95 
-0.428237 -0.114614 10.7882 139 129 119 
-0.428237 -0.114614 10.7882 139 129 119 
-0.424633 0.000453117 10.74 24 24 24 
-0.406228 4.54348 10.3286 193 159 122 
-0.416845 -0.0149695 10.756 103 103 111 
-0.417541 -0.138027 10.8171 26 17 18 
-0.411076 0.0140093 10.7259 17 15 26 
-0.410199 0.0912888 10.7075 120 127 137 
-0.407227 -0.054269 10.788 11 10 24 
-0.400226 0.180275 10.6754 115 126 130 
-0.400226 0.180275 10.6754 115 126 130 
-0.400226 0.180275 10.6754 115 126 130 
-0.403609 -0.0171519 10.7677 12 11 27 
-0.332252 4.83445 9.07447 35 27 25 
-0.332252 4.83445 9.07447 35 27 25 
-0.393868 -0.023022 10.7925 19 18 34 
-0.371522 4.5089 10.3419 207 177 139 
-0.312094 4.6798 9.22684 114 103 81 
-0.313654 4.55856 10.3607 100 69 49 
-0.257954 0.432575 9.05221 205 106 25 
-0.248721 1.00772 9.03618 16 17 22 
-0.238842 0.421162 9.11346 212 131 26 
-0.238842 0.421162 9.11346 212 131 26 
-0.19663 0.451518 9.20184 179 69 10 
-0.167105 4.70454 10.1206 102 97 94 
-0.101995 4.98582 9.7629 124 79 60 
-0.090909 4.46289 9.90972 174 140 105 
-0.0741155 5.15356 9.27318 226 211 182 
-0.0746411 4.63937 9.88159 189 156 121 
-0.0577182 0.36002 9.62268 189 144 43 
-0.0543855 1.00265 9.4559 43 0 0 
-0.0433025 5.12815 9.32965 81 63 53 
-0.0293583 4.42825 10.0242 178 140 104 
-0.00877776 4.39203 10.1628 124 95 65 
0.0160465 4.52013 10.0508 138 95 50 
0.0178087 4.53291 10.0113 202 161 109 
0.0236777 4.58311 10.0514 197 156 102 
0.0236777 4.58311 10.0514 197 156 102 
0.0248685 4.44219 10.124 132 92 57 
0.0386956 0.598364 9.67721 117 40 34 
0.0678795 2.05315 4.23383 50 34 19 
0.0598228 0.707142 9.69657 196 120 34 
0.0635959 0.762414 9.70128 186 120 24 
0.121914 4.71737 10.3048 121 91 65 
0.121914 4.71737 10.3048 121 91 65 
0.236312 4.70984 10.3735 176 147 105 
0.265338 -1.25225 11.4872 51 36 17 
0.251767 4.69707 10.4514 41 58 50 
0.267113 4.53177 10.599 138 126 114 
0.290373 4.66683 10.4923 144 130 69 
0.306933 4.68688 10.4643 33 24 7 
0.306933 4.68688 10.4643 33 24 7 
0.349957 -1.25591 11.5286 61 42 10 
0.330828 4.62921 10.4708 35 47 47 
0.350184 4.64272 10.4074 23 24 28 
0.350643 4.67737 10.4111 120 118 70 
0.383354 2.97484 11.4458 118 116 104 
0.383354 2.97484 11.4458 118 116 104 
0.411952 3.33086 11.5144 45 42 37 
0.411952 3.33086 11.5144 45 42 37 
0.381487 4.60448 10.3749 22 22 12 
0.414671 3.42349 11.4983 53 52 48 
0.414671 3.42349 11.4983 53 52 48 
0.423433 3.22772 11.5058 90 86 75 
0.424936 3.29328 11.5114 32 31 26 
0.431003 3.02023 11.4805 75 22 38 
0.432161 3.06944 11.5103 80 21 41 
0.401761 4.62325 10.3779 30 22 11 
0.443167 2.95658 11.4795 67 22 27 
0.44663 2.99391 11.5096 135 104 109 
0.449631 3.04581 11.5153 143 100 107 
0.449443 3.09155 11.5128 149 104 111 
0.449443 3.09155 11.5128 149 104 111 
0.360822 5.08054 8.5894 64 67 76 
0.362073 5.05179 8.58897 61 63 75 
0.362073 5.05179 8.58897 61 63 75 
0.417872 4.60355 10.3729 113 107 71 
0.417872 4.60355 10.3729 113 107 71 
0.456441 3.06386 11.5045 66 36 36 
0.459079 3.28387 11.5324 123 120 113 
0.463675 3.31582 11.5439 101 100 96 
0.464883 3.01494 11.5154 67 33 32 
0.466334 3.12279 11.5544 68 36 39 
0.468363 3.39225 11.5245 50 50 42 
0.475882 3.28851 11.5605 59 56 51 
0.486151 3.00437 11.6649 123 87 91 
0.483825 3.4013 11.5772 49 48 43 
0.484406 2.86978 11.5327 71 26 33 
0.484406 2.86978 11.5327 71 26 33 
0.484429 4.16791 11.535 40 37 58 
0.487451 3.28704 11.5544 120 116 113 
0.487688 2.90504 11.5044 105 65 66 
0.490371 2.95384 11.5242 88 39 45 
0.501786 3.10408 11.5323 64 30 31 
0.501786 3.10408 11.5323 64 30 31 
0.506472 3.04582 11.5622 78 39 44 
0.510244 2.9028 11.5368 130 89 95 
0.511257 3.00114 11.5503 122 115 107 
0.511257 3.00114 11.5503 122 115 107 
0.515853 3.31528 11.5805 64 63 59 
0.515853 3.31528 11.5805 64 63 59 
0.411425 5.08619 8.62036 78 81 86 
0.526958 3.15294 11.5593 128 120 109 
0.528433 2.96469 11.5815 68 32 36 
0.521391 4.81222 11.4081 124 82 60 
0.521391 4.81222 11.4081 124 82 60 
0.496101 -1.67391 10.329 117 81 55 
0.496101 -1.67391 10.329 117 81 55 
0.538467 3.28752 11.568 48 50 45 
0.544232 3.11134 11.5976 79 38 42 
0.544784 3.39355 11.6083 55 56 50 
0.433748 5.04914 8.61771 58 61 66 
0.503886 -1.22674 10.2593 115 89 64 
0.556788 3.08099 11.6062 133 109 105 
0.563877 3.59937 11.6909 125 121 110 
0.564088 2.94142 11.5984 124 118 104 
0.564088 2.94142 11.5984 124 118 104 
0.523634 -1.52762 10.3292 222 199 158 
0.527136 -1.55402 10.3482 93 65 43 
0.574699 2.92311 11.6245 67 27 27 
0.572999 2.97699 11.5835 123 119 107 
0.572999 2.97699 11.5835 123 119 107 
0.57453 3.30519 11.6148 95 96 91 
0.575956 3.20353 11.5726 77 76 71 
0.575956 3.20353 11.5726 77 76 71 
0.581948 3.14299 11.617 65 28 36 
0.581948 3.14299 11.617 65 28 36 
0.534472 -1.6405 10.2687 52 10 0 
0.460985 5.12996 8.63001 91 91 101 
0.588233 3.10376 11.6359 86 31 52 
0.588449 3.38137 11.6453 117 114 105 
0.586698 4.38459 11.5416 67 53 76 
0.470188 5.13658 8.62419 22 21 29 
0.474522 5.1094 8.63784 19 19 29 
0.605811 3.13077 11.6432 137 114 108 
0.605811 3.13077 11.6432 137 114 108 
0.597749 4.88341 11.4634 123 78 59 
0.615334 2.91613 11.6355 80 27 43 
0.482841 5.06456 8.63664 77 80 85 
0.609263 4.87037 11.457 181 138 122 
0.620886 3.37371 11.6535 122 122 112 
0.490207 4.96429 8.72782 11 14 29 
0.623649 3.03364 11.6383 81 35 45 
0.623649 3.03364 11.6383 81 35 45 
0.625495 2.9311 11.6335 145 98 106 
0.632783 3.30514 11.6704 100 98 99 
0.500344 5.06801 8.74511 79 78 84 
0.580322 -1.29779 10.1988 117 80 62 
0.585763 -1.17961 10.2862 49 23 10 
0.585763 -1.17961 10.2862 49 23 10 
0.651437 3.41091 11.6755 54 53 49 
0.653629 2.91253 11.6856 77 27 39 
0.652267 3.03442 11.6582 131 110 109 
0.657783 2.99646 11.6784 122 118 109 
0.599355 -1.30176 10.2256 60 32 11 
0.666326 2.92807 11.6928 135 99 103 
0.665051 2.95645 11.657 130 113 103 
0.670709 2.90703 11.676 132 96 100 
0.60775 -1.38943 10.2402 94 54 19 
0.673141 3.05794 11.6762 88 32 45 
0.674254 3.30971 11.6804 51 52 47 
0.678457 3.36516 11.6764 70 65 62 
0.679996 3.03574 11.695 76 30 40 
0.611418 -1.598 10.1969 66 31 3 
0.681601 3.373 11.6727 67 63 64 
0.619887 -1.17038 10.2639 58 40 16 
0.686662 2.94268 11.6733 71 34 42 
0.623262 -1.28901 10.2395 155 116 83 
0.693362 3.07522 11.6789 144 94 106 
0.627944 -1.41877 10.2567 175 136 97 
0.696023 3.04374 11.6894 140 88 101 
0.630186 -1.65108 10.2168 131 95 61 
0.633608 -1.18432 10.2614 242 228 193 
0.706314 2.89197 11.6948 137 89 103 
0.623074 -0.755199 9.94295 44 26 22 
0.639643 -1.65818 10.1982 62 26 0 
0.639643 -1.65818 10.1982 62 26 0 
0.715485 3.05097 11.6885 83 40 47 
0.725026 3.21448 11.7481 75 76 68 
0.725026 3.21448 11.7481 75 76 68 
0.725302 2.90744 11.6991 84 25 45 
0.652167 -1.69403 10.1876 149 119 93 
0.641022 -0.749333 9.95479 255 255 228 
0.641022 -0.749333 9.95479 255 255 228 
0.731885 3.06985 11.7207 128 92 96 
0.736969 2.85641 11.7214 132 118 109 
0.738439 3.37604 11.7096 75 72 67 
0.662696 -1.4317 10.2026 86 54 31 
0.665567 -1.41052 10.2166 159 125 87 
0.667954 -1.67324 10.1941 87 59 37 
0.671939 -1.68917 10.1892 61 35 12 
0.760227 3.3264 11.7277 125 122 113 
0.760227 3.3264 11.7277 125 122 113 
0.682894 -1.69621 10.188 146 120 95 
0.684199 -1.69761 10.1957 146 120 95 
0.686373 -1.23634 10.2128 57 24 5 
0.767874 3.27085 11.7535 51 50 46 
0.770881 3.20554 11.7585 82 79 70 
0.770881 3.20554 11.7585 82 79 70 
0.771674 4.48253 11.6336 125 54 68 
0.780309 3.37152 11.7306 94 93 88 
0.779941 3.67458 11.7049 33 22 38 
0.779941 3.67458 11.7049 33 22 38 
0.779656 4.30613 11.6486 54 24 36 
0.779656 4.30613 11.6486 54 24 36 
0.70577 -1.21023 10.2315 63 28 6 
0.791089 2.86853 11.7604 81 49 50 
0.705741 -1.22373 10.2002 123 86 59 
0.791594 3.40035 11.744 121 121 111 
0.71282 -1.17825 10.2652 64 44 33 
0.71352 -1.24598 10.2098 67 25 0 
0.806394 3.00144 11.7676 127 114 108 
0.721417 -1.63022 10.2009 104 59 28 
0.814829 3.30009 11.7985 56 57 51 
0.809518 4.2005 11.6547 143 66 86 
0.740946 -1.42924 10.2399 105 72 41 
0.84033 3.28815 11.7774 105 106 98 
0.844347 3.27336 11.788 50 51 43 
0.846518 3.34158 11.809 124 120 109 
0.846518 3.34158 11.809 124 120 109 
0.767844 -1.42778 10.2554 109 75 47 
0.86988 3.04975 11.8129 132 114 110 
0.86988 3.04975 11.8129 132 114 110 
0.86558 4.31199 11.728 58 26 39 
0.879231 3.28498 11.8123 68 68 66 
0.797332 -1.20066 10.2803 234 206 169 
0.897288 3.00673 11.7902 83 42 50 
0.912925 3.28273 11.823 110 107 100 
0.815338 -1.12047 10.3004 191 166 136 
0.920439 3.06435 11.8303 140 94 105 
0.936982 3.2829 11.8293 61 60 58 
0.936982 3.2829 11.8293 61 60 58 
0.937518 3.04106 11.8192 89 27 48 
0.944305 3.04542 11.8353 87 28 48 
0.852844 4.82764 10.5475 85 42 36 
0.95002 3.07972 11.8574 90 42 56 
0.95002 3.07972 11.8574 90 42 56 
0.953265 3.68637 11.8127 19 18 34 
0.977855 3.3281 11.8904 124 127 110 
0.971547 4.88352 11.705 85 39 39 
0.985025 3.36922 11.8476 64 64 64 
0.812887 5.21135 9.48934 17 14 23 
0.829167 5.02473 9.62438 97 82 75 
0.997346 3.26798 11.8446 58 58 56 
0.989451 4.87369 11.7004 152 112 104 
1.00457 3.07667 11.8821 83 46 53 
1.00422 3.74957 11.8178 25 17 32 
1.01262 3.0026 11.8749 78 52 51 
1.01262 3.0026 11.8749 78 52 51 
1.01762 2.98229 11.893 130 117 109 
1.01666 3.37413 11.8582 122 122 114 
1.01666 3.37413 11.8582 122 122 114 
1.00461 4.90698 11.7031 156 110 95 
1.01965 3.03836 11.8825 130 120 111 
0.921172 4.85542 10.5626 76 40 40 
1.02512 3.41112 11.9023 127 127 115 
1.02646 3.3245 11.8787 123 120 111 
1.02798 3.24244 11.8657 124 121 112 
1.02704 3.27925 11.8373 66 65 60 
1.03498 3.58129 11.9142 124 122 109 
1.03498 3.58129 11.9142 124 122 109 
1.03367 3.27051 11.8727 106 105 103 
0.857864 5.06945 9.59004 79 61 41 
1.03548 3.38284 11.8797 64 64 54 
1.02737 4.29926 11.7546 66 45 62 
1.04427 3.00469 11.9063 68 34 35 
1.05061 3.07256 11.9096 59 31 30 
1.05722 3.36962 11.8871 47 48 43 
0.979623 -1.4452 10.8474 60 24 50 
0.901975 -0.386172 9.83701 110 96 69 
1.06243 3.25394 11.8879 48 48 40 
1.06539 3.06643 11.9222 123 89 88 
1.06539 3.06643 11.9222 123 89 88 
1.0545 4.24023 11.7829 96 91 114 
0.91247 -0.0568711 9.83475 28 10 0 
1.06885 4.86424 11.7509 89 48 42 
0.922453 -0.0811154 9.85545 33 19 0 
1.09501 3.07505 11.9692 64 28 28 
0.927603 -0.0663267 9.85938 98 82 67 
0.89413 5.1138 9.49109 75 62 53 
0.89413 5.1138 9.49109 75 62 53 
0.907178 5.14399 9.63846 153 134 104 
1.10479 3.27602 11.9793 80 80 72 
1.11297 3.27559 11.9423 43 43 33 
0.945285 0.0367988 9.86636 150 135 114 
0.948519 -0.405454 9.87078 119 98 51 
1.11291 4.19946 11.8542 164 146 126 
0.94965 0.0134314 9.85322 23 11 0 
0.952875 0.0254356 9.86811 29 17 0 
1.0543 -1.74121 10.9771 182 183 167 
1.12189 4.31393 11.8419 164 148 123 
1.12189 4.31393 11.8419 164 148 123 
1.13946 3.0687 12.0111 70 45 40 
0.963761 0.015996 9.87606 140 129 111 
0.969784 -0.0673037 9.8794 107 93 64 
0.969031 -0.0803192 9.85738 27 12 0 
1.16054 3.02973 12.0529 134 104 102 
1.16054 3.02973 12.0529 134 104 102 
1.03674 4.88891 10.4516 190 168 144 
0.994688 0.0365525 9.90849 36 24 2 
0.995869 0.496546 9.92022 21 2 4 
0.996128 -0.0436862 9.91037 18 4 0 
1.09452 -1.80917 10.9886 58 100 98 
1.17295 4.28469 11.8926 63 14 33 
1.00299 -0.0352388 9.89537 127 114 82 
1.00299 -0.0352388 9.89537 127 114 82 
1.00299 -0.0352388 9.89537 127 114 82 
1.00655 0.49006 9.93173 134 119 112 
1.00954 -0.523899 9.91815 136 119 91 
1.10976 -1.87973 10.9935 178 177 159 
1.21716 3.03997 12.1544 79 37 41 
1.21716 3.03997 12.1544 79 37 41 
1.20031 4.40412 11.9565 102 43 63 
1.21753 3.02767 12.1123 68 26 30 
1.20977 4.4768 11.9671 128 67 72 
1.22497 3.0067 12.1 126 83 90 
1.22844 3.04787 12.1168 129 88 94 
1.21143 4.09125 11.9341 40 3 34 
1.23429 2.99233 12.1265 68 39 41 
1.23532 3.05612 12.0871 71 39 44 
1.04645 -0.50072 9.95997 40 12 8 
1.24575 3.03696 12.1276 73 31 41 
1.00976 5.178 9.53406 222 199 165 
1.00976 5.178 9.53406 222 199 165 
1.05696 0.572035 9.98231 94 60 51 
1.06202 -0.298926 9.96171 36 20 0 
1.16814 -2.02844 11.0316 90 108 70 
1.25153 4.63139 11.9475 190 146 119 
1.1713 -2.04182 11.0284 228 212 179 
1.07317 -0.124586 9.98961 91 78 62 
1.02297 5.17445 9.45911 177 165 139 
1.18349 -1.8755 10.9715 223 198 158 
1.18349 -1.8755 10.9715 223 198 158 
1.03785 5.16894 9.46044 89 73 60 
1.16725 -1.1659 10.7206 210 182 145 
1.11471 -0.722763 10.1712 39 22 14 
1.14117 4.94178 10.4827 47 46 64 
1.22395 -2.46955 11.2646 161 79 68 
1.20354 -1.96831 11.017 59 95 49 
1.20354 -1.96831 11.017 59 95 49 
1.20354 -1.96831 11.017 59 95 49 
1.05022 5.16844 9.47204 179 169 157 
1.137 -0.902801 10.2888 207 174 139 
1.16629 4.9452 10.5051 195 183 161 
1.16629 4.9452 10.5051 195 183 161 
1.12568 -0.114265 10.029 36 10 9 
1.12989 -0.274103 10.0454 108 90 68 
1.2207 -1.20244 10.7061 180 150 30 
1.20184 4.96412 10.4979 50 47 74 
1.19826 5.07306 10.3558 27 19 42 
1.39781 3.57533 12.2015 114 104 95 
1.22815 4.95289 10.4998 127 115 129 
1.42948 2.78474 12.3479 104 100 89 
1.29656 -1.68356 10.9354 171 66 62 
1.24327 4.93504 10.4611 129 118 122 
1.24704 5.07706 10.4229 32 37 69 
1.33925 -2.22608 11.2319 227 202 161 
1.2494 4.94748 10.4224 98 98 132 
1.25529 4.9525 10.4725 59 58 72 
1.28602 -1.10651 10.7042 228 190 145 
1.2669 4.94266 10.549 143 131 117 
1.46301 3.58529 12.2792 111 103 92 
1.28021 4.94412 10.5781 95 81 70 
1.26256 4.95205 10.3989 42 45 88 
1.27045 4.94115 10.4286 161 158 169 
1.26353 5.08969 10.3384 84 85 105 
1.28311 4.94474 10.5222 97 87 78 
1.27807 5.00908 10.3533 102 103 134 
1.2882 4.95122 10.4456 90 84 94 
1.37193 -1.89368 11.1478 226 201 161 
1.34767 -1.63119 10.9274 189 54 51 
1.48122 4.91356 12.0467 80 45 51 
1.53137 2.78657 12.3874 47 41 25 
1.33551 -0.671483 10.5525 222 192 168 
1.31795 4.93944 10.4233 140 138 162 
1.31592 5.00694 10.3458 108 103 135 
1.39167 -1.69059 10.9617 200 106 94 
1.41072 -1.69351 10.9703 240 201 170 
1.3718 4.93665 10.6596 155 143 129 
1.54463 4.82406 12.12 131 76 81 
1.36862 5.0938 10.4836 99 92 125 
1.36945 4.94507 10.4467 106 104 125 
1.43508 -1.58973 10.9259 238 206 167 
1.39727 4.93933 10.6255 103 89 80 
1.42087 -1.2879 10.7773 240 189 168 
1.58521 4.91704 12.1245 54 11 21 
1.58521 4.91704 12.1245 54 11 21 
1.41886 4.94397 10.6991 163 151 139 
1.4153 0.000824513 10.5948 32 11 16 
1.42956 -0.0542989 10.6167 177 158 115 
1.41204 4.93825 10.458 78 66 86 
1.64274 4.09078 12.3307 57 25 28 
1.41782 4.93255 10.4789 140 131 122 
1.46358 -1.37737 10.823 229 181 161 
1.64366 4.11017 12.3166 70 28 30 
1.41066 5.02339 10.3926 110 111 142 
1.44227 -0.0562469 10.623 67 47 0 
1.64489 4.13741 12.3085 74 40 41 
1.62719 4.89735 12.1547 57 27 35 
1.44517 -0.380117 10.6129 34 10 0 
1.44411 -0.341854 10.5854 219 200 158 
1.44952 -0.688115 10.6185 110 57 63 
1.45098 -0.0626112 10.6206 174 154 103 
1.45793 -0.373265 10.6252 164 138 103 
1.46208 -0.491297 10.6392 177 153 127 
1.46262 -0.0623016 10.6266 72 55 12 
1.47237 4.93407 10.6453 137 122 101 
1.47424 0.0296184 10.6332 177 163 118 
1.48109 4.92584 10.6641 190 176 163 
1.48479 -0.0712257 10.6506 70 45 4 
1.48142 0.0249972 10.6144 58 43 0 
1.46683 4.93769 10.4923 156 144 144 
1.49147 -0.451649 10.6526 217 190 147 
1.48907 -0.689887 10.6181 229 205 171 
1.47452 4.98517 10.5012 44 47 82 
1.50234 -0.463148 10.6696 69 49 0 
1.50654 0.00272089 10.6565 37 18 0 
1.49342 4.9292 10.5612 196 181 152 
1.51066 0.0662731 10.6709 28 18 8 
1.51849 -0.0366628 10.6616 52 33 0 
1.52113 -0.110838 10.6434 10 1 0 
1.52651 -0.336062 10.6799 165 143 86 
1.53469 -0.452208 10.716 128 110 48 
1.73632 4.61889 12.2802 77 63 54 
1.73632 4.61889 12.2802 77 63 54 
1.52937 -0.0207781 10.6509 35 24 0 
1.52977 4.92892 10.6697 48 41 72 
1.53831 -0.481263 10.7035 31 10 0 
1.53268 0.0760444 10.6511 22 10 0 
1.54092 0.0257542 10.6502 111 97 68 
1.55593 -0.501183 10.6926 39 22 0 
1.55315 -0.0448433 10.6497 46 30 0 
1.55832 0.0452234 10.6695 100 89 57 
1.56319 0.546328 10.681 140 131 114 
1.56616 -0.489722 10.6964 37 18 0 
1.54889 4.91897 10.5747 90 94 123 
1.57116 -0.321006 10.6637 32 15 0 
1.5776 -1.00496 10.6981 233 207 172 
1.5787 -0.338583 10.6754 130 116 71 
1.58517 -0.309369 10.6794 36 20 0 
1.53004 5.1997 10.2747 239 223 172 
1.5972 0.512437 10.6958 26 14 0 
1.60312 0.543468 10.7012 25 17 0 
1.60377 -0.364796 10.6884 44 32 10 
1.61096 0.491033 10.7022 95 88 78 
1.61168 -0.287812 10.7026 26 14 0 
1.61356 -0.357002 10.6957 26 11 0 
1.61577 -0.0678711 10.6965 57 37 12 
1.6154 -0.0523623 10.6786 138 116 92 
1.62024 -0.345303 10.7003 20 10 0 
1.61977 -0.119692 10.6995 107 94 75 
1.62304 0.569912 10.7173 75 67 54 
1.63049 -0.074994 10.6884 171 150 123 
1.62969 -0.0746151 10.6818 171 150 123 
1.64561 0.487745 10.7222 78 68 66 
1.64831 -0.304196 10.7168 29 13 0 
1.65149 -0.158094 10.7351 83 69 56 
1.65341 -0.192864 10.7248 24 16 0 
1.64966 -0.0654413 10.6571 176 154 141 
1.67493 -0.833288 10.7448 234 200 175 
1.6774 -0.954079 10.7555 233 207 170 
1.90477 4.95339 12.3227 173 77 91 
1.59836 5.15426 10.1498 110 46 11 
1.68916 -0.180214 10.7449 24 2 0 
1.70802 -0.953914 10.7747 238 201 183 
1.70813 -0.237707 10.7714 98 83 60 
1.64618 5.16704 10.3471 119 62 43 
1.71525 -0.836887 10.7785 117 57 59 
1.66648 5.11584 10.4561 207 104 105 
1.71911 4.93674 10.8202 90 85 79 
1.72237 -0.224251 10.7865 32 15 0 
1.72338 -0.256608 10.7775 79 63 48 
1.68614 5.10051 10.4623 235 147 143 
1.73445 -0.0731886 10.7843 39 17 0 
1.7356 -0.128628 10.7822 45 24 0 
1.73628 -0.232608 10.7764 132 113 83 
1.74032 -0.700552 10.7726 233 203 175 
1.75471 -0.339815 10.8291 37 21 6 
1.75122 -0.0665428 10.7989 182 162 137 
1.7533 -0.136036 10.8059 108 94 68 
1.89988 5.00684 11.7921 180 156 130 
1.76437 -0.0607 10.8061 52 35 7 
1.77895 -0.312446 10.8258 39 22 2 
1.69822 5.13793 10.1847 100 43 36 
1.70153 5.1039 10.2036 240 216 172 
2.0383 4.95434 12.416 172 80 91 
1.80818 -0.957073 10.8872 228 198 162 
1.81416 -0.462708 10.9125 51 35 2 
1.83413 0.0364085 10.9303 148 120 72 
1.8362 -0.374482 10.8325 194 173 144 
1.75704 5.14925 10.225 108 32 34 
1.75427 5.08823 10.1967 164 124 114 
1.83742 5.09304 10.6584 176 129 99 
1.7397 5.09873 9.9671 136 72 45 
1.87211 4.97909 10.7948 17 13 14 
1.89221 4.91031 10.8803 183 158 117 
1.82967 5.10622 10.3827 103 65 56 
1.90717 5.05564 10.8499 151 135 109 
1.96128 0.323871 11.1736 69 47 8 
1.76832 5.11999 9.94158 236 190 138 
1.92685 4.92541 10.8599 216 189 159 
2.03882 4.73818 11.5348 192 164 140 
1.81721 5.08086 10.1135 141 97 58 
1.94844 5.11581 10.9137 38 32 20 
1.84988 5.03886 10.3007 113 85 73 
1.99741 0.692438 11.1929 135 112 58 
2.01272 0.305101 11.2283 188 156 33 
2.04263 0.520718 11.3467 72 52 17 
1.86566 5.09349 10.2276 89 61 37 
1.97222 5.03998 10.8458 171 145 110 
1.8302 5.15924 9.98913 220 170 121 
2.03415 0.688863 11.1484 64 49 8 
2.04202 0.236794 11.1844 109 82 1 
1.98105 5.09599 10.8085 141 120 89 
1.84125 5.10795 9.97647 151 67 31 
1.89535 5.08573 10.2941 242 218 170 
2.04604 0.403109 11.172 134 101 30 
2.00401 5.04767 10.8727 104 65 48 
2.00135 4.97021 10.8363 149 58 55 
2.06487 4.93817 11.1987 75 44 16 
1.90763 5.07108 10.2595 162 134 95 
2.009 5.00424 10.8364 118 45 39 
1.86626 5.14904 9.98653 218 151 99 
2.08342 0.200056 11.2285 110 89 22 
2.07233 0.418076 11.1524 160 141 65 
2.08409 0.395101 11.1918 179 147 26 
2.09647 0.233224 11.2245 197 160 28 
2.03027 5.1053 10.82 127 110 103 
2.05461 4.90323 10.9229 178 165 97 
2.04166 5.04137 10.8305 119 95 91 
2.12363 0.136965 11.2682 188 158 70 
2.11497 0.104993 11.2145 83 50 0 
2.12186 0.166429 11.1972 83 61 1 
2.12643 0.111651 11.1949 188 161 84 
2.08633 4.99809 10.899 167 168 90 
1.92068 5.10329 9.89115 126 96 72 
2.10484 4.9772 10.8963 96 102 6 
2.10484 4.9772 10.8963 96 102 6 
2.20483 -0.150114 11.4337 33 21 7 
2.16516 4.90765 11.2111 198 164 31 
2.11212 4.98918 10.8775 139 146 50 
2.11212 4.98918 10.8775 139 146 50 
1.93911 5.08909 9.88567 121 84 58 
1.93911 5.08909 9.88567 121 84 58 
2.16906 0.120089 11.1597 194 167 88 
2.10822 5.0421 10.8041 33 28 35 
2.12571 5.01327 10.8804 78 76 25 
2.12047 5.07501 10.8476 59 56 67 
2.17287 4.91903 11.1284 200 166 32 
2.01334 5.0408 10.2304 113 80 47 
2.1398 5.08822 10.9153 36 23 30 
2.19031 0.154444 11.1752 100 84 32 
2.13822 5.0403 10.8781 141 115 98 
2.13822 5.0403 10.8781 141 115 98 
2.20811 4.90001 11.2188 89 81 32 
2.22631 4.88829 11.3104 66 68 67 
2.09971 5.11338 10.6084 194 151 98 
2.2111 4.90831 11.197 210 179 71 
2.20025 0.813866 11.1224 136 107 13 
2.15616 4.96941 10.8785 44 20 20 
2.15879 5.02487 10.8929 44 22 8 
2.16081 5.09715 10.8913 125 104 85 
2.16081 5.09715 10.8913 125 104 85 
2.21116 0.131369 11.1587 162 147 92 
2.16743 5.00547 10.8962 161 135 118 
2.21713 4.90376 11.1061 224 199 57 
2.18696 4.89543 10.9366 131 129 18 
2.60107 2.46407 13.1219 29 14 37 
2.19893 4.90304 10.9268 151 142 47 
2.1816 5.14443 10.8305 47 46 64 
2.19651 5.02434 10.9007 43 14 8 
2.23611 4.90007 11.0796 89 77 0 
2.23107 4.90796 11.0348 169 163 49 
2.24864 4.89243 11.1116 214 196 70 
2.23786 0.328855 11.0468 149 129 56 
2.21933 5.01281 10.9272 182 95 76 
2.11161 5.09381 10.3427 84 41 25 
2.21603 5.08277 10.8572 98 70 33 
2.29568 4.88372 11.2495 105 107 85 
2.30571 4.86403 11.2935 204 182 63 
2.24276 4.94005 10.9376 134 104 44 
2.70325 2.09693 13.3107 153 130 98 
2.26663 4.94941 11.0133 229 232 125 
2.13177 5.08446 10.3037 206 153 113 
2.34955 -0.248198 11.431 151 114 0 
2.35123 4.88431 11.3962 215 164 46 
2.25387 5.09912 10.8771 101 71 19 
2.26736 4.95783 10.9291 110 63 33 
2.33849 0.047103 11.2802 237 199 28 
2.3642 -0.224279 11.4067 145 110 10 
2.27385 4.92916 10.9247 122 112 25 
2.37285 -0.240518 11.441 151 120 27 
2.37295 -0.250068 11.431 158 126 25 
2.30256 5.13319 11.0622 112 69 24 
2.72205 2.32214 13.2096 23 8 31 
2.27302 5.07894 10.8776 190 149 93 
2.16495 5.09872 10.3168 223 180 112 
2.34852 4.87959 11.2271 217 181 22 
2.34852 4.87959 11.2271 217 181 22 
2.34852 4.87959 11.2271 217 181 22 
2.38361 -0.250165 11.41 146 115 9 
2.37714 4.87569 11.3701 174 100 35 
2.39013 -0.185614 11.424 168 136 17 
2.37948 -0.203032 11.3446 218 182 72 
2.34099 0.179431 11.1235 110 95 26 
2.42216 4.87 11.5223 98 52 39 
2.20136 5.07194 10.3844 124 97 67 
2.32319 4.8755 11.008 175 148 79 
2.31235 4.93305 10.946 135 140 37 
2.32716 4.9025 10.9994 171 174 71 
2.41536 -0.252642 11.4416 151 120 4 
2.35464 0.145074 11.1231 204 172 51 
2.33934 4.89469 10.9849 96 92 21 
2.32579 5.0586 10.9123 114 75 34 
2.35685 4.95533 11.0092 156 147 68 
2.79186 2.98258 13.1816 14 1 21 
2.38205 0.116739 11.1146 225 186 31 
2.21488 5.07975 10.2619 216 177 108 
2.44253 -0.257766 11.4052 150 117 10 
2.44253 -0.257766 11.4052 150 117 10 
2.35104 4.98099 10.9452 143 65 45 
2.44202 -0.225157 11.3991 142 108 1 
2.44202 -0.225157 11.3991 142 108 1 
2.39854 0.735453 11.1136 156 136 67 
2.3649 4.94884 10.9414 228 204 158 
2.3649 4.94884 10.9414 228 204 158 
2.85117 3.08584 13.3706 102 89 80 
2.46028 -0.264419 11.4086 210 176 66 
2.3593 5.09467 10.898 194 154 92 
2.39402 4.88836 11.0344 182 152 118 
2.79579 -2.91185 13.0155 9 4 0 
2.38561 4.97626 10.9545 106 47 33 
2.83849 2.951 13.1922 78 67 75 
2.83849 2.951 13.1922 78 67 75 
2.83849 2.951 13.1922 78 67 75 
2.83849 2.951 13.1922 78 67 75 
2.39073 5.07488 10.9667 109 56 24 
2.52697 4.85573 11.6305 91 61 50 
2.47677 -0.210974 11.3726 209 176 69 
2.88498 2.24562 13.3805 113 98 93 
2.48793 -0.256291 11.4047 144 113 7 
2.44666 4.91301 11.1902 87 76 0 
2.40586 4.98073 10.9424 183 136 120 
2.50033 -0.24063 11.3912 205 177 78 
2.50033 -0.24063 11.3912 205 177 78 
2.43672 4.90489 11.0711 228 200 160 
2.30695 5.06028 10.4337 122 86 52 
2.47412 4.92751 11.2065 224 187 47 
2.47615 4.92997 11.2135 224 187 47 
2.92845 2.12334 13.4024 156 129 99 
2.51579 -0.260928 11.3863 209 177 68 
2.51677 -0.244747 11.3874 136 105 14 
2.91043 2.28401 13.2801 124 108 95 
2.46207 0.349628 11.0817 221 194 65 
2.52399 -0.255883 11.3797 148 113 0 
2.52491 -0.224802 11.3776 158 121 0 
2.43896 4.99673 10.9515 31 16 21 
2.92975 3.34116 13.3307 154 137 117 
2.53339 -0.242647 11.397 215 180 54 
2.77967 -1.22555 12.5627 212 189 158 
2.29719 5.04744 10.2188 73 49 25 
2.32618 5.05133 10.2423 72 49 17 
2.33241 5.07027 10.2189 58 35 4 
2.33991 5.05169 10.2322 176 141 109 
2.52836 0.511565 11.1175 62 48 21 
2.65025 4.82225 11.653 105 69 33 
2.60253 -0.34211 11.4187 240 211 75 
2.54087 0.291326 11.0924 157 119 22 
2.51901 5.11807 10.9894 62 44 44 
2.46788 5.09837 10.7262 205 173 134 
2.63133 -0.325942 11.4547 229 197 26 
2.8835 -1.18076 12.6276 74 61 52 
2.8835 -1.18076 12.6276 74 61 52 
2.55347 5.12019 11.0812 201 162 93 
3.05475 -3.13046 13.4197 19 7 11 
2.66569 4.86663 11.5697 222 194 154 
2.58622 0.276084 11.1317 181 138 7 
2.90308 -0.708165 12.5741 210 178 155 
2.90308 -0.708165 12.5741 210 178 155 
2.93459 -1.23671 12.7117 64 46 34 
2.59561 0.301987 11.1382 171 132 11 
2.6938 4.76979 11.5541 94 64 40 
2.93055 -1.08299 12.6484 159 146 127 
2.41463 5.09239 10.2543 107 83 55 
2.60157 5.05176 11.0899 198 158 88 
2.93263 -0.733953 12.5744 79 69 68 
2.95596 -1.07213 12.6514 41 31 21 
2.43856 4.96729 10.2752 30 19 1 
2.57126 5.07899 10.8381 81 74 81 
2.97578 -0.963426 12.6601 128 116 104 
2.62536 5.0816 11.0259 200 161 82 
2.65872 5.06572 11.1335 203 171 84 
2.99356 -0.742336 12.6372 26 20 8 
2.74705 4.85981 11.515 32 44 30 
2.79298 4.84189 11.7119 61 71 47 
2.85375 4.53311 11.9664 51 37 34 
2.73874 -0.141284 11.4453 203 179 57 
2.55685 5.04362 10.6172 164 145 113 
3.01995 -0.753573 12.663 91 87 75 
3.0412 -1.01773 12.7423 21 15 19 
3.05334 -1.06099 12.742 132 124 111 
2.86041 4.65154 11.8719 157 132 110 
2.64427 5.22377 10.9018 96 84 72 
2.70982 5.05237 11.1307 95 85 60 
2.8129 4.87519 11.5896 168 154 128 
2.90179 4.59004 11.9628 169 144 122 
2.60528 5.05834 10.6374 215 204 174 
2.47909 4.93978 10.0514 97 76 57 
2.60791 5.05596 10.5987 76 63 44 
3.12472 -1.35472 12.8569 91 81 69 
3.12472 -1.35472 12.8569 91 81 69 
2.8071 4.87191 11.4454 130 104 17 
2.89736 4.84088 11.8146 79 49 23 
3.11468 -1.0488 12.7662 7 7 9 
2.87847 4.76048 11.6734 89 66 50 
2.81694 4.83019 11.3776 209 179 33 
2.63381 5.08454 10.579 139 126 110 
2.63381 5.08454 10.579 139 126 110 
2.86061 4.84785 11.5599 175 158 132 
3.14729 -0.834876 12.7813 77 68 71 
2.82563 4.85803 11.2602 255 228 86 
2.85868 0.168103 11.3942 16 3 0 
3.20502 -1.3185 12.87 204 181 150 
2.87407 0.0482823 11.4482 85 78 59 
2.81196 1.05746 11.1794 92 84 73 
2.81196 1.05746 11.1794 92 84 73 
3.22591 -1.16328 12.8727 22 18 19 
3.2166 -0.69184 12.834 46 46 36 
3.2415 -1.28389 12.9089 72 66 54 
2.87668 0.211793 11.3456 223 159 33 
2.87668 0.211793 11.3456 223 159 33 
2.91883 0.0655221 11.4889 84 77 49 
3.24657 -1.20179 12.8295 80 75 71 
2.91629 4.83894 11.3887 127 62 32 
3.27481 -0.710695 12.8524 213 193 169 
3.26172 -0.954958 12.7635 3 1 4 
2.91739 0.263507 11.3141 120 64 7 
2.9348 4.83657 11.3561 221 182 43 
2.93131 5.03817 11.3355 223 177 6 
2.88455 5.06151 11.1366 96 63 20 
3.28853 -0.923403 12.7804 107 105 108 
2.89315 5.02398 11.1074 118 98 65 
2.79181 5.07421 10.6764 36 34 22 
3.02978 -0.0299125 11.6319 19 19 9 
3.01556 4.84906 11.5628 136 107 29 
3.32329 -1.23944 12.8176 207 180 150 
2.88923 5.09053 11.0217 181 151 89 
3.3087 -1.15442 12.7353 79 72 62 
3.04841 0.0589458 11.6579 80 78 63 
2.93079 5.00302 11.1461 201 121 62 
3.36645 -0.567819 12.8232 5 5 5 
2.82542 5.0404 10.6011 183 153 93 
3.04979 4.92657 11.3937 227 188 7 
3.04979 4.92657 11.3937 227 188 7 
3.00952 0.64347 11.2394 10 6 5 
2.96327 5.06465 11.0229 74 58 25 
2.78966 4.92635 10.304 106 80 63 
3.02202 0.503421 11.2276 235 177 77 
3.03412 0.482022 11.2454 21 6 3 
3.03032 1.77113 11.2265 195 155 67 
3.44358 -0.517414 12.8592 205 186 154 
3.43835 -0.644441 12.8106 17 13 14 
3.07737 5.03316 11.3098 164 75 0 
3.10413 5.00594 11.3462 231 175 16 
3.52105 -0.535296 12.8243 219 193 160 
3.52105 -0.535296 12.8243 219 193 160 
3.04717 2.3733 10.9648 188 149 58 
3.34248 4.73628 12.0804 129 108 91 
3.2102 0.17711 11.5181 95 86 71 
3.23701 0.179914 11.505 73 71 58 
3.45194 5.03354 11.7174 177 133 84 
3.50892 -3.24061 11.9327 110 102 81 
3.41491 5.0438 11.5491 87 40 30 
3.30124 5.0379 11.0019 157 92 52 
3.71972 2.84956 12.2529 188 181 153 
3.65359 -3.57861 12.0109 169 161 140 
3.73004 2.89321 12.2222 189 176 157 
3.73298 2.86217 12.22 40 33 14 
3.68083 -3.63683 12.0221 121 119 104 
3.68083 -3.63683 12.0221 121 119 104 
3.53521 5.02812 11.4693 86 23 16 
3.53521 5.02812 11.4693 86 23 16 
3.74762 2.86233 12.1563 202 189 170 
3.66886 4.95538 11.6994 141 56 27 
3.8919 1.41539 12.3253 26 25 4 
3.83755 2.05932 12.0532 210 185 155 
3.83755 2.05932 12.0532 210 185 155 
3.89131 1.86386 12.2311 19 24 4 
3.45353 4.84183 10.7624 185 142 126 
3.92629 1.59544 12.3267 12 18 8 
3.91567 1.40527 12.2861 198 182 159 
3.88819 2.12263 12.1265 26 23 6 
3.75281 4.90033 11.6555 182 143 84 
3.8551 0.992575 11.9528 79 72 53 
3.72365 5.00321 11.4515 96 52 39 
3.76743 4.93529 11.5539 144 58 33 
3.87302 0.976027 11.8902 15 16 11 
3.90279 4.64816 11.9043 105 92 75 
3.80571 4.86551 11.5494 190 155 91 
3.97042 -4.17921 12.061 217 194 150 
3.94145 3.52675 11.835 53 53 27 
3.94145 3.52675 11.835 53 53 27 
4.0693 -4.14086 12.1539 39 36 27 
4.03279 3.9817 11.835 30 27 22 
4.16972 0.735783 12.1051 24 28 14 
4.247 -0.266619 12.2543 63 64 30 
4.14379 4.29045 11.8276 198 185 153 
4.14379 4.29045 11.8276 198 185 153 
-1.29396 -0.612727 10.0269 182 172 162 
-1.25134 -0.461837 10.014 177 187 186 
-1.19447 -0.00129975 9.85638 164 179 174 
-1.21809 -0.214454 9.93436 93 107 118 
-1.19348 -0.0142022 9.85998 51 70 84 
-1.25255 -0.447486 10.0469 37 53 68 
-1.1811 -0.00481264 9.87847 62 75 92 
-1.15728 0.117246 9.8486 69 86 94 
-1.12167 0.354708 9.75772 149 99 4 
-1.14485 0.109448 9.84907 157 178 169 
-1.21598 -0.527778 10.0941 70 89 96 
-1.20384 -0.464346 10.0598 132 144 156 
-1.1345 0.101874 9.85991 75 91 104 
-1.20421 -0.540377 10.0966 154 170 169 
-1.1571 4.32368 9.82967 153 150 145 
-1.10161 0.316547 9.80784 165 147 97 
-1.10809 0.172131 9.85714 167 182 175 
-1.13386 -0.212423 10.0178 119 143 155 
-1.07208 0.289328 9.83623 144 149 152 
-1.09926 4.27662 9.88608 204 190 181 
-1.05751 0.103222 9.93483 129 145 160 
-1.07586 -0.119838 10.0251 105 122 142 
-1.00171 4.48052 9.6715 34 48 61 
-1.05388 -0.179485 10.0738 127 141 154 
-1.03317 -0.0223366 10.0194 149 165 162 
-1.02741 -0.0404296 10.0377 60 77 87 
-0.957159 0.312835 9.93681 120 127 135 
-0.96809 0.105235 10.019 135 136 131 
-1.0312 -0.494709 10.235 140 146 158 
-0.945579 0.139476 10.0328 101 114 131 
-0.920288 0.105684 10.0629 89 105 121 
-0.901118 0.195924 10.0446 133 137 140 
-0.946296 -0.286715 10.2329 77 98 119 
-0.918572 -0.0855578 10.157 95 110 131 
-0.917251 -0.243453 10.2366 77 100 116 
-0.894957 -0.364999 10.3074 98 113 132 
-0.874716 -0.224311 10.264 98 124 137 
-0.856397 -0.140569 10.239 108 123 144 
-0.847938 -0.067442 10.22 150 149 147 
-0.854087 -0.177383 10.2683 82 100 120 
-0.860059 -0.269416 10.2994 84 102 122 
-0.842295 -0.23008 10.3058 29 42 59 
-0.852581 -0.506042 10.4117 93 105 117 
-0.690573 4.3919 9.85484 132 119 110 
-0.770035 -0.136694 10.3265 94 107 126 
-0.76139 -0.165697 10.3495 105 118 137 
-0.749526 -0.174532 10.3647 18 29 47 
-0.732254 -0.106236 10.3456 85 96 118 
-0.725802 -0.479423 10.5294 90 93 102 
-0.594897 4.34663 9.92955 195 186 171 
-0.237455 0.417502 8.80839 172 81 0 
-0.697351 -0.308291 10.4715 130 135 139 
-0.700296 -0.504232 10.5572 166 169 174 
-0.690043 -0.512343 10.5738 29 32 37 
-0.216375 0.416193 8.85399 168 66 0 
-0.678874 -0.522421 10.5842 144 145 149 
-0.667031 -0.469405 10.5651 35 33 36 
-0.644349 -0.232901 10.4905 151 155 158 
-0.665672 -0.490328 10.5821 141 142 144 
-0.200837 0.423191 8.89029 229 116 38 
-0.634881 -0.264931 10.5156 171 172 174 
-0.653033 -0.489981 10.5935 46 42 39 
-0.646905 -0.469079 10.588 178 169 164 
-0.646978 -0.449768 10.5939 45 40 44 
-0.65438 -0.562571 10.6255 190 192 191 
-0.645276 -0.502613 10.6038 50 49 47 
-0.645469 -0.539803 10.6237 159 161 158 
-0.616771 -0.25811 10.5208 27 29 26 
-0.189427 0.435883 8.94104 205 72 3 
-0.64153 -0.592702 10.646 44 47 52 
-0.632706 -0.531838 10.6423 30 31 36 
-0.603874 -0.262512 10.5313 181 183 182 
-0.620452 -0.515207 10.6316 169 173 172 
-0.616705 -0.544276 10.6494 39 40 42 
-0.621101 -0.572414 10.6683 37 38 42 
-0.609564 -0.4866 10.6415 44 43 38 
-0.459327 4.49887 10.0389 100 80 69 
-0.568674 -0.531622 10.6974 35 36 38 
-0.57039 -0.575309 10.7124 191 190 186 
-0.635999 -3.87608 11.1065 176 115 84 
-0.558006 -0.582541 10.7066 37 36 34 
-0.549093 -0.534114 10.7097 166 170 171 
-0.438013 0.00137913 10.5635 27 31 42 
-0.421599 -0.0210842 10.5892 12 14 27 
-0.421752 -0.113989 10.64 155 156 151 
-0.409755 -0.0141827 10.597 129 133 144 
-0.410572 -0.137885 10.663 25 27 40 
-0.404544 -0.0852396 10.658 84 82 95 
-0.297183 4.49908 10.0704 52 52 52 
-0.401172 -0.0543084 10.6473 14 20 34 
-0.401264 -0.106463 10.6674 18 20 35 
0.0393578 0.581352 9.44251 149 55 47 
-0.0264878 4.33079 9.79487 187 155 132 
0.0191407 4.42751 9.77373 214 178 154 
0.0300887 4.44214 9.77602 210 176 151 
0.121806 4.63892 10.0522 178 156 135 
0.121475 4.62133 10.087 64 45 28 
0.225389 4.65634 10.1115 166 136 102 
0.258891 4.56649 10.3423 5 25 13 
0.264502 4.51192 10.3453 19 28 27 
0.286577 4.57958 10.2912 128 124 77 
0.302631 4.59317 10.2492 34 35 17 
0.305845 4.55323 10.2787 35 35 27 
0.295015 4.48408 10.3757 31 29 34 
0.590119 -1.61312 9.98068 86 38 18 
0.628405 -0.732964 9.71581 255 254 238 
0.638538 -0.742114 9.71206 43 37 23 
0.597159 -1.36131 10.0145 100 64 30 
0.645378 -1.62273 9.97146 144 108 82 
0.654062 -1.3832 9.99729 177 143 116 
0.417534 3.95181 11.3705 143 143 143 
0.670575 -1.6625 9.95892 158 132 119 
0.430874 2.84642 11.3688 136 113 121 
0.426916 3.08537 11.3921 94 41 61 
0.427915 3.39555 11.4167 37 39 51 
0.674512 -1.2127 10.0012 61 24 8 
0.454254 3.04713 11.4425 77 62 69 
0.457059 3.26496 11.4631 135 138 143 
0.70217 -1.22452 10.0179 70 32 13 
0.472381 3.25862 11.4519 57 60 65 
0.714635 -1.23549 10.0076 148 109 80 
0.536693 2.9476 11.0905 126 126 128 
0.487785 2.93461 11.4417 81 34 54 
0.484283 3.26124 11.4601 138 141 146 
0.482383 2.97304 11.5316 120 90 102 
0.499929 3.08866 11.4678 77 43 57 
0.516086 4.75976 11.2884 114 77 61 
0.507517 2.97448 11.4427 130 128 129 
0.744156 -1.20745 10.0292 72 28 0 
0.519659 3.0905 11.4923 150 118 129 
0.524285 2.93765 11.4774 85 35 62 
0.565841 4.82772 11.3181 204 168 152 
0.551922 3.35488 11.5186 134 138 141 
0.57814 4.81685 11.3202 193 155 144 
0.569501 2.95639 11.5044 130 135 131 
0.569177 3.38618 11.5145 51 54 59 
0.590785 4.82159 11.322 123 86 78 
0.597634 4.93412 11.2917 161 105 104 
0.577962 3.1181 11.5257 82 48 65 
0.698336 4.92331 10.6392 126 79 69 
0.60415 2.92681 11.5412 79 36 46 
0.87641 -0.069479 9.60621 10 0 0 
0.623698 3.2447 11.5531 128 132 133 
0.897041 -0.391296 9.62714 183 166 148 
0.642495 4.83745 11.3715 155 124 121 
0.628239 3.37656 11.5765 99 102 111 
0.649012 3.01703 11.5883 145 119 130 
0.649203 3.07868 11.5882 146 129 137 
0.875907 -0.827926 10.0023 255 254 243 
0.669923 3.28483 11.587 53 57 60 
0.939343 -0.0339963 9.64574 106 91 72 
0.679826 3.27575 11.5988 113 117 120 
0.945234 0.0139498 9.65885 144 134 109 
0.94913 -0.000110261 9.65549 33 22 4 
0.69271 3.02764 11.6231 156 111 131 
0.702502 2.87425 11.617 152 110 124 
0.958065 0.0120303 9.66829 38 29 14 
0.962744 -0.0075314 9.6663 111 100 80 
0.966645 -0.401383 9.67252 144 125 95 
0.719958 3.18876 11.6476 82 84 81 
0.989369 -0.37945 9.69243 162 147 116 
0.765534 2.8314 11.6692 84 46 61 
1.00788 -0.0700547 9.71347 98 88 63 
1.01179 -0.087972 9.70899 28 18 0 
0.773692 2.91783 11.6702 92 45 63 
1.01894 -0.34203 9.7084 132 122 97 
1.0252 -0.32611 9.7208 127 112 89 
1.0279 -0.35192 9.73102 16 7 0 
1.03054 -0.379008 9.71095 36 23 4 
0.805991 4.17895 11.5895 156 71 100 
0.803232 2.98896 11.7157 148 136 140 
0.807835 3.26833 11.6779 46 50 51 
0.812249 4.23517 11.6023 155 77 99 
1.06408 -0.284914 9.76138 45 29 13 
0.967916 -1.34995 10.7265 162 139 147 
1.07082 -0.156485 9.79037 98 86 70 
1.07628 -0.249942 9.78295 157 136 81 
1.08146 -0.284988 9.78147 33 18 0 
0.858556 3.00282 11.748 72 53 57 
0.766428 3.6933 12.717 128 129 131 
1.28305 -0.11353 7.97076 177 162 129 
0.871641 2.9803 11.7564 140 139 135 
0.874179 3.26406 11.7332 63 65 64 
0.882032 3.38933 11.7241 43 44 46 
1.10616 -0.281992 9.82115 18 4 0 
0.916201 3.04924 11.7667 155 115 124 
0.934725 3.03136 11.7791 99 42 59 
1.03871 -1.95424 11.0104 199 182 162 
0.94537 3.06309 11.7905 83 29 43 
1.33441 -0.1248 7.96881 47 20 0 
0.950462 2.9776 11.8001 134 126 123 
0.963673 4.83991 11.5996 91 56 52 
0.96591 3.34603 11.7663 115 119 120 
1.08201 -1.78844 10.8464 61 116 123 
0.966296 2.97865 11.8213 147 125 127 
0.985873 2.99337 11.8251 103 35 56 
1.12407 -1.72797 10.7671 195 197 184 
1.00997 2.99446 11.8364 92 60 61 
1.01406 2.97073 11.843 143 130 124 
1.01647 3.02845 11.8362 142 131 125 
1.02498 3.27245 11.8095 62 66 75 
1.04629 4.16374 11.7368 54 24 62 
1.04765 4.16976 11.7496 58 26 63 
1.16295 -1.87111 10.8106 228 221 193 
1.1587 -2.02031 10.8925 234 227 199 
1.16992 -1.85166 10.834 232 215 185 
1.05444 3.36008 11.8534 59 60 62 
1.16864 -2.00666 10.8874 93 119 84 
1.05977 2.98126 11.8926 133 116 122 
1.18827 -1.9436 10.8574 58 103 62 
1.08699 3.02419 11.9133 143 116 121 
1.08936 3.05812 11.8969 71 40 46 
1.21735 -2.40727 11.0913 163 66 73 
1.13208 4.15376 11.8055 41 21 48 
1.13645 3.06014 11.9768 68 42 51 
1.2779 -2.23314 11.0088 63 89 60 
1.30012 -1.53472 10.7112 241 206 186 
1.31909 -0.66293 10.4097 234 214 190 
1.34601 -0.669434 10.3957 92 52 53 
1.21201 3.02671 12.0907 79 39 48 
1.35537 -0.688701 10.4121 234 206 192 
1.22325 3.00256 12.0775 142 109 116 
1.23491 3.5784 12.0176 122 126 125 
1.38556 -1.11733 10.5957 233 218 189 
1.40103 -1.26889 10.61 255 214 202 
1.37864 4.82373 10.5231 147 146 154 
1.4074 -0.081666 10.4554 47 27 3 
1.4132 -1.598 10.7632 246 200 187 
1.41433 -1.57017 10.7532 248 217 196 
1.42765 -0.375664 10.4692 50 39 0 
1.43153 -0.062361 10.4624 187 170 118 
1.43842 -0.367943 10.4667 197 183 134 
1.44749 -0.375246 10.4576 65 43 0 
1.45154 -0.65263 10.4392 52 37 30 
1.44949 -1.34343 10.6674 158 49 81 
1.26463 0.0552824 13.7263 159 147 95 
1.46031 -0.0695246 10.454 63 48 5 
1.46477 -0.679686 10.4267 233 217 191 
1.47464 0.013236 10.4726 187 178 145 
1.4825 0.00238919 10.4664 20 10 0 
1.46864 4.84177 10.3754 205 194 174 
1.4907 0.0200469 10.4841 37 21 0 
1.49336 -0.0345344 10.4647 51 26 4 
1.50016 -0.108924 10.4826 36 20 0 
1.50304 -1.21391 10.6157 255 211 204 
1.50775 -0.0190637 10.4834 33 18 0 
1.33357 -0.0523516 13.773 50 26 0 
1.51551 0.0415007 10.4997 55 37 15 
1.52018 -0.0891602 10.4804 220 195 164 
1.52078 -0.0452916 10.4875 201 179 138 
1.52146 -0.462684 10.5143 47 26 0 
1.52174 -0.0588366 10.4872 45 22 0 
1.53066 -0.0444425 10.481 39 24 0 
1.53386 -0.0234185 10.4858 51 34 4 
1.53549 -0.386902 10.5044 151 143 97 
1.53641 0.0461821 10.5011 133 123 88 
1.36691 0.10109 13.862 35 27 0 
1.5424 0.0174364 10.4984 165 151 114 
1.55257 -0.987923 10.5087 231 215 190 
1.54979 0.0303784 10.5139 55 40 17 
1.56389 -0.114757 10.4991 79 69 42 
1.56271 0.0492566 10.5164 145 131 92 
1.47393 4.88754 11.9883 92 60 73 
1.58369 -0.992988 10.5165 246 230 205 
1.5799 0.533818 10.531 32 10 0 
1.50346 4.91308 11.9564 203 108 128 
1.58854 0.484173 10.5362 154 145 116 
1.59088 0.572512 10.5402 37 26 24 
1.59519 -0.117317 10.5186 117 107 82 
1.60083 -0.0928802 10.5398 48 32 16 
1.61043 -0.0726167 10.5428 195 182 150 
1.61717 -0.0581066 10.5407 24 0 0 
1.61877 -0.213667 10.5531 26 17 0 
1.62482 -0.298937 10.5486 30 30 0 
1.53538 2.79516 12.4213 44 43 38 
1.62429 0.481996 10.5652 97 94 85 
1.63311 0.488692 10.5661 8 0 0 
1.55441 4.30531 12.127 39 26 36 
1.63564 0.585218 10.5614 3 0 2 
1.63998 0.538893 10.5678 105 97 94 
1.64257 0.565143 10.5678 83 80 73 
1.64954 0.528835 10.5737 7 0 0 
1.57624 4.88728 12.0517 56 14 28 
1.65863 -0.942496 10.623 247 232 199 
1.66361 -0.229707 10.5773 22 10 0 
1.66151 0.528398 10.585 104 93 87 
1.67334 -0.253151 10.5839 45 34 16 
1.67492 0.530416 10.6012 19 5 4 
1.69436 -0.282656 10.6221 26 13 4 
1.62211 4.8807 12.1193 39 15 28 
1.69624 -0.826492 10.6481 149 92 101 
1.71206 -0.682526 10.5437 245 227 203 
1.71229 -0.126958 10.6258 46 30 4 
1.64053 4.08463 12.3117 40 24 27 
1.7075 -0.225068 11.1913 40 23 0 
1.72863 -0.955894 10.6572 244 227 201 
1.71133 0.582216 11.4993 30 12 0 
1.76901 -0.936426 10.629 240 223 193 
1.78832 -0.808118 10.7259 155 133 109 
1.81125 -0.668196 10.6702 189 125 141 
1.81982 -0.669141 10.726 183 134 140 
1.94768 4.92008 10.6714 164 138 115 
1.96294 0.239357 11.0712 158 130 65 
1.98659 0.448394 11.1961 199 192 174 
1.9956 0.734383 11.0404 118 94 30 
2.01199 0.714665 11.022 143 126 80 
2.00535 4.8362 10.807 212 175 149 
2.02028 4.9078 12.2996 186 89 109 
2.0283 4.83695 10.7724 175 178 99 
2.04505 4.88858 11.0798 89 48 26 
2.05436 4.91202 11.1347 83 47 21 
2.06665 4.87178 10.7171 100 111 32 
2.09047 0.146028 11.0302 188 170 94 
2.09213 0.137033 11.0845 183 167 82 
2.09328 0.957225 11.3114 160 140 27 
2.12434 -3.14715 13.1897 122 99 81 
2.10064 4.84759 10.7522 199 192 122 
2.14703 -1.77545 13.1784 155 139 124 
2.17977 -1.809 13.1767 195 176 162 
2.16099 -0.0513383 11.2842 210 177 38 
2.14465 4.85109 10.977 208 173 71 
2.1646 0.15426 11.0317 93 83 34 
2.18321 -0.147408 11.3122 39 19 8 
2.18639 -0.0742856 11.3167 43 10 0 
2.20636 4.842 11.2025 68 66 77 
2.22586 4.85467 11.0683 230 201 48 
2.25974 0.350928 10.9107 49 34 5 
2.27291 4.83297 11.129 113 111 122 
2.31633 0.0473435 11.1632 244 221 17 
2.31298 0.179267 10.9775 132 120 60 
2.32653 4.83593 11.3599 111 50 45 
2.32859 0.705369 10.9397 77 65 27 
2.31307 4.97927 10.7908 178 132 108 
2.33053 4.83962 11.1381 225 202 8 
2.35935 -0.246583 11.2832 157 135 23 
2.35943 0.72362 10.9164 170 151 75 
2.4136 -0.220589 11.2555 165 143 21 
2.40636 4.83701 11.4407 113 69 60 
2.39764 4.80637 10.9835 212 193 90 
2.43062 -0.259714 11.2605 223 200 86 
2.44724 -0.236751 11.2518 226 200 113 
2.44098 4.83113 11.2849 186 70 55 
2.4599 -0.250989 11.2652 158 134 36 
2.45974 -0.184448 11.2388 177 148 30 
2.45482 4.8294 11.3414 153 122 94 
2.47154 -0.237125 11.2487 235 206 128 
2.47733 -0.222691 11.2387 148 122 12 
2.4521 4.90222 10.8215 238 212 189 
2.49706 -0.251586 11.2468 159 128 12 
2.49693 -0.221404 11.2409 152 122 0 
2.50116 -0.238632 11.2408 234 202 89 
2.48965 0.503883 10.9344 46 30 14 
2.48863 0.543607 10.9036 193 177 90 
2.48158 4.84483 10.8591 90 70 20 
2.50265 0.578847 10.923 183 157 47 
2.61493 2.47918 13.1949 29 14 45 
2.52057 0.310511 10.9243 146 125 20 
2.53144 0.50106 10.9465 184 159 41 
2.57619 0.981328 11.189 25 16 0 
2.6889 2.28573 13.3613 159 147 121 
2.70779 -2.8538 13.1651 8 7 13 
2.73827 1.46941 13.4472 131 120 102 
2.63974 4.80217 11.6041 110 81 49 
2.62632 0.570442 11.0255 218 186 63 
2.65004 4.8367 11.4975 232 213 173 
2.76738 4.59737 13.2535 183 168 147 
2.71251 4.83838 11.3341 179 168 148 
2.86258 -0.831738 12.5158 219 204 181 
2.76875 4.80436 11.2732 157 125 48 
2.88035 -1.17642 12.6123 67 56 50 
