ply                 
format ascii 1.0    
element vertex 1321
property float x    
property float y    
property float z    
property uchar red  
property uchar green
property uchar blue 
end_header          
-1.17114 0.0996193 9.97386 75 91 104 
-1.24327 -0.555904 10.2137 154 170 169 
-1.18708 4.40564 9.94791 153 150 145 
-1.13726 0.318611 9.9212 165 147 97 
-1.14409 0.171245 9.97113 167 182 175 
-1.17098 -0.22127 10.134 119 143 155 
-1.10718 0.290762 9.95 144 149 152 
-1.12817 4.3577 10.0052 204 190 181 
-1.0926 0.100754 10.05 129 145 160 
-1.11165 -0.126922 10.1414 105 122 142 
-1.02845 4.56502 9.78749 34 48 61 
-1.08932 -0.187898 10.1909 127 141 154 
-1.06795 -0.0275111 10.1358 149 165 162 
-1.0621 -0.0460098 10.1544 60 77 87 
-0.989887 0.314417 10.0522 120 127 135 
-1.00135 0.102532 10.1355 135 136 131 
-1.06666 -0.509884 10.3543 140 146 158 
-0.978325 0.137408 10.1495 101 114 131 
-0.952568 0.102845 10.1802 89 105 121 
-0.932871 0.194908 10.1616 133 137 140 
-0.979682 -0.29778 10.3525 77 98 119 
-0.951095 -0.0924325 10.2755 95 110 131 
-0.949975 -0.25369 10.3563 77 100 116 
-0.927399 -0.377893 10.4281 98 113 132 
-0.906531 -0.234277 10.3841 98 124 137 
-0.887713 -0.148809 10.3588 108 123 144 
-0.87897 -0.0741707 10.3396 150 149 147 
-0.885404 -0.186432 10.3886 82 100 120 
-0.891636 -0.280395 10.4202 84 102 122 
-0.873439 -0.240295 10.4267 29 42 59 
-0.884342 -0.522116 10.5341 93 105 117 
-0.711228 4.47468 9.97365 132 119 110 
-0.79954 -0.14515 10.4478 94 107 126 
-0.790753 -0.174804 10.4711 105 118 137 
-0.778651 -0.183866 10.4866 18 29 47 
-0.760925 -0.114163 10.4673 85 96 118 
-0.75485 -0.495403 10.6538 90 93 102 
-0.613671 4.42855 10.0495 195 186 171 
-0.256701 0.421425 8.90586 172 81 0 
-0.725564 -0.320664 10.5951 130 135 139 
-0.728841 -0.520826 10.6821 166 169 174 
-0.718381 -0.529157 10.6989 29 32 37 
-0.235171 0.419999 8.95207 168 66 0 
-0.706991 -0.539485 10.7095 144 145 149 
-0.694826 -0.485347 10.6901 35 33 36 
-0.671334 -0.243839 10.6145 151 155 158 
-0.693462 -0.506742 10.7073 141 142 144 
-0.219285 0.427058 8.98888 229 116 38 
-0.661708 -0.276594 10.6399 171 172 174 
-0.680555 -0.506433 10.7189 46 42 39 
-0.674269 -0.485096 10.7133 178 169 164 
-0.674308 -0.465397 10.7194 45 40 44 
-0.682029 -0.580598 10.7515 190 192 191 
-0.67265 -0.519361 10.7294 50 49 47 
-0.672896 -0.557367 10.7496 159 161 158 
-0.643207 -0.269671 10.6452 27 29 26 
-0.207579 0.439911 9.04036 205 72 3 
-0.668949 -0.611422 10.7723 44 47 52 
-0.659845 -0.549298 10.7686 30 31 36 
-0.630045 -0.274205 10.6559 181 183 182 
-0.647315 -0.532317 10.7577 169 173 172 
-0.643525 -0.562035 10.7758 39 40 42 
-0.648048 -0.590794 10.795 37 38 42 
-0.636147 -0.503154 10.7678 44 43 38 
-0.475061 4.58396 10.1609 100 80 69 
-0.59444 -0.5493 10.8246 35 36 38 
-0.596255 -0.593928 10.8399 191 190 186 
-0.668421 -3.96566 11.2371 176 115 84 
-0.583629 -0.601318 10.8339 37 36 34 
-0.574448 -0.551902 10.8371 166 170 171 
-0.460295 -0.00517573 10.6889 27 31 42 
-0.443557 -0.0281739 10.715 12 14 27 
-0.443822 -0.123095 10.7666 155 156 151 
-0.431449 -0.0211615 10.7229 129 133 144 
-0.432427 -0.147547 10.7899 25 27 40 
-0.426193 -0.0938069 10.785 84 82 95 
-0.309633 4.58402 10.1929 52 52 52 
-0.422709 -0.0622194 10.7741 14 20 34 
-0.42287 -0.115494 10.7945 18 20 35 
0.0264872 0.58723 9.54921 149 55 47 
-0.0341124 4.41123 9.91247 187 155 132 
0.0125531 4.50975 9.8911 214 178 154 
0.0237455 4.52466 9.89344 210 176 151 
0.118006 4.72595 10.1743 178 156 135 
0.117685 4.70812 10.2097 64 45 28 
0.223791 4.74373 10.2345 166 136 102 
0.258177 4.65264 10.4691 5 25 13 
0.263817 4.59696 10.4721 19 28 27 
0.28637 4.66581 10.4172 128 124 77 
0.302706 4.67954 10.3745 34 35 17 
0.305967 4.63886 10.4045 35 35 27 
0.29496 4.56856 10.5029 31 29 34 
0.585427 -1.65271 10.0922 86 38 18 
0.625445 -0.754337 9.82389 255 254 238 
0.635757 -0.763674 9.82004 43 37 23 
0.593085 -1.39597 10.1269 100 64 30 
0.641763 -1.66255 10.0827 144 108 82 
0.651065 -1.41832 10.1092 177 143 116 
0.420779 4.0274 11.5155 143 143 143 
0.667376 -1.7031 10.0698 158 132 119 
0.432591 2.89822 11.5121 136 113 121 
0.428978 3.14235 11.5363 94 41 61 
0.43055 3.45924 11.5618 37 39 51 
0.672213 -1.24444 10.1133 61 24 8 
0.456927 3.10331 11.5876 77 62 69 
0.460184 3.32587 11.6089 135 138 143 
0.700438 -1.25658 10.1302 70 32 13 
0.475807 3.31934 11.5974 57 60 65 
0.713119 -1.26775 10.1197 148 109 80 
0.54035 3.00102 11.2284 126 126 128 
0.490995 2.9883 11.5866 81 34 54 
0.487985 3.32201 11.6058 138 141 146 
0.485693 3.02769 11.6783 120 90 102 
0.503697 3.1457 11.6134 77 43 57 
0.522628 4.85227 11.4327 114 77 61 
0.511217 3.029 11.5876 130 128 129 
0.743318 -1.23926 10.1417 72 28 0 
0.523898 3.14758 11.6383 150 118 129 
0.528347 2.9914 11.6229 85 35 62 
0.573611 4.92169 11.463 204 168 152 
0.557339 3.41765 11.6655 134 138 141 
0.586158 4.91058 11.4651 193 155 144 
0.574618 3.01049 11.6504 130 135 131 
0.57501 3.44959 11.6613 51 54 59 
0.599086 4.91539 11.467 123 86 78 
0.60621 5.03022 11.4361 161 105 104 
0.583564 3.17571 11.6724 82 48 65 
0.707767 5.0169 10.7713 126 79 69 
0.610034 2.98026 11.6879 79 36 46 
0.879214 -0.0779606 9.71263 10 0 0 
0.630548 3.30501 11.7004 128 132 133 
0.899765 -0.406148 9.73341 183 166 148 
0.65202 4.93167 11.5174 155 124 121 
0.635447 3.43976 11.7245 99 102 111 
0.656102 3.07242 11.7361 145 119 130 
0.656398 3.1354 11.736 146 129 137 
0.87828 -0.852242 10.1144 255 254 243 
0.677903 3.34599 11.735 53 57 60 
0.943522 -0.041951 9.75267 106 91 72 
0.688028 3.33671 11.7471 113 117 120 
0.949635 0.00690288 9.76604 144 134 109 
0.953577 -0.00743344 9.76259 33 22 4 
0.700832 3.08322 11.7715 156 111 131 
0.710573 2.92647 11.7651 152 110 124 
0.962735 0.00490966 9.77559 38 29 14 
0.967469 -0.0150396 9.77353 111 100 80 
0.970815 -0.41663 9.77932 144 125 95 
0.728983 3.24784 11.7966 82 84 81 
0.994065 -0.394343 9.79951 162 147 116 
0.775005 2.88265 11.8181 84 46 61 
1.01349 -0.0789419 9.82125 98 88 63 
1.01744 -0.0972096 9.81665 28 18 0 
0.783484 2.97094 11.8193 92 45 63 
1.02431 -0.356265 9.81571 132 122 97 
1.03075 -0.340067 9.82831 127 112 89 
1.03348 -0.366409 9.83865 16 7 0 
1.03609 -0.393991 9.81819 36 23 4 
0.818389 4.25926 11.7386 156 71 100 
0.813876 3.04363 11.8657 148 136 140 
0.81896 3.32903 11.8275 46 50 51 
0.824898 4.31675 11.7518 155 77 99 
1.07055 -0.2982 9.86949 45 29 13 
0.972852 -1.38703 10.8506 162 139 147 
1.0777 -0.167308 9.89911 98 86 70 
1.0831 -0.262601 9.89143 157 136 81 
1.08832 -0.298341 9.88985 33 18 0 
0.870495 3.05773 11.8987 72 53 57 
0.779449 3.76554 12.8897 128 129 131 
1.28965 -0.12061 8.05157 177 162 129 
0.883845 3.03471 11.9072 140 139 135 
0.886855 3.32464 11.8839 63 65 64 
0.895065 3.45261 11.8748 43 44 46 
1.1136 -0.295402 9.93013 18 4 0 
0.929512 3.10509 11.9177 155 115 124 
0.948438 3.0868 11.9303 99 42 59 
1.04476 -2.00497 11.1389 199 182 162 
0.959393 3.11922 11.942 83 29 43 
1.34189 -0.132154 8.04935 47 20 0 
0.964476 3.03187 11.9517 134 126 123 
0.980587 4.93431 11.7496 91 56 52 
0.980792 3.40828 11.9176 115 119 120 
1.08886 -1.83516 10.9719 61 116 123 
0.980704 3.03294 11.9733 147 125 127 
1.00074 3.04795 11.9772 103 35 56 
1.13171 -1.77323 10.8911 195 197 184 
1.0254 3.04903 11.9887 92 60 61 
1.02955 3.02479 11.9954 143 130 124 
1.03209 3.08375 11.9885 142 131 125 
1.04112 3.33305 11.9616 62 66 75 
1.0642 4.24366 11.8886 54 24 62 
1.06563 4.24984 11.9017 58 26 63 
1.17126 -1.91952 10.935 228 221 193 
1.16687 -2.07213 11.0183 234 227 199 
1.17846 -1.89977 10.9589 232 215 185 
1.07147 3.42262 12.0064 59 60 62 
1.17702 -2.05819 11.0131 93 119 84 
1.07639 3.03553 12.0459 133 116 122 
1.19709 -1.99373 10.9826 58 103 62 
1.10433 3.07938 12.0671 143 116 121 
1.10677 3.11403 12.0503 71 40 46 
1.22659 -2.46806 11.2203 163 66 73 
1.152 4.23347 11.9586 41 21 48 
1.15508 3.11612 12.1319 68 42 51 
1.28849 -2.29 11.1362 63 89 60 
1.31156 -1.57599 10.8338 241 206 186 
1.33159 -0.685543 10.5278 234 214 190 
1.35901 -0.692185 10.5134 92 52 53 
1.23252 3.08197 12.2481 79 39 48 
1.36856 -0.711894 10.53 234 206 192 
1.24394 3.05724 12.2345 142 109 116 
1.25666 3.64572 12.1741 122 126 125 
1.39914 -1.14977 10.7163 233 218 189 
1.41471 -1.3045 10.7306 255 214 202 
1.40165 4.91349 10.652 147 146 154 
1.42275 -0.0927092 10.5748 47 27 3 
1.427 -1.64088 10.8863 246 200 187 
1.42817 -1.61245 10.8761 248 217 196 
1.44296 -0.392736 10.5884 50 39 0 
1.44742 -0.0730627 10.5818 187 170 118 
1.45396 -0.384869 10.5858 197 183 134 
1.46317 -0.392316 10.5764 65 43 0 
1.4668 -0.675291 10.5574 52 37 30 
1.46419 -1.38081 10.7889 158 49 81 
1.28555 0.0420128 13.9173 159 147 95 
1.47675 -0.080403 10.5731 63 48 5 
1.48022 -0.702883 10.5445 233 217 191 
1.49155 0.00398333 10.5922 187 178 145 
1.49953 -0.00708642 10.5858 20 10 0 
1.49312 4.93125 10.5016 205 194 174 
1.50798 0.0108879 10.6038 37 21 0 
1.51055 -0.0447738 10.584 51 26 4 
1.51742 -0.120715 10.6021 36 20 0 
1.5189 -1.24854 10.7362 255 211 204 
1.52531 -0.0290436 10.603 33 18 0 
1.35608 -0.068378 13.9649 50 26 0 
1.53336 0.032712 10.6196 55 37 15 
1.53787 -0.100578 10.5998 220 195 164 
1.53856 -0.0558323 10.6071 201 179 138 
1.53864 -0.481759 10.6338 47 26 0 
1.53952 -0.0696533 10.6068 45 22 0 
1.54863 -0.0549706 10.6005 39 24 0 
1.55194 -0.0335331 10.6053 51 34 4 
1.55306 -0.404436 10.6238 151 143 97 
1.5547 0.0374522 10.621 133 123 88 
1.3907 0.0885343 14.0563 35 27 0 
1.56076 0.00811673 10.6182 165 151 114 
1.5695 -1.0177 10.6273 231 215 190 
1.56836 0.0212849 10.6339 55 40 17 
1.58246 -0.126796 10.6187 79 69 42 
1.58158 0.0405219 10.6365 145 131 92 
1.50301 4.98327 12.1458 92 60 73 
1.60127 -1.02293 10.6352 246 230 205 
1.59995 0.534891 10.6521 32 10 0 
1.53314 5.00921 12.1132 203 108 128 
1.6087 0.484215 10.6572 154 145 116 
1.61124 0.574344 10.6614 37 26 24 
1.61444 -0.129493 10.6384 117 107 82 
1.6203 -0.104606 10.66 48 32 16 
1.63013 -0.0839507 10.6631 195 182 150 
1.63703 -0.0691528 10.6609 24 0 0 
1.63844 -0.227902 10.6733 26 17 0 
1.64446 -0.314907 10.6686 30 30 0 
1.56357 2.84507 12.5849 44 43 38 
1.64525 0.481898 10.6866 97 94 85 
1.65427 0.488713 10.6875 8 0 0 
1.58469 4.38837 12.2864 39 26 36 
1.65699 0.587207 10.6828 3 0 2 
1.66136 0.539924 10.6893 105 97 94 
1.66404 0.566704 10.6894 83 80 73 
1.67112 0.529637 10.6953 7 0 0 
1.60774 4.98299 12.2104 56 14 28 
1.67811 -0.971798 10.7434 247 232 199 
1.68423 -0.244383 10.6978 22 10 0 
1.68335 0.529157 10.7067 104 93 87 
1.69414 -0.268332 10.7044 45 34 16 
1.69709 0.531175 10.7232 19 5 4 
1.71565 -0.298545 10.7432 26 13 4 
1.65481 4.97641 12.2794 39 15 28 
1.71675 -0.853541 10.769 149 92 101 
1.73281 -0.706404 10.6627 245 227 203 
1.7342 -0.139706 10.7471 46 30 4 
1.67288 4.16309 12.4747 40 24 27 
1.73084 -0.240887 11.3234 40 23 0 
1.7496 -0.985653 10.7779 244 227 201 
1.73701 0.583049 11.639 30 12 0 
1.79074 -0.965761 10.749 240 223 193 
1.81095 -0.835113 10.8478 155 133 109 
1.8344 -0.692223 10.7911 189 125 141 
1.84332 -0.693334 10.8481 183 134 140 
1.98293 5.01097 10.802 164 138 115 
1.99194 0.233035 11.2007 158 130 65 
2.01684 0.446238 11.3283 199 192 174 
2.026 0.738338 11.1699 118 94 30 
2.04263 0.718194 11.151 143 126 80 
2.04207 4.92561 10.9396 212 175 149 
2.06237 5.00385 12.4627 186 89 109 
2.06538 4.9262 10.9043 175 178 99 
2.08358 4.97991 11.2176 89 48 26 
2.09331 5.00401 11.2736 83 47 21 
2.10439 4.96148 10.8481 100 111 32 
2.12179 0.137613 11.1582 188 170 94 
2.12365 0.128347 11.2135 183 167 82 
2.12697 0.965467 11.4463 160 140 27 
2.15838 -3.23483 13.3603 122 99 81 
2.13915 4.93681 10.8837 199 192 122 
2.18383 -1.8315 13.3506 155 139 124 
2.21725 -1.86585 13.3487 195 176 162 
2.1943 -0.0643907 11.4166 210 177 38 
2.18484 4.94104 11.1126 208 173 71 
2.19744 0.145889 11.1594 93 83 34 
2.21692 -0.16256 11.4449 39 19 8 
2.2203 -0.0879162 11.4496 43 10 0 
2.24858 4.93235 11.3422 68 66 77 
2.26804 4.94477 11.2053 230 201 48 
2.29439 0.346612 11.0358 49 34 5 
2.31624 4.92268 11.2671 113 111 122 
2.35254 0.0363015 11.2926 244 221 17 
2.34866 0.171243 11.1034 132 120 60 
2.37182 4.92637 11.5024 111 50 45 
2.36532 0.70818 11.0657 77 65 27 
2.35627 5.07084 10.9226 178 132 108 
2.3751 4.92936 11.2762 225 202 8 
2.39639 -0.264029 11.4144 157 135 23 
2.39672 0.726767 11.0418 170 151 75 
2.45168 -0.237522 11.3859 165 143 21 
2.45362 4.92751 11.5846 113 69 60 
2.44297 4.89468 11.1183 212 193 90 
2.469 -0.277497 11.3908 223 200 86 
2.48596 -0.254063 11.3819 226 200 113 
2.48836 4.92086 11.4255 186 70 55 
2.49891 -0.268644 11.3955 158 134 36 
2.49875 -0.200667 11.3686 177 148 30 
2.50271 4.91926 11.4831 153 122 94 
2.51074 -0.254476 11.3786 235 206 128 
2.51664 -0.239731 11.3684 148 122 12 
2.49811 4.99187 10.9533 238 212 189 
2.53674 -0.269273 11.3766 159 128 12 
2.53664 -0.238452 11.3706 152 122 0 
2.54093 -0.256044 11.3704 234 202 89 
2.52923 0.502264 11.0591 46 30 14 
2.52813 0.542835 11.0277 193 177 90 
2.52821 4.93329 10.9913 90 70 20 
2.54256 0.578749 11.0476 183 157 47 
2.66954 2.5205 13.3729 29 14 45 
2.56039 0.304893 11.0483 146 125 20 
2.57189 0.499292 11.0711 184 159 41 
2.61931 0.989185 11.3192 25 16 0 
2.74554 2.32255 13.5427 159 147 121 
2.7554 -2.9351 13.3333 8 7 13 
2.79501 1.48712 13.6291 131 120 102 
2.69247 4.89184 11.7505 110 81 49 
2.66908 0.569839 11.1513 218 186 63 
2.70261 4.92671 11.6417 232 213 173 
2.82931 4.68775 13.4363 183 168 147 
2.76572 4.92766 11.4747 179 168 148 
2.91416 -0.86528 12.6706 219 204 181 
2.8228 4.89253 11.4123 157 125 48 
2.93217 -1.21789 12.7687 67 56 50 
2.83769 0.164494 11.4103 15 15 7 
2.93222 -0.733961 12.6257 214 199 176 
2.9439 -0.954411 12.7329 42 39 32 
2.86841 4.89856 11.7305 43 87 62 
2.97648 -1.27385 12.8187 62 51 49 
2.86541 0.172483 11.2905 68 31 0 
2.98158 -0.765402 12.7111 62 64 63 
2.98715 -0.743799 12.6955 207 198 191 
2.8792 0.199739 11.2832 227 179 53 
2.8809 0.176528 11.2894 228 188 100 
3.01434 -1.11429 12.8316 43 34 27 
3.02327 -1.22425 12.8221 172 159 150 
2.93207 4.87752 11.7332 224 192 71 
3.02152 -0.998798 12.7795 141 136 132 
2.92795 0.0527469 11.4555 83 82 64 
3.04153 -0.772551 12.7638 16 13 8 
3.05063 -1.01517 12.8222 144 134 133 
3.06323 -0.782246 12.7685 97 97 99 
2.9872 4.8972 11.6761 207 187 40 
3.10809 -1.25069 12.9096 163 153 143 
3.11179 -1.10069 12.9113 158 152 156 
3.13621 -1.11681 12.9051 23 18 24 
2.99329 0.467854 11.2078 193 129 21 
3.1607 -1.00792 12.9074 52 46 48 
3.16676 -1.08915 12.9008 10 8 19 
3.18033 -1.16767 12.9645 152 142 140 
3.02329 0.931124 11.1259 25 25 23 
3.19654 -0.867223 12.8989 75 73 76 
3.07958 0.221606 11.4231 64 67 50 
3.23477 -0.841004 12.9516 46 45 51 
3.12194 0.157631 11.6254 8 10 0 
3.05899 2.40223 10.9251 58 44 35 
3.27783 -0.720977 12.9935 41 42 46 
3.30336 -0.742129 13.0055 37 37 39 
3.33373 -0.741086 12.9997 200 193 167 
3.18466 5.07282 11.4176 77 38 21 
3.20754 5.05636 11.4407 55 38 31 
3.21727 0.165231 11.4648 98 100 87 
3.40211 -1.28746 13.0435 213 199 186 
3.435 -1.27027 13.023 225 207 193 
3.49672 -0.54184 12.969 212 199 180 
3.58242 -0.562352 12.9591 219 202 176 
3.36137 5.10057 11.1963 202 168 104 
3.51879 -3.27891 11.8971 102 93 86 
3.683 -3.63823 12.0365 164 158 144 
3.71058 -3.69549 12.0464 124 121 114 
3.88711 0.990171 11.9595 54 50 41 
3.95741 0.173528 11.8972 76 66 39 
4.30499 -0.251578 12.2338 231 222 193 
-1.16534 4.40747 10.0208 146 142 130 
-1.13435 4.44301 10.0492 118 114 113 
-0.979242 4.51835 9.84527 93 88 92 
-0.618608 -0.688332 11.1315 188 167 146 
-0.569565 -0.551752 10.9733 184 185 190 
0.112904 4.71929 10.2327 64 45 28 
0.298306 4.6904 10.398 34 35 17 
0.383608 3.00324 11.4781 125 131 127 
0.411397 3.35968 11.5331 33 36 41 
0.414848 3.45404 11.5224 56 58 70 
0.423708 3.25732 11.5327 84 88 89 
0.42587 3.32449 11.5422 38 41 48 
0.431948 3.04913 11.5143 85 32 52 
0.430614 3.09429 11.5236 85 30 51 
0.750268 -0.686063 9.53095 255 252 253 
0.437329 3.44346 11.564 47 49 64 
0.447019 3.02127 11.5387 148 118 130 
0.449876 3.07316 11.542 139 111 123 
0.450665 3.12075 11.5492 147 121 132 
0.456376 4.02041 11.5358 23 34 64 
0.460653 3.09764 11.5636 77 62 69 
0.463945 3.14597 11.5597 84 50 64 
0.466281 3.04355 11.5522 76 40 54 
0.464391 3.34614 11.5697 112 114 126 
0.472731 2.92242 11.5478 145 119 130 
0.487283 2.9296 11.525 114 78 92 
0.476816 3.3182 11.5913 57 60 65 
0.484705 4.20213 11.5434 32 38 72 
0.484213 3.43208 11.596 56 58 70 
0.490029 3.10453 11.5812 126 126 128 
0.491677 3.38416 11.5641 135 136 138 
0.489847 3.31939 11.5939 138 141 146 
0.494643 2.95595 11.581 82 38 55 
0.506594 3.13883 11.592 77 43 57 
0.51222 3.02789 11.5811 130 128 129 
0.519567 3.35021 11.6244 64 65 70 
0.528713 3.07292 11.6145 152 120 131 
0.529683 2.99072 11.6152 85 35 62 
0.532339 3.25453 11.6309 82 86 89 
0.53405 3.19169 11.6325 124 135 131 
0.546588 3.14159 11.6318 88 49 68 
0.54553 3.32747 11.6368 52 53 57 
0.576175 4.9132 11.4446 204 168 152 
0.558519 3.61897 11.6591 134 136 135 
0.566581 2.97074 11.634 136 130 130 
0.575206 2.94788 11.6464 79 44 50 
0.585357 3.1733 11.6605 82 48 65 
0.599105 4.3311 11.5992 75 68 101 
0.618876 2.94477 11.6781 91 43 57 
0.635112 3.33561 11.6952 110 113 120 
0.644617 3.3201 11.7097 30 34 37 
0.657852 3.23394 11.6918 83 85 82 
0.658772 3.02185 11.697 124 130 130 
0.668614 2.90254 11.718 142 132 133 
0.668922 2.95552 11.7222 141 111 121 
0.675159 2.93579 11.7212 148 121 130 
0.679021 3.34257 11.724 46 50 53 
0.697367 3.34704 11.7479 59 63 64 
0.702397 3.11275 11.7506 149 117 132 
0.703998 3.41548 11.7462 63 66 75 
0.711858 3.34723 11.7507 129 133 134 
0.714889 3.42863 11.741 91 94 101 
0.722904 3.41539 11.7551 66 69 74 
0.727483 3.34131 11.7565 29 33 34 
0.732331 3.45766 11.7615 31 34 41 
0.72988 3.2461 11.7894 82 84 81 
0.736609 3.43887 11.7603 31 34 43 
0.736009 3.02578 11.7908 134 134 134 
0.738884 3.1034 11.7748 141 113 125 
0.745786 3.41319 11.7625 55 59 60 
0.745436 2.88887 11.7892 141 135 135 
0.763074 3.3561 11.7464 133 137 138 
0.776524 2.87951 11.8048 84 46 61 
0.777702 3.43231 11.7875 40 44 45 
0.779932 2.89703 11.8021 94 45 64 
0.778922 3.24149 11.8156 84 86 83 
0.789637 4.35568 11.7029 44 30 55 
0.787888 3.40827 11.7798 100 104 105 
0.797086 3.41738 11.7904 35 39 40 
0.800583 2.93196 11.8102 130 128 129 
0.800978 2.9019 11.8353 81 66 71 
0.811728 3.40073 11.8092 129 133 134 
0.816862 3.03764 11.8399 148 136 140 
0.824709 3.43658 11.8147 61 65 68 
0.827461 3.08987 11.8468 146 125 134 
0.834496 3.40997 11.7808 115 117 116 
0.836335 4.39465 11.7943 38 31 47 
0.840016 3.43195 11.8245 38 40 39 
0.84983 3.3264 11.8356 132 134 133 
0.851249 3.04691 11.8504 98 32 59 
0.862369 3.30022 11.857 134 136 135 
0.871917 4.35205 11.7545 47 30 40 
0.926268 2.9103 11.3658 72 53 57 
0.878991 3.08427 11.8696 146 131 136 
0.88843 3.32075 11.8693 63 65 64 
0.891055 3.29296 11.8622 60 62 61 
0.913735 3.30561 11.8714 58 60 59 
0.92185 3.31778 11.8746 121 123 122 
1.41953 -0.377499 7.13437 237 217 218 
0.958496 3.08478 11.9167 96 37 55 
0.977454 4.12562 11.8564 31 16 35 
0.981471 3.35468 11.9061 132 136 135 
0.998463 3.41061 11.9194 66 70 71 
1.00091 3.02153 11.9488 91 38 54 
1.01479 3.10837 11.9411 83 43 54 
1.01652 3.39541 11.9216 50 54 53 
1.02881 3.41191 11.9227 128 132 133 
1.02787 3.04101 11.9602 92 60 61 
1.03149 3.01789 11.9725 143 130 124 
1.03424 3.07636 11.9631 142 131 125 
1.04008 3.36473 11.9485 133 135 130 
1.04375 3.28439 11.9485 133 135 132 
1.05952 3.04298 11.9884 65 32 43 
1.07545 4.17166 11.8797 33 16 34 
0.879337 4.03155 14.2555 60 65 68 
1.1777 -1.9 10.9659 232 215 185 
1.07422 3.41374 11.9756 59 60 62 
1.10795 3.10985 12.0355 71 40 46 
1.22702 4.94948 10.5549 74 69 66 
1.12492 3.9567 11.9283 17 23 55 
1.2554 -1.65261 10.8714 255 214 197 
1.15743 3.10864 12.1027 68 42 51 
1.2616 -2.3202 11.1888 59 79 52 
1.18917 4.33679 11.9543 68 19 51 
1.18327 2.83701 12.1335 27 29 26 
1.20362 4.43313 11.9491 112 49 78 
1.23335 3.07679 12.2328 79 39 48 
1.42171 -0.0923249 10.5914 47 27 3 
1.41957 -1.324 10.7556 157 43 69 
1.45314 -0.385391 10.5998 197 183 134 
1.44117 -1.62322 10.9042 200 178 154 
1.51675 -0.120063 10.6147 36 20 0 
1.53694 -0.1005 10.6172 220 195 164 
1.53787 -0.482542 10.6478 47 26 0 
1.53354 4.93842 10.5772 111 119 156 
1.45366 2.82329 12.4548 104 109 103 
1.55365 0.036799 10.6393 133 123 88 
1.57332 -0.350241 10.6443 201 182 140 
1.58123 -1.03324 10.6677 200 184 159 
1.50421 4.97493 12.1249 92 60 73 
1.60408 -0.298013 10.6608 19 6 0 
1.60942 0.549236 10.6671 22 9 3 
1.6134 -0.130125 10.6625 117 107 82 
1.62963 -0.0842304 10.672 195 182 150 
1.56896 4.88677 12.1969 142 87 106 
1.56538 2.83225 12.535 44 43 38 
1.65362 0.489093 10.7026 8 0 0 
1.60848 4.97714 12.1953 56 14 28 
1.67782 -0.972414 10.7501 247 232 199 
1.69509 -0.95323 10.7697 255 229 210 
1.65598 4.96491 12.2508 39 15 28 
1.66938 4.99129 12.2566 50 5 25 
1.73387 -0.138642 10.7593 46 30 4 
1.67364 4.15089 12.4437 40 24 27 
1.76064 -0.852225 10.7961 255 242 219 
1.73706 4.71099 12.3666 187 151 125 
1.92338 5.00074 12.3531 183 86 105 
1.94311 3.89066 12.1784 32 23 24 
2.0482 0.687248 11.173 74 56 16 
2.08339 4.97653 11.212 89 48 26 
2.09298 4.99059 11.2471 83 47 21 
2.12429 0.156766 11.1818 73 59 0 
2.12683 0.964381 11.4591 160 140 27 
2.19751 0.145498 11.1744 93 83 34 
2.21695 -0.162772 11.4535 39 19 8 
2.2333 -0.0673552 11.5655 216 187 49 
2.24854 4.92884 11.3335 68 66 77 
2.27595 0.325169 11.1445 162 139 71 
2.35269 0.0352934 11.3007 244 221 17 
2.34898 0.17035 11.1208 132 120 60 
2.36827 -0.257676 11.4333 225 198 93 
2.37836 -0.263031 11.4226 165 144 29 
2.39677 -0.265157 11.4282 157 135 23 
2.39797 0.728681 11.0781 170 151 75 
2.43914 -0.25669 11.4113 214 189 88 
2.45227 -0.238157 11.4045 165 143 21 
2.45311 4.92039 11.5675 113 69 60 
2.46973 -0.277813 11.4108 223 200 86 
2.46094 0.644732 11.0952 93 83 47 
2.49657 -0.240283 11.3961 156 132 34 
2.49949 -0.26961 11.4134 158 134 36 
2.57753 4.68343 13.2148 172 159 142 
2.51162 -0.255537 11.399 235 206 128 
2.51778 -0.240284 11.3954 148 122 12 
2.53744 -0.270918 11.3942 159 128 12 
2.53741 -0.239348 11.3882 152 122 0 
2.53069 0.504202 11.0888 46 30 14 
2.56338 0.994829 11.3708 41 28 0 
2.62188 0.99184 11.3703 25 16 0 
2.7016 4.91863 11.6219 232 213 173 
2.82579 4.66647 13.3722 183 168 147 
2.8741 -1.25081 12.7175 47 36 32 
2.92002 -1.09929 12.7261 50 48 49 
2.93339 -0.732611 12.6396 214 199 176 
2.94165 -1.11505 12.7435 172 168 165 
2.94146 -0.950709 12.702 42 39 32 
2.85079 0.939285 11.4723 4 2 15 
2.98043 -0.764124 12.696 62 64 63 
2.88266 0.199251 11.3256 227 179 53 
2.88666 0.149045 11.3682 15 2 0 
3.01169 -1.1106 12.7995 43 34 27 
3.01757 -0.910132 12.7617 127 125 128 
3.02125 -0.998135 12.7749 141 136 132 
3.01977 -0.814294 12.6228 28 28 28 
3.04068 -0.771721 12.7541 16 13 8 
3.06277 -0.780616 12.7641 97 97 99 
3.13653 -1.33786 12.9859 214 207 191 
2.99589 4.88182 11.4451 101 69 20 
3.13475 -1.11434 12.8887 23 18 24 
3.05021 4.89385 11.5976 131 107 9 
3.19677 -0.868105 12.9009 75 73 76 
3.0599 0.596515 11.2281 151 67 0 
3.30619 -0.738704 13.0753 36 36 38 
3.22197 0.164718 11.5076 98 100 87 
3.42904 -0.59629 12.9674 6 7 12 
3.61326 4.92934 11.8981 191 85 107 
-1.13495 0.301769 10.0407 144 149 152 
-1.02664 0.111773 10.224 135 136 131 
-0.95513 0.204622 10.2414 133 137 140 
-0.900657 -0.0677992 10.4201 150 149 147 
-0.445316 -0.143961 10.8519 25 27 40 
0.410936 3.35837 11.5329 33 36 41 
0.423902 3.25725 11.5312 84 88 89 
0.424422 3.36546 11.5445 136 135 141 
0.425206 3.32376 11.5432 38 41 48 
0.431282 3.05217 11.521 85 32 52 
0.429623 3.09687 11.5309 85 30 51 
0.429617 3.14244 11.5339 94 41 61 
0.437976 3.43767 11.5519 47 49 64 
0.445661 3.02509 11.5496 148 118 130 
0.449957 3.12268 11.5549 147 121 132 
0.460217 2.96904 11.5447 136 119 125 
0.461145 3.09615 11.5603 77 62 69 
0.463464 3.14769 11.5636 84 50 64 
0.46605 3.04584 11.5568 76 40 54 
0.470883 2.92852 11.5649 145 119 130 
0.468167 3.44895 11.5723 56 59 68 
0.476943 3.31668 11.5888 57 60 65 
0.500178 4.60329 11.4491 194 185 168 
0.4923 2.98844 11.5805 81 34 54 
0.48321 3.02929 11.6896 120 90 102 
0.504737 3.14535 11.6085 77 43 57 
0.512665 2.93954 11.5969 138 110 122 
0.511094 3.4363 11.5958 76 79 86 
0.518577 3.34816 11.6246 64 65 70 
0.528328 3.07426 11.6176 152 120 131 
0.529882 2.99016 11.6152 85 35 62 
0.532291 3.19443 11.6428 124 135 131 
0.537977 3.34009 11.6266 119 120 124 
0.546075 3.1437 11.6371 88 49 68 
0.553993 2.94794 11.6333 147 120 127 
0.574866 2.94894 11.6501 79 44 50 
0.584412 3.17417 11.6667 82 48 65 
0.617585 2.95129 11.6946 91 43 57 
0.628441 3.06989 11.7037 100 57 76 
0.627801 3.33656 11.7009 83 86 93 
0.633549 3.42152 11.6917 39 42 51 
0.65645 3.23855 11.7052 83 85 82 
0.658847 3.0237 11.6991 124 130 130 
0.668079 3.37063 11.7057 132 136 139 
0.701428 3.11651 11.7602 149 117 132 
0.702159 3.08188 11.7624 156 111 131 
0.70967 2.96423 11.765 146 108 121 
0.731867 3.24019 11.7704 82 84 81 
0.735826 3.02697 11.792 134 134 134 
0.761089 3.36056 11.7602 133 137 138 
0.760773 3.41764 11.7809 133 137 138 
0.775317 3.30465 11.802 46 46 56 
0.77896 2.90424 11.8198 94 45 64 
0.778472 3.24018 11.8142 84 86 83 
0.784158 2.97258 11.8198 92 45 63 
0.78666 3.40861 11.7847 100 104 105 
0.799084 2.93847 11.8273 130 128 129 
0.811135 3.39831 11.806 129 133 134 
0.824438 4.23064 11.6718 156 71 100 
0.81632 3.04095 11.8487 148 136 140 
0.819363 3.32627 11.8193 46 50 51 
0.833018 3.41366 11.7929 115 117 116 
0.829555 3.11797 11.8584 144 129 134 
0.836053 3.33533 11.8317 55 57 56 
0.848679 3.32921 11.8434 132 134 133 
0.848162 3.03629 11.8803 90 48 62 
0.849788 3.05375 11.8686 98 32 59 
0.872513 4.33752 11.7283 47 30 40 
0.868908 3.41832 11.8394 108 110 109 
0.877667 3.08798 11.8806 146 131 136 
0.888166 3.31885 11.8666 63 65 64 
0.896245 3.44361 11.8532 43 44 46 
0.898341 3.41996 11.8552 62 66 69 
0.907595 3.06263 11.9177 75 31 44 
0.920905 3.31641 11.875 121 123 122 
0.932117 3.37169 11.8952 133 137 136 
0.953055 3.07601 11.8872 99 42 59 
0.959978 3.11548 11.9314 83 29 43 
0.980516 3.35362 11.9074 132 136 135 
0.965155 3.3982 12.06 132 136 135 
0.998228 3.40602 11.9099 66 70 71 
0.999069 3.30876 11.918 117 122 125 
1.00142 3.04513 11.9678 103 35 56 
1.01592 3.40617 11.9199 37 41 42 
1.02773 3.4119 11.9276 128 132 133 
1.02638 3.04653 11.9775 92 60 61 
1.03002 3.02248 11.9885 143 130 124 
1.03289 3.08237 11.9805 142 131 125 
1.16368 4.94752 10.4356 211 203 201 
1.04017 3.41937 11.9333 60 64 65 
1.04307 3.28228 11.947 133 135 132 
1.05613 3.01123 12.0037 65 45 47 
1.06219 3.1149 11.9939 71 35 47 
1.12239 3.95268 11.9308 17 23 55 
1.15178 4.21494 11.9276 41 21 48 
1.15626 3.1136 12.1199 68 42 51 
1.17626 3.07496 12.1509 130 110 121 
1.18784 4.3264 11.9387 68 19 51 
1.20351 4.4208 11.9277 112 49 78 
1.23171 3.07866 12.2428 79 39 48 
1.24423 3.05583 12.2292 142 109 116 
1.26848 3.10406 12.2611 66 33 40 
1.40104 3.6466 12.3004 52 19 40 
1.45351 2.82892 12.4692 104 109 103 
1.56312 -0.0726537 10.6051 26 6 0 
1.98273 5.01078 10.8047 164 138 115 
2.04466 4.99019 10.8214 124 33 30 
2.0575 5.02466 10.8231 115 54 49 
2.08897 5.06471 10.8336 111 100 82 
2.10669 4.98279 10.8334 120 136 47 
2.11978 5.00374 10.8388 151 171 72 
2.12054 4.96874 10.8446 193 201 115 
2.17969 3.22782 13.017 187 167 143 
2.17572 5.01747 10.8493 161 131 121 
2.2969 4.96741 10.9025 213 219 95 
2.4979 4.989 10.9501 238 212 189 
2.74359 2.31656 13.5106 159 147 121 
2.70038 4.91534 11.6205 232 213 173 
2.86365 2.34809 13.4471 48 37 51 
3.01422 -1.11172 12.8236 43 34 27 
3.02375 -0.995435 12.7838 141 136 132 
3.05295 -1.0143 12.8395 144 134 133 
3.19997 -1.30258 13.0111 86 77 82 
3.19974 -0.866211 12.9174 75 73 76 
3.2631 -1.35541 13.0145 210 198 176 
3.30776 -0.739444 13.0805 36 36 38 
3.31507 -0.743553 13.1016 37 37 39 
3.33653 -0.737197 13.0102 200 193 167 
3.61449 4.93286 11.9057 191 85 107 
-1.14215 0.313987 10.1271 81 70 52 
-1.12894 0.297426 10.1488 127 127 125 
-1.01991 0.105988 10.3301 121 113 110 
-1.02979 -0.335359 10.516 82 94 106 
-0.948587 0.198922 10.3424 117 119 108 
-0.893585 -0.0744349 10.5139 124 125 111 
-0.707069 4.20635 10.2695 160 148 126 
-0.739925 -0.527967 10.8374 151 152 146 
-0.728695 -0.536945 10.8329 31 33 30 
-0.673919 4.14855 10.1995 71 60 58 
-0.706007 -0.491374 10.8688 28 26 27 
-0.703568 -0.512419 10.8614 131 130 126 
-0.682441 -0.563621 10.9014 140 136 135 
-0.545723 4.52024 8.95194 121 117 114 
-0.656186 -0.538436 10.9059 149 144 138 
-0.437538 -0.147118 10.9147 26 17 18 
-0.0965928 4.45756 9.82492 174 140 105 
-0.0647849 0.412812 9.59872 30 15 0 
-0.0359084 4.41638 9.92642 178 140 104 
0.0115169 4.51681 9.90641 202 161 109 
0.0177738 4.41792 10.0007 132 92 57 
0.0706746 4.49787 8.49502 110 111 115 
0.0997915 4.99722 8.54745 96 97 102 
0.230993 -1.24485 11.6134 106 91 52 
0.257309 -1.2917 11.6528 51 36 17 
0.253931 4.56637 10.4901 122 114 111 
0.382155 3.00403 11.489 118 116 104 
0.410835 3.35781 11.54 45 42 37 
0.424142 3.32216 11.544 32 31 26 
0.4296 3.14268 11.5361 85 30 49 
0.441523 3.32467 11.548 118 119 113 
0.449606 3.12242 11.5567 149 104 111 
0.358501 4.16137 8.59684 42 28 19 
0.466128 3.14985 11.5843 68 36 39 
0.465521 3.4451 11.5618 64 66 55 
0.484364 3.02922 11.693 123 87 91 
0.50447 3.14538 11.6106 64 30 31 
0.509342 3.43375 11.5938 68 64 61 
0.516006 3.34468 11.6179 64 63 59 
0.523432 3.14152 11.609 132 96 100 
0.528908 3.19095 11.6281 128 120 109 
0.529293 3.25075 11.6187 72 70 58 
0.557532 3.10802 11.6424 133 109 105 
0.560203 3.60624 11.6465 125 121 110 
0.476997 2.73366 9.22145 101 102 97 
0.583477 3.17351 11.6623 65 28 36 
0.603064 3.43984 11.7085 65 66 61 
0.626722 3.06767 11.7016 81 35 45 
0.64152 2.91539 11.7237 77 36 42 
0.64629 3.40181 11.6678 45 44 40 
0.667603 3.36945 11.7105 125 123 111 
0.670638 2.99761 11.7526 130 113 103 
0.682772 3.43184 11.7096 61 62 57 
0.686287 3.32948 11.726 97 97 97 
0.701354 3.08112 11.764 140 88 101 
0.727298 3.23594 11.7528 75 76 68 
0.765302 3.36313 11.7896 125 122 113 
0.775254 3.23661 11.8041 82 79 70 
0.78514 2.974 11.8266 93 50 60 
0.785355 3.40652 11.7854 94 93 88 
0.799185 2.90839 11.8515 81 49 50 
0.795685 3.43235 11.7861 121 121 111 
0.806889 3.11633 11.8413 84 49 55 
0.817812 3.32417 11.815 56 57 51 
0.810214 4.21271 11.6078 143 66 86 
0.850451 3.36934 11.8409 124 120 109 
0.870184 3.05382 11.8841 78 50 49 
0.877959 3.08719 11.8899 132 114 110 
0.865247 4.32665 11.6948 58 26 39 
0.884622 3.31535 11.8522 68 68 66 
0.890722 3.43792 11.8259 66 63 56 
0.901439 3.42118 11.8727 71 71 69 
0.905507 3.38892 11.8535 117 117 115 
0.918344 3.31315 11.8659 110 107 100 
0.92488 3.36431 11.8675 131 128 113 
0.930451 3.40521 11.8468 48 45 36 
0.944077 3.31659 11.8828 61 60 58 
0.956946 3.71181 11.827 19 18 34 
0.982542 3.3541 11.9177 124 127 110 
0.991296 3.39892 11.8827 64 64 64 
0.999486 3.04355 11.96 96 33 50 
1.00172 3.30881 11.9431 113 114 109 
1.0078 3.30823 11.9197 58 58 56 
0.993687 4.90412 11.6956 152 112 104 
1.02477 3.04508 11.9739 78 52 51 
1.02836 3.02131 11.9806 130 117 109 
1.0244 3.40869 11.9114 122 122 114 
1.03209 3.08155 11.9808 130 120 111 
1.03694 3.27664 11.9249 124 121 112 
0.848662 5.06761 9.49423 209 187 164 
1.03078 4.91586 11.7532 91 57 55 
1.03268 4.33288 11.776 66 45 62 
1.06327 3.11517 12.0035 59 31 30 
1.05743 4.26073 11.7686 96 91 114 
1.08794 3.06283 12.0394 64 28 32 
1.1062 3.1105 12.0368 64 28 28 
1.15456 3.11252 12.1155 70 45 40 
1.14049 4.66004 11.8555 192 148 113 
1.19973 3.11618 12.1824 54 30 30 
1.17887 4.31429 11.9047 63 14 33 
1.22941 3.07579 12.2327 79 37 41 
1.20267 4.4184 11.924 102 43 63 
1.21341 4.49336 11.9269 128 67 72 
1.21984 4.12235 11.95 40 3 34 
1.25167 3.0372 12.2416 68 39 41 
1.24897 3.09331 12.1674 71 39 44 
0.998511 5.13823 9.39318 222 199 165 
1.3188 3.64039 12.1983 29 18 24 
1.16489 4.9487 10.4397 195 183 161 
1.39381 3.63865 12.2724 46 9 17 
1.45272 2.82821 12.4718 104 100 89 
1.28413 -1.12439 10.6942 228 190 145 
1.47627 3.61723 12.3171 111 103 92 
1.2849 4.95174 10.3977 161 157 158 
1.27507 5.00523 10.2732 102 103 134 
1.49453 4.95756 12.0786 80 45 51 
1.30212 5.04422 10.2962 36 39 80 
1.37421 -0.701612 10.6391 105 57 55 
1.41591 -1.71127 10.9712 242 201 171 
1.5588 4.86812 12.1532 131 76 81 
1.63668 4.28796 12.3635 122 50 62 
1.64427 4.94628 12.2 57 27 35 
1.45633 -0.0937376 10.6497 100 80 9 
1.72667 4.6945 12.3303 179 137 113 
1.52646 -0.0728718 10.6748 193 158 76 
1.76327 4.68606 12.3823 77 63 54 
1.58439 0.498432 10.7236 26 12 0 
1.58704 0.532763 10.722 23 11 0 
1.62796 -0.101731 10.7047 31 14 0 
1.65325 -0.229075 10.7701 14 0 0 
1.65536 -0.244139 10.7632 114 99 70 
1.72173 -0.858848 10.8098 117 57 59 
1.72302 4.9465 10.7647 90 85 79 
1.80864 -0.116422 10.8968 47 30 4 
1.91328 5.06883 10.8058 151 135 109 
1.94025 4.95735 10.8564 216 189 159 
2.02422 0.297139 11.241 188 156 33 
1.98344 5.06563 10.8265 171 145 110 
1.98176 5.00997 10.7959 148 122 87 
2.01875 5.02646 10.8115 118 45 39 
2.10472 0.192732 11.2934 110 89 22 
2.09202 0.386352 11.1869 179 147 26 
2.06615 5.02178 10.8126 122 98 70 
2.11264 4.9329 10.9157 123 112 30 
2.17317 4.92437 11.1767 198 164 31 
2.11795 4.96612 10.8344 204 198 110 
2.11913 5.00319 10.835 139 146 50 
2.57346 2.7492 13.3353 118 101 83 
2.14807 4.98437 10.8494 180 168 128 
2.1634 4.98371 10.8364 44 20 20 
2.17316 5.01491 10.8426 161 135 118 
2.25177 0.123064 11.2707 117 96 39 
2.1978 4.98258 10.867 217 110 92 
2.67372 2.52397 13.3942 29 14 37 
2.25884 4.92457 11.1567 220 182 39 
2.24214 4.92795 10.9231 96 82 7 
2.736 2.31411 13.4893 150 126 100 
2.25152 4.97471 10.8761 235 174 145 
2.78121 2.14763 13.5851 153 130 98 
2.27184 4.96412 10.8745 110 63 33 
2.39257 -0.238328 11.4858 145 110 10 
2.40323 -0.255962 11.5351 151 120 27 
2.41008 -0.251212 11.5076 208 177 84 
2.17753 5.1283 10.2372 160 112 76 
2.8057 4.64792 13.3183 176 152 126 
2.3452 5.09713 10.9246 114 75 34 
2.89261 2.09044 13.5703 75 62 56 
2.36575 5.00273 10.9048 139 55 44 
2.39677 4.99482 10.9216 106 47 33 
2.51845 -0.199883 11.4551 168 132 12 
2.41955 5.00459 10.922 183 136 120 
2.52992 -0.254741 11.4639 205 177 78 
2.53429 -0.241726 11.4492 141 112 12 
2.5475 -0.258653 11.462 136 105 14 
2.45313 5.02039 10.9294 31 16 21 
2.82795 -1.26312 12.703 212 189 158 
2.49493 4.9869 10.9372 224 201 160 
2.67381 4.85615 11.6584 105 69 33 
2.69201 4.90763 11.5977 222 194 154 
2.59107 0.504791 11.1596 178 146 27 
2.6171 0.294233 11.1716 171 132 11 
2.62765 5.09562 11.1143 198 158 88 
2.9906 -0.911862 12.7725 43 41 46 
2.98807 -0.765719 12.7361 79 69 68 
3.01618 -1.1134 12.8324 41 31 21 
3.03891 -1.22674 12.8764 166 150 127 
3.03047 -0.99703 12.806 128 116 104 
2.81399 4.86934 11.7023 61 71 47 
3.0725 -0.78491 12.8024 91 87 75 
3.09523 -1.05402 12.8878 21 15 19 
3.09451 -1.24451 12.8468 152 135 119 
3.1228 -0.797199 12.8356 16 11 5 
2.84013 0.900811 11.5511 123 107 56 
3.18276 -1.40117 13.0151 91 81 69 
3.18957 -1.16405 12.99 130 116 107 
2.76756 5.09468 11.092 206 173 104 
2.84325 4.86693 11.3893 209 179 33 
3.20719 -0.867168 12.9379 77 68 71 
3.23732 -1.39337 13.0708 101 86 65 
3.26886 -1.36276 13.038 204 181 150 
2.83713 1.05825 11.2163 92 84 73 
2.88828 0.173115 11.3849 55 14 0 
3.27872 -0.720958 12.995 46 46 36 
2.90647 0.203396 11.3967 223 159 33 
3.34682 -0.752676 13.1847 44 36 25 
3.34816 -0.741276 13.0458 213 193 169 
2.91865 5.0621 11.1198 118 98 65 
3.36275 -1.19217 12.8592 79 72 62 
3.15199 4.86417 11.7456 112 41 47 
3.09851 0.224866 11.4955 74 69 49 
3.51354 -0.675883 13.0016 17 13 14 
3.12874 5.03623 11.3442 231 175 16 
3.58925 -0.562247 12.9812 219 193 160 
3.37894 4.77684 12.1094 129 108 91 
3.25158 5.04233 11.4878 156 121 83 
3.60654 4.92722 11.8908 177 77 87 
3.67848 5.02421 11.6299 184 141 86 
3.69146 4.97512 11.6657 141 56 27 
4.01234 1.61683 12.5052 12 18 8 
3.79741 4.9471 11.6993 182 143 84 
3.78369 5.02394 11.5428 167 120 74 
3.67333 1.00764 11.1228 67 68 52 
3.85162 4.91276 11.5916 190 155 91 
-1.96849 1.22804 9.39732 60 90 116 
-1.44868 0.757103 9.06338 19 17 22 
-0.940389 0.19217 10.416 116 112 103 
-0.8299 4.41395 10.0826 141 128 109 
-0.718678 4.33337 10.2485 97 76 73 
-0.710829 4.20152 10.2568 169 146 114 
-0.707286 4.12442 10.168 158 139 122 
-0.695724 4.37985 10.2696 200 183 167 
-0.731435 -0.534704 10.8834 156 151 145 
-0.682453 4.1295 10.1351 74 56 52 
-0.722491 -0.537987 10.8446 30 26 17 
-0.669579 4.18102 10.1574 175 151 125 
-0.695241 -0.500798 10.9357 33 30 23 
-0.652149 4.14104 10.0979 101 83 71 
-0.693648 -0.524385 10.9367 126 122 111 
-0.650499 4.4317 10.0288 68 51 41 
-0.644532 4.18279 10.1122 102 85 75 
-0.673372 -0.570221 10.9482 141 137 126 
-0.660167 -0.570554 10.9587 28 24 13 
-0.65591 -0.501512 10.9298 161 142 125 
-0.644094 -0.266875 10.8712 40 37 30 
-0.642964 -0.282906 10.8763 28 25 18 
-0.639342 -0.535807 10.9859 146 131 110 
-0.579072 -0.592157 11.0625 47 39 37 
-0.518906 -0.551514 11.0845 35 26 17 
-0.482958 -0.363211 11.0237 55 44 48 
-0.451602 -0.0794612 10.9456 89 91 90 
-0.435215 -0.129974 10.9792 129 124 105 
-0.428176 -0.153898 10.971 21 11 9 
-0.422767 -0.0282007 10.9458 110 110 110 
-0.390288 4.40971 10.4081 127 105 81 
-0.467725 4.39934 8.80521 159 149 139 
-0.405255 5.03913 8.7731 33 30 39 
-0.426078 4.90785 7.92165 161 136 114 
-0.336204 4.78815 8.92273 31 29 16 
-0.260192 5.11671 8.45354 64 60 57 
-0.124652 4.43603 10.1445 76 61 38 
-0.182664 5.05977 8.97132 169 143 110 
-0.102061 4.44917 9.80113 184 143 99 
-0.079467 4.43458 9.80543 100 56 27 
-0.0636557 4.47399 9.85424 93 54 37 
-0.0548712 4.65057 9.77233 193 154 121 
-0.0451368 4.4006 9.87853 175 130 91 
-0.0405807 4.4962 9.86021 174 128 104 
-0.0360386 4.51157 9.85377 184 140 101 
-0.0193031 4.50652 9.88368 146 97 64 
-0.00473034 4.42425 9.92021 195 148 106 
0.00228822 4.39046 9.91197 131 82 50 
5.08456e-05 4.49605 9.8417 206 156 105 
-0.0529221 0.912249 9.39659 30 10 0 
0.0179036 5.20828 9.39772 145 111 76 
0.108551 4.70276 10.1909 116 78 41 
0.14223 4.6686 10.2647 119 82 40 
0.173226 4.5541 10.3538 97 83 72 
0.245106 -1.25537 11.6678 108 85 44 
0.207501 4.52302 10.4228 46 35 29 
0.297749 -1.28434 11.7235 126 99 56 
0.246099 4.55481 10.4578 132 129 122 
0.253904 4.59044 10.4425 18 20 15 
0.38971 3.11587 11.6234 120 113 95 
0.384977 3.00605 11.4985 116 106 94 
0.281904 4.54641 10.4426 29 21 18 
0.406803 3.5424 11.5 41 32 25 
0.407895 3.3543 11.5114 50 47 32 
0.42429 3.25759 11.5368 81 77 65 
0.422984 3.32042 11.5271 31 27 18 
0.424612 3.34013 11.5321 56 52 43 
0.429115 3.42703 11.5042 58 55 50 
0.433178 3.09963 11.5492 82 22 34 
0.436291 3.05649 11.5506 81 32 36 
0.45118 3.02939 11.5779 132 98 96 
0.458718 3.09451 11.5449 69 40 32 
0.4662 3.14991 11.5798 68 34 33 
0.470034 2.97791 11.597 128 95 90 
0.470086 3.04975 11.58 67 34 29 
0.483711 3.0277 11.6911 70 39 36 
0.474247 3.31385 11.5722 54 51 42 
0.482068 2.96326 11.6244 71 42 38 
0.480329 2.93602 11.6132 131 97 96 
0.480211 3.44239 11.5572 119 112 104 
0.490916 2.90456 11.6084 69 27 31 
0.50266 3.12833 11.6843 131 113 103 
0.499151 2.99393 11.6187 78 29 32 
0.514732 3.15366 11.6621 58 29 23 
0.51391 3.08353 11.6379 67 32 28 
0.513326 3.29426 11.6013 121 111 102 
0.511724 2.97715 11.6051 109 62 70 
0.513212 3.34107 11.5889 61 58 53 
0.5227 2.94706 11.6567 121 81 82 
0.518691 3.13707 11.5698 139 112 105 
0.530558 3.07587 11.6306 144 107 101 
0.535012 3.19532 11.653 119 113 99 
0.549397 3.14656 11.6544 76 41 39 
0.543963 3.58927 11.5587 123 114 99 
0.556045 3.10652 11.6247 130 103 96 
0.562271 3.16432 11.6478 133 113 104 
0.565048 3.11376 11.6268 130 99 94 
0.574409 2.98096 11.6927 121 105 90 
0.576285 2.95024 11.6551 68 39 33 
0.584051 3.17348 11.6568 72 37 41 
0.629007 2.96028 11.7532 85 35 38 
0.630444 3.07001 11.7115 69 29 27 
0.615762 4.53481 11.4545 117 82 88 
0.650385 3.14409 11.7951 65 29 29 
0.65178 2.98079 11.7226 67 32 28 
0.662996 3.24378 11.7347 82 73 66 
0.663119 3.02722 11.7252 123 109 96 
0.667936 3.18407 11.7579 120 112 99 
0.679416 3.00326 11.7842 125 108 98 
0.684383 3.1005 11.7386 75 26 32 
0.704933 2.99212 11.8166 76 36 36 
0.707501 3.08545 11.7858 132 85 93 
0.727644 3.13844 11.8147 82 47 45 
0.738762 3.02855 11.8114 121 108 99 
0.760394 3.09383 11.8995 137 107 107 
0.751134 2.89785 11.8292 139 115 105 
0.773819 2.97299 11.9062 139 98 96 
0.766796 3.36348 11.7864 126 114 102 
0.775298 3.23637 11.798 87 79 66 
0.770119 3.42233 11.7488 42 35 27 
0.792971 2.91448 11.889 92 32 42 
0.784952 3.40539 11.7719 95 90 87 
0.794151 3.43025 11.7717 117 110 104 
0.811131 2.91601 11.906 75 42 37 
0.82225 3.04551 11.8762 125 108 98 
0.813243 3.3205 11.7914 56 56 46 
0.82191 3.41156 11.7814 115 110 104 
0.837325 3.41619 11.8092 57 55 43 
0.8628 3.04695 11.9497 78 42 42 
0.85295 3.33123 11.8652 106 104 92 
0.84566 3.36482 11.8109 128 119 102 
0.862139 3.06207 11.9275 94 39 45 
0.867407 3.41523 11.8288 95 95 87 
0.849772 4.30772 11.6228 56 21 41 
0.883753 3.09094 11.9096 136 117 110 
0.883761 3.31441 11.8443 60 58 45 
0.883386 3.43101 11.786 45 38 28 
0.916354 3.31088 11.8511 109 105 94 
0.939659 3.07616 11.9605 133 88 95 
0.944406 3.31634 11.8777 67 63 54 
0.97012 3.03671 11.961 129 106 98 
0.947548 3.70226 11.7778 28 32 35 
0.943157 4.06417 11.65 35 21 34 
0.97636 3.34854 11.8854 126 119 101 
0.438783 5.17153 8.47458 15 14 28 
0.989106 3.39686 11.87 65 64 59 
0.674516 -1.37424 10.2672 152 107 68 
1.00976 3.31407 11.9697 117 110 102 
1.01388 3.31254 11.9409 67 60 54 
0.984664 4.8913 11.6551 139 102 84 
1.03567 3.05161 12.0167 70 41 35 
1.037 3.02604 12.0154 129 109 100 
1.02463 3.40796 11.9078 111 112 104 
1.04365 3.08871 12.0276 124 102 91 
1.02193 3.58503 11.8463 123 115 102 
1.03688 3.27625 11.9158 120 110 98 
1.06471 3.01596 12.0379 69 44 39 
1.07431 3.12209 12.0487 55 24 19 
1.08437 3.10968 12.0379 116 81 79 
1.04267 4.244 11.7001 97 89 100 
1.1205 3.05095 12.1234 65 32 27 
1.11168 3.11412 12.0588 63 32 29 
1.16375 3.11806 12.1465 80 53 46 
1.18902 3.08278 12.2053 126 91 89 
1.14106 4.89279 11.8038 101 59 43 
1.20165 3.0741 12.1865 67 23 22 
1.16619 4.29922 11.845 65 13 36 
1.23272 3.07648 12.2449 84 38 40 
1.18107 4.39439 11.8303 100 44 53 
1.02248 -2.15063 11.2994 170 138 113 
1.26296 3.04317 12.2831 74 39 37 
1.21292 4.11555 11.9194 41 5 31 
1.25416 3.09581 12.1862 65 41 31 
1.20526 4.84883 11.7857 97 60 44 
1.24475 4.64549 11.8962 181 138 104 
0.798693 5.18373 9.36396 14 14 14 
0.857847 -0.837541 9.95124 255 250 237 
0.885749 5.12803 9.66633 206 177 159 
1.34952 3.601 12.194 115 107 96 
1.07054 -1.81987 10.9064 57 98 94 
1.468 2.83597 12.5305 98 95 80 
0.949053 -0.433628 9.91173 50 32 0 
1.47119 3.61341 12.2974 110 103 87 
0.965124 0.00668052 9.89001 137 119 99 
0.960274 -0.51105 9.88858 27 10 3 
1.16264 -1.89003 10.9071 230 193 148 
1.00967 0.0474605 9.97803 137 116 97 
1.15531 4.9372 10.4071 194 180 167 
1.48506 4.94508 12.0365 77 45 50 
1.49785 4.90784 12.0774 64 25 28 
1.21561 4.92693 10.4998 70 56 43 
0.979003 5.11282 9.33093 225 193 152 
1.55155 4.85896 12.124 128 69 73 
1.07129 -0.0381533 9.98824 36 7 0 
1.00006 5.12914 9.29683 168 149 132 
1.58403 4.93879 12.0885 49 7 17 
1.01907 5.13183 9.31569 57 41 26 
1.63612 4.93577 12.1637 52 24 36 
1.64495 4.95414 12.1507 51 7 22 
1.2635 4.99188 10.2365 97 90 123 
1.72247 4.68958 12.3049 169 123 89 
1.37131 4.94501 10.5994 153 137 114 
1.32494 -0.726869 10.5913 219 184 144 
1.76766 4.68876 12.3899 82 71 49 
1.39951 4.92023 10.5635 155 141 132 
1.86428 4.57145 12.4905 180 149 105 
1.38484 4.98444 10.2253 109 110 131 
1.45427 -0.0687455 10.7163 167 143 99 
1.47796 4.95251 10.414 54 49 69 
1.48727 0.776413 10.5252 17 11 13 
2.10217 -2.95884 13.2092 99 78 59 
2.09453 -3.15564 13.1087 109 82 55 
2.12375 -3.19685 13.2251 109 82 55 
1.57251 -0.0742644 10.7557 40 11 0 
1.60646 0.527983 10.8406 107 92 63 
1.59877 0.530448 10.7596 32 8 0 
1.62805 0.264583 10.8522 24 8 8 
2.2046 3.23706 13.1032 176 149 104 
1.62316 -0.0031845 10.7918 171 142 110 
1.62628 -0.0102947 10.7591 51 20 0 
1.59067 5.07992 10.4173 53 27 62 
1.62799 -1.01717 10.7419 162 129 84 
2.27208 -3.15613 13.3381 187 164 122 
1.71707 4.94202 10.7512 175 161 152 
1.6677 -0.788685 10.7566 240 203 151 
1.68366 -0.163332 10.7903 32 9 0 
0.956248 0.0373003 7.82785 176 150 133 
2.27504 -3.19557 13.2866 193 157 107 
1.6789 -0.972465 10.7499 235 201 156 
1.69334 -0.161883 10.7789 120 93 74 
2.31964 -3.15714 13.384 107 84 66 
1.6884 0.00112284 10.7221 42 25 15 
1.73439 -0.163852 10.8917 37 11 0 
1.75633 0.485723 10.9526 102 71 50 
1.6517 5.09731 10.3349 209 100 93 
1.73881 -0.13805 10.8677 35 7 0 
1.74949 -1.24175 10.9303 234 204 142 
1.74968 -0.247219 10.8119 134 111 80 
1.79827 -0.31274 10.9182 33 14 0 
1.85495 4.92534 10.817 25 11 8 
1.83662 -0.799674 10.9086 232 194 155 
1.88243 4.9691 10.8216 47 36 16 
1.87811 -0.808144 10.9575 125 101 75 
1.96619 0.56864 11.2318 84 61 19 
2.02634 0.313017 11.3995 71 42 8 
1.90169 5.0573 10.7691 156 132 98 
2.42512 -3.28606 13.0186 16 10 12 
2.60807 2.75945 13.4509 119 96 78 
1.94281 4.96021 10.8634 255 228 182 
2.04518 0.710733 11.3809 123 96 25 
2.08405 0.42409 11.4034 238 214 166 
2.07621 0.708085 11.3638 72 46 11 
2.06873 0.273058 11.3417 197 160 45 
1.98262 5.06544 10.8245 178 147 118 
1.95752 4.9852 10.7204 143 109 74 
2.09169 0.720035 11.3421 121 97 59 
2.14645 0.456784 11.5442 131 101 75 
2.11038 0.107642 11.3898 148 106 4 
1.98857 5.11539 10.7711 137 107 81 
1.99708 5.02691 10.8043 204 159 136 
2.01278 4.92211 10.8554 119 42 14 
2.11947 0.188724 11.3374 112 87 20 
2.01481 5.02277 10.8002 104 22 10 
2.08441 0.388297 11.1646 170 138 29 
2.09692 0.383782 11.2076 182 147 29 
2.79239 2.32562 13.6663 151 122 90 
2.04713 4.91854 10.8364 114 70 0 
2.82863 2.15747 13.7263 153 125 86 
2.88514 1.49242 13.9015 128 110 88 
2.06201 5.03761 10.8081 66 39 12 
2.16088 4.9124 11.1436 197 155 19 
2.09154 5.06783 10.8402 107 95 69 
2.08736 5.01177 10.7951 60 49 0 
2.79811 4.6409 13.283 178 149 115 
2.11043 4.99528 10.8119 147 143 54 
2.13754 4.94208 10.8758 255 235 164 
2.94013 2.20368 13.7945 79 60 46 
2.14251 4.91675 10.8728 162 153 36 
2.20938 4.93209 11.1005 162 119 0 
2.23152 0.141883 11.2896 98 75 21 
2.13524 5.04391 10.808 147 128 98 
2.14386 4.9809 10.8393 186 173 129 
2.95702 2.09885 13.7776 72 60 48 
2.88996 2.35232 13.5266 50 36 51 
2.23568 4.9378 11.1122 221 187 53 
2.15617 5.02957 10.8261 42 14 0 
2.15606 4.97726 10.8186 43 14 0 
2.16468 5.11179 10.8421 141 113 102 
2.17696 5.08883 10.8634 65 25 13 
2.70705 4.76369 12.7254 44 36 33 
2.1628 5.0061 10.8162 167 135 114 
2.27303 0.114484 11.3377 164 138 77 
2.20137 4.92356 10.9224 152 136 25 
2.91016 3.00525 13.4048 75 60 67 
2.31857 4.89229 11.2832 205 172 33 
2.30321 4.9045 11.2188 97 94 59 
2.98505 2.30615 13.5939 17 1 11 
3.01644 1.87528 13.679 119 102 92 
3.1023 2.2013 13.9535 160 125 95 
3.08325 2.15911 13.7923 171 140 109 
2.42339 -0.264385 11.5929 147 108 3 
3.03309 1.88219 13.5993 24 8 18 
3.10534 2.14907 13.786 61 43 23 
3.08044 2.01239 13.6908 54 40 13 
2.28293 5.09959 10.8426 200 149 102 
3.09114 2.21115 13.6452 35 21 20 
2.39054 0.166331 11.2538 107 86 19 
3.08124 2.23242 13.5139 132 122 113 
2.85228 -1.27768 12.7765 220 184 148 
2.11209 5.06487 10.0604 152 72 45 
2.39157 4.99092 10.9099 104 43 24 
3.23512 3.09361 13.7114 169 143 108 
2.4105 4.93473 10.9433 247 216 162 
2.55014 -0.262367 11.522 214 178 66 
2.94709 -1.1095 12.8131 51 32 25 
2.33877 5.10652 10.6768 187 131 72 
2.94258 -1.22722 12.8003 71 55 39 
2.41631 5.002 10.9143 179 131 117 
2.56948 -0.266551 11.5246 145 102 0 
2.41603 4.971 10.8948 78 22 9 
2.44318 4.97442 10.9629 183 119 92 
2.96707 -0.958975 12.7845 55 34 29 
3.03767 -2.21054 13.0274 84 76 63 
2.97948 -0.742385 12.7817 208 179 149 
2.67063 4.85461 11.6506 102 62 36 
2.45127 4.98867 10.939 103 77 62 
2.48692 0.598005 11.1589 108 76 1 
2.45125 5.0195 10.926 30 16 16 
2.99938 -1.12714 12.8399 167 144 130 
2.69889 4.85918 11.7306 88 52 30 
2.44068 4.96881 10.8754 47 23 11 
2.51136 0.653524 11.1589 150 123 52 
3.05058 -1.00522 12.8615 127 111 98 
3.05635 -0.776292 12.8041 51 35 19 
3.11359 -1.11759 12.969 153 132 111 
2.50611 5.10669 10.8904 77 45 34 
3.10885 -0.837386 12.9051 21 15 17 
3.13678 -1.18681 12.9776 161 135 112 
3.14669 -1.34409 13.0273 206 179 152 
2.56732 5.08063 11.0319 89 65 53 
2.76607 4.86918 11.6411 204 181 131 
3.16801 -1.12471 12.9909 25 7 3 
3.18786 -1.40177 13.0242 93 82 64 
2.8055 4.8635 11.6824 69 65 40 
2.63196 5.09917 11.1218 198 153 72 
2.62585 0.291362 11.1971 165 125 1 
