ply                 
format ascii 1.0    
element vertex 1321
property float x    
property float y    
property float z    
property uchar red  
property uchar green
property uchar blue 
end_header          
1.43542 -0.715067 10.4984 110 57 63 
1.43874 -0.0837616 10.5033 174 154 103 
1.44487 -0.397374 10.5068 164 138 103 
1.44877 -0.516574 10.5211 177 153 127 
1.45051 -0.0834803 10.5096 72 55 12 
1.44525 4.96669 10.3823 144 133 131 
1.47391 4.96789 10.5433 137 122 101 
1.46254 0.0092953 10.5171 177 163 118 
1.48279 4.96022 10.5632 190 176 163 
1.47293 -0.0925625 10.5349 70 45 4 
1.46776 4.96649 10.3824 156 144 144 
1.47658 -0.0551759 10.5168 124 104 69 
1.47537 -0.716955 10.4984 229 205 171 
1.47571 5.01484 10.3921 44 47 82 
1.71637 4.72128 12.2662 179 137 113 
1.49514 -0.0179451 10.5415 37 18 0 
1.49497 4.96043 10.4556 196 181 152 
1.49954 0.046222 10.5569 28 18 8 
1.50711 -0.0577464 10.5467 52 33 0 
1.50953 -0.132638 10.5276 10 1 0 
1.74952 4.70072 12.2871 77 63 54 
1.74952 4.70072 12.2871 77 63 54 
1.51811 -0.0417211 10.5357 35 24 0 
1.53203 4.96338 10.5694 48 41 72 
1.52991 0.00524257 10.5353 111 97 68 
1.54375 -0.526994 10.5782 39 22 0 
1.54079 -0.122464 10.5368 32 7 0 
1.54209 -0.0660776 10.5348 46 30 0 
1.546 -0.432367 10.5548 55 36 0 
1.54758 0.0248609 10.5555 100 89 57 
1.55406 0.531077 10.57 140 131 114 
1.5541 -0.515445 10.5821 37 18 0 
1.5509 4.95005 10.4694 90 94 123 
1.55953 -0.344993 10.5485 32 15 0 
1.56409 -1.03562 10.5815 233 207 172 
1.5671 -0.362783 10.5605 130 116 71 
1.57373 -0.333305 10.5648 36 20 0 
1.54128 5.11042 10.2301 24 16 67 
1.53132 5.22351 10.1549 239 223 172 
1.58838 0.496801 10.5855 26 14 0 
1.5945 0.528167 10.5916 25 17 0 
1.59248 -0.389367 10.5747 44 32 10 
1.60223 0.475157 10.5922 95 88 78 
1.60071 -0.311667 10.5898 26 14 0 
1.60244 -0.381547 10.5827 26 11 0 
1.60544 -0.0895144 10.5841 57 37 12 
1.60501 -0.0738281 10.5653 138 116 92 
1.60917 -0.36974 10.5871 20 10 0 
1.60932 -0.141866 10.587 107 94 75 
1.61469 0.554883 10.6082 75 67 54 
1.65587 5.03151 10.7991 67 56 60 
1.62024 -0.0967313 10.5757 171 150 123 
1.62858 -0.311823 10.6206 26 15 0 
1.62756 -0.284978 10.6135 31 15 0 
1.63772 -0.328331 10.6049 29 13 0 
1.64149 -0.180796 10.6248 83 69 56 
1.64327 -0.215907 10.6139 24 16 0 
1.64746 0.479301 10.6193 17 8 0 
1.63954 -0.0870964 10.5432 176 154 141 
1.66322 -0.862901 10.6326 234 200 175 
1.66534 -0.984927 10.643 233 207 170 
1.92305 5.04443 12.3354 173 77 91 
1.59951 5.17315 10.0244 110 46 11 
1.6964 -0.984984 10.6636 238 201 183 
1.69872 -0.261446 10.6635 98 83 60 
1.64881 5.19309 10.2319 119 62 43 
1.70408 -0.866823 10.6682 117 57 59 
1.66976 5.1452 10.3466 207 104 105 
1.72446 4.97628 10.73 90 85 79 
1.71318 -0.247902 10.6792 32 15 0 
1.714 -0.28057 10.6693 79 63 48 
1.72686 -0.15129 10.6754 45 24 0 
1.72686 -0.15129 10.6754 45 24 0 
1.72714 -0.256351 10.6686 132 113 83 
1.74583 -0.364903 10.7242 37 21 6 
1.74288 -0.088587 10.6931 182 162 137 
1.74475 -0.158838 10.7 108 94 68 
1.74754 -0.182622 10.7137 42 24 0 
1.91434 5.08038 11.7646 180 156 130 
1.75617 -0.0827105 10.7006 52 35 7 
2.13133 -3.25327 13.2469 111 87 63 
1.77229 -0.374728 10.756 90 73 53 
1.77031 -0.33726 10.7206 39 22 2 
1.80172 -1.09138 10.8284 225 198 153 
1.70044 5.15812 10.0624 100 43 36 
1.7037 5.12423 10.0817 240 216 172 
1.76979 5.13223 10.5129 167 107 97 
2.06042 5.04842 12.4371 172 80 91 
1.79828 -0.989227 10.783 228 198 162 
1.81681 -0.121436 10.7935 194 166 116 
2.20296 -2.05955 13.1811 37 23 14 
1.76 5.17085 10.105 108 32 34 
1.75688 5.10829 10.0752 164 124 114 
1.8624 -0.72991 10.8283 212 180 155 
1.84366 5.12897 10.5608 176 129 99 
1.74086 5.11087 9.83484 136 72 45 
1.8793 5.01811 10.7044 17 13 14 
1.88744 5.17395 10.7312 64 44 45 
1.90015 4.95146 10.7953 183 158 117 
1.8701 5.15026 10.5699 131 89 49 
1.8341 5.13272 10.2707 103 65 56 
2.31767 -3.21122 13.3781 104 86 74 
1.91556 5.0979 10.7639 151 135 109 
1.76954 5.1313 9.8083 236 190 138 
1.93515 4.96607 10.7741 216 189 159 
1.97733 0.220265 11.0944 153 126 49 
2.05342 4.79814 11.4912 192 164 140 
1.8198 5.09791 9.98863 141 97 58 
1.95788 5.16085 10.8313 38 32 20 
1.85383 5.06191 10.1848 113 85 73 
1.99708 0.679938 11.1147 135 112 58 
2.36483 -3.12608 13.3545 166 152 123 
2.01179 0.287199 11.1513 188 156 33 
1.79927 5.10946 9.69362 189 162 135 
1.86937 5.11444 10.1083 89 61 37 
1.98132 5.08169 10.7598 171 145 110 
1.83218 5.17232 9.85832 220 170 121 
2.03399 0.676053 11.0679 64 49 8 
2.04086 0.217817 11.1043 109 82 1 
1.99015 5.13715 10.7206 141 120 89 
1.89981 5.10902 10.1786 242 218 170 
2.04535 0.386399 11.0918 134 101 30 
2.01381 5.09048 10.7888 104 65 48 
2.01058 5.01063 10.7499 149 58 55 
2.07767 4.99019 11.1338 75 44 16 
1.91195 5.09308 10.1424 162 134 95 
2.01841 5.04509 10.7501 118 45 39 
1.86859 5.16223 9.85651 218 151 99 
2.0831 0.180516 11.1514 110 89 22 
2.07182 0.401465 11.071 160 141 65 
2.08414 0.378247 11.1134 179 147 26 
2.09637 0.214119 11.1471 197 160 28 
2.0401 5.14691 10.7331 127 110 103 
2.06512 4.94575 10.8421 178 165 97 
2.05159 5.08257 10.7444 119 95 91 
2.12396 0.116463 11.1933 188 158 70 
2.11466 0.0840489 11.1363 83 50 0 
2.07082 5.01879 10.7965 77 52 22 
1.91531 5.16477 9.8993 192 144 108 
2.06653 5.07344 10.7642 67 44 28 
2.47407 -3.39035 13.1972 21 11 12 
2.12169 0.146318 11.1181 83 61 1 
2.12612 0.0907733 11.1154 188 161 84 
2.08022 4.98782 10.7692 181 177 104 
2.13479 0.0772284 11.1266 91 57 0 
2.09728 5.04099 10.8171 167 168 90 
1.92263 5.11284 9.75743 126 96 72 
2.1159 5.01961 10.8141 96 102 6 
2.1159 5.01961 10.8141 96 102 6 
2.1641 0.0965953 11.1333 183 157 64 
2.20702 -0.17517 11.369 33 21 7 
2.17955 4.95951 11.1478 198 164 31 
2.12318 5.03115 10.7944 139 146 50 
2.12318 5.03115 10.7944 139 146 50 
2.16901 0.0992309 11.0783 194 167 88 
2.11873 5.0822 10.7168 33 28 35 
2.1371 5.05576 10.7979 78 76 25 
2.13142 5.11672 10.7622 59 56 67 
2.18686 4.9686 11.0609 200 166 32 
2.01822 5.06123 10.1124 113 80 47 
2.15181 5.13283 10.8348 36 23 30 
2.19085 0.134011 11.0953 100 84 32 
2.14974 5.00639 10.7972 180 168 128 
2.14972 5.08286 10.7951 141 115 98 
2.14972 5.08286 10.7951 141 115 98 
2.22333 4.95217 11.1569 89 81 32 
2.24266 4.94336 11.2544 66 68 67 
2.1088 5.14785 10.511 194 151 98 
2.22611 4.95973 11.1334 210 179 71 
2.20253 0.802316 11.042 136 107 13 
2.16774 5.01105 10.7957 44 20 20 
2.17065 5.06771 10.8109 44 22 8 
2.17303 5.14124 10.8101 125 104 85 
2.17303 5.14124 10.8101 125 104 85 
2.17303 5.14124 10.8101 125 104 85 
2.21178 0.110571 11.0779 162 147 92 
2.17946 5.04828 10.8147 161 135 118 
2.23137 4.95198 11.0368 224 199 57 
2.19938 4.93819 10.8578 131 129 18 
2.63826 2.50912 13.2019 29 14 37 
2.21143 4.94551 10.8474 151 142 47 
2.20898 5.06748 10.8197 43 14 8 
2.2505 4.94756 11.0094 89 77 0 
2.24496 4.95401 10.9618 169 163 49 
2.26341 4.94072 11.0431 214 196 70 
2.23858 0.310517 10.9609 149 129 56 
2.23235 5.05673 10.848 182 95 76 
2.11857 5.1188 10.2317 84 41 25 
2.22868 5.12547 10.7746 98 70 33 
2.31258 4.93664 11.1904 105 107 85 
2.32313 4.91805 11.2371 204 182 63 
2.25597 4.98321 10.8589 134 104 44 
2.35929 4.92461 11.3785 122 65 38 
2.74477 2.13395 13.408 153 130 98 
2.28095 4.99533 10.9394 229 232 125 
2.13848 5.10781 10.1906 206 153 113 
2.35367 -0.275069 11.3669 151 114 0 
2.13393 5.13699 10.1224 145 61 37 
2.37038 4.9419 11.3464 215 164 46 
2.26714 5.14249 10.7955 101 71 19 
2.34179 0.0248459 11.2074 237 199 28 
2.36831 -0.250754 11.341 145 110 10 
2.37737 -0.267334 11.3773 151 120 27 
2.31833 5.18344 10.9919 112 69 24 
2.2866 5.12222 10.7966 190 149 93 
2.17211 5.12262 10.2045 223 180 112 
2.36612 4.93179 11.1674 217 181 22 
2.36612 4.93179 11.1674 217 181 22 
2.36612 4.93179 11.1674 217 181 22 
2.38797 -0.277079 11.3445 146 115 9 
2.39641 4.93219 11.3187 174 100 35 
2.39493 -0.211596 11.3597 168 136 17 
2.64722 5.03016 12.5653 141 70 74 
2.3833 -0.229094 11.2753 218 182 72 
2.34313 0.158985 11.0415 110 95 26 
2.44399 4.93179 11.4821 98 52 39 
2.20945 5.09798 10.276 124 97 67 
2.33808 4.92011 10.9342 175 148 79 
2.32659 4.97635 10.8685 135 140 37 
2.80079 4.68109 13.2635 176 152 126 
2.3422 4.94738 10.9256 171 174 71 
2.42066 -0.279762 11.3789 151 120 4 
2.35693 0.12414 11.0414 204 172 51 
2.35433 4.93888 10.9102 96 92 21 
2.34033 5.10271 10.8336 114 75 34 
2.69679 4.98978 12.575 246 178 169 
2.37246 5.00113 10.936 156 147 68 
2.38453 0.0953668 11.0324 225 186 31 
2.44779 -0.284926 11.3401 150 117 10 
2.44779 -0.284926 11.3401 150 117 10 
2.36597 5.02497 10.8681 143 65 45 
2.44727 -0.251804 11.3336 142 108 1 
2.44727 -0.251804 11.3336 142 108 1 
2.40319 0.722374 11.0339 156 136 67 
2.37993 4.99226 10.8643 228 204 158 
2.46581 -0.291725 11.3438 210 176 66 
2.37412 5.1385 10.8183 194 154 92 
2.41021 4.93393 10.9627 182 152 118 
2.40115 5.02052 10.8785 106 47 33 
2.55186 4.92075 11.5985 91 61 50 
2.48227 -0.237422 11.3056 209 176 69 
2.49383 -0.283519 11.3397 144 113 7 
2.46541 4.96425 11.1287 87 76 0 
2.42159 5.02465 10.8659 183 136 120 
2.46879 4.97201 11.093 167 123 62 
2.50632 -0.267616 11.3255 205 177 78 
2.50632 -0.267616 11.3255 205 177 78 
2.45395 4.95186 11.002 228 200 160 
2.31653 5.08778 10.3285 122 86 52 
2.49353 4.97951 11.1464 224 187 47 
2.4957 4.98228 11.1539 224 187 47 
2.52187 -0.288237 11.3202 209 177 68 
2.52297 -0.271825 11.3216 136 105 14 
2.53118 -0.251577 11.3113 158 121 0 
2.45531 5.0412 10.876 31 16 21 
2.98233 3.41635 13.4364 154 137 117 
2.53999 -0.269758 11.3321 215 180 54 
2.30463 5.06755 10.1032 73 49 25 
2.9427 -3.06467 13.2287 182 170 154 
2.31407 5.04351 10.0939 218 192 155 
3.03237 3.8187 13.4889 107 93 80 
2.96409 -3.08778 13.2252 19 0 8 
3.02276 -3.40087 13.4574 35 32 27 
3.02276 -3.40087 13.4574 35 32 27 
2.34791 5.07232 10.1178 176 141 109 
2.53421 0.495191 11.0384 62 48 21 
2.67775 4.88743 11.6239 105 69 33 
2.61005 -0.370921 11.355 240 211 75 
3.01495 -3.09784 13.2554 130 62 103 
3.01495 -3.09784 13.2554 130 62 103 
2.54591 0.271913 11.0111 157 119 22 
2.53698 5.16511 10.916 62 44 44 
2.48258 5.13661 10.6387 205 173 134 
2.57322 5.17082 11.0144 201 162 93 
2.69263 4.92993 11.5353 222 194 154 
2.58382 0.302332 11.0496 182 151 43 
2.59223 0.256419 11.053 181 138 7 
2.93088 -0.749936 12.5973 210 178 155 
2.93088 -0.749936 12.5973 210 178 155 
3.07649 -3.12165 13.2817 109 56 82 
2.96313 -1.292 12.7433 64 46 34 
2.60186 0.28266 11.0598 171 132 11 
2.72086 4.83082 11.519 94 64 40 
2.95866 -1.13407 12.6756 159 146 127 
2.62215 5.10192 11.0246 198 158 88 
2.96097 -0.776369 12.5973 79 69 68 
2.98485 -1.12308 12.6794 41 31 21 
2.58848 5.12073 10.7577 81 74 81 
2.6582 0.660514 11.123 111 76 0 
3.0056 -1.0119 12.6894 128 116 104 
2.71625 0.830925 11.3562 172 138 15 
3.02131 -1.13941 12.7435 152 136 123 
2.64558 5.12992 10.957 200 161 82 
3.1652 -2.95732 13.335 126 55 89 
2.6806 5.11734 11.0709 203 171 84 
2.77467 4.9209 11.4773 32 44 30 
2.82407 4.90931 11.6883 61 71 47 
2.8886 4.60228 11.9607 51 37 34 
2.57127 5.07733 10.5245 164 145 113 
3.02806 -0.836276 12.6147 42 37 33 
3.05175 -0.797218 12.6943 91 87 75 
3.07366 -1.0683 12.7786 21 15 19 
3.21554 -3.25086 13.3823 216 188 149 
3.09228 -1.19744 12.8132 160 143 127 
3.08601 -1.11265 12.7783 132 124 111 
2.89457 4.72039 11.8602 157 132 110 
2.66366 5.26975 10.826 96 84 72 
2.73262 5.10396 11.0692 95 85 60 
2.84267 4.93889 11.5572 168 154 128 
2.86283 4.75998 11.6414 129 104 82 
2.93764 4.66009 11.9568 169 144 122 
3.11587 -1.12912 12.7949 28 18 17 
2.62052 5.09284 10.5461 215 204 174 
2.48606 4.95314 9.92936 97 76 57 
2.62278 5.08918 10.5056 76 63 44 
3.16004 -1.41488 12.9025 91 81 69 
3.16004 -1.41488 12.9025 91 81 69 
2.83477 4.93062 11.4031 130 104 17 
2.93191 4.91159 11.7991 79 49 23 
3.14932 -1.10052 12.8052 7 7 9 
2.9105 4.82498 11.6478 89 66 50 
2.84404 4.8863 11.3319 209 179 33 
2.6488 5.11736 10.485 139 126 110 
2.6488 5.11736 10.485 139 126 110 
2.89099 4.91028 11.5266 175 158 132 
2.85142 4.91075 11.2072 255 228 86 
2.87175 0.146519 11.3337 16 3 0 
3.24268 -1.37805 12.9172 204 181 150 
2.88776 0.0248067 11.3909 85 78 59 
2.82436 1.04846 11.1085 92 84 73 
2.82436 1.04846 11.1085 92 84 73 
3.26488 -1.21908 12.9217 22 18 19 
2.98978 4.80313 11.6899 190 166 132 
3.28103 -1.34313 12.9606 72 66 54 
2.93398 0.0422067 11.435 84 77 49 
3.35874 -0.768251 13.2064 44 36 25 
3.26071 -1.25222 12.8021 84 77 71 
3.28511 -1.25817 12.8744 80 75 71 
2.94534 4.89554 11.3448 127 62 32 
3.31625 -0.755012 12.9019 213 193 169 
2.9305 0.243172 11.249 120 64 7 
2.96379 4.89216 11.3106 221 182 43 
2.96037 5.09635 11.2885 223 177 6 
2.91018 5.11327 11.0769 96 63 20 
3.09138 4.8103 11.8024 206 182 144 
2.91831 5.07401 11.0457 118 98 65 
3.04857 -0.0551301 11.5881 19 19 9 
3.04885 4.91145 11.5311 136 107 29 
2.91318 5.13838 10.9543 181 151 89 
3.06812 0.0351967 11.616 80 78 63 
2.95699 5.05397 11.0869 201 121 62 
3.41038 -0.608601 12.8719 5 5 5 
3.43985 -0.617826 12.963 6 6 6 
2.84287 5.07337 10.5101 183 153 93 
3.08164 4.98497 11.352 227 188 7 
3.08164 4.98497 11.352 227 188 7 
3.02439 0.628379 11.1725 10 6 5 
2.80245 4.94795 10.197 106 80 63 
3.03639 0.48622 11.1594 235 177 77 
3.04879 0.464527 11.178 21 6 3 
3.04906 1.77278 11.1631 195 155 67 
3.49038 -0.557263 12.912 205 186 154 
3.48369 -0.687266 12.8587 17 13 14 
3.10871 5.0905 11.2631 164 75 0 
3.1365 5.06417 11.3023 231 175 16 
3.09121 1.45364 11.1416 194 155 78 
3.56915 -0.575619 12.8746 219 193 160 
3.56915 -0.575619 12.8746 219 193 160 
3.39079 4.8136 12.0894 129 108 91 
3.23766 5.01233 11.4352 76 58 38 
3.25798 0.157757 11.4549 73 71 58 
3.26773 0.175301 11.4148 10 10 2 
3.49716 5.10493 11.7019 177 133 84 
3.52896 -3.32427 11.8966 110 102 81 
3.45641 5.10952 11.5216 87 40 30 
3.33138 5.08461 10.9385 157 92 52 
3.71124 -4.38187 12.3647 103 84 67 
3.59886 4.93346 11.7975 177 77 87 
3.77403 2.88742 12.2733 188 181 153 
3.78403 2.93141 12.2401 189 176 157 
3.78689 2.89961 12.2377 40 33 14 
3.79302 2.9177 12.2003 96 81 58 
3.5777 5.09095 11.4382 86 23 16 
3.5777 5.09095 11.4382 86 23 16 
3.80068 2.89855 12.1695 202 189 170 
3.68466 5.04705 11.5807 184 141 86 
3.71792 5.02443 11.6845 141 56 27 
3.85189 -3.69839 12.1076 218 190 150 
3.88756 2.07574 12.056 210 185 155 
3.88756 2.07574 12.056 210 185 155 
3.9458 1.8783 12.2478 19 24 4 
3.48119 4.87758 10.6863 185 142 126 
3.98284 1.60478 12.3506 12 18 8 
3.94129 2.14149 12.1362 26 23 6 
3.80295 4.96721 11.6394 182 143 84 
3.89081 2.58105 11.9381 22 31 12 
3.76942 5.06506 11.4214 96 52 39 
3.81597 4.99943 11.5312 144 58 33 
3.91634 0.968257 11.8769 15 16 11 
3.85467 4.92811 11.5266 190 155 91 
4.08776 6.00439 12.1739 196 174 150 
3.9948 3.5705 11.8296 53 53 27 
3.9948 3.5705 11.8296 53 53 27 
4.08636 -4.43167 12.1013 213 185 145 
4.08968 4.03501 11.8321 30 27 22 
4.22347 0.723682 12.11 24 28 14 
4.20395 4.35003 11.8263 198 185 153 
4.20395 4.35003 11.8263 198 185 153 
-0.612985 0.0207176 8.01103 162 175 181 
-1.34512 -0.637729 10.0138 182 172 162 
-1.30111 -0.484056 10.0004 177 187 186 
-1.24035 -0.0149546 9.83855 164 179 174 
-1.26576 -0.232006 9.91856 93 107 118 
-1.2394 -0.0280947 9.8422 51 70 84 
-1.30267 -0.469515 10.0342 37 53 68 
-1.39238 -4.43781 10.4271 162 105 76 
-1.16428 0.347179 9.73723 149 99 4 
-1.25308 -0.486818 10.0471 132 144 156 
-1.17895 0.0899265 9.84186 75 91 104 
-1.35109 -0.646963 10.3858 62 65 72 
-1.15182 0.161378 9.83893 167 182 175 
-1.18062 -0.230242 10.0038 119 143 155 
-1.11461 0.280567 9.81734 144 149 152 
-1.07741 -0.0368599 10.0049 149 165 162 
-1.07175 -0.055315 10.0237 60 77 87 
-0.998285 0.304255 9.91986 120 127 135 
-1.01069 0.0929108 10.0042 135 136 131 
-1.0786 -0.518545 10.2262 140 146 158 
-0.962316 0.0932439 10.0491 89 105 121 
-0.991371 -0.306694 10.2237 77 98 119 
-0.961883 -0.101645 10.1456 95 110 131 
-0.948357 -0.0799311 10.1463 90 105 126 
-0.961645 -0.262666 10.2274 77 100 116 
-0.939825 -0.386755 10.3001 98 113 132 
-0.918416 -0.24329 10.2554 98 124 137 
-0.899285 -0.157937 10.2296 108 123 144 
-0.890311 -0.0834035 10.2101 150 149 147 
-0.885705 -0.249307 10.2983 29 42 59 
-0.897827 -0.530928 10.4074 93 105 117 
-0.718369 4.4609 9.84755 132 119 110 
-0.811881 -0.154284 10.3194 94 107 126 
-0.803319 -0.183904 10.343 105 118 137 
-0.791348 -0.19296 10.3585 18 29 47 
-0.773389 -0.123337 10.3389 85 96 118 
-0.769279 -0.504343 10.5284 90 93 102 
-0.256503 0.40697 8.75922 172 81 0 
-0.739298 -0.329671 10.4685 130 135 139 
-0.743506 -0.529785 10.5569 166 169 174 
-0.709487 -0.49433 10.5648 35 33 36 
-0.685132 -0.25291 10.4879 151 155 158 
-0.708292 -0.515731 10.5824 141 142 144 
-0.219901 0.412731 8.8423 229 116 38 
-0.675748 -0.28565 10.5137 171 172 174 
-0.695475 -0.515434 10.5941 46 42 39 
-0.689116 -0.494099 10.5884 178 169 164 
-0.689203 -0.474408 10.5946 45 40 44 
-0.697294 -0.589615 10.6272 190 192 191 
-0.687655 -0.528369 10.6047 50 49 47 
-0.688112 -0.566386 10.6253 159 161 158 
-0.657255 -0.278738 10.5189 27 29 26 
-0.20863 0.42562 8.89391 205 72 3 
-0.684406 -0.620462 10.6484 44 47 52 
-0.644178 -0.283277 10.5298 181 183 182 
-0.662551 -0.541353 10.6334 169 173 172 
-0.658935 -0.571084 10.6518 39 40 42 
-0.651442 -0.512202 10.6436 44 43 38 
-0.610196 -0.558402 10.7012 35 36 38 
-0.599485 -0.610439 10.7106 37 36 34 
-0.590289 -0.561023 10.7138 166 170 171 
-0.524967 -0.338582 10.6761 149 149 159 
-0.474374 -0.0144397 10.5625 27 31 42 
-0.504091 -0.369683 10.7372 43 44 65 
-0.458609 -0.132274 10.6415 155 156 151 
-0.4474 -0.156717 10.6652 25 27 40 
-0.441095 -0.102987 10.6601 84 82 95 
-0.437496 -0.0714137 10.6491 14 20 34 
-0.437852 -0.124669 10.6697 18 20 35 
0.0208627 0.573293 9.40486 149 55 47 
0.0925149 4.45985 10.1721 220 192 153 
0.243652 4.47298 10.4969 123 111 95 
0.468222 -1.68995 10.0776 135 105 81 
0.572846 -1.65714 9.95127 86 38 18 
0.625018 -0.771163 9.67485 43 37 23 
0.58053 -1.40158 9.98629 100 64 30 
0.584851 -1.61383 9.96561 69 38 20 
0.36549 3.00541 11.3816 125 131 127 
0.629014 -1.66684 9.94134 144 108 82 
0.394105 3.3603 11.4315 33 36 41 
0.395876 3.42446 11.4309 30 32 44 
0.397268 3.45608 11.4235 56 58 70 
0.406188 3.25971 11.4338 84 88 89 
0.407763 3.32758 11.4467 38 41 48 
0.416088 2.89773 11.4053 136 113 121 
0.413767 3.05163 11.419 85 32 52 
0.414005 3.09304 11.4172 85 30 51 
0.412483 3.14319 11.4307 94 41 61 
0.414121 3.46183 11.4576 37 39 51 
0.429152 3.02268 11.4409 148 118 130 
0.432018 3.07403 11.4437 139 111 123 
0.432501 3.12419 11.4546 147 121 132 
0.434164 3.88142 11.4406 134 136 133 
0.440229 3.10459 11.4832 77 62 69 
0.679844 -1.23955 9.977 122 91 71 
0.448343 3.14389 11.4478 84 50 64 
0.446898 3.34857 11.4713 112 114 126 
0.443524 3.32845 11.5057 135 138 143 
0.450693 3.45692 11.482 56 59 68 
0.687608 -1.26272 9.98914 70 32 13 
0.470378 2.92911 11.4215 114 78 92 
0.45926 3.32167 11.4938 57 60 65 
0.469521 4.20524 11.4362 32 38 72 
0.4675 3.4594 11.4936 132 135 142 
0.471442 3.32443 11.5024 138 141 146 
0.468575 3.02975 11.5763 120 90 102 
0.487056 3.14738 11.5098 77 43 57 
0.490081 3.07689 11.4975 74 42 55 
0.494657 3.0298 11.483 130 128 129 
0.494804 2.93921 11.4978 138 110 122 
0.493502 3.44257 11.5044 76 79 86 
0.500432 3.35594 11.5377 64 65 70 
0.511639 2.99246 11.5192 85 35 62 
0.516299 2.92697 11.5078 81 37 50 
0.513246 3.2029 11.5598 124 135 131 
0.529247 3.07422 11.5255 75 44 60 
0.528358 3.14448 11.5386 88 49 68 
0.540811 3.42118 11.5638 134 138 141 
0.545943 3.61161 11.5286 134 136 135 
0.548784 2.97402 11.5395 136 130 130 
0.550934 2.92116 11.5447 84 48 58 
0.552968 3.35959 11.5645 50 54 53 
0.557885 2.9474 11.5455 79 44 50 
0.557949 3.01187 11.5474 130 135 131 
0.558588 3.45318 11.5597 51 54 59 
0.56904 2.97009 11.5665 145 123 126 
0.572732 3.13472 11.566 89 35 58 
0.593556 2.92252 11.5688 72 28 41 
0.591519 3.16712 11.589 141 126 131 
0.589166 3.44706 11.604 73 76 83 
0.593293 2.98189 11.5858 79 36 46 
0.868288 -0.0891073 9.56479 10 0 0 
0.610397 3.07524 11.6152 100 57 76 
0.611785 3.32943 11.6105 60 63 68 
0.614051 3.30829 11.5994 128 132 133 
0.615382 3.4316 11.6094 39 42 51 
0.888371 -0.415486 9.58571 183 166 148 
0.618951 3.44405 11.6245 99 102 111 
0.623814 3.40821 11.6063 126 129 134 
0.637341 3.44667 11.6097 49 52 59 
0.642284 3.02184 11.5935 124 130 130 
0.639372 3.07501 11.6355 145 119 130 
0.639715 3.13829 11.6356 146 129 137 
0.865191 -0.859933 9.97218 255 254 243 
0.651224 3.37536 11.6112 132 136 139 
0.651528 2.95721 11.6256 141 111 121 
0.661456 3.34985 11.6351 53 57 60 
0.672901 2.91661 11.6433 79 43 55 
0.67156 3.34067 11.6474 113 117 120 
0.938208 -0.00470621 9.61859 144 134 109 
0.942129 -0.0189735 9.61507 33 22 4 
0.682499 3.12334 11.6777 149 117 132 
0.684123 3.08622 11.672 156 111 131 
0.693813 2.92861 11.665 152 110 124 
0.951202 -0.00668806 9.62824 38 29 14 
0.955901 -0.0265373 9.62614 111 100 80 
0.703105 3.4512 11.6624 128 131 138 
0.958862 -0.425965 9.63193 144 125 95 
0.712395 3.25194 11.6982 82 84 81 
0.717368 4.15538 11.6399 19 16 33 
0.720062 3.11022 11.693 141 113 125 
0.98194 -0.403817 9.65222 162 147 116 
0.73742 3.33405 11.6866 134 138 139 
0.747012 3.35782 11.6446 133 137 138 
0.996222 -0.546641 9.67274 23 0 0 
0.758236 2.88509 11.7195 84 46 61 
0.760254 3.43612 11.6957 40 44 45 
0.760328 3.25015 11.7353 84 86 83 
0.772006 4.37057 11.6236 44 30 55 
0.766808 2.97384 11.7209 92 45 63 
1.01502 -0.390148 9.67589 149 140 111 
1.01838 -0.349858 9.68128 127 112 89 
1.02105 -0.376065 9.6917 16 7 0 
1.02368 -0.403493 9.67092 36 23 4 
0.799544 3.27205 11.6753 134 136 135 
0.803147 4.26766 11.6409 156 71 100 
1.0298 -0.154528 9.72207 25 14 8 
0.797194 3.04742 11.7688 148 136 140 
0.802668 3.33377 11.7301 46 50 51 
0.811529 3.42938 11.7287 111 113 112 
0.901015 2.8067 10.9519 150 129 136 
1.05789 -0.308238 9.72286 45 29 13 
0.956449 -1.39566 10.7213 162 139 147 
0.818464 3.48536 11.9662 52 54 53 
1.06503 -0.178006 9.75282 98 86 70 
1.07034 -0.272826 9.74502 157 136 81 
0.856771 4.36077 11.6578 47 30 40 
1.0755 -0.308388 9.74337 33 18 0 
0.85393 3.06192 11.8029 72 53 57 
0.860864 3.09216 11.7892 146 131 136 
0.759026 3.79005 12.8297 128 129 131 
1.27984 -0.132901 7.89139 177 162 129 
0.867285 3.03888 11.8116 140 139 135 
0.870624 3.33002 11.7882 63 65 64 
0.872102 3.06236 11.8111 136 115 120 
0.879001 3.45856 11.7791 43 44 46 
0.88485 3.42051 11.7425 62 66 69 
0.891825 3.06014 11.8091 75 31 44 
0.913425 3.38994 11.8369 133 137 136 
0.93211 3.0914 11.8355 99 42 59 
1.02683 -2.01459 11.0157 199 182 162 
0.938862 3.09632 11.8536 96 37 55 
0.943098 3.12415 11.8477 83 29 43 
1.33138 -0.144329 7.8888 47 20 0 
0.948098 3.03645 11.8576 134 126 123 
0.967744 4.10681 11.6979 31 16 35 
0.968182 4.23608 11.7328 152 55 90 
0.966504 3.35622 11.8005 132 136 135 
0.964908 3.41439 11.8231 115 119 120 
1.07154 -1.84382 10.8449 61 116 123 
0.964325 3.03779 11.8799 147 125 127 
1.34931 0.0257546 7.87217 51 23 12 
0.983606 3.43799 11.7759 136 141 137 
0.98048 3.42378 11.8482 66 70 71 
0.984452 3.05288 11.8838 103 35 56 
1.00082 3.81111 11.8055 24 20 35 
1.01153 3.42339 11.8457 128 132 133 
1.00918 3.05406 11.8957 92 60 61 
1.01331 3.02978 11.9026 143 130 124 
1.01775 3.40793 11.8559 63 65 64 
1.01593 3.08896 11.8955 142 131 125 
1.02223 3.3769 11.877 133 135 130 
0.914074 3.7577 13.0946 133 135 130 
1.0253 3.33926 11.8683 62 66 75 
1.02501 3.29812 11.8855 133 135 132 
1.02938 3.32146 11.8701 127 132 138 
1.04116 3.05558 11.9226 65 32 43 
1.05087 4.26042 11.8087 58 26 63 
1.0461 3.11913 11.9012 71 35 47 
1.15386 -1.92778 10.807 228 221 193 
1.14913 -2.08078 10.8922 234 227 199 
1.06091 4.17491 11.777 33 16 34 
1.05573 3.42996 11.9149 59 60 62 
1.05904 3.30593 11.8916 46 47 51 
1.1593 -2.06683 10.887 93 119 84 
1.06022 3.04117 11.9548 133 116 122 
1.06285 3.11927 11.9306 128 108 117 
1.08218 4.148 11.8372 53 26 45 
1.17948 -2.0022 10.8556 58 103 62 
1.08826 3.08549 11.9767 143 116 121 
1.09079 3.12011 11.9595 71 40 46 
1.10966 3.96254 11.8343 17 23 55 
1.11293 3.04089 12.0267 125 109 110 
1.19917 -2.51001 11.1126 170 89 86 
1.20796 -2.47798 11.0987 163 66 73 
1.22653 -2.38183 11.0549 68 99 68 
1.13911 3.12327 12.0439 68 42 51 
1.2297 -2.56051 11.1733 69 38 33 
1.24054 -2.45319 11.1099 198 46 58 
1.15925 3.0809 12.0694 130 110 121 
1.17339 4.35467 11.8809 68 19 51 
1.19099 4.43359 11.8333 112 49 78 
1.27016 -2.29927 11.0125 63 89 60 
1.31119 -0.700341 10.4003 226 209 181 
1.29448 -1.58418 10.7034 241 206 186 
1.31588 -0.694718 10.3912 234 214 190 
1.19708 4.45908 11.8984 110 50 76 
1.32285 -1.65717 10.7437 198 60 75 
1.21664 3.09037 12.164 79 39 48 
1.35271 -0.721012 10.3934 234 206 192 
1.22813 3.06528 12.1499 142 109 116 
1.23122 3.10676 12.162 139 102 110 
1.24158 3.65668 12.0887 122 126 125 
1.36569 -1.71468 10.7663 195 120 114 
1.38248 -1.15828 10.5832 233 218 189 
1.38584 -1.71719 10.7797 241 216 194 
1.39784 -1.31273 10.5979 255 214 202 
1.40436 -0.0625741 10.4512 60 33 12 
1.40725 -0.103514 10.4393 47 27 3 
1.40528 4.92297 10.4794 173 169 170 
1.40955 -1.64921 10.7568 246 200 187 
1.41076 -1.62075 10.7463 248 217 196 
1.4271 -0.402807 10.4528 50 39 0 
1.43186 -0.0839299 10.4464 187 170 118 
1.43807 -0.394966 10.4502 197 183 134 
1.44727 -0.402395 10.4406 65 43 0 
1.45064 -0.684594 10.4211 52 37 30 
1.44705 -1.38913 10.6573 158 49 81 
1.26375 0.0356299 13.8971 159 147 95 
1.4611 -0.0912834 10.4374 63 48 5 
1.464 -0.712085 10.4078 233 217 191 
1.47592 -0.00709404 10.4569 187 178 145 
1.28812 0.0054752 13.8903 187 178 145 
1.48388 -0.0181526 10.4504 20 10 0 
1.38713 3.67063 12.2447 52 19 40 
1.49483 -0.0557591 10.4485 51 26 4 
1.50158 -0.131508 10.467 36 20 0 
1.50954 -0.0400594 10.4679 33 18 0 
1.3349 -0.0760701 13.9473 50 26 0 
1.50732 -1.27213 10.6051 129 43 56 
1.51762 0.0215664 10.485 55 37 15 
1.522 -0.111437 10.4646 220 195 164 
1.52272 -0.0667927 10.472 201 179 138 
1.52367 -0.0805816 10.4717 45 22 0 
1.53277 -0.065947 10.4653 39 24 0 
1.43714 2.83982 12.4067 104 109 103 
1.53609 -0.0445592 10.4702 51 34 4 
1.53889 0.0262784 10.4863 133 123 88 
1.54491 -0.00300001 10.4833 165 151 114 
1.55261 -1.02626 10.4921 231 215 190 
1.56569 0.0293387 10.5021 145 131 92 
1.58427 -1.03152 10.5002 246 230 205 
1.5845 0.522704 10.5185 32 10 0 
1.59317 0.472132 10.5236 154 145 116 
1.59579 0.562104 10.528 37 26 24 
1.59829 -0.140317 10.5038 117 107 82 
1.60414 -0.115476 10.5259 48 32 16 
1.61397 -0.0948716 10.5291 195 182 150 
1.61284 0.505666 10.5386 24 11 29 
1.62086 -0.0801141 10.5269 24 0 0 
1.6221 -0.238506 10.5394 26 17 0 
1.55598 4.91486 12.1347 142 87 106 
1.5489 2.85586 12.5134 44 43 38 
1.63861 0.476669 10.5546 8 0 0 
1.64142 0.574967 10.5499 3 0 2 
1.64844 0.554516 10.5566 83 80 73 
1.64024 -1.5952 11.0004 128 113 106 
1.65545 0.517525 10.5625 7 0 0 
1.65954 0.5479 10.5666 83 85 71 
1.66088 -0.980853 10.6106 247 232 199 
1.66774 -0.25498 10.5644 22 10 0 
1.66766 0.517071 10.5742 104 93 87 
1.68135 0.519127 10.591 19 5 4 
1.699 -0.309049 10.6107 26 13 4 
1.69954 -0.862937 10.6368 149 92 101 
1.71492 -0.719485 10.5571 245 227 203 
1.71768 -0.150536 10.6149 46 30 4 
1.71414 -0.251428 11.2055 40 23 0 
1.73217 -0.994805 10.6459 244 227 201 
1.72114 0.574257 11.5313 30 12 0 
1.74656 -0.0833589 10.6325 47 32 1 
1.76367 -0.762103 10.6332 188 83 116 
1.72411 4.74486 12.3271 187 151 125 
1.77322 -0.974872 10.6161 240 223 193 
1.79353 -0.844772 10.7174 155 133 109 
1.7597 4.73123 12.3592 70 62 59 
1.81706 -0.702044 10.6594 189 125 141 
1.91305 5.01624 12.2646 183 86 105 
2.0102 0.727528 11.0493 118 94 30 
2.02678 0.707277 11.0299 143 126 80 
2.03262 0.677526 11.058 74 56 16 
2.03102 4.91751 10.8228 212 175 149 
2.045 4.99255 10.6967 188 122 110 
2.06657 0.700877 11.0533 70 60 11 
2.07294 4.9778 11.1078 89 48 26 
2.08279 5.00318 11.1653 83 47 21 
2.08821 5.01361 10.7067 46 56 0 
2.10523 0.126645 11.0366 188 170 94 
2.10716 0.117476 11.0935 183 167 82 
2.11185 0.956117 11.3341 160 140 27 
2.14168 -3.27012 13.3108 122 99 81 
2.16908 -1.85599 13.3052 155 139 124 
2.1542 5.02651 10.7229 42 25 18 
2.20272 -1.8906 13.303 195 176 162 
2.16485 5.01172 10.7393 161 131 121 
2.17795 -0.0751399 11.3023 210 177 38 
2.20052 -0.173395 11.3313 39 19 8 
2.204 -0.0986802 11.3363 43 10 0 
2.20926 5.00043 10.7297 182 93 89 
2.22037 4.92627 10.975 222 208 75 
2.24487 4.93387 10.9825 116 103 25 
2.24146 4.96703 10.7614 245 197 157 
2.26515 4.96333 10.7738 103 68 36 
2.27548 4.98428 10.7562 133 59 46 
2.29093 0.342405 10.98 35 23 1 
2.30589 4.92082 11.1588 113 111 122 
2.32064 4.91238 11.2245 222 202 71 
2.33602 0.0253332 11.1751 244 221 17 
2.33179 0.159954 10.9807 132 120 60 
2.32816 4.89805 10.883 195 168 99 
2.34898 0.696537 10.9427 77 65 27 
2.36626 0.21954 10.969 246 226 101 
2.37984 -0.275096 11.3002 157 135 23 
2.3803 0.714979 10.9182 170 151 75 
2.4351 -0.248621 11.271 165 143 21 
2.44435 4.93224 11.4855 113 69 60 
2.45239 -0.288632 11.2761 223 200 86 
2.44408 4.91891 11.0233 115 108 36 
2.46934 -0.265199 11.267 226 200 113 
2.47869 4.92204 11.3219 186 70 55 
2.49651 -0.287757 11.5837 158 134 36 
2.48232 -0.279798 11.2811 158 134 36 
2.48215 -0.211788 11.2534 177 148 30 
2.4941 -0.265631 11.2637 235 206 128 
2.49999 -0.250886 11.2532 148 122 12 
2.52008 -0.280456 11.2616 159 128 12 
2.52 -0.249622 11.2555 152 122 0 
2.52426 -0.267226 11.2553 234 202 89 
2.51241 0.490517 10.936 46 30 14 
2.51125 0.530954 10.9038 193 177 90 
2.52578 0.566903 10.9242 183 157 47 
2.66502 2.53773 13.3416 29 14 45 
2.55505 0.487543 10.9484 184 159 41 
2.60407 0.978636 11.2046 25 16 0 
2.74234 2.3396 13.5202 159 147 121 
2.74396 -2.96869 13.2876 8 7 13 
2.77074 2.15844 13.5393 162 147 118 
2.78135 1.72012 13.5841 152 135 105 
2.79167 1.4953 13.61 131 120 102 
2.68446 4.89971 11.6575 110 81 49 
2.65256 0.558268 11.0313 218 186 63 
2.69423 4.93232 11.5453 232 213 173 
2.82951 4.73092 13.4119 183 168 147 
2.71881 5.0059 11.4166 212 189 139 
2.86365 3.07734 13.3972 21 8 34 
2.81471 -1.27972 12.6356 224 209 186 
2.74441 4.9163 11.5867 159 144 115 
2.73719 5.06171 11.1349 225 195 13 
2.75678 4.92944 11.3733 179 168 148 
2.74167 5.07027 11.1553 228 196 15 
2.76926 4.91109 11.4521 45 56 50 
2.90369 -0.880474 12.6031 219 204 181 
2.81365 4.89269 11.3092 157 125 48 
2.9973 3.7169 13.6411 162 153 138 
2.92185 -1.2356 12.7048 67 56 50 
2.82178 0.153365 11.298 15 15 7 
2.92182 -0.748294 12.5569 214 199 176 
2.93384 -0.970364 12.6682 42 39 32 
2.8609 4.9058 11.6376 43 87 62 
2.96664 -1.29217 12.757 62 51 49 
2.84891 0.161101 11.1747 68 31 0 
2.97191 -0.780155 12.646 62 64 63 
2.97746 -0.758393 12.6299 207 198 191 
2.86269 0.188334 11.1672 227 179 53 
2.8644 0.16513 11.1737 228 188 100 
2.93356 4.65612 11.9314 178 162 147 
2.86793 0.304591 11.1584 20 3 0 
3.00508 -1.13168 12.7712 43 34 27 
2.87174 5.05621 11.0718 227 177 80 
3.01385 -1.24232 12.761 172 159 150 
3.01215 -1.01525 12.717 141 136 132 
2.87914 0.289587 11.1585 86 46 0 
2.94122 4.88016 11.7751 94 60 51 
3.00718 -0.83147 12.526 28 28 28 
2.9122 0.0415182 11.345 83 82 64 
3.03257 -0.787538 12.7015 16 13 8 
3.04171 -1.03191 12.7619 144 134 133 
3.05445 -0.797339 12.7067 97 97 99 
3.07989 -1.06682 12.8042 22 24 23 
3.09978 -1.26942 12.853 163 153 143 
3.10376 -1.11841 12.8553 158 152 156 
3.12829 -1.13464 12.8489 23 18 24 
2.9767 0.456186 11.0904 193 129 21 
3.15315 -1.02503 12.8518 52 46 48 
3.00685 0.919071 11.0069 25 25 23 
3.18941 -0.883356 12.8435 75 73 76 
3.06394 0.210345 11.3125 64 67 50 
3.22838 -0.857148 12.8992 46 45 51 
3.01915 5.05925 10.7785 80 76 64 
3.04271 5.03537 10.8776 111 102 71 
3.25873 -1.38106 12.9837 210 198 176 
3.09548 5.06765 11.2121 195 105 9 
3.27227 -0.736371 12.9437 41 42 46 
3.28929 -0.753836 12.9201 36 36 38 
3.07355 5.07484 10.8228 207 176 129 
3.29808 -0.757743 12.9564 37 37 39 
3.32866 -0.756715 12.9507 200 193 167 
3.36331 -1.21344 12.8345 93 91 78 
3.39707 -1.30748 12.9958 213 199 186 
3.24328 0.157023 11.3977 72 73 67 
3.43008 -1.29009 12.9747 225 207 193 
3.43594 -1.2102 12.8913 51 42 43 
3.29083 5.09071 11.3396 204 167 114 
3.49316 -0.556074 12.921 212 199 180 
3.50297 -0.687921 12.9334 25 23 28 
3.42152 4.86052 12.2031 142 125 118 
3.44112 4.92791 12.1414 31 25 29 
3.57947 -0.576823 12.9115 219 202 176 
3.46172 5.10934 11.4886 117 63 63 
3.62522 3.86453 12.6635 60 58 59 
3.5019 -3.29691 11.7993 102 93 86 
3.55186 5.08227 11.6324 130 92 53 
3.61543 4.95709 11.8553 191 85 107 
3.66699 -3.65877 11.9434 164 158 144 
3.69463 -3.71629 11.9538 124 121 114 
3.69213 5.05814 11.6046 189 158 103 
3.7028 5.00435 11.6317 153 69 45 
3.77552 5.07449 11.439 96 58 49 
3.87927 0.982452 11.8757 54 50 41 
3.85287 4.92619 11.52 194 169 103 
3.94779 0.162466 11.8101 76 66 39 
4.01778 -4.29883 12.093 214 203 158 
4.09154 -4.43647 12.12 221 204 174 
4.30043 -0.264355 12.1633 231 222 193 
-0.673385 -0.334115 8.03309 39 45 57 
-1.13203 -0.134889 10.0424 105 122 142 
-1.09102 0.153239 9.9466 131 147 160 
-1.10811 -0.154739 10.0825 43 56 72 
-1.00921 0.305475 9.95265 120 127 135 
-1.02041 0.0949128 10.034 135 136 131 
-1.08792 -0.518647 10.255 140 146 158 
-1.08409 -0.58388 10.2968 102 120 140 
-0.950748 0.186681 10.056 133 137 140 
-0.924927 -0.242513 10.2767 98 124 137 
-0.906839 -0.157459 10.2542 108 123 144 
-0.89762 -0.082763 10.2337 150 149 147 
-0.903152 -0.194413 10.2787 82 100 120 
-0.863445 -0.0752416 10.2577 28 44 67 
-0.88281 -0.260538 10.3265 126 135 152 
-0.904826 -0.53134 10.4306 93 105 117 
-0.850206 -0.0992759 10.2797 98 110 132 
-0.843825 -0.0527624 10.266 126 140 151 
-0.812699 0.0384192 10.2397 59 71 93 
-0.817686 -0.153788 10.3386 94 107 126 
-0.77852 -0.122156 10.3566 85 96 118 
-0.757918 -0.198524 10.4086 97 109 125 
-0.751875 -0.305008 10.4637 135 139 148 
-0.737326 -0.307419 10.4761 23 28 32 
-0.736625 -0.537044 10.5862 29 32 37 
-0.724877 -0.545956 10.5958 144 145 149 
-0.713881 -0.493903 10.5808 35 33 36 
-0.688716 -0.252218 10.5008 151 155 158 
-0.712586 -0.516862 10.5976 141 142 144 
-0.225873 1.00065 8.83243 59 51 48 
-0.693548 -0.494094 10.6044 178 169 164 
-0.691394 -0.473533 10.6026 45 40 44 
-0.700648 -0.590017 10.6392 190 192 191 
-0.690537 -0.528019 10.6155 50 49 47 
-0.668914 -0.294553 10.533 17 18 23 
-0.691341 -0.565808 10.6374 159 161 158 
-0.662318 -0.279962 10.5373 27 29 26 
-0.561281 0.044795 10.475 72 80 99 
-0.60651 -0.459195 10.6656 129 130 135 
-0.614757 -0.603025 10.7263 191 190 186 
-0.59303 -0.561127 10.7242 166 170 171 
-0.146185 0.337508 9.25088 19 14 11 
-0.460596 -0.131238 10.6496 155 156 151 
0.414034 3.05156 11.4176 85 32 52 
0.635324 -1.18857 10.0659 58 45 39 
0.419378 3.44855 11.4696 47 49 64 
0.438935 4.02835 11.4424 23 34 64 
0.448298 3.04634 11.4564 76 40 54 
0.454733 2.92453 11.4516 145 119 130 
0.454596 3.364 11.489 48 50 62 
0.466287 3.43741 11.5024 56 58 70 
0.472025 3.10795 11.4864 126 126 128 
0.473911 3.38884 11.4696 135 136 138 
0.471891 3.32412 11.5 138 141 146 
0.476585 2.95853 11.4856 82 38 55 
0.70672 -1.26391 10.0219 96 50 26 
0.501601 3.35545 11.5314 64 65 70 
0.510684 3.07649 11.5204 152 120 131 
0.514343 3.25929 11.5378 82 86 89 
0.516021 3.19611 11.5393 124 135 131 
0.540702 3.62608 11.5676 134 136 135 
0.548559 2.97389 11.5401 136 130 130 
0.567397 3.17792 11.5681 82 48 65 
0.582131 4.34156 11.5084 75 68 101 
0.591289 3.1669 11.5898 141 126 131 
0.60085 2.94824 11.5856 91 43 57 
0.617301 3.34147 11.6042 110 113 120 
0.619937 2.95043 11.6129 87 49 62 
0.626775 3.32605 11.6191 30 34 37 
0.640095 3.23915 11.6005 83 85 82 
0.650596 2.90617 11.6266 142 132 133 
0.657176 2.93962 11.6298 148 121 130 
0.661281 3.34878 11.6339 46 50 53 
0.66567 3.10521 11.6482 102 57 77 
0.684514 3.11788 11.6605 149 117 132 
0.686319 3.42238 11.657 63 66 75 
0.69729 3.43552 11.6517 91 94 101 
0.705275 3.4224 11.6662 66 69 74 
0.704256 3.13444 11.6827 71 48 56 
0.709825 3.34782 11.6672 29 33 34 
0.714744 3.46498 11.6729 31 34 41 
0.712041 3.25248 11.7008 82 84 81 
0.718059 3.03082 11.7016 134 134 134 
0.758611 2.88381 11.7158 84 46 61 
0.757661 3.31346 11.7188 46 46 56 
0.762056 2.9014 11.713 94 45 64 
0.761204 3.24809 11.7278 84 86 83 
0.7731 4.36767 11.6152 44 30 55 
0.770453 3.41544 11.6916 100 104 105 
0.77966 3.42471 11.7024 35 39 40 
0.782791 2.93657 11.7214 130 128 129 
0.783074 2.90664 11.7472 81 66 71 
0.794288 3.40819 11.7218 129 133 134 
0.804179 4.26205 11.6297 156 71 100 
0.7991 3.04325 11.7524 148 136 140 
0.807333 3.44434 11.7277 61 65 68 
0.809757 3.09587 11.7597 146 125 134 
0.817272 3.4171 11.6927 115 117 116 
0.819707 4.40834 11.7094 38 31 47 
0.822674 3.43981 11.7378 38 40 39 
1.05135 -0.288636 9.75351 29 17 0 
0.832424 3.33366 11.7487 132 134 133 
0.833616 3.05263 11.7632 98 32 59 
0.898251 2.97418 11.248 82 40 50 
0.844929 3.3076 11.7708 134 136 135 
0.910504 2.90968 11.2658 72 53 57 
0.985352 -1.41949 10.7216 181 158 164 
0.871088 3.32839 11.7836 63 65 64 
0.87373 3.3003 11.7761 60 62 61 
0.896497 3.31314 11.7857 58 60 59 
0.90465 3.32542 11.7891 121 123 122 
1.40876 -0.383707 6.98343 237 217 218 
0.93029 3.05371 11.8325 82 40 52 
0.941179 3.09142 11.8318 96 37 55 
0.96597 4.94795 11.6584 91 56 52 
0.981562 3.41933 11.8355 66 70 71 
0.983655 3.02806 11.8646 91 38 54 
0.999691 3.40402 11.8378 50 54 53 
1.01205 3.42068 11.8392 128 132 133 
1.01073 3.04778 11.8766 92 60 61 
1.01432 3.02465 11.8891 143 130 124 
1.01716 3.08338 11.8796 142 131 125 
1.0269 3.29262 11.8653 133 135 132 
1.04247 3.05005 11.9056 65 32 43 
0.85417 4.08059 14.2605 60 65 68 
1.15984 -1.90984 10.8413 232 215 185 
1.05755 3.42316 11.8937 59 60 62 
1.15889 -2.06698 10.8928 93 119 84 
1.20252 -2.06139 10.9153 229 234 204 
1.19734 -2.51703 11.1388 162 87 84 
1.23788 -1.66204 10.7453 255 214 197 
1.25495 -1.13195 10.528 246 192 148 
1.14065 3.11745 12.0239 68 42 51 
1.24285 -2.33151 11.0681 59 79 52 
1.17385 4.3522 11.8746 68 19 51 
1.16635 2.8442 12.0547 27 29 26 
1.16915 3.04614 12.0706 78 38 49 
1.18847 4.4492 11.8697 112 49 78 
1.31498 -0.694701 10.4032 234 214 190 
1.335 -1.7365 10.8024 187 117 109 
1.35888 4.94392 10.5008 165 160 157 
0.973723 -2.97234 17.4599 202 185 167 
1.40574 -0.102856 10.4641 47 27 3 
1.40227 -1.33317 10.6277 157 43 69 
1.41686 4.93691 10.4056 84 76 74 
1.43683 -0.395536 10.4717 197 183 134 
1.50053 -0.130606 10.4877 36 20 0 
1.50721 -0.417497 10.494 36 13 0 
1.50819 -0.0398111 10.4929 33 18 0 
1.52124 -0.492632 10.5202 47 26 0 
1.53365 -0.0849423 10.4843 201 185 152 
1.43782 2.83371 12.3873 104 109 103 
1.53749 0.0260645 10.5133 133 123 88 
1.55098 -1.02983 10.5271 231 215 190 
1.56397 -1.04248 10.5385 200 184 159 
1.58748 -0.308392 10.534 19 6 0 
1.59363 0.53812 10.5436 22 9 3 
1.59694 -0.140709 10.5364 117 107 82 
1.60365 -0.10545 10.541 51 36 13 
1.61318 -0.0948715 10.5462 195 182 150 
1.55597 4.91034 12.1273 142 87 106 
1.55025 2.84356 12.4707 44 43 38 
1.62855 0.470032 10.5792 97 94 85 
1.59585 5.00152 12.1264 56 14 28 
1.66036 -0.982059 10.6228 247 232 199 
1.67761 -0.962973 10.6429 255 229 210 
1.65714 5.01695 12.1901 50 5 25 
1.66055 4.17239 12.3809 40 24 27 
1.66352 4.19582 12.3731 49 23 26 
1.74314 -0.862192 10.6701 255 242 219 
1.72497 4.73609 12.3029 187 151 125 
1.93153 3.90562 12.1073 32 23 24 
1.9774 5.11557 10.6771 147 131 105 
2.03245 0.677286 11.0617 74 56 16 
2.0532 5.03624 12.4102 186 89 109 
2.07278 4.98194 11.1182 89 48 26 
2.07774 5.06219 10.7302 111 100 82 
2.08846 5.0285 10.7356 46 56 0 
2.09584 4.98822 10.7454 120 136 47 
2.10793 0.146094 11.0687 73 59 0 
2.11189 0.956028 11.3566 160 140 27 
2.13883 5.06527 10.76 146 130 117 
2.15745 4.99464 10.763 38 16 19 
2.1604 5.12161 10.7669 143 129 118 
2.20072 -0.173857 11.3464 39 19 8 
2.21743 -0.0782623 11.4619 216 187 49 
2.25973 0.314514 11.0313 162 139 71 
2.33647 0.0244271 11.1905 244 221 17 
2.33249 0.159482 11.0065 132 120 60 
2.32874 4.90733 10.9023 195 168 99 
2.36207 -0.274352 11.3145 165 144 29 
2.35624 0.124269 11.0394 221 194 63 
2.38052 -0.276495 11.3203 157 135 23 
2.36756 4.97417 10.8259 244 226 180 
2.40014 -0.274336 11.3076 174 152 40 
2.40425 0.226428 10.9922 126 104 18 
2.42288 -0.268026 11.303 214 189 88 
2.40725 5.00447 10.8199 189 146 137 
2.41532 4.985 10.8316 103 42 49 
2.43602 -0.249465 11.2961 165 143 21 
2.44438 4.93198 11.4843 113 69 60 
2.45346 -0.289193 11.3025 223 200 86 
2.44271 5.02395 10.8349 13 11 25 
2.48032 -0.251613 11.2875 156 132 34 
2.48325 -0.280994 11.3051 158 134 36 
2.57421 4.72376 13.1875 172 159 142 
2.49537 -0.266899 11.2905 235 206 128 
2.50155 -0.251625 11.2868 148 122 12 
2.52117 -0.28231 11.2854 159 128 12 
2.52117 -0.250694 11.2795 152 122 0 
2.54893 0.985817 11.267 41 28 0 
2.66174 2.52434 13.2896 29 14 45 
2.60749 0.98277 11.2666 25 16 0 
2.6837 4.89411 11.6449 110 81 49 
2.69414 4.93119 11.5416 232 213 173 
2.82587 4.70972 13.3535 183 168 147 
2.7431 4.90481 11.5524 159 144 115 
2.86296 -1.26972 12.6492 47 36 32 
2.77297 5.08211 11.0347 103 74 58 
2.90943 -1.11734 12.6589 50 48 49 
2.92022 -1.23649 12.6885 67 56 50 
2.93126 -1.13329 12.677 172 168 165 
2.82387 5.09587 11.0669 159 99 39 
2.83271 0.150224 11.2157 21 9 0 
2.96642 -1.29351 12.7556 62 51 49 
2.9706 -0.78002 12.6295 62 64 63 
2.87117 0.138059 11.2614 15 2 0 
3.00206 -1.12909 12.7355 43 34 27 
3.00809 -0.927187 12.6972 127 125 128 
3.01172 -1.01581 12.7105 141 136 132 
3.02815 -0.919872 12.7124 46 44 45 
3.03154 -0.787868 12.6901 16 13 8 
3.05382 -0.796864 12.7005 97 97 99 
2.92942 0.285703 11.1776 126 77 1 
3.07873 -1.06773 12.7957 22 24 23 
3.10103 -1.11731 12.8271 158 152 156 
2.97268 0.235008 11.322 14 10 0 
3.12845 -1.35885 12.9288 214 207 191 
2.98887 4.89066 11.3614 101 69 20 
3.12645 -1.13332 12.8288 23 18 24 
3.04416 4.90562 11.5183 131 107 9 
3.04453 0.585811 11.12 151 67 0 
3.25561 -1.38009 12.9583 210 198 176 
3.27026 -0.739086 12.9276 41 42 46 
3.32689 -0.757786 12.9359 200 193 167 
3.22691 0.14343 11.4281 12 14 3 
3.42435 -0.611992 12.9147 6 7 12 
3.29018 5.08804 11.3305 204 167 114 
3.49293 -0.557435 12.9205 212 199 180 
3.49871 -0.687481 12.9026 25 23 28 
3.4156 4.84011 12.1579 142 125 118 
3.37903 5.0884 11.522 103 46 19 
3.57822 -0.578437 12.9025 219 202 176 
3.61221 4.94741 11.8318 191 85 107 
3.69906 -3.72811 11.9816 124 121 114 
3.69074 5.05411 11.5947 189 158 103 
3.77436 5.0712 11.4315 96 58 49 
3.79691 5.04852 11.481 178 134 107 
3.85338 4.92764 11.5223 194 169 103 
3.80433 5.04189 11.171 148 144 141 
4.01525 -4.2982 12.0806 214 203 158 
0.393626 3.35982 11.4315 33 36 41 
0.405183 4.0236 11.403 143 143 143 
0.406608 3.25822 11.4296 84 88 89 
0.40709 3.3671 11.4436 136 135 141 
0.407871 3.32518 11.4421 38 41 48 
0.414004 3.0521 11.4185 85 32 52 
0.412302 3.09711 11.4288 85 30 51 
0.412291 3.14293 11.4321 94 41 61 
0.428265 3.02524 11.4478 148 118 130 
0.432653 3.07288 11.4391 139 111 123 
0.433647 4.11122 11.4171 97 106 121 
0.432572 3.12333 11.4535 147 121 132 
0.442865 2.96892 11.4428 136 119 125 
0.443755 3.09676 11.4591 77 62 69 
0.446079 3.14856 11.4626 84 50 64 
0.448676 3.04618 11.4554 76 40 54 
0.453446 2.92844 11.4633 145 119 130 
0.45952 3.31867 11.4891 57 60 65 
0.474861 2.9888 11.4797 81 34 54 
0.465216 3.03104 11.5913 120 90 102 
0.487244 3.14678 11.509 77 43 57 
0.490129 3.07862 11.4999 74 42 55 
0.495186 2.93988 11.4964 138 110 122 
0.493776 3.43898 11.4969 76 79 86 
0.510838 3.07546 11.5182 152 120 131 
0.512379 2.99095 11.5154 85 35 62 
0.514731 3.1965 11.5444 124 135 131 
0.520561 3.34269 11.5283 119 120 124 
0.528566 3.14547 11.5385 88 49 68 
0.536459 2.94875 11.5341 147 120 127 
0.548586 2.97582 11.5416 136 130 130 
0.557315 2.94995 11.5514 79 44 50 
0.566894 3.17647 11.5693 82 48 65 
0.599963 2.95285 11.5973 91 43 57 
0.61086 3.07211 11.6071 100 57 76 
0.610332 3.34013 11.6051 83 86 93 
0.616174 3.42543 11.5959 39 42 51 
0.63902 3.2417 11.6094 83 85 82 
0.650741 3.37447 11.6103 132 136 139 
0.684579 3.08491 11.6678 156 111 131 
0.692056 2.96669 11.6702 146 108 121 
0.714429 3.24417 11.6767 82 84 81 
0.718221 3.03007 11.6983 134 134 134 
0.743854 3.3651 11.6669 133 137 138 
0.74348 3.42277 11.6884 133 137 138 
0.757944 3.30941 11.7097 46 46 56 
0.761347 2.90705 11.7268 94 45 64 
0.761033 3.24472 11.722 84 86 83 
0.766596 2.97575 11.7271 92 45 63 
0.769447 3.41375 11.6924 100 104 105 
0.781533 2.94154 11.7347 130 128 129 
0.798802 3.04484 11.7571 148 136 140 
0.802105 3.3314 11.7278 46 50 51 
0.815956 3.41899 11.7012 115 117 116 
0.818819 3.34068 11.7408 55 57 56 
0.83145 3.33468 11.7528 132 134 133 
0.830651 3.04056 11.7898 90 48 62 
0.832335 3.05796 11.7779 98 32 59 
0.85182 3.42427 11.7491 108 110 109 
0.8603 3.09253 11.7904 146 131 136 
0.87101 3.32458 11.7769 63 65 64 
0.887334 3.10854 11.8132 74 27 43 
0.89021 3.06752 11.8288 75 31 44 
0.93597 3.08065 11.7979 99 42 59 
0.942798 3.12085 11.8434 83 29 43 
0.963634 3.36014 11.8195 132 136 135 
0.984268 3.05055 11.8809 103 35 56 
0.999187 3.4132 11.8329 37 41 42 
1.01102 3.41908 11.8409 128 132 133 
1.00931 3.05209 11.8911 92 60 61 
1.01293 3.02803 11.9024 143 130 124 
1.01587 3.08819 11.8943 142 131 125 
1.0391 3.01691 11.9182 65 45 47 
1.04528 3.1211 11.9085 71 35 47 
1.13947 3.12138 12.0388 68 42 51 
1.26586 -1.12602 10.5574 228 212 179 
1.15947 3.08286 12.0707 130 110 121 
1.19872 3.09035 12.1118 134 98 102 
1.215 3.08768 12.1657 79 39 48 
1.22761 3.06457 12.1518 142 109 116 
1.25197 3.11355 12.1851 66 33 40 
1.46143 -1.43108 10.703 116 68 82 
1.43759 2.83891 12.4006 104 109 103 
1.48985 4.99079 12.0469 92 60 73 
1.61465 -0.0891702 10.5673 195 182 150 
1.6716 0.490646 10.6424 21 7 6 
1.61967 4.96919 12.1621 24 0 9 
1.64237 4.98346 12.178 39 15 28 
1.65559 5.00735 12.1788 50 5 25 
1.72387 4.72944 12.2926 187 151 125 
2.05978 -3.52762 13.3128 152 78 65 
2.07288 -3.34661 13.2784 182 153 119 
2.14206 -3.2773 13.3285 122 99 81 
2.16997 3.24861 12.9754 187 167 143 
2.36228 -0.24039 11.3427 180 155 37 
2.6933 4.9298 11.5443 232 213 173 
2.76323 -1.27795 12.6248 74 65 60 
2.86166 2.36498 13.4294 48 37 51 
2.81612 -1.27611 12.6391 224 209 186 
2.90863 3.03378 13.3864 73 67 79 
2.92356 -1.2362 12.7233 67 56 50 
3.03605 -3.45271 13.5283 45 41 42 
2.97459 -0.919841 12.6948 24 23 19 
3.06749 -3.05242 13.2805 139 50 114 
3.0852 -2.99604 13.2597 149 59 121 
3.0583 -0.795005 12.7331 97 97 99 
3.08259 -1.06496 12.8243 22 24 23 
2.9997 4.81046 11.7346 196 180 154 
3.09863 -1.26628 12.8319 163 153 143 
3.07348 0.215636 11.382 64 67 50 
3.26 -1.37623 12.9841 210 198 176 
3.27519 -0.735512 12.96 41 42 46 
3.50567 -0.684756 12.9477 25 23 28 
3.58509 -0.575449 12.9407 219 202 176 
3.61471 4.95455 11.8464 191 85 107 
3.68975 5.05108 11.5867 189 158 103 
3.70174 5.00095 11.6239 153 69 45 
3.77291 5.06678 11.418 96 58 49 
3.855 4.93222 11.531 194 169 103 
3.78763 4.99451 11.0729 148 144 141 
-1.44766 0.7308 8.99783 18 12 26 
-0.953596 4.46422 8.87963 94 102 115 
-1.02771 0.0969946 10.179 121 113 110 
-1.03942 -0.342978 10.3673 82 94 106 
-0.956778 0.189637 10.1925 117 119 108 
-0.903624 -0.0828184 10.3672 124 125 111 
-0.753379 -0.535635 10.6982 151 152 146 
-0.719809 -0.499147 10.7306 28 26 27 
-0.717301 -0.520164 10.7232 131 130 126 
-0.65218 4.42686 9.93062 80 63 55 
-0.696569 -0.571363 10.7642 140 136 135 
-0.62254 4.42953 9.95164 182 162 138 
-0.682715 -0.56519 10.7497 29 25 22 
-0.670389 -0.546237 10.7692 149 144 138 
-0.601832 -0.588538 10.8662 33 32 30 
-0.452038 -0.155438 10.7812 26 17 18 
-0.333786 4.76248 8.79364 35 27 25 
-0.102459 4.43801 9.68876 174 140 105 
-0.0695516 0.401076 9.45936 30 15 0 
0.00492353 4.49886 9.77286 202 161 109 
0.102772 4.95902 8.4103 96 97 102 
0.212087 -1.25572 11.5067 106 91 52 
0.238229 -1.30285 11.5475 51 36 17 
0.253017 4.59727 10.3674 25 25 23 
0.36481 3.00322 11.3781 118 116 104 
0.393418 3.359 11.4314 45 42 37 
0.405868 3.25717 11.4267 90 86 75 
0.406736 3.32328 11.4355 32 31 26 
0.412191 3.143 11.4272 85 30 49 
0.414209 3.05238 11.4222 75 22 38 
0.414439 3.09907 11.4432 80 21 41 
0.424159 3.32588 11.4399 118 119 113 
0.429629 3.02655 11.457 135 104 109 
0.432141 3.12292 11.4485 149 104 111 
0.439574 3.09298 11.4341 66 36 36 
0.448409 3.0463 11.4538 67 33 32 
0.448573 3.15079 11.477 68 36 39 
0.468088 2.90033 11.4765 71 26 33 
0.474731 2.98888 11.4803 88 39 45 
0.480496 2.91817 11.4728 65 24 28 
0.486915 3.14668 11.5045 64 30 31 
0.491016 3.07979 11.5072 78 39 44 
0.492032 3.43615 11.4881 68 64 61 
0.495517 2.94013 11.5028 130 89 95 
0.49854 3.34696 11.5125 64 63 59 
0.505961 3.14282 11.5031 132 96 100 
0.51137 3.19268 11.5227 128 120 109 
0.511841 3.25266 11.5133 72 70 58 
