ply                 
format ascii 1.0    
element vertex 1325
property float x    
property float y    
property float z    
property uchar red  
property uchar green
property uchar blue 
end_header          
0.921889 3.29562 11.8873 121 123 122 
0.933002 3.35029 11.907 133 137 136 
0.953542 3.05727 11.8998 99 42 59 
0.960332 3.09621 11.9432 83 29 43 
0.980936 3.33226 11.919 132 136 135 
0.965379 3.37577 12.0688 132 136 135 
0.998529 3.38415 11.9213 66 70 71 
0.999265 3.28774 11.9296 117 122 125 
1.00127 3.0263 11.979 103 35 56 
1.01604 3.38423 11.9312 37 41 42 
1.02773 3.38985 11.9386 128 132 133 
1.02598 3.02762 11.9885 92 60 61 
1.02955 3.00375 11.9993 143 130 124 
1.03246 3.06311 11.9913 142 131 125 
1.16783 4.92227 10.4646 211 203 201 
1.04005 3.39721 11.9443 60 64 65 
1.04279 3.26132 11.9581 133 135 132 
1.05537 2.99251 12.0143 65 45 47 
1.06149 3.09525 12.0044 71 35 47 
1.12197 3.92551 11.9406 17 23 55 
1.1513 4.18531 11.9368 41 21 48 
1.15436 3.09333 12.128 68 42 51 
1.17405 3.05491 12.1584 130 110 121 
1.1871 4.29561 11.9474 68 19 51 
1.20273 4.38914 11.9363 112 49 78 
1.22872 3.05816 12.2487 79 39 48 
1.24114 3.03558 12.2353 142 109 116 
1.26511 3.08318 12.2664 66 33 40 
1.39668 3.62001 12.3038 52 19 40 
1.44743 2.80978 12.4708 104 109 103 
1.56075 -0.0679676 10.6455 26 6 0 
1.98045 4.98122 10.8295 164 138 115 
2.04188 4.9606 10.8462 124 33 30 
2.05466 4.99478 10.8478 115 54 49 
2.08588 5.03437 10.858 111 100 82 
2.10343 4.95308 10.858 120 136 47 
2.11642 4.97381 10.8634 151 171 72 
2.11713 4.93903 10.8691 193 201 115 
2.16377 3.20128 13.0053 187 167 143 
2.17194 4.98729 10.8737 161 131 121 
2.29199 4.93703 10.9264 213 219 95 
2.49134 4.95784 10.9734 238 212 189 
2.71735 2.29859 13.4877 159 147 121 
2.68826 4.87929 11.6336 232 213 173 
2.83632 2.32973 13.4257 48 37 51 
2.98666 -1.09038 12.8231 43 34 27 
2.99644 -0.975579 12.7841 141 136 132 
3.02491 -0.993979 12.8385 144 134 133 
3.16871 -1.27815 13.006 86 77 82 
3.16955 -0.847266 12.9141 75 73 76 
3.23104 -1.3304 13.0094 210 198 176 
3.27515 -0.721284 13.0727 36 36 38 
3.2822 -0.725254 13.0933 37 37 39 
3.30413 -0.719396 13.0042 200 193 167 
3.59218 4.89317 11.914 191 85 107 
-1.12969 0.318024 10.1754 81 70 52 
-1.1165 0.30158 10.1968 127 127 125 
-1.0078 0.111448 10.3754 121 113 110 
-1.01773 -0.326851 10.5586 82 94 106 
-0.936721 0.20386 10.3874 117 119 108 
-0.881999 -0.0675612 10.5564 124 125 111 
-0.69223 4.19243 10.314 160 148 126 
-0.72925 -0.517221 10.8744 151 152 146 
-0.718106 -0.526166 10.87 31 33 30 
-0.659369 4.13521 10.2447 71 60 58 
-0.695471 -0.480776 10.9054 28 26 27 
-0.693078 -0.501708 10.898 131 130 126 
-0.672096 -0.55241 10.9372 140 136 135 
-0.532449 4.51265 9.00544 121 117 114 
-0.64598 -0.527399 10.9417 149 144 138 
-0.428321 -0.138925 10.9504 26 17 18 
-0.0843685 4.44349 9.87099 174 140 105 
-0.0573136 0.414304 9.6479 30 15 0 
-0.0239867 4.40172 9.97154 178 140 104 
0.023338 4.5017 9.95132 202 161 109 
0.0294468 4.40267 10.045 132 92 57 
0.0827067 4.49145 8.54868 110 111 115 
0.112244 4.98944 8.59953 96 97 102 
0.233653 -1.22527 11.6338 106 91 52 
0.259644 -1.27149 11.6723 51 36 17 
0.264327 4.54676 10.5283 122 114 111 
0.389181 2.98936 11.5157 118 116 104 
0.417989 3.3403 11.5656 45 42 37 
0.431148 3.30488 11.5694 32 31 26 
0.436368 3.12675 11.5618 85 30 49 
0.448393 3.30732 11.5733 118 119 113 
0.456171 3.10652 11.5821 149 104 111 
0.369612 4.15415 8.65007 42 28 19 
0.472564 3.13362 11.6092 68 36 39 
0.472325 3.42677 11.5868 64 66 55 
0.490406 3.01354 11.7163 123 87 91 
0.510562 3.12902 11.635 64 30 31 
0.515744 3.41527 11.6181 68 64 61 
0.522226 3.32677 11.6419 64 63 59 
0.529372 3.12516 11.6333 132 96 100 
0.534838 3.17414 11.652 128 120 109 
0.535297 3.23352 11.6427 72 70 58 
0.563115 3.09174 11.6661 133 109 105 
0.566332 3.58615 11.6697 125 121 110 
0.485555 2.72675 9.27288 101 102 97 
0.588899 3.15661 11.6855 65 28 36 
0.608579 3.42069 11.7308 65 66 61 
0.63161 3.05137 11.7242 81 35 45 
0.646077 2.90018 11.7459 77 36 42 
0.651454 3.38301 11.6906 45 44 40 
0.672483 3.35067 11.7325 125 123 111 
0.675 2.9816 11.7742 130 113 103 
0.687608 3.41257 11.7316 61 62 57 
0.690949 3.31094 11.7478 97 97 97 
0.705536 3.06435 11.7852 140 88 101 
0.731459 3.21794 11.7741 75 76 68 
0.769228 3.34391 11.8101 125 122 113 
0.778926 3.21833 11.8244 82 79 70 
0.788377 2.95773 11.8467 93 50 60 
0.789165 3.38693 11.8058 94 93 88 
0.802179 2.89255 11.8712 81 49 50 
0.799439 3.41253 11.8065 121 121 111 
0.81008 3.09882 11.861 84 49 55 
0.821203 3.30506 11.8349 56 57 51 
0.815005 4.18753 11.6298 143 66 86 
0.853565 3.34971 11.8603 124 120 109 
0.872673 3.03657 11.9029 78 50 49 
0.880407 3.06963 11.9086 132 114 110 
0.869556 4.29998 11.7152 58 26 39 
0.887353 3.29604 11.8713 68 68 66 
0.893598 3.41772 11.8454 66 63 56 
0.904113 3.40091 11.8914 71 71 69 
0.90814 3.36897 11.8725 117 117 115 
0.920756 3.29376 11.8847 110 107 100 
0.927285 3.34447 11.8862 131 128 113 
0.93291 3.38513 11.8659 48 45 36 
0.946228 3.29704 11.9013 61 60 58 
0.959551 3.68924 11.846 19 18 34 
0.984332 3.33404 11.9355 124 127 110 
0.993128 3.37861 11.901 64 64 64 
1.00066 3.0259 11.9772 96 33 50 
1.00322 3.28898 11.9603 113 114 109 
1.00929 3.28848 11.9374 58 58 56 
0.99748 4.87241 11.7143 152 112 104 
1.02568 3.02732 11.9908 78 52 51 
1.0292 3.00373 11.9974 130 117 109 
1.0259 3.38813 11.929 122 122 114 
1.03297 3.06344 11.9975 130 120 111 
1.03813 3.25708 11.9424 124 121 112 
0.857894 5.05071 9.53893 209 187 164 
1.03414 4.88356 11.7708 91 57 55 
1.0354 4.3053 11.7946 66 45 62 
1.06386 3.09665 12.0197 59 31 30 
1.05988 4.23373 11.7874 96 91 114 
1.08816 3.04459 12.055 64 28 32 
1.10631 3.09183 12.0523 64 28 28 
1.15403 3.09348 12.1295 70 45 40 
1.1424 4.62895 11.8716 192 148 113 
1.19861 3.09679 12.1951 54 30 30 
1.17999 4.28582 11.9208 63 14 33 
1.22786 3.05657 12.2445 79 37 41 
1.20364 4.38886 11.9394 102 43 63 
1.21434 4.46312 11.9421 128 67 72 
1.22027 4.09516 11.9655 40 3 34 
1.24981 3.01824 12.2531 68 39 41 
1.24741 3.0741 12.1803 71 39 44 
1.0074 5.12138 9.43809 222 199 165 
1.31712 3.61604 12.2098 29 18 24 
1.17035 4.9249 10.4751 195 183 161 
1.39121 3.61386 12.2825 46 9 17 
1.44794 2.81014 12.4785 104 100 89 
1.27968 -1.11089 10.7249 228 190 145 
1.47268 3.59227 12.3261 111 103 92 
1.28974 4.92793 10.4334 161 157 158 
1.28035 4.982 10.31 102 103 134 
1.49289 4.92156 12.0894 80 45 51 
1.30722 5.02055 10.3327 36 39 80 
1.37001 -0.691682 10.6715 105 57 55 
1.40849 -1.69133 10.996 242 201 171 
1.55623 4.8323 12.1628 131 76 81 
1.63209 4.25615 12.3703 122 50 62 
1.64078 4.9092 12.2083 57 27 35 
1.45259 -0.0882516 10.6832 100 80 9 
1.72167 4.65874 12.3366 179 137 113 
1.52216 -0.0675213 10.7078 193 158 76 
1.75772 4.64999 12.3876 77 63 54 
1.58052 0.499858 10.7569 26 12 0 
1.58321 0.533949 10.7553 23 11 0 
1.62276 -0.0961775 10.7371 31 14 0 
1.64741 -0.222414 10.8013 14 0 0 
1.64949 -0.237386 10.7944 114 99 70 
1.71403 -0.847234 10.8389 117 57 59 
1.72383 4.91914 10.795 90 85 79 
1.80137 -0.110367 10.9263 47 30 4 
1.91271 5.03992 10.835 151 135 109 
1.93918 4.92879 10.8851 216 189 159 
2.01461 0.300621 11.2661 188 156 33 
1.98228 5.03643 10.8553 171 145 110 
1.9807 4.98141 10.8253 148 122 87 
2.01737 4.99758 10.8406 118 45 39 
2.09401 0.197102 11.3173 110 89 22 
2.08224 0.388936 11.2128 179 147 26 
2.06443 4.99282 10.8416 122 98 70 
2.11007 4.90376 10.9435 123 112 30 
2.169 4.89339 11.2009 198 164 31 
2.11571 4.93729 10.8631 204 198 110 
2.11691 4.97409 10.8637 139 146 50 
2.55245 2.72781 13.3216 118 101 83 
2.14557 4.95524 10.8779 180 168 128 
2.16084 4.95464 10.865 44 20 20 
2.17053 4.98556 10.871 161 135 118 
2.23977 0.127804 11.2947 117 96 39 
2.19485 4.95323 10.8951 217 110 92 
2.65084 2.50488 13.379 29 14 37 
2.25407 4.89351 11.1809 220 182 39 
2.23856 4.89851 10.9506 96 82 7 
2.71152 2.29721 13.4717 150 126 100 
2.24814 4.94525 10.904 235 174 145 
2.75535 2.13249 13.5651 153 130 98 
2.26831 4.93471 10.9026 110 63 33 
2.37757 -0.22999 11.5055 145 110 10 
2.38788 -0.247323 11.554 151 120 27 
2.39477 -0.2427 11.5267 208 177 84 
2.17766 5.10256 10.2726 160 112 76 
2.78415 4.60423 13.3021 176 152 126 
2.34099 5.06624 10.9515 114 75 34 
2.86535 2.07587 13.5506 75 62 56 
2.3614 4.97262 10.9321 139 55 44 
2.39211 4.96458 10.9487 106 47 33 
2.5025 -0.192099 11.475 168 132 12 
2.41472 4.97424 10.9491 183 136 120 
2.51371 -0.24645 11.4836 205 177 78 
2.51816 -0.233606 11.4692 141 112 12 
2.53112 -0.250347 11.4816 136 105 14 
2.44802 4.98979 10.9563 31 16 21 
2.79986 -1.23931 12.697 212 189 158 
2.48945 4.95643 10.964 224 201 160 
2.66297 4.82139 11.6745 105 69 33 
2.6814 4.87284 11.6147 222 194 154 
2.57743 0.505849 11.1854 178 146 27 
2.60275 0.296971 11.1968 171 132 11 
2.62031 5.06279 11.1381 198 158 88 
2.96096 -0.89209 12.7658 43 41 46 
2.95904 -0.747852 12.7306 79 69 68 
2.98543 -1.09093 12.8239 41 31 21 
3.00732 -1.20265 12.8664 166 150 127 
2.99994 -0.976102 12.7983 128 116 104 
2.80167 4.8339 11.7175 61 71 47 
3.04201 -0.766607 12.7954 91 87 75 
3.06333 -1.03209 12.8782 21 15 19 
3.06241 -1.22042 12.8375 152 135 119 
3.09146 -0.778651 12.8277 16 11 5 
2.82293 0.89887 11.571 123 107 56 
3.14815 -1.37428 13.0015 91 81 69 
3.15556 -1.14031 12.9776 130 116 107 
2.75925 5.06176 11.1161 206 173 104 
2.83244 4.83357 11.4094 209 179 33 
3.17403 -0.847404 12.9276 77 68 71 
3.2017 -1.36634 13.056 101 86 65 
3.23308 -1.3363 13.0238 204 181 150 
2.82218 1.05475 11.2417 92 84 73 
2.87014 0.177066 11.4064 55 14 0 
3.24467 -0.702828 12.9838 46 46 36 
2.88816 0.207094 11.418 223 159 33 
3.31063 -0.733437 13.1692 44 36 25 
3.31283 -0.722731 13.0332 213 193 169 
2.90897 5.02894 11.1435 118 98 65 
3.32739 -1.16888 12.8495 79 72 62 
3.13633 4.82788 11.7598 112 41 47 
3.07789 0.228405 11.5151 74 69 49 
3.47661 -0.65849 12.9901 17 13 14 
3.11595 5.00128 11.3643 231 175 16 
3.55181 -0.546404 12.9704 219 193 160 
3.35865 4.73851 12.1172 129 108 91 
3.23683 5.00609 11.5056 156 121 83 
3.58568 4.88854 11.9019 177 77 87 
3.65894 4.98635 11.6452 184 141 86 
3.67152 4.93743 11.6805 141 56 27 
3.97825 1.60701 12.5076 12 18 8 
3.77625 4.90927 11.7137 182 143 84 
3.76389 4.98655 11.5596 167 120 74 
3.65187 1.00347 11.1489 67 68 52 
3.83076 4.87587 11.6078 190 155 91 
-1.95432 1.22866 9.43679 60 90 116 
-1.43807 0.759003 9.09846 19 17 22 
-0.929412 0.198462 10.4458 116 112 103 
-0.815338 4.39835 10.1221 141 128 109 
-0.704377 4.31728 10.2873 97 76 73 
-0.696691 4.18603 10.2957 169 146 114 
-0.693444 4.10956 10.2071 158 139 122 
-0.681449 4.36338 10.3082 200 183 167 
-0.721804 -0.521998 10.9067 156 151 145 
-0.668803 4.11464 10.1741 74 56 52 
-0.713021 -0.525338 10.868 30 26 17 
-0.655889 4.16581 10.1963 175 151 125 
-0.685716 -0.488304 10.959 33 30 23 
-0.638718 4.12615 10.1369 101 83 71 
-0.684168 -0.511685 10.9598 126 122 111 
-0.636918 4.41562 10.0674 68 51 41 
-0.631065 4.16764 10.1511 102 85 75 
-0.66409 -0.557104 10.9709 141 137 126 
-0.650965 -0.557421 10.9814 28 24 13 
-0.6467 -0.489052 10.9531 161 142 125 
-0.63475 -0.25654 10.8962 40 37 30 
-0.633641 -0.272429 10.9012 28 25 18 
-0.630187 -0.522938 11.0087 146 131 110 
-0.570308 -0.578664 11.0845 47 39 37 
-0.510507 -0.53838 11.1065 35 26 17 
-0.474664 -0.351888 11.0471 55 44 48 
-0.443248 -0.0706879 10.971 89 91 90 
-0.426999 -0.120743 11.0042 129 124 105 
-0.420069 -0.144487 10.9958 21 11 9 
-0.414546 -0.0198683 10.9715 110 110 110 
-0.377364 4.39169 10.4449 127 105 81 
-0.45746 4.38685 8.84273 159 149 139 
-0.394665 5.02406 8.80889 33 30 39 
-0.417123 4.89672 7.95574 161 136 114 
-0.325858 4.7733 8.95906 31 29 16 
-0.250664 5.10205 8.4878 64 60 57 
-0.113662 4.41788 10.1805 76 61 38 
-0.172646 5.04298 9.00627 169 143 110 
-0.0917055 4.43203 9.83737 184 143 99 
-0.0692428 4.41741 9.84158 100 56 27 
-0.053402 4.45642 9.89023 93 54 37 
-0.0446136 4.63235 9.80797 193 154 121 
-0.035024 4.38326 9.91454 175 130 91 
-0.0304224 4.47843 9.89605 174 128 104 
-0.0259031 4.49371 9.88953 184 140 101 
-0.00921788 4.48855 9.91937 146 97 64 
0.00524044 4.40653 9.95593 195 148 106 
0.0121778 4.37293 9.94775 131 82 50 
0.00995819 4.47821 9.87735 206 156 105 
-0.0482821 0.91209 9.4288 30 10 0 
0.0277321 5.1883 9.43158 145 111 76 
0.118506 4.68224 10.2252 116 78 41 
0.152046 4.64792 10.2987 119 82 40 
0.182866 4.53372 10.388 97 83 72 
0.246565 -1.23431 11.6806 108 85 44 
0.216978 4.50249 10.4566 46 35 29 
0.298728 -1.26285 11.7357 126 99 56 
0.255396 4.53384 10.4913 132 129 122 
0.263169 4.56928 10.476 18 20 15 
0.397663 3.1008 11.6537 120 113 95 
0.392687 2.99193 11.5293 116 106 94 
0.290944 4.52542 10.476 29 21 18 
0.41502 3.52459 11.5307 41 32 25 
0.415887 3.33775 11.5421 50 47 32 
0.432068 3.24162 11.5674 81 77 65 
0.430834 3.30404 11.5577 31 27 18 
0.43248 3.3236 11.5627 56 52 43 
0.43703 3.40995 11.5349 58 55 50 
0.440694 3.08469 11.5796 82 22 34 
0.443731 3.04184 11.5811 81 32 36 
0.458493 3.01485 11.6081 132 98 96 
0.466031 3.07957 11.5752 69 40 32 
0.473557 3.13451 11.61 68 34 33 
0.477154 2.96366 11.6271 128 95 90 
0.477286 3.03503 11.6101 67 34 29 
0.49087 3.01292 11.7206 70 39 36 
0.481743 3.29731 11.6024 54 51 42 
0.489098 2.94905 11.6543 71 42 38 
0.487325 2.92201 11.6431 131 97 96 
0.487804 3.42499 11.5874 119 112 104 
0.497787 2.89077 11.6383 69 27 31 
0.509798 3.11282 11.7138 131 113 103 
0.506084 2.97948 11.6485 78 29 32 
0.521788 3.13798 11.6917 58 29 23 
0.520866 3.0684 11.6676 67 32 28 
0.520525 3.27772 11.6312 121 111 102 
0.518529 2.96282 11.6349 109 62 70 
0.520447 3.32422 11.6188 61 58 53 
0.529422 2.93284 11.6862 121 81 82 
0.52561 3.12166 11.5998 139 112 105 
0.537364 3.06077 11.6603 144 107 101 
0.54195 3.17933 11.6825 119 113 99 
0.556168 3.13088 11.6839 76 41 39 
0.551239 3.57069 11.5886 123 114 99 
0.562683 3.09116 11.6543 130 103 96 
0.568954 3.1485 11.6773 133 113 104 
0.571633 3.09833 11.6564 130 99 94 
0.5808 2.96634 11.7219 121 105 90 
0.582585 2.93588 11.6844 68 39 33 
0.59058 3.15753 11.6861 72 37 41 
0.634978 2.9456 11.7819 85 35 38 
0.636511 3.05461 11.7403 69 29 27 
0.62339 4.5096 11.4831 117 82 88 
0.656453 3.12797 11.8235 65 29 29 
0.657573 2.96597 11.7514 67 32 28 
0.669046 3.22702 11.7633 82 73 66 
0.668889 3.01204 11.754 123 109 96 
0.673883 3.16768 11.7864 120 112 99 
0.685051 2.98811 11.8125 125 108 98 
0.690089 3.08473 11.7672 75 26 32 
0.710376 2.97696 11.8447 76 36 36 
0.713023 3.06965 11.814 132 85 93 
0.733092 3.12217 11.8427 82 47 45 
0.743977 3.01307 11.8394 121 108 99 
0.765573 3.07768 11.9269 137 107 107 
0.756079 2.88326 11.857 139 115 105 
0.778735 2.9577 11.9335 139 98 96 
0.772184 3.34553 11.8143 126 114 102 
0.78047 3.21932 11.8259 87 79 66 
0.775529 3.40402 11.7769 42 35 27 
0.797633 2.89961 11.9163 92 32 42 
0.790236 3.38712 11.7998 95 90 87 
0.799391 3.41178 11.7996 117 110 104 
0.81565 2.90107 11.9332 75 42 37 
0.826837 3.02962 11.9035 125 108 98 
0.818211 3.30276 11.8192 56 56 46 
0.826902 3.39314 11.8091 115 110 104 
0.842214 3.39765 11.8367 57 55 43 
0.867087 3.03086 11.9765 78 42 42 
0.857638 3.31318 11.8924 106 104 92 
0.850419 3.34664 11.8384 128 119 102 
0.866438 3.0459 11.9544 94 39 45 
0.872055 3.39659 11.8561 95 95 87 
0.85543 4.28301 11.6501 56 21 41 
0.887897 3.07454 11.9365 136 117 110 
0.888163 3.29646 11.8715 60 58 45 
0.8879 3.41231 11.8134 45 38 28 
0.920478 3.29287 11.8782 109 105 94 
0.943337 3.05967 11.9869 133 88 95 
0.948315 3.29818 11.9045 67 63 54 
0.97349 3.02046 11.9873 129 106 98 
0.951843 3.68141 11.8048 28 32 35 
0.94783 4.04096 11.6772 35 21 34 
0.980041 3.33005 11.912 126 119 101 
0.445428 5.15389 8.5057 15 14 28 
0.992739 3.37802 11.8966 65 64 59 
0.670179 -1.35604 10.2836 152 107 68 
1.01315 3.29561 11.9957 117 110 102 
1.01723 3.29414 11.9671 67 60 54 
0.989718 4.86155 11.6801 139 102 84 
1.03852 3.03502 12.0424 70 41 35 
1.03979 3.00965 12.0411 129 109 100 
1.02798 3.38888 11.934 111 112 104 
1.04648 3.07181 12.0532 124 102 91 
1.02549 3.56473 11.8727 123 115 102 
1.03997 3.25813 11.942 120 110 98 
1.06726 2.99955 12.0633 69 44 39 
1.07693 3.10483 12.0741 55 24 19 
1.08687 3.09251 12.0633 116 81 79 
1.04671 4.21902 11.7263 97 89 100 
1.12264 3.03402 12.1482 65 32 27 
1.11397 3.09683 12.084 63 32 29 
1.1656 3.10048 12.171 80 53 46 
1.19062 3.06534 12.2294 126 91 89 
1.14484 4.86205 11.8274 101 59 43 
1.20311 3.05673 12.2106 67 23 22 
1.16926 4.27305 11.8698 65 13 36 
1.23391 3.05893 12.2685 84 38 40 
1.18411 4.36748 11.855 100 44 53 
1.01369 -2.12073 11.3057 170 138 113 
1.26384 3.02577 12.3063 74 39 37 
1.21544 4.09053 11.9441 41 5 31 
1.25518 3.07816 12.2101 65 41 31 
1.20844 4.8183 11.8092 97 60 44 
1.24743 4.61614 11.9195 181 138 104 
0.804132 5.1612 9.39446 14 14 14 
0.853203 -0.825336 9.97193 255 250 237 
0.890792 5.10436 9.6966 206 177 159 
1.3503 3.57908 12.2172 115 107 96 
1.062 -1.79524 10.917 57 98 94 
1.46671 2.81953 12.5514 98 95 80 
0.944761 -0.42498 9.93486 50 32 0 
1.47089 3.5909 12.3196 110 103 87 
0.961831 0.0118707 9.9156 137 119 99 
0.955679 -0.501828 9.91128 27 10 3 
1.15302 -1.86464 10.9171 230 193 148 
1.00624 0.0524365 10.0037 137 116 97 
1.15867 4.91111 10.4358 194 180 167 
1.4858 4.912 12.0571 77 45 50 
1.49846 4.87492 12.0979 64 25 28 
1.21854 4.90038 10.528 70 56 43 
0.98331 5.09023 9.36099 225 193 152 
1.55162 4.82614 12.1441 128 69 73 
1.06718 -0.0325659 10.0133 36 7 0 
1.00422 5.1065 9.3267 168 149 132 
1.58384 4.90529 12.1083 49 7 17 
1.02314 5.10905 9.34551 57 41 26 
1.63542 4.90188 12.1828 52 24 36 
1.64419 4.9201 12.1698 51 7 22 
1.26609 4.96571 10.2649 97 90 123 
1.72077 4.65718 12.3237 169 123 89 
1.37312 4.91755 10.6268 153 137 114 
1.31725 -0.714562 10.6108 219 184 144 
1.76548 4.65594 12.4078 82 71 49 
1.40107 4.89295 10.5909 155 141 132 
1.86102 4.5391 12.5077 180 149 105 
1.38655 4.95799 10.2533 109 110 131 
1.44733 -0.0620673 10.7389 167 143 99 
1.47896 4.9253 10.4414 54 49 69 
1.48218 0.776252 10.552 17 11 13 
2.07917 -2.91128 13.1947 99 78 59 
2.07085 -3.10538 13.0931 109 82 55 
2.09954 -3.14548 13.2081 109 82 55 
1.56459 -0.0675826 10.7779 40 11 0 
1.59981 0.529861 10.8653 107 92 63 
1.59218 0.532231 10.7845 32 8 0 
1.62057 0.26855 10.8757 24 8 8 
2.1962 3.21473 13.1169 176 149 104 
1.61501 0.00291165 10.8142 171 142 110 
1.61809 -0.00419626 10.7816 51 20 0 
1.59086 5.0514 10.4437 53 27 62 
1.61683 -1.00195 10.7586 162 129 84 
2.24614 -3.10504 13.3205 187 164 122 
1.71614 4.91297 10.7768 175 161 152 
1.65692 -0.775688 10.7748 240 203 151 
1.67456 -0.155932 10.8118 32 9 0 
0.951744 0.0390857 7.85206 176 150 133 
2.24892 -3.14407 13.269 193 157 107 
1.66745 -0.957722 10.7669 235 201 156 
1.68416 -0.154522 10.8004 120 93 74 
2.29309 -3.10589 13.366 107 84 66 
1.67972 0.00701587 10.7447 42 25 15 
1.72485 -0.156314 10.9128 37 11 0 
1.74832 0.487904 10.9764 102 71 50 
1.65148 5.06883 10.3613 209 100 93 
1.72931 -0.130785 10.8891 35 7 0 
1.73655 -1.22388 10.9448 234 204 142 
1.73979 -0.23911 10.8328 134 111 80 
1.78775 -0.303894 10.9383 33 14 0 
1.85285 4.89576 10.8419 25 11 8 
1.8243 -0.786353 10.9259 232 194 155 
1.88012 4.93908 10.8462 47 36 16 
1.86538 -0.794655 10.9746 125 101 75 
1.95647 0.570228 11.2544 84 61 19 
2.01536 0.316905 11.4202 71 42 8 
1.89928 5.02671 10.7935 156 132 98 
2.39685 -3.2344 13.0026 16 10 12 
2.59435 2.74045 13.4606 119 96 78 
1.93996 4.92991 10.8876 255 228 182 
2.03505 0.711201 11.4032 123 96 25 
2.07287 0.42696 11.4245 238 214 166 
2.06581 0.708527 11.3861 72 46 11 
2.0573 0.277175 11.3625 197 160 45 
1.97951 5.03434 10.8483 178 147 118 
1.95462 4.95516 10.7449 143 109 74 
2.08119 0.720342 11.3645 121 97 59 
2.13468 0.459472 11.5646 131 101 75 
2.0981 0.113243 11.4095 148 106 4 
1.98548 5.08409 10.795 137 107 81 
1.99384 4.99613 10.8283 204 159 136 
2.00934 4.89195 10.8796 119 42 14 
2.10735 0.193525 11.3577 112 87 20 
2.01142 4.99199 10.8241 104 22 10 
2.07325 0.39119 11.1866 170 138 29 
2.08562 0.386751 11.2294 182 147 29 
2.77566 2.31044 13.6733 151 122 90 
2.0434 4.88836 10.8604 114 70 0 
2.81113 2.14392 13.7326 153 125 86 
2.86551 1.4857 13.9051 128 110 88 
2.05824 5.00655 10.8318 66 39 12 
2.15594 4.88083 11.166 197 155 19 
2.08748 5.03631 10.8635 107 95 69 
2.08336 4.98088 10.8188 60 49 0 
2.78426 4.60291 13.29 178 149 115 
2.10622 4.9644 10.8356 147 143 54 
2.13303 4.9113 10.8993 255 235 164 
2.92131 2.18944 13.7998 79 60 46 
2.13795 4.88618 10.8964 162 153 36 
2.20408 4.90041 11.1229 162 119 0 
2.21832 0.146915 11.3098 98 75 21 
2.13084 5.01259 10.8314 147 128 98 
2.13935 4.94994 10.8628 186 173 129 
2.9379 2.08569 13.7831 72 60 48 
2.87238 2.33684 13.5347 50 36 51 
2.23014 4.90595 11.1345 221 187 53 
2.15157 4.99822 10.8493 42 14 0 
2.15146 4.94637 10.8421 43 14 0 
2.16003 5.0797 10.865 141 113 102 
2.17221 5.05685 10.8863 65 25 13 
2.69512 4.72659 12.7373 44 36 33 
2.15817 4.97498 10.8397 167 135 114 
2.25933 0.119795 11.3574 164 138 77 
2.19629 4.89261 10.9456 152 136 25 
2.89345 2.98334 13.4137 75 60 67 
2.31209 4.85995 11.3045 205 172 33 
2.29694 4.87233 11.2404 97 94 59 
2.96621 2.29093 13.6011 17 1 11 
2.99636 1.86439 13.685 119 102 92 
3.08135 2.18674 13.9568 160 125 95 
3.06271 2.14512 13.7973 171 140 109 
2.40698 -0.25528 11.6094 147 108 3 
3.013 1.87124 13.6061 24 8 18 
3.08454 2.13515 13.7909 61 43 23 
3.05988 1.99999 13.6967 54 40 13 
2.27728 5.06727 10.8651 200 149 102 
3.07085 2.19671 13.6516 35 21 20 
2.37602 0.17094 11.2741 107 86 19 
3.06134 2.21787 13.5216 132 122 113 
2.82698 -1.25523 12.779 220 184 148 
2.10845 5.03622 10.0857 152 72 45 
2.38488 4.95891 10.9322 104 43 24 
3.21436 3.06977 13.7166 169 143 108 
2.40361 4.90303 10.9657 247 216 162 
2.53263 -0.253537 11.5388 214 178 66 
2.92126 -1.08903 12.8163 51 32 25 
2.33276 5.07455 10.6996 187 131 72 
2.91638 -1.20535 12.8028 71 55 39 
2.40938 4.9698 10.9364 179 131 117 
2.55178 -0.257696 11.5414 145 102 0 
2.40914 4.93914 10.9171 78 22 9 
2.43598 4.94222 10.9849 183 119 92 
2.94157 -0.940366 12.7888 55 34 29 
3.00642 -2.17535 13.0211 84 76 63 
2.95459 -0.726301 12.7873 208 179 149 
2.66051 4.82041 11.6691 102 62 36 
2.44403 4.9564 10.961 103 77 62 
2.47279 0.598726 11.1811 108 76 1 
2.44402 4.98703 10.9479 30 16 16 
2.97287 -1.10644 12.8427 167 144 130 
2.68834 4.82452 11.7484 88 52 30 
2.43358 4.93695 10.8977 47 23 11 
2.49716 0.653759 11.1813 150 123 52 
3.02392 -0.985962 12.8649 127 111 98 
3.03045 -0.759824 12.8092 51 35 19 
3.08564 -1.09674 12.9707 153 132 111 
2.49843 5.07343 10.9118 77 45 34 
3.082 -0.820017 12.909 21 15 17 
3.10835 -1.16514 12.9789 161 135 112 
3.11743 -1.32032 13.0269 206 179 152 
2.55894 5.0469 11.0527 89 65 53 
2.75503 4.83459 11.6592 204 181 131 
3.1394 -1.10377 12.9924 25 7 3 
3.15796 -1.37734 13.0236 93 82 64 
2.79404 4.82874 11.7002 69 65 40 
2.62287 5.06475 11.1419 198 153 72 
2.6096 0.294577 11.2178 165 125 1 
3.19327 -1.28924 13.0747 86 68 56 
2.7553 4.85619 11.5325 38 43 37 
3.18633 -0.754634 12.9903 190 169 138 
3.19903 -1.36133 13.0396 93 73 38 
3.25932 -1.34903 13.0945 212 180 141 
2.72937 0.520771 11.4029 233 190 33 
3.27559 -0.716458 13.0701 46 39 29 
2.80083 4.85014 11.4209 117 85 8 
2.72223 5.05202 11.1489 95 78 62 
3.35392 -0.737843 13.1422 215 189 162 
2.83487 4.83623 11.4167 206 168 35 
2.97711 4.87341 11.6894 197 159 58 
2.90335 0.201927 11.4615 215 154 14 
2.91473 5.03201 11.2254 118 95 54 
3.50535 -0.667637 13.0599 11 7 6 
2.97541 0.209354 11.4621 15 12 7 
2.91107 5.03008 11.1497 127 103 57 
2.77189 5.03374 10.6019 41 38 23 
3.5768 -0.554934 13.034 220 189 145 
3.04189 4.90376 11.3592 232 186 5 
3.35705 4.73752 12.1153 129 99 88 
3.05578 0.497208 11.3539 240 176 78 
3.10553 4.99334 11.3381 233 178 13 
3.25635 4.99441 11.6051 71 43 29 
3.42757 4.89254 12.0252 169 67 78 
3.4348 5.00015 11.6618 182 124 78 
3.60062 4.89869 11.9321 173 74 79 
3.84955 1.30921 12.6345 10 7 0 
3.3382 5.05304 11.1634 183 139 74 
3.54598 5.0029 11.5916 115 71 32 
3.89915 4.34895 12.5194 56 49 31 
3.91861 1.46901 12.476 213 180 145 
4.00354 1.75611 12.628 214 179 139 
3.9705 4.43653 12.4756 202 173 139 
3.66244 4.98955 11.6529 178 140 67 
3.96201 0.549962 12.1917 223 186 141 
3.75152 5.01313 11.5048 94 53 35 
3.83526 4.87858 11.6165 185 135 72 
4.19701 6.16359 12.4832 55 57 43 
4.09133 3.5591 12.2051 208 178 142 
4.02587 3.56993 12.0455 68 57 25 
4.09644 4.60222 12.1687 21 19 6 
4.10513 4.57551 12.132 44 37 18 
4.01595 0.312985 11.9645 225 192 161 
4.0942 4.4962 12.1023 207 177 143 
4.12471 4.59907 12.0994 200 185 162 
4.12141 4.55288 12.0784 20 16 5 
4.15383 4.60303 12.0742 19 13 13 
4.00795 -0.329745 11.7982 225 199 162 
4.17496 5.75582 12.0784 207 190 172 
4.10727 3.90159 11.9427 60 54 42 
4.09453 4.35944 11.884 206 181 150 
4.11857 4.0654 11.9436 205 180 139 
4.14143 4.38331 11.9864 205 179 152 
3.90702 4.95301 11.2856 47 37 27 
4.07839 0.308697 11.7504 223 192 146 
4.16248 4.34773 11.8949 21 20 16 
4.09142 6.11503 11.6598 199 175 147 
4.0661 6.02701 11.6095 36 35 33 
4.20721 4.55186 11.8638 188 178 153 
4.27051 3.72788 11.9787 210 180 146 
4.23701 4.61368 11.8764 178 169 152 
4.21976 0.822205 11.8858 10 16 2 
4.14588 4.57072 11.6089 22 18 15 
4.21297 4.51707 11.7645 195 180 157 
4.1083 5.744 11.4372 187 181 155 
4.26862 3.61887 11.7469 19 23 6 
4.03407 5.88325 11.1843 198 176 155 
4.43865 3.80916 11.9996 212 186 149 
4.37024 3.68848 11.8314 208 178 140 
4.30297 4.34997 11.5984 18 18 8 
4.26167 4.69649 11.4674 85 75 65 
4.11559 5.68743 11.0798 27 34 16 
4.28483 4.68033 11.4399 203 177 144 
4.29887 5.03193 11.4233 104 97 87 
4.35641 4.61166 11.5139 204 180 142 
4.28768 4.91439 11.3491 205 175 147 
4.34313 5.17601 11.4319 203 186 166 
-1.42335 -0.392735 9.90308 99 107 126 
-1.4034 -0.278058 9.88275 26 33 51 
-1.29027 0.165463 9.76279 142 163 184 
-1.25351 0.341432 9.72678 149 161 175 
-1.30434 0.0046491 9.86421 48 61 78 
-1.34366 -0.391919 10.004 112 124 148 
-1.21623 0.242898 9.78853 178 186 188 
-1.2433 0.0499804 9.86616 48 69 98 
-1.29134 -0.242136 9.96141 110 125 146 
-1.33283 -0.494783 10.0483 47 60 76 
-1.33082 -0.46896 10.0477 115 127 139 
-1.26249 -0.0879975 9.92155 50 57 83 
-1.25849 -0.0708301 9.91636 153 165 189 
-1.20074 0.213058 9.81545 143 155 177 
-1.32985 -0.510754 10.0561 93 108 129 
-1.22232 0.0458858 9.89268 173 178 182 
-1.22938 -0.0187033 9.91144 138 156 168 
-1.22794 -0.0418951 9.93122 57 73 98 
-1.21901 -0.071831 9.93157 50 64 90 
-1.22227 -0.0566698 9.95214 126 139 156 
-1.18928 0.0316024 9.93399 176 176 174 
-1.22482 -0.348065 10.0799 89 113 139 
-1.21228 -0.400495 10.087 55 75 102 
-1.09502 0.320594 9.87856 178 154 118 
-1.19749 -0.275085 10.0799 95 122 143 
-1.21106 -0.470461 10.1638 140 157 165 
-1.06709 0.291576 9.91206 140 148 161 
-1.21348 -0.547217 10.2063 165 174 183 
-1.14163 -0.430237 10.214 151 173 186 
-1.01817 0.111823 10.0619 147 166 183 
-0.952072 0.314254 10.0149 125 137 149 
-0.953327 0.234837 10.067 133 141 152 
-0.967724 0.105282 10.1101 140 140 150 
-0.943219 0.140659 10.1187 100 117 143 
-1.04096 -0.501562 10.3529 144 154 163 
-0.900146 0.19802 10.1366 132 139 149 
-0.895518 0.111285 10.179 90 115 137 
-0.924076 -0.0866948 10.2678 92 106 132 
-0.886369 0.0843916 10.214 82 106 130 
-0.175642 0.415779 8.93734 180 78 14 
-0.16606 0.450526 8.92895 175 83 0 
-0.852509 -0.109184 10.3056 34 60 83 
-0.904661 -0.368992 10.4317 93 110 136 
-0.850746 -0.068577 10.3247 150 147 154 
-0.811987 0.126648 10.2569 69 95 120 
-0.170371 0.435078 8.98672 204 74 25 
-0.19473 0.369421 9.08218 228 183 22 
-0.821838 -0.0642706 10.3633 31 42 70 
-0.839326 -0.245036 10.4283 115 132 148 
-0.804257 -0.0852584 10.3718 89 103 129 
-3.47903 0.111079 15.7455 24 41 61 
-0.765971 -0.168047 10.4629 114 127 143 
-0.71555 -0.182865 10.5098 85 97 121 
-0.73507 -0.485324 10.6593 75 87 103 
-0.706046 -0.31271 10.6013 131 134 141 
-0.667735 -0.208622 10.5822 142 148 160 
-0.690278 -0.494612 10.698 30 36 50 
-0.650679 -0.236445 10.6147 147 148 153 
-0.649818 -0.25984 10.6258 36 44 47 
-0.640096 -0.267925 10.6362 146 153 163 
-0.659129 -0.475898 10.7325 179 177 180 
-0.612838 -0.267773 10.6667 162 167 171 
-0.636038 -0.495966 10.7626 172 171 169 
-0.0386199 0.356747 9.46601 229 179 28 
-0.631423 -0.579833 10.8066 33 36 51 
-0.623503 -0.49302 10.795 53 53 61 
-0.604896 -0.604503 10.8432 39 43 46 
-0.580422 -0.538529 10.8455 28 32 43 
-0.581165 -0.583435 10.8553 197 199 198 
-0.445992 -0.0665139 10.7434 112 114 129 
-0.416807 -0.0136308 10.7378 112 119 135 
-0.427569 -0.116186 10.774 156 161 157 
-0.412024 -0.0867805 10.8003 71 74 91 
-0.409354 -0.0548363 10.7935 16 21 41 
-0.411196 -0.108858 10.8203 21 22 40 
-0.391386 0.0413501 10.7835 15 24 55 
0.227405 0.919492 9.82832 9 9 21 
0.248738 0.6802 10.0342 107 61 45 
0.0315266 4.30079 11.2647 219 206 189 
0.635694 -0.746528 9.83344 255 251 242 
0.676748 -1.23317 10.1512 57 29 17 
0.695329 -1.22342 10.1671 127 91 65 
0.756452 -1.23702 10.1814 134 89 56 
0.767703 -1.2401 10.2213 104 58 35 
0.916282 -0.366508 9.75963 52 40 16 
0.940125 0.0342391 9.77915 157 138 98 
0.986766 -0.22673 9.76659 22 19 30 
0.410311 3.45458 11.6063 48 58 67 
0.431228 3.08706 11.5743 92 31 62 
0.430943 3.04624 11.577 83 35 61 
0.431945 3.13243 11.5743 92 44 70 
0.426975 3.3147 11.5895 42 50 61 
0.990371 0.534074 9.82672 46 29 47 
0.445954 3.01758 11.6 144 127 143 
0.433028 3.44477 11.6466 61 69 80 
0.453415 3.10931 11.5854 150 123 138 
0.464905 3.08224 11.5881 82 59 77 
0.466679 3.03764 11.6043 86 53 70 
0.461866 3.14382 11.6274 90 55 79 
0.472797 2.91627 11.5999 133 128 135 
0.472234 2.94823 11.6232 83 56 71 
0.486112 2.92644 11.5862 102 78 92 
0.478573 3.33568 11.6441 75 86 92 
0.49419 3.09041 11.6064 135 135 145 
0.498175 2.94496 11.6099 91 43 67 
0.48628 3.44784 11.6394 133 143 145 
0.490884 2.98312 11.6395 96 48 74 
1.04753 -0.37202 9.87562 53 38 19 
0.508107 3.13203 11.6373 81 49 70 
0.507254 3.06945 11.6503 91 51 75 
0.509972 3.02595 11.6487 128 135 143 
0.513347 2.93 11.6401 132 106 119 
0.510448 3.42963 11.6536 62 75 83 
1.05564 -0.341965 9.90983 115 102 86 
0.521338 3.33621 11.6606 62 71 80 
0.529372 2.98182 11.6646 87 51 77 
0.532558 2.92283 11.6661 96 43 69 
0.533227 3.24326 11.6728 77 86 91 
0.530359 3.19155 11.7083 130 139 146 
0.545173 3.13584 11.6899 82 48 72 
0.541563 3.0739 11.7068 85 61 77 
0.553208 2.94002 11.6833 141 129 143 
0.564249 3.59752 11.6696 129 138 147 
0.567822 2.9169 11.6989 92 46 74 
0.558439 3.33752 11.7324 65 74 83 
0.575 3.00263 11.6958 131 134 143 
0.568299 3.35122 11.7251 55 65 74 
0.582423 3.16946 11.728 80 41 62 
0.587102 3.12866 11.7294 96 35 68 
1.11492 -0.187875 9.97045 52 41 19 
1.11386 -0.173843 9.97782 135 121 94 
1.11501 -0.290179 9.98643 16 7 2 
0.609401 3.42351 11.7212 70 80 89 
0.615712 2.94359 11.7472 92 49 76 
0.629992 3.31367 11.745 51 61 71 
0.626514 3.06635 11.7652 88 46 68 
0.622717 3.33994 11.7881 97 107 117 
0.640702 3.39465 11.7493 121 129 140 
0.634779 3.43008 11.7729 100 110 119 
0.653121 3.40434 11.754 53 63 73 
0.64878 3.0345 11.817 125 136 138 
0.661074 3.37785 11.8062 132 140 151 
0.67183 2.93575 11.7916 139 114 135 
1.16683 -0.147476 10.0766 28 13 0 
0.675384 3.10909 11.8452 106 62 85 
0.686455 2.97598 11.8146 86 47 66 
0.698341 3.27652 11.802 129 140 144 
0.700906 3.10538 11.8012 151 111 135 
1.11554 -0.931271 10.3815 80 64 49 
0.97554 -1.37499 10.9127 160 144 155 
0.719084 3.43708 11.8061 125 134 143 
0.721966 3.11855 11.8119 77 50 67 
0.7235 4.16164 11.8572 24 16 37 
0.731504 3.02554 11.864 127 138 140 
0.737928 3.17237 11.858 131 135 146 
0.753321 3.36811 11.8641 135 144 153 
0.773102 3.29776 11.8577 36 49 55 
0.776627 3.23382 11.8682 81 92 94 
0.773784 2.90202 11.8909 101 42 72 
0.782257 3.40703 11.8593 93 102 107 
0.777171 2.97472 11.9074 87 42 65 
0.80006 3.43032 11.8589 126 135 142 
0.789672 3.06392 11.9147 87 45 65 
0.7926 2.94018 11.9122 133 130 137 
0.799423 3.1199 11.9189 82 49 66 
0.803701 3.28574 11.9104 132 136 145 
0.812631 3.33121 11.9135 59 66 72 
0.821613 3.08855 11.9244 143 128 135 
0.823593 3.42569 11.9107 97 102 108 
1.18001 -0.830151 10.6177 204 187 171 
0.843943 3.32726 11.9168 122 129 135 
1.20517 -0.803424 10.6383 77 43 44 
0.862986 3.03033 11.9467 137 124 134 
0.866484 3.0525 11.9578 86 55 70 
0.871721 3.08934 11.9625 136 138 135 
0.884574 3.31497 11.9304 63 66 71 
0.884777 3.29403 11.9448 65 74 81 
1.2289 -0.783593 10.6555 203 184 177 
0.87655 3.03709 11.9963 134 132 143 
0.891869 3.42644 11.951 68 73 79 
0.900386 3.06132 11.999 90 47 66 
0.914387 3.32283 11.97 105 114 119 
0.924031 3.08512 11.9894 95 58 75 
0.944 3.0824 11.9916 93 39 62 
0.940065 3.05242 12.0115 89 46 66 
0.980117 4.21145 11.8754 150 50 102 
0.953925 3.1161 12.011 96 42 65 
0.970033 4.1216 11.9419 38 20 42 
1.14207 -2.67409 11.341 73 61 61 
0.959117 3.02762 12.0184 130 131 135 
1.32489 -0.681882 10.5944 231 219 205 
0.971046 3.36958 12.0326 128 138 140 
0.991894 3.41238 12.0039 57 66 71 
0.990408 3.32018 12.0316 110 119 128 
1.0221 3.41376 12.0089 116 127 133 
1.02343 3.02214 12.066 139 133 135 
1.05769 4.96096 11.8941 133 100 107 
1.0256 3.08347 12.0648 138 133 139 
1.03672 3.284 12.0305 132 142 144 
1.03146 3.3732 12.0544 127 137 139 
1.22181 -2.543 11.3736 238 221 205 
1.25749 -2.30037 11.2245 72 97 78 
1.04884 3.01202 12.0861 74 58 69 
1.33455 -1.63822 10.9514 205 64 83 
1.05355 3.12068 12.0939 82 49 68 
1.07035 3.40305 12.0237 61 71 83 
1.07272 3.02772 12.0911 128 121 128 
1.07062 3.12099 12.1198 128 111 119 
1.29855 -2.28837 11.2641 61 108 76 
1.09331 3.34622 12.0903 121 132 138 
1.09471 3.30178 12.113 48 56 67 
1.09635 3.08466 12.1596 127 116 124 
1.46309 -0.668265 10.6293 65 55 54 
1.46713 -0.684038 10.6432 247 237 227 
1.1451 4.22391 12.031 50 36 71 
1.47357 -0.0750975 10.6427 71 46 15 
1.45432 -1.38526 10.8459 239 222 215 
1.14549 3.05335 12.2237 87 40 60 
1.1459 3.11918 12.2259 76 42 59 
1.50899 -0.371421 10.6829 201 173 110 
1.52184 -0.0232002 10.6723 32 19 11 
1.16642 3.07933 12.2504 125 121 120 
1.1753 3.04831 12.2657 78 35 52 
1.48368 -1.34157 10.9158 176 68 120 
1.53149 -0.124883 10.6881 38 11 0 
1.1731 2.87104 12.2945 124 129 135 
1.16584 2.86923 12.3352 45 52 60 
1.52583 -0.0458999 10.7227 178 166 116 
1.53192 -0.0395861 10.6993 177 165 117 
1.54409 0.49436 10.6815 64 23 19 
1.54445 -0.372417 10.7059 43 34 0 
1.19219 2.87545 12.3227 119 124 127 
1.55135 0.0659847 10.7111 45 29 4 
1.20317 3.11187 12.2981 123 99 112 
1.20428 3.09235 12.3097 137 105 118 
1.5652 -0.0243776 10.6925 181 164 120 
1.53884 -1.29206 10.8429 178 47 99 
1.56416 0.0585324 10.7252 55 41 15 
1.22091 3.11852 12.3265 78 50 64 
1.22388 3.08418 12.3333 83 42 60 
1.57971 -0.0181029 10.6995 117 99 51 
1.57345 -0.00764456 10.732 142 124 86 
1.57726 0.0486696 10.7266 126 113 78 
1.23167 3.07149 12.3674 130 99 114 
1.60059 -0.291714 10.7175 38 22 0 
1.24803 3.04951 12.3609 78 50 65 
1.60278 -0.109983 10.7343 33 23 0 
1.60949 -0.123226 10.7357 134 123 93 
1.614 -0.349633 10.734 44 31 14 
1.62495 0.522993 10.7442 23 11 21 
1.63173 -0.0976089 10.7933 164 150 121 
1.31652 3.66785 12.3324 29 27 49 
1.66171 0.491663 10.7897 157 148 117 
1.66953 0.578376 10.796 25 19 7 
1.67998 -0.18372 10.8069 46 35 7 
1.68255 0.499198 10.8013 20 4 7 
1.69182 0.575304 10.7965 20 16 7 
1.70349 -0.16214 10.8188 76 52 18 
1.71234 -0.225821 10.8038 36 20 0 
1.3923 3.65842 12.4121 46 29 47 
1.69414 -0.0538443 10.9163 38 11 4 
1.7482 0.486654 10.7101 95 85 58 
1.71753 -0.058526 10.8818 30 11 5 
1.40911 4.0253 12.4523 58 14 49 
1.41866 3.62347 12.4066 119 128 137 
1.72968 -0.170827 10.8461 109 90 58 
1.74001 -0.751743 10.8173 247 217 217 
1.73953 -0.753124 10.8294 247 217 217 
1.74225 -0.0754485 10.8505 182 171 153 
1.74747 -0.0889214 10.8595 47 35 9 
1.4394 2.84423 12.6144 101 109 111 
1.77472 -0.745417 10.8642 199 85 136 
1.77491 0.528902 10.9187 20 4 4 
1.80609 -0.688562 10.8679 206 131 161 
1.79907 -0.819206 10.9315 246 233 217 
1.8345 -0.753145 10.9215 164 135 127 
1.65009 4.50677 12.5205 53 54 59 
1.94867 0.577789 11.2889 70 49 18 
1.97461 -0.181786 11.5607 92 85 77 
2.0186 0.745271 11.2831 117 98 30 
2.05989 0.588805 11.2615 196 168 33 
2.05454 0.177617 11.3122 169 148 85 
1.93417 3.8864 12.2483 34 30 27 
2.11656 0.163359 11.277 68 59 2 
2.1269 0.0981856 11.3482 84 59 0 
2.10969 0.0638937 11.522 202 171 44 
2.11835 0.971412 11.5532 160 139 34 
2.18969 0.152584 11.2594 87 79 40 
2.0503 5.04065 12.6519 174 90 106 
2.20749 -0.155581 11.5626 33 10 0 
2.21074 -0.0809163 11.5523 69 31 0 
2.24182 4.9223 11.4142 71 79 102 
2.23091 -0.116067 11.5794 236 215 34 
2.31043 4.91912 11.3495 86 113 134 
2.14037 4.7344 12.9278 54 54 54 
2.35941 0.714821 11.2161 69 58 26 
2.3431 0.0410267 11.372 246 228 34 
2.39012 0.732159 11.1471 178 157 110 
2.36352 4.91452 11.5738 102 36 40 
2.41285 0.246 11.1773 134 122 20 
2.16345 -1.82966 13.5653 157 151 137 
2.40579 4.91883 11.4615 180 70 71 
2.19759 -1.86248 13.5582 192 187 168 
2.46162 0.683942 11.1557 83 69 22 
2.41949 -0.253251 11.5464 217 196 105 
2.4295 -0.250759 11.5162 221 201 112 
2.44515 4.91122 11.6403 105 52 48 
2.48931 0.635772 11.1807 84 77 31 
2.49777 0.460748 11.1617 122 107 40 
2.52275 0.507812 11.1799 58 54 19 
2.56713 0.504069 11.2344 180 155 39 
2.53477 4.85421 11.7124 104 89 84 
2.55559 1.00326 11.4776 29 17 0 
2.55664 4.89617 11.5818 231 215 199 
2.5745 4.72786 12.0865 145 70 91 
2.63814 0.59005 11.286 112 87 0 
2.65351 0.668962 11.3027 131 105 0 
2.53494 4.94598 12.8032 159 81 103 
2.69161 4.90454 11.6886 232 217 198 
2.74819 -0.156807 11.5838 215 195 96 
2.77292 4.89502 11.8008 232 217 196 
2.81585 4.88713 11.6234 175 165 156 
2.73182 5.01174 12.9572 143 75 96 
2.83906 4.8876 11.9235 139 130 121 
2.87604 0.184077 11.4406 220 182 99 
2.87787 0.173028 11.4251 73 40 0 
2.90825 0.201643 11.4493 122 67 37 
2.98775 0.47361 11.341 202 145 30 
2.90859 -1.09635 12.9357 33 34 36 
2.98692 4.94372 11.8812 219 201 29 
2.9234 -0.732846 12.865 219 210 195 
2.91996 -1.21182 12.9696 67 63 60 
2.99414 4.78511 11.879 195 181 168 
2.90264 -2.84184 13.3093 99 99 89 
2.92877 -1.0346 12.9294 139 140 145 
2.93012 -1.11211 12.952 172 170 171 
2.93503 -1.01599 12.9225 98 99 103 
3.00774 4.90131 11.8272 176 161 34 
2.9465 -1.11141 12.9659 113 109 110 
2.95338 -0.813001 12.909 52 56 55 
2.95381 -1.25091 12.9965 91 93 90 
2.93963 -2.85686 13.3287 116 117 111 
2.96922 -0.761032 12.901 48 57 62 
2.96544 -1.27295 13.0415 52 48 47 
2.96818 -1.12007 13.0217 172 172 162 
2.97236 -1.10108 13.0069 54 56 55 
2.97745 -0.738783 12.9145 216 215 211 
2.98703 -1.20338 13.023 98 78 80 
2.99231 -1.16856 13.0182 89 71 71 
3.00123 -1.10995 13.0231 34 35 39 
3.00628 -0.905012 12.9654 127 127 135 
3.01052 -1.22203 13.0206 172 166 170 
3.02788 -0.767285 12.94 23 23 25 
3.02627 -0.897205 12.9811 56 51 57 
3.02713 -0.89801 12.9921 56 51 57 
3.03942 -1.01148 13.0322 148 146 151 
3.05505 -0.77683 13.0065 118 119 113 
3.13298 0.744455 11.3623 151 136 79 
3.13306 0.769642 11.3445 162 141 88 
3.0776 -0.892009 13.0027 72 69 80 
3.07599 -1.04239 13.0601 25 23 28 
3.09907 -1.09521 13.1073 160 158 161 
3.1233 -0.954736 13.1235 24 19 26 
3.12601 -0.95621 13.1536 24 17 25 
3.12667 -1.3705 13.2401 94 96 85 
3.12736 -1.33998 13.2316 220 211 206 
3.13107 -1.15412 13.1443 114 112 113 
3.15646 -1.08875 13.119 12 11 17 
3.15804 -1.3825 13.2249 59 63 64 
3.21574 0.0466537 11.7949 8 13 7 
3.18078 -0.756592 13.0937 205 194 188 
3.1835 -0.618879 13.1034 98 98 96 
3.18737 -0.864535 13.1255 80 76 77 
3.18814 -1.30386 13.2342 82 80 85 
3.23151 0.138072 11.6799 92 98 88 
3.26016 0.528617 11.1056 5 12 4 
3.26146 0.528291 11.1192 1 7 3 
3.22159 -0.834438 13.1378 51 50 55 
3.26114 0.189584 11.5603 16 19 24 
3.23167 -1.39075 13.3005 101 97 94 
3.2501 -1.35089 13.209 217 208 199 
3.26921 -1.25336 13.2408 109 107 108 
3.2983 -0.741085 13.2768 30 31 23 
3.32363 -0.738179 13.2192 174 171 164 
3.41936 -0.587518 13.1728 6 7 12 
3.49187 -0.537133 13.2194 210 198 182 
3.57525 -0.557495 13.1823 217 204 185 
3.57249 -0.290474 12.2313 48 68 41 
4.26825 -0.262564 12.435 67 78 44 
-0.5669 -0.549763 10.9053 67 71 83 
-0.7035 -0.562132 11.2396 30 34 45 
0.110839 4.44594 10.3316 233 209 185 
0.946081 -0.0379252 9.79752 104 93 65 
0.417729 3.52999 11.5583 68 78 90 
0.421243 3.44013 11.5708 48 58 67 
0.437467 3.07826 11.5534 92 31 62 
0.437291 3.03779 11.5561 83 35 61 
0.430618 3.42023 11.5741 113 122 131 
0.436122 3.12792 11.5616 92 44 70 
0.431316 3.30793 11.5748 42 50 61 
0.443149 3.24489 11.5817 74 84 93 
0.452571 3.00894 11.5781 144 127 143 
0.455629 3.10631 11.5782 150 123 138 
0.456875 3.85353 11.5706 138 144 156 
0.463096 3.08399 11.5941 82 59 77 
0.471311 3.03193 11.5894 86 53 70 
0.471893 3.131 11.5942 90 55 79 
0.474214 3.8025 11.5929 129 139 149 
0.482951 2.93578 11.5879 83 56 71 
0.493294 2.91714 11.5621 102 78 92 
0.516968 3.29074 11.5193 75 86 92 
0.510078 3.1297 11.6313 81 49 70 
0.51309 3.06158 11.6305 91 51 75 
0.517715 3.017 11.6232 128 135 143 
0.516128 3.42031 11.6333 62 75 83 
0.941389 -0.984888 10.3124 149 139 130 
0.522964 3.33211 11.654 62 71 80 
0.5391 2.91365 11.6433 96 43 69 
0.536032 3.18449 11.6892 130 139 146 
0.550582 2.88766 11.6524 133 131 142 
0.550991 3.12697 11.6692 82 48 72 
0.551948 3.05971 11.6703 85 61 77 
0.551678 3.34003 11.678 61 70 79 
0.575885 3.34203 11.6999 55 65 74 
0.582224 3.32364 11.6959 98 108 118 
0.585349 3.23379 11.6966 80 90 100 
0.589448 3.41871 11.6938 100 109 116 
0.594863 3.11714 11.7013 96 35 68 
0.59544 3.39278 11.6975 134 143 152 
0.610624 3.42021 11.7159 70 80 89 
0.61344 3.14807 11.7178 137 130 137 
0.622826 2.93487 11.7224 92 49 76 
0.633685 3.30795 11.7318 51 61 71 
0.640789 3.4216 11.7515 100 110 119 
0.615823 3.45464 11.8391 100 110 119 
0.643885 3.21582 11.7549 85 95 104 
0.65999 2.92459 11.7511 90 50 74 
0.726891 2.97317 11.5279 142 133 138 
0.665309 3.01334 11.7577 125 136 138 
0.673715 3.35971 11.7605 132 140 151 
0.673813 2.98009 11.7686 134 135 140 
0.678936 2.92735 11.767 139 114 135 
0.694616 2.90344 11.7866 86 48 71 
0.695641 2.96604 11.7826 86 47 66 
0.695028 3.29679 11.7943 126 136 145 
0.703146 3.10142 11.7925 151 111 135 
0.711759 2.95097 11.7981 143 108 132 
0.715458 2.91548 11.805 145 110 130 
0.726202 3.08106 11.8223 86 41 61 
0.73982 4.13348 11.7965 24 16 37 
0.739689 3.30824 11.8214 81 91 100 
0.742691 3.04721 11.8304 133 131 142 
0.745978 2.87869 11.834 132 132 144 
0.761441 3.41633 11.8143 131 140 147 
0.769114 3.34401 11.8039 135 144 153 
0.77725 3.29091 11.8414 36 49 55 
0.780984 3.41475 11.8383 58 67 74 
0.780558 3.22731 11.8529 81 92 94 
0.790008 3.39824 11.8446 95 104 109 
0.788363 2.96207 11.8667 87 42 65 
0.802379 3.42573 11.8493 126 135 142 
0.810352 3.10325 11.8758 82 49 66 
0.81753 3.3804 11.8528 132 141 150 
0.821494 3.26054 11.8422 132 136 145 
0.554171 3.65328 12.8576 59 68 73 
0.823574 3.3157 11.8717 59 66 72 
0.831946 3.113 11.892 141 131 140 
0.856649 3.3621 11.8973 133 144 150 
0.861077 3.10867 11.9089 86 41 64 
0.873541 3.04282 11.93 86 55 70 
0.881109 3.07511 11.9247 136 138 135 
0.889988 3.30734 11.9096 63 66 71 
0.887652 3.0239 11.9537 134 132 143 
0.905906 3.40489 11.8954 68 73 79 
0.911973 3.04395 11.9516 90 47 66 
0.924637 3.30778 11.9293 105 114 119 
0.929123 3.40656 11.9217 64 74 76 
0.932708 3.09178 11.9539 153 110 129 
0.75265 3.31027 12.6713 95 58 75 
0.933694 3.05751 11.9659 147 111 125 
0.949277 3.30949 11.9441 61 69 82 
0.951178 3.07284 11.9631 93 39 62 
0.964909 3.70827 11.9002 25 30 49 
0.985622 4.19883 11.8508 150 50 102 
0.962139 3.10538 11.9783 96 42 65 
0.988557 4.08801 11.8661 38 20 42 
0.977821 3.40714 11.9314 57 67 76 
0.967023 3.01897 11.9878 130 131 135 
1.32606 -0.682069 10.5897 231 219 205 
0.984152 3.39338 11.947 103 112 119 
0.98795 3.3448 11.9643 128 138 140 
0.995419 3.31478 11.9674 50 59 68 
0.999155 3.40068 11.9738 57 66 71 
1.01737 3.77635 11.9274 33 28 50 
1.01275 3.30368 11.9912 64 73 80 
1.34324 4.87757 10.6212 132 130 133 
1.04401 4.33789 11.8788 70 48 86 
1.03029 3.40262 11.9764 116 127 133 
1.03525 3.42651 11.9687 128 139 145 
1.03575 3.384 11.979 60 69 78 
1.02738 3.03493 12.0213 85 52 63 
1.03167 3.01188 12.0324 139 133 135 
1.03452 3.07083 12.0275 138 133 139 
1.04709 3.40349 11.9704 61 72 78 
1.04264 3.27431 12.0052 132 142 144 
1.04145 3.35754 12.0127 127 137 139 
1.37331 4.90878 10.6218 161 157 154 
1.0653 3.10343 12.0439 82 49 68 
1.07343 3.30182 12.008 59 69 79 
1.07201 3.40078 12.0172 61 71 83 
1.08194 3.81814 11.9773 127 136 145 
1.09838 3.98021 11.9645 156 162 158 
1.07771 3.02152 12.0711 128 121 128 
1.09161 3.27609 12.0516 119 129 139 
1.41711 4.90454 10.6363 164 165 169 
1.40438 4.88754 10.693 135 139 151 
1.44525 -0.0874321 10.625 136 114 56 
1.10709 3.06956 12.1138 127 116 124 
1.4785 -0.295305 10.6346 141 121 114 
1.13901 3.1141 12.1473 127 128 132 
1.15593 3.07872 12.1751 74 33 51 
1.15673 3.10353 12.1776 76 42 59 
1.51092 -0.130455 10.6509 32 1 0 
1.52457 -0.0243635 10.6595 32 19 11 
1.53639 -0.127001 10.6645 38 11 0 
1.54853 -0.105149 10.6727 49 31 7 
1.20751 3.02133 12.253 124 123 129 
1.55785 0.487684 10.6833 174 143 88 
1.57124 0.495702 10.6946 60 30 0 
1.23415 3.05782 12.2565 86 45 63 
1.57404 0.529303 10.694 63 32 1 
1.23349 3.06999 12.2892 83 42 60 
1.59406 0.509431 10.7045 64 32 0 
1.61506 -0.123224 10.7099 134 123 93 
1.62811 0.522016 10.7299 23 11 21 
1.65244 -0.0603465 10.7253 43 6 0 
1.67012 -0.143514 10.7446 148 132 98 
1.84931 -0.174076 10.8056 60 22 13 
1.5595 2.83037 12.6126 49 54 60 
2.18348 -0.139553 11.5018 226 200 64 
2.21319 -0.156689 11.5181 33 10 0 
2.36643 0.709381 11.1569 69 58 26 
2.34566 0.0404209 11.3497 246 228 34 
2.39418 0.728647 11.1126 178 157 110 
2.12118 -3.43804 13.6162 152 87 69 
2.4022 -0.211041 11.4974 219 198 71 
2.4684 0.626204 11.1368 94 90 43 
2.52698 0.503616 11.1365 58 54 19 
2.49621 -0.194518 11.4536 191 169 50 
2.50828 -0.247938 11.4645 222 201 110 
2.71668 0.835804 11.4999 188 168 43 
2.92513 -1.20398 12.8673 67 63 60 
2.97358 -0.756217 12.8038 48 57 62 
2.97062 -1.26281 12.9255 52 48 47 
2.98256 -0.733638 12.8028 216 215 211 
3.00534 -1.10256 12.924 34 35 39 
3.01462 -1.21353 12.917 172 166 170 
3.03137 -0.76331 12.8486 23 23 25 
3.04364 -1.00404 12.9236 148 146 151 
3.05973 -0.772005 12.8823 118 119 113 
3.07959 -1.03704 12.956 25 23 28 
3.10246 -1.08808 13.0048 160 158 161 
3.15923 -1.01583 13.0152 74 67 83 
3.22373 -0.829724 13.0393 51 50 55 
3.30041 -0.735086 13.1294 30 31 23 
3.42006 -0.584403 13.0751 6 7 12 
3.49149 -0.534625 13.0834 210 198 182 
3.57416 -0.554066 13.0632 217 204 185 
4.02021 -4.2436 12.3294 36 37 29 
4.0368 -4.27543 12.3365 183 167 142 
4.27476 4.1274 12.2558 207 202 196 
-0.881916 4.50491 9.92731 55 56 60 
0.433394 3.34972 11.5654 130 138 149 
0.433832 3.32505 11.5691 69 77 88 
0.494222 2.88738 11.6048 84 42 62 
0.52988 4.82044 11.4636 124 90 81 
0.496206 3.0887 11.6006 135 135 145 
0.500479 2.94025 11.6012 91 43 67 
0.501008 2.97142 11.606 96 48 74 
-0.70851 1.04564 15.6819 24 2 14 
0.520565 2.92004 11.6151 132 106 119 
0.508433 2.94111 11.6542 124 100 113 
0.520029 3.27841 11.6317 128 136 147 
0.538501 3.23661 11.655 77 86 91 
0.604571 4.88608 11.5049 127 92 86 
0.565979 3.09533 11.673 137 132 139 
0.574499 3.30792 11.6838 31 39 50 
0.591185 3.22829 11.6775 80 90 100 
0.592597 3.1591 11.6945 80 41 62 
0.641893 2.92965 11.7189 95 63 84 
0.641456 2.91514 11.7276 149 111 134 
0.650565 3.30266 11.7355 40 50 59 
0.66141 3.42558 11.7382 56 65 74 
0.686048 3.327 11.7591 55 65 75 
0.69453 3.3925 11.7553 62 71 80 
0.692184 3.08935 11.7859 106 62 85 
0.726995 3.11263 11.7943 77 50 67 
0.722896 3.32531 11.8121 49 58 65 
0.731835 3.07424 11.8019 86 41 61 
0.742049 3.01135 11.8246 127 138 140 
0.751806 3.39547 11.7942 79 88 95 
0.793619 4.32452 11.7332 57 33 67 
0.786946 2.88646 11.8424 101 42 72 
0.793967 3.39084 11.8155 93 102 107 
0.807754 2.92045 11.8545 133 130 137 
0.829625 4.29071 11.7757 156 83 112 
0.815207 3.09593 11.8567 82 49 66 
0.843546 3.39814 11.8354 97 102 108 
0.78923 3.17141 12.0568 141 131 140 
0.875289 4.32079 11.7809 47 29 55 
0.855568 3.30951 11.8709 122 129 135 
0.857847 3.03454 11.8904 92 27 61 
0.864856 3.27789 11.8766 131 138 144 
0.896521 3.27629 11.8978 65 74 81 
0.938222 3.05214 11.9482 147 111 125 
0.95348 3.03411 11.9575 89 46 66 
0.966353 3.09981 11.9613 96 42 65 
0.982675 4.10227 11.8925 38 20 42 
0.997184 3.36675 11.9365 50 59 66 
1.00374 3.39411 11.9552 57 66 71 
1.0128 3.27125 11.9614 59 68 75 
1.01851 3.29578 11.9677 64 73 80 
1.03428 3.39658 11.9598 116 127 133 
