ply                 
format ascii 1.0    
element vertex 1324
property float x    
property float y    
property float z    
property uchar red  
property uchar green
property uchar blue 
end_header          
0.446839 3.42447 11.5503 47 49 64 
0.455788 3.00439 11.5263 148 118 130 
0.458716 3.05602 11.5295 139 111 123 
0.459571 3.10336 11.5365 147 121 132 
0.466856 3.99857 11.5208 23 34 64 
0.469445 3.08034 11.5508 77 62 69 
0.472813 3.12842 11.5468 84 50 64 
0.474971 3.02651 11.5397 76 40 54 
0.473589 3.32758 11.5563 112 114 126 
0.481187 2.90597 11.5357 145 119 130 
0.495723 2.91313 11.5131 114 78 92 
0.485866 3.29973 11.5777 57 60 65 
0.495354 4.17931 11.5279 32 38 72 
0.493418 3.41301 11.5821 56 58 70 
0.498659 3.08712 11.5683 126 126 128 
0.500819 3.36538 11.5507 135 136 138 
0.49883 3.30089 11.5804 138 141 146 
0.502992 2.93926 11.5685 82 38 55 
0.515183 3.12121 11.5789 77 43 57 
0.520608 3.01083 11.5685 130 128 129 
0.528402 3.33147 11.6105 64 65 70 
0.537037 3.05557 11.6014 152 120 131 
0.537858 2.97378 11.6024 85 35 62 
0.540932 3.23624 11.6172 82 86 89 
0.542522 3.17371 11.619 124 135 131 
0.554911 3.12384 11.6184 88 49 68 
0.554175 3.30878 11.6229 52 53 57 
0.587824 4.887 11.4284 204 168 152 
0.567568 3.59874 11.6442 134 136 135 
0.574504 2.95381 11.6211 136 130 130 
0.583022 2.93105 11.6335 79 44 50 
0.59349 3.1553 11.6469 82 48 65 
0.609318 4.30732 11.5832 75 68 101 
0.626409 2.92785 11.665 91 43 57 
0.643213 3.31666 11.681 110 113 120 
0.652614 3.30119 11.6953 30 34 37 
0.665669 3.21548 11.6779 83 85 82 
0.666204 3.00446 11.6836 124 130 130 
0.675745 2.88572 11.7048 142 132 133 
0.676136 2.93842 11.7087 141 111 121 
0.682309 2.91878 11.7078 148 121 130 
0.686856 3.32347 11.7096 46 50 53 
0.705068 3.32785 11.7333 59 63 64 
0.709659 3.09476 11.7365 149 117 132 
0.711789 3.39593 11.7314 63 66 75 
0.719481 3.32801 11.736 129 133 134 
0.72266 3.409 11.7263 91 94 101 
0.730581 3.39581 11.7403 66 69 74 
0.735005 3.32209 11.7418 29 33 34 
0.740021 3.43782 11.7465 31 34 41 
0.737154 3.22732 11.7746 82 84 81 
0.744247 3.41913 11.7454 31 34 43 
0.742863 3.00813 11.7766 134 134 134 
0.745893 3.08538 11.7606 141 113 125 
0.753327 3.39356 11.7477 55 59 60 
0.752007 2.87193 11.7755 141 135 135 
0.770463 3.33676 11.7319 133 137 138 
0.782887 2.86255 11.791 84 46 61 
0.785062 3.4125 11.7724 40 44 45 
0.786314 2.87998 11.7883 94 45 64 
0.785881 3.22263 11.8007 84 86 83 
0.798738 4.33123 11.6863 44 30 55 
0.795171 3.38858 11.7649 100 104 105 
0.804316 3.39761 11.7753 35 39 40 
0.806903 2.91468 11.7962 130 128 129 
0.807188 2.88475 11.8211 81 66 71 
0.818812 3.38099 11.794 129 133 134 
0.823217 3.01975 11.8254 148 136 140 
0.831778 3.41663 11.7995 61 65 68 
0.833838 3.07168 11.8321 146 125 134 
0.841544 3.3902 11.766 115 117 116 
0.845066 4.36968 11.7768 38 31 47 
0.846977 3.41199 11.8092 38 40 39 
0.85653 3.30695 11.8204 132 134 133 
0.857421 3.02891 11.8358 98 32 59 
0.86891 3.28086 11.8418 134 136 135 
0.880484 4.32737 11.7376 47 30 40 
0.932963 2.89343 11.3569 72 53 57 
0.88504 3.066 11.8548 146 131 136 
0.894845 3.30122 11.854 63 65 64 
0.897424 3.27358 11.847 60 62 61 
0.919988 3.28612 11.8561 58 60 59 
0.928075 3.29821 11.8593 121 123 122 
1.43086 -0.393496 7.15539 237 217 218 
0.964024 3.06633 11.9016 96 37 55 
0.984849 4.10173 11.8393 31 16 35 
0.987376 3.33477 11.8905 132 136 135 
1.00435 3.39036 11.9035 66 70 71 
1.00602 3.00331 11.9336 91 38 54 
1.02 3.08969 11.9259 83 43 54 
1.02228 3.37521 11.9058 50 54 53 
1.03453 3.3916 11.907 128 132 133 
1.03285 3.02264 11.9449 92 60 61 
1.03638 2.99962 11.9571 143 130 124 
1.03925 3.05778 11.9477 142 131 125 
1.04559 3.34462 11.9325 133 135 130 
1.0491 3.2647 11.9328 133 135 132 
1.06427 3.02451 11.9728 65 32 43 
1.08236 4.14733 11.8626 33 16 34 
0.881498 4.00243 14.2047 60 65 68 
1.17594 -1.89692 10.972 232 215 185 
1.07957 3.39327 11.9593 59 60 62 
1.11243 3.09088 12.0194 71 40 46 
1.23815 4.92552 10.5485 74 69 66 
1.13108 3.93332 11.9114 17 23 55 
1.25403 -1.6512 10.8782 255 214 197 
1.16147 3.08951 12.0859 68 42 51 
1.25813 -2.31424 11.1939 59 79 52 
1.19559 4.3112 11.9362 68 19 51 
1.18661 2.81931 12.1171 27 29 26 
1.21015 4.40701 11.9308 112 49 78 
1.23657 3.05754 12.2148 79 39 48 
1.42328 -0.0983509 10.598 47 27 3 
1.41847 -1.32478 10.7632 157 43 69 
1.45406 -0.390388 10.6071 197 183 134 
1.43902 -1.62214 10.911 200 178 154 
1.51786 -0.1261 10.6215 36 20 0 
1.53801 -0.10664 10.6239 220 195 164 
1.53817 -0.487188 10.6551 47 26 0 
1.54355 4.91415 10.5718 111 119 156 
1.45454 2.80492 12.4352 104 109 103 
1.55484 0.0301885 10.6457 133 123 88 
1.57374 -0.355456 10.6515 201 182 140 
1.58034 -1.03583 10.6759 200 184 159 
1.50958 4.94482 12.1041 92 60 73 
1.60443 -0.303428 10.6678 19 6 0 
1.61122 0.540722 10.6724 22 9 3 
1.61401 -0.136172 10.6692 117 107 82 
1.63023 -0.0904502 10.6786 195 182 150 
1.5736 4.85681 12.1756 142 87 106 
1.56537 2.81356 12.5146 44 43 38 
1.65505 0.480791 10.7079 8 0 0 
1.61307 4.94663 12.1739 56 14 28 
1.67642 -0.975106 10.7579 247 232 199 
1.69359 -0.955955 10.7773 255 229 210 
1.66011 4.93421 12.229 39 15 28 
1.67346 4.96039 12.2347 50 5 25 
1.73372 -0.14461 10.7656 46 30 4 
1.67561 4.12433 12.4217 40 24 27 
1.759 -0.855369 10.8035 255 242 219 
1.73991 4.68125 12.3442 187 151 125 
1.92574 4.9691 12.3307 183 86 105 
1.94407 3.86591 12.1612 32 23 24 
2.04682 0.678339 11.1747 74 56 16 
2.08924 4.94921 11.203 89 48 26 
2.09868 4.96307 11.2377 83 47 21 
2.12162 0.149998 11.1847 73 59 0 
2.1245 0.954552 11.4575 160 140 27 
2.19456 0.138627 11.1777 93 83 34 
2.21222 -0.167565 11.4544 39 19 8 
2.2282 -0.0723173 11.5651 216 187 49 
2.25317 4.90112 11.324 68 66 77 
2.27314 0.317327 11.148 162 139 71 
2.34838 0.0289349 11.3034 244 221 17 
2.34571 0.162969 11.1251 132 120 60 
2.3628 -0.262371 11.4352 225 198 93 
2.37288 -0.267751 11.4246 165 144 29 
2.39119 -0.269884 11.4302 157 135 23 
2.39571 0.718839 11.0819 170 151 75 
2.43346 -0.261586 11.4137 214 189 88 
2.44659 -0.243182 11.4069 165 143 21 
2.45587 4.89161 11.5563 113 69 60 
2.46388 -0.28267 11.4133 223 200 86 
2.45823 0.635152 11.0992 93 83 47 
2.49074 -0.245406 11.3987 156 132 34 
2.49351 -0.274552 11.4158 158 134 36 
2.57184 4.64979 13.1833 172 159 142 
2.50569 -0.26061 11.4017 235 206 128 
2.51187 -0.245449 11.3981 148 122 12 
2.5314 -0.275984 11.397 159 128 12 
2.53145 -0.244576 11.3911 152 122 0 
2.52749 0.495057 11.0934 46 30 14 
2.55965 0.984009 11.3715 41 28 0 
2.61791 0.980933 11.3712 25 16 0 
2.70305 4.8894 11.611 232 213 173 
2.81768 4.63205 13.3391 183 168 147 
2.85819 -1.2463 12.7064 47 36 32 
2.90405 -1.0958 12.7147 50 48 49 
2.91847 -0.731802 12.6289 214 199 176 
2.92543 -1.11143 12.7319 172 168 165 
2.92576 -0.948303 12.6907 42 39 32 
2.8453 0.928368 11.4732 4 2 15 
2.96488 -0.762998 12.6847 62 64 63 
2.87641 0.191271 11.3296 227 179 53 
2.88008 0.14138 11.3717 15 2 0 
2.99477 -1.1069 12.7873 43 34 27 
3.00117 -0.907894 12.7497 127 125 128 
3.0046 -0.995291 12.7629 141 136 132 
3.00428 -0.813202 12.6127 28 28 28 
3.02444 -0.770445 12.7421 16 13 8 
3.04633 -0.779287 12.752 97 97 99 
3.1174 -1.33209 12.9716 214 207 191 
2.99695 4.8532 11.4374 101 69 20 
3.11658 -1.11049 12.8755 23 18 24 
3.05028 4.86451 11.5884 131 107 9 
3.17861 -0.865947 12.8872 75 73 76 
3.05421 0.586328 11.2329 151 67 0 
3.28663 -0.736979 13.0592 36 36 38 
3.21332 0.156714 11.5107 98 100 87 
3.40954 -0.596123 12.9529 6 7 12 
3.60933 4.89809 11.8875 191 85 107 
-1.12399 0.297579 10.0454 144 149 152 
-1.01637 0.10842 10.2284 135 136 131 
-0.944911 0.200915 10.2456 133 137 140 
-0.891163 -0.070261 10.4241 150 149 147 
-0.437787 -0.145658 10.8541 25 27 40 
0.420155 3.34176 11.5234 33 36 41 
0.432891 3.24108 11.5221 84 88 89 
0.433572 3.34879 11.535 136 135 141 
0.434281 3.30728 11.5339 38 41 48 
0.4399 3.0369 11.5125 85 32 52 
0.438307 3.0814 11.5223 85 30 51 
0.438375 3.12677 11.5251 94 41 61 
0.447178 3.42064 11.5422 47 49 64 
0.454113 3.0099 11.5409 148 118 130 
0.458549 3.10704 11.546 147 121 132 
0.468517 2.95408 11.5363 136 119 125 
0.469631 3.08062 11.5515 77 62 69 
0.472023 3.13192 11.5546 84 50 64 
0.474434 3.03052 11.5481 76 40 54 
0.479024 2.91372 11.5564 145 119 130 
0.477214 3.4318 11.5624 56 59 68 
0.485688 3.3001 11.5792 57 60 65 
0.511358 4.58099 11.4371 194 185 168 
0.50042 2.97333 11.5719 81 34 54 
0.49122 3.01397 11.6799 120 90 102 
0.513019 3.12949 11.5992 77 43 57 
0.520575 2.9246 11.5883 138 110 122 
0.519881 3.41911 11.5859 76 79 86 
0.527118 3.33134 11.6147 64 65 70 
0.536362 3.05868 11.6085 152 120 131 
0.537767 2.97496 11.6063 85 35 62 
0.540464 3.17828 11.6332 124 135 131 
0.546413 3.32327 11.6168 119 120 124 
0.55411 3.12776 11.6276 88 49 68 
0.561659 2.93288 11.6244 147 120 127 
0.582404 2.93384 11.6412 79 44 50 
0.592265 3.158 11.6571 82 48 65 
0.624839 2.93609 11.6853 91 43 57 
0.635833 3.05411 11.6941 100 57 76 
0.635667 3.31954 11.6907 83 86 93 
0.641557 3.40411 11.6813 39 42 51 
0.664005 3.22193 11.6952 83 85 82 
0.666031 3.00808 11.6897 124 130 130 
0.675811 3.35338 11.6953 132 136 139 
0.708441 3.10035 11.7501 149 117 132 
0.709104 3.06589 11.7524 156 111 131 
0.716369 2.94878 11.7553 146 108 121 
0.738933 3.22339 11.76 82 84 81 
0.742452 3.01117 11.782 134 134 134 
0.768253 3.34314 11.7496 133 137 138 
0.76799 3.39994 11.7701 133 137 138 
0.782219 3.28745 11.7913 46 46 56 
0.785106 2.88892 11.8099 94 45 64 
0.785219 3.22327 11.8035 84 86 83 
0.790399 2.95693 11.8097 92 45 63 
0.793732 3.39091 11.7738 100 104 105 
0.805178 2.92296 11.8173 130 128 129 
0.818024 3.38059 11.7951 129 133 134 
0.833036 4.2091 11.6598 156 71 100 
0.822461 3.02491 11.8383 148 136 140 
0.826057 3.30887 11.8084 46 50 51 
0.839864 3.39584 11.7821 115 117 116 
0.835744 3.10153 11.8478 144 129 134 
0.842655 3.31784 11.8208 55 57 56 
0.855183 3.31173 11.8324 132 134 133 
0.854068 3.0202 11.8697 90 48 62 
0.855746 3.03758 11.858 98 32 59 
0.880941 4.31529 11.7156 47 30 40 
0.875482 3.40037 11.8282 108 110 109 
0.883523 3.07159 11.8699 146 131 136 
0.894409 3.30133 11.8555 63 65 64 
0.9027 3.42548 11.8419 43 44 46 
0.90474 3.40194 11.844 62 66 69 
0.913172 3.04629 11.9068 75 31 44 
0.926967 3.29884 11.8639 121 123 122 
0.938172 3.35382 11.8838 133 137 136 
0.958516 3.05953 11.8767 99 42 59 
0.965362 3.09878 11.9204 83 29 43 
0.986279 3.33574 11.896 132 136 135 
0.970679 3.38002 12.0472 132 136 135 
1.00399 3.38785 11.8984 66 70 71 
1.00464 3.29105 11.9067 117 122 125 
1.00639 3.02868 11.9567 103 35 56 
1.02157 3.38795 11.9084 37 41 42 
1.03331 3.39363 11.916 128 132 133 
1.0312 3.03002 11.9664 92 60 61 
1.03476 3.00609 11.9774 143 130 124 
1.03774 3.06568 11.9693 142 131 125 
1.17537 4.9247 10.4303 211 203 201 
1.04569 3.40103 11.9217 60 64 65 
1.04831 3.26461 11.9356 133 135 132 
1.06068 2.99484 11.9925 65 45 47 
1.06692 3.09799 11.9826 71 35 47 
1.12845 3.93157 11.918 17 23 55 
1.15816 4.19248 11.9142 41 21 48 
1.16018 3.09647 12.1076 68 42 51 
1.17992 3.05797 12.1384 130 110 121 
1.19422 4.30329 11.9249 68 19 51 
1.21001 4.39721 11.9138 112 49 78 
1.23484 3.06152 12.2296 79 39 48 
1.24729 3.03879 12.2162 142 109 116 
1.27142 3.08671 12.2477 66 33 40 
1.40412 3.62613 12.2856 52 19 40 
1.45437 2.81263 12.4548 104 109 103 
1.56432 -0.0790613 10.6128 26 6 0 
1.99058 4.98556 10.7991 164 138 115 
2.0522 4.96493 10.816 124 33 30 
2.06505 4.99922 10.8177 115 54 49 
2.09643 5.03903 10.8281 111 100 82 
2.11395 4.95743 10.8281 120 136 47 
2.12701 4.97826 10.8335 151 171 72 
2.12769 4.94339 10.8393 193 201 115 
2.17523 3.20773 12.9973 187 167 143 
2.18274 4.99182 10.8441 161 131 121 
2.3032 4.94166 10.8974 213 219 95 
2.50333 4.96275 10.9452 238 212 189 
2.73192 2.30111 13.4882 159 147 121 
2.702 4.88749 11.6115 232 213 173 
2.85156 2.3322 13.4257 48 37 51 
2.99775 -1.10775 12.816 43 34 27 
3.00765 -0.992359 12.7766 141 136 132 
3.03637 -1.01093 12.8317 144 134 133 
3.18107 -1.29694 13.0019 86 77 82 
3.18218 -0.863709 12.9088 75 73 76 
3.2437 -1.34953 13.0054 210 198 176 
3.28895 -0.737294 13.07 36 36 38 
3.29609 -0.741309 13.0909 37 37 39 
3.31792 -0.735389 13.0006 200 193 167 
3.61077 4.90288 11.8969 191 85 107 
-1.12987 0.309843 10.1443 81 70 52 
-1.11672 0.293354 10.1658 127 127 125 
-1.00835 0.102661 10.3458 121 113 110 
-1.01913 -0.336925 10.5301 82 94 106 
-0.937018 0.195289 10.358 117 119 108 
-0.882774 -0.0769522 10.5282 124 125 111 
-0.688495 4.19539 10.282 160 148 126 
-0.730665 -0.528217 10.8488 151 152 146 
-0.71948 -0.537203 10.8443 31 33 30 
-0.655422 4.13776 10.2126 71 60 58 
-0.696816 -0.491681 10.8799 28 26 27 
-0.694414 -0.512688 10.8726 131 130 126 
-0.673492 -0.563593 10.9121 140 136 135 
-0.525074 4.51189 8.97027 121 117 114 
-0.647277 -0.538521 10.9167 149 144 138 
-0.428578 -0.148884 10.9257 26 17 18 
-0.0777066 4.44581 9.83995 174 140 105 
-0.0533572 0.40513 9.61898 30 15 0 
-0.0173684 4.40429 9.94107 178 140 104 
0.0302216 4.50452 9.92097 202 161 109 
0.0360953 4.40551 10.015 132 92 57 
0.0922566 4.48917 8.51518 110 111 115 
0.122191 4.98849 8.5662 96 97 102 
0.233853 -1.24027 11.6164 106 91 52 
0.259858 -1.28674 11.6553 51 36 17 
0.271045 4.55187 10.5011 122 114 111 
0.393499 2.9915 11.4943 118 116 104 
0.422643 3.34403 11.5444 45 42 37 
0.435823 3.30846 11.5483 32 31 26 
0.44093 3.12956 11.5408 85 30 49 
0.453139 3.31092 11.5523 118 119 113 
0.460771 3.1093 11.5613 149 104 111 
0.379329 4.15154 8.61783 42 28 19 
0.477217 3.13658 11.5886 68 36 39 
0.477252 3.4309 11.5659 64 66 55 
0.494873 3.01625 11.6963 123 87 91 
0.515339 3.13202 11.6146 64 30 31 
0.520806 3.41944 11.5976 68 64 61 
0.527208 3.33062 11.6216 64 63 59 
0.53423 3.12812 11.613 132 96 100 
0.539733 3.17736 11.6319 128 120 109 
0.540258 3.23697 11.6225 72 70 58 
0.568047 3.09464 11.6462 133 109 105 
0.571684 3.59119 11.6496 125 121 110 
0.493413 2.72254 9.24283 101 102 97 
0.593971 3.15983 11.6658 65 28 36 
0.613892 3.42517 11.7113 65 66 61 
0.636731 3.05422 11.7049 81 35 45 
0.651108 2.90243 11.7269 77 36 42 
0.656988 3.38721 11.671 45 44 40 
0.678029 3.35485 11.7133 125 123 111 
0.680192 2.98427 11.7554 130 113 103 
0.693273 3.41701 11.7124 61 62 57 
0.696523 3.31498 11.7287 97 97 97 
0.710921 3.06741 11.7666 140 88 101 
0.737107 3.22164 11.7554 75 76 68 
0.775108 3.34825 11.7917 125 122 113 
0.784726 3.22214 11.8061 82 79 70 
0.793973 2.96044 11.8288 93 50 60 
0.79518 3.39144 11.7874 94 93 88 
0.807754 2.89502 11.8534 81 49 50 
0.805521 3.41716 11.7882 121 121 111 
0.815878 3.10219 11.8432 84 49 55 
0.827258 3.30928 11.8169 56 57 51 
0.822056 4.19509 11.6104 143 66 86 
0.859778 3.35419 11.8425 124 120 109 
0.878658 3.03975 11.8856 78 50 49 
0.886451 3.07297 11.8913 132 114 110 
0.876847 4.30833 11.6964 58 26 39 
0.893666 3.30031 11.8538 68 68 66 
0.900073 3.42245 11.8276 66 63 56 
0.910567 3.40569 11.874 71 71 69 
0.91461 3.37356 11.855 117 117 115 
0.927206 3.29803 11.8673 110 107 100 
0.933809 3.34898 11.8689 131 128 113 
0.939515 3.38976 11.8484 48 45 36 
0.952784 3.30137 11.8841 61 60 58 
0.966572 3.6952 11.8284 19 18 34 
0.991058 3.33862 11.9187 124 127 110 
0.999976 3.3833 11.884 64 64 64 
1.00716 3.02918 11.9608 96 33 50 
1.00998 3.29343 11.9438 113 114 109 
1.0161 3.29286 11.9207 58 58 56 
1.00589 4.88344 11.6962 152 112 104 
1.03229 3.03063 11.9746 78 52 51 
1.03579 3.00694 11.9812 130 117 109 
1.03288 3.39293 11.9123 122 122 114 
1.03963 3.06693 11.9813 130 120 111 
1.04504 3.26132 11.9259 124 121 112 
0.868495 5.05389 9.51044 209 187 164 
1.04268 4.89487 11.7531 91 57 55 
1.04338 4.31395 11.777 66 45 62 
1.07067 3.10034 12.0038 59 31 30 
1.06793 4.24201 11.7698 96 91 114 
1.09501 3.04812 12.0394 64 28 32 
1.1133 3.09556 12.0367 64 28 28 
1.16117 3.09741 12.1146 70 45 40 
1.15112 4.63943 11.855 192 148 113 
1.20591 3.10089 12.1808 54 30 30 
1.18852 4.29479 11.9045 63 14 33 
1.23521 3.06058 12.2307 79 37 41 
1.21236 4.39841 11.9234 102 43 63 
1.22319 4.47304 11.9261 128 67 72 
1.22878 4.10338 11.9497 40 3 34 
1.25724 3.02209 12.2395 68 39 41 
1.25494 3.07803 12.1661 71 39 44 
1.01866 5.12443 9.40985 222 199 165 
1.32546 3.62267 12.196 29 18 24 
1.18089 4.93137 10.4511 195 183 161 
1.39986 3.62068 12.2694 46 9 17 
1.45602 2.81344 12.4672 104 100 89 
1.28546 -1.12612 10.7059 228 190 145 
1.4817 3.59909 12.3136 111 103 92 
1.3008 4.93426 10.4096 161 157 158 
1.29154 4.98806 10.2857 102 103 134 
1.50345 4.93432 12.0755 80 45 51 
1.31852 5.02685 10.3086 36 39 80 
1.37648 -0.705414 10.652 105 57 55 
1.41416 -1.70915 10.9795 242 201 171 
1.56698 4.84488 12.1496 131 76 81 
1.64253 4.26647 12.3587 122 50 62 
1.65202 4.92236 12.1958 57 27 35 
1.45981 -0.0998345 10.6632 100 80 9 
1.73301 4.67108 12.3252 179 137 113 
1.52964 -0.0790821 10.6882 193 158 76 
1.76921 4.66246 12.3766 77 63 54 
1.58862 0.490371 10.7371 26 12 0 
1.59134 0.524585 10.7355 23 11 0 
1.63059 -0.107924 10.7178 31 14 0 
1.6552 -0.234639 10.7825 14 0 0 
1.65729 -0.249672 10.7757 114 99 70 
1.72162 -0.861907 10.8212 117 57 59 
1.73639 4.92686 10.7744 90 85 79 
1.80979 -0.122265 10.9085 47 30 4 
1.9262 5.04831 10.8152 151 135 109 
1.95265 4.9369 10.8657 216 189 159 
2.02408 0.290333 11.2501 188 156 33 
1.99606 5.04489 10.8359 171 145 110 
1.99443 4.9895 10.8057 148 122 87 
2.03127 5.0058 10.8212 118 45 39 
2.10373 0.186347 11.302 110 89 22 
2.09208 0.378923 11.1967 179 147 26 
2.07853 5.00103 10.8223 122 98 70 
2.12424 4.91195 10.9249 123 112 30 
2.18334 4.90252 11.1838 198 164 31 
2.12997 4.94533 10.8441 204 198 110 
2.13122 4.98229 10.8447 139 146 50 
2.56637 2.73212 13.3204 118 101 83 
2.15997 4.96341 10.859 180 168 128 
2.17532 4.96276 10.8461 44 20 20 
2.18508 4.99384 10.8523 161 135 118 
2.25007 0.11663 11.2796 117 96 39 
2.20947 4.96146 10.8766 217 110 92 
2.66515 2.50798 13.3787 29 14 37 
2.26882 4.90257 11.164 220 182 39 
2.25331 4.90669 10.9324 96 82 7 
2.72603 2.29925 13.4724 150 126 100 
2.26298 4.95346 10.8856 235 174 145 
2.76999 2.13372 13.5668 153 130 98 
2.28323 4.94287 10.8842 110 63 33 
2.38818 -0.242737 11.4922 145 110 10 
2.39852 -0.260143 11.5411 151 120 27 
2.40546 -0.255515 11.5137 208 177 84 
2.19254 5.10895 10.251 160 112 76 
2.80141 4.61964 13.3018 176 152 126 
2.35638 5.07518 10.9337 114 75 34 
2.8806 2.07666 13.5524 75 62 56 
2.37678 4.98106 10.9142 139 55 44 
2.40762 4.97304 10.931 106 47 33 
2.51372 -0.204796 11.4619 168 132 12 
2.43034 4.98274 10.9315 183 136 120 
2.52493 -0.25939 11.4706 205 177 78 
2.52941 -0.246496 11.4561 141 112 12 
2.54243 -0.26332 11.4687 136 105 14 
2.46382 4.99839 10.9388 31 16 21 
2.81187 -1.25749 12.6937 212 189 158 
2.50539 4.96489 10.9467 224 201 160 
2.6796 4.83193 11.6617 105 69 33 
2.69818 4.88339 11.6016 222 194 154 
2.58951 0.4959 11.1702 178 146 27 
2.61479 0.286149 11.1819 171 132 11 
2.63699 5.07242 11.1222 198 158 88 
2.97411 -0.908596 12.7631 43 41 46 
2.97226 -0.76358 12.7275 79 69 68 
2.99858 -1.10854 12.8218 41 31 21 
3.02054 -1.22091 12.8649 166 150 127 
3.01326 -0.993104 12.796 128 116 104 
2.81903 4.84464 11.7054 61 71 47 
3.0557 -0.782519 12.793 91 87 75 
3.07697 -1.04947 12.8767 21 15 19 
3.07589 -1.2388 12.8359 152 135 119 
3.10543 -0.794678 12.8256 16 11 5 
2.83649 0.890743 11.5584 123 107 56 
3.16207 -1.39368 13.0015 91 81 69 
3.1697 -1.15841 12.9772 130 116 107 
2.77657 5.07127 11.1003 206 173 104 
2.84991 4.84311 11.3955 209 179 33 
3.18844 -0.863895 12.9266 77 68 71 
3.21595 -1.38577 13.0565 101 86 65 
3.24752 -1.35557 13.0242 204 181 150 
2.83579 1.04694 11.2269 92 84 73 
2.88328 0.165634 11.3933 55 14 0 
3.25961 -0.718598 12.9832 46 46 36 
2.90141 0.195783 11.405 223 159 33 
3.32602 -0.749461 13.1702 44 36 25 
3.32818 -0.738682 13.0332 213 193 169 
2.92696 5.03837 11.1283 118 98 65 
3.34238 -1.18722 12.8484 79 72 62 
3.15542 4.83864 11.7489 112 41 47 
3.09205 0.217084 11.503 74 69 49 
3.4929 -0.674215 12.99 17 13 14 
3.13499 5.01139 11.351 231 175 16 
3.56859 -0.561575 12.9701 219 193 160 
3.379 4.7501 12.1093 129 108 91 
3.25653 5.01676 11.4935 156 121 83 
3.6073 4.90004 11.8932 177 77 87 
3.68087 4.99733 11.635 184 141 86 
3.69347 4.94829 11.6705 141 56 27 
3.99883 1.60263 12.5035 12 18 8 
3.79874 4.92005 11.7041 182 143 84 
3.78628 4.99714 11.5491 167 120 74 
3.66899 0.994717 11.1353 67 68 52 
3.85339 4.88605 11.5977 190 155 91 
-1.95339 1.22267 9.40003 60 90 116 
-1.43551 0.751407 9.06421 19 17 22 
-0.929745 0.18963 10.4197 116 112 103 
-0.811592 4.40081 10.0882 141 128 109 
-0.700805 4.32008 10.2543 97 76 73 
-0.693223 4.18843 10.2626 169 146 114 
-0.68981 4.11143 10.1737 158 139 122 
-0.677824 4.36641 10.2754 200 183 167 
-0.72298 -0.533904 10.8868 156 151 145 
-0.665017 4.11641 10.1406 74 56 52 
-0.714066 -0.537264 10.848 30 26 17 
-0.652081 4.16782 10.163 175 151 125 
-0.686861 -0.500097 10.9394 33 30 23 
-0.634751 4.12783 10.1033 101 83 71 
-0.68532 -0.523586 10.9403 126 122 111 
-0.632543 4.41797 10.0339 68 51 41 
-0.627078 4.1695 10.1176 102 85 75 
-0.665211 -0.569237 10.9518 141 137 126 
-0.652058 -0.56957 10.9623 28 24 13 
-0.647673 -0.500883 10.9335 161 142 125 
-0.635422 -0.267342 10.8752 40 37 30 
-0.634329 -0.2833 10.8803 28 25 18 
-0.631246 -0.53495 10.9897 146 131 110 
-0.571329 -0.591008 11.0663 47 39 37 
-0.511312 -0.550593 11.0885 35 26 17 
-0.475101 -0.363259 11.0279 55 44 48 
-0.44326 -0.0808518 10.9502 89 91 90 
-0.427045 -0.131131 10.9838 129 124 105 
-0.420077 -0.154986 10.9755 21 11 9 
-0.414424 -0.0298403 10.9505 110 110 110 
-0.373126 4.39532 10.4137 127 105 81 
-0.449838 4.38479 8.80638 159 149 139 
-0.386269 5.02357 8.77358 33 30 39 
-0.406979 4.89253 7.91913 161 136 114 
-0.317888 4.77268 8.92385 31 29 16 
-0.241213 5.10055 8.4526 64 60 57 
-0.108032 4.4207 10.1492 76 61 38 
-0.164182 5.0434 8.97212 169 143 110 
-0.0853146 4.43366 9.80488 184 143 99 
-0.0628103 4.41902 9.80917 100 56 27 
-0.0469862 4.45833 9.85807 93 54 37 
-0.0378462 4.63454 9.77578 193 154 121 
-0.0286699 4.38502 9.88246 175 130 91 
-0.023932 4.48043 9.86401 174 128 104 
-0.019371 4.49575 9.85752 184 140 101 
-0.00270226 4.49067 9.8875 146 97 64 
0.011653 4.40852 9.92416 195 148 106 
0.0185935 4.37478 9.91593 131 82 50 
0.0166006 4.48015 9.84539 206 156 105 
-0.0432863 0.904139 9.39909 30 10 0 
0.0359923 5.19097 9.39941 145 111 76 
0.12502 4.68618 10.1951 116 78 41 
0.158499 4.65201 10.2691 119 82 40 
0.189142 4.5377 10.3586 97 83 72 
0.247924 -1.25124 11.6721 108 85 44 
0.223217 4.5066 10.4277 46 35 29 
0.300254 -1.28003 11.7279 126 99 56 
0.261738 4.53821 10.4626 132 129 122 
0.269598 4.57373 10.4473 18 20 15 
0.401368 3.10326 11.6312 120 113 95 
0.396499 2.99366 11.5061 116 106 94 
0.297427 4.52971 10.4474 29 21 18 
0.419324 3.52842 11.5074 41 32 25 
0.42003 3.34086 11.5189 50 47 32 
0.436161 3.24442 11.5444 81 77 65 
0.434988 3.30706 11.5347 31 27 18 
0.436648 3.32671 11.5396 56 52 43 
0.441327 3.41333 11.5117 58 55 50 
0.44469 3.0869 11.5568 82 22 34 
0.447705 3.04388 11.5583 81 32 36 
0.462469 3.01685 11.5856 132 98 96 
0.470134 3.08173 11.5525 69 40 32 
0.477679 3.13698 11.5874 68 34 33 
0.481141 2.96549 11.6048 128 95 90 
0.48135 3.0371 11.5877 67 34 29 
0.494807 3.01518 11.6989 70 39 36 
0.486033 3.30041 11.5797 54 51 42 
0.493084 2.95089 11.6322 71 42 38 
0.491302 2.92372 11.6209 131 97 96 
0.492243 3.42856 11.5647 119 112 104 
0.501792 2.89233 11.6162 69 27 31 
0.513898 3.11546 11.6921 131 113 103 
0.510172 2.98142 11.6264 78 29 32 
0.525992 3.14067 11.6698 58 29 23 
0.52505 3.07073 11.6456 67 32 28 
0.524917 3.28081 11.6089 121 111 102 
0.522677 2.96465 11.6128 109 62 70 
0.524899 3.32747 11.5965 61 58 53 
0.533518 2.93467 11.6645 121 81 82 
0.529961 3.12404 11.5774 139 112 105 
0.541625 3.06305 11.6383 144 107 101 
0.546287 3.18215 11.6607 119 113 99 
0.560525 3.1335 11.6621 76 41 39 
0.556061 3.57486 11.5661 123 114 99 
0.567085 3.09355 11.6324 130 103 96 
0.573391 3.15118 11.6555 133 113 104 
0.576073 3.10075 11.6345 130 99 94 
0.585087 2.96838 11.7005 121 105 90 
0.586916 2.93771 11.6628 68 39 33 
0.595104 3.16026 11.6645 72 37 41 
0.639401 2.94769 11.7611 85 35 38 
0.641081 3.05704 11.7192 69 29 27 
0.629532 4.51746 11.4609 117 82 88 
0.661044 3.13092 11.8029 65 29 29 
0.662153 2.96806 11.7304 67 32 28 
0.673852 3.23022 11.7424 82 73 66 
0.673546 3.01432 11.7331 123 109 96 
0.678635 3.1707 11.7657 120 112 99 
0.689686 2.99044 11.7921 125 108 98 
0.694872 3.08734 11.7464 75 26 32 
0.715067 2.97931 11.8245 76 36 36 
0.717836 3.07232 11.7936 132 85 93 
0.737992 3.12512 11.8225 82 47 45 
0.74885 3.01554 11.8193 121 108 99 
0.770471 3.08065 11.9074 137 107 107 
0.760893 2.88524 11.8371 139 115 105 
0.783597 2.96016 11.9142 139 98 96 
0.777471 3.34934 11.794 126 114 102 
0.785679 3.22262 11.8057 87 79 66 
0.780927 3.40798 11.7564 42 35 27 
0.802565 2.90178 11.897 92 32 42 
0.795655 3.39107 11.7795 95 90 87 
0.804871 3.41583 11.7793 117 110 104 
0.820646 2.90328 11.914 75 42 37 
0.832011 3.03231 11.8841 125 108 98 
0.82366 3.30639 11.799 56 56 46 
0.832479 3.39714 11.7889 115 110 104 
0.847827 3.40174 11.8168 57 55 43 
0.872354 3.03372 11.9577 78 42 42 
0.863181 3.31704 11.8729 106 104 92 
0.856026 3.35051 11.8185 128 119 102 
0.871742 3.04877 11.9354 94 39 45 
0.877778 3.40072 11.8364 95 95 87 
0.862134 4.29043 11.6294 56 21 41 
0.893344 3.07748 11.9175 136 117 110 
0.893858 3.30019 11.852 60 58 45 
0.893762 3.41638 11.7935 45 38 28 
0.926312 3.2966 11.8588 109 105 94 
0.948968 3.06266 11.9684 133 88 95 
0.954248 3.302 11.8854 67 63 54 
0.979231 3.02327 11.9689 129 106 98 
0.95823 3.68662 11.7851 28 32 35 
0.954676 4.04737 11.6568 35 21 34 
0.986138 3.33402 11.893 126 119 101 
0.456309 5.15282 8.47277 15 14 28 
0.998948 3.38215 11.8776 65 64 59 
0.67599 -1.37325 10.2697 152 107 68 
1.01927 3.29964 11.9775 117 110 102 
1.0234 3.29809 11.9486 67 60 54 
0.997615 4.87187 11.6608 139 102 84 
1.04451 3.03801 12.0247 70 41 35 
1.04578 3.01253 12.0233 129 109 100 
1.03432 3.39315 11.9154 111 112 104 
1.05253 3.07499 12.0355 124 102 91 
1.03203 3.56961 11.8537 123 115 102 
1.04626 3.26184 11.9235 120 110 98 
1.07334 3.00243 12.0458 69 44 39 
1.08312 3.1082 12.0566 55 24 19 
1.09311 3.0958 12.0458 116 81 79 
1.05412 4.2264 11.7066 97 89 100 
1.12892 3.03726 12.1314 65 32 27 
1.12032 3.10018 12.0667 63 32 29 
1.17211 3.10406 12.1545 80 53 46 
1.19716 3.0689 12.2134 126 91 89 
1.1533 4.87294 11.8095 101 59 43 
1.20974 3.0602 12.1945 67 23 22 
1.17715 4.28117 11.8515 65 13 36 
1.24063 3.06255 12.253 84 38 40 
1.19217 4.376 11.8368 100 44 53 
1.01997 -2.14393 11.3029 170 138 113 
1.27065 3.02931 12.2912 74 39 37 
1.22328 4.09801 11.9263 41 5 31 
1.26208 3.08171 12.1942 65 41 31 
1.21717 4.82891 11.7914 97 60 44 
1.25601 4.62613 11.9023 181 138 104 
0.814619 5.16381 9.36459 14 14 14 
0.86011 -0.839936 9.9542 255 250 237 
0.901071 5.10797 9.66781 206 177 159 
1.35806 3.58496 12.2016 115 107 96 
1.06891 -1.81593 10.91 57 98 94 
1.47419 2.82262 12.5389 98 95 80 
0.951986 -0.437922 9.91518 50 32 0 
1.47917 3.59711 12.305 110 103 87 
0.969077 0.00062292 9.89386 137 119 99 
0.962993 -0.515097 9.89192 27 10 3 
1.16044 -1.88587 10.9108 230 193 148 
1.01352 0.0413293 9.98222 137 116 97 
1.16877 4.91687 10.4103 194 180 167 
1.49579 4.92407 12.0421 77 45 50 
1.50843 4.88694 12.0831 64 25 28 
1.22875 4.90646 10.5032 70 56 43 
0.994279 5.09246 9.3314 225 193 152 
1.56177 4.83808 12.1297 128 69 73 
1.07469 -0.0440472 9.99241 36 7 0 
1.01532 5.10867 9.29713 168 149 132 
1.59428 4.91752 12.094 49 7 17 
1.03427 5.11129 9.31604 57 41 26 
1.64607 4.91439 12.1692 52 24 36 
1.65491 4.93266 12.1561 51 7 22 
1.27683 4.97104 10.2392 97 90 123 
1.73146 4.66886 12.3109 169 123 89 
1.38385 4.92407 10.6029 153 137 114 
1.32526 -0.729248 10.5965 219 184 144 
1.77636 4.66794 12.3958 82 71 49 
1.41192 4.89924 10.5669 155 141 132 
1.87222 4.55082 12.4967 180 149 105 
1.39774 4.96325 10.2279 109 110 131 
1.4556 -0.0738454 10.7224 167 143 99 
1.49029 4.93116 10.417 54 49 69 
1.49067 0.76774 10.5314 17 11 13 
2.09095 -2.94463 13.2147 99 78 59 
2.08287 -3.14039 13.1138 109 82 55 
2.11174 -3.18109 13.2302 109 82 55 
1.57334 -0.0794752 10.762 40 11 0 
1.60854 0.52052 10.8474 107 92 63 
1.60095 0.522856 10.7662 32 8 0 
1.62941 0.258108 10.8589 24 8 8 
2.20774 3.22103 13.1113 176 149 104 
1.62393 -0.00870223 10.7983 171 142 110 
1.62705 -0.0158504 10.7655 51 20 0 
1.60281 5.05785 10.4199 53 27 62 
1.62623 -1.01846 10.7474 162 129 84 
2.25932 -3.14062 13.3436 187 164 122 
1.72815 4.92008 10.7547 175 161 152 
1.66636 -0.791043 10.7625 240 203 151 
1.6838 -0.16831 10.7967 32 9 0 
0.961688 0.0274112 7.82567 176 150 133 
2.2622 -3.17995 13.292 193 157 107 
1.67705 -0.974033 10.7556 235 201 156 
1.69345 -0.166904 10.7853 120 93 74 
2.30659 -3.14161 13.3897 107 84 66 
1.68899 -0.00465086 10.7285 42 25 15 
1.73424 -0.168725 10.8984 37 11 0 
1.75762 0.478342 10.9597 102 71 50 
1.66374 5.07502 10.3373 209 100 93 
1.73872 -0.143083 10.8744 35 7 0 
1.7465 -1.24181 10.9361 234 204 142 
1.74933 -0.251926 10.8184 134 111 80 
1.79746 -0.317054 10.9249 33 14 0 
1.86539 4.90305 10.8205 25 11 8 
1.83444 -0.801963 10.915 232 194 155 
1.89283 4.94659 10.825 47 36 16 
1.87568 -0.810365 10.964 125 101 75 
1.96655 0.561033 11.2396 84 61 19 
2.02568 0.306605 11.4075 71 42 8 
1.91223 5.03443 10.7723 156 132 98 
2.41154 -3.27085 13.0244 16 10 12 
2.60791 2.74479 13.4595 119 96 78 
1.9529 4.93755 10.8668 255 228 182 
2.04541 0.702676 11.389 123 96 25 
2.08343 0.417132 11.4116 238 214 166 
2.07633 0.699955 11.3718 72 46 11 
2.06786 0.266632 11.3497 197 160 45 
1.99279 5.04232 10.8276 178 147 118 
1.96775 4.96238 10.7235 143 109 74 
2.09179 0.711795 11.3502 121 97 59 
2.14549 0.449824 11.5525 131 101 75 
2.10888 0.101905 11.3978 148 106 4 
1.99888 5.09209 10.7741 137 107 81 
2.00714 5.00386 10.8075 204 159 136 
2.02254 4.89937 10.8589 119 42 14 
2.11818 0.182546 11.3454 112 87 20 
2.02479 4.99968 10.8033 104 22 10 
2.08394 0.381075 11.1724 170 138 29 
2.09635 0.376629 11.2155 182 147 29 
2.79015 2.31265 13.6753 151 122 90 
2.05676 4.8957 10.8398 114 70 0 
2.82578 2.14524 13.7355 153 125 86 
2.88035 1.48329 13.9111 128 110 88 
2.07183 5.01434 10.8112 66 39 12 
2.16967 4.88932 11.1474 197 155 19 
2.10124 5.04438 10.8432 107 95 69 
2.09704 4.9885 10.7982 60 49 0 
2.80083 4.61777 13.2886 178 149 115 
2.11997 4.97201 10.8151 147 143 54 
2.14679 4.91891 10.8792 255 235 164 
2.93672 2.1911 13.8037 79 60 46 
2.1517 4.89365 10.8762 162 153 36 
2.21807 4.90881 11.1042 162 119 0 
2.22972 0.135612 11.2977 98 75 21 
2.14477 5.02041 10.8111 147 128 98 
2.15321 4.95758 10.8425 186 173 129 
2.95336 2.08669 13.7869 72 60 48 
2.88748 2.33889 13.5356 50 36 51 
2.24425 4.91442 11.1159 221 187 53 
2.16556 5.00605 10.8291 42 14 0 
2.16537 4.95392 10.8217 43 14 0 
2.17417 5.08798 10.845 141 113 102 
2.18635 5.06508 10.8664 65 25 13 
2.71122 4.74015 12.7309 44 36 33 
2.17215 4.98265 10.8194 167 135 114 
2.27093 0.108342 11.3458 164 138 77 
2.21029 4.90029 10.9258 152 136 25 
2.90906 2.98885 13.413 75 60 67 
2.32649 4.86887 11.2871 205 172 33 
2.3113 4.88106 11.2226 97 94 59 
2.98191 2.2928 13.603 17 1 11 
3.01211 1.86388 13.6885 119 102 92 
3.09787 2.18859 13.9626 160 125 95 
3.07904 2.14645 13.8016 171 140 109 
2.41943 -0.268704 11.6014 147 108 3 
3.02883 1.87062 13.6088 24 8 18 
3.10101 2.13639 13.7953 61 43 23 
3.07609 2.00026 13.7003 54 40 13 
2.29192 5.07548 10.8455 200 149 102 
3.08721 2.19807 13.6544 35 21 20 
2.38819 0.159615 11.2621 107 86 19 
3.07759 2.21911 13.5232 132 122 113 
2.84242 -1.2755 12.786 220 184 148 
2.12261 5.04122 10.0619 152 72 45 
2.39983 4.96687 10.9131 104 43 24 
3.23218 3.07641 13.7196 169 143 108 
2.41854 4.91084 10.9467 247 216 162 
2.54575 -0.267057 11.5307 214 178 66 
2.93718 -1.10827 12.8228 51 32 25 
2.34772 5.08216 10.6793 187 131 72 
2.93238 -1.22539 12.8099 71 55 39 
2.42447 4.97783 10.9174 179 131 117 
2.56499 -0.271253 11.5333 145 102 0 
2.42417 4.94694 10.898 78 22 9 
2.45112 4.9503 10.9661 183 119 92 
2.95749 -0.958597 12.7944 55 34 29 
3.0241 -2.20303 13.0364 84 76 63 
2.97041 -0.743117 12.7917 208 179 149 
2.67651 4.83047 11.6549 102 62 36 
2.45923 4.96446 10.9422 103 77 62 
2.48533 0.589232 11.1672 108 76 1 
2.45928 4.99518 10.9291 30 16 16 
2.98914 -1.12586 12.8498 167 144 130 
2.70452 4.83494 11.735 88 52 30 
2.44873 4.94468 10.8785 47 23 11 
2.50981 0.644489 11.1672 150 123 52 
3.0404 -1.00461 12.8715 127 111 98 
3.0468 -0.77694 12.8142 51 35 19 
3.10267 -1.11627 12.9791 153 132 111 
2.51409 5.08188 10.8932 77 45 34 
3.09875 -0.837613 12.9153 21 15 17 
3.12557 -1.18517 12.9878 161 135 112 
3.13491 -1.34152 13.0372 206 179 152 
2.57482 5.05578 11.0349 89 65 53 
2.77155 4.8447 11.6453 204 181 131 
3.15679 -1.12341 13.0011 25 7 3 
3.17576 -1.39898 13.0343 93 82 64 
2.81075 4.83896 11.6867 69 65 40 
2.63909 5.07408 11.1249 198 153 72 
2.6229 0.283624 11.2056 165 125 1 
3.21122 -1.31031 13.0854 86 68 56 
2.77186 4.86594 11.5179 38 43 37 
3.20374 -0.771912 12.9973 190 169 138 
3.21711 -1.38291 13.0504 93 73 38 
3.27779 -1.3706 13.1058 212 180 141 
2.74317 0.510874 11.3913 233 190 33 
3.29356 -0.733576 13.0778 46 39 29 
2.81759 4.85944 11.4057 117 85 8 
2.73888 5.06129 11.1321 95 78 62 
3.37246 -0.755193 13.1509 215 189 162 
2.85176 4.84542 11.4015 206 168 35 
2.99485 4.88383 11.6764 197 159 58 
2.91817 0.190403 11.4519 215 154 14 
2.93232 5.04151 11.2097 118 95 54 
3.52483 -0.684629 13.0679 11 7 6 
2.99058 0.197812 11.4526 15 12 7 
2.92863 5.03926 11.1336 127 103 57 
2.78872 5.04078 10.5824 41 38 23 
3.59663 -0.571225 13.0414 220 189 145 
3.05993 4.91308 11.3443 232 186 5 
3.3768 4.74877 12.1062 129 99 88 
3.07122 0.486932 11.3429 240 176 78 
3.12402 5.00305 11.3235 233 178 13 
3.2757 5.00515 11.5925 71 43 29 
3.4479 4.90431 12.0158 169 67 78 
3.45515 5.01114 11.6502 182 124 78 
3.6219 4.91016 11.9227 173 74 79 
3.86992 1.30358 12.6322 10 7 0 
3.35786 5.06236 11.1485 183 139 74 
3.56686 5.0136 11.5798 115 71 32 
3.92175 4.35934 12.5143 56 49 31 
3.93924 1.46398 12.4723 213 180 145 
4.02486 1.75277 12.6252 214 179 139 
3.99362 4.44727 12.4705 202 173 139 
3.68399 5.00043 11.6418 178 140 67 
3.98283 0.539788 12.1885 223 186 141 
3.77345 5.02354 11.493 94 53 35 
3.85754 4.88871 11.6056 185 135 72 
4.225 6.18573 12.4832 55 57 43 
4.11373 3.5641 12.1976 208 178 142 
4.04777 3.57456 12.0367 68 57 25 
4.12024 4.6128 12.1619 21 19 6 
4.12893 4.58582 12.125 44 37 18 
4.03697 0.301386 11.9607 225 192 161 
4.11777 4.50595 12.0949 207 177 143 
4.14858 4.60936 12.0921 200 185 162 
4.14516 4.56284 12.0709 20 16 5 
4.17784 4.61324 12.0668 19 13 13 
4.02934 -0.344903 11.7958 225 199 162 
4.20138 5.77319 12.0738 207 190 172 
4.12988 3.90759 11.9335 60 54 42 
4.11762 4.36764 11.8747 206 181 150 
4.14146 4.07225 11.9346 205 180 139 
4.16494 4.392 11.978 205 179 152 
3.92948 4.96223 11.2728 47 37 27 
4.09956 0.296933 11.7452 223 192 146 
4.18597 4.35592 11.886 21 20 16 
4.11775 6.13291 11.6531 199 175 147 
4.09208 6.04411 11.6022 36 35 33 
4.23123 4.56105 11.855 188 178 153 
4.29382 3.73303 11.97 210 180 146 
4.26127 4.62321 11.8678 178 169 152 
4.2416 0.813044 11.8801 10 16 2 
4.16925 4.57906 11.5981 22 18 15 
4.23685 4.52571 11.755 195 180 157 
4.13367 5.75849 11.4279 187 181 155 
4.29152 3.62279 11.7366 19 23 6 
4.05913 5.89749 11.1737 198 176 155 
4.46306 3.81475 11.9917 212 186 149 
4.39384 3.69295 11.8219 208 178 140 
4.32684 4.3571 11.5877 18 18 8 
4.28575 4.70499 11.4563 85 75 65 
4.1405 5.7 11.0682 27 34 16 
4.30894 4.68863 11.4287 203 177 144 
4.32372 5.04211 11.4127 104 97 87 
4.38087 4.61985 11.5032 204 180 142 
4.31214 4.92362 11.3377 205 175 147 
4.36853 5.18704 11.4217 203 186 166 
-1.42582 -0.402287 9.86463 99 107 126 
-1.40574 -0.28752 9.84432 26 33 51 
-1.29216 0.156271 9.72469 142 163 184 
-1.25522 0.332379 9.68876 149 161 175 
-1.30625 -0.00461999 9.82564 48 61 78 
-1.34578 -0.401469 9.96487 112 124 148 
-1.21786 0.233725 9.75017 178 186 188 
-1.24504 0.0406815 9.82748 48 69 98 
-1.29329 -0.251625 9.92239 110 125 146 
-1.33496 -0.504421 10.0089 47 60 76 
-1.33294 -0.478572 10.0083 115 127 139 
-1.26432 -0.0973816 9.88268 50 57 83 
-1.26028 -0.0802046 9.87746 153 165 189 
-1.20233 0.203851 9.77695 143 155 177 
-1.332 -0.520408 10.0167 93 108 129 
-1.22396 0.0365788 9.85379 173 178 182 
-1.23107 -0.0280603 9.87251 138 156 168 
-1.22962 -0.0512619 9.89219 57 73 98 
-1.2207 -0.0812472 9.89254 50 64 90 
-1.2239 -0.066041 9.91294 126 139 156 
-1.19083 0.0222746 9.8949 176 176 174 
-1.22654 -0.357645 10.0401 89 113 139 
-1.21399 -0.410143 10.0472 55 75 102 
-1.09618 0.311432 9.83951 178 154 118 
-1.19908 -0.284617 10.0401 95 122 143 
-1.21273 -0.480108 10.1236 140 157 165 
-1.06817 0.282369 9.87279 140 148 161 
-1.21516 -0.556902 10.1659 165 174 183 
-1.14304 -0.439878 10.1734 151 173 186 
-1.01908 0.102478 10.0218 147 166 183 
-0.952756 0.305012 9.97492 125 137 149 
-0.953983 0.225552 10.0267 133 141 152 
-0.968467 0.0959066 10.0697 140 140 150 
-0.943868 0.131299 10.0781 100 117 143 
-1.04199 -0.511264 10.3113 144 154 163 
-0.900626 0.188684 10.0959 132 139 149 
-0.895996 0.101883 10.1381 90 115 137 
-0.924628 -0.0961922 10.2264 92 106 132 
-0.886788 0.0749804 10.1728 82 106 130 
-0.176203 0.404207 8.90165 180 78 14 
-0.166587 0.438963 8.89329 175 83 0 
-0.852925 -0.118768 10.2639 34 60 83 
-0.905147 -0.37865 10.3894 93 110 136 
-0.851055 -0.0780983 10.2828 150 147 154 
-0.812185 0.117224 10.2154 69 95 120 
-0.170855 0.423576 8.9508 204 74 25 
-0.195123 0.357989 9.04564 228 183 22 
-0.822054 -0.0737865 10.3213 31 42 70 
-0.839598 -0.254656 10.3858 115 132 148 
-0.804401 -0.0948149 10.3296 89 103 129 
-3.48042 0.111536 15.6876 24 41 61 
-0.765978 -0.17765 10.4201 114 127 143 
-0.715392 -0.192505 10.4666 85 97 121 
-0.734972 -0.49508 10.6153 75 87 103 
-0.705843 -0.322399 10.5576 131 134 141 
-0.667397 -0.218278 10.5385 142 148 160 
-0.689993 -0.50439 10.6536 30 36 50 
-0.650282 -0.246118 10.5708 147 148 153 
-0.649408 -0.269526 10.5818 36 44 47 
-0.63966 -0.277621 10.5922 146 153 163 
-0.658755 -0.485666 10.6879 179 177 180 
-0.612318 -0.277475 10.6225 162 167 171 
-0.635605 -0.505752 10.7179 172 171 169 
-0.0381834 0.345472 9.42698 229 179 28 
-0.630969 -0.589652 10.7616 33 36 51 
-0.62296 -0.502782 10.7499 53 53 61 
-0.604363 -0.61434 10.7979 39 43 46 
-0.57973 -0.54833 10.8 28 32 43 
-0.580536 -0.593269 10.8098 197 199 198 
-0.444856 -0.0761685 10.6983 112 114 129 
-0.415576 -0.0232809 10.6927 112 119 135 
-0.4264 -0.125883 10.7288 156 161 157 
-0.410758 -0.0964431 10.7548 71 74 91 
-0.40805 -0.0644789 10.748 16 21 41 
-0.409895 -0.118523 10.7747 21 22 40 
-0.390031 0.0317705 10.7383 15 24 55 
0.229155 0.9088 9.78727 9 9 21 
0.250631 0.669431 9.99186 107 61 45 
0.0375601 4.29942 11.2196 219 206 189 
0.63712 -0.758891 9.78849 255 251 242 
0.678371 -1.24512 10.1033 57 29 17 
0.697001 -1.23536 10.119 127 91 65 
0.758205 -1.24899 10.1329 134 89 56 
0.769496 -1.25205 10.1726 104 58 35 
0.918226 -0.379294 9.71435 52 40 16 
0.942354 0.0215011 9.73453 157 138 98 
0.988902 -0.239601 9.72115 22 19 30 
0.416649 3.45093 11.5597 48 58 67 
0.437264 3.08237 11.5274 92 31 62 
0.436957 3.04143 11.5299 83 35 61 
0.438049 3.1278 11.5273 92 44 70 
0.433207 3.31062 11.5428 42 50 61 
0.99306 0.521558 9.78257 46 29 47 
0.452004 3.01271 11.5529 144 127 143 
0.439454 3.44111 11.5998 61 69 80 
0.459535 3.10463 11.5383 150 123 138 
0.471034 3.07746 11.541 82 59 77 
0.472803 3.03276 11.5571 86 53 70 
0.468082 3.13928 11.5803 90 55 79 
0.478812 2.9111 11.5526 133 128 135 
0.478308 2.94317 11.5758 83 56 71 
0.492139 2.92126 11.539 102 78 92 
0.484997 3.33163 11.5971 75 86 92 
0.500414 3.08561 11.5592 135 135 145 
0.50427 2.93983 11.5626 91 43 67 
0.49285 3.444 11.5924 133 143 145 
0.497041 2.97813 11.5921 96 48 74 
1.04979 -0.384852 9.82894 53 38 19 
0.514443 3.12734 11.5899 81 49 70 
0.513531 3.06466 11.6029 91 51 75 
0.516223 3.02102 11.6012 128 135 143 
0.519496 2.92484 11.5926 132 106 119 
0.51699 3.42583 11.6068 62 75 83 
1.05799 -0.354772 9.8629 115 102 86 
0.527853 3.33212 11.6136 62 71 80 
0.535633 2.97679 11.617 87 51 77 
0.538784 2.91764 11.6184 96 43 69 
0.539701 3.23892 11.6257 77 86 91 
0.536851 3.18711 11.6608 130 139 146 
0.551614 3.13121 11.6424 82 48 72 
0.547949 3.06917 11.6593 85 61 77 
0.559512 2.93485 11.6356 141 129 143 
0.571085 3.59405 11.6228 129 138 147 
0.574183 2.91163 11.651 92 46 74 
0.565146 3.33343 11.685 65 74 83 
0.581415 2.99758 11.6481 131 134 143 
0.575035 3.34711 11.6776 55 65 74 
0.58903 3.16487 11.6803 80 41 62 
0.593646 3.12402 11.6819 96 35 68 
1.1175 -0.200704 9.92328 52 41 19 
1.11647 -0.186662 9.93062 135 121 94 
1.11752 -0.302989 9.93899 16 7 2 
0.616225 3.41958 11.6741 70 80 89 
0.622222 2.93839 11.6991 92 49 76 
0.636825 3.3094 11.6974 51 61 71 
0.633157 3.06148 11.7173 88 46 68 
0.6296 3.33584 11.7405 97 107 117 
0.647615 3.39059 11.7018 121 129 140 
0.641739 3.42617 11.7254 100 110 119 
0.660087 3.40026 11.7065 53 63 73 
0.655511 3.02957 11.7688 125 136 138 
0.668088 3.3738 11.7586 132 140 151 
0.678524 2.93044 11.7431 139 114 135 
1.16964 -0.160263 10.0286 28 13 0 
0.682282 3.10431 11.7968 106 62 85 
0.693219 2.9708 11.7662 86 47 66 
0.705314 3.27214 11.7543 129 140 144 
0.707756 3.10052 11.7531 151 111 135 
1.11817 -0.943462 10.3301 80 64 49 
0.978402 -1.38632 10.8584 160 144 155 
0.726269 3.43305 11.7584 125 134 143 
0.728903 3.11366 11.7637 77 50 67 
0.731379 4.15981 11.8103 24 16 37 
0.738436 3.02049 11.8155 127 138 140 
0.744986 3.16768 11.8098 131 135 146 
0.76056 3.36395 11.8162 135 144 153 
0.780311 3.29336 11.8097 36 49 55 
0.783819 3.22923 11.82 81 92 94 
0.780765 2.89655 11.8418 101 42 72 
0.789572 3.40292 11.8115 93 102 107 
0.784234 2.96946 11.8584 87 42 65 
0.80743 3.42624 11.8111 126 135 142 
0.796836 3.05889 11.8659 87 45 65 
0.799648 2.93484 11.8633 133 130 137 
0.806613 3.11506 11.8704 82 49 66 
0.811026 3.28132 11.8621 132 136 145 
0.820029 3.32689 11.8652 59 66 72 
0.828837 3.08358 11.8756 143 128 135 
0.831101 3.42157 11.8625 97 102 108 
1.18308 -0.842222 10.5649 204 187 171 
0.851387 3.32289 11.8685 122 129 135 
1.20831 -0.81551 10.5853 77 43 44 
0.87027 3.02514 11.8977 137 124 134 
0.873807 3.04738 11.9088 86 55 70 
0.879097 3.08431 11.9135 136 138 135 
0.892124 3.31046 11.8819 63 66 71 
0.892308 3.28952 11.8963 65 74 81 
1.23211 -0.795688 10.6022 203 184 177 
0.883944 3.03195 11.9471 134 132 143 
0.899551 3.42226 11.9027 68 73 79 
0.907824 3.05623 11.9499 90 47 66 
0.922054 3.31833 11.9213 105 114 119 
0.931544 3.07998 11.9401 95 58 75 
0.951548 3.07722 11.9423 93 39 62 
0.947608 3.0472 11.9621 89 46 66 
0.988505 4.20943 11.8287 150 50 102 
0.961539 3.11103 11.9618 96 42 65 
0.978432 4.11938 11.8948 38 20 42 
1.14453 -2.68359 11.2806 73 61 61 
0.966685 3.02231 11.9689 130 131 135 
1.32816 -0.694191 10.5412 231 219 205 
0.97896 3.36516 11.9836 128 138 140 
0.999822 3.40802 11.9551 57 66 71 
0.998283 3.31562 11.9826 110 119 128 
1.0301 3.40932 11.96 116 127 133 
1.03117 3.01674 12.0162 139 133 135 
1.06707 4.96102 11.8478 133 100 107 
1.03339 3.07824 12.0151 138 133 139 
1.04465 3.27925 11.9814 132 142 144 
1.03951 3.3687 12.0053 127 137 139 
1.22446 -2.55265 11.3127 238 221 205 
1.26019 -2.31047 11.1646 72 97 78 
1.05665 3.00657 12.0361 74 58 69 
1.33754 -1.64936 10.8937 205 64 83 
1.06147 3.11552 12.0442 82 49 68 
1.07844 3.39853 11.9747 61 71 83 
1.08062 3.02222 12.041 128 121 128 
1.07861 3.11582 12.0699 128 111 119 
1.30132 -2.29844 11.2038 61 108 76 
1.10149 3.34157 12.0409 121 132 138 
1.10288 3.29705 12.0635 48 56 67 
1.10443 3.07936 12.1093 127 116 124 
1.46648 -0.680695 10.5751 65 55 54 
1.47053 -0.696449 10.5888 247 237 227 
1.15406 4.22181 11.9836 50 36 71 
1.47744 -0.0877165 10.5901 71 46 15 
1.45743 -1.39683 10.7885 239 222 215 
1.1537 3.04797 12.1731 87 40 60 
1.15415 3.11403 12.1755 76 42 59 
1.51273 -0.383986 10.6288 201 173 110 
1.52582 -0.035861 10.6195 32 19 11 
1.17473 3.07403 12.1998 125 121 120 
1.18363 3.0429 12.2148 78 35 52 
1.4869 -1.35317 10.8581 176 68 120 
1.53542 -0.137534 10.6348 38 11 0 
1.18129 2.86527 12.2432 124 129 135 
1.17408 2.8635 12.2837 45 52 60 
1.52988 -0.0585111 10.6694 178 166 116 
1.53593 -0.0522317 10.6462 177 165 117 
1.5485 0.481798 10.6302 64 23 19 
1.54824 -0.385004 10.6515 43 34 0 
1.20048 2.86964 12.2711 119 124 127 
1.55549 0.0533215 10.6581 45 29 4 
1.21161 3.10669 12.2474 123 99 112 
1.21275 3.08709 12.2587 137 105 118 
1.56925 -0.0370847 10.6392 181 164 120 
1.54205 -1.30378 10.7852 178 47 99 
1.5683 0.0458669 10.6721 55 41 15 
1.22946 3.11328 12.2754 78 50 64 
1.23242 3.07887 12.2822 83 42 60 
1.58379 -0.0308245 10.6461 117 99 51 
1.57756 -0.0203188 10.6786 142 124 86 
1.58143 0.0359796 10.6732 126 113 78 
1.24025 3.06618 12.3161 130 99 114 
1.60447 -0.304394 10.6631 38 22 0 
1.25662 3.0441 12.3095 78 50 65 
1.60684 -0.122691 10.6803 33 23 0 
1.61355 -0.135941 10.6816 134 123 93 
1.61785 -0.362292 10.6792 44 31 14 
1.62954 0.510359 10.6921 23 11 21 
1.63587 -0.110296 10.7391 164 150 121 
1.32574 3.66402 12.2824 29 27 49 
1.66636 0.479005 10.7371 157 148 117 
1.67427 0.565749 10.7435 25 19 7 
1.68411 -0.196446 10.7518 46 35 7 
1.68722 0.486528 10.7487 20 4 7 
1.69657 0.562637 10.744 20 16 7 
1.70766 -0.174892 10.7635 76 52 18 
1.71645 -0.238583 10.7482 36 20 0 
1.40175 3.65454 12.3618 46 29 47 
1.69855 -0.0664974 10.8609 38 11 4 
1.75276 0.473745 10.6576 95 85 58 
1.72188 -0.0712515 10.8265 30 11 5 
1.41902 4.02255 12.4025 58 14 49 
1.42813 3.61938 12.3561 119 128 137 
1.73387 -0.183586 10.7906 109 90 58 
1.7437 -0.76419 10.7598 247 217 217 
1.74322 -0.765559 10.7719 247 217 217 
1.74654 -0.0882431 10.7952 182 171 153 
1.75175 -0.10171 10.8042 47 35 9 
1.44849 2.8382 12.5611 101 109 111 
1.77847 -0.757861 10.8063 199 85 136 
1.77982 0.516213 10.8651 20 4 4 
1.8099 -0.701083 10.8098 206 131 161 
1.80286 -0.83153 10.8727 246 233 217 
1.83832 -0.765583 10.8627 164 135 127 
1.66101 4.50539 12.4716 53 54 59 
1.95425 0.565226 11.2324 70 49 18 
1.97985 -0.194112 11.4998 92 85 77 
2.02436 0.732644 11.227 117 98 30 
2.06548 0.576 11.2047 196 168 33 
2.05981 0.164805 11.2533 169 148 85 
1.94453 3.88182 12.1986 34 30 27 
2.12176 0.150403 11.2178 68 59 2 
2.13213 0.0853053 11.2883 84 59 0 
2.11514 0.0512469 11.4611 202 171 44 
2.12478 0.959069 11.4959 160 139 34 
2.19484 0.139486 11.1998 87 79 40 
2.06281 5.04061 12.6035 174 90 106 
2.21276 -0.168253 11.5 33 10 0 
2.21607 -0.0936399 11.49 69 31 0 
2.25255 4.92003 11.3712 71 79 102 
2.23625 -0.128775 11.5166 236 215 34 
2.32118 4.91662 11.3067 86 113 134 
2.1531 4.73358 12.8778 54 54 54 
2.36508 0.701409 11.1583 69 58 26 
2.34826 0.0278411 11.3103 246 228 34 
2.39571 0.718591 11.0895 178 157 110 
2.37471 4.91222 11.5301 102 36 40 
2.41793 0.232394 11.1169 134 122 20 
2.16976 -1.8386 13.486 157 151 137 
2.41689 4.91628 11.4182 180 70 71 
2.20384 -1.87132 13.4782 192 187 168 
2.46716 0.670212 11.0972 83 69 22 
2.42453 -0.266176 11.4817 217 196 105 
2.43449 -0.263732 11.4517 221 201 112 
2.4566 4.90875 11.5961 105 52 48 
2.49482 0.62201 11.1218 84 77 31 
2.50303 0.446947 11.1022 122 107 40 
2.52808 0.49398 11.1203 58 54 19 
2.57251 0.490222 11.1743 180 155 39 
2.54643 4.8515 11.6678 104 89 84 
2.56199 0.989881 11.4184 29 17 0 
2.56819 4.89339 11.5379 231 215 199 
2.58666 4.72502 12.04 145 70 91 
2.64369 0.576097 11.2251 112 87 0 
2.65918 0.655035 11.2424 131 105 0 
2.54849 4.94503 12.7542 159 81 103 
2.70358 4.90171 11.6443 232 217 198 
2.75311 -0.170244 11.5167 215 195 96 
2.7852 4.89209 11.7559 232 217 196 
2.82791 4.88387 11.5793 175 165 156 
2.74607 5.01091 12.9077 143 75 96 
2.85165 4.88477 11.8782 139 130 121 
2.88107 0.169984 11.375 220 182 99 
2.88286 0.158923 11.3596 73 40 0 
2.91328 0.187495 11.3836 122 67 37 
2.99292 0.459047 11.2769 202 145 30 
2.91408 -1.10724 12.855 33 34 36 
2.99978 4.94073 11.8361 219 201 29 
2.9293 -0.744454 12.7868 219 210 195 
2.92532 -1.22243 12.8879 67 63 60 
3.00677 4.78136 11.8333 195 181 168 
2.90615 -2.84773 13.2187 99 99 89 
2.93431 -1.04563 12.849 139 140 145 
2.93558 -1.12296 12.871 172 170 171 
2.94057 -1.02706 12.8421 98 99 103 
3.02048 4.898 11.7822 176 161 34 
2.95195 -1.12225 12.8845 113 109 110 
2.95918 -0.824448 12.8295 52 56 55 
2.95909 -1.26146 12.9143 91 93 90 
2.94306 -2.86264 13.2374 116 117 111 
2.97506 -0.772594 12.8218 48 57 62 
2.97073 -1.28341 12.9588 52 48 47 
2.97368 -1.13088 12.9399 172 172 162 
2.97785 -1.11193 12.9252 54 56 55 
2.98333 -0.750365 12.8351 216 215 211 
