ply                 
format ascii 1.0    
element vertex 1308
property float x    
property float y    
property float z    
property uchar red  
property uchar green
property uchar blue 
end_header          
1.72905 0.646249 4.38785 54 60 94 
1.72642 0.78862 4.35761 49 54 92 
1.7241 0.857393 4.33593 51 54 87 
1.72873 0.5106 4.38746 94 112 148 
1.75018 -1.04215 4.65367 89 103 138 
1.72502 0.650896 4.35074 90 109 142 
1.73605 0.379397 4.40625 44 53 92 
1.75348 -1.02157 4.62722 46 35 41 
1.74132 0.565091 4.3597 48 57 88 
1.74258 0.258006 4.40269 47 52 81 
1.75605 -0.947505 4.5874 49 36 43 
1.75285 0.255629 4.36793 107 107 105 
1.75131 0.368721 4.34559 51 66 107 
1.74598 0.766082 4.25653 48 57 90 
1.75587 0.240904 4.34821 48 33 36 
1.75705 0.259531 4.33712 107 108 110 
1.76265 0.222188 4.34764 106 107 112 
1.78888 -0.941138 4.46949 60 47 54 
1.78019 0.671489 4.1727 46 55 86 
1.80167 -0.987176 4.42278 61 55 67 
1.80399 -0.94753 4.41382 62 56 68 
1.7816 0.955347 4.11413 44 51 80 
1.80643 -1.07149 4.42105 73 61 63 
1.79424 0.449591 4.17215 48 57 86 
1.80269 0.442415 4.14304 50 56 88 
1.78056 0.947837 4.02882 86 100 137 
1.79477 0.942637 4.01063 81 100 133 
1.81721 -0.665801 4.22565 43 34 55 
1.81113 0.643905 4.04208 47 56 89 
1.80841 0.924325 3.97666 44 49 78 
1.83186 -0.449438 4.17687 46 55 86 
1.81979 0.635668 4.01403 47 52 82 
1.82009 0.419979 4.03582 48 57 90 
1.81644 0.490886 4.01302 46 55 88 
1.81984 0.717808 3.98873 87 103 137 
1.81111 0.85415 3.94428 81 100 132 
1.83644 -0.418847 4.15084 69 66 93 
1.88078 -1.09722 4.30112 29 34 64 
1.87458 -1.06652 4.28222 34 47 79 
1.87479 -1.03493 4.27591 36 44 80 
1.85176 -1.22404 4.25452 74 85 115 
1.87644 -0.954076 4.26311 39 52 86 
1.85231 -0.377285 4.14332 37 23 36 
1.84432 -0.471002 4.13138 63 62 94 
1.88447 -1.09727 4.26906 75 99 137 
1.577 0.163234 3.55321 87 100 134 
1.8812 -0.903735 4.20092 56 70 115 
1.85228 -0.530899 4.10264 55 46 67 
1.8856 -1.04711 4.22193 55 72 115 
1.86783 -0.362832 4.1025 26 30 39 
1.57096 0.147689 3.51687 36 23 30 
1.8866 -1.11575 4.22729 36 51 90 
1.88437 -0.968063 4.20221 58 75 119 
1.5719 0.177744 3.51234 46 36 35 
1.87713 -0.211171 4.09242 27 34 53 
1.88389 -0.261296 4.10974 34 43 76 
1.57861 0.199478 3.51956 36 31 37 
1.88295 -0.729992 4.16573 58 74 123 
1.8892 -0.295647 4.11626 26 32 58 
1.89172 -0.324615 4.11845 23 26 41 
1.88192 -0.772067 4.15391 65 79 126 
1.87743 -0.742379 4.13939 60 81 126 
1.85836 -0.440841 4.06687 50 58 94 
1.86962 -1.19568 4.17348 52 63 108 
1.5791 0.196542 3.49195 46 43 36 
1.87848 -1.24215 4.18434 71 86 119 
1.89373 -0.314511 4.09423 95 115 152 
1.8615 -0.459674 4.05213 104 126 167 
1.86337 -0.47417 4.05565 47 59 101 
1.86742 -0.543259 4.0505 58 49 68 
1.88882 -0.386389 4.06775 14 17 34 
1.89899 -1.05784 4.16691 57 74 118 
1.89705 -0.330322 4.07462 47 61 108 
1.89082 -0.30742 4.05934 47 66 108 
1.88516 -0.221406 4.03785 28 33 53 
1.86901 -0.447383 4.03485 44 53 86 
1.86987 -0.528997 4.04485 94 113 145 
1.89735 -0.913809 4.1333 64 81 127 
1.89638 -0.882468 4.12429 63 81 129 
1.8917 -0.376657 4.04774 100 119 151 
1.60042 -0.0387738 3.50786 76 82 104 
1.90956 -1.12354 4.16223 83 102 144 
1.60387 0.0202823 3.49429 83 93 120 
1.88612 -0.254165 4.00836 117 134 178 
1.89031 -1.15471 4.12104 39 33 43 
1.90306 -0.393072 4.0405 17 17 27 
1.90513 -1.07057 4.12073 48 66 106 
1.6107 -0.0276987 3.49122 34 34 46 
1.90778 -1.0306 4.1178 53 70 116 
1.90935 -0.330987 4.02689 86 105 135 
1.61235 0.0305486 3.47968 36 35 49 
1.60665 -0.048422 3.47027 73 87 116 
1.9101 -0.322927 4.01424 35 43 80 
1.9036 -0.283772 3.99545 52 71 113 
1.64133 0.246178 3.48797 32 22 23 
1.90362 -0.234586 3.98858 36 40 65 
1.60534 -0.0130972 3.45927 85 100 133 
1.9169 -0.344954 4.02354 25 38 70 
1.88614 -0.466893 3.98621 61 62 90 
1.89635 -0.391849 3.9844 35 42 52 
1.6082 -0.0588964 3.4228 76 88 112 
1.90508 -0.245129 3.93296 32 37 66 
1.90276 -0.181987 3.91443 35 45 70 
1.89531 -0.686084 3.95566 66 78 120 
1.61852 -0.0515811 3.40612 33 37 48 
1.61764 0.00831495 3.3874 40 40 52 
1.6138 -0.0121858 3.36625 82 99 129 
1.65929 0.78853 3.34518 82 90 111 
1.91049 0.676181 3.76847 36 48 100 
1.91946 -1.1075 3.9651 49 51 72 
1.91478 -1.17926 3.96655 63 51 51 
1.91734 -1.05278 3.93561 89 88 96 
1.61615 -0.0799298 3.33016 79 93 119 
1.6175 -0.0235988 3.31851 81 95 130 
1.61581 0.0150793 3.30846 96 115 145 
1.62982 -0.0132188 3.29912 40 37 48 
1.61874 0.000514735 3.26426 96 108 134 
1.92399 -0.32077 3.7659 93 93 91 
1.92153 -0.348119 3.75305 88 84 81 
1.93214 -0.635547 3.7953 38 34 49 
1.92599 -0.633452 3.75875 38 35 54 
1.94736 -1.30542 3.8669 73 87 124 
1.92775 -0.698588 3.75492 102 86 123 
1.92545 -0.604599 3.74046 97 104 133 
1.94892 -1.12784 3.83451 62 58 72 
1.92569 -0.762073 3.75411 28 17 47 
1.95025 -1.14826 3.83435 58 55 64 
1.95244 -1.09004 3.82636 56 44 54 
1.92216 -0.625863 3.71734 119 124 153 
1.93178 -0.681151 3.73812 18 17 23 
1.95686 -1.21369 3.83471 62 53 58 
1.92988 -0.649001 3.72798 52 60 81 
1.9269 -0.758285 3.73204 112 125 157 
1.93147 -0.719925 3.72944 39 25 51 
1.93066 -0.737474 3.73019 110 129 161 
1.93855 -0.697604 3.71514 107 123 156 
1.93336 -0.722832 3.70528 114 134 169 
1.9037 -0.509461 3.6311 88 87 93 
1.92734 -0.760935 3.67722 116 134 170 
1.94477 -0.774484 3.68637 71 64 106 
1.90616 -0.512049 3.59262 80 79 87 
1.66144 -0.0677562 3.16994 44 50 72 
1.93764 -0.43103 3.62447 22 17 14 
1.95731 -0.635308 3.67627 122 124 110 
1.96125 -0.646498 3.67191 36 27 30 
1.94303 -0.764193 3.65044 111 103 140 
1.94322 -0.416974 3.61092 78 75 66 
1.96634 -0.709094 3.67439 74 88 117 
1.96947 -0.583612 3.64763 41 30 36 
1.96611 -0.643401 3.64291 85 98 130 
1.97159 -0.657273 3.65009 51 56 88 
1.95712 -0.739828 3.63274 23 23 33 
1.96671 -0.563677 3.62486 95 92 85 
1.97371 -0.678753 3.64101 43 49 85 
1.97453 -0.609863 3.63399 46 50 77 
1.96735 -0.799127 3.63895 42 27 48 
1.95928 -0.737612 3.61809 98 99 93 
1.9693 -0.652318 3.62109 24 25 27 
1.96266 -0.746537 3.62163 43 36 43 
1.95977 -0.715992 3.60956 87 86 81 
1.97166 -0.646464 3.61305 90 97 81 
1.96212 -0.705635 3.60275 41 35 35 
1.96777 -0.765467 3.61008 35 28 36 
1.97134 -0.614924 3.59973 96 96 88 
1.96765 -0.636251 3.59354 100 101 93 
1.97222 -0.591647 3.59489 38 30 28 
1.97193 -0.754833 3.60691 28 25 32 
1.97615 -0.614531 3.58375 56 60 72 
1.97398 -0.732654 3.58885 49 44 40 
1.97186 -0.607474 3.56632 102 119 147 
2.0077 -0.971167 3.64861 104 122 158 
1.98138 -0.601484 3.56784 47 45 56 
2.02357 -1.09072 3.67833 41 50 89 
1.70764 -0.127438 3.10033 33 31 44 
1.97177 -0.787986 3.53823 100 98 85 
-2.37204 0.182548 6.95967 91 81 92 
-2.36597 0.182326 7.00402 65 55 80 
-2.26509 0.554433 7.34743 34 52 88 
-2.9132 0.478731 10.7381 41 35 49 
-2.37995 -1.03836 7.64922 181 201 254 
-2.27682 -0.315371 7.52987 106 122 156 
-2.65591 1.06878 10.6798 40 58 94 
-2.01706 1.21954 7.11306 21 20 34 
-2.90399 2.26395 12.7798 65 84 117 
-2.17042 -0.445118 7.58893 108 125 169 
-2.14143 -0.364848 7.57555 64 86 135 
-1.81961 0.321493 7.48225 61 66 104 
-1.70526 0.772432 7.4466 111 125 164 
-1.69041 0.558815 7.49438 34 49 90 
-1.73246 0.450328 8.04221 106 122 156 
-1.45302 0.429675 5.66443 35 49 84 
-1.97581 0.75929 10.9637 118 135 179 
-1.68854 -0.335552 7.6927 66 86 136 
-1.61351 -0.0213919 7.65128 130 144 189 
-1.57943 -0.259209 7.70375 70 92 141 
-1.51097 0.34513 7.56925 50 39 56 
-1.37891 -0.258531 5.83344 122 139 185 
-1.67145 -1.20455 8.34196 207 223 255 
-1.52964 -0.257903 7.72141 62 84 134 
-1.53192 -0.290674 7.73126 127 144 188 
-1.64625 -1.19352 8.38135 205 224 255 
-1.56525 -1.00435 7.76033 40 47 75 
-1.23995 1.43686 7.38747 8 15 41 
-1.11116 0.451126 7.68024 88 103 144 
-1.13986 -0.410358 7.84466 49 41 56 
-1.10392 -0.263011 7.8288 108 125 169 
-1.00303 0.815233 7.61722 103 118 157 
-1.0226 0.533762 7.69347 99 114 155 
-0.998895 0.459341 7.70706 80 99 132 
-1.08091 -0.902342 8.40555 195 214 254 
-0.999785 -0.87207 8.43001 34 39 69 
-0.679259 0.442436 7.43694 58 49 66 
0.483577 -1.74245 8.11562 193 216 255 
0.489503 -1.67838 8.0894 57 61 90 
0.441334 -0.781965 6.51543 64 75 107 
0.497912 -1.2371 6.87974 52 61 78 
1.16806 1.05734 6.00703 103 121 159 
1.17079 0.455198 6.12179 57 54 71 
1.29928 0.584931 6.04247 64 54 52 
1.3971 -0.59658 6.29745 61 56 52 
1.61534 0.907298 5.18295 89 105 138 
1.69829 0.492318 5.16647 96 111 150 
1.85248 -1.00748 4.80277 51 39 49 
1.56589 0.781799 3.44473 38 26 36 
0.777385 0.0707584 1.07105 95 115 152 
-1.49912 -0.883597 7.3453 79 68 76 
-1.07363 0.605958 7.29647 34 50 83 
-1.1863 -0.653619 7.39456 29 48 88 
-1.1244 -0.398745 7.47891 54 45 62 
-1.01657 0.539151 7.32478 30 44 73 
-1.00322 0.587321 7.31228 46 53 95 
-1.27542 0.177052 4.39108 26 36 61 
-0.966126 0.480845 7.36083 29 42 74 
-0.937859 0.361226 7.36864 48 37 53 
-0.935239 -0.314431 7.538 110 123 157 
-0.896789 0.0524471 7.42491 56 52 77 
-0.820336 0.552794 7.15784 102 119 163 
-0.785126 -0.436843 7.46114 70 83 118 
-0.213401 -1.14126 7.97729 37 49 91 
-0.290055 -0.145795 6.39156 94 83 100 
-0.0111006 0.214728 5.86355 55 44 58 
0.0253868 0.676672 5.78037 18 17 31 
0.0246279 0.616492 5.78791 21 20 34 
0.0262324 0.556409 5.80663 18 17 31 
0.0155577 0.315705 5.86244 82 80 101 
0.0280556 0.493252 5.82398 22 23 43 
0.0286444 0.431036 5.83929 21 22 43 
0.030268 0.398934 5.85222 25 25 51 
0.0298527 0.370017 5.85462 22 20 41 
0.0318586 0.336432 5.86657 33 31 52 
0.0386675 0.544841 5.79416 71 73 96 
0.044476 -0.290185 6.02851 61 58 79 
0.0445419 -0.389322 6.0514 56 47 64 
0.194334 -1.26497 6.91834 99 108 147 
0.424754 -1.6654 7.71759 202 228 255 
0.10907 -0.332789 6.01027 121 136 177 
0.438535 -1.6622 7.7199 113 134 189 
0.373998 -1.13298 6.68051 12 16 27 
0.368707 -0.408042 6.1053 121 138 182 
0.384434 -0.7502 6.18883 71 84 116 
0.492712 -1.03408 6.54742 53 64 109 
0.504624 -1.07164 6.56146 104 122 158 
0.521053 -1.06044 6.54987 44 62 102 
0.441124 -0.731063 6.15631 84 97 131 
0.545708 -1.02662 6.55573 123 147 181 
0.558156 -1.03053 6.54947 12 29 59 
0.829524 -1.33097 6.49405 95 108 143 
0.851624 -0.62437 6.25258 67 57 65 
0.854518 -0.662468 6.26884 55 65 100 
0.870399 -0.162108 6.12577 67 72 101 
0.858224 -0.896247 6.30636 112 130 168 
0.882192 0.751579 5.77728 50 57 86 
0.893284 -0.654289 6.11652 91 76 83 
0.953381 -0.00335056 5.96124 74 66 90 
0.931286 -0.591341 6.07908 131 129 151 
0.980191 0.527099 5.81856 17 28 58 
0.979508 0.506202 5.81832 82 98 131 
0.980501 0.49498 5.82259 21 28 70 
0.981639 0.450288 5.83902 44 57 99 
0.977336 0.0776168 5.92626 98 113 146 
0.926848 -1.58222 6.28446 75 119 164 
0.993851 0.509889 5.81621 102 121 153 
0.993173 0.465809 5.8266 105 119 154 
0.986909 0.118721 5.90741 83 99 132 
0.955422 -0.685815 6.06998 90 82 105 
0.987192 0.0622357 5.92136 41 54 96 
0.987887 0.0498868 5.92602 33 47 84 
1.00578 0.57917 5.79526 22 31 64 
0.983226 0.0276712 5.90324 64 62 84 
1.00638 0.510465 5.81215 81 97 131 
1.00602 0.497267 5.81199 27 33 69 
1.00719 0.454011 5.82478 51 64 108 
0.990715 -0.291975 6.00576 28 43 84 
1.00034 0.0800585 5.91125 109 123 158 
1.00125 -0.149129 5.96781 124 142 182 
1.02136 0.469169 5.81999 114 127 161 
0.995482 -0.628376 6.08001 40 55 96 
1.01316 0.0653403 5.90875 43 58 99 
1.3242 -0.553281 6.83081 103 122 162 
0.995957 -0.655054 6.06056 67 63 86 
1.00763 -0.612311 6.06814 118 136 172 
1.01609 -0.288825 5.99117 31 45 84 
1.02658 0.0828886 5.90007 118 127 160 
1.0197 -0.511728 6.03904 37 50 94 
1.23482 -0.561489 6.57354 102 120 160 
1.01998 -0.625903 6.06342 40 53 97 
1.03769 0.0776107 5.89581 102 99 126 
1.04999 0.515572 5.78714 111 121 156 
1.05001 0.473737 5.79509 107 116 149 
1.04134 -0.147507 5.93884 86 81 111 
1.03256 -0.609888 6.05247 132 144 182 
1.03377 -0.628198 6.05762 130 134 169 
1.07132 0.908423 5.69256 101 117 143 
1.06127 0.486968 5.78757 40 54 93 
1.07319 0.830417 5.70751 50 52 73 
1.05577 0.0854844 5.88394 104 117 149 
1.04443 -0.532853 6.02638 127 124 151 
1.0489 -0.614068 6.05514 116 114 138 
1.06421 0.210474 5.84582 109 127 163 
1.07377 0.519448 5.77423 107 122 155 
1.05775 -0.270592 5.9624 115 131 165 
1.07818 0.211411 5.847 115 133 171 
1.08616 0.589701 5.75531 11 17 49 
1.07093 -0.159159 5.93625 20 36 72 
1.08583 0.491608 5.7721 42 56 93 
1.06392 -0.607137 6.03781 129 142 177 
1.08686 0.46407 5.77957 44 56 98 
1.07854 0.0874157 5.86778 100 118 154 
1.0749 0.0333587 5.86074 73 65 86 
1.03478 -1.58534 6.22708 75 118 161 
1.09776 0.522618 5.76088 113 119 151 
1.09246 0.116171 5.85958 30 38 74 
1.08778 -0.48742 6.00215 131 143 185 
1.08826 -0.507233 6.00447 99 114 155 
1.08904 -0.546747 6.01432 104 119 158 
1.10356 0.131075 5.84721 118 127 160 
1.16532 -2.09992 6.63247 223 236 255 
1.16606 -2.14673 6.63784 217 233 255 
1.17676 -1.9466 6.5869 83 117 163 
1.05266 -1.55256 6.17399 130 178 226 
1.13064 1.37451 5.51431 37 38 58 
1.18119 -2.12127 6.63099 53 85 136 
0.847847 -0.477433 5.36482 129 135 169 
1.20031 -2.10532 6.63183 225 235 255 
1.19497 -2.15047 6.63175 222 237 255 
1.14906 0.993681 5.60912 52 57 86 
1.1456 0.854168 5.63577 54 58 87 
1.21423 -1.97139 6.5964 227 235 254 
1.11425 -0.734104 5.95751 123 140 183 
1.14908 -0.593817 5.97601 127 125 146 
1.23381 -1.85525 6.50878 139 171 218 
1.16316 -1.59974 6.1852 74 118 163 
1.1859 -0.683487 5.97713 74 63 71 
1.18771 -0.909173 6.0201 120 138 184 
1.20136 -0.780222 6.00772 106 122 158 
1.20819 -0.603406 5.96966 67 63 80 
1.23661 -0.881935 5.99517 23 21 32 
1.26955 -0.960261 6.06301 119 136 182 
1.28519 0.463943 5.69572 56 61 90 
1.28249 -1.58811 6.1982 62 102 151 
1.34241 -1.73514 6.29293 119 166 212 
1.36846 -1.73642 6.30792 118 154 206 
1.34248 -1.59192 6.2133 63 99 147 
1.34524 -1.6196 6.22095 55 98 143 
1.36485 0.968979 5.47651 62 68 104 
1.36934 -0.707657 5.88408 72 59 68 
1.36706 0.695273 5.50761 50 59 90 
1.37879 1.22165 5.39216 58 47 64 
1.35906 -0.750982 5.84729 85 98 133 
1.38427 -0.0839363 5.65967 51 64 106 
1.40021 0.78186 5.46151 42 35 51 
1.41123 0.988472 5.41412 120 133 168 
1.39051 -0.0824496 5.63555 114 130 163 
1.41453 0.913874 5.42431 101 115 152 
1.41994 1.18609 5.35678 116 125 164 
1.40464 -0.00985516 5.63265 43 35 50 
1.60006 -1.34891 6.37022 224 232 255 
1.41602 0.260022 5.5713 123 138 171 
1.41717 0.936432 5.39955 30 40 65 
1.4008 -0.739194 5.79184 48 39 58 
1.41369 0.391478 5.5189 122 136 171 
1.40484 1.29992 5.23715 38 42 67 
1.42857 1.08344 5.31786 42 54 80 
1.42888 0.925566 5.35176 40 47 75 
1.43092 0.788713 5.38353 32 35 50 
1.42923 -0.381167 5.671 92 103 133 
1.41311 -0.0964531 5.53821 111 126 165 
1.41486 -0.184804 5.56175 115 129 166 
1.43277 1.15591 5.24855 101 114 158 
1.44024 1.14708 5.26417 82 96 145 
1.41535 -0.0823695 5.51321 57 65 104 
1.4429 1.13395 5.24794 111 132 189 
1.44502 1.13763 5.22915 48 65 117 
1.44564 1.07991 5.22881 89 108 141 
1.42689 -0.134236 5.48466 71 75 110 
1.44872 0.81446 5.28919 92 107 138 
1.44961 -0.651103 5.64328 26 32 64 
1.44524 0.0941428 5.43566 111 129 167 
1.43581 -0.779913 5.59054 64 55 76 
1.44693 1.10679 5.11201 59 69 105 
1.44424 0.898328 5.14854 62 68 104 
1.45321 0.831161 5.17595 60 71 116 
1.45314 0.760819 5.18386 59 71 111 
1.45925 0.692739 5.20809 63 72 113 
1.46456 -0.701015 5.51545 101 114 149 
1.46914 0.436784 5.17927 66 71 93 
1.4662 -0.77098 5.45926 54 65 95 
1.47343 -0.733035 5.44222 58 65 94 
1.62386 -1.28127 5.75366 69 83 112 
1.4656 1.29021 4.79148 81 69 79 
1.49411 0.404086 5.04934 82 70 72 
1.47434 0.522938 4.93888 106 124 162 
1.48656 0.956376 4.85832 79 94 125 
1.49533 0.452288 4.9892 112 129 172 
1.48591 1.05616 4.82698 88 102 137 
1.48752 0.412761 4.98052 98 112 141 
1.49994 -0.832547 5.29238 76 63 73 
1.48028 0.682624 4.89943 82 97 130 
1.48944 1.26562 4.76396 12 12 20 
1.50457 0.901452 4.84952 23 29 45 
1.50537 0.558287 4.92314 21 27 41 
1.52033 1.23327 4.75669 111 96 103 
1.52312 1.05067 4.80161 93 106 141 
1.52153 0.980465 4.81414 87 100 134 
1.52626 0.913863 4.83631 88 103 134 
1.52057 1.11543 4.7778 94 113 143 
1.52505 0.773472 4.86094 88 105 135 
1.52622 0.707967 4.86897 90 100 135 
1.52366 0.709817 4.84586 89 102 134 
1.52989 0.352487 4.93795 99 114 145 
1.5307 -0.100851 5.0346 104 119 152 
1.5307 -0.761359 5.1824 100 114 151 
1.52974 0.752425 4.82572 60 68 107 
1.53053 0.890948 4.79389 58 71 106 
1.53582 0.379881 4.91025 60 69 98 
1.52845 0.967423 4.75989 103 119 152 
1.53132 0.564755 4.85067 102 119 149 
1.52949 0.548187 4.83611 50 59 92 
1.53873 -0.778873 5.14783 64 62 86 
1.54571 0.8851 4.77484 59 67 104 
1.5426 1.02176 4.73818 57 66 105 
1.54453 0.608724 4.83467 59 68 107 
1.54296 0.746003 4.7987 61 66 106 
1.55033 -0.89313 5.15856 102 118 152 
1.56217 1.07301 4.64728 57 63 99 
1.56281 0.935498 4.67791 53 62 95 
1.56513 0.66035 4.73882 59 68 109 
1.55928 0.73767 4.70197 104 122 158 
1.56207 0.34486 4.77708 89 78 76 
1.56888 -0.894173 5.02507 77 67 76 
1.58381 0.849609 4.61724 65 70 108 
1.58986 0.469416 4.62397 57 68 100 
1.59096 0.496819 4.61046 51 66 99 
1.60344 -0.237845 4.76839 87 81 109 
1.59796 1.01737 4.48387 57 40 59 
1.60831 -0.501446 4.82709 89 80 107 
1.61599 0.228525 4.67344 72 68 83 
1.60241 0.5117 4.57867 112 129 172 
1.58467 0.222156 4.6051 71 67 84 
1.62187 -0.600194 4.82501 83 77 105 
1.60581 0.447645 4.57021 61 69 108 
1.62382 0.574601 4.56145 38 32 46 
1.6163 -0.308123 4.71744 63 69 101 
1.63774 0.640913 4.54701 104 119 150 
1.61041 1.12117 4.39898 108 117 148 
1.63549 -0.806191 4.84716 119 138 180 
1.61677 -0.333047 4.71103 83 84 114 
1.6513 -0.924338 4.89074 34 46 86 
1.64593 -0.829663 4.85749 52 65 109 
1.64451 -0.783143 4.84326 50 62 100 
1.64388 -0.71929 4.82811 51 63 101 
1.64341 -0.100606 4.6959 40 49 78 
1.64002 -0.133993 4.6967 39 46 74 
1.6427 0.168307 4.63412 40 51 81 
1.64771 0.623317 4.53543 38 48 73 
1.64541 0.95766 4.45994 48 55 84 
1.64319 0.90708 4.46341 91 108 138 
1.64621 -0.155079 4.67808 107 127 160 
1.6527 0.183418 4.61138 130 145 188 
1.62347 -0.368004 4.67801 71 68 95 
1.62123 0.469565 4.49408 64 75 120 
1.64802 0.703505 4.48565 113 128 167 
1.65289 0.155501 4.58554 42 52 79 
1.63311 -0.388615 4.66208 130 148 186 
1.65208 0.896895 4.41794 92 111 144 
1.63014 0.477654 4.47103 113 127 172 
1.63291 -0.312135 4.6415 69 84 127 
1.65578 0.676335 4.46902 37 46 75 
1.6557 0.879818 4.4252 40 52 78 
1.65555 0.915539 4.41708 40 50 75 
1.65592 0.945043 4.41135 42 51 80 
1.66111 -0.0990963 4.61225 124 143 186 
1.63893 -0.377547 4.63373 58 54 89 
1.63514 0.461606 4.4509 67 86 129 
1.6627 0.166934 4.55449 126 143 186 
1.64135 -0.364447 4.63067 117 134 164 
1.66015 0.689941 4.43229 120 137 180 
1.65951 0.826627 4.40096 118 135 178 
1.66797 -0.917336 4.76035 60 81 126 
1.64473 -0.342793 4.60035 111 127 160 
1.66524 0.94294 4.36456 65 78 130 
1.66851 -0.189799 4.60176 22 34 58 
1.66831 -0.125411 4.58811 39 45 71 
1.64574 0.391805 4.43813 56 65 106 
1.64608 -0.35339 4.59336 70 71 102 
1.66875 0.663592 4.41006 39 47 70 
1.67036 0.867485 4.36941 40 51 79 
1.66685 0.902753 4.35258 118 137 196 
1.65374 -0.309124 4.57305 77 78 106 
1.66164 -0.144855 4.54911 102 113 143 
1.67374 -0.838054 4.71033 120 141 186 
1.6719 -0.107655 4.5555 118 137 179 
1.66737 0.88787 4.34013 42 53 107 
1.67612 0.151348 4.50608 116 137 180 
1.67 0.159151 4.48791 122 137 180 
1.65648 0.468654 4.4016 112 130 170 
1.40095 0.737759 3.94695 105 121 154 
1.6654 0.677493 4.36605 110 128 166 
1.64671 0.840796 4.29979 79 96 126 
1.65227 -0.258469 4.5322 59 50 69 
1.65712 0.946032 4.28604 129 142 184 
1.64822 1.08523 4.23704 105 114 145 
1.66223 0.909161 4.29118 36 42 68 
1.66746 0.551536 4.36999 33 35 56 
1.65579 0.52432 4.35561 56 49 65 
1.65283 -0.548598 4.55473 112 107 129 
1.65821 0.497636 4.34619 79 67 89 
1.66131 -0.560136 4.55541 61 55 81 
1.66445 0.399543 4.35699 59 67 103 
1.84353 -1.40225 4.96313 44 61 104 
1.83509 -1.36845 4.94155 49 66 109 
1.67245 0.698208 4.26357 60 69 108 
1.6742 0.629205 4.27997 64 72 109 
1.67103 0.904924 4.21874 53 60 102 
1.6708 0.55691 4.27833 61 69 108 
1.66827 0.90928 4.18199 98 113 146 
1.8486 -1.39443 4.90579 84 102 142 
1.84283 -1.44151 4.90587 75 84 115 
1.6815 -0.92888 4.55108 58 69 101 
1.68811 0.549928 4.25615 60 68 105 
1.69237 0.217455 4.25898 102 111 140 
1.70014 -0.951896 4.49588 61 48 57 
1.69003 0.420483 4.20529 110 125 158 
1.70315 -1.03735 4.50934 55 68 110 
1.70291 -0.901146 4.4773 69 57 61 
1.69341 1.04855 4.0713 102 108 140 
1.70309 0.250938 4.23319 123 123 125 
1.71799 -0.19097 4.27611 69 75 109 
1.70972 0.521387 4.11651 62 70 109 
1.71563 0.937154 4.03958 57 63 99 
1.70754 0.460578 4.11377 109 123 158 
1.72162 0.454972 4.09865 107 123 157 
1.72285 0.92951 4.00726 51 61 97 
1.30132 0.740361 3.4354 92 112 145 
1.73709 0.179361 4.11461 104 113 144 
1.72488 0.710697 3.98791 60 68 107 
1.72282 0.845936 3.9557 56 60 98 
1.71193 0.177634 4.06815 114 120 142 
1.72808 0.513335 4.02382 108 124 160 
1.73147 0.388296 4.05076 109 123 158 
1.7271 0.650584 3.99345 108 122 157 
1.72777 0.926354 3.9344 98 119 150 
1.74089 0.153998 4.08434 71 77 111 
1.74116 0.705627 3.97207 58 64 98 
1.74091 0.842101 3.94273 54 60 94 
1.74115 0.783222 3.94734 99 118 150 
1.73761 0.919044 3.9094 95 113 149 
1.75002 0.220466 4.02495 90 86 109 
1.74922 0.487315 3.96367 60 68 107 
1.74606 0.565601 3.93118 105 121 155 
1.75763 0.756409 3.87914 51 59 95 
1.75451 0.41879 3.93473 101 117 150 
1.76242 0.560158 3.91669 101 115 150 
1.75931 0.834673 3.85447 94 113 145 
1.75761 0.476054 3.90961 53 65 103 
1.75981 0.542903 3.88878 57 63 99 
1.75784 0.681082 3.85428 53 62 101 
1.7577 0.817376 3.82736 51 59 95 
1.76533 0.363334 3.91842 111 131 168 
1.76259 0.341036 3.9124 53 58 88 
1.76757 0.876606 3.80382 94 107 141 
1.78822 -1.09311 4.1907 48 35 52 
1.77733 -0.412677 4.04465 78 78 106 
1.77665 -0.463796 4.04899 115 132 175 
1.76666 0.859836 3.78653 55 41 58 
1.80327 -0.821256 4.13351 125 139 178 
1.81971 -0.936029 4.16124 53 66 111 
1.81854 -0.361415 4.04055 12 18 30 
1.82453 -0.303905 4.02678 99 117 153 
1.79282 -1.19946 4.14751 85 96 126 
1.53241 0.150482 3.54644 53 65 103 
1.78732 -0.531541 4.00752 67 81 120 
1.81262 -0.358088 4.00554 22 26 38 
1.83326 -0.290828 4.01917 40 52 90 
1.78689 -1.20854 4.12611 33 31 45 
1.83848 -0.320898 4.02568 27 31 60 
1.79079 -0.532188 3.99351 102 115 147 
1.82206 -0.241137 3.96871 121 142 187 
1.82304 -1.05758 4.11716 63 86 128 
1.7918 -0.551671 3.98225 67 79 121 
1.7993 -0.434088 3.96364 61 69 108 
1.79961 -1.21981 4.08374 39 30 51 
1.51413 0.163114 3.46086 100 110 145 
1.82778 -0.268393 3.94704 68 90 139 
1.80211 -1.21002 4.04899 87 101 140 
1.83429 -1.06844 4.06231 65 86 131 
1.8339 -1.00619 4.04624 63 85 132 
1.80683 -1.18398 4.03177 90 104 143 
1.80899 -0.563567 3.9162 62 71 114 
1.84838 -0.31749 3.91026 47 66 109 
1.85734 -0.33998 3.92281 41 56 97 
1.84569 -0.281597 3.89747 68 85 137 
1.81507 -0.491971 3.89448 70 70 106 
1.84375 -0.9904 4.01776 125 143 191 
1.81492 -0.470537 3.88223 70 78 114 
1.82021 -1.12907 3.99806 54 45 64 
1.85224 -0.333225 3.87673 112 131 174 
1.52626 0.149911 3.36674 83 77 65 
1.847 -0.326408 3.84816 66 83 129 
1.82269 -0.634067 3.86789 81 94 136 
1.53869 0.0489968 3.38442 114 121 147 
1.82479 -1.17752 3.93977 91 107 143 
1.5463 0.0398503 3.34575 108 124 157 
1.8421 -1.2349 3.90183 83 96 130 
1.84118 -1.25855 3.8835 33 26 42 
1.85497 -1.21816 3.8816 47 56 95 
1.85273 -1.25418 3.86839 83 93 128 
1.85849 -1.1807 3.84742 98 117 150 
1.85688 -0.425473 3.69181 36 35 53 
1.86067 -0.441125 3.69686 90 86 75 
1.8636 -1.16476 3.82362 73 58 65 
1.86328 -0.296011 3.67203 55 52 71 
1.85475 -0.396921 3.67802 117 115 102 
1.87144 -1.05368 3.77854 73 58 63 
1.85796 -0.448674 3.65237 27 26 32 
1.87164 -1.17433 3.77343 73 62 60 
1.87202 -0.395956 3.63689 48 46 60 
1.86495 -0.52364 3.6341 111 104 96 
1.87991 -1.29313 3.74751 33 28 48 
1.8633 -0.765712 3.63275 62 47 78 
1.56989 0.0038865 3.14724 125 102 118 
1.86544 -0.418078 3.56084 60 50 49 
1.86361 -0.734628 3.60869 20 18 40 
1.8749 -0.609229 3.59068 43 41 44 
1.86469 -0.730739 3.58314 116 132 166 
1.88837 -1.22607 3.69284 90 102 140 
1.57125 -0.103942 3.13208 89 93 118 
1.8868 -0.558959 3.56687 119 124 143 
1.57299 -0.112462 3.11645 34 32 45 
1.88852 -0.692994 3.55498 86 103 133 
1.89477 -0.571363 3.53406 51 42 43 
1.58873 -0.0589642 3.09194 95 112 142 
1.58374 -0.0208058 3.07614 111 125 160 
1.8942 -0.706349 3.52704 40 39 53 
1.59653 -0.0446244 3.07527 61 63 88 
1.9042 -0.536071 3.49051 35 37 49 
1.89693 -0.731762 3.50541 99 96 91 
1.90247 -0.613694 3.48189 58 49 50 
1.93027 -0.29266 3.43917 85 72 92 
1.92133 -1.32604 3.59057 37 28 45 
1.91656 -0.606973 3.46226 112 130 168 
1.91149 -0.577211 3.45065 118 115 106 
1.94059 -1.08499 3.56238 126 145 188 
1.95292 -0.339663 3.44618 39 47 94 
1.91222 -0.707386 3.45919 117 124 143 
1.94614 -0.37258 3.44059 109 121 159 
1.91065 -0.69337 3.44482 41 43 68 
1.95526 -0.392442 3.44157 17 21 58 
1.92308 -0.634428 3.44339 53 48 68 
1.95128 -0.35705 3.42689 117 136 169 
1.90732 -0.747512 3.43657 92 89 82 
1.92348 -0.592011 3.42505 123 117 101 
1.91021 -0.758325 3.43669 38 30 28 
1.94915 -0.238997 3.38419 123 137 174 
1.90349 -0.820107 3.42515 112 124 162 
1.9129 -0.779321 3.42461 95 89 77 
1.92578 -0.750211 3.43239 24 20 21 
1.91563 -0.536999 3.38726 44 33 31 
1.96037 -0.302364 3.38888 138 156 202 
1.92661 -0.636323 3.40361 106 103 96 
1.96448 -0.431354 3.40678 102 123 152 
1.96069 -0.249426 3.37301 125 143 181 
1.96117 -1.07374 3.50584 69 91 138 
1.96039 -0.409587 3.39747 15 17 32 
1.9363 -0.699459 3.41082 102 97 93 
1.92991 -0.689996 3.39749 51 42 43 
1.96737 -0.399847 3.38581 108 133 174 
1.91013 -0.825945 3.38709 115 125 161 
1.96369 -0.288238 3.3592 15 18 37 
1.92342 -0.784064 3.39205 37 31 35 
1.96394 -0.385485 3.37232 116 138 185 
1.96457 -0.24204 3.34923 21 27 53 
1.93837 -0.632716 3.3799 54 52 53 
1.96622 -0.439877 3.37673 114 130 166 
1.9654 -0.346096 3.35499 66 75 114 
1.94341 -0.747454 3.3949 77 90 122 
1.96017 -0.357049 3.34982 125 145 182 
1.92033 -0.794767 3.37372 100 94 94 
1.9675 -0.875974 3.43215 135 156 201 
1.94575 -0.604273 3.36509 104 122 160 
1.92475 -0.828291 3.37693 102 111 144 
1.92508 -0.554624 3.33012 28 27 35 
1.93751 -0.668895 3.36147 41 32 33 
1.97939 -0.247909 3.33915 127 149 196 
1.94123 -0.729913 3.37375 59 47 47 
1.97335 -0.272117 3.33525 131 152 199 
1.97008 -0.449825 3.35744 15 16 34 
1.97289 -0.469702 3.36309 97 113 146 
1.95378 -1.30335 3.47169 53 66 110 
1.96887 -0.430561 3.34701 11 16 46 
1.96089 -0.390591 3.32558 73 85 125 
1.97529 -1.0863 3.45041 71 91 141 
1.97839 -1.05911 3.44897 68 90 140 
1.9268 -0.782703 3.34696 99 95 83 
1.97935 -0.998577 3.43651 66 88 137 
1.94269 -0.693717 3.34765 40 38 43 
1.65947 -0.0503045 2.93925 55 63 99 
1.97281 -0.473084 3.34417 96 112 148 
1.97941 -0.417064 3.33537 116 137 180 
1.97612 -0.874987 3.40408 59 81 131 
1.94323 -0.722847 3.33622 56 64 85 
1.94361 -0.631652 3.32123 46 40 40 
1.94708 -0.694825 3.33372 38 45 71 
1.9473 -0.591027 3.31376 46 49 64 
1.9453 -0.55998 3.30648 30 24 24 
1.94706 -0.758578 3.33805 119 120 114 
1.94021 -0.746442 3.32778 66 68 89 
1.94916 -0.64352 3.31995 41 36 42 
1.94818 -0.790396 3.34067 38 32 34 
1.94022 -0.716075 3.31813 100 124 152 
1.94884 -0.625681 3.31116 116 113 98 
1.98912 -1.13512 3.42873 69 87 135 
1.98667 -0.471639 3.31681 10 16 38 
1.9446 -0.542975 3.28077 80 77 84 
1.98219 -0.288094 3.27841 130 150 200 
1.9817 -0.305437 3.28026 128 149 196 
1.97223 -1.26152 3.41483 52 45 63 
1.94756 -0.727283 3.30373 125 126 120 
1.95316 -0.681305 3.30244 46 51 71 
1.98591 -0.480963 3.30261 95 112 142 
1.65364 0.0745645 2.86053 74 70 59 
1.95821 -0.671692 3.29128 38 37 53 
1.65504 0.653429 2.7606 14 21 27 
1.94386 -0.803766 3.29009 68 53 74 
1.98386 -0.375052 3.26542 88 102 141 
1.95861 -0.636269 3.27953 117 132 161 
1.96211 -0.621037 3.28005 116 111 105 
1.99096 -0.309843 3.25914 16 14 35 
1.64956 0.0557896 2.84047 89 84 65 
1.95722 -0.788441 3.2971 60 54 58 
1.95534 -0.605359 3.26613 43 38 42 
1.9889 -0.264017 3.24689 17 19 42 
1.65153 0.031773 2.84219 94 88 72 
1.99326 -0.433703 3.27484 19 21 36 
1.99331 -0.479777 3.28139 17 15 29 
1.96501 -0.647359 3.26682 108 121 155 
1.65585 -0.0548581 2.8482 110 85 104 
1.95278 -0.746186 3.26816 52 37 40 
1.96664 -0.633112 3.26366 59 51 66 
1.98788 -0.374081 3.24207 86 99 143 
1.99955 -0.455153 3.26397 13 18 40 
1.99979 -0.237012 3.22838 127 144 188 
1.99025 -0.402366 3.24344 14 20 34 
1.96349 -0.667619 3.25357 34 32 37 
1.66052 0.628519 2.7333 109 98 106 
1.99689 -0.441308 3.25249 107 130 162 
1.96104 -0.801801 3.26914 31 20 37 
1.97165 -0.83363 3.28414 100 92 107 
1.96569 -0.81563 3.2736 107 93 126 
1.96956 -0.716453 3.25779 108 103 97 
1.99598 -0.194052 3.19864 109 112 143 
1.97082 -0.695645 3.24959 96 88 77 
1.96773 -0.778315 3.25872 113 114 96 
1.99364 -0.385431 3.22264 120 137 181 
1.99694 -0.234839 3.20181 134 153 193 
1.97098 -0.65411 3.23891 91 88 79 
1.99672 -0.214907 3.19513 19 22 41 
2.00081 -0.402141 3.22844 112 133 164 
1.9725 -0.797354 3.25594 18 20 35 
1.99056 -0.435535 3.21882 31 31 65 
1.9693 -0.72146 3.23782 62 72 97 
1.96088 -0.692122 3.22181 48 43 50 
1.97941 -0.739818 3.23953 69 84 123 
1.96274 -0.808149 3.22895 138 160 197 
1.9982 -0.215556 3.17255 118 134 170 
1.98365 -0.461505 3.18534 53 42 59 
1.96081 -0.70667 3.19884 133 154 197 
1.98056 -0.783789 3.22703 50 64 101 
1.97223 -0.731226 3.20483 130 151 194 
1.94406 -0.552941 3.14741 45 29 32 
1.97291 -0.81049 3.21619 33 32 72 
1.98122 -0.819825 3.21638 109 123 149 
1.99735 -1.38819 3.31201 31 23 36 
1.97359 -0.806177 3.19826 51 56 78 
1.98343 -0.748349 3.19841 70 67 98 
1.95901 -0.694014 3.16334 67 66 61 
2.00471 -1.28004 3.28655 73 58 63 
1.987 -0.67877 3.17514 97 108 136 
1.99235 -0.739942 3.18758 49 48 66 
1.99149 -0.670007 3.17198 53 55 76 
1.98942 -0.825002 3.19237 47 35 57 
1.97539 -0.528203 3.12624 94 93 98 
1.97891 -0.803491 3.16796 122 144 183 
1.9987 -0.745272 3.17873 99 100 95 
1.9957 -0.68337 3.16466 100 112 136 
2.00928 -1.22495 3.25819 76 70 82 
2.01164 -1.16876 3.24509 76 63 70 
2.01171 -1.20795 3.24676 73 60 67 
1.99283 -0.82697 3.1695 41 28 48 
1.98423 -0.813662 3.15768 128 138 173 
1.99539 -0.650096 3.14324 109 105 94 
2.00169 -0.761971 3.16214 100 93 124 
1.99926 -0.750265 3.15664 44 40 63 
1.98464 -0.523622 3.09954 55 47 44 
1.99775 -0.839143 3.15643 54 43 60 
2.01263 -1.29088 3.22993 69 58 56 
2.00088 -0.768116 3.13542 97 79 119 
1.99954 -0.711568 3.12422 107 91 128 
2.00253 -0.649616 3.11602 112 113 108 
2.00887 -0.670759 3.1238 88 97 130 
1.9981 -0.758397 3.12053 110 97 127 
1.99448 -0.536313 3.08183 103 102 98 
1.83327 -0.157218 2.85849 32 35 54 
1.75005 -0.0414832 2.7528 23 29 45 
2.00902 -0.693869 3.10406 44 40 65 
2.02535 -1.17983 3.18683 68 53 58 
2.01581 -0.741279 3.11153 74 86 110 
1.97896 -0.604353 3.05309 101 94 102 
2.02817 -1.30265 3.18731 68 56 58 
2.01324 -0.642355 3.06826 126 123 106 
2.02144 -0.762897 3.09178 113 108 112 
2.01144 -0.54121 3.04765 93 92 87 
2.01992 -0.755628 3.08517 50 47 68 
1.8703 -0.155035 2.84175 37 36 54 
2.00542 -0.206866 2.97501 115 107 130 
2.02068 -0.532958 3.03512 40 37 48 
1.99779 -0.610921 3.01939 99 93 97 
2.03702 -1.19166 3.13823 68 52 53 
2.03737 -1.33683 3.15224 49 59 95 
2.04281 -1.19156 3.12426 71 64 80 
1.92584 -0.0917839 2.84495 41 43 58 
2.04458 -1.24871 3.1224 48 57 86 
2.04648 -1.29052 3.1225 54 65 93 
2.03691 -0.644114 3.01736 119 115 103 
2.03338 -0.551184 2.99867 96 92 83 
2.03238 -0.596233 3.00104 101 101 91 
2.02831 -0.507034 2.98312 102 103 95 
2.03581 -0.623363 3.0058 34 37 52 
2.03227 -0.471088 2.97759 116 116 114 
2.03553 -0.579572 2.9912 38 41 60 
2.0343 -0.534357 2.97813 43 47 72 
2.0336 -0.491064 2.96698 43 51 74 
2.03622 -0.454107 2.96338 53 59 75 
2.03762 -0.471007 2.9624 50 57 85 
2.05342 -1.36773 3.09854 88 102 139 
2.0326 -0.210032 2.87129 117 122 160 
2.05271 -0.915539 2.96189 47 38 67 
2.06244 -0.682942 2.91635 59 73 118 
2.09584 -1.33244 3.02711 93 107 144 
2.0544 0.147992 2.75671 39 44 73 
2.05336 0.216195 2.74179 37 44 73 
2.05706 -0.184748 2.79829 47 33 56 
2.07203 -0.635385 2.86802 66 53 73 
2.05556 0.285178 2.71834 40 44 79 
2.06605 -0.130493 2.7833 62 70 116 
2.0535 0.352626 2.70229 41 50 79 
2.07514 -0.676605 2.86433 72 72 100 
2.05087 0.420227 2.68335 37 46 77 
2.07303 -0.869147 2.8847 72 85 130 
2.05255 0.489876 2.67245 37 47 74 
2.05039 0.558508 2.65423 34 38 63 
2.08186 -0.672975 2.85503 110 116 150 
2.10497 -1.22758 2.95197 124 142 188 
2.07893 -0.695153 2.85251 72 69 98 
2.08528 -0.869617 2.86981 110 126 162 
2.08227 -0.746303 2.84787 71 65 91 
2.0547 0.616462 2.62502 75 88 120 
2.12684 -0.55331 2.85527 38 50 92 
2.07978 -0.683989 2.82733 111 125 170 
2.0864 -0.740502 2.8379 107 125 161 
2.08658 -0.711281 2.8289 116 137 184 
2.10252 -0.464335 2.80689 23 26 41 
2.06422 0.602232 2.62145 40 30 41 
2.11228 -0.398837 2.80298 37 43 69 
2.08681 -0.730615 2.82521 74 86 128 
2.08741 0.157266 2.6945 38 28 39 
2.09561 -0.274906 2.75711 32 35 54 
2.1236 -1.35451 2.93161 120 138 184 
2.10319 -0.497148 2.78868 128 146 194 
2.09229 -0.693594 2.79931 68 80 118 
2.1251 -0.563488 2.80049 58 72 117 
2.0676 0.0869522 2.65765 79 97 137 
2.09778 -0.80152 2.80329 119 137 177 
2.10083 -0.727946 2.7923 75 88 133 
2.09529 -0.710332 2.78184 114 131 177 
2.1192 -0.558632 2.77829 66 88 137 
2.11855 -0.472632 2.76369 17 23 37 
2.12312 -1.21963 2.86824 68 90 140 
2.1189 -0.640203 2.78381 19 25 49 
2.09777 -0.94594 2.80513 92 89 106 
2.12153 -0.567014 2.76976 60 80 130 
2.10117 -0.792154 2.77669 63 51 73 
2.11112 0.537779 2.59252 38 50 72 
2.13282 -1.10668 2.83124 49 71 120 
2.08883 0.0587628 2.62999 44 52 98 
2.1031 -0.794028 2.75955 59 50 69 
2.13538 -0.644369 2.76527 17 18 38 
2.1034 0.540411 2.56927 33 49 82 
2.11264 0.48512 2.57569 98 115 145 
2.11642 -0.899124 2.76945 75 81 129 
2.09661 -0.115379 2.64424 84 81 98 
2.1098 0.55893 2.56071 103 121 161 
2.09734 -0.10101 2.64012 59 65 101 
2.12984 -0.249171 2.68678 125 144 187 
2.13872 -0.577139 2.73989 58 75 121 
2.09328 0.000345154 2.62039 62 73 119 
2.13545 -0.530816 2.73026 75 92 144 
2.10226 0.0492458 2.61359 49 61 101 
2.09642 0.068525 2.60576 100 117 160 
2.12796 -0.541035 2.71629 71 94 144 
2.11363 -0.83526 2.74441 63 76 121 
2.12441 -0.247967 2.67062 100 114 161 
2.11085 0.536743 2.54972 26 36 71 
2.11488 -0.761679 2.73071 92 93 113 
2.12921 -0.485409 2.70372 18 21 36 
2.12478 0.525667 2.54767 29 37 58 
2.11707 -0.734328 2.71258 74 71 98 
2.13876 -0.274951 2.66652 32 42 67 
2.0861 -0.00100979 2.57983 62 75 117 
2.15897 -0.621049 2.72771 76 98 145 
2.12828 0.204526 2.5839 108 125 168 
2.1368 -0.522339 2.68828 125 142 186 
2.10846 0.0480429 2.58534 41 55 92 
2.15115 -0.592754 2.70954 116 135 177 
2.1236 0.272384 2.56431 113 130 173 
2.12109 -0.764594 2.69808 115 133 179 
2.10698 0.00845776 2.58033 104 122 162 
2.13963 -0.386361 2.66063 120 138 174 
2.09671 0.688217 2.47013 24 31 47 
2.12571 -0.728218 2.68339 113 135 174 
2.10856 0.0114093 2.56764 47 56 99 
2.13991 -0.379959 2.64758 32 31 62 
2.11874 -0.716996 2.67282 80 84 113 
2.14623 0.180441 2.57197 32 43 65 
2.1247 -0.676361 2.66961 49 45 60 
2.13424 -0.660902 2.67501 19 22 41 
2.12486 -0.747191 2.67098 43 58 89 
2.11048 0.0343332 2.55006 55 70 113 
2.13081 0.477866 2.5063 33 35 86 
2.12935 -0.980985 2.69918 42 37 60 
2.12855 -0.360564 2.61445 28 30 43 
2.12917 0.52605 2.49419 15 21 73 
2.12948 0.501416 2.49667 14 16 64 
2.13187 -0.310176 2.60861 33 40 58 
2.12954 -0.706539 2.65944 66 54 76 
2.12717 -0.79528 2.66745 60 73 117 
2.12004 -0.164446 2.57522 108 122 159 
2.13231 -0.937486 2.68711 78 86 132 
2.13352 0.44748 2.50066 28 36 59 
2.13585 -0.955139 2.69226 110 127 171 
2.1163 -0.00469297 2.52962 53 59 93 
2.13241 0.497404 2.47394 15 19 66 
2.13669 0.521138 2.46751 31 46 103 
2.13507 0.461226 2.46855 99 120 151 
2.11955 0.0494179 2.5021 101 118 161 
2.12881 -0.240475 2.54656 65 58 74 
2.13672 0.258563 2.48616 109 128 168 
2.14047 -0.747487 2.61801 70 84 131 
2.15686 -1.50225 2.72493 80 94 129 
2.15487 -1.40575 2.71023 72 55 61 
2.12417 0.530527 2.42389 114 127 169 
2.12881 0.0823469 2.48044 57 50 68 
2.12462 0.442513 2.42271 23 30 48 
2.15878 -1.35075 2.68083 62 56 66 
2.13081 0.0211702 2.46971 45 54 85 
2.15742 -1.33159 2.67051 61 50 64 
2.12995 0.0521036 2.4603 86 104 150 
2.13329 0.00498165 2.46668 60 77 105 
2.13787 -0.0112618 2.47234 49 60 92 
2.13513 0.176903 2.43739 94 109 150 
2.16249 -1.27731 2.6498 59 64 94 
2.13595 0.216691 2.40967 50 54 89 
2.13715 0.14744 2.41701 49 57 94 
2.1357 0.286986 2.3966 51 57 91 
2.13571 0.156147 2.40751 95 117 154 
2.13372 0.0861464 2.41341 105 120 159 
2.13543 0.422257 2.3661 49 52 85 
2.14493 0.224197 2.39304 97 113 147 
2.17524 -1.35345 2.62292 62 50 54 
2.14091 0.141989 2.39845 54 60 92 
2.16325 -0.798566 2.53725 76 72 99 
2.13421 0.559343 2.33528 45 50 82 
2.13387 0.499929 2.34238 87 105 141 
2.14274 0.360186 2.361 94 110 144 
2.13953 0.279081 2.36784 49 58 89 
2.14558 0.130211 2.38764 93 112 145 
2.13985 0.366202 2.34436 48 61 96 
2.14337 0.218989 2.36304 98 116 152 
2.18512 -1.3248 2.55902 61 45 46 
2.18998 -1.44638 2.55958 58 43 46 
-1.58423 -1.54651 8.16551 92 114 187 
-1.4704 -0.421923 7.46051 54 40 63 
-1.39674 -0.535951 7.51411 10 16 28 
-1.11405 0.503491 7.37185 105 120 163 
-1.19224 -0.587328 7.48996 84 74 82 
-1.06615 0.478081 7.38936 29 48 80 
-1.15407 -0.598168 7.46055 15 21 33 
-1.03978 0.506263 7.39041 114 128 173 
-1.01079 0.478664 7.40271 37 53 89 
-0.970657 0.385581 7.43132 21 29 52 
-0.960155 0.486403 7.42472 29 42 74 
-0.960186 0.406084 7.43821 21 32 50 
-1.00826 -0.87433 8.12861 205 224 254 
-0.478749 1.24983 6.26124 84 83 79 
-0.454316 1.17087 6.3011 47 38 31 
-0.441407 1.25707 6.23097 101 97 94 
-0.43474 1.16767 6.29383 90 91 75 
-0.320786 0.853294 6.22789 24 14 15 
-0.304816 0.970951 6.15251 24 12 12 
0.0397393 0.810629 5.81094 17 16 30 
0.0442294 0.52905 5.88066 19 21 44 
0.0436891 0.500753 5.8824 22 23 43 
0.0461071 0.406384 5.9117 25 25 51 
0.0233277 0.0432654 5.97782 64 53 67 
0.0808471 0.756655 5.81878 101 111 146 
0.0651044 -0.783921 6.19932 18 17 23 
0.133834 -0.333476 6.10179 121 136 177 
0.45673 -1.67255 7.79312 113 134 189 
0.413027 0.658277 5.92132 21 32 52 
0.38693 -0.40934 6.16494 121 138 182 
0.524029 -1.03284 6.61893 108 131 165 
0.524612 -1.07838 6.62752 104 122 158 
0.546218 -1.05452 6.62532 42 61 94 
0.579214 -1.03775 6.61684 12 29 59 
0.86432 0.613829 6.04207 72 67 74 
0.847424 -0.919078 6.47432 20 27 46 
0.905209 0.760267 5.83441 50 57 86 
0.950213 -1.59222 6.34855 75 119 164 
0.978174 -0.689131 6.12781 90 82 105 
1.0118 0.051351 5.98424 33 47 84 
1.00719 0.0297626 5.96147 64 62 84 
1.03025 0.504177 5.86977 27 33 69 
1.03 0.46059 5.87935 51 64 108 
1.044 0.474867 5.87377 114 127 161 
1.01964 -0.658221 6.11966 67 63 86 
1.0314 -0.537946 6.11133 123 141 177 
0.99578 -0.272602 5.9422 95 111 147 
1.03192 -0.576427 6.1201 118 136 172 
1.03213 -0.614879 6.12933 118 136 172 
1.04929 0.125766 5.94675 112 123 155 
1.0501 0.0852453 5.95638 118 127 160 
1.05925 0.169881 5.9243 112 109 136 
1.0858 0.492722 5.84457 40 54 93 
1.08036 0.129286 5.93247 99 114 147 
1.09629 0.838823 5.76034 50 52 73 
1.07326 -0.61684 6.115 116 114 138 
1.09895 0.48368 5.84016 101 115 150 
1.10264 0.21585 5.90426 115 133 171 
1.10785 0.741022 5.73703 45 52 81 
1.1181 0.202995 5.9038 21 25 63 
1.11691 0.074658 5.92469 53 67 112 
1.1089 -0.649234 6.07376 70 71 99 
1.20307 -1.96172 6.65328 83 117 163 
1.20721 -2.13743 6.69765 53 85 136 
1.22457 -2.11946 6.69489 225 235 255 
1.22029 -2.16604 6.69679 222 237 255 
1.17353 1.0041 5.66274 52 57 86 
1.171 0.86372 5.69175 54 58 87 
1.21068 -0.686493 6.03447 74 63 71 
1.25899 -0.885433 6.04699 23 21 32 
1.31015 0.467271 5.74856 56 61 90 
1.35164 0.819266 5.73103 90 103 135 
1.30696 -0.235685 5.90478 60 66 92 
1.37234 -1.63122 6.28275 55 98 143 
1.38892 0.910717 5.54737 60 66 102 
1.40383 1.23275 5.44133 58 47 64 
1.41038 -0.0302584 5.71006 79 72 103 
1.42731 0.790301 5.51485 42 35 51 
1.44729 1.19789 5.40944 116 125 164 
1.61437 -1.44527 6.34693 48 60 86 
1.45589 1.17781 5.19334 63 42 57 
1.48347 0.699928 5.25294 63 72 113 
1.65349 -1.28971 5.81151 69 83 112 
1.52359 0.871693 4.90244 73 94 113 
1.53215 1.01426 4.87556 17 24 42 
1.53346 1.21892 4.82716 11 15 24 
1.53411 0.835424 4.91253 15 24 41 
1.55552 0.840822 4.8382 99 117 153 
1.57055 -0.755591 5.19761 72 63 84 
1.61604 0.641461 4.65428 68 76 115 
1.63404 0.558764 4.63841 81 72 99 
1.62844 0.518141 4.61998 112 129 172 
1.67476 0.697667 4.56332 46 55 86 
1.67212 -0.0426862 4.69689 107 123 156 
1.67907 0.640089 4.54867 101 120 150 
1.68628 0.962936 4.39336 111 124 169 
1.67687 -0.408183 4.66245 59 67 113 
1.68444 0.956017 4.32614 129 142 184 
1.68641 0.915226 4.32701 36 42 68 
1.6918 0.404721 4.39772 59 67 103 
1.49759 0.864239 3.33894 15 19 22 
1.8324 -0.545807 4.01126 129 148 191 
1.85937 0.473391 3.84083 34 45 75 
1.84474 -1.22021 4.10775 87 101 140 
1.83682 0.311802 3.81557 60 72 114 
1.84441 -0.501925 3.95428 109 128 160 
1.8445 0.313186 3.80219 54 62 99 
1.87304 -0.200314 3.91526 23 28 50 
1.60932 0.764443 3.29771 47 42 48 
1.89002 -0.381275 3.71059 35 33 46 
1.89833 -0.641663 3.64147 144 166 203 
1.92457 -0.590645 3.61231 113 127 156 
1.92268 -0.721841 3.61563 20 22 35 
1.63204 -0.0191899 3.09994 69 70 100 
1.96879 -1.23061 3.65126 46 35 52 
1.94475 -0.736098 3.53429 115 112 107 
1.98506 -0.947562 3.58355 66 78 126 
0.603283 -1.07959 6.80712 42 61 94 
0.961575 -0.636798 6.40408 93 84 85 
1.0319 -0.00189677 6.15586 74 66 90 
1.07544 0.850457 5.96667 50 49 63 
1.26899 0.835313 5.87294 93 108 139 
1.25977 0.787752 5.53928 90 103 135 
1.60565 0.623011 5.14198 79 90 120 
1.62805 0.864681 5.0742 15 24 41 
1.64438 1.28709 4.96526 111 96 103 
1.64564 1.16425 4.98905 94 113 143 
1.71888 0.522664 4.8151 51 66 99 
1.72959 1.06401 4.68925 57 40 59 
1.73547 0.470845 4.77514 61 69 108 
1.65362 0.151117 3.59357 44 29 36 
0.836556 -0.658609 6.22013 43 57 92 
0.809422 -1.51468 6.45498 55 97 147 
0.836083 -0.897226 6.22081 59 76 122 
0.836334 -1.51946 6.42715 50 83 136 
0.873527 -0.65113 6.06527 82 67 74 
0.958992 0.0756087 5.88147 100 119 151 
0.892064 -1.67689 6.46729 104 150 199 
0.916763 -0.587396 6.04157 122 123 144 
0.933379 -0.352884 5.95442 83 75 96 
0.973024 -0.291882 5.96233 29 42 84 
0.999246 -0.164115 5.92527 28 39 85 
1.04592 0.442812 5.75862 28 44 78 
0.976922 -0.591818 6.02635 31 48 91 
0.977665 -0.626003 6.03575 29 48 91 
1.07051 0.502351 5.7347 37 54 97 
1.03701 0.0837174 5.8397 103 116 151 
1.04984 0.0696718 5.83942 40 57 101 
1.00353 -0.623604 6.02306 33 45 93 
1.01827 -0.627166 6.01977 117 125 162 
1.07331 0.113771 5.81509 26 31 61 
1.02468 -0.530458 5.97868 119 119 145 
1.09609 0.0881787 5.83737 106 115 156 
1.05796 -0.545991 5.97685 34 53 95 
1.08414 -0.541036 5.96463 41 51 100 
1.12647 0.0996623 5.77377 104 104 132 
1.08539 -0.614376 5.98133 36 50 95 
1.18441 0.547682 5.68494 69 59 67 
1.08536 -0.666936 5.92587 95 83 105 
1.07955 -0.666221 5.91228 95 83 105 
1.14936 -2.13389 6.596 216 234 255 
-0.529609 0.691939 2.56561 110 117 76 
1.09953 -0.73042 5.92277 118 135 181 
1.17363 -2.0873 6.56493 221 228 255 
1.17237 -2.13461 6.57549 219 231 255 
1.19147 -1.95957 6.54056 216 230 255 
1.08078 -1.58469 6.1573 66 114 154 
1.18909 -0.600364 5.92647 56 52 66 
1.18222 -0.776435 5.96416 100 118 154 
-0.495407 0.48826 2.60922 22 49 68 
1.14455 -1.58991 6.14086 69 116 158 
-0.482227 0.703739 2.52875 58 58 0 
1.34111 0.6822 5.4787 73 80 108 
1.3246 -0.70464 5.94168 78 91 125 
1.35907 -1.36555 6.13855 109 126 172 
1.40511 0.796739 5.40291 26 35 52 
1.33128 -0.745086 5.78834 77 89 127 
1.37231 -0.106158 5.60644 99 119 156 
1.37783 -0.0549915 5.58144 104 113 142 
1.57556 -1.25284 6.32524 5 10 14 
1.39147 0.490382 5.37809 79 76 97 
1.39954 -0.00117877 5.5543 25 32 51 
1.38354 -0.181468 5.58536 54 68 107 
1.38255 -0.735375 5.75416 44 35 56 
1.45887 -1.48573 6.12328 14 18 30 
1.44979 -1.52538 6.11181 214 228 255 
1.41939 -0.344985 5.63769 132 143 188 
1.39449 -0.0962327 5.50123 109 124 163 
1.40234 -0.715153 5.72697 14 25 47 
1.40699 -0.734957 5.70976 79 93 122 
1.43412 1.0327 5.1038 48 61 96 
1.4054 -0.142586 5.46596 106 119 153 
1.41706 -0.722103 5.68435 19 25 51 
1.41269 0.369978 5.26113 58 49 66 
1.43165 0.816816 5.09916 61 67 99 
1.42417 -0.524367 5.53676 88 104 137 
1.59727 -1.14191 5.81613 116 135 167 
1.48 1.19395 4.79247 75 88 122 
1.60923 -1.23699 5.79855 62 77 106 
1.4667 0.364201 5.0385 66 70 105 
1.6021 -1.24306 5.7558 71 86 109 
1.4733 -0.828374 5.40936 102 115 147 
1.4634 -0.827731 5.39089 98 114 148 
1.49084 0.998694 4.80498 15 23 36 
1.48152 0.593666 4.92408 71 86 117 
1.63195 -1.23676 5.7084 49 65 98 
1.48845 -0.71212 5.2702 70 60 61 
1.53171 1.09631 4.69444 107 123 157 
1.52609 0.547898 4.83033 45 54 87 
1.50761 -0.933767 5.22355 69 74 106 
1.51661 -0.757691 5.15695 96 108 146 
1.87346 -1.32511 5.78166 81 103 140 
1.52212 -0.748141 5.11019 67 56 70 
1.52256 -0.775008 5.11902 56 58 81 
1.52592 -0.889648 5.15329 52 66 105 
1.55315 1.0653 4.5511 99 118 151 
1.55345 0.850722 4.61036 54 59 97 
1.5347 -0.889044 5.13092 98 117 150 
1.54303 0.341955 4.74541 85 74 72 
1.52393 -0.915071 5.1094 81 96 135 
1.57357 0.708871 4.62859 57 67 103 
1.57436 0.902311 4.51978 53 57 95 
1.5407 -0.860458 5.02632 93 84 79 
1.57108 0.695055 4.55902 61 66 104 
0.710506 0.974369 3.26164 18 19 39 
1.59667 0.277185 4.57392 88 102 137 
1.63085 0.580201 4.51536 38 45 64 
1.60108 -0.273001 4.7286 118 132 169 
1.60984 -0.215152 4.71961 44 36 51 
1.63792 0.182816 4.58815 123 140 183 
1.63239 -0.198796 4.68042 29 26 45 
1.6344 -0.0840436 4.64464 122 139 182 
1.61764 0.298996 4.50446 71 80 111 
1.62557 0.419026 4.43367 68 79 125 
1.65969 0.593078 4.41078 33 43 68 
1.64911 0.039836 4.56428 129 150 195 
1.63163 0.420474 4.42209 107 125 161 
1.6565 0.844366 4.31419 58 74 107 
1.62717 -0.287766 4.60086 73 82 123 
1.64245 1.00271 4.22802 59 69 105 
1.65274 0.555448 4.37451 55 66 94 
1.66055 0.470453 4.40764 105 118 162 
1.63948 -0.364808 4.62792 109 124 157 
1.64026 -0.935421 4.78841 59 67 114 
1.65916 0.582124 4.35137 40 42 65 
1.62752 -0.332717 4.58826 65 73 119 
1.64676 0.390503 4.39235 96 111 152 
1.66928 0.159606 4.48682 130 147 191 
1.63832 -0.317953 4.58565 123 140 184 
1.65302 -0.827223 4.75346 134 154 204 
1.66109 0.0599109 4.4959 46 66 103 
1.63928 -0.335368 4.57001 68 64 99 
1.65586 -0.221579 4.55554 69 85 118 
1.65782 0.0676358 4.4707 36 48 74 
1.65732 -0.916437 4.74334 54 72 120 
1.654 0.709919 4.25259 106 124 164 
1.66357 0.585214 4.29124 108 120 162 
1.65391 0.964102 4.1589 52 61 94 
1.63965 -1.03643 4.73255 97 111 150 
1.65624 -0.186096 4.49543 119 111 135 
1.64681 -0.387373 4.53488 80 92 130 
1.67139 0.557376 4.2791 54 67 109 
1.67471 0.960715 4.14949 51 60 91 
1.66751 0.775884 4.18661 56 64 101 
1.63839 -0.979074 4.66868 60 48 70 
1.65266 -0.548471 4.55427 109 106 127 
1.81438 -1.34168 4.95317 27 27 61 
1.29009 1.0685 3.63461 89 99 124 
1.82566 -1.34001 4.95139 121 140 172 
1.67781 1.05812 4.06952 62 59 86 
1.82884 -1.43114 4.94748 75 91 124 
1.67834 0.366051 4.24845 109 124 167 
1.67721 0.301354 4.26019 109 126 169 
1.64477 -1.02042 4.59842 95 111 145 
1.83712 -1.38742 4.91909 110 133 175 
1.67506 0.283274 4.24065 107 126 166 
1.67593 0.546279 4.16219 108 126 162 
1.6814 0.592932 4.15321 112 127 160 
1.83702 -1.39977 4.90467 43 56 108 
1.68312 0.454328 4.18613 111 127 160 
1.67743 0.215294 4.23731 100 111 143 
1.67812 0.243941 4.22856 122 122 124 
1.83067 -1.43745 4.88655 75 89 118 
1.68884 0.405598 4.18935 61 68 97 
1.68444 -0.936739 4.50856 111 110 108 
1.68055 -1.02078 4.51572 103 117 154 
1.71601 0.513507 4.08644 59 69 105 
1.69247 -1.03426 4.49274 55 64 105 
1.72088 1.0235 3.91484 60 58 82 
1.80488 0.296242 4.2122 108 123 166 
1.70011 -1.03834 4.47391 105 119 156 
1.73045 1.01655 3.88645 60 62 87 
1.30103 0.987664 3.41908 16 20 23 
1.73615 0.919192 3.90735 102 117 150 
1.72441 0.419925 4.03325 111 126 159 
2.04191 -1.4919 4.91368 13 18 24 
1.71091 0.179941 4.06658 111 118 136 
1.72483 -0.237878 4.18903 118 124 160 
1.71962 -0.920382 4.3391 72 56 59 
1.33575 0.952651 3.38693 15 16 21 
1.72543 -0.998675 4.33506 124 123 128 
1.74202 0.473072 3.9386 109 124 157 
1.75356 0.884604 3.80628 54 58 93 
1.7544 0.419108 3.93457 116 129 164 
1.73621 -1.04694 4.29181 92 80 82 
1.75318 0.333792 3.92139 75 84 117 
1.7646 0.859819 3.78379 54 40 57 
1.37834 0.919337 3.35843 16 15 21 
