ply                 
format ascii 1.0    
element vertex 1303
property float x    
property float y    
property float z    
property uchar red  
property uchar green
property uchar blue 
end_header          
0.980493 0.865335 3.78449 149 181 74 
-1.35362 1.77879 5.06326 41 57 0 
-1.7073 1.18293 5.21314 140 161 60 
0.794944 -0.03868 3.82766 57 81 5 
-0.410596 1.73601 4.53441 145 166 73 
1.02167 0.83332 3.75924 141 168 37 
-0.831645 0.984683 4.75682 71 103 6 
0.679482 -0.0638451 3.90597 140 164 70 
0.442794 -0.0174865 4.02501 140 163 57 
-1.03112 1.64888 4.86771 125 143 69 
0.72481 0.0454566 3.89076 162 191 63 
-1.78056 1.68769 5.28264 132 148 77 
0.700748 0.526225 3.9245 141 168 71 
-1.28613 -0.813128 4.91134 53 230 54 
0.31217 0.120747 4.09178 150 173 69 
0.919583 -0.676558 3.73096 52 67 10 
1.07408 0.56711 3.70091 75 93 35 
1.05046 -0.50184 3.66507 117 139 38 
-0.479781 1.19662 4.55162 134 165 45 
0.361551 1.54125 4.12433 62 77 10 
0.257529 0.510516 4.15563 137 160 52 
0.894352 0.56 3.79428 153 186 71 
-1.81801 1.15709 5.25632 150 181 62 
-1.41373 1.58365 5.06749 136 158 58 
-0.689529 0.362482 4.60358 73 114 18 
-0.744227 1.35264 4.69731 132 156 42 
-0.047107 -1.31415 4.19551 66 84 32 
1.06801 -1.37542 3.60574 109 129 58 
1.00474 -2.25344 3.59832 9 10 5 
-0.126536 -1.47819 4.23885 122 134 60 
-1.10567 1.94351 4.91667 157 183 60 
0.438916 0.543401 4.05238 160 195 67 
-0.918722 1.26742 4.80366 51 72 7 
0.587463 -1.15169 3.89812 36 42 4 
-1.76556 0.177094 5.19892 123 161 58 
0.327186 -0.75281 4.08645 48 73 16 
0.352332 -0.784939 4.01314 145 186 56 
-0.296141 -1.22707 4.32892 147 245 132 
0.978877 0.750416 3.78114 63 78 21 
-0.22829 -0.264446 4.34082 68 133 67 
0.49558 0.544476 4.04279 121 141 42 
-0.517505 1.95492 4.59941 95 107 43 
-1.92928 -0.718983 5.24556 75 102 31 
0.739381 -0.883227 3.79852 48 61 7 
-1.42381 -1.25105 4.95801 96 147 68 
0.0855814 1.95473 4.29604 101 112 54 
0.417114 -2.01617 3.93975 21 31 0 
0.211066 0.00121238 4.15011 90 128 27 
0.219959 1.88802 4.20875 139 161 53 
0.777854 -1.58559 3.76029 44 55 12 
-0.464117 1.52996 4.57816 128 143 60 
-1.55383 1.15707 5.12869 97 122 38 
0.830302 1.12073 3.8812 122 154 47 
0.607636 -0.599367 3.91723 63 83 12 
0.430925 -1.66932 3.92918 122 145 41 
1.01085 -0.186363 3.71668 138 151 79 
0.000750864 1.90315 4.34309 126 146 51 
0.949753 0.588572 3.79776 104 128 40 
1.12527 0.0819206 3.65069 131 148 46 
-1.73847 0.531427 5.19718 91 129 26 
0.395984 -1.64638 3.95587 38 55 0 
-0.29296 -0.281618 4.40764 30 54 18 
0.4471 0.429303 4.03725 140 173 22 
0.862955 -0.596203 3.77427 57 74 4 
0.80991 0.400721 3.86609 106 128 55 
0.510901 1.64023 4.0412 40 49 2 
0.500371 1.60444 4.04703 135 164 36 
0.80379 0.880103 3.88191 90 121 1 
-0.926624 1.32532 4.80048 126 153 58 
-0.126342 -1.47863 4.23979 122 134 60 
0.369854 -0.249247 4.02056 44 76 0 
0.380353 -0.401291 4.02554 123 159 69 
0.374753 1.49169 4.13587 64 82 8 
0.545476 1.56599 4.03679 124 151 38 
-0.311429 1.98854 4.50443 93 93 41 
1.0964 -0.61887 3.63257 122 138 40 
0.651645 1.55544 3.97477 118 145 38 
0.78548 1.11486 3.8959 121 149 39 
1.07289 0.800736 3.73079 140 158 59 
-1.83018 -0.42922 5.20542 56 85 19 
1.11131 0.279268 3.68141 94 115 36 
0.0663841 -1.22551 4.13887 80 130 33 
0.961423 0.805216 3.77055 144 161 65 
-0.0114436 0.905438 4.3106 24 42 4 
-0.782073 1.88334 4.7487 125 145 56 
0.324393 0.486115 4.15188 87 97 37 
-1.4015 1.73852 5.06024 137 159 51 
-0.727113 0.909547 4.64366 25 37 1 
1.13704 -0.720335 3.61947 134 154 65 
-0.0409915 1.98429 4.35946 95 105 36 
-1.10133 -1.20571 4.76231 81 160 43 
0.488463 1.60054 4.05566 141 169 46 
0.0158044 1.5285 4.32805 130 143 63 
-1.41973 0.976055 5.05979 136 169 78 
0.711326 0.705979 3.91772 95 112 41 
-1.82922 1.77381 5.33292 129 150 45 
-0.667982 0.893208 4.6029 28 36 0 
-0.727689 0.932296 4.67116 109 130 63 
0.726215 0.380662 3.89776 135 165 67 
1.07462 0.411787 3.72513 69 85 14 
-1.28604 -0.813026 4.90979 53 230 54 
-0.783747 0.902474 4.68825 32 42 7 
-1.72912 1.28949 5.22289 142 163 62 
0.0976678 1.19717 4.24995 82 100 18 
-1.81443 -0.242246 5.19964 131 181 68 
-1.30592 -0.826926 4.89976 41 255 100 
0.883192 0.129033 3.80259 90 107 36 
-0.197532 1.13893 4.41089 121 146 29 
-1.45549 1.0233 5.08464 152 185 81 
0.692007 0.356743 3.93983 26 46 0 
0.485864 -0.610101 3.98398 92 115 47 
0.931856 0.0561463 3.77621 48 69 2 
0.667267 0.371673 3.94673 109 138 46 
0.673105 -0.301052 3.88192 119 140 35 
0.630182 -0.588071 3.90868 134 161 54 
0.119265 1.62208 4.26563 55 75 4 
0.75782 0.260309 3.86771 132 166 27 
0.233287 -0.109344 4.14088 54 77 31 
0.939951 -1.23818 3.69697 121 134 62 
0.99118 -0.505655 3.68951 61 79 27 
0.674117 -0.488495 3.86794 121 143 35 
-0.108546 1.77109 4.39082 63 78 13 
0.979876 0.94319 3.80019 54 74 23 
0.995041 1.75501 3.80598 128 152 54 
-0.167253 -1.27875 4.25315 85 127 43 
0.783855 -2.25591 3.71386 6 8 5 
0.596319 0.633343 3.99079 46 62 0 
-0.108239 1.77165 4.39242 63 78 13 
0.661948 -1.47126 3.81848 69 82 12 
0.427339 0.317077 4.0398 131 152 61 
0.779952 -0.893055 3.78653 70 89 10 
0.737418 1.09009 3.91528 153 178 58 
-1.82448 -0.0965775 5.18612 136 178 66 
-0.193701 -1.7177 4.24019 101 117 44 
0.26359 1.93067 4.22966 122 136 57 
0.286539 0.50509 4.14987 80 98 12 
-1.26054 -0.19648 4.88191 92 245 58 
0.932671 0.0560983 3.77785 87 109 37 
0.652914 1.07763 3.97253 91 111 40 
0.827622 0.648454 3.87343 120 143 63 
0.274508 1.14278 4.15353 25 49 0 
0.867875 -0.0317765 3.8096 107 135 16 
-1.24872 -0.622765 4.79602 150 93 64 
-1.4116 1.94322 5.06832 97 102 46 
0.948659 0.588892 3.79546 108 133 42 
0.32305 -0.553642 4.071 83 103 44 
-1.72995 0.288874 5.20059 133 178 73 
-1.86292 -0.28623 5.23818 100 125 31 
-0.726128 1.35231 4.69603 64 80 18 
-1.87641 0.975773 5.32571 141 164 60 
0.75235 -0.854176 3.80772 116 134 50 
-0.0434295 1.87483 4.36297 131 157 66 
0.118857 1.70052 4.25582 131 155 43 
0.4854 1.80236 4.07497 127 149 40 
-0.820223 1.74363 4.76699 40 48 7 
1.00645 -1.79885 3.63258 98 114 39 
0.431096 -1.47467 3.95046 50 66 3 
0.0831632 1.9959 4.29385 169 162 118 
0.344394 1.69599 4.15524 146 165 57 
1.09492 0.00165928 3.67747 62 75 19 
0.150104 1.86567 4.25693 132 149 55 
0.0432054 -1.1879 4.15963 33 56 0 
-0.198924 1.58949 4.43211 100 125 23 
-1.70381 1.87609 5.26181 102 113 53 
0.813385 0.759601 3.86427 109 138 30 
-0.970493 -1.5901 4.70176 28 47 0 
-1.79965 -0.319894 5.19207 136 185 68 
1.11383 1.29159 3.74435 52 67 0 
0.72526 -0.4849 3.86029 27 40 0 
1.08193 -0.595505 3.64911 105 126 35 
-0.480191 1.19538 4.54834 134 165 45 
1.02786 -0.0218462 3.73062 102 134 11 
1.17218 0.779717 3.67495 67 75 15 
0.370192 -0.248964 4.02155 51 79 4 
-0.0889779 1.84483 4.35838 109 132 44 
0.0962558 1.98768 4.28377 169 169 117 
0.331895 -0.446684 4.05366 173 215 89 
0.0892036 1.17377 4.25674 129 154 34 
-0.811203 0.99469 4.73089 159 190 71 
-1.8327 -0.634979 5.22036 57 84 5 
0.361497 -1.62848 3.97192 126 146 47 
-1.31777 -0.839918 4.89988 173 255 218 
-0.534241 -1.54256 4.43165 113 139 32 
0.23921 -0.928511 4.06434 60 101 23 
0.453226 1.72112 4.08592 99 118 13 
-0.630739 0.893237 4.59123 37 38 0 
-0.133969 1.76107 4.39918 85 105 18 
-0.104417 -1.23886 4.23629 44 85 19 
-1.96123 -0.0419946 5.3121 143 171 61 
-0.69113 0.399495 4.58947 10 98 0 
-1.52592 1.24685 5.13692 61 77 6 
-1.04766 1.36572 4.8471 126 149 41 
-1.41651 0.92532 5.08175 22 39 3 
0.725443 1.3203 3.9091 47 64 9 
-1.08081 0.976765 4.88266 58 91 4 
0.225327 -0.0770423 4.15406 110 122 72 
1.15603 -0.588197 3.61834 86 96 10 
-1.41658 0.925346 5.08244 22 39 3 
-0.31967 0.406576 4.40043 83 194 38 
-1.08815 1.1886 4.86838 130 167 35 
-0.535311 1.98939 4.62175 77 85 36 
0.579516 1.90945 3.99416 107 130 26 
-1.21935 1.34255 4.96922 121 131 45 
0.350694 0.48519 4.1114 141 158 103 
0.448566 0.853266 4.06608 90 112 3 
0.925016 0.0498298 3.7844 119 138 56 
-0.748642 1.79552 4.72608 116 131 50 
0.409068 -1.33189 3.94491 71 77 29 
0.102333 0.892069 4.22899 54 62 13 
0.0202938 1.75871 4.33102 120 144 48 
0.438018 -1.31665 3.93559 47 60 14 
-1.83651 -0.419372 5.22532 65 95 23 
-0.489073 1.13212 4.56919 72 97 3 
1.13811 -0.875211 3.60248 122 140 41 
1.12314 0.19306 3.67092 39 45 0 
-0.710402 0.373614 4.60447 94 193 74 
0.55298 0.375116 3.99643 135 164 54 
0.335152 -1.29722 4.00758 42 61 6 
-0.803302 1.1011 4.70618 66 80 5 
0.30422 -0.741006 4.05639 68 91 35 
-0.645357 1.23818 4.62331 114 136 28 
0.359446 -0.931536 4.013 39 51 3 
-1.75206 -0.05391 5.1852 77 96 14 
1.12349 -0.724967 3.64733 78 97 31 
0.659774 0.111534 3.91497 119 140 45 
0.920482 0.0888098 3.75987 92 116 2 
0.906173 -0.279964 3.7344 69 81 17 
-0.513855 1.89925 4.5873 94 110 39 
0.647005 -0.209992 3.92424 93 108 41 
-0.693485 0.411743 4.59547 112 231 113 
-0.320224 0.406813 4.39652 83 194 38 
0.509332 -1.58765 3.90063 68 81 11 
0.277615 1.61625 4.18792 65 74 19 
1.05166 1.1335 3.74077 73 92 2 
1.00307 -0.631423 3.70245 117 131 52 
0.983633 1.1375 3.78688 95 110 51 
-0.416795 0.919049 4.50224 36 48 0 
0.648745 0.0413383 3.92643 152 181 65 
0.614419 0.847063 3.99182 139 161 52 
-0.889512 1.09805 4.7811 166 190 80 
0.752618 -0.00515346 3.86695 85 113 0 
0.459927 1.93331 4.05851 126 148 50 
-1.57708 1.64933 5.15979 114 140 43 
1.15792 1.37178 3.72505 136 158 50 
-1.25968 1.21322 4.9735 49 59 6 
0.10839 -2.21873 4.0398 46 54 17 
0.648347 1.30979 3.99119 115 134 42 
0.985659 -0.695655 3.71621 99 122 32 
-1.07111 0.933861 4.86535 64 94 30 
-1.4255 1.84924 5.10285 45 58 2 
1.10547 1.65994 3.755 107 134 29 
0.00826265 0.946025 4.30462 44 57 11 
0.483245 0.192733 4.01892 151 180 62 
-1.02811 1.95203 4.852 107 117 44 
-1.78078 -0.23742 5.20848 102 129 48 
-1.79688 -0.300765 5.19652 141 180 65 
-0.485947 1.54211 4.58189 148 163 70 
0.559374 1.56115 4.03174 123 150 47 
0.516973 -0.465974 3.96847 137 164 59 
0.653431 -0.10832 3.91542 124 146 45 
-1.30176 -1.36023 4.87897 133 168 84 
-0.425532 0.917056 4.4877 61 72 32 
0.771663 1.92839 3.94832 76 98 23 
0.246323 -0.320133 4.10939 118 183 67 
0.353876 0.740979 4.09402 103 125 16 
1.13665 -1.51927 3.59459 57 71 10 
0.0882249 1.85452 4.28417 134 145 77 
0.589567 -0.500156 3.92277 92 108 35 
0.721651 -0.206036 3.87896 138 160 59 
0.885154 -1.06881 3.74531 103 123 36 
-0.0390845 1.90293 4.34478 143 168 67 
1.03888 -1.02636 3.65537 115 142 37 
0.997495 1.03885 3.78273 124 139 54 
0.970618 1.20598 3.80595 65 83 7 
0.598246 0.648353 3.99823 103 127 43 
-0.430738 0.909241 4.44578 75 89 40 
0.116439 1.69687 4.24644 129 153 43 
0.0433557 -1.18806 4.16025 41 64 0 
0.489272 1.45499 4.09454 64 81 13 
0.760804 1.34516 3.93199 78 92 33 
0.991781 -1.19036 3.66173 64 73 28 
-1.19304 0.999344 4.92773 97 116 50 
-1.45527 1.00234 5.09201 139 168 62 
0.307289 1.21166 4.16024 96 119 37 
0.98694 0.638331 3.77732 79 99 2 
-0.732052 0.458947 4.6387 111 215 90 
-0.43583 1.50989 4.56331 100 123 35 
0.920973 -1.3251 3.68442 51 62 20 
0.697976 -0.363575 3.86081 122 151 58 
1.0748 0.411919 3.72545 68 85 14 
0.686921 1.18279 3.95363 76 97 32 
-0.384859 -1.19168 4.36569 135 255 129 
1.16912 0.992876 3.68675 100 115 50 
0.518606 0.119641 4.00472 134 154 41 
-0.676214 1.58488 4.66318 60 77 0 
0.114038 1.69325 4.25493 140 163 55 
-0.0790914 1.22623 4.37106 85 107 43 
0.430171 1.67277 4.08668 46 54 0 
0.386533 -0.217093 4.02744 119 138 56 
0.637921 -0.781779 3.8878 104 123 42 
-1.95042 0.348326 5.30953 68 97 5 
0.533831 -1.7197 3.87369 82 96 34 
0.895336 1.75343 3.85467 130 145 54 
0.543592 0.895534 4.00163 70 86 11 
1.10759 0.164477 3.66819 132 156 42 
0.298443 0.661015 4.1436 48 74 0 
1.18168 0.895899 3.66197 99 130 3 
-0.0777302 1.22773 4.37785 69 90 31 
0.300169 -0.81219 4.04545 111 136 45 
1.13954 -2.06108 3.55366 36 41 21 
0.306767 1.21092 4.15866 92 116 32 
0.843162 1.57787 3.86927 31 45 0 
-1.27744 1.37071 5.00421 119 136 42 
0.276952 1.61602 4.18918 65 74 19 
1.00918 0.201808 3.73894 126 155 37 
0.347362 1.32257 4.12685 95 107 33 
0.231834 1.80113 4.21926 81 96 27 
0.992629 -1.19089 3.66333 64 73 28 
0.607339 -1.35942 3.86879 72 78 40 
0.980271 0.396621 3.75716 128 147 57 
0.482958 0.193059 4.01777 151 180 62 
0.822883 0.668413 3.86296 120 153 12 
-1.18967 -1.4715 4.80976 47 65 15 
0.291387 -1.36537 4.00599 109 128 47 
0.600993 0.429331 3.96655 74 96 21 
-0.93698 1.63186 4.80141 128 156 46 
-0.886963 1.31138 4.77426 144 173 57 
-0.42118 0.923586 4.52273 39 51 5 
-1.25861 1.77763 4.98843 81 95 34 
-0.990824 0.927353 4.84322 31 52 9 
1.15914 -0.107286 3.65197 88 100 36 
-1.52306 1.14761 5.11129 153 189 65 
0.10273 1.0074 4.21588 92 118 29 
0.265185 0.833528 4.14663 94 117 27 
-0.901927 1.29399 4.8057 133 164 44 
0.461767 1.68745 4.08109 150 174 54 
0.794762 0.872964 3.918 151 174 57 
0.845779 -1.17512 3.75096 81 101 16 
-0.547634 0.895602 4.55125 55 72 27 
0.58661 -1.38496 3.87617 84 100 38 
0.373792 -0.373131 4.02352 17 45 0 
-0.00548243 0.963602 4.30855 113 137 41 
-0.989978 -1.62541 4.71953 30 48 8 
0.540893 1.39273 4.04592 31 40 0 
1.12566 0.786853 3.6837 56 57 25 
0.0584703 0.977631 4.24699 139 176 71 
1.16494 1.87612 3.71352 102 127 36 
-1.22122 1.23217 4.95488 143 173 59 
-1.08034 0.974869 4.86382 80 113 22 
0.864836 1.29606 3.8603 121 131 42 
1.16096 0.498165 3.67817 58 73 18 
-1.05288 1.89816 4.88665 119 141 43 
0.918317 0.0903452 3.75442 108 133 16 
0.236922 0.215594 4.15406 123 138 55 
-1.88508 0.214471 5.28585 126 155 36 
-0.621039 -1.74633 4.48815 48 68 7 
-0.533648 1.99665 4.63778 79 85 41 
-1.21724 1.18375 4.97485 64 82 0 
-1.01448 1.87274 4.89158 126 144 58 
-1.59118 1.42864 5.18379 113 134 31 
0.722614 0.22807 3.90968 87 111 35 
-0.172479 0.269781 4.34345 135 239 126 
0.4276 1.04029 4.06909 78 99 30 
0.370197 -1.29636 4.00772 39 53 0 
0.497628 1.38892 4.06044 117 136 47 
0.524956 0.107935 4.01567 78 98 0 
-1.0427 1.35451 4.84844 125 145 50 
0.582495 0.569549 3.98613 144 160 71 
-1.84017 0.995467 5.30546 125 153 43 
0.0563993 -1.29234 4.13205 72 90 28 
1.14775 -1.86531 3.56519 45 44 40 
-0.331881 -1.34215 4.33888 82 103 36 
0.843249 0.673616 3.85474 109 139 15 
0.655311 -0.112684 3.91609 133 154 61 
-1.04416 1.35683 4.85322 124 144 47 
-1.94505 0.415494 5.32993 102 123 22 
-0.151093 0.495748 4.35794 95 216 139 
-1.02094 1.66703 4.86891 52 66 13 
-0.0510082 1.18375 4.33687 139 164 44 
-1.29918 1.22385 4.98812 68 82 23 
-0.0159399 1.6202 4.34854 119 134 65 
0.0900695 1.25779 4.26393 94 112 30 
0.948409 1.58673 3.83782 72 89 9 
0.969644 1.96035 3.84063 47 59 0 
1.07139 -0.0375381 3.67266 123 154 27 
1.14035 -2.06169 3.55508 36 41 21 
0.054921 1.92182 4.33017 73 86 30 
0.33666 -1.01841 4.03255 54 75 8 
-0.216643 0.41489 4.378 139 205 118 
0.783306 1.69534 3.91884 105 128 38 
-0.92037 1.97616 4.78964 97 112 45 
-0.725088 -0.149557 4.60166 60 129 22 
0.295733 -0.740563 4.05888 84 110 39 
0.227035 -1.13176 4.08294 48 63 6 
1.0955 1.26605 3.72572 53 64 21 
0.841296 -2.25636 3.70809 66 78 30 
0.652888 -0.0944508 3.91604 126 147 54 
-0.798308 1.3144 4.71657 107 133 26 
1.13191 0.542644 3.68679 115 136 41 
0.956144 0.585393 3.79506 106 128 55 
-1.08456 -1.27019 4.75055 92 163 57 
0.501113 -1.34685 3.90789 95 109 56 
0.421949 0.488472 4.06648 148 176 65 
0.359847 0.178074 4.08121 105 134 42 
0.187052 1.43309 4.22079 70 83 13 
0.85296 1.07333 3.88745 126 147 56 
1.15102 1.94958 3.73078 103 118 37 
0.152672 0.909417 4.21818 78 94 32 
1.01319 -1.73385 3.62854 98 113 48 
0.612422 1.60604 3.99922 76 98 16 
0.839863 -0.992619 3.77226 93 115 15 
-0.959656 1.11531 4.81426 113 134 67 
-0.016971 1.51127 4.35654 97 102 44 
0.284357 0.787148 4.14638 65 86 17 
0.866073 -1.68438 3.71143 103 117 38 
0.86816 -0.81483 3.73694 72 85 32 
0.660893 1.33731 3.9793 113 131 45 
0.349103 0.484851 4.1064 131 145 96 
1.02663 -1.25489 3.64866 61 80 14 
0.0168161 -2.0014 4.12441 87 99 33 
0.993673 -0.263765 3.72331 127 149 49 
0.689114 -1.31199 3.81325 105 119 58 
1.17668 0.694281 3.67339 114 140 31 
0.661734 1.33807 3.98133 113 131 45 
-1.05272 1.67534 4.87658 71 87 22 
0.322586 -0.742497 4.05281 18 42 0 
-1.77271 1.47559 5.24878 140 162 54 
0.99229 -1.19507 3.6571 56 66 14 
-0.945918 1.88171 4.80092 126 143 41 
0.375959 -0.998204 4.02175 103 126 46 
-0.739691 1.34191 4.69197 123 146 40 
-0.30189 1.74767 4.4713 59 72 3 
0.0451866 1.82153 4.33613 132 152 55 
1.05918 -0.452427 3.66854 95 111 40 
0.994883 -0.263945 3.72563 127 149 49 
1.10044 0.417273 3.70097 66 89 0 
0.507087 1.98131 4.0777 83 83 47 
0.625714 0.822934 3.97067 111 124 55 
0.378766 -1.60236 3.96602 114 132 46 
-1.57306 1.2802 5.13553 103 119 54 
0.584953 -0.44291 3.91742 47 68 3 
0.860743 -0.12613 3.70441 55 76 9 
0.256657 -1.38211 4.0092 131 165 53 
-0.0339175 1.21388 4.3385 72 88 15 
1.01584 0.0197391 3.71678 122 144 43 
0.821063 -1.01088 3.80075 23 35 0 
-1.77411 0.301284 5.20788 112 173 56 
-1.62595 1.97727 5.21791 129 143 48 
0.803832 1.98474 3.91006 174 163 135 
0.883366 -2.26044 3.668 23 28 6 
1.075 -1.06004 3.61999 61 75 22 
0.904616 0.770961 3.81653 87 101 40 
0.833303 1.61563 3.89607 110 130 43 
1.17846 -0.16679 3.6517 103 124 29 
0.828073 -1.49382 3.73792 93 106 50 
-0.348527 -1.75667 4.33498 97 125 40 
-1.85992 1.23851 5.31698 115 136 41 
-0.664697 0.295232 4.57053 131 212 75 
0.831602 0.171542 3.8424 146 160 83 
0.987305 -2.2344 3.60622 53 64 22 
-0.25063 1.54112 4.46989 124 144 59 
1.16036 0.39142 3.682 76 100 12 
0.885242 -1.94738 3.69896 23 33 0 
0.65122 -0.357957 3.88024 118 140 29 
0.42656 0.0070856 4.03481 108 128 29 
0.640235 1.78341 3.9881 56 70 11 
0.280428 -0.118221 4.11729 112 148 58 
-0.530908 1.87435 4.61047 46 59 16 
-1.2048 0.998219 4.91968 62 83 16 
0.947263 1.63206 3.84182 87 95 44 
0.194168 -2.17937 4.01892 90 104 43 
0.528799 1.03293 4.03444 68 85 7 
-1.53874 1.32094 5.13566 122 137 46 
-0.0992307 1.44722 4.38629 101 126 43 
0.372207 -0.727066 4.02124 90 106 41 
0.405499 -2.25369 3.90434 5 6 8 
0.450051 1.42766 4.08548 122 145 37 
0.971367 -0.673968 3.71112 68 79 23 
0.64231 -0.780149 3.87722 109 133 39 
-0.244443 0.292804 4.37336 100 189 63 
0.807965 -0.0515 3.82735 70 93 23 
-0.177905 1.26896 4.41927 108 132 58 
0.424829 0.443042 4.06524 126 154 31 
1.11582 1.14311 3.7213 64 79 24 
-1.05332 1.89865 4.88958 122 144 46 
-0.169091 0.269116 4.36131 132 219 112 
0.825904 -1.7161 3.72523 57 71 10 
0.316642 -1.58189 3.99137 96 114 32 
0.786732 1.68631 3.92045 99 122 31 
-1.87119 -0.390577 5.23437 83 124 28 
1.12799 -0.0385737 3.66797 74 97 6 
0.319991 0.209856 4.11826 161 190 100 
0.861686 -0.0758572 3.79162 123 134 65 
0.536259 0.520024 3.99986 122 150 37 
-1.19829 1.5264 4.96468 133 155 55 
1.00254 0.160242 3.74354 114 140 41 
0.679795 -1.89342 3.78749 90 102 36 
0.535326 -0.515059 3.93841 87 102 43 
0.926528 0.899226 3.8198 54 76 1 
-0.00644192 1.5321 4.34743 104 114 45 
0.520857 -1.09562 3.89912 73 88 29 
-1.31176 2.01838 5.03558 163 169 83 
-1.29693 1.97298 5.0299 109 133 39 
-1.28925 1.22339 4.99603 47 61 2 
0.846862 0.959338 3.86028 96 123 8 
-0.21376 1.77408 4.45089 60 75 10 
-1.00775 -1.24502 4.7118 119 188 81 
-0.115518 -2.2797 4.2185 12 16 1 
-1.54051 1.5676 5.17277 116 131 62 
0.75903 -0.146511 3.87116 131 148 56 
-0.722723 1.95825 4.70209 76 95 14 
0.414925 -0.0688224 4.01931 124 136 60 
0.790922 -1.57193 3.75078 89 105 32 
-0.188057 1.22357 4.41662 67 84 13 
-0.265359 1.67444 4.48054 98 121 17 
-1.26012 2.02285 5.01098 172 164 143 
0.969804 -1.92516 3.63798 95 108 54 
0.0573945 0.97697 4.24243 143 180 75 
0.840153 0.169873 3.83165 52 64 0 
1.15541 1.68181 3.72779 61 80 24 
-0.70345 -0.931937 4.48435 127 69 47 
0.3339 1.09887 4.13338 96 123 20 
-0.446006 1.94728 4.59638 93 109 38 
0.203467 1.66721 4.22093 43 55 9 
-1.82133 0.11556 5.22913 68 97 7 
0.316835 -1.58205 3.99198 96 114 32 
-0.532382 1.80505 4.5785 124 147 57 
-0.0636207 -1.47553 4.19235 67 70 15 
0.124517 -2.25113 4.0736 58 72 13 
0.285453 1.42087 4.15751 34 46 0 
-0.604228 1.98375 4.64438 135 146 70 
-0.249827 1.56544 4.46395 80 99 17 
-1.85848 0.162155 5.25596 139 175 79 
1.05285 -0.862884 3.6662 62 77 22 
1.11329 -0.784449 3.63954 67 88 13 
0.178943 -1.39466 4.06582 122 151 45 
-0.284244 1.97525 4.48459 145 164 56 
0.909722 0.380504 3.79245 107 131 55 
0.727226 -2.25609 3.75133 9 13 12 
0.887024 -0.87039 3.7396 36 51 0 
-0.939858 1.54927 4.83298 99 115 40 
-1.74096 -0.0490733 5.19177 49 76 5 
-1.75515 1.02684 5.23076 94 119 17 
0.916313 0.955751 3.82095 90 114 30 
0.737727 1.91089 3.94605 118 143 52 
-1.28492 -1.54832 4.89708 74 94 31 
0.478652 -0.322288 3.99047 114 138 42 
0.278569 1.11529 4.15838 122 151 23 
0.337519 0.298088 4.08421 136 158 57 
-1.09324 0.928074 4.88386 44 82 9 
0.715138 -1.89655 3.75041 58 71 18 
-0.981679 1.71942 4.8275 77 95 19 
0.676767 1.01849 3.94273 82 104 4 
0.670509 1.85144 3.992 36 48 12 
-0.0993133 -1.37338 4.18611 84 118 23 
-1.23444 1.67194 4.99364 105 120 53 
0.752589 -1.59265 3.78889 58 72 11 
-1.3377 1.74951 5.05308 104 128 30 
0.323746 -1.95205 3.97878 37 46 1 
-1.54618 2.0226 5.1824 93 95 74 
-1.45957 -2.262 4.88294 49 59 25 
0.544403 0.504631 3.99835 129 155 54 
-0.615763 0.880578 4.592 162 102 68 
0.990007 0.863002 3.76312 143 169 59 
1.06596 0.177022 3.62567 132 159 46 
0.460332 0.581705 4.04904 102 117 22 
-0.307607 -1.609 4.292 61 75 24 
0.994233 -0.901688 3.69535 91 108 38 
-1.77855 1.77376 5.29166 121 142 49 
-1.63332 1.43407 5.20211 127 141 53 
1.18068 -0.765277 3.59813 178 171 155 
0.883271 -1.93918 3.69621 30 39 12 
-1.55846 1.59839 5.14982 128 146 72 
1.03878 0.809517 3.7504 129 149 60 
-0.701121 -1.48954 4.52892 82 103 46 
-0.480399 -2.22955 4.35852 54 64 30 
0.351437 1.66685 4.14278 71 81 28 
0.716742 -1.89759 3.75419 90 100 47 
0.0535203 1.82835 4.30654 109 128 47 
0.804488 -1.43275 3.76191 54 73 0 
-1.10903 1.13168 4.88758 141 168 65 
0.587965 -1.05176 3.89432 84 99 34 
0.479305 1.96245 4.08208 129 144 61 
-0.946858 -1.32323 4.6836 40 67 0 
0.60657 0.473469 3.97006 142 168 67 
0.00561985 1.94858 4.34349 143 163 66 
0.323341 -1.24362 4.01645 88 115 22 
1.17552 1.29275 3.70356 89 100 21 
0.842598 1.97663 3.88871 172 163 134 
1.11065 -0.0782635 3.66383 73 82 27 
-0.796585 1.83134 4.74056 99 119 30 
-1.6862 1.15308 5.22006 140 160 47 
0.555091 1.04306 4.02069 67 84 6 
1.13397 -0.506244 3.61282 132 144 60 
-0.363774 1.89023 4.52944 92 112 23 
0.193282 -1.91461 4.02256 82 98 35 
0.459356 1.645 4.07171 124 147 30 
0.519575 -1.78892 3.86214 81 96 31 
0.307222 -0.975353 4.03006 60 94 10 
0.845547 -0.806198 3.75425 67 79 31 
0.821436 -0.794241 3.76303 103 122 43 
1.131 0.686422 3.69316 76 101 17 
0.586672 -1.05592 3.90142 81 95 33 
-0.974815 1.10964 4.81197 82 116 32 
1.1375 -0.48389 3.63729 62 66 29 
-0.262814 -1.36894 4.30796 53 69 7 
0.114031 1.40855 4.27603 93 110 32 
-1.09269 -1.28594 4.75429 115 160 57 
1.15886 0.998668 3.69987 98 115 37 
0.355878 1.15396 4.13939 96 117 26 
0.268025 1.25417 4.15868 105 132 35 
-1.72057 1.11975 5.21884 92 115 11 
-1.41807 1.20531 5.04635 84 105 40 
-0.145659 1.44409 4.40849 101 122 31 
-1.37687 -0.233404 4.90781 127 74 40 
-0.0783202 1.82367 4.39455 42 56 3 
-0.150405 1.83563 4.40062 66 68 19 
-1.29989 1.90689 5.02468 124 141 47 
-0.447289 -1.4429 4.43159 86 102 39 
0.415517 1.38972 4.11112 121 145 47 
-0.188199 -0.802612 4.32399 101 243 109 
0.762936 0.094637 3.8876 74 90 19 
0.106389 -1.34098 4.08576 107 137 51 
0.995874 1.98496 3.81922 160 160 110 
0.972392 1.92011 3.81736 127 150 46 
0.992754 -2.2315 3.61056 51 62 20 
0.463314 0.937297 4.04155 60 90 0 
0.138443 1.83093 4.24925 105 120 37 
-0.459452 -1.7444 4.39708 49 61 15 
0.847404 0.106681 3.81878 82 94 28 
0.562686 0.0830412 3.96148 148 168 55 
-1.11868 -1.25926 4.82565 35 66 22 
-0.701011 -1.48976 4.53095 77 98 41 
0.41284 1.62947 4.12246 90 104 25 
-0.45856 1.99886 4.57837 174 164 128 
0.601209 -0.785474 3.88983 68 88 25 
0.274502 -0.506744 4.08552 146 165 83 
0.470987 0.432879 4.02274 130 150 51 
1.01176 1.85917 3.81565 81 101 14 
0.138523 1.83137 4.2493 105 120 37 
0.19652 -1.96943 4.04087 46 52 14 
0.337196 -1.07557 4.00033 76 101 20 
0.683526 1.44714 3.96675 80 95 30 
0.647773 -0.146795 3.90734 119 136 42 
1.05953 0.930095 3.76029 48 56 17 
-0.22551 1.14284 4.41189 147 168 51 
0.748831 0.48855 3.88667 114 140 39 
-1.23922 1.64328 5.00069 84 98 37 
0.457481 -0.32903 3.99766 122 147 66 
0.466041 -0.459371 3.98405 36 59 0 
0.546351 -2.24673 3.83363 37 43 17 
0.705079 -1.40567 3.80594 82 99 21 
-0.782578 0.43465 4.66523 72 222 55 
0.857705 -1.69813 3.70933 50 64 2 
0.314188 1.98543 4.15653 177 165 125 
1.21199 1.26383 3.68555 82 95 23 
0.777066 1.93024 3.9014 96 119 29 
-0.204229 -0.157311 4.34092 101 231 109 
0.81439 -1.89603 3.7171 91 106 49 
-0.332471 -0.20552 4.40709 86 146 48 
-1.47455 -2.31782 4.94016 53 65 29 
0.785031 -0.00227172 3.85411 86 107 42 
0.756564 1.72506 3.94594 102 121 29 
-0.933649 1.09074 4.81146 85 99 20 
0.751398 0.496286 3.88671 115 138 60 
0.665768 0.595337 3.9374 71 98 5 
0.230194 -2.04936 4.01206 80 94 33 
-0.0380588 1.48494 4.32156 120 130 57 
0.0365363 1.90633 4.33882 90 106 44 
-0.571464 0.882417 4.55394 158 107 62 
0.0632613 1.85589 4.2881 112 131 39 
0.786044 1.6733 3.91488 64 83 2 
-0.434206 1.21035 4.55011 101 123 22 
0.849614 0.690795 3.84581 161 180 73 
-1.19986 1.26998 4.94369 57 76 12 
0.634392 1.97496 3.97069 177 167 131 
0.248177 1.60111 4.19925 73 88 33 
-1.28512 1.95459 5.0239 75 93 11 
-1.8446 0.777441 5.27364 137 172 68 
0.460794 -2.00429 3.89431 34 37 18 
0.590359 0.119639 3.95094 97 122 30 
0.254787 1.92924 4.21964 85 98 19 
1.10789 -0.687822 3.64384 125 146 43 
0.547243 -0.0716802 3.97102 76 98 25 
-0.658342 -1.38666 4.49632 75 92 22 
1.015 -1.6281 3.63915 41 51 14 
-0.0529145 1.33541 4.34429 91 102 26 
0.509944 0.492683 4.02326 70 91 12 
1.06532 -0.737265 3.64303 94 118 24 
-0.448919 -1.76193 4.38434 54 75 10 
0.555454 1.55865 4.0434 123 150 45 
-1.91918 -0.300182 5.26509 95 127 26 
-1.59774 1.87345 5.19856 82 95 23 
0.888067 -0.912584 3.73028 64 79 22 
-0.190098 -1.73257 4.23712 108 124 51 
-1.39329 1.88031 5.07679 133 154 51 
0.732155 -0.896595 3.8335 71 83 33 
0.590494 1.97792 3.99258 165 156 113 
0.874011 -0.328931 3.77126 103 118 61 
0.984169 -0.518512 3.6986 50 68 18 
0.26412 1.98531 4.19266 182 168 139 
-0.605365 1.49338 4.62793 67 84 14 
0.666481 0.594996 3.93514 71 98 5 
0.709337 1.97419 3.93737 161 159 108 
-0.512509 1.99415 4.63453 103 112 47 
0.141648 -1.68056 4.07466 51 62 22 
-0.283275 -2.15422 4.19693 43 51 12 
0.470126 1.95112 4.08897 100 121 28 
0.856543 1.98357 3.89134 171 163 127 
0.806073 1.03755 3.88057 77 96 30 
0.221169 0.64831 4.16618 98 166 79 
-1.7327 1.11855 5.25257 126 151 31 
0.704668 1.91912 3.95579 92 116 32 
0.351724 -2.24622 3.92245 21 27 13 
-1.72779 1.45952 5.2415 63 77 2 
0.823385 -1.13092 3.75993 92 109 39 
0.69698 -1.37099 3.80502 92 115 33 
0.630667 1.89446 3.97398 84 100 27 
0.285439 1.58697 4.18393 113 131 47 
0.769785 1.99554 3.93424 178 162 136 
-0.535062 -1.74809 4.44628 94 114 27 
0.0329232 1.89962 4.3235 89 108 44 
0.835824 1.77246 3.88282 137 155 55 
-1.67047 1.66715 5.20572 81 93 29 
0.746123 -0.767725 3.83985 91 107 34 
0.666491 -1.7146 3.81321 95 106 46 
-0.0509244 1.85699 4.36533 59 75 10 
1.10615 1.1246 3.73071 82 94 22 
-0.440381 1.79797 4.55786 72 92 20 
0.0858815 1.12709 4.27218 68 86 10 
-0.102385 -1.63773 4.21726 72 82 29 
0.689939 -2.0172 3.77983 71 83 37 
0.641284 -1.17494 3.84012 89 113 19 
-1.92173 -0.228071 5.26829 88 115 38 
0.874471 -0.603924 3.75558 131 155 35 
-1.65649 -2.26971 4.97514 69 78 35 
-0.299524 1.91412 4.49197 94 111 31 
-1.77505 1.62806 5.25904 64 80 9 
-0.440866 1.79614 4.55443 87 107 35 
-0.481701 0.876414 4.5358 155 97 59 
-0.761471 -1.56947 4.5526 117 141 53 
1.13205 -1.86765 3.56003 92 104 30 
0.84728 1.97642 3.87492 170 154 128 
0.741799 -1.62074 3.76727 45 59 6 
-0.381838 -1.42575 4.36897 79 99 28 
0.475339 -1.31851 3.92326 72 99 20 
-0.0822734 -1.82875 4.19656 75 85 32 
-0.409206 1.23738 4.47784 79 93 18 
-1.79458 0.816243 5.25167 121 146 45 
0.150638 0.925779 4.21995 65 79 26 
0.450727 0.414087 4.0369 134 159 39 
0.248356 -1.75646 4.03052 57 72 17 
0.508314 1.98673 4.0621 175 165 130 
1.02493 -0.165696 3.70873 116 131 46 
-1.5371 1.19076 5.10718 143 166 76 
-0.0559872 -1.40261 4.16319 100 133 29 
0.858502 -1.66415 3.71613 75 86 26 
0.213154 -0.961163 4.09529 59 112 20 
-0.200343 0.980969 4.40514 119 146 77 
0.0392441 1.1776 4.29489 98 119 18 
-0.0522988 1.85406 4.35915 50 67 0 
0.393716 -1.60743 3.95784 75 90 21 
-1.54871 1.44348 5.1628 97 115 29 
1.03894 -2.08623 3.60926 74 83 40 
-0.263172 1.75259 4.46932 102 119 49 
0.1503 0.925395 4.21873 50 67 13 
0.731339 -0.89531 3.83169 80 92 44 
1.08758 0.614722 3.71306 72 96 12 
0.514272 -1.08495 3.92379 106 130 46 
0.839607 -1.95527 3.72478 16 21 0 
0.959992 -1.49244 3.67235 55 61 23 
0.405234 -1.73541 3.94488 73 87 25 
-0.211485 -0.80662 4.34051 57 212 85 
1.12111 0.975938 3.70847 82 107 6 
-0.0846171 1.24041 4.36812 122 142 57 
-0.0466015 0.918688 4.31044 45 67 18 
-0.342677 1.18283 4.46542 136 158 57 
0.838146 -1.12321 3.74831 78 98 11 
1.17267 0.278412 3.65702 96 120 24 
0.570748 -1.13349 3.89406 65 72 20 
-1.28087 -1.52523 4.82698 80 96 33 
0.943898 -0.656458 3.73861 108 121 49 
-1.43538 0.94401 5.06887 80 111 41 
1.06485 -0.348526 3.67784 72 81 34 
-0.335848 1.96636 4.52892 80 96 21 
0.962005 -1.6069 3.67453 55 67 17 
0.967869 1.97681 3.82042 169 165 117 
0.691864 -2.17416 3.74287 58 69 26 
0.533168 -2.12486 3.86079 65 77 29 
0.211206 -0.533729 4.10855 135 184 67 
0.889985 -1.71525 3.69721 53 64 21 
0.530296 -0.386052 3.95378 57 79 6 
-1.05159 1.0856 4.87039 88 108 23 
1.07054 0.988388 3.75926 72 85 29 
0.446996 -2.07597 3.8912 68 83 26 
0.94984 1.56655 3.84755 91 115 21 
1.07401 -0.60178 3.66207 114 134 47 
-0.559866 0.877848 4.56276 161 101 65 
0.442659 0.0046021 4.02454 43 54 0 
0.0950127 1.38259 4.27857 100 112 40 
1.04118 1.0026 3.77435 64 75 19 
1.11535 0.858557 3.71747 126 145 56 
0.740987 -1.773 3.76704 72 85 32 
-1.7466 1.50332 5.25505 75 94 13 
-0.766511 -1.36682 4.56749 55 73 11 
0.549929 -1.13709 3.92304 37 40 0 
-0.30962 1.97976 4.51542 131 153 68 
-1.5707 1.79438 5.18677 116 133 41 
-1.38006 1.9169 5.05766 127 143 45 
-1.87488 -1.55828 5.16959 96 112 39 
-0.887841 1.44998 4.80443 66 83 29 
0.882259 -0.193616 3.78502 89 111 11 
-0.0873115 -1.69105 4.20733 68 82 29 
-1.79974 1.63861 5.28214 79 100 7 
-0.703789 1.9496 4.67644 85 102 32 
-0.553424 0.869445 4.55278 159 98 67 
0.175433 0.940447 4.21446 91 106 25 
-0.389631 0.906425 4.49515 50 67 13 
1.04237 0.909498 3.74455 58 66 25 
0.178846 -2.24147 4.04214 39 50 8 
0.997289 0.548858 3.76455 94 114 15 
0.863417 0.000677921 3.80715 150 174 76 
-0.333583 1.91202 4.52 119 136 40 
1.11926 -1.59155 3.5772 110 115 49 
0.210446 -2.24334 4.01721 76 86 34 
0.905608 1.44625 3.84071 82 93 25 
0.2806 -1.5367 4.02675 74 87 41 
-1.79986 1.47256 5.26052 122 146 36 
-0.100734 -1.56557 4.20884 72 84 18 
0.620206 -1.70608 3.82672 55 67 21 
-0.994873 1.39462 4.83662 102 121 40 
0.393496 -1.60721 3.95718 75 90 21 
-0.185891 0.880923 4.35406 138 95 61 
0.176474 1.97678 4.24738 113 118 52 
0.789262 -1.5009 3.74512 69 82 29 
1.06255 -1.26689 3.61549 70 84 25 
-0.665014 -1.66918 4.49771 64 78 27 
0.69825 1.2997 3.91939 91 109 25 
0.0882207 -1.62825 4.11185 82 97 32 
-0.537641 -1.44253 4.46486 72 91 12 
0.63933 -0.454825 3.92022 99 119 32 
-1.96459 0.907045 5.33871 122 140 54 
0.107853 -2.28182 4.09035 31 30 28 
0.634255 1.62254 3.9996 80 95 28 
0.407541 -0.591403 4.00518 138 175 33 
1.19493 1.29975 3.71658 108 116 43 
0.839071 -1.12383 3.75025 78 98 11 
0.854669 -0.246575 3.76827 133 157 73 
0.95275 0.524801 3.76557 134 158 74 
0.0648769 -2.06493 4.07165 66 78 32 
1.05333 -1.84099 3.61065 69 84 15 
-0.637154 1.0297 4.59951 148 166 80 
0.173119 1.57822 4.21973 96 117 26 
-0.289715 1.58271 4.47326 84 108 24 
0.164116 -1.4065 4.082 81 109 7 
-0.659459 2.47848 4.75501 243 227 211 
0.0698712 -0.0529961 4.13622 170 108 69 
0.808339 -0.625297 3.79346 90 116 19 
0.519311 -0.83606 3.92134 64 82 32 
-0.618411 -2.20916 4.4361 44 56 16 
0.466669 1.00559 4.02408 119 144 26 
0.625127 -1.47606 3.85233 89 107 25 
0.916417 -2.2038 3.65591 64 76 26 
0.237743 -2.2648 3.99362 21 22 16 
-0.384226 1.7266 4.53374 99 117 35 
-0.0398782 1.89093 4.35094 120 149 43 
-1.72302 1.52509 5.24992 86 106 21 
0.647337 -0.597987 3.87251 86 109 27 
-0.89219 1.71851 4.77208 94 120 23 
-1.94141 0.103733 5.30811 103 126 38 
0.531446 0.0104318 3.97366 78 93 10 
1.21477 1.56633 3.69776 94 118 34 
0.752832 1.53948 3.93266 100 121 46 
1.1388 -1.41826 3.58663 67 88 19 
0.61997 -1.22139 3.84024 113 130 59 
0.994094 -2.25326 3.55744 163 156 146 
0.163071 -1.57272 4.09418 104 124 37 
-0.646869 1.61031 4.62911 91 109 33 
-0.087101 -1.69161 4.20827 66 81 26 
0.61432 -1.7962 3.83903 75 91 29 
-1.43612 0.944721 5.0769 68 99 31 
-0.0537146 0.61827 4.24406 119 75 50 
0.855527 0.00539392 3.80592 149 177 67 
0.896511 1.89255 3.85746 68 84 21 
1.04451 0.927296 3.75945 45 51 13 
-0.356468 0.91099 4.47514 36 55 10 
0.904473 -2.12825 3.67774 33 40 9 
0.624479 -1.47572 3.85072 89 107 25 
-1.63239 1.13573 5.19399 109 135 36 
-0.472947 -1.44663 4.37091 49 66 14 
-0.736336 -1.76546 4.53664 48 56 5 
0.654145 -0.848256 3.876 92 109 39 
-0.392348 -1.46985 4.34819 64 85 16 
0.529068 -1.92652 3.87158 59 70 27 
-0.53977 0.875576 4.51759 164 102 65 
1.02812 -0.820553 3.67261 77 93 28 
0.149383 1.67353 4.25482 100 125 31 
0.993791 -2.08323 3.59548 64 77 21 
0.520847 -0.836288 3.92965 58 76 24 
-0.397061 1.78668 4.54383 96 114 38 
0.350214 -2.16813 3.93391 53 68 13 
-0.210202 -0.841094 4.3099 162 120 72 
-0.00472018 -1.34784 4.19274 78 104 15 
-0.80368 1.20453 4.71203 130 156 59 
-1.80829 1.61586 5.29872 130 156 47 
0.150037 1.67095 4.2544 97 122 30 
0.69974 -1.60001 3.79488 90 107 27 
-1.45725 0.955411 5.08266 73 103 29 
0.933956 -0.173262 3.75747 62 79 11 
0.457908 -2.25828 3.87819 26 33 0 
1.08213 0.613626 3.69693 110 134 46 
1.01291 -1.82549 3.63288 57 69 23 
-0.556424 0.993855 4.56242 90 107 27 
-1.28274 -0.875428 4.7559 136 86 59 
0.938514 0.735394 3.79349 51 67 0 
-0.603375 -1.357 4.50162 79 98 17 
0.835864 -0.38965 3.78476 89 114 22 
0.251822 -1.94719 4.01633 64 76 14 
-0.774404 0.538495 4.6258 143 85 47 
-0.972451 2.00947 4.82579 176 167 134 
1.0603 -1.23952 3.6378 53 66 20 
0.148218 1.70898 4.23193 119 137 55 
0.478219 -2.2595 3.88362 63 72 27 
-0.636318 2.47676 4.7454 234 215 201 
-0.453228 1.77904 4.57812 60 81 16 
1.01597 1.94213 3.78293 94 106 40 
0.574108 1.54736 4.0429 83 107 23 
0.283756 -0.35234 4.08481 139 174 108 
0.915796 1.76506 3.85453 95 103 43 
0.634978 -1.46353 3.84154 46 61 2 
0.800862 -1.92457 3.73707 72 86 33 
0.521474 1.73881 4.06507 93 114 23 
0.878322 -2.19795 3.66521 33 42 11 
0.828579 -1.48322 3.74133 65 78 22 
-0.566053 2.00463 4.63045 177 161 138 
0.0891113 1.66445 4.30586 120 143 39 
-1.83744 2.00565 5.34693 96 110 31 
-0.259166 -1.88688 4.27524 59 71 25 
0.800165 -1.92385 3.73558 72 86 33 
0.278591 -2.05058 4.01172 48 58 21 
1.13699 1.97063 3.71728 167 152 129 
-0.853925 1.02817 4.66268 84 101 21 
0.14032 -2.2568 3.96507 186 173 157 
0.458668 1.58983 4.0888 108 124 35 
0.692718 -0.474233 3.87228 66 90 16 
-0.287858 -1.16661 4.29825 149 103 54 
0.877231 -2.24035 3.67407 60 68 27 
-1.81007 2.52914 5.39512 229 213 190 
0.0372953 1.89095 4.30963 90 106 44 
-1.47898 -1.61523 4.92049 53 64 22 
0.659903 -1.22533 3.84684 85 102 32 
1.03547 -1.80103 3.60482 101 115 53 
-0.233451 -1.61791 4.28912 71 85 26 
0.550051 -1.03215 3.89974 96 117 24 
0.352382 -1.31578 4.00293 85 101 26 
-1.7504 2.52559 5.33051 189 161 137 
1.10753 -0.982831 3.61052 49 60 4 
0.53087 -1.48687 3.89943 84 101 30 
1.10786 -1.32274 3.62822 65 79 18 
0.744062 0.182582 3.87936 77 100 9 
-1.813 1.67149 5.2811 99 120 19 
-1.65136 0.870954 5.13433 163 97 62 
0.994636 1.8965 3.79874 73 89 16 
0.675031 -1.40329 3.81105 107 124 56 
0.874227 -2.19314 3.657 38 44 16 
-0.49192 2.07656 4.61946 214 201 185 
-1.7077 0.283407 5.19037 137 153 65 
-0.405947 0.879226 4.52156 151 94 64 
1.07438 -1.37945 3.61001 104 122 48 
0.527739 0.494146 3.98534 77 104 1 
1.07043 -1.65104 3.67936 102 115 62 
0.546495 -2.02984 3.85928 45 57 17 
-0.0873963 1.99077 4.37812 158 159 93 
-0.265223 -2.02451 4.2576 50 58 21 
-0.412194 -1.71629 4.36308 81 94 38 
0.488633 -0.594306 3.9811 84 107 37 
-0.165927 1.42727 4.39831 83 102 21 
-1.21188 -1.47395 4.82776 66 89 11 
0.757235 0.199968 3.85705 74 92 8 
-0.839783 -0.09052 4.61445 143 84 52 
0.303854 2.45835 4.26194 216 201 180 
-1.54242 1.60543 5.11664 137 155 79 
0.812505 -1.86414 3.7377 49 63 14 
0.426542 -2.24692 3.90813 48 60 10 
-0.217712 -0.292402 4.32803 159 104 74 
0.495176 2.0743 4.09006 216 204 190 
1.13799 -1.46106 3.57338 60 75 10 
-0.152189 0.550478 4.36715 157 127 75 
0.39761 -2.01509 3.94515 54 69 2 
0.671733 -2.1699 3.78735 62 76 23 
1.08982 -1.20812 3.61762 86 98 36 
-0.191535 0.250435 4.36549 174 106 67 
0.719856 -1.69916 3.78191 60 64 27 
-0.29123 0.666036 4.32997 127 75 53 
1.1912 0.301636 3.65933 130 149 44 
-0.0993038 1.37991 4.36517 92 106 31 
0.586585 -2.26045 3.8289 43 49 21 
0.0961605 1.84424 4.29341 104 116 42 
-0.661654 2.47245 4.75566 232 213 199 
-1.9179 1.32535 5.34767 100 124 36 
-0.846791 -0.887129 4.55859 160 103 76 
0.839293 1.98993 3.88045 173 157 134 
-0.963312 0.938284 4.81911 90 113 61 
0.210918 -2.2293 4.01344 43 53 1 
-0.990712 0.878157 4.83108 158 95 60 
-0.072966 -0.212302 4.20044 173 114 70 
-0.661465 2.47386 4.75878 232 213 199 
0.953725 -0.355582 3.72013 104 128 44 
0.512967 1.9832 4.05181 159 146 112 
1.06634 0.309836 3.7088 129 156 49 
0.682331 -2.0546 3.78003 51 62 19 
0.154502 2.02747 4.27559 190 173 153 
0.281927 1.98117 4.17876 135 128 102 
0.553679 -1.48637 3.87618 89 107 25 
-1.26909 1.50545 5.00111 107 130 26 
-0.0341713 1.60428 4.30718 101 115 36 
-0.695229 0.268774 4.57493 155 106 63 
-0.267367 1.26595 4.46332 112 132 33 
0.307223 -1.58431 4.00646 73 88 21 
0.187491 -2.14979 4.03375 53 61 24 
0.0103374 -1.65403 4.1653 103 117 38 
-0.464967 -2.06771 4.39196 63 76 23 
-0.5714 2.47716 4.72105 211 195 180 
-1.21078 2.5001 5.06625 227 211 196 
1.01335 0.156033 3.7465 129 155 58 
-0.392293 0.861911 4.45395 150 93 63 
-1.21471 2.49541 5.06649 225 211 198 
0.882349 -1.1963 3.72558 92 109 39 
-0.319735 -1.49121 4.33212 90 111 46 
-1.65309 0.87183 5.14734 161 97 61 
-0.967402 -1.37572 4.69916 107 130 50 
-1.21035 2.49362 5.05381 229 213 198 
-1.47446 1.014 5.07621 115 148 41 
-1.94473 2.53077 5.46334 215 199 184 
0.140697 -0.154019 4.08821 176 117 73 
0.0885101 -1.80726 4.10375 86 103 35 
-0.665501 -0.0816629 4.56346 148 88 54 
0.65605 0.793724 3.9393 117 145 45 
-0.599319 -1.5514 4.46813 83 99 24 
0.50859 -0.0429926 3.9897 91 110 21 
-0.693526 1.96577 4.5793 183 164 147 
-1.22185 -1.93438 4.78186 51 68 14 
0.263881 -1.55795 4.02095 61 75 22 
-0.964165 -0.292773 4.6342 132 81 52 
-0.708925 0.344687 4.573 127 143 70 
-0.525665 2.02922 4.64028 181 164 144 
0.241809 1.722 4.20886 100 115 30 
1.09048 -0.405127 3.6668 93 109 38 
-0.277732 -2.26095 4.19517 181 169 155 
0.57247 -1.48687 3.86195 94 112 26 
0.257828 1.98418 4.19319 180 173 131 
0.805006 -2.07927 3.73223 59 69 17 
0.870435 1.14308 3.85836 89 105 32 
0.727369 1.14258 3.92194 97 120 40 
-0.670447 -0.885332 4.47815 177 113 85 
0.0480771 -1.14293 4.11537 154 99 69 
-0.609061 0.576723 4.47601 131 80 53 
0.211307 -1.36888 4.06891 88 106 32 
-0.907533 -1.48234 4.65098 72 89 9 
-0.00399683 1.77846 4.32996 132 153 58 
-0.522497 2.00687 4.61288 181 163 141 
0.0818732 -0.060375 4.13148 155 95 61 
0.848618 -1.77102 3.71618 83 99 36 
-0.516852 2.07399 4.67663 204 186 174 
0.969883 0.756335 3.78696 62 82 0 
-0.247093 0.558859 4.35399 152 92 56 
-0.450785 -1.11377 4.4425 130 80 55 
0.577478 -0.736143 3.92446 74 94 31 
0.77374 -1.06718 3.77429 61 74 18 
1.0784 0.477712 3.70321 94 103 36 
0.495407 0.483401 4.01903 123 144 49 
0.365343 -1.65375 3.97435 97 114 34 
-1.02745 2.50669 4.92441 198 171 142 
0.142348 1.99867 4.24999 179 161 139 
0.175219 1.87273 4.21872 62 76 14 
-1.03022 2.50358 4.93432 194 167 138 
0.678091 -0.995895 3.82555 111 128 48 
-0.270334 0.869233 4.43512 155 99 64 
-1.02776 2.51358 4.94083 196 169 140 
0.228716 -2.14604 4.00685 48 58 23 
0.373913 0.580893 4.07973 90 113 35 
1.0665 -1.56299 3.61105 53 66 12 
0.140944 2.01306 4.27305 180 162 138 
-1.41793 0.884254 5.00436 160 97 54 
-0.52716 2.0233 4.62354 182 167 146 
-0.696203 0.266704 4.56101 159 99 63 
-0.786937 -0.966245 4.51618 143 87 62 
0.330515 -2.24803 3.95789 58 67 24 
0.898944 -0.473283 3.74585 129 149 52 
0.947151 -1.99757 3.64278 56 69 25 
0.68236 -2.19395 3.74456 58 71 25 
-0.400663 2.47253 4.62484 220 207 191 
-0.776994 -0.967036 4.52273 141 83 63 
0.643603 -0.0119715 3.91524 91 114 36 
0.272061 -1.46287 4.01645 68 84 21 
1.00152 -2.23264 3.60167 60 66 28 
-0.423029 -2.29684 4.37238 63 59 48 
-0.230548 0.556935 4.38977 157 99 62 
-0.248698 0.333714 4.37665 170 105 67 
-0.618201 1.65177 4.63787 97 116 34 
1.07404 -1.30265 3.59509 74 88 29 
0.117489 -0.18435 4.09855 165 110 69 
0.630018 -2.23459 3.78155 57 65 26 
-0.00781917 -2.19006 4.09362 51 62 20 
-0.863494 -0.27724 4.64804 145 255 215 
1.21462 1.07905 3.68938 13 19 9 
-0.0572686 0.89918 4.30516 24 35 18 
-0.733449 0.506609 4.5847 90 237 87 
1.17193 -0.736836 3.60081 52 51 33 
0.476385 0.00584698 4.0056 175 196 91 
0.995266 0.327934 3.75253 41 58 14 
0.808501 0.498423 3.87174 134 159 32 
-1.2572 -0.781954 4.55216 219 255 236 
1.18991 -0.0985199 3.63969 58 67 38 
0.418494 1.97972 4.1224 42 43 12 
-0.701689 0.906726 4.63418 19 35 0 
-1.00367 1.17047 4.84371 83 107 33 
1.13864 1.97058 3.75501 31 31 7 
0.147406 1.51927 4.20299 111 133 24 
-0.612507 0.901865 4.57734 23 40 0 
0.372686 -0.622596 4.01268 70 92 10 
1.12773 0.904048 3.73303 122 144 43 
-1.04203 1.28178 4.84415 19 32 0 
0.303764 1.97964 4.17739 80 81 39 
1.19491 0.674044 3.67755 118 137 45 
-0.847287 1.30212 4.72974 109 136 19 
-1.2169 0.908129 4.92203 43 64 25 
0.945761 0.611811 3.80073 52 70 20 
-0.270321 0.533698 4.42195 133 245 98 
0.219221 0.0995009 4.11313 57 92 8 
0.382913 -0.571264 4.02217 49 65 0 
0.660836 -0.337548 3.88423 107 124 44 
0.254149 0.957537 4.17187 154 185 48 
-0.762174 0.927965 4.69122 30 38 0 
-0.487054 1.19052 4.5551 141 172 55 
-1.55917 1.61344 5.13298 65 81 19 
0.716289 -0.212069 3.86768 130 151 50 
0.881489 0.253522 3.8044 62 93 0 
0.493202 -0.395208 3.96546 43 50 6 
1.11608 0.200799 3.66373 77 82 26 
1.08718 -0.92208 3.63895 36 54 6 
0.714229 0.158972 3.90085 95 111 36 
0.210993 1.95876 4.24299 125 136 58 
0.262334 1.11082 4.17736 121 157 21 
0.324578 -1.08956 4.00123 36 60 0 
0.470931 1.80342 4.09265 96 115 26 
0.363994 -1.16585 3.97956 35 48 0 
0.778041 0.481705 3.8814 64 84 0 
0.867499 -0.127029 3.73349 55 76 9 
-0.185216 0.976446 4.40121 70 98 14 
0.666074 0.977277 3.96032 108 129 34 
1.03295 -0.836694 3.66182 64 81 11 
0.95375 -0.721168 3.70563 72 88 23 
-0.404228 0.899033 4.49742 45 54 9 
0.0194012 1.50822 4.32567 70 79 16 
0.455729 -0.338223 4.00299 124 149 66 
0.693286 1.97217 3.95447 155 166 70 
1.06135 -0.347776 3.66582 72 81 34 
-0.390089 1.79901 4.5414 50 65 6 
0.443751 0.399237 4.03965 112 136 52 
0.917661 -0.826923 3.71137 27 39 0 
-1.27628 0.531261 4.88933 113 126 54 
-0.249249 -0.827047 4.33308 87 255 164 
1.03014 2.00697 3.82333 173 158 137 
0.502734 1.99243 4.06845 177 163 136 
-0.0872237 -0.0913058 4.24743 130 96 69 
-0.22404 0.864626 4.41905 150 96 60 
-0.994108 0.881793 4.84779 158 95 60 
0.87511 1.17363 3.86269 139 154 63 
-1.22141 0.649064 4.86971 142 79 48 
-0.784513 2.10247 4.80283 215 201 188 
0.111741 -0.0588895 4.11214 174 113 66 
-1.79964 0.537908 5.23587 103 118 49 
1.19095 -0.0282141 3.64113 14 23 0 
0.469765 1.07943 4.10267 7 17 8 
1.15791 -1.04793 3.58468 13 14 9 
-0.869938 -0.277222 4.62164 224 254 246 
1.23947 1.64426 3.72704 11 14 0 
1.23996 1.543 3.73282 10 13 18 
-0.201845 -0.233736 4.3309 155 240 157 
0.430919 0.617758 4.07076 34 49 0 
0.0682244 0.969132 4.2593 29 54 14 
1.23704 1.41247 3.71433 41 45 0 
0.41394 0.95512 4.11555 4 14 13 
0.625119 1.96751 4.00384 33 36 9 
0.372192 0.999419 4.08871 171 203 80 
1.23023 1.23477 3.71388 18 13 9 
1.19345 0.113869 3.64593 10 21 0 
1.22534 1.08212 3.70184 16 19 8 
1.18306 -0.112837 3.63929 165 190 86 
1.22444 1.13115 3.69694 15 22 6 
0.89554 -0.434702 3.73517 160 186 59 
0.0467036 1.07886 4.27847 26 37 5 
-1.73286 0.238221 5.16674 169 220 115 
-0.163112 0.284249 4.35088 0 87 0 
-0.357866 0.941998 4.45783 143 177 28 
0.689372 -0.319054 3.85157 147 170 64 
1.24675 1.93357 3.74102 24 30 2 
1.17734 -0.492601 3.61686 32 29 10 
1.21692 0.994508 3.70151 144 164 65 
-1.61534 1.17205 5.15322 37 57 0 
0.325284 -0.773206 3.99838 153 200 62 
0.246037 0.817929 4.15692 165 191 84 
1.21295 0.800398 3.68141 22 22 20 
0.15215 1.42012 4.25581 31 45 0 
0.0756151 1.35416 4.27936 165 187 79 
0.256198 0.0918896 4.11913 138 181 65 
-1.84199 1.44629 5.30135 173 198 94 
1.16318 -1.00052 3.59302 3 6 0 
-0.443164 -1.24572 4.41169 86 125 62 
-1.33616 -0.253137 4.87965 36 216 21 
0.713553 1.37702 3.94505 144 172 62 
-0.23325 -0.00605447 4.38741 117 199 97 
-1.51604 1.98419 5.13907 156 170 91 
0.930476 -0.391008 3.72565 169 195 72 
0.632469 0.913088 3.98216 5 21 0 
1.18402 -0.35044 3.63221 26 29 10 
-1.29503 1.19687 4.96086 162 191 51 
0.818317 0.0795871 3.83909 164 185 80 
0.368372 1.96175 4.15729 15 25 0 
1.19404 -0.0554095 3.6474 25 28 17 
0.116083 0.918616 4.22061 130 172 88 
-0.315612 0.292179 4.37892 38 53 22 
-0.477315 1.31095 4.5402 153 181 70 
1.06187 0.55768 3.72079 156 178 77 
1.14051 -1.62664 3.55263 52 57 34 
0.947889 -0.374862 3.71947 18 33 4 
-0.0362985 -1.4008 4.15828 23 53 0 
1.19207 0.0349024 3.65033 80 87 56 
1.22659 1.14607 3.69843 14 10 0 
1.18441 -0.326951 3.62375 23 32 11 
-0.731785 0.50004 4.59736 91 220 93 
-1.76889 0.630585 5.19075 168 224 101 
-0.665451 0.916527 4.59832 161 195 83 
-0.219325 0.9515 4.40782 154 191 86 
1.16314 -0.826665 3.59372 21 25 8 
0.217509 -0.918479 4.07504 14 55 0 
0.51937 -0.199259 3.96906 147 171 51 
-1.90632 -0.455631 5.23344 166 207 79 
-0.452113 -1.26181 4.41722 149 210 117 
-1.03133 1.12622 4.8585 66 95 3 
1.10561 -0.834815 3.63622 14 29 0 
-0.745968 1.16636 4.69179 48 67 12 
-0.488261 1.96653 4.59939 152 175 61 
-0.508002 1.18279 4.56972 39 65 0 
1.13508 -1.66349 3.54976 37 44 10 
0.276195 -0.612463 4.08065 48 79 9 
0.273219 0.427767 4.12153 150 203 59 
-0.717488 1.99302 4.69544 48 54 16 
0.31735 0.451616 4.11443 144 169 41 
1.2313 1.18752 3.701 17 26 0 
-1.27957 1.19427 4.96085 39 53 0 
0.366446 -0.752203 3.993 146 184 47 
0.685671 0.781732 3.94623 18 40 0 
0.439346 0.371549 4.04713 60 81 22 
-0.215583 -0.279488 4.33736 31 48 12 
-0.303852 -0.260027 4.35907 22 42 5 
0.579002 1.97317 4.0473 33 34 3 
-0.131202 0.900221 4.36187 133 193 105 
0.635004 0.878787 3.98029 162 192 70 
-1.14037 0.90842 4.90897 29 39 4 
-1.55076 1.74611 5.15011 38 59 0 
0.21443 -0.505642 4.09823 121 160 81 
0.891483 0.956883 3.87269 34 50 5 
0.416411 -0.844318 3.96971 41 58 14 
0.388417 0.613827 4.07347 149 188 59 
0.317432 0.13735 4.07882 174 192 80 
0.836599 0.777541 3.86617 159 190 63 
-0.140517 0.537933 4.3577 146 255 139 
-1.27575 1.05752 4.97695 160 194 81 
0.864583 -0.188013 3.79638 150 173 67 
-0.28676 0.99546 4.42985 48 81 0 
0.108687 0.903066 4.22936 105 152 82 
0.0116884 1.94884 4.38547 9 16 0 
0.436499 -0.553197 3.996 67 81 32 
-0.746888 -0.144786 4.60056 118 207 77 
-0.797885 1.17782 4.68698 176 210 87 
0.277934 -0.464867 4.08194 70 84 33 
-0.244309 0.503065 4.40446 23 79 6 
-1.1368 1.98302 4.90941 70 79 32 
0.318158 1.26932 4.15445 148 171 65 
0.28915 1.97231 4.19533 34 42 21 
-0.203555 1.6341 4.43471 137 151 76 
0.727571 0.660255 3.91969 156 184 84 
0.509795 -0.208916 3.97655 63 79 16 
-0.237305 -0.163304 4.35779 78 187 70 
0.723104 0.334286 3.88165 138 167 61 
-1.39785 1.04109 5.04298 154 181 78 
0.89983 0.383214 3.82794 19 33 0 
0.497429 -0.42688 3.97417 146 172 73 
-1.91608 -0.252524 5.24154 45 74 0 
0.326513 0.970638 4.13281 60 75 18 
0.489058 -0.508517 3.97911 17 31 6 
0.305478 0.643519 4.11352 68 88 37 
0.0337041 0.986762 4.25782 156 198 70 
-1.74797 0.114839 5.18716 38 65 14 
-0.881156 -1.21562 4.65077 126 197 57 
0.261434 0.420566 4.13961 30 72 0 
-0.412867 -1.25779 4.3699 18 41 0 
0.27736 -0.827163 4.05691 108 157 78 
0.146896 -1.3505 4.08747 155 194 101 
-1.47756 0.929136 5.04869 106 158 60 
1.20962 0.539079 3.66604 52 52 16 
