ply                 
format ascii 1.0    
element vertex 1276
property float x    
property float y    
property float z    
property uchar red  
property uchar green
property uchar blue 
end_header          
0.58193 0.0168146 2.2459 115 135 74 
0.579858 0.337451 2.24663 70 98 0 
0.578939 0.483947 2.24701 121 141 56 
0.581488 0.227891 2.23947 162 187 95 
0.58406 0.0367687 2.23591 170 192 94 
0.583509 0.205283 2.23757 42 62 11 
0.584264 -0.744415 2.20262 89 103 44 
0.585919 -0.033937 2.23088 7 25 0 
0.586366 0.00775273 2.24098 14 32 0 
0.584645 -0.595991 2.20026 155 171 96 
0.585977 -0.212012 2.21511 131 162 45 
0.585905 -0.587174 2.20645 53 68 11 
0.587643 -0.0035529 2.22861 135 169 33 
0.587721 0.0804772 2.23588 81 107 8 
0.58793 -0.290647 2.22166 31 53 0 
0.585486 0.524611 2.23911 94 123 7 
0.588349 -0.837856 2.20299 41 50 3 
0.58895 0.159898 2.24077 137 161 83 
0.588857 -0.270494 2.21657 121 150 44 
0.588569 -0.910906 2.19073 43 55 15 
0.588722 0.437182 2.25951 55 71 6 
0.58955 -0.362443 2.2117 148 174 73 
0.590303 0.0680676 2.23344 42 63 0 
0.590991 0.108174 2.23763 54 88 0 
0.590836 0.307904 2.24215 119 142 51 
0.59203 0.188805 2.24346 48 70 8 
0.593062 -0.158047 2.23419 163 183 98 
0.592804 -0.0186584 2.23424 151 183 60 
0.592722 -0.0393299 2.22468 134 156 84 
0.59175 -0.753908 2.19026 113 129 54 
0.594038 0.202473 2.23712 53 79 0 
0.594692 -0.291253 2.21243 125 154 26 
0.594422 -0.447671 2.20473 57 72 17 
0.595463 0.234854 2.24112 118 142 30 
0.596311 -0.238014 2.22495 55 68 14 
0.596247 0.0119259 2.23077 143 173 49 
0.59716 0.213433 2.23983 156 182 81 
0.59927 -0.165557 2.22965 49 68 0 
0.598978 -0.0269371 2.22481 23 40 0 
0.597232 0.459847 2.24173 141 155 70 
0.600847 0.195178 2.24476 124 156 21 
0.601559 0.18515 2.24212 44 65 0 
0.601366 -0.333395 2.20791 37 54 0 
0.603057 -0.184434 2.22968 57 82 0 
0.601722 0.475079 2.23646 86 89 20 
0.604053 -0.705355 2.20689 45 57 19 
0.606601 -0.00243583 2.23802 168 190 90 
0.604995 0.406959 2.25628 41 55 2 
0.604608 -0.738508 2.20142 56 68 18 
0.605245 0.377439 2.24821 38 59 0 
0.606493 0.0914792 2.23335 22 30 0 
0.607755 0.034191 2.24688 1 16 0 
0.605911 -0.656075 2.21354 36 49 0 
0.607731 -0.0882116 2.23499 30 51 0 
0.607157 0.30384 2.25078 34 58 0 
0.607158 0.317348 2.24624 95 123 10 
0.607299 0.46023 2.24256 18 29 0 
0.610378 -0.066508 2.22639 57 84 0 
0.610882 -0.318915 2.22046 47 67 6 
0.609357 0.418336 2.24438 130 159 41 
0.611414 -0.259099 2.22543 153 172 82 
0.610344 0.453435 2.25362 153 179 52 
0.613406 -0.0233212 2.23423 144 176 65 
0.612433 0.400929 2.25228 149 172 64 
0.61393 0.174155 2.24615 149 172 94 
0.613813 0.231858 2.24523 127 154 25 
0.613471 0.296779 2.24707 123 144 77 
0.614903 0.253543 2.25253 37 53 0 
0.615106 0.262751 2.24187 142 162 77 
0.616324 0.0684501 2.23676 52 80 0 
0.616171 0.0876924 2.23322 171 182 113 
0.615566 -0.644595 2.21325 32 44 0 
0.616412 -0.380473 2.21917 45 54 7 
0.61749 0.124725 2.23844 134 162 60 
0.617234 -0.834141 2.20133 38 52 0 
0.618492 0.00572184 2.23314 78 94 31 
0.61734 -0.340157 2.21003 156 176 87 
0.619169 -0.201027 2.22646 55 71 9 
0.617249 0.499547 2.2475 168 187 98 
0.619847 -0.134417 2.22415 153 179 70 
0.618633 -0.803176 2.19798 38 54 0 
0.620289 0.182867 2.24495 130 155 64 
0.617271 0.476175 2.23676 161 185 73 
0.618883 0.442602 2.25316 153 178 84 
0.619164 -0.365515 2.21113 89 107 7 
0.619333 0.378298 2.24129 131 156 54 
0.620922 -0.352151 2.21877 25 31 3 
0.621205 0.316959 2.24773 124 155 28 
0.620984 0.519403 2.25583 71 85 36 
0.621266 0.454927 2.24934 138 155 77 
0.62365 0.025769 2.23559 174 197 83 
0.625141 0.0957018 2.2458 38 46 9 
0.623429 0.38716 2.24859 37 51 2 
0.624137 0.290574 2.24421 158 182 60 
0.623245 0.411746 2.24415 143 172 54 
0.626197 -0.094693 2.23834 19 36 0 
0.625486 0.0835877 2.23515 55 65 0 
0.625624 0.219268 2.24717 166 184 110 
0.626533 -0.0798248 2.23872 55 77 2 
0.625045 -0.568352 2.21195 55 65 30 
0.62537 -0.72547 2.20339 39 54 0 
0.627097 -0.305078 2.22601 90 118 5 
0.625971 -0.777658 2.19718 24 38 0 
0.627973 -0.195814 2.22228 34 46 10 
0.626755 0.273979 2.23265 142 167 37 
0.628672 -0.115446 2.22599 183 203 104 
0.629266 -0.222519 2.22704 153 172 93 
0.628848 0.126834 2.23362 38 63 0 
0.62968 -0.703082 2.20776 39 55 0 
0.630031 -0.3884 2.21216 112 128 57 
0.631528 0.173526 2.2423 67 86 30 
0.631769 -0.292223 2.22497 145 170 76 
0.63243 0.0496829 2.23949 26 42 0 
0.631367 0.313697 2.24627 177 206 87 
0.630866 -0.682517 2.19943 36 48 0 
0.632025 0.422319 2.25233 15 35 0 
0.633644 -0.164569 2.2288 167 191 81 
0.632595 -0.424802 2.21649 51 67 2 
0.633244 -0.51417 2.21634 43 54 11 
0.632834 -0.628398 2.20942 100 115 46 
0.63305 0.45033 2.2521 148 169 74 
0.633483 0.411474 2.25125 149 177 64 
0.634497 0.0243793 2.23066 64 76 36 
0.633315 0.475264 2.25022 107 126 60 
0.635126 0.183628 2.23789 171 199 89 
0.634412 0.393253 2.24705 153 169 96 
0.636167 0.0748599 2.23904 127 140 68 
0.634121 -0.494113 2.20316 120 146 45 
0.637424 -0.0959696 2.2354 12 34 0 
0.636764 -0.351941 2.21874 108 124 59 
0.63758 0.0658464 2.23414 152 168 80 
0.637481 0.0340724 2.22996 118 129 61 
0.639313 0.094196 2.24883 118 131 62 
0.638031 0.245324 2.2434 90 104 16 
0.637991 0.013733 2.22581 188 216 113 
0.637739 -0.485261 2.21091 26 46 0 
0.638283 0.253349 2.2365 166 189 83 
0.638673 0.332213 2.24596 121 147 50 
0.639424 0.00357798 2.21897 87 114 21 
0.639729 0.156672 2.23024 188 213 121 
0.641555 -0.0424396 2.23048 30 45 4 
0.641021 0.297111 2.24656 136 160 74 
0.640806 -0.521808 2.21998 34 47 1 
0.640567 0.359398 2.24446 114 132 32 
0.641143 0.168312 2.23408 133 158 66 
0.642297 -0.175546 2.22998 160 183 103 
0.640453 0.462754 2.24772 65 86 11 
0.640871 0.404766 2.24618 149 175 66 
0.641535 0.381592 2.24892 145 166 65 
0.641453 -0.727864 2.20818 22 32 0 
0.642397 -0.311397 2.22041 53 74 0 
0.643516 0.128448 2.23043 171 195 85 
0.645536 0.101621 2.24257 156 174 100 
0.643598 0.427438 2.2472 86 112 13 
0.644717 0.272831 2.24539 58 82 0 
0.64474 0.231383 2.23492 86 101 42 
0.646693 0.0431791 2.23767 19 32 0 
0.644917 -0.393866 2.20933 143 161 79 
0.645023 -0.466908 2.20474 64 79 22 
0.648264 -0.109406 2.23223 38 54 0 
0.648319 -0.130828 2.21616 150 175 57 
0.647358 -0.650616 2.20349 90 110 25 
0.647667 -0.446652 2.20816 116 143 46 
0.649487 0.115507 2.23646 165 181 93 
0.649645 0.18345 2.24223 24 43 0 
0.648006 -0.526743 2.20803 128 146 60 
0.649828 -0.0805794 2.22651 57 83 0 
0.64999 0.0314645 2.22934 66 81 0 
0.64828 0.406133 2.23832 69 89 28 
0.648717 -0.251731 2.20343 172 194 83 
0.649068 -0.708643 2.20346 57 70 0 
0.651029 -0.182335 2.22632 21 33 0 
0.649678 -0.479643 2.21153 26 42 0 
0.650236 0.457864 2.25263 23 38 0 
0.65046 0.220219 2.234 160 186 61 
0.650073 -0.243972 2.21097 55 67 17 
0.651101 -0.154623 2.22077 25 42 0 
0.650882 -0.320323 2.21664 162 180 81 
0.652206 0.0612158 2.23213 161 184 80 
0.652837 -0.238798 2.22749 81 93 45 
0.652495 -0.119662 2.22191 165 183 99 
0.652445 -0.377084 2.21801 38 51 7 
0.652647 0.263482 2.23648 69 91 0 
0.653529 -0.970308 2.19395 10 21 0 
0.653974 -0.0631154 2.22713 166 193 78 
0.654095 -0.0419471 2.22826 40 50 13 
0.652569 0.342989 2.2367 117 147 25 
0.654642 0.171427 2.2437 124 147 57 
0.6534 -0.590222 2.20686 97 115 29 
0.654197 0.476626 2.25341 16 35 0 
0.652957 -0.863769 2.18605 104 117 63 
0.654719 -0.285688 2.217 107 134 41 
0.655533 0.36549 2.24637 140 158 76 
0.652435 -0.540431 2.18405 124 148 36 
0.654787 0.48453 2.24121 137 167 53 
0.656622 0.211646 2.2363 59 80 15 
0.656508 0.121159 2.2278 57 71 10 
0.658121 0.103451 2.23659 34 53 0 
0.655931 0.409775 2.23087 129 149 52 
0.658272 0.0879199 2.22983 162 189 72 
0.658256 0.507041 2.24804 36 53 0 
0.658253 -0.772641 2.19589 100 118 34 
0.66135 0.322066 2.2407 60 78 2 
0.661819 -0.32236 2.22088 48 67 0 
0.661014 -0.604982 2.20816 43 59 0 
0.663835 0.220657 2.24148 138 164 73 
0.662354 -0.558043 2.20835 147 171 85 
0.663785 -0.0949259 2.2198 66 90 2 
0.664047 -0.149056 2.21656 195 217 145 
0.665166 0.191411 2.23418 159 189 75 
0.66649 0.0522802 2.23623 151 170 89 
0.664802 -0.264722 2.2115 70 89 0 
0.664 -0.519078 2.19968 129 156 51 
0.666628 -0.0520556 2.22612 33 45 7 
0.666769 0.238246 2.24127 128 152 58 
0.666063 0.358803 2.24206 50 65 0 
0.665395 0.2757 2.22851 152 181 71 
0.667777 0.132799 2.23184 52 65 0 
0.667767 0.200782 2.2316 68 95 0 
0.667775 -0.336951 2.21447 119 139 52 
0.668834 -0.11466 2.22339 132 154 46 
0.667124 -0.592882 2.20371 154 174 87 
0.669825 0.174645 2.24195 45 61 0 
0.668736 0.373558 2.24474 112 129 51 
0.671438 -0.0306755 2.23294 149 173 51 
0.67096 -0.246417 2.21381 63 80 2 
0.671485 -0.0577317 2.21805 95 116 15 
0.672302 0.11364 2.23243 172 195 91 
0.672595 0.295699 2.24554 34 52 0 
0.672371 0.209793 2.23248 136 161 80 
0.673341 -0.236704 2.21661 55 67 21 
0.673944 -0.222882 2.21906 127 138 78 
0.675057 0.0466741 2.22839 125 143 69 
0.674949 -0.183783 2.21998 154 174 87 
0.673987 -0.432463 2.21089 14 27 0 
0.674639 -0.380833 2.21551 122 142 55 
0.674487 -0.455242 2.20669 59 83 0 
0.677697 0.00943484 2.23295 40 61 0 
0.676523 -0.542939 2.2139 49 73 0 
0.678307 -0.199198 2.22055 123 143 58 
0.675637 -0.471636 2.19603 157 180 90 
0.677103 -0.591928 2.2087 17 27 2 
0.677306 -0.326247 2.20765 169 191 90 
0.67792 0.252674 2.2302 116 147 43 
0.678116 0.452579 2.24711 40 65 0 
0.677778 0.348558 2.23301 38 54 0 
0.678319 -0.361171 2.21386 149 172 90 
0.680681 -0.0508521 2.23255 30 37 3 
0.6791 -0.227286 2.20961 160 186 59 
0.679743 0.0772959 2.22165 52 78 0 
0.68097 0.366546 2.24427 31 44 0 
0.679198 0.49622 2.23359 153 168 83 
0.681119 -0.416705 2.21364 119 132 62 
0.68246 0.208221 2.23426 63 89 0 
0.683416 0.156641 2.23549 155 170 85 
0.683204 0.222537 2.23732 46 72 0 
0.682601 -0.843149 2.19253 45 59 8 
0.683243 -0.21104 2.21151 170 193 85 
0.685893 0.126145 2.24081 40 56 0 
0.682974 -0.639371 2.20371 52 61 16 
0.685307 -0.120593 2.22573 29 50 0 
0.685219 -0.0222376 2.22288 153 174 69 
0.687418 -0.0090628 2.23457 41 54 1 
0.685947 -0.311317 2.21423 97 113 38 
0.686654 0.0670808 2.22185 139 167 57 
0.687597 -0.109387 2.22177 152 185 42 
0.688001 0.178191 2.23555 136 165 59 
0.68602 0.333794 2.22725 176 197 80 
0.688938 -0.180728 2.22503 30 46 0 
0.689684 -0.191651 2.23115 151 171 82 
0.68964 -0.0955203 2.23108 143 160 89 
0.688667 0.389245 2.23887 126 139 59 
0.688021 0.47823 2.23473 74 92 6 
0.69007 0.319464 2.23599 152 173 78 
0.688868 -0.698309 2.2008 31 42 2 
0.689521 -0.726747 2.19803 124 141 63 
0.689784 -0.741864 2.19767 95 111 40 
0.692542 0.129293 2.23256 117 133 68 
0.6908 0.462291 2.23822 153 174 83 
0.690993 -0.822039 2.19563 53 62 15 
0.692495 -0.512052 2.21327 139 156 76 
0.695332 -0.0572596 2.22919 170 187 117 
0.69372 -0.26883 2.20826 109 122 40 
0.696634 0.0602248 2.23263 142 169 64 
0.694746 -0.286859 2.2103 151 179 77 
0.696079 0.425499 2.2472 43 68 0 
0.697162 0.363017 2.24568 60 79 0 
0.697731 0.0826724 2.23242 85 111 12 
0.697888 -0.107469 2.22826 156 183 66 
0.697612 0.143934 2.23299 117 136 44 
0.69487 -0.375029 2.19856 143 170 67 
0.697189 -0.205674 2.21534 168 193 75 
0.697276 0.245313 2.23092 69 96 3 
0.699044 0.0930606 2.23644 45 66 0 
0.697748 0.113411 2.22055 139 173 35 
0.697822 0.228119 2.22584 64 85 29 
0.70029 -0.0480498 2.2337 33 49 12 
0.697583 -0.488718 2.20808 53 68 13 
0.698516 -0.23448 2.21134 139 160 91 
0.70128 0.0490583 2.23883 73 93 32 
0.699219 0.517642 2.24407 129 155 32 
0.699946 0.399587 2.24113 129 150 59 
0.700863 -0.400978 2.21919 143 162 73 
0.700219 -0.392107 2.21349 122 137 70 
0.698636 -0.667163 2.19457 50 63 17 
0.701976 0.186224 2.2372 54 73 0 
0.701356 -0.413003 2.215 163 185 103 
0.703602 -0.180904 2.22216 136 154 78 
0.703976 0.488869 2.24873 128 145 65 
0.705251 0.0694922 2.23266 126 157 27 
0.703717 -0.756429 2.1983 42 54 8 
0.707036 -0.156194 2.233 71 88 18 
0.706891 -0.328229 2.226 24 35 0 
0.706011 0.157803 2.22764 157 184 81 
0.70507 0.22036 2.22191 147 178 59 
0.706039 -0.198749 2.21641 18 33 4 
0.707288 0.350079 2.24237 120 138 64 
0.706382 -0.258202 2.2128 131 153 81 
0.706226 -0.62372 2.20014 128 139 70 
0.706917 -0.523154 2.2059 39 61 0 
0.706522 -0.212371 2.19304 146 174 63 
0.708728 -0.366071 2.2102 58 71 15 
0.708183 -0.801864 2.19303 91 107 44 
0.713052 -0.092803 2.23257 42 56 23 
0.709716 -0.592249 2.20108 45 53 14 
0.712734 0.153587 2.23541 48 71 0 
0.712029 -0.102622 2.21957 26 37 0 
0.713261 0.30187 2.24273 126 146 51 
0.713678 0.263209 2.23976 147 171 61 
0.712768 -0.307885 2.21707 63 76 6 
0.71177 -0.206994 2.20573 173 197 109 
0.715867 0.460489 2.25117 108 131 59 
0.713405 -0.60503 2.2031 31 44 0 
0.713812 -0.740191 2.20036 97 112 47 
0.714573 -0.409098 2.21096 84 99 42 
0.71745 -0.0408615 2.2341 35 58 0 
0.713641 -0.711383 2.19187 124 141 63 
0.717121 0.471126 2.2449 66 82 9 
0.717785 0.27991 2.23891 106 120 59 
0.718267 0.162097 2.23398 140 164 76 
0.717647 0.138542 2.22199 93 118 27 
0.717989 -0.329152 2.21559 70 83 14 
0.718896 -0.108357 2.21423 153 168 99 
0.721706 0.148809 2.23127 39 58 3 
0.722388 -0.167346 2.22625 153 173 88 
0.721634 -0.214307 2.21055 148 173 81 
0.722063 -0.51067 2.20959 111 134 52 
0.724245 0.0362542 2.22452 138 167 48 
0.723809 -0.455919 2.2138 34 50 0 
0.723509 -0.37513 2.2113 139 160 57 
0.725518 -0.142169 2.22648 92 114 13 
0.725127 -0.097204 2.22301 61 74 5 
0.72254 -0.487104 2.20061 129 148 67 
0.72755 -0.175563 2.23408 149 168 76 
0.725247 0.215167 2.225 126 147 46 
0.726366 0.0229434 2.22274 54 74 5 
0.727125 0.135807 2.22705 137 162 79 
0.726815 -0.359905 2.21487 165 177 103 
0.728927 0.164673 2.23858 85 101 52 
0.729231 0.364821 2.24554 41 57 0 
0.728083 -0.0491666 2.21904 133 155 57 
0.730776 0.0478168 2.2405 46 60 11 
0.726946 -0.520124 2.20448 42 62 1 
0.729925 0.504847 2.25061 57 69 5 
0.730637 -0.0601252 2.22874 29 42 0 
0.730835 0.395593 2.24558 29 52 0 
0.72903 -0.47203 2.205 157 178 83 
0.730381 -0.124951 2.21431 54 73 0 
0.731781 0.152552 2.22895 136 162 71 
0.732897 0.253619 2.24098 153 176 72 
0.729298 -0.539789 2.19496 139 160 67 
0.733836 0.203037 2.23519 127 139 65 
0.730593 -0.614407 2.19443 126 140 61 
0.736902 0.0561477 2.23883 141 163 63 
0.736885 0.375235 2.24856 57 73 8 
0.734577 0.424183 2.23277 163 185 84 
0.736903 -0.141973 2.22609 59 81 0 
0.735086 -0.575956 2.20311 38 46 5 
0.737127 -0.334881 2.21935 56 67 9 
0.735088 -0.637744 2.19978 24 37 0 
0.739714 -0.0827698 2.23842 32 43 0 
0.737891 0.366541 2.23749 67 85 11 
0.738717 -0.45645 2.21132 63 75 13 
0.738666 -0.395116 2.20943 140 161 68 
0.740874 -0.0584759 2.22626 153 168 87 
0.739591 -0.298728 2.21327 60 83 0 
0.737512 -0.600932 2.1948 61 74 21 
0.740065 -0.504462 2.20991 24 44 0 
0.74248 -0.182888 2.22303 44 61 0 
0.740201 -0.522353 2.20109 50 72 0 
0.744921 0.0493343 2.24094 48 66 0 
0.740692 -0.566357 2.19739 39 49 15 
0.743825 -0.00907069 2.22269 68 93 0 
0.743055 0.273799 2.22044 143 170 65 
0.745633 0.138491 2.23275 113 135 70 
0.741894 -0.585706 2.19494 24 35 0 
0.742338 -0.511097 2.19838 135 156 61 
0.74672 0.251554 2.23951 47 64 0 
0.747533 0.448141 2.2514 41 51 14 
0.744909 -0.400457 2.20299 141 162 71 
0.74958 0.168085 2.24183 107 131 57 
0.748868 0.358327 2.24054 64 82 6 
0.748614 0.384045 2.23826 87 107 10 
0.748093 -0.243173 2.21443 57 82 0 
0.750395 0.520645 2.25281 8 15 0 
0.749953 0.314677 2.2376 127 151 67 
0.749643 -0.22027 2.21698 122 142 55 
0.750977 0.0434232 2.22414 71 88 18 
0.752616 -0.165468 2.22796 125 144 62 
0.751801 0.393617 2.23894 57 72 3 
0.754238 -0.0454429 2.23569 38 64 0 
0.74861 -0.724022 2.18378 113 136 56 
0.75256 0.226953 2.22718 133 148 47 
0.751717 -0.387457 2.20508 134 161 66 
0.753594 -0.254749 2.21334 45 61 16 
0.754531 -0.130686 2.2197 151 164 95 
0.753963 0.425235 2.23417 71 90 8 
0.752355 -0.518893 2.20039 73 98 14 
0.756096 -0.0283524 2.22834 183 205 122 
0.757508 0.0237194 2.22897 142 169 52 
0.758347 0.461356 2.25133 140 152 86 
0.75533 -0.373673 2.20892 148 163 80 
0.758884 0.0805121 2.23549 35 50 0 
0.756395 -0.490742 2.21017 28 39 0 
0.756229 -0.440977 2.20867 142 161 79 
0.758327 -0.196846 2.22192 93 104 44 
0.756904 -0.856084 2.19379 94 110 48 
0.76023 -0.15873 2.22997 144 165 70 
0.757793 -0.477604 2.21172 144 161 81 
0.758707 -0.316992 2.21537 57 72 3 
0.757387 -0.412112 2.20542 72 91 10 
0.760164 -0.00776386 2.22532 105 123 49 
0.760866 0.190758 2.23586 64 84 0 
0.75717 -0.635402 2.19304 50 65 0 
0.759331 -0.262039 2.20729 35 53 0 
0.762196 0.0710611 2.23089 38 55 0 
0.763425 0.153802 2.24025 151 176 93 
0.760596 -0.226876 2.21267 82 100 24 
0.761175 -0.808186 2.19929 98 112 61 
0.764167 0.290087 2.2383 67 90 10 
0.763232 0.255706 2.22543 72 89 9 
0.764132 0.0472299 2.22132 102 128 31 
0.764925 -0.0635475 2.22001 139 162 56 
0.763735 -0.529096 2.20441 32 47 0 
0.763734 -0.602621 2.20266 88 102 51 
0.766696 -0.0994594 2.22594 100 117 47 
0.767394 0.135679 2.23522 130 153 63 
0.766941 0.14674 2.23205 56 80 0 
0.767836 0.489565 2.24679 72 94 9 
0.767613 0.0945472 2.22913 78 99 0 
0.765952 -0.349593 2.21171 29 49 0 
0.768011 -0.182901 2.22299 32 45 0 
0.765624 -0.238741 2.20624 128 145 67 
0.766986 -0.281805 2.21327 122 147 53 
0.768906 0.201335 2.23463 99 112 24 
0.76861 -0.19743 2.21937 109 120 54 
0.770358 0.224044 2.23731 73 76 19 
0.76577 -0.728246 2.18631 102 119 65 
0.767872 -0.37332 2.20732 123 146 58 
0.768558 0.384639 2.22854 163 182 77 
0.770365 0.28205 2.23598 46 68 0 
0.770933 0.125264 2.23061 58 80 7 
0.766935 -0.574984 2.1931 120 135 78 
0.767336 -0.754014 2.18722 96 113 58 
0.771833 -0.167761 2.22528 146 162 89 
0.769643 -0.459424 2.20551 123 140 72 
0.771657 -0.402409 2.21592 60 81 22 
0.770109 -0.421801 2.20515 128 147 57 
0.775273 0.159318 2.24225 57 81 0 
0.774502 0.303501 2.23902 165 188 106 
0.770574 -0.504851 2.19817 137 151 64 
0.772858 -0.0166529 2.21676 155 181 56 
0.771646 -0.613304 2.20094 111 128 58 
0.775652 0.458881 2.24465 130 150 65 
0.774011 -0.233096 2.21135 27 35 0 
0.777795 -0.160553 2.22888 144 166 68 
0.778277 0.276897 2.24169 54 75 0 
0.775006 -0.361255 2.2045 76 101 7 
0.77979 0.373247 2.23969 134 149 64 
0.7784 -0.0888704 2.21609 133 151 67 
0.779697 0.291846 2.23328 150 178 76 
0.78125 0.442599 2.24589 48 64 2 
0.778027 -0.0774489 2.20779 145 163 81 
0.780198 0.215836 2.22958 157 174 80 
0.778593 -0.313551 2.20915 66 91 0 
0.776216 -0.482344 2.19214 151 170 63 
0.778188 -0.529503 2.20286 49 66 0 
0.782002 0.324648 2.23143 43 67 0 
0.783975 0.116022 2.23213 159 183 97 
0.783704 0.506266 2.23785 57 74 6 
0.784717 0.0490331 2.22784 92 113 10 
0.785411 0.00414731 2.22399 68 85 0 
0.783245 -0.40784 2.20482 102 126 30 
0.783185 -0.610434 2.19824 104 118 56 
0.785189 0.364747 2.22915 163 176 107 
0.786587 -0.00811744 2.22473 33 47 0 
0.786505 0.484823 2.23926 24 47 0 
0.787474 0.103967 2.23198 28 42 0 
0.788789 0.301006 2.23772 154 181 84 
0.788312 0.336302 2.23452 153 177 81 
0.787085 0.0763662 2.21762 63 86 0 
0.784318 -0.658327 2.18826 54 68 6 
0.786656 -0.456013 2.2053 114 139 55 
0.78947 -0.0360074 2.22594 164 186 78 
0.789532 -0.175628 2.22336 55 77 0 
0.788527 0.314234 2.2269 123 151 40 
0.787954 -0.146748 2.21017 144 168 84 
0.78726 -0.342874 2.20065 80 105 11 
0.791167 0.386228 2.23807 50 57 13 
0.792397 0.0279621 2.23074 121 136 53 
0.793451 0.243636 2.24149 122 147 56 
0.79248 0.453179 2.24029 147 172 88 
0.79146 -0.296514 2.21633 110 134 46 
0.792143 -0.194059 2.21803 156 176 91 
0.789751 -0.732119 2.18715 46 61 2 
0.792543 -0.069176 2.21157 54 81 2 
0.796708 0.18935 2.24098 115 134 52 
0.795219 0.0170467 2.22124 160 181 80 
0.792043 -0.498121 2.19496 109 119 46 
0.793243 -0.320477 2.20358 146 159 79 
0.791015 -0.531301 2.18706 69 89 4 
0.797191 0.199763 2.23541 124 142 68 
0.795217 -0.425971 2.21141 14 29 0 
0.794399 -0.583871 2.20101 130 151 76 
0.798374 -0.0335227 2.23093 66 87 0 
0.797248 -0.053482 2.22216 140 148 101 
0.798566 0.217653 2.23416 140 152 76 
0.796058 -0.391837 2.20687 141 164 84 
0.79729 0.332548 2.22591 157 190 60 
0.795228 -0.694308 2.19252 34 50 0 
0.799793 0.111374 2.23324 45 65 4 
0.79728 -0.369408 2.21176 36 58 0 
0.795479 -0.766525 2.18663 111 134 52 
0.799106 -0.0234504 2.22316 137 162 35 
0.797534 0.0671234 2.21516 169 187 88 
0.797879 0.489027 2.22846 150 173 65 
0.803154 0.32487 2.23995 42 62 1 
0.80399 0.133205 2.23252 84 109 7 
0.800032 -0.333066 2.20212 42 49 7 
0.804475 0.0392542 2.23191 123 137 76 
0.800189 -0.60041 2.1974 126 145 64 
0.802489 -0.144011 2.21257 41 54 8 
0.805354 -0.0467932 2.22779 147 157 86 
0.805049 0.0518507 2.22425 137 163 53 
0.801063 -0.648776 2.18358 111 125 72 
0.802696 -0.680373 2.19004 138 158 71 
0.807855 0.285458 2.2344 124 148 64 
0.80679 0.00814599 2.21726 53 59 13 
0.808073 0.0193944 2.21885 178 192 97 
0.809872 0.110636 2.22819 152 170 70 
0.807 -0.271317 2.20288 66 87 0 
0.80685 -0.390874 2.19998 148 170 59 
0.812082 0.164586 2.23742 48 61 15 
0.808854 -0.361023 2.20814 165 188 98 
0.811535 0.457087 2.23992 31 47 0 
0.812004 0.180203 2.23411 103 126 38 
0.809973 -0.196063 2.21362 159 185 75 
0.8075 -0.412111 2.19575 84 102 3 
0.810813 0.266165 2.22569 144 168 56 
0.811878 0.499137 2.23678 122 139 85 
0.813469 0.0403686 2.2266 139 162 58 
0.8106 -0.749607 2.18571 116 138 40 
0.815971 0.22238 2.23332 140 163 59 
0.815362 -0.0181987 2.22363 159 174 93 
0.816274 0.156591 2.22707 124 144 59 
0.814281 -0.379157 2.20733 135 154 64 
0.818138 0.247991 2.23442 149 175 68 
0.815098 -0.467131 2.20576 57 71 18 
0.816151 -0.316077 2.2131 168 166 117 
0.813579 -0.819375 2.18045 118 132 37 
0.819442 0.188669 2.23739 160 185 94 
0.818541 0.130586 2.22379 151 171 82 
0.82002 -0.172426 2.22398 47 68 0 
0.820706 -0.190906 2.22661 60 84 0 
0.820068 -0.105535 2.22254 114 128 67 
0.820228 -0.327527 2.21266 127 132 65 
0.822154 0.456759 2.23815 55 72 2 
0.818851 -0.761085 2.18997 49 64 0 
0.818832 -0.553565 2.19851 143 167 55 
0.822893 -0.090943 2.22603 155 178 62 
0.818514 -0.528396 2.19491 150 170 71 
0.823627 0.118908 2.22942 41 60 0 
0.82348 0.473525 2.23723 126 146 57 
0.822476 -0.0102732 2.21646 156 176 65 
0.824014 -0.0711982 2.22246 88 108 19 
0.822578 -0.345973 2.20939 115 134 45 
0.825617 0.0929015 2.23013 140 157 43 
0.822945 -0.262488 2.2059 168 183 82 
0.823302 -0.602923 2.19769 127 140 68 
0.827745 0.0504673 2.23124 150 174 62 
0.826998 -0.208957 2.22133 92 121 5 
0.829132 0.212332 2.23525 118 139 36 
0.827403 0.0237951 2.2199 171 193 85 
0.82604 -0.386167 2.2072 80 92 18 
0.829848 0.164802 2.2349 94 102 61 
0.82894 -0.167414 2.22299 38 60 0 
0.826503 -0.626075 2.20104 83 90 46 
0.829968 0.0389432 2.22607 125 149 63 
0.829714 -0.219203 2.22088 130 146 84 
0.831171 0.357958 2.23995 128 144 73 
0.826758 -0.72474 2.19021 66 70 37 
0.827031 -0.7014 2.19182 17 26 5 
0.830786 -0.00338633 2.21907 193 209 144 
0.829938 -0.286119 2.21088 144 155 97 
0.828595 -0.531298 2.19958 13 14 9 
0.833005 -0.0829972 2.22822 115 129 70 
0.833617 0.369518 2.23828 151 157 109 
0.829832 -0.84678 2.18407 214 207 189 
0.830037 -0.421282 2.20359 27 31 16 
0.834116 0.289902 2.23638 97 104 71 
0.834003 0.0679017 2.22953 11 12 17 
0.835014 0.224054 2.23837 25 26 10 
0.834993 0.311518 2.24041 8 12 13 
0.832116 -0.256998 2.21407 24 21 4 
0.830737 -0.398807 2.20508 26 27 19 
0.830168 -0.441071 2.20113 66 73 32 
0.83378 -0.0271466 2.22429 18 23 0 
0.834336 -0.0601758 2.2246 24 31 13 
0.834847 0.145967 2.23135 18 16 0 
0.835399 0.181845 2.23387 22 24 2 
0.831966 -0.376646 2.20572 27 24 17 
0.835596 0.244277 2.23273 13 16 0 
0.834364 -0.174679 2.21816 30 36 22 
0.836683 0.325496 2.23803 18 20 9 
0.833934 -0.274562 2.21146 44 46 0 
0.834173 -0.305403 2.21008 24 22 0 
0.837393 0.254136 2.23445 76 70 48 
0.837669 0.431651 2.24 8 10 0 
-0.480189 -0.316457 2.25276 156 99 69 
0.362638 -0.652308 2.20812 147 163 64 
0.610818 0.103644 2.228 136 168 33 
0.706763 -0.560706 2.1933 42 54 0 
-0.818549 -0.310757 2.25971 146 180 68 
-0.826602 0.0267771 2.27193 82 111 19 
-0.81415 -0.338766 2.26425 122 147 55 
-0.81193 -0.321857 2.2627 68 94 0 
-0.826273 0.0791782 2.277 157 190 85 
-0.847382 0.506548 2.29717 40 61 0 
-0.838606 0.397839 2.29009 144 165 86 
-0.805883 -0.231537 2.26325 61 92 0 
-0.817564 0.158081 2.27114 153 188 68 
-0.837615 0.345873 2.29109 150 180 68 
-0.805023 -0.200068 2.26332 135 164 58 
-0.803731 -0.128716 2.26107 83 116 11 
-0.800344 -0.31327 2.26418 66 92 5 
-0.833338 0.376494 2.29218 69 93 0 
-0.839713 0.524418 2.29909 46 69 0 
-0.80376 -0.219144 2.26982 77 100 30 
-0.819012 0.209498 2.28192 65 85 0 
-0.822222 0.226553 2.28606 67 85 9 
-0.787302 -0.432006 2.25766 148 207 81 
-0.791589 -0.228731 2.26043 171 207 85 
-0.828068 0.35985 2.29282 142 170 67 
-0.803314 -0.184043 2.27428 108 128 65 
-0.805153 -0.00121488 2.27407 128 148 61 
-0.812358 0.0886597 2.28096 138 162 66 
-0.784619 -0.336435 2.25758 163 211 89 
-0.825488 0.333108 2.29328 64 89 0 
-0.786105 -0.419383 2.26105 48 93 0 
-0.813505 0.102429 2.28408 121 145 51 
-0.816282 0.184639 2.28813 67 85 11 
-0.809861 0.287901 2.28115 159 181 70 
-0.793808 -0.213914 2.26994 137 174 58 
-0.812545 0.400343 2.28344 152 183 54 
-0.787638 -0.193514 2.26448 141 178 73 
-0.784937 -0.396858 2.26519 68 110 12 
-0.816262 0.303865 2.28992 51 69 0 
-0.788498 -0.259639 2.26684 137 172 44 
-0.781292 -0.386823 2.26126 153 195 93 
-0.806723 0.166615 2.28127 130 152 43 
-0.795158 -0.100841 2.27199 161 182 87 
-0.791322 -0.163305 2.26977 68 98 0 
-0.805663 0.267573 2.28317 130 164 43 
-0.81684 0.458814 2.29548 152 183 63 
-0.805154 0.22757 2.28502 158 179 84 
-0.804734 0.249785 2.28515 52 85 0 
-0.774754 -0.344034 2.26057 42 83 4 
-0.798547 0.0727416 2.28166 145 177 70 
-0.782234 -0.0712611 2.26757 160 200 78 
-0.808331 0.444366 2.29117 69 94 0 
-0.787725 0.0598954 2.27249 151 187 65 
-0.775414 -0.375505 2.26573 53 80 9 
-0.770531 -0.354977 2.26035 163 207 112 
-0.791187 0.025289 2.28016 34 51 0 
-0.797978 0.1435 2.28678 52 71 0 
-0.800946 0.102498 2.29073 31 56 0 
-0.757308 -0.454241 2.25305 60 91 13 
-0.796311 0.478824 2.28532 141 173 48 
-0.765553 -0.395957 2.26335 158 192 98 
-0.77979 0.347811 2.2707 119 154 28 
-0.79598 0.265156 2.28914 109 133 47 
-0.794612 0.29692 2.28748 41 58 0 
-0.775577 -0.104369 2.27242 126 151 68 
-0.772752 -0.198678 2.27361 63 99 11 
-0.783299 0.190962 2.28037 138 177 50 
-0.7692 -0.181963 2.27017 28 55 0 
-0.764856 -0.113843 2.26529 58 94 7 
-0.771206 -0.0354505 2.27228 124 150 63 
-0.813665 0.925898 2.30931 137 147 74 
-0.76947 0.198778 2.27054 103 136 31 
-0.782282 0.323282 2.28437 137 167 67 
-0.752983 -0.389617 2.26153 154 200 101 
-0.796062 0.504548 2.29821 141 168 65 
-0.769469 0.0472997 2.2745 47 71 0 
-0.75403 -0.06255 2.25897 134 176 64 
-0.769087 -0.0906927 2.27695 61 89 0 
-0.804438 0.839955 2.30578 72 89 9 
-0.770078 -0.0156908 2.27803 113 141 67 
-0.791999 0.437188 2.30028 67 88 0 
-0.785392 0.373181 2.29408 74 90 17 
-0.750568 -0.122323 2.26361 60 110 13 
-0.797371 0.656661 2.3073 43 63 2 
-0.753743 -0.21073 2.26983 102 130 53 
-0.754137 -0.157221 2.27052 28 52 0 
-0.745426 -0.336167 2.26389 113 145 60 
-0.756531 0.0122032 2.27116 110 140 40 
-0.781872 0.583967 2.29412 150 180 56 
-0.749438 -0.174465 2.26689 129 176 60 
-0.772191 0.487079 2.28524 159 186 83 
-0.761932 -0.0215616 2.27897 116 144 67 
-0.796484 0.93301 2.30657 158 151 107 
-0.758996 0.0589428 2.27552 58 74 9 
-0.745164 -0.37618 2.2673 50 94 0 
-0.787962 0.511891 2.305 41 61 0 
-0.741689 -0.18333 2.26261 119 172 40 
-0.742 -0.165204 2.26342 149 197 79 
-0.743562 -0.0486175 2.2639 147 185 74 
-0.769951 0.340759 2.2902 140 169 77 
-0.765045 0.0656996 2.28864 40 60 1 
-0.778685 0.570444 2.29969 52 67 0 
-0.744462 -0.131534 2.26916 142 180 81 
-0.776475 0.74984 2.29645 142 166 54 
-0.738219 -0.272071 2.26577 20 49 0 
-0.734752 -0.261348 2.26203 133 184 81 
-0.774215 0.454301 2.29797 84 113 3 
-0.756123 0.29269 2.28051 121 151 63 
-0.72502 -0.298744 2.25572 130 200 75 
-0.726479 -0.331302 2.26057 151 183 107 
-0.748026 0.00378045 2.27952 126 152 65 
-0.737255 0.0436395 2.26971 121 181 67 
-0.740128 0.13715 2.27273 136 200 77 
-0.73231 -0.14173 2.26757 153 205 94 
-0.744807 0.0179958 2.27964 28 49 0 
-0.730904 -0.241247 2.26854 143 207 87 
-0.735653 0.0581322 2.27096 49 75 1 
-0.748978 0.207329 2.28494 26 57 0 
-0.72569 -0.103384 2.26667 127 173 74 
-0.749714 0.327297 2.28936 117 144 63 
-0.738773 0.0671559 2.28081 136 173 70 
-0.7279 0.0275771 2.27161 146 190 79 
-0.754419 0.561203 2.29766 98 117 28 
-0.710618 -0.304252 2.26333 145 197 96 
-0.73253 0.369487 2.28303 129 155 48 
-0.735792 0.355794 2.28684 150 178 78 
-0.744841 0.516008 2.29734 142 171 53 
-0.728326 0.125184 2.28204 120 188 69 
-0.722918 0.0494054 2.27724 154 199 98 
-0.726492 0.0393395 2.28206 41 67 6 
-0.740654 0.448136 2.29771 151 180 72 
-0.722485 0.134759 2.28031 124 190 58 
-0.719781 0.0965542 2.27914 155 202 98 
-0.72503 0.30818 2.28317 90 138 26 
-0.712934 -0.0571951 2.2738 105 127 45 
-0.72053 0.0590586 2.28106 127 162 72 
-0.721392 0.187693 2.28089 139 195 72 
-0.729182 0.459832 2.29026 77 109 0 
-0.717574 0.0695364 2.28137 67 82 17 
-0.72647 0.274452 2.29409 72 104 21 
-0.725802 0.517236 2.29509 60 80 0 
-0.725701 0.468836 2.29667 55 74 10 
-0.72145 0.722672 2.29053 131 155 33 
-0.714815 0.313911 2.28661 51 83 10 
-0.724735 0.576974 2.29974 115 138 50 
-0.717473 0.530446 2.29194 58 76 0 
-0.729824 0.933675 2.30656 43 47 10 
-0.711969 0.671144 2.29901 119 130 54 
-0.712528 0.479715 2.30142 25 42 0 
-0.706217 0.528365 2.29739 142 160 58 
-0.692417 0.546505 2.29004 158 180 79 
-0.683982 0.445705 2.29534 117 141 57 
-0.697657 0.828766 2.30891 72 78 16 
-0.679073 0.549903 2.29171 59 73 14 
-0.682907 0.480146 2.30029 134 157 75 
-0.691653 0.937588 2.31056 54 57 26 
-0.682092 0.88622 2.30742 62 75 3 
-0.667499 0.474707 2.29609 117 135 61 
-0.667325 0.607006 2.29592 56 65 0 
-0.665246 0.433318 2.29572 43 63 4 
-0.65537 0.459063 2.29516 122 146 60 
-0.658327 0.807039 2.29902 140 159 54 
-0.650187 0.477307 2.2955 94 116 15 
-0.64864 0.447667 2.29431 155 185 95 
-0.635638 0.693488 2.28947 61 74 0 
-0.638601 0.572389 2.29749 116 140 46 
-0.649463 0.813144 2.30867 41 60 0 
-0.638642 0.895485 2.29993 152 165 83 
-0.648504 0.942539 2.3117 93 95 74 
-0.646031 0.840438 2.31091 51 65 12 
-0.628487 0.867294 2.30439 63 80 2 
-0.618145 0.55311 2.29525 115 130 65 
-0.614175 0.49924 2.2959 134 166 59 
-0.600097 0.707206 2.29598 128 147 55 
-0.59868 0.666636 2.29932 125 145 46 
-0.59371 0.732203 2.29479 155 177 79 
-0.590502 0.429937 2.29433 34 64 10 
-0.59277 0.691176 2.29883 109 137 27 
-0.58335 0.578021 2.29306 171 187 99 
-0.592832 0.722755 2.3062 134 154 65 
-0.586534 0.634574 2.29929 131 145 57 
-0.589454 0.768072 2.30459 73 87 8 
-0.585129 0.93248 2.29778 53 65 3 
-0.58816 0.787981 2.30469 64 78 0 
-0.578262 0.61238 2.29433 134 151 47 
-0.578648 0.524133 2.29545 133 162 54 
-0.586191 0.714986 2.30699 104 121 50 
-0.586622 0.874697 2.30573 87 104 12 
-0.577946 0.827934 2.3055 38 51 5 
-0.521356 -0.282931 2.24983 152 255 199 
-0.570927 0.773329 2.30165 133 151 69 
-0.563404 0.752823 2.29513 137 156 64 
-0.563835 0.894119 2.29621 151 164 74 
-0.565771 0.832773 2.2997 132 151 61 
-0.560325 0.554418 2.29947 29 49 0 
-0.551223 0.566929 2.29494 45 60 0 
-0.562769 0.781506 2.31004 39 54 0 
-0.553241 0.890565 2.29684 70 90 0 
-0.544169 0.698233 2.2887 68 88 25 
-0.551499 0.534058 2.30204 144 169 88 
-0.554468 0.701029 2.30742 92 113 46 
-0.550252 0.749987 2.30453 123 141 57 
-0.49659 -0.110533 2.24663 152 93 53 
-0.525442 0.555298 2.2824 149 172 84 
-0.539503 0.47929 2.30165 73 99 8 
-0.480039 -0.374823 2.23762 157 107 74 
-0.53872 0.94294 2.30429 144 152 92 
-0.495617 -0.149251 2.26694 108 217 112 
-0.488965 -0.393697 2.26378 145 255 151 
-0.481663 -0.41367 2.25772 168 255 222 
-0.491554 -0.354743 2.26977 19 118 28 
-0.47067 -0.0860324 2.25141 87 255 104 
-0.477464 -0.353797 2.26664 90 222 100 
-0.478864 -0.392772 2.26963 160 247 153 
-0.509852 0.896104 2.30123 58 73 4 
-0.512779 0.850446 2.30997 69 87 13 
-0.496564 0.555698 2.29112 135 148 69 
-0.50392 0.921633 2.30102 150 172 63 
-0.454001 -0.631794 2.25675 115 187 77 
-0.464674 -0.419047 2.26861 138 255 129 
-0.49597 0.480002 2.29978 124 151 58 
-0.497622 0.707583 2.30128 99 124 22 
-0.500569 0.628571 2.3063 159 168 87 
-0.479843 0.134052 2.28218 117 192 89 
-0.495693 0.721606 2.30089 60 73 19 
-0.487936 0.444402 2.29303 158 194 104 
-0.497065 0.943583 2.30666 34 40 14 
-0.488959 0.74014 2.29959 141 168 51 
-0.494568 0.797636 2.30669 122 146 62 
-0.495991 0.875091 2.30892 34 46 0 
-0.482351 0.809979 2.30145 42 64 0 
-0.477775 0.565172 2.30057 107 136 30 
-0.477624 0.626368 2.30057 122 132 46 
-0.468879 0.417418 2.29024 36 32 0 
-0.420204 -0.605579 2.25326 165 230 140 
-0.459031 0.900845 2.2931 139 158 68 
-0.458692 0.645223 2.29509 160 174 77 
-0.409881 -0.615914 2.24764 129 226 85 
-0.488374 1.17892 2.32944 240 223 207 
-0.454201 0.91724 2.29205 89 107 21 
-0.459942 0.701163 2.30286 137 160 52 
-0.449805 0.889377 2.29331 80 96 25 
-0.437554 0.681785 2.28851 159 183 73 
-0.384293 -0.641576 2.24091 149 202 84 
-0.438056 0.753426 2.29631 117 130 50 
-0.436261 0.93473 2.29702 65 71 23 
-0.379496 -0.618687 2.24538 139 221 84 
-0.368635 -0.638734 2.24392 128 186 66 
-0.410496 0.907294 2.2825 157 183 60 
-0.406716 0.795276 2.27928 132 154 45 
-0.41014 0.678015 2.28553 150 176 53 
-0.410775 0.643219 2.28703 145 164 56 
-0.36515 -0.679667 2.24464 55 65 12 
-0.371853 -0.601734 2.2526 82 183 65 
-0.366099 -0.62423 2.24569 147 205 103 
-0.360981 -0.697905 2.25282 48 58 5 
-0.401701 0.452957 2.29376 30 59 0 
-0.401639 0.939749 2.29191 89 111 13 
-0.396513 0.709196 2.28923 130 156 49 
-0.3973 0.482368 2.29455 161 182 87 
-0.397056 0.524728 2.29557 120 148 48 
-0.392209 0.676687 2.28822 137 160 82 
-0.352704 -0.610894 2.25516 139 230 103 
-0.388775 0.70102 2.28849 124 150 41 
-0.392943 0.88771 2.29904 81 101 12 
-0.383291 0.498514 2.29559 21 43 0 
-0.379866 0.446562 2.29275 44 84 0 
-0.38892 0.828377 2.3034 39 52 9 
-0.379945 0.620222 2.29239 61 76 0 
-0.33439 -0.60384 2.24827 119 200 79 
-0.379436 0.434358 2.29611 86 110 60 
-0.385643 0.845495 2.31108 113 128 71 
-0.37047 0.643696 2.29123 147 170 56 
-0.324194 -0.652829 2.24644 135 175 78 
-0.368945 0.663684 2.29355 72 91 2 
-0.322671 -0.641537 2.24622 43 82 0 
-0.364797 0.535687 2.29305 132 159 64 
-0.359116 0.564754 2.28613 142 172 72 
-0.320903 -0.630512 2.25005 32 72 0 
-0.321018 -0.605195 2.25522 138 204 107 
-0.312063 -0.648236 2.24627 58 88 0 
-0.360948 0.93927 2.29667 101 122 17 
-0.361466 0.483565 2.30829 64 94 0 
-0.35511 0.70139 2.30047 119 136 58 
-0.35119 0.547421 2.30107 113 139 40 
-0.349041 0.530192 2.29879 63 77 26 
-0.302914 -0.66022 2.25088 117 148 45 
-0.344976 0.726587 2.29418 135 155 58 
-0.343066 0.486517 2.30249 15 38 0 
-0.34084 0.895446 2.29699 130 147 43 
-0.288102 -0.672104 2.242 131 160 68 
-0.334502 0.582337 2.29305 124 151 38 
-0.335603 0.630377 2.29585 57 80 0 
-0.333424 0.926067 2.30132 133 150 70 
-0.332188 0.69882 2.30368 39 61 0 
-0.327488 0.642368 2.29977 48 71 0 
-0.322835 0.475311 2.29434 163 193 71 
-0.323739 0.835652 2.2978 57 79 0 
-0.318759 0.769656 2.29202 128 153 52 
-0.319519 0.919922 2.29469 140 159 70 
-0.314796 0.655679 2.29631 142 170 68 
-0.314791 0.841574 2.29781 117 140 52 
-0.309676 0.674267 2.29178 119 136 68 
-0.271459 -0.608181 2.25443 34 71 0 
-0.309558 0.588681 2.2937 26 45 0 
-0.307906 0.939047 2.29078 142 164 63 
-0.314222 0.745282 2.30305 135 159 65 
-0.304691 0.65834 2.28944 115 141 40 
-0.304812 0.480497 2.29359 163 187 77 
-0.267392 -0.156703 2.24739 137 100 55 
-0.291153 0.434947 2.28083 165 215 118 
-0.299248 0.515607 2.29287 50 73 0 
-0.302294 0.744211 2.30099 104 123 44 
-0.301648 0.85263 2.30172 126 145 53 
-0.2988 0.923663 2.29649 80 106 15 
-0.291029 0.526594 2.28966 97 127 3 
-0.293775 0.663697 2.29379 122 145 67 
-0.27611 0.518325 2.28438 165 194 76 
-0.274658 0.578697 2.28428 150 178 65 
-0.224009 -0.825821 2.23332 123 143 72 
-0.275321 0.769861 2.29284 101 119 45 
-0.272798 0.481751 2.29121 139 159 64 
-0.224176 -0.613355 2.23583 144 216 106 
-0.260208 0.117256 2.27747 38 126 13 
-0.264866 0.518056 2.28364 156 173 81 
-0.274909 0.778719 2.2983 43 63 0 
-0.272022 0.752652 2.29678 44 59 4 
-0.214501 -0.768707 2.23172 60 80 31 
-0.265526 0.60296 2.28901 34 51 0 
-0.266292 0.465695 2.2912 148 179 59 
-0.258565 0.500164 2.28023 155 185 71 
-0.272317 0.949617 2.29852 76 82 36 
-0.265859 0.429772 2.29537 64 81 29 
-0.268603 0.900084 2.29812 130 152 67 
-0.257182 0.57888 2.28505 24 42 0 
-0.255375 0.596563 2.28705 128 155 60 
-0.207814 -0.77388 2.23872 110 134 48 
-0.246661 0.587629 2.28419 131 155 71 
-0.256059 0.885716 2.30031 43 54 11 
-0.224293 0.2429 2.26154 162 255 188 
-0.201082 -0.710014 2.24632 49 72 0 
-0.245242 0.940953 2.29255 90 101 32 
-0.239131 0.489539 2.29022 119 139 70 
-0.232236 0.502332 2.28138 48 63 0 
-0.197712 -0.607796 2.24495 9 42 0 
-0.23935 0.721851 2.29343 124 138 59 
-0.208242 0.228277 2.25375 95 238 94 
-0.230139 0.547665 2.28734 43 61 1 
-0.232657 0.741217 2.29145 137 153 64 
-0.228036 0.895525 2.28555 146 166 71 
-0.23076 0.754341 2.29586 33 46 0 
-0.220607 0.508804 2.2843 54 64 14 
-0.182064 -0.705011 2.24939 116 139 71 
-0.213063 0.576213 2.28239 128 156 56 
-0.199935 0.205671 2.27677 140 255 154 
-0.204499 0.692516 2.28477 69 86 6 
-0.19755 0.604901 2.27543 78 88 19 
-0.187933 0.154763 2.26306 62 90 6 
-0.206714 0.811072 2.29103 141 164 48 
-0.180885 0.111804 2.25511 155 195 107 
-0.203307 0.797478 2.2891 135 158 54 
-0.196869 0.480948 2.28859 26 44 0 
-0.155295 -0.632921 2.24117 145 192 86 
-0.185385 0.425603 2.2729 170 201 98 
-0.193612 0.745678 2.28562 133 150 70 
-0.191025 0.694669 2.28414 138 158 73 
-0.190139 0.554268 2.28418 62 89 0 
-0.184425 0.643955 2.28491 152 176 54 
-0.171443 0.433591 2.26981 146 174 99 
-0.142325 -0.733948 2.24383 93 109 46 
-0.135731 -0.919096 2.23983 83 95 33 
-0.183859 0.682965 2.29409 115 132 62 
-0.171362 0.532099 2.27579 142 170 49 
-0.138409 -0.620929 2.24169 129 171 71 
-0.170286 0.604816 2.28489 91 117 7 
-0.175311 0.856374 2.29361 44 60 0 
-0.168347 0.643551 2.28819 136 156 69 
-0.156719 0.413411 2.27358 164 105 71 
-0.16546 0.428607 2.29321 37 54 9 
-0.11541 -0.766068 2.2398 58 73 16 
-0.147626 0.446803 2.28136 23 40 0 
-0.153442 0.879973 2.28801 139 162 58 
-0.173782 1.18939 2.32028 166 142 118 
-0.1405 0.545431 2.27545 131 162 35 
-0.137321 0.523485 2.27253 144 176 51 
-0.106853 -0.845222 2.2455 49 63 2 
-0.147548 0.769241 2.29101 40 53 0 
-0.13886 0.666918 2.28024 125 147 39 
-0.150735 0.954515 2.29958 95 91 53 
-0.139163 0.635381 2.28732 151 174 60 
-0.14324 0.757862 2.29412 28 43 0 
-0.134229 0.611338 2.29272 45 60 0 
-0.131789 0.817978 2.28924 44 55 0 
-0.086212 -0.817081 2.23832 115 132 61 
-0.128819 0.703437 2.29675 110 125 56 
-0.120276 0.667488 2.28374 152 174 76 
-0.115543 0.909555 2.28099 77 94 14 
-0.118633 0.941042 2.29386 47 59 0 
-0.117826 0.922936 2.29752 61 74 5 
-0.101184 0.867905 2.28263 141 162 57 
-0.105034 0.655515 2.29536 27 40 0 
-0.0996139 0.795281 2.28921 134 154 55 
-0.0961037 0.809638 2.28616 66 77 37 
-0.0530305 -0.993806 2.2399 32 40 0 
-0.0994255 0.713536 2.29372 66 81 22 
-0.10106 0.949586 2.29547 71 78 37 
-0.090973 0.861612 2.29033 39 52 0 
-0.0439746 -0.660643 2.24683 41 59 17 
-0.0794632 0.953532 2.29827 93 96 51 
-0.0671574 0.744778 2.28263 92 119 14 
-0.0147598 -1.0427 2.23519 74 85 42 
-0.0648562 0.911862 2.29552 28 43 0 
-0.0599418 0.876756 2.2893 55 73 0 
-0.0531587 0.616407 2.28042 146 173 66 
-0.0558604 0.829771 2.28357 139 163 69 
-0.0544388 0.454638 2.28591 121 142 63 
-0.0482702 0.478964 2.28676 130 154 68 
-0.0439592 0.763852 2.27849 150 170 71 
-0.0614383 1.19077 2.31189 149 129 105 
-0.0304914 0.532065 2.26847 71 103 0 
-0.0329826 0.583922 2.27428 69 95 0 
0.00478507 -0.709047 2.23974 136 160 62 
0.010707 -0.839153 2.23202 51 65 3 
-0.0329256 0.793604 2.29047 117 134 66 
-0.016015 0.607359 2.27332 149 173 61 
-0.0150508 0.627786 2.27394 158 181 77 
0.0131603 -0.676267 2.24315 59 80 24 
-0.024493 0.945077 2.2916 121 136 53 
-0.00729323 0.463329 2.27537 77 99 1 
-0.0178204 0.952898 2.29277 138 152 90 
-0.00767615 0.718928 2.27705 101 118 50 
0.0347676 -0.842535 2.23133 93 108 43 
-0.00780761 0.625666 2.28728 78 104 7 
0.0363851 -0.946129 2.23059 44 56 10 
-0.00420217 0.56131 2.28381 64 84 0 
-0.00208665 0.596333 2.28512 35 49 0 
0.0233005 -0.421425 2.25849 170 255 229 
0.00375554 0.456025 2.28173 39 52 8 
0.000767834 0.709499 2.28728 123 145 60 
0.00487118 0.764147 2.27873 132 161 45 
0.00372268 0.789423 2.28278 77 102 0 
0.0491974 -0.935763 2.22586 110 130 41 
0.0207346 -0.141753 2.26666 13 38 6 
0.0492584 -0.876644 2.22826 88 103 48 
0.0447168 -0.931532 2.23922 42 55 9 
0.0269285 -0.0777726 2.25942 136 230 94 
0.0544392 -0.643145 2.2274 123 200 84 
0.0167082 0.533277 2.28129 80 96 34 
0.0356856 0.158672 2.25249 164 109 68 
0.0163852 0.796789 2.28368 149 173 63 
0.0417148 -0.392816 2.25296 209 247 174 
0.01356 0.691479 2.2924 6 14 0 
0.0311363 -0.0399155 2.26893 25 97 34 
0.0259306 0.612372 2.27984 69 96 0 
0.0184948 0.813859 2.29385 42 56 3 
0.0196469 0.798895 2.29395 114 134 49 
0.0671986 -0.886646 2.22939 50 62 22 
0.0729518 -1.12178 2.22631 61 74 48 
0.0379741 -0.0326285 2.27339 8 70 7 
0.0320798 0.469895 2.28 37 58 15 
0.0250958 0.923457 2.293 51 60 5 
0.0291184 0.912214 2.28806 143 161 59 
0.0487582 0.124153 2.26021 3 92 0 
0.0701914 -0.750654 2.23657 119 146 51 
0.0400819 0.545495 2.27384 85 107 0 
0.0758744 -0.832256 2.2295 106 121 52 
0.0388962 0.446585 2.28052 160 185 104 
0.0315033 0.865205 2.29158 40 53 0 
0.0550648 -0.09723 2.25721 42 160 37 
0.0737337 -0.81404 2.23808 37 46 1 
0.045096 0.556541 2.27107 111 139 36 
0.0586806 -0.358197 2.26026 112 227 132 
0.0823528 -0.840104 2.23019 102 117 52 
0.0804072 -0.804357 2.2343 90 105 40 
0.0522387 0.229837 2.27302 118 190 104 
0.04298 0.91456 2.2858 145 164 48 
0.0594661 0.119381 2.26469 78 208 84 
0.0602455 0.166733 2.26448 22 61 0 
0.0651962 -0.150478 2.2602 19 40 9 
0.0579717 0.181152 2.26925 53 120 27 
0.0524684 0.452465 2.27746 150 187 82 
0.0427877 0.842846 2.29258 62 78 3 
0.0609107 0.248358 2.26425 165 221 120 
0.0804968 -0.604241 2.24153 42 148 24 
0.0542721 0.705104 2.27614 124 137 68 
0.0949026 -0.888073 2.22348 114 130 59 
0.0563442 0.573781 2.27743 163 184 107 
0.0895848 -0.845861 2.23727 39 52 0 
0.0756425 -0.398896 2.26254 32 102 6 
0.060239 0.432539 2.27986 39 57 15 
0.0726825 -0.0786893 2.26256 146 255 146 
0.0648047 0.224523 2.2753 74 95 26 
0.0632037 0.712474 2.28053 68 84 11 
0.0645969 0.615193 2.28366 92 115 47 
0.0672411 0.471148 2.28095 60 82 9 
0.0602376 0.920677 2.28984 46 64 0 
0.0963423 -0.681906 2.24436 96 112 41 
0.0773643 0.228483 2.26686 60 111 54 
0.0812024 0.121433 2.26551 105 231 121 
0.070126 0.519379 2.28372 57 78 0 
0.0719126 0.951937 2.27776 81 95 7 
0.0767554 0.428144 2.27545 131 200 107 
0.0762883 0.446666 2.28004 24 50 0 
0.0748608 0.593764 2.28153 37 57 0 
0.0721485 0.890452 2.28667 129 129 79 
0.10969 -0.726991 2.23937 134 154 59 
0.0787225 0.697746 2.28374 128 145 74 
0.124457 -1.03956 2.22235 96 112 47 
0.11709 -0.674072 2.23188 124 143 51 
0.0828811 0.544964 2.28354 46 73 0 
0.0833768 0.733945 2.28214 74 89 20 
0.11517 -0.714777 2.24501 42 56 0 
0.0974005 0.439243 2.27398 128 166 81 
0.0982295 0.425325 2.27431 122 188 90 
0.0994935 0.451253 2.27213 112 136 62 
0.129058 -0.664086 2.23269 60 73 19 
0.12822 -0.633104 2.23637 51 100 11 
0.131429 -0.678025 2.2313 51 72 16 
0.138502 -1.05571 2.2289 39 47 23 
0.0999623 0.744993 2.28157 61 80 14 
0.136148 -0.933099 2.23838 40 50 0 
0.137545 -0.82855 2.23431 87 98 42 
0.102869 0.615065 2.2852 74 98 12 
0.100876 0.852199 2.28597 63 78 13 
0.103283 0.919534 2.28099 113 132 51 
0.102955 0.955168 2.28137 83 99 1 
0.135707 -0.774647 2.24435 37 46 0 
0.144881 -0.700265 2.22601 62 87 6 
0.15332 -1.12724 2.2231 13 15 2 
0.108895 0.77925 2.28393 29 43 0 
0.111359 0.691842 2.28083 30 52 0 
0.14551 -0.735518 2.23432 65 66 26 
0.115085 0.866501 2.27553 57 70 24 
0.149412 -0.893122 2.23498 56 66 31 
0.116189 0.88829 2.27452 114 137 49 
0.117434 0.683442 2.2796 122 145 65 
0.116676 0.881247 2.28549 124 145 66 
0.154577 -0.706261 2.23099 50 74 0 
0.119307 0.745498 2.2843 133 149 78 
0.116249 0.812423 2.29123 73 92 3 
0.120711 0.735528 2.28339 53 63 10 
0.124321 0.590799 2.28293 134 155 76 
0.125078 0.840482 2.27744 139 162 54 
0.158015 -0.663658 2.2324 88 116 42 
0.16648 -0.694213 2.21415 103 140 44 
0.13156 0.449021 2.27011 51 71 2 
0.125919 0.677921 2.28055 51 70 0 
0.126659 0.725886 2.27947 48 61 0 
0.157925 -0.653306 2.23657 98 149 54 
0.127385 0.642562 2.28034 70 72 22 
0.131925 0.540417 2.28039 51 76 0 
0.140047 0.426319 2.26585 23 35 15 
0.133246 0.571526 2.28124 93 111 11 
0.16849 -0.846415 2.23033 105 122 54 
0.174579 -0.954205 2.22525 38 48 0 
0.174335 -0.904535 2.22622 108 125 47 
0.169989 -0.689874 2.23248 130 159 77 
0.136628 0.764118 2.28153 45 56 13 
0.143939 0.480392 2.27029 135 160 58 
0.138922 0.773728 2.27785 78 93 10 
0.136695 0.901545 2.2823 131 157 66 
0.143644 0.620447 2.27469 121 136 53 
0.141461 0.954453 2.27901 59 65 17 
0.144381 0.685316 2.27969 57 71 9 
0.149185 0.521477 2.27239 66 96 0 
0.14845 0.569662 2.27627 113 129 56 
0.144241 0.74663 2.28353 48 60 0 
0.144002 0.929409 2.28698 39 52 6 
0.146708 0.698176 2.28749 22 33 0 
0.184713 -0.709322 2.22781 124 158 48 
0.188567 -0.953456 2.22483 90 98 47 
0.146375 0.87494 2.28607 134 159 58 
0.150375 0.725872 2.28288 111 118 66 
0.151398 0.955061 2.27712 83 81 24 
0.190517 -0.926993 2.23125 31 38 7 
0.198085 -1.12942 2.22393 14 15 10 
0.155865 0.855977 2.28195 76 97 6 
0.187213 -0.596751 2.23815 153 226 108 
0.189082 -0.126465 2.22576 139 84 54 
0.164161 0.443931 2.2735 68 90 7 
0.159501 0.748452 2.27933 139 153 65 
0.163862 0.759219 2.28147 121 140 58 
0.164495 0.629337 2.28481 39 57 0 
0.197402 -0.72555 2.2381 55 71 0 
0.159317 0.934884 2.29601 16 25 0 
0.174261 0.478842 2.26948 74 97 7 
0.165908 0.919507 2.28174 110 126 53 
0.173733 0.523163 2.27134 56 81 0 
0.173708 0.565841 2.27448 50 66 0 
0.166168 0.862906 2.28794 61 79 5 
0.170526 0.747158 2.28216 132 147 66 
0.168595 0.935649 2.28523 143 164 59 
0.203117 -0.759632 2.23714 124 142 66 
0.180496 0.423858 2.27116 37 34 0 
0.173895 0.736707 2.28424 70 84 0 
0.205367 -0.664146 2.23793 100 125 41 
0.181469 0.502367 2.27361 151 174 70 
0.17769 0.844869 2.27958 130 150 63 
0.206926 -0.603639 2.23917 52 81 14 
0.190465 0.469136 2.26006 163 202 73 
0.188763 0.441237 2.26638 150 178 103 
0.187136 0.513028 2.27225 160 178 96 
0.21589 -0.78384 2.23116 45 59 0 
0.193626 0.419533 2.26884 153 99 63 
0.185576 0.73401 2.28265 40 54 3 
0.187844 0.83103 2.28118 106 127 60 
0.194579 0.523869 2.27219 140 167 38 
0.203456 0.424548 2.26585 120 134 99 
0.228372 -0.802727 2.23183 49 61 0 
0.203157 0.507867 2.26721 153 183 37 
0.230285 -0.734195 2.22808 56 69 0 
0.206276 0.459166 2.26201 65 86 43 
0.209539 0.432898 2.26553 37 57 8 
0.202845 0.731002 2.27807 133 153 64 
0.229505 -0.649501 2.24259 129 152 82 
0.2018 0.91623 2.27989 93 103 51 
0.207555 0.944088 2.27208 61 71 18 
0.208703 0.893868 2.27528 134 145 77 
0.252133 -1.0831 2.21082 83 103 40 
0.216842 0.575295 2.26492 159 177 77 
0.211957 0.737165 2.27485 143 164 63 
0.217074 0.441683 2.26863 104 130 69 
0.22126 0.516063 2.26996 118 140 65 
0.246855 -0.747135 2.23433 126 143 75 
0.216473 0.95407 2.27673 70 81 5 
0.218982 0.795495 2.27434 151 178 71 
0.218997 0.761415 2.28018 45 61 0 
0.225359 0.540275 2.27128 57 78 1 
0.230762 0.442875 2.2625 59 82 14 
0.253428 -0.793399 2.23467 40 53 0 
0.228993 0.658599 2.27482 150 171 70 
0.26236 -0.715754 2.22062 127 154 25 
0.229728 0.806354 2.27501 76 96 25 
0.268002 -1.1224 2.22426 62 75 19 
0.233288 0.606063 2.2751 143 163 74 
0.239854 0.740886 2.25725 64 87 0 
0.244843 0.523283 2.25249 75 94 15 
0.235414 0.641817 2.27587 68 72 11 
0.240228 0.578259 2.26524 133 153 58 
0.240125 0.567067 2.26615 132 146 48 
0.242318 0.440457 2.26351 145 170 87 
0.242271 0.829571 2.2612 159 175 66 
0.238251 0.903723 2.27201 69 88 0 
0.250258 0.475904 2.25077 140 172 73 
0.239101 0.660362 2.27843 165 178 72 
0.236352 0.952848 2.27964 55 57 36 
0.24712 0.456941 2.26554 132 157 73 
0.273476 -0.676287 2.23194 141 172 78 
