ply                 
format ascii 1.0    
element vertex 1304
property float x    
property float y    
property float z    
property uchar red  
property uchar green
property uchar blue 
end_header          
1.41875 -1.02642 6.05702 167 30 46 
-0.264764 -1.08478 7.18754 105 55 20 
1.11277 0.650256 7.88743 118 87 7 
1.59201 -0.0909638 7.56498 85 84 80 
0.935753 -1.09759 5.94825 129 7 20 
2.25381 -1.73645 7.28503 209 172 6 
2.55971 2.00826 6.898 198 188 187 
1.84911 0.793472 9.68777 182 173 164 
2.16299 -1.42714 7.17592 86 83 42 
-0.17305 0.853237 7.17724 106 67 0 
1.77652 -0.454982 7.2924 128 88 0 
-0.00748641 -0.0241165 6.33082 101 97 98 
1.74277 -0.389594 7.29683 177 144 13 
-0.144696 -0.790125 6.85337 241 234 218 
1.44936 -0.433456 5.65652 105 86 53 
1.90159 -1.11714 7.12351 195 154 12 
2.56664 2.02283 6.88189 170 160 159 
2.07506 -0.599239 7.4071 178 144 37 
1.85048 -1.09759 7.12689 197 157 10 
2.55556 1.07032 8.9766 150 141 132 
1.65457 -0.433118 5.80875 112 92 59 
-0.183325 1.76679 7.2477 68 57 51 
1.1738 1.10888 8.0576 116 83 6 
2.07664 -0.601626 7.42305 179 145 38 
1.35907 1.68704 7.54906 125 112 103 
2.54977 1.07935 8.95479 150 141 134 
-1.06162 1.66537 7.52187 148 137 131 
0.396409 -1.18904 5.76275 138 118 68 
-0.27389 1.55857 7.27676 122 87 3 
0.321702 0.618661 7.25136 126 95 15 
1.01086 1.84754 7.23143 203 192 186 
1.43763 -1.04614 6.0412 178 29 49 
1.98829 -1.43036 7.17974 30 37 0 
0.361577 -1.23617 5.76123 165 162 147 
0.136329 0.689615 5.46798 243 194 14 
1.84459 -1.75708 7.36712 165 119 7 
-0.319656 1.3642 7.41963 130 95 3 
2.06213 -0.593272 7.43161 178 145 30 
0.376136 -1.25085 5.7802 162 156 140 
1.10562 0.596923 7.90353 131 98 5 
1.27513 0.540628 7.94248 134 95 2 
1.16491 0.620278 7.89532 105 64 10 
1.69977 -0.648427 7.32224 124 87 6 
0.764077 1.87075 7.20457 183 173 164 
-0.00317763 0.356948 5.63354 223 170 12 
1.90386 -0.884015 7.20125 15 6 7 
-0.0215422 -0.43249 6.69566 190 152 17 
2.73557 1.0577 9.19139 213 203 202 
1.72941 0.72669 9.90859 117 108 101 
1.75176 -0.929279 7.14939 51 48 39 
3.88392 1.69649 7.63742 179 174 171 
0.860793 -0.603039 6.01875 34 112 60 
0.370741 1.30167 6.85038 87 96 79 
0.0301391 0.147441 6.09973 61 60 56 
1.40268 -0.70933 6.21273 37 82 51 
1.48411 -0.394997 5.61074 102 81 50 
2.91036 0.954143 9.40586 188 179 172 
1.57532 -0.438668 5.74939 102 84 46 
-0.209237 0.473963 5.30849 151 139 125 
0.856191 -0.128753 6.19656 79 55 31 
1.82055 -1.73623 7.32946 167 126 8 
0.739358 1.88063 7.26977 188 175 167 
-0.0310303 1.91218 6.97078 116 104 88 
0.939236 1.88411 7.22484 188 177 171 
1.92577 -0.585565 7.25424 197 152 11 
1.64893 -0.435462 5.82764 114 91 59 
1.85836 -1.03649 7.12473 101 100 96 
1.5564 -0.723267 6.28602 38 89 46 
1.04332 -0.609004 6.01164 19 66 30 
2.59538 2.02166 6.89973 212 204 202 
1.28216 1.92479 7.1468 189 178 174 
3.5734 1.62759 7.76561 182 172 171 
2.31019 1.9229 6.92666 215 209 209 
2.31193 1.44102 8.13269 215 205 204 
1.18801 -0.639238 6.00327 8 83 40 
1.88864 0.78034 9.73177 161 152 145 
1.3211 1.35186 8.0589 117 101 78 
0.232314 0.0988711 7.03702 67 41 4 
1.33136 -0.979144 6.0298 134 5 23 
-0.222113 -1.05625 7.20444 81 39 0 
0.475422 -1.02139 5.83804 128 107 64 
1.98591 -1.34567 7.35246 120 80 8 
1.83696 -1.74047 7.29989 167 125 7 
1.20355 -0.552392 5.80512 24 125 59 
0.0325283 -0.096064 6.31642 72 69 60 
1.28025 1.89806 7.14118 153 142 140 
5.48959 2.48694 11.5929 141 123 103 
0.563938 0.279337 6.76861 105 86 46 
1.17646 0.396023 8.03399 165 131 24 
0.236516 -1.65757 7.28341 192 167 126 
0.644762 1.85498 7.19742 157 144 136 
2.51815 2.05362 6.84722 216 210 212 
1.90706 2.0037 6.95015 204 194 193 
-0.16874 0.773495 7.24494 102 64 1 
6.70979 3.61291 16.8305 150 134 118 
1.16971 0.669703 7.88753 136 102 5 
-2.03933 1.7076 7.69389 207 197 196 
1.88867 -0.659636 7.10004 105 70 2 
3.6526 1.62134 7.72404 179 174 171 
0.863951 1.7754 7.25068 207 196 190 
3.94735 1.69764 7.78619 213 208 205 
3.94898 1.67348 7.70643 210 206 203 
0.888972 -0.911204 5.66675 122 5 23 
1.26809 1.86437 7.27401 211 200 198 
1.46061 -0.44339 5.66641 105 86 46 
1.04021 -0.217225 5.79438 103 81 42 
1.82032 -0.899766 7.15447 70 67 60 
1.16272 0.660037 7.88666 134 98 12 
2.52248 2.04102 6.85903 213 207 207 
1.12736 0.771429 7.92446 105 76 6 
0.853063 -0.605797 6.03721 20 92 44 
1.16374 -1.14367 5.91834 146 9 29 
-0.208305 -0.0747617 6.39826 41 33 22 
0.305944 1.19279 6.85898 75 94 74 
6.41743 3.59345 16.74 150 141 124 
1.25572 1.2131 8.09099 154 117 10 
2.43091 2.02642 6.84162 213 203 202 
1.19562 -0.958662 5.98246 15 73 33 
2.09371 0.685069 9.34544 209 200 193 
2.1297 -0.917369 7.24979 21 21 23 
1.94207 -0.616373 7.26776 128 90 9 
-0.836761 1.73225 7.33572 203 190 184 
1.79832 -1.764 7.30663 187 145 11 
0.0797969 0.712173 5.41968 158 120 23 
1.1481 -0.969108 5.98435 8 48 21 
-0.13047 0.756548 7.26673 119 84 2 
0.102064 0.345401 5.83323 214 175 10 
0.109354 -0.155331 6.47995 194 156 13 
1.35558 -0.951062 6.06805 150 15 30 
2.12928 -0.847441 7.08054 20 21 16 
1.25175 -1.00088 6.06176 11 40 18 
6.62444 3.47983 16.7681 139 127 111 
1.21648 1.23758 8.06075 104 66 1 
2.53704 2.00612 6.91731 180 170 169 
2.40686 1.99635 6.99055 193 183 181 
0.966287 -0.393413 5.77076 199 178 121 
0.963102 1.00294 8.03753 99 59 7 
3.7874 1.6019 7.77774 211 206 203 
1.47415 0.923023 8.44738 159 121 10 
2.29577 1.89594 6.96018 215 210 207 
0.63888 1.85852 7.21302 157 144 136 
1.26817 -0.984383 6.05156 9 63 27 
1.52606 1.94245 6.96366 181 170 166 
5.42304 2.40863 11.2223 140 122 100 
0.0858182 -0.877262 6.87128 5 7 6 
0.653684 1.85987 7.10323 186 173 165 
1.88999 -0.613946 7.23529 120 85 3 
0.826504 1.85957 7.10409 160 151 144 
1.17941 1.13403 8.07178 141 107 7 
2.43008 2.0331 6.83123 216 206 205 
1.06853 -0.626285 6.01756 18 65 33 
1.48018 1.91425 7.13527 208 198 197 
2.18443 -0.999358 7.23215 15 15 13 
3.94091 1.69433 7.70362 214 209 206 
1.94814 1.99513 6.99283 200 188 188 
-0.167022 1.61557 7.35613 123 99 51 
1.3474 -0.622673 5.81065 12 89 45 
0.711177 1.50359 7.94838 111 99 77 
0.166463 -0.503257 6.89897 97 66 2 
2.38615 -1.43174 7.20707 34 34 26 
2.09849 -1.47707 7.1798 164 188 64 
2.05183 -1.47519 7.18065 79 86 35 
2.16132 -1.40315 7.20002 153 118 116 
2.283 -1.43229 7.20065 124 148 52 
2.35256 -1.36565 7.2323 102 26 28 
2.34691 -1.38541 7.222 109 38 36 
2.0425 -1.194 7.34872 228 184 15 
2.39439 -1.42227 7.21049 37 35 23 
0.291705 0.243787 6.94063 224 188 48 
2.35312 -1.41852 7.20445 137 139 118 
2.36146 -1.40755 7.20934 122 125 96 
0.0339406 -0.847703 6.78358 9 33 19 
2.03142 -1.47979 7.161 119 140 47 
2.39003 -1.37554 7.21058 27 24 17 
2.31851 -1.39183 7.2042 54 26 22 
1.90187 -0.908649 7.14999 21 20 18 
2.26214 -1.4521 7.18012 91 116 22 
1.73842 0.757239 9.65306 122 112 102 
2.35002 -1.35009 7.22794 58 19 24 
1.19547 -0.984333 5.99839 9 32 16 
0.613655 0.299371 6.83602 84 67 39 
-1.26803 2.28709 6.0969 174 165 168 
-3.69487 -1.70245 6.19414 213 203 193 
-1.04519 1.70351 7.45105 172 161 155 
0.492744 1.79738 7.28715 101 88 69 
2.35567 -1.36408 7.22019 113 31 35 
1.51302 -0.448395 5.75356 111 91 58 
1.48711 -0.588397 5.86103 218 188 134 
1.57179 -1.32618 6.50599 157 131 98 
-0.797643 1.66592 7.50432 183 173 163 
1.10551 -0.498613 5.79311 22 86 36 
1.00531 1.1153 8.05697 129 98 7 
2.15224 -0.672848 7.58596 162 146 130 
2.11324 -0.859664 7.19353 21 22 16 
-0.945009 1.63406 7.53045 194 184 175 
1.9317 -0.853268 7.16021 192 151 11 
-1.20202 1.65229 7.54433 191 182 175 
1.42601 1.20832 8.20592 151 119 10 
2.45202 -1.34272 7.23746 166 159 149 
1.15205 -0.996734 5.95712 121 11 22 
0.210888 1.75958 7.13212 134 116 6 
1.18762 -1.08654 6.13132 144 7 23 
1.33309 1.34827 8.02774 123 107 92 
0.49783 0.326318 6.84672 112 92 57 
0.501792 0.278384 6.83976 114 92 53 
1.45596 -0.445239 5.72028 111 89 50 
1.09463 0.512935 7.91661 142 109 6 
0.3639 1.30761 6.87176 83 97 82 
1.97379 -1.07714 7.15947 174 145 7 
0.294145 1.43548 7.0652 53 76 58 
1.47457 -0.443041 5.68256 111 89 52 
-0.972995 2.28549 6.1113 217 207 205 
0.704598 1.86968 7.12063 187 177 167 
-0.681158 1.64406 7.56756 196 184 172 
0.115972 0.616995 5.42033 97 33 0 
0.29029 0.690609 5.49188 92 35 5 
2.24362 -1.48345 7.20588 228 243 186 
1.79075 -0.376061 7.31554 68 22 7 
1.91751 -1.53706 7.16396 105 62 56 
2.09039 -1.51869 7.18717 212 230 130 
1.96236 -1.51352 7.16705 206 120 107 
2.15447 -1.49732 7.18938 72 82 21 
2.04521 -1.51606 7.17778 188 207 117 
1.98253 -1.26201 7.32882 231 190 40 
2.36769 -1.44964 7.22019 48 51 32 
2.1153 -1.26034 7.36243 228 187 47 
1.13811 -1.61753 6.0494 143 15 28 
2.00077 -1.39368 7.16797 68 67 10 
0.38241 2.14471 6.52985 130 120 111 
0.154363 0.7038 5.46633 236 192 7 
2.01401 -1.70052 7.35401 95 36 0 
2.25377 -1.50731 7.22686 160 182 99 
1.95681 -1.53885 7.17053 71 10 7 
0.314598 2.15468 6.48618 219 209 208 
1.11043 0.776469 7.93156 14 0 0 
2.03058 -0.845007 7.20017 205 159 11 
1.48704 -0.109781 7.61752 45 39 27 
2.03375 -0.843129 7.19027 204 156 10 
2.19906 -0.985888 7.24242 115 116 111 
2.02324 -1.43818 7.18813 129 139 68 
1.10861 0.761267 7.92821 19 2 0 
0.778256 1.54939 7.83651 195 182 174 
2.33723 -1.33488 7.23403 121 96 89 
-1.63602 2.44963 5.74921 227 217 218 
-0.124827 1.74033 7.2569 65 53 41 
1.29141 -0.969236 6.05458 44 123 76 
2.00602 -1.46239 7.1744 115 116 85 
2.04324 -1.43745 7.18688 55 55 21 
0.0578797 0.202662 6.08676 30 27 22 
2.03124 -0.90853 7.16895 5 6 10 
2.16871 0.686523 9.82147 211 202 195 
1.93421 -0.921039 7.12176 15 13 16 
2.39746 -1.32687 7.24073 137 131 119 
2.21029 -1.4015 7.20097 129 138 73 
1.94304 -0.635419 7.19293 123 86 5 
2.15344 0.691921 9.8941 209 200 195 
1.42033 1.21345 8.18529 136 100 6 
0.428746 1.82332 7.15773 92 80 56 
2.37096 -1.47301 7.22284 210 205 186 
-0.132707 -0.674635 6.6209 207 195 171 
1.34805 -0.858774 6.04063 146 42 49 
1.8099 -1.86855 7.30246 225 209 193 
1.80684 -1.87064 7.31249 221 204 186 
-0.148687 -0.702173 6.6413 226 214 200 
-0.365411 1.79835 7.28059 206 193 185 
0.961304 -0.624639 6.01007 3 18 11 
0.586521 0.302902 6.88656 88 71 41 
2.07586 -1.5119 7.18228 226 230 193 
-0.0269132 2.12875 6.54478 205 194 188 
0.999758 -0.723694 5.96697 95 92 73 
1.75746 0.76339 9.71989 126 117 108 
1.7277 -0.352045 7.30572 169 134 8 
2.23328 -0.931544 7.26028 56 55 53 
1.63228 -0.161321 7.56695 85 83 71 
2.16974 1.6739 7.69366 148 139 130 
2.08457 -1.37792 7.22684 42 24 2 
1.08571 0.620593 7.88222 95 58 3 
1.15591 -1.61043 6.05782 186 157 149 
2.16598 1.67687 7.70761 148 139 130 
2.15228 -1.0639 7.23294 163 141 22 
1.8987 -1.08513 7.15971 181 147 21 
1.52495 -0.425659 5.68548 151 131 98 
1.73756 0.758383 9.65675 122 114 103 
-0.810648 1.65261 7.59703 174 161 153 
1.15743 0.477062 7.99113 160 124 28 
1.77489 -1.8449 7.31637 221 208 191 
0.977864 -0.632188 6.00777 10 10 10 
1.94524 -0.412658 7.72658 162 151 133 
2.19273 -1.36789 7.21228 85 47 28 
1.226 -0.96259 6.01743 32 128 67 
1.16864 0.592467 7.91432 89 49 0 
0.336283 1.00501 6.88445 127 109 7 
2.17353 -1.5126 7.19641 191 231 82 
1.96528 -0.625587 7.2141 128 92 4 
-0.395574 1.26773 7.38268 154 111 7 
-0.719149 1.67404 7.50028 192 182 173 
1.92174 -0.856263 7.19101 201 160 10 
-1.08594 1.71583 7.51116 171 161 152 
1.1922 0.665418 7.91406 113 74 5 
1.88877 -1.08591 7.09632 194 153 11 
2.05226 -1.37584 7.25087 72 39 4 
0.0221266 0.116067 6.48134 117 84 3 
0.223283 1.23253 7.34311 70 101 95 
-2.08371 1.57124 7.69796 145 136 127 
1.29097 -0.107745 6.03533 66 40 25 
-3.71699 -1.70796 6.21085 219 209 200 
0.137646 0.433793 5.72461 218 164 6 
-0.857271 1.64516 7.529 181 168 160 
1.857 1.98572 6.94574 169 160 155 
-0.590785 -1.02969 12.0978 181 161 110 
1.17671 1.88051 7.16423 152 141 139 
-0.0177018 -0.207561 6.46223 186 154 33 
-0.0596586 0.343245 5.61929 199 146 6 
0.969169 -0.852241 5.71527 171 24 40 
-0.817375 1.67237 7.53334 186 173 165 
0.650712 1.83845 7.26352 170 157 151 
1.31975 -0.984116 6.06846 123 12 28 
-0.95521 1.63696 7.5476 201 191 182 
2.04333 -1.30095 7.35926 127 90 2 
1.71357 -1.80183 7.3387 211 171 14 
1.71854 1.98668 6.92285 181 169 173 
-1.21437 1.6546 7.55495 192 181 175 
1.3332 -0.62191 5.9749 154 162 115 
-0.232368 1.59223 7.30366 137 116 85 
-0.158139 1.70092 7.23275 102 86 63 
1.36492 1.91766 7.07329 200 189 183 
1.33625 -0.655229 6.08651 0 64 24 
2.00493 -1.56055 7.17803 247 238 229 
0.0522784 -0.88513 6.82626 0 43 23 
1.59038 -0.0971937 7.54741 83 80 75 
3.88207 1.63349 7.83521 156 147 148 
1.45237 0.919129 8.42646 131 94 6 
-0.051547 -0.470149 6.73211 102 67 13 
2.40945 -1.35231 7.21932 174 166 155 
1.58578 -1.31167 6.51528 149 122 92 
1.37133 1.88722 7.07848 149 138 136 
1.25532 1.21421 8.06527 155 119 7 
1.40088 -0.711356 6.2249 37 82 51 
1.42573 0.403616 8.33122 157 125 4 
-0.0449543 -0.879969 6.8197 34 110 74 
1.11405 -0.479499 5.80333 198 176 126 
-0.780464 1.70503 7.47561 137 124 116 
0.200837 1.76452 7.15242 128 109 6 
1.32696 1.36407 8.11585 118 103 80 
0.699106 1.87214 7.13153 195 184 178 
1.29259 1.90578 7.07364 189 178 174 
1.48634 -0.858396 6.3285 15 60 27 
1.33088 1.36028 8.09572 118 103 80 
2.57586 1.0368 9.06642 151 142 133 
1.45191 1.89579 7.08965 206 196 194 
-0.1844 1.63409 7.19536 117 96 65 
1.9762 -1.39724 7.25622 86 69 0 
1.88036 -0.600472 7.28534 120 85 3 
0.288539 1.121 6.82836 160 147 9 
1.09961 1.85072 7.17002 207 196 192 
-0.841376 2.3663 5.97926 208 198 199 
1.03254 0.976629 8.01203 97 61 1 
-0.845809 1.61254 7.58358 203 190 182 
3.89526 1.6973 7.68372 189 184 181 
2.03132 0.858602 9.53603 170 161 152 
3.95323 1.67931 7.72736 210 206 203 
-1.21693 1.61879 7.58448 205 194 188 
2.43992 2.03073 6.87012 204 194 193 
-0.22203 -0.0660293 6.40688 88 67 24 
-0.928318 1.67366 7.52587 192 182 173 
0.470568 -1.02503 5.8537 128 107 64 
1.91198 2.0093 6.94681 209 199 200 
2.75962 1.08986 9.03136 208 203 199 
0.550302 0.34236 6.84642 108 92 56 
1.44555 1.94072 7.04035 202 190 190 
-1.06145 2.44298 5.77458 204 194 193 
1.28704 1.08175 8.23865 133 91 15 
-1.08834 2.43098 5.80357 220 210 209 
1.26697 -0.985553 6.05876 9 63 27 
1.52332 1.94874 6.98746 181 170 166 
1.18229 1.13224 8.05133 141 107 7 
3.94581 1.70186 7.72741 214 209 206 
1.34693 -0.920364 6.04808 135 13 26 
-0.761142 2.32877 6.07237 217 207 206 
-0.332501 0.807549 7.64439 121 85 7 
-0.111601 0.765348 7.28038 115 82 3 
0.179143 0.652215 5.44759 97 31 0 
2.34556 -1.45103 7.1935 229 234 194 
-0.159124 0.503071 5.30889 134 74 11 
0.750297 -0.591381 5.94334 39 25 0 
-0.268129 -0.170821 6.4647 36 36 38 
2.00105 -1.52564 7.16551 190 208 109 
2.06474 -1.45288 7.17105 196 184 168 
1.35563 -0.423581 5.66797 45 33 9 
2.04978 -1.18934 7.32473 247 207 75 
1.80375 -1.44646 6.93406 219 203 178 
2.36389 -1.40749 7.19482 151 158 127 
2.38803 -1.43178 7.19999 82 80 67 
1.03215 -0.394594 5.78327 99 75 29 
2.14009 -1.17452 7.30337 101 54 8 
2.30142 -1.37347 7.20692 170 156 143 
1.88493 -1.53538 7.15972 129 121 110 
1.62855 -0.465881 5.78982 202 181 136 
1.40101 -0.433757 5.63199 25 16 1 
2.3645 -1.31939 7.25324 19 19 11 
1.39107 -0.402056 5.66646 184 160 112 
1.98831 -1.54502 7.17685 76 49 28 
1.02304 -0.701908 5.9861 112 95 87 
2.40065 -1.41761 7.18364 42 39 30 
0.808831 -0.617935 6.01258 30 32 18 
0.421075 -0.995856 5.87658 30 12 0 
2.35898 -1.41381 7.1824 160 161 145 
1.95511 -0.767668 7.14211 204 163 9 
1.63992 -0.493036 5.8079 99 82 52 
1.80242 -0.373899 7.28122 60 25 5 
2.32123 -1.50201 7.24142 243 234 217 
1.64988 -1.29089 6.59701 39 22 2 
1.97223 -1.54524 7.17462 228 128 126 
1.99433 -1.49312 7.15944 155 166 88 
0.025976 0.275196 5.91892 240 205 15 
-0.106372 0.11168 6.08706 38 35 18 
1.93975 -1.54407 7.15519 217 124 116 
0.368897 -1.2121 5.78721 111 92 60 
2.15714 -1.49543 7.18016 69 82 13 
2.10907 -1.26403 7.38405 231 196 76 
2.29664 -1.45122 7.17582 179 211 88 
1.98145 -0.959701 7.09681 19 19 19 
2.03948 -1.48973 7.17007 157 179 79 
-0.0259867 0.704788 5.35602 247 237 212 
1.90825 -1.50795 7.16367 77 28 13 
1.89404 -1.55346 7.15563 237 228 219 
1.41319 -0.844794 6.27241 117 119 105 
2.0479 -1.51399 7.16905 206 221 138 
2.18702 -1.46658 7.17843 88 62 37 
1.61576 -0.681989 7.34083 221 177 6 
1.9768 -1.4498 7.17976 130 135 69 
1.92145 -1.53445 7.15187 131 84 74 
1.23182 -0.113548 6.02843 149 130 115 
0.157093 -0.314951 6.69476 105 68 13 
-0.124168 -0.209502 6.47799 34 34 34 
2.37074 -1.44806 7.20798 62 62 38 
2.09594 -1.44248 7.18389 195 183 161 
1.9648 -1.50845 7.16235 201 122 109 
-0.0645589 -0.20806 6.39105 16 16 16 
1.40649 -0.78111 6.23183 19 8 6 
2.10317 -1.47305 7.16429 164 187 71 
1.88566 -1.2348 7.35353 99 63 3 
2.22154 -1.47587 7.18152 187 207 110 
2.16293 -1.40088 7.19714 161 128 119 
1.92413 -1.56253 7.18331 214 136 132 
2.31586 -1.42053 7.19227 31 36 13 
1.95205 -1.52536 7.14871 74 36 33 
1.92971 -1.54985 7.16193 223 129 121 
0.959629 -0.713066 5.99945 100 98 77 
2.01141 -1.45146 7.1749 37 41 4 
-0.0577522 0.147378 6.04993 29 25 22 
0.22223 0.875179 7.38967 26 0 0 
0.0121665 0.262801 6.53794 198 164 28 
0.155439 0.673813 5.45086 250 206 11 
1.77042 -1.86925 7.30525 225 210 187 
1.76603 -0.346534 7.34051 182 151 60 
0.552152 -0.729106 6.36029 149 140 97 
2.21049 -1.43967 7.17289 156 189 59 
2.08618 -1.42644 7.187 54 26 14 
1.78149 -1.42268 6.9859 219 185 34 
1.3767 -0.718871 6.23014 0 14 0 
1.62017 -0.621669 6.20493 45 93 43 
1.00105 -1.6847 6.08054 182 35 53 
1.88426 -1.23102 7.28126 71 38 0 
2.09082 -0.839023 7.14304 215 175 25 
1.12142 -1.62485 6.08188 141 6 23 
0.165656 0.62882 5.48376 251 209 9 
2.39317 -1.3744 7.20124 24 21 16 
1.67737 -1.52811 6.54981 122 104 68 
1.41229 -0.458917 5.66864 244 220 182 
0.426861 1.04476 6.90514 183 165 7 
0.354577 -1.20045 5.78855 199 185 150 
0.54822 0.309159 6.85595 180 152 104 
0.484265 1.62421 7.70515 198 182 169 
0.0425404 -0.849043 6.76867 1 29 14 
0.209549 0.7683 5.39664 226 211 182 
1.92059 -1.5173 7.16206 186 104 93 
1.98589 -0.853015 7.17265 202 167 15 
1.01996 -0.688674 6.02552 8 12 11 
1.40895 -0.449272 5.64827 236 213 169 
0.210851 2.14373 6.50615 133 123 114 
0.37484 2.14811 6.54229 131 122 113 
1.56172 -0.818446 6.46641 81 60 17 
1.32146 -0.874189 6.06296 16 16 6 
2.01736 -1.6985 7.34269 101 46 7 
1.96103 -1.46798 7.17085 59 40 26 
0.119515 -0.798401 6.65867 236 226 214 
0.0642351 0.246815 6.22288 14 10 9 
1.3359 -0.445113 5.64315 228 202 145 
2.33379 -1.48392 7.21879 219 221 197 
1.77448 -1.83041 7.26322 227 211 195 
2.21311 -1.75685 7.28188 137 102 21 
0.497519 1.62199 7.70375 195 178 168 
2.32112 -1.39042 7.19634 49 27 16 
2.34346 -1.40289 7.19583 18 30 10 
0.804681 -0.569333 5.99593 193 170 129 
2.19237 -1.3963 7.1887 44 23 4 
2.14527 -1.48969 7.18179 100 111 43 
1.44301 -0.133846 7.60053 32 25 15 
0.381914 -1.2405 5.78354 95 80 49 
2.17994 -0.870755 7.25045 7 6 11 
1.81947 -1.7164 7.34088 86 37 0 
1.73014 -1.09204 7.21361 14 15 1 
1.32936 -0.583147 5.79718 199 177 128 
1.1577 -0.928796 5.98681 23 125 62 
1.92111 -0.398383 7.62531 104 50 6 
1.79674 -0.419418 7.31261 189 150 13 
1.42384 -0.476086 5.66925 222 200 151 
1.15262 -0.108834 5.96374 149 133 117 
2.25637 -1.50511 7.21758 164 188 94 
-0.340506 0.41528 7.48727 233 196 82 
-0.395599 1.52262 7.37055 157 114 10 
1.62181 1.2953 8.30239 64 55 48 
0.144527 0.769974 5.44527 130 88 4 
1.90681 -0.400098 7.65962 99 41 3 
1.36114 -0.776376 6.19014 92 102 78 
1.87339 -0.898082 7.14988 8 8 10 
0.00548891 2.11988 6.61398 138 128 119 
2.04808 -1.46898 7.1086 131 151 54 
1.35213 -0.823867 6.05852 4 22 8 
1.45449 0.463214 8.37875 99 56 1 
1.18015 -0.637781 5.9513 3 36 17 
-0.404033 1.52504 7.38363 157 114 10 
2.39859 -1.32712 7.23716 149 141 130 
2.1236 -1.43133 7.18956 94 41 27 
0.41908 0.242603 6.8682 185 152 99 
1.85814 -1.37879 6.93516 131 101 15 
1.4013 -0.405459 5.68331 182 159 109 
1.36666 -0.691525 6.09604 27 60 41 
1.38669 -0.73825 6.24176 99 105 91 
1.83693 -0.697461 7.20022 201 164 14 
2.21097 -1.41475 7.18745 44 51 0 
1.64605 1.3016 8.27385 80 69 65 
2.03414 -0.907261 7.15966 4 5 7 
2.22891 -1.49559 7.20226 144 168 90 
0.0265018 0.127299 6.12721 90 87 82 
0.967914 0.123616 6.25739 28 23 17 
2.21206 -1.40087 7.19753 136 137 80 
1.96011 -0.833172 7.16684 203 162 10 
1.89084 -0.40309 7.71139 98 40 2 
0.787088 1.5463 7.81698 195 180 173 
0.77739 1.55031 7.83853 194 179 172 
1.6441 1.30682 8.29619 82 71 67 
2.08424 -1.47354 7.17135 152 164 90 
0.193219 2.05348 6.49575 134 124 115 
1.97157 -1.85689 7.30493 218 203 180 
0.783853 1.54519 7.89691 193 178 173 
-0.0437103 1.67906 7.25192 140 125 104 
1.66457 -0.160911 7.70985 148 141 125 
1.19187 -0.534813 5.8122 50 126 64 
2.04069 -0.925923 7.13823 5 6 8 
0.846967 1.56371 7.90888 119 103 88 
0.330797 0.30148 6.93717 220 188 28 
-0.0649843 0.613936 5.29411 159 121 12 
1.28705 -0.560107 5.80069 206 180 123 
0.433745 1.59683 7.79445 99 81 57 
-1.63066 2.44711 5.74386 227 217 216 
0.0193259 0.143118 6.07956 74 70 71 
1.67981 -0.188227 7.699 39 36 29 
0.454946 1.58608 7.75119 101 83 63 
-0.0776897 -0.215925 6.42595 8 8 8 
1.28646 -0.970817 6.06457 35 122 67 
1.86653 -0.985333 7.1248 102 103 98 
1.66995 -0.158217 7.70046 146 137 122 
2.20367 -1.51135 7.19872 214 240 115 
2.27073 -1.67695 7.35968 106 60 0 
-0.323035 0.393185 7.51655 124 87 7 
2.05253 -1.54247 7.18771 156 155 124 
2.24991 1.59181 7.89488 141 131 122 
0.432654 1.51936 7.99529 167 152 145 
2.01525 -1.19648 7.31482 247 208 81 
2.19756 -1.17078 7.27184 213 171 7 
1.5281 1.16553 8.35581 128 91 2 
0.0492793 0.613922 5.38924 240 208 25 
1.00669 -0.413101 5.80711 187 172 117 
2.2904 -1.51704 7.23466 198 211 103 
0.98741 -0.648648 6.01481 96 96 86 
-0.110329 0.538215 5.31634 242 210 27 
2.20282 -1.47436 7.18178 126 98 51 
1.39958 0.610805 10.1113 199 190 185 
1.53717 -0.816891 6.44406 55 42 8 
0.443413 1.60666 7.65422 99 83 50 
0.0219053 0.296592 6.52552 184 145 14 
1.23461 -0.532948 5.81168 202 177 120 
1.87638 -1.00541 7.13021 97 98 93 
-0.0686239 1.9557 6.91354 131 118 109 
2.26038 -1.67135 7.35007 105 58 0 
-0.053763 -0.122695 6.35153 110 110 110 
2.12585 -1.12967 7.20559 136 88 0 
-1.60768 2.46065 5.74123 225 219 221 
1.45217 -0.730422 6.23243 0 16 3 
2.81013 0.946083 9.43588 127 118 109 
0.783217 -0.622085 5.99661 191 179 141 
2.03333 -1.53771 7.16735 197 208 140 
-1.58633 2.45074 5.72072 225 219 221 
1.97065 -1.56355 7.1793 103 54 47 
1.33423 -0.715805 6.21763 0 4 0 
1.00291 -0.696662 5.9834 43 15 11 
1.5797 -0.313125 7.63308 120 83 3 
2.31891 -1.46547 7.19301 172 184 122 
1.95378 -1.80994 7.27088 225 208 182 
1.94849 -1.83435 7.28215 222 206 181 
2.16908 -1.82704 7.29992 224 210 184 
1.81213 -1.58365 7.15414 241 232 227 
2.92505 0.89017 9.53668 207 198 193 
1.50475 -0.82591 6.38839 116 107 66 
-0.17056 0.48136 5.33336 247 209 50 
0.998997 -0.723901 5.96829 100 98 77 
-0.0749651 1.68628 7.26609 140 127 108 
0.0529958 0.186246 6.15495 94 88 72 
2.37679 -1.46823 7.20037 208 207 187 
1.48624 -0.3843 7.37824 103 85 21 
1.6663 -1.10537 7.30157 25 23 10 
1.95266 -0.632302 7.16326 121 87 0 
1.8376 1.77099 7.49474 212 202 203 
0.500444 1.49485 7.99584 91 74 54 
1.51644 -0.18833 6.17652 70 50 26 
1.05545 -0.654995 6.03895 85 93 78 
2.06213 -1.41085 7.3339 101 53 31 
2.17623 -1.33253 7.39432 115 74 20 
1.86539 0.830547 9.63524 188 179 172 
2.02926 -1.4689 7.17181 143 161 79 
0.09391 0.21073 7.11271 78 45 4 
1.88965 -0.55388 7.29252 188 144 9 
0.0666236 0.200584 6.12935 74 72 60 
2.25467 -0.948617 7.23836 136 137 132 
2.27047 -1.43401 7.19072 159 194 66 
0.590008 0.0745537 6.52449 113 113 105 
2.01096 -1.41344 7.2081 81 83 8 
1.75873 0.76188 9.71473 121 113 102 
1.40519 1.25218 8.20181 96 62 0 
1.17122 -0.823927 5.96672 23 128 69 
1.31722 0.416139 8.25828 114 74 2 
2.27714 -1.35401 7.20621 78 36 20 
2.24421 -0.952596 7.27692 131 132 127 
0.984535 1.60518 7.80169 197 184 178 
-0.0925499 0.202135 5.99134 9 1 0 
2.35356 -1.3075 7.26461 29 21 18 
-0.175569 0.475758 5.3478 244 213 45 
1.93058 1.71681 7.50436 138 128 119 
2.07899 -1.51 7.17177 230 238 181 
2.27289 -1.44805 7.18321 64 94 0 
1.39203 -0.183429 7.5174 4 3 0 
1.94924 -1.49401 7.13145 61 0 0 
1.40096 -0.417756 5.65748 74 54 27 
1.18842 -0.818493 5.93427 28 133 76 
1.49111 1.21544 8.2684 159 144 111 
1.76212 -0.593117 7.32724 110 85 5 
-0.192122 1.91551 7.02402 129 116 108 
0.0773173 -0.136112 6.50642 10 8 0 
-0.148324 -0.696384 6.66706 213 202 184 
2.13038 -1.20323 7.31055 191 153 46 
1.30981 -0.717772 6.11378 13 86 41 
-0.190599 0.54324 5.32818 248 206 23 
2.01834 -1.4178 7.19885 109 112 43 
-0.128322 -0.673202 6.61461 207 192 173 
1.42359 -0.416948 5.66868 57 40 14 
1.71203 -0.906432 7.19852 22 18 9 
1.22424 -0.923804 5.99206 22 121 57 
0.958028 -0.625364 6.01591 6 22 9 
1.04209 -0.357362 5.72973 109 86 44 
1.35852 -0.450444 5.67255 228 208 158 
1.61144 -0.257693 7.55824 133 99 2 
0.257082 0.476614 5.79484 219 183 11 
1.62293 -0.256984 7.52539 135 102 0 
1.15403 -0.802353 5.92577 151 30 37 
1.60923 1.15098 8.42462 173 158 129 
-1.71939 2.41684 5.96711 227 216 220 
2.24495 1.48849 8.18936 142 132 123 
-0.0702965 -0.849665 6.8456 0 62 28 
-0.873212 1.68426 7.55039 178 165 156 
1.93657 -1.1817 7.30034 215 175 25 
0.443082 0.222516 6.85461 133 97 19 
1.94068 -1.45973 7.16652 154 62 41 
2.28684 -1.42845 7.18706 86 113 10 
-0.564079 -0.527185 7.09931 211 198 181 
0.0224972 0.00565216 6.43267 44 43 41 
2.09364 -1.46781 7.13987 153 166 84 
2.09844 -1.39864 7.20408 129 53 39 
-0.274213 1.71131 7.2927 155 142 123 
-0.46087 -0.245747 6.572 135 132 125 
1.83717 0.758189 9.75668 186 176 174 
1.77301 -1.89217 7.27861 224 209 190 
2.30158 -1.43499 7.1959 101 119 43 
1.57215 -0.771204 6.42186 123 107 73 
1.44944 0.948726 8.47973 122 84 3 
0.215319 0.615247 5.46102 246 215 10 
1.39048 -0.840875 6.13175 77 11 12 
-0.0365442 0.531826 5.39243 226 161 15 
1.39897 -0.839286 6.11344 77 11 12 
0.329828 1.60062 7.77956 175 161 135 
1.27514 -0.725712 6.18492 16 89 44 
2.07266 -1.20318 7.30373 221 169 8 
1.8405 0.757711 9.74352 188 179 174 
0.129103 0.606264 5.45895 220 158 15 
0.00204996 0.00383883 6.40953 19 20 12 
0.272204 0.499136 5.77541 142 107 7 
1.88833 -0.395822 7.24584 54 13 0 
0.305785 2.12865 6.47303 213 202 196 
0.564118 0.305152 6.92818 89 72 42 
1.73702 -0.349399 7.27959 158 126 5 
-0.167505 -0.72652 6.66201 236 229 213 
2.28168 -1.50721 7.2172 126 147 28 
1.71814 1.21864 8.37497 182 169 150 
0.904607 -0.72513 6.01277 5 59 25 
1.31811 -0.847984 6.03955 26 113 60 
0.185653 0.800243 5.44308 163 147 134 
0.252649 1.18639 6.89189 62 83 68 
2.18804 -1.33142 7.39127 115 72 3 
0.165624 -0.791017 6.70082 223 214 197 
1.32303 -0.846685 6.02953 32 119 66 
1.8592 -0.405976 7.73561 87 33 7 
0.0465378 0.262228 6.39614 129 93 15 
-0.491178 -0.953531 7.27981 154 148 132 
0.834077 0.0309584 6.29696 129 113 79 
1.55133 1.25682 8.20248 132 117 96 
1.75236 -0.335596 7.33917 124 88 0 
0.110164 0.805686 6.91357 33 66 39 
2.33271 1.29889 8.55387 149 139 137 
2.19621 -1.36464 7.20053 89 41 27 
2.21851 -1.86614 7.37394 218 206 184 
1.49576 -0.146013 7.59477 18 13 9 
2.14298 -1.14044 7.27777 190 153 3 
1.42394 0.373936 8.29933 182 150 51 
1.1463 0.484027 7.99001 163 131 32 
0.258351 1.18394 6.88203 60 81 64 
0.174653 -0.0547153 7.05454 81 63 25 
0.260808 0.700512 5.45803 225 185 12 
1.66373 -0.138661 7.65935 108 95 86 
-0.0877462 0.180492 6.00011 1 0 0 
0.308982 0.495934 5.68871 153 119 9 
2.1557 -1.58439 7.39243 225 205 106 
2.2488 -1.42921 7.17055 151 187 51 
0.0643887 -0.0726857 6.38058 43 42 37 
1.43279 -0.425043 5.6682 87 71 46 
2.33508 1.29803 8.54367 156 146 144 
0.322588 1.00846 6.9093 121 102 8 
2.05602 -0.876492 7.1909 5 5 5 
1.08216 -0.756279 5.94069 79 8 14 
0.0172999 -0.0228746 6.39223 103 102 100 
1.59793 -0.463777 5.79778 187 166 119 
1.594 -1.01798 6.04234 178 32 45 
1.34645 -0.85902 6.04395 144 38 48 
0.628759 0.0850941 6.50148 67 68 63 
0.117694 0.804494 6.90128 24 63 36 
1.19095 -0.9853 6.00733 6 33 18 
-0.13782 0.466405 5.33168 250 215 11 
1.60204 -1.04259 6.05798 111 0 13 
1.22011 -0.96446 6.02899 28 123 65 
1.35775 -0.212492 7.50689 66 49 5 
1.49366 -0.428442 5.67045 62 47 18 
0.408818 -1.19257 5.77742 133 110 69 
2.15698 -1.74145 7.30026 225 183 11 
2.13385 -0.666351 7.53591 132 101 11 
0.300612 0.692715 7.43347 76 45 1 
1.5885 -0.224254 7.53191 21 8 0 
1.02744 -0.718503 5.99915 49 20 14 
1.78931 -1.79811 7.32824 223 181 19 
2.16071 -1.73886 7.28689 226 184 10 
0.1828 0.100748 6.80091 79 77 65 
0.516425 -1.053 5.87851 149 125 91 
0.382478 1.15849 6.96142 65 89 65 
1.22161 -0.813383 6.06086 23 110 55 
0.498942 -1.05746 5.90562 146 122 86 
1.07336 0.83016 7.95802 126 96 6 
0.13581 0.457942 5.72045 244 205 4 
1.0917 0.822258 7.95888 121 95 8 
0.0685317 -0.0662637 6.42345 115 113 114 
0.477096 2.1382 6.53291 208 199 194 
2.17455 0.756035 9.79523 137 128 119 
1.61625 -1.03826 6.02534 107 0 12 
1.4361 -0.847481 6.29173 7 61 27 
1.13369 -0.8398 5.98319 20 19 1 
-0.778595 1.64414 7.55266 177 164 155 
1.0615 -0.760948 5.97883 79 8 14 
1.66881 1.18924 8.33052 137 121 98 
1.38049 1.25402 8.17233 183 159 113 
0.128011 0.538549 6.1909 14 9 5 
0.492021 0.260156 6.81652 126 104 67 
2.27655 -1.5399 7.23392 171 139 16 
1.58897 -0.61967 6.10354 25 84 40 
2.10847 -1.4148 7.18296 144 64 55 
1.53062 -0.799595 6.4097 122 115 86 
1.44345 -0.845726 6.27532 7 61 27 
1.32709 0.369182 8.2615 177 142 40 
1.45666 -0.443776 5.78165 105 88 58 
2.16849 0.717172 9.86446 206 197 190 
2.31648 1.4917 8.12157 208 198 196 
1.94759 -0.412765 7.71856 153 140 123 
2.22069 1.6616 7.70799 202 190 190 
-0.0496343 -0.21668 6.43518 91 72 14 
-0.363495 1.25924 7.33262 153 111 9 
0.489535 1.91965 7.06 132 120 108 
0.0578971 0.732237 5.34061 164 149 130 
2.23795 1.18522 8.81331 206 197 192 
2.01139 -1.55718 7.15672 240 233 225 
0.0331066 0.602474 5.39856 237 233 125 
0.866151 -0.509988 5.96015 160 143 100 
1.37734 0.569617 9.98513 195 186 179 
1.90668 -0.861341 7.23736 199 162 12 
0.233401 1.20507 6.86632 56 83 74 
0.506946 1.7886 7.25976 96 81 58 
0.434492 -1.22908 5.80701 164 140 102 
0.0100202 0.931364 5.61195 216 206 196 
0.161419 -0.7836 6.63922 227 221 207 
2.04998 -1.03061 7.09643 6 6 4 
0.939656 -0.598011 5.96422 4 71 30 
1.11337 0.491583 7.98519 106 68 0 
1.86474 -1.77411 7.35058 167 115 6 
1.1309e-05 0.676258 5.32775 166 137 69 
1.56598 -0.425359 5.74024 105 88 58 
2.00583 -0.873208 7.15912 6 6 6 
0.317244 1.56859 7.86513 163 148 129 
1.50818 -0.46802 7.36124 96 72 2 
1.09275 0.688842 7.92312 132 101 8 
0.503281 1.92455 7.03369 140 128 116 
0.592312 1.73619 7.39615 126 110 94 
-0.036583 -0.215765 6.41611 77 59 13 
2.27437 -1.34236 7.21026 82 14 1 
-0.110153 -0.0789048 6.35251 6 6 6 
1.83892 -1.57994 7.15622 242 234 223 
1.56173 -0.263176 7.44208 104 87 33 
0.397546 -1.19025 5.79501 131 109 70 
1.99503 -1.78693 7.28688 220 182 35 
0.507433 1.77921 7.23934 100 86 59 
0.485331 1.25303 7.00533 55 85 87 
0.554545 1.93096 6.98013 214 203 199 
0.213235 0.79988 5.58169 150 118 35 
-0.864177 1.64666 7.53891 185 172 164 
1.86317 1.97321 6.95462 181 165 165 
2.0194 -0.664509 7.23498 105 66 0 
1.97416 -1.80372 7.35385 182 141 27 
0.396103 -1.22505 5.77643 105 86 44 
2.87232 0.984136 9.34329 149 139 137 
1.85087 -1.08916 7.11683 194 156 13 
2.05233 -1.41477 7.18029 100 94 80 
1.05379 1.88781 7.17533 167 158 151 
0.481036 1.92537 7.07605 132 120 108 
0.492254 1.85829 7.17165 177 164 155 
2.18465 -1.7491 7.27417 236 198 29 
-0.11783 0.499747 5.26366 187 131 56 
0.277178 0.917896 7.40441 127 93 4 
0.948364 -0.864357 5.70236 117 7 18 
1.38586 1.89678 7.14658 172 160 160 
1.56446 -0.138055 7.54904 55 51 48 
2.27611 -1.39832 7.19185 84 102 28 
2.25058 -1.43183 7.18115 149 185 49 
0.507681 1.82018 7.42482 208 194 185 
0.0161647 0.580443 5.36744 94 31 0 
1.19123 1.07157 8.07288 134 101 4 
-0.0435741 0.58082 5.35804 204 149 7 
1.42954 -0.613381 5.84013 179 163 111 
1.24653 0.466846 8.1577 169 133 39 
1.78294 -1.76412 7.32688 179 139 8 
0.275346 1.30301 6.83736 54 82 86 
2.05431 0.821759 9.55134 124 115 108 
2.02939 -1.09316 7.22157 196 154 6 
-2.09926 1.5733 7.71649 139 128 124 
1.50116 -0.243125 7.42465 4 2 3 
2.23624 -1.3731 7.20977 78 50 28 
0.125117 0.435067 5.74323 223 165 5 
1.22186 1.08034 8.14135 111 77 5 
1.80415 -1.84029 7.3239 154 119 51 
1.18044 0.0842178 6.10065 115 98 70 
1.86007 1.9833 6.93684 168 156 156 
0.00553695 0.22113 6.61223 128 96 9 
1.30552 1.29285 8.02866 116 83 2 
-0.126981 0.180776 5.94883 26 22 10 
1.84748 -1.57894 7.16149 243 235 224 
1.86486 -0.388106 7.36384 67 20 2 
-0.020891 0.675043 5.34835 163 141 102 
-0.0286281 -0.886587 6.89659 30 103 74 
1.38901 1.88082 7.10766 189 177 177 
-0.184704 0.855766 7.19755 104 67 0 
-2.08221 1.5675 7.69583 139 128 124 
1.975 -0.62458 7.20903 124 88 4 
1.37037 1.46901 8.14742 86 73 64 
1.07622 0.599464 7.87952 138 105 8 
0.434263 1.2853 6.91393 42 70 82 
2.21644 0.755291 9.92688 118 109 100 
1.63193 -0.509261 5.79139 231 206 165 
1.26198 -0.155471 7.63693 85 55 1 
0.421432 -1.20958 5.79805 150 127 86 
-0.0225005 0.263873 5.77354 246 212 16 
2.06297 -0.593163 7.42687 171 140 15 
1.88268 -1.14512 7.15455 131 94 5 
2.01569 -0.523437 7.72464 148 116 13 
0.195492 1.30252 6.84664 71 86 93 
-0.0390319 0.35989 5.6669 226 166 8 
2.06242 -0.868937 7.18642 6 7 2 
1.25457 -0.967681 6.03502 32 125 68 
-0.148664 0.181186 5.97752 27 23 11 
1.18953 1.08438 8.05867 138 106 5 
1.97221 -0.623644 7.19231 123 87 3 
2.7958 1.00184 9.21127 156 147 140 
0.899425 1.87108 7.26517 144 133 127 
1.93783 -1.35282 7.29757 106 73 6 
2.28621 1.37473 8.3992 199 188 182 
1.0037 0.857681 7.96056 119 87 2 
1.26353 0.389031 8.18161 170 136 29 
-0.0255791 0.359084 5.65203 228 170 11 
0.966228 -0.852553 5.72004 167 21 32 
0.0159392 0.221558 6.5558 126 89 18 
1.78782 -0.507397 7.28947 118 80 7 
1.97853 -0.595038 7.20576 191 154 13 
1.43758 -1.04242 6.04579 171 20 39 
0.474761 1.80497 7.32154 102 88 62 
0.132459 0.570099 6.19459 61 53 40 
0.926477 -0.596542 5.93927 23 124 66 
1.98279 -1.58995 7.25437 242 232 222 
0.334825 1.39454 6.94542 65 89 75 
1.96658 -1.35375 7.37001 115 78 7 
2.50738 1.99146 6.85205 185 175 174 
-0.403974 2.37811 5.96442 193 187 187 
1.51555 -0.416214 7.35606 128 104 16 
1.88165 -1.06788 7.11279 11 9 0 
1.58447 -1.31269 6.53355 147 124 90 
1.40562 0.989208 8.40731 121 80 0 
1.17575 0.716129 7.90983 142 106 12 
-3.78602 -1.74658 6.25421 176 166 157 
-0.214516 0.586796 5.29216 155 146 131 
2.10414 -0.863596 7.22388 24 20 17 
1.61334 -1.15462 7.32803 170 163 145 
0.243978 0.754281 5.39257 168 125 10 
0.76843 -0.545447 5.93343 198 171 116 
0.375653 -1.19968 5.80249 138 116 69 
-0.244963 -0.0682924 6.43869 78 61 18 
-0.0282919 0.575278 5.39252 218 155 62 
1.10705 0.650641 7.90719 120 87 10 
1.79524 -1.80955 7.33681 230 192 29 
1.0905 0.710677 7.89635 125 94 4 
0.524044 1.94469 6.95635 198 188 178 
1.22532 -0.32145 5.69147 123 100 66 
2.05462 -1.37404 7.24318 84 57 14 
1.3941 -0.712456 6.23975 34 81 47 
-0.0520435 0.590927 5.39628 197 137 7 
2.84072 1.0182 9.23952 203 193 191 
2.3015 0.908461 9.55828 116 108 97 
1.83716 -1.57303 7.16976 238 228 218 
2.75863 1.04251 9.24404 206 196 194 
-0.356247 0.991893 7.25254 155 117 16 
-1.84477 2.28348 6.10061 229 219 217 
1.47433 -0.455123 5.82783 100 84 50 
1.23422 -1.01665 6.01842 115 19 31 
-1.88675 3.17959 7.82938 202 193 194 
-1.3728 2.55306 5.47363 197 187 188 
-0.797718 1.66456 7.5045 193 180 171 
0.317043 0.286137 6.93423 232 191 21 
1.99218 -1.80047 7.27394 160 139 86 
1.11738 0.883403 7.99549 103 79 7 
1.16604 1.11391 8.08649 113 77 3 
2.07555 -1.31441 7.32239 124 81 3 
2.91354 0.953786 9.3824 190 181 174 
1.64341 -0.165594 7.62786 81 79 67 
1.87913 -0.952775 7.12639 74 74 74 
0.023591 -0.0988865 6.33298 74 70 67 
-0.233772 -0.0758263 6.44418 31 30 25 
-0.0440593 -0.207767 6.50197 192 167 67 
-0.023217 0.0273128 6.43354 110 90 40 
1.55127 -0.442006 5.72748 58 42 9 
1.58901 1.94984 6.9852 205 193 193 
1.87576 -1.09842 7.08931 195 155 5 
-1.18193 1.67015 7.60305 197 186 180 
0.667478 1.88867 7.19406 193 180 174 
-0.0399979 0.549326 5.41632 203 142 17 
-0.295785 1.35963 7.37211 132 97 7 
1.61749 -1.16273 7.29896 174 162 146 
2.23928 -1.7484 7.3059 218 182 26 
-0.869562 1.7122 7.37416 208 195 189 
1.69918 1.26287 8.35586 122 108 97 
1.52058 -0.0645476 6.26485 117 97 70 
-0.199847 0.143532 6.06362 66 64 52 
1.42215 1.72602 7.50241 141 130 124 
-0.181513 1.63723 7.19746 124 103 74 
-3.80289 -1.72723 6.27593 210 200 191 
2.42897 -1.27831 7.28134 172 163 154 
1.90167 -1.52092 7.16103 171 132 117 
1.75164 -1.80007 7.27702 226 187 48 
1.46739 -0.45539 5.84841 100 84 50 
1.79841 -1.79965 7.29193 221 183 38 
0.766124 1.86902 7.19882 189 175 172 
1.06227 0.514139 7.88612 108 71 0 
0.949137 -0.883493 5.71416 162 20 34 
2.02552 -1.04542 7.15795 7 7 5 
0.117358 0.67418 5.44753 202 140 7 
0.0801488 -0.138556 6.54985 81 68 15 
1.30947 -0.965163 6.06675 22 6 6 
0.948383 -0.400232 5.76621 199 177 120 
0.432806 1.16368 6.9654 81 108 93 
1.72709 -1.06781 7.20267 100 101 93 
1.67534 -0.698048 7.36014 86 42 5 
1.44872 0.963599 8.42949 122 81 0 
1.316 1.35357 8.07451 122 106 83 
-0.11523 0.480256 5.31884 246 223 59 
-0.378253 -1.03472 7.22551 106 59 29 
1.83452 1.97319 6.92283 206 194 194 
2.43849 1.14376 9.04863 143 134 127 
1.6153 -0.3924 6.19836 103 84 52 
0.175733 -0.743062 6.71548 166 160 144 
0.139955 -0.0376526 7.03897 9 3 3 
1.70014 -0.644226 7.32139 117 87 1 
-0.190623 1.77053 7.26054 76 63 57 
1.47686 0.890591 8.4697 171 135 25 
1.173 1.6409 7.69141 197 184 176 
1.26166 1.21677 8.09418 151 114 8 
-2.01143 1.55893 7.69386 212 201 199 
2.55588 1.07453 9.10061 146 137 128 
1.32714 1.88349 6.99192 188 177 173 
1.43846 -0.385754 5.75961 105 84 53 
1.29726 1.37877 8.19776 119 104 81 
0.0961652 0.417068 5.66484 214 163 9 
-1.27789 1.63262 7.63931 207 196 190 
-0.899681 1.67575 7.53079 197 184 176 
1.25005 1.05591 8.13557 127 91 5 
1.43576 -0.287255 5.80173 120 103 75 
-0.156946 1.69895 7.2307 109 91 67 
-0.249904 1.59882 7.33177 138 117 86 
1.80538 -0.519801 7.34683 116 82 10 
0.0110504 0.178869 6.04541 102 96 80 
-0.00148439 0.212584 6.54042 176 132 7 
0.935466 -0.539905 5.93658 27 129 64 
1.87264 -1.93884 7.28685 172 164 153 
1.71771 -0.381442 7.26082 135 102 5 
1.36678 -0.189646 7.52234 79 56 12 
1.15853 0.969353 8.03146 110 77 0 
1.02783 -0.641244 6.02323 88 91 80 
1.07913 -0.667274 6.07564 29 36 28 
1.37813 -0.449718 5.91583 111 91 67 
1.57023 -0.444161 5.62801 105 86 56 
-0.321744 0.980393 7.19813 149 115 17 
-0.285565 0.781936 7.26821 107 69 6 
1.89291 0.779707 9.70378 155 146 139 
0.222904 0.947873 7.4206 121 88 9 
1.60548 1.10557 8.44302 158 125 30 
1.94934 -1.75079 7.34255 202 158 7 
1.13181 0.681143 7.8961 104 70 0 
1.26278 -0.986256 6.06736 11 71 35 
1.10854 0.539164 7.95895 126 92 3 
0.454796 1.26809 6.90987 55 85 96 
1.57342 1.41594 8.33815 126 117 108 
1.08215 1.89821 7.08921 169 158 154 
0.361259 -1.23534 5.76785 168 165 150 
0.962104 1.8688 7.15722 180 169 167 
2.26442 -1.36903 7.169 101 110 47 
2.02577 -0.648188 7.19651 142 107 5 
1.50174 -0.396451 7.3774 91 68 1 
1.95319 -0.551648 7.20423 190 147 8 
-0.414015 -0.229979 6.52857 129 128 124 
-0.840026 1.73491 7.34166 207 194 186 
1.13317 -0.693829 6.50674 0 44 15 
1.40861 -0.303746 5.87794 116 99 71 
-0.780558 2.33701 6.09512 223 213 212 
0.884041 -0.668615 6.02278 10 63 33 
0.949364 1.8724 7.19004 168 157 155 
1.57159 1.06978 8.4549 162 121 5 
2.09093 -1.91047 7.31352 171 163 150 
1.26698 1.20848 8.04881 155 118 12 
-1.06541 1.65089 7.40579 146 135 129 
0.247058 1.81271 7.20237 115 96 4 
0.0163268 1.88354 6.91897 119 105 92 
1.92783 -0.65827 7.21964 113 79 7 
-0.10707 0.76298 7.27271 117 81 7 
0.457511 0.280915 6.91908 115 92 58 
1.88695 -1.83826 7.36248 180 162 140 
-0.0965139 0.760934 7.31407 99 64 0 
1.18513 -0.964002 6.01104 11 71 33 
1.25184 -1.00076 6.06171 10 38 16 
1.58879 1.40991 8.29138 126 117 108 
1.17856 0.0269854 6.04252 111 90 63 
-0.849675 1.61239 7.58928 205 192 184 
1.06468 -0.670154 6.1029 36 44 33 
1.75302 0.582195 10.1026 143 133 123 
0.427839 -1.21784 5.78193 194 169 128 
1.16408 -1.05588 5.93826 148 10 25 
1.41982 0.457387 8.22855 176 134 16 
-0.204178 -0.820628 6.97323 240 234 218 
1.56424 -0.417288 5.75107 105 88 58 
0.140409 -0.663269 6.72417 105 84 55 
1.31534 -1.01488 7.81297 123 107 92 
1.6025 1.42706 8.30077 128 118 109 
1.05356 -0.630919 6.05651 26 62 36 
1.42618 1.20793 8.20654 143 109 11 
-0.826555 1.76323 7.32649 207 197 188 
2.12324 -1.38093 7.21284 126 51 28 
0.458446 -1.02707 5.87247 129 107 68 
1.09878 0.518538 7.88599 131 96 6 
0.860794 1.84679 7.25612 203 192 186 
1.14425 -0.971721 5.99436 11 48 17 
0.995779 0.521749 7.90411 111 74 4 
-1.48759 2.49652 5.61605 204 192 192 
1.23124 -1.16912 5.98955 142 10 24 
1.31009 1.39474 8.10025 116 100 75 
2.09245 -1.54006 7.20134 238 239 205 
1.62001 -0.419388 5.31935 102 79 47 
1.52624 -0.162984 5.71845 78 54 42 
2.13964 -0.883501 7.22248 19 18 16 
-0.00425418 0.727727 5.34116 210 197 178 
-1.22763 1.70289 7.62818 147 137 128 
0.0649948 0.148546 6.08336 62 61 57 
-1.22854 1.62025 7.60011 209 198 192 
1.38155 -1.03654 6.11984 166 21 34 
0.890093 1.82825 7.16151 206 193 187 
0.0756483 -0.0380926 6.40343 65 64 62 
1.51328 1.95402 7.01389 176 165 163 
5.10721 2.96341 15.6938 172 163 148 
-0.409413 -0.732341 6.8469 233 221 205 
1.29638 1.40379 8.13861 111 92 62 
1.74631 -1.14569 7.23267 193 156 6 
1.89654 -1.08298 7.07297 190 155 9 
-0.543924 2.36721 6.01665 215 205 204 
2.13601 -0.907029 7.23556 17 17 19 
2.02475 -1.64078 7.35505 174 128 8 
1.17694 -0.83476 6.02101 27 133 71 
2.14707 -1.36779 7.24946 128 48 23 
0.0822189 1.85277 6.8128 118 105 89 
1.15639 0.661483 7.90909 134 97 16 
1.4932 -0.128775 7.61572 52 48 37 
1.85954 -1.6893 7.32096 145 98 10 
-1.21358 1.6231 7.58032 205 194 188 
1.14357 1.03771 8.05404 135 102 9 
1.192 1.12773 8.02573 143 105 8 
2.92515 1.53317 7.92656 164 159 156 
2.6729 1.50008 8.11067 195 190 187 
0.739194 0.261852 6.93706 89 72 44 
0.237002 0.78871 6.91321 21 81 45 
0.723252 0.250284 6.98007 101 84 56 
2.1731 -1.43787 7.18612 144 163 71 
2.01363 -0.842599 7.06832 189 150 11 
1.10654 -0.894827 5.64914 8 27 8 
2.09204 -1.91844 7.32352 168 158 146 
2.07921 0.716344 9.85345 210 201 194 
1.9494 -0.698019 7.18494 204 163 9 
1.57032 -0.147623 7.54884 64 63 58 
3.65869 1.44977 8.27535 170 164 164 
-1.06922 1.70958 7.49615 170 160 151 
2.07924 0.831694 9.58908 133 124 115 
1.18508 0.685878 7.91482 146 113 8 
0.0173741 0.116146 6.49529 117 84 3 
-2.1026 1.57753 7.73139 145 136 127 
1.22222 -1.01857 6.0084 122 15 25 
1.04307 -0.69735 5.99017 15 10 4 
-0.831635 1.67872 7.56707 186 173 165 
1.48729 -0.442688 5.75443 105 84 57 
1.80497 -0.325065 7.36802 167 134 29 
3.46802 1.62243 7.87576 172 167 164 
1.74144 -0.322037 7.32864 146 110 16 
-1.8317 1.26398 8.42357 188 178 177 
1.24163 1.23066 8.073 158 122 10 
2.04681 -1.19053 7.34318 247 207 75 
2.36651 -1.40555 7.18882 97 99 77 
0.553874 -0.845328 7.18796 112 95 87 
1.79023 -0.376406 7.33807 60 25 5 
1.99524 -1.50115 7.16821 181 191 118 
0.0714012 0.295938 5.94354 117 82 1 
0.107665 -0.0986328 6.47397 14 13 9 
0.0471408 0.206393 6.23007 16 10 0 
2.06799 -1.41412 7.19642 32 23 16 
2.14647 -1.07235 7.22624 184 148 10 
0.0446632 0.216669 6.23504 12 8 7 
1.39048 -0.73708 6.23169 99 105 91 
1.97166 -1.49424 7.16476 51 22 8 
2.21938 -1.27909 7.34187 115 69 7 
2.19422 -1.40842 7.19459 88 74 61 
2.16685 0.691425 9.88978 204 196 193 
2.23622 -1.68384 7.42924 159 122 8 
-1.65263 2.45788 5.76957 227 217 216 
2.81191 0.941235 9.40232 127 118 109 
1.85963 -0.577055 7.29782 183 145 20 
0.11902 2.13496 6.55434 139 129 120 
1.82995 -1.55577 7.15204 237 228 219 
2.2511 -1.40975 7.19203 94 108 29 
2.25066 -1.42542 7.16115 151 187 51 
1.76152 -0.229869 7.84181 148 139 124 
1.5931 -0.223735 7.51584 21 8 0 
0.297815 0.317638 8.06702 59 41 17 
2.11927 -1.21819 7.31696 235 200 72 
0.42188 -1.20294 5.76345 158 134 86 
2.07329 0.838496 9.6038 127 118 109 
2.22114 1.6605 7.70513 202 190 190 
1.05392 0.198861 7.13317 55 35 10 
0.539348 -0.776277 7.21949 92 92 80 
0.471801 1.79826 7.31006 100 85 56 
0.525998 1.94959 7.051 214 203 199 
-0.9643 1.64016 7.56053 210 197 189 
0.543605 1.79791 7.3313 208 194 185 
0.512068 1.82055 7.28101 206 192 181 
1.18557 1.07441 8.09112 134 101 4 
-2.1192 1.57911 7.7448 139 128 124 
1.62096 1.10037 8.51845 151 117 10 
1.86099 -1.0979 7.1451 194 157 6 
1.22398 1.07998 8.13393 111 77 5 
-0.0509003 -0.183875 6.42467 113 113 111 
0.504297 1.81797 7.29363 207 193 180 
0.12128 0.571621 6.21604 61 53 40 
1.40835 0.988497 8.39783 121 80 0 
1.25103 1.2574 8.07673 151 112 7 
0.284787 0.654148 5.49959 220 177 13 
-0.206782 0.5832 5.27912 155 146 131 
2.32767 -1.37179 7.20092 89 39 40 
2.762 1.03622 9.19273 206 196 194 
1.4076 -0.732411 6.28139 0 13 2 
-1.86974 2.29648 6.13085 229 219 217 
1.12415 1.90926 7.1422 192 181 177 
0.0179638 -0.0992894 6.34354 74 70 67 
2.55125 1.07326 9.01645 144 135 126 
0.148366 0.0696319 6.78052 67 63 60 
2.0164 -1.0741 7.17002 184 148 8 
0.355996 1.77394 7.26823 124 105 3 
-2.07523 -1.28936 11.4683 166 160 144 
2.56493 1.0621 8.99948 146 137 128 
1.93927 -0.659334 7.17029 105 70 6 
2.03829 1.16947 8.77784 142 132 122 
2.13546 -1.10568 7.22575 194 157 16 
2.74319 1.11555 9.16304 206 197 190 
1.47562 -0.139173 6.19188 75 55 28 
1.72233 -0.439814 7.34139 131 98 5 
1.34183 -0.670314 6.09637 10 83 40 
0.327599 1.86345 7.15189 122 107 84 
1.35646 -1.00958 5.81751 111 3 16 
0.285774 0.368894 8.0609 114 97 67 
1.50948 -0.359443 7.38316 86 65 10 
1.27551 -0.999462 6.07414 13 55 31 
1.88509 1.99232 6.97044 199 185 185 
1.35595 1.23433 8.1632 143 109 12 
0.742683 0.24878 6.92866 101 84 56 
0.152309 -0.118437 6.56695 209 177 42 
1.54884 -0.786081 6.42125 31 19 7 
1.41091 -0.799359 6.2195 124 114 105 
1.77661 -0.376561 7.35822 52 24 12 
1.9616 -0.967856 7.15854 19 19 19 
1.47432 1.34196 8.08802 184 172 150 
2.12546 -1.26122 7.33913 239 197 95 
1.62716 -0.491271 5.77935 62 43 11 
1.46471 -0.112839 7.6022 149 142 123 
1.81486 -1.71921 7.35495 81 29 0 
1.25377 -0.669619 7.56335 13 6 0 
2.39135 -1.37415 7.20529 19 20 14 
0.543146 0.31009 6.8606 192 165 120 
1.96099 -1.78407 7.28603 130 93 13 
1.78788 -0.421209 7.33849 181 142 3 
1.90543 -1.03952 7.14474 14 14 14 
0.87816 -0.579739 5.85433 190 173 129 
1.96748 -1.4277 7.20709 106 106 34 
1.97129 -0.840249 7.17022 203 162 10 
1.74548 -0.614731 7.33427 48 17 0 
1.9118 -0.50692 7.26726 188 147 7 
0.357314 2.15942 6.57173 140 129 123 
0.775169 -0.580689 5.95091 200 176 130 
2.20709 -1.453 7.18618 158 189 69 
0.765896 1.55385 7.8633 202 187 180 
-1.40606 1.6339 7.67561 151 140 138 
0.00888866 0.126589 6.15178 87 84 77 
0.0105519 0.143806 6.09208 75 71 72 
2.2144 -1.27824 7.35108 106 55 0 
-0.0250962 0.158972 6.06879 109 102 92 
1.80806 -1.58579 7.16627 235 233 220 
2.08678 0.716191 9.83685 204 195 188 
1.87657 -1.01312 7.13997 93 94 89 
1.56869 1.24 8.19874 156 142 116 
2.01218 -0.871193 7.17809 6 7 2 
2.17836 -1.39971 7.2011 77 43 33 
2.19539 -1.84538 7.36012 210 196 169 
0.333393 1.58561 7.86169 180 163 153 
-1.66592 2.46498 5.77793 230 220 221 
1.44983 0.421978 8.36214 105 71 0 
1.62196 -0.302887 7.41131 116 84 1 
1.48772 -0.384099 7.37595 100 81 23 
-0.211602 1.92586 7.05477 126 113 104 
0.412275 1.62183 7.71632 110 89 62 
1.11223 -0.958048 5.94394 22 14 12 
1.59598 -0.157837 7.56169 12 11 7 
1.45249 -0.377631 7.34575 6 6 8 
2.31349 1.54363 7.94859 212 201 199 
1.9558 -0.696412 7.17569 196 155 5 
1.20618 -0.930709 6.02882 24 120 59 
1.60797 -0.495032 5.77012 206 183 131 
1.43371 -0.421464 7.33294 71 68 63 
1.91203 -0.636199 7.2605 111 77 5 
0.43438 1.85318 7.23313 107 94 77 
1.45852 -0.363286 7.34799 7 6 2 
1.21631 1.16256 8.09561 157 120 5 
1.85061 -0.402436 7.36037 51 13 0 
-0.148472 -0.686463 6.65235 210 197 178 
0.252751 0.477465 5.79899 221 184 7 
1.93648 -1.50211 7.17073 46 1 0 
1.6691 -1.54606 6.56418 170 154 128 
1.39659 -0.790715 6.20789 39 21 11 
1.80013 0.793633 9.68949 125 117 106 
0.319693 2.1345 6.57138 197 187 178 
1.44978 -0.572311 7.4072 182 153 15 
0.103408 2.14427 6.56928 145 134 128 
-1.8934 2.31788 6.14889 224 214 213 
1.26838 0.445515 8.14919 110 70 0 
1.43175 -0.387222 7.34377 5 4 2 
2.45771 -1.33693 7.21443 168 164 153 
-0.903252 1.66009 7.59563 177 166 160 
0.308677 1.57038 7.88147 181 165 150 
2.10589 -1.40562 7.19311 146 52 42 
2.28467 1.50951 8.03289 149 139 130 
2.08419 0.860561 9.60917 128 118 108 
1.03952 1.86102 7.21929 144 133 127 
1.92584 -1.4835 7.17633 134 47 27 
1.40385 -0.740148 6.30673 26 43 27 
2.17206 0.760277 9.80987 135 131 122 
