ply                 
format ascii 1.0    
element vertex 1287
property float x    
property float y    
property float z    
property uchar red  
property uchar green
property uchar blue 
end_header          
0.155804 0.312148 3.97224 126 124 86 
0.248728 0.282798 4.04704 57 66 9 
0.225654 0.303551 3.98108 43 62 0 
0.297077 0.378462 3.86178 253 223 173 
0.192293 0.314436 3.99634 44 39 0 
0.243485 0.310086 4.05348 171 187 114 
0.228408 0.294762 4.07673 216 202 191 
0.253552 0.283869 4.05854 232 233 202 
0.25445 0.298255 4.02822 176 201 107 
0.231736 0.317192 3.96061 25 51 0 
0.230974 0.310822 3.99296 54 59 1 
0.2369 0.320224 3.97892 201 210 143 
0.241977 0.322823 4.00003 152 151 107 
0.243285 0.368275 3.90346 191 215 127 
0.214523 0.287194 3.99326 125 152 45 
-1.02106 0.244909 6.52096 230 194 56 
-0.860408 -0.156437 5.36274 231 209 162 
-0.654795 0.0202835 4.8516 173 184 167 
0.0567091 0.47656 4.35261 102 102 92 
-0.622818 -0.00381045 4.79909 16 0 0 
0.182333 0.425715 3.84831 32 36 19 
0.314859 0.200409 4.10916 144 103 97 
-0.0643513 1.26735 6.46955 68 25 0 
0.179965 0.383417 3.97526 45 52 0 
0.216028 0.399616 3.99201 145 147 100 
0.0290367 0.702284 4.11839 45 44 42 
-0.645822 0.0148665 4.8631 70 83 66 
0.21563 0.337883 4.06724 41 0 0 
0.145458 1.23672 4.87311 84 79 76 
0.0119437 0.209613 4.23263 154 126 79 
0.233724 0.694377 4.81302 99 90 57 
0.021934 0.998933 4.93693 85 73 33 
0.0495522 0.710008 4.11069 6 5 3 
0.000310248 1.09602 6.51012 157 117 0 
-0.720389 -0.242313 4.99572 73 155 107 
-1.07348 0.0497183 4.75633 184 162 121 
0.255033 0.358075 3.8968 205 225 130 
-1.1239 -0.0125213 4.75689 175 155 118 
0.493331 0.127317 4.20696 66 56 44 
0.21949 0.293369 4.09976 143 150 72 
0.2461 0.318862 4.0569 36 36 0 
0.289608 0.17128 4.14281 248 219 213 
0.291846 0.175534 4.16368 238 225 216 
0.303207 0.161087 4.21045 63 55 44 
0.262636 0.180805 4.12999 222 118 125 
0.346695 0.189769 4.20949 233 224 215 
-0.744433 -0.219165 5.14452 58 41 31 
0.265278 0.189608 4.17746 165 149 133 
0.27666 0.235962 4.08444 42 53 0 
-0.55444 0.148486 4.7263 21 10 0 
0.311566 0.350699 3.89644 255 230 169 
0.297375 0.348259 3.90183 252 238 199 
0.320375 0.363826 3.9067 74 76 11 
0.211117 0.299621 3.97863 43 62 0 
0.252391 0.367684 3.85044 253 223 173 
0.341893 0.263742 4.17827 46 0 0 
0.182461 0.251781 4.07693 58 67 0 
0.271439 0.327247 3.97375 68 93 2 
0.259536 0.286273 4.0947 153 166 76 
0.21555 0.347356 3.91184 97 117 46 
-0.382739 1.71459 6.92231 70 57 41 
0.171935 0.323196 3.95119 94 83 17 
0.20829 0.29209 4.06862 215 198 188 
0.17237 0.316893 3.97765 126 124 86 
0.275375 0.285231 4.15339 137 123 84 
0.24991 0.308346 4.08969 193 182 162 
0.21407 0.333392 3.99798 172 173 131 
0.184139 0.389453 3.83601 66 63 46 
0.198012 0.34589 3.96686 173 164 97 
0.18467 0.332609 3.99438 48 50 13 
0.287902 0.429374 3.95201 54 71 0 
0.198509 0.386076 3.87763 170 177 135 
0.22797 0.332467 4.04276 49 32 0 
0.166345 0.375579 3.97292 46 55 2 
0.172303 0.378245 3.91061 122 147 63 
0.161487 0.389674 3.87312 12 19 0 
-0.0327896 1.03972 4.7281 76 42 0 
0.179793 0.394456 3.88644 12 20 0 
-0.614237 0.0589718 4.80871 120 126 114 
0.133723 0.406883 3.83735 25 28 9 
0.212883 0.412591 3.9029 215 221 195 
0.260414 0.352354 4.10872 27 13 4 
0.171898 0.36667 4.00831 150 124 107 
0.194998 0.445645 3.91542 31 8 0 
-0.0337573 0.960349 4.70547 117 76 0 
0.0693028 0.907394 4.94043 141 123 51 
-1.12884 0.416539 6.52649 103 65 0 
-0.75353 -0.14804 5.13955 152 157 137 
-0.632134 0.0400477 4.8155 58 39 33 
-0.357755 0.01873 6.44456 166 147 68 
0.0485759 0.414454 4.25637 182 144 61 
0.224571 0.591252 3.99581 223 184 45 
0.259884 0.225144 4.06722 174 182 135 
0.31761 0.192154 3.71565 165 144 99 
-0.629156 0.0348954 4.83455 112 99 90 
0.208852 0.54809 4.02788 212 166 44 
0.303408 0.178238 4.16997 234 221 212 
0.484621 0.0984434 4.20823 44 36 23 
0.224402 0.470516 3.94294 158 140 128 
0.322738 0.204861 4.11137 67 16 12 
0.193291 0.406225 3.89759 215 221 195 
0.2188 0.194821 4.06451 243 235 222 
0.199216 0.333179 4.06745 25 6 0 
0.259907 0.201872 4.10554 223 125 124 
0.300676 0.18498 4.189 90 80 68 
0.228836 0.192363 4.1166 60 1 0 
-0.532393 -0.118014 4.51086 207 150 130 
0.171409 0.311156 4.04358 201 180 159 
0.17833 0.332031 3.98757 21 27 0 
0.247298 0.302987 4.11351 137 144 67 
0.236335 0.183595 4.16665 238 219 205 
0.197784 0.19274 4.11286 105 54 51 
0.183958 0.318854 3.98327 173 171 132 
0.260437 0.292835 4.08464 54 46 23 
0.27845 0.206832 4.15846 181 97 87 
0.251246 0.222802 4.12468 176 98 88 
0.18644 0.428393 3.82646 81 77 65 
0.261456 0.254865 4.08361 26 35 0 
0.174475 0.372902 3.98992 122 112 77 
0.241006 0.244 4.11729 169 174 108 
0.0486881 0.900194 4.92897 148 125 32 
-0.643671 0.031325 4.82586 48 24 20 
0.218072 0.342489 4.01932 173 159 114 
-0.749869 -0.206158 5.14922 129 112 105 
-0.442724 0.316954 6.25782 194 163 20 
0.0543955 0.4172 4.25832 198 156 54 
-0.403047 1.67307 7.04061 212 198 185 
-0.75138 -0.212597 5.16614 87 73 62 
0.115364 0.361882 3.96289 47 54 3 
-0.801304 0.118901 6.38196 116 110 96 
-1.05745 -0.0097539 4.73004 193 167 118 
0.244557 0.343726 4.10555 29 17 5 
0.268876 0.290782 4.02921 47 71 0 
0.00390397 1.00553 4.91816 27 8 0 
-0.83417 0.376294 6.35963 131 114 45 
0.198653 2.37573 5.57105 152 117 27 
0.197275 0.348777 3.99313 157 170 100 
-0.813195 0.0995864 6.38871 18 14 11 
0.199078 0.285135 4.03382 170 189 99 
0.242126 0.265121 4.08658 169 182 103 
0.331779 0.208192 4.20089 200 183 167 
-0.417861 1.72925 6.91569 81 67 54 
0.138163 0.368228 3.97054 60 61 21 
0.169823 0.358467 3.89814 72 94 29 
0.182835 0.282613 4.09064 143 150 72 
0.283478 0.295584 4.06347 80 86 38 
-0.655762 0.0282804 4.80383 68 28 28 
0.274816 0.204437 4.13272 79 30 26 
-1.16015 -0.130208 4.97507 37 22 0 
-1.09389 -0.00295828 4.77552 175 154 111 
-1.12231 0.425935 6.52772 39 1 0 
0.2523 0.240521 4.04578 59 55 28 
0.205265 0.482807 4.24755 68 31 4 
-0.376079 0.108416 6.15879 24 15 6 
-0.044824 0.962687 4.71431 25 2 0 
-0.980635 0.22999 6.53307 119 71 0 
0.209651 0.310829 3.97148 210 223 144 
0.164188 0.31922 3.95766 119 89 51 
0.16129 0.437356 3.90593 29 10 0 
0.229844 0.343614 4.00165 67 72 32 
0.262598 0.493633 3.73317 76 67 62 
0.19464 0.316871 4.0518 203 185 163 
0.233408 0.472464 3.74065 246 236 227 
0.147199 0.388437 3.87139 35 41 15 
-1.03302 0.0119591 6.59842 173 94 2 
-0.716423 -0.202809 5.18708 39 21 11 
-1.17956 -0.11067 5.02117 105 83 44 
0.102317 0.565429 4.07188 126 75 12 
-0.627391 -0.0876163 4.89037 97 111 94 
-0.0701853 0.692595 4.29835 197 164 61 
0.0366725 0.997884 4.94071 106 89 33 
0.316765 0.426359 3.87382 99 98 78 
0.134592 0.382218 3.89789 163 191 81 
0.292357 0.194818 4.16028 59 10 5 
0.278655 0.209111 4.08103 243 235 222 
0.207888 0.550242 4.03088 222 174 74 
0.651296 0.201715 4.32938 226 219 211 
0.253228 0.542889 4.0712 231 180 26 
0.0573727 0.462253 4.31753 176 150 37 
0.189664 0.599755 3.84922 117 106 88 
-0.83293 0.0234227 6.48687 226 199 56 
0.226864 0.392511 3.91431 166 201 85 
0.0425474 0.836493 4.64286 147 106 42 
0.0830303 0.615712 4.15432 175 148 35 
0.253232 0.359745 3.93986 243 248 207 
0.214471 1.26937 4.90922 84 75 68 
0.0281832 1.60343 6.55357 203 158 13 
-0.855608 1.68541 7.21452 185 175 166 
0.466642 0.0181554 4.31146 73 66 60 
-0.64355 -0.0122598 4.80305 127 107 100 
-0.754664 -0.15916 5.21219 0 17 1 
-0.0342143 0.707749 4.31792 198 155 16 
-0.344418 1.7398 6.96977 71 57 46 
0.0133536 0.82657 4.6283 46 2 0 
0.057353 1.61981 6.57879 210 160 13 
-0.0964735 1.35118 6.51467 20 5 0 
-0.831221 0.488529 6.38262 108 107 105 
-0.862914 1.68037 7.20555 179 169 160 
0.144325 0.395335 3.92924 134 155 76 
0.230227 0.269147 4.10833 29 27 0 
0.2722 0.218474 4.08424 37 38 0 
0.136584 0.429703 3.90093 31 8 0 
0.212828 0.324315 4.08605 43 29 16 
0.29067 0.180883 4.13502 212 142 144 
0.310634 0.143071 4.22015 230 221 214 
0.167144 0.38041 3.84927 52 48 36 
0.1827 0.335182 3.9755 29 21 0 
0.276906 0.179045 4.12695 207 137 139 
0.286794 0.187172 4.12738 65 0 0 
0.289371 0.185126 4.14417 208 138 140 
0.204467 0.310144 4.04373 39 40 0 
0.282887 0.191884 4.15149 189 127 128 
0.290729 0.164051 4.2336 95 83 71 
0.272095 0.210473 4.11561 201 117 117 
0.204651 0.318919 4.00576 52 50 1 
0.255356 0.245336 4.04405 87 83 58 
0.259711 0.221421 4.11616 179 119 111 
0.195926 0.322507 3.96684 44 23 0 
0.25673 0.229072 4.10167 174 176 136 
0.279701 0.198781 4.20504 53 42 24 
0.264904 0.215548 4.17449 150 91 83 
0.239906 0.248214 4.12734 25 10 0 
-1.01024 0.0250043 6.60608 158 92 0 
0.242136 0.237377 4.10804 170 177 123 
0.275826 0.212758 4.1426 44 0 0 
0.226399 0.284812 4.00584 201 229 116 
0.24908 0.241246 4.13598 139 94 89 
0.232251 0.26292 4.07076 176 187 121 
0.211008 0.298653 3.97526 98 119 26 
0.206348 0.307487 3.97381 214 226 152 
0.222582 0.27856 4.06668 208 197 179 
0.205195 0.30486 3.98751 43 46 0 
0.193976 0.325157 3.93376 60 75 6 
0.201395 0.317761 3.97535 40 41 0 
0.220606 0.281476 4.08262 143 147 88 
-0.639475 -0.00702754 4.80388 131 112 106 
0.2052 0.295256 4.04882 47 50 3 
0.19551 0.313059 4.00662 163 172 107 
0.186389 0.333117 3.95092 71 75 0 
-0.627233 -0.0104084 4.80592 136 113 107 
0.225344 0.290037 4.10971 16 20 0 
0.181045 0.345251 3.95054 32 46 0 
0.17816 0.364006 3.9007 25 48 0 
0.164665 0.378732 3.85993 201 201 173 
0.168384 0.39247 3.8447 181 181 157 
0.17131 0.369087 3.91189 168 191 103 
0.208837 0.320485 4.07596 168 152 139 
0.148661 0.393725 3.84565 83 82 61 
0.161817 0.367215 3.92671 163 185 100 
0.149272 0.386939 3.88314 14 22 0 
0.144686 0.424253 3.81114 197 191 179 
0.184774 0.360152 4.01417 163 132 111 
0.15264 0.388763 3.91589 168 188 93 
0.148154 0.391206 3.90671 51 70 0 
0.126115 0.415214 3.83094 13 17 2 
-0.662354 0.0163315 4.84637 173 182 163 
0.142626 0.395748 3.89831 177 190 120 
0.227428 0.537825 4.05334 222 174 76 
0.178735 0.371434 4.01122 181 153 141 
0.143194 0.405478 3.9074 38 52 0 
0.131472 0.422673 3.85611 204 205 187 
0.146127 0.413582 3.89693 13 15 0 
0.151158 0.403782 3.92728 11 28 0 
0.114892 0.432963 3.83982 91 93 80 
0.134907 0.421012 3.89184 182 173 158 
0.132741 0.448037 3.92724 159 133 120 
0.157286 0.387542 3.93249 149 174 83 
-0.0951973 1.21399 6.42834 107 65 0 
0.224942 0.267366 4.06251 37 36 5 
0.181406 0.355354 3.90846 63 82 1 
0.215088 0.28812 4.053 195 197 158 
0.159832 0.378339 3.96817 36 46 0 
-0.666056 0.0289327 4.85109 156 177 160 
-0.557832 0.151171 4.70976 202 185 139 
0.276074 0.194481 4.13967 118 38 41 
0.136487 0.459439 3.91449 145 125 114 
0.266702 0.231107 4.08544 71 83 19 
0.128678 0.41708 3.88586 181 175 163 
0.135613 0.409924 3.89236 18 20 0 
0.263014 0.217125 4.13237 44 0 0 
0.164921 0.373806 3.98693 163 152 122 
0.152981 0.396177 3.88583 202 207 185 
0.176913 0.357626 3.9989 42 39 0 
0.15423 0.403245 3.85992 219 217 202 
0.139876 0.400479 3.84303 220 222 201 
0.220805 0.324638 4.09736 144 132 110 
0.233129 0.254575 4.05835 185 193 133 
0.245632 0.242767 4.12058 146 144 96 
0.216604 0.278204 4.01906 38 61 0 
0.160255 0.389353 3.85448 239 238 220 
0.223491 0.277673 4.04059 60 67 16 
0.170024 0.375489 3.88972 185 209 113 
0.164796 0.39461 3.8289 244 241 224 
0.229783 0.265933 4.08969 27 36 0 
0.216216 0.294713 4.0061 158 173 90 
0.193415 0.356231 3.94208 54 71 0 
0.167112 0.362222 3.89517 12 38 0 
0.202 0.319447 3.95327 214 223 140 
0.17657 0.364263 3.88554 39 60 0 
0.232699 0.273889 4.11778 175 170 140 
0.206912 0.300874 4.05714 48 39 10 
-0.541617 0.160676 4.68368 186 165 122 
-0.11002 1.24936 6.43605 70 28 0 
0.129681 0.428383 3.84254 22 26 11 
-0.60117 0.0634328 4.81392 114 122 109 
0.0604714 0.605871 4.1558 168 141 52 
0.151653 0.397963 3.94385 9 30 0 
-0.0958137 1.25426 6.46012 147 98 3 
-0.0676158 0.827812 4.41541 213 173 39 
0.448133 0.21216 3.95719 108 57 0 
-0.746433 -0.13827 5.11916 21 39 13 
0.451469 0.220159 3.92467 78 25 0 
0.276121 0.176775 4.17479 84 74 64 
0.136354 0.431667 3.81852 35 31 19 
0.169709 0.360986 3.92918 30 47 0 
0.244141 0.258587 4.0561 77 78 36 
0.212695 0.288097 4.01804 176 201 107 
0.22195 0.302905 3.98745 70 81 15 
0.198252 0.342212 3.92481 244 250 206 
0.196659 0.332417 3.92023 75 85 25 
0.182227 0.344575 3.96188 174 180 92 
0.179665 0.383884 4.00741 69 23 8 
-0.451556 0.313887 6.24448 173 143 29 
0.384885 0.312853 3.79855 98 53 0 
0.0381447 0.706481 4.1205 113 112 110 
0.292039 0.159355 4.20768 63 55 44 
0.287204 0.186593 4.22406 187 178 163 
-0.565212 0.146136 4.72157 21 10 0 
0.22135 0.302572 4.06265 84 72 48 
0.199567 0.328343 3.9944 172 173 131 
0.292712 0.188769 4.2479 41 31 19 
-0.076821 0.824871 4.40809 217 176 26 
0.169429 0.592641 4.09231 116 62 0 
-0.0678536 0.981991 4.7328 15 0 0 
0.288025 0.166212 4.17684 240 230 220 
0.213451 0.289609 4.03995 170 184 105 
0.137838 0.385053 3.86572 28 35 4 
0.185867 0.333105 3.98944 21 27 0 
0.275564 0.195701 4.17754 238 219 205 
0.183679 0.318971 3.98278 173 171 132 
0.134567 0.432443 3.87639 35 26 9 
0.021705 0.89192 4.91776 148 125 32 
0.045521 0.587764 4.16483 171 142 25 
0.167266 0.375241 3.97544 47 54 3 
0.116686 0.427497 3.8924 62 23 18 
-0.276149 1.66658 6.79979 163 114 0 
0.251083 0.235032 4.07346 36 46 0 
-0.834159 0.0212249 6.48736 224 197 56 
0.183548 0.367952 3.8561 241 233 222 
0.216162 0.295571 4.07649 213 197 184 
0.211403 0.320149 4.05649 203 185 163 
0.05662 0.585176 4.17176 173 143 13 
0.522599 0.0359993 4.10187 130 90 18 
0.167563 0.347571 3.94058 72 91 9 
-0.0883639 1.22128 6.4388 104 64 0 
0.298723 0.15968 4.21584 100 90 80 
0.221161 0.337939 4.0795 30 17 9 
0.158166 2.46966 5.58978 229 214 191 
-0.182654 1.49323 6.93219 193 152 24 
-0.156249 1.63443 6.69877 222 178 19 
-0.0678348 1.16194 6.42085 222 185 19 
-1.17972 -0.132346 4.99371 77 60 32 
-0.440049 1.65242 7.00281 221 205 189 
0.273807 0.242042 4.05537 39 39 1 
-0.292498 1.58948 6.96595 242 219 175 
0.226544 0.422571 4.1665 51 24 0 
0.208032 0.327409 4.03999 73 50 16 
0.220833 0.28725 4.05789 183 177 151 
0.141826 0.418523 3.83447 13 17 2 
0.129351 0.426195 3.84338 7 11 0 
-1.07114 0.0481517 4.75455 175 153 116 
0.140019 0.419884 3.9041 151 150 120 
-0.60835 -0.00299702 4.81311 132 109 103 
0.313983 0.142391 4.22856 37 27 18 
0.142831 0.413127 3.89434 18 20 0 
0.138547 0.430728 3.81602 36 32 20 
0.257003 0.240185 4.11237 170 177 123 
0.126721 0.459677 3.86751 130 94 82 
0.195963 0.334805 3.93887 195 213 127 
-1.06415 0.418769 6.44486 240 189 62 
-1.07379 0.059766 4.74578 108 84 46 
-0.420334 1.69983 6.89337 70 57 41 
-0.865123 0.418397 6.34863 164 144 55 
-0.323831 1.85119 6.79458 110 82 17 
-1.12927 -0.0274819 4.75652 32 14 0 
-0.802211 0.181571 6.36703 35 23 7 
0.174212 0.604513 4.08155 230 187 23 
-0.421871 1.70426 6.91076 71 57 46 
-0.443553 1.65308 7.00053 221 205 189 
0.122951 0.308 3.99011 80 76 28 
0.0790625 0.409911 3.89433 36 22 9 
0.0546075 0.392539 3.89044 134 137 108 
0.125936 0.359705 3.98518 158 140 116 
0.15248 0.253829 4.08652 139 149 78 
0.174281 0.248687 4.1095 37 41 6 
0.125394 0.34903 3.98939 105 94 64 
0.117375 0.339244 3.98881 19 20 0 
0.069156 0.401723 3.85678 167 166 148 
0.175489 0.275244 4.10219 12 21 0 
0.137992 0.303973 4.03146 171 149 125 
0.186056 0.27123 4.10209 143 150 96 
0.134549 0.300874 4.022 54 51 0 
0.283871 0.152471 4.22204 180 171 156 
0.0732021 0.371592 3.87418 193 194 178 
0.161182 0.270137 4.0781 35 37 0 
0.181513 0.259266 4.10806 163 164 132 
0.160954 0.286044 4.05112 56 49 23 
0.176131 0.278037 4.07198 170 164 142 
0.139306 0.274097 4.04961 199 187 163 
0.267331 0.165555 4.21971 220 208 192 
0.170368 0.266814 4.07573 143 149 85 
0.163192 0.337546 3.90715 47 63 1 
0.138099 0.280132 4.03256 165 179 102 
0.254718 0.181327 4.19714 214 202 190 
0.156197 0.258657 4.06815 149 158 93 
0.166603 0.241236 4.10235 144 147 104 
0.275014 0.177263 4.22429 60 47 31 
0.24579 0.180596 4.20236 210 199 181 
0.117072 0.392192 3.84508 245 248 227 
0.243495 0.192989 4.1856 94 83 63 
0.115596 0.36186 3.85751 200 203 176 
0.123451 0.338201 3.90198 59 80 5 
0.168268 0.269926 4.03549 57 65 6 
0.171863 0.230317 4.111 125 131 87 
0.118107 0.377203 3.84848 111 118 85 
0.187515 0.224404 4.12565 143 99 100 
0.218738 0.201613 4.16729 151 88 79 
0.163934 0.308381 4.07836 49 42 26 
0.104742 0.314466 3.99493 166 154 106 
0.0757984 0.369678 3.90875 50 66 0 
0.143022 0.295283 4.0259 154 167 95 
0.139254 0.381697 3.98751 19 4 0 
0.116549 0.369112 3.97841 108 103 63 
0.119306 0.317047 4.00348 151 128 84 
0.124974 0.340493 4.00488 147 124 108 
0.0983923 0.367652 3.94205 49 65 0 
0.173998 0.314912 4.06609 38 28 16 
0.0765156 0.382359 3.89829 51 66 0 
0.0950775 0.394513 3.93007 134 144 73 
0.12593 0.333751 3.99269 111 113 66 
0.0785507 0.345603 3.95293 74 84 11 
0.101893 0.366372 3.9699 146 151 87 
0.0822919 0.385001 3.93304 21 31 0 
0.104829 0.381933 3.96093 26 26 0 
0.0388425 0.429742 3.84784 4 0 0 
0.064847 0.409307 3.89719 168 152 139 
0.128649 0.385486 3.9877 125 110 79 
0.0932636 0.413483 3.92381 29 27 0 
0.0942922 0.36115 3.93342 141 163 63 
0.18021 0.317766 4.08592 23 16 0 
0.06884 0.469382 3.85891 113 102 96 
0.148968 0.313539 4.04227 61 8 0 
0.103737 0.347958 3.91961 153 176 94 
0.114009 0.335736 3.93474 80 107 28 
0.142823 0.341465 3.94442 159 187 100 
0.0706411 0.361688 3.90314 158 182 84 
0.209004 0.304484 4.09712 22 14 0 
0.0776032 0.361386 3.92695 48 67 0 
0.202436 0.212595 4.07494 105 115 55 
0.251781 0.169706 4.18869 224 218 204 
0.26238 0.176831 4.22948 191 178 162 
0.140016 0.293047 3.98191 176 180 145 
0.155716 0.26629 4.03352 57 65 6 
0.127239 0.37592 3.85563 221 228 197 
0.106518 0.401205 3.80728 86 83 78 
0.264425 0.186337 4.23506 50 34 19 
0.196144 0.247454 4.10996 145 154 101 
0.116725 0.326428 3.94053 54 76 0 
0.14972 0.276744 4.0402 62 65 8 
0.202439 0.245303 4.12773 145 138 119 
0.0627747 0.37442 3.84665 188 190 176 
0.0683946 0.34957 3.89268 28 49 0 
0.183504 0.291554 4.08061 177 166 148 
0.0994171 0.333399 3.98611 17 14 0 
0.0623268 0.379914 3.89616 46 56 3 
0.0577301 0.391781 3.87607 181 179 164 
0.110832 0.336856 4.00046 146 127 113 
0.0691947 0.378363 3.91327 34 48 0 
0.0950345 0.378059 3.9364 24 40 0 
0.179955 0.349254 3.93891 124 144 83 
0.0883726 0.416847 3.90168 138 122 109 
0.236984 0.201084 4.11145 255 234 222 
0.0912606 0.348814 3.91222 99 121 38 
0.163785 0.265362 4.0959 108 116 56 
0.114526 0.32451 3.99872 36 20 0 
0.114278 0.385379 3.97391 48 42 0 
0.0786113 0.391324 3.92048 60 66 2 
0.162209 0.310621 3.92332 44 62 0 
0.155212 0.298348 3.98443 176 180 145 
0.102855 0.373557 3.85761 209 211 189 
0.0813565 0.379873 3.84079 245 248 227 
0.14173 0.266421 4.0407 180 179 133 
0.0850153 0.363157 3.878 31 45 0 
0.199311 0.280296 4.1088 33 39 0 
0.0549749 0.373889 3.87888 21 25 0 
0.181708 0.311513 4.07483 158 149 134 
0.0559343 0.41095 3.85411 160 171 131 
0.116782 0.354531 3.98314 161 147 120 
0.058983 0.416458 3.86418 141 115 88 
0.0743005 0.403533 3.90721 177 176 148 
0.149864 0.318561 3.91785 75 91 20 
0.313416 0.620454 4.14892 136 95 0 
0.164763 0.317939 3.91237 178 193 110 
0.0816959 0.355338 3.9407 21 33 0 
0.168168 0.298201 4.02629 152 178 71 
0.181553 0.227196 4.03547 155 155 127 
0.191073 0.323416 3.91777 204 220 132 
0.215643 0.214124 4.12332 188 98 89 
0.127568 0.324242 3.91262 225 231 183 
0.123332 0.300971 3.97504 178 182 131 
0.101144 0.367896 3.88261 57 74 6 
0.143932 0.290443 4.03588 33 41 0 
0.2134 0.278622 4.11343 8 11 0 
0.124655 0.302384 4.02143 63 45 7 
0.0864615 0.373365 3.892 163 182 92 
0.0857317 0.369568 3.90278 62 82 0 
0.128236 0.319803 4.01806 51 14 0 
0.0709162 0.394911 3.87935 166 167 151 
0.0934586 0.362511 3.96532 149 154 88 
0.0806395 0.300115 3.95795 46 35 7 
0.12905 0.347224 3.89301 69 93 5 
0.0967787 0.417623 3.89506 31 13 1 
0.0537632 0.365274 3.87131 193 194 178 
0.0882785 0.31651 3.97275 152 166 89 
0.043798 0.406496 3.84945 160 171 131 
0.121592 0.310542 3.96882 35 29 3 
0.139898 0.319874 3.90255 106 121 56 
0.111148 0.307947 3.96459 29 24 0 
0.168833 0.282107 4.02296 161 189 76 
0.190682 0.275788 4.0694 41 40 12 
0.0692581 0.396484 3.89023 134 137 108 
0.160452 0.298085 4.03673 68 67 36 
0.0895629 0.375036 3.87382 193 194 178 
0.185499 0.277501 4.08118 35 37 0 
0.196404 0.263142 4.10926 163 164 132 
0.261959 0.174849 4.19004 212 206 192 
0.159257 0.286003 4.03427 165 179 102 
0.106233 0.386988 3.84165 245 248 227 
0.128803 0.365817 3.85824 200 203 176 
0.179349 0.27239 4.03593 57 65 6 
0.241899 0.209533 4.17137 151 88 79 
0.136454 0.311416 3.98253 158 160 111 
0.106489 0.367004 3.95018 150 160 89 
0.251398 0.198975 4.10054 209 144 138 
0.146567 0.318745 3.93085 228 244 181 
0.157333 0.327294 4.00772 151 128 84 
0.0920242 0.383771 3.88315 29 32 1 
0.0744504 0.402043 3.84595 180 181 165 
0.147174 0.365217 3.98673 161 147 120 
0.0974526 0.36485 3.86506 63 65 41 
0.155024 0.310683 3.93489 63 79 8 
0.0915891 0.384153 3.84896 188 190 176 
0.147579 0.322412 3.9874 13 18 0 
0.102927 0.37857 3.87796 200 203 184 
0.17472 0.289326 4.07561 187 176 158 
0.101244 0.374262 3.90138 52 72 0 
0.0924399 0.409495 3.90799 177 176 148 
0.271433 0.170648 4.18793 231 228 213 
0.133142 0.327642 3.95424 163 181 81 
0.104788 0.35828 3.89827 32 48 0 
0.201794 0.208664 4.1141 195 108 101 
0.0993561 0.3241 3.92791 47 68 3 
0.150869 0.309998 3.98175 143 146 93 
0.123831 0.327487 3.97696 152 166 89 
0.285922 0.155128 4.19148 132 129 120 
0.0620926 0.403905 3.86673 35 17 5 
0.102244 0.412749 3.84947 180 181 165 
0.123335 0.386322 3.87878 193 194 178 
-1.27637 -0.21132 4.62395 141 139 124 
0.262538 0.196753 4.1955 198 185 169 
0.134752 0.367816 3.88075 195 218 150 
0.129412 0.394348 3.84715 247 250 229 
0.129797 0.389186 3.93964 24 40 0 
0.201851 0.27099 4.03703 40 44 0 
0.118079 0.415535 3.8586 202 204 183 
0.117763 0.395777 3.90274 45 59 0 
0.110621 0.408372 3.88331 166 167 151 
0.115664 0.424735 3.87521 41 22 7 
0.148949 0.365759 3.90805 85 102 32 
0.0507565 0.273057 6.07262 147 126 19 
0.0371152 0.356386 3.83285 158 161 132 
0.196094 0.305142 4.05049 176 171 149 
0.182692 0.315993 4.02845 81 74 30 
0.137395 0.336763 3.99309 94 88 52 
-1.00004 -0.727176 4.79311 255 245 208 
17.9508 4.88669 12.0923 81 58 17 
-1.62614 -0.898542 5.15303 32 3 0 
3614.87 1182.27 1219.81 106 78 74 
1837.8 604.08 621.456 91 84 74 
2784.22 915.099 942.594 21 0 0 
343.593 117.183 119.487 51 71 60 
0.184268 0.408253 3.94568 63 84 5 
0.125615 0.406051 3.91372 130 149 83 
0.119836 0.402389 3.9325 128 150 77 
0.0661894 0.363589 3.97613 108 91 65 
0.0290934 0.454145 3.85127 101 83 81 
0.0967601 0.348991 3.87118 76 95 29 
0.075446 0.357173 3.85133 190 196 168 
0.0391955 0.362566 3.82184 111 106 87 
0.138215 0.399543 3.87143 24 25 20 
7932.08 2594.82 2671.09 96 67 63 
-1.61575 -0.896672 5.15756 31 3 0 
-1.58609 -0.900369 5.12908 17 0 0 
-0.0419601 0.4546 3.84879 124 121 112 
0.00914549 0.345832 3.82833 155 160 130 
0.0847384 0.361352 3.97663 40 21 4 
0.117612 0.408714 3.83822 34 35 27 
0.194129 0.382231 3.97925 72 80 20 
0.126382 0.35072 3.97607 74 77 20 
0.0490558 0.460392 3.85375 95 77 73 
0.0934432 0.388494 3.94869 71 78 24 
0.0922628 0.394152 3.91862 65 85 16 
-1.63935 -0.900275 5.15452 144 118 95 
0.0658381 0.350628 3.85621 65 72 38 
0.140579 0.346114 3.99146 36 34 0 
0.214926 0.387794 3.99796 137 127 102 
0.132847 0.35465 4.00013 150 123 112 
788.426 258.387 226.508 71 95 63 
-1952.53 -637.607 -647.987 119 102 95 
937.861 314.202 324.655 72 55 47 
290.996 96.5851 105.876 44 50 36 
0.14027 0.310211 4.01334 115 106 65 
-0.182582 0.418822 3.82524 90 85 81 
0.0564968 0.320503 3.88076 74 106 9 
0.0924025 0.40192 3.87814 128 125 120 
0.0392235 0.409309 3.91502 145 127 107 
0.118833 0.386059 3.89656 161 183 82 
0.037977 0.317885 3.87838 85 116 23 
0.12021 0.339671 3.87976 167 193 102 
101.688 31.9065 39.8607 6 35 17 
0.105622 0.392936 3.90886 135 159 73 
316.008 104.872 114.536 44 50 36 
18.156 4.93036 12.1479 65 43 4 
2117.08 723.978 713.037 0 27 13 
-1.51766 -0.87886 5.15014 159 135 99 
0.113834 0.429095 3.85705 154 159 127 
0.0873814 0.190189 4.01787 147 153 107 
172.685 54.1434 64.132 17 36 17 
-17.762 -6.21068 -0.475409 159 144 105 
0.218861 0.39194 3.98048 56 66 5 
0.271283 0.402749 4.00762 113 107 75 
0.206099 0.366201 4.00277 42 44 0 
4819.04 1607.29 1647.93 41 14 5 
-1.62153 -0.908109 5.15202 61 44 14 
-1.57605 -0.897416 5.13589 20 3 0 
0.0111758 0.346861 3.86163 156 164 125 
0.081784 0.410683 3.90647 176 172 143 
0.1509 0.333878 3.95823 173 183 84 
0.170357 0.446717 3.83643 35 35 25 
0.212524 0.356432 3.99208 155 175 86 
0.0910012 0.408109 3.85546 164 162 137 
0.0727427 0.405684 3.86786 46 28 28 
-18.1823 -6.36993 -0.587243 163 144 102 
-17.7229 -6.18871 -0.449782 157 138 96 
683.741 213.704 236.878 103 104 96 
-4011.43 -1308.13 -1319.81 32 12 5 
0.363562 0.201992 4.15604 123 44 39 
0.130624 0.292898 3.9954 162 173 97 
0.122357 0.270372 4.03267 83 93 41 
0.0486249 0.355831 3.87291 69 85 22 
0.1069 0.299376 3.98979 155 152 97 
0.105387 0.278696 4.03322 176 171 149 
0.107207 0.295165 4.01497 81 74 30 
0.0556232 0.36341 3.89129 105 135 21 
0.0369945 0.391279 3.87595 143 137 125 
0.0320601 0.369127 3.90431 72 94 12 
0.150834 0.285681 3.98848 150 163 94 
0.202504 0.245722 4.049 100 97 52 
0.123512 0.359469 3.87855 78 100 27 
0.0864075 0.274304 4.01657 89 105 30 
0.118543 0.281718 4.03649 176 171 149 
0.0450266 0.394356 3.8429 164 166 145 
0.200013 0.271363 4.02216 101 128 35 
0.140776 0.306287 3.9716 134 140 92 
0.0563873 0.385269 3.90319 130 149 83 
0.098164 0.309661 3.95996 39 23 0 
0.0875566 0.399803 3.83364 45 41 32 
0.067179 0.408071 3.83672 39 39 31 
0.0821311 0.474153 3.86266 95 77 73 
0.106926 0.395637 3.95373 71 78 24 
0.092586 0.335556 3.90863 149 174 83 
0.0607321 0.370054 3.9275 66 84 8 
0.109903 0.304533 3.97657 146 149 104 
0.0474021 0.386085 3.82609 47 43 32 
0.0698714 0.288184 3.97971 150 147 94 
0.126058 0.300541 4.03966 180 157 139 
0.0858699 0.330169 3.98197 36 34 0 
0.0238564 0.404282 3.84748 156 165 122 
0.0911015 0.350108 3.97436 137 127 102 
0.0301617 0.397389 3.88095 54 35 29 
0.166318 0.280009 3.99961 149 178 72 
0.0646234 0.364908 3.89582 98 130 19 
0.187017 0.290647 3.98055 81 92 23 
0.0629328 0.348468 3.87431 181 209 107 
0.136481 0.432517 3.8337 40 40 30 
0.111343 0.283699 4.0252 75 85 25 
0.0468054 0.389536 3.87277 128 125 120 
0.0289649 0.398744 3.85465 48 48 36 
0.0439861 0.397005 3.9004 167 168 134 
0.015617 0.401598 3.82841 89 89 81 
0.113398 0.323931 3.95193 173 183 84 
0.151953 0.269079 4.00814 175 209 99 
0.136937 0.291319 4.01788 146 166 77 
0.244651 0.217118 4.09608 189 201 129 
0.106565 0.424855 3.82695 38 38 28 
0.107455 0.297071 3.97012 158 161 114 
0.0304769 0.33468 3.88747 95 129 19 
0.0525751 0.341927 3.94961 56 66 5 
0.0026112 0.391437 3.85123 39 28 8 
0.0991865 0.318976 3.94949 173 183 84 
0.101989 0.418827 3.87751 55 31 31 
0.11043 0.358054 3.97119 72 72 38 
0.167698 0.27137 4.00884 167 201 91 
0.165963 0.31281 3.96611 72 60 18 
0.143901 0.295375 3.99535 162 173 97 
0.129583 0.296538 3.98607 78 74 26 
0.110694 0.398392 3.83933 48 42 30 
0.128749 0.317583 3.96396 39 23 0 
0.112712 0.375101 3.88281 69 85 22 
0.119857 0.394853 3.86024 124 127 110 
0.174647 0.29921 4.03876 79 85 39 
0.0770847 0.396403 3.89818 57 66 19 
0.0518555 0.402987 3.8817 54 35 29 
0.18743 0.2805 4.01262 177 211 99 
0.118605 0.314703 3.95333 91 67 23 
0.114182 0.347632 3.9064 119 146 49 
0.123995 0.325393 3.9484 169 182 74 
0.114645 0.364259 3.90013 74 109 0 
0.128063 0.345476 3.91359 149 174 83 
0.120175 0.372546 3.87263 32 39 6 
0.123462 0.368213 3.88375 182 207 116 
0.128031 0.329965 3.94029 99 130 10 
0.0993211 0.40112 3.83411 47 43 32 
0.0918554 0.355211 3.89587 75 109 0 
0.118057 0.314555 3.97829 43 53 3 
0.172523 0.293337 3.98241 97 97 47 
0.0705672 0.40784 3.886 62 45 38 
0.0867213 0.351503 3.95541 56 66 5 
0.145761 0.308114 4.02257 74 64 29 
0.109677 0.289053 3.97704 86 79 35 
0.1357 0.30422 3.95914 79 58 27 
0.0580224 0.381852 3.87151 30 33 26 
0.108361 0.357195 3.88472 163 200 87 
0.0807469 0.386889 3.87982 51 55 30 
0.144154 0.269284 4.02355 174 201 104 
0.132635 0.380183 3.88325 42 52 0 
0.132912 0.364313 3.91543 83 116 9 
0.119667 0.39342 3.88963 67 76 31 
0.0979121 0.429164 3.86034 153 161 114 
0.107439 0.418423 3.89537 60 53 37 
0.14302 0.361428 3.92352 145 177 70 
0.090556 0.449203 3.85648 43 30 21 
0.104506 0.41448 3.86108 164 162 141 
0.113427 0.408012 3.90453 57 66 19 
0.167412 0.320357 3.98574 150 153 108 
0.112357 0.421645 3.84332 39 39 31 
0.151066 0.353612 3.91847 149 174 83 
0.155013 0.351475 3.9948 36 34 0 
0.154212 0.34481 3.93634 82 106 18 
0.182094 0.304498 4.02535 146 166 77 
0.17275 0.338017 3.96865 125 128 47 
0.188963 0.322825 4.00182 150 147 94 
0.0896269 0.377256 3.92788 63 81 5 
0.164205 0.308842 4.03583 197 184 152 
0.155634 0.315428 4.01836 126 129 74 
0.134962 0.321523 4.00524 153 135 85 
0.175678 0.330759 4.02139 57 29 5 
0.128102 0.373473 3.95479 154 174 89 
0.156256 0.387123 3.99023 32 31 0 
0.199022 0.458847 3.9575 55 45 9 
0.137573 0.347444 3.9815 146 158 82 
0.114388 0.302588 4.009 143 149 89 
0.0755424 0.443103 3.85468 46 36 26 
0.297613 0.342877 4.00854 139 138 94 
0.0859688 0.384125 3.91492 50 73 0 
0.113188 0.425172 3.9071 181 169 153 
0.174465 0.387584 3.98941 109 105 67 
0.242443 0.497057 3.94185 27 9 0 
0.162599 0.309284 4.04837 205 183 172 
0.119638 0.378311 3.949 146 168 83 
0.233804 0.321588 4.0387 161 174 94 
0.160499 0.352225 4.01229 151 125 108 
0.157775 0.337495 3.98925 167 181 106 
0.230147 0.385246 4.02351 165 131 122 
0.059252 0.354443 3.96038 144 153 86 
0.0475459 0.382028 3.89342 51 65 4 
0.15011 0.369194 3.9702 62 70 13 
0.179938 0.387065 3.90747 56 90 0 
0.164948 0.309032 4.0258 80 79 23 
0.173804 0.255282 4.09217 133 142 79 
0.10557 0.379795 3.93346 56 74 0 
0.160695 0.285306 4.07889 155 147 126 
0.108322 0.326959 3.98636 138 147 90 
0.175104 0.436715 3.86005 205 206 188 
0.175732 0.43571 3.8704 147 148 130 
0.152457 0.266898 4.09868 44 50 0 
0.202742 0.296095 4.08302 190 180 153 
0.119984 0.397663 3.91319 149 173 77 
0.113468 0.324338 3.97787 164 178 99 
0.120525 0.42174 3.91606 185 178 150 
-0.0654653 0.36737 3.81996 205 206 188 
0.0259593 0.230508 4.00618 221 221 185 
0.0459396 0.240059 4.01599 93 96 53 
-0.038622 0.37538 3.83363 196 198 176 
0.101006 0.272356 4.02482 168 181 111 
0.00857828 0.404155 3.84522 161 168 124 
0.155474 0.367775 3.99439 159 140 123 
0.0691345 0.356008 3.92956 149 175 76 
-0.0415252 0.312319 3.87383 88 115 20 
0.00517865 0.269075 3.95583 75 69 35 
-0.0148677 0.324568 3.8884 115 148 35 
0.132985 0.223569 4.10196 101 107 59 
0.0777812 0.28023 4.01048 161 174 94 
-0.00559038 0.333228 3.87674 87 120 7 
0.140413 0.188346 4.1463 160 88 76 
0.080196 0.367707 3.9372 128 151 69 
-0.0200149 0.380096 3.83647 196 198 176 
0.0821552 0.293582 4.01276 93 86 40 
0.10155 0.355098 3.96511 62 70 13 
0.06107 0.31023 3.96722 166 184 100 
0.0366153 0.399438 3.86178 47 43 32 
0.133541 0.266368 3.99751 181 205 91 
0.202867 0.286828 4.09306 147 152 94 
0.20115 0.181138 4.12808 172 105 97 
0.214475 0.163994 4.15839 133 126 110 
0.177864 0.298642 4.04963 188 182 156 
0.199611 0.232273 4.11265 140 139 93 
0.118545 0.28798 3.96161 93 101 41 
0.135866 0.301743 4.00232 161 175 98 
0.085935 0.386804 3.89848 78 96 20 
0.0890156 0.321866 3.92788 77 110 0 
0.196681 0.185652 4.13865 191 112 107 
0.0675545 0.417158 3.85442 161 168 124 
0.0886002 0.397954 3.90269 54 64 14 
0.207101 0.270261 4.10599 47 54 3 
0.206254 0.265982 4.11511 169 171 132 
0.259237 0.284421 4.16081 118 124 52 
0.0613626 0.400854 3.84978 196 198 176 
0.107894 0.413897 3.91389 173 179 143 
0.163633 0.279298 4.06099 215 208 189 
0.171781 0.290503 4.05183 109 108 80 
0.0922463 0.420382 3.86242 38 44 8 
0.1883 0.295794 4.04125 166 183 105 
0.242738 0.605433 4.1845 163 113 2 
0.327223 0.352386 4.11744 63 56 38 
0.33838 0.318344 4.13764 60 68 0 
0.136082 0.339063 3.91677 217 226 159 
0.318923 0.250342 4.11463 140 144 93 
0.0420733 0.2398 3.98694 89 110 5 
0.081166 0.416387 3.86065 45 40 18 
0.215166 0.253742 4.06744 59 81 0 
0.0589347 0.384282 3.84493 133 130 121 
0.153497 0.265129 4.05877 75 71 46 
0.0973333 0.292282 4.01306 87 79 30 
0.343352 0.280063 4.15925 128 117 97 
0.0573682 0.396462 3.90096 168 172 139 
0.185071 0.221875 4.06691 106 123 43 
0.256631 0.414851 4.0092 39 32 0 
0.366416 0.311593 4.18467 109 102 58 
0.0507502 0.270357 3.94493 112 128 40 
0.234631 0.436414 3.98552 130 125 83 
0.16784 0.419206 3.97828 126 100 73 
0.382691 0.523592 3.98754 139 106 91 
0.451132 0.23647 4.17516 202 121 117 
0.293316 0.360062 4.08619 70 0 0 
0.4605 0.426011 4.15296 57 30 11 
0.313391 0.337695 4.11515 143 134 105 
0.0597181 0.296158 3.9087 211 220 131 
0.129892 0.418606 3.9229 146 147 103 
0.260884 0.376292 4.03397 138 96 82 
0.272754 0.338145 4.08289 76 59 49 
0.346157 0.258578 4.14892 168 90 80 
0.419683 0.312928 4.18466 111 107 69 
0.0726718 0.332986 3.97915 137 119 97 
0.3019 0.256463 4.13206 131 132 88 
0.0821088 0.340072 3.97353 94 85 46 
0.0709965 0.371181 3.92472 75 94 5 
0.363758 0.275035 4.1482 105 102 69 
0.36618 0.230081 4.1575 97 35 24 
0.293312 0.253001 4.14543 141 88 82 
0.269045 0.268417 4.12213 126 133 81 
0.0565502 0.40026 3.82243 37 37 25 
0.101134 0.344742 3.90731 162 183 106 
0.27838 0.430594 4.02404 108 89 57 
0.100875 0.287004 3.96189 114 115 58 
-0.0492974 0.385402 3.8137 116 112 109 
0.469141 0.386331 4.1746 119 120 42 
0.363321 0.346026 4.14562 114 117 38 
0.0106408 0.300688 3.91856 112 142 18 
0.00254934 0.36976 3.81275 116 112 85 
0.287879 0.27819 4.05902 105 110 69 
0.0824796 0.323063 3.90622 232 241 178 
0.323907 0.204978 4.15955 97 50 42 
0.318364 0.271395 4.1399 135 140 86 
0.274276 0.277136 4.11832 64 71 27 
0.378343 0.313773 4.18668 121 115 67 
0.199925 0.398076 3.99884 39 32 0 
0.36957 0.300314 4.17302 114 112 64 
0.289208 0.321009 4.10651 160 153 127 
0.391201 0.315592 4.15714 156 156 118 
0.055246 0.319777 3.97674 50 46 8 
0.158997 0.325004 4.02001 74 49 18 
0.0682532 0.419496 3.86673 158 123 104 
0.300597 0.334182 4.11135 148 138 111 
0.223665 0.371784 4.02967 96 61 41 
0.372859 0.38165 4.10321 53 0 0 
0.35812 0.284732 4.16046 126 120 94 
0.227915 0.240719 4.14128 108 61 53 
0.38689 0.366299 4.1373 156 149 120 
0.466618 0.370038 4.1792 42 47 0 
0.123981 0.386948 3.92372 142 168 61 
0.305238 0.437283 4.02831 112 98 63 
0.261788 0.446831 3.99558 134 115 83 
0.37368 0.359818 4.15467 121 122 44 
0.238776 0.482662 3.94962 83 70 61 
0.273432 0.51366 3.93694 109 80 72 
0.22345 0.471599 3.96043 122 86 70 
0.986996 0.534231 4.34659 115 111 38 
0.170002 0.248371 4.07947 98 116 17 
0.0621476 0.379459 3.83283 163 159 132 
0.230461 0.210413 4.10309 194 100 92 
0.216817 0.264149 4.05759 98 114 41 
2.62819 1.18377 4.79292 173 132 16 
0.454567 0.243902 4.16086 122 56 44 
0.0578441 0.279505 3.94492 165 183 97 
0.0929029 0.281434 3.96569 95 98 43 
0.0624355 0.36638 3.86422 30 37 3 
0.100194 0.2484 4.01656 152 151 105 
0.0416393 0.310794 3.92195 114 142 19 
0.178704 0.314712 3.99099 89 75 48 
0.0448818 0.296056 3.94866 45 41 4 
0.158913 0.231909 4.09248 68 81 2 
-0.0265517 0.388012 3.83431 165 170 130 
0.296949 0.27407 4.12932 131 139 82 
0.191971 0.287522 4.06228 226 219 193 
0.420698 0.301917 4.17525 126 120 94 
0.234831 0.326291 4.05344 206 189 169 
-0.00760449 0.395591 3.85246 149 124 102 
0.357275 0.304175 4.14501 164 164 130 
0.286557 0.271726 4.1507 38 35 4 
0.261449 0.300885 4.10636 159 168 87 
0.0123613 0.309365 3.96965 47 42 10 
0.107696 0.293155 4.03918 161 127 118 
0.292379 0.279647 4.15708 128 126 75 
0.209474 0.363671 4.02372 145 112 95 
0.30512 0.342768 4.10295 148 139 122 
0.440004 0.384223 4.14081 63 56 38 
0.526557 0.404508 4.17129 147 138 109 
0.334363 0.353008 4.12899 147 140 111 
0.29448 0.43319 4.02524 109 97 59 
0.431597 0.38168 4.15581 129 123 91 
0.264902 0.476048 3.96929 74 56 18 
0.289655 0.497352 3.95876 105 91 78 
0.250225 0.526971 3.93408 135 108 99 
0.713321 0.497716 4.23282 46 31 0 
0.127325 0.440227 3.93682 158 132 117 
0.300362 0.30646 4.13037 52 59 0 
0.333694 0.331545 4.11026 189 176 157 
0.274702 0.281363 4.13026 163 165 126 
0.117143 0.293527 4.03075 211 188 172 
0.179417 0.283784 4.05849 225 218 190 
-0.00557093 0.281935 3.91842 108 90 24 
0.100633 0.243278 4.03308 216 215 187 
0.118341 0.25531 4.01953 89 92 39 
0.0785129 0.225204 4.04177 169 194 92 
0.311761 0.309414 4.10879 89 100 31 
0.178381 0.250347 4.03578 121 122 90 
0.353142 0.248394 4.12562 141 74 65 
0.242597 0.324052 4.09158 161 150 130 
0.43363 0.360627 4.15868 139 146 50 
0.170025 0.194913 4.08245 208 129 125 
0.560195 0.450673 4.17337 19 12 0 
0.253533 0.47364 3.96768 74 56 18 
2.25683 1.07249 4.70422 200 158 22 
0.577504 0.4741 4.18748 120 95 65 
0.275828 0.492795 3.95824 105 91 78 
0.11683 0.332126 3.91015 227 238 170 
0.336139 0.399671 4.04709 141 108 91 
-0.0017866 0.389951 3.88648 183 170 154 
0.674655 0.487304 4.22393 45 28 0 
0.349977 0.357185 4.13446 144 135 106 
0.496559 0.356568 4.17516 41 44 0 
-0.0178156 0.349172 3.85508 178 184 158 
0.119725 0.248453 4.03504 222 221 193 
0.187158 0.216165 4.0758 187 204 124 
0.388216 0.348206 4.1471 141 147 61 
0.267532 0.342364 4.04887 85 70 27 
0.307433 0.368821 4.0171 67 75 24 
-0.0352527 0.273333 3.91276 108 90 24 
0.21345 0.462535 3.95914 79 53 26 
0.0354131 0.274324 3.93543 154 178 80 
0.665175 0.481685 4.19552 25 12 0 
0.660393 0.486098 4.21936 32 16 0 
0.68362 0.506219 4.20956 120 95 64 
-0.00261769 0.280505 3.97249 170 164 106 
0.414591 0.375204 4.14894 141 132 103 
-0.179125 0.333186 3.82115 44 38 26 
0.0333579 0.323568 3.96728 113 103 67 
0.586235 0.396073 4.1928 151 159 73 
0.0550424 0.349777 3.97622 53 27 10 
0.498511 0.431989 4.15965 19 12 0 
-0.149479 0.257913 3.94012 50 46 8 
0.449297 0.380307 4.1546 113 106 78 
-0.018616 0.2889 3.92344 178 204 77 
0.237374 0.40743 3.97892 162 179 85 
0.0383881 0.413534 3.9035 176 162 153 
0.232946 0.336669 4.08255 63 51 35 
0.369725 0.335405 4.14515 153 163 64 
0.0732726 0.222052 4.04993 160 179 74 
0.0413468 0.291291 3.95898 71 78 27 
0.445467 0.413338 4.15035 18 18 8 
0.425834 0.396618 4.15842 26 18 0 
0.990278 0.586827 4.27619 134 113 84 
0.234426 0.471895 3.9392 181 167 156 
0.204134 0.31193 4.05869 207 194 177 
-0.0394786 0.230199 4.02505 211 196 173 
2.00065 1.12572 4.50538 223 182 28 
0.0660471 0.317474 3.98322 52 43 14 
0.542163 0.428911 4.17992 25 19 5 
0.303258 0.372831 4.1176 18 8 0 
0.831296 0.546566 4.25638 38 26 4 
0.361864 0.320019 4.07126 118 121 68 
0.281727 0.304188 4.05636 124 131 61 
0.370889 0.33151 4.06868 186 200 113 
0.232133 0.316537 4.04744 83 90 36 
0.346795 0.358012 4.022 167 158 119 
0.402799 0.339378 4.05676 102 127 10 
0.506582 0.280476 4.185 134 70 68 
0.343652 0.315618 4.06852 89 92 39 
0.201907 0.430576 3.90359 63 67 42 
0.174507 0.430968 3.89241 175 169 157 
0.0921239 0.436535 3.92047 83 70 61 
0.273276 0.312902 4.06203 96 105 48 
0.257872 0.35893 3.99082 45 41 4 
0.25031 0.333449 4.01159 96 91 49 
0.249492 0.365013 3.97332 186 211 93 
0.478762 0.263164 4.18768 142 93 86 
0.391439 0.342071 4.05368 189 215 105 
0.280779 0.342829 4.01414 89 75 48 
0.164558 0.354673 3.99653 47 42 10 
0.165211 0.3079 4.05964 51 37 26 
0.136929 0.343889 4.00563 145 112 95 
0.0509954 0.376912 3.93997 55 65 5 
0.0378702 0.356354 3.97111 109 97 59 
0.0803142 0.44413 3.90758 30 9 6 
0.0563432 0.418296 3.92122 158 132 117 
0.0954935 0.374043 3.98114 121 113 67 
0.138648 0.377551 3.95818 162 179 83 
0.252637 0.325858 4.04044 159 179 82 
0.146488 0.335205 3.98345 171 189 87 
0.0973244 0.363804 3.98213 44 23 2 
0.283859 0.363949 4.028 170 164 106 
0.109099 0.398622 3.88168 37 37 29 
0.268651 0.301979 4.0517 124 131 61 
0.20635 0.240844 4.1166 135 140 86 
0.216891 0.272232 4.10397 56 64 13 
0.119033 0.294328 4.04883 76 59 49 
0.102818 0.330624 3.99923 141 108 91 
0.161457 0.398092 3.93064 142 168 61 
0.197186 0.226913 4.12685 161 102 98 
0.134446 0.290556 4.06997 152 141 119 
0.128363 0.412362 3.89984 138 146 105 
0.20831 0.447976 3.85657 115 113 100 
0.201138 0.445199 3.8746 181 179 164 
0.194993 0.290652 4.04695 96 105 48 
0.179276 0.236049 4.12178 126 120 94 
0.204173 0.45991 3.88447 149 124 102 
0.147131 0.320947 4.01442 71 42 12 
0.0951586 0.286399 4.045 51 37 26 
0.137426 0.276431 4.10614 35 41 0 
0.142821 0.29452 4.08845 147 138 109 
0.0835794 0.418005 3.93051 74 56 18 
0.135462 0.328821 3.98496 163 175 101 
0.163644 0.446471 3.86727 165 170 130 
0.193136 0.240092 4.12351 116 110 84 
0.107805 0.286969 4.08 144 135 106 
0.135394 0.27458 4.06736 197 185 163 
0.146519 0.264234 4.07238 72 80 20 
0.0928188 0.332385 3.99575 151 126 104 
0.128341 0.266896 4.06184 186 178 155 
0.130991 0.306946 4.05708 63 51 35 
0.369292 0.400144 4.0149 164 189 71 
0.158373 0.205896 4.08365 140 144 93 
0.135521 0.192923 4.09105 197 113 102 
0.0749699 0.247933 3.99777 93 114 9 
0.091214 0.252877 4.01676 124 131 61 
0.0198658 0.390579 3.84724 161 159 146 
0.0274503 0.388086 3.87455 174 168 156 
0.0300446 0.387035 3.8861 133 139 101 
0.0375179 0.381179 3.89371 72 83 27 
0.175831 0.221833 4.12279 161 102 98 
0.109894 0.267543 4.03042 96 105 48 
0.16649 0.221599 4.10673 105 102 69 
0.00772853 0.35802 3.87546 159 178 97 
0.107938 0.25795 4.03597 162 162 128 
0.0892815 0.255108 4.02722 176 182 134 
0.0855568 0.288429 3.97613 89 75 48 
0.139355 0.213622 4.09756 131 132 88 
0.0338756 0.363284 3.88091 171 198 91 
-0.0109344 0.358522 3.86501 59 64 41 
0.136973 0.226042 4.08858 68 81 2 
0.0433903 0.295993 3.96785 49 57 6 
-0.013675 0.393767 3.83841 165 170 130 
0.143977 0.305451 4.04688 161 127 118 
0.0115469 0.38055 3.86649 132 128 119 
-0.000159688 0.361625 3.86742 69 76 43 
0.225097 0.282019 4.11768 41 44 0 
-0.00219399 0.381736 3.83932 137 135 123 
0.187055 0.267606 4.05549 202 202 174 
0.14728 0.38018 3.98169 126 123 72 
0.121682 0.445844 3.92504 122 108 95 
0.10105 0.404991 3.90305 77 85 44 
0.165249 0.260965 4.04784 216 215 187 
0.17909 0.236585 4.09449 84 97 17 
0.185774 0.245801 4.10431 126 133 81 
0.158524 0.271086 4.04572 162 162 128 
0.183968 0.226309 4.10639 131 132 88 
0.147011 0.348397 4.00953 145 112 95 
0.160219 0.330196 3.97192 45 41 4 
1.00135 -0.104122 4.36984 255 255 236 
0.0352427 0.401095 3.8909 169 155 146 
0.15926 0.408626 3.89586 64 71 40 
-0.119852 0.377798 3.87866 56 38 36 
-0.504985 -0.516987 4.70255 216 194 170 
0.0775944 0.388489 3.86654 17 19 16 
0.119769 0.390961 3.93653 114 137 57 
0.0545136 0.435128 3.85737 120 92 71 
0.16467 0.39173 3.94815 115 141 54 
0.204508 0.387273 3.98221 54 66 0 
0.102298 0.422021 3.90664 169 155 146 
10.2204 4.88771 14.988 140 139 137 
10.111 4.87839 14.6243 136 133 126 
9.61498 4.3083 14.0493 117 106 60 
0.0753504 0.14732 4.04062 114 121 77 
0.0357066 0.138467 4.03817 164 180 118 
0.020378 0.146221 4.0331 108 128 41 
-0.018371 0.151512 4.00702 86 109 27 
-0.0151465 0.161125 4.00388 184 205 112 
0.0153146 0.18055 4.00322 84 92 41 
0.0852622 0.34981 3.85604 159 175 126 
0.137079 0.336872 3.90641 110 134 58 
9.55748 4.29877 13.5243 51 25 0 
0.098279 0.317322 3.91053 160 167 115 
0.0793739 0.376265 3.82844 102 101 80 
0.0856395 0.300293 3.93243 112 117 37 
0.108056 0.369082 3.86998 23 35 0 
0.0711651 0.308125 3.92774 102 130 30 
0.0863515 0.412833 3.81593 43 41 28 
10.7186 5.24824 13.4837 101 102 88 
10.7308 5.20869 13.4503 16 11 5 
0.00942165 0.331842 3.91881 76 104 4 
9.77228 4.71347 12.933 104 105 100 
4.41641 1.35137 5.36449 162 136 109 
10.0753 4.82562 13.0811 28 24 21 
0.0169458 0.405036 3.85543 144 109 90 
-0.156769 0.289615 3.88858 147 169 84 
-0.0282935 0.371461 3.88082 174 174 148 
-0.0615608 0.311746 3.93551 104 111 60 
-0.0892391 0.369856 3.8957 138 111 100 
-0.111871 0.378141 3.87128 106 90 90 
-0.0514665 0.4555 3.85448 95 90 87 
28.385 9.51063 12.4989 0 40 7 
-99.7158 -30.7013 -29.2141 75 88 78 
-151.501 -47.8089 -46.0898 22 34 22 
-116.922 -36.2355 -35.4009 35 43 32 
-284.502 -92.7922 -90.9186 100 72 68 
-360.775 -118.324 -116.369 97 93 81 
-63.1377 -23.8722 -12.7582 121 97 53 
-50.3921 -18.7137 -9.66673 117 102 61 
147.654 50.3545 54.3094 146 144 131 
112.041 38.4018 42.2901 148 159 142 
95.7813 33.1387 36.8859 102 126 110 
-79.5947 -25.2671 -25.0023 117 144 113 
-78.4824 -30.2235 -18.3165 140 123 103 
-48.6946 -17.2334 -11.3497 143 171 130 
-70.9576 -23.0177 -21.8324 94 76 38 
-32.7436 -11.8807 -5.98748 127 108 66 
-44.8937 -16.1103 -10.6273 56 80 28 
-76.4975 -26.4503 -23.422 65 81 36 
-59.0672 -23.8996 -16.2042 158 140 94 
-0.0372302 0.344191 3.88692 70 89 10 
-0.0576371 0.314901 3.91216 147 172 81 
0.0317393 0.360565 3.89035 153 176 86 
-75.5317 -24.5509 -23.3611 61 76 37 
7.68401 4.11405 8.51973 89 50 55 
0.087394 0.326536 3.88588 86 119 28 
0.152758 0.32796 3.90793 121 142 65 
2033.38 667.105 722.304 57 63 51 
77.9889 26.9494 30.8325 131 149 133 
-171.331 -52.9463 -54.6678 64 82 66 
2241.86 734.227 798.768 86 103 85 
9.39204 4.23551 13.4112 51 25 0 
10.9124 5.27501 13.5659 7 2 0 
8.06851 3.69646 12.3046 109 78 0 
9.63431 4.65587 12.8033 28 24 21 
0.19358 0.431975 3.83472 101 101 89 
-73.1391 -25.2492 -22.1859 76 89 43 
0.0260587 0.386824 3.83652 172 174 161 
0.0462673 0.343739 3.92642 76 104 4 
-0.040329 0.319924 3.91902 151 171 82 
-0.0499837 0.368441 3.86128 49 35 22 
-0.0497208 0.384002 3.87887 176 158 154 
-0.0392506 0.390841 3.88397 163 148 143 
-0.150426 0.344609 3.88474 68 46 22 
-0.107657 0.404045 3.86663 121 97 97 
0.104952 0.383746 3.89254 165 187 104 
29.8154 10.09 12.7748 68 83 54 
-106.504 -33.1176 -31.0231 79 93 80 
-141.042 -44.4742 -42.5928 22 34 22 
-107.164 -33.1806 -32.0493 35 43 32 
197.111 64.9291 69.5006 48 38 28 
-188.724 -61.3416 -58.3631 123 100 92 
-1486.45 -488.108 -493.989 114 104 94 
110.368 37.8373 41.7392 148 159 142 
-85.9085 -30.632 -21.8169 185 168 125 
0.194101 0.425147 3.85847 33 34 20 
12.6575 6.18053 17.1586 18 13 7 
312.496 105.521 113.538 52 63 49 
-82.2225 -31.7135 -19.4076 140 123 103 
10.3942 4.97864 15.1332 50 49 45 
0.0186971 0.277107 3.91824 107 102 34 
-62.6168 -20.2523 -18.6896 94 76 38 
-108.184 -43.283 -27.1867 86 65 38 
-43.088 -15.4539 -9.78197 57 74 29 
-42.5044 -15.196 -9.70191 150 170 121 
-48.2822 -17.3734 -11.7896 37 71 20 
10.9401 5.58631 13.4909 115 112 97 
-0.00457165 0.258475 3.92306 115 67 29 
0.0329645 0.304371 3.88527 110 133 61 
0.0598166 0.341942 3.85315 154 172 120 
-0.0189051 0.331257 3.80889 184 187 160 
-69.1101 -28.0904 -19.695 75 57 21 
0.0285467 0.276883 3.89608 119 137 63 
-71.552 -29.1611 -20.6578 160 142 96 
-0.0164089 0.171622 3.99621 84 92 41 
9.84202 4.70564 14.4125 23 20 11 
9.64377 4.54203 14.1762 21 20 16 
8.9855 4.02653 13.1806 70 46 0 
8.46695 3.8632 12.5901 221 204 135 
10.337 5.04399 13.2022 13 10 3 
9.10069 4.44413 12.4658 28 24 21 
-46.5448 -16.5521 -10.6211 70 58 18 
-48.046 -16.9883 -11.1178 153 171 129 
90.1682 31.1807 35.0036 142 163 146 
-52.5766 -19.5741 -10.276 86 70 34 
0.0375727 0.397686 3.80897 43 45 32 
8.70963 3.96157 12.9626 158 132 48 
-81.517 -28.2193 -25.2706 37 63 16 
-1063.58 -348.58 -352.241 115 98 90 
-569.791 -186.032 -185.789 121 101 94 
-0.0761438 0.356308 3.87301 177 177 153 
12.4228 4.08904 6.82495 189 144 85 
-0.0405443 0.385552 3.84185 131 104 83 
0.0196756 0.356233 3.87608 163 186 98 
-45.3944 -16.2986 -10.8036 56 80 28 
-39.754 -14.1952 -8.68917 42 70 29 
474.194 156.183 162.416 30 4 3 
-77.6297 -27.6061 -19.2651 185 168 125 
3.98625 1.22046 5.19372 228 204 180 
210.502 71.0217 76.639 77 67 58 
-1995.32 -661.246 -688.908 31 37 23 
-78.3338 -30.1949 -18.287 149 133 110 
-476.662 -159.85 -161.023 92 98 88 
-0.20732 0.325043 3.87321 77 56 27 
0.097474 0.30757 3.92665 167 197 97 
29.1054 9.85466 12.5834 66 111 72 
243.12 79.9684 84.6646 23 6 0 
10.9421 5.19594 15.5567 52 53 48 
-64.3095 -26.0698 -18.0071 75 57 21 
-95.9047 -29.5215 -27.9393 101 109 96 
-476.505 -160.191 -159.827 157 166 147 
-139.339 -43.9368 -42.0639 32 42 31 
-94.5339 -37.7161 -23.196 77 55 31 
10.3845 4.82879 14.7097 47 46 42 
61.1712 21.2776 25.2451 149 167 151 
102.589 35.2073 39.16 160 168 153 
0.075801 0.36068 3.8689 35 47 9 
0.105352 0.389193 3.86641 30 31 25 
6.57621 2.79374 10.555 34 34 26 
0.0233906 0.388504 3.894 164 167 138 
0.0365877 0.367276 3.86923 68 74 46 
26.5117 8.89061 11.9489 0 25 3 
-180.477 -56.3441 -55.8403 84 96 84 
-121.295 -38.1859 -35.9319 16 34 22 
1001.92 327.285 334.876 36 19 9 
11.0853 5.24974 15.6664 52 53 48 
267.634 90.1216 96.1618 77 67 58 
