ply                 
format ascii 1.0    
element vertex 932
property float x    
property float y    
property float z    
property uchar red  
property uchar green
property uchar blue 
end_header          
-13.8518 -2.37988 22.099 48 49 51 
-13.8518 -2.37988 22.099 48 49 51 
-13.5903 -2.7015 21.6991 166 166 154 
-13.0479 -2.89626 21.0904 80 80 80 
-12.9203 -2.80139 20.9753 51 49 50 
-12.0697 -3.02493 20.4212 19 16 27 
-11.9966 -3.69787 20.3031 10 11 13 
-15.7005 0.754966 26.8409 131 109 88 
-11.9657 -3.87394 20.4722 196 184 172 
-11.8614 -3.64222 20.4312 190 180 171 
-12.1872 -2.94305 21.05 81 77 76 
-11.8351 -3.82578 20.5824 93 84 85 
-11.4581 -3.1014 20.6032 58 58 58 
-12.9078 -6.13562 23.2941 102 90 78 
-12.9078 -6.13562 23.2941 102 90 78 
-11.3076 -3.69011 20.5163 199 189 177 
-11.4836 -3.17363 20.9788 187 177 167 
-11.1022 -4.03412 20.5185 97 93 92 
-11.1022 -4.03412 20.5185 97 93 92 
-11.1644 -3.57632 20.7584 48 47 52 
-11.1644 -3.57632 20.7584 48 47 52 
-11.1686 -3.77314 20.7956 169 159 149 
-11.1811 -3.31069 20.8782 199 187 173 
-11.1069 -4.26952 21.056 90 87 82 
-13.8693 -8.82844 26.4743 108 93 90 
-11.1157 -3.82218 21.1399 205 195 183 
-10.9951 -3.1334 20.9385 73 73 73 
-11.0773 -4.22688 21.2589 198 188 176 
-11.247 -6.06191 21.5923 45 39 39 
-11.0204 -4.53596 21.5899 212 200 188 
-11.2066 -6.55723 22.0819 251 234 190 
-10.58 -3.20854 20.8452 174 163 157 
-11.1151 -6.62415 22.1892 86 74 50 
-10.4622 -3.34069 20.8711 71 70 66 
-10.9987 -6.08049 22.0697 43 33 31 
-11.1267 -4.89586 22.3448 157 146 142 
-10.9843 -4.33209 22.3572 222 210 196 
-9.99771 -3.48071 20.415 211 201 189 
-10.8581 -4.82604 22.2956 179 166 158 
-10.7223 -6.31201 22.0709 57 48 43 
-9.95414 -3.50312 20.6087 140 127 121 
-10.5042 -6.48938 22.0104 244 227 184 
-9.82378 -3.63019 20.5739 219 208 190 
-9.31961 -2.90529 19.5133 28 34 30 
-10.6256 -6.7517 22.3303 94 81 65 
-9.77722 -4.03085 21.0726 166 154 142 
-10.4754 -7.06102 22.6641 252 237 198 
-10.4544 -5.19968 22.6236 53 44 37 
-8.77536 -2.97862 19.3503 33 124 155 
-10.1529 -6.7336 22.5559 74 59 56 
-9.76647 -5.03929 21.88 214 201 192 
-9.21076 -3.69187 20.7184 171 176 182 
-9.56285 -4.81721 21.6599 112 108 97 
-1.79134 -0.050515 4.67218 253 229 191 
-1.61226 -0.206804 4.48477 192 152 28 
-1.61165 -0.207921 4.4836 200 159 15 
-1.61037 -0.191629 4.48217 243 223 196 
-1.62256 -0.258519 4.52977 255 249 68 
-1.47773 -0.204464 4.73295 199 143 8 
-1.46551 -0.294371 4.70461 168 108 0 
-1.47583 -0.218224 4.75049 197 142 15 
-1.43515 -0.222485 4.73845 45 23 10 
-1.43515 -0.222485 4.73845 45 23 10 
-1.4577 -0.0870815 4.91714 164 112 2 
-1.62845 0.82989 5.66201 110 110 100 
-1.5396 1.02366 5.53023 142 133 124 
-1.57577 0.799951 5.71298 113 106 90 
-1.53946 0.793081 5.71123 120 116 107 
-1.29562 -0.133132 4.78881 162 113 10 
-1.30922 -0.03223 4.87833 164 137 66 
-1.29102 -0.361767 4.8527 123 117 103 
-1.26902 -0.0529396 4.85486 128 122 106 
-1.25813 -0.146707 4.81559 19 16 0 
-1.26549 -0.078163 4.84901 13 12 10 
-1.25947 -0.136943 4.82368 21 21 11 
-1.61618 0.501377 6.36099 183 180 165 
-1.61532 0.501169 6.35891 182 178 166 
-1.26038 -0.303723 4.84497 106 100 100 
-1.26038 -0.303723 4.84497 106 100 100 
-1.44034 0.82162 5.6257 179 172 154 
-1.58845 0.525827 6.3112 187 178 163 
-1.58845 0.525827 6.3112 187 178 163 
-1.25457 -0.025213 4.87365 153 146 140 
-1.58832 0.493318 6.3743 53 52 47 
-1.4144 0.817844 5.64779 164 161 146 
-1.41543 0.799359 5.65463 39 34 31 
-1.55463 0.508959 6.3157 182 177 158 
-1.53443 0.534005 6.27463 184 172 156 
-1.52527 0.50124 6.33335 47 46 41 
-1.47079 0.160389 6.21227 16 8 6 
-1.39263 0.734269 5.87674 42 36 36 
-1.39263 0.734269 5.87674 42 36 36 
-1.46829 0.605821 6.27684 110 102 91 
-1.27799 0.940156 5.38292 156 153 144 
-1.38002 0.749799 5.86319 160 153 143 
-1.44543 0.580712 6.26992 51 43 32 
-1.44543 0.580712 6.26992 51 43 32 
-1.32501 0.732686 5.89733 54 50 41 
-1.32501 0.732686 5.89733 54 50 41 
-1.40987 0.487623 6.37836 60 55 49 
-1.34469 0.650883 6.16431 49 45 33 
-1.33796 0.667267 6.13904 118 114 102 
-1.37817 0.487848 6.3783 151 143 130 
-0.939903 -1.04432 4.38133 176 144 103 
-0.925887 -0.733492 4.31662 139 104 48 
-1.11633 0.910022 5.35338 171 164 146 
-1.08619 0.901245 5.31667 172 166 152 
-0.909761 -1.05869 4.38626 194 151 109 
-1.06328 0.911937 5.32067 152 150 137 
-0.8344 -0.687398 4.18665 0 67 6 
-0.756348 -0.526737 3.7372 229 203 146 
-0.752852 -0.523623 3.74208 107 79 31 
-1.01675 0.92667 5.29037 82 75 67 
-0.978546 1.01104 5.23065 69 68 63 
-1.01351 0.700913 5.51689 212 163 26 
-0.863177 1.19988 4.69943 179 172 164 
-0.702579 -0.486012 3.7862 171 143 93 
-0.933011 0.844337 5.32068 150 136 125 
-0.689271 -0.515159 3.78984 174 151 107 
-0.681818 -0.534106 3.79261 195 171 127 
-0.681455 -0.525107 3.79443 199 179 126 
-0.903959 0.8271 5.29404 139 123 107 
-0.903169 0.846273 5.31197 167 154 137 
-0.882978 0.943877 5.19117 85 26 28 
-0.887739 0.867838 5.33589 32 29 24 
-0.781697 1.10022 4.7918 121 114 96 
-0.761331 1.08724 4.73849 122 115 99 
-0.846814 0.859186 5.35505 38 19 2 
-0.806496 0.996285 5.1378 130 123 117 
-0.721775 1.15822 4.69968 173 166 156 
-0.626474 -0.225353 4.014 106 83 52 
-0.765365 0.998697 5.112 63 60 55 
-0.765365 0.998697 5.112 63 60 55 
-0.590971 -0.509083 3.8069 234 208 157 
-0.674714 1.14019 4.6875 173 169 158 
-0.671479 1.10039 4.68136 191 178 169 
-0.74442 0.29139 5.29033 122 65 0 
-0.70369 1.02129 5.08817 29 28 33 
-0.560696 -0.642924 4.03881 102 119 100 
-0.70521 0.421244 5.27473 31 0 0 
-0.65083 1.0984 4.86135 208 177 159 
-0.550269 -0.636557 4.03047 0 35 0 
-0.550269 -0.636557 4.03047 0 35 0 
-0.525699 -0.504544 3.86104 80 100 39 
-0.705154 1.22019 5.45821 123 97 80 
-0.622805 -0.025464 4.74464 82 58 20 
-0.527792 -0.681836 4.00428 153 133 126 
-0.595033 1.16345 4.66858 60 64 65 
-0.362045 -0.248368 2.53954 26 0 0 
-0.609574 1.10107 4.84642 126 100 75 
-0.518866 -0.673655 4.02051 6 19 12 
-0.500317 -0.720571 4.00068 14 62 46 
-0.586049 1.09683 4.83961 125 99 76 
-0.497785 -1.17134 4.11593 168 14 38 
-0.486829 -0.707237 4.01709 146 161 168 
-0.474648 -0.526725 3.92304 83 103 42 
-0.573692 1.07761 4.92817 120 101 84 
-0.563047 1.10555 4.82545 160 143 127 
-0.563047 1.10555 4.82545 160 143 127 
-0.572699 1.07666 4.92505 120 101 84 
-0.478001 -0.668194 4.03742 131 167 163 
-0.475115 -0.732924 4.01252 142 178 164 
-0.52053 1.26494 4.5273 72 75 84 
-0.541702 1.09171 4.85861 121 96 76 
-0.530772 1.09364 4.85473 186 157 143 
-0.495504 1.26195 4.54021 32 34 46 
-0.442764 -0.551679 3.97999 37 66 12 
-0.442764 -0.551679 3.97999 37 66 12 
-0.517478 1.08263 4.90819 182 155 144 
-0.517478 1.08263 4.90819 182 155 144 
-0.419091 -0.880579 3.8346 168 3 19 
-0.481128 1.12384 4.68223 182 141 62 
-0.415311 -0.31375 4.17827 86 64 40 
-0.409989 -0.312773 4.16303 84 62 38 
-0.392343 -0.648704 4.03401 187 196 149 
-0.392343 -0.648704 4.03401 187 196 149 
-0.357321 -0.931364 4.18357 8 66 25 
-0.345928 -0.862789 4.08748 102 180 105 
-0.349551 -0.927501 4.17963 75 165 101 
-0.335881 -0.621381 4.00999 205 177 127 
-0.339636 -0.930529 4.18486 0 90 19 
-0.332662 -0.936969 4.18052 114 204 132 
-0.29134 -0.16697 4.36347 148 148 140 
-0.286225 1.06441 4.85502 117 116 112 
-0.260949 -0.178488 4.389 156 155 151 
-0.235564 0.576222 3.97363 233 211 187 
-0.257291 1.07346 4.8394 112 111 107 
-0.219247 1.08075 4.83062 54 54 56 
-0.206995 -0.0225472 4.56222 186 156 94 
-0.188082 0.630849 3.98538 74 22 11 
-0.191103 -0.211843 4.61454 132 120 80 
-0.179936 -0.368354 4.44631 10 10 10 
-0.177223 -0.387066 4.44593 86 87 82 
-0.177589 -0.351107 4.45938 74 73 68 
-0.177589 -0.351107 4.45938 74 73 68 
-0.175505 1.03219 4.78402 64 17 11 
-0.175505 1.03219 4.78402 64 17 11 
-0.160939 0.342978 4.24663 164 88 4 
-0.160939 0.342978 4.24663 164 88 4 
-0.16515 -0.791 4.6274 133 129 100 
-0.150582 0.347952 4.24075 221 164 25 
-0.15794 1.01594 4.78667 46 1 0 
-0.156099 1.02325 4.78182 147 109 62 
-0.126101 -1.04686 3.92476 245 225 175 
-0.134683 -0.350349 4.46934 115 113 114 
-0.125008 -1.01265 5.09285 180 128 91 
-0.12411 -1.03672 5.41754 10 95 53 
-0.101633 -1.03179 3.94257 150 133 87 
-0.100243 0.519117 4.19853 187 129 29 
-0.108773 0.992306 4.87658 114 81 38 
-0.0780526 0.427289 4.19915 192 135 2 
-0.0656157 -0.293731 4.45401 192 163 59 
-0.0674643 -1.04277 5.08942 165 151 125 
-0.067327 1.03891 4.75779 115 108 100 
-0.0613941 -0.310539 4.45983 186 163 87 
-0.0562801 1.03441 4.75581 122 114 111 
-0.0471813 -0.962153 4.98809 20 62 24 
-0.0407277 -0.970477 4.99011 114 155 115 
-0.0357004 -0.686152 4.54898 151 141 114 
-0.0368131 1.03534 4.76601 72 69 62 
-0.0368131 1.03534 4.76601 72 69 62 
-0.0278789 -0.958478 4.96689 1 86 45 
-0.00080558 -0.961624 5.01205 71 162 118 
-0.00429504 0.988461 4.83864 26 26 28 
0.000220002 -0.155236 4.35469 20 18 5 
0.00574349 0.128724 4.24268 52 51 49 
0.00619595 0.163223 4.20712 127 120 102 
0.0113319 1.10074 4.6961 64 65 67 
0.0120679 0.15587 4.20695 19 15 3 
0.0208984 0.102998 4.2673 155 151 140 
0.0309689 0.14542 4.20706 21 17 14 
0.0427662 0.971658 4.81256 32 27 21 
0.0422263 1.01975 4.771 143 137 125 
0.0553588 -0.570757 4.64235 138 88 0 
0.0491928 -0.111554 4.29723 187 183 174 
0.0491928 -0.111554 4.29723 187 183 174 
0.0554171 -0.105076 4.30012 82 78 69 
0.0765868 1.04526 4.71495 96 95 90 
0.0689142 0.102659 4.25387 36 26 14 
0.0744015 -0.381143 4.4356 203 154 0 
0.0753347 -0.1233 4.30112 158 157 153 
0.0776942 0.514291 4.16611 236 187 32 
0.0776942 0.514291 4.16611 236 187 32 
0.0743822 0.239635 3.93203 174 141 48 
0.0850148 0.517723 4.17171 235 187 27 
0.108339 1.01798 4.77358 163 158 152 
0.114949 0.893279 4.78094 193 177 161 
0.141451 -0.83593 4.85253 90 167 125 
0.1381 1.05412 4.68433 107 103 102 
0.125961 0.57454 4.10705 184 137 0 
0.136403 0.457836 4.13722 161 107 0 
0.152128 -0.193867 4.29944 210 170 10 
0.175287 0.975676 4.775 44 41 32 
0.175287 0.975676 4.775 44 41 32 
0.154644 0.298017 4.13676 244 197 33 
0.161595 0.128499 4.26649 233 206 89 
0.157442 0.535657 4.14651 233 197 49 
0.171694 -0.182045 4.33138 26 11 0 
0.175026 0.0496696 4.39854 210 156 21 
0.198409 0.953957 4.77752 149 144 125 
0.207077 -0.833278 4.88332 12 100 50 
0.207077 -0.833278 4.88332 12 100 50 
0.191084 1.13246 4.59392 146 139 133 
0.180003 0.0993796 4.2735 244 207 28 
0.189628 -0.0525187 4.33818 206 173 58 
0.189838 -0.185094 4.33653 22 16 0 
0.192584 -0.0652833 4.35249 18 9 0 
0.188694 -0.120287 4.26721 107 106 88 
0.197336 0.0453461 4.38402 168 99 8 
0.198674 0.0454421 4.37716 167 98 7 
0.228204 -0.842 4.9048 71 59 9 
0.188827 0.274669 4.1592 251 222 22 
0.198989 -0.199594 4.34237 205 170 42 
0.210142 0.0627236 4.37166 250 213 37 
0.243449 1.19386 4.58784 69 67 70 
0.227434 0.268687 4.19936 27 24 17 
0.227434 0.268687 4.19936 27 24 17 
0.26475 0.852178 4.82963 206 163 33 
0.273559 -0.869983 4.92553 169 146 115 
0.253571 1.1472 4.58282 78 79 81 
0.260569 1.0706 4.61578 101 101 99 
0.274285 0.855262 4.83038 207 160 8 
0.283538 -0.796623 4.8876 146 160 125 
0.263927 1.10525 4.56695 161 157 148 
0.247147 0.19498 4.27627 208 178 68 
0.286465 0.752202 4.91202 173 121 11 
0.285913 -0.781754 4.87118 16 101 62 
0.292502 0.70629 4.88822 228 186 42 
0.267002 -0.219481 4.37838 200 170 12 
0.304418 -0.772738 4.88886 16 86 50 
0.306466 0.761695 4.89714 230 185 6 
0.306902 0.968064 4.86175 124 114 55 
0.324813 -0.521538 4.85912 73 59 46 
0.329972 0.96992 4.86846 159 138 73 
0.306508 -0.217628 4.38609 61 49 23 
0.377706 0.953432 4.94484 34 24 0 
0.334103 -0.147286 4.36099 73 71 74 
0.343136 -0.163959 4.36538 193 190 185 
0.349402 -0.155524 4.36806 109 106 101 
0.410178 -0.420558 4.91468 183 166 146 
0.41023 -0.420864 4.91405 185 168 148 
0.419122 -0.424083 4.91769 87 70 50 
0.386158 1.12083 4.49667 159 150 145 
0.436616 -0.430719 4.91634 97 80 72 
0.436616 -0.430719 4.91634 97 80 72 
0.416478 1.04734 4.71351 89 85 76 
0.420424 1.06115 4.64419 137 131 119 
0.423533 1.12114 4.49192 157 153 142 
0.513379 -0.0890891 5.24127 171 150 121 
0.528536 -0.625036 5.28648 171 152 122 
0.537312 -0.0962974 5.23417 196 178 156 
0.475355 1.23712 4.47265 126 124 125 
0.478594 1.26102 4.48002 82 78 79 
0.492055 1.13446 4.4373 164 158 146 
0.503534 1.08875 4.49884 173 167 155 
0.537059 1.0272 4.69433 55 52 47 
0.529818 1.07873 4.54068 114 107 97 
0.529638 1.27528 4.47023 98 93 97 
0.5393 1.07551 4.53504 173 169 158 
0.62254 0.895122 5.08958 44 41 36 
0.589478 0.996472 4.80985 45 42 37 
0.596691 0.979984 4.83463 115 111 108 
0.549764 1.10972 4.45131 97 95 98 
0.620974 1.25938 4.85245 23 26 33 
0.62589 1.37219 4.88574 86 87 92 
0.650029 0.906102 5.06896 38 42 41 
0.577338 1.13175 4.43009 170 161 154 
0.584001 1.12553 4.46923 162 158 157 
0.588646 1.11772 4.46759 60 58 61 
0.600281 1.07372 4.51197 94 90 79 
0.595562 1.25685 4.46658 59 60 65 
0.679635 0.916435 5.09364 36 35 40 
0.59925 1.10746 4.45194 162 158 155 
0.674074 0.965667 4.9219 35 30 34 
0.619895 1.1095 4.46844 174 164 162 
0.619895 1.1095 4.46844 174 164 162 
0.714473 0.922461 5.12338 91 93 90 
0.738708 0.885285 5.16049 112 110 98 
0.654916 1.14461 4.44759 28 28 38 
0.65997 1.2458 4.4713 72 75 80 
0.672889 1.20001 4.49308 74 77 84 
0.728273 0.99856 4.82209 40 35 31 
0.683986 1.24658 4.49361 68 71 76 
0.681062 1.14343 4.46449 14 14 22 
0.696032 1.09803 4.521 172 168 159 
0.705993 1.13505 4.50283 167 163 164 
0.732181 1.04571 4.66337 163 160 151 
0.816292 1.02702 4.77003 175 172 157 
0.847447 0.992266 4.86143 76 76 78 
0.85837 1.01045 4.81184 182 180 168 
0.871904 1.04663 4.79877 130 131 133 
0.874806 1.00809 4.80919 99 97 100 
0.907765 0.971378 4.92849 123 123 115 
0.950708 0.937247 4.99022 51 48 43 
0.995278 0.850206 4.97933 58 59 53 
1.03884 0.825534 4.95804 34 33 28 
1.06148 0.869769 4.89537 123 122 117 
1.01841 -0.0111243 4.59357 48 1 0 
1.09506 0.860097 4.89334 50 50 48 
1.02858 0.0726558 4.57667 58 12 12 
1.02729 0.0327425 4.56047 42 0 0 
1.04097 0.0978679 4.57836 97 47 50 
1.05705 -0.281349 4.64537 37 30 20 
1.04696 0.0775712 4.5762 39 8 6 
1.05823 -0.00107157 4.56961 41 16 12 
1.06616 0.0989617 4.56479 48 0 0 
1.06241 0.0547886 4.54595 60 7 1 
1.05992 -0.0926867 4.53244 208 159 41 
1.07225 0.0781691 4.55358 52 22 20 
1.07272 0.0983062 4.55313 106 45 53 
1.07272 0.0983062 4.55313 106 45 53 
1.14525 0.865101 4.86292 61 63 62 
1.08107 0.0874142 4.55085 112 46 47 
1.08086 0.0573988 4.53531 50 0 0 
1.13688 0.558641 4.75174 77 24 32 
1.18943 0.389759 4.72982 119 120 125 
1.19916 0.430527 4.74075 7 11 10 
1.20123 0.405119 4.74691 23 21 26 
1.20116 0.40493 4.74499 23 21 26 
1.17003 0.0191055 4.61176 57 58 62 
1.17 0.0301616 4.60127 17 16 22 
1.18402 0.017857 4.61934 66 66 68 
1.19272 -0.244784 4.65287 13 15 14 
1.24206 0.961899 4.85067 141 140 145 
1.1901 0.0285318 4.61643 5 6 11 
1.14799 -0.884311 4.43685 56 52 40 
1.18834 -0.147405 4.55992 0 0 2 
1.30671 1.06055 5.01352 91 91 101 
1.2015 -0.145007 4.55662 120 121 125 
1.21722 -0.286076 4.61634 103 101 88 
1.30786 -0.169977 4.67261 196 169 102 
1.32563 -0.0951182 4.59214 184 151 74 
7.2655 -3.61836 20.4092 63 60 55 
-0.622853 -0.636638 4.04131 0 64 26 
-0.626833 1.17 4.705 161 163 160 
-0.542514 -0.658549 4.07541 180 173 155 
-0.607329 1.20553 4.69301 175 171 159 
-0.567187 1.11413 4.86673 160 143 127 
-0.525609 1.27812 4.57927 72 75 84 
-0.551583 1.11272 4.87653 58 32 19 
-0.535054 1.10264 4.9 186 157 143 
-0.123542 -0.401377 4.49773 169 169 161 
-0.124912 -1.01162 5.09607 180 128 91 
-0.0294565 -0.95585 5.00509 58 151 104 
0.117783 -0.386761 4.43119 216 170 0 
0.151885 -0.185096 4.32785 213 171 33 
0.150637 0.550509 4.18515 240 207 34 
0.196728 -0.640836 4.55169 206 188 176 
0.268826 -0.219252 4.40421 200 170 12 
0.29581 -0.179837 4.39526 11 10 8 
0.3409 0.979638 4.90921 87 76 48 
0.337837 1.05327 4.68941 166 160 148 
0.319313 1.44435 4.03169 172 157 152 
0.420174 -0.425278 4.92989 87 70 50 
0.438004 -0.432104 4.93154 97 80 72 
0.546916 1.08919 4.58931 169 162 152 
0.602329 1.32391 4.69819 86 87 92 
0.599737 1.16528 4.48523 17 20 27 
0.607159 1.12153 4.51094 162 158 155 
1.03618 0.0931029 4.61574 105 53 55 
1.1311 0.894899 4.87962 119 117 118 
1.13012 -0.123301 4.5513 207 181 107 
1.20595 0.419883 4.77847 70 68 73 
1.17338 0.0183165 4.62615 57 58 62 
1.17692 0.0297412 4.63033 17 16 22 
1.1959 -0.148996 4.5908 0 0 2 
-16.1716 0.712744 19.1481 35 34 29 
-13.9869 1.59159 17.7243 68 59 52 
-1.74767 -0.122831 4.6251 255 232 190 
-10.9257 -6.7899 21.0144 35 31 32 
-10.6016 -6.42508 20.5277 64 58 58 
-10.7867 -7.03233 21.0023 99 89 80 
-1.50796 -0.220004 4.81096 188 140 12 
-8.9309 -5.39027 18.3312 89 75 48 
-1.47018 -0.223746 4.80549 44 11 6 
-8.84904 -5.69435 18.611 253 235 199 
-0.799509 -0.534682 3.83895 114 86 62 
-0.799073 -0.528728 3.84707 136 110 95 
-0.77099 -0.531163 3.83581 48 32 16 
-1.48843 0.86426 5.56274 171 163 142 
-1.46712 0.857609 5.53296 170 162 141 
-0.762745 -0.518657 3.88381 37 26 20 
-0.767104 -0.604411 3.92129 240 210 156 
-1.43917 0.813813 5.64328 57 50 42 
-0.722352 -0.544513 3.88162 188 163 132 
-7.8403 -6.12755 19.0601 149 130 100 
-1.31124 1.06459 5.44408 160 147 138 
-1.41887 0.801367 5.66274 32 29 24 
-1.69772 0.609826 6.39074 222 206 193 
-1.67631 0.555893 6.36793 142 133 124 
-7.61044 -6.61093 19.2531 74 64 55 
-7.58599 -6.59418 19.2073 74 64 55 
-1.57176 0.523212 6.27158 184 177 161 
-0.889514 1.22036 4.76532 180 176 164 
-7.353 -6.47308 19.0347 220 197 166 
-0.880133 1.20048 4.77654 94 89 95 
-0.561042 -0.499195 3.93932 195 173 115 
-0.808539 1.11937 4.86289 116 114 102 
-0.704586 1.22857 4.69717 117 111 113 
-0.694219 1.21249 4.71391 110 106 107 
-0.568552 -0.657432 4.10152 159 168 149 
-0.590023 -0.274128 4.22279 88 62 49 
-0.562022 -0.686624 4.08935 29 14 7 
-0.672851 1.19911 4.70388 171 170 165 
-0.533106 -0.674158 4.10041 45 4 10 
-0.647157 1.17951 4.73572 168 168 168 
-0.515578 -0.739156 4.08356 145 163 165 
-0.630247 1.21417 4.72732 165 162 155 
-0.516137 -0.720068 4.09391 146 156 165 
-0.741006 1.08144 5.0371 120 82 11 
-0.579641 1.24275 4.62947 82 79 86 
-0.508215 -0.679746 4.11765 130 164 166 
-0.471282 -0.560091 4.05668 44 84 34 
-0.552787 1.29306 4.6207 44 46 58 
-0.67616 1.11799 4.93486 205 179 166 
-0.460974 -0.601095 4.07 22 82 46 
-0.667572 1.1191 4.95001 123 96 75 
-0.523491 1.28787 4.62337 40 42 55 
-0.404224 -0.537465 4.02879 102 83 53 
-0.587653 1.12425 4.89954 152 136 120 
-0.3328 1.42105 4.273 152 137 132 
-0.568628 1.12197 4.90421 68 39 21 
-0.482767 1.21595 4.67214 43 41 44 
-0.474663 1.23065 4.665 133 132 137 
-0.400269 -0.649214 4.10341 90 66 20 
-0.557042 1.11391 4.93598 189 158 137 
-0.376635 -0.642875 4.09188 114 87 42 
-0.535334 1.09501 4.96384 175 151 139 
-0.386861 -0.886808 4.15069 60 179 95 
-0.337515 -0.786966 4.15805 135 71 35 
-0.445907 0.00685381 4.69559 88 64 30 
-0.397825 1.22128 4.81369 40 39 53 
-0.35901 -0.260595 4.39469 141 126 107 
-0.466721 1.08898 5.01894 64 12 16 
-0.301229 -0.668187 4.18242 151 134 106 
-0.413079 1.09173 4.96847 113 85 37 
-0.32091 -0.123924 4.42826 78 75 70 
-0.311525 -0.129375 4.4248 160 160 160 
-0.275212 -0.472299 4.24373 60 36 12 
-0.298973 -0.174686 4.43013 31 30 26 
-0.303782 -0.138572 4.45906 106 114 117 
-0.266926 -0.138874 4.45374 158 158 158 
-4.35706 -5.45003 17.3565 77 59 49 
-0.260787 1.21674 4.88008 142 131 129 
-0.259186 -0.0847417 4.59249 74 46 6 
-0.244287 -0.0559643 4.59912 175 144 97 
-0.126028 -1.05263 4.0272 150 128 87 
-0.106943 0.199386 4.34143 229 194 40 
-0.175099 1.04169 4.85821 136 101 47 
-0.160128 1.06039 4.83829 98 74 38 
-0.152114 -0.406491 4.55003 159 156 151 
0.00417496 0.544162 4.24344 129 73 0 
-0.132918 -0.338071 4.60469 0 0 0 
0.0181453 0.524331 4.26367 139 82 0 
-0.0803568 1.05619 4.84707 116 109 103 
-0.0750658 1.05283 4.83682 120 115 111 
-0.0647302 1.06534 4.83465 63 58 54 
0.0243813 0.15602 4.28336 12 10 15 
-0.0551682 -0.323452 4.49678 19 3 4 
0.0704176 0.537138 4.24012 180 121 0 
-0.017787 -0.301753 4.4696 239 195 44 
-0.164303 -1.02203 5.00744 149 134 113 
0.123669 0.551527 4.21666 182 125 0 
-0.147295 -0.960639 4.97021 45 61 24 
0.0558895 -0.0572047 4.37611 126 123 108 
0.0565826 -0.134499 4.36316 3 2 0 
0.0336296 0.982957 4.8578 27 24 19 
0.0674496 -0.13085 4.37242 6 8 5 
0.147325 0.443244 4.21123 158 91 4 
-0.125819 -1.02411 5.02177 43 27 12 
0.149206 0.279453 4.24173 157 108 0 
0.0969915 1.07632 4.73828 162 159 142 
0.152754 0.258667 4.24541 237 208 82 
0.102618 1.08579 4.74537 170 167 160 
0.170052 0.281701 4.25059 250 225 45 
0.183687 0.379823 4.23964 229 192 13 
0.176164 0.268334 4.25006 61 46 13 
0.0694997 -0.316551 4.59038 233 188 11 
0.11674 1.03206 4.83877 84 83 81 
0.164912 0.134666 4.32965 225 183 11 
0.204587 0.315768 4.27354 203 179 71 
0.204573 0.286795 4.26576 21 21 13 
0.160224 -0.182561 4.38964 23 17 5 
0.12983 0.869001 4.91012 175 129 7 
0.0223871 -0.942678 4.8994 64 155 112 
0.181705 -0.0649658 4.40851 22 14 1 
0.212277 0.065698 4.44196 138 68 8 
0.234343 0.949027 4.8082 214 209 205 
0.240825 0.921625 4.85613 198 184 175 
0.223671 0.787607 4.91161 227 183 14 
0.261717 0.963025 4.8161 131 126 132 
0.240778 0.84741 4.92193 176 118 0 
0.28103 -0.199838 4.42807 21 19 20 
0.255874 0.450982 4.85268 219 173 28 
0.302382 -0.100903 4.4233 15 13 14 
0.286259 0.499254 4.86663 212 170 36 
0.290013 0.487103 4.86676 160 114 3 
0.349764 1.06785 4.74442 110 107 114 
0.295887 0.505375 4.87594 159 118 0 
0.213998 -0.787541 4.87137 130 189 157 
0.356683 1.07139 4.7723 55 55 57 
0.303833 0.506277 4.89426 183 149 52 
0.320089 0.815503 5.00915 179 126 0 
0.31351 0.441181 4.89039 191 144 26 
0.22437 -0.845169 4.92846 45 41 0 
0.318854 0.404123 4.8929 141 82 24 
0.340765 -0.042221 4.5684 174 133 5 
0.332499 0.511525 4.9026 172 140 27 
0.359812 0.97004 4.98019 91 77 50 
0.376835 0.973749 4.99473 114 106 93 
0.380053 0.964486 5.00361 108 102 86 
0.300753 -0.452022 4.92023 186 169 151 
0.310256 -0.404605 4.96431 191 172 157 
0.300592 -0.775575 4.9151 0 83 48 
0.324111 -0.490068 4.91498 164 150 150 
0.405614 0.934684 5.08361 72 61 41 
0.350261 -0.76026 4.95678 6 86 51 
0.377121 0.0300008 5.17823 219 180 23 
0.537506 1.14894 4.54676 151 148 143 
0.539155 1.13565 4.5485 83 83 83 
0.530034 1.10179 4.63066 165 161 150 
0.449909 0.906266 5.22089 50 49 47 
0.545067 1.11264 4.59261 165 157 146 
0.404473 -0.521067 4.86121 101 86 67 
0.567264 1.15867 4.5279 158 154 142 
0.35973 -1.10742 4.97689 245 221 159 
0.620461 1.38649 4.31114 173 158 155 
0.579694 1.14276 4.55854 35 32 39 
0.489089 0.906018 5.24527 154 150 138 
0.384833 -1.10184 4.95463 182 158 98 
0.433443 -0.431888 4.94316 95 79 63 
0.589341 1.13616 4.55545 157 152 149 
0.599341 1.28206 4.55807 127 127 139 
0.593992 1.12624 4.55561 90 87 94 
0.396938 -1.09892 4.95338 154 134 81 
0.398806 -1.09531 4.98295 151 130 87 
0.447371 -0.299767 5.04526 136 123 107 
0.645772 1.379 4.32808 182 164 162 
0.403555 -1.08397 4.97296 215 191 153 
0.444109 -0.0812242 5.27008 33 14 0 
0.484511 0.822232 5.47925 162 158 146 
0.607541 1.1268 4.56766 86 83 92 
0.617526 1.1316 4.56519 156 158 157 
0.579487 1.01256 4.84829 46 45 43 
0.626489 1.10182 4.61623 169 161 150 
0.651959 1.27534 4.5685 68 68 78 
0.665929 1.22847 4.58489 72 72 80 
0.606138 0.957305 5.0642 41 41 41 
0.52289 -0.0835903 5.2496 94 73 44 
0.704131 1.2807 4.59684 82 79 88 
0.528758 -0.624658 5.28414 168 139 105 
0.669214 0.938213 5.09558 118 113 94 
0.558192 -0.569573 5.37757 151 136 103 
0.569052 -0.321623 5.57376 212 199 155 
0.572973 -0.3076 5.58131 36 22 0 
0.708656 0.939718 5.13728 96 91 87 
0.768048 1.14222 4.66608 165 164 169 
0.7369 0.892144 5.19382 113 109 98 
0.774727 1.04979 4.84676 118 119 124 
0.750017 0.91272 5.15832 22 21 26 
0.754291 0.938913 5.13212 117 108 101 
0.814484 1.0259 4.87367 52 55 60 
0.788189 0.848031 5.34288 74 70 61 
0.834973 1.02583 4.86904 169 166 157 
0.818898 0.857071 5.34209 83 77 65 
0.873775 1.01945 4.89155 101 96 100 
0.877732 1.03624 4.87676 172 173 165 
0.876544 0.987545 5.00078 58 61 68 
0.893652 1.05844 4.90379 44 47 54 
1.01947 0.032573 4.62337 95 56 49 
1.12362 0.890706 4.92871 171 168 163 
1.06295 0.0570877 4.60811 61 15 2 
1.0727 0.0419796 4.59572 56 0 0 
1.14507 0.433964 4.77009 26 10 11 
1.11273 0.00291114 4.59879 48 0 0 
1.20243 1.14647 4.98218 84 85 90 
1.21458 0.897519 4.91488 73 73 73 
1.22185 0.961613 4.88263 68 67 81 
1.25486 1.14264 5.00009 79 81 76 
1.13486 -0.485682 4.61764 125 19 31 
1.24887 0.959945 4.89856 33 34 39 
1.25963 0.911192 4.95679 177 174 169 
1.19189 0.0295786 4.66777 11 11 23 
1.17539 -0.437269 4.64491 14 14 16 
1.20358 -0.145182 4.60847 114 117 122 
1.3071 1.27421 4.60039 205 190 185 
1.22301 -0.131314 4.61331 10 9 4 
1.33946 0.825996 5.13084 102 102 104 
1.24376 -0.135223 4.59557 187 154 77 
2.17452 -3.08024 16.1032 60 57 48 
2.9221 -2.92716 15.9599 48 47 43 
0.274902 -0.873041 4.93419 158 137 106 
0.513538 -0.660574 5.27487 30 21 0 
-1.28718 -0.0361995 4.94287 69 65 64 
-0.574024 1.25259 4.61814 142 141 137 
-0.285518 -0.775342 4.21821 135 102 71 
-0.304889 -0.173104 4.41855 146 145 141 
-0.271961 -0.173538 4.44433 156 153 148 
-4.68517 -5.7824 18.4094 77 59 49 
-0.151054 -1.06189 3.98518 133 122 94 
-0.14069 -1.07023 3.98879 131 120 98 
-0.146672 -0.353357 4.51481 111 111 113 
0.0183676 0.148561 4.25987 25 21 18 
0.125461 0.549295 4.20762 182 125 0 
-0.155438 -1.03042 5.01141 43 31 15 
0.149512 -0.120644 4.46524 11 15 16 
0.181382 -0.0514843 4.38092 199 172 29 
-2.51908 -4.97964 16.8989 92 83 74 
0.196755 0.757868 4.93915 155 106 13 
0.237322 -0.210803 4.40842 191 162 58 
0.298018 0.878583 4.86183 181 136 7 
0.325082 0.978057 4.9032 166 144 58 
0.471027 1.40299 4.1934 171 156 151 
0.573439 -0.469062 2.8073 62 154 107 
0.322037 0.53298 4.89226 164 134 22 
0.373748 0.961775 4.97687 14 5 0 
0.570482 1.14841 4.49444 158 154 142 
0.623554 1.37289 4.27558 173 158 155 
0.605531 1.12097 4.52897 169 163 165 
0.611753 1.10963 4.53708 166 161 157 
0.627292 1.31119 4.5244 208 194 194 
0.619959 1.12246 4.53558 156 158 157 
0.649556 1.16073 4.5086 22 25 34 
0.65398 1.26612 4.54128 68 68 78 
0.710315 0.934335 5.11069 96 91 87 
0.770429 0.980211 4.9103 57 53 44 
0.836255 1.01857 4.83752 169 166 157 
0.800032 0.862107 5.30416 167 164 149 
0.893541 1.06022 4.85888 168 169 171 
0.172776 -3.42911 17.7662 59 56 51 
0.963823 1.07122 4.97071 28 28 28 
1.09534 0.864959 4.92031 50 50 50 
1.12269 0.88226 4.89062 171 168 163 
1.14473 0.499691 4.75138 30 5 9 
1.16697 0.414447 4.75453 109 109 121 
1.19022 0.392134 4.75253 116 116 126 
1.20031 0.434114 4.77145 9 9 21 
1.24701 0.95111 4.858 33 34 39 
1.19072 0.0287681 4.63469 11 11 23 
1.33731 0.851798 4.99564 191 187 184 
-18.1509 -1.70123 13.6154 164 146 132 
-21.8136 2.92658 16.6013 167 145 124 
-21.5252 3.11335 16.8 18 18 20 
-18.9553 3.77704 15.1271 162 147 118 
-21.4999 3.29334 16.8597 139 122 114 
-21.4657 3.37722 16.9933 40 35 32 
-21.5585 3.08537 17.359 19 18 23 
-16.6083 -1.71445 14.4699 30 28 31 
-19.2164 -1.6414 17.1646 23 20 15 
-18.2698 2.5046 17.3731 31 29 30 
-19.8773 -1.90778 18.5616 95 81 72 
-18.2971 3.05022 17.6119 33 29 26 
-18.621 3.30983 17.9031 194 177 167 
-18.1048 2.67351 17.667 25 24 29 
-17.9778 2.65591 17.5666 26 24 27 
-17.9302 2.98758 17.8838 27 29 28 
-1.73458 -0.156757 4.73719 132 56 4 
-1.35462 1.30256 4.68339 177 163 154 
-0.74979 -0.53634 3.81353 71 49 12 
-0.769249 -0.459681 3.88162 142 118 92 
-0.761151 -0.474637 3.87477 147 123 99 
-0.758366 -0.497758 3.87283 32 21 0 
-0.698835 -0.521384 3.85783 211 182 126 
-0.557796 -0.514233 3.93042 195 185 149 
-0.550171 -0.499995 3.92506 186 159 106 
-0.547844 -0.514255 3.93251 54 94 41 
-0.567597 -0.656707 4.10032 161 169 148 
-0.548762 -0.692617 4.07106 158 140 128 
-0.529939 -0.67462 4.07161 29 0 4 
-0.506406 -0.725675 4.06594 156 165 170 
-0.516312 -0.662222 4.08852 147 159 159 
-0.509831 -0.675788 4.0807 156 162 160 
-0.462465 -0.557345 4.03202 63 120 67 
-0.498437 -0.719104 4.06955 143 147 158 
-0.494325 -0.73374 4.06837 145 156 162 
-0.447376 -0.600531 4.05107 31 83 44 
-0.680752 1.32868 4.65513 232 224 213 
-0.388591 -0.537033 4.0068 87 64 33 
-0.41522 -0.627445 4.05926 54 86 39 
-0.430687 -0.867014 4.09357 35 124 80 
-0.367907 -0.620088 4.04115 144 118 69 
-0.403347 -0.841341 4.07064 37 126 80 
-0.374143 -0.850398 4.11519 5 91 52 
-13.1437 -6.03029 22.3096 45 40 44 
-0.196896 0.544626 4.11991 235 185 24 
-0.346849 -0.867807 4.13544 63 89 24 
-0.662752 1.11136 4.91377 198 168 160 
-0.644487 1.1085 4.91368 135 117 103 
-0.273804 -0.412222 4.218 162 141 110 
-0.376547 -0.146059 4.41872 14 10 9 
-0.338122 -0.550945 4.32409 172 150 103 
-0.538951 1.10352 4.90611 168 143 123 
-0.12692 -1.0673 3.97565 126 109 93 
-0.378661 1.20878 4.781 34 34 46 
-0.269421 -0.177347 4.42255 16 18 15 
-0.252165 -0.937902 4.40373 63 168 99 
-0.250931 -0.876658 4.41804 52 160 100 
0.119208 0.278387 4.05801 130 95 0 
-0.288988 1.14995 4.90982 16 18 31 
0.0144232 0.156086 4.24388 32 22 12 
0.095516 0.540502 4.19016 227 188 7 
-0.217504 -0.79433 4.49704 19 94 55 
-0.218215 -0.841985 4.49999 59 174 107 
-0.164195 -0.442592 4.499 11 14 7 
-0.145108 -0.392557 4.49382 79 77 78 
-0.138241 -0.406796 4.4988 178 175 168 
-0.146265 -0.452747 4.52759 30 27 12 
-0.120079 -0.399356 4.49218 172 169 164 
0.159703 0.291641 4.18331 147 98 0 
-0.0628823 -0.303858 4.48424 22 0 0 
0.0914285 -0.0726311 4.34251 113 115 114 
0.236518 0.29145 4.22623 6 3 0 
-0.0874967 -0.47304 4.68515 49 32 2 
0.267212 0.319528 4.25101 81 88 98 
0.277948 0.306808 4.23614 146 147 149 
0.260208 0.211902 4.29764 17 15 18 
-0.711867 -1.0884 5.91884 124 151 118 
0.116423 0.955386 4.7684 156 152 149 
0.293721 0.32826 4.29597 76 82 94 
0.190626 -0.183095 4.39021 19 19 9 
0.302732 0.338825 4.29733 129 132 137 
0.11658 0.899698 4.78866 218 203 182 
0.00554823 -0.789447 4.68769 68 140 100 
0.0248189 -0.775401 4.66577 0 62 21 
-0.159223 -1.02149 4.99748 152 132 105 
-0.129251 -0.967403 4.97574 114 166 117 
0.261227 -0.0535405 4.43386 164 142 92 
0.293518 0.378657 4.46269 145 125 62 
-0.117597 -1.03108 5.00779 46 35 13 
0.190228 -0.421615 4.5257 237 195 57 
0.200073 -0.422297 4.52461 153 114 0 
-0.112564 -1.00785 5.09586 165 114 71 
0.296365 0.10931 4.50251 152 114 29 
0.324621 -0.202386 4.38055 177 179 174 
0.26695 0.903772 4.79729 220 211 194 
0.280403 0.938383 4.77991 218 208 196 
0.27315 0.971479 4.80361 143 141 144 
-0.0173382 -0.975678 5.00619 103 124 83 
0.246977 0.41841 4.80713 218 177 11 
0.2427 0.409846 4.8154 152 102 0 
0.262129 0.835776 4.87387 188 129 0 
-0.00902903 -0.977396 5.04501 7 70 41 
0.354448 -0.0497453 4.49905 198 163 33 
0.233361 0.353183 4.86216 147 94 0 
0.241926 0.361737 4.85859 194 150 19 
0.27404 0.443717 4.81183 217 173 12 
0.260552 0.388969 4.83359 217 173 24 
0.0132592 -0.98138 5.05983 6 101 59 
0.395803 -0.175461 4.42773 162 163 158 
0.420654 1.05184 4.67789 158 152 140 
0.298659 0.452784 4.81025 218 180 21 
0.355225 -0.0312626 4.57258 199 162 11 
0.286324 0.417237 4.84103 134 81 0 
0.309236 0.478499 4.82248 155 111 6 
0.346203 0.966925 4.87276 160 137 41 
0.309161 0.650925 4.87986 209 173 37 
0.313168 0.498423 4.83626 155 113 0 
0.160122 -0.827159 4.85969 55 158 113 
0.110866 -0.917283 4.95142 0 101 54 
0.312656 0.761465 4.91583 226 180 7 
0.29765 0.3557 4.853 149 104 3 
0.201584 -0.780116 4.80806 5 85 50 
0.559237 1.1284 4.49326 147 146 142 
0.333335 0.433664 4.84432 196 151 22 
0.342172 0.482783 4.8489 174 150 42 
0.338985 0.425394 4.84607 115 62 0 
0.342282 0.526879 4.86346 163 133 9 
0.338211 0.397522 4.84793 118 65 0 
0.35059 0.50435 4.86017 168 144 38 
0.338104 0.805023 4.966 165 110 0 
0.549494 1.07599 4.575 70 62 51 
0.350436 0.671806 4.94874 231 187 2 
0.232284 -0.777325 4.85971 59 152 107 
0.606889 1.1185 4.49029 59 55 56 
0.392258 0.952975 4.94941 22 11 0 
0.39692 0.962028 4.94604 112 104 91 
0.263227 -0.761547 4.83078 0 54 29 
0.266852 -0.767276 4.84013 13 79 52 
-3.71464 -2.81338 13.5378 149 137 123 
0.626028 1.10851 4.49936 168 164 161 
0.243839 -0.824405 4.89795 7 30 14 
0.454143 0.965875 4.92019 42 40 41 
0.254568 -0.339301 5.0565 77 47 0 
0.336867 -0.452225 4.87329 161 148 140 
0.46495 0.972465 4.93957 147 143 131 
0.349867 -0.520221 4.84912 156 136 112 
0.686831 1.11986 4.47841 161 157 145 
0.281649 -0.872495 4.92438 163 141 104 
0.349942 -0.401234 4.9149 159 147 133 
0.328877 -0.76277 4.89585 42 145 90 
0.398457 -0.509981 4.82744 177 160 140 
0.340784 -0.752949 4.91027 37 145 96 
0.346757 -0.774975 4.93418 36 137 81 
0.452519 0.883332 5.14689 114 108 86 
0.420307 -0.421338 4.90966 170 154 139 
0.757996 1.27597 4.53884 217 205 205 
0.607573 0.9821 4.84317 101 98 93 
0.35334 -0.788953 4.99873 30 39 18 
0.448763 -0.566916 4.91148 202 208 194 
0.506444 0.89607 5.19834 142 139 130 
0.448838 -0.580927 4.93589 1 27 14 
0.407658 0.812971 5.46219 28 29 31 
0.405351 -1.08677 4.9324 154 133 88 
0.528368 0.884773 5.20722 161 160 142 
0.144491 0.765225 6.17603 187 164 148 
0.773489 1.03913 4.70247 106 105 119 
0.655168 0.945199 4.98943 110 107 90 
0.497021 0.814731 5.44353 154 151 136 
0.802449 1.04168 4.69476 170 164 150 
0.499438 0.795069 5.44625 42 41 37 
0.832371 1.13029 4.67343 90 91 96 
0.479324 -0.652178 5.09643 75 167 120 
0.478846 0.0911674 5.3777 101 80 51 
0.497555 -0.601922 5.12782 81 152 118 
0.692787 0.918144 5.09748 44 45 49 
0.726597 0.924668 5.08209 92 90 93 
0.836477 1.00486 4.80503 62 60 73 
0.554343 -0.2891 5.22642 34 133 86 
0.855704 1.00697 4.80402 152 149 134 
0.54545 -0.323189 5.30774 0 71 33 
0.88253 1.12797 4.80584 67 70 77 
0.774955 0.922498 5.06735 111 105 93 
0.897761 1.15365 4.82035 95 99 110 
0.912546 1.06385 4.80193 157 157 159 
0.9207 1.15428 4.85597 198 193 190 
0.926291 1.13711 4.88396 77 83 99 
0.815236 0.873647 5.16486 108 105 100 
0.928523 0.967509 4.91608 122 120 105 
0.808662 0.86418 5.25038 45 42 37 
0.94351 0.983881 4.90196 105 104 110 
0.801106 0.836132 5.29864 65 62 55 
0.970135 1.14551 4.88704 197 190 184 
0.832092 0.850103 5.28911 61 54 44 
0.991021 1.13031 4.89305 123 121 122 
1.04395 0.830453 4.94217 61 60 56 
1.08089 0.051069 4.54496 63 21 9 
1.09414 0.873384 4.88245 69 67 68 
1.12103 0.889172 4.82476 165 163 151 
1.12571 0.884356 4.8331 107 106 102 
1.11313 0.853061 4.88483 51 51 49 
1.12871 -0.00185923 4.54031 49 2 0 
0.966606 -0.188509 5.10079 209 206 197 
1.16372 0.443552 4.71173 25 21 18 
1.16986 0.535855 4.75948 34 33 38 
1.17401 0.404438 4.72504 97 98 100 
1.22712 0.970844 4.81811 137 136 141 
1.23225 0.939343 4.80463 134 135 140 
1.21 0.87466 4.90974 103 103 93 
1.20983 0.383136 4.71317 113 117 118 
1.2107 0.415427 4.73131 59 63 62 
1.23327 0.835439 4.86077 114 115 109 
1.2215 0.424039 4.72852 7 7 17 
1.26166 1.14774 4.89754 215 203 203 
1.26815 0.93578 4.81331 41 43 55 
1.23237 0.400268 4.73451 105 109 110 
1.17469 -0.462233 4.58319 150 107 90 
1.24574 -0.0337566 4.57387 14 12 15 
1.25672 -0.13795 4.54225 164 140 70 
1.27911 0.850384 4.91029 65 64 70 
1.28611 0.86324 4.89294 167 166 161 
1.26829 -0.0268127 4.58075 140 101 32 
1.32336 0.857353 4.90099 173 171 174 
1.33281 0.84673 4.94674 102 97 101 
1.28001 -0.187328 4.67215 106 108 107 
1.32034 0.791526 5.01363 48 52 61 
1.34573 0.828874 4.94424 169 169 159 
1.33631 0.797404 5.00304 103 108 104 
1.40134 1.08659 4.98727 73 71 76 
1.35567 0.805193 5.04798 81 82 86 
-1.08616 -3.16094 17.9311 51 50 46 
-0.868781 -4.33575 18.8469 29 29 29 
0.0738534 -3.53291 18.3241 56 55 51 
