ply                 
format ascii 1.0    
element vertex 1278
property float x    
property float y    
property float z    
property uchar red  
property uchar green
property uchar blue 
end_header          
-0.761073 -0.532493 3.89565 187 167 140 
0.0361704 -0.277728 3.6796 93 94 88 
-0.552762 0.0198419 3.20146 116 98 62 
-0.151182 -0.00778752 2.95107 160 83 13 
-0.330724 -0.105313 2.85529 132 59 0 
0.948988 -1.1489 4.40368 40 40 30 
0.903928 -1.13063 4.43017 171 155 142 
-0.519133 -0.450711 3.58352 36 28 15 
-0.50795 -0.454759 3.58319 178 146 27 
-0.367547 -1.03014 4.16122 49 34 11 
0.469557 -0.67936 3.33624 31 15 0 
0.0999165 -0.745853 3.41782 109 85 39 
0.797227 -1.19501 4.37133 114 126 52 
-0.641066 -0.397483 3.55749 99 98 93 
-0.312336 -0.492998 3.72174 141 106 6 
-1.08116 -0.273814 4.40813 103 90 56 
-0.33578 -1.02844 4.15121 33 21 0 
0.806675 -1.33392 4.40838 159 122 16 
0.260649 -0.774732 3.48588 58 44 35 
0.962411 -1.11277 4.41606 174 169 149 
0.931336 -1.16015 4.38026 181 178 161 
0.942734 -1.15497 4.38112 94 88 74 
0.882426 -1.11421 4.35212 162 154 133 
0.328851 -0.651558 3.34714 21 59 20 
-0.664232 -0.3871 3.59979 44 44 36 
0.137006 -0.733799 3.41757 105 90 49 
0.257945 -0.781846 3.48054 26 9 1 
0.529953 -0.658794 3.32116 188 166 125 
0.256807 -0.783839 3.4459 25 2 0 
-0.317046 -0.492911 3.74334 199 166 27 
-0.722006 -1.02113 4.03898 255 252 206 
0.150041 -0.638684 3.38504 69 45 11 
-0.133659 0.00985275 2.97283 255 254 127 
0.902175 -1.13799 4.36404 98 92 76 
0.872531 -1.10755 4.36947 85 57 43 
-0.144278 -0.128575 3.82944 198 169 113 
0.77518 -1.03444 4.42823 215 172 42 
-0.533768 -0.462106 3.56961 39 26 0 
-0.0602093 -0.0864265 3.81533 175 151 105 
0.823403 -1.12951 4.34843 62 46 23 
-0.079448 -0.183942 3.79447 150 128 87 
-0.66199 -0.425133 3.57451 131 128 123 
0.834742 -1.03592 4.4371 142 106 22 
0.802513 -1.14028 4.34574 127 97 87 
0.777831 -1.1587 4.33901 88 82 50 
-0.119636 0.0557192 2.93865 245 213 128 
-0.154662 -0.00956728 2.97316 183 119 0 
0.764976 -1.15765 4.3355 177 170 141 
-0.671361 -0.572634 3.91882 41 26 7 
-0.734104 -0.980004 4.0291 236 212 166 
-0.118819 0.069326 2.93167 179 162 144 
0.892323 -1.11152 4.37071 156 140 127 
0.971163 -1.05775 4.45258 85 77 64 
0.112136 -0.729277 3.42341 141 118 68 
-0.537916 -0.749682 3.72216 233 237 222 
-0.507521 -0.687352 3.71823 186 161 139 
-0.523859 -0.682912 3.70573 181 161 137 
-0.552918 -0.162839 3.2127 124 122 110 
-0.0633845 -0.0961778 3.82649 187 163 117 
0.278425 -0.813226 3.47478 46 32 21 
-0.529717 -0.695697 3.70466 209 194 173 
-0.322563 -0.252729 3.34011 27 23 20 
-0.400381 -0.268311 3.35629 87 68 26 
0.446328 -1.28296 4.35087 42 38 29 
-0.00610908 -0.309 3.65093 102 100 101 
-0.260905 -0.111381 3.85379 197 163 65 
0.698091 -1.22059 4.33796 222 200 177 
0.689982 -1.2158 4.32745 180 122 108 
0.711229 -1.20988 4.34097 71 94 4 
0.727678 -1.20662 4.35178 74 94 9 
0.408998 -0.443203 3.45934 147 130 112 
0.740255 -1.20104 4.35229 93 104 46 
-0.130858 -1.12081 3.34989 131 114 71 
0.733385 -1.18751 4.33409 156 169 99 
0.744395 -1.18271 4.33562 204 210 176 
0.756896 -1.17394 4.34665 90 96 34 
0.327102 -0.563687 3.31555 160 138 99 
0.524371 -1.13131 3.88072 26 10 0 
0.738401 -1.15708 4.33019 167 163 136 
0.520322 -1.1206 3.89169 29 7 0 
0.428876 -0.627652 3.32776 167 143 95 
0.302738 -0.63595 3.33512 100 79 32 
0.895366 -1.14224 4.37559 44 48 13 
0.316885 -0.648355 3.33583 165 183 143 
0.903214 -1.13849 4.38642 127 125 113 
0.552635 -0.670237 3.29887 115 98 70 
0.897483 -1.1284 4.37792 48 34 23 
0.549866 -0.682979 3.29017 175 151 113 
0.512623 -0.681292 3.28548 221 198 156 
0.340923 -0.680802 3.35085 151 168 126 
0.132914 -0.728979 3.43393 101 82 40 
0.0950147 -0.745191 3.42662 82 58 14 
0.120548 -0.755457 3.44704 80 63 20 
-0.174884 -0.0309528 2.96503 224 165 39 
0.451793 -0.897479 3.55318 149 105 106 
0.0178848 -0.896561 3.48882 41 18 0 
0.801946 -1.14172 4.35755 119 80 75 
0.747286 -1.12546 4.34699 62 30 9 
0.769893 -1.28762 4.46494 111 60 0 
0.503801 -0.681288 3.2762 189 162 119 
0.729486 -1.11997 4.36174 34 20 0 
0.840115 -0.81496 4.34504 9 8 4 
0.742226 -1.14572 4.3436 78 72 58 
0.728763 -1.17142 4.3402 138 148 87 
0.747526 -1.11988 4.35932 123 94 64 
0.893518 -1.11964 4.34842 117 76 72 
0.0580789 -0.781015 3.48925 114 92 53 
0.0633774 -0.781981 3.46659 85 67 29 
0.764467 -1.17028 4.35793 127 137 74 
-0.491204 -0.0886132 3.0942 95 41 0 
0.81708 -1.1406 4.36248 106 94 80 
0.728444 -1.16248 4.33935 129 135 87 
0.894979 -1.1082 4.38505 134 122 110 
0.732899 -1.13074 4.35889 30 17 0 
0.913293 -1.09106 4.39762 109 89 80 
0.51705 -0.666055 3.30824 96 80 64 
0.726056 -1.20695 4.33619 83 101 19 
0.725606 -1.19338 4.33818 35 49 0 
0.123899 -0.726196 3.42155 101 74 29 
0.103606 -0.749649 3.43026 81 59 18 
0.741638 -1.17401 4.35635 67 73 29 
-0.238357 -0.139339 3.88223 53 10 0 
0.494851 -1.13262 3.87571 150 123 96 
0.883402 -1.166 4.37278 162 182 93 
0.740044 -1.15878 4.34695 167 163 136 
0.497508 -1.12781 3.88223 31 9 0 
-0.0362005 -0.30664 3.67584 115 116 110 
-0.152862 -0.0106771 2.96795 146 86 0 
-0.324214 -0.250242 3.60058 120 103 60 
-0.153324 -0.00142075 2.96375 81 15 0 
0.812781 -1.17927 4.35024 73 60 16 
-0.19609 -0.537003 3.74836 101 94 86 
0.884803 -1.12326 4.35656 163 156 140 
0.789496 -1.34387 4.4505 253 229 121 
0.788755 -1.34734 4.47882 255 241 119 
0.527636 -0.661383 3.31113 154 132 95 
0.871889 -1.17394 4.35919 92 116 38 
0.0592994 -0.946944 3.4995 212 169 124 
0.782593 -1.19445 4.34944 88 115 22 
0.815742 -1.16857 4.35252 37 31 0 
-0.747244 -0.543496 3.88236 145 131 105 
0.0462952 -0.777799 3.47483 99 81 43 
0.426948 -1.26731 4.35599 104 97 91 
-0.19585 -0.0804546 3.85778 212 177 73 
-0.651637 -0.392299 3.55592 0 1 0 
0.328254 -0.649504 3.32464 33 39 1 
0.807582 -1.18863 4.36433 153 166 94 
0.745932 -1.18445 4.35323 204 210 176 
0.826341 -1.17658 4.35108 96 85 29 
0.494829 -1.1349 3.90867 147 117 91 
0.912904 -1.16284 4.37654 214 216 195 
0.893279 -1.1558 4.37059 125 130 100 
-0.131289 -0.00569905 2.95906 110 65 0 
-0.376167 -0.259327 3.33193 129 128 123 
-0.255302 -0.147124 3.87097 206 175 69 
0.471578 -0.888543 3.56946 255 203 211 
0.500522 -1.38609 4.42061 127 110 80 
0.913411 -1.13595 4.36397 47 46 25 
0.248329 -0.761505 3.4694 94 94 84 
0.742554 -1.14366 4.33177 60 54 42 
0.933971 -1.14695 4.39307 28 28 20 
0.967154 -1.05385 4.4305 94 85 76 
0.936107 -1.0754 4.39583 40 37 28 
-0.0358175 -0.309799 3.65457 94 95 90 
0.837153 -0.876124 4.27566 177 177 179 
-0.23526 -0.139398 3.86831 184 148 60 
0.777502 -1.1584 4.36018 87 82 44 
0.503928 -1.37422 4.41009 127 95 8 
0.869547 -1.1614 4.37047 72 99 4 
0.772174 -1.0333 4.41242 200 157 27 
0.813566 -1.18032 4.37242 87 76 31 
0.529319 -0.661632 3.29776 169 146 105 
0.310286 -0.647804 3.3177 31 43 0 
-0.262911 -0.110164 3.866 211 177 79 
0.0707047 -0.788592 3.52237 125 135 101 
0.753954 -1.19031 4.33542 144 157 101 
-0.173334 -0.533139 3.73674 94 95 90 
-0.811479 -0.840725 4.13799 146 143 128 
0.847659 -0.893212 4.35173 24 25 19 
0.735396 -1.21413 4.34991 199 205 161 
0.765854 -1.19582 4.35402 143 168 66 
0.544638 -1.3528 4.39646 137 96 0 
0.534282 -0.665228 3.25278 112 91 48 
0.809234 -1.14702 4.3707 42 32 7 
0.399468 -0.71799 3.36827 62 101 44 
-0.215763 -0.266588 3.84382 20 7 0 
0.941059 -1.14818 4.3782 34 34 26 
-0.364275 -0.263333 3.31849 4 3 0 
-0.348551 -0.257735 3.30981 14 10 7 
0.75822 -1.18736 4.36317 90 103 49 
-0.404599 -0.439103 3.54523 26 20 8 
0.766469 -1.28514 4.45275 94 39 0 
0.655053 -1.3433 4.39781 153 109 0 
0.298561 -1.35795 3.60505 149 73 75 
0.542884 -1.3751 4.41886 214 199 170 
-0.0985497 0.869256 3.87137 178 165 149 
0.650916 -1.15028 4.14746 209 188 167 
0.986501 -1.17038 4.41136 215 211 200 
0.520876 -1.13062 3.89848 29 14 0 
0.909849 -1.16448 4.39512 196 198 176 
0.81447 -1.15779 4.37846 150 169 79 
0.998272 -1.16324 4.41089 103 100 91 
-0.18907 0.469678 3.75118 242 255 248 
0.919371 -1.14599 4.39818 130 130 118 
0.410839 -0.724502 3.36691 202 185 129 
0.161988 -0.730297 3.44865 159 155 117 
0.834334 -1.04018 4.4642 125 82 14 
-0.512444 -0.353353 3.49981 195 177 75 
0.808293 -1.33626 4.44979 145 111 11 
-0.600597 -0.340847 3.5433 116 84 11 
0.506366 -1.39646 4.41265 212 199 182 
0.0367016 -0.281033 3.66077 94 93 91 
0.389976 -0.654633 3.31073 60 41 11 
-0.291848 -0.371707 3.65126 190 158 23 
0.74673 -0.943401 4.39286 255 248 156 
0.943151 -1.1477 4.36316 50 50 40 
0.902691 -1.15005 4.36289 34 34 22 
0.662324 -1.20279 4.19158 83 33 24 
0.892275 -1.16482 4.39376 78 90 44 
0.803617 -1.353 4.42167 216 195 176 
-0.177636 -0.526041 3.78264 95 96 91 
-0.0597803 -0.0998968 3.80921 172 151 106 
0.475194 -0.678489 3.30451 54 33 6 
0.777873 -0.797209 4.27709 128 109 41 
0.147756 -0.657536 3.36262 48 24 0 
0.971382 -1.05972 4.44017 99 92 84 
-0.308509 -0.59205 3.8653 204 174 44 
0.34107 -0.671444 3.33768 19 39 12 
0.328629 -0.654098 3.31331 28 54 17 
0.664035 -1.20091 4.16143 93 34 28 
0.942592 -1.16433 4.46082 77 76 71 
-0.242721 -0.145825 3.87224 75 36 5 
0.747428 -0.943824 4.37355 253 236 146 
-0.25427 -0.115929 3.84537 229 196 91 
0.769358 -1.03442 4.38965 190 148 28 
0.801343 -1.03125 4.42753 210 166 35 
-0.0574688 -0.101575 3.77507 175 155 104 
0.958297 -1.11222 4.3903 190 183 173 
0.861446 -1.16318 4.3423 71 97 6 
-0.240628 -0.166529 3.21395 168 123 8 
0.814353 -1.34048 4.47168 139 105 16 
0.658329 -0.797355 4.29163 158 131 14 
0.899851 -0.837523 4.38616 75 76 71 
-0.21493 -0.274391 3.82654 5 2 0 
0.777503 -0.796373 4.28918 175 149 52 
0.923635 -1.13808 4.38968 113 117 92 
-0.415105 0.914201 3.62767 181 168 159 
-0.0939192 -1.12406 3.32929 137 113 69 
-0.0874989 -0.187221 3.79445 171 147 99 
-0.657214 -0.897652 4.02866 123 105 83 
-0.695187 -0.884771 4.02442 68 55 23 
-0.810207 -1.05691 4.01648 225 202 158 
-0.0578071 -0.0963737 3.82419 173 150 108 
-0.665778 -0.901416 4.02479 33 21 0 
-0.694728 -0.873604 4.01872 125 102 71 
-0.666245 -0.866186 4.08568 255 254 234 
0.927353 -1.07573 4.43141 39 38 34 
0.701934 -1.21229 4.33953 174 177 108 
0.7349 -1.1982 4.34175 153 165 99 
0.766681 -1.1953 4.35564 143 168 66 
0.749675 -1.1686 4.34377 175 173 150 
0.390292 -1.03013 3.51684 240 104 118 
0.762832 -1.18529 4.35414 148 167 85 
0.157592 -0.66314 3.36207 186 165 110 
0.763223 -1.16951 4.34624 127 137 74 
0.744562 -1.18191 4.33879 190 196 158 
0.740084 -1.16717 4.33654 172 170 145 
0.723089 -1.18106 4.34024 85 97 11 
0.806155 -1.16237 4.35889 42 47 7 
0.810634 -1.14691 4.36344 41 34 6 
0.816156 -1.19189 4.37165 107 130 40 
0.462165 -0.683825 3.3082 71 43 3 
0.504751 -1.13919 3.8786 61 37 13 
0.837558 -1.17655 4.37106 178 192 113 
0.748481 -1.14866 4.35074 118 111 95 
0.133366 -0.755641 3.43765 22 22 0 
0.806924 -1.17408 4.35604 129 119 84 
0.971679 -1.0566 4.43918 74 69 65 
0.656392 -1.34704 4.42914 145 102 0 
0.912284 -1.16225 4.38024 206 207 191 
0.518827 -1.12167 3.87797 17 0 0 
0.542587 -1.3741 4.41325 214 199 170 
0.918193 -1.14482 4.38984 130 130 118 
0.796345 -1.03252 4.43012 173 124 32 
-0.522584 -0.742595 3.70527 77 61 46 
-0.389875 -0.440686 3.51901 25 18 8 
0.816423 -1.15791 4.35815 146 166 67 
0.838377 -1.13509 4.37552 122 128 64 
0.793846 -1.34311 4.4725 248 218 108 
-0.356462 -1.2442 4.21748 249 223 172 
-0.095818 -1.13327 3.30887 85 61 15 
0.591231 -1.22996 4.3147 157 149 138 
0.654563 -1.23191 4.3408 130 100 92 
-0.10228 0.0538278 2.88285 155 142 125 
0.702857 -1.21755 4.33937 87 89 42 
0.711263 -1.20909 4.34038 84 104 17 
0.689755 -1.2035 4.33141 141 89 76 
0.699701 -1.20495 4.34161 137 142 84 
0.699579 -1.19272 4.34101 171 180 113 
0.73315 -1.18775 4.33956 147 164 86 
0.713841 -1.18535 4.34246 158 173 82 
0.608259 -1.16254 4.18339 147 107 0 
0.704096 -1.17804 4.34299 117 127 75 
0.856129 -1.18645 4.39352 105 129 43 
0.752148 -1.17596 4.34033 152 155 108 
0.717671 -1.16826 4.33077 65 72 20 
0.887883 -1.18201 4.40268 205 212 170 
0.750426 -1.16844 4.34106 153 149 120 
0.76514 -1.16921 4.33722 144 162 86 
0.913292 -1.18005 4.40024 122 120 95 
0.705112 -1.16267 4.36101 36 43 0 
0.728293 -1.16271 4.34348 115 124 61 
0.718474 -1.15892 4.33682 64 69 5 
0.902627 -1.16919 4.38533 205 206 172 
0.794058 -1.15906 4.36316 138 139 82 
0.723613 -1.15002 4.34632 118 124 60 
0.874004 -1.16068 4.37733 74 106 0 
0.713477 -1.14668 4.34613 40 42 0 
0.816893 -1.14077 4.35989 104 96 75 
0.931269 -1.1401 4.39834 99 97 82 
-0.0615144 -0.00263881 2.95061 110 65 0 
-0.074241 -0.98192 3.34697 14 0 0 
0.938182 -1.08287 4.41723 97 87 85 
0.176601 0.276649 4.47401 67 40 0 
0.583092 -0.934602 4.25432 51 38 3 
0.840527 -0.818193 4.34859 43 41 42 
0.206663 -0.677627 3.39236 48 60 12 
-0.295852 -0.597195 3.8657 160 140 53 
-0.620265 -0.445332 3.56635 104 103 99 
0.00807679 -0.277391 3.6289 100 99 94 
0.595732 -1.22923 4.29698 157 149 138 
0.924264 -1.16643 4.39185 89 88 68 
0.50107 -1.12711 3.86893 30 12 0 
0.806161 -1.18837 4.36852 140 153 83 
0.831097 -1.18778 4.37866 98 118 33 
0.80283 -1.14128 4.35317 124 90 81 
0.735538 -1.2138 4.35161 170 178 127 
0.803913 -1.33915 4.45536 157 120 32 
-0.305032 -0.261761 3.29318 43 39 36 
-0.357165 -0.268732 3.28032 94 93 88 
-0.365371 -0.265983 3.29322 115 114 109 
0.786428 -0.797511 4.27187 156 134 59 
-0.116376 -1.10997 3.31209 162 140 90 
-0.750224 -0.536123 3.87573 186 170 147 
0.046236 -0.252279 3.66171 47 46 41 
0.0454561 -0.271283 3.64337 34 35 30 
0.68035 -1.21641 4.33064 163 74 66 
-0.329604 -0.121113 2.81855 196 146 0 
0.801099 -1.19147 4.34844 90 108 22 
0.746859 -1.18234 4.32973 208 209 175 
0.756952 -1.18492 4.3483 100 109 56 
0.723176 -1.18028 4.33838 93 114 23 
0.741638 -1.17342 4.32308 73 77 40 
0.740496 -1.16114 4.33565 185 178 150 
0.903682 -1.16991 4.39842 214 218 183 
0.747944 -1.12753 4.35588 49 23 8 
-0.071376 -0.981457 3.33664 14 0 0 
0.936108 -1.07575 4.40646 43 40 35 
0.642609 -0.92869 4.2515 14 11 2 
0.150451 -0.733162 3.39377 91 71 36 
-0.418874 -0.794056 3.81671 0 35 18 
0.868698 -1.17652 4.39907 82 112 16 
-0.182742 0.974132 3.36923 174 164 154 
0.879042 -1.16848 4.38534 166 196 84 
0.892182 -1.16624 4.3989 31 43 3 
0.171979 0.3015 4.48278 31 3 0 
0.900461 -1.13803 4.3732 119 120 106 
0.734611 -1.13004 4.3454 25 16 1 
0.501289 -1.38542 4.42732 137 118 85 
0.633766 -0.932566 4.24755 49 37 0 
0.441836 -0.896236 3.55204 62 105 75 
0.837158 -1.17675 4.37078 166 186 99 
-0.270712 -0.199208 3.13977 130 83 0 
0.813887 -1.17962 4.35649 69 59 10 
0.772166 -1.18718 4.3517 165 192 85 
0.73482 -0.802449 4.27389 91 73 7 
0.727129 -1.11811 4.37505 47 30 0 
-0.189599 0.980573 3.38139 180 170 160 
0.777001 -1.16633 4.34442 135 154 73 
0.716649 -1.21643 4.36039 186 203 133 
0.807609 -1.33976 4.46659 144 109 41 
0.722718 -1.20764 4.32369 96 118 33 
0.724079 -1.19352 4.33957 31 49 0 
0.762572 -1.17865 4.34496 164 186 86 
0.807042 -1.16274 4.35327 43 52 7 
0.939408 -1.16551 4.40855 99 97 82 
0.923874 -1.13545 4.38463 120 125 93 
-0.277801 -0.464699 3.71293 190 162 29 
0.162059 -0.737058 3.40367 4 15 0 
0.107694 -0.747424 3.38152 94 69 28 
0.636593 -0.932098 4.2364 32 23 0 
0.651369 -1.36511 4.42688 222 199 167 
0.72474 -0.80088 4.31882 191 161 37 
-0.198052 0.989639 3.39629 204 194 185 
0.791765 -1.05022 4.44835 103 60 17 
0.825206 -1.16493 4.35427 136 150 65 
0.543713 -1.37357 4.40892 227 210 182 
0.650185 -1.36586 4.43744 222 199 167 
0.610124 -1.22187 4.27893 227 215 203 
0.727624 -1.18513 4.3177 162 182 87 
0.848862 -1.18241 4.37288 207 225 151 
0.920666 -1.13591 4.39533 121 128 95 
-0.335161 -0.254033 3.2795 106 103 96 
-0.661076 -0.903748 4.04229 135 119 86 
0.642855 -0.927682 4.26439 21 18 13 
0.275072 -0.812377 3.44576 67 53 44 
0.78501 -1.19404 4.35099 86 112 13 
0.652876 -1.35463 4.45603 151 116 35 
0.617761 -1.22734 4.34278 148 140 127 
0.747256 -1.19382 4.34662 214 220 184 
0.909781 -1.16481 4.37222 215 219 192 
0.927214 -1.16581 4.37136 91 90 72 
0.778074 -1.15565 4.35254 78 61 33 
0.147545 -0.657446 3.36326 36 12 0 
0.820979 -1.13143 4.3527 54 31 15 
0.136721 -0.754347 3.38447 75 55 22 
0.783294 -1.04317 4.4467 68 24 0 
0.76369 -1.19175 4.34185 110 125 56 
-0.287321 -0.0453045 2.78918 245 236 221 
0.818938 -1.17366 4.34379 96 67 33 
0.147719 -0.737376 3.38492 96 77 47 
0.156021 -0.74074 3.41146 33 40 7 
0.925935 -1.16667 4.43128 85 84 66 
0.646996 -0.929013 4.24138 18 11 0 
0.836694 -0.877647 4.34199 90 90 90 
-0.269856 -0.204535 3.12715 156 109 3 
0.685395 -0.724826 3.48342 255 252 227 
0.922536 -1.14645 4.38421 122 122 110 
0.811157 -1.14636 4.35887 47 42 12 
0.881879 -1.10734 4.38409 126 108 96 
0.895076 -1.12023 4.37696 145 116 110 
0.798787 -1.19299 4.36636 67 84 4 
0.75678 -1.14327 4.35773 37 10 3 
0.703481 -1.2129 4.33669 180 187 119 
0.692356 -1.20792 4.3283 64 26 3 
0.700065 -1.20399 4.33452 137 142 84 
0.740423 -1.20065 4.34764 103 113 60 
0.826392 -1.20073 4.3756 164 192 82 
0.705468 -1.18269 4.33342 62 75 3 
0.725191 -1.17949 4.33654 87 106 14 
0.856076 -1.1875 4.38607 105 129 43 
0.833825 -1.1752 4.36901 150 169 79 
0.913282 -1.18043 4.40468 122 120 95 
0.884236 -1.17483 4.39515 91 109 33 
0.723777 -1.14967 4.34293 118 124 60 
0.788969 -1.15331 4.35139 59 40 7 
0.7201 -1.14067 4.34781 111 113 50 
0.730394 -1.14092 4.35418 117 112 83 
0.93813 -1.0831 4.41474 97 87 85 
0.278166 -0.801202 3.41536 95 75 68 
0.700406 -1.19401 4.33836 134 142 82 
0.809689 -1.18801 4.3581 167 182 101 
0.831193 -1.18754 4.372 98 118 33 
0.735942 -1.21383 4.33889 170 178 127 
0.930967 -1.1403 4.40021 99 97 82 
0.51366 -1.2693 5.60157 223 201 164 
0.872749 -1.16055 4.37046 67 98 0 
0.805141 -1.13377 4.37097 159 130 116 
0.128477 -0.728876 3.34406 120 96 50 
0.134967 -0.731574 3.35496 116 93 59 
0.73208 -1.20023 4.34168 174 197 109 
0.820727 -1.14005 4.3604 117 105 91 
0.86784 -1.17687 4.38752 83 110 13 
0.772166 -1.18718 4.3517 165 192 85 
0.880882 -1.16588 4.37309 163 195 84 
0.816668 -1.19062 4.3615 101 120 28 
0.214636 -1.38772 3.57738 173 124 120 
0.878748 -1.14731 4.37591 113 138 44 
-0.0981314 0.871478 3.88091 192 179 163 
0.718286 -1.19564 4.33508 39 57 0 
0.75783 -1.16975 4.3397 100 108 61 
0.895249 -1.16396 4.38847 30 39 8 
0.145098 -0.766268 3.40339 165 169 134 
0.78494 -1.19439 4.35146 86 112 13 
0.861065 -1.16638 4.37572 83 106 18 
0.660511 -0.802119 4.24633 162 128 20 
0.178217 -0.731041 3.37884 159 151 114 
-0.629291 -0.458761 3.58103 26 23 14 
0.656451 -1.23107 4.32908 130 93 87 
0.648679 -1.22625 4.33896 137 102 100 
0.66703 -1.22523 4.33259 106 23 15 
0.157416 -0.756293 3.33236 63 44 4 
0.657229 -1.21383 4.32868 173 123 114 
0.684958 -1.21528 4.32597 105 22 18 
0.490754 -0.801874 3.56341 86 99 82 
0.507988 -0.845152 3.55524 125 112 106 
0.680986 -1.20159 4.32447 68 0 0 
0.700493 -1.20319 4.33099 132 125 81 
0.738334 -1.20477 4.34308 186 198 122 
0.687803 -1.19175 4.32664 164 107 98 
0.697561 -1.19255 4.3299 122 115 71 
0.73316 -1.18952 4.34131 167 178 112 
0.755195 -1.18879 4.35043 129 138 93 
0.709825 -1.18226 4.32135 41 52 0 
0.77252 -1.03501 4.45245 213 173 78 
0.853891 -1.18886 4.38767 71 92 13 
0.692729 -1.17431 4.32808 133 120 104 
0.0122125 -1.01367 3.30081 33 12 0 
0.713872 -1.17248 4.32827 42 48 0 
0.842524 -1.18431 4.37241 111 131 60 
0.85379 -1.18431 4.37542 191 207 142 
0.710071 -1.16822 4.33504 141 139 114 
0.943752 -1.16185 4.40802 167 164 155 
0.91066 -1.15927 4.38895 179 180 162 
0.735641 -1.1666 4.32945 34 35 0 
0.752359 -1.16797 4.33466 188 184 159 
0.888892 -1.18121 4.39593 199 208 161 
0.902351 -1.16893 4.3871 211 220 175 
0.717798 -1.15866 4.33949 41 48 0 
0.728419 -1.16255 4.34319 142 145 90 
0.838143 -1.16898 4.35916 69 92 1 
0.893401 -1.17265 4.38504 163 178 119 
0.790177 -1.16957 4.34591 167 177 104 
0.340676 -1.33244 3.51248 196 120 120 
0.749098 -1.14897 4.34549 142 130 114 
0.727394 -1.14444 4.33901 48 47 3 
0.669313 -1.23092 4.34609 202 161 155 
0.812908 -1.1464 4.35688 49 53 16 
0.799747 -1.17634 4.36081 66 68 19 
0.65841 -1.21773 4.32079 124 64 56 
0.731415 -0.683376 4.28505 199 160 29 
0.669823 -1.21256 4.32079 89 32 25 
0.57857 -0.367751 3.55286 43 26 0 
0.830209 -1.13163 4.36511 111 109 68 
0.696238 -0.700307 3.28786 194 176 130 
0.827612 -1.12692 4.3641 38 32 0 
0.486252 -0.81203 3.56106 34 38 24 
0.684505 -1.29793 4.46748 105 51 0 
-0.0568331 -0.969799 3.28613 61 41 17 
0.510457 -0.861283 3.57513 38 37 19 
0.671035 -1.04442 4.42225 222 179 66 
-0.120575 0.427486 3.75866 142 165 147 
0.793736 -1.03562 4.4456 164 129 37 
0.690182 -1.18212 4.31482 126 82 69 
-0.255391 -0.244484 3.26165 16 9 0 
0.767349 -1.19398 4.35404 105 130 36 
0.58697 -0.671349 3.18943 117 93 57 
0.851251 -1.14348 4.36238 47 70 0 
0.838998 -1.14026 4.35901 45 56 0 
0.53607 -0.837683 3.7013 45 61 25 
0.557377 -0.839388 3.71456 76 57 24 
0.597713 -0.465067 4.29773 196 162 64 
0.6984 -1.30551 4.48478 100 45 0 
-0.199943 -0.0637075 3.85396 91 56 0 
0.441734 -0.460154 3.35326 138 123 100 
0.778889 -1.18504 4.35494 104 137 22 
-0.0458811 -1.11962 3.24081 173 147 98 
0.59038 -0.936235 4.24925 66 49 0 
0.163328 -0.760663 3.3427 52 35 0 
-0.619141 -0.459328 3.58311 115 114 109 
0.651461 -1.2092 4.24999 126 114 102 
0.694814 -1.20705 4.32171 58 8 0 
0.784205 -0.98014 4.39719 75 32 0 
0.76513 -1.18431 4.34367 185 206 113 
0.834141 -1.18713 4.36303 81 98 6 
-0.245996 -0.142686 3.88472 49 16 0 
0.895647 -1.15572 4.37835 146 153 135 
0.540844 -1.11629 3.81533 22 0 0 
0.769274 -1.15791 4.3528 165 159 135 
0.91934 -1.17704 4.39811 215 215 189 
0.789314 -1.15339 4.35032 59 42 0 
0.872992 -1.17426 4.37287 56 85 0 
0.714346 -1.14636 4.34229 24 27 0 
-0.197366 0.443694 3.73034 201 228 209 
0.929499 -1.15572 4.38596 28 30 19 
0.729374 -1.1342 4.34709 92 88 61 
0.749115 -1.126 4.35295 39 7 0 
0.72968 -1.12076 4.36208 39 23 0 
0.811139 -1.18177 4.35675 82 83 23 
0.524141 -0.752385 3.25782 180 157 103 
0.802184 -1.1855 4.35441 81 86 28 
0.939283 -1.07719 4.41164 56 52 41 
0.589545 -0.476387 4.29571 84 47 0 
0.83453 -1.19634 4.39237 80 105 14 
0.787609 -1.19409 4.35025 58 86 0 
0.846611 -0.884839 4.34653 25 26 21 
0.77758 -1.16578 4.34717 146 163 83 
0.855807 -1.12329 4.36813 38 48 0 
0.20489 -0.670106 3.26239 207 184 134 
0.879286 -1.18267 4.39474 171 194 106 
0.723132 -1.16882 4.31547 65 73 16 
0.840111 -1.18602 4.38503 99 119 50 
0.735873 -1.15079 4.33729 72 71 41 
0.762015 -1.1486 4.32742 44 25 11 
0.692759 -1.22456 4.34213 105 50 43 
0.591586 -0.513103 4.29703 127 81 0 
-0.226592 0.205393 3.76797 116 173 140 
0.701762 -1.21425 4.32705 42 16 0 
0.741942 -1.21289 4.32201 103 109 61 
0.17715 -0.73759 3.31375 42 22 0 
0.151641 -0.733081 3.30761 96 73 39 
0.82832 -1.17537 4.36435 106 97 28 
0.838378 -1.17616 4.36703 184 204 109 
0.917048 -1.18015 4.38626 119 118 98 
0.760016 -1.16442 4.32715 80 75 53 
0.886425 -1.16613 4.37888 162 187 96 
0.943501 -1.16421 4.39182 84 82 69 
0.922394 -1.14341 4.37113 212 211 193 
0.895854 -1.10846 4.38088 145 128 120 
-0.0600836 -1.12621 3.24615 227 203 165 
0.74522 -1.14086 4.34009 39 29 20 
0.839835 -1.19578 4.4026 176 203 106 
0.71035 -1.1936 4.32962 139 152 96 
-0.185406 0.827993 4.24143 178 162 147 
0.564428 -1.30209 4.44936 105 53 0 
0.590369 -0.4639 4.31527 197 165 54 
0.493904 -0.319121 4.50396 148 142 130 
0.56103 -0.818098 3.67242 43 51 14 
0.883035 -1.13618 4.36078 123 144 69 
-0.278464 -0.277066 3.25183 126 125 123 
0.722773 -0.681383 4.29174 99 60 0 
-0.191949 0.801712 4.26711 110 94 78 
-0.245043 -0.151178 3.84664 198 165 52 
-0.23864 -0.145919 3.85282 76 43 0 
0.696634 -1.18342 4.33109 137 136 82 
0.733441 -1.19977 4.34376 188 204 115 
0.682528 -1.20145 4.33855 181 101 90 
0.727792 -1.20605 4.33176 55 73 0 
-0.113442 -0.0620217 2.83732 126 61 0 
-0.114081 -0.0741795 2.8183 116 61 0 
-0.189842 -0.0929975 2.80508 218 163 8 
0.7655 -1.16561 4.34884 47 58 2 
0.815849 -1.15554 4.33634 147 168 75 
-0.285361 -0.137767 2.75929 173 122 0 
0.642314 -0.926542 4.2333 130 130 122 
0.804089 -1.14059 4.35387 129 102 95 
0.76242 -1.14228 4.34176 36 6 0 
-0.105333 0.876266 3.89248 178 165 149 
-0.19661 0.837697 4.26305 169 152 136 
0.632719 -0.695471 4.24808 174 141 25 
0.803715 -1.17491 4.33312 103 105 56 
0.727281 -1.11934 4.37379 38 21 0 
0.824412 -1.12299 4.3804 96 87 58 
0.534296 -0.67915 3.18554 121 106 77 
0.527695 -0.687742 3.20054 220 197 147 
0.385836 -0.690855 3.23521 179 178 132 
0.567468 -1.27108 4.36995 52 41 19 
0.239803 -0.684401 3.3167 22 36 0 
0.687956 -1.22732 4.32767 139 96 87 
0.707449 -1.19583 4.38595 54 70 21 
0.724207 -1.19334 4.33908 30 44 0 
0.810664 -1.15728 4.36432 147 168 75 
0.889122 -1.14975 4.35964 223 245 172 
0.823823 -1.13907 4.35427 126 121 101 
0.921908 -1.13554 4.39188 153 160 119 
0.896586 -1.12739 4.38603 47 26 21 
0.576374 -0.683822 3.18425 26 13 0 
0.546011 -1.35627 4.41351 149 106 12 
0.517461 -0.745139 3.26834 134 109 55 
0.783389 -1.15649 4.33126 73 67 31 
-0.205713 -0.0840148 3.83112 255 232 102 
-0.643275 -0.451382 3.59344 21 20 16 
0.414576 -0.64201 3.17208 67 51 17 
0.672302 -1.22624 4.31711 84 13 9 
0.611044 -1.21377 4.29494 115 103 89 
0.667131 -1.20861 4.284 73 30 24 
0.716098 -1.2053 4.30066 183 197 110 
0.746948 -1.18804 4.3409 223 224 193 
0.743155 -1.16189 4.33944 192 185 166 
0.874568 -1.16316 4.34619 129 158 65 
0.501765 -0.809072 3.5378 107 113 99 
0.836347 -0.906238 4.39466 33 29 18 
-0.214281 -0.103301 3.86798 108 66 0 
0.940591 -1.07497 4.39057 40 36 27 
0.269341 -0.680711 3.2804 112 129 84 
0.596656 -0.509348 4.31255 190 152 25 
0.737983 -0.794429 4.30283 183 147 11 
0.298122 -0.808211 3.3673 76 67 52 
0.826372 -1.19802 4.36382 211 243 116 
-0.236623 -0.194981 3.17685 157 115 5 
-0.311663 -0.260901 3.2422 108 105 100 
0.481455 -0.75479 3.29485 210 188 131 
-0.252459 -0.145426 2.72659 139 74 16 
0.182243 -0.759646 3.34148 41 46 16 
-0.216684 -0.112737 2.7829 90 27 0 
0.773584 -1.03374 4.4286 224 182 61 
0.594846 -0.506135 4.28539 71 36 0 
0.887781 -1.11618 4.38481 170 156 143 
-0.218586 -0.145887 3.8385 253 224 158 
0.917824 -1.14505 4.39197 216 214 199 
0.901894 -0.840591 4.38634 82 79 72 
0.5443 -1.37116 4.39523 219 202 176 
-0.254789 -0.210324 3.10497 159 117 7 
0.533649 -1.00585 4.4287 43 27 2 
-0.308117 -0.276907 3.22988 20 19 17 
0.744086 -0.794458 4.28595 199 161 16 
0.43933 -0.716822 3.25138 187 161 112 
0.845655 -1.13271 4.33845 129 143 58 
0.839754 -0.879321 4.33444 76 77 72 
-0.18274 0.432434 3.70297 201 228 209 
-0.158654 0.806342 4.20293 194 180 167 
-0.447785 -0.275175 3.29803 76 39 0 
0.578616 -1.24259 4.35912 239 230 223 
0.597034 -1.26156 4.31966 245 230 223 
0.581995 -0.996501 4.33402 158 114 5 
0.49252 -0.823015 3.58257 42 13 5 
0.744634 -0.929996 4.41186 255 244 167 
0.52732 -1.01067 4.38509 84 41 0 
0.684734 -1.03964 4.3941 230 185 42 
0.93023 -1.07513 4.41569 26 23 18 
0.768767 -0.987069 4.41924 235 191 43 
0.825391 -1.15966 4.34753 157 187 75 
0.725503 -1.19389 4.31826 30 43 0 
0.755362 -1.19631 4.32765 228 232 195 
0.537673 -1.36276 4.44104 129 92 14 
0.490964 -0.813347 3.61978 125 117 106 
0.244298 -1.37717 3.51935 156 36 46 
0.653507 -0.998451 4.38339 40 21 14 
0.835567 -0.877664 4.34765 92 93 88 
0.835522 -0.796484 4.3469 16 13 8 
0.361201 -0.636203 3.17888 202 180 123 
0.606824 -0.518215 4.31327 197 155 11 
0.818182 -1.1704 4.37404 37 31 0 
0.593938 -1.21853 4.31541 188 180 167 
0.898475 -1.12707 4.37341 59 36 30 
0.754365 -1.15084 4.35216 85 69 54 
0.509007 -1.13417 3.84081 32 12 0 
0.942478 -1.15198 4.40491 36 34 19 
0.912001 -1.13622 4.39056 40 38 23 
0.931426 -1.13721 4.38527 92 93 75 
0.865903 -1.16286 4.37147 68 95 0 
0.82741 -1.14247 4.37475 73 72 42 
0.358816 -0.657577 3.2165 72 82 32 
0.370212 -0.66016 3.20185 163 183 134 
0.710239 -1.2091 4.34351 71 86 1 
0.756883 -1.18804 4.34363 89 98 55 
0.808066 -1.18843 4.35577 174 185 116 
0.887824 -1.17275 4.38322 74 92 18 
0.80273 -1.14193 4.35331 125 96 90 
0.752545 -1.1753 4.33644 158 164 118 
0.681724 -1.20623 4.32521 144 86 82 
0.939563 -1.0829 4.40892 117 113 102 
0.771856 -1.19002 4.3563 144 170 81 
-0.634695 -0.455994 3.60844 94 93 89 
-0.189498 0.44781 3.75233 139 170 154 
0.845986 -1.13869 4.36232 126 143 63 
0.861293 -1.12417 4.36983 118 130 64 
-0.0735866 -1.11268 3.22766 108 87 58 
0.314271 -0.804658 3.36732 103 89 80 
-0.00646807 -0.0258657 2.85095 89 37 0 
0.54185 -1.12574 3.82049 25 10 0 
0.0152289 -1.0128 3.29456 33 12 0 
0.889405 -1.18234 4.39375 226 233 191 
0.91108 -1.1598 4.38677 179 180 162 
0.787497 -1.16531 4.34271 93 108 25 
0.767708 -1.16384 4.34406 46 53 9 
0.789433 -1.15364 4.34951 59 42 0 
0.793491 -1.17334 4.36124 61 69 12 
0.801081 -1.18053 4.3543 144 144 92 
0.784516 -1.17969 4.34822 160 187 84 
0.847338 -1.19335 4.38301 170 195 104 
0.816748 -1.19158 4.36716 71 96 0 
0.834987 -1.19564 4.39046 80 105 14 
0.311809 -0.804265 3.3574 109 86 80 
0.691871 -1.13757 4.35009 42 41 0 
-0.203585 0.452343 3.75711 212 240 226 
0.697202 -1.16698 4.32581 44 41 10 
0.178235 -0.760675 3.34178 46 40 4 
0.7287 -1.19363 4.3349 26 39 0 
0.849508 -1.1822 4.37158 227 242 185 
0.717867 -1.15858 4.3356 35 42 0 
0.741938 -1.15828 4.33474 179 175 146 
0.875355 -1.16101 4.37334 59 87 0 
0.140118 -0.758948 3.32639 196 173 123 
-0.38135 -0.438172 3.53515 28 18 0 
0.572723 -0.673146 3.1647 157 138 105 
0.501435 -0.820035 3.55486 64 52 38 
-0.0846715 -1.09729 3.23432 119 101 77 
0.785696 -1.18164 4.35888 91 109 27 
0.158662 -0.756817 3.33061 63 44 4 
0.161329 -0.760212 3.34441 52 35 0 
-0.053327 -1.13104 3.23986 231 216 185 
0.523248 -1.1332 3.81686 47 25 2 
0.700326 -1.22283 4.34041 253 236 220 
0.663301 -1.23275 4.33638 203 187 174 
0.534684 -1.11856 3.82546 23 5 0 
0.748809 -1.1666 4.32992 196 190 174 
0.809563 -1.16854 4.3467 141 136 106 
0.820184 -1.16756 4.34418 53 42 12 
-0.076582 -1.09603 3.22828 112 89 55 
0.868455 -1.14038 4.36573 120 149 57 
0.712187 -1.1945 4.36497 54 70 21 
-0.194894 0.445625 3.72998 193 223 211 
0.837774 -1.17822 4.36926 196 213 119 
0.811014 -1.15721 4.36263 147 168 75 
0.893942 -1.16429 4.39055 26 34 0 
0.917217 -1.12936 4.3886 118 107 79 
0.698107 -1.1967 4.32783 41 23 1 
0.930728 -1.17106 4.40144 212 210 189 
0.739376 -1.1998 4.31675 189 206 114 
0.897664 -1.16357 4.38013 33 37 4 
0.900904 -1.12646 4.369 56 24 25 
-0.315822 -0.258999 3.24893 108 105 100 
0.207368 -0.735467 3.32918 163 149 114 
0.1755 -0.739168 3.32365 76 60 26 
-0.678802 -0.380595 3.5811 25 24 22 
0.767183 -1.18053 4.34509 182 209 94 
0.525446 -0.677552 3.1808 72 53 23 
-0.428267 0.923434 3.66458 153 139 128 
0.835884 -0.900464 4.38544 26 24 25 
0.00570091 -0.0412481 2.84672 120 71 0 
-0.0746907 -0.0452897 2.82735 94 34 0 
-0.0978697 -0.0844124 2.80104 118 62 0 
-0.272945 -0.0678557 2.70037 240 228 216 
-0.288082 -0.138432 2.75766 189 148 42 
0.607035 -1.25593 3.85963 107 92 69 
-0.058627 -1.13001 3.23877 54 39 0 
-0.0733102 -1.11221 3.22742 98 85 53 
0.649326 -1.2289 4.33632 162 127 123 
0.669023 -1.23114 4.3468 217 183 174 
0.622765 -1.22376 4.32367 115 105 95 
0.655029 -1.22508 4.32218 84 43 37 
0.629194 -1.21432 4.33111 108 100 89 
0.641847 -1.21198 4.31951 145 135 126 
0.695184 -1.2143 4.33308 177 119 105 
0.73677 -1.21468 4.35274 135 136 104 
0.653233 -1.20537 4.32959 162 95 87 
0.704223 -1.19366 4.3241 148 147 99 
0.830986 -1.20264 4.3864 116 134 22 
0.766044 -1.1941 4.35722 107 127 28 
-0.66867 -0.450991 3.64242 130 127 120 
0.759522 -1.18766 4.33787 95 103 52 
0.824806 -1.19085 4.34871 81 102 0 
0.811969 -1.18856 4.34675 172 186 109 
0.719726 -0.695584 3.14236 180 164 130 
0.706789 -1.17658 4.33203 119 126 72 
0.693407 -1.17438 4.32613 115 108 82 
0.857449 -1.18618 4.38728 86 112 25 
0.367894 -0.659484 3.20491 83 90 39 
0.758289 -1.17466 4.32391 155 162 111 
0.611516 -0.692494 3.1262 64 49 26 
0.831955 -1.17996 4.35956 122 121 38 
0.577957 -0.696945 3.12138 75 56 13 
0.685263 -1.16315 4.32217 102 70 49 
0.855593 -1.17685 4.37285 180 195 136 
0.915172 -1.18044 4.39941 93 93 65 
0.728844 -1.16182 4.34152 142 147 93 
0.835704 -1.16907 4.34777 168 173 89 
0.683808 -1.15711 4.34591 105 103 55 
0.880696 -1.17096 4.38283 174 201 98 
0.230705 -0.681178 3.28616 58 35 0 
0.772231 -1.15821 4.34701 170 169 138 
0.538002 -0.754382 3.23276 208 188 135 
0.899081 -1.16598 4.37941 46 53 22 
0.622193 -0.769456 3.30056 106 83 33 
0.925551 -1.1667 4.39126 75 76 44 
0.165747 -0.729483 3.29037 224 200 156 
0.182297 -0.734231 3.28877 93 71 30 
0.191926 -0.737523 3.31465 82 67 34 
0.142194 -0.751532 3.3124 105 82 32 
0.887416 -1.15894 4.37624 88 110 27 
0.92892 -1.16019 4.37793 44 47 20 
0.91104 -1.1587 4.38798 144 146 132 
0.501568 -0.803198 3.54221 87 99 87 
0.895352 -1.15552 4.38145 156 166 132 
0.811346 -1.1459 4.36154 48 44 6 
0.317865 -0.804957 3.34943 106 86 77 
0.923766 -1.14606 4.38143 163 164 150 
0.905562 -1.13971 4.37485 113 119 93 
0.624508 -1.06856 3.51366 234 130 119 
0.0183872 -1.01312 3.29129 37 11 0 
0.888528 -1.12704 4.37184 144 145 114 
0.897034 -1.107 4.38272 131 120 116 
0.841206 -1.17381 4.36664 168 187 105 
0.68051 -1.2984 4.47896 116 64 0 
0.896363 -1.10356 4.40126 36 22 21 
0.867612 -1.18028 4.37683 149 174 90 
0.87929 -1.171 4.3725 124 157 42 
0.709633 -0.707357 3.25132 124 102 65 
0.786244 -1.06083 4.51132 40 0 0 
0.916271 -1.1294 4.38392 123 105 83 
0.819909 -1.1794 4.35433 69 46 0 
0.878511 -1.18706 4.39746 202 220 134 
0.867965 -1.18734 4.39212 178 209 92 
0.694303 -0.994782 4.42517 228 189 52 
0.729062 -1.12072 4.36562 32 15 0 
0.592496 -1.2503 3.88128 106 88 50 
0.889181 -1.13465 4.38615 119 122 91 
0.785691 -1.18773 4.35197 151 176 84 
0.64847 -0.678795 3.16129 185 165 130 
0.521267 -0.863543 3.74747 49 38 6 
0.725107 -1.13347 4.3586 102 96 60 
0.820081 -1.14071 4.35095 117 108 93 
0.13518 -0.787763 3.40049 60 70 36 
0.806985 -1.14211 4.34351 129 100 92 
0.839203 -1.2059 4.35445 205 221 97 
0.726596 -1.13974 4.33857 102 100 49 
0.510066 -0.814626 3.51458 46 52 42 
0.738396 -1.14256 4.34407 130 124 112 
0.713276 -1.14528 4.34753 25 28 0 
0.679778 -1.14198 4.34937 104 96 34 
-0.269205 -0.228784 3.14743 162 118 0 
0.558507 -1.37798 4.50321 255 243 94 
0.852766 -1.1638 4.35853 141 168 73 
0.565158 -1.31612 4.49984 78 25 0 
-0.0706583 0.0176956 2.80859 127 90 9 
0.605137 -0.667131 3.12451 180 157 115 
0.670677 -1.21298 4.31815 86 27 21 
0.660033 -1.20387 4.31438 171 106 100 
0.685044 -0.684001 3.20353 71 55 22 
0.685041 -1.19282 4.33301 157 108 94 
0.729667 -1.19352 4.33456 38 57 0 
0.699863 -1.18144 4.32238 145 143 95 
0.819833 -1.19149 4.36001 77 98 0 
0.836822 -1.19069 4.3818 158 186 101 
0.833366 -1.18547 4.34888 207 221 124 
0.874368 -1.18779 4.40956 202 220 134 
0.515766 -1.12378 3.82413 29 7 0 
0.540542 -1.12545 3.82154 20 5 0 
0.888368 -1.18341 4.3958 231 238 197 
0.693979 -0.691366 3.19403 180 164 130 
0.848716 -1.17478 4.38016 102 117 58 
0.826705 -1.16886 4.37109 170 171 91 
0.911604 -1.16899 4.39144 140 145 105 
0.786875 -1.15905 4.3776 157 158 100 
0.765347 -1.15318 4.34458 175 150 130 
0.895032 -1.15978 4.36666 35 48 2 
0.939266 -1.16469 4.40977 74 71 56 
0.723362 -1.14399 4.34978 50 49 3 
0.895552 -1.14859 4.37011 47 57 22 
0.947311 -1.15434 4.39316 56 54 39 
-0.094038 -0.0701718 2.81549 125 59 1 
-0.0923617 -0.0768753 2.78872 79 23 0 
0.929587 -1.13558 4.3708 143 148 116 
0.826533 -1.12666 4.36623 28 19 0 
0.893455 -1.12554 4.35754 162 162 134 
-0.18976 -0.113692 2.77337 132 67 0 
-0.271563 -0.135797 2.73729 98 44 0 
0.938016 -1.08398 4.41471 111 102 93 
0.799253 -1.034 4.43053 206 165 59 
0.530466 -0.753122 3.24338 192 172 119 
-0.298476 -0.302158 3.32476 91 63 16 
0.784648 -0.979109 4.39999 107 55 0 
0.511079 -0.763043 3.26057 175 164 118 
-0.281463 -0.213149 3.16815 134 95 0 
0.178631 -0.736791 3.31169 98 82 49 
0.204743 -0.745684 3.31425 14 8 0 
0.497136 -0.860124 3.59608 47 28 21 
0.537692 -0.860948 3.74715 185 167 127 
0.185502 -0.760333 3.33248 46 36 1 
0.151869 -0.756149 3.31998 59 34 0 
0.513461 -0.845318 3.55327 119 106 98 
0.839044 -1.16597 4.3795 101 132 28 
0.69392 -1.30697 4.49916 94 38 0 
0.715166 -1.21798 4.39729 96 99 52 
0.825445 -1.17257 4.31377 125 120 82 
0.632987 -1.21997 4.31376 239 229 220 
-0.331715 -0.264583 3.26204 18 17 12 
0.466622 -1.30034 4.51618 166 151 128 
-0.27458 -0.215799 3.15998 138 98 0 
-0.505995 -0.459297 3.55936 189 172 120 
0.662973 -1.20907 4.24357 108 100 89 
-0.696977 -0.445389 3.66078 46 41 35 
0.70062 -1.20579 4.33989 182 186 110 
0.435893 -0.644 3.13794 78 54 16 
-0.194664 -0.187865 3.12141 128 87 0 
0.833894 -1.18833 4.36903 68 91 0 
0.670688 -1.16353 4.20863 255 255 186 
0.84496 -1.1846 4.37048 93 110 42 
0.552141 -1.12567 3.79763 26 11 0 
0.725353 -0.706608 3.47225 201 181 131 
0.764571 -1.16278 4.33404 175 173 148 
0.919336 -1.1772 4.40895 211 211 185 
0.698946 -0.723388 3.31086 128 102 51 
0.876791 -1.16154 4.3697 58 91 0 
0.462215 -0.732227 3.23487 176 200 148 
0.746362 -1.14031 4.33703 32 23 16 
-0.152845 -0.131119 3.00429 47 4 0 
0.943494 -1.15335 4.4042 36 34 21 
0.752058 -1.12628 4.34542 27 6 0 
0.919837 -1.13576 4.37539 34 37 8 
-0.182072 -0.0880621 2.78943 112 51 0 
0.90154 -1.12639 4.36871 50 26 16 
-0.0333822 -0.979935 3.26445 26 8 0 
-0.181027 -0.0271546 2.75409 230 219 199 
0.0235488 -1.01684 3.30947 55 28 7 
-0.201982 -0.201312 3.15616 125 91 0 
0.936882 -1.14689 4.37847 16 13 6 
-0.273356 -0.239351 3.35002 151 128 34 
0.560603 -0.839856 3.70884 61 43 7 
0.928237 -1.15787 4.39523 40 38 23 
0.514187 -0.819241 3.5613 28 4 0 
0.656244 -1.21721 4.29273 237 227 217 
-0.255015 -0.176533 2.96181 48 0 0 
0.451575 -0.704014 4.37507 36 21 2 
-0.0801767 -1.1225 3.24267 111 94 64 
0.578699 -1.23214 4.34664 114 107 97 
0.670807 -1.23265 4.3144 212 199 182 
0.198318 -0.743482 3.32472 14 8 0 
0.702762 -1.22272 4.33515 255 237 226 
0.682402 -1.21542 4.32639 147 54 46 
0.162322 -0.760144 3.34318 69 51 11 
0.566464 -0.84002 3.72686 82 60 19 
0.723394 -1.15253 4.34132 134 145 77 
0.578835 -1.1039 3.87669 34 16 0 
-0.860415 -0.760848 4.12641 15 46 28 
0.610249 -1.07083 3.53783 211 126 105 
0.0275243 -1.00912 3.28618 35 11 1 
-0.190745 -0.0239426 2.76378 230 219 199 
0.696712 -0.726665 3.45829 104 95 56 
-0.697748 -0.429965 3.65254 135 134 132 
0.886977 -1.13684 4.36877 57 71 10 
0.743856 -1.12712 4.36224 28 9 0 
0.876159 -1.10815 4.37393 63 52 22 
0.831025 -1.13494 4.37159 121 119 78 
0.930934 -1.1697 4.40698 210 209 188 
0.809752 -1.17382 4.34735 147 145 106 
0.58837 -1.23176 4.32717 99 92 82 
0.628389 -1.23266 4.38951 222 193 189 
0.629341 -1.21985 4.27606 235 225 215 
0.670653 -1.23108 4.37427 133 88 82 
0.595547 -1.21318 4.29757 110 97 88 
0.726991 -0.702611 3.22649 199 178 135 
0.743187 -1.21029 4.34317 167 169 129 
0.688979 -1.19516 4.31854 187 105 91 
0.765018 -1.18598 4.32646 65 76 18 
0.886454 -1.19898 4.41809 247 236 206 
0.717097 -0.722072 3.29255 115 93 54 
0.716555 -0.72517 3.27013 63 40 0 
0.40279 -0.694689 3.20685 140 155 112 
0.838329 -1.16617 4.33418 172 191 86 
0.938906 -1.16983 4.38152 210 209 188 
0.555959 -0.849515 3.71776 199 179 128 
-0.186838 -0.111982 2.75995 94 29 1 
-0.0852904 0.0214651 2.81821 130 88 4 
0.532268 -1.35952 4.4485 133 95 10 
0.881932 -1.17537 4.35146 81 110 17 
0.792589 -1.19342 4.33683 74 103 0 
0.523468 -0.81964 3.53179 28 3 0 
-0.662258 -0.435481 3.61407 125 124 122 
-0.188826 -0.190164 3.11306 133 91 7 
-0.263878 -0.0747647 2.69422 250 238 226 
-0.203476 -0.0830262 2.68565 248 236 210 
-0.155236 -0.0338995 2.72741 255 244 226 
0.570701 -1.23079 4.41609 222 212 202 
0.687032 -1.22867 4.37374 254 240 229 
0.684884 -1.21853 4.33937 221 117 114 
0.645304 -1.20244 4.3133 223 206 188 
0.751388 -1.19899 4.2906 179 195 107 
0.741492 -1.19061 4.3334 51 64 10 
0.711523 -1.18196 4.32207 27 37 0 
0.877328 -1.19991 4.44341 245 238 212 
0.454266 -0.705207 4.36163 49 39 29 
0.492361 -0.813618 3.62097 127 124 117 
0.541532 -0.823053 3.50056 42 11 8 
0.907258 -1.1262 4.35371 56 27 19 
-0.456175 0.944884 3.69507 205 194 188 
-0.174968 -0.19768 3.09351 127 85 9 
0.517596 -0.830333 3.51686 29 6 0 
-0.326546 -0.390105 3.58162 16 17 9 
-0.121894 -0.0347183 2.73872 251 239 217 
0.731802 -1.20794 4.30547 75 95 23 
0.919625 -1.16494 4.36205 229 234 194 
0.539912 -0.933249 4.33618 6 1 0 
-0.384986 -0.787183 3.8197 236 226 217 
-0.0943081 -0.0361463 2.83471 213 160 44 
0.601871 -1.22568 4.39567 239 229 220 
0.935161 -1.16666 4.36898 79 80 49 
0.584321 -1.24157 4.32177 239 232 226 
0.841487 -1.14138 4.33353 45 48 3 
0.659085 -0.802172 4.24991 162 138 16 
0.92703 -1.09215 4.44579 90 81 72 
0.488995 -0.857635 3.60284 66 50 37 
0.304772 -0.810223 3.35351 100 94 78 
-0.225115 -0.218602 3.0703 132 88 1 
0.672117 -1.22791 4.29795 119 65 63 
-0.0630024 -0.0439834 2.80855 242 199 6 
-0.0540873 -0.0541355 2.8178 98 32 0 
-0.0804576 -0.0579421 2.84675 247 203 10 
-0.192347 -0.0863957 2.67196 252 239 223 
-0.211807 -0.112417 2.77791 107 43 8 
-0.24215 -0.14697 2.71731 134 74 11 
0.912562 -1.16727 4.37846 230 234 199 
0.77247 -0.988403 4.44142 112 69 1 
0.772253 -1.03159 4.42496 233 195 88 
0.648306 -1.04246 4.49402 243 204 85 
-0.726895 -0.364619 3.6322 21 20 18 
0.785343 -1.17633 4.31241 154 179 59 
-0.256079 -0.224592 3.12996 123 81 0 
-0.229449 -0.194029 3.17796 119 84 3 
0.914461 -1.07942 4.41193 16 11 8 
0.470387 -0.729265 3.20833 54 124 62 
0.733245 -1.17353 4.33869 104 113 56 
0.943913 -1.15794 4.40501 95 94 89 
0.989881 -1.16404 4.41684 231 228 219 
0.7693 -1.18319 4.3587 161 188 83 
0.805528 -1.13402 4.36668 158 120 117 
0.690798 -1.20895 4.33977 64 26 3 
0.731413 -1.18732 4.34434 157 175 93 
0.931017 -1.14829 4.40003 37 34 25 
0.74779 -1.12038 4.36981 127 91 67 
0.79923 -1.17521 4.35943 77 76 30 
0.740608 -1.17511 4.34431 73 77 40 
0.747836 -1.14697 4.35978 81 72 63 
0.796451 -1.15783 4.35574 137 138 80 
0.777294 -1.16704 4.35304 135 154 73 
0.98878 -1.16642 4.42173 225 225 213 
0.941879 -1.16159 4.41264 123 121 106 
0.644049 -0.929138 4.28104 18 11 0 
0.678405 -1.20234 4.3362 68 0 0 
0.686048 -1.19215 4.3337 164 107 98 
0.695566 -1.19297 4.33753 122 115 71 
0.731472 -1.18993 4.34778 167 178 112 
0.754681 -1.18823 4.34848 89 98 55 
0.751754 -1.18526 4.3479 208 213 172 
0.720053 -1.18124 4.34121 79 93 0 
0.857099 -1.18021 4.37425 211 229 171 
0.689972 -1.16606 4.33893 99 95 58 
0.709971 -1.16107 4.33704 7 15 0 
0.758989 -1.16318 4.34762 172 165 146 
0.727683 -1.16274 4.34522 142 145 90 
0.788726 -1.17016 4.35288 167 177 104 
0.764329 -1.1539 4.35287 175 150 130 
0.714378 -1.14584 4.34583 24 27 0 
0.812216 -1.14685 4.35968 49 53 16 
0.715588 -1.16916 4.34145 54 61 10 
0.825068 -1.13962 4.36235 132 128 103 
0.856212 -1.12248 4.36969 38 47 0 
0.884016 -1.12317 4.37312 129 133 96 
0.89572 -1.12259 4.37754 138 107 105 
0.774267 -1.18861 4.35681 181 209 109 
0.69544 -1.1823 4.33252 101 97 52 
0.698281 -1.18434 4.33832 161 165 104 
0.874633 -1.13855 4.3707 66 90 2 
0.889639 -1.1063 4.38085 74 61 52 
0.751805 -1.14348 4.35108 85 72 63 
0.73438 -1.14432 4.35 135 128 109 
0.869928 -1.11034 4.37805 119 110 67 
0.738602 -1.19052 4.34566 56 62 16 
0.763387 -1.1852 4.35013 185 206 113 
0.708553 -1.16854 4.33792 141 139 114 
0.837795 -1.1695 4.36401 72 95 5 
0.734003 -1.15132 4.34563 55 55 21 
0.71327 -1.14642 4.34827 24 27 0 
0.742264 -1.14507 4.3554 55 47 36 
0.718443 -1.14162 4.35211 114 114 60 
0.731439 -1.1408 4.35297 131 125 103 
0.800755 -1.1758 4.35947 66 68 19 
0.827421 -1.12827 4.36592 38 32 0 
0.746633 -1.12153 4.37204 143 107 85 
0.799374 -1.18084 4.35898 144 144 92 
0.753687 -1.17742 4.34598 181 188 136 
0.744019 -1.1505 4.35043 137 130 114 
0.728157 -1.17185 4.34013 149 162 90 
0.755847 -1.17857 4.34792 186 197 131 
0.689826 -1.18229 4.33772 43 28 0 
0.722694 -1.18014 4.33894 67 81 0 
0.744126 -1.18212 4.3449 215 217 177 
0.755236 -1.16534 4.34456 80 75 53 
0.723178 -1.15038 4.34226 127 133 69 
0.802764 -1.14176 4.36062 135 108 101 
0.827703 -1.12296 4.37212 108 104 69 
0.918182 -1.14433 4.38023 133 134 116 
0.729801 -1.18642 4.34371 177 189 117 
0.697245 -1.22333 4.3497 253 236 220 
0.827743 -1.1681 4.36102 154 160 88 
0.720621 -1.15286 4.3478 124 131 63 
0.756187 -1.14819 4.3578 44 22 11 
0.876593 -1.14906 4.3708 113 140 35 
0.884144 -1.13968 4.37674 61 81 10 
0.749115 -1.14499 4.35557 77 65 53 
0.733819 -1.13126 4.35449 24 15 0 
0.744278 -1.16757 4.34658 196 190 174 
0.806199 -1.16317 4.35647 39 38 0 
0.922367 -1.16414 4.40182 74 76 54 
0.926255 -1.15748 4.38751 36 36 24 
0.894256 -1.11175 4.37554 157 138 131 
0.741521 -1.13967 4.34666 26 17 8 
0.744972 -1.12959 4.35507 25 13 1 
0.815783 -1.15857 4.35941 152 178 79 
0.818583 -1.13296 4.36774 56 31 24 
0.938205 -1.16625 4.42332 101 99 86 
0.690249 -1.17451 4.33282 121 109 93 
0.691128 -1.16406 4.33438 119 112 66 
0.72744 -1.16258 4.34506 156 154 103 
0.894029 -1.14662 4.37114 74 87 44 
0.669707 -1.20464 4.33308 99 50 46 
0.737179 -1.19184 4.35034 60 66 18 
0.774063 -1.18851 4.35699 186 215 109 
0.829861 -1.17009 4.36449 176 185 96 
0.765571 -1.15193 4.35079 132 94 83 
0.683167 -1.183 4.33217 162 95 87 
0.891768 -1.13719 4.37629 126 132 94 
0.797027 -1.19339 4.36874 79 89 29 
0.69076 -1.16286 4.3371 136 130 70 
0.886908 -1.12278 4.37637 182 177 158 
0.761073 -1.15875 4.34702 191 180 160 
0.87596 -1.13728 4.36764 92 114 32 
0.681344 -1.1785 4.33286 141 89 76 
0.887517 -1.1393 4.37099 84 94 44 
0.727042 -0.79844 4.26808 176 150 53 
0.729197 -0.682108 4.29059 199 160 29 
0.689556 -1.1385 4.35491 45 42 0 
0.89686 -1.10949 4.3709 145 128 120 
0.742756 -1.15147 4.33084 180 173 147 
0.719206 -1.15785 4.33855 67 70 17 
0.720597 -1.18003 4.33819 102 117 24 
0.763687 -1.14249 4.35003 70 15 10 
0.678735 -1.13561 4.34332 49 31 0 
0.690876 -1.13777 4.3509 53 53 0 
0.828414 -1.12866 4.36641 47 37 1 
0.831478 -1.11853 4.36061 123 114 73 
0.748674 -1.11983 4.36978 140 104 78 
0.884545 -1.10745 4.37841 164 146 132 
0.801144 -1.03291 4.4315 201 155 69 
0.632858 -0.821707 4.24695 43 36 30 
0.943716 -1.06987 4.41713 74 64 55 
0.893386 -1.10302 4.38218 56 41 34 
0.689614 -1.12205 4.35658 49 43 0 
0.915478 -1.13148 4.38338 125 103 80 
0.537641 -0.387487 4.60297 79 65 30 
0.781133 -1.03487 4.43327 216 171 56 
0.895834 -1.14283 4.37614 40 44 21 
0.734244 -1.16382 4.33393 70 69 23 
0.87761 -1.15951 4.36685 84 112 9 
0.692779 -1.16278 4.33223 132 127 71 
0.788948 -1.15272 4.35154 81 60 33 
0.806773 -1.13571 4.36015 170 140 130 
0.735422 -1.12752 4.35362 30 21 16 
0.594792 -0.50996 4.2885 148 101 0 
0.258884 -0.624742 4.40236 59 39 4 
0.679591 -1.14467 4.34985 97 84 31 
0.91336 -1.09181 4.39294 123 98 93 
0.899262 -1.15367 4.36985 124 125 109 
0.188589 -0.832305 3.45003 13 24 7 
0.708868 -1.16784 4.33653 146 141 121 
0.88932 -1.14793 4.36931 139 155 92 
0.748061 -1.13729 4.33962 53 45 34 
0.235708 -0.797775 3.4564 132 99 92 
0.604802 -0.45906 4.29526 208 170 73 
0.654667 -1.36321 4.47138 255 253 157 
0.395813 -0.575248 4.30145 145 127 53 
0.72437 -1.14788 4.33847 133 136 67 
0.841915 -1.2785 4.48187 117 63 1 
0.689634 -1.14449 4.33911 99 92 46 
0.751661 -1.14278 4.34715 82 74 63 
0.896736 -1.11997 4.37391 168 143 138 
0.956473 -1.16058 4.38034 247 239 226 
0.766814 -1.16477 4.34307 81 85 35 
0.52823 -0.313557 4.45661 42 33 24 
0.661273 -1.21987 4.31772 186 149 141 
0.594822 -0.477938 4.27845 68 35 0 
0.812799 -1.14403 4.3528 57 52 33 
0.83616 -1.18072 4.36928 197 214 122 
0.944954 -1.08399 4.39712 136 127 122 
0.708336 -1.14751 4.34424 39 40 6 
0.838984 -0.903817 4.37539 41 40 36 
0.593045 -0.467567 4.31435 201 161 48 
0.451955 -1.2926 4.33272 84 79 73 
0.838854 -1.28689 4.49499 103 51 0 
0.537963 -1.11955 3.95348 42 31 11 
0.74066 -0.798233 4.27964 22 16 0 
0.745435 -1.16046 4.33786 212 200 184 
0.642445 -0.805116 4.28641 184 153 28 
0.228654 -0.806384 3.45435 47 28 22 
0.737008 -1.11447 4.36447 34 18 3 
0.939249 -1.1725 4.41289 201 197 185 
0.673701 -1.13373 4.34966 126 104 67 
0.715271 -1.16453 4.34369 112 119 68 
0.68066 -1.14316 4.34769 99 90 33 
0.889983 -1.14802 4.38785 29 39 5 
0.543214 -1.36169 4.42283 126 92 21 
0.634646 -0.918878 4.2726 52 49 44 
0.0959521 -0.721643 3.38897 218 189 145 
0.681765 -1.17852 4.33204 150 99 80 
0.0176161 -0.242932 3.67926 15 14 9 
0.644209 -1.15864 4.33451 89 16 0 
0.6581 -1.15585 4.33875 61 15 0 
0.932329 -1.12044 4.37634 117 103 92 
-0.214474 -0.0172188 2.91757 86 22 0 
0.706643 -1.30659 4.47143 100 45 0 
0.706388 -1.16036 4.34286 53 54 12 
0.735121 -1.15946 4.35 194 187 161 
0.443701 -0.411916 4.33331 111 99 51 
-0.115301 0.0155257 2.95534 87 30 0 
0.684685 -1.15954 4.34728 133 137 61 
0.67669 -1.16297 4.33334 147 76 54 
0.803284 -0.921374 4.32371 181 147 21 
