ply                 
format ascii 1.0    
element vertex 1289
property float x    
property float y    
property float z    
property uchar red  
property uchar green
property uchar blue 
end_header          
-1.01973 0.428267 6.80363 21 19 7 
1.18808 0.441902 5.42867 4 3 1 
-0.763744 0.665339 6.90038 177 137 3 
1.21901 -0.0670134 5.47537 163 177 100 
-0.566311 1.88869 7.62625 126 110 87 
0.96694 0.308296 5.63575 100 99 95 
1.31502 -0.0570151 5.39551 240 231 192 
1.15929 -0.210582 6.65867 136 114 73 
1.1871 0.492798 5.45785 77 76 72 
-0.0567024 0.303659 5.30071 83 58 27 
0.970679 0.30618 5.62245 93 92 90 
0.00463974 1.69273 7.51782 202 153 16 
-0.11474 1.70139 7.504 216 167 13 
-1.30763 2.08469 7.58532 107 97 87 
1.21275 -0.0307727 5.51437 156 168 84 
0.917863 0.275757 5.67788 126 126 124 
-0.229983 1.21645 7.42213 212 171 17 
-1.03011 0.906081 6.92949 102 78 42 
-0.235264 1.796 7.511 219 175 6 
0.61892 0.96935 6.54046 54 23 0 
-0.90469 0.508461 6.7927 107 104 99 
1.34436 0.0940432 5.2189 72 68 56 
0.723231 0.716592 6.15663 6 4 7 
0.0637779 0.0991908 5.59781 116 120 106 
0.974343 0.641637 5.63397 217 174 9 
1.26776 0.0338229 5.36242 161 182 65 
-0.528936 1.80284 7.74206 112 81 1 
-1.24404 0.827103 6.71186 237 195 35 
1.3193 -0.0569789 5.41262 233 230 185 
1.22056 -0.164225 6.64442 108 92 56 
-1.51968 0.820419 6.46207 237 196 10 
-0.954736 0.445636 6.76142 67 66 62 
-0.217057 1.38714 7.3358 225 182 7 
-1.6017 0.421487 6.74473 161 65 7 
-0.123086 1.3107 7.3168 198 157 17 
-1.06276 0.780531 6.7612 118 70 0 
-0.867453 0.817549 6.86018 97 94 87 
-0.152961 1.54455 7.41826 60 26 0 
-1.25303 0.801926 6.72681 227 185 15 
0.074573 -0.00594683 5.58502 14 48 31 
-0.820888 0.608813 6.85099 10 9 5 
-1.34641 2.05604 7.64966 189 178 172 
-0.964343 0.509708 6.76185 9 6 1 
-1.49444 0.471942 6.67595 161 46 1 
-1.6741 0.580702 6.52298 224 207 179 
-0.108995 1.28592 7.31599 209 168 14 
-0.179415 1.24285 7.37704 227 186 16 
-0.537657 1.87753 7.61145 225 209 184 
-0.356207 1.22184 7.47046 202 163 10 
0.67238 0.639104 6.18188 83 80 71 
1.16332 0.290747 5.46032 150 102 4 
1.1278 0.320871 5.48866 186 149 6 
0.840123 0.0743823 6.25132 228 220 197 
-0.329354 1.94876 7.4982 153 114 19 
-1.65164 0.794995 6.55412 131 97 8 
1.26997 -0.307991 5.7642 169 160 145 
-0.209967 1.42849 7.3463 124 83 0 
0.98778 0.477205 5.58961 191 162 24 
-0.995813 0.937172 6.89835 137 125 111 
-1.6167 0.767991 6.47724 169 149 124 
0.781855 0.312122 6.42511 189 152 11 
-0.476086 1.16324 7.73432 88 46 0 
1.26504 0.292206 5.487 134 75 5 
-1.01858 1.59961 8.60663 194 183 179 
-1.22664 0.457427 6.87737 116 60 1 
0.177263 0.103314 5.63288 13 69 32 
1.12535 0.305752 5.50252 192 151 7 
1.21409 0.432319 5.43158 9 9 7 
0.67711 -0.742393 6.73219 135 112 68 
1.25778 0.0204257 5.39628 51 54 7 
-0.959905 0.342657 6.99018 219 182 49 
-0.330182 1.94323 7.48445 154 117 13 
1.29081 0.611584 5.50774 32 21 1 
-1.01495 0.405034 6.80103 12 9 2 
-1.01514 1.59157 8.55649 194 183 177 
-0.143632 0.126253 5.39331 27 115 54 
-1.54686 0.918602 6.42364 158 145 126 
1.1569 0.511667 5.45918 92 91 86 
-1.06067 0.799285 6.75233 232 181 14 
-1.32446 0.418161 6.83286 236 195 15 
0.768709 0.308868 6.32271 184 153 13 
0.699629 0.644589 6.17849 111 106 100 
-1.32929 0.419257 6.8566 242 197 16 
0.651202 0.896828 6.55965 49 21 0 
-0.146581 1.26042 7.37324 151 102 0 
-1.33011 0.685798 6.78204 58 19 0 
1.227 -0.0210077 5.46549 139 147 87 
-0.119784 1.26553 7.33254 219 178 26 
-0.154726 1.43002 7.35232 162 126 14 
1.32524 -0.0259892 5.36643 199 234 82 
-1.05073 0.845058 6.75559 222 176 5 
0.716543 0.631402 6.16441 41 38 33 
1.41238 -0.242475 5.53232 205 162 8 
1.0549 1.5857 6.74218 133 92 4 
-1.27401 0.822416 6.73126 124 86 1 
1.13578 -0.13342 5.68209 151 144 128 
-0.826318 0.785743 6.90314 19 12 4 
-0.954976 0.838323 6.80801 9 4 0 
-0.195186 1.35417 7.34291 222 175 9 
-0.116607 1.30342 7.3154 197 152 0 
1.28469 0.0692584 5.31427 148 177 61 
1.23421 1.603 6.77323 114 75 0 
-0.0762161 1.67345 7.52887 103 65 3 
-0.289917 1.91628 7.48574 224 181 7 
-0.124471 1.27154 7.3331 226 188 25 
0.0255318 0.0229947 5.57646 36 23 14 
-0.479088 -0.0865324 6.02835 183 159 113 
-0.145634 1.38214 7.32205 194 148 11 
1.40824 -0.240654 5.51612 207 164 8 
-1.60047 0.826114 6.53026 124 81 3 
-0.482697 -0.707275 6.21701 149 127 86 
1.2823 -0.0215645 5.38197 178 220 72 
-0.160644 1.79013 7.50365 150 113 9 
-1.20375 0.780683 6.73009 225 183 9 
-0.430366 1.29771 7.47278 185 148 7 
-1.51781 0.861018 6.43797 243 223 186 
-0.97899 0.548881 6.75456 152 127 35 
-1.19426 0.635279 6.8129 164 118 30 
-0.201947 1.79373 7.50871 201 162 35 
0.949138 0.364971 5.6402 72 71 69 
-0.878373 0.924525 6.86267 90 87 80 
0.674652 0.695866 6.21873 73 72 68 
-1.18506 0.602349 6.85972 188 126 0 
-0.305727 -0.110223 5.72465 74 14 14 
1.15705 0.329548 5.47386 104 61 0 
-0.947632 2.16625 7.45392 188 175 169 
-0.286123 2.08249 7.53612 138 107 25 
0.0271796 -0.0153069 5.58367 5 40 16 
-1.43071 2.00105 7.75643 202 191 187 
-1.61709 0.695443 6.49352 241 224 204 
-1.28508 0.821598 6.71484 124 88 4 
-0.10035 1.26244 7.32772 126 88 5 
1.07328 0.282137 5.53624 196 156 9 
-0.93657 0.513511 6.75982 15 13 14 
-0.922627 1.54926 8.29235 193 182 176 
-0.758634 2.14809 7.45614 151 141 131 
-0.310079 0.258279 5.2852 74 55 23 
0.976807 0.663833 5.64713 134 100 10 
-1.59871 0.693208 6.44803 245 226 186 
-0.74859 2.11753 7.34569 155 145 135 
0.289604 0.855562 6.08814 65 62 53 
-1.46312 0.735833 6.69059 130 54 4 
-1.69673 1.88817 8.01399 198 187 181 
1.00952 1.54722 6.81051 127 85 1 
-1.44336 2.01871 7.82962 201 190 186 
1.25812 1.69689 6.7777 178 148 75 
-0.00912008 0.111821 5.60398 61 127 81 
-0.313592 0.269452 5.28406 92 72 45 
-0.209393 1.63997 7.44756 110 73 2 
-1.40647 1.99321 7.7551 199 188 182 
0.658671 1.61538 6.88491 128 98 8 
-0.132416 -0.0810299 5.5783 34 128 66 
0.674839 0.686378 6.21353 64 63 59 
-1.55217 0.704921 6.54892 220 172 12 
0.847322 0.780878 5.8936 202 158 9 
-1.60854 0.64643 6.61236 139 71 0 
-0.522187 0.292775 5.43023 92 75 45 
0.780734 0.0445793 6.22409 236 227 210 
0.912672 0.641049 5.89226 163 126 20 
-1.23122 0.43629 6.87269 234 187 11 
0.356606 0.785722 6.13421 9 10 5 
-1.29939 0.846148 6.71604 124 89 5 
-1.233 0.436805 6.88338 233 188 9 
-1.65722 0.535812 6.54763 200 157 52 
-0.224761 1.67032 7.46983 156 123 16 
1.16655 -0.104263 5.61617 109 92 76 
-0.48237 0.146573 5.29483 151 129 88 
-1.04461 0.918451 6.90586 78 62 29 
2.22745 1.82594 8.12244 131 121 112 
-1.13483 0.822467 6.71479 224 182 12 
0.749366 0.127636 6.23042 160 155 133 
-0.869766 1.75034 8.21254 120 110 100 
-1.30284 0.631468 6.76914 142 102 6 
-0.321997 0.350186 5.30415 98 83 52 
0.755862 0.52938 6.40234 10 7 2 
-2.21996 2.60978 6.63143 220 210 208 
1.24695 -0.0572976 5.45953 229 235 189 
0.760508 0.100341 6.22742 196 190 168 
0.882079 1.51802 6.83098 122 83 4 
-0.167044 1.36079 7.36609 186 141 0 
-1.21156 0.532923 6.90103 216 164 18 
1.23342 0.807854 5.74567 134 101 4 
-0.337607 -0.520391 6.23144 126 102 76 
1.14146 0.544816 5.48769 7 7 7 
-0.34876 0.234502 5.26834 125 106 64 
-2.21314 2.58959 6.62931 210 198 198 
-1.65535 0.657781 6.62849 135 76 0 
1.15594 -0.122748 5.63722 149 140 125 
-0.456889 -0.0815143 5.98984 174 153 100 
-0.201397 1.36121 7.29486 209 163 15 
-1.19269 0.63434 6.80318 205 161 54 
-1.60507 1.86635 8.03862 201 190 184 
0.470236 1.00656 6.34329 75 56 14 
0.0422074 0.04512 5.57749 24 9 4 
1.0987 1.59343 6.74397 159 118 0 
0.983086 1.51481 6.81986 125 88 0 
-1.26779 0.496956 6.91748 103 62 16 
1.31568 0.153345 5.30014 102 26 26 
-0.0765039 1.29052 7.19969 102 71 4 
-0.959087 2.0794 7.55601 109 96 87 
-0.256979 1.32555 7.37807 202 159 18 
-1.17541 0.639098 6.80337 239 194 15 
1.32737 0.168521 5.22358 187 179 166 
1.31163 0.783291 5.69075 152 140 124 
-1.63283 1.86889 8.05525 200 189 187 
0.966953 1.5478 6.83041 126 88 5 
-1.04759 0.922346 6.92786 79 63 30 
-1.40265 0.457141 6.84807 224 163 12 
-0.0183491 0.305111 5.29354 125 106 66 
-1.16315 0.407182 6.80577 238 199 18 
-0.261988 1.26151 7.37499 219 171 11 
-1.23353 0.833271 6.72896 190 146 41 
-1.69233 1.91007 8.01162 198 187 183 
1.21789 0.229955 5.62637 234 187 11 
-0.196059 1.75904 7.5067 157 119 10 
-0.0837636 1.86406 7.45662 225 180 19 
0.706218 0.661788 6.17625 63 62 58 
-0.697892 2.13059 7.50127 152 142 133 
1.16323 1.67407 6.75825 137 99 0 
-0.629573 2.13405 7.44776 155 145 136 
-0.561323 1.99211 7.66149 101 89 77 
0.872903 0.0893317 6.38282 229 221 198 
-1.51438 0.937696 6.45068 133 102 12 
-1.57921 0.804042 6.52645 169 121 11 
0.805919 1.5744 6.78952 148 113 11 
-0.00482032 1.74874 7.46975 111 77 5 
-0.759424 2.13478 7.47948 137 127 118 
-1.20203 0.89661 6.72688 229 178 9 
0.938933 0.474977 6.35455 15 4 0 
1.21335 0.328691 5.45027 154 121 5 
1.10734 1.50089 6.81061 154 118 6 
-1.17378 0.650821 6.78716 232 190 10 
-1.23452 0.668087 6.78915 130 89 1 
-0.304095 1.25798 7.40483 215 169 13 
0.969314 1.55131 6.84633 123 82 0 
0.129774 0.14558 5.55833 32 120 60 
1.43307 -0.125545 5.48162 175 126 7 
1.02693 0.445743 5.55519 3 3 5 
-0.197787 1.68024 7.4629 156 124 15 
-0.0158929 1.72676 7.46119 116 79 1 
0.832041 1.47408 6.84136 147 113 5 
-0.6848 2.12937 7.46643 161 148 140 
0.129773 0.145466 5.59117 26 119 64 
2.42036 1.74857 8.2472 185 174 168 
1.20499 0.442962 5.43296 56 55 53 
-0.318868 -0.0574446 5.77337 23 8 3 
-0.811699 0.705232 6.86398 19 10 0 
0.869197 1.49195 6.8309 119 80 1 
-0.871935 0.853646 6.86635 56 54 41 
-0.660964 2.17034 7.42416 173 160 152 
-0.193186 1.42173 7.34029 152 115 8 
-0.451835 -0.512247 6.13039 170 146 98 
-0.935709 0.357581 7.00333 232 197 17 
0.0470258 0.280318 5.42865 176 161 104 
-0.95772 0.871298 6.82861 68 60 49 
-0.244097 0.176081 5.28056 90 68 29 
-0.764067 2.11505 7.48532 164 154 145 
1.361 0.447133 5.4707 18 9 2 
-0.0110948 0.312971 5.30187 125 105 68 
-0.948371 0.426917 6.76641 122 119 110 
-1.40875 1.9057 7.86784 198 187 185 
0.101363 0.225975 5.52041 46 81 41 
0.68964 -0.722915 6.74564 189 162 107 
1.02072 1.48461 6.8163 153 117 7 
0.0151398 0.0263884 5.59061 54 42 30 
-0.393761 2.00115 7.46619 153 137 121 
-0.335623 1.92441 7.50262 221 175 19 
-0.926412 0.880029 6.83126 40 37 30 
-1.01914 0.706931 6.6963 198 153 10 
-1.6438 0.550448 6.59256 241 200 24 
2.28481 1.68667 8.27048 117 108 101 
-0.607994 1.67276 8.30225 115 101 90 
0.456727 0.987029 6.34827 82 59 5 
-0.654467 0.653485 6.98575 128 89 0 
-0.811761 2.10221 7.53487 157 146 140 
-1.6364 0.587496 6.55963 215 165 14 
0.688424 2.09423 6.98379 125 93 6 
-1.48952 1.80414 7.77437 201 190 188 
-1.53788 0.353462 6.75196 196 77 9 
-1.34416 0.413871 6.87258 178 148 86 
-0.427657 1.90724 7.5952 234 211 167 
-0.384076 1.66986 7.67571 160 122 11 
1.21432 0.0468996 5.59322 139 116 10 
-1.42347 0.555134 6.45582 218 177 7 
-0.653758 2.11482 7.36503 161 148 140 
-0.496424 1.93488 7.55065 142 127 108 
-1.07703 2.09431 7.60246 96 83 74 
-1.02879 0.524258 6.76148 215 176 10 
-0.138441 1.29771 7.33239 180 134 14 
0.700682 0.669206 6.19578 63 62 58 
2.44472 1.78916 8.18252 161 151 142 
-0.170196 1.65724 7.46573 122 84 3 
-0.794087 0.656252 6.89101 83 57 0 
0.892943 1.48635 6.81473 143 108 8 
0.846883 1.51708 6.84691 139 105 7 
1.22134 0.1509 5.67598 139 91 7 
0.830689 1.56605 6.77897 125 88 0 
2.43829 1.771 8.20198 163 153 144 
0.485901 1.0409 6.39158 108 88 55 
-1.30674 0.688708 6.75528 124 82 8 
-0.278637 1.70413 7.568 151 112 9 
-0.117973 0.689834 5.75218 70 49 28 
-1.36589 0.783746 6.6974 101 45 0 
-0.767116 0.640326 6.91044 115 83 8 
-0.419019 2.04883 7.51595 145 133 119 
-0.300479 1.81546 7.53116 205 159 4 
-1.17273 1.86627 8.06699 114 101 92 
1.30421 -0.0468926 5.40527 190 219 91 
0.212148 0.392952 5.49349 133 111 64 
0.808683 1.4846 6.84713 141 107 9 
0.0474287 2.3575 7.01316 116 103 87 
0.60534 -0.164182 5.55904 135 113 74 
-0.852733 2.19435 7.38581 186 173 167 
-0.252344 2.36038 7.03806 148 138 129 
1.30176 -0.0468692 5.39537 194 221 104 
-0.41386 2.26952 7.20839 144 131 122 
-0.780478 2.10327 7.57239 188 177 171 
0.708676 0.672805 6.17286 76 75 73 
0.700325 1.53203 6.86291 128 94 4 
0.962473 0.024711 6.38885 0 65 32 
0.124737 -0.166574 5.36521 110 0 12 
0.860834 1.53397 6.83344 111 71 0 
1.20985 0.146767 5.6269 140 92 7 
1.21417 -0.144498 6.63712 102 57 24 
-0.611931 0.160706 5.43512 152 129 87 
-0.137457 0.723518 5.74766 67 46 19 
-1.2932 0.40551 6.89456 245 198 24 
-0.381159 2.26604 7.17315 172 159 150 
-0.308956 1.97 7.48387 167 130 23 
-0.194896 1.4578 7.35612 151 113 12 
-1.14509 0.74593 6.73363 227 186 10 
0.893247 0.667543 5.89148 208 162 6 
-0.278827 1.79091 7.54395 218 168 9 
-0.841928 0.85507 6.83406 82 70 48 
-0.550769 0.313671 5.45002 142 121 78 
-0.0385221 0.104858 5.61522 44 111 67 
0.887611 0.0364552 6.27942 20 74 50 
-0.458206 0.159011 5.30759 135 116 74 
1.21651 -0.145839 6.64989 94 51 17 
-0.213861 2.12897 7.64544 199 185 172 
0.710177 0.674911 6.18468 71 70 68 
0.718678 1.47861 6.85603 139 105 7 
0.318418 0.882648 6.09344 60 57 52 
-0.172156 1.64979 7.53035 122 85 5 
-0.856134 2.21506 7.38605 187 174 168 
1.16895 0.5078 5.4297 74 73 68 
0.942848 0.767617 5.65679 144 112 13 
-1.35512 0.455055 6.79499 188 116 5 
1.93111 1.80918 8.10359 114 104 94 
-1.27762 0.795695 6.71814 119 80 3 
1.2511 0.241839 5.53027 226 178 10 
0.767447 0.54287 6.39805 28 27 25 
-1.31067 0.653604 6.76534 129 89 1 
1.23679 -0.198511 5.63823 241 234 218 
0.48245 1.08974 6.38925 126 101 70 
-0.457222 2.10522 7.54193 177 167 158 
-0.808979 2.11223 7.5055 183 172 166 
-0.245476 2.03731 7.56176 136 103 6 
0.746137 0.356228 6.43784 73 51 2 
-0.398054 2.2316 7.25566 170 157 148 
1.30248 0.0227683 5.33899 219 231 181 
-1.14603 0.868976 6.706 142 76 0 
1.23648 1.64108 6.79741 47 11 0 
-0.588135 1.92793 7.59244 209 194 171 
-0.953763 0.746535 6.73987 177 148 12 
1.31117 0.0918843 5.27527 32 28 25 
0.668549 1.58652 6.89538 30 5 0 
-1.34388 0.43909 6.8428 164 83 1 
-1.18261 0.88586 6.71469 140 75 0 
-0.506572 -0.0396584 5.94902 196 175 128 
1.00237 0.273747 5.63208 13 11 14 
1.26575 0.153233 5.62508 220 180 7 
1.17125 0.348549 5.47032 190 155 3 
1.219 -0.0588616 5.50288 35 49 0 
0.99147 0.247921 5.65584 113 113 101 
-0.507326 1.89448 7.63136 218 201 175 
0.743593 0.638706 6.14538 99 100 86 
-1.00147 0.728042 6.70258 104 65 10 
-0.488947 1.82748 7.68251 233 207 158 
-1.21689 0.900572 6.73026 233 183 22 
-1.30313 0.430607 6.83718 224 182 2 
1.21089 -0.0951375 5.54397 69 22 4 
1.20005 0.416149 5.44763 13 12 10 
-1.49978 0.885558 6.43262 116 86 22 
-1.11747 0.844549 6.708 216 166 5 
1.20072 0.417648 5.47338 11 11 9 
-1.05055 2.18068 7.48306 196 183 177 
1.21211 -0.0314524 5.50954 148 158 59 
1.3504 0.0934963 5.23139 72 68 56 
-0.529923 1.80178 7.72857 112 81 1 
-1.25295 0.80204 6.72358 227 185 15 
-1.34658 2.05473 7.64893 189 178 172 
-0.340271 0.307474 5.2819 89 72 44 
-1.1205 0.863352 6.7137 227 183 12 
1.13083 0.320655 5.49586 186 149 6 
0.514457 0.934992 6.42703 134 108 23 
-0.995948 0.933966 6.8753 138 126 112 
-0.963256 2.10069 7.55509 156 146 137 
-1.01965 1.594 8.57004 191 180 178 
-1.22673 0.456663 6.87796 116 60 1 
-0.0495754 -0.203093 5.59774 27 117 63 
-0.427766 -0.487092 6.13054 142 118 84 
-1.06062 0.799499 6.75435 232 181 14 
-1.32454 0.418477 6.83718 236 195 15 
-0.311593 2.10054 7.54769 196 183 166 
-1.3304 0.419558 6.85384 236 193 18 
1.58995 -0.176393 5.33204 231 192 26 
1.29689 0.0730399 5.30581 148 175 70 
1.33255 -0.0264471 5.38211 199 234 82 
1.15762 0.321998 5.48619 144 99 18 
-1.27643 0.820978 6.71662 124 88 2 
1.23553 1.60371 6.77664 114 75 0 
-0.0766447 1.67437 7.53089 100 61 2 
-0.290288 1.91396 7.47489 224 181 7 
-1.06635 0.755696 6.73806 222 177 13 
-1.20376 0.78069 6.73332 225 183 9 
-0.937059 1.5564 8.33591 193 182 176 
-0.0336593 -0.24675 5.59694 141 25 34 
-0.0359013 -0.245345 5.58735 149 27 40 
-0.170527 1.53727 7.39704 115 80 16 
1.16959 -0.124358 5.62545 129 119 107 
1.23056 -0.0209201 5.46372 153 165 89 
-1.28494 0.821616 6.70947 124 88 4 
-0.758232 2.15004 7.46148 151 141 131 
-1.69673 1.88516 8.01025 198 187 181 
-0.373463 -0.498446 6.1389 137 107 71 
-1.4666 0.38224 6.78054 176 79 26 
-0.650258 2.03873 7.64996 186 173 164 
-1.60829 0.64778 6.61105 139 71 0 
-1.23303 0.435733 6.86915 233 188 9 
-1.65669 0.535549 6.5403 200 157 52 
1.16811 -0.105069 5.62015 109 92 76 
-1.21152 0.532927 6.89236 216 164 18 
-0.0640661 -0.247343 5.61274 101 25 35 
-0.257859 1.32423 7.37164 202 159 18 
-1.63222 1.8655 8.04162 200 189 187 
-1.39658 1.93466 7.84441 198 187 181 
-1.69237 1.86221 8.03547 121 111 101 
-0.759552 2.13408 7.47645 137 127 118 
-1.20188 0.896576 6.71415 229 178 9 
-0.809283 0.699907 6.86419 26 11 0 
-1.17377 0.650305 6.77619 232 190 10 
-1.19939 1.8595 7.97682 120 110 101 
-0.724172 2.15468 7.46546 172 162 152 
0.126805 0.145296 5.57867 26 119 64 
-0.661234 2.16909 7.42265 173 160 152 
-1.4331 0.596847 6.4589 154 116 9 
-0.245077 0.176019 5.27526 90 68 29 
-0.379821 1.66594 7.65824 159 121 10 
0.693166 1.48474 6.8692 115 78 7 
-0.917257 1.7727 8.16591 121 111 101 
1.06972 -0.0996993 6.57695 0 44 20 
-0.495726 1.93523 7.56038 142 127 108 
-0.133144 1.86843 7.56189 166 119 5 
-0.794425 0.654246 6.88827 83 57 0 
0.84667 1.51743 6.84648 138 102 6 
-0.549077 2.19865 7.40994 184 171 163 
-1.12838 0.902717 6.73089 156 127 57 
0.863067 1.53647 6.84023 111 71 0 
1.27909 -0.0557332 5.43617 185 223 84 
-0.193377 1.38025 7.34142 179 131 3 
-0.278024 0.139089 4.87536 142 121 66 
-1.16402 0.817283 6.711 97 41 4 
0.647433 0.925613 6.53964 97 69 4 
-0.280628 2.32487 7.08166 166 153 145 
-0.321557 2.29542 7.16645 179 166 157 
0.856157 1.61032 6.82814 129 95 5 
-1.53588 1.7911 8.14591 203 192 190 
0.246155 0.176131 5.54435 74 50 24 
0.842035 0.830724 5.89798 13 3 1 
-0.298458 0.179542 5.24612 58 42 19 
-1.03009 0.380917 6.82391 44 43 39 
0.0253101 0.0396307 5.57186 115 111 100 
1.29891 0.0217318 5.33111 218 225 183 
1.19845 -0.181522 5.63462 238 230 217 
1.31692 0.107849 5.2463 102 104 82 
1.33016 0.100407 5.22521 104 104 96 
1.21411 -0.0875059 5.51502 181 200 93 
1.1692 0.185995 5.6464 40 11 0 
-0.319675 -0.0462478 5.77775 10 15 11 
1.10636 0.436484 5.49099 8 9 11 
1.21034 -0.13369 5.56167 98 34 34 
-0.00377616 0.0899723 5.59145 168 183 160 
0.907813 2.34538 6.7958 225 212 193 
-0.0534086 0.0705722 5.63594 121 132 118 
1.22351 -0.105331 5.52731 75 64 36 
0.0889437 0.0212069 5.59629 133 130 111 
0.84267 0.811838 5.89501 11 0 0 
1.21744 -0.138606 5.58324 181 111 113 
1.26582 -0.0176501 5.3988 68 78 18 
-0.850446 0.543744 6.82549 7 8 3 
1.18096 -0.142443 5.59339 230 221 206 
1.22871 0.0125351 5.45625 189 171 151 
-1.18423 0.884742 6.71148 160 99 10 
-1.14687 0.870294 6.72078 163 95 14 
-0.165215 1.2103 7.33114 222 182 7 
1.20317 -0.0823665 5.52776 33 28 6 
1.06911 0.235218 5.61638 194 152 6 
1.17213 -0.0979085 5.58794 69 22 14 
-1.34406 0.438973 6.8621 167 82 1 
-0.163393 0.23206 5.3256 214 190 128 
1.286 0.0164141 5.35503 166 190 70 
-0.497808 1.8661 7.62784 226 209 181 
1.317 0.238247 5.44715 224 180 13 
-1.46297 0.801677 6.67552 118 57 3 
-1.21872 0.652886 6.78201 233 190 16 
1.00061 0.36974 5.59695 25 21 18 
-0.462039 2.07906 7.56235 107 97 88 
1.22484 -0.0514886 5.47799 71 82 26 
1.17016 -0.0780221 5.60732 47 13 4 
1.29739 0.0908639 5.27884 34 34 24 
1.16945 0.348407 5.46638 185 146 7 
1.19009 -0.0855044 5.54092 186 83 74 
1.21414 -0.0600244 5.49143 41 51 1 
-1.32966 0.466911 6.86136 155 84 2 
1.3109 0.219879 5.49887 221 179 9 
1.2567 0.0414192 5.3535 149 182 43 
0.994609 1.56192 6.74321 236 185 18 
-0.463411 2.07447 7.54658 102 92 83 
1.2954 0.220191 5.50856 227 181 8 
0.228872 0.192422 5.51074 214 190 126 
-0.138737 1.35463 7.31539 95 52 0 
1.23443 -0.0173153 5.44151 158 189 62 
1.01734 0.239772 5.61872 179 150 14 
0.774959 0.748274 6.12536 157 127 5 
0.767518 0.749747 6.11678 154 124 4 
-0.892667 0.820596 6.83052 105 105 97 
0.874628 0.495491 6.34347 130 102 2 
0.869338 0.815034 5.89187 185 147 24 
1.24432 0.0682381 5.40772 145 125 100 
1.2311 1.63529 6.78112 76 37 0 
1.28361 0.219406 5.50128 228 182 9 
1.20489 -0.0957941 5.53002 75 32 26 
1.22515 -0.121205 5.53018 125 101 89 
0.722265 2.27352 6.86699 155 139 113 
-1.70798 0.628896 6.58742 122 88 1 
-1.71614 0.564586 6.52763 141 124 108 
1.40442 -0.412438 5.66851 220 205 182 
-1.71641 0.563667 6.53907 143 127 111 
1.44226 0.102895 5.18371 237 235 222 
0.294969 1.43408 6.87484 11 49 26 
-1.05143 2.14148 7.54088 190 177 169 
0.892318 0.864951 5.90621 11 5 7 
0.915142 2.31183 6.84246 184 170 141 
-0.289971 0.2298 5.2514 177 155 108 
0.908534 0.871543 5.95221 11 6 3 
1.18856 0.416781 5.42173 11 11 13 
1.24494 -0.0163672 5.45311 158 189 62 
0.941784 0.49171 6.16324 100 81 12 
1.30213 0.114301 5.26047 31 28 11 
1.20423 -0.0422566 5.48682 122 140 40 
-1.46509 0.586159 6.46444 214 198 182 
0.94509 2.28108 6.8352 233 219 192 
-1.30828 0.453146 6.86319 237 192 5 
-0.19487 1.19017 7.40681 211 169 5 
1.19179 -0.0699618 5.54621 64 28 12 
1.32981 0.261649 5.41046 221 179 7 
0.784151 0.855293 6.12555 128 98 12 
-0.759421 0.255979 7.12996 234 194 19 
-1.05292 2.13576 7.51333 193 180 174 
1.25083 0.0782376 5.38239 50 24 9 
1.25812 0.0228925 5.37461 48 43 5 
-1.5015 0.88886 6.46342 127 94 23 
1.18297 -0.0506205 5.5536 48 27 8 
1.58047 -0.0704649 5.3657 144 108 11 
1.01732 0.0621914 6.35207 6 59 29 
-0.77796 0.666192 6.88131 176 142 16 
1.20804 0.0434079 5.65821 179 141 8 
0.968383 0.639303 5.61814 208 163 8 
-0.351969 0.140049 5.21521 223 194 138 
-1.57583 0.729531 6.51454 134 99 17 
0.0629824 0.0994933 5.59583 116 120 106 
1.39498 -0.252719 5.64046 90 36 2 
-0.822937 0.608057 6.8393 10 9 5 
0.863992 1.01755 6.17903 7 7 7 
-1.30788 2.13562 7.53134 201 188 182 
1.25402 0.0393393 5.37952 140 171 52 
-0.953619 0.512251 6.75826 8 7 3 
-0.885618 0.440817 6.82848 96 91 85 
0.974223 0.301545 5.61424 93 93 91 
-1.14395 0.394073 6.90802 231 193 8 
0.000374222 1.68693 7.49034 202 155 7 
1.19179 -0.0155249 5.56981 38 27 0 
1.44479 -0.178723 5.43692 150 96 8 
0.965086 0.307767 5.6303 95 94 90 
0.887404 2.46587 6.82742 211 199 199 
1.16609 -0.0714341 5.60054 113 64 50 
0.762873 0.773004 6.13059 13 9 0 
-0.908887 1.74533 8.22635 196 182 181 
-1.21693 0.885543 6.73731 227 175 11 
0.786936 0.874652 6.12536 13 4 0 
-0.294643 0.231093 5.27567 160 139 94 
-1.3093 2.08869 7.59882 105 95 85 
-0.231938 1.72159 7.49148 194 152 4 
0.070475 -0.00515889 5.56758 17 53 39 
-0.955309 0.446596 6.77039 65 64 62 
-0.228303 1.21818 7.43265 216 173 16 
-0.98273 0.399783 6.83567 119 116 109 
1.4463 -0.173866 5.49236 95 39 4 
0.682519 0.726434 6.20144 78 77 73 
1.21304 2.16694 6.96242 220 176 7 
1.18514 2.10341 6.90984 241 200 12 
0.983321 0.475963 5.57804 190 156 20 
1.16275 0.291631 5.45918 154 106 8 
-1.326 0.865838 6.7031 192 149 11 
-0.287557 -0.00528442 5.75656 59 74 53 
0.915232 0.507245 6.16563 8 4 5 
-1.34702 2.06028 7.66165 188 178 169 
-1.33995 0.982904 6.59851 212 140 2 
-1.55773 0.391804 6.73335 229 118 10 
-1.6071 0.812534 6.50709 141 93 9 
1.26236 0.00879339 5.39447 123 130 78 
0.777276 0.788036 6.12451 115 93 7 
-1.32524 0.421381 6.88351 242 197 16 
-0.632096 0.345513 6.83902 61 58 53 
1.12883 0.341524 5.47898 156 129 22 
-1.54745 0.921059 6.43945 153 139 126 
1.31615 0.149338 5.22922 30 26 27 
0.782146 0.75096 6.04826 179 146 17 
0.726912 0.690768 6.1361 86 84 72 
-1.60305 0.419955 6.77951 173 68 10 
-0.111519 1.28127 7.2946 203 162 20 
0.695927 0.643504 6.1653 106 106 98 
-1.61932 0.762249 6.49237 158 143 122 
0.722694 0.716549 6.15482 8 6 11 
-1.1465 0.644893 6.79378 193 138 9 
-0.200351 1.22023 7.38165 154 107 3 
1.19178 0.504508 5.41121 114 113 109 
0.746108 0.127487 6.21902 171 160 142 
-1.08314 0.745387 6.74253 235 195 12 
1.11728 2.05786 6.8953 121 83 2 
-1.06105 0.799222 6.75849 231 184 6 
-1.13712 0.621118 6.79567 237 196 8 
0.921179 0.592231 5.63658 202 161 9 
-0.132722 1.28972 7.31344 181 136 7 
-1.06613 0.757741 6.75714 230 188 16 
-1.33019 0.686815 6.78724 60 22 0 
-0.148729 1.38059 7.31035 194 148 11 
0.899645 0.741537 5.71245 184 142 4 
-0.126828 1.26785 7.31493 219 175 14 
0.955956 1.49368 6.85456 178 141 9 
1.18656 0.503627 5.39946 118 117 113 
-1.32245 0.449923 6.86278 241 196 7 
-0.35784 0.131853 5.2366 217 191 134 
1.14922 -0.152344 5.65436 107 97 88 
-1.01313 0.406089 6.84238 10 5 2 
0.147826 1.65242 6.89429 127 110 4 
-0.786985 0.671346 6.88403 116 83 6 
-0.677183 0.658247 6.96316 194 155 16 
-0.384793 -0.480728 6.14566 159 129 91 
-0.180446 1.38858 7.313 142 98 11 
1.34786 0.0820041 5.22451 164 161 146 
-0.0480351 2.39353 6.95214 196 183 175 
-0.330792 1.94156 7.47979 158 111 0 
-0.0684366 0.0194917 5.6392 9 22 12 
-1.01932 1.59706 8.59036 191 180 176 
1.21026 -0.0479893 5.52571 108 120 48 
1.32555 0.0135021 5.31307 175 202 87 
-1.14096 0.823548 6.75111 235 188 40 
-0.647476 0.625909 7.00204 207 160 18 
1.32188 0.0517779 5.27669 146 155 102 
-0.96391 2.10186 7.55818 149 139 130 
0.944535 0.425191 5.68848 182 152 22 
-0.529816 0.0857665 5.33622 220 194 135 
1.02834 2.29923 6.82927 225 213 187 
2.50988 2.03648 7.63038 206 196 187 
0.0257155 0.0570973 5.58385 15 14 9 
0.912028 0.885769 5.88804 131 95 17 
-0.315961 0.570354 5.89378 67 44 38 
1.43551 -0.352627 5.60844 246 207 42 
0.0158692 0.106677 5.56853 12 24 14 
1.0463 2.4405 6.83895 137 129 118 
0.821074 2.08627 6.77386 152 119 4 
-0.0537305 0.902536 5.76469 74 59 30 
0.241278 2.44249 6.91464 207 198 189 
0.714789 0.630968 6.15955 43 42 37 
-1.62186 0.805033 6.48181 142 98 9 
1.24456 2.10909 6.93642 187 141 6 
1.28227 0.0324608 5.33451 132 148 85 
1.23028 0.414327 5.42136 24 21 14 
0.276643 1.84719 6.76488 51 79 83 
-1.13436 0.826051 6.76077 232 190 18 
1.6612 2.38329 6.95828 154 142 130 
1.57362 -0.173603 5.30098 231 195 19 
2.28915 1.80107 8.0788 190 181 174 
1.28252 0.0486073 5.30315 111 135 47 
0.723019 2.17053 6.93144 111 72 3 
-0.974145 0.676432 6.7249 148 116 5 
-0.10344 1.25828 7.30554 117 80 0 
-0.397989 -0.0242825 5.83143 26 112 63 
0.947278 0.421079 5.66063 52 43 10 
2.72336 2.08632 7.46093 205 196 189 
-0.207324 1.2999 7.34248 165 113 1 
-0.10732 -0.366156 5.66223 98 0 11 
1.233 1.59991 6.76934 116 81 0 
-0.733791 2.17105 7.50791 157 144 135 
-0.684209 0.27102 6.79761 134 133 128 
-1.38891 1.95389 7.79994 191 180 178 
1.21575 0.216146 5.63397 232 187 10 
-0.312915 2.09342 7.53322 190 171 157 
-0.947463 2.1658 7.45495 187 174 165 
-0.880321 0.923236 6.85096 90 87 80 
-0.508061 0.128527 5.30864 95 72 38 
1.18135 -0.0697181 5.58586 126 39 20 
-0.453115 1.93105 7.56486 225 208 182 
1.04063 2.43665 6.82364 149 140 131 
-0.681119 0.30051 6.81975 73 69 58 
-0.0108523 0.111544 5.59507 66 121 82 
-0.320608 2.11229 7.5322 189 175 164 
-1.27654 0.823553 6.76634 135 95 8 
-0.905192 0.36548 6.94052 235 200 10 
0.155092 -0.425558 5.64404 70 0 7 
1.00713 0.253248 5.63834 16 17 12 
1.11357 0.114883 6.40583 226 219 193 
1.24227 -0.0426948 5.57405 51 54 1 
1.16812 -0.108825 5.61608 119 110 95 
-1.0166 0.712207 6.68522 203 157 9 
-1.17087 1.68961 8.44314 195 181 180 
1.15337 -0.10691 5.65242 158 146 124 
-0.219537 1.69102 7.46264 135 96 3 
1.24955 -0.0588003 5.46492 229 231 194 
-0.522633 0.516983 6.96157 20 17 2 
-0.318605 0.350643 5.29847 102 81 52 
-0.524563 0.515472 6.94153 11 11 0 
1.35982 0.0734759 5.22162 213 205 192 
0.700684 0.659464 6.1578 58 57 55 
-0.13689 -0.0813855 5.69397 31 127 63 
0.761089 0.601998 6.16457 8 7 5 
-0.478763 0.148717 5.35298 144 122 81 
0.951137 0.365819 5.64593 68 69 64 
0.709048 0.605723 6.22254 62 62 52 
0.895731 1.01345 6.17355 20 19 17 
0.985694 1.53188 6.80134 162 125 11 
-1.63814 1.89106 8.14655 199 187 187 
-0.650992 0.470137 6.95089 125 89 3 
0.673662 0.685072 6.21069 64 63 59 
0.798145 1.56747 6.76281 149 114 12 
1.23275 0.0812868 5.60578 139 106 13 
1.44257 -0.246395 5.48481 213 168 7 
0.0958485 1.83141 6.85467 42 67 72 
-1.12146 0.682866 6.79165 232 190 8 
-0.197495 1.35146 7.32913 222 175 9 
-0.0384568 0.295995 5.22043 127 108 66 
0.87178 2.72208 6.36058 200 189 187 
-1.21123 0.532143 6.89907 220 165 12 
-0.135096 -0.302331 5.66085 155 24 38 
1.26591 0.778505 5.69575 129 95 6 
-1.57314 0.893843 6.43127 139 125 114 
0.844094 0.781204 5.88895 194 152 8 
-1.69701 1.88797 8.02179 195 184 180 
1.17217 -0.112481 5.58873 146 123 115 
2.43074 2.06484 7.58226 150 140 130 
-0.244467 1.68148 7.46578 132 93 2 
-0.875449 0.278176 7.02628 144 131 112 
0.00932337 0.0266506 5.56326 50 33 25 
1.29125 0.00828515 5.34853 139 151 79 
-1.69473 1.87374 8.06859 126 117 108 
-1.46487 0.523496 6.48625 241 224 194 
0.838614 0.611077 6.13527 135 105 15 
0.722162 -0.322735 5.49814 164 153 131 
-0.699783 2.12282 7.47274 154 140 137 
0.980502 1.51106 6.81082 122 85 4 
0.925924 0.713939 5.70808 185 146 9 
1.25216 -0.0184549 5.405 112 126 49 
-0.17557 1.82112 7.514 130 95 1 
-0.54339 0.312755 5.44494 146 123 81 
0.0738491 1.81095 6.81332 37 62 69 
-1.23409 0.667194 6.80202 143 100 5 
-0.447933 -0.517683 6.15904 173 150 100 
-0.226831 1.1926 7.42379 124 83 3 
-0.0834406 1.28375 7.15886 110 78 3 
1.05946 2.45542 6.79229 205 196 189 
-0.562635 1.98841 7.6468 102 92 83 
1.39748 -0.219837 5.6715 158 116 4 
1.14482 1.52155 6.79352 121 80 1 
-0.958651 2.09059 7.59119 107 93 84 
1.1323 1.53912 6.76688 134 98 10 
-1.08872 0.767471 6.76002 230 188 5 
-0.80461 0.34525 7.09515 214 159 6 
0.997637 1.53828 6.77354 120 83 0 
0.0974447 1.83423 6.79683 46 70 74 
-1.43412 0.597155 6.48816 152 118 11 
-1.58034 0.805038 6.53283 166 116 3 
-1.23064 1.88555 8.01057 179 168 164 
0.703197 0.665592 6.18255 64 63 59 
1.15491 -0.106552 5.62493 114 98 82 
-1.04824 1.71718 8.21207 192 181 179 
-0.325246 2.29721 7.16197 180 167 159 
-0.192876 1.46792 7.36188 157 121 11 
0.604219 0.982509 6.50864 103 75 10 
-0.760567 2.13038 7.46413 143 130 121 
-0.063861 -0.258376 5.60344 92 0 8 
1.18721 2.18762 6.92421 221 177 10 
2.84425 1.82119 8.12936 166 157 148 
-0.141175 -0.284057 5.65021 95 0 10 
0.34031 2.53458 6.65481 197 187 178 
0.591183 0.559138 6.1714 80 77 68 
0.549433 2.58458 6.70022 210 201 194 
1.10028 0.961011 6.06746 134 98 10 
2.28815 1.84055 7.94829 160 150 141 
0.832467 1.56619 6.7796 119 80 5 
-0.646932 2.14128 7.45629 158 145 136 
0.71045 2.6663 6.42063 198 186 186 
-0.178762 1.73933 7.47165 135 96 5 
-0.458705 2.22772 7.28487 175 161 152 
1.32318 0.417744 5.47191 122 103 27 
2.23518 1.86411 7.80521 205 192 184 
-0.0802308 1.57624 7.46549 129 95 5 
2.24803 1.74528 8.14522 128 118 108 
0.745156 2.38867 6.82091 94 84 75 
-0.0394397 0.103993 5.60664 42 113 69 
0.707774 2.4387 6.85676 131 121 112 
0.984899 1.62166 6.72375 141 108 3 
0.274743 2.51429 6.77688 207 196 190 
-0.555104 2.1818 7.3463 181 168 160 
0.0813548 0.0901529 5.59582 73 77 63 
1.01423 1.47956 6.79983 148 114 4 
0.381471 2.52572 6.67885 168 158 149 
0.155915 2.42319 6.92597 200 188 176 
0.382919 2.54401 6.64538 198 188 179 
-0.170453 2.41852 6.92677 163 153 144 
0.161302 2.5381 6.81894 167 157 148 
-1.67659 1.98081 7.99243 199 188 186 
-0.096406 1.36325 7.31252 145 111 4 
2.25498 2.02687 7.6906 193 182 176 
-1.09523 0.756344 6.76396 242 202 16 
0.816343 1.47825 6.84759 141 108 5 
-0.498658 1.80296 7.68758 139 105 7 
0.844373 1.51529 6.83947 135 101 4 
0.363905 2.52146 6.6845 173 163 154 
-0.959301 0.931889 6.9262 94 79 56 
-1.03863 2.05016 7.69407 110 96 87 
0.525105 0.674632 9.23303 151 129 90 
1.03092 1.54233 6.75141 123 84 5 
1.07723 2.03046 6.92793 166 125 9 
-1.53819 0.353963 6.76419 201 81 5 
-0.677506 0.596367 6.95293 150 100 3 
2.4133 1.75612 8.14427 157 149 138 
0.444734 2.3102 7.05459 95 78 50 
-0.413984 2.26942 7.20785 143 133 123 
-0.652274 0.216082 5.48358 145 122 78 
0.176267 -0.387934 5.6484 143 11 24 
0.0602158 -0.29472 6.06299 100 0 12 
-0.360682 0.18288 5.20882 134 115 72 
0.887981 1.48292 6.79918 139 105 5 
-0.815514 0.680734 6.8699 37 27 2 
0.701425 1.64341 6.82126 141 108 11 
0.761403 1.59387 6.78889 114 74 2 
-1.57981 0.804337 6.54906 165 115 4 
0.915206 0.889442 5.96685 110 70 8 
0.271123 2.73312 7.36328 165 155 145 
-0.511222 0.128752 5.28572 76 56 23 
-0.608831 0.160762 5.48496 158 134 90 
1.48323 0.0946654 5.2033 170 158 144 
-0.169781 2.46494 6.81358 185 175 166 
-0.334011 2.25723 7.18324 144 131 123 
-1.67884 0.697241 6.59209 227 185 11 
-0.444656 1.86006 7.63585 218 175 18 
0.939466 3.1658 5.36212 208 198 197 
-1.4787 0.89803 6.47485 171 131 7 
-0.794042 0.654294 6.88813 95 66 0 
0.636153 2.34443 6.98126 89 72 42 
0.50314 2.40413 7.03012 125 112 95 
-1.48506 0.822551 6.69145 131 72 4 
0.22775 0.573079 7.65491 135 116 76 
-0.457511 2.10745 7.54893 173 163 154 
1.36884 -0.338773 5.64913 224 179 18 
-0.676707 0.423268 7.00819 122 90 5 
0.632787 2.57933 6.53043 210 199 197 
0.169197 2.41289 7.01233 130 122 103 
0.83405 2.68225 6.31105 197 188 179 
1.07031 1.59162 6.70406 163 126 9 
0.77052 0.87921 6.28122 12 9 4 
0.422038 2.56821 6.6031 188 178 169 
0.640294 0.924918 6.51477 99 69 5 
-1.59954 1.8302 8.15868 200 186 183 
-1.12507 0.760869 6.81994 229 186 9 
1.22318 0.451289 5.41177 80 79 75 
-0.0557227 2.0908 7.60162 183 167 154 
1.15501 0.306121 5.47844 199 159 12 
-0.781002 2.10428 7.57419 186 175 169 
-0.729217 2.08728 7.55216 188 177 173 
1.04095 0.197358 5.60449 128 94 0 
2.93234 1.8345 8.0365 185 174 168 
-1.23371 0.834706 6.73549 207 171 49 
-0.354237 1.92276 7.49895 200 162 65 
0.780692 2.14348 6.91603 146 113 6 
2.19498 2.42997 6.80012 168 158 148 
1.07493 1.59446 6.71747 164 127 10 
0.0962236 0.172647 5.5406 19 124 58 
0.0256447 0.0395758 5.57202 115 111 100 
0.843642 0.865601 5.91153 224 194 64 
0.606567 -0.136402 5.54838 25 12 0 
-0.582909 1.93574 7.62205 206 190 167 
-1.33098 0.465895 6.85057 155 84 2 
0.231933 0.191435 5.51651 214 190 126 
1.207 -0.0955305 5.53286 75 32 26 
1.18898 0.415474 5.42236 11 11 13 
-1.38339 0.456708 6.86957 171 81 5 
1.25837 0.0227956 5.37456 48 43 5 
-1.00239 0.730347 6.71417 114 77 6 
-1.23331 0.804003 6.7765 223 181 7 
-0.939078 0.719515 6.7526 25 15 5 
-0.344015 1.86439 7.5376 150 95 4 
-1.04696 2.2008 7.47945 195 182 176 
-0.276014 -0.139847 5.6557 165 31 42 
-1.16152 0.88103 6.71971 159 92 11 
1.13663 0.545796 5.46612 9 14 10 
-0.348748 1.77627 7.58817 227 185 11 
-1.22685 0.456475 6.87925 134 77 0 
1.25875 -0.0398405 5.42424 179 219 68 
-0.330896 2.06287 7.5263 97 70 15 
0.0230299 0.10676 5.58398 12 24 14 
-0.430902 1.29888 7.48222 193 152 10 
1.29127 0.0493326 5.32174 87 102 35 
-0.754477 2.13536 7.40834 157 144 135 
-0.947332 2.16617 7.45538 187 174 165 
0.18785 0.253674 5.48228 223 198 141 
-0.314884 2.1016 7.53496 196 177 170 
-0.440795 -0.503408 6.13059 183 156 109 
1.23091 0.163926 9.17106 137 216 151 
-1.20134 0.894694 6.7243 234 184 9 
-1.18911 0.517426 6.86891 198 144 9 
-1.25398 0.710932 6.74576 131 94 3 
1.0425 0.428889 5.55192 4 5 7 
-0.0765551 1.28902 7.18076 110 78 3 
0.0719934 0.136837 5.64387 51 126 70 
-0.758838 2.13363 7.47299 143 130 121 
-1.63937 0.642642 6.59422 175 122 20 
-0.551092 2.18752 7.36291 181 168 160 
-0.63057 2.13745 7.45928 157 144 136 
-0.0532076 1.88605 7.53595 185 143 7 
-0.675811 2.12517 7.45812 162 148 145 
-0.00710844 0.12158 5.58867 57 127 73 
0.709121 0.670127 6.1698 58 57 55 
-0.413877 2.26965 7.20837 143 133 123 
-0.763727 2.11442 7.48711 162 151 145 
-1.14503 0.745807 6.7332 229 186 9 
-0.295588 0.274648 5.26883 140 118 77 
-0.435405 0.170433 5.29414 140 119 76 
1.23897 0.451769 5.43263 80 79 75 
1.21743 -0.0863519 5.51923 181 200 93 
0.0135224 -0.206612 6.02166 232 255 237 
-1.24221 0.812088 6.74054 228 186 12 
0.738867 2.28634 6.90112 155 139 113 
-1.23497 0.803323 6.76594 223 181 7 
0.991084 2.19957 6.87232 161 126 10 
-0.965346 1.57896 8.45363 191 180 176 
-0.951028 1.56675 8.3938 191 178 172 
-1.13234 0.791054 6.76245 234 195 32 
-1.6974 1.88471 8.01199 195 184 180 
-1.50554 0.480797 6.13455 241 224 194 
-0.46243 2.19307 7.34945 141 128 119 
-0.0903985 2.35084 7.02517 162 152 142 
-0.971142 2.08626 7.59972 97 85 73 
-1.25883 0.764331 6.72737 133 93 0 
-0.127775 2.37497 7.00161 161 148 142 
-0.135838 2.42566 6.89274 156 146 137 
-0.399661 0.138963 5.2026 146 122 78 
1.49332 0.108615 5.33066 238 234 222 
1.36076 0.0234296 5.41116 237 246 193 
-0.672502 0.160304 7.0667 23 23 25 
-0.340673 0.152495 5.21202 48 31 13 
1.26427 -0.00804169 5.54372 210 192 180 
-0.308981 0.176143 5.22127 49 34 15 
1.26106 -0.0878796 5.57936 184 194 133 
-0.501022 -0.483167 6.21017 48 37 15 
1.37384 -0.253997 5.86784 33 31 19 
1.39831 0.113335 5.34901 47 50 23 
1.42985 -0.0101346 5.43052 252 232 195 
-1.68364 0.536364 6.60934 246 238 215 
-0.00431538 0.0889808 5.591 171 184 166 
1.26186 -0.105578 5.58005 66 56 29 
1.25739 -0.111771 5.59773 224 133 132 
-1.01122 0.353279 7.04142 219 198 115 
-0.351858 0.17308 5.19338 176 157 115 
1.31582 -0.0778714 5.72581 91 31 31 
1.23033 -0.101161 5.60378 121 70 67 
1.33607 0.0180107 5.42057 185 202 108 
1.2393 -0.139351 5.61373 207 137 139 
1.26782 -0.0464332 5.56062 160 175 92 
0.858722 0.871851 5.93738 203 174 80 
1.2513 -0.0824981 5.59447 36 29 1 
1.41867 -0.0616844 5.66204 225 228 173 
1.3013 -0.0631783 5.50371 236 244 187 
1.35876 0.0577997 5.36943 176 209 96 
1.2239 -0.11982 5.62719 187 121 123 
-1.09147 0.400342 6.8257 241 205 59 
0.171966 0.144454 5.55341 62 64 42 
1.0504 0.531465 5.59648 202 158 7 
-0.117871 1.37078 7.3826 86 41 2 
-0.158641 1.21345 7.35247 230 191 10 
-1.34743 0.43606 6.83376 170 90 1 
1.29155 -0.0158312 5.51871 165 189 75 
1.31237 0.154071 5.69018 225 175 24 
1.30974 0.173249 5.67907 231 183 13 
1.38811 0.246979 5.54065 227 181 23 
1.07122 0.53628 5.62661 205 161 12 
1.40301 -0.0604927 5.63965 225 236 157 
0.757843 2.34426 6.87316 184 171 154 
1.32319 0.0443112 5.44134 153 183 59 
1.25403 0.0317525 5.53058 21 15 3 
1.23673 -0.107082 5.61813 147 103 104 
0.703536 -0.336659 5.50083 118 97 66 
1.15107 0.950861 5.9352 111 59 11 
-1.18914 0.881893 6.69278 160 99 10 
1.26641 1.65183 6.84255 62 18 0 
1.28279 0.0819349 5.61107 57 22 2 
1.06734 0.234605 5.61464 194 154 7 
1.23403 -0.0854374 5.60244 184 104 95 
0.77037 0.750898 6.12423 150 126 16 
1.31371 0.222198 5.52038 235 182 14 
1.32736 0.223457 5.5389 234 183 14 
1.01412 1.56985 6.77576 236 185 18 
-0.124412 1.3373 7.34208 101 61 10 
1.26938 0.0252381 5.53134 33 11 0 
-1.22211 0.856696 6.70623 231 191 41 
1.09518 2.3116 6.87661 233 219 192 
1.29285 -0.0674775 5.60183 34 42 0 
-0.182517 1.19783 7.44851 215 176 11 
1.31031 -0.283473 5.82908 170 160 150 
0.96664 0.399014 5.68445 8 8 8 
1.57688 -0.194816 5.46909 151 117 53 
-0.646764 0.176288 6.89478 28 27 25 
-0.520621 -0.0451905 5.98492 211 186 130 
-0.323865 -0.0263349 5.78833 60 27 22 
-0.938538 0.833753 6.80774 18 17 13 
1.36462 0.22786 5.60239 231 183 11 
1.04855 0.501709 5.60357 198 160 37 
-1.32648 1.97042 7.7291 115 105 95 
1.01951 1.07097 6.21039 154 144 134 
-0.923169 0.876684 6.84597 37 37 29 
-1.32826 1.96516 7.70731 115 105 95 
0.743403 0.642683 6.14673 105 101 89 
-1.17365 0.70881 6.72965 231 190 10 
-0.0213509 0.0987995 5.59529 0 16 0 
-1.21688 0.657575 6.76146 231 191 7 
-1.46902 0.582885 6.4294 222 202 177 
0.985917 0.642928 5.64489 224 173 19 
0.926921 0.480586 6.35978 11 2 3 
1.08249 0.209892 5.62124 197 156 6 
1.22452 -0.0696251 5.59196 41 0 0 
1.0076 0.252636 5.67465 101 99 87 
0.973091 0.397475 5.65181 14 14 14 
-0.982327 0.757855 6.74836 204 163 11 
-0.577371 0.0208035 5.91847 236 215 160 
0.225097 0.191526 5.50355 215 191 131 
1.20257 -0.0704063 5.65363 102 52 43 
0.950373 0.492724 6.17832 106 87 31 
1.46573 -0.255852 5.73529 87 30 1 
1.22901 -0.00306645 5.61214 115 112 41 
0.770376 2.31326 6.9684 134 120 93 
1.01929 0.482544 5.63228 199 161 18 
-0.776183 0.665534 6.88774 179 146 15 
-0.911006 0.504095 6.75401 106 105 100 
1.07016 0.440546 6.24199 10 8 9 
1.47083 -0.369363 5.70619 181 146 82 
-0.282983 0.553013 5.85674 106 84 73 
-0.252384 -0.11405 5.68412 5 22 12 
0.848318 1.02183 6.32255 153 118 18 
1.51752 -0.372123 5.7683 136 97 22 
-1.05527 2.13196 7.51858 198 185 177 
-0.274251 0.218517 5.23082 113 89 53 
-0.950535 0.699285 6.74395 141 112 18 
1.21153 -0.0319216 5.63425 65 6 0 
1.03985 0.256789 6.25742 113 97 72 
1.69745 -0.0676781 5.50658 146 111 11 
1.53324 -0.373028 5.78921 142 103 34 
0.0311574 1.71339 7.58472 208 158 7 
1.09775 2.1325 6.91462 241 201 15 
1.2543 -0.0470059 5.59794 146 151 111 
-0.28256 0.219391 5.24777 181 158 114 
-0.625244 0.182135 6.91391 24 23 18 
0.70873 0.725802 6.21902 80 79 77 
-0.418858 1.875 7.63794 193 151 7 
0.95401 0.48319 5.57673 204 164 14 
-0.205222 1.78582 7.55605 133 84 0 
-0.423585 1.86918 7.62044 194 152 6 
-0.987131 0.397224 6.81234 117 115 103 
-0.213297 1.73374 7.55191 210 166 17 
-0.763543 0.662785 6.90442 183 145 12 
-0.550371 0.0350416 5.71251 27 112 53 
1.30571 0.0129024 5.41175 141 122 66 
0.926682 0.669068 5.879 199 158 30 
1.21456 -0.0497285 5.5979 39 8 3 
1.34942 0.0691306 5.39758 161 188 85 
0.872547 -0.0125105 5.51729 183 167 144 
1.35659 -0.200374 5.59007 145 94 2 
1.00715 2.21183 6.90464 159 122 5 
-0.800267 1.75529 8.2966 113 99 88 
1.56368 -0.178931 5.58801 155 100 7 
-1.0004 0.900174 6.87651 23 17 3 
0.950356 0.48531 5.60625 207 163 14 
1.43841 0.200886 5.53827 70 23 3 
-0.206476 -0.265982 5.68376 31 3 2 
-0.956137 0.510568 6.74705 12 12 10 
-1.16577 0.822676 6.69949 100 45 0 
1.02008 0.307382 5.68348 89 89 91 
0.762533 0.745947 6.19551 9 8 6 
-0.952906 0.338406 6.9968 236 194 11 
-0.900492 2.09611 7.59515 193 180 172 
-1.1899 0.67296 6.77718 233 193 9 
0.944941 0.61843 5.66888 211 171 13 
-0.644537 0.399189 6.86256 11 13 8 
0.762913 0.569933 6.35124 17 17 15 
-1.57984 0.430852 6.828 170 63 11 
1.1504 0.0393173 5.57644 177 139 2 
0.992637 0.311676 5.67249 100 99 95 
-0.109943 1.31522 7.34685 207 166 12 
-0.56312 1.89255 7.63557 142 128 101 
-0.878754 0.444569 6.86137 96 97 92 
-0.593684 0.324539 6.84325 119 118 113 
-0.632805 0.34438 6.83635 58 57 53 
1.39242 0.054842 5.36689 185 192 151 
-0.494005 -0.703052 6.18016 141 124 78 
0.957807 2.29103 6.85843 240 225 202 
1.29641 -0.0406226 5.475 195 228 98 
-0.960649 0.336166 6.95447 233 193 9 
-0.122099 1.29264 7.33855 171 129 0 
0.974196 1.03116 6.18273 25 25 15 
1.30509 0.0094298 5.45141 132 133 93 
-0.418366 0.368225 5.47841 35 0 0 
-0.133594 1.39255 7.36457 206 164 20 
0.846237 2.24974 6.93337 118 85 4 
-0.148716 1.41345 7.40163 116 71 0 
0.68255 0.644712 6.20952 78 75 70 
-0.348911 1.22399 7.47928 211 169 9 
-1.60473 0.815707 6.53186 153 111 13 
-0.960463 0.44425 6.74484 67 66 62 
-0.193964 -0.266691 5.71495 28 2 3 
-0.169815 1.24845 7.4094 228 190 5 
1.55288 -0.291156 5.63787 159 137 77 
-1.14218 0.818173 6.71469 240 198 38 
-0.0938813 1.29109 7.3477 213 174 9 
1.0083 0.112342 5.61573 125 91 2 
2.17029 2.46078 6.85356 151 141 132 
0.958325 0.427044 5.70947 170 138 25 
1.65817 -0.208993 5.49094 208 187 160 
1.15636 0.328056 5.53063 178 144 8 
0.0659976 -0.00576302 5.55873 32 61 39 
-0.167933 1.19464 7.43297 223 183 23 
-0.307323 -0.060626 5.67765 85 93 72 
-0.101531 1.27269 7.3741 219 178 26 
1.15775 0.314789 5.54193 192 151 7 
-1.14914 0.642605 6.77938 177 128 0 
-0.297873 2.11238 7.5893 209 193 170 
-0.319842 1.95981 7.52975 160 119 1 
-1.61918 0.808479 6.50546 149 107 5 
1.16933 -0.131284 5.70919 118 106 94 
-0.310662 0.528488 6.94847 28 27 25 
1.06457 1.58787 6.75502 131 89 3 
1.26313 0.0430281 5.45979 92 44 32 
0.701851 0.645032 6.17696 111 106 100 
0.925932 0.653722 5.70813 110 78 5 
1.33253 0.0824514 5.4092 103 125 42 
0.7356 0.928442 6.30172 155 122 25 
-1.0674 0.756441 6.75289 231 191 16 
0.684273 -0.304919 5.47563 122 105 77 
0.923017 0.442321 5.67192 189 147 11 
-0.647029 0.396509 6.89032 18 18 10 
-0.0333822 2.41032 6.99304 203 190 182 
1.52536 -0.358363 5.72728 232 202 42 
-0.542572 0.0832888 5.30072 218 196 139 
1.19189 -0.0942492 5.68614 112 97 74 
-0.67376 0.659672 6.97933 198 163 21 
1.14693 2.07695 6.94985 120 77 0 
1.03353 0.277434 5.67883 14 15 10 
0.281921 -0.0997822 5.38847 174 150 104 
-0.520074 0.0927243 5.32708 168 146 89 
-0.535119 1.87208 7.60463 234 219 190 
1.65462 -0.267876 5.65415 236 194 20 
-0.52252 1.88835 7.65686 231 216 187 
-1.33502 0.681751 6.75102 59 16 0 
0.738416 0.721706 6.18305 5 3 6 
1.20823 -0.0918431 5.66433 177 150 139 
-0.157282 1.54252 7.43444 115 84 17 
0.981131 0.667375 5.64609 130 97 4 
-0.323658 0.316785 5.32931 94 77 47 
-0.32193 1.80798 7.68815 234 194 11 
-1.14168 0.618667 6.77823 237 196 8 
-0.247336 1.77927 7.5812 224 176 6 
0.27121 -0.100015 5.36854 170 143 98 
0.958405 0.760493 5.80512 189 148 4 
-0.600529 1.92506 7.70333 141 129 113 
1.28143 0.0258073 5.6311 103 100 21 
0.785351 0.76974 6.07182 106 72 1 
-1.24038 0.82591 6.69866 238 197 45 
1.26362 0.130916 5.67873 157 112 11 
0.714115 0.630612 6.15979 45 41 38 
-0.989431 0.53473 6.75657 190 153 20 
0.796004 0.77286 6.09113 108 73 7 
0.83441 0.595922 6.05944 202 165 24 
1.25251 -0.0458164 5.58465 66 73 21 
-0.177839 -0.289536 5.65161 157 31 43 
-1.06269 0.797153 6.74846 227 180 6 
0.237066 2.43854 6.9042 214 201 192 
0.9357 0.514466 6.05541 90 62 0 
-0.305748 0.574008 5.9206 56 36 27 
-0.344299 -0.0712578 5.78922 48 23 19 
0.301302 0.863023 6.10491 66 63 56 
-0.420165 1.30868 7.52323 198 158 8 
-0.238443 1.78867 7.61179 230 178 14 
0.864671 1.03467 6.21629 97 98 93 
1.03411 2.37169 6.81428 211 197 184 
-0.648858 0.625266 6.99825 203 158 13 
1.39539 0.219462 5.52937 77 26 0 
0.906699 0.591074 5.8302 104 71 4 
0.752691 0.126745 6.2311 163 155 134 
1.18551 -0.151583 5.70711 52 42 32 
1.6999 -0.269407 5.71094 233 194 13 
1.20745 0.0563175 5.24245 115 137 52 
-0.0354774 -0.246372 5.58892 147 26 33 
-0.107306 -0.271123 5.61678 149 26 44 
0.847633 0.594603 6.02509 215 179 20 
-0.507265 -0.338787 5.82403 102 3 8 
1.20226 0.506274 5.4139 117 116 112 
-0.809205 0.701566 6.87384 33 22 2 
-0.333093 0.579083 6.92981 25 22 15 
-0.978311 0.480251 6.72913 94 90 78 
0.74449 2.18778 6.97711 111 74 6 
-0.0771457 -0.242745 5.592 55 3 7 
-0.197861 1.71301 7.53644 141 101 6 
-0.456318 -0.46121 6.12477 149 126 82 
-0.763519 2.17223 7.47155 139 126 118 
-0.508555 1.84987 7.70609 146 126 99 
-0.530176 0.0841035 5.30707 225 199 140 
1.32834 0.0540675 5.59153 129 48 31 
1.2592 2.24828 6.96016 241 204 10 
-0.647502 0.625516 7.00232 203 158 13 
-1.01768 0.402041 6.81622 18 15 10 
-0.0217297 -0.342132 5.62228 102 0 6 
1.22521 0.0178766 5.66294 202 154 52 
-0.281542 1.92622 7.51777 231 186 9 
1.24572 0.767079 5.64766 126 94 7 
0.919951 0.358362 5.74768 54 54 44 
1.41619 0.167001 5.32319 202 194 183 
1.58088 -0.226452 5.44899 213 196 176 
-0.0869084 1.26973 7.3565 133 92 4 
-0.410258 2.10143 7.53301 101 91 81 
1.5325 -0.215983 5.41818 229 206 172 
1.30406 0.264001 5.53555 239 191 45 
-0.162794 1.80261 7.52596 166 126 12 
0.320248 0.922409 6.14731 70 62 59 
-0.248545 1.32835 7.38917 219 176 11 
1.35017 -0.0541035 5.49362 179 219 87 
0.889414 1.51441 6.84486 117 80 10 
-0.682806 0.298557 6.81428 69 69 57 
1.37849 0.0545856 5.34868 206 211 171 
-0.362909 0.375811 5.36404 141 119 82 
-0.643553 2.04999 7.68737 187 176 170 
0.885529 -0.0179357 5.58775 170 135 45 
0.101557 2.1122 7.5502 104 84 59 
0.193417 0.188144 5.52156 210 184 125 
-0.87991 0.922727 6.85539 91 91 83 
0.821594 0.84307 5.95701 161 123 0 
-0.496684 2.16618 7.4562 197 184 176 
0.725394 0.83832 6.35965 61 41 4 
1.29062 0.0753483 5.55234 58 17 0 
-0.802498 2.06618 7.6138 114 101 92 
-0.752401 2.14459 7.50398 142 129 123 
-0.233071 0.214031 5.25165 214 188 129 
-0.251003 1.26887 7.41045 219 169 8 
-0.934085 0.420175 6.79056 130 130 120 
0.10586 2.42064 6.93635 146 134 122 
-1.29415 0.869015 6.69305 192 149 10 
-0.157186 1.53897 7.32207 127 93 3 
-0.0514096 0.275759 5.29501 139 120 77 
-1.19465 0.906487 6.70826 227 189 18 
-0.573818 0.504395 6.90942 108 88 19 
0.714522 0.601107 6.22832 67 64 55 
-0.721716 2.15721 7.45752 180 170 160 
-0.463744 -0.457402 6.1871 143 120 78 
0.515451 -0.180077 5.57794 167 145 96 
-0.351931 0.373592 5.30114 148 127 84 
2.38048 1.70293 8.35776 120 110 101 
0.754242 1.57184 6.86192 98 57 3 
0.94383 0.358672 5.63873 65 61 58 
0.903558 0.0178225 5.57557 117 88 12 
0.982769 1.08732 6.20266 109 101 90 
-0.689037 2.13978 7.52602 161 148 140 
2.35071 1.82655 8.17971 195 182 174 
-1.59869 0.883542 6.41992 174 162 140 
-0.30691 1.88774 7.4659 222 173 8 
1.15418 1.52492 6.80719 121 80 1 
-0.326255 2.29827 7.16275 185 172 163 
-0.691006 2.13664 7.51552 161 148 140 
-1.3553 1.94968 7.80166 120 110 100 
1.62287 -0.190005 5.57407 214 170 19 
1.35616 -0.190864 5.70422 219 201 181 
