ply                 
format ascii 1.0    
element vertex 470
property float x    
property float y    
property float z    
property uchar red  
property uchar green
property uchar blue 
end_header          
-1.19639 -0.0414412 4.82821 43 40 35 
-1.20474 -0.0421687 4.83418 105 100 96 
1.15106 -0.098147 4.53528 100 99 104 
-1.19274 -0.273674 4.82234 111 103 101 
-1.22271 -0.286442 4.81635 120 111 96 
0.0215425 0.172951 4.20181 19 15 3 
-0.874023 -0.985192 4.37991 47 11 0 
-0.850862 -0.985143 4.39227 53 16 0 
-0.874566 -0.975673 4.38226 176 144 103 
0.411471 -0.370722 4.88316 79 64 45 
0.40793 -0.374923 4.8833 99 82 62 
0.413768 -1.01564 4.92115 177 165 143 
0.508817 -0.605442 5.23758 86 64 23 
-0.495853 -0.460064 3.8672 55 78 24 
-0.126467 -0.810003 3.98677 55 34 7 
-0.365223 -0.562559 4.01516 85 99 46 
-0.482181 -0.623415 4.0192 127 114 108 
-0.487993 -0.626129 4.0191 148 120 116 
-0.482825 -0.629393 4.01268 135 104 101 
0.276353 -0.812357 4.89729 69 55 20 
0.246493 -0.831385 4.90153 81 59 22 
0.396112 1.01987 4.68279 94 90 79 
-0.203547 -0.0315194 4.52258 183 153 80 
0.776964 0.858843 5.26866 175 172 155 
-1.4141 -0.0575109 4.58436 123 69 0 
0.515945 -0.0536513 5.19217 99 78 51 
-0.503872 -0.654148 4.0194 51 60 41 
1.19111 0.938262 4.79482 49 49 57 
0.0593006 -0.079986 4.28948 187 183 174 
-0.474009 -0.627322 4.01227 32 2 2 
-0.486721 -0.620699 4.02024 23 5 1 
0.429906 0.950666 4.87693 125 125 115 
1.18571 -0.0920587 4.52271 169 145 97 
0.286751 -0.72832 4.84727 146 160 125 
-0.269091 -0.101721 4.35713 153 149 150 
-0.305755 -0.782716 4.09353 17 29 0 
-0.432668 -0.611604 4.04947 76 125 106 
0.3234 -0.116856 4.34833 77 75 76 
-1.49438 0.510011 6.28135 177 171 157 
-0.501076 -0.587436 4.03958 129 148 126 
-1.54709 0.500082 6.29345 172 168 159 
-0.147831 0.343592 4.23959 187 127 0 
-0.664803 0.401747 5.21044 56 20 0 
-0.606262 1.06462 4.82143 123 97 80 
-0.69835 -0.478209 3.77022 112 84 34 
-0.704673 -0.467869 3.77422 180 152 112 
-0.481999 -0.45721 3.88099 80 100 39 
-1.50378 -0.23855 4.52695 179 129 0 
1.15666 0.424436 4.71946 27 24 31 
0.542248 0.883873 5.17047 82 79 64 
-0.100713 -0.961859 3.94164 188 159 93 
0.412893 -0.461192 4.8084 135 121 112 
0.334005 -0.434266 4.85908 78 60 46 
-1.41785 -0.0589589 4.5932 150 98 0 
-0.469928 1.22394 4.5266 29 31 43 
-11.4495 -7.12284 23.5709 94 83 51 
0.627829 1.33758 4.87047 51 51 61 
-1.62967 0.489579 6.36917 89 85 74 
-0.875828 -0.986419 4.38596 47 11 0 
-0.852313 -0.986441 4.39324 43 11 0 
-0.160023 1.01413 4.74762 60 28 13 
0.411227 -1.01792 4.9289 219 199 172 
-0.264247 -0.144243 4.36852 55 54 50 
-1.19493 -0.280602 4.81575 35 29 17 
-1.22535 -0.287485 4.82018 146 133 114 
0.323369 -0.116291 4.34885 76 74 75 
1.14309 -0.107294 4.53339 7 8 12 
1.15004 -0.0993236 4.53766 105 104 109 
0.0790376 -0.0998542 4.29965 149 146 139 
1.18533 -0.0920126 4.52112 169 145 97 
0.238069 -0.825907 4.89798 168 142 105 
-0.150418 -0.315067 4.44228 3 2 0 
-0.486084 -0.619665 4.01727 23 5 1 
0.192384 -0.025644 4.32808 184 161 85 
-1.20696 -0.0414944 4.83885 121 116 110 
-1.41186 -0.0395289 4.59306 111 58 0 
-0.498844 -0.587225 4.03331 157 172 151 
-0.350817 -0.561005 4.0106 152 122 72 
0.408498 -0.466522 4.8102 100 82 70 
0.304138 -0.486009 4.81482 153 143 134 
0.0208977 0.173125 4.19861 19 15 3 
-0.402239 -0.50111 3.9923 69 89 36 
-0.700383 -0.469136 3.76683 170 146 110 
-0.528999 -0.433417 3.81109 140 116 68 
-0.801754 0.830261 5.27332 48 22 0 
-10.3472 -8.51928 25.3558 144 127 99 
-11.0108 -7.49297 24.2573 107 89 67 
-0.496574 -0.460393 3.86703 73 90 36 
-0.490077 -0.46018 3.88035 185 209 159 
-0.446798 -0.592849 4.04212 113 133 131 
-1.19377 -0.27992 4.8143 35 29 17 
-0.847674 -0.990357 4.38919 194 151 109 
-1.22536 -0.288313 4.82012 146 133 114 
-0.852524 -0.986122 4.3903 43 11 0 
0.0202578 0.172141 4.20372 68 62 46 
0.0181103 0.179737 4.20552 132 125 109 
-1.36885 -0.204352 4.72739 188 151 71 
0.304094 -0.486554 4.80835 147 138 131 
0.296052 -0.142403 4.34963 86 85 81 
-0.0865918 -0.947362 4.97269 157 136 119 
1.185 -0.0921131 4.51529 179 150 94 
-0.482444 -0.62601 4.02294 158 139 132 
1.1432 -0.107699 4.53675 7 8 12 
-1.18878 -0.131252 4.78763 182 159 91 
-0.44263 -0.668906 4.00926 144 176 165 
-1.5476 0.50116 6.29135 175 171 162 
-0.107818 -0.807776 4.67473 39 88 58 
-0.481898 -0.457328 3.88017 80 100 39 
0.497908 -0.0456441 5.18529 91 70 39 
-0.26387 -0.144246 4.36728 55 54 50 
-0.516474 -0.484065 3.87529 41 51 0 
-11.2949 -7.41117 24.5075 104 84 59 
-11.7975 -7.2984 24.1649 103 94 61 
-0.352529 -0.585271 4.0299 70 77 35 
-0.912623 0.797447 5.23834 172 162 150 
0.651648 1.11113 4.43646 49 47 58 
-0.854485 -0.994536 4.38167 44 8 0 
-0.123104 -0.817122 3.98109 47 32 3 
-1.19954 -0.043727 4.83926 15 14 10 
-1.26985 -0.341103 4.85254 36 21 0 
-1.31742 0.735024 5.79625 163 156 146 
-0.677651 -0.733385 4.07217 0 32 5 
-1.41729 -0.0608283 4.60361 117 60 0 
-11.035 -7.5104 24.3054 107 89 67 
-1.19807 -0.281029 4.81776 64 58 46 
0.0384193 0.162073 4.20397 10 5 1 
0.0170887 0.18048 4.20323 132 125 109 
-0.70655 -0.471493 3.77774 175 148 103 
1.19004 0.936142 4.79759 33 33 41 
-1.48842 0.508234 6.24504 185 179 163 
-1.17775 -0.0544456 4.82504 57 56 52 
0.0550208 -0.121811 4.3034 189 185 158 
-10.1817 -8.39291 25.0132 109 89 64 
0.0379643 0.163365 4.21026 10 5 1 
0.070941 0.120161 4.24661 47 36 4 
-11.2661 -7.3901 24.4379 126 111 80 
-11.8642 -7.33277 24.2835 121 111 76 
-1.34346 -0.16467 4.8013 176 138 53 
0.173271 -0.147221 4.32732 28 10 0 
-1.21544 -0.287908 4.81463 26 19 0 
-0.335104 -0.584391 4.03342 91 71 21 
-0.857315 -0.989056 4.3963 47 26 7 
-0.34995 -0.594808 4.03059 192 205 149 
0.248916 -0.828843 4.90098 51 32 2 
-10.9694 -7.46593 24.1473 111 90 69 
-10.5475 -8.59628 25.2237 91 82 67 
-0.472284 -0.597275 4.03519 46 18 17 
-11.6081 -6.92505 23.6444 104 92 66 
-11.3463 -7.32973 24.73 203 181 157 
0.297775 -0.170697 4.37548 39 32 16 
-1.35125 -0.201178 4.71375 68 34 0 
-11.8652 -6.73734 23.5226 75 60 41 
-1.49067 0.50739 6.24832 187 181 165 
-1.52959 0.500262 6.29362 77 74 67 
-0.678435 -0.733939 4.07393 1 29 7 
-1.19688 -0.0445911 4.8336 22 21 19 
0.527543 0.863461 5.21472 158 155 140 
0.306123 -0.483665 4.8111 153 146 138 
0.277332 -0.800756 4.88646 163 143 110 
-0.450248 -0.660088 4.00575 51 78 69 
-11.2274 -7.77754 24.4408 121 107 81 
0.0219835 0.169662 4.20323 116 110 96 
0.0155268 0.182267 4.20788 121 109 95 
0.430516 -0.381712 4.87423 87 72 65 
-11.7821 -7.67687 24.4796 229 211 173 
-11.5219 -7.42264 23.9352 94 78 52 
-11.1573 -7.32239 24.2083 117 100 72 
-11.4109 -7.15643 23.6997 244 232 194 
-10.7924 -6.98396 23.5484 195 174 153 
-10.6226 -8.65172 25.386 83 74 57 
-11.0737 -6.95597 23.7446 199 183 149 
-11.8344 -6.71685 23.482 70 57 40 
-1.3555 -0.20156 4.7162 50 15 0 
-10.3186 -8.01612 24.7533 220 202 164 
-0.45785 -0.627501 4.02857 60 20 31 
-0.381492 -0.561423 4.02506 71 121 68 
-0.503762 -0.59392 4.04319 148 153 133 
0.304888 -0.485535 4.82375 153 143 134 
-0.551267 -0.460374 3.8211 79 52 5 
-0.679902 -0.737201 4.07551 4 25 10 
-0.356118 -0.583522 4.02977 45 63 21 
-0.353153 -0.595559 4.03963 190 215 160 
-1.53551 0.498967 6.31176 43 42 37 
-11.1912 -7.05733 23.372 201 187 158 
0.276827 -0.802253 4.8895 165 145 108 
-10.2178 -8.425 25.0671 145 126 96 
0.303983 -0.487219 4.82375 153 143 134 
-11.1123 -7.80297 24.9511 233 211 172 
-0.54635 -0.458114 3.80996 113 89 43 
-11.6585 -7.50286 24.1932 98 83 54 
-11.1944 -7.35274 24.3087 94 76 52 
-0.638783 -0.48133 3.81837 114 92 55 
-11.0031 -7.11258 23.9447 220 199 168 
-11.9628 -6.79346 23.7043 107 92 69 
-0.376694 -0.559632 4.01196 164 191 140 
-1.1741 -0.0679624 4.83838 116 108 105 
0.563508 1.12023 4.40947 76 75 83 
0.619324 1.11608 4.4317 82 81 95 
-0.353441 -0.599736 4.0524 184 205 149 
-0.495344 -0.636968 4.02489 135 133 112 
-0.438284 -0.671744 4.02686 154 177 171 
-1.4941 0.503508 6.23119 182 179 162 
-1.37678 -0.210659 4.68931 30 8 0 
-10.8718 -8.69638 25.7156 211 203 167 
-0.486974 -0.638099 4.02075 46 29 21 
-10.2425 -7.96622 24.5886 230 212 172 
0.0451398 0.914246 4.80577 80 60 27 
-10.9346 -7.77512 24.8633 105 91 64 
-11.6122 -6.93844 23.6245 166 153 118 
-11.6858 -7.47867 23.9723 242 221 190 
-0.270658 -0.143881 4.37889 46 45 41 
-0.440113 -0.670135 4.02743 148 169 164 
-0.353475 -0.599352 4.05255 184 205 149 
0.562247 1.12555 4.42411 20 20 30 
0.598359 1.17059 4.57927 120 123 132 
0.594917 1.26683 4.6113 49 49 59 
-0.697688 -0.477906 3.76631 112 84 34 
0.653244 1.20732 4.45206 49 49 57 
0.564535 1.07821 4.42518 160 156 153 
-9.47415 -7.79049 23.2071 144 127 99 
1.1726 -0.196519 4.57749 41 37 28 
0.403841 -1.0094 4.86701 217 197 164 
0.566447 1.21401 4.42367 41 41 51 
-9.34646 -7.70246 22.9202 145 126 96 
-9.75964 -7.5425 23.2564 240 224 190 
-1.38139 -0.208635 4.70652 30 8 0 
1.16088 -0.219868 4.5744 195 196 180 
0.55967 1.12044 4.40471 20 20 30 
0.333135 0.513195 4.75419 62 31 0 
1.1182 0.410297 4.62352 19 21 33 
0.182249 0.266811 4.13585 83 57 0 
1.18758 0.923027 4.7232 55 56 60 
1.1414 -0.106869 4.45252 21 22 24 
0.0979332 -0.0980128 4.24351 138 138 136 
-1.66468 -0.0399631 4.61215 255 221 150 
-0.104083 -0.935385 4.86304 52 39 20 
-0.0681909 -0.937081 4.86719 78 68 43 
0.510591 -0.591514 5.10878 191 161 123 
-0.518807 -0.434178 3.80478 138 111 68 
-0.481298 -0.459136 3.86183 173 191 143 
-0.43142 -0.599914 4.01253 44 69 74 
0.563839 1.08104 4.415 35 32 39 
0.185831 0.165357 4.22079 159 141 55 
0.621522 1.19924 4.4271 70 69 83 
0.530064 -0.049995 5.06835 102 82 55 
1.14495 -0.0999437 4.45857 113 114 116 
-1.39633 -0.0616523 4.56767 122 65 0 
-0.441271 -0.65398 3.98957 53 78 75 
0.547031 1.21923 4.71846 116 116 124 
-0.583131 -0.53206 3.87514 226 219 177 
0.286944 0.418489 4.7153 157 108 0 
-0.0895419 -0.835903 4.78003 51 124 94 
0.100089 -0.0350603 4.25677 76 72 71 
0.317807 -0.165132 4.30017 84 81 72 
0.31423 -0.169914 4.31015 179 175 163 
-0.0979327 -0.802929 3.96873 33 16 0 
1.09896 0.447725 4.6148 118 116 117 
0.229124 0.0887708 4.31273 183 129 7 
-0.423762 -0.671295 4.00303 155 187 176 
0.145472 0.414518 4.10657 172 131 51 
0.854962 1.00844 4.73602 43 46 53 
0.52819 -0.551524 5.11078 165 131 94 
-0.491467 -0.458659 3.85402 88 93 52 
-0.542454 -0.46204 3.80686 120 94 57 
-0.697801 -0.46868 3.76314 171 142 112 
0.226292 0.306495 4.15097 42 21 0 
-0.694993 -0.477791 3.76321 111 84 57 
0.335104 0.397254 4.73187 130 80 0 
0.762511 0.829475 5.13677 165 161 149 
-0.349378 -0.80829 4.05543 60 155 99 
-1.48298 -0.218018 4.51089 151 93 0 
0.232711 0.277282 4.15617 29 24 18 
0.321639 0.485675 4.73806 34 0 0 
0.572095 -0.22151 5.38031 164 148 123 
0.531384 -0.550265 5.10185 184 154 118 
0.425772 -0.991174 4.83003 74 62 38 
-0.521629 -0.432434 3.79373 89 66 25 
-0.01605 0.952379 4.76026 140 136 135 
0.235659 0.943042 4.67847 124 123 128 
0.23497 0.297213 4.15087 58 54 43 
-0.435063 -0.665124 3.98944 122 153 147 
0.795171 0.977609 4.70768 152 149 142 
1.1558 0.922346 4.71317 75 75 87 
1.07228 0.846524 4.75249 86 86 86 
0.0560171 -0.695427 4.55212 0 56 15 
-0.492357 -0.585482 4.01681 153 161 137 
-1.50311 -0.170415 4.44979 250 223 170 
1.02389 -0.330042 4.49746 103 100 91 
-0.392389 -0.498025 3.96425 44 84 34 
-0.0359986 -0.258847 4.39067 27 5 0 
0.0785155 -0.112917 4.24398 48 46 34 
0.41031 0.995855 4.64187 152 149 140 
-0.440147 -0.590194 4.02015 127 150 144 
-0.208693 -0.108449 4.33327 161 161 163 
0.0397722 -0.69598 4.56735 83 129 101 
-8.60598 -7.22175 21.5067 138 127 95 
0.570593 -0.135855 5.42138 175 167 146 
-0.479377 -0.45705 3.87197 79 101 52 
0.319286 0.488928 4.74828 30 0 0 
0.309907 -0.480217 4.717 8 0 0 
-0.664515 -0.46413 3.78647 29 12 4 
0.57687 1.11895 4.39364 136 136 144 
-0.111727 -0.926857 4.85916 143 131 105 
0.77063 0.835373 5.11654 165 161 149 
0.844686 1.11993 4.70895 135 130 134 
-1.49216 -0.234297 4.50465 158 97 0 
0.320906 -0.475271 4.71419 141 133 131 
0.164051 0.137269 4.20477 102 83 7 
0.230961 0.265856 4.15642 125 120 114 
-0.0862798 -0.937476 4.92084 46 29 22 
0.18301 0.918035 4.69321 35 29 13 
-9.04346 -7.10039 21.8841 229 206 172 
-1.36477 -0.206782 4.68693 49 24 4 
-9.40086 -6.81653 21.4336 79 65 54 
-0.472521 -0.595741 4.01579 77 22 28 
0.575248 -0.258643 5.37941 102 87 48 
0.617096 1.10738 4.40544 87 87 99 
0.859947 1.00175 4.73104 65 68 77 
0.610359 1.10763 4.38648 121 121 131 
0.297782 -0.50435 4.69377 16 6 14 
1.0851 -0.0847926 4.4293 18 15 10 
-0.478305 -0.625387 4.00029 153 129 125 
-0.458218 -0.633369 3.9866 65 30 34 
0.183774 0.27509 4.14283 255 243 120 
0.0630729 0.914456 4.69761 21 14 4 
1.13095 -0.103634 4.46563 5 6 10 
1.09512 -0.0957012 4.44635 113 113 115 
0.112064 0.912477 4.65807 211 199 187 
0.504012 1.03308 4.43231 160 156 145 
0.475653 0.916447 4.74789 114 111 106 
0.665043 1.1694 4.35359 48 45 54 
0.544481 1.09759 4.29108 15 18 25 
0.430852 -0.356911 4.71187 111 93 79 
0.298547 0.409629 4.63992 157 108 0 
0.531449 -0.576097 5.02993 38 22 0 
-0.489871 1.0443 4.68423 155 138 120 
-1.44331 -0.216029 4.44338 151 93 0 
-0.467798 1.19854 4.42078 45 45 55 
-0.0522562 -0.899984 4.87786 255 249 233 
-9.61149 -6.42027 21.1883 98 81 61 
-0.368577 -0.492093 3.90056 39 89 38 
0.54044 -0.555998 5.02426 82 59 25 
-1.36508 -0.043233 4.50658 120 59 0 
-0.0744048 -0.936029 3.85239 181 151 97 
0.213708 0.273142 4.05708 255 228 75 
1.07957 -0.0851742 4.36152 20 14 0 
0.714998 1.13333 4.27695 62 64 76 
0.60062 1.14759 4.24691 65 63 74 
0.663023 1.01067 4.25536 153 153 153 
-0.333328 1.01795 4.61159 124 79 46 
0.482061 0.942202 4.47599 160 152 141 
0.672953 1.05654 4.2384 129 132 137 
0.27456 -0.159093 4.13318 185 160 60 
0.385754 -0.173383 4.15815 145 143 130 
0.135194 0.603911 3.76069 230 200 146 
0.167515 0.58586 3.81655 112 61 0 
-0.157685 -0.144095 4.17876 44 45 40 
-0.137498 -0.147348 4.18578 25 27 24 
-1.29406 -0.0651291 4.43666 129 76 0 
-1.29637 -0.0691288 4.45189 128 76 0 
0.425973 -0.740861 4.68861 103 82 63 
-0.00188854 0.53229 3.85771 255 250 113 
-0.345891 -0.589696 3.8945 54 77 71 
0.392422 0.492059 4.5928 146 118 35 
0.441353 -0.693454 4.70049 77 117 83 
0.398304 0.40266 4.5711 133 83 0 
1.15296 -0.389016 4.32634 150 107 90 
0.358617 0.392774 4.56487 201 154 38 
0.332433 0.365393 4.55538 218 172 35 
-0.307479 -0.489197 3.84617 72 99 44 
-0.456628 -0.4516 3.68544 96 73 32 
0.301353 -0.350859 4.5466 128 103 49 
-0.392577 -0.454123 3.74679 125 153 112 
0.312739 0.0738439 4.16585 126 69 0 
-0.576092 -0.413681 3.70418 73 48 18 
0.299702 0.251171 4.02324 141 143 132 
0.8108 0.785823 4.96483 142 139 124 
-0.428984 1.01374 4.61184 160 143 133 
0.358514 0.10106 4.18667 122 79 34 
0.512088 -0.377508 4.62399 190 182 179 
1.27377 0.731176 4.70683 54 55 59 
0.679782 1.13895 4.27107 64 62 73 
0.599632 1.1314 4.24267 34 35 40 
0.720129 1.04976 4.24759 129 130 135 
0.664013 1.01945 4.26711 44 45 50 
1.22585 0.859532 4.53188 48 51 58 
-0.00612839 -0.904211 4.80111 255 221 174 
0.180654 -0.0495524 4.11923 60 62 61 
0.503381 0.890732 4.64899 133 130 121 
0.149385 -0.0880938 4.09731 162 161 156 
0.282971 -0.0428986 4.14228 27 17 0 
-0.348933 -0.651995 3.87025 99 136 128 
0.833171 0.790376 4.96642 164 158 146 
-0.217287 -0.56562 3.86936 116 92 46 
0.335039 -0.619286 4.45314 44 92 54 
0.401762 0.481895 4.58814 52 30 0 
0.401602 0.460073 4.57888 88 69 10 
-0.249034 -0.472937 3.81889 72 48 12 
0.298141 -0.334703 4.55818 96 82 45 
0.25887 0.244869 3.99347 55 38 0 
0.30042 0.284068 4.0194 102 93 86 
0.345758 0.858114 4.51088 210 203 195 
1.15421 0.389699 4.44909 99 103 106 
-1.28765 -0.0528179 4.45125 127 75 0 
0.599339 1.15602 4.25138 65 65 73 
0.160452 -0.114697 4.11527 64 63 59 
-0.122875 -0.11626 4.19282 151 151 151 
1.19845 0.867044 4.52128 49 52 61 
0.567376 -0.571346 4.95787 46 16 5 
-0.143941 -0.147328 4.1934 16 18 15 
-0.40586 -0.453652 3.7438 59 56 15 
-0.36 -0.643865 3.87454 17 57 48 
-0.0825202 0.50601 3.89723 133 68 0 
-0.386798 -0.623261 3.87178 82 72 62 
-0.405744 1.16184 4.36068 41 45 54 
0.40027 0.373002 4.5719 117 65 0 
-1.38303 -0.221865 4.3968 135 74 0 
0.333197 -0.0159175 4.83838 88 65 21 
0.24488 0.243315 4.00052 230 195 49 
0.714534 1.04136 4.24385 12 15 24 
1.11125 0.802976 4.58525 147 148 142 
1.22678 0.00912297 4.32783 117 102 63 
0.589374 1.06499 4.2174 133 136 141 
0.584658 -0.0624654 4.89552 103 86 60 
0.181349 -0.799604 4.64798 0 39 12 
0.30192 0.28661 4.00982 23 3 0 
0.165595 0.565149 3.81144 125 69 0 
0.432121 -0.751716 4.70345 29 13 0 
-0.39921 1.16069 4.35031 39 42 51 
-0.372072 -0.583802 3.88607 57 15 17 
0.336027 -0.629262 4.48352 0 92 42 
0.0211109 0.691115 4.71265 75 24 0 
0.261142 -0.149628 4.12706 17 8 0 
0.389086 0.460022 4.58237 36 14 0 
0.578296 -0.577415 4.94379 33 13 0 
0.510164 0.888017 4.64107 137 134 125 
0.260427 0.237291 3.97096 233 200 61 
-0.415668 -0.615785 3.90024 43 35 16 
0.568184 -0.57648 4.94207 35 0 0 
0.0137947 -0.906776 4.71744 154 142 116 
0.91102 0.956947 4.53838 156 156 156 
-0.358967 -0.595484 3.88488 49 23 24 
0.463737 -0.441953 4.55427 94 75 58 
0.271949 0.258255 3.98991 250 218 37 
-0.392852 -0.452213 3.75854 54 94 41 
-0.415787 -0.456876 3.75046 83 88 56 
-0.463452 -0.454753 3.7014 70 46 18 
1.23676 0.885635 4.53439 129 132 137 
-18.6719 3.16592 18.0712 146 131 124 
0.23539 0.676553 5.77068 80 46 9 
0.0204099 0.687272 4.70378 68 16 3 
0.677855 1.0491 4.24506 24 24 32 
-0.362001 -0.643858 3.87617 23 58 51 
1.14404 -0.102322 4.2697 108 108 108 
-28.1438 1.4454 23.883 58 55 46 
-0.370067 -0.619491 3.86754 56 25 20 
0.405029 0.47192 4.56952 22 5 0 
0.299211 0.273085 4.00874 20 17 8 
-0.426644 -0.433674 3.67811 75 64 36 
1.15164 -0.110566 4.28242 17 16 21 
0.303414 0.0679088 4.16793 113 54 0 
-13.7302 -5.5051 20.8531 45 45 45 
-0.503852 1.06824 4.48424 172 168 165 
0.217802 0.383191 3.97518 174 134 39 
1.19513 -0.109103 4.28335 104 108 111 
0.369746 -0.172472 4.16196 35 33 21 
0.573648 -0.589333 4.92401 220 187 136 
-0.349665 -0.642759 3.8595 17 57 48 
-18.3049 2.99125 17.7318 32 31 29 
-17.765 2.61076 17.692 77 75 63 
