ply                 
format ascii 1.0    
element vertex 940
property float x    
property float y    
property float z    
property uchar red  
property uchar green
property uchar blue 
end_header          
-0.407737 -2.05684 5.82712 122 111 105 
0.618764 -0.0532303 3.40405 183 133 110 
0.580933 -0.0460377 3.40047 149 106 87 
0.848527 0.277293 3.41898 108 73 54 
0.257306 0.510666 3.33562 166 134 113 
-0.372082 -2.09543 5.87457 73 69 68 
-0.408644 -2.0558 5.82342 105 94 88 
1.2645 -1.50922 5.08339 20 11 6 
1.25992 -1.4757 4.97736 28 10 10 
1.3542 -1.39942 5.04128 138 91 65 
0.545562 -0.127389 3.4025 197 174 158 
0.615514 -0.126691 3.41788 200 172 158 
0.592443 -0.124179 3.41454 167 139 127 
0.617143 -0.0917682 3.41436 154 116 95 
0.545361 -0.0513877 3.40189 149 111 92 
0.618801 -0.0520579 3.40686 149 108 90 
0.581299 -0.0452043 3.40139 183 136 116 
0.617853 -0.0219707 3.40433 143 107 91 
0.855937 -0.0231208 3.43726 37 0 0 
0.850679 0.279037 3.41641 104 67 49 
0.315158 0.326199 3.35354 99 61 42 
0.505533 0.511086 3.36037 139 111 100 
-0.229997 0.856667 3.50438 104 69 49 
0.572546 0.855759 3.37455 52 20 5 
0.184493 0.865654 3.36216 27 16 10 
0.37765 0.865152 3.33321 202 168 141 
0.0758667 0.865389 3.31767 200 161 132 
0.25181 0.867154 3.3208 213 176 147 
0.598688 -0.124939 3.37855 172 149 141 
0.615766 -0.0916187 3.41349 154 116 95 
0.84625 -0.0421481 3.45609 163 109 83 
0.54819 -0.0232567 3.40125 140 107 90 
0.616405 -0.0235122 3.40436 143 107 91 
0.322359 0.856628 3.35571 37 14 8 
1.61536 -1.67379 4.75378 72 47 53 
1.73268 -1.44748 4.52245 150 110 85 
1.76348 -1.39476 4.44035 22 6 6 
1.22579 -1.53257 5.10268 138 91 63 
0.875659 -1.67888 5.61223 5 0 0 
0.662634 -1.7055 5.80957 9 2 0 
0.694551 -1.65196 5.80938 79 65 62 
0.69767 -1.56242 5.82267 89 74 69 
0.592502 -0.125509 3.4229 171 144 135 
0.597681 -0.0630967 3.40559 97 55 31 
0.581426 -0.0300541 3.39896 176 133 116 
0.826088 0.209908 3.42052 117 72 43 
0.854562 0.230603 3.41053 166 137 129 
0.373894 0.23697 3.42935 161 133 119 
0.386821 0.2324 3.36741 144 116 104 
0.51074 0.232922 3.37098 197 166 148 
0.858199 0.284973 3.40825 109 64 43 
0.325132 0.402888 3.34835 140 80 52 
0.51223 0.502059 3.35391 139 115 105 
0.532967 0.506353 3.37702 175 148 129 
-1.65481 0.796411 4.23513 174 138 112 
-1.68224 0.744403 3.83226 39 21 21 
-0.218193 0.847649 3.47368 103 70 53 
0.402789 0.853973 3.35325 45 12 0 
0.0964191 0.858944 3.34305 38 17 12 
0.382776 0.867671 3.32327 211 175 143 
0.254079 0.87204 3.32001 217 178 147 
-0.461352 -2.07338 5.81203 18 18 20 
-0.360452 -2.0027 5.85877 73 65 62 
1.12599 -1.63214 5.18001 102 62 36 
0.664556 -1.69619 5.78405 9 0 1 
1.30104 -1.41733 5.05704 152 92 66 
0.583325 -0.05691 3.40442 98 56 32 
0.824369 0.207281 3.41539 119 72 42 
0.797582 0.232759 3.41233 199 167 142 
0.325282 0.317332 3.35813 103 60 41 
0.326519 0.405539 3.34391 107 62 41 
0.326647 0.448177 3.34849 105 61 36 
1.1792 -1.71281 5.13396 82 43 26 
0.373341 0.241965 3.35978 194 161 142 
0.625988 0.351178 3.37816 101 63 44 
0.57315 0.398456 3.37116 99 62 43 
-1.66329 0.751373 3.97873 45 28 21 
-1.74259 0.74447 3.91671 47 29 17 
-1.73492 0.77587 4.07902 39 24 17 
0.874538 -1.65045 5.53739 11 3 0 
0.377839 0.171653 3.36264 85 46 31 
0.866036 0.241189 3.417 166 139 130 
0.335842 0.300953 3.34777 134 77 50 
0.518323 0.401255 3.36547 160 132 121 
0.929889 0.482679 3.42397 166 138 127 
-1.8787 0.730969 3.33945 33 14 8 
-1.81158 0.735811 3.33894 30 10 9 
0.300385 0.862352 3.37265 27 8 1 
1.15952 -1.65551 5.15941 142 95 69 
1.20862 -1.52317 5.1609 152 98 70 
0.564136 -0.0184619 3.5206 145 112 93 
-0.311938 -2.03246 5.77283 15 11 12 
0.898557 0.237525 3.43005 168 138 128 
0.914385 0.271595 3.43338 166 142 132 
0.944302 0.460333 3.42608 166 138 127 
0.91021 0.500124 3.4206 164 137 128 
1.1853 -1.48411 5.18468 153 93 65 
0.773724 -1.52253 5.62825 89 75 64 
0.323585 0.22153 3.35018 162 133 115 
1.27474 -1.52983 5.06951 153 140 132 
1.25354 -1.49921 5.05095 30 7 0 
1.28429 -1.49454 5.03986 31 18 10 
2.42301 -1.29382 3.96278 130 114 91 
2.38453 -1.2347 3.95713 125 113 91 
0.546615 -0.0531137 3.40018 184 133 112 
0.617853 -0.0531874 3.40216 183 133 110 
-0.730115 0.696605 6.00445 221 191 165 
0.73091 0.869846 3.3972 214 173 153 
1.85059 -1.58236 4.32191 167 135 114 
1.7971 -1.51203 4.40908 144 111 92 
1.30453 -1.53052 5.06694 36 23 15 
1.75329 -1.39607 4.42619 21 4 0 
1.26207 -1.48264 4.99917 26 19 13 
2.40785 -1.2914 3.97718 44 27 19 
1.09706 -1.44412 5.15857 139 96 79 
1.30161 -1.40018 5.01654 185 127 90 
1.38004 -1.40842 5.05453 167 109 85 
2.43435 -1.21816 4.13488 97 86 68 
0.544474 -0.127006 3.39951 197 174 158 
0.544281 -0.0937086 3.39118 183 142 124 
0.616581 -0.0917109 3.41121 186 139 119 
0.579737 -0.0449175 3.39634 183 136 116 
0.563594 -0.038109 3.39842 121 78 59 
0.599681 -0.038562 3.40014 119 76 57 
0.36831 -0.0336214 3.35232 173 117 84 
0.351242 -0.0279258 3.3568 66 10 0 
0.618105 -0.0220313 3.40577 178 133 114 
0.825904 0.209029 3.42118 117 72 43 
0.255191 0.224225 3.3319 197 160 134 
0.851173 0.278155 3.41866 140 90 63 
0.31869 0.396784 3.34678 134 79 58 
0.855071 0.459207 3.4094 129 82 54 
-0.700445 0.688555 6.03699 88 62 49 
0.401795 0.475742 3.34642 199 159 134 
-0.826188 0.796436 6.03412 32 19 11 
-0.175076 0.814115 3.79247 197 161 127 
1.00651 0.872247 3.46254 62 21 0 
0.676539 0.861553 3.40223 65 24 2 
0.325522 0.862877 3.37163 45 14 0 
0.252851 0.868794 3.32387 213 176 147 
0.897269 -1.5696 5.68086 13 8 5 
1.09569 -1.4424 5.1464 145 98 80 
-0.734424 0.696559 6.01973 215 188 161 
-0.627582 0.806522 5.92961 175 145 119 
0.996554 0.869215 3.45044 50 9 0 
0.389333 0.824369 3.23451 56 24 3 
0.0947297 0.861531 3.34433 48 20 9 
1.6059 -1.66353 4.72587 91 49 61 
1.35305 -1.66922 5.08948 185 130 99 
1.12395 -1.63894 5.1756 120 76 51 
0.811879 -1.67447 5.55078 103 77 62 
1.3241 -1.54773 5.03166 143 93 66 
1.73274 -1.45038 4.523 166 125 95 
1.10842 -1.5307 5.15349 138 86 64 
1.22084 -1.52356 5.08119 167 103 76 
1.28632 -1.39884 4.98908 182 122 86 
2.44683 -1.2321 4.14849 97 85 69 
1.1534 -0.682112 6.12257 9 8 6 
3.53369 -0.820495 6.87904 116 99 91 
0.554588 -0.0328767 3.46902 130 73 46 
0.801366 0.234008 3.42273 199 167 142 
0.506899 0.232317 3.3598 197 166 148 
0.319831 0.282648 3.33436 134 80 52 
0.942671 0.498712 3.45154 195 164 143 
-0.778828 0.771262 6.07461 178 147 119 
1.12331 0.874593 3.38948 231 192 159 
0.589363 0.820166 3.23062 53 12 0 
0.372847 0.846057 3.23276 213 179 142 
0.695959 -1.5579 5.80812 90 80 70 
1.72862 -1.44639 4.512 165 124 94 
1.26842 -1.50395 5.03418 36 31 27 
0.856776 -1.54613 5.69626 97 83 72 
-0.723514 0.618919 6.02045 191 157 120 
-0.957139 0.745268 5.56401 47 25 12 
0.979852 0.867264 3.43905 66 25 0 
1.16962 -1.70026 5.09275 97 54 35 
1.12267 -1.40778 5.13631 138 93 70 
0.88684 -1.47728 5.74117 8 8 10 
0.880851 0.304422 3.44142 143 84 52 
0.625607 0.349977 3.37845 132 81 60 
1.05523 0.493215 3.44805 194 165 147 
0.689014 -1.61007 5.28493 115 90 70 
1.18874 -1.38189 5.10959 61 33 29 
0.600067 0.21809 3.39143 140 83 53 
-0.944122 0.709547 5.82548 161 130 101 
-1.15904 0.791769 5.71721 38 19 13 
1.15801 -1.65356 5.15338 159 109 84 
0.658561 -1.81301 5.75547 109 91 69 
0.924343 0.509128 3.47429 195 164 146 
1.094 0.905013 3.44014 223 187 153 
-0.668591 0.661472 6.14945 84 64 53 
1.17808 -1.66694 5.11864 137 82 51 
0.868442 -1.62668 5.59133 14 9 5 
0.420293 0.307923 3.39824 121 70 39 
0.540278 0.32967 3.36972 196 165 144 
0.320674 0.378407 3.34842 191 164 137 
0.491614 0.404497 3.05109 195 168 149 
-0.871572 0.787832 5.92404 38 24 21 
0.0151279 0.876876 3.38773 47 15 0 
1.37586 -1.40976 5.08259 150 96 68 
1.26409 -1.50546 5.07312 30 7 0 
1.0678 0.871211 3.4402 89 47 23 
1.03367 0.871343 3.44427 48 8 0 
0.998805 0.870959 3.44491 62 21 0 
1.01403 0.878119 3.43534 231 191 165 
1.2635 -1.5012 5.05937 33 14 8 
0.396434 0.22493 3.35886 182 146 124 
0.858484 0.45825 3.41492 129 82 54 
0.574274 0.862248 3.33018 217 182 150 
0.281355 0.83172 3.20262 216 185 154 
-1.30791 0.725122 4.43441 183 148 118 
0.595637 -0.124751 3.40069 199 173 160 
0.396179 0.503922 3.34922 196 162 135 
-1.38992 0.733491 4.39425 161 133 111 
1.27693 -1.5117 5.05194 36 31 27 
0.594807 -0.0593959 3.42383 132 82 59 
1.17836 -1.70703 5.11235 97 54 35 
0.621848 0.293829 3.42333 138 84 56 
0.158024 0.854243 3.32342 36 17 11 
-1.59383 0.774327 4.14239 160 127 92 
0.0677324 0.935431 3.54123 220 187 154 
0.154808 0.86655 3.50756 106 60 36 
0.475613 0.744201 3.09907 106 62 33 
0.444979 0.786658 3.25584 111 65 39 
-1.55661 0.778256 4.13155 157 124 91 
-1.59733 0.780332 4.16534 160 127 92 
-1.55679 0.777259 4.13197 157 124 91 
0.850418 0.278135 3.41376 104 67 49 
0.85901 0.283523 3.41145 109 64 43 
0.866972 0.242004 3.42107 166 139 130 
0.923489 0.257124 3.42503 167 140 131 
0.547132 0.279686 3.36816 163 136 125 
0.942688 0.282023 3.4227 168 140 129 
0.415898 0.300807 3.36249 87 48 31 
0.326717 0.86007 3.3617 47 21 8 
0.726636 0.869602 3.38889 199 164 144 
0.856661 -0.0228666 3.42623 35 0 0 
0.505013 0.511763 3.36125 155 128 111 
0.23259 0.889422 3.39485 198 165 134 
0.37386 0.869785 3.34932 199 165 137 
0.673798 0.864837 3.39874 46 14 0 
0.998826 0.871915 3.43245 53 20 3 
1.03356 0.871639 3.4293 43 10 0 
1.08712 0.881414 3.42627 207 172 144 
0.964447 0.885432 3.42996 207 172 144 
0.827505 0.209697 3.41762 94 57 39 
0.505737 0.231722 3.37852 172 145 128 
0.796239 0.230891 3.41327 177 147 136 
0.859195 0.456601 3.40142 110 65 42 
1.0659 0.477728 3.42881 169 141 127 
-1.89851 0.800851 4.01622 28 9 2 
-2.15967 0.815292 3.40413 14 4 2 
-1.6192 0.831456 2.65158 166 141 121 
0.888748 0.876664 3.43965 44 11 0 
-1.88244 0.798557 4.0046 26 8 0 
0.620202 0.864407 3.39363 56 23 6 
0.373227 0.242097 3.35538 194 161 142 
0.865732 0.242989 3.42297 173 146 135 
0.356625 0.362453 3.35114 173 147 132 
0.572484 0.399713 3.37507 106 65 43 
0.588314 0.49415 3.36095 96 54 32 
1.04958 0.494669 3.42611 169 142 131 
0.00790969 0.824986 3.35811 93 51 29 
0.818403 0.476422 3.39909 173 146 137 
0.363057 0.303237 3.43006 110 65 42 
-1.79491 0.852182 2.6883 37 25 25 
0.582462 0.522583 3.36847 93 52 32 
1.57714 0.520264 3.6342 54 41 33 
0.656239 0.828517 3.23041 196 165 137 
-1.53121 0.768103 4.1147 170 135 103 
-1.59629 0.779157 4.159 160 127 92 
-1.94747 0.858992 4.39448 170 144 119 
0.856396 0.229716 3.41834 166 137 129 
0.896953 0.238905 3.42519 168 138 128 
0.848921 0.275843 3.4139 107 68 53 
1.06501 0.764374 3.10332 37 8 0 
-1.62883 0.803903 2.75787 172 142 118 
-2.42845 -1.11605 3.10482 114 96 96 
0.827539 0.209702 3.41712 94 57 39 
0.398417 0.503202 3.34257 172 145 128 
0.865702 0.243046 3.42291 173 146 135 
1.05881 0.83596 3.32476 40 8 0 
0.557187 0.278824 3.32029 173 145 133 
0.849979 0.227755 3.42005 177 146 128 
0.553009 -0.0539394 3.39177 144 102 86 
0.570352 -0.0355904 3.39149 94 57 41 
1.11942 -0.0772776 5.4928 184 155 147 
-0.115733 0.327691 3.33355 223 186 160 
0.128793 0.869195 3.32157 197 160 133 
0.728008 0.870997 3.41063 45 16 0 
0.721009 0.87395 3.39756 197 163 138 
0.973066 0.875872 3.43392 41 11 0 
1.0256 0.879253 3.44439 38 5 0 
1.01549 0.879864 3.43118 184 148 124 
1.13966 0.880863 3.45284 55 24 6 
1.26686 0.876259 3.45958 60 24 2 
1.3442 0.879322 3.46834 60 25 6 
-2.32772 -1.27664 2.91757 25 9 9 
0.618815 -0.128 3.4092 173 144 130 
0.623557 -0.0918337 3.40118 153 115 96 
0.552653 -0.0938072 3.39719 143 110 93 
0.866808 -0.226252 6.02523 68 60 57 
0.625231 -0.0522812 3.39798 153 111 95 
0.60615 -0.0374346 3.39565 92 56 40 
1.12213 -0.0768778 5.48211 184 155 147 
0.660248 0.0235581 3.2825 164 110 82 
0.410194 0.223697 3.34659 143 116 107 
0.786257 0.225245 3.41699 173 140 121 
0.326571 0.327272 3.34266 97 61 45 
0.325954 0.395278 3.34005 98 63 44 
0.409664 0.510029 3.34107 168 137 119 
-1.77986 0.777977 3.93254 46 29 21 
-1.86921 0.73455 2.80061 163 137 114 
-1.81951 0.785162 3.1937 178 154 130 
-1.69946 0.806082 3.13805 135 116 102 
-1.55719 0.791589 3.11588 31 12 5 
-1.59808 0.832407 3.16031 112 84 63 
-1.72817 0.823064 2.92408 164 135 117 
-1.82353 0.839809 2.82437 139 116 102 
-1.6174 0.81798 2.66868 20 9 5 
-0.151978 0.872544 3.37616 94 57 30 
0.0811662 0.867675 3.36284 30 10 3 
0.330026 0.859939 3.35934 26 6 0 
1.32462 0.828595 3.93362 178 142 118 
0.371191 0.871511 3.35162 194 160 135 
0.534993 0.865943 3.38762 49 21 7 
0.564015 0.867451 3.39461 57 27 16 
0.553822 0.875789 3.38193 176 144 119 
0.607199 0.871152 3.40738 43 14 0 
0.661596 0.874134 3.41717 46 17 3 
0.828904 0.876621 3.40412 169 137 114 
0.816964 0.875516 3.38373 192 158 130 
0.997711 0.874451 3.43419 47 14 0 
1.04504 0.883069 3.42488 210 173 146 
1.07968 0.886553 3.44142 195 159 133 
1.13194 0.887388 3.44663 174 140 115 
1.32234 0.876903 3.46593 67 35 10 
1.36463 0.876339 3.46968 79 48 30 
1.33167 0.885319 3.46422 173 135 112 
0.859603 0.87489 3.42897 46 14 0 
-1.8302 0.823433 3.17497 148 119 105 
-1.74394 0.825249 2.92996 164 135 117 
-1.61967 0.825225 2.54703 204 179 157 
0.256991 0.871464 3.32015 199 164 132 
0.295933 0.869449 3.32417 208 171 145 
1.34065 0.872688 4.04217 104 76 52 
0.522176 0.873349 3.37467 175 142 123 
0.850169 0.882931 3.42228 178 140 119 
-0.26771 -1.89886 5.74676 73 67 67 
0.0716612 -1.6338 5.70949 59 49 40 
0.849713 -0.0256838 3.43717 33 0 0 
1.12519 -0.0761306 5.46927 184 155 147 
0.894458 0.165854 5.69595 181 149 128 
0.920711 0.167232 5.70356 187 153 125 
1.38254 0.174344 5.50272 187 157 131 
0.405214 0.229142 3.33876 140 116 104 
0.556052 0.229904 3.36536 163 133 122 
0.377929 0.372308 3.33858 163 135 121 
0.407897 0.479537 3.33601 164 135 121 
0.893335 0.452215 3.40384 104 59 38 
0.852255 0.459375 3.41315 102 60 38 
0.408065 0.502698 3.3334 164 136 124 
-1.55373 0.781219 4.12906 179 143 119 
1.09974 0.837985 6.58357 77 66 64 
-1.77799 0.694425 2.7783 107 81 64 
-1.71314 0.685834 2.63645 184 162 141 
-1.79895 0.725974 2.76588 158 132 109 
-1.91464 0.810539 2.74329 129 110 96 
-1.62477 0.840897 3.172 112 81 60 
-0.118693 0.862298 3.3462 94 57 30 
0.233234 0.871261 3.29348 201 165 133 
0.595637 0.876861 3.38175 172 138 113 
0.889837 0.878362 3.43733 46 16 5 
1.05762 0.879815 3.44862 41 8 3 
1.1142 0.879103 3.44877 44 15 0 
1.19906 0.876651 3.45043 53 20 1 
1.29574 0.87576 3.46035 65 33 8 
-1.64237 0.741613 2.73003 34 24 22 
0.713796 0.877895 3.40516 195 161 136 
0.55656 -0.0958766 3.4083 142 110 99 
0.846209 -0.0256734 3.44067 29 0 0 
0.789145 0.147698 5.84378 8 4 3 
0.787091 0.23265 3.42679 169 141 129 
0.853432 0.286748 3.4282 106 61 40 
0.324361 0.318699 3.3593 107 62 39 
1.03143 0.480397 3.43192 163 135 123 
1.062 0.479989 3.43046 163 135 123 
0.968315 0.837569 5.70913 60 43 36 
-1.82315 0.727976 2.77386 163 137 114 
0.0898743 0.866496 3.30392 205 170 140 
1.33842 0.891181 3.78668 151 119 98 
1.07774 0.896796 3.44975 194 154 128 
0.590617 -0.057001 3.39551 98 53 34 
0.643519 0.0242644 3.27663 146 93 62 
1.09548 0.836393 6.56067 78 67 63 
1.07689 0.871039 3.42325 42 9 0 
-0.242098 -1.84844 5.69687 66 58 56 
1.39297 0.182442 5.49518 180 149 121 
0.60198 0.298133 3.38023 104 61 42 
0.366812 0.361366 3.3405 161 134 123 
-1.73002 0.83318 3.03758 29 10 3 
-0.0424996 0.842835 3.41022 95 54 36 
0.861188 0.85163 3.42599 83 46 28 
0.816729 -0.0379014 3.36059 137 90 62 
0.506027 0.40366 3.36021 162 133 119 
1.04756 0.495735 3.43001 160 132 121 
-1.5637 0.768316 2.81982 146 120 95 
1.39367 0.874803 5.6381 142 112 88 
0.317193 0.903424 3.31918 212 173 142 
0.77916 0.838318 3.43384 85 46 29 
1.16858 0.879557 3.45872 48 12 0 
0.798933 0.25321 3.39991 166 142 130 
0.645967 0.269826 3.23254 163 137 124 
1.50027 0.833944 5.54708 130 107 91 
0.58425 0.837071 3.42168 85 46 29 
0.632733 0.421384 3.38143 163 136 125 
0.357013 0.50525 3.31471 163 134 120 
0.94798 0.456617 3.40895 164 137 126 
0.90388 0.501479 3.40513 162 135 124 
0.228125 0.842068 3.40827 87 52 30 
0.487719 -0.0569317 3.36083 100 53 33 
0.376346 0.220724 3.29998 160 132 120 
0.340583 0.376543 3.33484 163 135 123 
0.330457 0.434969 3.42129 107 62 39 
0.584361 0.872501 3.42174 43 14 0 
-1.78061 0.797261 4.01005 160 138 114 
-1.89873 0.823015 4.06864 158 130 106 
-1.76836 0.808075 4.0021 162 131 103 
-1.4841 0.749514 3.86089 170 133 107 
-1.7128 0.800623 3.97343 165 131 106 
-2.36303 -1.28816 2.93197 27 9 9 
0.686168 0.222907 3.389 172 137 117 
0.860777 0.467984 3.11705 162 130 117 
0.553507 -0.129332 3.4019 173 144 126 
0.646643 0.223895 3.38713 171 135 119 
0.84434 0.277595 3.42354 101 64 45 
0.972152 0.876797 3.43936 31 1 0 
1.04989 0.885582 3.46184 41 8 3 
-1.95695 0.778744 3.24111 23 13 4 
0.835186 0.872519 3.42185 62 30 15 
1.02458 0.878285 3.4472 46 13 0 
-2.31787 -1.28348 3.02173 106 88 88 
-2.30952 -1.08553 3.06284 106 88 84 
0.331449 0.400933 3.34234 109 67 45 
1.06052 0.478952 3.43986 160 132 120 
-1.60485 0.824042 2.80049 22 5 0 
-1.66735 0.809056 2.59141 34 23 21 
-0.0960087 0.856449 3.33119 97 60 34 
0.128375 0.865681 3.36138 26 8 0 
1.10979 0.882052 3.45813 44 15 0 
0.615984 -0.127028 3.39316 172 146 133 
1.02894 0.47993 3.43702 163 135 123 
-1.77047 0.838536 2.77893 54 41 32 
0.13828 0.862659 3.35511 26 8 0 
0.806284 0.882326 3.36351 198 156 131 
0.599431 -0.0924324 3.39748 146 110 94 
0.387906 0.241517 3.34004 157 135 122 
0.852102 0.866102 3.32314 178 137 109 
0.575793 -0.0574465 3.38868 98 56 40 
0.453471 0.00151252 3.33817 155 102 71 
0.866867 0.243452 3.42418 166 139 130 
0.346495 0.506496 3.32747 163 134 120 
0.183995 0.829935 3.36993 88 50 31 
0.42176 0.00442912 3.40889 130 79 50 
0.958915 0.515155 3.42324 105 60 37 
-2.39848 -1.29708 2.94018 23 5 3 
-2.35938 -1.29266 3.02922 83 59 57 
0.628349 -0.12716 3.402 169 140 124 
0.624628 -0.0548697 3.39896 150 105 86 
0.552357 -0.0541093 3.39233 147 104 87 
0.586322 -0.0465311 3.39484 150 108 92 
0.571375 -0.0353574 3.39061 91 54 38 
1.26385 0.326771 3.80461 132 101 83 
-2.12199 0.5657 2.30183 39 7 8 
-2.15282 0.576118 2.33713 68 42 41 
-2.14678 0.600428 2.31685 95 79 80 
-2.10898 0.632452 2.30447 62 43 75 
0.857312 0.87645 3.43103 46 13 0 
1.06714 0.891069 3.46023 189 154 132 
1.09642 0.88982 3.4737 50 14 0 
-2.47327 -1.32454 2.82094 83 64 68 
-2.435 -1.31599 2.83816 85 69 70 
-2.56136 -1.16306 2.57492 18 10 8 
-2.43129 -1.20409 2.90112 57 35 37 
-2.3882 -1.20516 2.98602 60 39 38 
-2.20172 0.224014 2.34182 117 68 63 
-2.21793 0.266031 2.34841 78 28 40 
0.415067 0.223757 3.34281 144 116 104 
-2.18544 0.331188 2.34049 86 35 44 
1.24239 0.260134 3.7691 129 101 89 
0.332145 0.327105 3.3385 101 60 42 
0.390406 0.342717 3.33763 168 132 116 
-2.3349 0.468934 2.44465 200 169 149 
-2.15714 0.45179 2.32337 96 75 72 
-2.20686 0.511987 2.36629 85 67 63 
-2.15188 0.55569 2.33712 146 127 120 
-2.1256 0.598907 2.31445 92 76 77 
-2.15059 0.648774 2.34205 51 33 83 
0.875399 0.462904 3.42649 104 63 41 
0.541655 0.512788 3.35941 148 118 110 
-2.01381 0.788385 3.25904 24 10 1 
-1.81729 0.762209 3.19655 19 6 0 
-1.81044 0.78514 3.18977 174 145 131 
-1.62155 0.795311 2.67969 142 114 100 
-1.46851 0.850172 2.18349 118 87 67 
0.101589 0.861066 3.34615 38 11 0 
0.200099 0.865865 3.35001 46 24 11 
0.338798 0.857172 3.35274 26 1 0 
1.32893 0.892138 4.03455 183 147 125 
0.818327 0.881549 3.41674 169 133 111 
0.887803 0.886036 3.42472 198 164 139 
1.10454 0.88603 3.4646 47 14 0 
-0.346569 0.948693 3.55134 48 15 0 
-2.16883 -1.25825 2.52787 28 16 16 
-2.34285 -1.29041 3.02819 88 64 62 
0.562001 -0.0223671 3.38548 138 105 90 
-2.19624 0.331593 2.34343 86 35 44 
-2.27665 0.437654 2.40064 99 75 63 
1.25849 0.413728 3.80278 119 83 67 
-1.79293 0.783063 3.18417 175 146 130 
0.237223 0.865218 3.35696 30 11 5 
0.593115 0.877108 3.38445 186 149 123 
1.27173 0.889803 4.14505 181 146 124 
1.33619 0.888583 4.02163 182 144 121 
0.946344 0.891429 3.44687 196 161 133 
1.01838 0.881122 3.4537 45 12 0 
-2.1475 -1.2191 2.5077 113 99 96 
-2.40467 -1.34293 2.81434 171 143 142 
-2.23445 -1.18241 2.43936 16 12 11 
-2.50938 -1.29752 2.77532 140 122 122 
-2.58302 -1.16192 2.58838 9 5 4 
-2.58822 -0.99047 2.54811 157 133 121 
0.413136 -0.0200104 3.32365 205 146 114 
-2.21248 0.276442 2.3494 104 19 40 
0.823501 0.210612 3.42305 86 49 31 
0.668369 0.230024 3.39703 164 135 119 
0.371164 0.373309 3.34368 164 135 119 
0.341967 0.400196 3.33504 106 65 43 
0.853688 0.460661 3.41118 105 62 43 
1.13586 0.531459 4.31352 12 7 4 
-2.23094 0.715885 2.39912 47 33 66 
0.670594 0.511719 3.3837 164 134 123 
0.920917 0.501893 3.42608 163 134 118 
-1.64393 0.774349 3.1762 158 128 104 
-1.36287 0.778147 2.81002 27 8 0 
-0.0802367 0.852932 3.3221 90 53 27 
0.0295216 0.855487 3.32583 32 4 0 
1.28746 0.89038 4.07405 93 66 57 
0.977543 0.877264 3.44191 47 14 0 
0.976249 0.898368 3.47402 187 147 122 
1.04911 0.884649 3.46054 41 12 0 
0.206317 0.870657 3.32048 195 161 136 
-2.20187 -1.1733 2.43503 14 13 11 
1.23937 0.328513 3.76443 134 106 94 
0.342752 0.448913 3.33589 111 66 43 
-1.98274 0.791601 3.33314 42 26 13 
1.0291 0.480133 3.43609 163 135 123 
-1.56935 0.786038 2.67495 143 110 91 
1.27467 0.896878 4.0964 90 66 56 
1.315 0.887705 4.09734 96 65 44 
0.782471 0.875207 3.42577 46 15 0 
0.971828 0.880674 3.45044 47 16 0 
0.389246 0.0247697 3.35517 91 48 31 
1.25722 0.260335 3.72405 136 107 99 
0.392944 0.358182 3.31636 161 133 121 
-2.7083 -1.09275 2.57275 97 83 82 
0.507111 -0.0283236 3.37673 101 53 31 
0.38932 0.493158 3.33484 163 135 124 
-1.8917 0.790442 2.66924 144 116 95 
1.29768 0.894159 4.05843 93 65 51 
0.823783 -0.0376682 3.35402 147 97 74 
0.850929 0.245218 3.44051 162 135 126 
0.778722 0.256528 3.42355 168 136 121 
0.350448 0.428629 3.34501 111 65 41 
0.291231 0.488854 3.33237 167 139 127 
-1.88476 0.762443 3.27734 29 16 7 
0.915953 0.485241 3.42641 161 135 122 
1.04207 0.497594 3.43946 160 132 121 
0.862775 0.850514 3.42412 85 46 29 
0.660412 0.0261673 3.23147 145 89 62 
0.415066 0.301145 3.34762 92 51 33 
0.55491 0.870721 3.40565 51 22 4 
-2.3336 -1.28557 3.02562 92 68 66 
-2.29201 -1.06699 3.00002 106 88 84 
0.60423 0.215495 3.38114 108 62 39 
0.885895 0.239852 3.43695 165 137 126 
0.33322 0.508415 3.33639 167 138 124 
0.836104 0.429595 3.46007 108 62 38 
0.379816 0.509906 3.33016 163 134 118 
-2.37006 0.735169 2.67944 191 163 139 
0.828644 0.481467 3.39751 165 136 122 
0.20622 0.823691 3.35542 96 53 34 
0.449795 0.823763 3.37659 86 49 30 
0.509794 0.823114 3.37463 85 48 30 
-0.414403 0.840394 3.49357 200 159 127 
-0.115098 0.777065 3.32412 196 152 123 
0.526593 0.850972 3.35725 52 22 11 
0.222726 0.158367 6.09869 214 187 158 
0.373842 0.379503 3.35031 199 163 139 
0.884852 0.455362 3.41433 135 79 52 
0.279604 0.852506 3.3291 24 2 0 
0.269626 0.231296 3.34993 192 160 139 
0.105166 0.162906 6.31641 158 132 107 
0.523436 0.498698 3.36131 175 148 129 
0.913062 0.252318 3.43237 196 168 146 
0.0788775 0.870697 3.31118 221 188 155 
0.852347 0.282245 3.42405 104 67 49 
0.856625 0.229697 3.41932 166 137 129 
0.895681 0.236625 3.41892 168 138 128 
-1.94557 0.79462 3.76275 28 9 3 
-2.33076 -1.27416 2.91884 34 16 16 
0.865829 -0.277528 6.08095 124 104 106 
-2.35204 -1.18289 2.87738 60 41 43 
0.871704 -0.276499 6.06621 124 104 106 
1.12284 -0.0761483 5.47959 184 155 147 
-1.72701 0.713024 2.73952 163 137 114 
-2.04478 0.774728 2.76824 215 189 176 
-1.57035 0.794044 3.12316 31 12 5 
-1.80701 0.837893 2.81726 139 116 102 
-1.62832 0.819665 2.6733 20 9 5 
0.368408 0.872804 3.35512 194 160 135 
0.531227 0.867508 3.39303 49 21 7 
0.520241 0.87447 3.37763 175 142 123 
-2.32106 -1.18742 2.96476 64 44 45 
-1.87343 0.831415 3.19769 148 119 105 
-1.5286 0.808437 2.51145 204 179 157 
1.33508 0.877311 4.06038 104 76 52 
0.0929069 -1.61606 5.66385 59 49 40 
-2.27528 -1.27245 3.00348 106 88 88 
-2.29288 -1.08333 3.05594 106 88 84 
0.565561 -0.0956601 3.39555 142 110 99 
0.893793 0.165545 5.69815 181 149 128 
0.916634 0.166893 5.71769 187 153 125 
-1.55 0.700532 2.83173 28 14 11 
-1.52287 0.803984 2.85358 30 13 3 
-1.62344 0.829161 2.80927 22 5 0 
-1.64836 0.813152 2.64423 39 23 24 
-1.68161 0.814334 2.59729 34 23 21 
0.592846 0.878274 3.38578 172 138 113 
-1.61007 0.736993 2.71601 34 24 22 
-1.91 0.755033 3.225 39 22 12 
-1.65382 0.798973 2.69797 136 113 95 
0.0888609 0.86645 3.30488 205 170 140 
0.579283 0.398185 3.36517 97 59 38 
1.34225 0.681843 5.38125 78 67 63 
-1.64326 0.862888 3.00426 204 176 154 
-1.81604 0.896526 3.06068 201 171 147 
0.369224 0.360557 3.33737 161 134 123 
-1.89004 0.811559 3.17943 121 93 72 
-0.130826 0.721059 3.31484 179 139 113 
0.865206 0.502785 3.42559 163 136 125 
0.776542 0.255356 3.4375 166 142 130 
-1.62068 0.824865 2.76451 30 13 5 
-2.70033 0.900511 3.31241 22 13 8 
0.254337 0.832283 3.37751 87 52 30 
0.554171 -0.0549782 3.3667 99 56 39 
0.339422 0.375331 3.33603 163 135 123 
0.583438 0.522936 3.36843 87 50 31 
-2.04528 -1.21129 2.47397 149 134 129 
-2.3328 -1.27903 2.91911 23 5 3 
0.84994 -0.280931 6.12076 126 107 101 
0.875591 -0.225297 6.00464 93 78 75 
0.421868 -0.0268686 3.31789 165 109 76 
1.13171 -0.0752595 5.45795 187 164 156 
0.688835 -0.0697674 5.74927 173 154 148 
0.760509 0.341814 5.69433 255 241 231 
1.27433 0.325831 3.78458 132 101 83 
-2.14804 0.638619 2.31364 65 48 82 
-1.55459 0.793618 3.11793 41 21 10 
-2.02621 -1.21528 2.45113 40 25 22 
-2.43199 -1.3131 2.80889 83 64 68 
-2.25681 -1.26627 2.99678 85 61 59 
-2.36896 -1.18851 2.88158 57 35 37 
-2.34115 -1.19338 2.97046 60 39 38 
0.870763 -0.277061 6.06858 131 111 104 
0.413908 -0.0262918 3.32419 179 123 90 
1.12586 -0.0757119 5.47183 187 164 156 
0.481875 0.153873 5.87915 185 153 132 
1.41804 0.166288 5.37601 184 154 126 
-2.18162 0.223403 2.33729 117 68 63 
0.453554 0.285189 5.89791 93 83 74 
0.786156 0.225319 3.4171 171 134 118 
0.478229 0.336476 5.86487 95 81 78 
-2.20495 0.332611 2.34441 86 35 44 
1.24676 0.260048 3.7157 136 108 97 
1.25055 0.275332 3.73776 75 47 35 
-2.15082 0.42151 2.30495 91 66 70 
-2.3508 0.467498 2.44831 200 169 149 
-2.18557 0.453853 2.32926 96 75 72 
1.25702 0.328952 3.71062 134 106 95 
-2.26613 0.518189 2.37939 85 67 63 
-2.16561 0.557725 2.33985 146 127 120 
-2.15242 0.648836 2.34245 51 33 83 
-2.32072 0.738687 2.66704 197 166 145 
-2.23669 0.722987 2.40013 56 38 78 
-1.52708 0.689611 2.82096 36 19 12 
-1.55332 0.686935 2.69465 161 134 113 
-1.61675 0.713748 2.89178 151 129 118 
-2.14536 0.777516 2.84817 70 41 25 
-2.13555 0.796129 2.86647 174 147 136 
-2.28498 0.784295 2.50716 37 20 12 
-1.78048 0.818212 3.17236 135 112 98 
-1.59008 0.798264 3.13031 36 16 7 
-1.49273 0.772867 2.63762 142 114 100 
-1.783 0.834094 2.81067 140 114 97 
-1.64457 0.823111 2.67743 23 9 6 
-1.62967 0.824227 2.64241 14 2 2 
-1.41994 0.790359 2.48814 205 177 155 
0.0905071 0.865397 3.35536 38 11 0 
0.0675273 0.871483 3.32182 206 170 146 
0.129788 0.869744 3.32197 198 161 135 
0.363537 0.874566 3.3588 202 166 140 
0.555722 0.871846 3.40357 68 37 19 
1.28927 0.879342 4.1083 181 146 124 
0.659967 0.875466 3.41912 49 17 4 
0.717275 0.875904 3.42373 50 17 0 
0.714631 0.878241 3.40496 184 148 126 
-2.32297 -1.18899 2.96521 64 43 42 
0.697534 -0.0686266 5.7298 173 154 148 
1.25419 0.311419 3.73836 76 46 35 
-2.22501 0.515306 2.37309 79 64 61 
1.27813 0.409954 3.76576 119 83 67 
-1.80998 0.783554 3.94852 41 23 13 
-2.34433 0.808123 2.54992 176 158 148 
-1.93135 0.840518 3.21787 138 111 92 
-1.62663 0.832391 2.81144 36 18 6 
0.214906 0.872905 3.37646 30 11 5 
0.513993 0.877326 3.38282 172 140 119 
0.547554 0.879293 3.38828 183 147 123 
0.587387 0.880531 3.39046 186 149 123 
0.143987 -1.58325 5.58283 62 50 38 
-2.1182 -1.23282 2.53707 22 16 20 
-2.29955 -1.31398 2.78293 171 143 142 
-2.36138 -1.25958 2.69033 42 30 32 
-2.50847 -1.14446 2.57015 9 5 4 
-2.28595 -1.08202 3.0539 104 90 87 
0.894442 -0.232937 6.04604 12 3 0 
0.824283 0.14727 5.77014 14 3 1 
0.890746 0.165916 5.70538 184 148 122 
0.902851 0.167844 5.75049 187 146 126 
-2.21703 0.276637 2.35027 104 19 40 
0.81595 0.210521 3.43097 82 46 30 
0.445585 0.289767 5.91355 93 80 72 
0.85076 0.229989 3.42525 162 134 123 
-2.31402 0.398215 2.39958 103 78 73 
-2.31201 0.646943 2.43423 77 57 68 
-3.19866 0.812261 2.64109 76 56 68 
-2.29769 0.709171 2.54688 191 160 142 
-2.22306 0.715497 2.39716 47 33 66 
-1.56649 0.730035 2.70462 25 12 6 
-1.671 0.721523 2.50739 228 201 190 
-1.86085 0.806322 2.66736 147 119 98 
-1.61333 0.793778 2.68795 145 114 94 
-1.30999 0.766223 2.79002 27 8 0 
-1.96797 0.886545 2.98703 27 7 0 
-1.73935 0.839558 2.76843 47 30 22 
-1.73026 0.824584 2.60858 39 23 23 
-1.50988 0.806236 2.50754 202 174 150 
-1.59902 0.81957 2.21769 215 187 173 
-0.00627097 0.867675 3.35409 32 4 0 
0.0862317 0.867228 3.30669 206 170 146 
0.373868 0.871482 3.3491 209 173 147 
0.610289 0.870682 3.40555 46 14 1 
1.32023 0.885887 4.08761 96 65 44 
-2.32848 -1.34066 2.78994 171 143 139 
-2.05874 -1.19422 2.48526 106 92 89 
-2.36705 -1.29096 2.80481 94 78 81 
-2.50736 -1.26132 2.79736 141 119 121 
0.61017 -0.127599 3.3996 168 140 126 
1.25524 0.326913 3.73516 134 106 94 
-1.04936 0.617474 2.51726 159 130 112 
1.02615 0.481143 3.43896 163 133 122 
-1.59489 0.790292 2.68322 143 110 91 
-2.06695 0.932058 3.07231 193 162 141 
0.256011 0.888884 3.37469 196 161 131 
0.462134 0.309429 5.88678 123 108 101 
1.26148 0.25981 3.71568 136 107 99 
0.373911 0.35934 3.3338 161 133 121 
-1.54201 0.840212 2.99598 191 160 139 
-2.40739 1.00581 3.2528 191 159 138 
-1.76046 0.858423 2.36554 212 181 161 
-1.53408 0.850901 2.34831 135 104 83 
-2.07119 -1.2198 2.94755 95 71 67 
0.51565 0.142774 5.98872 21 11 10 
0.889747 0.162747 5.74802 188 150 127 
0.381924 0.494468 3.34143 163 135 124 
-1.81113 0.778086 2.6448 144 116 95 
-2.342 0.939942 3.28282 29 9 0 
-1.75567 0.883743 3.04086 196 164 143 
0.304221 0.885139 3.31667 205 164 134 
-2.35978 -1.365 2.72933 119 99 101 
-2.17412 -1.24023 2.4847 129 110 104 
0.723504 0.261618 3.48831 168 136 121 
-1.54188 0.665877 2.68479 141 114 95 
1.03664 0.498701 3.44511 161 132 124 
-1.55847 0.80495 2.93343 33 13 2 
0.984672 0.858234 5.8758 52 39 33 
1.12237 0.852644 5.56365 135 108 89 
0.878666 -0.225222 6.01219 76 58 54 
0.595027 0.0221528 3.29732 145 89 62 
-1.96371 0.793828 3.62812 25 8 1 
0.578682 0.523653 3.37245 91 50 32 
-3.26537 0.993314 3.51759 29 11 1 
1.06074 0.627072 4.62135 146 115 95 
-2.44011 0.920965 2.86861 53 39 30 
-2.42602 -1.19781 2.80083 141 119 121 
0.652265 -0.0692123 3.41039 103 57 34 
0.466954 0.00740664 3.33582 151 94 65 
1.09855 0.104308 5.51242 23 13 12 
0.366422 0.511867 3.34212 163 134 118 
0.920086 0.464033 3.4451 165 137 126 
-1.37434 0.784421 2.47369 205 177 155 
0.1844 0.830922 3.37443 96 53 34 
0.426703 0.831726 3.39893 86 49 30 
0.498697 0.826229 3.38545 85 48 30 
0.930909 0.433373 3.44992 164 136 124 
-1.49526 0.78852 3.02802 31 13 1 
-1.86388 0.847959 2.70263 36 25 23 
-2.44411 -1.30848 2.94935 59 38 35 
0.403213 -0.0202518 3.35254 96 36 10 
-2.50007 -1.3311 2.82555 92 70 72 
-2.46629 -1.31524 2.95492 59 38 35 
-2.45346 -1.32007 3.05339 95 70 66 
-2.48845 -1.21842 2.91272 66 42 40 
-2.42988 -1.21545 2.99523 63 37 38 
-2.15703 -0.44441 2.21586 84 58 57 
-2.08011 -0.239553 2.17821 95 52 98 
0.61722 -0.0926738 3.40662 147 110 92 
0.558764 -0.0509458 3.38638 144 101 84 
0.586287 -0.0456061 3.39463 145 106 89 
0.56171 -0.0377887 3.39847 90 54 38 
0.384671 -0.0263549 3.34563 183 124 90 
-2.16658 0.329327 2.33849 85 40 35 
-2.13201 0.448017 2.3219 97 76 71 
-2.1263 0.516301 2.30876 65 42 36 
-2.13113 0.553024 2.33468 143 115 111 
-2.14296 0.564024 2.30103 68 17 22 
-2.10318 0.584455 2.29158 153 134 127 
-2.30867 0.666308 2.5482 190 159 139 
-2.0343 0.624944 2.2966 68 52 78 
-2.15225 0.648898 2.34233 55 39 86 
-2.31521 0.714284 2.52151 119 86 69 
-1.52322 0.813347 2.7841 47 29 19 
-1.41938 0.840451 2.06482 101 77 67 
0.12898 0.853419 3.32915 49 21 10 
0.10704 0.858411 3.29577 205 170 140 
0.397176 0.862414 3.33327 194 154 129 
0.559189 0.858184 3.36937 55 23 8 
0.588016 0.859887 3.37586 79 51 30 
0.674422 0.869995 3.4061 56 23 8 
0.73005 0.871583 3.39065 179 143 119 
-2.29571 -1.29606 2.54688 38 24 24 
-2.66292 -1.27984 2.32944 78 58 57 
-2.23524 0.223814 2.34584 111 61 52 
-2.20279 0.512786 2.3694 84 69 62 
-2.20501 0.552788 2.34516 147 122 117 
-1.55122 0.817728 2.79069 42 24 14 
-1.56171 0.808865 2.65726 18 3 0 
0.270938 0.854671 3.33453 33 10 4 
0.539284 0.867801 3.36178 174 137 111 
0.573932 0.868892 3.36619 181 144 117 
-2.28382 -1.2788 2.56953 22 13 14 
-2.51723 -1.37535 2.83589 171 141 139 
-2.65532 -1.17908 2.59842 18 13 10 
-2.71794 -1.09385 2.37248 92 73 67 
-2.39345 -1.10481 3.08489 106 88 86 
-2.18969 -0.378723 2.20531 26 6 33 
-2.26379 -0.197785 2.24587 166 139 144 
0.610932 -0.126594 3.3998 176 147 131 
0.561366 -0.0969482 3.39936 145 114 96 
0.637124 0.0229819 3.29477 152 101 70 
-2.21165 0.275958 2.34938 102 13 33 
-2.1528 0.317911 2.26105 145 70 49 
0.289248 0.228818 3.33459 161 133 121 
-2.18792 0.32922 2.34329 91 44 38 
0.669052 0.229698 3.39649 164 135 119 
0.85997 0.228779 3.4167 163 134 116 
0.863382 0.281442 3.41334 102 64 41 
-2.11873 0.531748 2.30372 78 39 40 
-2.11137 0.55265 2.29792 82 16 26 
-2.22227 0.63519 2.41902 72 52 61 
-2.20598 0.719611 2.64391 193 162 141 
-2.23072 0.715358 2.39874 49 34 67 
0.293889 0.501745 3.31835 166 139 120 
-2.36257 0.792775 2.51667 37 17 10 
0.849423 0.461908 3.41518 107 62 41 
0.872405 0.459191 3.42733 105 60 37 
-1.6181 0.787517 3.13979 89 66 52 
0.999558 0.484631 3.46675 164 135 121 
-1.54847 0.78217 2.67098 143 116 95 
0.0863296 0.839642 3.29257 41 13 1 
0.616859 0.868561 3.36537 174 139 111 
0.691396 0.86273 3.39164 56 23 8 
-2.25172 -1.24627 2.52194 102 87 84 
-2.22521 0.279284 2.35177 102 13 33 
0.796174 0.229983 3.41375 165 133 120 
-2.12051 0.543029 2.30079 84 31 39 
-1.99111 0.767081 2.74915 224 191 172 
-1.66596 0.794131 3.15518 89 66 52 
1.03453 0.478247 3.43046 164 135 121 
1.049 0.517528 3.45136 158 130 118 
0.106833 0.869358 3.28142 202 163 130 
0.632679 0.862325 3.3856 71 39 26 
-2.57909 -1.41391 2.78395 118 99 105 
-2.13352 0.422409 2.31642 95 74 71 
-2.20367 0.713799 2.3888 54 39 72 
-1.47013 0.838922 2.33689 140 108 85 
0.34307 0.813801 3.25229 25 8 1 
0.341644 0.834557 3.30203 37 10 3 
0.296125 0.857654 3.25504 209 168 136 
-2.34365 -1.27918 2.58992 26 22 23 
0.7979 -0.0293762 3.33411 160 111 81 
0.388487 0.241408 3.33962 159 131 119 
-2.33302 0.525507 2.40293 99 86 80 
1.25123 0.327449 3.74498 134 106 94 
0.363202 0.440707 3.33132 111 65 41 
0.391224 0.49244 3.33387 163 135 124 
-1.7538 0.787279 3.13249 122 91 71 
-1.63716 0.812561 3.04733 30 12 0 
-1.39356 0.802592 2.33986 124 93 73 
-2.85587 -1.50275 2.8395 122 96 99 
-2.65729 -0.983711 2.53624 162 132 122 
0.819735 -0.0378919 3.35721 158 108 85 
0.844194 0.245787 3.44694 162 136 121 
-1.56351 0.7727 3.17655 147 113 88 
0.912549 0.462444 3.44026 163 135 121 
-1.60395 0.79758 2.69621 141 113 92 
0.599334 -0.0927929 3.39763 144 111 96 
0.36338 0.371125 3.318 163 137 122 
-1.85371 0.774524 3.15503 150 123 104 
1.02985 0.500639 3.4531 163 133 123 
0.37594 0.509792 3.33372 167 136 118 
0.842489 0.479256 3.3847 164 136 125 
0.597134 0.519336 3.3565 93 52 30 
0.468292 0.817653 3.36407 91 49 33 
0.500933 -0.0549369 3.35055 104 56 34 
0.454004 0.407103 3.34088 93 52 34 
0.94364 0.517153 3.43929 104 58 35 
0.236384 0.815351 3.33644 97 54 35 
0.143367 0.832466 3.2814 52 24 13 
