ply                 
format ascii 1.0    
element vertex 1263
property float x    
property float y    
property float z    
property uchar red  
property uchar green
property uchar blue 
end_header          
-8.37537 -3.99387 13.8685 25 21 22 
-7.67648 -4.33257 14.7428 23 5 3 
6.14009 0.501557 13.9704 163 128 100 
-7.00395 2.45625 12.5745 37 23 23 
-5.68055 2.41761 13.7873 71 52 45 
5.7089 -0.303605 14.4836 173 154 148 
1.2339 1.43506 8.30645 161 132 124 
-7.84596 -4.04046 14.7355 57 35 37 
5.52135 0.442632 15.3881 187 152 130 
2.53608 0.890592 8.52606 132 101 83 
-1.6525 2.68725 11.1994 99 56 37 
0.261832 0.589894 9.02766 163 135 123 
-8.52383 2.32084 13.5986 43 25 15 
-0.520542 0.98085 9.55834 161 133 119 
0.266384 0.603324 9.04023 164 134 123 
-7.39231 2.38703 14.1352 173 146 135 
-0.669958 0.625438 9.94149 161 135 120 
-0.716229 1.41353 9.73147 165 137 125 
-0.486329 0.596697 9.55524 157 134 120 
-0.12197 1.44824 9.26464 143 116 107 
-6.07716 2.09481 12.8991 162 139 131 
-0.526372 0.992067 9.60619 161 133 121 
0.815502 0.797732 8.62792 106 62 37 
-0.585099 0.825217 9.90245 108 64 39 
0.619439 0.569766 8.79237 165 135 124 
-0.0748821 0.619642 9.29494 158 134 122 
-8.75278 0.685199 13.1622 98 19 38 
-8.61277 1.44993 12.8196 58 39 32 
0.207862 -0.454914 9.0729 153 112 94 
-8.05944 -4.12181 13.4362 21 16 20 
-8.28869 2.18488 14.1255 196 165 144 
-8.00349 -4.35873 14.5359 102 86 89 
6.80349 -0.795666 14.8781 77 59 57 
6.75989 -0.791858 14.7754 82 64 62 
-0.410568 1.19139 9.55292 107 62 39 
-8.11904 -4.1311 13.5121 17 15 18 
0.667002 0.642754 8.79225 139 115 105 
-8.63356 1.8433 12.8494 65 48 82 
-0.391146 0.796881 9.49878 92 51 33 
-8.31551 2.19138 14.1653 196 165 144 
-0.590086 1.11999 9.63115 107 65 43 
-8.54232 2.06864 13.0719 49 34 67 
-0.584086 0.738036 9.70366 105 64 44 
-5.69136 2.48954 13.767 104 80 70 
0.695227 0.656704 8.7632 139 114 107 
-7.45313 2.32507 14.1064 73 44 28 
0.831111 0.723207 8.65651 108 67 49 
-8.00029 -4.13097 12.9584 48 30 28 
-6.24625 2.37395 14.9143 32 19 11 
-8.74868 1.20435 13.3663 99 75 63 
-8.65039 1.72915 12.8972 95 79 80 
-8.61435 2.11155 13.1989 56 38 78 
-8.60952 1.57249 12.9507 147 130 122 
0.0328564 -0.237299 9.26288 138 104 92 
-7.98697 -4.07863 13.0926 117 104 98 
0.0645272 -0.468428 9.24498 141 108 91 
-6.23866 2.37089 14.8987 32 19 11 
5.53147 1.03864 15.3883 87 76 72 
-0.574219 2.61912 9.76652 32 8 0 
0.0681337 -0.469855 9.26975 141 110 92 
-7.35866 -3.65567 14.9407 103 88 81 
-1.26835 2.62907 10.1918 208 172 148 
0.874291 1.44693 8.61423 163 135 123 
0.709829 0.493422 8.74915 87 50 32 
0.808058 0.599119 8.63435 164 136 125 
0.122962 -0.522205 9.18143 146 113 94 
-7.99668 -4.54508 14.5115 171 143 139 
-8.04559 -4.52815 14.5926 171 143 142 
-4.24691 2.40807 16.0649 47 29 19 
-8.15593 -4.06999 14.6806 139 117 120 
5.46317 0.880067 15.2192 68 55 47 
0.797652 -0.243543 8.5816 59 25 13 
-7.40032 2.39001 11.1499 204 176 162 
-6.97419 2.44592 13.5045 127 108 94 
-0.594697 2.62685 9.86414 36 8 4 
-0.533311 2.65267 9.65764 178 142 116 
5.47874 0.881956 15.2689 89 76 68 
-0.389271 0.815135 9.60218 93 52 34 
0.594415 2.66975 8.75804 188 151 125 
0.792732 2.65066 8.71793 58 24 12 
-7.45085 2.54849 11.1612 118 87 67 
-6.02572 2.40426 14.4042 175 146 130 
-8.05647 -4.2238 13.2619 50 36 35 
-8.64899 1.40383 12.801 156 136 127 
4.24767 -5.33922 15.5716 66 49 41 
-8.26659 -3.2705 14.6197 164 137 126 
-0.837454 2.62766 9.73256 197 161 129 
-8.62341 0.508677 12.9515 121 70 66 
0.151263 -0.242338 9.15119 144 108 94 
-8.82566 1.08704 13.4606 107 83 79 
-0.544618 2.68898 9.70175 202 160 135 
5.83653 0.71782 16.4994 12 6 8 
-6.8197 2.41794 11.993 204 176 152 
-0.0179595 2.65415 9.28856 173 138 116 
7.687 0.913833 14.8884 2 2 2 
6.06565 2.64811 13.8335 122 91 71 
-8.39025 2.13012 14.0433 180 147 128 
0.0189331 1.52012 9.15715 92 51 33 
-8.67484 1.45253 13.1865 94 79 74 
-1.38904 2.63242 10.438 77 48 34 
-6.74387 2.52032 13.2755 134 111 97 
-8.11613 -4.12383 14.7796 143 119 119 
0.10911 -0.247852 9.18159 142 106 92 
-8.67133 1.68835 13.1234 141 121 122 
0.0694465 2.67089 9.2104 189 152 125 
-8.64829 1.44992 13.1517 99 84 79 
-0.760538 2.65835 9.83763 208 172 146 
-8.99604 -3.36975 14.2693 158 131 120 
-8.14999 -4.55672 14.3691 119 100 102 
-9.08728 1.36098 14.4414 205 175 151 
-8.95138 -3.3561 14.207 159 132 121 
-7.13632 2.09952 12.3348 177 149 135 
-8.84692 1.0894 13.4737 103 79 77 
-6.40665 2.49466 13.5188 164 133 113 
-5.58625 2.46755 13.3365 128 97 79 
5.9179 0.358735 15.5208 13 8 5 
0.265531 -0.267922 9.02353 99 54 31 
2.7269 1.39621 8.59888 81 50 32 
0.451042 -0.251471 8.56292 151 101 74 
0.157014 -0.579549 9.28774 172 144 130 
0.10562 0.485848 9.17071 105 59 36 
-1.13633 2.60709 10.1819 38 11 0 
-5.73274 2.4905 12.2836 131 99 78 
-6.07104 2.00066 12.8013 136 110 95 
3.13655 -5.94875 16.2169 83 69 66 
5.78597 2.60221 15.1571 9 3 3 
0.400845 1.60584 8.87751 92 51 33 
-5.91368 2.53019 12.3752 158 127 106 
6.49558 2.68677 13.9138 53 40 32 
1.02065 1.58795 8.39745 102 57 34 
0.253108 -0.272312 9.22189 94 53 33 
-5.86429 2.54407 13.4309 128 95 76 
-6.51848 2.49902 13.7133 150 118 95 
6.6042 2.70016 14.699 103 80 64 
6.08025 0.39296 14.1184 8 0 0 
5.82382 0.34783 15.2497 13 8 5 
-4.9618 2.41208 15.7959 42 23 17 
-5.92297 2.46327 15.0833 136 108 94 
-7.12105 2.53647 11.4529 151 120 99 
-5.95165 2.50058 12.9172 152 120 99 
0.219413 -0.5122 9.09073 105 60 39 
-0.657051 2.63549 9.72389 169 135 110 
-5.71306 2.28856 14.2455 56 38 28 
-1.54507 2.60576 10.5725 63 30 15 
-8.29702 2.19394 13.9649 109 83 66 
0.190149 -0.500899 9.12986 99 58 40 
6.52824 0.411457 12.3481 11 3 1 
-8.52563 2.37487 13.1695 107 85 74 
-7.90822 2.597 12.3861 162 135 116 
-0.764754 2.83133 10.0201 207 168 137 
-8.45579 1.768 12.7249 120 104 107 
0.923447 0.327726 3.19981 81 45 29 
0.357198 -0.414959 8.86295 103 57 33 
-7.24253 2.51617 11.5361 184 153 132 
0.246246 -0.511143 9.10573 107 61 38 
0.923728 0.328621 3.20436 82 46 30 
0.0423655 -0.546614 9.37123 105 64 46 
5.97875 2.65474 12.2699 156 124 99 
-6.62326 2.51601 12.5892 132 110 97 
6.78853 -0.942597 14.8964 14 14 12 
-8.17193 -4.31189 14.4634 142 122 121 
6.59539 2.69579 14.6778 104 82 68 
0.243988 2.66773 8.9677 190 148 123 
-6.26126 2.18163 15.4122 144 115 97 
0.275675 -0.503504 9.0556 109 59 36 
-7.51197 2.26265 13.7135 125 99 82 
-8.59001 1.04111 12.8018 159 122 77 
-8.65779 2.28923 13.2644 130 111 104 
-7.12891 2.53379 11.0075 188 153 133 
-8.77249 1.11722 13.1904 101 79 81 
-6.33729 2.37236 14.3174 66 43 27 
-7.20581 2.50352 11.5951 180 149 129 
-8.71124 1.37834 13.341 144 124 115 
-5.75728 2.42856 12.5644 132 100 79 
5.83776 -0.0558057 12.5235 29 16 10 
-0.215856 -0.178516 9.5578 105 55 28 
6.74657 2.71789 14.7521 108 90 78 
5.81051 -0.0549251 12.4588 29 16 10 
3.25239 -5.73567 15.8317 63 55 53 
0.109061 -0.190513 9.04549 100 54 38 
0.267952 2.71053 9.06766 190 148 123 
-7.25947 2.26269 12.8973 144 116 102 
0.127072 -0.373925 9.05654 104 57 39 
-7.08181 2.53034 11.7094 154 122 101 
5.90302 -0.0408061 12.4616 26 17 12 
-9.07325 -3.54005 14.3314 111 93 93 
-7.24643 -3.51224 14.8712 126 107 103 
5.61335 2.57616 15.3042 26 15 9 
-6.29841 2.51071 12.6751 145 117 105 
-6.60741 2.56219 11.7055 182 146 122 
0.55932 2.65244 8.86126 89 56 37 
-7.00435 2.15925 12.4792 117 91 78 
0.284015 2.62987 8.81918 187 148 119 
-5.51745 2.55345 12.2908 173 137 111 
-9.07915 -0.391567 14.3548 162 134 122 
6.44299 2.57628 14.0315 108 90 80 
-6.8399 2.54151 12.2383 155 125 101 
0.183119 2.60558 9.22166 77 43 33 
5.88954 -3.20219 18.1373 66 51 44 
-6.78562 2.52344 12.1561 156 126 102 
-7.21468 2.50467 11.6053 190 159 139 
0.451324 -0.314678 8.9269 96 48 25 
6.26734 2.65826 14.9597 33 22 20 
-7.04681 2.12729 11.3678 133 105 91 
3.1025 -4.03802 18.0434 83 79 70 
-7.7218 -3.92857 14.7989 143 119 115 
4.29783 -5.18678 15.8706 6 4 5 
-6.32329 2.48993 12.1696 114 83 62 
4.46453 2.62782 9.49589 165 131 106 
0.101475 -0.359576 9.27768 105 58 40 
-6.43498 2.55477 12.2851 159 127 104 
-7.26645 2.18195 12.0853 154 131 115 
-6.03477 2.33904 13.1942 141 111 87 
-8.94411 0.96289 13.7469 163 128 106 
0.846874 0.326281 3.01732 137 107 97 
5.88716 0.684106 15.0751 4 0 0 
0.453335 1.01848 8.90244 111 65 42 
2.40085 1.177 8.28246 79 46 29 
-7.68703 -4.546 15.1167 148 124 122 
5.6287 2.42538 14.4475 7 5 6 
-6.17076 2.5564 11.5954 186 150 126 
-4.44969 2.44632 15.1356 158 124 99 
-5.8649 2.55726 12.1647 182 146 120 
-7.71689 2.48241 12.4941 160 131 113 
0.705537 -0.29815 8.64061 164 113 92 
-0.0864926 1.21768 9.22731 157 130 121 
-6.37471 2.56293 11.7391 188 152 128 
5.57152 2.54124 15.604 23 14 9 
-5.31826 2.50765 12.8752 174 138 116 
6.09455 -0.212777 12.8614 19 13 13 
3.73568 2.70281 9.83336 155 115 90 
-7.69601 -4.14626 14.7731 149 121 118 
-8.21183 -4.44974 14.4895 116 100 103 
-8.81481 1.13379 13.5617 161 132 116 
5.5522 2.57388 15.1069 24 11 2 
-6.73135 2.52022 11.7657 172 140 119 
-8.60574 1.7886 13.1584 122 103 107 
-7.2466 2.18269 12.0082 159 136 120 
-7.69643 -3.90217 14.7627 143 119 115 
-6.21961 2.5812 12.0171 178 143 121 
-6.20636 2.45535 13.5569 148 120 99 
-6.06756 2.52987 12.3072 150 119 99 
-6.86957 2.4406 13.1084 145 114 93 
-8.66599 1.96647 14.2061 141 114 95 
-5.84092 2.56359 12.9965 184 152 131 
-0.15592 2.63698 8.80904 195 154 122 
5.92589 0.763864 14.2124 2 2 2 
-5.34486 2.26408 11.9833 162 131 113 
-5.57153 2.53544 12.5914 149 117 96 
0.439643 -0.322033 8.88184 100 54 31 
4.46764 2.66175 9.74789 137 105 80 
-6.05374 2.45105 12.8447 77 55 42 
-1.76743 2.6525 9.09419 194 155 124 
-9.01353 -0.458369 14.7197 162 135 124 
5.82561 2.65585 12.7459 135 105 79 
-2.48312 2.65608 8.96398 212 172 147 
6.48226 2.69485 14.8276 101 82 68 
-3.73028 2.60608 11.264 208 168 142 
-7.09864 2.13188 11.8461 152 129 113 
5.33252 2.68227 10.6897 169 133 107 
-6.06767 2.51237 12.3596 118 91 70 
-6.00824 2.50859 12.2068 147 116 96 
-6.2023 2.51629 13.7477 100 77 63 
-7.84639 -4.2556 14.6691 143 122 119 
6.82839 -1.93184 18.5957 34 30 27 
-8.90525 1.85456 13.5589 109 90 94 
-8.39371 2.47375 13.2893 140 113 94 
6.17477 0.806924 14.8687 3 3 3 
2.36698 1.2911 8.42361 73 39 29 
0.196538 1.5105 8.89876 91 52 35 
-3.4873 2.54501 13.2287 200 160 134 
6.05702 -0.215386 12.7767 19 13 13 
-5.51253 2.58339 10.1092 170 134 108 
-8.62336 1.95345 14.1439 140 113 94 
-0.408573 0.719132 9.5323 87 52 33 
4.96422 0.111609 13.5236 25 20 17 
-8.28871 2.29486 14.1969 99 72 55 
6.0242 -0.18051 12.6771 16 12 11 
-4.36929 2.65045 8.2403 191 156 136 
-0.46138 0.315298 9.54992 96 53 36 
7.043 -0.927457 14.7494 15 7 5 
-6.49077 2.47072 11.3992 136 101 79 
-5.36067 2.61756 10.1628 176 136 110 
-7.445 2.28003 12.8362 128 101 90 
5.39976 -4.93328 13.8051 4 3 1 
-3.44034 2.65676 9.29422 172 132 107 
-3.01876 -3.9165 15.3035 110 106 94 
-4.22365 2.55176 12.1877 207 165 140 
-8.50574 2.18712 14.6216 139 112 93 
6.87931 2.67449 13.2794 47 34 26 
-7.5404 -4.23411 14.8305 149 121 120 
-7.55577 2.44786 12.8266 148 120 98 
-6.55907 2.44119 14.358 124 98 83 
-2.55063 -3.4087 15.7464 76 59 49 
-8.0769 -4.17127 14.3796 141 119 121 
-6.15503 2.36589 14.2137 104 79 59 
-7.3173 -4.70983 14.9454 156 128 125 
-5.32975 2.47347 12.6417 154 122 101 
-8.97355 -3.73151 14.0037 166 140 125 
5.7709 2.69886 12.3557 129 97 74 
6.39041 -0.189476 15.4547 7 5 6 
-8.63475 2.44889 13.5916 121 97 85 
5.5604 -5.10031 14.2639 4 4 2 
-7.87682 2.54407 12.3077 182 154 142 
-7.83549 -4.81416 14.4504 175 150 146 
-7.37063 -4.71791 14.9849 154 128 129 
-0.251722 1.27607 9.48802 94 53 35 
-9.13891 -3.79761 14.2298 165 139 124 
5.78002 2.70311 12.3782 128 96 73 
-6.36997 2.14151 14.2659 141 113 92 
6.12606 -0.248693 12.6333 45 40 37 
-8.3007 -4.27669 14.7264 139 119 118 
5.10844 2.68511 10.3464 139 105 78 
-8.00174 -4.81914 14.6468 160 134 133 
-7.49204 2.29679 12.9069 128 101 90 
5.4898 -0.0428512 14.1486 28 20 18 
-4.36459 2.44714 14.8458 155 119 95 
5.62375 -5.16569 14.4449 4 4 2 
-3.02583 -2.49173 16.4004 115 95 84 
-3.89559 2.48 14.5146 154 120 93 
-8.43757 2.46594 12.6811 153 126 115 
-3.22241 2.55331 13.704 191 149 124 
-8.94141 -0.632654 14.6708 121 102 95 
5.68708 0.0580344 14.6484 27 19 17 
4.25113 2.66895 9.3751 153 117 93 
5.09893 2.68049 10.323 138 104 77 
5.48135 -0.0406356 14.1262 28 20 18 
5.74272 0.0561674 14.8098 30 22 20 
5.13451 -4.80116 17.148 23 23 21 
2.05353 1.89693 7.68747 106 64 40 
1.96956 1.92991 7.6336 105 60 37 
-7.23355 2.52532 10.9993 174 142 121 
-9.19994 1.19067 14.5148 146 117 99 
-3.06659 2.5754 12.0159 200 160 134 
7.1056 -0.907504 14.8334 14 8 8 
-1.83785 2.66346 8.64877 209 169 143 
-6.89126 2.51577 11.3067 152 117 95 
-6.31022 2.5652 12.3736 157 126 106 
-3.57472 2.38552 15.0594 154 120 95 
6.62257 -1.7226 18.3746 31 21 19 
-9.36277 -4.67785 13.8907 154 134 127 
6.10349 2.66605 12.3501 157 123 98 
7.55875 2.74183 15.2481 68 60 57 
-3.40851 2.37334 14.3301 173 137 111 
6.17947 2.64932 13.2806 70 50 39 
-6.30657 2.27269 13.5881 27 7 0 
-2.64266 2.55544 13.0038 176 139 112 
-0.118212 1.5915 9.29766 91 50 28 
5.7494 -0.0678174 13.1983 21 13 10 
-2.29402 2.64459 9.67307 187 146 116 
-7.44003 2.22812 12.891 159 132 121 
-7.80909 -4.23626 14.6086 143 122 119 
-1.07575 2.67142 10.0737 190 153 126 
-0.212295 1.64341 9.3148 103 57 34 
6.2706 -0.493504 13.8132 16 12 11 
-0.0981596 1.6058 9.25492 95 54 34 
-5.59093 2.49865 11.5805 173 139 114 
-5.09546 2.64816 9.35388 200 164 138 
-4.81329 2.213 11.1754 136 104 79 
0.735601 -0.221942 8.77145 101 56 33 
-8.96689 -4.89679 14.2793 186 161 157 
-5.34565 2.50125 12.6091 161 126 104 
-8.41933 2.03088 14.0674 139 112 93 
6.12961 2.4343 12.5427 47 34 26 
-7.36728 2.46032 11.2932 151 123 102 
-8.3621 2.00303 14.0062 140 113 94 
5.78249 2.63963 11.1035 128 96 71 
0.548146 2.65747 8.65821 174 135 106 
-6.17857 2.49781 13.0675 102 80 69 
-7.80629 -4.67911 14.6825 153 127 128 
-8.89555 1.48521 13.6496 115 97 93 
-2.61276 2.61416 10.5748 204 165 134 
0.42645 -0.166515 8.60075 101 54 34 
-8.54917 1.1645 12.9372 121 101 94 
6.16741 0.0948906 12.9886 18 14 13 
0.418253 -0.168668 8.77893 101 55 32 
0.406598 -0.169156 9.04204 100 54 30 
-0.696312 -0.749796 9.85001 121 95 82 
5.83822 0.599439 14.5362 76 57 50 
-4.72182 2.09835 16.4877 169 133 109 
0.420382 -0.201903 8.66887 89 42 22 
-7.11058 2.39916 11.1308 123 92 71 
-5.40116 2.26147 12.5917 95 72 56 
0.658754 -0.275062 8.80327 88 37 16 
0.451812 -0.233575 8.63051 78 28 3 
5.758 0.441525 16.3974 192 160 137 
-6.85426 2.27358 10.9637 166 135 115 
-3.85596 1.82046 13.8744 165 131 106 
0.167284 -0.132137 8.97024 101 51 24 
-7.49704 2.52479 12.3538 160 127 108 
-1.68732 2.45336 9.83816 207 168 135 
-8.71753 1.19195 13.1211 134 115 109 
-8.70603 -4.49205 13.8581 138 119 123 
-1.59094 2.35017 9.47678 208 169 138 
6.66832 -1.11531 18.3767 53 38 31 
6.58984 2.64326 14.8782 37 26 22 
-7.83075 2.11349 11.8014 100 83 75 
1.23137 1.43222 8.29597 161 132 124 
2.54466 0.89 8.55394 132 101 83 
-0.466148 1.40149 9.44183 163 135 123 
0.629905 1.427 8.72012 167 135 124 
-0.472435 1.40268 9.46917 162 135 124 
-0.648089 0.997433 9.69085 165 138 129 
0.264931 0.602831 8.98382 164 134 123 
-0.664033 0.615782 9.85586 161 135 120 
-0.712147 1.40215 9.66574 165 137 125 
-0.485942 0.595366 9.51093 157 134 120 
-0.121318 1.44199 9.2297 144 119 112 
-0.573284 1.20545 9.60937 108 62 38 
-6.6527 2.4473 12.5356 23 9 6 
3.01484 2.52575 8.86309 172 134 113 
0.619355 0.569507 8.79626 165 135 124 
-8.72363 0.659915 13.1215 87 25 40 
-8.61509 1.90125 12.9531 49 31 81 
2.39116 0.841721 8.47964 74 46 34 
0.208699 -0.457174 9.10648 153 112 94 
2.34338 0.896062 8.42936 131 103 91 
2.33991 0.682943 8.50087 136 108 97 
-0.407118 1.18336 9.47361 107 62 39 
-0.764333 1.44784 9.74628 166 136 125 
0.58262 1.46667 8.70162 164 137 120 
0.664176 0.637074 8.75863 139 115 105 
-8.57144 1.83335 12.7567 65 48 82 
-0.429717 1.35647 9.4495 167 133 121 
-0.584172 1.10836 9.54552 107 65 43 
0.753027 0.729255 8.77216 99 62 46 
0.756842 0.726684 8.66113 104 66 47 
-0.575363 0.726141 9.57392 105 64 44 
0.660142 2.6518 8.70624 169 133 111 
0.760522 0.723456 8.56215 107 66 46 
3.15637 2.66805 9.0212 93 66 57 
-8.41259 -4.34031 14.5451 38 26 28 
-8.75286 1.20617 13.3727 99 75 63 
-8.58523 1.71942 12.8 95 79 80 
-8.67427 2.12658 13.2898 56 38 78 
-8.60491 1.5728 12.9441 147 130 122 
0.0647165 -0.468883 9.2482 141 108 91 
-0.0290058 0.548039 9.18152 155 126 110 
0.874044 0.733705 8.61763 181 145 131 
0.804687 0.603847 8.74917 165 138 129 
-0.570619 2.60019 9.70354 32 8 0 
-7.36342 -3.65505 14.9485 103 88 81 
-1.26021 2.61142 10.1226 208 172 148 
0.182715 1.47423 9.00064 152 124 112 
0.808725 0.59923 8.64645 164 136 125 
0.124463 -0.521125 9.21618 146 113 94 
-8.14876 -4.5857 14.7795 171 143 142 
-8.34071 -4.16545 15.0116 139 117 120 
-0.58427 2.59371 9.72387 36 8 4 
-0.532663 2.6446 9.64198 178 142 116 
0.785898 2.62905 8.64304 58 24 12 
-8.90326 -3.83063 13.925 151 127 115 
-8.64558 1.41692 12.9831 150 130 123 
1.09828 2.63018 8.41952 82 46 32 
-8.17896 -4.28041 13.4593 50 36 35 
-4.09208 2.42164 15.8249 158 129 111 
-8.62124 1.40184 12.7599 156 136 127 
-1.26734 2.62159 10.0705 198 158 132 
0.80433 -0.237594 8.71125 27 0 0 
-8.3955 -3.31678 14.8434 164 137 126 
2.4096 0.671921 8.50456 136 106 95 
-8.85923 1.47898 13.416 85 67 63 
-8.71447 0.516131 13.0874 121 70 66 
1.06978 2.64345 8.46146 69 36 19 
3.28572 2.69108 9.10534 92 64 43 
-6.96856 2.46339 12.2518 204 176 152 
-8.36968 2.12433 14.0092 180 147 128 
0.0202242 1.50835 9.1032 88 51 32 
-8.6881 1.45624 13.2056 94 79 74 
-6.75415 2.51783 13.2947 134 111 97 
-8.32067 -4.23491 15.1506 143 119 119 
0.107879 -0.24512 9.23421 142 106 92 
-5.72424 2.26399 13.6773 175 146 132 
-3.90844 2.40728 15.7665 163 132 114 
0.068834 2.64542 9.13198 189 152 125 
0.704949 2.63927 8.71369 78 43 24 
-8.66524 1.4549 13.177 99 84 79 
-8.33267 -4.6486 14.6843 119 100 102 
-7.14683 2.50251 12.4967 193 165 143 
-9.19833 1.37533 14.6164 205 175 151 
-9.11524 -3.41481 14.465 159 132 121 
-8.5826 2.04063 12.9882 64 45 64 
2.74312 1.39972 8.64775 81 50 32 
2.5196 1.44623 8.51434 110 77 62 
-9.21754 1.36743 14.677 191 161 137 
0.152913 -0.56493 9.15753 172 144 130 
-8.6893 0.743005 13.0111 58 20 31 
-1.13454 2.60052 10.1598 38 11 0 
-6.00885 1.98162 12.6716 136 110 95 
-8.54387 1.79035 12.8105 147 133 130 
-4.54465 2.38645 15.7922 45 27 15 
-5.83551 2.4981 12.2124 158 127 106 
-0.0221922 1.08604 9.15373 104 63 43 
2.41778 1.41178 8.47258 93 59 47 
-0.705144 2.60406 9.39318 209 170 139 
-6.6559 2.46188 12.1037 152 124 103 
-6.47353 2.47711 13.6213 150 118 95 
-7.14423 2.54451 11.4887 151 120 99 
0.223213 -0.524589 9.25118 105 60 39 
-4.73952 2.37622 15.6464 40 23 16 
-5.3652 2.46257 15.2221 158 126 105 
-8.6217 1.80113 12.9712 120 104 107 
-0.19417 0.981031 9.29718 112 71 49 
-8.63704 1.58666 13.1452 101 88 82 
-5.94932 2.29186 13.9867 167 138 124 
-8.37037 -4.41452 14.8118 142 122 121 
2.04763 -0.546495 7.75289 90 52 31 
1.20792 2.62276 8.31161 82 46 30 
0.274897 -0.502187 9.05214 109 59 36 
-9.17653 1.43747 14.3105 128 101 80 
-8.64791 1.0479 12.8865 159 122 77 
-8.69708 1.11095 13.0784 101 79 81 
-0.109669 1.11521 9.1717 158 134 122 
2.44773 1.41291 8.4873 75 42 27 
-1.0308 2.6088 9.64672 188 149 118 
-8.63223 1.01866 12.9108 162 116 67 
0.127153 -0.377708 9.15423 104 57 39 
0.329819 2.64903 8.92317 177 137 111 
-0.149692 1.11 9.22833 159 132 121 
-8.65855 1.02075 12.9426 162 116 67 
-8.73415 0.796124 13.1658 121 72 55 
-8.52621 1.95974 13.9676 141 112 94 
-9.22749 -3.58247 14.5528 112 94 92 
0.172977 0.998715 9.01865 96 61 42 
-7.35612 -3.56356 15.0945 126 107 103 
-8.44815 2.03106 13.9275 190 163 144 
-6.55797 2.54401 11.6179 182 146 122 
0.494591 2.6451 8.56071 195 154 124 
-4.57996 2.44874 15.5063 160 125 103 
-9.11772 -0.386974 14.4128 162 134 122 
-8.61357 1.58293 13.1164 102 89 83 
-6.76364 2.50866 12.1028 155 125 101 
0.180991 2.58561 9.15645 77 43 33 
-6.72672 2.49815 12.0512 156 126 102 
-0.0516084 -0.0617293 8.79729 92 38 12 
-0.996125 2.58924 9.9181 89 66 50 
0.612607 1.31412 8.7642 164 136 124 
-1.14256 2.6214 9.63683 191 152 121 
-7.86351 -3.99899 15.0669 143 119 115 
-1.08371 2.64435 9.56692 223 184 153 
-1.9829 2.48959 10.8685 206 167 134 
0.450921 1.01869 8.87656 111 65 42 
-6.10635 2.53595 11.4748 186 150 126 
-6.2867 2.48629 13.4676 137 111 96 
-0.0811421 1.22102 9.1963 160 133 122 
-1.09553 2.65777 9.61269 227 188 157 
-0.990447 2.54436 9.73947 102 73 55 
-7.8104 -4.20725 14.9904 149 121 118 
2.55868 1.37737 8.54858 77 46 28 
-8.33532 -4.5104 14.7039 116 100 103 
-8.78448 1.13191 13.5151 161 132 116 
-6.39556 2.5436 12.0806 154 122 99 
-6.62896 1.92742 12.7035 168 141 122 
-8.62533 1.79595 13.1873 122 103 107 
-7.84169 -3.9761 15.0389 143 119 115 
2.59089 1.41929 8.54687 86 53 38 
-0.183217 -0.511786 9.47557 98 56 34 
2.88418 2.61667 8.74855 107 64 45 
-1.75274 2.62725 9.01863 194 155 124 
-0.236447 1.22816 9.28986 90 51 34 
2.35858 1.30028 8.44135 70 36 26 
-8.32708 -4.50134 14.6894 116 100 103 
1.20087 2.67152 8.08714 212 168 139 
-5.42722 2.53723 12.7484 166 131 109 
-8.62043 1.34427 12.9146 113 92 91 
0.330574 2.64813 8.91189 180 140 114 
-6.01981 2.51288 12.2291 147 116 96 
-4.02275 2.43498 15.1408 159 125 100 
-4.64875 2.37279 14.7894 156 122 97 
-6.58428 2.49678 12.0765 151 120 99 
-7.02723 2.45215 11.6772 119 90 74 
2.35895 1.28678 8.39438 73 39 29 
-7.41909 2.33717 11.2684 167 144 128 
0.199643 1.53117 9.00112 92 50 34 
2.84688 2.59511 8.68797 108 65 46 
-3.48769 2.54185 13.233 200 160 134 
-8.66598 0.927127 12.8865 140 101 70 
-0.849083 2.61935 9.86339 99 73 58 
-0.405583 0.714533 9.45937 87 52 33 
-7.37839 -4.84241 15.229 158 130 126 
-4.20797 2.5402 12.1453 207 165 140 
0.269931 2.5938 8.82065 198 159 130 
-8.27789 -4.46083 14.6834 114 95 99 
-8.2363 -4.24648 14.6553 141 119 121 
2.34653 1.22633 8.45624 72 40 29 
0.58705 0.720307 8.78156 173 137 121 
-1.06939 2.65365 8.96745 188 148 122 
-9.20466 -3.81934 14.3604 166 140 125 
-9.32399 -3.86947 14.5144 165 139 124 
2.93847 2.69641 8.80806 115 82 63 
-8.38102 -4.31582 14.8638 139 119 118 
-8.69209 1.2598 13.2183 143 118 111 
-0.381255 2.65487 9.16753 198 157 127 
2.80342 2.69212 8.43995 162 120 96 
-8.89078 -0.622112 14.5904 121 102 95 
-4.01117 2.39327 17.2835 157 129 107 
-7.94988 -3.96717 14.9278 143 117 120 
-7.91919 -3.94905 14.8791 145 119 122 
-6.25651 2.54082 12.2674 152 121 101 
-6.32365 1.38455 15.6394 215 181 156 
-9.54022 -4.76015 14.1491 154 134 127 
-2.63813 2.54828 12.9816 176 139 112 
-0.117871 1.57934 9.25685 91 50 28 
-8.67139 1.28496 13.0564 145 122 116 
2.35409 1.18106 8.51269 72 40 25 
-0.387729 2.66543 9.20321 198 157 127 
-8.71025 0.61222 12.9238 159 111 101 
-5.75271 2.5427 12.424 150 120 96 
0.442497 1.42906 8.86293 86 49 30 
0.733401 -0.222516 8.74923 101 56 33 
-3.23629 2.50508 14.3061 161 126 98 
2.52112 1.34106 8.50466 78 45 28 
-2.71613 2.50641 12.8923 193 149 124 
-6.3796 2.60322 12.8204 119 88 70 
0.543731 2.63898 8.59767 174 135 106 
2.89645 2.7092 8.74889 133 100 81 
3.43439 2.68058 8.82191 173 133 107 
-8.77362 1.19035 13.2737 121 101 94 
0.538274 1.01726 8.75975 91 50 32 
0.347796 1.89488 8.93455 116 72 47 
-0.872819 2.626 9.22029 219 183 151 
-0.866073 2.61805 9.19222 217 181 149 
-0.560352 1.0958 9.5991 106 65 45 
-10.4609 5.95619 24.3533 203 163 137 
-3.77117 2.52594 13.8937 180 143 117 
-5.53727 2.4969 13.3679 145 114 93 
-0.4123 0.314468 9.46273 85 43 27 
-8.59441 1.73991 13.0378 101 82 86 
0.0771908 2.64999 8.38814 166 126 101 
0.110357 2.64633 8.58348 174 133 105 
0.537054 0.786145 9.03336 106 60 36 
1.23061 1.4264 8.25155 163 133 123 
-8.36209 -4.19728 13.1591 28 13 6 
2.52685 0.884287 8.47208 134 101 86 
0.63367 1.41945 8.66207 165 137 126 
-8.57035 -4.25441 13.843 75 63 65 
-0.63348 0.610192 9.7072 161 135 122 
0.237702 1.42647 8.93348 161 138 124 
0.226516 1.44102 9.05433 160 137 123 
-7.77167 -4.14669 15.2047 63 37 38 
-0.119962 1.44477 9.23056 144 119 112 
-0.689676 1.38973 9.56452 165 138 121 
-8.24941 -4.22773 13.4042 145 127 127 
0.625617 0.558886 8.64178 165 133 120 
0.619983 0.569628 8.7814 165 133 120 
-0.49654 0.598994 9.57349 157 131 118 
-8.35595 -4.26285 13.8637 18 16 17 
-0.52984 1.1857 9.39218 112 66 42 
-0.549924 0.799496 9.58539 110 65 44 
-8.13546 -4.05528 13.097 26 17 18 
-6.68092 2.51168 13.0062 60 43 35 
-0.58786 1.10781 9.57337 109 67 43 
0.874892 1.41932 8.47658 163 136 125 
-0.566324 1.09865 9.46467 111 66 43 
-0.597031 1.27894 9.57727 111 65 42 
2.38725 0.732595 8.49156 77 47 36 
-7.39704 -3.67074 15.005 107 89 89 
0.808767 0.599478 8.62906 162 136 119 
0.0430478 1.29895 9.65917 168 136 121 
2.35641 0.729377 8.33377 78 48 37 
-8.28156 -4.65538 14.9712 171 141 139 
-5.67763 2.38026 13.5978 134 107 86 
-0.514542 2.61699 9.54053 181 140 118 
0.800967 -0.242605 8.70561 52 14 3 
-8.58568 -3.38549 15.1142 167 138 130 
-8.40191 -4.38984 13.7545 47 31 31 
-0.551471 2.57401 9.60884 48 16 3 
0.0458662 2.58796 9.12867 79 51 30 
-1.24172 2.59499 10.0591 201 166 136 
0.0268722 1.50439 9.06281 93 52 32 
-1.12058 2.58736 10.1039 52 24 13 
0.319153 2.60068 8.92365 83 46 30 
-0.00456806 2.60934 9.14219 172 136 112 
-8.64909 -4.81193 15.136 118 99 105 
-6.67393 2.49661 13.1649 137 114 98 
-8.86483 0.519698 13.2687 122 69 61 
-6.11505 2.43533 14.5747 174 142 121 
0.197765 2.61439 8.93112 193 151 126 
-8.54717 1.99254 13.7203 139 106 87 
-1.25146 2.60475 10.0162 205 169 137 
-0.868813 2.58354 9.80617 77 54 40 
0.599085 2.59603 8.54025 174 134 108 
-0.640011 2.59397 9.51924 200 159 129 
0.789213 2.62318 8.62946 68 35 20 
-5.95111 1.96631 12.5831 140 117 103 
0.295846 -0.267011 8.68864 99 51 29 
0.0892583 2.60543 9.04797 163 131 106 
-8.33566 2.11743 13.9634 178 146 131 
-4.44237 1.344 15.8339 231 197 170 
-1.20955 2.57688 9.77415 213 174 141 
-8.6195 -4.53465 15.163 143 122 121 
-0.818121 2.5957 9.61709 192 151 121 
-9.2941 1.3878 14.736 204 169 147 
0.165966 2.58695 9.00087 87 58 42 
-6.36474 2.44285 13.4405 146 113 94 
-9.21294 1.36582 14.6696 198 163 141 
-0.105089 2.61092 9.20619 179 142 116 
-1.23744 2.59152 9.9546 206 167 134 
-0.764585 2.5689 9.70905 47 24 18 
0.169742 2.58202 8.97317 96 67 49 
-8.54464 2.2714 13.3496 89 71 57 
-5.38073 2.47656 15.2709 154 118 94 
-7.50147 -3.62779 15.3289 126 105 102 
-9.55069 -4.10895 14.0553 145 117 114 
-0.812287 2.59464 9.69275 177 143 118 
-6.37012 2.43267 14.8721 157 128 112 
-6.00449 2.40729 12.9354 61 37 27 
-8.52707 2.26803 13.3273 95 77 63 
-5.28056 2.38797 15.4419 31 21 11 
-5.19859 2.3899 15.4853 29 19 9 
0.630792 2.61439 8.76948 75 42 25 
0.113934 -0.357565 9.15945 99 56 37 
-6.83583 2.11309 13.4962 143 115 94 
-0.057712 1.08313 8.79576 160 133 124 
-8.4153 1.93972 13.8208 142 111 93 
-0.0998798 1.10778 9.11397 159 132 123 
-6.59842 1.97043 12.8232 123 92 74 
-8.72558 -4.59802 14.7636 137 118 120 
-1.55277 2.59871 8.82088 183 142 112 
0.788128 -0.303503 8.72818 132 82 55 
-9.24165 -0.392889 14.5764 163 135 124 
-8.02346 -4.07033 15.3077 147 119 118 
-8.73935 -4.72301 14.896 140 120 121 
-3.49622 2.33413 15.1989 161 125 101 
0.329427 2.5918 8.7576 190 146 119 
-8.46256 -4.5816 14.8821 117 98 102 
-7.741 -4.61478 15.3237 149 123 122 
0.85839 1.17224 8.50415 105 63 41 
-7.93407 -4.26582 15.176 148 120 119 
-1.1002 2.59522 9.37317 225 186 153 
0.424299 -0.170777 8.73226 97 52 31 
-9.29855 1.50161 14.54 135 108 89 
-0.305411 2.58921 9.04946 170 126 101 
-4.12319 2.47143 15.4195 160 122 99 
-6.40725 2.54868 12.0955 143 108 88 
-1.50118 2.55366 10.3803 80 45 26 
-6.79644 2.42597 13.3998 105 79 66 
-1.70801 2.59006 8.89623 198 157 127 
-0.777505 2.42075 9.74356 97 54 35 
-7.98743 -4.04045 15.2563 146 118 117 
0.0382394 2.57766 8.52897 204 161 129 
-1.10627 2.58496 9.4947 195 154 122 
-7.75592 -4.96263 15.7281 154 128 127 
-0.913345 2.63527 9.50093 207 168 135 
-2.04773 2.59826 9.29809 205 164 132 
-4.42975 2.38414 15.8092 41 24 17 
0.0578037 1.11214 8.65542 106 61 40 
-0.205159 2.56696 9.13024 170 133 107 
-0.142943 2.60054 8.69124 192 149 117 
-0.569262 2.59111 9.08264 186 143 111 
0.193272 2.55819 9.05944 82 46 32 
-0.881115 2.59852 9.35109 209 170 137 
-1.11983 2.57944 9.53977 196 155 123 
-9.5986 -3.97669 14.8625 168 138 127 
-0.559801 2.6949 9.5117 190 147 115 
-8.45185 -4.34331 14.9618 142 117 120 
0.266535 0.790375 9.02299 161 134 123 
-0.911332 2.52856 9.61575 125 94 74 
-3.09354 -2.53243 16.6563 114 94 83 
-0.190048 1.19639 8.98721 91 54 35 
-0.991973 2.54323 9.75356 101 72 54 
-8.98243 -0.638704 14.7221 122 103 96 
-1.26609 2.57357 9.11649 191 150 118 
3.83352 -3.28741 16.5943 73 62 56 
-0.0171419 2.61775 8.88674 192 148 119 
-8.985 -3.13394 14.8209 100 88 92 
-1.92062 2.68681 10.6912 208 167 135 
-0.268029 2.5911 8.56388 171 127 98 
-9.19241 -0.840037 13.4267 162 132 124 
-0.1834 1.59058 9.08367 106 61 40 
2.23838 0.465045 8.12841 78 42 28 
0.503013 1.24253 8.73939 87 49 30 
-2.60955 2.57931 9.82847 202 161 129 
-0.930082 2.60727 8.67185 217 176 146 
-4.17217 2.52249 12.0702 206 162 133 
-0.104206 1.61581 9.3014 94 53 33 
0.0579074 2.61143 8.86875 195 151 122 
-0.78068 2.61533 8.53294 188 144 115 
-0.865466 2.60208 8.65189 204 163 133 
0.683768 -0.273713 8.62151 103 57 34 
0.715894 -0.275411 8.56605 102 55 35 
-0.0974003 1.55717 9.11327 93 52 32 
-4.22009 2.43079 12.3628 176 134 109 
-3.53035 2.44208 14.7328 176 136 110 
-9.80341 -4.88159 14.4675 155 130 126 
-2.76416 2.49838 13.7342 191 147 118 
-1.2345 2.56068 9.4155 200 159 127 
0.549146 2.62378 8.55037 169 125 96 
-8.63255 -4.8867 14.7308 160 132 131 
-2.42608 2.58084 10.3954 207 166 138 
0.601709 2.5948 8.72964 72 40 27 
-1.37031 2.6047 9.34755 203 163 128 
-2.41394 2.57359 10.3613 207 166 138 
-5.15251 1.37236 16.0814 219 185 158 
-2.2574 2.59682 9.34379 188 144 115 
0.483491 -0.224165 8.0307 86 40 16 
-0.650244 2.61176 8.90683 206 165 133 
-0.251584 2.57921 8.78068 171 124 98 
-2.24353 2.60293 9.52221 190 146 117 
-7.57485 -4.31756 15.7839 176 146 136 
-3.94617 2.5759 12.1813 189 144 115 
-0.923768 2.58644 9.79136 154 119 99 
-0.104596 1.54444 9.17073 90 52 31 
-0.802416 0.956591 9.6469 110 62 39 
-4.24742 2.4419 12.4187 176 134 109 
-3.6901 2.54792 12.6485 181 137 112 
-3.8882 2.47516 14.4927 154 117 91 
-1.66177 2.5855 9.54358 204 161 129 
0.75615 1.07618 8.40995 107 61 38 
-0.203832 1.06059 9.29674 95 58 39 
-3.11275 2.5319 12.168 179 134 111 
1.21051 1.40919 8.15534 160 132 121 
-5.65281 2.43893 13.7862 36 16 9 
-5.74794 2.47661 14.0159 40 23 16 
0.623256 1.40653 8.61837 165 137 126 
-0.468242 1.40557 9.49449 162 135 124 
-1.67036 0.886034 10.7178 219 183 157 
-1.46628 2.49409 10.7014 98 58 33 
-0.519354 0.978549 9.53203 162 134 123 
0.25595 0.589158 8.91571 164 137 126 
-7.56349 2.43965 14.4599 188 162 149 
-0.520153 0.97998 9.54644 162 134 123 
-0.668523 0.622503 9.91348 158 134 122 
0.80809 0.797615 8.54358 107 61 38 
-0.486248 0.593608 9.54134 156 134 120 
-0.120076 1.44202 9.23714 144 119 112 
0.613471 0.56687 8.71029 169 141 129 
-0.0742357 0.612941 9.20721 163 136 127 
-0.0753483 0.656149 9.22901 163 136 125 
-0.644264 0.992378 9.64471 162 135 124 
-6.82522 2.50747 12.8571 21 10 6 
0.660903 0.635711 8.71981 142 122 113 
-7.14736 2.34966 14.0651 186 164 150 
-1.68284 1.59078 10.7417 154 122 101 
-0.617638 1.10495 9.65381 100 63 44 
1.1786 1.3579 8.23454 165 133 120 
1.25522 1.35459 8.13217 160 132 120 
-0.764003 1.44498 9.74205 161 137 127 
-6.45014 2.45503 15.376 39 26 18 
0.0627043 -0.281904 9.18609 94 57 41 
-6.97041 2.60922 13.5473 54 41 32 
0.772183 0.73707 8.60305 106 61 40 
0.750818 0.72508 8.59278 103 65 46 
-5.56933 2.37499 13.896 153 122 101 
0.784487 0.591335 8.53994 167 140 129 
-0.392321 0.793374 9.4402 90 49 31 
-6.86468 2.49565 13.7359 137 111 88 
0.202659 -0.336026 9.07776 152 109 92 
0.78874 0.594637 8.58559 167 140 129 
-1.13388 2.63605 10.0827 197 160 133 
-6.8425 2.0904 12.3657 205 182 168 
-0.0288454 0.547743 9.17544 157 125 112 
0.0327513 -0.236645 9.24348 143 107 91 
0.0388077 -0.467747 9.24922 143 110 93 
-0.0287029 0.55004 9.1614 159 125 113 
0.0644068 -0.467935 9.24876 142 110 97 
0.123769 -0.518949 9.19776 148 115 100 
0.0680072 -0.47062 9.27079 142 110 99 
-6.39049 2.6753 15.213 148 119 105 
0.700589 0.484923 8.64482 87 48 31 
-7.51809 2.35229 13.882 200 174 159 
-7.13588 2.16136 13.0212 121 97 85 
-5.50527 2.35078 13.7378 154 123 102 
-6.03444 2.39389 14.4092 181 157 133 
-7.54644 2.45658 13.9296 69 52 36 
-0.535398 2.64943 9.55483 202 165 138 
-7.49869 2.34654 13.8465 200 174 159 
0.850146 1.4126 8.37891 163 136 125 
-6.90792 2.59127 12.9178 208 185 171 
-3.32448 2.48441 16.3314 179 143 119 
-7.04826 2.11377 13.439 128 102 89 
0.805528 -0.244124 8.6675 25 0 0 
-6.75548 2.52954 14.1186 161 133 109 
-7.04866 2.01875 12.6272 120 93 76 
-6.46346 2.42248 13.5138 143 115 93 
-6.49768 2.55937 13.1744 44 28 15 
6.61113 2.78953 14.5188 63 46 38 
-6.61573 2.48123 13.8293 144 116 94 
0.984024 1.28083 8.40066 165 135 125 
0.155441 -0.569438 9.18276 167 139 125 
8.76626 0.870496 15.564 20 10 1 
0.108826 -0.246685 9.15862 139 107 92 
-0.691934 2.62073 9.84603 28 11 3 
-5.7302 2.19172 13.6745 27 14 6 
-6.54709 2.57692 13.2735 39 22 12 
-4.49375 2.71345 18.2585 50 36 27 
0.986437 1.28266 8.42126 165 135 125 
8.80948 2.76727 15.9175 77 66 64 
6.40175 2.70674 14.0626 58 41 34 
-5.75863 2.20392 13.7418 20 7 0 
0.155935 -0.569524 9.15849 171 143 131 
-6.94663 1.38508 15.7061 236 205 185 
6.31641 0.362674 13.659 17 12 9 
-0.119564 -0.410303 9.33945 99 54 33 
0.104324 0.48141 9.0834 105 59 36 
-5.05443 2.49483 15.7884 158 128 102 
6.72512 2.77657 14.4048 52 42 33 
7.01009 2.67705 12.5345 123 98 76 
-3.13337 2.34022 16.0542 53 35 23 
0.141217 -0.356488 9.12894 100 55 34 
6.68646 2.76274 14.3226 52 42 33 
3.13869 2.65268 8.76315 179 149 125 
0.218877 -0.512796 9.07855 106 64 42 
-0.817052 2.62708 9.98199 25 10 5 
-6.7855 1.96163 13.0545 181 155 140 
-6.57577 2.43802 15.372 36 19 9 
-6.02402 2.57734 13.7658 156 128 106 
-6.94579 2.52546 12.1938 145 117 96 
6.72333 0.429521 12.6743 10 5 1 
7.33868 2.73189 13.0165 114 95 78 
-6.71288 2.6032 13.8586 144 118 101 
0.098899 -0.34782 9.03743 98 53 32 
-1.53402 -0.470298 10.548 106 61 42 
-6.09156 2.51224 14.6265 68 45 31 
-0.913693 2.46648 10.07 92 54 33 
0.105526 -0.17831 8.71466 99 58 38 
-6.70883 2.45478 15.5542 57 34 20 
0.24856 -0.512519 9.08474 110 65 42 
6.75662 0.400431 12.8018 7 3 2 
0.161778 0.949553 9.02796 100 63 47 
-1.00697 2.62253 10.0227 86 62 58 
-7.02982 2.01231 12.533 114 87 70 
-0.411186 2.59658 9.50505 82 54 40 
-7.19161 2.08544 13.0804 148 121 104 
-0.193219 0.979272 9.2767 98 56 40 
-5.22477 2.19473 14.0852 36 26 17 
-6.1777 2.03266 13.024 139 112 93 
-5.90926 2.56523 12.6575 145 115 91 
-0.659133 2.64094 9.74894 166 131 111 
0.10946 0.605331 9.05125 110 64 41 
-6.63021 2.56389 14.4827 146 115 94 
0.755018 0.640954 8.5785 168 140 129 
-6.89096 2.74639 13.8547 164 142 121 
-6.46089 2.51808 15.1103 137 112 90 
0.880002 2.50137 8.45472 84 47 28 
-0.748792 2.76571 9.96783 212 173 144 
-1.51287 1.8563 10.7498 100 59 37 
-5.29398 2.61327 13.6338 176 140 114 
-1.49862 2.72024 10.5971 203 166 139 
-5.9863 2.51238 16.1195 38 25 17 
-4.98921 2.41571 15.7783 45 28 21 
3.18364 -4.1635 18.5164 86 82 73 
-4.52618 2.06869 12.7883 161 130 102 
0.91082 2.604 8.57428 80 47 30 
-5.89141 2.36336 14.688 62 48 37 
-5.27216 2.40732 14.8749 157 122 102 
-7.12823 2.10532 13.4351 155 127 113 
-6.74871 2.55709 12.8239 103 83 72 
-0.150338 1.11741 9.27428 161 133 121 
-6.28929 2.60419 12.1499 190 156 131 
0.765277 -0.31026 8.59601 157 107 82 
-6.34174 2.56877 12.9653 201 178 160 
1.04349 1.43689 8.27081 102 57 34 
-6.23582 2.01685 12.6903 134 112 99 
-5.73391 2.59067 12.95 126 95 75 
-5.20968 2.50094 15.4389 159 127 102 
6.8874 0.462743 11.5845 198 167 139 
-5.65304 2.56953 13.9736 117 89 68 
-0.422399 0.473798 9.57721 90 52 33 
6.95247 2.73982 13.0417 119 98 79 
-4.96792 2.50277 15.8811 158 128 104 
-6.01796 2.57226 13.3912 131 100 79 
-1.1562 2.63514 8.23277 215 181 154 
-7.34609 2.71491 13.3453 176 147 129 
6.27722 2.65722 14.9886 33 23 14 
-1.59899 1.01538 10.7094 103 61 39 
-4.9422 2.53197 15.5484 157 125 100 
-7.29561 2.74036 13.4651 144 116 94 
-6.67121 2.58065 11.8165 186 155 127 
-6.29625 2.63926 13.9891 158 130 116 
-7.44657 3.12277 20.0206 35 24 22 
10.2155 0.631674 16.7962 196 166 142 
10.0671 0.640306 16.5888 195 165 139 
-5.5451 2.55178 15.7137 159 127 106 
7.10387 0.578788 12.1891 150 124 99 
-5.76032 2.52373 12.817 190 162 140 
11.7249 0.715195 19.2603 196 166 140 
-4.86815 2.44454 15.8762 75 58 50 
-6.59622 2.58046 11.8508 189 158 130 
-0.461971 0.315904 9.55246 95 50 31 
-6.23411 2.05507 13.4695 142 117 97 
0.233707 -0.231883 8.98013 107 65 43 
0.959257 1.14441 8.39373 167 140 129 
-6.40881 2.64142 13.5927 143 120 102 
4.76109 2.71633 11.4995 173 138 116 
-7.33507 3.07582 19.7227 36 22 21 
-5.07599 2.64812 9.32135 202 167 145 
0.583077 0.991598 8.5553 145 118 111 
-1.54491 0.617099 10.714 108 63 40 
-6.86589 2.67874 13.7124 104 87 77 
-4.86132 2.5369 15.2749 152 118 93 
-3.30365 2.05292 13.7 52 30 16 
5.53563 2.70509 10.0444 165 131 106 
6.72424 2.71427 12.8813 128 105 89 
-5.98834 2.50788 13.311 149 126 108 
7.91265 0.519291 13.2913 196 166 138 
1.00623 0.762709 8.37024 171 141 130 
-1.55652 1.12639 10.7465 104 62 40 
-4.19953 2.41915 16.558 87 65 51 
-3.5679 1.48386 18.0153 216 185 156 
-7.4645 2.95059 14.719 185 160 140 
-2.13697 2.62078 10.0055 190 155 123 
-6.23897 2.58126 12.7045 128 102 79 
0.160029 2.57573 9.21257 82 45 26 
0.684398 0.957969 8.60321 169 143 130 
-5.59817 2.24116 13.9629 22 9 1 
6.50685 2.71187 13.4065 66 49 39 
-5.64363 2.56573 12.752 156 124 103 
-2.91631 2.47374 16.4694 151 119 98 
-0.163844 2.39943 9.19471 84 47 29 
-6.59008 2.60496 14.3873 154 122 101 
0.00435845 1.31528 9.11042 104 58 34 
6.02395 0.0417762 12.9072 31 21 20 
0.430744 1.40663 8.739 86 48 29 
-4.61337 2.63344 8.98983 174 140 115 
-5.47756 2.64532 13.9372 180 143 117 
2.02245 1.86827 7.5652 105 67 46 
-3.56532 2.48867 14.9876 178 141 115 
5.86582 2.74136 12.5595 131 101 77 
5.37275 -4.90189 17.4866 26 24 25 
-5.90096 2.58352 12.8254 137 107 83 
-5.93396 2.64671 12.2835 177 141 115 
-0.0984465 1.61205 9.28595 90 49 31 
-5.42091 2.6242 13.7948 182 145 119 
4.76787 2.67708 10.0196 139 107 84 
-3.23455 -2.6594 17.5248 114 96 84 
-2.33493 2.62924 9.23731 195 156 125 
-4.56045 2.03212 15.9296 167 135 112 
-6.11348 2.56577 12.9929 192 164 142 
0.564692 1.28285 8.67011 165 135 124 
0.504297 1.18424 8.6999 85 50 31 
-3.47124 2.6883 14.5203 186 146 121 
-0.217701 1.4322 9.32097 85 49 33 
4.75912 2.6728 10.0014 139 107 84 
0.562756 -0.258791 8.71978 93 45 22 
-0.116769 1.58731 9.2773 91 53 34 
1.26785 1.38355 8.08477 165 133 118 
-6.31626 -3.1489 11.8927 143 121 123 
-5.70302 2.55076 12.4331 174 142 119 
5.58254 2.69922 10.9318 141 109 86 
-0.120754 2.43785 9.13574 83 46 28 
0.574541 1.30029 8.68297 166 136 126 
-0.589245 1.379 9.7268 165 136 122 
-0.38343 0.490736 9.49801 89 48 28 
6.64647 2.63485 13.5896 49 37 37 
0.348235 1.41176 8.89809 90 53 35 
3.927 -3.77385 17.9896 75 70 66 
-6.06657 2.3962 11.6815 153 125 103 
-3.11064 2.60958 12.1866 197 155 130 
-3.23515 2.5281 14.7289 166 130 104 
-1.88199 -3.26543 16.742 91 74 64 
6.44398 2.6984 11.1625 137 107 83 
0.647956 1.15341 8.54843 166 137 121 
-4.37025 2.51517 14.9966 174 140 113 
-3.21481 2.50132 14.6175 165 129 103 
-3.40906 2.60296 11.8654 183 143 117 
-6.19761 2.69238 13.5879 184 154 130 
0.735511 -0.232128 8.66576 99 56 37 
-4.33089 2.62898 11.2066 193 151 127 
-2.93789 2.66408 9.45945 211 174 148 
-4.67515 2.60548 11.9453 198 162 136 
-6.79221 2.57287 12.4537 167 135 112 
6.47605 2.70955 11.0917 137 107 81 
-1.75317 2.45489 10.7866 191 147 118 
-3.53678 2.54439 13.5707 182 147 119 
-0.74514 1.08064 9.78796 164 137 126 
5.69568 2.70458 10.2228 159 125 100 
-5.52427 2.55879 13.0975 154 123 102 
-6.10707 2.65196 13.3912 190 160 136 
-4.62478 1.5212 16.8755 167 136 108 
-0.278318 1.10471 9.3691 91 50 32 
-5.88827 2.55596 12.9159 188 160 138 
-6.32957 2.6575 13.4478 181 153 131 
-1.61375 0.26419 10.7043 98 61 35 
-3.65102 2.05828 12.4415 169 135 108 
-4.13766 2.3239 14.082 151 117 90 
-5.62269 2.57351 13.0322 135 105 81 
7.76783 2.67523 12.7989 67 52 47 
-0.437121 0.307183 9.51096 82 43 26 
4.27915 2.61566 8.33146 153 118 96 
-0.689869 2.58993 9.89047 66 36 26 
-0.173404 -0.0922549 8.63199 145 96 64 
-5.53845 2.60274 12.5295 170 134 110 
-2.29504 2.67609 9.2519 195 156 125 
-3.61026 2.40974 15.2071 162 128 103 
-5.73379 2.65041 10.5064 165 131 106 
-6.90834 2.87303 14.0154 128 100 78 
-0.58841 1.38649 9.68439 164 134 123 
-0.556151 1.09512 9.51739 106 61 40 
-3.96194 2.58123 12.2304 177 137 111 
5.94459 0.0742938 13.0659 24 14 13 
0.534082 -0.253222 8.71878 97 51 28 
0.57454 -0.231157 8.74527 107 61 38 
-5.99559 2.45526 13.614 141 115 100 
-5.5952 2.53097 13.5041 147 116 95 
-0.7385 -6.16403 27.7112 113 103 94 
5.08415 2.68144 9.68009 154 122 99 
-7.06829 2.47228 12.6728 41 27 24 
-7.07614 2.47549 12.6849 41 27 24 
-7.49404 2.41371 14.3021 188 162 149 
-0.667422 0.625634 9.92769 158 134 122 
-0.485198 0.597197 9.55016 156 134 120 
-0.639524 1.0026 9.70744 162 135 124 
0.667971 0.63957 8.74951 142 122 113 
0.0858337 0.982216 9.19797 162 134 123 
0.110174 -0.310214 9.1691 147 108 91 
0.0313984 -0.235067 9.25937 144 108 92 
-0.5916 0.729924 9.71484 100 63 45 
-5.72563 2.46075 14.3981 153 122 101 
0.794643 0.600626 8.57663 167 140 129 
0.794671 0.603218 8.60546 167 140 129 
0.0328029 -0.235076 9.24313 143 107 91 
0.710808 0.489398 8.6866 87 48 31 
6.79221 -0.796598 14.8515 68 60 57 
-5.68205 2.44716 14.3069 154 123 102 
6.8409 -0.793748 14.9652 50 45 41 
0.0230593 1.50935 9.11149 88 51 32 
-6.10646 2.59518 13.2988 162 132 108 
-5.72682 2.35675 14.1122 149 114 94 
6.33491 0.408804 13.8059 13 3 2 
-0.950088 2.63687 9.72023 195 160 128 
6.97074 -0.833664 14.9242 6 2 1 
-4.17026 2.46683 16.0739 152 124 103 
3.3233 -6.20235 16.7378 29 21 19 
0.219988 -0.511344 9.08441 106 64 42 
6.58126 0.420829 12.4541 10 5 1 
-6.9215 2.51414 12.4622 211 188 170 
-1.75848 2.19613 10.7893 188 148 122 
3.41833 -6.10725 16.8531 64 54 53 
-6.30137 2.58275 11.9801 187 153 128 
-6.13692 2.01689 12.9173 139 112 93 
-6.42202 2.58206 13.2712 126 108 98 
-5.84434 2.53303 12.4827 145 115 91 
-0.659471 2.63985 9.73995 166 131 111 
6.16138 0.402973 14.3232 6 1 0 
0.739338 0.672416 8.64551 168 141 130 
3.39449 -6.05849 16.7076 64 54 53 
-5.13724 2.42077 15.5763 54 40 29 
-1.93044 2.26473 10.3337 198 159 128 
-5.82637 2.32975 14.4817 62 48 37 
-6.70052 2.53919 12.7136 103 83 72 
-6.26117 2.59122 12.0836 190 156 131 
-5.91738 2.37078 11.8932 201 178 160 
-6.46343 2.57713 11.8512 195 163 140 
-6.12184 2.41897 12.92 101 79 65 
7.02781 -1.99167 19.1891 36 30 30 
-1.0864 2.63327 9.48773 225 190 160 
-5.94422 2.53299 13.1846 131 100 79 
-0.203276 -0.181343 9.44459 107 56 29 
-3.44805 2.39632 15.9062 164 138 115 
-5.99923 2.5204 12.5747 167 136 115 
-6.30842 2.55236 13.9506 148 121 104 
-5.94963 2.4147 13.277 139 114 94 
-5.9572 2.4155 13.2908 141 114 95 
-4.05446 2.4341 15.2122 151 120 92 
-3.75055 2.47818 16.7109 52 30 16 
0.00489475 1.3262 9.17498 104 59 36 
-5.95653 2.50021 12.499 176 145 124 
-5.97521 2.50741 12.5318 175 144 123 
-6.7769 2.51867 12.2693 129 98 77 
-6.17453 2.5511 12.542 128 102 79 
0.26988 0.779695 8.95554 165 138 127 
-5.53953 2.5444 12.5815 172 140 119 
-5.7277 2.2982 14.3763 22 9 1 
5.65309 -5.18206 16.4599 21 19 20 
-6.85267 2.54314 12.2578 174 143 123 
-5.61793 2.55303 12.6785 156 124 103 
-6.44247 2.53785 13.992 154 122 101 
0.00871666 1.32265 9.13662 104 58 34 
-6.1528 2.48567 13.0208 68 52 39 
0.448687 1.4238 8.82266 86 48 29 
-4.51125 2.47374 15.3026 156 125 97 
-0.786864 2.6457 9.65223 186 147 116 
-4.65577 2.1444 16.1495 166 134 113 
0.523887 1.35976 8.73523 87 50 32 
3.40006 -3.51214 18.0107 43 33 24 
-3.18076 -2.58727 17.0407 114 96 84 
-4.61043 2.05916 16.1686 167 135 112 
-4.62301 2.03644 16.1978 169 137 112 
-0.185859 -0.181299 9.28893 101 55 32 
-0.216012 1.43871 9.32832 85 49 33 
-4.25973 2.56484 12.2689 199 164 136 
0.709358 0.877072 8.66296 169 140 126 
-5.64224 2.67768 13.7961 180 144 122 
5.26783 -4.94462 17.6539 28 24 23 
-6.20054 2.60879 12.0128 185 151 126 
7.10351 -0.905168 14.8288 14 10 9 
-4.46201 2.36525 16.0473 81 58 50 
-4.20361 2.37075 14.4023 151 117 90 
-4.49372 2.37935 16.1401 84 61 53 
-4.96742 2.2792 15.7337 150 122 101 
-6.36575 2.57256 14.0578 156 129 110 
0.85048 0.55023 8.62483 172 143 127 
-3.60099 2.40182 15.147 162 128 103 
5.66446 -0.0651906 12.982 22 11 9 
-5.16232 2.76629 18.9621 135 112 96 
-5.52358 1.41608 16.3406 223 191 166 
-7.02969 2.45012 12.5828 41 27 24 
-0.476116 1.41011 9.49306 162 135 124 
-0.521173 0.985059 9.53793 162 134 123 
0.62193 0.570173 8.74627 169 141 129 
-0.488408 0.596571 9.52035 156 134 120 
-0.642979 0.997033 9.66279 162 135 124 
-6.74393 2.47021 12.6705 21 10 6 
0.665356 0.636365 8.73861 142 122 113 
0.155894 -0.282712 9.13703 92 56 40 
-0.43755 1.46214 9.45046 164 135 119 
-0.612868 1.2847 9.64599 105 60 41 
-0.764031 1.44592 9.74573 161 137 127 
0.756646 0.723992 8.67754 101 65 49 
0.80902 0.598013 8.63906 167 140 129 
0.80811 0.599377 8.66378 167 140 129 
-0.02855 0.548307 9.17739 157 125 112 
-0.164089 1.46832 9.26619 147 118 110 
0.0646945 -0.468811 9.24934 142 110 97 
0.917742 0.621098 8.32866 168 140 126 
0.805903 -0.240442 8.66758 25 0 0 
0.0210478 1.50775 9.1034 88 51 32 
0.112551 -0.241817 9.18791 139 107 92 
0.103544 0.487608 9.08193 105 59 36 
1.00069 0.841721 8.42867 172 144 133 
-5.40176 2.42824 15.7128 30 19 15 
-6.47291 2.39192 15.0756 36 19 9 
-0.192367 0.981733 9.28269 98 56 40 
-6.10111 2.00103 12.8221 139 112 93 
0.792967 -0.300702 8.69248 72 24 2 
-0.76541 2.68409 9.67245 212 173 144 
0.427604 -0.224096 8.56066 117 70 42 
-0.425938 0.446326 9.51784 91 52 35 
0.737338 0.673157 8.64028 168 141 130 
-6.12272 2.49347 13.0232 153 130 114 
-0.153164 1.1142 9.24953 161 133 121 
-0.419551 -0.078331 9.52696 90 47 30 
0.173405 0.998696 9.01489 103 67 51 
-6.99848 2.55879 12.5894 176 147 129 
-4.06229 2.44317 15.2532 151 120 92 
0.664769 -0.261071 8.54697 89 44 25 
0.67198 1.18035 8.67799 167 138 122 
0.60232 1.0067 8.64028 145 118 111 
-6.778 2.56476 12.1583 178 146 123 
-0.243425 1.28523 9.32502 87 50 32 
-1.95712 2.6541 10.6232 199 164 132 
0.444202 -0.277965 8.56959 107 60 32 
0.446129 1.41587 8.81534 86 48 29 
-3.90179 2.34259 16.1332 89 67 53 
0.547764 0.925546 8.74043 94 56 37 
0.199822 1.53199 8.99998 92 50 34 
-7.47809 -4.29418 15.6329 175 151 139 
-0.118307 1.58035 9.26129 91 53 34 
-1.50595 2.72556 11.1152 78 45 28 
-0.411974 0.716912 9.4944 90 53 35 
-4.25375 2.55523 12.2424 199 164 136 
0.706737 0.87718 8.65447 169 140 126 
-6.51736 2.50019 12.1764 158 128 102 
-0.326443 2.58285 9.57737 71 39 28 
0.500052 1.24584 8.76818 87 49 36 
0.538576 1.02105 8.73759 88 50 31 
-7.04705 1.38646 15.5126 212 184 162 
3.16069 0.410246 8.15823 91 77 64 
0.439474 -0.284806 8.62921 108 61 35 
-3.66288 2.46045 15.5514 162 128 103 
-0.330394 2.58816 9.60203 71 39 28 
-0.72622 1.54265 9.72031 104 59 38 
