ply                 
format ascii 1.0    
element vertex 299
property float x    
property float y    
property float z    
property uchar red  
property uchar green
property uchar blue 
end_header          
-1.65525 -3.57873 17.333 194 229 249 
3.45127 1.40929 14.8137 254 255 237 
3.07146 1.5547 15.2633 74 66 55 
-1.86568 -3.54158 17.0793 194 228 255 
-4.22901 0.558746 16.7887 211 210 208 
6.03461 -0.209554 28.1455 255 253 250 
-1.37863 -3.5365 17.3866 183 210 229 
-0.870604 -3.57485 17.6374 176 205 219 
3.59264 1.40531 14.6703 255 255 235 
3.08931 1.56059 15.1621 85 67 53 
3.44217 1.41257 14.8203 249 255 229 
3.14945 1.54943 15.1094 120 116 107 
3.10246 1.52648 15.1462 104 89 70 
-12.7602 -2.62244 43.301 245 241 206 
-1.33531 -3.53733 17.3932 151 175 187 
3.13287 1.57099 15.2138 111 101 100 
3.3732 0.854604 13.1024 141 138 133 
7.13341 2.1419 34.5895 106 87 80 
3.65926 1.39283 14.598 109 104 82 
2.63777 0.718481 11.3715 89 76 67 
0.103658 -2.57906 11.6806 255 255 248 
3.64284 1.3999 14.6167 255 255 231 
-0.592695 -2.92728 13.0966 255 255 251 
3.96086 0.101094 34.7752 225 220 216 
0.802899 -2.24176 10.3037 50 46 37 
-0.737596 -3.85744 13.2522 255 255 255 
7.10268 -0.0528706 27.0843 255 251 248 
2.93435 0.896733 15.2944 198 193 189 
4.67595 -0.0319412 32.7096 244 239 235 
1.59978 -1.88103 8.77695 240 232 209 
2.40576 -1.51714 7.19358 255 252 238 
2.30725 -1.54432 7.41593 248 247 245 
3.98929 0.104406 35.1116 255 252 248 
3.49854 1.36155 14.7737 63 62 57 
6.7797 0.00506829 28.012 239 235 232 
4.70412 -0.0345096 32.8224 255 249 246 
6.01274 -0.217631 28.044 239 234 231 
6.43725 -0.263027 27.8382 255 254 251 
6.27952 -0.263412 27.9922 248 240 237 
3.06114 0.942614 15.1092 90 81 74 
3.11287 0.946092 15.1695 94 70 58 
2.98876 0.95619 15.273 59 46 38 
3.03792 0.851513 13.5272 88 76 54 
2.61008 0.725653 11.4991 89 85 74 
3.36373 1.59041 14.9423 56 35 0 
3.76957 0.924592 14.5109 88 81 71 
5.21261 1.50053 23.3843 98 90 77 
3.38249 0.859411 13.1346 111 103 100 
3.56936 -1.21507 4.88873 247 246 242 
6.55237 1.88451 25.3597 86 82 73 
3.28222 1.20361 14.954 118 117 113 
3.59612 1.06034 14.6242 111 111 103 
3.46986 1.29035 14.7875 70 66 57 
3.23724 1.32111 15.016 72 65 55 
2.99955 0.946088 15.1616 80 62 60 
3.19635 1.42897 15.0684 54 50 41 
3.45325 1.41097 14.8264 235 238 207 
-1.86869 -3.5394 17.0745 107 135 156 
3.66299 1.3989 14.6129 86 82 57 
-1.65827 -3.58213 17.3525 194 229 249 
3.10463 1.52913 15.1621 104 89 70 
3.19893 1.5268 15.0804 103 101 86 
3.06011 1.5464 15.2018 74 66 55 
3.15516 1.5441 15.1211 103 96 88 
3.09473 1.56008 15.1783 88 71 53 
6.70108 -0.00397024 28.1884 236 228 225 
4.37775 0.835905 13.6972 213 208 202 
7.09209 -0.0546108 27.0368 255 251 248 
-4.17923 1.64789 43.8215 69 66 49 
6.97796 -0.0525863 26.5148 248 240 237 
3.93729 0.107665 34.6308 255 252 248 
2.93394 0.891688 15.2707 218 213 209 
6.62254 0.0032388 28.3423 243 235 232 
2.98319 0.952181 15.2386 74 57 49 
3.02457 0.953429 15.3266 93 73 64 
3.2715 0.935228 14.8584 110 100 98 
4.70263 -0.0315122 32.735 248 240 237 
2.86969 0.739362 11.619 102 94 91 
4.51192 1.38589 21.6849 133 123 111 
6.45658 -0.039624 28.1951 88 77 75 
6.06695 -0.0392668 28.0824 91 86 82 
2.99753 0.982902 15.2309 83 79 68 
3.37272 0.971513 14.8962 74 61 52 
3.44319 0.966235 14.7016 80 71 64 
3.37222 0.859136 13.0949 111 103 100 
3.69723 0.963236 14.5579 91 88 83 
3.35507 1.58524 14.8869 80 55 0 
6.27846 -0.259865 27.987 255 250 246 
3.20131 1.55941 15.1472 118 102 87 
3.128 1.56648 15.2117 92 70 72 
3.08549 1.54968 15.1202 96 73 59 
3.01138 1.55647 15.1822 84 69 62 
3.19119 1.52398 15.026 95 93 81 
3.11378 1.53612 15.2194 117 101 76 
3.42677 1.09084 14.8618 95 92 87 
5.01462 0.583537 13.271 101 86 79 
3.6521 1.39199 14.5594 86 82 57 
3.60471 1.4091 14.7366 249 248 230 
3.3758 1.42056 14.8421 105 96 91 
3.46215 1.40847 14.8812 254 255 241 
3.41943 1.40086 14.7972 117 113 102 
3.01625 1.43356 15.2863 65 60 54 
3.00345 1.20801 15.2613 80 76 67 
-0.874057 -3.59099 17.6721 189 220 240 
4.4795 1.47312 21.7449 88 74 65 
6.04996 -0.302801 28.0032 102 98 95 
3.21107 1.52988 15.0094 252 255 232 
3.08198 1.36822 15.2183 81 71 61 
6.02652 -0.218113 28.0964 239 234 231 
-1.37226 -3.51991 17.3311 181 211 235 
-1.34029 -3.52053 17.3361 199 237 250 
3.00193 0.962159 15.3256 59 46 38 
4.41797 1.35943 21.7532 85 82 75 
3.34664 0.941253 14.8626 91 76 57 
3.43706 0.935285 14.7731 98 86 74 
3.48827 0.941292 14.8731 92 71 66 
2.98469 0.972571 15.19 73 66 58 
6.82156 1.61416 25.4029 75 65 64 
3.11388 1.55965 15.1741 97 64 55 
3.15193 1.58767 15.4518 96 73 59 
3.01571 1.56341 15.2512 81 63 49 
3.15279 1.54119 15.1333 64 57 49 
3.01599 1.20917 15.3482 92 85 77 
3.23083 1.19596 15.0139 92 78 69 
3.65817 1.37433 14.626 246 248 234 
3.42719 1.30541 14.8508 72 65 59 
3.47222 1.30123 14.8058 75 66 59 
3.43049 1.41631 14.865 122 118 106 
3.38497 1.42081 14.9096 82 67 60 
3.33807 1.42015 14.9488 80 71 64 
6.54631 2.25985 25.3179 73 73 63 
3.2924 1.42034 14.9961 65 56 47 
3.90239 0.115925 34.4189 255 254 249 
3.00169 1.31724 15.2285 95 86 79 
3.56365 -1.21393 4.88018 242 241 237 
6.39658 -0.0404139 27.8832 96 85 83 
6.06076 -0.0407412 28.0939 104 99 95 
3.21477 1.47871 15.0699 133 127 115 
3.76587 1.03303 14.4439 255 255 232 
6.40155 -0.251925 27.7538 252 248 245 
6.03293 -0.289066 28.0448 86 81 78 
3.21694 1.53087 15.0807 254 255 241 
3.38006 1.01776 14.847 148 135 126 
3.35184 1.36292 14.9271 114 111 102 
6.80707 0.010378 28.1461 210 206 203 
3.31338 1.36646 14.9637 71 61 62 
10.0236 3.87399 46.8195 68 67 63 
6.18137 -0.24818 27.5424 250 242 239 
3.02748 1.37217 15.215 59 54 51 
2.95508 0.854787 13.582 133 123 121 
4.66203 -0.0294015 32.4303 248 240 237 
3.17521 1.48241 15.1053 77 65 67 
6.39311 2.37443 28.3312 75 71 68 
3.02205 1.1453 15.1879 86 78 76 
3.12688 1.4234 15.0185 72 43 27 
3.22233 1.42109 14.9406 65 56 47 
3.89933 1.39484 14.4245 75 62 53 
3.74045 0.966352 14.52 91 77 74 
3.01253 1.41591 15.2926 91 83 80 
3.09169 1.0963 15.1753 82 69 61 
3.04052 0.986247 15.2034 97 75 61 
3.06534 1.53225 15.2714 75 62 54 
3.16139 1.52839 15.1832 62 53 46 
3.46906 0.936742 14.7992 97 79 75 
3.45116 0.937956 14.8174 96 77 70 
3.60698 1.07515 14.6846 129 122 116 
2.99475 1.54816 15.1457 104 82 69 
2.99731 1.18847 15.2736 60 51 44 
3.02522 1.19513 15.0721 77 60 52 
6.39861 -0.252035 27.7714 152 148 145 
3.48253 1.31297 14.8575 68 57 51 
3.01036 1.32455 15.2817 99 86 78 
3.79912 1.17265 14.4953 91 86 82 
3.45817 1.40442 14.8962 254 255 246 
3.65338 1.3952 14.6946 187 189 186 
3.67414 1.01506 14.6021 74 65 60 
3.40642 1.41468 14.7691 108 92 76 
3.39103 1.01452 14.8948 174 162 150 
-1.66385 -3.59967 17.3835 166 200 228 
2.99516 1.09742 15.2628 119 106 87 
3.13216 1.4805 15.2075 185 176 161 
-0.887 -3.59562 17.697 161 198 227 
3.2281 1.483 15.1239 137 133 122 
3.77657 1.039 14.4916 255 255 241 
3.73801 1.35306 14.5955 62 57 54 
3.22931 1.52825 15.1296 255 255 241 
-1.86898 -3.55991 17.1157 186 220 248 
3.17827 1.53743 14.9964 110 95 72 
6.645 -0.00841224 28.0231 217 209 207 
3.02834 1.25469 15.2571 158 145 136 
3.3181 1.36675 15.0184 74 64 63 
6.3984 -0.0489561 27.8602 97 87 86 
6.03927 -0.0387963 28.0276 109 101 98 
3.8409 1.17929 14.4482 144 129 108 
6.18185 -0.249854 27.5448 255 250 246 
1.94822 -2.74135 8.1007 111 79 64 
6.84235 -0.00876539 28.32 218 210 208 
4.66443 -0.0356489 32.5574 255 249 246 
3.21533 0.99551 14.9795 109 104 98 
3.31549 0.988916 14.8856 70 63 55 
3.88059 1.30685 14.3551 110 97 81 
9.78503 3.78411 46.9858 76 61 54 
3.14841 1.43974 15.1106 84 57 50 
3.2836 1.40043 14.9845 72 59 50 
3.57893 -1.22028 4.89434 240 239 235 
3.69415 1.16346 14.5347 100 95 92 
3.03863 1.21749 15.1723 75 49 34 
3.03319 1.47712 15.2131 61 47 36 
3.17236 1.47831 15.0954 59 51 49 
3.21788 1.47407 15.0547 75 65 53 
3.03379 1.06102 15.1474 92 87 81 
3.46368 1.17082 14.7769 81 73 70 
3.44752 1.06852 14.9946 97 89 86 
3.16361 1.14076 15.0541 93 86 80 
6.36309 -0.0504208 27.617 93 85 83 
6.06851 -0.27613 28.3176 87 79 77 
3.05755 1.516 15.1984 66 48 44 
3.48635 0.951396 14.9295 85 62 56 
3.63905 1.05101 14.5756 84 74 72 
3.44773 1.35815 14.8223 74 70 59 
3.1505 1.52111 15.1205 74 65 60 
3.4043 1.36231 14.8652 66 67 61 
2.99441 1.32988 15.2244 74 64 55 
2.98807 1.10468 15.1914 82 64 50 
4.44391 1.58757 21.7594 82 69 61 
2.99957 1.54859 15.2504 91 60 39 
3.1446 1.29086 15.0924 75 64 60 
3.28175 1.33332 14.9761 66 40 25 
3.59895 1.09356 14.6255 90 82 79 
3.46809 1.31631 14.7956 77 66 60 
6.19815 -0.0746963 28.9212 87 79 77 
-1.36045 -3.52778 17.3527 182 214 235 
-0.876656 -3.5898 17.6492 177 213 237 
3.01243 1.14388 15.1767 76 61 58 
3.07835 1.30102 15.3694 65 58 52 
2.99088 1.18001 15.2066 68 59 52 
3.21501 1.36613 15.0414 71 66 63 
3.26009 1.36215 15.0002 89 72 54 
3.44098 1.13296 14.7935 85 71 68 
10.32 -0.421842 17.0613 86 61 41 
7.01069 -0.0481334 26.6039 253 248 244 
3.48428 1.14263 14.7518 88 76 76 
-2.4788 -5.4855 16.8104 148 186 225 
3.61443 1.09896 14.6992 87 79 76 
3.56587 -1.21716 4.87258 240 239 235 
-1.39702 -3.59923 17.7126 191 225 252 
-1.07621 -3.57701 17.436 159 194 226 
3.05336 1.05095 15.2176 78 71 65 
-1.6672 -3.60235 17.3434 155 188 221 
3.05773 1.23072 15.2391 57 40 32 
3.01027 1.55682 15.3327 87 62 40 
-1.88639 -3.60478 17.2975 184 214 242 
6.6423 -0.00232273 28.0643 227 220 214 
3.06565 1.5023 15.2795 74 61 53 
-0.831927 -0.980122 17.8421 206 210 211 
3.06445 1.45295 15.2735 88 71 53 
4.16365 1.29743 14.0904 108 90 78 
10.05 -0.231849 16.9062 65 55 46 
3.38311 1.02692 14.658 72 64 62 
3.44453 1.31413 14.6511 77 67 65 
2.99829 1.10358 15.271 77 61 45 
3.09679 1.11344 15.1893 78 65 57 
3.44031 1.27342 14.9056 65 56 51 
3.05892 1.27985 15.2451 70 59 53 
6.06387 -0.301048 28.3196 88 80 78 
3.43933 1.14128 14.6291 81 73 71 
2.35971 -1.50966 7.24766 91 77 66 
6.24954 -0.0609629 27.9265 88 79 74 
-2.5286 -5.46772 16.7374 140 177 219 
-0.77201 -3.29463 13.7832 116 121 125 
4.81112 0.424656 13.3935 218 215 210 
6.13631 0.792793 12.1973 65 53 53 
3.02119 1.16501 15.4208 61 54 44 
-1.84762 -3.54293 17.0001 158 191 222 
-0.884648 -3.58 17.5078 161 194 229 
-1.37779 -3.53131 17.4603 176 213 232 
8.46686 -0.302988 22.6873 247 244 239 
-2.49814 -5.48097 16.8026 132 174 214 
8.47871 -0.301199 22.5628 229 222 216 
-1.97766 -4.16988 16.6088 189 199 209 
3.57298 1.09967 14.5815 108 103 100 
6.37747 -0.0600037 27.5724 70 66 63 
6.24582 -0.0609904 27.9367 85 76 69 
6.0257 -0.278271 28.4263 81 71 70 
3.0752 1.28047 15.3917 64 55 50 
6.29992 -0.270614 27.7004 72 55 48 
8.53203 -0.292392 21.9499 213 212 210 
0.358671 -3.04408 11.1629 254 255 250 
6.06125 -0.0622987 28.4208 102 97 94 
7.28091 -0.0608133 27.7633 255 251 248 
-3.48917 -5.45605 16.6676 123 172 202 
-0.781738 -3.30946 13.8577 73 78 82 
3.38805 1.52004 16.2645 110 86 60 
3.25422 1.39722 16.2736 103 103 93 
-1.38668 -3.55862 17.4943 183 210 229 
-1.34521 -3.56662 17.5267 151 175 187 
-1.39724 -3.56276 17.5223 200 222 243 
-1.367 -3.57082 17.5741 185 206 233 
-1.40206 -3.56248 17.5443 194 223 239 
