ply                 
format ascii 1.0    
element vertex 173
property float x    
property float y    
property float z    
property uchar red  
property uchar green
property uchar blue 
end_header          
0.10807 -0.432624 2.47114 34 34 36 
-0.147792 -0.426006 2.44138 25 27 26 
-0.0205383 -0.428393 2.47573 43 47 50 
-0.0662074 -0.425881 2.46714 105 100 106 
-0.110721 -0.429748 2.45535 31 32 34 
-0.111008 -0.431251 2.45554 48 43 39 
0.0127321 -0.442683 2.47757 62 55 45 
0.0735483 -0.432579 2.47511 236 210 187 
-0.0304767 -0.439512 2.47414 34 36 35 
-0.00917993 -0.419587 2.47798 50 45 39 
-0.0292138 -0.416163 2.47491 48 45 38 
-0.0110166 -0.439118 2.47655 51 46 40 
0.0738792 -0.432581 2.47496 233 224 229 
0.127712 -0.433243 2.4673 234 223 227 
0.0259587 -0.429029 2.47832 238 207 189 
0.0583299 -0.433783 2.47949 34 34 36 
0.057413 -0.433392 2.47752 34 35 37 
0.0783226 -0.418945 2.47576 58 54 42 
0.101264 -0.445414 2.47063 55 57 54 
0.0259721 -0.430009 2.47832 227 216 220 
-0.15775 -0.415535 2.4355 232 201 180 
-0.120888 -0.405289 2.4521 50 46 35 
-0.0465507 -0.420725 2.47203 238 207 186 
0.100931 -0.420015 2.47214 62 58 46 
0.0777887 -0.446258 2.47413 69 63 51 
0.0492122 -0.410243 2.48037 241 214 185 
0.110454 -0.451199 2.46887 231 205 182 
0.00433059 -0.407276 2.48061 235 225 224 
-0.0957609 -0.407772 2.46163 37 34 25 
0.119535 -0.41882 2.46862 59 57 45 
0.110976 -0.414409 2.47096 225 213 217 
0.0475984 -0.431483 2.47726 222 210 214 
0.118805 -0.447168 2.4687 69 67 52 
-0.169182 -0.417947 2.43036 238 227 233 
-0.193805 -0.40193 2.41484 238 210 188 
-0.102017 -0.416454 2.45928 40 37 32 
-0.00141233 -0.430434 2.47756 230 202 181 
-0.128888 -0.442328 2.44796 245 219 192 
0.134988 -0.427251 2.46322 234 223 231 
0.164595 -0.437275 2.45395 230 221 224 
-0.0135203 -0.429472 2.47745 23 27 30 
0.00026864 -0.430053 2.47955 226 214 218 
0.130076 -0.456774 2.46094 238 229 230 
0.013633 -0.461862 2.47498 240 230 231 
-0.0836011 -0.399951 2.46447 240 210 184 
0.0903222 -0.407027 2.47567 233 223 222 
0.0887858 -0.458217 2.47033 239 229 230 
0.166832 -0.457964 2.45419 239 229 230 
0.079166 0.0615815 1.81924 186 162 114 
0.166518 -0.458626 2.45272 240 230 231 
0.033469 0.17137 1.87061 195 186 169 
0.0150957 0.206933 1.89493 193 186 157 
0.0976613 0.229193 1.90742 194 184 149 
-0.070182 0.360534 1.99568 161 153 134 
-0.0133765 0.314874 1.95241 186 175 143 
0.00289569 -0.0669387 1.75022 187 178 145 
0.111099 -0.0482312 1.76907 178 171 155 
0.636952 -0.15351 2.20734 124 116 80 
0.0784079 -0.036688 1.77436 145 140 134 
0.00155221 0.144005 1.86619 135 131 120 
-0.112926 0.409545 2.04336 132 129 112 
-0.0280821 0.468306 2.22421 144 138 104 
0.0505519 -0.0424245 1.76325 182 159 117 
-0.0722651 0.292447 1.95495 175 166 135 
-0.11319 0.412243 2.04201 138 133 103 
0.0960063 0.217057 1.90578 144 137 127 
0.0602478 0.0974267 1.83937 147 140 130 
-0.0223175 -0.00954819 1.78338 178 156 96 
0.105145 -0.047293 1.77283 155 148 140 
-0.0507043 0.0515359 1.82238 181 173 127 
0.0386231 0.113061 1.86173 153 146 100 
0.678385 -0.0892816 2.21017 206 193 140 
-0.0167875 0.11924 1.85501 163 152 96 
0.119048 0.143655 1.86803 160 153 134 
-0.0515344 0.0554896 1.81828 157 147 98 
-0.096375 -0.419951 2.45934 115 115 107 
-0.0255125 0.116157 1.8401 158 149 94 
0.677078 -0.089426 2.2086 206 193 140 
-0.0136167 0.305593 1.95022 143 139 127 
0.0193225 0.137326 1.85927 124 118 104 
0.0180928 0.136917 1.85725 126 120 106 
0.11408 0.210558 1.90279 147 141 129 
0.115312 0.144135 1.86484 158 152 138 
0.0505538 0.346218 1.96744 145 139 127 
0.031133 0.213018 1.89365 147 140 130 
-0.0278211 0.294464 1.94482 131 124 108 
-0.0196539 -0.0199426 1.77945 148 141 133 
0.109565 0.397592 1.99817 125 121 112 
0.0730209 0.232362 1.90191 148 138 87 
0.0202287 0.470675 2.03482 155 155 143 
0.0319087 0.213513 1.89497 146 140 128 
0.116136 0.38082 1.98787 122 118 107 
0.0371108 -0.446623 2.50381 47 47 45 
0.0127138 -0.42312 2.48111 47 49 48 
0.0497227 -0.450797 2.47589 236 227 228 
0.18724 -0.479702 2.44445 241 235 235 
-0.0893276 0.458433 2.08636 70 69 64 
0.152543 -0.429831 2.46134 55 54 59 
0.14941 -0.441434 2.4669 50 50 52 
0.000368459 -0.450643 2.47799 236 226 225 
0.0709478 -0.466172 2.4701 239 231 229 
0.148794 -0.435858 5.24547 151 139 139 
0.148999 -0.484124 2.45155 255 254 253 
0.161042 -0.477017 2.44496 236 228 226 
0.185009 -0.505625 5.21488 94 88 88 
0.0753922 -0.566705 5.20897 105 96 97 
0.131862 -0.575599 5.18778 108 100 98 
-0.00714752 -0.539351 5.1332 153 142 140 
-0.00165433 -0.539969 5.14916 154 143 141 
0.0119816 0.118673 1.84509 196 189 163 
0.0885074 -0.619081 5.19787 162 148 147 
-0.140773 0.436109 2.07819 107 102 80 
0.0552651 0.0940347 1.83424 140 133 123 
0.172275 -1.13544 4.9665 173 162 160 
-0.0531553 0.040858 1.81566 146 139 131 
-0.205723 0.410188 2.0408 58 57 53 
0.220775 0.486079 2.22249 122 118 109 
0.0364905 -0.44314 2.47736 60 54 40 
-0.184784 -0.417501 2.41669 62 55 47 
-0.145968 -0.404753 2.44263 49 46 39 
-0.0754489 -0.435371 2.46457 58 53 47 
-0.0553234 -0.433431 2.4711 52 44 41 
-0.0744982 -0.411329 2.46687 47 46 42 
-0.159284 -0.426609 2.4329 66 63 48 
-0.134724 -0.416192 2.44464 229 201 177 
-0.107591 -0.400696 2.4574 234 206 182 
-0.0916952 -0.447769 2.46003 242 218 190 
-0.0137237 -0.424638 2.44732 47 42 38 
-0.158918 -0.389605 2.43681 241 214 184 
-0.0433313 -0.40174 2.47554 239 212 183 
0.352533 -1.28423 5.04682 199 168 147 
0.124177 0.0873626 1.84033 200 175 121 
0.0203533 0.225666 1.90028 187 164 122 
0.345419 -1.1856 5.05207 192 161 140 
-0.00340842 0.17595 1.87235 170 146 82 
0.122306 0.077482 1.83964 153 133 106 
0.068075 0.208586 1.88519 159 139 112 
-0.0171572 0.258106 1.91707 175 154 107 
0.137259 0.100026 1.84998 134 116 80 
-0.0756166 -0.436584 2.19571 255 242 218 
0.108975 0.0764036 1.82935 156 136 103 
0.0782833 0.148526 1.86015 171 149 102 
0.129238 0.334193 1.97315 130 113 85 
0.171228 0.505789 2.26978 135 124 96 
0.098082 0.110079 1.84368 139 121 85 
0.0240612 -0.446475 2.50289 60 54 40 
-0.0636802 -0.406882 2.46958 237 211 188 
0.0599701 -0.444762 2.47694 71 68 49 
0.0773951 -0.48682 5.25677 99 82 74 
0.152712 -0.437966 5.26307 179 152 135 
0.188618 -0.507398 5.23229 115 97 85 
0.077838 -0.567518 5.22237 118 100 88 
0.124813 -0.537788 5.25663 164 138 123 
0.120433 -0.535729 5.23621 161 133 119 
0.275987 -0.529678 5.23928 179 152 135 
0.0308056 -0.604089 5.23119 136 114 100 
0.0715299 -0.273315 2.02486 255 244 217 
0.00488187 -0.653608 5.22384 184 153 133 
0.198908 -1.15775 5.07874 196 168 147 
0.0281949 -0.445642 2.49428 60 54 40 
-0.0236796 -0.428027 2.46648 47 42 38 
0.153594 -0.437154 5.25806 179 152 135 
0.078751 -0.568061 5.21752 118 100 88 
0.323632 -0.603881 5.23226 179 152 135 
0.189656 -0.507881 5.22585 115 97 85 
0.138339 -0.578422 5.20403 125 107 93 
0.0216446 -0.544508 5.2154 171 144 125 
0.287095 -0.506144 5.24652 167 139 125 
0.198753 -0.61852 5.20055 183 155 134 
0.0752449 -0.444378 2.12251 28 31 22 
0.192025 -0.547582 5.20504 129 110 96 
0.204808 -1.14986 5.04772 196 168 147 
0.0617561 0.460855 2.02088 104 94 69 
