ply                 
format ascii 1.0    
element vertex 1243
property float x    
property float y    
property float z    
property uchar red  
property uchar green
property uchar blue 
end_header          
3.10672 -0.599395 1.00797 153 138 171 
2.78332 -0.641115 1.19542 176 188 228 
2.52886 0.274092 1.28067 172 184 226 
2.66851 -0.749688 1.27922 155 160 200 
3.11898 0.109689 0.947043 133 118 139 
-0.206945 -0.233419 1.31144 37 16 23 
-0.14421 0.0552137 1.26332 121 97 85 
3.06366 0.16601 0.98439 81 53 67 
-0.120425 -0.000739172 1.26702 93 66 36 
0.0747767 -0.0406306 1.20858 105 75 101 
3.0212 -0.553857 1.03575 159 172 217 
2.82024 0.222465 1.13532 138 151 186 
2.94127 -1.09736 1.11944 126 139 184 
2.84551 -0.534079 1.15299 171 184 229 
2.63162 -0.66907 1.30043 174 187 232 
3.07531 -0.567028 0.994974 151 131 156 
2.66859 -0.487687 1.29763 169 182 226 
2.60445 -0.961134 1.34568 161 173 225 
2.79185 0.138409 1.12261 174 191 235 
2.97327 -0.515893 1.06323 136 154 194 
2.77482 -0.0289655 1.15773 156 168 208 
2.6848 -0.730685 1.26791 123 120 165 
2.79803 -0.58309 1.18853 156 164 203 
2.62453 -1.03492 1.33807 170 184 229 
2.83612 -0.323265 1.11301 135 149 184 
3.02363 0.165086 0.962146 106 83 101 
3.15505 0.0946969 0.891586 115 116 147 
2.65181 -0.873724 1.30534 134 146 186 
3.14111 -0.461759 0.93968 149 117 130 
2.52267 0.339024 1.24509 133 116 132 
3.16873 0.167845 0.854839 63 61 82 
2.68376 0.227869 1.21265 148 157 196 
2.79388 -0.240013 1.16066 158 171 213 
2.83572 -1.16248 1.21011 184 198 243 
2.57265 0.303279 1.23358 111 120 151 
2.642 -0.314199 1.2561 137 151 190 
3.14495 0.160881 0.889541 111 115 150 
2.6411 -0.921498 1.31429 118 124 174 
3.2103 -0.704367 0.924896 135 139 177 
0.451748 -0.495919 1.174 131 121 148 
3.11955 -0.243495 0.969973 133 124 143 
2.95747 0.169338 1.02978 91 70 85 
2.63868 -0.604768 1.28542 116 126 175 
2.7236 -0.941382 1.2756 150 145 185 
2.99457 -0.275079 1.03126 159 154 177 
2.80771 -0.352904 1.1584 181 200 243 
0.0301858 0.167271 1.12057 151 100 119 
2.54715 0.15232 0.973379 81 54 73 
2.56126 -0.115994 1.32538 129 114 137 
2.54381 -0.507276 1.33551 176 189 233 
2.53978 -0.47563 1.34063 188 202 247 
0.443282 -0.431285 1.16593 142 124 146 
0.0891355 0.0332222 1.19247 99 68 86 
2.93713 0.374362 1.03606 134 114 126 
2.6074 -0.297994 1.2609 116 126 162 
3.06929 -0.384557 0.993195 117 141 179 
3.21253 -0.86919 0.947192 110 114 151 
2.80844 -0.911613 1.20993 146 139 181 
2.54969 -0.268885 1.32304 158 172 219 
2.78708 0.221899 1.13325 137 150 185 
3.17274 -0.188115 0.88392 71 66 88 
3.13405 -0.284275 0.941851 142 158 194 
2.85605 -0.980596 1.21225 144 158 197 
2.71831 0.166765 1.17092 142 155 189 
2.92903 0.166852 1.00842 98 77 96 
3.12425 -0.44964 0.868618 98 68 70 
2.71038 -1.12535 1.29188 145 152 194 
3.11228 -0.254968 0.958262 149 137 159 
3.11872 -0.748089 1.01503 140 131 158 
3.02489 0.267558 0.965324 116 136 169 
2.68635 -0.606543 1.27233 151 158 200 
2.55554 -0.296626 1.31572 164 181 227 
2.85452 -0.314264 1.12666 107 115 152 
3.31641 -1.22664 0.925032 123 106 148 
2.90502 -0.629919 1.12192 185 202 245 
2.50634 -0.452516 1.36161 189 206 250 
3.12923 -0.357667 0.864013 74 64 54 
3.19414 -1.28002 0.973335 133 141 187 
2.674 -0.609558 1.26979 155 163 202 
2.78928 -1.22826 1.24165 169 173 218 
3.00405 -0.375424 1.03458 165 178 223 
2.83488 -0.700542 1.17923 145 154 197 
-0.501014 -0.217773 1.49123 91 63 77 
3.10122 -0.745218 1.01396 140 131 158 
2.69324 -0.97112 1.29598 141 148 190 
2.49513 -0.523605 1.36968 170 183 228 
2.73416 -1.1969 1.27969 119 126 172 
2.64235 -0.557892 1.27364 149 158 199 
2.63908 -0.438312 1.2745 185 185 187 
2.61623 -1.0392 1.35372 184 197 241 
2.79019 -0.548721 1.19781 127 138 183 
3.24206 -1.05349 0.948341 121 129 168 
3.01665 -1.20874 1.10123 144 161 207 
3.00721 0.291176 0.991326 102 107 139 
2.95647 -1.14681 1.11328 181 205 251 
3.26009 -0.836114 0.914384 110 106 141 
2.52556 0.325864 1.2545 180 162 176 
2.84016 -0.540105 1.16043 178 199 242 
2.90717 -0.275622 1.09511 178 192 237 
2.64413 -1.19209 1.33656 116 122 174 
2.6449 -0.484623 1.29515 169 182 226 
3.02648 0.271883 0.843366 16 17 22 
2.93908 0.321278 0.874017 15 17 16 
-0.204763 -0.223119 1.29919 77 41 45 
2.99398 -1.18613 1.1015 168 185 229 
2.92951 0.21231 1.05068 136 145 186 
-0.333004 0.267471 1.22551 63 34 36 
2.65487 -0.315666 1.27874 150 163 198 
2.76488 -0.812131 1.19191 144 139 179 
2.99197 -0.380758 1.03321 167 180 225 
3.11334 -0.402884 0.884655 85 61 59 
-0.393687 0.135362 1.41621 82 62 74 
-0.0348662 -0.196598 1.24183 54 25 27 
2.6924 -0.305081 1.26861 115 123 162 
2.6522 -0.449415 1.30589 172 183 228 
-0.338017 0.30854 1.24697 52 36 39 
2.66347 -1.07491 1.29906 130 132 171 
2.83599 -0.986247 1.2034 137 152 195 
2.72201 -0.292347 1.20665 160 169 210 
-0.426134 0.323103 1.39529 58 49 50 
2.49734 0.180653 1.29083 178 144 161 
3.15297 -1.01329 0.987084 184 198 245 
2.96907 0.169026 1.0302 78 52 65 
3.17813 -0.0731622 0.912134 147 156 195 
2.72404 -0.612525 1.23001 144 153 194 
-0.399181 0.245949 1.41032 56 54 55 
2.62455 -0.313779 1.27574 143 156 198 
3.11624 -0.978105 1.01887 164 168 195 
2.57891 -0.310904 1.2901 138 151 193 
-0.454293 -0.0948932 1.46307 99 67 80 
3.12739 0.129903 0.902361 120 123 158 
3.2135 -0.724052 0.951665 167 179 221 
2.9262 -0.294853 1.07303 178 195 241 
2.99184 -1.23644 1.1158 152 156 201 
2.55521 -0.947791 1.37066 170 159 189 
2.9035 -0.557954 1.11582 167 179 221 
3.15623 -0.0714442 0.883872 94 103 134 
3.11598 -0.597439 0.992359 154 140 165 
2.63618 -0.520331 1.27874 118 126 173 
2.86366 -0.14335 1.11597 157 169 209 
-0.207422 -0.0111632 1.32458 76 40 52 
0.115464 -0.0637758 1.20548 97 69 83 
2.69767 0.0821653 1.17882 168 182 227 
2.81775 -0.31266 1.17379 115 125 161 
2.79186 -0.726644 1.20207 170 177 221 
2.67811 -0.517933 1.25315 122 122 158 
3.117 -1.28 1.04252 143 136 167 
2.8198 -0.591533 1.16162 174 193 236 
2.88112 -0.274751 1.0939 176 195 238 
-0.205285 -0.143977 1.33532 65 33 48 
2.65788 0.227607 1.21044 144 156 194 
3.00509 -1.18319 1.10099 165 181 230 
-0.276233 -0.237962 1.41358 110 88 111 
2.80627 -0.192583 1.16386 117 127 163 
2.77199 -0.195206 1.22029 154 168 205 
3.15381 -0.474327 0.922003 165 134 149 
3.12909 -0.0329814 0.922351 145 154 195 
2.78252 -0.866487 1.21242 172 185 229 
2.6402 0.198541 1.20113 113 121 158 
2.50846 -0.980344 1.39391 177 179 202 
-0.305737 -0.209902 1.36521 104 54 63 
2.79585 0.0969342 1.12973 160 178 216 
2.84043 -0.325998 1.17615 125 140 179 
2.80888 -0.89466 1.20956 142 137 177 
2.92916 0.380468 1.0211 116 99 117 
-0.30372 -0.211522 1.3425 65 30 34 
2.76758 -0.31927 1.17103 131 145 182 
2.66039 -0.950744 1.31489 148 162 201 
2.95308 -1.13444 1.13792 162 179 223 
-0.0496159 -0.241451 1.23184 39 26 35 
3.02031 -0.276714 1.01231 148 148 176 
0.345236 -0.153395 1.18476 131 114 133 
-0.409869 0.268424 1.41327 66 49 55 
2.84512 0.0716795 1.08696 174 193 233 
-0.392265 0.252186 1.28642 100 58 68 
-0.157136 -0.0526128 1.3003 52 26 29 
-0.422498 0.128459 1.33629 94 46 58 
2.8303 -0.902598 1.18818 183 196 241 
2.97775 0.197835 1.01263 155 169 208 
2.77389 -0.624741 1.20463 122 129 171 
2.64982 -0.748214 1.3023 122 130 177 
2.78774 -0.749445 1.22037 147 147 185 
2.73836 -0.310343 1.20704 96 106 142 
3.12604 -0.646298 0.981233 165 156 183 
2.68262 -1.20488 1.30739 119 116 163 
2.60779 -0.317915 1.25907 121 130 173 
2.79811 -1.10901 1.2358 167 182 223 
2.83395 -1.04401 1.20112 177 193 242 
2.54602 -0.150592 1.3293 123 107 136 
2.64562 -0.752404 1.31126 173 186 230 
2.54265 -0.000468118 1.3265 158 187 227 
2.89565 -0.27979 1.09298 172 189 235 
2.69881 -0.878127 1.28467 119 117 156 
2.57382 -0.792391 1.34786 192 207 250 
2.7709 -0.818405 1.21699 129 140 186 
-0.163199 -0.280628 1.27864 120 68 80 
2.77991 -1.11416 1.24549 126 140 179 
2.89091 -0.996472 1.16384 175 188 240 
3.20936 -1.19713 0.973588 124 130 180 
3.03196 -0.560038 1.02884 151 149 189 
-0.347655 0.25657 1.18534 45 23 26 
2.79862 -1.13713 1.23657 168 181 223 
2.89693 0.250677 1.03544 151 167 201 
2.68488 -0.163656 1.24284 157 169 209 
2.68627 -1.116 1.3035 126 119 161 
2.75021 -0.651645 1.25127 145 154 195 
3.2027 0.00127663 0.882214 79 80 108 
2.52604 -0.81109 1.37936 146 136 163 
2.88423 -0.280311 1.08155 161 174 218 
2.62188 -0.127561 1.2628 158 172 211 
3.0179 -0.819407 1.11329 153 166 208 
3.20603 -0.124279 0.889318 77 77 101 
3.2501 -1.19198 0.948108 116 119 152 
2.92274 -1.17101 1.15412 159 168 209 
2.70782 -0.0443115 1.16284 162 176 221 
3.23797 0.223376 0.913175 118 119 150 
3.16871 0.143579 0.890452 111 115 150 
3.11111 -0.478006 0.866445 171 144 159 
2.91927 -1.01405 1.15285 171 184 228 
2.62365 -0.31975 1.26062 112 121 164 
2.96367 0.304636 1.00306 171 150 165 
2.70822 0.0576475 1.19942 154 168 205 
2.54968 -0.82683 1.38969 149 137 175 
2.53616 -0.611003 1.33638 164 151 177 
2.88107 0.17336 1.05885 138 147 188 
2.73006 -0.317478 1.18582 136 149 191 
2.69701 -0.845367 1.27356 144 156 194 
2.76048 0.0577259 1.14185 154 166 204 
2.61489 -0.388166 1.27699 157 184 227 
0.436304 -0.495767 1.1791 130 116 141 
2.78952 -1.01159 1.22511 174 182 228 
3.06074 0.247165 0.95652 152 166 203 
3.19126 -1.08514 0.974735 165 182 225 
2.69722 -1.00647 1.30241 141 150 193 
3.23511 -0.949925 0.966098 159 173 212 
3.25137 -1.35495 0.958545 150 164 203 
3.04844 -0.37835 1.00915 132 139 185 
2.64321 -0.540287 1.2797 125 136 182 
2.53126 -0.581105 1.35463 157 145 165 
2.69433 -0.687021 1.26044 148 154 190 
2.73354 -0.891757 1.25217 122 131 172 
3.17379 -0.283048 0.903669 74 75 96 
2.68856 -0.240441 1.23884 191 208 252 
2.83694 0.233495 1.14403 137 146 185 
2.79269 -0.516092 1.19336 131 139 185 
2.80386 0.0856616 1.13769 146 160 197 
2.68296 -0.678927 1.25836 144 149 187 
2.54607 0.0120838 1.28445 146 132 158 
2.79066 -0.85506 1.21078 166 173 215 
2.64354 -0.899545 1.31422 126 132 182 
2.66454 -1.21305 1.33975 113 123 174 
3.13221 -0.85032 0.983817 176 188 236 
2.6605 -0.234756 1.23711 168 181 225 
2.78387 0.279394 1.09072 137 146 185 
3.24761 -0.791062 0.911203 121 117 154 
-0.436533 0.332046 1.23881 59 69 78 
2.56518 0.215478 1.25541 176 190 235 
2.64656 -0.0456902 1.23747 184 198 243 
3.05398 0.173993 0.96025 113 106 137 
-0.210148 -0.05433 1.32894 63 33 43 
3.22766 -0.672524 0.923673 145 151 185 
-0.29187 -0.208161 1.39814 69 39 49 
2.57383 -0.857756 1.35106 187 205 251 
2.69354 -0.863828 1.29162 146 148 186 
3.027 0.273147 0.843315 20 21 26 
2.62078 -0.671134 1.27566 157 162 204 
2.71084 -0.655043 1.25171 144 153 194 
3.18723 -0.760878 0.951351 165 177 217 
3.11566 0.187807 0.915109 156 168 206 
2.55181 0.112152 1.27767 146 130 156 
2.70854 0.296352 1.16098 112 118 150 
3.14636 -0.217943 0.935111 143 155 193 
3.05205 0.237563 0.966033 130 142 182 
2.76898 -1.11103 1.24452 128 140 178 
2.75457 -0.137911 1.16705 157 171 210 
0.391408 -0.307857 1.16222 129 111 135 
2.86076 -0.920441 1.25677 121 129 168 
3.14271 -0.533074 0.977004 151 159 205 
3.06358 -0.578471 1.01122 124 115 132 
2.76072 0.121354 1.14679 152 165 200 
2.60102 -0.136351 1.25552 161 173 215 
2.54076 -0.213872 1.31758 151 143 167 
2.78854 -0.948191 1.23252 146 144 181 
2.99869 -0.568804 1.08283 149 133 162 
2.78742 0.248553 1.12967 133 143 179 
3.00667 -0.463077 1.02494 156 168 208 
2.93798 -1.02035 1.14938 150 164 211 
2.79775 -1.24045 1.25227 150 148 188 
2.84097 -0.998821 1.19713 176 194 240 
-0.276494 -0.112703 1.40076 67 47 59 
-0.359279 0.245053 1.15716 79 44 48 
2.85516 -1.0503 1.20277 179 195 244 
2.79914 -0.595667 1.18447 140 139 181 
2.63174 -0.216953 1.25986 157 171 210 
-0.522108 -0.0315606 1.48419 103 79 101 
2.6444 -0.741521 1.29294 156 168 208 
2.74943 -1.0005 1.25734 157 159 197 
2.63899 -0.624381 1.30071 170 183 227 
-0.504421 -0.00491094 1.47245 106 83 101 
2.82503 0.269129 1.0704 135 140 180 
3.16277 -0.756423 0.951038 165 177 217 
-0.496531 0.0499203 1.46302 115 93 106 
2.86983 0.0214561 1.1066 149 163 198 
2.81287 0.366625 0.926913 17 17 19 
3.24659 -0.767341 0.908174 120 115 155 
2.62805 -0.622173 1.29953 169 182 226 
-0.314301 -0.212878 1.35381 104 57 65 
3.15283 -0.983551 0.991116 180 203 247 
2.61965 -0.69167 1.30069 172 185 230 
3.01372 0.179603 0.996095 138 141 184 
2.79439 -0.930289 1.20386 146 149 190 
2.7922 -0.748277 1.20642 173 185 227 
2.66417 -0.721883 1.27773 157 165 202 
2.75952 -0.431479 1.1893 179 193 238 
2.80787 -0.336757 1.11857 147 169 206 
2.64901 -0.191719 1.24655 155 167 205 
2.5203 -1.18001 1.42732 174 193 236 
-0.272079 -0.248828 1.41196 101 77 91 
3.22648 -0.833806 0.930929 140 140 176 
2.66504 0.272732 1.18715 115 118 161 
-0.397173 -0.109892 1.44417 121 99 112 
2.73292 0.0197523 1.19592 168 185 231 
2.9396 -1.22789 1.14927 165 176 222 
3.04135 -0.485924 1.02421 172 196 240 
2.67996 -0.381034 1.24739 176 197 240 
2.7458 -0.170129 1.18148 151 161 197 
-0.422003 0.286461 1.41556 31 25 29 
2.57422 0.298137 1.24737 148 156 193 
2.80726 0.250106 1.13082 134 144 180 
2.70363 0.386873 1.13458 141 125 138 
2.81311 -0.935321 1.20816 147 149 190 
2.60278 -0.287623 1.2745 154 163 204 
-0.091215 0.155197 0.977031 85 46 65 
2.51804 -0.318394 1.33348 164 173 216 
0.421854 -0.363082 1.17244 133 109 131 
3.10904 0.12302 0.888118 114 118 155 
-0.217182 -0.0436861 1.33203 110 60 69 
2.83646 -1.02 1.19624 174 191 237 
3.21519 -0.653729 0.924805 137 145 184 
-0.239174 -0.281626 1.32563 79 38 46 
2.83738 -1.11381 1.20736 172 189 235 
3.14284 0.102287 0.897969 117 126 157 
2.81875 -0.891207 1.19374 144 143 185 
2.96731 0.353108 0.993107 121 103 119 
2.69148 0.32866 1.14773 140 118 130 
-0.366038 -0.1381 1.43779 117 95 116 
3.00412 -0.744847 1.08121 176 208 249 
2.5622 -0.0356122 1.24753 159 172 216 
-0.432501 -0.0237405 1.44259 115 91 107 
2.65493 -1.13851 1.34494 172 186 233 
3.2665 -1.21037 0.932883 115 118 161 
2.817 -0.167088 1.16728 155 167 207 
2.78322 -1.21231 1.24869 134 141 185 
3.16746 -0.12931 0.877797 75 73 97 
2.55201 -0.613922 1.33828 160 150 175 
2.71459 0.220349 1.16081 139 147 186 
2.9771 0.16265 1.00074 146 112 126 
2.91164 0.32914 1.02417 133 111 124 
2.66253 -0.505754 1.29704 170 185 228 
2.85849 -0.992092 1.16885 194 213 255 
3.01786 -0.488987 1.02113 178 193 236 
2.69218 -0.953522 1.2876 115 114 154 
2.80784 -0.72343 1.17958 148 157 198 
3.11377 0.150203 0.846922 89 81 102 
2.69026 -0.682394 1.27325 157 161 199 
3.12356 0.259114 0.909985 118 97 114 
-0.22265 -0.0442598 1.3225 102 57 64 
3.13282 -0.978893 0.989976 180 203 247 
-0.530533 0.25667 1.45665 95 86 105 
2.7823 0.227143 1.11799 159 177 215 
2.50024 -0.316677 1.33136 160 172 212 
2.82048 -1.00844 1.22048 141 148 194 
2.52205 -0.533595 1.36181 139 137 177 
2.82983 0.327091 1.07096 137 114 130 
0.397297 -0.447917 1.18419 117 91 118 
-0.411887 -0.010337 1.38676 82 41 47 
2.90267 -0.17769 1.09373 150 165 208 
3.14849 -0.85194 0.993951 169 174 203 
2.76416 -0.78356 1.24803 133 137 175 
2.95594 0.089468 1.07781 141 153 195 
2.70024 -1.17179 1.28485 142 155 199 
2.76668 -0.0701838 1.14407 153 169 205 
2.7832 -0.895584 1.23015 133 136 177 
2.6111 -0.372207 1.31249 168 181 225 
2.87138 -0.211279 1.10867 124 132 178 
2.60174 -0.0861179 1.226 150 164 199 
2.721 -0.315126 1.19185 152 164 206 
-0.43917 0.31588 1.32377 67 42 46 
2.97711 -0.474563 1.16387 177 177 189 
2.82161 0.328964 0.891148 82 86 95 
3.11197 -0.565062 0.989096 144 136 175 
2.90154 0.378363 1.01376 114 96 112 
0.431787 -0.430775 1.17468 133 115 141 
3.1778 -0.306742 0.894171 50 47 64 
2.87112 -0.13867 1.09359 150 165 198 
-0.291944 -0.162515 1.42205 79 68 85 
2.89222 0.238645 1.04468 128 136 175 
0.391277 -0.435151 1.18616 132 110 133 
2.49199 0.367122 0.804839 79 87 108 
2.88418 -0.364468 1.09423 147 160 205 
3.18443 0.134124 0.857611 83 83 107 
2.53458 -0.272649 1.31125 187 204 250 
2.96233 -0.381646 1.07684 157 172 215 
-0.430454 0.31779 1.34957 60 45 50 
2.85144 0.369421 0.927838 16 16 18 
2.54415 -0.358074 1.31182 160 171 217 
3.17326 -0.858942 0.968275 159 174 215 
-0.266143 -0.125611 1.39809 53 36 44 
2.69672 -0.764433 1.26565 152 156 191 
2.79245 -0.544047 1.18046 135 138 183 
-0.408095 0.21425 1.41578 39 24 29 
2.74733 -0.442098 1.18559 171 162 147 
3.12313 -0.47216 0.873557 143 111 122 
2.73266 0.0711129 1.19391 99 107 143 
-0.332331 0.241413 1.22621 21 19 20 
-0.36298 0.235714 1.06944 88 49 54 
2.68609 -0.906608 1.28341 119 118 162 
3.24543 -0.676414 0.921121 143 145 183 
2.66859 0.239089 1.18651 126 138 180 
3.15619 -0.154775 0.891199 75 79 104 
2.58807 -0.64041 1.29714 171 185 230 
2.6458 -0.19319 1.22703 159 171 211 
3.1829 -0.83568 0.955193 164 176 216 
3.09559 -0.016478 0.95488 130 116 141 
-0.0376647 -0.206458 1.2349 50 23 30 
3.18789 -0.943999 0.962591 157 171 210 
0.333313 -0.461845 1.21243 115 97 119 
3.12653 -0.30372 0.962239 159 173 218 
3.11221 -0.793849 1.01354 139 135 160 
2.77761 -0.734536 1.21265 150 150 188 
3.21328 -0.821808 0.955599 165 177 217 
2.63398 -0.37517 1.28369 102 119 165 
2.837 -0.660095 1.18735 142 144 183 
2.52623 -0.0832232 1.21933 150 163 198 
-0.39626 -0.0105065 1.43419 90 66 80 
2.76806 -0.305277 1.17536 114 123 164 
-0.392696 -0.097061 1.44083 109 79 89 
-0.202181 -0.248401 1.30481 42 19 27 
2.79973 0.185677 1.1118 144 157 192 
2.83263 -0.319973 1.16966 113 131 169 
2.57396 -0.823538 1.34553 179 192 237 
2.63543 -0.692409 1.30742 174 187 232 
2.67307 0.130128 1.21962 153 169 202 
2.59312 -0.980972 1.34275 162 174 224 
3.13452 0.169919 0.956583 131 116 135 
2.72548 -0.749226 1.24466 154 156 195 
2.75225 -0.264135 1.18616 153 167 204 
3.04661 -0.374955 1.02484 106 122 171 
-0.568202 0.0505968 1.49056 122 110 134 
2.73621 -0.576664 1.22309 119 127 166 
3.06527 -0.565307 0.994721 151 131 156 
3.0624 -0.436125 0.890631 99 67 68 
2.48172 -0.338191 1.35716 172 180 227 
3.04024 -0.259331 0.99007 148 135 155 
2.65277 -0.957879 1.29463 136 145 186 
2.67263 -0.932003 1.29462 152 155 196 
2.80463 0.320291 1.12824 179 157 170 
-0.338568 0.298774 1.23993 65 45 46 
2.53445 0.1235 1.29841 132 113 133 
3.143 -0.630483 0.971749 187 199 237 
2.51665 -0.615385 1.34748 157 149 173 
2.70532 -0.805397 1.26823 137 146 187 
2.57458 -0.750242 1.34136 185 198 242 
2.68839 -0.598838 1.26524 147 152 192 
2.71868 -0.537833 1.22659 149 151 192 
-0.199289 -0.277986 1.30783 42 27 34 
1.57802 -0.0344745 1.06855 156 168 206 
2.56327 -0.507159 1.32543 178 192 237 
2.71718 -0.328162 1.23536 113 122 163 
3.05679 0.234615 0.949658 111 120 161 
3.03022 -0.980247 1.05607 111 101 125 
3.1375 -0.405896 0.879196 85 59 60 
3.05562 0.254045 0.949531 110 114 159 
2.79468 -0.875219 1.22225 126 143 186 
-0.288586 -0.205526 1.41474 70 44 55 
2.84825 0.15414 1.09782 145 157 197 
3.11775 -0.350421 0.972967 129 136 182 
3.12522 -0.655311 0.97041 185 198 243 
0.396115 -0.464163 1.18794 126 104 125 
-0.375893 0.0802166 1.35309 113 79 103 
2.54501 0.0605437 1.30215 133 122 139 
2.63096 0.262306 1.20273 139 148 189 
3.11493 -0.940188 1.04839 47 64 107 
3.15826 -0.802801 0.971999 155 167 207 
2.5537 0.0283423 1.28405 146 133 161 
2.60607 0.261051 1.2007 135 147 187 
3.15909 -0.0276403 0.879836 76 82 104 
2.65933 0.333127 1.16458 144 121 137 
0.170316 -0.0409083 1.13392 121 69 82 
-0.441262 0.194751 1.32601 72 32 33 
2.66384 -0.158662 1.24516 158 170 210 
-0.566536 0.263809 1.46908 95 78 97 
-0.234811 -0.277959 1.33683 78 37 43 
2.78474 -1.04693 1.20994 138 142 187 
3.23782 -0.880559 0.916797 110 110 144 
2.66903 0.264615 1.20582 140 149 190 
2.81854 -0.709881 1.16944 176 193 237 
2.96739 -0.268564 1.04329 128 119 138 
2.89198 -0.269796 1.09485 164 186 227 
-0.333684 0.291865 1.23212 53 34 36 
3.12669 -0.411178 0.9546 130 138 177 
2.65874 -1.13534 1.32225 144 153 192 
2.69349 -0.259822 1.2049 158 170 208 
3.06243 0.205944 0.971975 135 147 187 
2.7847 -0.860223 1.22334 127 138 184 
2.80084 -1.05158 1.21123 136 143 187 
3.14586 -0.883241 0.990763 176 193 237 
-0.228911 0.172461 1.23257 147 99 121 
2.7007 0.088487 1.1877 146 159 201 
3.21104 -1.11613 0.965011 128 136 183 
3.26564 -0.872802 0.919794 118 114 149 
2.74904 -0.0627513 1.15202 111 121 156 
-0.549857 0.315207 1.45572 105 97 108 
3.10595 -0.263294 1.03471 152 142 166 
-0.552876 -0.106543 1.48621 115 91 115 
2.67959 -0.575744 1.256 118 116 153 
-0.435134 0.157992 1.42764 71 59 69 
2.76314 -0.29451 1.18514 153 165 205 
2.72121 -0.523538 1.23641 134 136 174 
-0.338559 0.19274 1.24435 59 31 30 
2.74313 0.286149 1.13284 138 148 184 
3.10951 -0.65624 1.01263 144 132 168 
2.78856 -1.07157 1.24212 135 147 187 
-0.283918 0.195979 0.987694 112 71 87 
3.1727 0.191639 0.874325 96 95 109 
2.72787 -0.656068 1.21775 135 140 178 
2.54147 -0.856629 1.39928 182 201 244 
2.58241 -0.782358 1.33822 165 176 221 
3.1416 0.216428 0.869009 122 99 109 
2.90698 -0.519506 1.09387 163 174 219 
-0.406746 -0.14344 1.45036 97 74 92 
-0.427956 0.16002 1.42147 71 59 71 
2.68494 -0.698399 1.26429 125 122 167 
-0.5314 -0.00348053 1.4825 87 82 105 
2.80756 -1.02593 1.23034 177 189 231 
3.21031 -1.24678 0.965712 149 152 187 
-0.420409 0.332804 1.27464 37 35 40 
3.15594 -0.489015 0.933516 145 115 127 
2.80733 -1.05143 1.22271 135 143 190 
3.17782 -0.392368 0.94057 108 104 137 
3.17011 0.170716 0.956638 118 103 122 
2.60562 -1.1976 1.36714 156 171 214 
2.63705 -0.838651 1.31768 175 188 232 
2.79011 -0.961285 1.22905 146 144 184 
-0.220772 0.0926638 1.31933 100 56 69 
2.67144 -0.771346 1.29109 138 136 175 
0.0783937 -0.17072 1.20252 72 41 57 
2.55626 -0.622065 1.35233 174 166 189 
2.75369 0.217146 1.14103 137 145 184 
-0.365265 0.130567 1.32934 133 93 104 
2.76691 0.142053 1.13591 169 183 228 
2.7083 -0.171301 1.20009 155 170 211 
2.56254 -0.0882067 1.28516 182 195 239 
-0.3515 0.225735 1.17784 59 35 35 
3.09686 0.278707 0.87016 29 27 32 
-0.0199136 -0.281341 0.950081 117 89 111 
-0.159819 -0.320669 0.925167 152 174 221 
-0.307671 -0.263011 0.954503 157 175 223 
-0.166312 0.284167 1.05823 135 88 108 
-0.570489 -0.0649968 1.49174 123 105 129 
-0.028947 0.0727868 0.814954 116 125 166 
0.0616227 0.0434458 0.784522 127 137 173 
0.192219 0.0243706 1.14169 148 102 115 
3.05668 0.106718 0.985358 103 130 160 
3.04254 -0.604625 1.07189 178 199 242 
3.16717 -0.583895 0.945977 93 61 66 
3.2142 -0.983883 0.944892 156 150 134 
3.2075 -0.925246 0.945236 74 63 97 
3.06712 0.278691 0.92048 30 24 38 
3.01465 -0.0220804 1.01786 176 193 239 
3.10546 0.142186 0.964071 187 198 243 
3.22147 -1.00748 0.912945 154 146 157 
3.12364 -0.856274 1.04188 175 183 230 
3.26451 -0.95415 0.909515 129 128 144 
3.0182 0.303389 0.931723 38 30 43 
3.12794 0.111263 0.903104 87 87 125 
3.21915 -0.849884 0.940973 107 108 126 
3.27542 -1.16024 0.918956 156 138 180 
3.14217 -0.595821 0.971358 176 182 216 
3.15197 -0.408855 0.936671 66 49 65 
3.04699 -0.283319 0.994502 159 178 218 
3.17565 -0.198516 0.912808 115 121 157 
3.17216 -0.0711583 0.901277 115 123 160 
3.18518 -0.147615 0.897128 55 52 79 
3.14814 -0.365649 0.956297 79 91 129 
3.16156 -0.247954 0.933492 123 126 167 
3.25859 -1.14992 0.935792 116 109 142 
3.12535 0.183105 0.913107 129 138 179 
2.98814 -0.480915 1.05654 180 199 242 
3.02103 -0.483947 1.0555 181 196 239 
2.96111 -0.361042 1.05261 166 183 229 
-0.11705 0.164218 1.19915 105 60 81 
3.14397 -0.298556 0.875554 130 104 115 
3.138 0.0715519 0.90931 126 129 170 
0.266532 0.0595642 0.897831 145 157 199 
3.24882 -1.10049 0.942748 139 139 177 
3.13313 -0.338638 0.949106 111 120 161 
3.15219 -0.120482 0.922726 121 126 164 
3.2508 -1.13852 0.942326 135 131 166 
0.912224 0.12104 1.6042 138 84 98 
0.168807 0.0897688 1.16974 78 33 40 
3.14959 -0.351333 0.957278 123 132 175 
0.116183 0.183851 1.07607 65 44 53 
3.00342 -0.276389 1.0262 156 152 177 
3.15697 -0.476693 0.958422 152 158 194 
3.27449 -0.973256 0.912189 107 105 127 
3.05662 -0.399514 1.00464 126 150 188 
3.12046 -0.942894 1.04118 138 157 189 
3.11055 -0.54694 1.00491 171 184 228 
3.23445 -0.74943 0.923218 154 158 193 
3.1727 -0.261015 0.916553 109 113 150 
3.14101 -0.60857 1.00412 153 141 165 
3.21144 -0.570054 1.01595 177 190 235 
3.12589 -1.20266 1.02869 167 180 232 
3.1743 -0.219287 0.914016 111 115 144 
3.10739 -0.493833 1.00223 171 185 232 
3.13354 -0.340439 0.865553 118 103 82 
3.09767 -1.01748 1.03581 168 164 189 
2.96227 -1.10281 1.12164 126 139 184 
3.14048 -1.06013 0.998478 176 197 242 
3.1509 -0.463155 0.940289 149 117 130 
2.75329 0.158734 0.989664 81 54 73 
3.15175 -1.063 0.998151 171 189 237 
3.12493 -0.449526 0.868758 98 68 70 
3.12661 -0.749547 1.01518 138 130 154 
3.12068 -0.894102 1.04149 123 140 183 
3.17363 0.0983825 0.87115 85 89 118 
3.01279 -1.13666 1.08323 165 188 230 
3.03382 -0.377263 1.00948 146 155 198 
3.1887 -0.720176 0.950187 167 179 221 
3.01207 -1.24265 1.11787 152 156 201 
3.29564 -1.25441 0.938603 127 130 165 
3.18532 -1.0597 0.977266 167 181 228 
-0.442319 -0.0639687 1.44858 111 84 99 
3.1367 -0.125078 0.924199 123 128 168 
-0.451061 0.197949 1.29816 101 60 68 
3.30062 -1.35784 0.936988 130 138 177 
3.26474 -1.1149 0.923666 91 84 126 
3.13065 0.0379383 0.917319 139 151 189 
-0.566852 -0.0558034 1.50098 110 96 113 
-0.377293 0.191438 1.08638 79 44 48 
3.16237 -0.48361 0.936009 143 110 127 
2.93993 0.153582 0.82615 136 124 124 
3.19399 -1.08577 0.974691 165 182 225 
3.21457 -0.670504 0.922959 145 151 185 
2.95752 -0.524878 1.07634 169 183 228 
3.02802 -0.466318 1.02676 156 168 208 
3.0184 -0.156355 1.03622 165 196 240 
3.00408 -1.17291 1.10384 157 167 218 
-0.370221 0.171087 1.06484 80 39 45 
-0.37235 0.190537 1.07583 81 46 50 
-0.581081 -0.0504357 1.50569 85 69 95 
3.19699 -1.25471 0.993922 163 176 221 
3.20544 -1.03861 0.961548 120 126 176 
3.16696 -0.155471 0.891737 75 79 104 
-0.349584 0.240343 1.18142 67 35 36 
3.10168 -0.348985 0.971874 129 136 182 
-0.520279 0.256417 1.45227 95 82 100 
3.21003 -1.30612 0.991089 162 175 219 
3.16956 0.132989 0.875252 90 93 124 
3.23105 -1.25298 0.967052 149 152 187 
-0.403492 0.279569 1.41016 35 29 31 
3.14075 -0.487594 0.93268 145 115 127 
3.12583 -1.3063 1.035 172 170 194 
3.5785 -0.883158 0.74566 67 62 120 
3.66094 -0.403956 0.381281 174 191 237 
3.56705 -0.946589 0.762889 49 34 89 
3.00434 -0.125714 1.04704 62 72 108 
3.58523 -0.794554 0.738274 60 67 121 
3.55171 -0.883175 0.748526 59 65 125 
3.57931 -0.749649 0.735533 67 69 126 
4.08854 -1.02557 0.45381 35 36 56 
4.01167 -1.00925 0.476496 93 90 119 
3.46592 -0.71471 0.805022 52 61 118 
3.04447 -0.0909672 1.01355 78 75 106 
3.53618 -1.23532 0.765923 49 36 45 
3.31134 -1.14215 0.892916 104 95 114 
3.54376 -0.444311 0.333537 56 43 37 
3.07582 -0.0811097 1.0013 142 161 193 
3.54941 -0.800113 0.757364 71 63 123 
3.9436 -1.01027 0.514076 36 26 60 
3.47667 -1.13575 0.785326 81 54 61 
3.93069 -1.01315 0.512826 44 51 77 
3.10507 -0.655169 1.03452 74 86 124 
3.61195 -0.703349 0.715138 195 208 250 
3.0906 -0.145265 1.00678 150 169 201 
2.98769 0.0758012 1.03981 185 201 235 
3.27984 -0.941365 0.899069 72 50 53 
3.12218 -1.51413 1.09955 77 82 137 
3.36969 -1.09211 0.850151 69 55 72 
3.60872 -0.920481 0.74383 187 202 243 
3.46007 -1.09987 0.793281 71 56 63 
3.46373 -0.672753 0.787388 201 221 254 
3.07154 0.0713818 0.987402 190 204 239 
3.6281 -0.706199 0.713783 193 205 247 
3.01613 -0.825385 1.10229 86 100 145 
3.05447 -0.825079 1.07136 98 104 152 
3.29594 -1.18354 0.854884 85 76 95 
3.32535 -1.11683 0.889725 73 76 109 
3.05359 -0.226846 1.02469 62 57 79 
3.2762 -1.25044 0.914161 73 39 72 
3.07834 -0.179269 1.00957 176 190 225 
3.55238 -0.94315 0.77534 178 201 235 
3.53642 -1.37736 0.809211 93 88 152 
3.03737 -0.966611 1.0862 48 32 81 
4.00072 -1.3427 0.5265 198 218 255 
3.27382 -1.11711 0.90536 175 170 211 
3.26717 -0.54191 0.467291 102 96 124 
3.29348 -1.2404 0.90317 49 40 85 
3.06602 0.205392 0.783683 158 130 145 
3.22936 0.201066 0.79555 156 132 148 
3.38427 -1.12941 0.852452 75 66 85 
3.66429 -1.20061 0.666282 110 103 144 
3.0992 -0.819695 1.05797 167 185 223 
3.06292 0.0376955 0.990798 139 159 192 
3.60551 -1.13325 0.695198 112 97 92 
3.54145 -0.411031 0.365197 59 38 53 
3.25431 -0.593134 0.4732 82 77 109 
3.55655 -0.388811 0.36392 185 196 242 
3.25523 -0.982516 0.919152 87 74 84 
3.56086 -0.716344 0.74972 74 75 139 
3.51346 -0.685318 0.763348 207 223 255 
3.57384 -1.41472 0.789803 88 94 144 
3.53051 -0.92956 0.785099 55 60 116 
3.07063 -0.629073 1.04273 162 177 216 
3.60297 -1.10603 0.723775 180 192 230 
3.60217 -1.67083 0.812019 71 73 130 
3.02157 -0.601526 1.07215 198 214 250 
3.15832 -0.337814 0.911618 45 42 59 
3.55547 -0.933001 0.770249 158 172 217 
3.2116 -0.590111 0.94412 105 69 73 
3.41077 -1.09865 0.830677 191 198 224 
3.59448 -1.61171 0.806313 83 92 149 
3.03382 -0.9583 1.09353 192 204 246 
3.59198 -1.11649 0.714152 104 88 99 
4.02176 -1.55985 0.52757 89 88 154 
4.61248 -0.753579 0.0940783 77 82 140 
3.38792 -1.19199 0.851668 59 55 80 
3.4479 -1.2898 0.793857 126 91 123 
4.07001 -0.2904 0.372002 79 57 70 
3.09658 -0.925247 1.06812 67 71 119 
4.64674 -1.06966 0.0809792 75 59 85 
3.18422 -0.919688 0.946165 80 65 98 
3.10484 -0.399687 0.572833 138 131 112 
3.37565 -1.18898 0.852431 59 56 77 
3.22105 -0.90395 0.93759 195 189 175 
3.78657 -0.91893 0.58737 74 72 96 
3.60189 -1.11265 0.698418 174 172 186 
3.10817 -0.00523817 0.984495 63 73 108 
3.01813 0.00778794 1.01457 179 191 239 
3.54249 -0.907529 0.778331 192 207 250 
3.12093 -0.520968 0.778028 110 112 150 
3.75365 -1.01296 0.584183 169 188 228 
3.12849 -0.532025 0.580338 115 102 128 
3.02758 -1.03458 1.07626 199 217 255 
3.02163 -0.0455042 1.0273 182 205 249 
3.49403 -1.28439 0.768683 180 194 243 
3.36379 -0.615317 0.411055 151 162 192 
3.63246 -1.10145 0.646354 201 219 255 
3.55926 -0.884743 0.762987 199 212 254 
3.19407 -0.876696 0.944224 100 93 127 
4.60924 -0.720328 0.0914731 80 86 144 
3.20406 -0.879491 0.944174 100 93 127 
3.02505 -0.179959 1.0367 184 202 248 
3.59863 -1.23009 0.698748 77 78 109 
4.64402 -0.322815 0.0176754 75 56 75 
3.10617 -0.221803 1.01298 137 147 174 
3.16062 -0.589918 0.579937 84 83 115 
3.03462 -0.0225439 1.01736 176 190 239 
3.61476 -1.08984 0.696418 100 84 84 
3.344 -1.16471 0.884006 198 218 251 
3.37934 -1.17464 0.882165 206 222 255 
3.46503 -1.20017 0.817275 190 200 227 
3.12574 -1.25588 1.02411 104 89 128 
3.09209 -0.398068 0.574456 144 137 119 
3.08558 -0.666352 1.04788 198 213 254 
3.29977 -1.17749 0.902968 136 115 148 
4.58569 -0.167946 0.0507374 89 91 140 
3.64479 -0.77503 0.722309 199 213 252 
4.02402 -1.70006 0.540013 84 79 145 
3.48102 -0.841736 0.798664 128 135 181 
3.71553 -1.02335 0.604441 94 65 69 
0.149186 0.121332 1.15065 51 30 29 
3.22435 -0.988993 0.927182 68 46 58 
3.16524 -0.516676 0.560382 177 192 231 
3.13779 0.213835 0.742617 62 45 61 
3.65067 -1.17712 0.684218 185 202 245 
3.60651 -1.14211 0.670883 209 222 255 
3.74246 -1.02913 0.595814 97 70 79 
2.97162 -1.09759 1.10086 132 109 137 
4.66597 -0.941945 0.0806035 151 161 210 
3.59772 -1.63723 0.809193 90 96 154 
3.39787 -1.22605 0.833076 145 145 157 
4.65254 -0.938894 0.0829455 151 161 210 
4.35143 -1.71123 0.308733 105 78 95 
3.19822 -0.554052 0.53314 163 179 215 
3.1332 -0.395299 0.855033 130 119 97 
4.0672 -1.37578 0.497868 158 173 216 
3.42932 -1.18691 0.818145 179 191 231 
3.15489 0.213946 0.741141 57 43 56 
3.33603 -1.14344 0.875793 203 212 255 
4.61363 -0.704325 0.0892247 96 106 167 
3.77421 -1.00058 0.594347 73 71 93 
3.39337 -1.07488 0.833855 120 105 112 
3.54494 -1.26975 0.743984 110 93 112 
4.67893 -0.689942 0.0661963 188 201 245 
4.01449 -1.01031 0.488117 156 165 198 
3.51727 0.192249 0.169442 141 133 154 
4.60616 -1.63647 0.169541 95 96 161 
3.60841 -0.869763 0.731263 180 193 238 
3.50935 -0.924817 0.803753 86 87 144 
3.12891 -0.14456 0.925264 91 90 132 
4.68566 -0.661809 0.013854 124 109 142 
3.11968 0.142164 0.963563 198 207 248 
3.49976 0.191898 0.172995 138 134 151 
3.52713 -0.842532 0.76396 133 140 184 
3.63407 -1.20412 0.685773 184 198 237 
3.6625 -1.27579 0.682255 133 107 154 
3.25729 -1.08876 0.916953 80 62 104 
4.61619 -0.209684 0.0418409 136 154 194 
3.12504 -0.332125 0.583469 176 143 160 
3.55605 -1.1958 0.72366 109 90 86 
3.19623 -0.964036 0.950716 97 86 120 
3.36063 -1.11213 0.868127 176 190 237 
3.72336 -0.397532 0.461531 45 44 40 
3.06954 -0.417951 0.602813 140 136 111 
4.05238 -1.70626 0.506992 103 94 125 
3.14804 -0.602557 0.587933 159 155 182 
3.19933 -0.613439 0.522304 94 67 86 
3.27693 -0.956063 0.908602 142 138 155 
3.12995 -0.352329 0.57832 142 129 123 
4.02983 -0.791678 0.375597 177 194 238 
3.6845 -1.28192 0.680253 126 100 145 
3.11513 -0.577904 0.856554 124 120 143 
4.06313 -1.6412 0.512336 87 99 149 
3.4187 -0.806977 0.81884 210 223 255 
3.12192 -0.514284 0.816151 134 135 163 
3.09792 -0.39364 0.650091 122 117 97 
3.45338 -1.1219 0.79985 173 166 160 
3.14215 -0.584048 0.845721 70 59 76 
3.80494 -0.962187 0.592587 58 54 77 
4.0654 -1.71415 0.495568 85 69 96 
3.07422 -0.398894 0.601754 145 138 120 
3.57974 -0.940708 0.75152 147 152 192 
3.60948 -1.19771 0.688016 185 200 239 
3.2861 -1.24205 0.8928 180 206 243 
3.26276 -0.578271 0.473579 163 178 217 
3.35656 -1.00535 0.801472 173 171 182 
4.64993 -1.75743 0.133411 79 61 87 
3.50344 -1.11481 0.755157 174 175 177 
3.63842 -0.309445 0.349307 150 162 204 
4.55656 -0.863746 0.128394 167 191 237 
3.21564 -0.51889 0.500886 175 190 229 
3.54547 -1.3346 0.793038 181 199 235 
3.10089 -0.410396 0.584859 92 79 71 
3.72579 0.117679 0.407884 104 76 99 
2.99906 -0.321591 1.03334 114 124 173 
4.67959 0.0868739 -0.0461701 96 80 107 
3.1387 -0.389252 0.909056 130 119 97 
3.52034 -0.932468 0.792451 126 127 173 
3.66583 -1.29291 0.700812 169 182 226 
4.67767 0.0662219 -0.00326389 193 202 245 
3.29947 -1.08274 0.901864 154 169 208 
3.0913 -0.38801 0.641314 55 42 36 
3.11149 -0.853616 1.0421 190 196 244 
4.08992 0.116396 0.312978 105 91 117 
2.98568 0.302534 0.956921 158 141 157 
4.10526 -0.251384 0.320216 115 121 171 
3.03661 -1.02173 1.06891 121 136 179 
3.1161 -1.40674 1.08067 186 203 247 
3.14119 -0.500738 0.756032 195 213 253 
4.06831 -0.977211 0.466605 79 81 132 
3.0471 -0.717196 1.07474 207 221 255 
3.48342 -0.893063 0.798888 179 193 238 
3.16994 -0.423725 0.917066 147 118 123 
3.03284 -0.211238 1.03916 170 191 234 
4.55497 -0.746173 0.119062 177 200 242 
3.64252 -1.22229 0.679601 112 121 164 
4.60955 -0.913993 0.118346 173 181 227 
3.37771 -0.925689 0.839381 106 86 98 
3.37332 -1.09763 0.876041 136 141 161 
3.56491 -1.19907 0.73981 185 175 183 
4.08052 -0.369668 0.344583 122 124 172 
3.16644 -0.29268 0.853092 162 124 137 
3.5932 -0.860161 0.788103 168 185 229 
3.56465 -0.382057 0.298137 99 91 102 
3.04956 -0.468262 0.699498 166 130 144 
3.17831 -0.273702 0.892426 41 38 55 
3.16218 -0.379073 0.914781 30 29 37 
3.07869 -0.308157 0.977854 174 188 233 
3.02526 -0.22023 1.03982 162 181 224 
3.65671 -0.964624 0.67791 93 75 71 
3.60794 -0.788148 0.727344 196 215 255 
4.3304 -1.65924 0.314208 110 92 108 
0.396181 -0.493934 1.19136 141 133 157 
3.79978 -1.57863 0.642603 129 114 133 
4.07696 -1.69496 0.503532 143 156 198 
3.12194 0.162251 0.91652 99 74 93 
3.55015 -1.01642 0.694019 164 166 178 
4.07929 0.00362881 0.303461 113 115 163 
3.01902 -1.12214 1.08366 198 216 255 
3.58124 -0.777844 0.769124 208 224 255 
3.22378 -0.574292 0.503269 161 176 215 
3.55886 -1.36341 0.793782 168 196 235 
3.17149 -0.515118 0.547011 126 128 169 
4.37029 -1.60725 0.284033 117 105 129 
3.43824 -1.06267 0.810716 112 108 123 
3.23462 -1.00882 0.88606 162 152 163 
3.48873 -0.771331 0.816137 180 197 240 
3.14586 -0.380241 0.918882 34 31 40 
2.96304 -1.05603 1.11541 145 141 174 
3.15697 0.229539 0.328354 25 30 34 
3.07889 -0.572779 0.686084 163 162 194 
4.00609 -1.15588 0.473152 123 115 162 
3.5996 -1.49197 0.785667 171 190 233 
4.08826 0.0669128 0.295439 104 108 153 
3.16944 0.194813 0.746003 54 25 30 
3.08859 -0.44341 0.842785 92 51 57 
3.63924 -1.1379 0.685855 78 74 91 
3.16744 -1.05228 0.992268 177 189 237 
3.35993 -0.530014 0.402794 177 195 233 
3.6893 -0.95306 0.632089 161 152 145 
3.55303 -0.679856 0.748554 103 90 110 
3.7665 -1.05031 0.539776 172 186 231 
3.41798 -1.25271 0.822732 174 159 200 
3.53306 -1.00465 0.736999 154 149 155 
3.41412 -1.20191 0.829064 162 159 150 
3.55466 -0.436198 0.331843 55 45 36 
3.09135 -0.584834 0.686562 154 158 193 
3.31441 -1.01565 0.814697 172 160 172 
3.09621 -0.412501 0.652588 109 103 79 
3.11615 -0.412428 0.849287 71 42 44 
4.03842 0.090675 0.342763 133 100 127 
3.20701 -0.847271 0.941486 121 118 137 
3.51446 -0.606286 0.351193 93 97 124 
3.43629 -1.22938 0.801702 75 66 57 
3.59707 -1.66247 0.797786 156 171 214 
4.61319 -1.04413 0.112985 120 132 174 
3.16089 -0.512974 0.848429 128 124 149 
3.691 -1.67845 0.717378 134 123 153 
3.06411 -1.06009 1.04775 136 139 182 
3.11784 -0.511412 0.598377 189 160 178 
3.09946 -0.216527 0.9885 168 187 220 
3.53572 -0.434145 0.332866 55 45 36 
3.62353 -1.18917 0.701758 112 115 146 
2.93926 0.26882 0.649817 100 105 108 
3.54323 -0.988231 0.775686 101 70 75 
3.60203 -0.836587 0.723879 190 202 242 
3.14685 -0.583614 0.833998 134 145 175 
4.50102 -1.73695 0.213939 107 87 122 
3.58401 -1.14143 0.717185 175 171 168 
4.62069 -1.41497 0.139317 133 156 198 
3.67945 -1.16015 0.641465 120 109 115 
3.99192 -0.949421 0.483229 145 159 204 
3.1795 -0.156719 0.891139 84 83 114 
3.28936 -1.24705 0.928969 84 67 112 
3.13781 -0.408099 0.937333 71 48 66 
3.89363 -1.69142 0.581079 97 76 115 
4.52409 -1.10491 0.147586 167 184 227 
4.4125 -0.334768 0.122302 116 101 140 
3.14156 -0.0268523 0.884058 83 82 113 
3.51336 -1.19662 0.764699 140 134 120 
4.54421 -1.34487 0.184452 157 156 187 
3.50503 -1.25173 0.758587 156 155 150 
4.00246 -0.823452 0.474222 199 214 255 
3.38521 -1.10621 0.857901 120 116 141 
4.56166 -1.68694 0.195851 145 169 217 
3.23303 -0.868766 0.933799 182 176 180 
3.25981 -1.13436 0.920245 83 70 113 
3.51956 -0.95901 0.758567 102 75 94 
4.5944 0.0162064 0.0258881 121 143 180 
3.29199 -1.23296 0.913705 150 127 171 
3.03077 -0.828614 1.08718 198 218 255 
4.03254 -0.404476 0.376902 115 121 173 
3.11967 -0.368238 0.585788 126 108 94 
3.14473 0.233719 0.878287 71 48 64 
3.35427 -0.583308 0.407593 161 177 213 
4.58475 -0.429447 0.0220709 114 120 170 
3.17868 -0.147289 0.880941 54 50 73 
4.19029 -1.59609 0.40107 131 118 144 
3.1138 -0.271953 0.959669 105 81 105 
3.03701 0.227828 0.612435 30 36 52 
3.04855 -1.04541 1.0546 197 211 255 
3.28464 -1.18182 0.921146 168 143 185 
3.55641 -0.802521 0.771755 206 222 255 
2.8033 0.344571 0.734994 99 108 117 
3.45547 -1.01249 0.806294 111 84 89 
4.06838 -1.68992 0.434175 147 164 207 
3.6143 -1.13006 0.675136 156 186 222 
3.49394 -1.02829 0.737021 88 68 69 
3.5476 -0.328429 0.345164 77 57 84 
3.14021 -0.362325 0.93708 103 107 144 
3.12827 -0.379984 0.871916 59 49 40 
3.82957 -1.62453 0.635385 115 116 147 
3.00823 -1.13147 1.09224 121 133 183 
3.80176 -0.885614 0.586345 133 129 152 
3.34609 -0.622839 0.419138 99 73 98 
3.18359 -0.0835824 0.875934 58 56 78 
4.62169 -1.729 0.16787 111 128 172 
4.5334 -0.358983 0.0847394 173 187 234 
-0.398574 -0.041255 1.38085 86 50 64 
3.6755 -1.09907 0.65939 151 158 184 
1.80769 0.183737 0.673177 118 127 142 
3.08883 0.215659 0.464977 25 30 34 
3.05462 -0.44857 0.594787 174 150 163 
3.6206 -1.04279 0.667002 131 115 128 
3.25616 -0.898111 0.907642 179 170 187 
4.08513 -1.56477 0.491209 178 195 238 
4.1958 -1.57264 0.391512 121 124 175 
3.52625 -0.984497 0.776941 101 70 75 
3.1578 -0.564493 0.551744 109 118 157 
3.03734 -0.358646 0.792097 20 19 25 
3.06951 -0.838951 1.05667 159 173 218 
4.67899 -1.33523 0.0772313 114 115 161 
3.98159 -1.08716 0.481342 190 209 252 
3.10246 -0.439106 0.853396 157 126 132 
4.53015 -0.302484 0.0973751 95 97 145 
4.58159 -1.60411 0.173516 153 169 220 
3.02197 -0.469188 0.604546 91 66 69 
2.99485 -0.46483 0.681222 148 118 126 
4.0097 -1.33709 0.512699 171 173 214 
3.37836 -1.05658 0.866335 99 83 96 
3.49584 -1.04203 0.744755 155 153 154 
3.28123 -1.05472 0.921038 157 154 147 
3.12736 -0.383938 0.846759 72 52 51 
4.67399 -1.74043 0.138472 128 138 174 
3.14488 0.158872 0.856018 89 89 115 
3.30955 0.193605 0.67101 35 28 36 
4.55915 -0.294388 0.0791958 145 173 212 
3.12137 0.250268 0.298901 26 29 36 
3.10075 -0.586852 0.611844 175 142 161 
3.05295 0.232976 0.657672 25 34 31 
3.43251 -1.28211 0.782011 133 111 158 
3.55746 -0.803478 0.744251 180 210 248 
4.22651 -1.71568 0.394327 127 114 121 
3.01193 0.306398 0.948376 154 133 148 
4.0849 0.131183 0.292132 104 108 153 
4.18455 -1.79636 0.423307 137 145 191 
3.13284 -0.364331 0.956894 89 97 136 
3.01515 0.224287 0.557707 27 27 27 
4.23259 -1.80159 0.393675 127 132 172 
3.1382 -0.546331 0.584941 180 170 197 
3.13398 -0.584806 0.867797 99 58 66 
3.63832 -0.968441 0.665681 132 129 122 
4.03194 -1.10835 0.450205 137 150 195 
3.19773 0.0428636 0.864797 61 58 85 
3.13883 -0.414502 0.558377 76 54 56 
3.16513 -0.308252 0.841586 157 119 134 
4.43148 -1.24064 0.204617 167 184 228 
3.49713 -0.534452 0.353633 173 186 221 
3.22502 -0.978964 0.894995 97 68 73 
3.09761 -1.18196 1.02313 153 167 214 
0.38529 -0.511036 1.19747 92 72 99 
3.47639 -0.759009 0.776906 202 218 254 
4.37606 -1.65701 0.281703 110 109 140 
4.50739 -1.81281 0.212487 121 130 173 
3.29572 -1.28062 0.909202 137 118 164 
3.00138 -1.09156 1.10302 178 187 228 
3.08771 -0.475148 0.611128 89 63 64 
4.33146 -1.63684 0.315169 128 108 120 
3.61682 -1.22264 0.741117 169 174 194 
4.07979 -0.405403 0.334415 151 168 211 
2.92434 0.262443 0.592098 101 115 116 
4.08864 -1.66077 0.501737 150 167 211 
3.82325 -1.57231 0.640424 147 143 166 
4.30658 -1.71783 0.342191 115 102 112 
3.82596 -1.56107 0.633513 115 127 175 
3.59954 -0.839235 0.710977 140 123 155 
2.81195 0.305828 0.572078 106 113 123 
3.12744 -0.0692594 0.926383 159 171 211 
3.51124 -1.22299 0.789204 136 141 179 
3.19109 -0.072573 0.900365 135 139 174 
4.55603 -0.455421 0.0665944 168 185 229 
3.93798 -1.56762 0.56929 175 194 236 
3.97091 -1.06098 0.482651 164 165 195 
4.55448 -1.27163 0.18465 170 184 231 
3.27798 -1.2613 0.930638 110 89 130 
4.60281 -0.302095 0.0519306 108 121 156 
3.15903 0.198854 0.91916 134 140 176 
3.23192 -1.14327 0.936958 136 126 160 
3.28582 -1.22143 0.909892 168 145 191 
3.59562 -0.971535 0.706839 134 126 149 
4.07522 -1.01037 0.439939 130 132 155 
2.97115 0.249573 0.612757 20 20 22 
2.9832 0.250284 0.611262 20 20 22 
4.10976 -0.1747 0.321197 155 168 212 
2.86766 0.289483 0.38466 99 101 126 
3.13356 0.232277 0.895282 133 112 129 
4.04629 -1.12013 0.436417 186 203 246 
3.48026 -0.585363 0.360659 158 178 213 
4.12002 -0.412119 0.346306 112 129 173 
3.08585 -0.347562 0.609919 137 128 111 
3.12312 -0.331407 0.857314 100 87 78 
3.42862 -1.17189 0.821193 175 186 218 
4.58558 -0.363606 0.0465614 115 129 174 
3.24192 -0.572887 0.487709 116 131 174 
3.76868 -1.40706 0.654596 146 150 187 
3.56917 0.101055 0.319092 141 150 189 
4.65007 -1.04119 0.087388 143 161 199 
3.27865 -0.580725 0.452261 166 180 209 
3.11543 0.196375 0.920569 136 141 179 
3.71969 -1.65594 0.685373 149 141 152 
4.10987 -1.26304 0.435011 191 205 250 
3.00474 -0.482593 1.05578 193 206 250 
3.65908 -0.937189 0.6458 138 126 126 
2.97306 -0.395743 1.04494 137 146 187 
3.52407 -0.909197 0.795055 178 190 240 
3.09515 -0.38659 0.971486 151 160 199 
2.97086 -0.313949 1.05335 180 197 243 
3.77077 0.124838 0.417067 166 143 159 
4.59097 -1.25124 0.111743 183 201 249 
3.37001 0.0592313 0.763166 50 19 24 
3.58075 -1.24368 0.737616 158 150 148 
3.36137 -0.519606 0.408534 189 174 197 
4.09555 -1.10874 0.405592 196 215 255 
3.09767 -0.321604 0.622159 140 114 125 
4.04479 -0.331119 0.372567 163 182 224 
4.34486 -1.16343 0.292058 141 141 177 
4.63758 -1.8402 0.142251 68 54 90 
2.95849 0.275014 0.606565 8 13 17 
3.05391 -1.07784 1.06656 137 148 194 
3.11882 -0.602889 0.686364 105 74 80 
3.31751 -1.30375 0.911973 171 184 228 
3.75831 -0.289067 0.448044 149 137 159 
3.04536 0.202434 0.54006 132 115 121 
3.06461 -0.486965 0.604408 176 152 168 
2.88546 0.308485 0.323291 112 114 139 
3.08786 -0.608598 0.623629 102 67 71 
2.97831 0.246684 0.670503 106 118 140 
4.01193 -1.2837 0.475171 166 180 225 
3.12274 0.234471 0.862982 123 93 105 
3.52017 -1.27457 0.751638 151 147 174 
3.72513 0.0933659 0.318956 138 151 193 
3.17631 0.203846 0.75387 146 113 130 
4.65835 -1.29012 0.077355 182 200 246 
3.05405 -0.319519 0.997186 176 191 234 
3.85007 -0.302704 0.332984 154 168 203 
3.30517 -1.29979 0.912536 171 184 228 
3.07369 -0.399852 0.66054 58 53 59 
4.09385 -0.238592 0.328804 172 189 232 
4.21067 -1.58948 0.390418 159 155 170 
3.88016 -1.72608 0.597765 129 126 169 
3.43509 -1.11997 0.814125 149 135 160 
3.81065 -1.42251 0.63045 128 135 179 
3.88533 -0.957709 0.559609 173 190 234 
3.011 -1.03567 1.0961 183 200 246 
4.44791 -1.18739 0.276621 140 142 180 
3.17248 0.176059 0.877546 74 75 106 
3.07409 -1.27426 1.09129 153 157 186 
3.04443 -0.334447 1.01436 162 175 220 
3.62573 -1.01809 0.634669 98 66 69 
4.07788 -0.381806 0.338765 141 155 194 
3.36323 -1.06531 0.854436 122 102 101 
3.71506 -1.41134 0.677307 133 136 181 
4.19694 -0.952768 0.338226 133 139 189 
3.07592 -0.595353 0.617044 162 130 145 
2.96868 0.308341 0.226464 22 22 32 
3.8212 -0.988189 0.570877 172 186 231 
3.11366 -0.175835 0.946873 155 141 167 
4.71357 -1.15804 0.0390853 184 209 250 
4.66059 -0.420204 -0.0126996 109 115 163 
3.79834 -1.74174 0.6605 154 167 211 
2.84893 0.292939 0.425172 113 118 140 
2.93713 0.312437 0.277019 26 25 31 
3.04482 0.290351 0.232886 25 30 34 
3.02209 -0.521734 1.0303 191 206 249 
-0.141966 0.0540643 1.2514 177 165 153 
3.25586 -0.62189 0.905296 158 149 178 
3.27606 -0.972716 0.888393 114 117 134 
3.0107 -0.358567 1.0295 178 192 237 
3.79029 -1.59008 0.65314 173 168 172 
4.49398 -1.11675 0.173444 181 196 239 
3.09394 -1.01678 1.0534 158 155 186 
3.52127 -0.398577 0.308698 112 99 90 
3.07239 -0.49481 0.614029 155 127 142 
4.40958 -1.59408 0.273155 118 130 178 
3.05987 0.201314 0.95213 125 132 178 
3.74008 -1.41739 0.674888 133 136 181 
3.52625 0.128259 0.305697 140 136 133 
3.97281 -1.79675 0.561844 131 138 184 
4.65752 -1.59623 0.129147 162 178 214 
2.77423 0.340987 0.720814 98 107 116 
4.0674 -0.142059 0.370349 157 167 202 
3.66361 -0.118208 0.592885 106 112 138 
3.99972 -0.970203 0.632644 171 160 177 
3.8702 -1.71371 0.647154 135 122 129 
4.49922 -1.24514 0.161496 183 201 247 
3.9924 -1.16499 0.486669 171 190 232 
3.16243 -0.299581 0.874459 142 112 124 
3.07172 -0.211519 0.874997 123 100 110 
3.12633 -0.13367 0.931752 158 167 208 
-0.26274 -0.24466 1.40864 114 91 111 
3.17373 -0.330185 0.841789 126 109 91 
3.03877 0.225311 0.441856 117 126 143 
4.5211 -1.13119 0.145522 184 202 248 
4.05852 -1.07319 0.417241 188 209 252 
4.03511 -1.79174 0.514397 133 142 185 
3.61349 0.0880709 0.577737 88 84 117 
3.36946 -1.1632 0.857613 134 131 176 
3.23097 -0.620083 0.91148 152 148 183 
2.93387 0.264661 0.630574 84 93 108 
4.53841 -0.351279 0.0593887 154 153 184 
3.28257 -0.974834 0.911787 117 113 136 
2.90988 0.289878 0.662414 57 70 79 
4.08623 -0.150723 0.358752 116 91 123 
3.88388 -1.61238 0.614345 165 179 224 
3.1311 -0.323255 0.866661 130 122 103 
4.04656 -1.78841 0.51294 123 134 180 
3.72529 -1.19684 0.631817 165 165 201 
3.75666 -1.55184 0.658297 136 140 175 
4.60439 -1.32695 0.139171 162 175 219 
3.17759 0.0550417 0.874682 115 120 152 
4.02827 -1.27926 0.465002 173 190 236 
3.06253 -1.01703 1.05191 182 191 234 
3.06153 0.282841 0.94059 135 116 136 
2.95478 -1.14322 1.10702 190 207 251 
3.27724 -1.14932 0.903985 144 146 145 
3.0667 -1.08277 1.05955 162 176 215 
3.00849 -1.1615 1.10189 197 212 253 
3.43638 -0.608763 0.380779 99 106 135 
3.05652 0.121964 0.593836 115 92 108 
3.22902 -0.926144 0.869354 119 105 105 
3.09423 0.00751212 0.91459 132 137 175 
3.05949 0.136673 0.588866 150 135 138 
3.17616 0.227948 0.902277 121 121 149 
3.27894 -0.518063 0.44847 193 186 217 
4.33535 -1.74398 0.338664 152 171 201 
4.66699 -0.332813 -0.0224255 169 187 225 
3.78233 -0.892791 0.592076 125 130 160 
3.28487 -0.908271 0.863074 160 143 153 
3.54634 -0.378665 0.317417 96 87 78 
3.07495 -0.356425 0.985409 107 110 151 
3.97856 -1.29451 0.480341 161 159 183 
3.33755 -1.22427 0.852212 83 83 121 
3.11665 -0.842817 1.02787 143 131 167 
3.5137 -0.403074 0.328554 84 75 66 
3.22651 -1.09438 0.943654 154 147 188 
3.48155 -0.622885 0.352176 92 69 95 
3.14771 -0.261243 0.938537 153 162 203 
4.07772 0.0969831 0.310023 154 140 173 
3.53461 -1.61702 0.839563 200 215 254 
4.32861 -1.81366 0.327127 72 57 96 
3.25572 -1.09844 0.932352 146 144 183 
