ply                 
format ascii 1.0    
element vertex 1232
property float x    
property float y    
property float z    
property uchar red  
property uchar green
property uchar blue 
end_header          
-0.439716 0.264455 1.00084 43 58 51 
-0.489085 -0.161237 1.22074 90 67 83 
-0.480456 0.109069 1.19123 76 62 79 
-0.471015 -0.22617 1.2197 138 117 132 
-0.464421 -0.152012 1.20828 80 61 83 
-0.464256 -0.168898 1.21186 132 117 136 
-0.452273 -0.0148777 1.19402 88 69 88 
-0.451349 -0.096388 1.19854 124 106 130 
-0.440578 0.22901 1.16586 113 109 132 
-0.443448 -0.188252 1.20558 77 54 70 
-0.44402 -0.244504 1.21156 79 55 69 
-0.423956 0.0170632 1.17825 73 63 88 
-0.424631 -0.098695 1.18961 121 102 122 
-0.410841 0.249092 1.15224 47 46 60 
-0.413065 -0.0403191 1.18117 70 54 83 
-0.39737 -0.116928 1.18198 66 58 82 
-0.3881 0.260871 1.12722 91 84 92 
-0.393759 -0.257519 1.19612 75 63 87 
-0.387414 0.0823615 1.16016 64 49 68 
-0.383933 -0.0142701 1.17107 77 60 79 
-0.37865 0.226811 1.1427 48 37 51 
-0.379269 0.0299884 1.16213 65 51 66 
-0.348115 0.241162 1.02396 136 93 113 
-0.367665 -0.296238 1.18909 77 59 73 
-0.360933 0.102952 1.14997 45 36 41 
-0.362852 -0.104334 1.1699 72 57 76 
-0.35771 -0.226276 1.17826 71 54 73 
-0.353582 0.00986328 1.1582 56 43 61 
-0.354814 -0.257996 1.17928 92 61 76 
-0.346764 0.107068 1.14477 37 29 40 
-0.345628 0.0925454 1.1431 30 22 33 
-0.346566 -0.0365645 1.15646 121 94 109 
-0.336586 -0.2824 1.17611 85 58 73 
-0.324756 0.0440155 1.13967 59 42 50 
-0.312983 0.0889565 1.06745 149 95 111 
-0.301629 -0.227804 1.15712 91 68 88 
-0.260947 0.246524 0.77701 49 35 48 
-0.283567 0.0627938 1.0697 139 87 109 
-0.289883 -0.175251 1.14836 89 64 86 
-0.281122 -0.0657975 1.13505 79 60 79 
-0.268606 0.10594 1.05033 70 51 55 
-0.240743 -0.288307 1.14057 78 58 70 
-0.235738 -0.207105 1.13119 78 56 69 
-0.232429 -0.0326861 1.0741 78 31 39 
-0.231943 -0.0460536 1.07417 119 68 77 
-0.232972 -0.267446 1.13536 57 34 42 
-0.223021 -0.252111 1.13249 132 117 136 
-0.218276 -0.0699516 1.07065 102 55 61 
-0.20941 0.163247 0.777234 74 34 45 
-0.213465 -0.250347 1.12723 86 62 78 
-0.212373 -0.287353 1.13014 76 59 77 
-0.194174 -0.236443 1.117 50 38 58 
-0.193411 -0.0792326 1.06235 109 64 71 
-0.190704 -0.289759 1.12214 87 61 90 
-0.191458 -0.252583 1.00181 127 111 137 
-0.187724 -0.0293298 1.06155 55 28 35 
-0.180339 -0.251376 1.01234 115 65 68 
-0.174323 -0.305859 1.11709 74 58 85 
-0.168268 0.034452 1.04837 47 20 27 
-0.149429 -0.0077659 1.02038 57 24 33 
-0.144856 -0.266974 1.00854 54 16 27 
-0.136102 -0.177374 1.0077 107 70 78 
-0.136035 0.12884 0.967206 83 46 63 
-0.135172 0.115644 0.968232 82 48 64 
-0.130908 0.214422 0.738497 116 82 99 
-0.105026 0.0521788 0.986221 113 87 72 
-0.12567 0.221256 0.728882 79 46 57 
-0.0990857 -0.267565 0.995682 140 87 103 
-0.108769 -0.233308 0.869728 82 30 52 
-0.091063 0.0214731 0.967967 96 83 77 
-0.0901344 -0.267088 0.989018 143 89 102 
-0.111648 0.16464 0.739612 98 48 60 
-0.0735935 -0.131675 1.00077 129 76 86 
-0.0760749 -0.271261 0.988761 80 34 44 
-0.0728014 -0.0793031 0.992601 130 113 97 
-0.0710726 -0.0502236 0.991349 184 171 152 
-0.101559 0.200043 0.732452 101 52 71 
-0.0629976 -0.0312197 0.995322 133 105 84 
-0.0714071 0.14136 0.910307 141 107 121 
-0.0596531 -0.118498 0.99708 50 21 23 
-0.0445754 -0.281267 1.09164 49 24 27 
-0.064191 0.150474 0.923725 63 47 57 
-0.0425855 0.0540495 0.962812 52 30 33 
-0.0258636 -0.00921127 0.974538 67 30 38 
-0.0237194 0.100887 0.943343 104 62 74 
-0.0648797 0.160177 0.722241 83 47 61 
-0.0158617 0.00654657 0.967769 62 35 44 
-0.0136697 0.0518788 0.96468 64 32 43 
-0.0549731 0.128236 0.71188 116 63 71 
-0.00485612 -0.177229 0.95497 69 30 33 
0.37575 -0.402511 2.70266 54 23 21 
0.0049957 -0.0399395 0.964629 56 25 33 
0.00486973 0.0185164 0.960033 54 18 30 
-0.0391943 0.213461 0.716581 129 97 118 
0.0235648 0.0984035 0.934783 70 49 58 
0.0360226 -0.15332 0.981366 99 59 67 
0.058871 -0.321944 1.02877 104 69 91 
0.0506495 0.0187336 0.95686 123 70 78 
0.0553593 0.101195 0.938406 100 59 67 
0.10167 0.00917265 0.950246 72 40 55 
0.100022 0.038863 0.933661 139 85 101 
0.109131 -0.00235373 0.941425 110 63 71 
0.150568 -0.312288 0.9954 92 74 98 
0.179177 -0.223099 0.976259 86 71 92 
0.156356 0.0505517 0.902638 81 50 65 
0.142535 0.183042 0.85517 62 34 46 
0.218979 0.0884434 0.930154 146 122 138 
0.260008 -0.2618 0.949311 89 66 82 
0.264875 -0.0451668 0.928351 67 43 59 
0.279883 0.0151547 0.915921 89 65 79 
0.287863 0.192364 0.894305 84 65 85 
0.291044 0.0382044 0.906907 145 122 132 
0.306908 -0.237134 0.929819 61 49 73 
0.307427 0.133191 0.892996 62 48 63 
0.317986 0.160559 0.887798 78 63 82 
0.368113 -0.27815 0.966297 46 31 54 
0.359513 -0.243639 0.908696 85 73 93 
0.3621 -0.0252325 0.886619 138 117 134 
0.36492 0.208043 0.874904 143 121 134 
0.384661 0.126269 0.863843 90 67 83 
-0.466989 0.18563 1.17844 124 116 139 
-0.462767 0.248108 1.16884 71 64 82 
-0.466408 -0.0901115 1.20351 128 113 136 
-0.415066 0.0542878 1.17364 64 49 68 
-0.407907 -0.166344 1.18921 71 53 65 
-0.403864 -0.0101481 1.17384 127 113 136 
-0.38271 0.195361 1.14869 43 38 45 
-0.382695 -0.154158 1.17671 81 59 72 
-0.369951 0.119556 1.14929 46 32 45 
-0.366005 0.171148 1.14163 51 39 53 
-0.359615 0.248257 1.13141 41 39 52 
-0.356227 0.0572841 1.14934 111 97 114 
-0.341228 0.133844 1.13697 100 79 86 
-0.334638 0.00908611 1.14696 56 43 53 
-0.333788 -0.012629 1.14796 117 103 129 
-0.328109 0.198788 1.02739 38 26 30 
-0.321058 0.00690021 1.14307 105 94 110 
-0.316786 0.238037 1.01717 50 39 47 
-0.300131 -0.154072 1.14928 86 63 79 
-0.300187 -0.19074 1.15247 66 48 62 
-0.300276 0.22495 1.0162 25 21 22 
-0.297664 0.103729 1.02846 79 53 54 
-0.296711 0.237822 1.00979 54 35 41 
-0.283871 -0.164938 1.14409 125 107 123 
-0.289582 0.199333 1.01425 43 21 23 
-0.267379 -0.1891 1.1403 94 61 80 
-0.301294 0.249555 0.802825 102 103 123 
-0.273338 0.142542 1.01718 67 35 46 
-0.25966 -0.0673297 1.12676 71 54 70 
-0.249877 -0.191503 1.13334 82 56 67 
-0.235911 -0.22248 1.13078 97 66 82 
-0.2161 -0.238339 1.12422 91 62 80 
-0.163419 -0.0735586 1.01177 107 68 86 
-0.148042 -0.0474388 1.01957 103 72 90 
0.346622 0.0457704 1.46527 40 20 22 
0.275114 0.0832964 0.913533 56 38 50 
0.310084 -0.329811 0.938134 74 60 85 
-0.22494 0.215927 0.826949 91 52 71 
0.0413879 0.116921 0.825239 59 33 42 
0.352748 0.140583 0.875612 133 112 127 
-0.200301 -0.128912 0.636465 98 85 95 
-0.16953 0.229832 0.670782 44 35 54 
-0.282739 -0.245215 1.15218 75 51 64 
-0.138025 -0.0743482 1.00271 108 66 80 
-0.032891 -0.229669 1.24853 59 23 27 
0.1635 -0.300132 1.91437 53 23 21 
0.345124 -0.331669 0.922221 134 116 140 
0.388866 -0.321626 0.904099 88 66 87 
-0.470096 0.015858 1.19637 66 53 73 
-0.46752 -0.0604488 1.20092 122 103 123 
-0.449921 -0.0785765 1.19609 79 63 90 
-0.431783 0.247863 1.16037 63 53 62 
-0.432329 -0.207682 1.20402 62 47 66 
-0.383328 -0.191472 1.18087 72 49 59 
-0.337093 0.145561 1.03998 128 81 97 
-0.328223 0.2165 1.0262 35 25 26 
-0.220377 0.130426 0.774093 106 58 70 
-0.160575 -0.250873 1.00206 122 69 77 
-0.155334 0.247087 0.721352 227 233 255 
-0.130819 0.0235211 1.01187 69 39 49 
-0.0508295 0.141607 0.934 89 62 67 
-0.0284469 -0.217324 0.974231 113 81 104 
0.077168 -0.0351407 1.42843 74 44 56 
0.0971849 -0.06271 1.42175 129 73 86 
0.16435 -0.219339 0.982233 96 71 92 
0.184483 -0.304207 0.981342 113 82 98 
0.26312 0.0837332 0.916713 38 30 41 
0.288726 -0.134575 0.925456 83 71 91 
-0.490245 0.111217 1.19426 127 119 143 
-0.491289 -0.241747 1.22672 90 65 86 
-0.487396 -0.199326 1.22261 85 62 80 
-0.481315 0.180023 1.18413 114 108 136 
-0.471716 -0.0246769 1.20162 65 55 79 
-0.458309 0.0814752 1.18638 61 53 68 
-0.45885 -0.0546256 1.19806 89 73 102 
-0.440465 -0.126316 1.19787 98 90 114 
-0.410163 -0.1913 1.19249 80 53 60 
-0.384208 -0.244467 1.19098 84 56 71 
-0.371257 0.161961 1.14727 45 39 51 
-0.370218 0.0760008 1.15647 69 56 74 
-0.362768 0.189829 1.14442 35 26 31 
-0.358462 0.162815 1.1438 26 20 24 
-0.354361 0.18821 1.13635 42 29 36 
-0.348602 0.046574 1.15001 40 28 32 
-0.348046 0.116018 1.14088 95 87 100 
-0.343508 -0.204016 1.17048 87 64 82 
-0.340333 0.23691 1.03045 138 95 115 
-0.330366 -0.251999 1.17066 78 63 82 
-0.315003 0.220079 1.02322 40 31 32 
-0.301226 0.154073 1.01278 69 42 49 
-0.292066 0.0108927 1.12476 82 39 46 
-0.295578 0.106098 1.04897 79 53 54 
-0.299369 0.265821 0.988763 90 98 119 
-0.294378 0.148956 1.02399 79 54 57 
-0.276153 0.0275232 1.0827 66 28 27 
-0.260188 0.0262556 1.07818 109 60 66 
-0.250525 -0.0331426 1.06683 81 38 55 
-0.274426 0.20834 0.829239 53 32 37 
-0.226292 -0.0591079 1.07476 66 24 28 
-0.220574 -0.146184 1.06044 97 57 65 
-0.210789 0.0267737 1.06303 58 23 27 
-0.198451 -0.250633 1.1234 75 51 77 
-0.193401 -0.15683 1.05261 120 66 79 
-0.179402 -0.179512 1.04898 118 70 86 
-0.172888 -0.077939 1.0598 46 23 31 
-0.166688 -0.0905516 1.05902 69 33 33 
-0.165085 0.00379474 1.04974 56 29 38 
-0.165639 0.0629022 1.04245 48 25 31 
-0.16214 -0.0283041 1.05035 48 27 34 
-0.147454 -0.0827528 1.02133 126 83 102 
-0.141522 0.00993882 1.01554 58 30 42 
-0.143074 -0.155032 1.00655 79 34 41 
-0.137387 0.102838 0.9848 82 50 55 
-0.119327 0.110299 0.964111 70 42 57 
-0.102452 -0.215359 1.00265 112 80 103 
-0.0965791 0.040802 0.968087 133 113 89 
-0.075837 -0.0726165 1.01441 106 86 62 
-0.101674 0.143884 0.89268 79 56 66 
-0.012973 -0.0878243 1.12795 57 27 27 
-0.0443415 -0.179097 0.974487 66 31 35 
-0.125861 0.202971 0.742815 93 58 80 
-0.123034 0.162705 0.745516 78 42 54 
-0.0171486 -0.218568 0.970546 136 85 104 
-0.0185773 -0.175846 0.962251 62 31 36 
-0.0259525 0.140117 0.92559 145 94 111 
-0.0231216 -0.260412 0.949586 62 30 33 
0.00572899 0.0697689 0.956832 85 48 66 
0.0569551 -0.115825 0.971799 117 81 95 
0.0609367 -0.0595857 0.960354 131 79 92 
-0.0630978 0.231879 0.709131 103 61 73 
0.171265 -0.16042 0.97194 99 72 89 
0.118941 0.128343 0.872174 91 57 71 
0.142986 0.0837369 0.892518 156 102 116 
0.172174 0.151238 0.843703 65 35 35 
0.275766 -0.302351 0.944937 123 110 127 
0.28479 0.0538921 0.90987 85 61 74 
0.28349 0.175565 0.899499 59 45 62 
0.297909 -0.0537429 0.914196 99 72 87 
0.369703 -0.316661 0.911965 89 71 97 
0.365602 -0.113847 0.893889 91 67 81 
0.357739 0.190871 0.869011 93 68 90 
0.371028 0.156746 0.86711 83 62 79 
0.407613 0.227629 0.838424 135 128 146 
-0.47354 0.265613 1.15544 56 54 59 
-0.464512 0.228527 1.17783 117 113 130 
-0.43388 -0.10233 1.19203 86 75 105 
-0.433085 0.274504 1.13902 46 40 52 
-0.42796 0.253624 1.14899 83 74 95 
-0.422634 0.163755 1.16251 79 67 87 
-0.421049 -0.146462 1.19079 86 67 95 
-0.405042 0.23035 1.15066 118 99 118 
-0.387294 -0.0838176 1.17362 95 67 92 
-0.38233 0.215237 1.14474 61 45 56 
-0.379031 0.123798 1.15195 120 101 120 
-0.379156 0.00836849 1.16208 134 119 138 
-0.364155 0.258095 1.11957 115 99 112 
-0.357891 0.0755847 1.14985 71 55 66 
-0.348636 0.163882 1.13798 83 79 93 
-0.348283 0.259619 1.11131 90 80 89 
-0.344176 -0.0839687 1.15803 96 66 78 
-0.340753 0.249406 1.121 54 43 60 
-0.331301 0.131317 1.1323 56 35 44 
-0.331458 -0.0345019 1.14777 138 114 128 
-0.325311 0.0251741 1.14245 50 34 44 
-0.322604 -0.00970255 1.14444 78 54 78 
-0.320982 -0.0326819 1.14502 141 123 137 
-0.335686 0.246857 1.01597 107 84 90 
-0.306828 0.0465863 1.13241 86 70 83 
-0.322593 0.14959 1.03311 71 50 57 
-0.286418 -0.150352 1.14211 95 62 79 
-0.276896 -0.0986692 1.13463 93 64 84 
-0.243307 -0.0671032 1.12007 127 120 138 
-0.2375 -0.189911 1.12725 87 64 74 
-0.23444 -0.162893 1.12596 85 60 81 
-0.232696 -0.100622 1.11904 50 37 46 
-0.227872 -0.130868 1.1207 58 38 49 
-0.227249 -0.186239 1.12437 81 66 89 
-0.232229 0.137074 1.00192 107 62 83 
-0.288827 0.222541 0.846176 71 52 58 
-0.268012 0.196249 0.812827 122 78 91 
-0.117951 0.0796577 0.997203 95 44 51 
-0.160436 0.164867 0.758597 85 52 63 
0.801853 0.0990649 1.84966 64 31 42 
0.0484045 0.129849 0.899333 99 60 81 
0.0867945 -0.0833335 0.949265 79 39 40 
0.0999939 -0.0335256 0.950638 76 35 49 
0.10383 -0.0165168 0.946541 130 79 88 
0.0823835 0.11772 0.88814 147 94 114 
0.199696 -0.326501 0.979639 89 61 86 
0.308177 0.0213985 0.907707 134 113 132 
0.340256 0.0220692 0.89378 157 134 152 
0.352679 0.0994848 0.882472 105 78 95 
0.411765 -0.338021 0.902453 81 65 101 
0.292823 -0.0129993 0.773857 85 85 135 
0.325189 -0.0129615 0.759064 192 211 253 
-0.42011 0.240194 0.792016 120 137 145 
-0.729741 -0.40753 1.25068 135 116 136 
-0.725791 -0.464767 1.25919 111 122 168 
-0.724081 -0.40676 1.25978 164 172 219 
-0.606362 0.0617317 1.2 33 48 77 
-0.599196 0.221293 1.19355 76 86 113 
-0.597197 0.137228 1.19924 93 108 141 
-0.597578 0.1213 1.20078 97 108 138 
-0.596093 0.0926001 1.20279 96 102 134 
-0.598031 0.0351241 1.20737 32 42 69 
-0.595704 0.0582021 1.20657 90 98 135 
-0.592947 -0.121386 1.2214 99 108 149 
-0.589896 -0.108174 1.22268 126 134 173 
-0.594172 -0.277088 1.23228 41 48 77 
-0.589745 -0.267117 1.23265 47 53 89 
-0.589803 -0.373055 1.24158 109 121 159 
-0.587385 -0.486562 1.25015 96 101 139 
-0.525018 0.150968 1.18191 102 93 114 
-0.221038 0.184152 0.760743 65 36 54 
-0.524006 0.0611395 1.18728 94 97 132 
-0.523177 0.076432 1.18754 103 89 112 
-0.522305 -0.0238444 1.19462 69 72 113 
-0.520613 0.010575 1.19173 114 95 114 
-0.517315 -0.10175 1.19927 109 86 112 
-0.517463 -0.12738 1.20305 100 83 102 
-0.50718 -0.125845 1.20002 100 79 96 
-0.515822 -0.337353 1.22082 79 77 116 
-0.511766 -0.348508 1.21944 111 93 119 
-0.514422 -0.400056 1.22502 93 98 140 
-0.510124 -0.316124 1.21703 105 85 112 
-0.497705 -0.120966 1.19581 66 53 70 
-0.182435 0.216088 0.733052 63 37 50 
-0.509784 -0.437533 1.22668 104 86 112 
-0.513259 -0.513774 1.235 116 125 168 
-0.509362 -0.476086 1.23046 118 95 123 
-0.473996 0.0840708 1.16521 81 64 83 
-0.183029 0.181073 0.745574 77 54 72 
-0.183559 0.169839 0.747822 62 31 46 
-0.166583 0.21615 0.726645 68 44 57 
-0.461614 -0.032319 1.17219 67 57 84 
-0.472159 -0.397942 1.20936 91 65 78 
-0.162601 0.179814 0.736193 73 45 60 
-0.136974 0.234749 0.698998 66 74 113 
-0.430593 0.0797758 1.15139 60 51 70 
-0.444808 -0.34136 1.19401 80 65 88 
-0.419487 0.0532448 1.14743 73 59 82 
-0.431729 -0.305682 1.18567 82 64 86 
-0.40898 0.107344 1.13814 96 95 129 
-0.438188 -0.367379 1.19821 126 108 124 
-0.433644 -0.360654 1.19234 59 38 57 
-0.434223 -0.398379 1.19521 70 53 72 
-0.415654 -0.18287 1.16776 66 46 58 
-0.427964 -0.488136 1.20156 84 69 88 
-0.140421 0.191617 0.73048 81 47 64 
-0.416254 -0.400582 1.18801 88 64 88 
-0.384577 -0.0122122 1.1368 64 50 65 
-0.396915 -0.359081 1.17645 64 50 65 
-0.29738 0.128789 1.00286 55 29 40 
-0.39131 -0.33394 1.17362 76 62 75 
-0.393373 -0.431255 1.18322 130 116 129 
-0.393001 -0.461227 1.18551 82 58 80 
-0.377726 -0.239267 1.16027 77 56 71 
-0.380482 -0.360857 1.1705 72 51 70 
-0.383385 -0.463538 1.18425 84 62 83 
-0.346505 0.0386143 1.11194 109 90 109 
-0.232294 0.150455 0.923912 89 57 68 
-0.287072 -0.014147 1.0266 61 21 29 
-0.363183 -0.385239 1.16782 69 54 73 
-0.363794 -0.46149 1.17297 87 62 81 
-0.258892 0.115416 0.97903 63 46 52 
-0.261606 0.108334 0.985458 120 77 94 
-0.354859 -0.361103 1.16102 84 57 76 
-0.355883 -0.422089 1.16714 134 117 136 
-0.349756 -0.335595 1.15728 77 50 67 
-0.280122 -0.025257 1.02962 144 90 113 
-0.0941282 0.17092 0.713263 74 42 63 
-0.264866 0.0906187 1.01676 140 92 104 
-0.328897 -0.237716 1.14242 80 61 81 
-0.330351 -0.360589 1.15025 86 59 76 
-0.273354 0.00165583 1.0397 40 19 18 
-0.268022 0.077056 1.03138 138 94 107 
-0.330726 -0.457091 1.16048 128 113 132 
-0.222671 0.156472 0.950963 47 69 116 
-0.327351 -0.383298 1.15385 86 61 82 
-0.307819 -0.0646741 1.11736 78 55 71 
-0.229122 0.127591 0.977607 66 32 46 
-0.261121 0.0899204 1.03707 79 35 50 
-0.310582 -0.381982 1.14454 84 61 81 
-0.312602 -0.365604 1.14881 70 52 64 
-0.311171 -0.411518 1.14936 73 52 67 
-0.210609 0.10738 0.967004 130 82 104 
-0.296232 -0.363047 1.14023 78 59 78 
-0.296127 -0.411628 1.14424 82 61 80 
-0.296708 -0.435078 1.14796 80 58 71 
-0.287886 -0.336272 1.13322 78 56 69 
-0.0482808 0.212165 0.680621 73 42 50 
-0.285731 -0.43588 1.14341 75 51 67 
-0.0551409 0.166643 0.698271 80 38 52 
-0.280566 -0.403273 1.138 86 61 82 
-0.277813 -0.362502 1.13176 71 55 68 
-0.187999 0.135443 0.96058 94 50 67 
-0.222443 0.0494967 1.02976 65 26 31 
-0.210571 -0.174193 1.02043 78 29 35 
-0.261364 -0.393324 1.12819 78 60 76 
-0.221855 0.0547162 1.03918 46 20 23 
-0.196896 -0.245579 1.00743 67 32 36 
-0.253161 -0.435295 1.13002 76 48 71 
-0.0379939 0.205147 0.693114 170 122 148 
-0.217324 0.017926 1.04292 70 29 43 
-0.207474 -0.0758805 1.03085 82 43 46 
-0.185152 -0.234931 0.999222 50 31 35 
-0.211664 0.0636018 1.03699 67 27 35 
-0.172041 -0.25288 0.97705 83 39 52 
-0.237825 -0.355797 1.11595 80 66 89 
-0.153853 0.149353 0.931078 82 52 64 
-0.236118 -0.365462 1.11584 78 56 69 
-0.228784 -0.433139 1.11603 82 58 71 
-0.226604 -0.312273 1.10861 70 47 63 
-0.212725 -0.395281 1.09954 120 106 131 
-0.173106 -0.199499 1.01269 60 29 34 
-0.216937 -0.385306 1.10956 72 57 78 
-0.177768 0.00620478 1.02463 84 42 52 
-0.204506 -0.405844 1.10939 84 59 81 
-0.0180066 0.181615 0.703985 86 53 74 
-0.198655 -0.367674 1.10216 70 53 71 
-0.196458 -0.342606 1.10108 63 46 64 
-0.196993 -0.432449 1.10861 79 57 78 
-0.194766 -0.409315 1.10555 135 118 137 
-0.130642 -0.170294 0.971079 100 64 76 
-0.185704 -0.402307 1.10006 129 114 135 
-0.0112774 0.190042 0.707837 88 53 75 
-0.182083 -0.385478 1.09751 130 116 139 
-0.0105547 0.171147 0.709501 105 54 73 
-0.115392 0.127828 0.933727 75 43 56 
-0.134111 -0.00624812 0.987262 111 66 73 
-0.125691 -0.311961 0.990897 141 90 107 
-0.172121 -0.365541 1.09314 74 60 85 
-0.167067 -0.406834 1.09414 78 58 69 
-0.162596 -0.368371 1.087 71 52 71 
-0.117996 -0.320198 0.989158 55 32 42 
-0.000457523 0.195099 0.71182 78 51 66 
-0.116586 -0.125711 0.982187 26 14 14 
-0.00108462 0.15445 0.715782 82 49 68 
-0.115776 -0.00676484 0.980137 110 64 74 
0.0019217 0.171637 0.714752 105 54 73 
-0.0930205 0.123855 0.925921 79 43 57 
-0.111396 -0.0890495 0.985237 119 63 72 
-0.147859 -0.406249 1.08567 84 61 77 
0.00614916 0.208346 0.71017 118 79 100 
-0.14541 -0.389597 1.08269 53 39 56 
-0.0984541 -0.306239 0.97478 131 73 88 
-0.0823723 0.109161 0.920371 73 41 54 
-0.140829 -0.373551 1.08096 58 46 68 
-0.0955571 -0.0757915 0.964339 53 25 24 
0.0134606 0.215299 0.705976 100 59 75 
-0.0760615 -0.295473 0.944143 74 35 38 
0.004533 0.124112 0.737733 73 53 65 
0.013517 0.190682 0.71927 92 58 75 
-0.12738 -0.369078 1.07587 66 52 67 
-0.0838455 -0.32342 0.974858 148 98 110 
-0.0777374 0.047117 0.942169 31 20 18 
-0.0675504 -0.287685 0.94216 117 66 75 
-0.0761225 0.0134149 0.946988 78 39 40 
-0.117899 -0.389516 1.07551 120 111 132 
-0.118332 -0.407998 1.07836 80 62 76 
-0.0593318 0.0428428 0.924216 36 22 22 
-0.109157 -0.405673 1.0709 80 59 74 
-0.0763488 -0.05063 0.97242 117 100 92 
-0.105877 -0.390994 1.06785 76 53 69 
-0.0526792 0.0383057 0.930019 174 162 148 
-0.0617959 -0.0668147 0.962439 134 116 92 
-0.0585328 0.0119958 0.959821 171 154 124 
-0.0863682 -0.390554 1.06069 71 48 68 
-0.0509743 -0.0163816 0.952324 188 177 155 
-0.0436681 0.0529709 0.930091 32 17 24 
-0.0550243 -0.0534508 0.966003 61 33 32 
-0.0384953 -0.17303 0.933811 61 31 31 
-0.0457881 -0.324105 0.966938 143 92 109 
-0.049842 -0.07507 0.960224 21 10 14 
-0.0719557 -0.385428 1.04334 52 28 44 
-0.0460553 -0.0238367 0.958358 139 123 110 
-0.0669753 -0.393798 1.03773 192 195 202 
-0.0329583 0.044743 0.928667 206 202 191 
0.0408105 0.146409 0.738726 66 34 35 
-0.0657052 -0.367768 1.04895 56 34 55 
-0.0567079 -0.373452 1.03277 155 143 121 
-0.0317826 -0.299181 0.966062 78 35 42 
-0.0329333 -0.107115 0.956456 54 22 33 
-0.0322374 -0.308923 0.970146 142 88 111 
0.0424033 0.158317 0.747648 77 44 61 
-0.0263461 0.047172 0.935701 167 156 136 
-0.047472 -0.389767 1.03044 60 63 68 
0.0435126 0.169005 0.752258 79 47 68 
-0.0227554 0.0584199 0.935204 73 33 34 
-0.00937577 -0.241299 0.923632 45 20 23 
-0.0182035 -0.327919 0.953984 154 111 128 
-0.0192852 -0.295076 0.95906 80 39 53 
-0.0379237 -0.384771 1.02499 55 97 113 
-0.0387037 -0.369467 1.02959 38 24 24 
-0.00720076 -0.112405 0.926797 67 31 31 
0.000479513 0.107552 0.891904 63 37 50 
0.000802954 -0.147381 0.916702 148 94 110 
-0.00940676 -0.292342 0.956388 103 48 54 
0.000288776 -0.214505 0.924104 114 68 78 
-0.0281879 -0.385607 1.02291 147 134 125 
0.00760262 -0.199364 0.921122 110 66 79 
0.00714572 -0.143551 0.924015 133 81 94 
0.0519661 0.188229 0.773601 76 45 61 
0.00651638 -0.128115 0.9311 27 13 12 
0.00623845 0.0480872 0.928339 131 78 88 
0.0542757 0.196623 0.781646 77 44 63 
0.0111296 -0.0907447 0.929366 125 69 82 
0.0103136 -0.152096 0.93822 61 25 29 
0.017082 -0.0786742 0.918305 54 22 23 
-0.0123599 -0.370735 1.02772 117 95 108 
0.013248 -0.167351 0.938978 54 24 26 
0.0633089 0.231926 0.771466 80 64 75 
0.0212472 0.0837495 0.908235 154 101 117 
0.0589949 0.175877 0.792486 95 48 66 
0.0598502 0.161909 0.79553 73 42 58 
0.0366238 0.129346 0.874341 79 48 64 
0.00112735 -0.365115 1.02538 136 117 139 
0.0353264 -0.245722 0.913108 96 55 63 
0.0308069 -0.279272 0.942029 147 92 111 
0.0264901 -0.0658853 0.944613 47 18 20 
0.0190861 -0.37002 1.01664 82 59 77 
0.0691409 0.164953 0.821774 72 41 57 
0.0362068 -0.084194 0.950221 59 29 39 
0.0458146 -0.190621 0.931157 67 29 40 
0.0697721 0.176616 0.823393 69 37 52 
0.0392714 0.0266871 0.939227 68 36 47 
-0.141245 0.18208 1.50291 133 85 101 
0.0288095 -0.371798 1.01505 127 112 131 
0.0289947 -0.333232 1.01138 93 69 93 
0.0398691 -0.00290304 0.944767 56 25 31 
0.0293922 -0.32079 1.00985 78 52 77 
0.0484166 -0.213685 0.943262 72 30 42 
0.055192 -0.169973 0.925467 134 83 98 
0.0788761 0.225571 0.815363 73 50 58 
0.0749337 0.181404 0.834492 71 38 49 
0.0773486 0.218984 0.826971 95 70 89 
0.0538247 0.0584066 0.933068 67 32 38 
0.0453421 -0.316146 1.00095 93 63 75 
0.0448467 -0.35051 1.00697 93 71 92 
0.0640175 0.016694 0.916098 88 41 57 
0.0687684 -0.245359 0.932572 105 64 78 
-1.18196 0.679299 5.11352 95 52 71 
0.0888987 0.235487 0.819546 48 47 53 
0.0533479 -0.370764 1.00597 80 55 77 
0.0632654 0.048795 0.929303 70 37 46 
0.0624674 -0.283528 0.994302 79 55 77 
0.0854101 -0.141385 0.905326 58 24 25 
0.0960716 0.226307 0.829071 57 34 42 
0.0751248 -0.0183265 0.932773 58 31 38 
0.0685083 -0.294946 0.99241 102 71 86 
0.0761785 -0.345662 0.996786 80 58 71 
0.104232 0.179825 0.84141 51 42 45 
0.079893 -0.283106 0.98897 93 65 88 
0.0833868 -0.238994 0.975511 37 20 26 
0.106107 0.127866 0.847067 75 44 59 
0.106532 0.199683 0.838411 56 33 39 
0.0925557 -0.0148951 0.923481 57 31 40 
0.0906193 -0.345614 0.989853 86 59 74 
0.0992689 0.0222345 0.91955 52 19 28 
0.120883 0.21938 0.826932 105 69 83 
0.11804 0.0907555 0.854746 85 58 67 
0.099301 -0.316225 0.984283 125 117 140 
0.128847 0.20603 0.829624 74 40 54 
0.129974 0.165604 0.833481 65 34 49 
0.111545 -0.3151 0.976543 85 76 93 
0.111495 -0.199499 0.966231 87 59 71 
0.120031 0.0553059 0.909118 58 26 31 
0.128674 -0.0284336 0.88793 133 82 99 
0.11915 -0.349814 0.980039 77 55 68 
0.128549 -0.347538 0.975044 88 59 81 
0.130686 -0.318629 0.970726 94 65 85 
0.13839 -0.342645 0.970472 76 57 85 
0.137132 -0.201293 0.95715 88 57 73 
0.158453 0.151247 0.815369 82 46 46 
0.145434 -0.319933 0.966682 95 72 92 
0.161514 0.0260707 0.87004 138 89 108 
0.173405 0.218794 0.799354 169 121 145 
0.166536 0.00339986 0.875412 62 27 31 
0.161571 -0.318899 0.960358 59 42 58 
0.173131 0.11723 0.833309 54 28 37 
0.167826 -0.335706 0.958256 127 111 137 
0.177369 0.243731 0.804171 56 53 60 
0.175729 0.100957 0.841652 41 30 34 
0.174177 -0.319031 0.954282 102 70 85 
0.177626 -0.335738 0.953798 97 65 86 
0.176675 -0.104102 0.935235 83 60 78 
0.186937 -0.317264 0.951237 131 119 143 
0.185961 -0.134203 0.933256 132 120 144 
0.190643 0.121566 0.881975 71 35 45 
0.197847 -0.206064 0.93401 89 65 79 
0.196872 -0.043028 0.919579 75 48 63 
0.19675 0.0857554 0.908979 128 115 141 
0.198624 0.0960756 0.905723 85 55 67 
0.221552 0.242946 0.729062 166 178 202 
0.208908 -0.212864 0.930857 88 63 84 
0.213508 -0.320222 0.9391 82 54 68 
0.201674 0.21707 0.892654 52 48 63 
0.203794 0.232745 0.875146 61 58 69 
0.205565 0.152682 0.895304 65 34 39 
0.208776 0.0309919 0.909712 78 60 76 
0.208834 0.0790329 0.902843 72 50 62 
0.209363 0.0962634 0.901501 69 50 70 
0.215187 -0.0450792 0.912459 136 106 116 
0.223197 -0.322738 0.937671 126 118 139 
0.220743 0.196385 0.888183 93 78 97 
0.235089 -0.321953 0.931003 78 57 76 
0.22504 0.0862248 0.895745 148 120 135 
0.224949 0.125985 0.893246 110 103 119 
0.230535 0.187425 0.885181 83 58 80 
0.243062 -0.203671 0.912725 85 64 73 
0.246873 -0.286096 0.923787 81 57 79 
0.239426 0.088422 0.890722 139 115 128 
0.238338 0.205808 0.882263 101 92 109 
0.244667 0.028466 0.89532 86 65 84 
0.247222 -0.0256716 0.898168 136 113 129 
0.249613 -0.0721478 0.902882 130 112 138 
0.244986 0.253069 0.851263 107 121 134 
0.247926 0.191108 0.877674 118 95 115 
0.260404 -0.213452 0.910822 124 105 124 
0.263856 -0.0929678 0.899085 76 55 72 
0.256117 0.198514 0.872629 120 101 121 
0.271753 -0.253798 0.912232 79 62 81 
0.278567 -0.262184 0.908395 101 73 88 
0.266984 0.161187 0.873355 129 114 133 
0.285326 -0.202004 0.898178 59 47 61 
0.27648 0.200643 0.863285 49 33 46 
0.28603 -0.0696218 0.889189 71 56 77 
0.287537 -0.107952 0.889993 75 57 73 
0.282306 0.0849558 0.874875 126 105 122 
0.287743 0.0281747 0.878725 84 60 84 
0.287295 0.155919 0.866031 142 121 138 
0.29051 0.211092 0.859228 127 112 135 
0.307615 -0.107616 0.884586 59 36 56 
0.30382 0.122118 0.862489 66 53 70 
0.302244 0.202451 0.854527 48 34 49 
0.308722 0.074291 0.86437 139 113 124 
0.304436 0.231583 0.833858 72 66 80 
0.323278 0.0761269 0.86003 83 60 68 
0.330259 -0.103308 0.873428 120 97 117 
0.325518 0.194361 0.846286 92 67 86 
0.350302 -0.262177 0.880214 88 61 76 
0.339274 0.051079 0.855992 89 66 86 
0.345258 0.0899915 0.849471 87 63 77 
0.353038 -0.0448284 0.861026 34 29 36 
0.3516 0.0461854 0.849288 85 69 82 
0.356097 0.0293314 0.85194 136 119 135 
0.359414 -0.00715119 0.854356 64 48 61 
0.364088 0.113589 0.840341 71 57 74 
0.379872 -0.0411207 0.847354 140 117 133 
0.384567 -0.0102845 0.843675 134 111 129 
0.374558 0.232959 0.802728 17 19 42 
0.387148 0.135619 0.828341 125 101 114 
0.391346 0.0498146 0.835824 79 53 66 
0.394063 0.16839 0.821899 123 99 113 
0.389858 0.254503 0.796481 59 60 64 
0.391905 0.231775 0.798588 164 183 252 
0.434463 -0.242538 0.925856 24 19 23 
0.430665 -0.155113 0.909431 88 84 107 
0.445087 -0.278307 0.927711 56 43 60 
0.410438 0.229151 0.794995 61 61 73 
0.421184 0.217199 0.866883 41 37 51 
0.459517 -0.291644 0.932898 57 62 94 
0.456185 -0.208556 0.927139 98 118 143 
0.43685 0.215573 0.861233 16 15 23 
0.457217 0.0107395 0.905316 64 68 103 
0.470947 -0.176586 0.934479 110 122 164 
0.470305 -0.117003 0.926658 150 170 207 
0.457813 0.217551 0.883843 78 99 130 
0.461742 0.188129 0.879212 144 168 202 
0.481112 -0.110561 0.917627 164 183 223 
0.478756 -0.0167171 0.920495 106 114 163 
0.475438 0.0652476 0.908406 117 131 180 
0.479538 0.0107985 0.91702 115 119 166 
0.484054 -0.100564 0.913915 119 131 179 
0.486919 0.0665916 0.909021 106 116 165 
0.601407 -0.304435 1.15328 39 43 68 
-0.619527 0.22245 1.21372 23 28 48 
-0.61696 0.237421 1.21565 72 79 107 
-0.609604 0.266223 1.20631 119 107 127 
-0.621909 0.098167 1.22612 32 35 54 
-0.616391 0.139868 1.22415 93 108 141 
-0.61583 0.123402 1.22449 97 108 138 
-0.541476 0.153681 1.20472 102 93 114 
-0.540227 0.0777291 1.21133 103 89 112 
-0.535021 -0.233366 1.23834 118 103 126 
-0.52272 -0.187719 1.2354 113 90 118 
-0.0053789 0.139709 0.520439 81 47 64 
-0.426436 -0.310887 1.20434 76 61 82 
-0.399841 -0.412974 1.2035 74 47 62 
-0.129219 0.100346 0.830206 76 39 56 
-0.281555 -0.393095 1.15739 73 55 77 
-0.185769 -0.21188 1.04532 125 99 112 
0.0189161 0.192541 0.739988 82 50 65 
-0.0596508 0.0252406 0.959716 169 155 146 
-0.227852 0.177744 1.4897 64 40 54 
-0.00995361 -0.165454 0.953196 70 31 36 
0.0417877 -0.204645 0.951523 123 69 83 
-0.013565 0.176473 1.44294 61 31 39 
0.181615 -0.351432 0.974803 100 75 97 
0.227911 -0.347986 0.957797 80 54 79 
0.236974 -0.345719 0.952929 171 161 188 
0.263089 -0.338629 0.941818 93 67 94 
0.26649 -0.329143 0.941324 74 56 72 
0.274221 -0.337665 0.938929 119 115 140 
0.276164 -0.233855 0.926937 79 54 75 
0.308616 -0.336296 0.924247 67 55 77 
0.328906 -0.327321 0.915959 132 113 132 
-0.540222 0.0457546 1.21418 111 93 115 
0.0550075 0.120675 1.01718 71 52 56 
-0.107009 0.220929 1.82866 61 31 39 
0.0582496 0.120812 0.8108 79 48 64 
-0.159379 0.205292 0.826411 80 55 74 
0.0476173 0.117962 0.831457 61 34 43 
0.352096 -0.338425 0.914532 87 63 77 
0.342209 0.118102 0.877571 89 67 88 
-0.0601621 -0.260041 0.992317 45 22 28 
-0.0825281 -0.0955756 0.952897 53 23 21 
0.0711412 -0.0192239 0.965013 60 31 36 
-0.0409426 -0.256 0.988607 44 22 25 
0.10609 -0.00116375 1.4599 86 40 50 
-0.292041 -0.186832 1.15191 134 111 131 
-0.0339743 -0.251968 0.959405 46 26 28 
-0.0319988 0.146549 0.891783 64 52 54 
0.0414275 0.0553952 1.2157 163 111 123 
-0.4754 0.228788 1.18209 124 115 134 
-0.355135 -0.0971678 1.17003 117 103 126 
-0.172123 -0.186318 1.05162 34 18 19 
-0.0365963 0.0689069 0.972344 64 31 38 
0.161941 0.00574617 1.36952 65 35 43 
-0.0133119 -0.0854462 0.964494 132 85 101 
-0.00328667 0.00634303 0.969009 60 33 40 
0.110391 -0.0618418 0.936677 67 28 33 
0.165134 0.097634 0.88047 103 61 65 
0.434437 -0.165103 0.822518 165 175 187 
0.440428 -0.148983 0.817799 110 107 150 
-0.488096 -0.104879 1.22296 65 56 83 
-0.486548 -0.184708 1.22798 92 73 92 
-0.480521 0.265957 1.17014 118 111 118 
-0.479596 -0.0338007 1.21446 36 35 53 
-0.473549 -0.174454 1.224 92 66 79 
-0.464564 -0.141107 1.21593 125 112 132 
-0.46221 -0.0442214 1.20696 137 124 144 
-0.458416 0.257984 1.16853 107 100 107 
-0.459765 -0.0808755 1.20948 94 70 94 
-0.445018 0.00486364 1.19838 60 53 71 
-0.436304 -0.1705 1.20844 116 87 105 
-0.416489 0.025089 1.18352 134 114 126 
-0.41107 -0.0294786 1.18949 40 31 48 
-0.396937 -0.177633 1.19646 81 57 71 
-0.390729 0.233088 1.15564 114 93 112 
-0.383993 -0.0283145 1.18079 52 42 51 
-0.384461 -0.138519 1.18673 78 64 89 
-0.37367 0.149955 1.15614 49 36 46 
-0.371916 0.174067 1.15557 115 93 106 
-0.351629 0.121896 1.15255 48 36 46 
-0.343196 0.141948 1.15031 99 95 110 
-0.34137 0.00769411 1.16019 79 58 73 
-0.337407 0.0313701 1.15551 115 98 117 
-0.336908 0.121769 1.14659 105 97 118 
-0.332385 0.236183 1.13457 19 18 23 
-0.321823 0.103618 1.1423 54 40 53 
-0.298605 -0.216753 1.16466 90 67 85 
-0.326068 0.169384 1.02912 58 40 36 
-0.297158 0.0364247 1.08785 111 78 99 
-0.30263 0.179503 1.0294 96 55 63 
-0.301779 0.257127 1.01308 40 35 32 
-0.278743 0.0552862 1.09107 93 45 61 
-0.280273 0.0800158 1.07334 157 109 123 
-0.26126 -0.0865936 1.13807 95 70 92 
-0.289033 0.226694 1.02026 26 25 30 
-0.252727 -0.230423 1.14943 82 67 90 
-0.27834 0.212904 1.01711 27 21 21 
-0.277456 0.267231 1.00066 43 37 51 
-0.24685 0.0181413 1.08364 75 30 37 
-0.245227 -0.0526684 1.07625 70 34 44 
-0.23772 5.51964e-05 1.08012 82 38 53 
-0.231824 -0.017621 1.08041 81 40 54 
-0.29394 0.226125 0.870051 76 51 57 
-0.206795 0.0184009 1.07147 66 35 43 
-0.192446 -0.214509 1.1238 66 49 65 
-0.250932 0.117589 0.939977 118 83 107 
-0.184203 -0.131235 1.07259 102 62 71 
-0.270733 0.134711 0.813064 90 45 50 
-0.268377 0.238518 0.794593 82 47 53 
-0.267492 0.227185 0.797185 56 31 35 
-0.152306 -0.0660392 1.05001 41 19 21 
-0.149312 0.081621 1.04221 81 36 41 
-0.265314 0.133983 0.796843 93 48 53 
-0.259043 0.147413 0.796174 114 66 78 
-0.110343 0.0681697 1.00217 124 68 77 
-0.228914 0.132477 0.782617 114 64 75 
-0.0921896 -0.123217 1.02571 134 81 99 
-0.218799 0.206669 0.783462 87 53 70 
-0.085228 0.00569097 1.02097 37 16 15 
-0.0887759 -0.0273209 1.00506 154 136 112 
-0.0905148 0.0243089 0.997051 93 59 47 
-0.0697497 -0.0899764 1.02539 117 75 87 
-0.092027 0.0321538 0.979983 145 128 118 
-0.205916 0.224534 0.765852 87 45 49 
-0.0809838 0.120554 0.9573 78 47 65 
-0.0643898 -0.21944 0.997096 139 86 102 
-0.0443886 -0.0615093 0.988976 64 35 39 
-0.0397325 -0.0771531 0.980179 106 68 81 
0.918573 0.113572 2.23958 58 25 36 
-0.157272 0.200776 0.760729 76 45 63 
-0.00776572 -0.0411333 0.978246 66 37 42 
-0.00176517 -0.0871447 0.97446 140 96 111 
0.00326823 -0.0589544 0.971544 69 38 46 
0.00884825 0.0498899 0.965197 59 32 41 
0.0407113 0.0116585 0.98157 85 44 62 
0.0615772 0.0687636 0.969049 91 46 66 
0.0618887 -0.105993 0.979051 74 38 52 
0.0519186 -0.213326 0.969593 127 104 120 
0.0582063 -0.265206 0.949332 41 27 27 
0.0424243 0.151286 0.900245 106 69 77 
0.10324 -0.0618613 0.960263 63 30 39 
0.138796 -0.152123 0.994249 110 77 96 
0.182408 -0.151986 0.978084 111 78 97 
0.202142 -0.097658 0.965822 95 76 95 
0.166569 0.131359 0.863075 103 61 75 
0.175296 0.139322 0.860072 110 72 83 
0.263523 -0.0811642 0.945934 82 58 80 
0.278135 -0.24854 0.95339 94 68 95 
0.274407 -0.0933936 0.938678 86 63 81 
0.285179 -0.264886 0.950152 82 59 85 
0.298737 -0.203331 0.938983 84 71 97 
0.299949 -0.113706 0.931973 72 54 70 
0.306947 -0.336012 0.948695 89 66 94 
0.304899 0.0385192 0.919034 153 129 145 
0.314265 -0.0143144 0.917359 100 69 85 
0.320222 -0.113346 0.923787 60 34 59 
0.325341 -0.337758 0.941681 76 60 86 
0.327994 -0.266081 0.937401 46 39 55 
0.324991 -0.0444477 0.916207 144 127 146 
0.328118 0.153252 0.898999 145 133 157 
0.339367 -0.337346 0.936829 85 61 85 
0.356596 -0.046672 0.904814 52 35 53 
0.364463 -0.035901 0.899554 90 67 95 
0.368277 -0.172008 0.910749 154 132 153 
0.368343 0.0365595 0.891221 79 57 80 
0.380188 -0.320466 0.919707 95 74 105 
0.376568 -0.115365 0.901804 96 67 87 
0.382179 -0.338508 0.919772 89 71 97 
0.399739 -0.0885943 0.88909 146 121 140 
0.415971 -0.0839601 0.884201 81 67 102 
0.402326 0.225729 0.853672 142 137 157 
0.414395 0.251637 0.830169 116 99 131 
0.959642 0.30858 1.06445 142 151 168 
-0.49816 0.269386 1.10841 105 112 118 
-0.4657 0.0661206 1.18131 67 57 81 
-0.462746 0.102188 1.17667 134 122 142 
-0.460457 0.151723 1.1713 74 65 84 
-0.459001 0.224482 1.16491 58 50 65 
-0.452293 -0.0598842 1.1882 85 73 97 
-0.439681 -0.0503313 1.18167 135 120 141 
-0.435642 0.0546747 1.17348 72 58 83 
-0.432219 0.0316078 1.17155 136 119 129 
-0.417287 0.177029 1.15238 120 106 131 
-0.447314 0.265858 1.04642 37 53 43 
-0.409646 0.213277 1.14647 59 52 68 
-0.408177 0.0560182 1.16337 132 117 136 
-0.393957 0.202005 1.14471 49 42 60 
-0.388227 0.140643 1.14688 96 82 97 
-0.363727 0.206396 1.13071 60 41 47 
-0.354218 -0.0633987 1.13885 56 40 53 
-0.347057 -0.12765 1.15691 84 57 74 
-0.346268 -0.0260329 1.14725 128 109 128 
-0.343012 -0.171944 1.15865 102 69 86 
-0.342263 0.163584 1.12842 93 81 103 
-0.342923 -0.0485891 1.14638 97 67 77 
-0.334983 -0.180349 1.15724 72 57 76 
-0.329586 0.140453 1.12619 100 95 117 
-0.320281 -0.0707357 1.1421 86 59 74 
-0.316826 -0.0241587 1.13553 139 118 137 
-0.31543 0.0738414 1.12774 37 27 35 
-0.309225 -0.0326371 1.13348 94 66 88 
-0.293574 -0.139714 1.13698 102 64 85 
-0.324965 0.137098 1.02886 129 78 85 
-0.286705 0.0429457 1.07897 72 32 41 
-0.306801 0.138051 1.02293 67 41 50 
-0.30114 0.169191 1.01329 36 20 20 
-0.291131 0.23749 0.994565 112 71 89 
-0.230176 0.0188204 1.06702 80 38 52 
-0.213929 -0.0827653 1.05955 76 37 38 
-0.311776 0.138364 0.873766 93 48 55 
-0.193261 -0.198669 1.04114 118 71 91 
-0.189372 -0.186604 1.04226 116 71 92 
-0.169137 -0.0736604 1.04965 45 20 23 
-0.17611 0.104543 1.0174 50 34 37 
-0.167537 -0.179875 1.04319 31 16 19 
-0.183934 0.110832 0.981046 84 43 61 
-0.157165 0.0750418 1.01111 95 47 63 
-0.285088 0.182661 0.837375 69 30 35 
-0.167465 0.134408 0.972744 111 63 79 
-0.285223 0.219089 0.827001 60 47 56 
-0.0857333 -0.0557533 0.99913 70 41 46 
-0.0826767 0.0139884 0.99233 156 136 109 
-0.0972291 0.132947 0.947358 108 65 85 
-0.0577551 -0.0270615 0.986005 90 45 48 
-0.0583499 -0.0113216 0.980384 90 44 47 
-0.0708294 0.117633 0.939196 101 57 74 
-0.0386738 -0.142798 0.967994 116 75 89 
0.0462031 -0.246845 0.954819 53 27 38 
0.0781461 -0.0325425 0.957016 90 49 67 
0.106774 -0.115476 0.955629 136 107 127 
0.0505577 0.135344 0.887666 158 104 127 
0.133296 -0.0394322 0.894013 156 107 126 
0.263883 -0.331664 0.95162 82 66 93 
0.345024 0.0769596 0.879283 166 142 158 
0.362001 0.11687 0.871323 83 61 84 
0.389595 -0.187633 0.890315 94 69 99 
0.398569 0.0235217 0.86874 118 98 125 
0.400948 -0.0085827 0.871618 109 85 111 
0.403563 0.00783211 0.865256 182 199 242 
1.80611 -0.131317 1.19265 111 119 158 
1.81264 -0.175859 1.19636 179 201 242 
1.84229 -0.397788 1.22084 144 139 179 
1.82205 -0.457346 1.21766 124 133 174 
1.82017 -0.140252 1.19222 152 171 204 
1.82514 -0.488928 1.21123 186 209 250 
-0.439073 0.106364 1.16253 21 28 47 
-0.0792458 0.0306823 0.967029 126 116 117 
-0.463376 -0.0434973 1.19493 137 124 144 
-0.460993 -0.0797499 1.19717 94 70 94 
-0.418074 0.024851 1.1728 134 114 126 
-0.408848 0.1235 1.15946 76 62 85 
-0.398928 -0.175624 1.1847 81 57 71 
-0.336727 0.118664 1.13452 55 42 52 
-0.322012 0.105225 1.13122 100 91 110 
-0.305586 0.17773 1.02012 96 55 63 
-0.485059 0.260916 1.15371 121 114 122 
-0.473107 -0.10836 1.19985 84 74 99 
-0.453794 0.109061 1.17242 56 50 96 
-0.450091 0.055043 1.17814 70 57 83 
-0.447392 0.00187678 1.18209 115 101 127 
-0.44734 0.157274 1.16539 81 77 102 
-0.445253 0.187904 1.16168 123 113 138 
-0.445533 0.0173894 1.17852 126 114 134 
-0.441539 -0.0898662 1.18607 125 105 132 
-0.429681 -0.0578028 1.17937 134 120 145 
-0.429257 0.115462 1.16269 73 63 98 
-0.424751 0.0531601 1.1694 121 107 122 
-0.419481 0.104712 1.16317 109 104 126 
-0.416361 -0.0285528 1.17457 39 28 42 
-0.407979 0.142826 1.15532 113 104 123 
-0.408822 0.0866478 1.15834 136 119 135 
-0.396526 0.0534688 1.15854 63 48 53 
-0.391546 0.0925443 1.15293 31 24 32 
-0.390493 -0.146106 1.17361 69 55 78 
-0.386013 0.151044 1.14549 108 97 111 
-0.383802 -0.135914 1.16976 95 67 90 
-0.381875 0.0396004 1.15353 86 63 73 
-0.366522 0.0301104 1.15096 113 103 128 
-0.357134 -0.0964409 1.15861 71 53 79 
-0.356653 -0.162993 1.16383 83 54 76 
-0.355511 -0.0192059 1.1495 81 57 73 
-0.349781 0.139732 1.13598 101 93 108 
-0.35035 -0.183907 1.16234 135 110 131 
-0.348627 0.00794657 1.14427 80 62 76 
-0.345055 0.0259953 1.14244 46 31 36 
-0.339104 0.231991 1.12064 26 21 27 
-0.336652 -0.129665 1.15398 81 60 75 
-0.337415 0.0387522 1.13577 118 91 106 
-0.32293 -0.161876 1.15227 38 33 39 
-0.310061 -0.188666 1.14957 62 46 57 
-0.299943 -0.0451897 1.1323 72 54 80 
-0.27602 -0.160419 1.13363 90 62 74 
-0.273357 -0.0641841 1.12385 80 56 78 
-0.280397 0.122979 1.01533 81 49 60 
-0.202281 -0.242944 1.11378 134 106 128 
-0.210155 -0.033451 1.06465 60 30 38 
-0.210021 0.0113206 1.05862 75 38 46 
-0.205912 -0.0106902 1.06115 56 30 39 
-0.209969 0.0288346 1.04533 134 79 85 
-0.306385 0.220498 0.859371 97 58 63 
-0.157723 -0.0803316 1.00524 133 89 106 
-0.283001 0.193743 0.833786 79 36 46 
-0.114018 0.0499096 0.992178 67 40 29 
-0.275017 0.223577 0.789783 50 30 31 
-0.118851 0.130845 0.955779 77 45 56 
-0.0847484 -0.123258 1.00053 61 30 36 
-0.0927239 -0.0133437 0.977566 123 98 76 
-0.098861 0.105107 0.950258 116 74 96 
0.79666 0.0737982 1.54412 140 89 98 
0.0500235 -0.104022 0.969587 72 36 50 
0.132588 0.0539456 0.907044 157 114 133 
0.31923 -0.171016 0.916984 149 130 150 
0.354902 -0.234861 0.908234 94 78 107 
-0.468505 -0.138338 1.20124 114 105 124 
-0.46656 0.164907 1.17294 66 62 77 
-0.46192 -0.069303 1.19231 82 63 83 
-0.46115 -0.107066 1.19533 74 60 85 
-0.447177 0.0801253 1.17545 53 38 57 
-0.442966 -0.147244 1.19266 76 59 91 
-0.44347 0.140021 1.16536 122 108 131 
-0.432927 -0.113713 1.1864 64 52 76 
-0.431501 -0.0461524 1.17996 87 68 88 
-0.379138 0.0669512 1.15084 105 91 108 
-0.37929 0.14777 1.14223 42 32 40 
-0.368521 -0.0845146 1.16016 90 63 78 
-0.363266 0.119566 1.13945 52 41 49 
-0.357346 -0.0424559 1.15344 128 109 128 
-0.349518 0.0795388 1.13948 55 41 56 
-0.329293 -0.0978962 1.14791 61 44 62 
-0.322094 -0.0892328 1.14466 121 107 124 
-0.310866 -0.0235849 1.13424 35 29 39 
-0.301011 -0.0804872 1.1346 89 65 87 
-0.296308 -0.0549444 1.13209 78 66 86 
-0.306138 0.0128457 1.10501 49 25 25 
-0.34289 0.108553 1.03826 152 116 130 
-0.346961 0.151296 1.0275 131 83 95 
-0.331047 0.167003 1.02067 52 37 32 
-0.254543 0.0179753 1.07106 61 25 27 
-0.21193 -0.196249 1.11378 45 27 39 
-0.19468 -0.244042 1.11225 109 95 121 
-0.280757 0.147862 1.00683 123 78 85 
-0.207683 0.0735775 1.05515 68 30 43 
-0.267655 0.151766 0.992586 37 27 26 
-0.207343 -0.0476772 1.05117 53 25 24 
-0.180835 -0.135132 1.05742 58 23 30 
-0.16608 -0.0739578 1.05189 40 20 21 
-0.189992 -0.192472 1.04293 110 72 95 
-0.163754 0.0907626 1.0252 54 22 25 
-0.20933 0.121118 0.990731 102 51 68 
-0.202939 0.111897 0.989036 74 47 62 
-0.175355 0.0944147 1.00576 100 45 51 
-0.157847 -0.0197603 1.01968 116 69 87 
-0.157879 0.038957 1.01485 117 72 93 
-0.196262 0.127413 0.978618 140 93 111 
-0.163732 -0.139841 1.01618 103 67 79 
-0.142349 0.0630182 1.00463 125 71 85 
-0.1342 -0.0342415 1.01349 48 26 29 
-0.29697 0.225357 0.884078 53 34 36 
-0.123901 -0.08545 1.00963 131 77 90 
-0.125876 0.0574862 0.990746 137 89 101 
-0.119695 0.0671713 0.991729 117 67 76 
-0.123211 -0.214731 1.00567 125 78 96 
-0.0962715 0.0388145 0.998432 138 121 95 
-0.115036 -0.221947 1.00193 72 40 55 
-0.0970165 -0.0267414 0.995704 151 140 112 
-0.103027 0.0405688 0.984381 73 53 44 
-0.121551 -0.110931 0.982954 49 20 22 
-0.0896519 0.0744341 0.981937 56 25 30 
-0.0998224 0.0270531 0.974542 153 144 129 
-0.109926 0.109458 0.957456 83 45 60 
-0.0995591 0.0301279 0.963215 146 143 128 
-0.0845959 0.0115538 0.972029 166 156 154 
-0.054799 -0.161991 0.992388 64 28 40 
-0.0487282 -0.134238 0.990131 61 38 46 
-0.0697634 -0.215696 0.982657 132 83 104 
-0.0466048 -0.122727 0.986805 117 73 88 
-0.0431498 -0.146087 0.987093 55 34 39 
-0.0284566 -0.132268 0.970613 24 18 20 
-0.0351114 -0.146386 0.963963 110 72 85 
0.0515414 -0.250212 0.949499 135 117 139 
-0.259688 0.131266 0.784017 111 60 69 
0.103335 0.0341733 0.939968 140 89 104 
0.126005 0.0661042 0.933126 76 35 51 
-0.225486 0.203845 0.776841 71 38 55 
0.119461 0.0965486 0.907941 54 27 32 
0.128922 -0.035773 0.915462 93 40 48 
0.217856 -0.336694 0.968446 85 65 93 
0.219432 -0.361054 0.970597 85 69 95 
0.226683 -0.350574 0.967231 90 66 100 
0.233639 -0.0785101 0.940821 86 59 74 
0.135565 -0.0216159 0.897765 49 23 24 
0.265312 -0.352533 0.951829 105 86 118 
0.267489 -0.341641 0.950873 145 136 163 
0.272526 -0.332609 0.948208 125 117 140 
0.27661 -0.261361 0.940323 92 69 95 
0.281559 -0.3678 0.948664 93 73 98 
0.289995 -0.374997 0.946125 92 72 99 
0.307609 -0.36544 0.93964 83 59 83 
0.325291 -0.392959 0.933449 130 128 150 
0.318914 -0.00528119 0.902137 75 57 71 
0.332404 -0.333344 0.927068 89 63 92 
0.345505 -0.396659 0.928507 96 78 104 
0.356354 -0.397033 0.923565 83 67 94 
-0.170744 0.244141 0.727975 46 41 73 
0.35264 -0.046481 0.89231 46 34 48 
0.364884 -0.371216 0.918122 118 108 133 
0.366972 -0.396799 0.919644 85 67 93 
-0.117621 0.186761 0.738259 90 55 79 
-0.170674 0.240555 0.706559 50 52 93 
2.0273 -0.821877 1.11993 150 162 212 
2.02313 -0.808959 1.11684 183 207 251 
2.0257 -0.845443 1.11853 114 124 173 
2.02877 -0.835985 1.116 117 127 178 
2.03071 -0.944678 1.12158 146 153 207 
2.03475 -0.861652 1.11362 133 130 161 
2.08317 -0.764353 1.11528 53 57 102 
2.03756 -0.892033 1.11492 114 127 180 
2.03019 -0.217615 1.06427 142 154 204 
2.04006 -0.944665 1.115 131 141 194 
2.04297 -0.804464 1.10578 185 194 237 
2.04326 -0.835969 1.10618 116 114 154 
2.03691 -0.394355 1.07443 180 195 236 
2.04868 -0.823512 1.10324 112 119 165 
2.07651 -0.665289 1.09661 180 192 234 
2.05299 -0.803119 1.1 180 184 219 
2.03567 -0.243571 1.05781 145 157 209 
2.04537 -0.394587 1.0682 179 194 233 
2.04786 -0.248758 1.05436 179 194 237 
2.0549 -0.81257 1.09325 184 200 233 
2.05359 -0.400339 1.06421 126 136 185 
2.05092 -0.278502 1.05234 179 202 244 
2.07007 -0.177514 1.04783 75 51 64 
2.07006 -0.77982 1.08836 102 96 124 
2.07155 0.108337 1.02511 133 111 134 
2.0775 -0.811218 1.08313 183 202 244 
2.06046 0.175504 1.01146 176 189 234 
2.07957 -0.795794 1.08007 124 109 140 
2.05897 0.242132 1.00401 171 183 221 
2.07405 -0.393041 1.04798 128 134 186 
2.07318 0.13697 1.01066 141 119 142 
2.10037 -0.825873 1.07812 149 159 210 
2.09219 -0.820814 1.07504 137 149 201 
2.10187 -0.968178 1.08487 135 146 200 
2.08201 -0.242278 1.02922 183 197 242 
2.0811 -0.271944 1.03104 101 110 151 
2.06719 0.247762 0.992315 116 122 154 
2.09012 0.151438 1.00027 96 71 90 
2.10647 -0.707496 1.05547 150 166 218 
2.09233 -0.0870116 1.01078 181 198 241 
2.09038 0.160837 0.992585 161 175 212 
2.0964 -0.154586 1.01466 184 201 245 
2.09278 0.0539013 0.99989 178 191 235 
2.09273 -0.103575 1.01023 185 202 246 
2.09165 0.0178701 1.00182 179 196 239 
2.09325 -0.188834 1.01597 189 208 251 
2.08579 0.101786 0.994348 179 188 227 
2.07607 -0.124452 1.00722 182 196 241 
2.09346 0.119907 0.991784 178 195 239 
2.0958 -0.267985 1.01797 161 180 222 
2.08949 -0.0942515 1.00383 115 118 161 
2.08458 -0.0421796 0.998939 115 116 164 
2.12053 -0.819748 1.05687 155 168 221 
2.09125 0.0098746 0.995631 110 111 155 
2.08977 0.0613237 0.991086 105 109 154 
2.09821 -0.198365 1.00939 113 115 163 
2.09651 -0.146291 1.0045 115 119 164 
2.13002 0.165392 0.980341 99 107 144 
2.12129 -0.154038 0.998667 174 188 227 
2.11972 0.0545088 0.980644 170 179 218 
2.12713 -0.286133 1.00418 108 118 169 
2.12088 0.158782 0.973244 168 182 217 
2.12766 -0.186963 0.996425 122 128 176 
2.13459 -0.343522 1.00237 172 195 239 
2.12989 0.163004 0.96515 102 110 147 
2.1426 -0.372905 1.00101 102 109 151 
2.15225 -0.398057 1.0018 122 130 177 
2.15554 -0.281955 0.993161 176 190 235 
2.15571 -0.368893 0.995765 197 198 203 
2.16039 -0.345571 0.990994 179 192 237 
2.16979 -0.379709 0.99191 136 116 109 
2.17749 -0.360125 0.989264 200 200 210 
2.17513 -0.392935 0.989965 157 163 199 
2.18173 -0.203597 0.977135 114 121 165 
2.18345 -0.0984663 0.969395 110 118 157 
2.16916 -0.286114 0.97959 108 117 172 
2.17787 -0.370767 0.985811 199 190 191 
2.17722 -0.142628 0.968284 185 199 244 
2.16819 -0.349686 0.979945 180 197 240 
2.17373 -0.239002 0.972427 178 190 230 
2.17421 0.0654554 0.950186 181 194 239 
2.18017 0.17084 0.943631 180 194 239 
2.17514 -0.363038 0.978089 201 201 211 
2.1827 -0.378503 0.979214 102 70 81 
2.16967 0.236993 0.935243 165 178 212 
2.1833 -0.247713 0.967804 116 126 162 
2.18707 -0.402999 0.978603 114 111 154 
2.18505 -0.390208 0.975941 191 195 198 
2.18267 -0.0989702 0.953174 110 115 155 
2.17265 -0.142697 0.954372 187 206 248 
2.17892 0.00541031 0.94448 111 119 158 
2.17641 0.108689 0.936638 102 110 149 
2.16557 -0.389409 0.968532 182 180 193 
2.19196 -0.239017 0.96119 159 172 207 
2.18456 -0.368039 0.968686 177 167 165 
2.17338 0.241603 0.925532 109 113 150 
2.19176 0.168992 0.930875 178 197 239 
2.20082 -0.00246103 0.943362 155 169 206 
2.22288 -0.0927738 0.930718 182 199 243 
2.22562 -0.0551401 0.925395 170 185 226 
2.23182 0.0168455 0.914711 116 129 174 
2.22805 -0.153138 0.924842 114 119 159 
2.22302 -0.0493535 0.916012 109 117 156 
2.22515 0.158315 0.899792 102 107 145 
2.23257 0.0474172 0.905138 151 166 199 
2.2762 -0.717974 0.950112 176 188 230 
2.27676 -0.406951 0.925968 176 191 234 
2.27281 -0.378956 0.923188 196 194 199 
2.28013 0.00209499 0.894887 107 116 157 
2.28296 -0.243405 0.909939 174 186 228 
2.28231 -0.215712 0.907757 171 185 224 
2.28978 0.240983 0.877343 105 111 143 
2.27889 -0.0437573 0.894554 182 199 245 
2.27936 0.165479 0.878798 178 195 239 
2.30174 -0.877875 0.950738 128 137 180 
2.28024 0.060645 0.88545 175 190 233 
2.29582 -0.64404 0.931342 138 140 179 
2.28123 0.100158 0.879871 162 176 211 
2.29725 -0.693164 0.934445 141 135 173 
2.29465 -0.71446 0.935499 140 134 172 
2.27786 0.231939 0.870233 156 170 205 
2.29244 -0.414505 0.913933 121 134 176 
2.29376 -0.497616 0.919325 139 137 174 
2.27909 0.00115938 0.87906 106 111 151 
2.28257 -0.0446201 0.882134 180 199 242 
2.31516 -0.24403 0.897599 158 172 211 
2.27868 0.162928 0.864924 175 193 233 
2.32106 -0.379291 0.902103 189 190 195 
