ply                 
format ascii 1.0    
element vertex 1226
property float x    
property float y    
property float z    
property uchar red  
property uchar green
property uchar blue 
end_header          
-0.0993915 0.131883 1.01988 102 71 89 
-0.298818 -0.209052 1.27086 138 115 135 
-0.461555 0.0218115 1.34815 99 76 102 
-0.328527 0.261171 1.24924 75 62 72 
-0.299538 0.0427618 1.25214 79 72 80 
-0.373574 -0.0220714 1.29914 103 78 97 
-0.302448 0.0332443 1.25306 89 69 81 
-0.321574 0.225475 1.1412 51 35 38 
-0.396646 0.26151 1.28849 110 89 96 
0.276875 0.0468348 0.903581 139 124 145 
-0.366212 -0.0569916 1.29735 95 81 106 
-0.171124 -0.224245 1.10587 103 56 66 
-0.157626 0.160105 1.04831 108 74 88 
-0.277707 0.177392 1.1057 103 53 62 
-0.42653 0.22329 1.30976 78 72 86 
-0.310967 0.0438192 1.25899 47 34 41 
-0.284633 0.148265 0.873721 115 61 74 
0.267674 0.0453243 0.906739 83 60 70 
-0.280018 0.287296 1.09194 28 27 35 
-0.426469 0.292379 1.28686 116 103 110 
-0.328286 0.272976 0.939757 48 47 63 
-0.0892978 -0.226711 1.0557 107 62 69 
-0.40118 -0.0537656 1.319 108 84 110 
-0.21175 0.176478 0.839347 97 70 87 
-0.156645 -0.209794 1.09523 113 69 84 
0.262478 -0.345669 0.941738 132 121 151 
-0.455828 0.195787 1.33223 72 64 87 
-0.244204 -0.232319 1.24011 137 115 128 
-0.38841 0.100506 1.29869 107 84 92 
-0.191883 -0.208367 1.2065 92 81 95 
-0.326957 0.189889 1.13703 59 40 36 
-0.360296 0.152575 1.27622 98 76 88 
-0.0341487 -0.0188693 1.03014 106 74 95 
-0.335473 -0.0346743 1.27789 135 114 133 
-0.434595 0.150766 1.32101 110 101 130 
-0.328379 0.250125 0.964765 128 89 108 
-0.453554 -0.0870787 1.3529 128 114 139 
-0.270379 0.0290628 1.17581 61 22 27 
0.128588 0.0252775 0.940736 103 54 60 
-0.413061 0.065602 1.31647 119 101 127 
-0.30949 0.189186 1.12765 64 44 43 
0.242051 -0.113513 0.936465 99 76 96 
-0.242459 -0.0828384 1.22526 135 111 133 
-0.272317 -0.127677 1.24773 104 70 87 
-0.41339 -0.0686128 1.32958 123 97 124 
-0.434827 0.299131 1.2915 61 61 59 
-0.266086 0.209035 0.870352 103 77 102 
-0.290821 0.0687972 1.18878 93 51 63 
-0.444546 0.282716 1.31453 124 118 130 
-0.0134598 -0.0434878 1.0169 132 80 93 
0.296822 -0.237272 0.910047 107 90 109 
0.096275 0.0211361 0.976003 88 47 53 
0.337031 0.122362 0.855556 98 74 87 
-0.308068 0.111462 1.17372 99 52 62 
-0.338583 0.270176 1.13293 59 35 35 
-0.313842 0.131433 1.25178 107 80 89 
-0.30331 0.0687377 1.24831 83 61 73 
-0.428241 -0.0147 1.33239 127 106 125 
-0.427713 0.27041 1.3072 98 80 102 
-0.406798 -0.188239 1.33548 89 65 78 
0.0678982 -0.0317221 0.992707 121 65 74 
0.353098 -0.0341563 0.860591 95 72 88 
-0.362169 -0.183467 1.30704 103 77 90 
-0.264567 -0.17405 1.24747 107 86 101 
0.288075 0.143935 0.884844 129 115 132 
-0.0473686 -0.0527257 1.03742 107 56 63 
-0.289432 0.110107 1.1637 102 55 63 
-0.325304 0.147416 1.14985 75 53 56 
-0.432206 0.064642 1.32758 100 86 111 
-0.424864 0.097022 1.32181 111 96 117 
-0.036831 -0.036822 1.03111 122 71 80 
0.248071 -0.276165 0.945887 130 105 126 
0.341835 -0.332508 0.891559 147 133 158 
-0.323386 -0.0268707 1.26986 107 77 87 
-0.323348 0.0844308 1.25901 73 56 64 
-0.321574 0.286207 1.22448 65 60 64 
-0.191088 0.157462 0.821997 109 63 73 
-0.271711 0.244377 0.858499 102 72 80 
-0.0570665 -0.07082 1.06368 84 48 52 
-0.313219 -0.0222435 1.26311 109 81 96 
-0.231869 -0.127352 1.22448 101 84 103 
0.00129176 -0.246544 1.01629 53 24 28 
0.320515 -0.345924 0.902482 132 118 144 
-0.282943 0.277772 1.09896 70 45 51 
-0.376015 0.0361332 1.2965 114 101 121 
-0.0289812 -0.197428 1.01773 124 71 87 
-0.306247 0.099811 1.24862 58 45 55 
0.339916 -0.296234 0.890692 104 79 108 
-0.442305 0.123246 1.32887 107 95 119 
0.37728 0.207198 0.826958 121 113 136 
-0.126828 -0.0347998 1.08912 124 73 82 
-0.409424 -0.0280458 1.32069 125 107 131 
-0.398091 -0.165795 1.32608 130 110 119 
-0.244675 -0.0576459 1.22484 96 66 78 
0.107643 0.016874 0.962196 60 25 29 
-0.340254 0.181685 1.14129 98 53 60 
-0.264203 -0.048645 1.23748 123 100 116 
-0.289156 0.171734 1.11142 106 56 67 
-0.466285 -0.115256 1.36111 128 107 122 
-0.306561 0.180705 1.24173 47 39 52 
-0.410605 -0.0573251 1.32341 121 95 120 
0.188593 -0.0756658 0.962998 129 106 126 
-0.297551 -0.0314271 1.25665 115 85 95 
0.0899588 -0.0193086 0.959391 69 27 31 
0.220985 -0.315523 0.960123 115 98 117 
-0.138106 -0.222891 1.08523 113 66 76 
-0.29034 0.188171 1.11758 66 42 42 
0.0750769 0.142063 0.894897 170 125 146 
-0.285623 0.207821 1.12017 71 48 64 
0.0419926 -0.126221 1.00215 116 66 75 
0.301392 -0.349609 0.918506 140 121 149 
0.0831271 -0.0302255 0.977088 81 41 49 
-0.317902 0.271657 1.12071 66 45 44 
-0.153462 -0.16109 1.10398 123 70 88 
-0.41746 -0.0576024 1.33378 124 98 125 
-0.161175 0.147505 1.05265 143 98 118 
-0.302546 0.232998 0.889161 119 75 92 
0.0400247 -0.152036 0.997815 56 26 28 
-0.448259 -0.0274963 1.34491 116 100 127 
-0.34381 0.137901 1.26856 99 83 94 
-0.318711 0.187918 0.956452 67 36 41 
-0.0951309 -0.040308 1.07666 95 56 59 
-0.281933 0.234802 1.11443 36 27 28 
-0.042249 0.00595278 1.03273 126 78 94 
-0.221322 -0.10047 1.21744 101 79 92 
-0.394847 0.0670197 1.30515 107 92 115 
-0.193031 -0.205173 1.14215 102 59 66 
-0.243372 -0.208375 1.2377 137 113 127 
0.279781 0.220752 0.878682 132 127 149 
-0.286535 0.167699 0.882752 66 32 33 
-0.275658 -0.166757 1.25238 103 73 83 
0.207382 -0.083194 0.953485 120 101 121 
-0.241249 0.263409 0.837772 72 56 66 
-0.448928 0.148048 1.32942 87 76 108 
-0.319947 0.214615 0.962131 110 70 81 
-0.4675 -0.0150762 1.35409 105 85 110 
-0.189844 0.190173 0.825569 135 93 113 
-0.38721 0.274778 1.28322 73 70 89 
-0.320005 0.166935 1.25458 62 47 66 
-0.179145 0.249328 0.80157 98 60 73 
-0.414113 0.302904 1.27651 91 79 91 
-0.280601 0.0357248 1.18217 55 21 22 
-0.37984 -0.140748 1.31568 121 105 132 
-0.309804 -0.0344816 1.26338 120 97 105 
-0.265598 0.199056 0.870854 132 89 109 
0.199557 -0.338135 0.979906 130 111 131 
-0.224214 0.152259 1.09036 106 71 95 
-0.169675 0.171288 0.814203 122 71 86 
-0.182758 0.209634 0.81872 106 77 105 
-0.272246 0.261929 0.857326 91 58 69 
0.0802592 -0.0731554 0.969722 68 32 36 
-0.144117 0.147443 0.790271 78 37 45 
-0.0449249 -0.0140533 1.0343 134 77 92 
0.359839 -0.241989 0.877239 137 117 144 
-0.235167 0.219296 0.849413 136 97 118 
-0.245323 -0.017976 1.16941 96 46 58 
-0.335352 -0.193842 1.2925 129 98 113 
-0.116239 -0.151535 1.08108 133 76 93 
0.0395373 -0.13969 1.00315 107 61 71 
-0.289579 -0.217856 1.26554 131 103 117 
-0.451131 0.250485 1.32016 86 69 79 
-0.328468 -0.0313878 1.27063 114 84 96 
-0.179346 0.109016 1.13825 156 98 113 
-0.0757704 -0.216743 1.05018 116 86 110 
-0.176607 0.229085 0.810952 123 81 101 
-0.323754 0.260935 0.936825 96 61 67 
-0.0763477 -0.242289 1.04305 56 25 30 
-0.0631196 -0.175681 1.05663 55 25 33 
0.167777 -0.313403 0.998539 110 82 96 
0.34275 -0.0289553 0.865967 122 97 118 
0.350827 -0.044119 0.861638 114 89 111 
-0.18406 -0.196047 1.12615 101 55 66 
-0.283 0.264979 0.863352 107 73 87 
-0.165417 -0.123976 1.144 64 35 40 
-0.255207 -0.136344 1.23915 100 78 99 
-0.163054 -0.235677 1.09579 57 27 37 
-0.13016 0.184731 0.789704 105 68 86 
-0.347257 -0.203956 1.30051 82 67 86 
-0.298784 0.148562 0.881961 112 61 76 
-0.322825 0.214757 1.25211 79 75 92 
-0.162867 0.0374271 1.10236 130 74 83 
-0.245848 0.192928 0.857328 87 56 72 
0.271209 -0.161192 0.922629 108 88 113 
-0.368177 0.266029 1.27222 80 67 76 
0.346113 0.114466 0.850787 131 107 120 
0.210926 -0.138102 0.955731 109 78 96 
-0.232675 -0.23143 1.23223 129 107 120 
-0.00933835 -0.245856 1.02299 47 20 25 
-0.295999 0.0947788 1.24413 67 57 68 
-0.1833 0.260338 0.802292 108 106 120 
0.283872 0.124764 0.875592 116 93 109 
-0.198796 0.135505 1.07671 111 76 100 
-0.310061 0.187488 0.928558 71 47 60 
-0.318816 -0.0935284 1.27292 98 71 86 
-0.0738517 -0.0888183 1.08002 111 78 99 
-0.137086 -0.0649073 1.08257 44 24 25 
-0.359795 -0.0978974 1.29774 104 84 111 
-0.347737 -0.061302 1.28742 108 76 91 
-0.204393 -0.220037 1.21341 125 97 111 
0.0137073 -0.174201 1.01564 58 27 33 
0.302366 -0.134199 0.898812 130 105 126 
-0.349105 0.274322 1.25752 61 59 70 
-0.346518 -0.0340368 1.28393 101 78 96 
0.320802 -0.0738299 0.881846 136 113 133 
-0.380087 0.209271 1.2851 114 91 101 
-0.438992 -0.0484226 1.34051 105 81 103 
0.258861 -0.335157 0.942239 86 67 89 
-0.236168 0.240259 0.836832 73 46 55 
-0.254174 -0.173065 1.24088 116 90 103 
0.255487 -0.320897 0.94615 91 72 91 
0.0683934 0.0299399 0.99005 129 75 88 
-0.15721 -0.0704582 1.0845 71 35 37 
-0.0649211 -0.231314 1.04138 78 42 52 
-0.0226873 0.147924 0.955973 162 110 132 
0.352597 -0.102713 0.865443 91 62 82 
-0.343793 -0.0116865 1.28503 70 58 72 
-0.0458987 -0.175229 1.02401 95 60 66 
-0.391209 0.222043 1.28975 96 87 106 
-0.4062 0.0227776 1.31485 103 86 102 
-0.0540651 -0.148916 1.01753 159 104 123 
-0.21685 -0.227476 1.22181 119 91 114 
-0.333661 0.0444958 1.2715 76 62 77 
0.360084 -0.341124 0.881176 100 77 103 
-0.152794 0.186495 0.802626 96 69 86 
-0.234536 0.0375371 1.1719 120 63 69 
0.130164 0.0714617 0.922366 143 89 105 
0.290817 0.220231 0.869846 146 136 161 
-0.426573 -0.0253135 1.33225 113 94 114 
-0.412295 0.0516946 1.31955 128 107 122 
0.0741393 0.0542233 0.987028 97 66 82 
0.191619 -0.278553 0.982139 141 118 138 
-0.310818 0.219876 1.13289 56 41 44 
-0.411177 0.092229 1.31288 111 92 111 
0.193512 -0.308159 0.981395 124 108 134 
0.21009 -0.184057 0.959852 126 103 123 
0.318542 -0.085711 0.884888 114 91 109 
0.219815 -0.323306 0.968074 138 119 138 
-0.0825092 0.155544 0.988323 79 47 60 
-0.0209867 -0.0872153 1.01907 118 64 78 
-0.166838 -0.0650022 1.09155 109 77 92 
-0.365145 -0.147062 1.30562 120 96 118 
0.0355408 0.0264467 1.00884 94 44 47 
0.371643 -0.161614 0.860315 133 105 128 
-0.33847 0.247446 1.25711 90 73 79 
-0.202461 -0.20472 1.2124 111 84 99 
0.131768 -0.312426 1.01919 106 75 91 
0.0980878 -0.00547416 0.955939 82 37 40 
0.309871 -0.285279 0.906193 116 91 113 
-0.0488674 -0.229995 1.0366 114 64 76 
-0.447598 0.0941739 1.3338 90 78 98 
-0.0514229 0.153052 0.969545 88 53 60 
-0.282463 0.114596 1.15566 137 77 89 
0.348116 0.154399 0.855678 137 111 122 
-0.233546 -0.0385697 1.17233 113 65 77 
0.250717 -0.339777 0.948352 124 111 137 
0.291085 0.229712 0.861482 131 122 149 
-0.249017 -0.0300506 1.17196 102 52 64 
-0.198787 0.17508 1.05666 113 73 97 
-0.0157658 0.00282513 1.01987 120 82 107 
-0.382536 0.158549 1.28894 115 91 104 
-0.328945 0.174991 1.13483 81 45 49 
-0.356424 -0.077517 1.29532 116 92 114 
-0.38003 0.290599 1.25841 94 84 92 
0.0439965 0.143204 0.925542 143 90 110 
-0.212053 0.240185 0.822486 127 91 105 
-0.377874 0.0826289 1.29328 115 91 105 
-0.270715 0.162481 0.868928 100 57 66 
0.304709 0.223868 0.855747 116 111 134 
-0.197474 0.122359 1.12177 114 66 78 
0.337414 -0.00401197 0.866383 108 84 106 
-0.334347 -0.0858461 1.28187 124 97 112 
0.110907 0.00893979 0.952326 92 46 49 
-0.464162 -0.138388 1.36405 100 71 93 
0.36735 0.125236 0.849332 132 107 128 
-0.43207 -0.101009 1.34018 116 100 126 
-0.317211 -0.00279 1.26455 104 73 88 
0.0407339 -0.11143 1.00465 115 63 75 
-0.120513 0.157367 1.02686 97 69 83 
-0.239534 -0.175757 1.23225 110 85 104 
-0.106202 0.146478 1.02225 154 112 132 
-0.139789 0.0341794 1.092 88 61 78 
0.28353 -0.304828 0.924525 113 85 100 
0.283429 -0.0468548 0.904064 116 92 106 
-0.404934 0.0606632 1.31156 100 83 101 
-0.323976 -0.166436 1.28269 128 101 120 
0.299146 0.169693 0.875762 121 97 119 
-0.458678 0.0824005 1.34392 117 102 131 
-0.308979 0.155496 1.2449 62 49 59 
0.273322 -0.186613 0.922123 133 112 127 
0.303514 -0.311657 0.91236 106 78 101 
-0.217973 -0.0905977 1.2142 101 86 107 
-0.162588 -0.221135 1.10014 87 54 73 
-0.200021 0.15094 0.822629 81 36 41 
-0.155157 0.21152 0.802665 132 85 103 
-0.453089 0.0347618 1.34351 124 105 127 
-0.200997 0.163113 1.0591 150 106 123 
-0.341093 -0.18384 1.29154 114 94 106 
-0.379331 0.221461 1.28408 106 91 110 
-0.251818 0.0123551 1.17101 119 70 76 
-0.321718 -0.131876 1.27788 123 95 110 
-0.290145 0.0313113 1.17892 100 57 64 
-0.167392 0.259344 0.793281 97 96 101 
-0.19466 0.260009 0.809737 81 60 77 
-0.0423452 -0.199342 1.02452 86 39 47 
0.12819 0.0366006 0.941532 102 55 63 
-0.0803395 -0.22792 1.04819 95 66 84 
-0.458158 0.0918623 1.33821 85 73 97 
0.288684 -0.340003 0.924175 114 98 124 
0.323631 0.253353 0.831229 116 100 113 
-0.335172 0.0562698 1.26956 84 66 78 
-0.262906 -0.160591 1.24511 125 102 118 
0.22625 -0.151167 0.94731 115 90 112 
0.169508 -0.23539 0.991146 138 121 139 
0.334888 0.0545773 0.863334 104 80 94 
-0.205785 0.164624 0.836917 68 33 39 
-0.31069 -0.0727228 1.26507 107 78 96 
-0.322929 0.246485 1.24712 31 29 32 
0.0351862 -0.10566 1.01766 97 66 81 
0.239884 -0.268973 0.945146 120 91 109 
-0.443056 0.0310966 1.33565 109 87 108 
-0.434683 0.195134 1.31859 89 81 105 
0.275055 -0.227145 0.922317 122 109 127 
-0.116493 -0.168666 1.08946 65 41 54 
-0.440698 0.142586 1.32522 106 93 123 
-0.243536 -0.0397972 1.22297 98 63 70 
-0.265695 -0.0705938 1.23915 128 100 115 
0.302033 -0.0113737 0.888941 113 94 114 
-0.409958 -0.127671 1.33004 127 107 134 
-0.0518201 -0.12853 1.04564 98 57 65 
-0.435658 0.00858799 1.33444 96 83 103 
-0.260838 0.167883 0.867935 82 37 42 
-0.35344 -0.0691365 1.29093 118 91 106 
-0.37539 -0.15958 1.31187 109 78 94 
-0.318884 -0.0352803 1.2672 109 86 96 
0.339724 0.217766 0.841909 112 109 140 
0.340972 0.0242727 0.861145 119 96 112 
-0.311385 0.170035 0.892717 70 36 35 
-0.391226 0.124799 1.29852 87 70 89 
-0.423672 -0.048777 1.33097 121 97 123 
-0.321614 -0.208457 1.28439 117 89 112 
-0.179106 -0.209438 1.19924 63 42 51 
0.119576 0.0672907 0.929252 149 101 117 
-0.00735364 0.148114 0.944378 155 108 124 
0.161939 0.253016 0.771927 64 75 81 
0.160337 -0.191326 0.993656 132 96 106 
-0.270775 -0.0951337 1.24525 117 96 115 
-0.283206 0.184516 1.11138 30 20 19 
-0.418636 0.0180074 1.32313 111 94 113 
-0.387152 0.301244 1.26143 90 77 87 
0.339297 -0.365507 0.89656 138 117 136 
0.068139 -0.0450689 0.996515 80 52 67 
-0.31559 0.175184 1.12807 81 49 52 
-0.315612 0.0967715 1.05681 150 99 118 
-0.328612 0.172469 1.25662 51 35 48 
-0.326489 0.283664 1.12472 31 32 27 
0.337691 0.246758 0.838718 128 114 129 
-0.332465 -0.183296 1.28798 115 88 103 
-0.360819 0.199462 1.27344 116 90 101 
0.0809283 0.0335801 0.978386 107 52 58 
0.358268 -0.367877 0.885125 136 118 140 
-0.331701 0.224169 1.25405 90 71 75 
-0.121231 -0.0910217 1.08626 105 60 63 
0.300633 0.258488 0.847197 64 59 65 
-0.309034 0.257991 0.87919 119 77 87 
0.348433 -0.233882 0.878904 119 100 119 
-0.260998 -0.202289 1.24722 133 110 120 
0.370017 0.123159 0.835445 120 97 113 
-0.332434 0.272248 0.971457 88 59 64 
-0.266908 -0.210053 1.2515 144 114 126 
-0.197716 0.158713 1.07506 149 97 119 
0.0494877 0.0709938 0.998228 137 79 91 
-0.361298 0.294647 1.24666 55 50 57 
-0.308245 0.1806 0.91472 88 48 56 
-0.030616 -0.0298423 1.02694 139 88 103 
-0.189223 0.250011 0.771001 80 81 99 
0.235694 -0.0403058 0.930897 142 119 135 
-0.342756 -0.141544 1.29107 141 118 136 
-0.14965 -0.0785087 1.09672 115 61 74 
0.297534 0.232845 0.851885 102 89 107 
-0.37134 0.157605 1.28229 90 70 82 
-0.144063 0.0983861 1.07757 141 81 93 
-0.0513477 -0.0866756 1.04326 76 40 44 
0.280992 -0.254861 0.916368 122 105 124 
-0.115113 -0.227577 1.07218 75 39 53 
-0.340971 0.110116 1.26716 110 84 93 
-0.0177385 0.130874 0.968017 90 54 68 
-0.380056 -0.154895 1.32848 94 73 88 
-0.395913 -0.131637 1.32179 104 85 107 
-0.291692 0.279916 1.10419 62 42 43 
-0.124078 0.159169 0.788876 78 42 42 
-0.296595 -0.1685 1.27465 126 98 112 
-0.0936335 -0.242134 1.05195 66 31 35 
0.292082 -0.0846662 0.8988 114 89 108 
-0.218593 0.121292 1.13496 107 60 70 
-0.369605 -0.095654 1.30295 119 101 123 
-0.182783 -0.225806 1.20356 44 31 38 
-0.390259 0.2479 1.28615 70 62 77 
0.256402 0.100789 0.904154 30 71 177 
-0.126463 0.090212 1.0562 129 75 88 
0.348131 -0.367548 0.890694 124 99 121 
-0.165445 0.104758 1.11632 84 38 49 
-0.291503 -0.184969 1.26365 116 85 100 
0.305201 -0.0955191 0.897485 100 72 87 
-0.0809672 0.0728994 1.04273 94 48 51 
0.113734 0.0836944 0.946541 124 72 84 
-0.448266 -0.01078 1.34454 122 104 126 
-0.216189 -0.0314814 1.16561 86 58 73 
-0.308029 0.27284 1.23709 30 29 35 
0.116439 0.0223479 0.959662 71 45 54 
0.0304269 -0.130676 1.02376 114 61 69 
0.332037 -0.216485 0.886933 101 74 91 
-0.287619 0.163527 1.12554 127 79 93 
0.215356 0.066349 0.93714 104 80 96 
-0.418644 -0.0162427 1.32605 99 78 97 
-0.460562 0.0550231 1.34409 107 88 108 
-0.458677 0.0652242 1.34304 100 81 101 
-0.328809 -0.100779 1.27902 101 78 94 
-0.319802 0.272875 0.913341 52 49 60 
-0.193077 0.12265 1.11564 92 60 73 
-0.227123 -0.0709923 1.16293 98 49 53 
-0.448792 0.186605 1.32619 120 100 112 
0.183291 -0.303234 0.986596 123 100 120 
-0.248893 -0.00143809 1.16902 116 60 69 
-0.37173 0.183007 1.28059 75 62 80 
-0.318033 0.278314 1.23239 63 54 55 
-0.292858 0.102428 1.08981 115 58 67 
0.215092 -0.000655998 0.941121 113 93 105 
-0.0902903 0.00351092 1.04922 95 61 36 
0.283862 -0.262276 0.921069 114 91 117 
0.0740766 -0.0790701 0.980268 95 52 59 
0.0820765 -0.0550307 0.972019 111 60 69 
-0.41384 0.232134 1.2979 109 91 115 
-0.427937 -0.0786952 1.32733 119 105 131 
0.235844 -0.30251 0.953795 108 85 111 
-0.24004 -0.0303027 1.21902 111 83 98 
-0.332564 0.159397 0.969854 81 46 50 
-0.315063 0.262537 0.90228 107 62 69 
0.32166 0.219697 0.847869 124 120 145 
0.341659 0.22465 0.827502 127 118 135 
-0.384206 0.0267199 1.3013 103 86 104 
-0.441097 0.239137 1.31919 123 108 129 
0.320056 -0.118718 0.88813 127 101 114 
-0.228862 0.124864 1.14022 97 62 68 
0.0610954 -0.0115135 0.998482 103 71 95 
-0.275058 0.211016 0.874414 112 82 108 
-0.406204 0.159026 1.30259 83 69 102 
-0.302174 0.286607 1.10969 65 46 50 
0.255423 -0.189025 0.93287 112 88 102 
-0.409996 0.185362 1.30312 111 101 128 
0.317965 -0.18816 0.894462 122 97 118 
-0.265125 -0.225136 1.25111 127 95 108 
0.360648 0.153584 0.840744 132 108 124 
-0.390639 0.180231 1.29198 113 96 112 
-0.100899 0.0956226 1.04431 101 50 59 
0.230241 -0.333338 0.960765 116 100 126 
-0.179146 0.156385 0.814259 111 65 75 
-0.223394 0.0201456 1.16572 104 71 92 
0.0420041 0.0897182 0.988147 162 106 119 
-0.0358617 0.0333202 1.02462 131 78 86 
-0.341339 -0.162187 1.28813 113 84 102 
-0.145529 0.22644 0.790184 128 89 110 
-0.212452 0.258283 0.779892 237 240 255 
-0.39959 0.298889 1.26598 92 81 95 
-0.344138 0.26003 1.25502 84 70 85 
0.36846 0.189105 0.829866 106 82 96 
-0.156118 0.147816 0.796894 78 37 43 
-0.383595 0.272013 0.894161 92 100 113 
-0.189296 -0.216663 1.13674 88 47 53 
-0.194664 -0.231288 1.13221 72 36 38 
-0.265007 0.16294 1.1129 126 76 87 
-0.458499 0.148099 1.33443 110 98 122 
-0.214411 0.064689 1.15943 94 63 81 
-0.24692 -0.127518 1.233 118 91 106 
-0.0435603 -0.24639 1.02336 77 44 53 
-0.107033 -0.160313 1.08228 123 70 86 
-0.35854 0.0200885 1.28671 122 98 114 
-0.423059 0.0457647 1.32454 103 80 96 
-0.321705 0.24371 0.96019 136 92 109 
-0.418403 0.18143 1.30868 128 118 143 
-0.30231 0.176162 0.893202 121 75 86 
-0.312272 0.0765161 1.25356 92 72 84 
0.318814 -0.314629 0.901557 118 100 122 
-0.202725 -0.0542353 1.15627 118 67 74 
-0.0577364 0.0920411 1.01707 110 55 61 
-0.248226 0.15378 0.853369 114 61 67 
-0.310442 -0.214056 1.27826 141 114 133 
-0.325796 0.172269 0.958633 91 51 59 
0.339448 -0.106443 0.873749 131 105 130 
0.352879 -0.210079 0.874758 130 108 129 
-0.167658 -0.027436 1.13693 106 57 63 
-0.312239 0.200155 0.933819 88 45 54 
0.361553 0.0612438 0.847615 130 102 117 
-0.222649 -0.0224452 1.16947 125 69 78 
-0.364949 0.0510107 1.2902 87 69 81 
-0.407323 0.265798 1.29562 113 87 100 
-0.321177 0.267873 0.926509 63 42 47 
-0.0096288 -0.00562182 1.01333 136 80 91 
-0.34654 0.203479 1.26343 112 86 97 
0.135569 -0.244841 1.00893 123 98 117 
0.235632 -0.230908 0.950272 105 90 113 
-0.439602 -0.0942906 1.34443 108 90 112 
0.129454 0.0778451 0.911894 117 64 74 
-0.32937 0.274183 0.959373 56 40 43 
0.134374 0.0862099 0.906528 174 119 138 
-0.434739 0.263895 1.31115 75 58 76 
-0.37478 -0.0847641 1.31194 104 82 103 
-0.310897 0.247297 0.885357 92 60 65 
-0.389264 -0.130315 1.31785 130 113 132 
-0.292079 0.258299 0.869433 129 82 98 
-0.30436 0.222846 1.23723 49 34 39 
-0.252059 -0.0967882 1.23214 110 78 91 
-0.462901 -0.0847261 1.35707 128 111 130 
-0.218849 0.252878 0.825393 114 73 87 
-0.432852 0.0995416 1.33016 92 74 98 
-0.16257 0.0533101 1.10178 133 79 93 
-0.267419 0.246827 1.10371 59 40 44 
-0.315801 0.230753 1.24362 87 66 73 
-0.284699 0.159239 0.874828 78 38 39 
-0.360475 -0.0335138 1.29245 106 83 103 
0.0322558 0.0572506 1.00755 115 81 105 
-0.31174 0.174307 0.924871 58 32 31 
-0.269136 0.125919 1.11445 126 83 103 
-0.307671 -0.0925183 1.26653 130 106 120 
-0.31862 0.287828 1.12003 35 33 38 
-0.385739 -0.0204537 1.30684 121 94 113 
0.0271274 0.0447621 1.013 100 68 89 
-0.287187 0.0874691 1.23935 57 44 54 
-0.119041 0.111437 1.04304 130 70 78 
-0.135089 0.0547706 1.08459 135 79 90 
-0.260397 0.146465 0.859976 117 63 77 
-0.327685 0.232948 1.25072 91 70 77 
-0.372562 0.0494766 1.29394 110 92 108 
-0.432943 0.0747138 1.32774 105 92 120 
0.300629 -0.335933 0.918069 123 103 130 
-0.348259 0.27039 1.1382 73 41 44 
0.085111 -0.0555099 0.958331 145 97 113 
0.130835 0.0224182 0.928779 98 71 86 
-0.300668 0.164521 0.887313 111 61 70 
-0.443506 0.0682271 1.33442 110 92 118 
-0.137952 0.117487 1.05672 158 111 129 
-0.445793 0.0161503 1.33943 110 92 114 
0.216264 0.117666 0.932542 58 44 59 
0.217289 -0.0329868 0.943685 68 45 51 
0.290731 0.0188049 0.894561 49 36 46 
0.194491 -0.0117149 0.95601 76 60 70 
0.237161 0.169552 0.917114 76 61 80 
0.0790675 -0.266546 1.04732 89 66 84 
0.230635 -0.0561356 0.939881 51 38 45 
0.0579503 0.028355 0.994173 35 14 19 
0.270891 0.208295 0.890926 107 97 121 
-0.0955303 -0.271877 1.05657 118 67 84 
0.0918061 0.217001 0.889534 73 45 59 
0.0139286 0.131096 0.948353 89 63 74 
0.231955 0.209854 0.916383 122 117 140 
0.22767 0.139785 0.921085 128 102 115 
0.219393 0.127206 0.928057 138 117 134 
0.21914 0.17336 0.927113 127 125 147 
-0.216082 0.171438 1.06669 80 57 65 
0.211738 0.0939744 0.936784 124 121 142 
0.0928417 0.188236 0.892143 79 33 44 
0.228077 0.151321 0.920214 123 110 130 
0.23256 0.194537 0.913682 113 88 109 
0.217695 0.188819 0.923665 126 101 123 
-0.0596252 -0.272653 1.01494 46 20 23 
0.273209 0.198648 0.888031 119 92 109 
0.116985 -0.215373 1.02068 122 105 123 
0.0709509 -0.316388 1.05613 91 67 83 
0.122307 0.151503 0.868513 42 24 22 
0.225595 0.111967 0.925473 108 94 111 
-0.186111 0.25935 0.788493 113 115 136 
0.0992781 0.173113 0.889839 66 35 50 
0.221187 -0.285907 0.961335 118 95 113 
0.154128 -0.335998 1.0067 100 76 92 
0.223302 0.218143 0.920097 102 95 129 
0.127501 -0.181435 1.00976 133 124 145 
0.199485 0.0530199 0.949046 119 106 124 
0.362142 -0.295096 0.875321 97 68 86 
0.112927 0.198558 0.879203 78 34 49 
-0.127798 -0.268011 1.07574 139 85 99 
0.0893418 -0.315522 1.04631 92 69 85 
0.223961 0.200878 0.91843 104 80 94 
0.20716 0.0769844 0.940642 112 87 108 
-0.0954846 0.233195 0.765246 131 89 101 
0.117192 -0.11392 1.01106 93 63 75 
0.205149 -0.13117 0.96027 118 101 120 
0.125086 0.201657 0.871427 118 70 84 
-0.0881406 0.25193 0.765116 119 78 96 
0.107092 -0.164774 1.02093 104 74 84 
0.0982249 0.254441 0.871 59 47 51 
0.201272 0.0959295 0.942462 116 109 127 
0.117944 -0.3229 1.02816 111 83 98 
0.0740923 -0.254355 1.04861 105 80 99 
0.0911897 -0.288883 1.04085 109 80 98 
-0.368196 -0.222826 1.31031 120 95 114 
0.0999755 0.229963 0.879767 105 66 85 
0.121887 0.228313 0.866955 119 77 99 
0.0575986 -0.243419 1.05754 56 39 47 
0.21224 0.23776 0.904584 73 62 79 
0.109967 0.189074 0.881776 129 88 104 
0.256603 0.204968 0.899265 56 45 62 
0.090428 0.202281 0.891809 127 76 93 
0.186852 -0.193149 0.977198 89 63 76 
0.114837 0.208123 0.876637 84 47 64 
0.0838706 -0.232761 1.04094 107 76 92 
0.213488 0.144097 0.931893 116 109 127 
0.09734 -0.323697 1.04087 96 68 80 
0.0659799 -0.230273 1.05086 93 61 72 
0.0810007 -0.307191 1.05012 97 69 83 
0.24345 0.115867 0.913852 124 116 139 
-0.362002 -0.276987 1.31473 131 103 118 
0.304177 -0.266569 0.909751 94 75 97 
0.320782 0.135879 0.866114 68 51 69 
-0.477091 0.138832 1.34623 118 106 128 
0.366887 -0.0865515 0.854596 132 108 124 
0.0892123 -0.30205 1.04557 106 92 118 
0.228389 0.181647 0.917544 90 68 91 
0.354686 -0.310164 0.882088 96 64 85 
-0.463706 -0.256201 1.37342 125 100 119 
0.0915705 0.140454 0.899235 116 70 81 
0.309685 -0.187811 0.900165 97 73 99 
0.245454 0.166262 0.910011 91 64 79 
0.201325 -0.0300104 0.95235 90 68 80 
0.257569 -0.135909 0.926715 115 92 112 
-0.167179 -0.264511 1.09138 53 22 28 
0.211136 -0.0219929 0.944785 120 98 111 
0.183384 0.0255122 0.959877 109 80 85 
0.110388 0.253301 0.864212 57 46 50 
0.0612857 -0.30665 1.06168 122 107 128 
0.337672 -0.186322 0.881299 124 101 121 
0.211224 0.107812 0.934556 127 97 107 
0.325896 -0.299894 0.898813 126 109 127 
0.333264 -0.312858 0.894137 101 74 93 
0.313404 0.0960439 0.873489 104 82 95 
0.0738284 -0.32918 1.0548 106 82 104 
0.135648 -0.0914445 0.997325 134 104 116 
0.249919 -0.14794 0.932779 116 101 124 
-0.0613885 0.151175 0.785245 115 69 79 
0.182732 -0.334112 0.989517 131 112 132 
0.167426 -0.136634 0.982107 104 77 96 
0.370541 -0.0441866 0.849455 112 88 110 
0.234005 -0.187362 0.945574 106 83 103 
0.288154 0.178568 0.880702 119 98 113 
0.292908 -0.301081 0.917935 101 74 89 
0.0631837 0.137312 0.821232 129 76 94 
0.0453892 -0.322486 1.07104 139 122 140 
0.126691 0.257574 0.853045 68 50 62 
0.110721 0.141913 0.871921 113 62 71 
0.164518 -0.181501 0.987843 137 115 138 
-0.120628 -0.0621736 1.08501 46 22 20 
0.0806396 0.128659 1.05233 89 63 74 
0.100892 0.142485 0.894748 166 117 136 
0.00653244 -0.221154 1.01823 111 69 81 
0.109972 0.227026 0.877505 147 103 130 
0.211848 -0.337005 0.97183 118 89 111 
0.235452 0.156111 0.916065 97 78 100 
-0.481027 0.0465164 1.35593 114 99 120 
0.18409 -0.286777 0.985313 127 102 121 
0.108824 0.167808 0.883151 103 60 69 
0.347653 -0.282442 0.882713 128 106 129 
0.206048 -0.0533183 0.954011 87 69 81 
0.109689 -0.176344 1.02048 145 117 132 
0.28078 -0.213957 0.919438 101 76 95 
0.102291 0.153208 0.880777 58 29 31 
-0.160701 0.224822 0.789395 105 80 101 
0.203703 0.0643774 0.942446 96 72 88 
0.230298 -0.104404 0.941129 114 91 111 
-0.471021 0.0370382 1.35259 111 93 117 
0.0934568 -0.153906 1.02877 104 77 86 
0.332293 -0.230899 0.890186 126 111 134 
0.122494 -0.206706 1.01628 136 112 128 
0.193548 0.0428745 0.950497 111 87 101 
0.178326 -0.179915 0.979259 127 104 124 
0.149346 -0.210465 0.999196 107 80 95 
0.276523 0.12615 0.892696 106 80 93 
0.282871 -0.150764 0.912293 109 78 93 
0.216306 0.25918 0.900973 105 92 102 
0.309814 0.24534 0.840963 120 103 119 
0.340297 -0.127967 0.875737 120 93 108 
0.277588 -0.333966 0.931236 100 78 99 
0.319377 -0.138439 0.890244 109 84 105 
0.0893845 0.171521 0.894696 109 63 73 
0.364803 -0.12626 0.859582 118 91 106 
-0.203212 -0.121712 1.15414 100 53 63 
-0.259625 0.1198 1.16144 130 76 92 
0.10479 0.127391 0.893467 108 73 95 
0.345067 -0.0105952 0.861482 92 71 88 
0.371477 0.0622349 0.840014 96 72 86 
0.367607 -0.0664671 0.85324 111 82 102 
0.0675074 0.101966 0.961935 101 59 71 
0.0861868 0.233358 0.8806 154 109 130 
-0.223642 0.238229 0.859149 114 72 92 
0.0926937 0.143747 0.883118 119 65 78 
0.198303 0.078969 0.946643 115 84 99 
0.186854 0.0139477 0.95754 115 85 97 
0.247009 -0.208362 0.940151 110 83 100 
0.366125 0.083021 0.841187 117 94 104 
-0.126947 0.115071 0.924634 131 78 96 
0.367709 -0.0151527 0.848712 108 81 98 
0.144939 -0.327035 1.01145 118 93 112 
0.232856 -0.142396 0.942225 97 72 91 
0.201639 -0.0199832 0.951609 112 87 108 
-0.211603 0.115156 1.1316 149 96 112 
0.364822 -0.0965303 0.857781 115 90 111 
0.305068 -0.227312 0.904721 122 99 117 
0.0992916 0.239789 0.872242 119 79 90 
0.0812648 0.114529 1.05328 150 117 136 
0.185774 -0.00166789 0.959294 111 84 101 
0.230816 -0.250802 0.955334 114 89 111 
0.238055 0.135957 0.91549 118 87 95 
-0.423933 0.129988 1.27455 22 22 48 
-0.213698 0.258462 0.791498 38 34 67 
-0.0874392 0.0381543 1.02366 218 216 204 
0.0934465 0.0959574 0.931622 55 32 38 
-0.0827959 0.0144843 1.06046 73 51 40 
-0.231825 -0.260448 1.23526 57 34 42 
0.179133 0.251006 0.763288 167 183 209 
-0.0616569 -0.0537358 1.05333 63 29 30 
-0.240017 -0.163977 1.13978 131 78 84 
0.104794 -0.301301 1.03549 81 63 85 
0.0945011 -0.0606308 0.943228 144 113 131 
-0.422023 0.129868 1.2894 38 25 71 
-0.0713631 -0.113714 1.0592 116 63 69 
0.372237 0.217278 0.809558 138 129 148 
-0.0688055 0.047414 1.02709 186 177 168 
0.0802729 0.0445277 0.976481 74 35 38 
0.0505039 0.000873953 0.999091 84 41 50 
-0.202097 -0.24654 1.10163 117 60 69 
0.0158145 0.0309951 1.02233 63 30 39 
-0.456914 -0.210202 1.3696 57 44 62 
-0.127301 -0.152889 1.09583 55 28 37 
-0.0767435 -0.000994826 1.04802 121 98 80 
-0.0781863 -0.0712511 1.06139 57 27 27 
-0.42417 -0.21137 1.34727 58 36 48 
-0.0443413 0.168527 0.796188 80 44 58 
0.120811 -0.228489 1.01992 71 48 68 
0.134978 -0.268355 1.01513 81 66 89 
0.25275 0.100881 0.913684 37 78 183 
0.0393216 0.0483291 1.00602 72 36 46 
-0.0257835 0.070118 1.01648 135 82 92 
-0.159172 -0.0565873 1.13354 43 22 21 
-0.440082 -0.210594 1.35699 62 46 57 
0.237813 0.220091 0.909916 130 104 115 
0.117212 -0.0423935 0.91911 88 33 36 
-0.268961 0.123539 1.1542 70 49 56 
0.0180885 -0.00161766 1.02249 57 25 30 
-0.358861 -0.225712 1.31094 66 49 65 
-0.170883 0.0998342 1.09442 147 90 107 
0.013391 -0.0345925 1.02855 66 34 45 
-0.222464 -0.245447 1.23252 131 112 132 
-0.392767 -0.231163 1.32978 85 61 75 
-0.0738424 -0.271885 1.04387 143 87 98 
-0.470139 -0.00202161 1.35805 56 46 57 
-0.47633 -0.179096 1.37688 74 58 69 
-0.00838073 -0.0927267 1.02692 133 76 85 
-0.19286 0.0504523 1.158 63 23 21 
-0.0408529 -0.0471498 1.02978 108 75 96 
-0.0701077 0.205283 0.784953 88 46 66 
-0.417908 -0.190166 1.34345 71 57 72 
-0.424465 -0.198635 1.34655 136 119 135 
1.07988 0.0220701 2.66093 80 39 53 
0.329961 0.163833 0.859588 60 49 57 
-0.193568 -0.102875 1.15432 111 67 84 
-0.158507 -0.0377644 1.10118 103 69 86 
0.137037 0.136908 0.873128 105 65 74 
-0.38034 -0.236156 1.32579 67 54 72 
-0.0374155 -0.15799 1.01327 85 35 44 
-0.0699158 0.173323 0.788772 110 66 89 
-0.298566 -0.232176 1.27368 132 117 136 
-0.350807 -0.229583 1.30617 96 84 96 
-0.0600917 0.067586 1.02609 73 34 39 
-0.418545 -0.233413 1.34829 69 50 56 
-0.391216 -0.0423085 1.30748 53 40 57 
-0.466329 -0.208767 1.37303 68 47 66 
0.148032 -0.0581032 0.986831 102 64 89 
-0.232749 -0.242444 1.23518 74 51 61 
0.0153769 -0.155646 1.02966 101 61 69 
-0.346471 -0.245423 1.303 94 66 78 
-0.235411 0.00817489 1.17186 77 32 39 
-0.430778 -0.210847 1.35142 59 44 51 
0.245656 -0.0177247 0.926799 93 79 94 
-0.421524 -0.153633 1.33833 143 123 135 
-0.0134913 0.143073 0.797318 135 79 92 
0.264162 -0.0680099 0.920139 77 60 78 
-0.0235614 -0.0236343 1.0222 79 41 52 
-0.051863 -0.158815 1.04915 54 27 32 
-0.456137 0.287432 1.3137 114 108 122 
-0.242306 -0.248464 1.24029 97 64 75 
-0.250782 -0.260187 1.24803 101 71 81 
-0.195345 -0.090163 1.15275 67 36 51 
1.0955 -0.0320178 2.64728 132 75 84 
0.0348729 -0.0585552 1.00911 128 80 96 
-0.287314 -0.232199 1.27314 123 96 111 
-0.464825 0.230607 1.33542 117 103 120 
-0.114076 0.158182 0.781025 81 45 49 
-0.183264 -0.2414 1.09142 84 51 58 
-0.206908 0.230714 0.826489 111 73 88 
-0.135263 -0.247885 1.06345 47 25 27 
-0.431969 -0.202282 1.35165 101 82 88 
-0.322411 0.189961 0.969676 60 31 36 
-0.193001 -0.161485 1.13153 84 45 63 
-0.238795 0.0634414 1.16656 115 63 75 
-0.15576 -0.243496 1.0762 42 20 22 
-0.168182 -0.243566 1.08578 43 22 29 
-0.460207 0.263325 1.32961 70 56 69 
-0.103091 -0.127127 1.08081 121 69 82 
0.116278 0.182209 0.878031 121 73 85 
-0.357094 0.103912 1.24388 116 90 103 
-0.0818802 0.0519713 1.02161 121 103 91 
-0.34955 0.105136 1.26248 116 90 103 
0.106097 -0.130398 1.01994 95 68 87 
-0.430316 -0.22763 1.35335 80 56 69 
-0.236075 0.255826 0.804776 74 73 87 
-0.47326 0.17236 1.34243 78 67 97 
-0.403863 -0.198771 1.33449 93 61 76 
-0.478343 -0.221911 1.38128 132 115 134 
-0.106006 -0.249826 1.04403 49 26 34 
-0.0451548 -0.219354 1.02897 134 83 100 
-0.221013 0.232162 0.836434 109 70 88 
-0.324575 -0.240806 1.28934 99 75 97 
1.08927 0.0135971 2.66221 80 38 50 
-0.251202 -0.0394155 1.1692 68 37 45 
-0.339682 -0.234699 1.2992 113 87 100 
1.09287 -0.0215843 2.64352 120 67 75 
-0.475584 0.0702326 1.3554 77 68 87 
-0.258217 -0.252271 1.24924 106 73 90 
0.283006 0.117058 0.890593 145 124 141 
0.108019 -0.142587 1.02162 126 109 127 
-0.224965 -0.268547 1.23364 89 72 90 
-0.441202 -0.231404 1.35877 122 98 114 
-0.0252361 0.101835 0.977926 149 91 106 
-0.328331 0.239938 1.14002 42 23 27 
-0.00418232 0.145163 0.952256 150 97 115 
-0.466541 0.21416 1.33432 118 105 133 
-0.288632 0.0213146 1.18631 36 24 28 
0.0664503 -0.212217 1.05148 86 54 67 
-0.421 -0.137563 1.34092 119 99 126 
-0.254149 0.167288 1.0748 150 108 130 
-0.460131 -0.196489 1.36819 131 107 121 
-0.474763 0.103053 1.34954 76 67 96 
0.174745 -0.331123 0.995678 104 85 105 
0.0967605 0.115893 0.898861 77 60 70 
-0.178272 -0.247725 1.08527 121 74 90 
-0.0550778 -0.274126 1.02576 48 21 30 
-0.30762 0.26998 1.11347 56 42 39 
-0.155002 0.197146 0.802611 88 61 78 
-0.211526 0.142612 0.829365 106 58 72 
-0.232717 0.0803205 1.17717 103 50 56 
-0.472558 -0.0809917 1.36411 121 102 124 
0.0463023 0.0278064 0.992452 110 60 61 
-0.112823 0.22245 0.77461 168 118 143 
-0.4723 -0.0664204 1.36507 131 118 138 
-0.368152 0.237104 1.27675 59 47 67 
-0.191635 0.138169 1.07087 127 78 97 
-0.441502 -0.191846 1.35458 129 104 123 
-0.370716 0.0862037 1.28852 128 106 119 
-0.0226039 -0.249744 1.01055 78 51 58 
-0.231514 0.140836 1.09828 90 62 76 
-0.16743 -0.0130556 1.12591 81 45 57 
-0.469624 0.0463501 1.35479 117 107 131 
-0.363066 -0.0871922 1.29621 90 65 84 
-0.255885 0.24149 0.849779 73 41 46 
-0.162101 0.227987 0.800685 105 71 88 
-0.138747 0.0218086 1.08957 70 40 52 
0.220339 -0.334699 0.96604 108 87 106 
0.0933524 0.100265 0.920871 133 100 117 
-0.160908 -0.167195 1.09363 85 36 40 
-0.119137 -0.143913 1.09441 60 29 37 
-0.477689 0.0265941 1.35741 125 104 123 
-0.27678 0.072138 1.18971 90 44 57 
0.336062 0.19986 0.851808 110 82 96 
-0.205118 -0.242351 1.18267 121 103 125 
-0.467496 0.129834 1.34446 119 102 118 
-0.0262338 -0.0139489 1.02193 132 77 96 
0.28514 0.247768 0.859424 123 106 124 
-0.20428 -0.265477 1.21885 116 92 118 
-0.136943 0.0836207 1.08405 81 47 61 
-0.307674 0.131985 1.14026 102 69 78 
-0.430454 -0.186712 1.34727 124 96 108 
0.279159 0.193142 0.874528 129 107 128 
-0.0461513 0.0508469 1.02375 121 65 76 
-0.475771 -0.0359907 1.36359 109 86 106 
0.137946 -0.300894 1.01417 107 82 101 
0.00957402 -0.177679 1.02505 93 50 57 
-0.180705 -0.0743411 1.14943 117 61 74 
0.323663 0.0185448 0.874788 117 95 116 
-0.265367 0.234947 0.862056 110 73 90 
-0.128273 -0.00939439 1.09254 115 67 79 
-0.324605 -0.255313 1.29147 121 108 128 
-0.467167 0.253683 1.33354 102 91 108 
-0.458954 -0.186987 1.36524 150 122 137 
0.320873 -0.106637 0.885856 121 99 112 
0.0846952 0.0852525 0.952961 145 91 104 
-0.202542 -0.249792 1.21521 135 121 147 
-0.357846 0.27532 1.26471 59 55 69 
-0.0231393 -0.270226 0.98644 120 63 78 
-0.30003 0.0246475 1.18614 50 29 28 
-0.350968 -0.214067 1.30359 114 99 118 
-0.191525 -0.242835 1.09748 47 27 29 
-0.470073 -0.17666 1.36973 130 109 124 
-0.333496 -0.24759 1.29606 119 96 112 
-0.477087 -0.167706 1.37423 95 78 97 
-0.329416 0.0314917 1.2706 100 84 110 
-0.45288 -0.219696 1.36482 98 71 88 
-0.240771 -0.258922 1.24022 117 95 107 
0.125775 0.0473784 0.937756 97 73 86 
-0.272766 -0.245809 1.25968 100 73 88 
-0.189334 -0.139285 1.14596 89 47 57 
-0.136688 -0.173432 1.08481 55 27 26 
-0.38403 0.143691 1.29418 102 76 85 
-0.474149 -0.143302 1.37065 121 103 117 
0.048423 0.056216 0.99919 136 82 95 
-0.328255 0.270464 1.12652 46 34 36 
-0.320139 0.244717 0.950905 68 42 51 
-0.293047 0.237023 0.879328 108 74 88 
-0.430012 0.0532952 1.32773 118 103 122 
0.303035 0.183105 0.871854 88 72 99 
-0.474244 0.190808 1.33957 110 102 123 
-0.468472 0.0803838 1.35041 84 71 89 
-0.465269 0.181961 1.33679 100 85 104 
-0.202186 -0.0682079 1.16402 86 44 46 
-0.2786 -0.18747 1.2597 120 93 112 
-0.181 -0.0103139 1.14322 101 55 66 
-0.172304 -0.141401 1.14404 50 23 28 
-0.0273118 0.193543 0.797133 123 83 109 
0.104351 0.0278554 0.967767 116 61 67 
-0.130125 -0.214007 1.0793 129 73 84 
-0.128792 -0.0714906 1.1127 111 69 83 
-0.0733664 0.0302036 1.03306 128 105 91 
-0.485191 -0.173351 1.3814 114 106 130 
-0.47251 -0.197056 1.37524 133 107 120 
0.350834 0.147657 0.845673 106 76 84 
-0.265202 -0.258054 1.25367 108 81 96 
-0.484971 -0.146673 1.37791 121 98 116 
0.112466 -0.0227735 0.927238 70 35 39 
0.239328 0.0932523 0.917713 77 62 105 
0.310865 0.127232 0.885273 135 112 128 
-0.168447 -0.154784 1.14086 79 42 49 
-0.14594 -0.0675001 1.07873 105 64 80 
-0.292926 0.213988 1.12251 88 51 59 
-0.121143 0.100375 1.05931 152 98 112 
-0.0139714 0.0349914 1.01271 101 72 92 
-0.17578 -0.234071 1.10236 76 41 45 
-0.215459 -0.256256 1.22465 111 86 108 
-0.282491 -0.239659 1.26221 125 96 114 
0.101212 -0.233759 1.02989 122 90 111 
-0.359977 -0.245575 1.31158 98 70 82 
-0.190414 0.165195 1.05291 100 59 75 
0.297471 0.0345608 0.877591 119 96 114 
-0.16736 0.018433 1.1212 72 35 42 
0.241332 -0.337159 0.954715 127 113 136 
0.275679 -0.00411761 0.904651 98 75 85 
-0.0709211 0.235619 0.771562 149 106 126 
-0.0553665 -0.243058 1.03045 83 44 47 
-0.471768 -0.0457418 1.35991 124 100 122 
0.0618697 -0.317009 1.06008 131 112 132 
-0.0821916 -0.260007 1.02535 70 29 33 
-0.368553 -0.244486 1.31738 122 94 108 
-0.390756 -0.210989 1.32536 105 76 96 
-0.469496 -0.21964 1.37351 123 98 117 
-0.0731522 -0.193311 1.04175 125 77 89 
-0.218623 -0.0080452 1.16754 123 66 75 
0.289842 0.15119 0.894045 122 95 110 
-0.0519866 0.135939 0.786172 129 80 99 
-0.374983 -0.207894 1.31555 126 98 112 
-0.482452 -0.156906 1.37462 127 110 129 
-0.16184 0.013589 1.10407 123 69 83 
0.100438 0.0365739 0.971266 117 69 81 
-0.486162 -0.203874 1.38331 135 109 122 
0.35055 -0.335764 0.886158 119 103 129 
-0.442455 -0.200586 1.35852 65 41 57 
0.119695 -0.144227 1.01164 117 90 109 
-0.372653 -0.231947 1.31924 114 83 91 
-0.346569 0.243755 1.26227 95 79 90 
0.109248 -0.326483 1.03484 130 106 122 
-0.305952 -0.0137249 1.17854 130 77 85 
0.296908 -0.0760129 0.897134 130 103 120 
-0.116048 -0.190045 1.06744 121 73 85 
0.166409 -0.337057 1.00069 117 93 117 
-0.40854 -0.232493 1.33943 112 94 108 
-0.464915 0.280839 1.32807 80 78 92 
0.197826 0.0300263 0.932712 122 94 109 
-0.482641 -0.0688529 1.36814 122 95 110 
-0.0914422 0.0189974 1.06894 109 75 47 
-0.241553 0.126489 1.14774 103 61 71 
0.283682 -0.0602969 0.904916 67 50 60 
-0.399825 -0.222648 1.33241 103 72 87 
-0.468657 0.0935453 1.34511 106 96 120 
-0.0462478 0.0991824 1.00189 151 97 110 
-0.160372 -0.0408481 1.11142 89 44 51 
-0.476543 -0.013718 1.36102 100 90 115 
-0.0385916 -0.20878 1.01883 115 69 82 
0.347194 -0.200544 0.876746 113 93 120 
0.0123889 -0.24751 1.00998 50 23 28 
-0.0522281 -0.211095 1.03391 111 61 70 
-0.19314 0.109233 1.10344 138 80 95 
-0.469317 -0.0556424 1.35936 129 104 123 
-0.0603975 -0.0696821 1.03094 47 26 25 
0.137505 0.0951756 0.894762 117 70 80 
0.286613 -0.232469 0.918784 115 103 123 
-0.0994203 -0.100551 1.08226 52 21 19 
-0.303292 -0.208142 1.28936 117 92 111 
0.315778 -0.00984919 0.879859 107 88 107 
-0.213864 -0.269602 1.22501 120 106 129 
-0.124076 0.139085 1.02995 128 75 91 
-0.0649576 -0.275757 1.03298 66 33 40 
-0.226689 0.0647191 1.16317 91 42 48 
-0.0500671 -0.271621 1.01074 37 20 28 
-0.24556 -0.166498 1.23393 109 85 99 
-0.208554 0.0127451 1.15939 116 70 81 
-0.185217 -0.167723 1.13746 52 26 37 
-0.137171 0.248314 0.775628 126 78 100 
-0.374909 -0.221791 1.31835 129 107 128 
0.0131824 -0.110446 1.03276 86 48 63 
-0.233735 0.154799 1.08446 136 85 102 
0.332755 -0.261056 0.891544 135 111 133 
0.00223111 0.149524 0.938081 91 58 67 
-0.0488739 -0.107956 1.04375 103 60 69 
0.0576442 0.0837935 0.980742 155 100 119 
0.121317 0.217027 0.87188 119 67 80 
0.271672 -0.139851 0.91715 130 102 124 
-0.180515 -0.234355 1.11319 35 19 22 
-0.478794 -0.0571355 1.36493 132 108 122 
-0.473954 -0.122534 1.36782 128 105 121 
-0.0542363 -0.230651 1.03542 97 63 80 
0.0334336 -0.0954716 1.00993 83 41 53 
0.312378 -0.332149 0.909611 108 80 105 
0.0727601 -0.223091 1.04597 136 110 135 
0.149456 -0.317734 1.00936 137 113 127 
0.282169 -0.157774 0.915075 130 101 121 
0.263252 -0.0354489 0.914792 108 81 96 
-0.480833 -0.0873296 1.36924 115 84 100 
-0.33903 0.140903 1.15625 121 77 90 
-0.0307629 -0.271548 0.993222 76 31 36 
-0.142674 0.150717 1.04205 86 47 66 
0.127431 0.190502 0.871338 92 65 82 
0.353907 -0.353148 0.884097 125 110 133 
-0.0454911 0.092174 1.0537 154 107 125 
-0.466783 0.153722 1.33772 110 97 117 
-0.316629 0.164527 0.994182 78 46 51 
-0.262048 0.225794 0.856299 137 92 112 
-0.43601 0.103662 1.32353 85 77 101 
-0.209304 0.163941 1.06607 150 106 123 
-0.369831 -0.120942 1.30251 112 87 108 
-0.379669 -0.123333 1.31346 109 94 115 
0.129211 -0.198667 1.01124 130 102 117 
0.0926088 -0.0101162 0.967483 99 50 56 
-0.380779 -0.198633 1.31931 106 74 95 
-0.169535 -0.252959 1.07956 78 33 38 
-0.006727 0.0832052 1.00359 153 96 111 
0.227338 0.237297 0.896192 101 86 107 
-0.307985 -0.105648 1.2669 95 74 89 
-0.470897 0.265463 1.33252 69 60 79 
-0.262423 0.106761 1.17339 138 85 105 
-0.0565716 -0.0663547 1.04513 52 24 23 
-0.423689 -0.0967134 1.33422 101 83 105 
0.0652883 -0.0944349 0.98329 57 32 35 
0.0291824 -0.116066 1.024 120 66 79 
0.232095 -0.12068 0.943512 115 97 123 
-0.335035 0.279162 1.24226 59 54 58 
0.385428 0.214542 0.81091 144 130 153 
0.203068 -0.106471 0.955219 114 86 101 
-0.484413 -0.136026 1.37809 125 113 133 
0.143257 -0.181561 1.00028 122 95 114 
-0.428457 -0.109012 1.33987 118 94 116 
-0.108757 0.129298 1.02318 108 76 100 
-0.355975 0.268046 1.25085 64 54 63 
-0.137913 0.235781 0.77778 114 68 81 
-0.0414226 -0.263865 1.00106 69 28 32 
-0.396566 0.153925 1.30145 115 95 107 
-0.128291 -0.201389 1.07266 125 73 86 
-0.0986465 -0.0355662 1.06026 174 157 139 
-0.189452 0.167598 0.82532 117 69 83 
-0.175052 0.11007 1.09054 152 95 110 
-0.103276 0.0405648 1.08328 113 84 76 
0.037416 -0.0722167 1.00041 87 44 53 
-0.219635 0.104258 1.15055 145 94 109 
-0.158913 0.101103 1.08267 103 53 64 
0.273789 0.083482 0.899011 128 100 115 
0.286888 -0.11439 0.920571 134 107 126 
-0.276565 0.165185 1.12043 133 81 94 
-0.301299 0.00402921 1.16605 117 70 80 
-0.0781429 -0.205201 1.04351 128 75 91 
-0.342943 -0.0735022 1.28585 107 75 86 
0.296524 -0.106585 0.8975 116 88 103 
-0.328776 -0.124444 1.28129 119 95 109 
-0.33794 -0.00441613 1.27697 107 78 96 
0.0591388 -0.0816118 1.00118 76 46 56 
-0.377978 0.006973 1.30071 107 82 103 
-0.0610876 0.230252 0.775687 145 100 120 
-0.252833 0.105661 1.16311 141 88 104 
0.146559 -0.0684019 0.988566 140 107 128 
-0.257164 0.20966 0.863681 129 87 107 
0.18256 -0.165417 0.975875 125 95 119 
-0.330438 -0.204666 1.28746 125 94 110 
-0.0707253 0.0903996 1.02826 147 100 116 
-0.221365 -0.166619 1.1455 105 52 58 
-0.337039 -0.0578428 1.27993 126 100 113 
-0.413373 0.13439 1.31778 19 30 62 
-0.396455 0.278046 1.28755 52 48 62 
-0.380123 -0.0442622 1.30615 69 52 71 
0.21343 -0.173441 0.957574 99 72 91 
0.37707 0.00917609 0.847053 109 91 117 
-0.429209 0.204822 1.31322 79 74 97 
-0.415098 0.290941 1.28255 101 92 95 
-0.440361 0.254883 1.31811 84 75 94 
-0.460055 0.295289 1.30627 108 103 109 
-0.426177 0.257792 1.3083 96 83 101 
0.249386 -0.285656 0.942876 132 110 131 
-0.153713 0.186311 1.08589 165 126 147 
-0.416768 0.264653 1.30047 78 65 83 
-0.34473 0.172957 1.26491 54 41 51 
-0.0960788 0.155043 1.01173 95 69 82 
-0.228368 0.211297 0.843618 109 79 105 
-0.428127 0.235334 1.31067 118 96 109 
-0.419222 0.229312 1.30653 104 84 96 
-0.45937 0.125099 1.33873 109 94 117 
-0.179409 0.156412 1.06099 143 89 112 
0.0540185 0.0913715 0.940205 164 105 123 
-0.394092 0.291215 1.27011 70 68 71 
-0.188534 0.233717 0.793233 120 78 90 
0.553181 -0.14178 0.867514 71 83 121 
-0.275775 0.100018 1.09586 142 91 106 
-0.194952 0.109928 1.21517 144 90 106 
-0.298853 0.106977 1.24347 58 41 51 
-0.359325 -0.0220265 1.29061 117 89 104 
-0.110136 -0.130126 1.0931 74 43 51 
-0.310979 0.282612 1.11543 52 41 39 
-0.422453 0.136044 1.33387 23 30 59 
-0.517604 0.00245178 1.38427 67 72 110 
0.196711 0.240804 0.914127 55 53 67 
-0.226507 -0.247269 1.13512 69 34 38 
0.198678 -0.0469103 0.95848 140 121 140 
-0.0921622 -0.158417 1.06641 132 86 97 
-0.339511 -0.261172 1.30016 74 55 75 
0.207303 0.124006 0.935821 49 28 43 
0.163668 0.177072 1.43818 64 32 43 
0.298761 -0.163244 0.905488 60 42 58 
-0.246486 -0.30312 1.24853 74 56 80 
-0.0133467 -0.0808223 1.00273 47 21 22 
-0.0712035 0.192236 0.786276 100 53 71 
0.0621015 0.235453 0.895905 141 96 119 
0.210623 0.203836 0.928613 42 25 31 
-0.491742 0.29487 1.33348 134 121 141 
-0.060419 0.167286 0.791498 76 45 63 
-0.479431 -0.25915 1.38383 70 57 77 
-0.514921 0.107747 1.37425 99 84 105 
0.277085 -0.238619 0.925252 54 40 63 
0.0779327 0.200697 0.899485 45 20 24 
0.072906 0.184295 0.904891 103 60 67 
0.0733783 0.209901 0.901585 115 64 73 
0.208289 0.193646 0.92911 95 80 103 
-0.519654 0.087139 1.37344 151 168 212 
-0.514595 -0.0205419 1.3888 106 89 121 
0.194817 0.118563 0.944903 117 109 132 
-0.514282 -0.247952 1.40712 108 89 119 
-0.520474 -0.170854 1.40054 107 105 142 
0.0718791 0.173231 0.904938 83 53 53 
0.0406433 0.0945595 0.77247 83 51 62 
0.200157 0.207355 0.935544 48 32 43 
0.371925 0.0299744 0.841794 137 117 129 
0.172833 0.0710868 0.960916 71 48 66 
-0.507309 0.279096 1.35681 93 80 97 
0.0957734 0.146929 1.12544 128 80 92 
0.0668472 0.160737 0.902123 81 49 50 
-0.502873 0.228947 1.37164 82 74 95 
0.118967 -0.081539 1.007 121 91 103 
-0.517253 0.0753893 1.37655 107 108 139 
-0.514954 0.15975 1.36902 91 86 118 
-0.0605642 0.181843 0.790328 112 61 80 
-0.164267 -0.0768189 1.11489 115 64 73 
-0.157978 -0.267001 1.08797 57 28 33 
-0.484612 0.17176 1.34936 81 73 97 
0.100573 -0.112365 1.02314 88 65 83 
-0.525916 -0.32243 1.41575 167 184 228 
-0.520587 -0.157682 1.3988 112 120 159 
-0.225561 -0.316885 1.23773 95 78 97 
-0.523336 -0.253025 1.40607 174 191 237 
0.192195 0.0874019 0.948523 129 103 114 
-0.104874 0.165421 0.780366 135 84 103 
0.197495 0.22369 0.933088 102 100 114 
0.207317 0.176916 0.931968 79 60 80 
-0.0323686 0.233539 0.781386 124 84 95 
0.369808 -0.0563825 0.850916 120 95 114 
-0.51876 -0.211538 1.40293 119 106 136 
0.212467 0.224891 0.923154 60 58 80 
-0.516086 -0.0796471 1.39065 112 94 118 
0.17359 0.0596138 0.960656 85 62 78 
0.0644324 0.184949 0.910472 45 39 43 
-0.524112 -0.203282 1.40337 168 186 234 
0.20047 0.106984 0.941131 84 65 84 
0.17412 0.0281337 0.966663 66 45 62 
-0.026181 0.0018472 1.02194 128 75 83 
-0.521222 0.0450516 1.37883 152 169 213 
0.0356288 -0.31938 1.078 104 81 109 
0.0793252 0.254835 0.882624 62 42 44 
0.0991506 -0.217326 1.03064 130 101 119 
-0.260895 -0.159414 1.19805 121 99 112 
-0.397327 0.110754 1.31319 104 88 101 
-0.522792 -0.141123 1.3965 161 178 224 
-0.512774 -0.147202 1.39217 112 92 120 
0.0396272 -0.307728 1.0755 133 111 132 
0.187339 -0.0181456 0.96091 86 68 94 
0.125776 -0.0716817 1.00134 138 109 129 
-0.522704 -0.103246 1.39204 162 176 225 
-0.50691 0.172101 1.36552 93 88 111 
-0.214286 -0.31473 1.2303 124 112 132 
0.379729 0.254511 0.796433 82 78 79 
-0.269642 -0.279157 1.25938 128 100 115 
0.0242095 -0.0982885 1.02456 51 24 29 
0.0682663 -0.265922 1.0535 125 111 136 
0.188325 -0.0554628 0.962854 119 94 115 
0.324555 0.0416575 0.872473 91 73 99 
-0.521349 -0.033409 1.38737 158 177 219 
-0.284809 -0.304673 1.27174 123 100 120 
0.188722 -0.0331436 0.961373 133 114 134 
0.278645 -0.193444 0.916263 131 107 120 
0.0507634 -0.313323 1.06747 107 76 92 
-0.012775 0.235419 0.785948 89 56 63 
0.0313353 -0.303234 1.08039 99 73 98 
-0.301397 -0.308982 1.282 112 94 106 
-0.498708 -0.20598 1.39028 109 81 103 
-0.517185 -0.0958211 1.39255 106 96 121 
0.16662 -0.299245 0.995589 109 78 96 
-0.511216 -0.0382915 1.38499 119 96 114 
-0.494873 0.140043 1.35602 112 103 124 
-0.260262 -0.30717 1.25686 121 93 115 
