ply                 
format ascii 1.0    
element vertex 847
property float x    
property float y    
property float z    
property uchar red  
property uchar green
property uchar blue 
end_header          
0.0235575 -0.142221 1.11251 179 164 145 
0.101746 -0.0485886 1.13898 68 22 35 
0.140079 -0.0480091 1.15474 68 20 34 
0.060236 -0.0437403 1.08169 198 191 183 
0.429708 -0.0260983 1.35194 95 71 97 
0.406309 -0.0228424 1.34265 137 128 145 
0.136963 -0.0103789 1.1536 67 21 34 
0.114977 0.0098022 1.14375 76 29 37 
0.387218 0.0449343 1.33099 90 67 93 
0.362999 0.0699971 1.20036 66 39 54 
0.348312 0.078844 1.1941 81 44 62 
0.438518 0.0900859 1.35391 88 73 102 
0.584882 0.260172 1.38344 46 56 141 
0.466635 -0.392933 1.37504 121 97 123 
0.287114 -0.301335 1.30014 115 90 119 
0.0384176 -0.249014 1.11414 78 37 53 
0.02372 -0.142107 1.11237 179 164 145 
0.104778 -0.0862374 1.14059 67 27 38 
-0.0166239 -0.050179 1.08942 59 16 26 
0.405989 -0.0230143 1.34233 137 128 145 
0.0912596 -0.0131623 1.11308 103 74 78 
0.0905397 -0.0112066 1.11205 182 178 169 
0.114916 0.00970761 1.14351 76 29 37 
0.322285 0.013331 1.23198 64 39 58 
0.522178 0.0466251 1.38743 137 124 142 
0.363102 0.0699437 1.20024 81 53 68 
0.0520846 0.063408 1.06954 127 135 181 
0.225297 0.0725339 1.14252 90 54 68 
0.293527 0.0957054 1.17079 102 56 69 
0.205889 0.0947343 1.13439 87 40 60 
0.0872014 0.0936235 1.08442 102 54 70 
0.000165819 0.0927491 1.04737 102 54 66 
-0.140473 0.0914505 0.988158 89 46 65 
0.00541877 -0.313697 1.06909 81 50 68 
-0.000742254 -0.310564 1.06637 72 31 45 
0.465971 -0.392664 1.37461 137 114 140 
0.563384 0.25113 1.37533 26 31 73 
0.493513 0.211751 1.37218 117 110 128 
-0.172932 0.090718 0.973272 87 40 50 
0.293232 0.0956279 1.17121 118 67 82 
-0.220588 0.00649414 1.00175 74 34 42 
0.151715 0.0753379 1.11148 96 53 72 
-0.0355037 0.0700069 1.0329 81 37 50 
0.237678 0.0762834 1.14814 124 73 90 
0.226472 0.0746769 1.14294 116 80 92 
-0.0549492 -0.125247 1.07554 53 20 29 
0.224731 0.0726242 1.14319 81 45 59 
0.329115 0.0737273 1.18583 98 47 62 
0.0687678 0.0663508 1.07673 147 155 202 
-0.0522445 -0.0886161 1.07579 68 27 35 
-0.0282547 -0.0882007 1.08471 62 25 33 
-0.446152 0.0540325 0.977698 148 171 238 
-0.0678045 -0.0627794 1.31189 63 21 33 
0.47157 -0.0622834 1.36943 60 42 64 
0.08639 -0.0408043 0.961019 68 22 35 
0.230132 -0.0404027 1.2236 86 36 47 
0.0683149 -0.0209274 1.07719 184 177 161 
-0.0288764 -0.0115927 1.08444 54 21 28 
0.605503 0.249793 1.39003 25 22 67 
0.32019 0.0802199 1.18088 144 104 115 
0.139131 0.0718174 1.10615 80 46 60 
0.241448 0.0727788 1.14898 92 45 61 
0.329469 0.073807 1.18531 89 41 55 
-0.449683 0.0607765 0.975265 154 170 232 
0.52254 0.0467313 1.38503 147 133 146 
-0.446316 0.0250756 0.979849 161 182 247 
-0.443756 0.0241376 0.981744 11 29 79 
-0.474115 0.0222928 0.968689 25 32 74 
0.183078 -0.00985542 1.20399 110 67 76 
0.136888 -0.010858 1.15304 67 21 34 
0.114242 -0.0106722 1.14356 59 17 29 
-0.0291023 -0.0120634 1.08434 73 30 40 
0.054262 -0.0252782 1.06983 112 102 110 
-0.0544057 -0.125567 1.07514 61 26 33 
0.0400589 -0.166778 1.11131 159 137 124 
0.532273 -0.0214527 1.39137 134 119 138 
0.292773 -0.242484 1.29878 88 76 100 
0.465878 -0.442186 1.37662 67 47 75 
0.00317814 -0.312873 1.06897 113 79 93 
-0.195942 0.0714111 0.964405 84 48 62 
0.0518309 0.066409 1.06894 136 135 169 
-0.242216 0.0629966 0.944319 44 24 33 
-0.154297 -0.0983368 1.06498 73 33 44 
0.230377 -0.0403687 1.22349 79 32 42 
0.205688 0.0944716 1.13441 96 47 66 
0.0058731 -0.313478 1.06845 80 52 67 
0.0183553 -0.26873 1.10634 71 35 49 
0.0344694 -0.167332 1.11107 170 158 134 
-0.474272 0.0217961 0.968895 19 27 64 
-0.446355 0.0253549 0.979981 170 191 254 
-0.448771 0.0608452 0.974326 139 151 209 
0.136343 -0.0100576 1.15339 70 24 37 
0.519089 0.0465925 1.38842 62 47 66 
0.15515 0.0717336 1.11378 102 55 73 
-0.445736 0.0662941 0.97701 27 27 53 
-0.12239 0.0690122 0.996712 57 28 33 
-0.196 0.071393 0.96428 84 48 62 
-0.440671 0.0207892 0.982153 39 34 54 
0.0690981 0.0666011 1.07691 145 148 189 
0.101216 -0.0486613 1.13864 74 26 38 
-0.0303114 0.00841132 1.08422 98 48 57 
0.185327 -0.00786759 1.20524 80 37 47 
0.183011 -0.00981031 1.20382 110 67 76 
-0.0294452 -0.0120901 1.08458 66 26 37 
0.198336 0.0947734 1.13081 75 39 51 
-0.0525848 -0.0118435 1.07469 63 23 31 
0.532044 -0.0215719 1.3949 113 100 118 
0.604159 0.249514 1.38858 27 18 75 
0.598262 0.246781 1.38709 175 196 251 
-0.0425278 0.00921828 1.07786 66 23 33 
0.10215 -0.0483841 1.13768 66 24 36 
-0.0676849 -0.0626063 1.31024 63 21 33 
0.113397 -0.307875 1.11359 52 28 41 
-0.441104 0.0206907 0.982072 35 32 53 
-0.450049 0.0164648 0.978125 35 42 68 
-0.450709 0.0186604 0.976207 161 176 241 
-0.441307 0.0207841 0.982313 35 32 53 
0.532468 -0.021043 1.39138 138 123 142 
-0.447092 0.02504 0.979459 166 180 251 
0.114366 0.0106004 1.14314 63 22 30 
-0.0429317 0.00921766 1.07819 78 34 47 
-0.446358 0.0652887 0.977191 22 27 47 
-0.468687 0.0539586 0.967456 164 175 241 
-0.447837 0.0140669 0.979761 32 37 57 
-0.442858 0.0570827 0.980753 18 22 34 
0.0518836 0.0654666 1.06968 149 152 193 
-0.0361975 0.0110711 1.07979 141 89 101 
0.121803 0.0741308 1.09811 76 50 61 
-0.0431693 0.00962726 1.07838 65 27 40 
-0.328068 -0.348841 1.04103 80 55 74 
-0.226105 -0.356712 1.086 105 81 103 
-0.307063 -0.337439 1.04819 75 67 82 
-0.0449277 -0.309906 1.04731 71 33 44 
-0.274637 -0.313643 1.0643 49 33 59 
-0.312767 -0.296373 1.04427 59 40 62 
-0.296715 -0.29704 1.05066 66 38 61 
-0.395629 -0.256903 1.01034 124 101 121 
-0.279152 -0.253599 1.05932 130 115 136 
-0.00100385 -0.225551 1.09807 67 29 42 
-0.102276 -0.180714 1.08366 54 22 33 
-0.432412 -0.139273 0.990617 114 105 124 
0.0441766 -0.13984 1.11506 207 192 169 
-0.0266161 -0.133859 1.08275 71 33 46 
0.0346574 -0.111484 1.09238 155 134 117 
-0.325722 -0.104056 1.03807 59 46 66 
0.0597862 -0.106921 1.12602 210 199 177 
0.0442345 -0.100427 1.09394 194 182 168 
0.0629638 -0.0942959 1.11685 179 167 151 
0.0512303 -0.0886699 1.0995 150 133 113 
0.115135 -0.0656524 1.14441 85 38 48 
-0.0267593 -0.0472086 1.08494 75 30 37 
-0.40109 -0.0433472 1.00363 97 79 101 
0.295821 0.0524367 1.19867 144 97 113 
-0.227472 0.0628074 0.950656 75 42 49 
0.174707 0.0767426 1.12167 89 48 64 
0.0874188 0.0760265 1.08468 94 49 69 
-0.0866193 0.0919455 1.0106 106 52 66 
-0.369759 0.123839 1.00969 63 50 67 
-0.42601 0.149015 0.98684 49 38 52 
0.607941 0.269773 1.39133 54 35 90 
0.558686 0.270621 1.37281 60 39 54 
0.57538 0.27517 1.37801 66 65 143 
-0.163634 0.257341 0.950778 88 95 121 
-0.361476 -0.35443 1.0302 132 126 140 
-0.23827 -0.370689 1.07926 55 43 67 
-0.211392 -0.369762 1.08882 100 71 93 
-0.332812 -0.332278 1.03901 43 39 56 
-0.189358 -0.348153 1.09873 63 39 61 
-0.45095 -0.253235 0.982989 117 112 135 
-0.294474 -0.269493 1.05431 58 39 58 
-0.225242 -0.251188 1.082 128 115 135 
-0.263132 -0.246848 1.06527 67 49 73 
0.0203137 -0.224834 1.10815 65 29 41 
-0.352765 -0.173287 1.02954 45 33 47 
-0.513605 -0.144007 0.955713 52 49 70 
-0.515605 -0.134216 0.957082 102 99 120 
0.130448 -0.131632 1.14742 68 30 41 
0.102123 -0.122766 1.13828 74 32 44 
0.00953607 -0.115867 1.10025 177 161 138 
-0.135545 -0.0982924 1.07097 78 35 44 
0.0119402 -0.0997112 1.10258 147 126 109 
-0.446254 -0.0783719 0.985793 104 87 106 
0.0573264 -0.085913 1.10578 120 98 84 
0.127184 -0.0858312 1.14947 75 31 44 
-0.041924 -0.0678018 1.07928 71 25 36 
0.175397 -0.0581926 1.19948 65 24 30 
-0.0549167 -0.0508887 1.0734 63 21 33 
0.0484229 -0.044723 1.07832 204 198 184 
0.026103 -0.0399342 1.09281 191 182 165 
-0.498329 -0.0268375 0.96165 48 37 54 
0.0276325 -0.0199771 1.07695 69 54 49 
0.274402 -0.0229823 1.24014 76 26 35 
-0.0415041 -0.0118268 1.07853 81 34 42 
-0.0200871 -0.011605 1.08948 62 22 31 
0.302608 0.021767 1.22402 139 89 101 
0.433331 0.0434401 1.34766 63 47 74 
-0.459101 0.0398514 0.971131 43 33 96 
-0.014854 0.0575574 1.0571 110 57 77 
0.293009 0.0693625 1.17118 79 48 66 
-0.141151 0.0734477 0.987829 88 55 72 
-0.173039 0.0732625 0.972982 88 47 63 
-0.236445 0.0729155 0.946462 118 109 126 
-0.446961 0.0850932 0.983479 51 35 48 
0.295288 0.105834 1.17176 88 49 67 
0.509014 0.214832 1.37849 104 76 98 
0.597701 0.275074 1.39101 44 73 139 
0.126919 0.00949676 1.15035 93 37 48 
-0.408829 -0.251412 1.00372 122 101 120 
-0.293592 -0.256985 1.05248 55 42 62 
0.23612 0.00808427 1.22434 92 47 54 
-0.240625 0.085993 0.946939 53 27 26 
0.267893 0.0957768 1.15952 104 52 65 
0.00598236 -0.214063 1.10383 68 32 46 
-0.0190196 0.0701774 1.03969 87 43 58 
0.2599 0.0772545 1.15619 79 45 62 
0.312618 0.0736603 1.17966 63 33 43 
0.140329 -0.122114 1.15572 71 30 44 
-0.11306 -0.0980892 1.08099 73 33 42 
0.216679 -0.0946038 1.21859 66 33 44 
0.129895 -0.0451183 1.14923 78 38 47 
0.300466 0.0411022 1.20769 149 105 120 
0.037814 -0.0217248 1.07513 144 129 106 
0.0807279 -0.00924685 1.10139 131 120 137 
-0.00909576 -0.0052835 1.09196 67 27 38 
0.575103 0.249497 1.37896 36 20 93 
0.565412 0.24594 1.37623 50 46 69 
0.307676 0.00647993 1.22581 87 44 64 
0.114196 -0.132448 1.14123 67 29 40 
0.0148183 -0.134529 1.10426 182 170 148 
0.0369444 -0.0100374 1.08368 48 34 33 
0.0622923 -0.0356825 1.07397 214 213 211 
-0.465296 0.0183906 0.97185 143 143 203 
-0.0717416 0.0564401 1.04164 97 41 50 
0.189083 0.0919545 1.12632 67 34 43 
-0.469943 0.0644937 0.97017 35 40 70 
-0.417646 0.0155276 0.992292 136 122 135 
-0.167246 -0.0446204 1.05787 62 21 25 
0.199736 -0.0947486 1.20945 79 37 47 
-0.493831 -0.258896 0.965633 88 86 97 
-0.173424 0.259354 0.944049 105 102 133 
0.0955785 -0.0175829 1.12272 160 145 140 
-0.00147071 -0.202169 1.09699 74 31 48 
-0.331579 -0.305336 1.04241 65 56 73 
-0.187285 0.00567983 1.04863 50 18 23 
0.0143277 -0.16087 1.11189 95 77 65 
0.301861 0.0325507 1.21917 102 52 64 
-0.238426 -0.350381 1.08001 83 66 100 
-0.0419807 -0.133921 1.07664 56 23 30 
0.0515479 -0.16057 1.11899 52 27 30 
-0.0821625 -0.134741 3.0967 76 30 40 
0.587614 0.125133 1.41554 74 52 73 
0.576393 0.249861 1.37817 33 24 81 
0.597046 0.267563 1.41924 188 201 255 
0.0368153 -0.225613 1.11509 129 79 91 
-0.428271 -0.131545 0.98851 38 27 43 
-0.276487 -0.302796 1.06278 48 41 59 
0.589652 0.271193 1.38145 23 29 53 
0.0243056 -0.0469268 1.10259 168 157 153 
0.57639 0.258311 1.37116 184 199 254 
-0.468135 0.0300516 0.966331 19 26 72 
0.592138 0.252597 1.39714 21 28 47 
-0.00534357 -0.0156358 1.09444 119 102 118 
0.0530999 -0.0908263 1.12474 174 161 144 
0.409297 -0.345844 1.3505 122 101 116 
0.263338 -0.283513 1.28776 112 87 108 
0.318641 -0.281935 1.30958 97 73 99 
0.0904529 -0.224006 1.13594 68 32 44 
0.415388 -0.247828 1.35078 83 63 90 
0.523651 -0.0825191 1.39105 130 115 134 
0.47343 -0.0129814 1.36719 119 95 117 
0.43505 0.0693434 1.34498 80 126 222 
0.120184 0.0935494 1.0984 98 53 73 
0.534879 0.208975 1.38819 100 101 119 
0.0706655 -0.0188445 1.0874 134 124 114 
0.13056 -0.0379199 0.926051 67 23 36 
0.174267 0.0942722 1.12072 87 46 64 
0.257304 -0.348909 1.28827 84 61 81 
0.265192 -0.338975 1.2886 80 54 81 
0.177152 -0.312245 1.17237 57 33 47 
-0.382202 -0.254446 1.01475 118 114 139 
0.396357 -0.443517 1.34795 80 62 88 
-0.146955 -0.0685327 1.39244 71 25 38 
0.369037 -0.246826 1.33304 87 75 99 
-0.14654 -0.164264 1.39316 54 22 35 
0.393336 -0.109067 1.33864 99 70 92 
0.39227 -0.098688 1.33646 149 131 147 
-0.115038 -0.116954 1.40654 82 41 49 
0.44067 -0.3348 1.36244 134 117 136 
-0.209845 -0.0287569 1.03883 65 20 27 
-0.378064 -0.400303 1.02263 100 80 91 
-0.231068 -0.396044 1.0811 90 64 77 
0.380728 -0.3712 1.33869 115 106 123 
0.443876 -0.295797 1.36281 77 54 82 
0.516348 -0.258751 1.39309 101 78 106 
0.490963 -0.201885 1.38159 122 100 113 
0.440461 -0.154966 1.35896 89 70 90 
0.648663 -0.119847 1.49863 175 193 231 
0.388488 -0.07153 1.33654 81 61 88 
0.424192 -0.417618 1.35791 91 75 104 
0.293007 -0.399283 1.30318 96 72 98 
0.398586 -0.407166 1.34339 101 73 96 
0.140816 -0.307106 1.12443 150 97 113 
0.411695 -0.332781 1.35215 87 63 87 
0.0713546 -0.267315 1.12804 85 42 52 
0.353987 -0.295687 1.32581 103 75 100 
0.256905 -0.249763 1.28809 97 69 92 
-0.457346 -0.120938 0.98099 42 35 53 
0.464495 -0.124896 1.36798 71 50 65 
-0.38726 -0.083606 1.00817 139 125 142 
0.239755 -0.0556083 1.22956 76 32 45 
0.000412606 0.0749337 1.04784 95 50 70 
0.467508 0.125287 1.36383 77 63 88 
-0.228341 0.0898186 0.950469 81 43 54 
0.469809 0.239692 1.33692 95 77 101 
-0.159572 -0.384328 1.10986 42 27 56 
-0.105937 0.0687442 1.00384 107 59 75 
0.292589 -0.21206 1.29827 89 68 87 
-0.122105 -0.0982011 1.07611 72 34 45 
-0.0926909 -0.0429449 1.08714 62 26 36 
0.172881 -0.046549 1.19807 69 25 38 
0.492008 -0.251605 1.38395 144 131 148 
0.127539 -0.0105867 1.14702 65 19 32 
0.410632 0.00173639 1.34163 134 117 127 
0.269567 0.186152 0.884793 102 50 63 
0.626601 -0.0999471 1.30711 125 127 175 
0.176469 -0.09487 1.20186 84 37 53 
0.0516995 -0.225205 1.12116 121 75 85 
0.0939498 0.169341 0.811257 62 30 41 
0.392637 -0.261115 1.34401 149 125 139 
0.589131 0.248333 1.37972 33 55 113 
0.136904 -0.0861176 1.15307 79 35 48 
0.0656853 -0.219654 1.12653 126 76 87 
-0.181977 0.257054 0.929831 107 112 141 
0.51626 -0.0762731 1.38665 152 138 155 
0.53126 0.0055404 1.39215 71 53 69 
0.368674 -0.214411 1.33218 74 56 72 
0.238161 -0.426657 1.27738 140 126 149 
0.252622 -0.42731 1.28334 100 74 101 
-0.292312 -0.378508 1.054 93 68 90 
-0.457276 -0.36147 0.986797 61 54 72 
-0.314194 -0.286205 1.04516 77 60 78 
0.383011 -0.300855 1.33875 125 108 126 
-0.206661 -0.217692 1.08666 85 77 90 
0.0462377 -0.120621 1.12404 184 168 143 
-0.357871 -0.105176 1.01966 70 55 76 
0.408148 -0.0717386 1.34273 93 70 90 
0.15615 -0.0409876 1.19088 79 35 48 
0.0477365 -0.0255369 1.08556 102 91 97 
0.417143 -0.027498 1.35405 97 73 97 
0.395987 0.0057857 1.33385 101 82 110 
0.435287 0.0537808 1.34529 81 125 222 
0.559106 0.0885509 1.39753 131 105 116 
-0.457266 0.0855543 0.972846 106 102 117 
0.461188 0.209125 1.35879 131 127 154 
0.406179 0.218074 1.33608 126 107 126 
0.190997 0.255456 0.808156 84 83 161 
0.160818 -0.304958 1.13532 80 39 57 
0.127102 -0.0651698 1.14935 70 24 35 
-0.267864 -0.400182 1.06611 84 60 76 
-0.030251 -0.0677611 1.0852 70 29 37 
-0.128199 -0.300728 1.01843 106 43 54 
-0.161252 -0.400232 1.11171 108 94 117 
-0.428858 -0.171337 0.992187 122 100 121 
0.0170737 -0.0105584 1.08308 51 33 29 
0.348589 0.0694529 1.18819 73 32 48 
0.21219 0.171429 0.862133 73 39 55 
-0.462013 -0.37098 0.982273 150 136 151 
0.122929 -0.294971 1.1169 70 32 45 
-0.222688 -0.412931 1.08622 102 68 85 
0.0366685 -0.125294 1.1012 211 198 179 
-0.294313 -0.391226 1.05687 122 120 141 
-0.415903 -0.0783471 0.997713 113 92 111 
0.0728945 -0.0334244 1.08976 209 206 201 
0.0936756 0.179556 0.81098 66 30 44 
0.0817293 -0.0206745 1.11154 182 174 163 
0.165479 -0.025701 0.665086 78 30 42 
0.0954861 -0.00569743 1.1229 145 130 127 
-0.240999 -0.176322 1.07237 126 103 121 
0.456183 -0.0201263 1.36192 108 83 102 
-0.464638 -0.386906 0.987087 49 36 46 
-0.171955 0.00522914 1.05339 61 25 35 
0.286215 0.0950458 1.16518 97 60 68 
0.0411084 -0.063868 1.1198 105 75 51 
0.0573538 -0.0150671 1.07326 151 135 109 
0.1511 0.185035 0.836299 104 50 64 
0.333617 -0.0980904 1.20709 138 94 107 
0.113619 -0.0857008 1.14472 60 27 36 
0.187372 0.254674 0.798606 41 46 101 
0.0270735 -0.0199277 1.09335 129 120 111 
0.104915 -0.0106599 1.13785 59 24 31 
0.397327 0.0793011 1.33242 78 53 59 
0.119727 -0.266593 1.12167 146 99 115 
-0.437444 0.0567673 0.972535 18 22 34 
0.212766 -0.463245 1.27107 75 52 78 
0.0234221 -0.415117 1.07859 80 33 53 
0.0384406 -0.414866 1.08478 93 35 57 
0.391708 0.158045 1.33246 133 129 152 
-0.380832 -0.455638 1.02567 71 44 59 
0.356504 -0.408251 1.33176 88 59 87 
-0.504819 -0.388969 0.968077 60 37 57 
-0.54967 -0.30296 0.944777 97 73 97 
0.148292 -0.118153 1.19022 70 30 39 
0.202194 -0.0514683 1.19366 97 45 58 
0.143332 0.109533 1.38114 77 41 55 
0.0741867 -0.4145 1.1004 77 24 42 
-0.443203 0.038734 0.980198 60 57 100 
0.167919 -0.182947 1.20027 63 30 39 
0.147576 -0.0709604 1.18974 70 29 37 
0.326672 0.0808544 0.996183 138 88 99 
0.372209 0.0602898 0.880887 79 37 49 
0.0504763 -0.0710826 1.13162 111 91 67 
-0.0432861 -0.0882608 1.07966 50 23 30 
0.149431 -0.0362896 1.18834 70 24 35 
-0.353532 -0.163887 1.02613 65 55 79 
0.200017 -0.0076491 1.21058 71 29 39 
0.230353 -0.397317 1.27798 65 50 69 
0.373965 0.0882905 1.32573 69 48 67 
0.130635 0.112907 1.37572 101 53 65 
0.168229 0.255857 0.781561 66 51 74 
0.359599 -0.30776 1.33043 83 60 70 
0.489526 -0.294678 1.37888 62 51 65 
0.274125 0.0680311 0.977646 138 88 100 
-0.418478 -0.0568806 0.998659 60 57 78 
0.276246 -0.395647 1.29744 79 63 92 
0.391003 -0.248643 1.3411 83 62 93 
-0.232383 -0.10485 2.03869 90 38 50 
-0.073922 -0.0665178 1.41171 54 18 30 
0.155091 -0.405788 1.10999 92 41 58 
0.24206 -0.415307 1.28125 78 56 79 
0.463799 -0.364418 1.37247 113 104 125 
0.305306 -0.246518 1.30318 140 133 151 
0.524886 -0.202003 1.39402 64 52 74 
-0.195727 -0.206889 1.63484 74 34 45 
0.441803 -0.0638894 1.356 77 51 78 
0.494739 -0.0192565 1.37575 118 98 125 
0.483238 0.142064 1.36806 136 124 138 
0.431788 0.210593 1.34385 107 84 113 
0.0959201 0.255785 0.792556 137 142 162 
0.348249 0.0963973 1.19359 96 53 70 
0.162744 -0.0962532 0.850865 66 26 34 
-0.00369446 -0.275301 1.09879 67 27 36 
-0.157406 -0.191201 1.65698 56 24 35 
0.237785 -0.440357 1.28111 75 62 88 
0.028551 -0.233061 1.15355 125 78 86 
0.328539 -0.460245 1.32091 112 84 107 
-0.324396 -0.449361 1.04674 86 65 82 
-0.368061 -0.40117 1.02732 101 95 107 
0.453313 -0.382544 1.36733 103 73 99 
0.380711 -0.349756 1.33895 122 118 133 
-0.226897 -0.107446 0.972716 100 43 52 
0.0480438 -0.0598919 1.13004 162 145 125 
0.463824 -0.022076 1.37009 86 67 87 
-0.519431 0.00734859 0.948233 111 102 119 
0.379744 0.157682 1.33119 129 121 142 
0.316372 0.21016 1.1736 67 41 54 
0.30203 0.179782 0.934884 115 63 85 
-0.350101 -0.442205 1.034 84 69 88 
0.4639 -0.34581 1.37164 124 112 132 
-0.34793 -0.253635 1.02866 135 122 142 
-0.351681 -0.218043 1.02981 134 114 123 
0.0554241 -0.116115 1.12964 198 186 160 
0.206156 0.0767305 1.13356 85 49 61 
-0.286506 0.110341 1.6233 96 53 73 
-0.858875 0.298706 3.8048 110 61 80 
-0.378503 0.150876 1.00962 47 31 44 
0.317118 0.154837 1.17484 72 39 50 
0.315221 0.192447 1.17638 100 47 63 
-0.0631133 -0.399778 1.02444 130 93 110 
0.137454 -0.295269 1.12634 127 85 99 
-0.322389 -0.0304564 1.03291 111 88 98 
-0.376927 -0.346518 1.01891 109 95 108 
0.199018 -0.116957 1.21088 73 33 44 
0.210733 -0.0435619 1.21306 78 32 42 
-0.129418 -0.262508 1.04843 63 37 46 
-0.29178 -0.450963 1.06155 80 62 86 
0.044016 0.197131 0.789598 88 49 68 
-0.0833609 0.107741 0.819094 147 101 112 
0.399029 0.0504562 0.705348 79 37 49 
0.0792312 -0.0195452 1.0945 112 99 109 
-0.0167473 -0.12442 1.09096 60 24 34 
-0.0200576 -0.11977 1.23728 217 206 184 
0.321993 0.193758 0.984492 114 60 76 
0.239244 -0.295315 1.17522 138 92 103 
0.0364984 0.138263 1.76261 139 89 98 
-0.410149 -0.436404 1.01241 50 41 58 
-1.0477 -0.406143 2.98427 55 24 30 
0.304201 0.206661 0.941805 92 49 76 
-0.207112 -0.426188 1.09392 65 39 48 
-1.03774 -0.280999 3.06393 58 22 32 
0.1722 0.0580647 1.14723 111 59 72 
0.205442 0.255121 0.808257 224 235 255 
-1.0191 -0.215057 3.02605 52 25 34 
-0.257999 0.223134 0.917102 133 90 107 
0.0474672 -0.160959 1.12812 68 48 39 
-0.355645 -0.137894 1.02719 42 36 50 
-0.0077598 -0.275324 1.06304 131 78 96 
0.401721 -0.339759 1.34531 131 116 135 
-0.155209 -0.498982 1.11782 125 113 135 
-0.567538 -0.382289 0.93516 72 55 74 
-0.477287 -0.309046 0.975585 144 131 148 
0.391527 -0.0846547 1.33944 71 45 70 
0.37292 0.122064 1.32406 53 38 61 
0.368095 0.16658 1.32135 82 69 97 
-0.571333 0.181095 0.921557 49 46 63 
-0.591248 0.214532 0.907946 133 162 196 
0.351923 -0.022718 0.749818 65 21 36 
-0.333484 -0.494105 1.04446 63 47 60 
-0.254669 -0.48575 1.0762 83 63 88 
0.474975 -0.296653 1.37471 110 97 106 
-0.293371 -0.353511 1.06127 69 55 70 
0.110343 -0.0458506 1.14513 87 41 54 
-0.226531 -0.469169 1.08619 68 54 71 
-1.53666 -0.0589707 2.80057 82 38 51 
-0.591794 -0.0179413 0.918533 131 146 179 
0.409338 -0.408708 1.34791 95 76 98 
0.364426 0.0963185 1.31988 51 34 50 
-0.440944 -0.495684 1.00106 82 60 81 
-0.592886 -0.49768 0.93522 68 81 125 
-0.59194 -0.13425 0.922574 65 83 119 
-0.594361 0.151352 0.911088 104 116 154 
-0.56574 0.147194 0.923734 42 40 61 
-0.466625 -0.350013 0.979607 75 51 64 
-0.596797 0.193539 0.906358 93 118 149 
-0.573098 0.248689 0.888098 129 143 156 
-0.553972 0.230189 0.914865 80 66 92 
0.186039 -0.0950954 1.20416 70 34 46 
0.528157 -0.380761 1.39944 64 48 75 
-0.478722 0.0567468 0.965634 39 41 62 
-0.435884 0.0458892 0.976909 47 39 60 
0.0401467 -0.0897948 1.10828 186 169 139 
-0.185893 0.0675175 0.961913 69 36 45 
-0.460632 -0.130447 0.982106 58 50 63 
0.0579399 -0.0336454 1.08645 215 211 200 
-0.459322 0.0597715 0.968334 152 166 227 
0.356692 -0.163475 1.32404 55 42 52 
0.579337 -0.351244 1.41842 154 129 150 
0.0519538 -0.248549 1.12141 92 42 53 
0.290349 0.088278 1.07099 92 41 58 
0.332045 0.0586027 0.959356 75 41 57 
0.316723 0.0854468 1.05246 129 82 88 
-0.144317 0.138891 1.66678 88 41 57 
-0.46148 0.166317 1.97145 86 44 58 
0.166226 0.0851013 1.28191 85 49 61 
0.166668 0.103463 1.28271 138 88 99 
0.158009 0.105585 1.2771 101 53 65 
0.260932 0.0713344 1.03211 138 88 100 
0.0194616 -0.169848 1.12067 135 117 93 
-0.213401 0.130576 1.61858 86 44 64 
0.0934344 0.107669 1.34976 79 41 52 
-1.84416 0.28303 3.2999 93 51 65 
-0.667041 0.182655 2.16903 86 44 58 
-0.228681 -0.481971 1.08835 70 60 85 
-0.476552 -0.389733 0.978132 123 105 117 
-0.567324 -0.0269787 0.932607 65 52 78 
-0.557496 0.246593 0.869735 64 77 109 
0.359523 0.0837152 1.01859 96 44 57 
-0.593699 -0.457111 0.933063 91 106 149 
0.445089 -0.394561 1.36394 54 45 62 
0.0868221 -0.0174272 1.12948 122 101 106 
0.151014 -0.54009 1.2479 72 58 81 
0.246817 -0.520389 1.28836 78 55 84 
0.183865 -0.521354 1.2627 97 74 103 
0.363474 -0.485356 1.33261 81 62 84 
0.329904 -0.485178 1.32029 146 127 147 
0.130009 -0.48405 1.13466 88 35 53 
-0.58783 -0.624572 0.937741 86 94 133 
0.19888 -0.488728 1.26854 76 54 77 
-0.205302 -0.522888 1.09813 60 48 70 
-0.333822 -0.52302 1.04648 137 120 138 
-0.589999 -0.542817 0.936429 68 72 109 
-0.48126 -0.350948 0.97679 45 31 46 
0.00540681 -0.17235 1.1293 125 102 88 
0.588762 -0.102467 1.55865 94 104 157 
0.0948202 -0.00321741 1.13328 63 25 36 
-0.673273 0.0576796 0.876266 54 52 91 
-0.67617 0.0842202 0.874487 40 53 95 
0.597261 0.182208 1.52486 22 44 93 
0.580863 0.185957 1.52897 80 82 107 
-0.574831 0.248778 0.874203 157 176 216 
-0.164788 -0.590932 1.11687 139 124 147 
-0.159866 -0.566961 1.12094 81 66 89 
0.316844 -0.48625 1.31846 129 112 131 
-0.417783 -0.595465 1.01327 58 45 73 
-0.0199335 -0.491529 1.06945 83 46 63 
0.155806 -0.447918 1.15214 137 81 92 
-0.484585 -0.569902 0.983698 65 44 61 
0.13416 -0.445788 1.15234 82 32 43 
-0.674019 -0.245832 0.884461 115 123 169 
-0.68143 0.205476 0.868404 33 29 52 
-0.672274 0.194738 0.873045 38 34 69 
-0.530547 -0.144483 0.953056 71 54 72 
0.0780201 -0.0224981 1.07177 113 108 112 
-0.67609 0.0229795 0.877573 50 52 93 
-0.139269 0.0638586 0.987676 86 43 60 
-0.107843 -0.0511922 1.08187 69 27 37 
0.288132 -0.500547 1.30173 68 50 72 
-0.684684 0.024421 0.874207 83 94 124 
0.0829802 -0.462245 1.12845 90 29 44 
0.589561 -0.411749 1.5477 170 185 226 
-0.676316 -0.458901 0.865585 28 58 94 
-0.682134 -0.460446 0.883738 33 34 64 
-0.690268 0.204901 0.84668 50 77 106 
0.281511 -0.487296 1.29822 73 54 73 
0.361486 0.0929037 1.19725 78 35 44 
0.591644 0.16361 1.52151 60 63 106 
-0.676091 -0.415462 0.887959 26 46 96 
-0.6762 -0.0246509 0.872425 49 48 79 
-0.679457 0.0701079 0.873313 33 61 98 
-0.685745 0.0573695 0.87438 18 38 65 
-0.664621 0.23632 0.863971 112 95 113 
0.155856 -0.447357 1.16257 96 40 49 
0.0380213 -0.0426128 1.08114 146 128 118 
0.182918 -0.388107 1.25135 47 25 37 
0.0438855 -0.0349436 1.08874 156 150 154 
0.0934878 -0.184286 1.13687 26 10 10 
-0.681589 -0.0639051 0.879995 38 57 99 
0.0368554 -0.0644302 1.13527 182 166 133 
0.203609 -0.0661956 1.2103 142 90 103 
-0.668089 -0.593833 0.890055 28 44 96 
0.0830003 -0.0210469 1.1411 133 115 115 
0.155305 -0.311874 1.16074 43 18 22 
-0.686604 -0.0246621 0.875239 34 34 60 
-0.690867 0.184236 0.871025 76 81 111 
0.112938 -0.295604 1.118 102 66 78 
-0.452404 -0.129921 0.978229 58 44 59 
0.260176 -0.484418 1.29446 147 127 152 
-0.592998 0.198522 0.909716 127 147 182 
-0.681883 0.0145039 0.872226 86 91 131 
0.168476 -0.313903 1.17816 38 19 23 
-0.47402 0.0440432 0.971261 16 29 63 
-0.664885 0.0705515 0.873146 41 46 78 
0.138106 0.0857432 1.26676 98 60 73 
0.220399 0.100312 1.21585 96 47 66 
0.101857 -0.00805505 1.0223 61 21 32 
0.526071 0.0749957 1.21553 115 122 166 
0.542108 -0.441937 1.40763 89 70 100 
0.17646 0.101434 1.21464 92 44 56 
0.310286 0.0889791 1.07946 81 33 47 
0.0364108 0.0891494 1.32947 87 55 70 
-0.403235 0.136154 1.55689 90 47 64 
-0.0544083 0.0651541 1.02587 93 46 62 
-1.4555 0.156034 2.24825 74 42 55 
0.341578 0.0857019 1.06332 137 87 99 
0.131709 0.105117 1.27051 90 42 54 
0.313437 0.18638 0.963356 91 47 70 
0.0681087 0.0840871 1.2377 140 92 114 
0.425583 -0.484109 1.36129 70 61 88 
0.569404 -0.481937 1.52708 127 132 170 
0.395151 0.0826952 1.03472 132 85 93 
-0.381367 -0.534995 1.0279 74 54 66 
-0.535339 -0.531761 0.96024 54 47 65 
0.0366003 0.11101 1.32906 81 38 55 
0.0271588 0.111153 1.32512 80 39 47 
0.0770439 -0.0258745 1.12471 105 88 81 
-0.679633 -0.597957 0.893465 29 57 107 
-0.000270307 -0.586795 1.16592 224 212 198 
0.0367143 -0.574896 1.18018 12 33 50 
-0.837457 -0.801634 0.730228 105 107 168 
0.00995096 -0.577762 1.17115 47 61 62 
0.0567807 -0.565922 1.20984 118 102 128 
0.0264021 -0.560699 1.17853 157 150 132 
-0.129556 -0.599746 1.13317 111 99 119 
-0.118207 -0.594254 1.13656 62 44 58 
0.531098 -0.390047 1.40231 42 27 50 
0.581154 -0.382597 1.54502 39 47 84 
-0.438297 -0.573567 1.00324 92 77 96 
-0.81574 -0.641438 0.782286 153 155 204 
-0.697511 -0.469346 0.871725 48 75 120 
-0.676599 -0.457505 0.88496 102 112 148 
-0.591092 -0.41096 0.934995 92 77 108 
0.0632813 -0.0956006 1.13012 159 141 119 
-0.480909 -0.112931 0.977878 66 55 72 
-0.562983 0.137589 1.54526 90 49 65 
0.592473 0.219988 1.49634 38 38 62 
0.499046 0.271136 1.24743 120 126 142 
-0.00999135 -0.583702 1.16502 68 43 47 
0.0215828 -0.573857 1.17501 19 36 44 
0.198285 0.257642 0.793556 195 196 252 
-0.836867 -0.735176 0.730263 108 109 165 
0.109024 -0.457988 1.13821 89 41 53 
0.164457 -0.439336 1.16853 145 87 101 
-0.839221 -0.684607 0.72871 113 112 172 
0.1199 -0.447364 1.14867 92 41 58 
-0.47333 0.142909 1.64367 82 41 57 
-0.807578 -0.647274 0.776505 45 36 63 
0.58226 -0.323298 1.54263 72 80 119 
0.0692502 -0.0265821 1.11385 108 93 90 
0.0742579 -0.501715 1.12133 123 62 78 
-0.488324 -0.335545 0.975842 59 48 62 
0.181248 -0.442003 1.25762 86 58 83 
0.147958 -0.296124 1.15338 106 66 74 
-0.42069 -0.569814 1.01149 77 53 75 
0.579248 -0.206754 1.53726 107 119 145 
0.210684 0.194861 0.863018 101 54 72 
0.0137822 -0.567542 1.17522 127 129 115 
0.498152 0.268033 1.16978 180 192 216 
-0.124384 -0.605931 1.14218 115 96 116 
-0.680197 -0.746505 0.894726 53 70 116 
0.569505 -0.424985 1.5325 103 112 145 
-0.197028 -0.602383 1.0894 122 118 145 
-0.421205 -0.624389 1.01018 77 54 64 
0.587929 -0.361756 1.5521 80 73 117 
-0.814108 -0.649514 0.776936 38 30 53 
-0.835069 0.104015 0.822902 105 123 171 
0.538827 0.0748373 0.958001 128 81 91 
-0.814989 -0.629249 0.778699 117 122 177 
0.185088 -0.399137 1.26066 78 66 90 
-0.102148 -0.333015 1.06101 72 45 64 
0.601064 0.0192105 1.56183 158 173 212 
-0.141124 -0.203535 1.05241 93 67 76 
0.751493 0.00108047 0.758772 77 32 35 
0.17202 0.254769 0.780718 64 50 83 
-0.803467 -0.625806 0.777087 120 123 178 
0.0914193 -0.0252934 1.11624 178 171 165 
-0.485766 -0.620184 0.982296 81 60 79 
-0.840046 -0.674831 0.735641 174 189 222 
-0.100222 -0.597156 1.13457 50 42 55 
-0.825195 -0.677177 0.733298 177 199 240 
0.584316 -0.27848 1.54146 59 74 103 
0.0814918 -0.420561 1.11157 64 33 41 
-0.459274 -0.387457 0.984224 64 46 58 
-0.702111 0.244474 0.747987 118 137 141 
-0.790927 -0.64082 0.773259 46 36 60 
0.362247 -0.296219 1.32216 65 44 51 
0.325999 -0.0973188 1.21702 70 31 36 
-0.699154 0.196846 0.878862 29 28 59 
-0.691722 0.184743 0.87122 81 92 122 
-0.581267 -0.495678 0.933309 79 72 103 
0.0452861 -0.059389 1.09929 129 109 110 
-0.671598 0.0556729 0.87309 33 34 65 
-0.706992 -0.464964 0.872962 42 77 119 
-0.0740326 -0.406998 1.02904 70 40 50 
0.279785 0.227836 1.14844 139 106 125 
0.0468848 -0.0600348 1.11532 147 127 100 
-0.108418 -0.391659 1.03266 52 29 39 
-0.0390476 -0.486009 1.07792 103 62 70 
0.0402971 -0.154156 1.11305 58 28 26 
0.342919 -0.101087 1.21284 155 107 123 
0.330876 0.0665636 1.13417 92 47 67 
0.354835 0.0722759 1.16269 71 39 54 
0.243171 0.0583506 0.969725 90 51 70 
0.530241 -0.119046 1.39481 63 46 62 
0.356964 0.0661178 1.12499 86 43 62 
0.184936 0.0809317 1.21219 85 49 61 
0.158237 0.0818876 1.22214 88 48 59 
0.0383165 0.0833846 1.30237 141 97 110 
0.266319 -0.445646 1.29707 75 57 79 
0.116744 0.103383 1.23681 81 38 55 
0.020994 0.0860881 1.27337 82 44 57 
0.0215676 0.108167 1.2731 73 35 48 
0.19863 0.255605 0.817155 176 201 255 
-0.484795 -0.378586 0.980124 130 114 124 
-0.483013 -0.450844 0.980534 75 56 76 
-0.0421981 0.0872515 1.23744 131 85 98 
-0.693301 -0.0262012 0.872484 25 31 53 
0.048962 -0.0346156 1.08012 151 142 145 
-0.693736 -0.46117 0.86983 42 77 119 
-0.839656 -0.931406 0.740493 134 134 194 
-0.679951 -0.899743 0.902858 55 57 114 
-0.849126 -0.927048 0.744991 170 185 226 
0.0340522 -0.642819 1.18583 67 43 56 
-0.806738 -0.862476 0.593825 139 154 213 
0.0533146 -0.626835 1.19331 63 48 43 
0.0463149 -0.618603 1.18899 168 150 150 
0.0171363 -0.628096 1.18136 71 34 52 
-0.079865 -0.658253 1.16245 68 46 69 
0.0248546 -0.618933 1.18171 196 184 158 
0.375313 -0.510446 1.34404 169 158 188 
0.0100268 -0.618226 1.17688 143 144 130 
0.214287 -0.557552 1.27982 136 119 138 
0.0557779 -0.593673 1.19578 99 75 65 
-0.00794845 -0.610978 1.16732 176 168 155 
0.0113752 -0.601132 1.17726 163 160 187 
-0.00325925 -0.602916 1.17344 146 148 173 
0.134383 -0.564372 1.24934 70 46 68 
0.0514265 -0.583249 1.18834 191 186 166 
0.294948 -0.51108 1.31107 98 67 85 
0.0414804 -0.580314 1.18735 133 122 104 
0.0968863 -0.56617 1.23254 48 31 49 
-0.822089 -0.799961 0.690027 138 153 210 
-0.819483 -0.745841 0.631681 137 147 206 
-0.82286 -0.687856 0.63082 133 143 202 
-0.821808 -0.680506 0.649262 121 141 192 
0.580505 -0.371148 1.56495 83 97 134 
-0.807535 -0.638857 0.781389 155 157 206 
-0.484037 -0.334794 0.975155 57 43 60 
-0.549378 -0.257381 0.940798 73 55 71 
-0.658492 0.0204311 0.874944 43 39 74 
0.00918817 -0.640178 1.17523 217 195 172 
0.0347234 -0.626835 1.18424 97 83 74 
0.0597289 -0.611216 1.19936 167 155 139 
0.0233223 -0.608633 1.18174 63 70 80 
0.0323024 -0.600094 1.18511 133 154 199 
0.0370299 -0.590091 1.18838 73 64 57 
0.0134571 -0.589287 1.17698 34 59 66 
-0.657829 -0.0623682 0.876814 32 41 82 
-0.659253 -0.244015 0.882846 126 134 173 
0.13974 -0.443827 1.16177 66 28 39 
0.0235317 -0.639002 1.18198 96 91 132 
-0.338946 -0.635874 1.05043 72 51 68 
0.0769671 -0.208892 1.13259 98 62 66 
0.0336647 -0.613513 1.18532 84 88 136 
0.0489576 -0.604725 1.18903 133 128 135 
-0.00204689 -0.619579 1.17459 157 126 121 
-0.229404 -0.690095 1.10081 73 53 78 
0.128376 -0.576855 1.24499 78 60 82 
-0.357856 -0.696227 1.04485 65 46 66 
-0.652762 0.236079 0.675746 100 121 116 
0.364057 -0.514094 1.34204 82 62 87 
0.144904 -0.448513 1.24814 82 60 81 
0.257667 -0.557609 1.2995 91 67 89 
0.102234 -0.588642 1.23284 66 43 63 
0.100102 -0.00957744 1.11432 53 30 40 
-0.815275 -0.678964 0.636216 115 116 173 
-0.376737 -0.533278 1.02598 77 53 69 
0.0536968 -0.0517687 1.13328 117 99 89 
-0.36711 -0.700398 1.04371 103 87 100 
0.251142 -0.164611 1.28294 75 52 62 
0.0669942 -0.0852139 1.11727 165 149 124 
-0.00779874 -0.63453 1.16947 120 82 81 
-0.833475 -0.855481 0.691403 123 133 192 
0.561584 -0.259664 1.501 32 22 31 
0.0309889 -0.59168 1.17918 18 32 43 
0.584838 -0.344834 1.5614 39 40 88 
-0.648569 0.0216002 0.871661 32 34 59 
-0.453188 0.0231605 0.967119 160 169 228 
-0.830427 -0.740158 0.654604 115 142 197 
-0.654042 0.0496953 0.86728 91 97 131 
0.0529433 -0.101038 1.11871 46 28 18 
0.0147786 -0.489948 1.10414 46 19 28 
0.0754845 -0.0422796 1.0948 199 192 184 
0.564858 -0.0461306 1.35318 170 183 225 
0.560869 0.00762761 1.35369 77 57 82 
0.668448 -0.0567786 1.47406 173 188 227 
0.195766 -0.0193558 1.98866 62 22 31 
0.0235002 -0.0297973 1.09167 151 138 121 
0.566551 -0.0153466 1.35376 183 201 241 
0.564238 -0.0772007 1.35082 179 194 235 
0.0249383 -0.126533 1.10659 166 154 128 
0.0340666 -0.0322808 1.07655 155 142 126 
0.584522 -0.109972 1.21042 83 82 124 
0.616009 -0.0639713 1.21908 103 113 162 
0.574301 -0.110209 1.21104 61 76 107 
0.616403 -0.0901438 1.21998 79 94 137 
0.603332 -0.0902375 1.21424 82 88 136 
0.207829 -0.0539754 0.74088 121 138 184 
0.60895 -0.0334131 1.12474 133 139 187 
