ply                 
format ascii 1.0    
element vertex 1260
property float x    
property float y    
property float z    
property uchar red  
property uchar green
property uchar blue 
end_header          
0.479055 -0.270155 1.3004 56 44 54 
0.147099 -0.286712 1.16763 38 19 23 
0.0815527 -0.271469 1.12625 106 70 84 
-0.0237674 -0.239339 1.13248 57 30 37 
0.0155305 -0.20742 1.14144 53 23 21 
-0.000912963 -0.204886 1.1396 50 21 23 
-0.0147438 -0.198004 1.13717 51 22 24 
-0.0246875 -0.18649 1.13567 54 22 23 
0.0632672 -0.168485 1.14985 25 9 9 
-0.700231 -0.21935 1.0573 29 30 76 
0.124839 -0.145711 1.1876 45 21 21 
0.346027 -0.124512 1.27404 65 45 56 
0.0966282 -0.0876621 1.15523 82 44 59 
-0.156921 -0.0816868 1.12231 56 30 41 
0.185319 -0.0507173 1.19566 86 44 56 
0.0867977 -0.0512212 1.14961 64 34 42 
0.0168592 -0.0463884 1.11936 141 127 127 
0.19107 -0.0327449 1.19675 55 22 29 
0.0631108 -0.012885 1.13089 188 178 168 
0.0330034 -0.0121385 1.09105 187 184 169 
0.0710977 -0.00744624 1.12801 155 144 138 
0.27833 0.0299476 1.19053 144 97 113 
-0.49675 0.0542796 1.09781 15 33 71 
-0.226126 0.0727692 1.0371 84 44 52 
-0.0945706 0.0780968 1.07276 80 46 62 
0.313916 0.0813697 1.14917 74 41 52 
0.137232 0.0977902 1.11457 80 44 58 
0.23323 0.0995048 1.13443 78 36 46 
0.229395 0.106683 1.12901 100 52 64 
-0.699811 0.183752 1.03451 79 93 128 
0.261481 0.180729 1.13253 119 71 87 
-0.613767 0.245049 1.04169 25 27 40 
0.252281 0.168121 0.959487 87 48 67 
0.225095 0.168664 0.917171 111 57 80 
0.280322 0.206178 1.13518 62 42 44 
0.485753 0.217138 1.28632 69 56 76 
0.45698 0.237062 1.25995 72 61 78 
0.548621 0.264401 1.27492 14 13 27 
0.102809 0.248577 0.82479 207 222 255 
0.0259439 -0.394188 1.1078 140 95 115 
0.172942 -0.36872 1.24136 70 37 46 
0.0873519 -0.281796 1.13286 56 27 32 
-0.0410911 -0.221727 1.10426 45 21 21 
0.0136597 -0.128186 1.13201 66 32 33 
-0.541298 -0.151877 1.097 71 60 77 
0.0205439 -0.0377224 1.10444 185 183 196 
0.00833471 -0.0258257 1.10351 166 161 168 
-0.479579 0.0628034 1.10175 160 177 247 
0.0462947 0.0726031 1.10924 79 41 54 
0.243767 0.0953977 1.1328 61 32 36 
0.0821241 0.245721 0.812719 189 213 255 
0.0627012 -0.00294794 1.12255 195 191 182 
-0.276067 0.0781454 1.02728 116 110 124 
0.0931819 0.247642 0.809768 164 179 236 
-0.280973 -0.223927 1.14812 67 48 70 
0.0176465 -0.054358 1.13798 136 116 92 
0.017208 -0.0158651 1.09071 104 99 105 
0.283409 0.0206816 1.18822 65 33 48 
-0.17885 0.0953279 1.04845 86 43 62 
-0.395802 -0.369585 1.13176 115 95 106 
0.229547 -0.384567 1.25847 77 51 76 
-0.060431 -0.277743 1.09686 124 83 99 
0.234909 -0.22791 1.25429 135 116 136 
0.2932 -0.224729 1.26487 140 133 151 
0.3503 -0.144053 1.27643 124 112 132 
-0.00481977 -0.125665 1.13724 168 157 135 
-0.131778 -0.165466 1.67192 49 21 33 
0.178526 -0.102055 1.19726 71 33 44 
0.470628 0.00619355 1.29135 163 142 161 
-0.268028 0.068669 1.0294 55 28 35 
-0.233216 0.0749877 1.03695 127 85 97 
0.0508541 0.0801487 1.09734 89 46 66 
0.189816 0.102171 1.12414 99 60 81 
-0.125665 0.0957886 1.06061 105 55 66 
0.447702 0.206671 1.2804 69 56 82 
-0.0428559 0.192056 0.828123 88 49 68 
-0.0734504 -0.283447 1.09541 66 28 43 
0.402339 -0.306173 1.2912 73 51 72 
-0.53823 -0.192317 1.09244 65 53 75 
-0.0214373 -0.194582 1.1304 59 23 33 
-0.0307007 -0.181207 1.1291 51 18 29 
0.513285 -0.182453 1.3057 61 48 68 
-0.0121317 -0.143734 1.13865 98 81 63 
0.0236576 -0.143363 1.14186 47 23 23 
-0.545444 -0.125362 1.08689 71 54 72 
-0.536299 -0.123008 1.08955 62 59 80 
-0.0885378 -0.177548 1.67175 54 21 28 
0.0653224 -0.0869278 0.864771 64 26 39 
-0.0724697 -0.163909 1.68035 55 25 35 
-0.159853 -0.104288 1.12771 57 25 30 
0.112908 -0.106656 1.1559 59 26 37 
0.163299 -0.0809485 1.19271 59 29 41 
-0.0713835 -0.0546717 1.11749 59 22 30 
-0.0842054 -0.0388655 1.11444 58 17 31 
-0.0456282 -0.038252 1.12243 56 20 30 
0.112647 -0.0364104 1.15428 59 19 28 
-0.23523 -0.0169034 1.10992 57 20 28 
-0.0812776 -0.00204885 1.11404 64 24 35 
-0.211708 0.0148633 1.11277 52 17 24 
-0.466967 0.0398267 1.09655 21 32 86 
-0.461468 0.0542327 1.09645 70 60 85 
-0.483994 0.0683424 1.09245 156 161 219 
0.313868 0.0994743 1.15052 85 43 57 
0.431303 0.210091 1.2768 74 58 87 
0.184265 -0.343289 1.24902 86 57 79 
-0.0774612 -0.300646 1.10031 125 71 84 
-0.28723 -0.299179 1.14999 135 115 127 
0.045313 -0.244185 1.14642 71 38 49 
0.160607 -0.155415 1.19711 86 39 49 
-0.371518 -0.146038 1.12635 72 67 90 
0.020603 -0.108612 1.14489 181 170 148 
-0.186422 -0.0273651 1.12065 61 26 32 
-0.145372 0.00105623 1.12924 65 27 40 
-0.133679 0.0135049 1.13019 57 30 37 
-0.0511041 0.0624056 1.09134 79 42 50 
0.141235 0.0722037 1.11506 89 51 62 
-0.0548384 0.0748094 1.07468 101 59 71 
0.08368 0.106215 1.10396 75 44 59 
0.393443 0.218214 1.26672 70 58 68 
-0.491914 -0.322893 1.10942 58 51 59 
0.462375 -0.366377 1.30995 61 54 70 
0.000791397 -0.202799 1.13965 54 23 21 
0.0295804 -0.203627 1.1445 53 22 27 
-0.0122128 -0.196598 1.13811 51 21 21 
0.359472 -0.19208 1.2797 60 49 63 
0.0703739 -0.165575 1.14732 132 78 92 
0.371651 -0.0580467 1.27656 77 52 71 
-0.434458 -0.0436096 1.10954 53 49 64 
-0.462019 0.0303399 1.097 18 26 39 
0.413371 0.0491494 1.28426 67 56 70 
0.0877541 0.0949724 1.10535 87 56 74 
0.0345046 -0.022595 1.09941 205 203 190 
0.0502666 -0.0106484 1.12362 188 179 170 
-0.604151 0.24799 1.03773 110 126 141 
-0.613306 -0.461535 1.09065 69 86 130 
-0.0189871 -0.110213 1.12952 160 136 126 
-0.0196971 -0.0939711 1.1272 158 132 119 
-0.588329 0.15099 1.06815 41 38 59 
0.200026 -0.431093 1.25488 49 33 59 
0.256396 -0.412913 1.26699 75 51 75 
0.225556 -0.408375 1.2596 71 53 75 
-0.427082 -0.400781 1.12406 55 44 61 
0.275227 -0.277092 1.26627 92 72 99 
0.0869703 -0.243918 1.1249 156 99 114 
0.481471 -0.2268 1.30405 71 52 74 
0.383228 -0.0939803 1.27866 75 50 72 
-0.614398 -0.115482 1.07624 65 65 101 
-0.180515 -0.0840347 1.12889 61 28 37 
0.381918 -0.0714079 1.2801 61 42 62 
-0.0739924 -0.0366143 1.11796 71 31 42 
0.0387782 -0.0178496 1.10666 185 178 160 
0.392771 0.0143495 1.27577 78 66 90 
-0.598449 0.183909 1.07069 42 39 56 
-0.577495 0.230753 1.05505 75 65 92 
0.558951 0.244571 1.27761 66 59 136 
0.211634 -0.410856 1.25614 95 65 93 
-0.369218 -0.406623 1.13753 59 44 63 
-0.288512 -0.370063 1.15383 77 57 68 
-0.526803 -0.358534 1.10405 54 40 57 
-0.403725 -0.324805 1.12977 54 42 62 
0.113896 -0.247658 1.1538 71 25 35 
0.251892 -0.227114 1.25898 86 59 74 
0.109887 -0.0726576 1.15483 55 22 31 
0.0246415 -0.058231 1.1503 114 93 72 
0.177747 -0.0411009 1.17551 120 68 81 
-0.000193131 -0.0164735 1.11058 45 32 26 
0.0767104 -0.00140468 1.14619 59 17 27 
-0.252206 0.015315 1.0774 71 31 39 
0.263959 0.0593596 1.16057 60 40 51 
0.274661 0.0425324 0.583165 90 49 67 
0.454124 0.113321 1.28415 82 63 83 
-0.616857 0.152368 1.06429 131 153 190 
-0.620176 0.215919 1.05892 153 171 209 
0.241195 0.19159 0.945405 85 46 67 
0.226354 -0.375167 1.26076 76 60 73 
0.402523 -0.358558 1.29335 82 67 88 
-0.258939 -0.373036 1.16213 58 41 51 
-0.0500028 -0.285831 1.10389 72 35 42 
-0.397527 -0.326211 1.14093 47 40 56 
0.0160234 -0.2073 1.14051 53 23 21 
-0.392646 -0.199825 1.13596 60 51 68 
-0.263246 -0.094877 1.05842 151 98 114 
0.0150398 -0.0862206 1.14353 49 25 21 
0.130794 0.0106957 1.18566 74 29 36 
-0.0729227 0.0747035 1.06832 76 40 52 
0.242382 0.149221 0.944296 94 47 63 
0.380869 0.209605 1.26778 58 45 54 
0.489834 0.209743 1.2864 128 114 129 
0.107068 0.247227 0.820219 223 230 255 
-0.507279 -0.420409 1.11743 42 31 48 
0.0903806 -0.263344 1.13371 133 86 102 
-0.170758 -0.27368 1.09035 52 21 26 
0.0105048 -0.101737 1.12633 122 97 75 
0.0267244 -0.0426368 1.16308 53 27 30 
-0.440661 -0.0442519 1.11753 56 43 60 
-0.481 0.0616342 1.08785 154 172 238 
0.137826 0.0618979 1.15842 79 53 62 
0.0826895 0.0712017 1.09431 86 48 59 
0.358534 0.122176 1.26606 129 124 146 
0.384209 0.195521 1.26488 84 64 76 
0.226534 0.198095 0.91863 79 46 63 
-0.612772 -0.461391 1.09017 69 86 130 
-0.493692 0.0252728 1.096 60 56 79 
0.0233739 -0.227389 1.14282 78 32 42 
-0.0844932 -0.109495 1.11772 47 20 27 
-0.614709 -0.11564 1.07652 65 65 101 
-0.0920999 0.0957694 1.0683 99 48 63 
0.293192 0.0850985 0.984874 86 38 50 
-0.42879 -0.402662 1.12782 59 45 60 
-0.198266 0.091822 1.04633 67 35 40 
-0.752311 0.184383 2.10533 103 52 67 
-0.61786 0.15313 1.06516 131 153 190 
-0.597602 0.235352 1.04589 121 113 128 
-0.576533 -0.234189 1.08155 67 55 65 
-0.492704 0.0697482 1.09405 12 18 32 
-0.467844 0.0722884 1.09725 18 21 38 
0.327922 0.196611 1.14708 61 30 38 
-0.0233638 0.173384 0.832792 79 41 54 
0.472745 -0.227007 1.29931 71 53 65 
0.0173152 -0.108942 1.15227 179 167 141 
-0.473904 0.0343461 1.1003 167 184 254 
0.388226 0.0494195 1.27661 55 38 44 
-0.490067 0.045328 1.09525 17 25 48 
-0.125324 0.111235 1.28314 88 46 60 
0.368097 0.207398 1.26841 41 32 51 
-0.241963 -0.327815 1.16078 90 61 81 
-0.16422 -0.27703 1.08033 106 44 55 
-0.41901 -0.0305376 1.11236 81 63 85 
-0.519683 -0.0149358 1.09257 68 60 83 
0.396051 -0.0127914 1.28146 139 130 147 
-0.239425 -0.381614 1.16245 98 61 79 
-0.175381 -0.364787 1.17679 49 37 61 
-0.256067 -0.341856 1.16087 47 34 60 
-0.325455 -0.309712 1.1432 79 66 84 
0.345025 -0.274904 1.28453 69 46 66 
0.434101 -0.272344 1.29727 67 49 75 
-0.330361 -0.235824 1.13812 119 103 116 
0.0564716 -0.176739 1.14731 116 74 84 
-0.448745 -0.152395 1.11166 130 111 131 
-0.0557644 -0.106233 1.12245 68 31 39 
-0.0817736 -0.074612 1.11779 52 22 34 
0.16895 -0.0563955 1.19076 92 44 60 
0.1524 -0.0340785 1.18934 55 21 35 
0.00329831 -0.0116676 1.09913 147 129 105 
-0.438457 0.0256782 1.10696 141 123 135 
-0.143487 0.073972 1.0575 100 52 66 
-0.0375543 0.096579 1.07878 95 48 64 
0.45909 0.128579 1.28885 70 54 81 
0.0656722 0.180044 0.850226 89 38 53 
-0.349439 -0.301388 1.13642 135 121 144 
-0.293895 -0.276991 1.14913 39 31 46 
-0.312733 -0.246315 1.1443 53 38 57 
-0.507866 -0.234446 1.09692 124 109 132 
-0.0484787 -0.0745137 1.12332 51 21 29 
0.449196 -0.0589641 1.29248 71 51 60 
0.405822 -0.0152252 1.26381 99 83 109 
-0.485395 0.0284248 1.09396 155 156 213 
-0.0930068 0.0703308 1.06855 102 54 70 
0.476824 0.128849 1.28665 131 124 142 
0.00307034 0.146987 0.841135 71 31 42 
0.171171 0.179723 0.873213 100 56 73 
0.0158416 0.175222 0.842129 92 48 61 
0.0651603 0.190867 0.849617 113 65 81 
0.00272708 0.193049 0.838046 96 48 60 
0.47606 -0.410603 1.30547 64 44 71 
-0.333874 -0.273788 1.14101 39 33 47 
0.225683 -0.229699 1.2572 72 49 67 
-0.294142 -0.196484 1.14897 62 45 61 
-0.264843 -0.192049 1.15018 68 42 53 
0.0308019 -0.162201 1.13627 124 106 104 
0.0713241 -0.151507 1.12831 121 78 95 
-0.156592 -0.126155 1.13188 57 26 32 
0.203039 -0.075457 1.20197 64 31 40 
0.154626 -0.0437928 1.1896 57 29 41 
0.218771 -0.0443698 1.20439 75 34 50 
0.41156 0.0482573 1.27238 60 46 63 
0.273753 0.047862 1.17319 168 120 136 
-0.0382248 0.0783001 1.07651 90 49 65 
0.54234 0.159415 1.3033 66 47 67 
-0.390993 -0.334307 1.12533 53 39 56 
-0.0790916 -0.310262 1.10363 121 73 85 
-0.276083 -0.320629 1.1534 64 44 55 
0.204897 -0.279868 1.19085 154 100 116 
0.0097769 -0.136027 1.13704 76 48 34 
-0.451228 -0.116038 1.11329 44 38 52 
-0.475017 -0.111835 1.1022 59 42 58 
0.16375 -0.101029 1.19165 71 40 55 
0.0207908 -0.0865436 1.12559 113 78 56 
0.08701 -0.0875248 1.1541 74 48 61 
-0.391425 -0.0672321 1.11839 44 33 39 
-0.00655038 -0.0418084 1.14644 53 28 21 
-0.058653 -0.0359917 1.12039 66 40 51 
-0.00466156 -0.0348017 1.12015 173 165 163 
0.0412592 -0.0356861 1.13643 171 163 174 
0.466032 -0.0160832 1.30027 64 46 62 
-0.107968 0.0608631 1.08957 45 28 34 
0.489064 0.157572 1.29326 85 63 76 
-0.446563 0.151458 1.09948 59 53 65 
0.575242 0.207247 1.31002 46 31 52 
0.125133 0.166357 0.86456 80 46 60 
0.564503 0.264361 1.26891 19 23 50 
0.268761 0.220399 0.965377 179 134 163 
-0.00334734 0.147726 1.68491 112 61 76 
0.230921 0.164792 0.928363 121 67 90 
-0.00535243 -0.386072 1.11062 73 30 50 
-0.102446 -0.370555 1.07331 134 93 111 
0.208179 -0.272094 1.15768 138 92 103 
0.234098 -0.256439 1.25289 110 74 88 
-0.661878 -0.348059 3.10325 54 21 28 
0.407311 -0.0161955 1.27989 69 43 68 
0.0138574 -0.0155877 1.10681 114 108 112 
0.257444 0.0711636 0.848723 97 47 58 
0.192211 0.0710465 0.839588 81 37 54 
0.496986 -0.365871 1.3124 55 37 61 
0.146213 -0.160186 0.696279 98 66 77 
0.173669 -0.125979 1.18913 123 73 84 
-0.584582 -0.319916 3.12922 53 22 30 
0.209414 -0.0404892 0.539451 64 33 41 
0.303361 -0.0859268 1.16798 140 90 102 
-0.623509 -0.223202 3.1292 48 21 26 
-0.136805 -0.027277 1.13013 51 21 29 
-0.459303 0.0648636 1.09309 16 20 32 
-0.551783 0.142506 1.07664 121 118 149 
-0.510158 -0.275434 1.10649 47 39 62 
-0.658344 -0.34475 3.08973 50 21 25 
-0.638718 -0.337909 3.09103 112 80 95 
-0.144133 -0.10312 1.12885 61 31 39 
0.10011 -0.052199 1.15097 58 25 32 
0.14124 -0.0204156 0.712988 62 25 33 
0.101365 -0.0335363 1.15295 62 31 39 
-0.0702303 0.0188201 1.11406 55 24 30 
-0.202302 0.121102 1.67338 82 48 64 
-0.0348396 0.00128154 1.1249 30 18 22 
-0.136305 -0.08377 1.12962 96 51 58 
0.290166 0.205629 1.13733 81 43 56 
-0.0695884 -0.381138 1.08331 74 26 42 
0.456607 -0.411918 1.30629 60 43 62 
0.0358287 -0.0830396 1.14824 153 136 126 
0.549492 0.200912 1.29961 75 51 67 
-0.467644 0.0909173 1.09873 53 42 56 
0.579718 -0.225451 1.32294 100 87 117 
-0.512965 -0.270217 1.09854 54 44 68 
-0.333227 -0.0821479 1.13281 43 35 48 
0.278544 0.103424 1.14164 97 60 77 
0.381316 -0.417065 1.291 95 69 94 
0.105645 -0.283088 1.1294 156 108 122 
-0.3884 -0.212376 1.12665 63 50 76 
0.0306977 -0.03632 1.10789 210 206 203 
0.113477 0.0267479 1.1548 89 42 58 
-0.388261 0.128246 1.1117 52 38 55 
0.185298 0.181192 0.875463 89 39 51 
0.0475247 0.175192 0.847437 84 40 53 
-0.0116175 0.196504 0.833678 90 53 70 
0.148154 -0.361041 1.13781 105 65 73 
0.387952 -0.410389 1.29061 80 61 91 
0.157216 -0.302261 1.16753 79 36 53 
0.104832 -0.259621 1.13517 80 39 47 
0.0807904 -0.236839 1.12899 121 80 94 
-0.16295 -0.183014 1.10456 74 40 54 
-0.14167 -0.156355 1.13403 71 30 38 
-0.0882696 -0.152537 1.09526 118 75 85 
-0.0558815 -0.117269 1.1181 54 23 29 
-0.356523 -0.0201415 1.12399 127 90 98 
-0.423322 0.0477786 1.10931 62 44 60 
-0.00426264 0.096719 1.08645 100 49 64 
-0.397014 0.154546 1.11134 46 30 41 
0.185547 0.149091 0.876644 85 48 66 
0.107463 0.14472 0.859886 103 55 69 
0.108295 0.197923 0.858749 94 59 81 
0.200239 0.213219 0.874798 123 78 101 
-0.0375455 -0.272129 1.1011 114 76 89 
-0.366684 -0.120508 1.12117 125 99 112 
0.00161737 -0.101877 1.12054 193 182 160 
-0.331466 -0.0917759 1.13184 56 39 47 
-0.0695784 -0.0877732 1.11717 66 33 40 
0.302136 -0.0450244 1.19231 63 29 45 
0.301668 0.00879912 1.19195 83 49 63 
0.0801823 0.166558 0.854103 86 39 55 
-0.0972895 0.195602 0.852856 55 32 40 
-0.209522 0.252489 1.01313 122 141 173 
-0.21478 0.252604 1.00106 129 136 164 
-0.113296 -0.289615 1.11867 35 18 24 
-0.164199 -0.267392 1.10305 59 24 28 
-0.226347 -0.194802 1.16276 77 63 86 
0.398349 -0.15163 1.28477 78 65 82 
0.100249 -0.1059 1.15545 72 41 49 
0.0860249 -0.0863344 1.14067 85 43 53 
-0.270932 0.0201647 1.07529 84 45 48 
0.0610947 0.0228699 1.13697 64 31 40 
-0.462606 0.0336459 1.08339 170 191 254 
-0.481418 0.048468 1.0859 22 27 47 
0.136537 0.190866 0.867791 101 48 64 
0.283073 -0.371199 1.27128 84 60 84 
-0.495171 -0.282272 1.10299 144 137 155 
0.523457 -0.317109 1.31507 71 53 77 
-0.266753 -0.162891 1.14879 146 117 135 
0.0665171 -0.155726 1.15844 107 71 83 
0.0871098 -0.0196396 1.14958 66 30 34 
-0.366144 0.0510586 1.12134 40 30 41 
0.424435 -0.23058 1.29176 86 64 76 
-0.194432 -0.032895 1.12033 63 28 32 
-0.160398 0.000416158 1.12624 58 21 28 
0.468342 0.133097 1.28868 144 132 154 
0.164851 0.0733545 1.12185 69 37 48 
0.599631 -0.102172 1.26429 180 195 236 
-0.0521509 -0.0465607 1.33915 47 14 25 
-0.0567324 -0.0867958 1.28513 54 19 26 
-0.0322315 -0.133767 1.25766 56 25 33 
0.254428 0.0779762 1.0788 145 102 121 
0.0214975 -0.209225 1.1282 62 29 36 
0.312051 -0.185307 1.26678 75 51 65 
0.185053 0.0872976 1.20872 88 52 66 
0.0984271 0.0937095 1.28953 87 56 71 
0.267001 0.0773082 1.06805 145 98 118 
0.238815 0.0986725 1.06205 71 40 48 
0.460349 0.207659 1.28489 61 52 73 
0.137465 0.074673 0.882811 91 63 78 
-0.466708 0.131633 1.89684 81 38 55 
0.0464275 0.0864134 1.33522 93 52 66 
-0.221093 0.0756179 1.14395 81 40 54 
-0.017687 0.09776 1.42558 74 38 52 
-1.184 0.183551 2.48621 59 35 48 
-1.11655 0.175202 2.543 113 62 71 
0.33096 0.0584631 0.819129 65 51 51 
0.0544609 0.104878 1.09594 106 65 83 
0.281812 0.0954603 1.02684 76 40 50 
-0.398824 -0.496396 1.13794 71 49 62 
0.60275 -0.445465 1.76286 94 90 125 
0.168484 -0.358894 1.24174 45 23 35 
-0.718931 0.205913 1.01888 50 77 106 
0.574806 0.254214 1.26828 149 179 243 
-0.441111 -0.530589 1.13206 69 55 72 
0.261115 -0.350193 1.26244 87 62 68 
-0.701825 -0.38325 1.0635 30 36 84 
-0.697916 0.236707 1.03496 114 101 121 
0.266745 -0.453541 1.2688 60 42 56 
-0.714568 -0.425118 1.06391 32 37 57 
0.199132 -0.235541 1.18122 61 25 27 
-0.436551 -0.0152698 1.11619 55 44 58 
0.224768 0.0736881 1.13828 81 40 56 
0.0686926 0.0915315 1.33978 76 38 49 
0.253396 0.190055 0.958389 84 48 62 
0.509797 -0.0960488 1.30137 132 115 133 
-0.016171 -0.550724 1.1994 180 179 187 
-0.862377 0.111522 1.02634 93 107 156 
-0.751858 0.242628 0.92676 129 141 139 
-0.617067 0.245724 0.99799 104 122 136 
0.0210985 -0.53503 1.20245 15 34 49 
-0.00404997 -0.537818 1.1997 80 115 121 
-0.0184907 -0.545164 1.21073 44 49 53 
-0.710436 -0.0495151 1.05404 33 45 85 
-0.709092 0.0308871 1.05064 42 40 79 
-0.71428 0.0634623 1.049 40 45 83 
0.574665 0.0985141 1.34796 60 38 61 
-0.715941 0.0842119 1.04995 33 47 92 
-0.726153 0.206388 1.02147 46 67 98 
0.00991445 -0.528734 1.20308 119 65 79 
-0.000999554 -0.52828 1.20189 132 136 119 
-0.135342 -0.560827 1.19339 123 122 140 
0.1399 -0.406069 1.16449 152 98 112 
0.169576 -0.409815 1.2461 86 58 81 
-0.857486 -0.599663 0.994881 164 168 216 
0.59553 -0.293458 1.42718 132 149 175 
-0.357238 -0.4579 1.14819 74 52 73 
0.0402897 -0.0290385 1.12346 176 164 152 
-0.720377 0.0270207 1.05008 94 107 139 
0.339065 0.0746823 1.16992 74 37 44 
-4.14887 0.39086 5.25288 71 47 61 
-0.395673 0.152866 1.68137 84 43 57 
0.252165 0.16297 0.998452 96 52 69 
-0.259443 0.240728 0.736968 123 143 154 
-0.332057 -0.589985 1.15669 81 59 80 
-0.349466 -0.590073 1.15125 71 53 69 
0.0632854 -0.447876 1.15402 91 35 48 
-0.891785 -0.643295 0.957702 187 206 248 
0.0410814 -0.391487 1.11824 62 36 49 
0.0551161 -0.387983 1.12441 55 24 32 
0.221042 -0.274309 1.25229 87 59 82 
-0.726708 -0.42899 1.05345 29 55 90 
-0.122204 -0.304207 1.11103 64 33 48 
-0.0282478 -0.205043 1.12627 67 34 45 
-0.154569 -0.13552 1.12552 75 30 35 
-0.0741848 -0.10729 1.12215 52 26 35 
0.310268 -0.0484094 1.20035 66 30 34 
0.190986 -0.0422551 1.19636 68 32 44 
-4.06058 0.472726 4.92873 93 52 66 
0.244606 0.151462 1.05184 88 47 63 
0.26137 0.167639 1.13283 59 34 38 
0.231144 0.173621 1.1067 78 35 45 
0.256126 0.168737 0.98955 94 49 69 
-0.0400634 0.173044 0.830685 84 44 55 
0.185106 0.162769 0.876632 89 41 53 
-0.734958 0.240303 0.923435 48 76 77 
0.244926 0.202473 1.04009 91 46 66 
0.0160041 -0.151653 1.13058 63 33 33 
0.0824578 -0.105382 1.15542 61 34 43 
-0.281666 -0.101446 1.06785 77 32 35 
-0.256114 -0.099143 1.05486 78 32 34 
0.125296 -0.0580177 1.18887 61 25 35 
0.0857875 -0.0346775 1.15017 71 38 47 
0.0302603 -0.0222091 1.1141 219 215 204 
0.0524609 -0.0128255 1.15309 58 35 43 
0.380901 0.0885269 1.2693 64 47 66 
-4.3252 0.376097 5.16272 91 53 68 
0.55039 0.0535442 0.762926 62 43 47 
0.456562 0.102211 1.28414 79 61 83 
-0.848816 0.110814 1.02229 123 131 180 
0.447206 0.080527 0.891589 77 44 53 
0.59843 -0.340349 1.4228 27 29 42 
-0.860555 -0.607786 0.990243 56 47 66 
0.0170722 -0.13729 1.12956 61 36 31 
0.0202044 -0.12669 1.1259 72 35 42 
0.0227241 -0.0446861 1.11489 143 132 140 
0.0252423 -0.0449066 1.14686 165 150 127 
0.0331259 -0.0368867 1.09299 192 187 194 
0.209167 0.00181035 1.21393 46 23 29 
0.0380435 0.0692693 1.08375 127 143 194 
0.589659 0.250533 1.28455 163 174 240 
-0.228526 -0.341731 1.16461 87 55 78 
-0.454784 -0.233709 1.11047 95 87 108 
-0.332534 -0.253319 1.141 44 36 51 
0.0894324 -0.100028 1.15822 84 43 59 
-0.173973 -0.0391431 1.12549 45 16 20 
0.0765041 0.0274657 1.15126 72 24 36 
0.0846541 -0.327018 1.14135 81 46 66 
-0.342843 -0.0879442 1.13151 48 37 54 
-0.00693447 -0.0956119 1.1326 158 144 117 
-0.20255 -0.0771589 1.11546 70 27 37 
-0.115489 -0.031277 1.13739 47 16 22 
0.597132 -0.0372831 1.33502 186 201 244 
0.12873 0.15354 0.868164 87 40 58 
-0.459545 0.250544 1.07023 41 31 40 
-0.297935 -0.301471 1.15377 132 113 133 
-0.348041 -0.278214 1.13842 50 42 55 
-0.467129 -0.22813 1.10651 115 101 127 
-0.168354 -0.191475 1.10498 83 40 47 
0.0602777 -0.152309 1.13616 101 68 79 
-0.154428 -0.12672 1.12 51 22 24 
-0.315606 -0.105553 1.13616 42 29 39 
-0.416605 0.0324735 1.10972 28 18 26 
-0.124897 0.077937 1.06302 78 40 51 
0.258058 0.106565 1.144 64 37 46 
-0.404211 0.115797 1.11083 42 35 43 
0.0665473 0.151448 0.854479 74 40 56 
-0.459647 0.151997 1.09402 47 43 58 
-0.106088 0.195964 0.856676 48 29 33 
0.205375 -0.264846 1.17509 53 28 31 
-0.315583 -0.154948 1.13477 66 48 62 
-0.00506121 -0.110222 1.13499 171 159 135 
-0.016635 -0.00803424 1.11535 138 129 130 
0.371372 0.129403 1.47347 100 67 88 
-0.423707 0.156003 1.10534 52 44 55 
0.553318 -0.0448432 1.15458 105 107 156 
0.0268783 -0.0159253 1.10986 83 76 84 
-0.258438 -0.157355 1.1509 127 106 123 
-0.311966 -0.233961 1.14322 47 36 52 
-0.269 -0.152303 1.14548 66 48 72 
-0.383336 -0.0549465 1.12057 36 26 37 
0.143475 0.0628646 1.13955 93 60 71 
0.113948 0.247259 0.801533 59 46 89 
0.0560466 -0.237358 1.14817 56 33 41 
0.587018 -0.0719629 1.16329 67 80 115 
-0.424002 0.024406 1.10718 106 103 120 
-0.354417 -0.197289 1.13309 42 31 39 
0.098506 -0.0742612 1.17339 57 19 30 
-0.302707 -0.127122 1.14131 57 45 69 
0.0667867 -0.317804 1.11166 81 46 66 
-0.0259946 -0.123611 1.25096 45 15 25 
0.0132454 -0.214858 1.15168 54 26 38 
0.186725 0.103631 1.17578 95 51 68 
-0.0011426 -0.332474 1.13624 73 36 53 
-0.00410349 0.0751514 1.13985 97 55 67 
-0.2088 0.0698787 1.04546 55 32 38 
0.205139 0.0585916 0.910071 96 55 69 
-0.27512 0.0902586 1.29899 71 33 46 
-0.621211 -0.508469 1.09834 70 70 106 
-0.70383 -0.0488226 1.05091 33 45 85 
-0.481667 0.0275936 1.10399 83 87 135 
-0.856694 -0.599544 0.994583 164 168 216 
-0.184034 -0.569832 1.18803 86 63 79 
-0.449375 -0.585317 1.13557 72 48 62 
-0.721114 -0.427467 1.05085 29 55 90 
-0.48924 -0.359168 1.11658 64 44 56 
0.0738932 -0.499865 1.23678 66 48 70 
-0.855102 -0.591007 0.989163 105 115 164 
0.0832629 0.0925176 1.30182 87 55 66 
0.374014 0.159057 1.27161 61 44 63 
-0.865003 -0.594509 0.991253 105 118 162 
-0.514872 -0.310183 1.11309 57 41 54 
-2.05035 0.174377 2.44514 75 37 52 
-0.886581 -0.868562 0.967823 170 185 226 
0.0349036 -0.581241 1.21346 212 194 170 
-0.00530176 -0.585642 1.20888 171 150 131 
0.0420081 -0.567216 1.2136 63 51 53 
0.0108412 -0.575021 1.2118 120 124 169 
-0.0154818 -0.581644 1.20575 179 176 157 
0.00121799 -0.575348 1.21064 70 40 38 
-0.00363347 -0.56583 1.20867 210 197 189 
0.0208791 -0.55823 1.21196 166 147 153 
-0.0160692 -0.565694 1.20774 155 155 189 
-0.0328122 -0.569766 1.20691 185 179 189 
0.0339201 -0.549577 1.21181 109 111 152 
-0.83987 0.110647 1.0188 88 102 151 
-0.721256 0.239885 0.921881 101 132 126 
-0.25482 0.240164 0.736515 117 137 144 
0.0256273 -0.57639 1.21107 79 58 65 
-0.705926 -0.700218 1.07713 34 44 93 
-0.691058 0.0309932 1.04384 43 39 74 
0.00553978 -0.600257 1.21077 133 133 161 
-0.0280262 -0.595389 1.2064 113 63 66 
-0.887766 -0.805609 0.883096 118 145 198 
0.347836 -0.48232 1.29689 80 54 79 
-0.0262255 -0.577048 1.20359 193 181 159 
0.0230331 -0.548715 1.20985 73 64 59 
0.00402029 -0.545894 1.20799 12 34 47 
0.0827794 -0.529399 1.24178 42 28 41 
-0.037226 -0.549231 1.20435 52 31 46 
0.604139 -0.451693 1.76204 32 33 64 
0.511581 -0.365186 1.32208 60 46 69 
0.593689 -0.366632 1.44291 52 55 90 
-0.88385 -0.644335 0.875131 128 153 207 
0.578753 0.00511214 1.34025 70 47 57 
-0.466558 0.0478729 1.10234 46 42 77 
0.570366 0.0922738 1.39152 36 33 50 
0.113178 -0.538232 1.24964 68 49 69 
-0.0110563 -0.557059 1.20882 168 151 143 
0.110199 -0.412709 1.16865 46 20 29 
0.191189 -0.292193 1.18061 101 45 56 
0.572605 -0.23835 1.36955 77 52 73 
0.567368 -0.238563 1.39681 52 32 43 
-0.716598 -0.426343 1.04967 31 50 82 
0.570677 -0.192778 1.36416 57 34 40 
0.577688 -0.0640469 1.33226 78 50 64 
0.576627 0.0914512 1.33375 86 62 75 
-0.200215 0.127867 1.41385 85 42 52 
-0.193313 0.128007 1.42173 79 41 54 
0.609126 0.248672 1.46286 83 84 104 
0.611037 0.266762 1.58838 97 88 117 
-0.1465 -0.639485 1.20113 60 45 64 
-0.269993 -0.661589 1.17854 61 47 60 
0.204231 -0.520186 1.26037 74 49 68 
0.0109628 -0.562129 1.20972 147 169 210 
-0.0191116 -0.534457 1.20276 155 144 124 
0.240027 -0.454941 1.27455 147 128 148 
0.608135 -0.448317 1.75427 29 35 59 
-0.848223 -0.603745 0.986322 52 39 57 
-0.544714 -0.493718 1.10451 62 55 71 
0.418447 -0.276462 1.29802 54 47 65 
0.577726 -0.159014 1.36036 54 39 46 
0.579289 -0.151583 1.33535 52 35 43 
0.309028 -0.108963 1.27105 70 43 60 
0.305895 -0.0895575 1.17778 157 106 123 
-0.203513 0.102582 1.041 73 41 52 
0.204273 0.166273 0.893488 98 54 69 
0.607408 0.236048 1.29439 138 127 144 
0.0666431 -0.541686 1.21683 83 70 98 
-0.857414 -0.606751 0.989222 52 39 57 
-0.554066 -0.49632 1.10751 59 50 67 
0.215363 -0.27844 1.17849 160 109 126 
0.309292 -0.100379 1.18716 170 123 139 
-0.269516 -0.113044 1.07196 68 26 27 
0.00399722 -0.045971 1.12802 136 126 137 
-0.258542 0.0753751 1.03676 30 28 31 
0.325789 0.0955121 1.15725 64 37 46 
-0.0568852 0.133164 0.825768 133 151 187 
2.8655 -1.22242 2.56709 123 127 172 
2.14471 -1.01741 2.57059 129 130 176 
2.70038 -1.10033 2.55997 177 192 233 
2.66387 -1.03077 2.55915 134 136 175 
3.01409 -1.02124 2.55892 175 170 167 
2.97416 -1.01099 2.55029 198 193 190 
2.96348 -1.00988 2.56248 186 190 193 
3.01066 -1.01084 2.54577 182 182 180 
2.96789 -0.998746 2.56484 167 165 170 
2.69164 -0.941124 2.60236 99 80 112 
2.9893 -0.97808 2.56273 78 51 60 
2.95827 -0.968494 2.55758 176 170 170 
2.97117 -0.966469 2.55073 155 135 126 
2.94428 -0.960207 2.55156 107 105 116 
2.79485 -0.89898 2.59552 84 94 143 
2.95967 -0.88657 2.55618 182 184 181 
2.94896 -0.841364 2.54993 185 185 187 
2.82157 -0.779974 2.59014 108 118 169 
0.160538 -0.148282 0.681945 104 116 168 
2.68132 -0.60517 2.57379 147 153 205 
2.1746 -0.504695 2.54533 138 148 197 
2.33333 -0.483386 2.53973 162 147 142 
2.32998 -0.472301 2.55458 201 188 195 
2.31629 -0.460724 2.54977 206 200 212 
2.88288 -0.382937 2.50782 135 128 109 
2.85225 -0.364185 2.48025 120 113 97 
2.89752 -0.357984 2.50531 53 36 29 
2.61104 -0.341356 2.54667 167 185 225 
2.9068 -0.352293 2.47685 127 111 95 
2.15315 -0.188678 2.56805 83 96 141 
2.78936 -0.131275 2.58275 78 92 137 
2.7719 -0.103651 2.55768 80 80 114 
4.64127 -0.14767 4.35824 167 179 217 
2.17207 -0.0563247 2.58104 81 90 145 
2.81162 -0.0562901 2.57113 87 105 153 
2.76654 -0.0398877 2.56894 166 171 237 
2.77604 0.000274783 2.55771 78 79 127 
2.72953 0.00125374 2.5548 102 112 171 
2.77552 0.00896892 2.56956 87 99 137 
2.7132 0.24183 2.52804 89 87 127 
2.75038 0.243716 2.54248 75 83 122 
2.70192 0.266341 2.519 57 59 97 
2.74254 0.268755 2.5362 67 76 117 
2.15227 0.263615 2.51767 164 172 209 
2.18363 -1.16833 2.57303 150 163 215 
0.459128 -0.486435 1.31301 77 60 92 
2.12873 -1.02149 2.55643 120 124 171 
2.68494 -1.12172 2.56031 179 202 243 
0.385423 -0.412891 1.29614 76 61 90 
2.61747 -1.07556 2.5662 139 146 192 
3.01789 -1.13697 2.56927 178 173 169 
2.67128 -1.04412 2.56291 131 124 165 
2.77122 -1.00999 2.56981 115 121 169 
2.63256 -0.973272 2.56166 123 108 141 
2.85137 -0.992906 2.56037 138 128 163 
2.64528 -0.953859 2.56755 46 25 66 
2.6686 -0.944767 2.58493 58 43 74 
2.81868 -0.96089 2.62135 36 39 70 
2.95949 -0.918838 2.55594 190 193 186 
2.8117 -0.898871 2.59438 82 113 159 
2.70385 -0.824784 2.59014 93 105 153 
2.79251 -0.822164 2.58148 96 104 150 
2.83698 -0.828178 2.58937 193 208 249 
2.17031 -0.604317 2.58233 196 204 240 
2.17158 -0.591247 2.56374 135 119 145 
2.79156 -0.607362 2.57873 105 102 155 
2.15954 -0.518071 2.55771 138 152 199 
2.88554 -0.579967 2.54558 117 83 110 
2.88416 -0.568869 2.54088 93 58 80 
2.83919 -0.506187 2.54865 137 138 186 
2.33003 -0.450821 2.55424 176 185 224 
2.31306 -0.369559 2.54364 114 124 177 
2.87098 -0.365873 2.49305 107 101 89 
2.60003 -0.341185 2.53842 172 190 228 
2.6871 -0.336275 2.54675 184 201 245 
2.77996 -0.297551 2.5506 125 142 186 
2.16217 -0.248642 2.55081 77 52 73 
2.64037 -0.256293 2.5529 111 96 119 
2.83402 -0.254686 2.55477 98 76 99 
2.82034 -0.248765 2.55793 71 48 64 
2.79122 -0.234942 2.56224 53 58 87 
2.79998 -0.179232 2.56499 80 95 138 
0.00828744 -0.0476899 1.13853 106 79 60 
2.6509 -0.132321 2.55642 77 67 104 
2.78368 -0.102375 2.56291 69 69 103 
2.82422 -0.103667 2.58202 65 71 105 
2.3322 -0.0681281 2.53846 127 138 183 
2.75346 -0.0429174 2.55739 70 72 121 
2.83203 -0.00244692 2.58335 77 96 138 
2.54877 0.0386773 2.53783 173 182 221 
0.282865 0.0138241 1.19163 96 55 71 
2.65187 0.0542567 2.55174 85 74 114 
2.64205 0.110712 2.54293 104 108 146 
2.6771 0.112173 2.55217 65 71 119 
2.62548 0.115672 2.5311 187 201 238 
2.39113 0.113144 2.51774 171 186 227 
0.272363 0.0404853 1.17632 160 121 142 
0.509137 0.0520492 1.30414 71 50 67 
2.20665 0.150079 2.53837 112 80 101 
-0.465856 0.0371076 1.09513 44 58 131 
2.89602 0.228874 2.5232 71 48 64 
2.72995 0.241589 2.52955 90 98 137 
2.72293 0.267004 2.53127 72 70 109 
2.7135 0.288505 2.48699 115 87 102 
2.67738 0.331202 2.51712 76 47 69 
-0.0921131 0.104669 1.06813 89 40 61 
0.183215 0.199351 0.877126 91 55 81 
2.82978 -1.27983 2.60345 101 103 162 
2.86212 -1.23554 2.55964 103 103 139 
2.8377 -1.21425 2.55293 123 119 169 
2.83415 -1.16552 2.55815 142 151 206 
-0.414802 -0.230857 1.1169 49 30 58 
2.17808 -1.03465 2.56343 146 158 210 
-0.427889 -0.226031 1.11384 124 105 127 
2.11958 -1.01786 2.54817 120 124 171 
2.69359 -1.12455 2.58162 189 204 247 
2.73018 -1.10952 2.5576 199 217 255 
2.69532 -1.08762 2.56405 125 111 137 
2.19609 -0.994949 2.56995 133 124 155 
2.65601 -1.03877 2.55145 125 119 157 
2.63474 -1.02417 2.56704 121 123 180 
2.76489 -1.03003 2.57508 201 216 255 
2.70071 -1.00511 2.55186 116 124 173 
2.82181 -1.00384 2.55596 140 136 169 
0.428388 -0.366393 1.29991 73 50 76 
2.82669 -0.985327 2.5433 136 130 166 
2.73389 -0.966903 2.5986 33 38 60 
2.83789 -0.968441 2.59937 34 40 62 
2.20852 -0.84941 2.62271 192 207 248 
2.17104 -0.822258 2.59051 196 211 254 
2.78022 -0.908349 2.58746 82 79 134 
2.84402 -0.906767 2.61782 75 96 139 
2.97786 -0.887967 2.55751 195 187 176 
2.9605 -0.864263 2.55017 77 74 93 
2.64783 -0.815947 2.56767 90 87 134 
2.76854 -0.815441 2.56402 83 87 134 
2.82453 -0.82317 2.58108 193 207 246 
0.380373 -0.238921 1.28712 149 126 142 
2.72733 -0.482738 2.55195 132 125 158 
2.25481 -0.43837 2.53387 185 204 246 
2.46692 -0.445081 2.52677 144 130 163 
-0.350159 -0.091766 1.12585 125 113 135 
2.26145 -0.370774 2.54676 116 126 175 
2.88548 -0.404242 2.54021 74 52 75 
2.73237 -0.373446 2.54529 114 122 171 
2.70395 -0.366776 2.54312 117 127 176 
2.58105 -0.353289 2.54818 168 180 220 
2.57826 -0.348731 2.52567 157 172 211 
0.0847126 -0.0991346 1.15036 94 45 64 
2.32771 -0.316461 2.54832 180 189 228 
2.57369 -0.316291 2.52405 112 123 168 
2.76248 -0.320697 2.56766 183 200 244 
2.18695 -0.273078 2.54106 112 98 124 
2.46405 -0.276372 2.54076 176 188 228 
2.60942 -0.273855 2.53851 109 89 116 
2.58169 -0.269905 2.54654 115 129 176 
2.84595 -0.273044 2.54672 101 81 106 
2.88539 -0.271044 2.54263 98 98 136 
2.16324 -0.230278 2.56798 137 150 184 
2.64486 -0.233075 2.55359 82 74 111 
2.24958 -0.212694 2.54215 176 190 229 
-0.165438 -0.0545409 1.12336 55 20 26 
2.58778 -0.20617 2.55032 113 126 170 
2.88563 -0.207368 2.5413 99 96 139 
2.93901 -0.205001 2.52609 50 47 66 
2.59281 -0.142885 2.54736 111 119 165 
2.91996 -0.151866 2.54268 116 121 151 
2.86537 -0.144762 2.53128 91 90 132 
0.302086 -0.0454007 1.19791 60 30 42 
2.82598 -0.100053 2.57036 181 200 240 
2.58129 -0.0796437 2.53648 111 123 171 
2.88245 -0.0824779 2.54067 96 93 136 
2.94008 -0.0742484 2.55666 143 148 186 
2.76811 -0.0427542 2.54237 66 82 118 
0.52259 -0.0115924 1.30725 145 132 150 
2.20245 -0.0163395 2.52309 117 121 168 
2.56165 -0.017205 2.52207 110 119 162 
2.54712 -8.62799e-05 2.5318 121 133 175 
2.74902 0.0139568 2.56494 79 70 115 
2.86331 0.0430823 2.52608 99 94 135 
2.59456 0.0455616 2.54193 104 115 160 
0.277004 0.0287636 1.19082 137 90 106 
-0.0856468 0.0254622 1.11176 89 35 49 
2.5432 0.164722 2.53264 163 176 211 
2.31129 0.176441 2.50929 190 208 248 
0.29365 0.0777184 1.14667 76 35 53 
2.79049 0.272068 2.57434 72 70 109 
0.222539 0.0849726 1.13494 106 62 87 
0.255261 0.106485 1.1384 83 47 61 
-0.0435944 0.159618 0.829176 90 39 56 
0.0705831 0.248133 0.819249 52 51 93 
-0.010727 -0.326219 1.11767 77 43 60 
2.76594 -1.09627 2.56646 129 121 168 
2.12384 -0.95459 2.53825 102 87 108 
2.6076 -1.02014 2.54781 109 116 171 
2.79038 -1.04746 2.55812 136 139 182 
2.75111 -1.02603 2.56945 198 217 255 
2.8215 -0.962943 2.59206 28 35 54 
2.78236 -0.921494 2.60668 93 92 149 
2.80152 -0.918723 2.59744 61 69 115 
2.62863 -0.776152 2.55351 102 103 151 
-0.144236 -0.174126 1.12867 74 33 41 
2.60476 -0.571446 2.55087 87 69 107 
2.85171 -0.569828 2.54593 92 71 102 
2.28714 -0.506801 2.5496 132 138 188 
2.27708 -0.476303 2.54448 112 117 159 
2.34604 -0.478434 2.57444 196 188 186 
2.31561 -0.461329 2.5306 207 205 216 
0.492676 -0.179761 1.30334 134 117 136 
2.29137 -0.372242 2.52763 112 122 175 
2.70287 -0.391463 2.55809 117 125 174 
-0.154271 -0.0962242 1.1284 71 29 43 
2.69248 -0.363946 2.57715 111 117 165 
2.22848 -0.32715 2.5575 122 126 171 
2.73838 -0.31805 2.55008 186 200 245 
-0.0579403 -0.083219 1.12203 71 33 46 
0.521255 -0.105062 1.31485 54 40 55 
2.87117 -0.269536 2.53274 93 91 130 
2.21411 -0.206646 2.52997 119 123 168 
0.506252 -0.0651369 1.30654 147 128 148 
2.95499 -0.158901 2.56624 122 125 158 
2.66788 -0.134578 2.56812 76 66 103 
2.20442 -0.0816452 2.52287 117 121 168 
-0.200761 -0.0160651 1.11104 80 33 41 
-0.0815454 -0.0107281 1.11517 79 36 46 
0.256178 -0.0116295 1.21468 59 16 25 
2.21435 -0.0185943 2.52969 115 119 164 
0.453045 -0.0083866 1.2925 146 129 148 
2.58051 0.0438833 2.53439 100 112 154 
0.21438 0.0178461 1.20449 63 23 34 
2.88492 0.104941 2.53415 103 102 134 
2.79189 0.109573 2.55793 73 77 115 
2.83061 0.151668 2.51841 90 59 75 
2.56868 0.148698 2.50676 106 78 101 
0.270029 0.0506084 1.17532 100 43 52 
2.90163 0.179812 2.53466 143 148 186 
-0.042833 0.044727 1.10187 155 104 121 
2.85513 0.242216 2.52299 46 28 44 
2.73281 0.284615 2.4942 51 34 52 
2.71136 0.308313 2.5051 45 32 49 
-0.462903 0.0628734 1.09175 29 31 54 
-0.454017 0.0835008 1.09564 67 47 59 
-0.29761 0.110747 1.01835 71 35 39 
-0.453691 -0.265387 1.10715 71 58 84 
2.79087 -1.14476 2.61558 123 131 180 
-0.0770556 -0.253074 1.09669 133 90 110 
0.462502 -0.36659 1.3103 51 37 60 
2.76929 -0.978416 2.62838 39 34 57 
2.78666 -0.956889 2.54492 76 59 78 
2.74591 -0.955973 2.59276 191 205 244 
2.7847 -0.82373 2.59908 98 104 152 
-0.480056 -0.107977 1.09849 116 98 120 
2.52427 -0.486583 2.55836 142 117 120 
0.0762435 -0.123548 1.14343 106 78 101 
2.72909 -0.401735 2.56368 114 121 165 
2.9164 -0.403163 2.55478 77 53 69 
2.86684 -0.360941 2.5534 90 96 132 
2.59476 -0.326179 2.5424 101 110 151 
2.854 -0.321812 2.53138 88 91 126 
2.78161 -0.267726 2.50905 101 77 99 
2.78894 -0.203204 2.59241 70 65 97 
2.71775 -0.0110635 2.57841 50 66 99 
-0.0732953 0.00831221 1.11423 89 42 52 
2.68931 0.0460528 2.55715 55 75 110 
2.70403 0.0771461 2.53174 76 74 113 
2.21579 0.151702 2.54852 96 63 84 
2.76827 0.258525 2.53471 144 156 194 
0.262627 0.0809788 1.14121 66 53 62 
-0.00667636 0.0712861 1.08663 87 53 70 
0.132341 0.0930729 1.1153 78 36 50 
-0.155067 0.0818766 1.05467 68 34 48 
-0.387614 0.127727 1.10825 54 36 52 
-0.459796 0.151178 1.08963 50 43 59 
-0.279717 0.168763 1.01756 42 30 34 
-0.243837 0.202023 1.02699 22 22 22 
-0.41536 -0.0961361 1.11317 56 53 62 
-0.315863 -0.104198 1.13318 44 34 42 
2.74408 -0.40294 2.57469 115 122 166 
-0.267088 -0.0802478 1.06617 37 17 19 
2.62348 -0.0181777 2.58147 120 125 165 
0.214376 -0.00153636 1.19866 56 20 20 
0.522345 0.0117062 1.30991 75 52 68 
2.7962 0.131397 2.55036 197 205 244 
-0.290618 0.049229 1.04903 162 108 131 
-0.296337 0.0615245 1.03888 121 86 92 
2.59492 0.352572 2.47975 25 22 29 
-0.300549 0.219824 1.00196 139 95 118 
0.278912 0.0394947 1.18713 108 55 75 
-0.436944 -0.0645341 1.10631 55 43 53 
-0.403443 -0.030634 1.11239 78 55 63 
-0.300964 0.219533 1.00117 139 95 118 
-0.436107 -0.094689 1.11063 53 42 50 
-0.0723159 -0.0745026 1.11899 55 17 30 
-0.396687 -0.230609 1.12286 59 38 55 
0.18743 -0.0064929 0.753375 92 78 113 
0.048975 -0.325435 1.12878 77 38 59 
0.00092832 -0.265791 1.012 68 40 55 
5.08825 -1.793 2.8203 72 83 128 
3.60551 -1.38604 2.73192 103 103 153 
3.28516 -1.29036 2.68373 130 105 137 
2.91684 -1.17358 2.68145 195 206 251 
3.45691 -1.28844 2.68454 176 165 197 
2.87491 -1.1572 2.67628 180 195 236 
2.8603 -1.15273 2.67931 186 195 238 
2.89968 -1.16308 2.68528 183 197 236 
3.51247 -1.28836 2.69231 98 90 79 
3.58537 -1.29712 2.70341 106 85 92 
3.49155 -1.26819 2.67569 196 198 185 
3.40031 -1.24671 2.69529 87 77 88 
3.5072 -1.26432 2.70438 66 45 60 
3.58774 -1.26566 2.71251 145 132 142 
3.26359 -1.1925 2.6872 112 99 125 
3.40308 -1.2174 2.6751 104 98 110 
3.48841 -1.2358 2.68793 121 116 146 
3.71701 -1.28612 2.70481 68 56 94 
2.84772 -1.09897 2.68162 135 135 173 
3.25895 -1.18046 2.6784 208 200 197 
3.52297 -1.23392 2.69095 195 189 189 
3.67891 -1.26622 2.69876 175 165 166 
3.27127 -1.16741 2.67145 92 65 108 
3.63077 -1.24574 2.72026 213 209 197 
3.40969 -1.17738 2.69934 91 88 83 
3.53453 -1.18659 2.69892 160 163 156 
3.44599 -1.16603 2.70819 205 201 189 
3.37623 -1.13578 2.68533 178 179 171 
3.52977 -1.16071 2.70584 194 182 166 
3.48831 -1.13995 2.68749 182 182 174 
3.70946 -1.17853 2.71103 195 188 172 
3.16108 -1.06475 2.68477 183 183 191 
3.72065 -1.15518 2.70262 168 163 186 
3.19214 -1.02456 2.68641 157 139 129 
3.76285 -1.10516 2.70303 178 163 158 
5.21443 -1.36875 2.80827 113 116 161 
3.48796 -1.03451 2.70472 82 65 73 
3.23006 -0.981217 2.69053 149 146 155 
3.2574 -0.985256 2.68571 158 155 162 
3.17794 -0.963323 2.6833 83 80 87 
3.47867 -1.0146 2.71134 81 70 76 
3.73806 -0.989665 2.69305 157 157 155 
3.91095 -0.977586 2.71323 138 137 143 
3.56102 -0.918195 2.71293 148 153 195 
3.67862 -0.934218 2.74842 113 119 167 
3.6079 -0.919984 2.73437 92 90 140 
3.60034 -0.900614 2.72693 202 214 252 
3.59662 -0.795529 2.73391 206 214 253 
2.96906 -0.641715 2.71004 126 133 185 
3.60115 -0.710062 2.73341 207 216 255 
3.13712 -0.526835 2.50351 176 179 220 
3.14911 -0.522612 2.54032 130 143 187 
2.91213 -0.49325 2.67112 136 141 179 
3.20159 -0.39682 2.38363 145 133 117 
2.85889 -0.37825 2.68037 114 124 173 
3.21209 -0.378688 2.35071 129 114 95 
3.78445 -0.418323 2.34568 164 157 147 
2.96412 -0.312057 2.66963 131 148 191 
4.96408 -0.306065 2.74662 122 123 167 
4.32946 -0.202786 2.7678 75 76 120 
2.9755 -0.138493 2.70482 79 89 138 
2.92499 -0.0588241 2.68473 84 85 133 
2.97585 -0.0596078 2.70258 69 75 123 
2.98822 -0.0597044 2.69712 74 78 125 
2.98512 -0.0495375 2.69466 78 80 119 
2.95477 -0.0143197 2.6947 182 197 255 
2.96767 0.000798414 2.69372 122 135 190 
2.92429 0.0105463 2.68212 93 91 131 
4.39439 0.0668931 2.78609 85 93 139 
2.97624 0.0605965 2.69884 94 108 153 
2.98039 0.0602496 2.68924 78 85 131 
2.99278 0.0605607 2.6837 110 123 175 
2.91202 0.1197 2.6722 86 87 133 
3.99284 0.161734 2.61209 114 77 95 
3.83958 0.173582 2.40508 176 184 220 
3.8072 0.182414 2.39394 90 76 91 
2.96301 0.311453 2.64705 139 121 133 
-0.467962 0.0593641 1.08157 52 72 143 
2.72552 0.369174 2.17265 153 172 205 
3.0158 -1.53037 2.72916 94 100 152 
0.53531 -0.524877 1.32902 147 131 157 
3.68212 -1.60499 2.77584 99 111 159 
3.63383 -1.54536 2.74711 100 110 161 
5.09111 -1.80262 2.83872 69 72 125 
3.04499 -1.23615 2.69319 151 165 214 
3.26959 -1.28065 2.66837 57 48 91 
2.81542 -1.16537 2.66379 187 200 244 
3.33007 -1.26986 2.65431 204 216 254 
3.50857 -1.30115 2.67752 196 200 209 
3.28661 -1.24863 2.66735 149 153 198 
3.54363 -1.304 2.68271 58 51 82 
3.34965 -1.2607 2.68359 127 134 176 
3.50003 -1.28349 2.68733 88 82 70 
3.57613 -1.29344 2.67331 117 100 108 
3.68349 -1.32003 2.70417 114 96 136 
3.55832 -1.28867 2.68821 96 76 87 
3.36456 -1.22856 2.67002 145 139 125 
3.59608 -1.27805 2.68829 82 69 63 
3.65768 -1.2926 2.69986 83 60 89 
3.22082 -1.20002 2.69307 179 173 175 
3.39126 -1.23182 2.69374 70 66 89 
4.9514 -1.57061 2.80194 91 99 148 
3.77811 -1.30233 2.6995 175 157 199 
3.47307 -1.23207 2.69317 202 206 231 
3.53436 -1.2301 2.71824 124 121 150 
3.64291 -1.25093 2.69538 179 177 178 
3.58861 -1.23353 2.69538 203 191 177 
3.4461 -1.20361 2.69589 212 210 211 
3.73697 -1.24374 2.70018 175 187 225 
3.59416 -1.20612 2.68257 168 182 208 
3.83432 -1.25462 2.72589 112 115 156 
3.56966 -1.19423 2.6986 193 183 182 
3.38557 -1.15111 2.70155 160 172 212 
2.9381 -1.05903 2.67922 119 126 172 
3.54068 -1.17326 2.68199 195 193 180 
3.70242 -1.19558 2.70728 133 123 131 
3.01721 -1.06022 2.68141 145 139 175 
3.72588 -1.18539 2.70322 186 189 196 
3.02578 -1.04208 2.67164 152 147 179 
3.36332 -1.10335 2.68028 179 172 162 
3.79961 -1.18065 2.7034 76 67 96 
3.19317 -1.06056 2.66917 92 86 96 
3.3237 -1.08765 2.68705 160 152 149 
2.93841 -1.01465 2.70996 35 37 75 
3.03506 -1.03016 2.6931 119 112 143 
3.20533 -1.06218 2.7037 99 96 91 
3.51689 -1.11949 2.69223 217 212 208 
3.71065 -1.15218 2.69715 158 154 181 
3.45001 -1.10101 2.69797 188 185 170 
3.48594 -1.10769 2.70307 81 70 68 
4.85566 -1.36255 2.77073 98 85 128 
3.49823 -1.10304 2.69855 196 197 189 
3.70405 -1.14115 2.70387 193 191 194 
3.66805 -1.12101 2.7056 115 111 138 
3.37944 -1.04095 2.65098 106 83 101 
3.54273 -1.0661 2.67739 115 113 118 
3.00045 -0.966267 2.73256 85 88 133 
3.0252 -0.954006 2.73416 83 104 147 
3.01129 -0.949458 2.72749 82 96 141 
3.44654 -0.998864 2.70482 100 88 98 
3.94726 -1.07337 2.69795 116 106 140 
3.16791 -0.932955 2.67383 202 192 190 
3.36383 -0.957942 2.68526 193 184 175 
3.50694 -0.979412 2.72043 156 171 210 
4.08977 -1.04662 2.72875 135 126 157 
2.99176 -0.869657 2.71196 94 108 147 
3.61407 -0.970298 2.73875 48 44 94 
3.56552 -0.956165 2.72979 98 116 164 
3.63379 -0.956515 2.74357 59 69 118 
4.12545 -1.02792 2.74251 46 30 66 
3.66358 -0.950011 2.76981 101 100 144 
4.24939 -1.04023 2.77036 36 29 70 
3.64722 -0.942317 2.74395 167 189 230 
3.61043 -0.929485 2.74097 189 198 241 
3.62706 -0.926813 2.7422 67 67 117 
3.70305 -0.913005 2.76493 64 65 119 
3.59998 -0.871868 2.7374 136 143 187 
3.01423 -0.766797 2.71718 88 94 142 
3.57623 -0.800897 2.72094 84 90 140 
3.60791 -0.797541 2.74031 206 214 253 
3.59034 -0.784569 2.73008 136 147 193 
3.61838 -0.788018 2.73647 190 208 248 
3.00652 -0.692926 2.71814 98 110 152 
3.60889 -0.755229 2.73965 212 220 255 
3.65013 -0.72549 2.73773 76 86 139 
2.95847 -0.641975 2.70539 114 121 175 
3.6226 -0.722623 2.74322 104 107 158 
3.66245 -0.716116 2.74498 80 90 143 
3.10136 -0.590281 2.49685 181 190 223 
3.57246 -0.606923 2.32811 170 152 174 
3.03328 -0.533678 2.67222 143 147 192 
3.37 -0.518398 2.31248 180 195 228 
3.29428 -0.512022 2.34266 139 143 180 
4.0097 -0.591766 2.63693 131 136 176 
3.75418 -0.547607 2.35763 170 187 215 
3.15161 -0.503326 2.52492 200 213 255 
3.26244 -0.41542 2.32126 161 141 134 
4.00539 -0.459046 2.40066 83 58 79 
3.12148 -0.405722 2.66877 43 32 40 
3.18057 -0.39281 2.32573 150 143 124 
3.18444 -0.384874 2.37099 67 50 40 
3.14098 -0.389159 2.60594 140 133 115 
3.28722 -0.384905 2.34052 145 129 113 
3.10773 -0.378655 2.6321 55 42 34 
3.84213 -0.365623 2.41832 165 167 205 
3.84606 -0.34277 2.41772 93 81 127 
2.9054 -0.250413 2.70216 55 66 96 
5.0003 -0.350555 2.76071 131 138 190 
2.97124 -0.248827 2.69069 70 67 94 
3.00851 -0.250242 2.70336 64 68 95 
5.02135 -0.344767 2.76075 173 185 233 
2.87326 -0.187161 2.68077 76 89 133 
5.03136 -0.208125 2.78032 117 123 171 
2.94815 -0.138392 2.69056 69 78 119 
2.9847 -0.139312 2.69616 70 75 113 
2.9086 -0.107517 2.6736 90 85 125 
3.01918 -0.109917 2.69494 182 198 231 
5.13293 -0.142273 2.79891 111 130 173 
2.951 -0.027646 2.69249 194 210 255 
2.97938 -0.0230919 2.70441 104 116 174 
2.95866 -0.00235716 2.68747 133 142 201 
2.95919 0.0102433 2.6915 116 121 163 
4.35712 0.169964 2.7141 100 74 99 
3.08532 0.162606 2.67614 119 82 99 
3.19567 0.197356 2.55651 77 49 45 
3.18642 0.203489 2.54883 123 93 101 
3.0901 0.241013 2.64341 66 43 61 
-0.469041 0.0363677 1.08207 56 73 142 
2.98658 0.311487 2.66236 137 119 133 
0.477247 -0.523761 1.31563 133 129 152 
4.20734 -1.75718 2.78182 179 183 230 
3.66184 -1.58957 2.75003 198 211 253 
4.30904 -1.75228 2.78442 151 160 201 
3.65143 -1.55515 2.75768 95 102 156 
4.32022 -1.72948 2.80216 100 112 164 
4.32011 -1.70306 2.80203 90 103 155 
4.27196 -1.66152 2.79843 114 119 174 
4.93012 -1.77157 2.79903 86 85 127 
5.06266 -1.7938 2.82627 69 72 125 
3.63337 -1.40118 2.74239 99 107 154 
3.24226 -1.29614 2.6686 169 155 191 
3.32236 -1.31006 2.68755 140 118 164 
3.34868 -1.27575 2.66519 204 216 254 
2.91565 -1.18396 2.69034 130 140 189 
3.359 -1.26717 2.66931 137 145 191 
4.94017 -1.62968 2.79781 87 99 147 
2.84932 -1.14884 2.67192 183 195 237 
2.91617 -1.16074 2.67928 203 218 255 
3.47271 -1.27859 2.67963 159 155 143 
3.63583 -1.31213 2.69948 119 97 118 
2.89652 -1.15316 2.68334 121 103 141 
3.71347 -1.3291 2.72062 114 96 136 
3.34327 -1.23742 2.67942 62 55 99 
2.95206 -1.15571 2.68847 130 118 164 
3.46792 -1.26099 2.67143 90 83 77 
3.56634 -1.28394 2.70597 203 199 187 
3.64707 -1.29846 2.68419 172 167 208 
3.49697 -1.26168 2.69857 66 45 60 
3.31102 -1.21369 2.67194 154 153 185 
3.20273 -1.18695 2.68802 98 89 116 
4.28895 -1.42585 2.77949 98 106 153 
4.24388 -1.38679 2.77753 90 92 143 
3.72818 -1.24786 2.66694 210 219 255 
4.30388 -1.3784 2.77272 201 213 253 
3.7426 -1.25067 2.69204 114 118 163 
3.35529 -1.17119 2.71342 80 80 106 
2.98613 -1.08488 2.68116 137 141 188 
3.5583 -1.17687 2.67594 84 79 111 
4.36 -1.33736 2.75816 124 118 164 
3.50271 -1.15598 2.70077 202 194 192 
3.36506 -1.12403 2.68987 193 186 180 
3.41474 -1.13653 2.70665 70 57 66 
3.40892 -1.10913 2.6846 123 115 130 
3.14799 -1.04918 2.62688 166 161 167 
2.8815 -1.01004 2.70065 38 39 60 
2.93 -1.01141 2.70429 33 31 70 
5.13432 -1.41082 2.81616 198 206 245 
3.60137 -1.11742 2.72493 171 187 223 
3.45521 -1.06572 2.668 96 96 130 
3.35827 -1.0376 2.64298 106 84 97 
3.5323 -1.05952 2.68112 57 46 60 
3.25165 -0.990092 2.72016 182 174 171 
3.18634 -0.963921 2.69192 76 64 86 
3.26956 -0.943916 2.68418 124 103 112 
3.52072 -0.975468 2.73809 72 66 112 
2.85553 -0.86223 2.69249 100 112 160 
3.94122 -1.02565 2.72544 63 53 77 
4.13392 -1.05033 2.74899 136 123 149 
3.22271 -0.890589 2.71037 125 118 136 
3.55997 -0.95313 2.75147 81 84 139 
3.56874 -0.943205 2.73882 75 80 135 
3.67046 -0.946928 2.7524 179 201 242 
3.5278 -0.912664 2.72993 146 154 203 
3.65106 -0.932365 2.75578 67 67 117 
3.45667 -0.896604 2.72135 78 72 116 
0.46699 -0.26993 1.30573 146 127 146 
3.6894 -0.871566 2.72993 191 197 231 
3.39978 -0.813002 2.69189 209 222 255 
3.6967 -0.857609 2.7402 185 191 227 
3.52019 -0.807911 2.74858 87 90 145 
5.02924 -1.0071 2.79662 111 117 167 
3.56325 -0.797978 2.71356 88 95 147 
3.6447 -0.791702 2.73751 96 101 156 
3.64571 -0.747775 2.7369 87 93 145 
4.24977 -0.820385 2.7643 121 128 180 
3.63826 -0.72297 2.73105 87 99 151 
3.43997 -0.691963 2.70899 212 222 255 
3.18179 -0.598483 2.45247 160 148 170 
3.30832 -0.604305 2.35993 170 158 182 
3.08045 -0.605963 2.69115 103 74 105 
3.12192 -0.590525 2.57389 131 133 156 
3.15902 -0.576032 2.59082 106 109 142 
3.42924 -0.581693 2.3253 104 97 131 
3.37852 -0.537924 2.36599 84 74 99 
3.46157 -0.53493 2.31612 86 83 110 
3.42945 -0.532655 2.35359 94 97 128 
3.32393 -0.508521 2.32998 131 136 176 
3.14935 -0.482764 2.39529 112 79 96 
