ply                 
format ascii 1.0    
element vertex 1358
property float x    
property float y    
property float z    
property uchar red  
property uchar green
property uchar blue 
end_header          
7.51352 -1.15005 12.3767 149 104 81 
6.6361 -1.32678 12.7907 147 66 36 
6.33536 -1.17148 12.3974 30 14 17 
1.21809 -0.212306 11.3582 6 0 0 
2.58486 0.372871 10.8269 189 143 109 
2.44152 1.94918 11.163 193 144 111 
5.79383 -2.6467 12.3393 17 11 11 
5.39244 -1.81049 11.9153 205 155 122 
5.87873 -1.56809 12.1355 36 28 26 
2.59131 -0.652833 10.7797 192 144 108 
2.29647 0.532342 11.4995 36 33 14 
7.15308 -3.19808 13.0798 63 35 23 
8.11307 -3.27885 13.5257 21 2 0 
7.23186 -3.13351 13.0933 135 98 79 
7.3727 -3.14571 13.2014 24 1 0 
7.24632 -3.07027 13.1546 17 6 4 
1.9348 -2.94475 13.4801 153 112 92 
1.88997 -2.73086 13.1102 148 111 93 
8.37442 -2.76662 13.3999 34 9 5 
8.53178 -2.77146 13.5507 122 93 85 
6.63481 -2.60379 12.8367 30 11 13 
6.5999 -2.51897 12.7098 13 4 0 
7.0249 -2.5328 12.8539 137 118 112 
6.77504 -2.49481 12.8294 32 20 24 
7.04166 -2.47645 12.927 33 7 8 
7.01627 -2.41095 12.9133 145 110 91 
6.91728 -2.39177 12.8677 90 50 42 
7.24193 -2.39814 13.0005 152 114 95 
7.45348 -2.39077 13.1504 134 98 82 
7.45742 -2.36863 13.0401 127 89 76 
7.57902 -2.37643 13.1211 24 8 9 
7.08497 -2.29246 12.7496 152 106 83 
7.32247 -2.27385 12.9799 154 106 83 
2.29296 -2.19508 12.7684 29 5 0 
6.37857 -2.15366 12.621 92 46 33 
6.8704 -2.18044 12.7984 26 13 7 
6.9777 -2.18222 12.8423 144 112 99 
7.20155 -2.19893 12.9566 153 106 80 
6.60332 -2.1574 12.7364 89 54 35 
7.47186 -2.1861 13.1012 145 112 107 
7.27396 -2.14687 12.9092 151 103 81 
7.36568 -2.11576 12.9644 30 4 0 
6.60138 -2.04826 12.6884 160 119 101 
7.23569 -2.0628 12.8884 26 2 0 
6.14015 -1.95284 12.5518 51 0 0 
6.42811 -1.97403 12.6621 169 122 102 
6.6361 -1.96506 12.7136 30 9 6 
8.14341 -2.02491 13.2131 66 10 0 
6.16477 -1.88329 12.5389 24 0 0 
6.2038 -1.83241 12.5234 43 12 17 
8.4024 -1.93156 13.4045 66 19 11 
1.78677 -1.78967 12.5421 56 31 24 
6.25282 -1.78126 12.497 166 128 109 
1.27372 -1.73335 12.5254 139 108 88 
6.45804 -1.63968 12.5264 155 123 110 
6.00459 -1.62578 12.4024 27 9 9 
6.8586 -1.591 12.6937 25 11 8 
2.1864 -1.45814 12.554 190 162 150 
6.41128 -1.42912 12.5272 67 19 7 
8.95245 -1.50158 13.5429 37 6 3 
2.27989 -1.38351 11.9444 51 26 21 
6.38417 -1.34121 12.5929 77 19 8 
8.76012 -1.38914 13.3577 26 10 13 
8.98901 -1.30794 13.616 137 94 75 
6.6875 -1.23291 12.6502 68 21 13 
7.91994 -1.24023 13.0926 102 66 52 
8.86434 -1.25279 13.5339 26 2 0 
9.23234 -1.25601 13.6137 134 86 66 
7.018 -1.15022 12.7353 24 1 0 
1.97955 -1.11227 11.7818 37 10 1 
10.2003 -1.17149 14.2434 126 91 85 
8.11884 -1.10701 13.1054 133 95 82 
2.23697 -1.04339 11.7619 168 142 119 
-0.0981264 -1.21396 17.0141 120 95 65 
2.34058 -0.945252 11.9868 166 129 100 
0.765768 -0.928539 13.7523 190 148 134 
2.3409 -0.83753 11.916 170 133 106 
2.37915 -0.790067 11.7819 57 37 4 
1.44374 -0.540186 12.3821 154 122 97 
2.49029 -0.442548 11.1453 50 33 3 
2.58586 -0.420106 11.1945 186 147 114 
2.64103 -0.344745 11.2879 67 45 4 
2.27721 -0.329703 11.2882 136 120 97 
1.49342 -0.33627 11.6468 114 103 97 
2.47657 -0.245666 11.3038 142 137 97 
2.41546 0.0950873 11.2553 157 143 117 
1.8823 0.148385 11.4424 114 103 81 
2.56909 0.174024 10.9952 191 150 118 
2.36771 0.237147 12.2029 120 111 82 
2.54209 0.21936 10.9832 41 23 0 
2.42925 0.552341 11.2323 40 29 9 
2.4019 0.620716 11.2508 176 145 117 
2.56382 0.812591 11.1166 180 144 110 
2.41071 0.819237 11.13 173 157 131 
2.3771 0.988952 11.4042 109 102 83 
2.41198 1.13865 11.4959 169 148 121 
2.45132 1.10206 11.054 183 142 112 
2.41415 1.14844 11.1376 58 42 8 
2.36818 1.28216 11.146 170 150 117 
2.30916 1.30769 11.0848 66 57 26 
2.42496 1.36401 11.2564 41 14 0 
2.48326 1.49143 11.248 186 151 113 
2.42942 1.5055 11.2528 48 19 0 
0.691015 1.75662 12.8904 115 92 100 
2.18678 1.53934 11.0213 153 144 127 
1.19081 1.68818 11.6784 103 74 66 
2.218 1.70773 11.4571 158 146 122 
2.35375 1.76238 11.4633 170 150 123 
2.34787 1.78076 11.2274 37 19 0 
1.98438 1.87554 11.5691 156 131 109 
2.30376 1.98677 11.4268 177 165 141 
2.38284 2.00577 11.4433 188 157 128 
2.3534 2.10918 11.7958 39 24 3 
2.25392 2.17037 11.7007 159 146 127 
2.43162 2.19614 11.6213 186 151 121 
2.08622 2.26315 11.6971 155 139 126 
2.42144 2.36505 11.7666 158 143 110 
2.47379 2.33138 11.5999 50 24 0 
2.26232 2.40831 11.7727 131 116 93 
2.27505 2.47491 11.8246 27 12 0 
2.34182 2.49011 11.8908 136 120 94 
2.30145 2.70309 12.2854 160 139 112 
2.28873 2.73051 12.0157 162 137 115 
2.27695 2.79516 12.022 41 22 5 
2.43527 2.91406 12.1395 158 134 106 
7.60455 -3.56368 13.4053 12 7 3 
7.41323 -3.47441 13.217 131 88 69 
7.03747 -3.38683 12.9716 131 94 75 
7.65227 -3.3959 13.2844 47 35 35 
7.81237 -3.32426 13.4016 117 82 63 
8.04997 -3.36174 13.5711 110 81 67 
7.18193 -3.21412 13.1252 66 36 26 
7.82718 -3.23567 13.2677 69 40 26 
8.15732 -3.29978 13.6022 19 4 0 
8.39057 -3.27337 13.5341 89 70 64 
7.25603 -3.1458 13.1545 135 98 79 
7.48841 -3.12293 13.2073 118 91 80 
6.96599 -2.95805 13.0131 19 4 0 
7.30637 -2.96168 13.1564 112 97 94 
8.6667 -3.03828 13.6686 18 7 3 
6.84102 -2.88921 12.9207 142 97 78 
7.61804 -2.92295 13.1584 20 10 8 
7.84265 -2.94233 13.3043 124 95 79 
2.39901 -2.78843 12.9587 61 23 4 
1.81993 -2.8403 13.4659 92 32 21 
6.88027 -2.8402 13.0462 121 84 66 
2.31268 -2.73382 12.9244 155 115 90 
1.88217 -2.71965 13.0239 148 111 93 
7.83194 -2.82446 13.237 104 84 75 
6.87247 -2.72943 12.9148 18 8 7 
6.63149 -2.68338 12.7941 155 108 78 
8.58585 -2.78129 13.6362 127 99 88 
6.87541 -2.47715 12.8284 151 105 81 
2.29053 -2.53142 13.9083 75 62 54 
7.1113 -2.42995 12.887 25 11 10 
7.52787 -2.48793 13.2162 17 3 3 
7.2473 -2.404 13.0094 152 114 95 
7.48436 -2.37696 13.1033 125 87 74 
7.65394 -2.38877 13.2343 24 13 17 
7.03614 -2.27346 12.6555 145 101 74 
7.29048 -2.27377 12.9242 154 103 84 
2.27278 -2.16429 12.476 24 1 0 
7.43057 -2.26131 12.9999 33 19 10 
7.10841 -2.23527 12.9729 33 15 5 
6.40578 -2.17013 12.6809 97 51 38 
6.73091 -2.19956 12.8467 158 113 80 
6.8045 -2.16373 12.6775 24 11 5 
7.2141 -2.19755 12.9677 158 111 83 
7.26985 -2.15089 12.9418 146 98 76 
7.24652 -2.13664 13.1628 22 11 9 
6.92142 -2.0639 12.685 23 9 8 
7.9804 -2.13532 13.2832 152 83 54 
6.59587 -2.06232 12.7171 168 123 104 
9.65253 -2.10949 13.7689 50 6 7 
5.9529 -1.89411 12.4949 88 52 40 
6.13603 -1.88831 12.4733 68 34 25 
8.01039 -1.96339 13.1718 149 95 69 
6.5749 -1.88597 12.6581 133 103 95 
6.32873 -1.88042 12.5971 27 11 11 
6.19272 -1.84232 12.5173 37 5 6 
5.71889 -1.80526 12.2959 181 125 100 
6.01776 -1.81675 12.3904 184 122 99 
8.45141 -1.94098 13.4833 65 15 8 
1.77596 -1.79541 12.563 56 31 26 
7.82993 -1.86905 13.2323 21 11 10 
9.1119 -1.91261 13.6969 51 12 13 
9.66923 -1.92133 13.8181 48 8 8 
6.02047 -1.77529 12.5817 183 123 95 
6.46207 -1.76804 12.5806 135 93 77 
6.58258 -1.77229 12.635 24 10 10 
6.08098 -1.70713 12.4649 151 104 84 
1.80766 -1.7156 12.6463 165 128 99 
6.33422 -1.66904 12.3851 22 6 9 
6.49296 -1.66075 12.5668 144 107 98 
5.96492 -1.60848 12.3605 31 15 18 
10.1133 -1.75877 14.072 30 0 0 
6.82864 -1.60159 12.6479 28 17 15 
9.244 -1.67703 13.7129 55 20 18 
6.56685 -1.57926 12.6009 20 11 16 
10.5691 -1.71984 14.42 26 9 2 
8.93165 -1.63765 13.5755 128 86 64 
6.53986 -1.57568 12.9023 166 94 72 
2.1665 -1.4661 11.8143 56 37 23 
6.54332 -1.49261 12.247 114 52 29 
5.97727 -1.49479 12.3892 148 81 62 
9.09097 -1.59116 13.6355 137 90 64 
2.06092 -1.46835 12.03 68 44 32 
8.8272 -1.56814 13.4811 133 91 75 
6.41821 -1.4388 12.5632 67 19 7 
7.96725 -1.47607 13.096 84 48 32 
8.97688 -1.50308 13.5786 40 7 2 
9.53521 -1.52977 13.8883 28 14 13 
10.0791 -1.5494 14.2582 34 12 15 
0.770769 -1.57093 14.5317 95 70 40 
0.386024 -1.57289 14.8063 130 97 64 
1.89393 -1.38714 12.2328 175 143 122 
8.31922 -1.42999 13.27 41 15 16 
9.1836 -1.47511 13.71 111 83 79 
8.52693 -1.37503 13.4574 118 87 66 
10.3072 -1.41201 14.0838 132 86 86 
9.27528 -1.37545 13.8653 59 37 40 
8.18536 -1.28895 13.1924 17 8 3 
8.7372 -1.31636 13.4085 135 94 76 
0.818556 -1.35357 13.8999 232 201 181 
6.64884 -1.24257 12.5533 66 19 9 
7.59373 -1.26171 12.9559 89 50 33 
6.90723 -1.2305 12.6017 159 108 81 
8.56409 -1.2709 13.3403 115 89 76 
8.35878 -1.24994 13.1448 22 10 12 
7.95541 -1.2468 13.1517 100 67 52 
7.22179 -1.22097 12.7873 104 58 42 
8.95998 -1.24321 13.6883 26 5 2 
9.23255 -1.25613 13.6282 136 89 69 
8.0303 -1.20289 13.0882 140 95 74 
9.02678 -1.19473 13.4448 35 15 14 
0.829118 -1.2531 13.6842 58 30 18 
7.05159 -1.15702 12.7916 24 1 0 
0.729978 -1.2424 13.8954 140 107 88 
7.50941 -1.12143 12.888 154 101 87 
1.91567 -1.06231 11.8343 167 137 113 
0.361967 -1.17641 14.0926 160 123 94 
2.23735 -1.04426 11.8173 168 142 119 
2.4481 -1.065 13.0677 16 4 4 
2.18996 -1.02304 12.1358 84 58 43 
0.790097 -1.07699 13.3649 134 102 77 
-0.132032 -1.23386 17.3954 121 96 66 
2.34421 -0.940055 12.1829 167 126 98 
9.71394 -0.881533 13.7924 139 92 74 
0.392724 -1.00857 15.1356 125 82 47 
0.76054 -0.932424 13.8642 191 149 133 
1.93438 -0.831257 11.9612 26 14 2 
2.37057 -0.783282 11.7616 59 39 6 
2.29615 -0.717909 11.9562 30 29 9 
1.20446 -0.677423 12.2998 38 20 16 
2.43631 -0.638291 11.5805 176 141 113 
2.47156 -0.557381 11.4593 65 48 18 
2.27469 -0.557099 11.5148 123 115 102 
2.40667 -0.550285 11.8537 31 22 7 
1.88731 -0.426232 12.1185 63 60 51 
-5.44777 -0.302747 58.1515 78 66 50 
2.02106 -0.349767 12.1581 65 62 47 
2.31055 -0.257992 10.5395 56 46 19 
2.50639 -0.161921 11.6279 29 20 5 
2.38999 -0.158334 11.4422 156 135 106 
2.34004 -0.116126 11.9239 35 23 9 
1.84356 -0.103493 11.5897 83 80 73 
-0.0081323 0.02098 16.0376 65 19 6 
-0.598596 0.110536 19.2425 22 15 7 
2.48621 0.0305068 11.3557 33 25 4 
2.48789 0.0934027 10.9945 180 141 112 
1.88148 0.137363 11.2821 112 102 77 
2.57901 0.308642 11.4371 188 147 115 
2.46128 0.295955 11.2064 36 21 0 
2.38893 0.39907 11.6704 31 26 6 
2.43711 0.563388 11.3992 36 29 10 
2.35052 0.556118 11.2547 27 21 5 
2.40696 0.634388 11.4028 166 144 120 
1.57745 0.711228 12.0007 33 28 6 
2.51099 0.68113 11.1513 186 143 111 
1.75533 0.895465 10.8347 31 18 1 
2.47606 0.999956 11.4796 51 51 17 
2.50057 1.05237 11.2669 186 146 111 
2.23493 1.09569 11.2303 105 99 77 
2.46117 1.22058 11.4229 59 51 14 
2.35804 1.27177 11.0229 170 150 117 
0.704089 1.57544 12.6557 113 97 82 
2.48975 1.49048 11.2296 185 147 110 
2.48085 1.63569 11.5531 186 148 112 
1.19838 1.62465 11.3125 103 73 62 
2.2171 1.70534 11.4348 158 146 122 
0.710712 1.86405 12.6586 116 79 87 
1.17534 1.81185 11.9478 31 3 0 
2.38856 1.88378 11.7838 46 28 4 
0.6906 1.99518 12.8594 139 102 93 
2.38917 2.00724 11.4605 190 155 125 
2.43607 2.10186 11.6336 58 29 0 
-0.574531 3.75199 20.7696 50 28 17 
1.07614 2.05576 11.7218 40 3 11 
2.08496 2.25406 11.6672 155 139 126 
2.32723 2.31796 11.7241 156 144 120 
-0.599239 4.14874 21.0761 35 20 13 
2.39798 2.48028 12.074 60 43 17 
2.27707 2.48931 11.83 33 17 1 
2.39352 2.62485 12.1416 34 21 4 
2.44188 2.84547 12.6106 33 21 5 
2.4928 2.8115 12.1147 53 26 0 
1.94854 -2.80389 13.1228 31 12 5 
2.4213 -0.784908 11.362 176 135 103 
7.37982 -3.45851 13.1557 131 88 69 
1.93752 -2.98835 13.5652 160 118 96 
8.55617 -2.99224 13.4393 16 8 5 
1.88557 -2.73426 13.1204 148 111 93 
6.86673 -2.46762 12.7981 151 105 81 
2.23658 -2.41079 13.3366 75 61 52 
2.29383 -2.21742 12.7389 25 2 0 
6.72392 -2.21049 12.8245 164 109 79 
6.39856 -2.16705 12.6582 97 51 38 
7.93902 -2.12084 13.1726 149 78 48 
9.57842 -2.09286 13.6762 51 5 5 
6.64719 -1.9677 12.7057 22 4 2 
6.1293 -1.91531 12.4725 48 8 0 
8.00935 -1.93869 13.1651 150 94 69 
7.73408 -1.80765 13.2233 18 9 4 
5.95315 -1.61659 12.3458 30 11 13 
8.65262 -1.72358 13.4745 146 94 70 
9.26852 -1.6811 13.7586 55 20 18 
9.13687 -1.58817 13.7108 135 89 65 
9.30624 -1.57099 13.6741 130 87 71 
0.356946 -1.60364 15.239 130 97 64 
0.791073 -1.47751 13.4938 87 61 28 
9.56515 -1.41218 13.7703 16 4 4 
9.18416 -1.36442 13.6914 52 31 36 
6.66111 -1.25988 12.5868 73 24 10 
8.36133 -1.24828 13.1768 22 12 13 
8.89019 -1.19956 13.5072 25 12 6 
1.99168 -1.12956 11.7852 47 23 19 
0.849154 -1.17604 13.109 55 32 14 
2.04313 -0.97916 11.7362 64 42 31 
2.39367 -0.921284 11.3585 178 138 103 
0.476006 -0.855451 14.2332 54 12 14 
1.20399 -0.683405 12.242 36 21 18 
-3.66877 -0.336404 42.8806 79 67 51 
2.64164 -0.338632 11.2359 63 40 0 
-2.59193 -0.100293 34.929 58 46 30 
2.44439 -0.171422 11.064 29 20 5 
-0.0553424 0.0382891 16.5962 61 17 6 
2.11517 0.137719 11.2289 70 62 43 
2.28619 0.196884 11.3216 120 111 82 
2.37954 0.397598 11.6981 32 29 10 
1.72203 0.448347 11.4572 31 15 0 
2.41233 0.688641 11.0951 39 35 10 
2.02888 0.930061 11.545 19 16 1 
1.78282 0.955345 11.3485 28 17 0 
2.4168 1.05508 11.3565 49 45 16 
1.93494 1.47395 11.5826 32 24 11 
2.33036 1.4971 11.5825 58 52 30 
2.44904 1.57007 11.1645 187 147 112 
2.52061 1.78758 11.7305 47 32 9 
1.16976 1.83166 12.0153 36 10 11 
2.44076 1.84743 11.4936 186 150 114 
1.90769 1.7152 10.7353 149 123 100 
0.532364 2.85928 14.4856 86 44 32 
2.49605 2.39046 11.745 62 36 11 
2.45781 2.52965 11.9607 183 148 110 
2.48166 2.66991 11.8885 184 139 108 
7.00678 -3.35747 12.8797 136 90 66 
1.97925 -3.34095 14.0801 163 117 91 
6.98116 -3.08335 13.001 147 101 78 
7.41616 -2.99577 13.1186 18 10 8 
1.79537 -2.91711 13.6923 96 32 23 
8.12228 -2.81897 13.4139 126 100 85 
8.42913 -2.75688 13.3057 106 73 64 
8.51029 -2.74767 13.4537 113 85 74 
7.72119 -2.63802 12.912 29 8 13 
6.88493 -2.63377 12.9815 14 5 6 
6.65615 -2.5635 12.8292 15 6 1 
2.27515 -2.45861 12.8012 40 25 20 
7.81719 -2.49003 12.9428 152 96 69 
7.16304 -2.45322 13.056 18 3 0 
2.09877 -2.21326 12.8127 18 7 5 
7.29416 -2.20979 13.0483 138 93 70 
7.89779 -2.23914 13.3161 45 17 16 
5.70086 -2.08308 12.4251 22 13 8 
7.05298 -2.11855 12.8025 21 3 0 
6.32681 -2.06136 12.6662 169 112 85 
5.86246 -2.01769 12.3972 180 117 84 
5.87864 -2.02517 12.6507 180 126 102 
7.40202 -2.05488 13.0068 25 14 12 
8.62476 -2.07476 13.3457 70 12 8 
6.54382 -1.99365 12.7808 161 119 103 
7.11386 -1.97533 13.006 168 112 75 
7.74304 -1.9616 12.9115 19 8 6 
6.24578 -1.87974 12.4187 35 18 10 
6.21837 -1.87423 12.6213 29 3 4 
5.75134 -1.81071 12.3329 164 109 79 
6.03903 -1.80779 12.4755 176 114 89 
9.07029 -1.92514 13.6288 56 8 8 
6.21386 -1.73595 12.6251 147 106 88 
0.565231 -1.95041 15.5793 91 41 30 
6.32799 -1.66499 12.474 18 9 10 
6.62618 -1.62539 12.6633 22 12 11 
2.20503 -1.558 12.353 60 42 32 
6.41044 -1.55278 12.5272 128 58 32 
7.28071 -1.61319 13.1753 165 104 73 
9.73601 -1.59365 13.9449 129 87 63 
6.63929 -1.4723 12.434 194 125 96 
8.9509 -1.32327 13.5028 134 91 72 
9.69133 -1.31626 13.9993 133 95 82 
7.62139 -1.22342 12.6924 150 103 75 
2.40196 -1.19063 11.9304 178 141 114 
6.90051 -1.1921 12.7495 156 104 82 
7.96888 -1.15757 12.956 138 92 69 
7.17905 -1.13239 12.7539 155 112 95 
7.54832 -1.12585 12.9537 153 101 80 
0.330468 -1.19458 14.5469 160 123 94 
-0.147809 -1.27554 17.6099 118 93 63 
-8.80202 -3.81882 81.4114 24 14 13 
2.30939 -0.900964 12.1481 170 127 95 
9.73912 -0.873675 13.8699 139 94 73 
1.49512 -0.690974 12.0587 151 114 87 
0.416147 -0.749048 14.9727 92 54 31 
0.0287409 -0.654019 15.6123 91 36 31 
1.50327 -0.528642 10.316 30 20 10 
1.39554 -0.54869 13.4325 168 127 97 
1.40137 -0.34882 12.381 13 5 3 
1.98165 -0.342632 11.6769 66 64 51 
-5.15063 0.432585 55.4891 64 54 42 
-0.369672 -0.0222612 18.7466 113 42 22 
2.47649 -0.083097 10.8681 187 143 106 
2.35049 0.105991 11.6747 26 20 4 
1.91556 0.143156 11.5308 82 71 49 
2.41754 0.54223 11.4984 34 32 11 
1.54418 0.671723 11.5665 37 32 10 
2.5153 1.10343 11.3903 189 144 111 
2.46058 1.25039 11.4822 49 45 7 
0.417863 1.68837 13.6372 24 13 7 
0.835954 1.49367 11.8137 25 10 15 
1.14697 1.65435 12.0203 16 4 4 
2.32107 1.64036 11.3342 32 26 4 
0.541171 2.02045 14.0922 36 3 10 
1.85037 1.80449 11.5462 38 30 11 
1.27492 1.67237 10.9372 170 129 99 
1.39139 2.01177 11.9355 16 7 2 
0.00475268 2.68654 15.5265 158 113 80 
1.30562 2.17087 12.454 20 16 15 
1.45352 2.34558 13.1872 22 12 11 
2.14636 2.14007 11.6832 30 22 11 
2.23505 2.55366 12.2462 62 48 37 
7.30977 -3.06395 13.0816 22 8 7 
1.92338 -2.92333 13.1761 160 118 94 
6.77426 -2.14477 12.6471 26 16 14 
1.90362 -1.5289 12.5151 109 78 57 
6.67658 -1.27233 12.6203 90 34 17 
1.96616 -1.10036 11.1936 60 36 32 
2.3325 -1.02776 11.7116 26 16 15 
2.4669 1.40538 11.2054 26 11 0 
2.48726 2.25815 11.8908 194 148 115 
1.95537 -3.23844 13.5057 161 117 88 
6.97187 -3.09851 12.9917 143 96 68 
1.79645 -2.94342 13.8265 94 31 22 
7.51322 -2.83512 12.911 18 9 10 
7.92491 -2.71138 13.3676 33 12 17 
6.80613 -2.63646 13.004 24 9 12 
2.28631 -2.48703 12.9935 39 24 17 
8.62542 -2.28548 13.3676 83 25 3 
7.23905 -2.26297 12.8974 145 99 76 
7.06417 -2.12366 12.8313 21 3 0 
5.79308 -1.93082 12.4705 179 128 99 
6.53309 -1.99039 12.7454 161 119 103 
7.43235 -2.03162 13.0437 25 15 16 
1.71297 -1.9503 13.194 45 25 26 
8.20202 -1.9044 13.3136 155 98 71 
6.01268 -1.80659 12.451 184 122 97 
6.06734 -1.74216 12.4674 180 130 103 
6.52864 -1.75808 12.6784 162 116 100 
7.66907 -1.79538 13.0763 19 12 6 
6.18209 -1.72639 12.5178 146 103 87 
1.32508 -1.61802 11.8933 161 117 92 
9.04189 -1.5704 13.6247 130 88 64 
6.63602 -1.46421 12.4217 165 94 66 
2.09315 -1.3478 11.8936 130 101 83 
9.51365 -1.47935 13.8714 19 6 0 
2.29828 -1.333 12.2505 23 13 12 
9.28794 -1.40644 13.7346 27 16 20 
6.40805 -1.28152 12.379 151 72 42 
6.91125 -1.2127 12.7731 158 107 80 
2.18936 -0.844327 10.9165 167 128 97 
2.40798 -0.664687 11.2814 175 142 109 
0.0628571 -0.65656 15.1883 106 45 40 
-1.43176 0.00752519 25.3277 74 63 43 
2.34955 0.100443 11.7516 20 17 2 
2.50261 0.302382 10.7788 185 141 112 
1.81276 0.777914 11.8464 28 21 5 
1.91287 0.808113 11.2204 83 66 48 
1.70592 0.81705 11.1716 90 63 42 
2.29947 0.894209 10.3512 36 30 6 
2.33269 1.52094 11.962 29 23 7 
0.545514 1.65602 13.1938 60 21 24 
2.21106 1.69253 11.4256 148 133 112 
0.174462 2.65908 15.3064 171 110 91 
1.854 2.06094 11.5648 25 10 7 
0.951742 2.2171 12.2766 58 18 16 
1.68572 2.13556 11.3522 33 8 4 
7.84736 -3.45458 13.3794 118 83 61 
7.0571 -2.91984 12.9889 36 20 20 
1.3822 -2.59403 12.6611 126 85 57 
2.21915 -2.73693 13.295 148 111 82 
7.18682 -2.49786 13.0693 20 5 2 
6.65422 -2.29337 12.5987 165 105 77 
9.70897 -2.47828 14.0203 148 72 74 
7.65344 -2.2552 13.1867 18 6 6 
2.2597 -1.9764 12.0717 165 123 99 
8.7458 -2.08369 13.5807 74 14 14 
6.37045 -1.73615 12.6533 24 4 5 
6.24935 -1.61522 12.4331 20 6 3 
8.22789 -1.58064 13.2202 148 94 70 
9.47796 -1.55884 13.4597 129 84 61 
6.18593 -1.44292 12.48 182 113 84 
0.0760766 -1.58175 15.7608 120 84 48 
0.710138 -1.39065 14.2792 105 70 48 
2.38713 -1.18364 11.7412 178 141 114 
1.91808 -1.17773 12.0193 168 138 114 
8.86846 -1.14846 13.5144 20 2 0 
-0.104117 -1.17874 16.8209 121 95 70 
2.31035 -0.684267 11.8458 25 18 2 
2.49244 -0.547782 11.0469 181 136 103 
1.85598 -0.241643 12.0593 9 7 8 
2.49788 1.16697 11.018 187 143 106 
2.13051 1.80695 11.2719 26 20 8 
0.973279 1.52921 10.2694 65 12 28 
0.664739 2.29783 13.4111 157 106 77 
1.45849 2.17639 12.1405 23 8 5 
1.88973 -2.7739 13.3443 153 112 94 
9.08542 -2.37702 12.9035 83 21 22 
7.91932 -2.43717 13.2396 168 109 79 
5.84142 -2.27774 12.8039 21 12 13 
2.14624 -2.13948 12.5272 27 16 10 
6.56357 -1.94915 12.2353 85 73 77 
5.91084 -2.05208 12.4122 177 117 81 
6.7543 -2.06508 12.5951 34 24 25 
6.59711 -1.92484 12.7213 138 106 93 
5.8607 -1.8187 12.35 163 106 86 
2.21535 -1.7433 12.3991 57 38 31 
6.69016 -1.67913 12.5867 31 27 28 
9.86823 -1.40421 13.9475 33 22 26 
6.96788 -1.04196 12.6395 54 0 0 
1.6804 -0.799902 11.9506 18 0 0 
-0.273308 -0.0372248 18.352 110 42 29 
2.34181 0.450407 12.2142 25 21 9 
2.19461 1.47114 11.2577 25 21 10 
1.98426 1.41311 10.8658 28 26 14 
1.09336 1.60502 12.1121 18 7 13 
0.233325 2.06043 14.8466 38 11 18 
2.38919 1.69648 11.45 79 64 41 
2.31361 2.60852 12.1919 35 22 5 
7.13328 -3.14762 13.2373 107 62 41 
7.23897 -3.06508 13.1337 21 7 6 
6.4182 -2.7714 12.6093 162 107 77 
1.58752 -2.68378 13.9721 123 87 55 
6.76694 -2.60724 12.7984 28 19 20 
1.61759 -2.63185 13.6778 130 86 59 
2.13026 -2.38039 12.5296 8 0 0 
6.41774 -2.08683 12.6482 154 107 89 
9.98062 -1.7184 14.0507 115 73 51 
0.166511 -1.65373 15.6286 132 94 55 
1.05385 -1.3725 13.2595 29 19 17 
9.2587 -1.3494 13.494 18 6 6 
7.36098 -1.17747 12.9219 140 95 76 
1.90009 -1.24097 12.0647 173 141 120 
6.46775 -1.10167 12.2224 65 0 8 
0.758711 -1.10695 13.869 158 124 99 
0.307107 -0.931957 14.6926 43 6 13 
2.52613 -0.603183 11.2954 187 141 107 
2.49307 -0.328372 11.1147 69 59 24 
1.21168 -0.206404 11.701 9 5 4 
2.29739 -0.00709293 10.9785 33 25 6 
2.55914 0.68072 11.1762 191 145 112 
2.35269 1.21769 11.4989 29 21 2 
2.43346 1.36274 11.2771 47 20 0 
1.96954 -3.18562 13.6484 163 122 94 
0.78429 -2.91886 13.2309 126 82 57 
8.04716 -2.98751 13.2041 121 88 71 
6.46222 -2.61792 12.7902 165 105 77 
5.8037 -2.31722 12.4673 18 12 12 
6.85799 -2.0993 12.6417 22 9 3 
7.51179 -1.53833 12.9653 150 95 65 
10.5349 -1.51712 14.0555 17 9 7 
6.9969 -1.2599 12.2969 158 102 79 
9.48162 -0.678196 13.8381 151 99 88 
1.59131 -0.46557 11.0105 32 28 27 
2.34424 1.12085 11.8168 54 47 28 
1.91879 1.69375 11.3887 139 112 91 
2.07493 -3.08927 14.2423 21 9 11 
1.69087 -2.84679 14.0236 129 83 59 
1.9196 -2.60217 12.8034 17 8 3 
6.36103 -2.29149 12.5209 166 111 81 
6.2643 -2.32998 12.8175 173 112 83 
7.717 -1.17021 12.8259 149 103 80 
6.83076 -1.24231 12.3773 157 105 81 
5.79611 -1.34943 12.2603 24 12 12 
6.57034 -1.20488 13.0437 36 11 17 
1.64663 -0.349479 10.2857 10 9 5 
10.2609 1.09956 13.8631 8 6 7 
1.73516 1.60344 10.9071 98 73 51 
5.49714 -1.84753 12.2608 202 160 122 
8.30171 -1.75204 13.4366 155 98 71 
5.68534 -1.0975 12.1981 24 16 14 
5.95347 -1.09222 12.3751 21 11 12 
2.3493 0.592131 12.2657 41 40 20 
8.32629 -3.93332 15.1164 20 3 0 
8.85736 -3.73743 15.3928 117 83 73 
7.83974 -3.54201 14.7891 67 38 30 
8.83884 -3.60078 15.1238 22 5 0 
9.24848 -3.63954 15.3501 108 88 81 
7.91765 -3.46665 14.7813 145 108 89 
8.01194 -3.44759 14.7471 27 9 0 
7.88315 -3.3714 14.7247 24 6 6 
9.21721 -3.50192 15.2208 27 4 0 
7.88281 -3.21195 14.5582 129 109 102 
7.28395 -2.96666 14.2805 36 18 18 
9.05504 -3.00819 14.834 33 0 0 
9.28233 -3.03072 15.1116 132 99 92 
7.17246 -2.75931 14.2452 22 4 4 
7.5871 -2.75256 14.2652 142 119 113 
7.29048 -2.70143 14.1816 44 24 25 
7.57357 -2.67826 14.2658 29 5 5 
7.3931 -2.5687 14.0884 96 55 33 
7.56957 -2.61505 14.3118 161 118 99 
7.78934 -2.59191 14.3381 155 117 96 
7.89053 -2.58266 14.3744 34 0 0 
8.00085 -2.5769 14.4564 151 107 82 
8.02004 -2.55716 14.3708 150 106 95 
8.1677 -2.57057 14.4935 26 8 8 
7.55739 -2.45391 13.9152 161 109 85 
7.80514 -2.52742 14.6154 162 115 95 
7.86776 -2.45179 14.2937 160 111 79 
7.96741 -2.44115 14.2712 30 11 5 
6.78242 -2.29993 13.7501 88 46 24 
7.31444 -2.32958 13.9422 33 20 12 
7.02474 -2.30362 13.8717 102 59 42 
7.46303 -2.3418 14.0714 152 122 111 
7.72101 -2.36493 14.2324 164 113 96 
8.04043 -2.35655 14.4489 160 127 112 
7.79339 -2.30623 14.1649 160 107 89 
6.56427 -2.21589 13.7016 108 48 14 
7.92606 -2.28105 14.304 36 14 1 
7.04933 -2.1945 13.8931 178 122 107 
7.77586 -2.22066 14.2012 32 14 12 
6.49178 -2.06961 13.5769 54 2 0 
6.81586 -2.09858 13.7389 172 125 99 
7.05854 -2.09506 13.8456 28 7 2 
8.81894 -2.19258 14.6663 81 23 1 
6.24702 -1.99958 13.3981 91 58 49 
8.69917 -2.14866 14.683 159 109 86 
6.54901 -2.00517 13.653 50 19 17 
1.81827 -1.92441 13.8567 57 30 21 
6.55259 -1.93843 13.5274 35 5 3 
9.15174 -2.1003 14.9778 68 22 9 
6.61994 -1.88723 13.5409 177 136 116 
6.42285 -1.82026 13.4618 183 129 105 
6.28911 -1.70222 13.2503 25 9 9 
6.90334 -1.75004 13.7444 171 128 119 
2.31358 -1.65305 14.2921 50 32 18 
2.387 -1.63698 14.5903 165 143 120 
2.27556 -1.58832 14.227 194 165 147 
2.47035 -1.60762 14.9001 52 30 17 
6.76279 -1.50161 13.5007 84 24 24 
8.31678 -1.55969 14.4004 105 57 37 
9.85019 -1.63628 15.303 42 9 4 
2.0533 -1.55495 14.8732 57 23 11 
9.03271 -1.53859 14.7631 49 23 24 
35.9545 -2.8382 31.648 69 33 9 
6.70021 -1.40068 13.4784 84 27 8 
9.76803 -1.52958 15.3611 30 7 1 
9.95536 -1.42095 15.5082 145 100 77 
7.11941 -1.30137 13.7937 68 20 10 
9.41597 -1.37227 15.0736 127 98 84 
7.43876 -1.3146 14.3443 167 120 104 
8.58447 -1.32653 14.5593 105 60 37 
10.1925 -1.3606 15.4362 142 95 75 
7.74489 -1.27908 14.0371 104 63 43 
10.4384 -1.34978 15.6871 28 0 0 
7.49127 -1.2135 13.9211 32 3 0 
9.95015 -1.28416 15.1991 22 3 0 
8.85001 -1.18448 14.6715 157 108 103 
2.39383 -1.16461 14.2435 160 140 115 
0.767919 -1.09907 13.7701 167 133 108 
2.45973 -1.10418 14.0791 22 2 1 
2.489 -1.03227 14.1196 178 133 104 
0.283238 -0.786159 7.89015 108 100 98 
0.810068 -0.886568 12.5956 140 95 72 
2.48838 -0.903215 14.005 175 136 103 
2.56612 -0.862008 14.3133 74 51 19 
2.68221 -0.843633 14.9363 175 142 109 
2.64837 -0.786714 15.0866 42 23 0 
1.18597 -0.685365 13.6856 38 16 5 
57.1924 -0.593028 47.354 68 20 0 
2.41075 -0.578307 13.47 132 126 114 
2.52102 -0.530902 11.9556 69 48 21 
58.4164 -0.0092689 48.4983 84 36 16 
2.65401 -0.443792 12.9283 61 40 11 
2.64989 -0.344683 11.2786 68 39 5 
2.45268 -0.306619 13.7771 154 137 117 
1.50638 -0.301885 15.3601 123 116 106 
2.55006 -0.286157 11.3657 70 53 10 
2.55736 -0.230709 12.1568 152 144 105 
2.20619 -0.154814 13.7936 160 150 141 
2.2057 0.105518 13.924 71 68 61 
2.61508 0.201923 13.6592 167 151 128 
1.98162 0.283935 14.2512 127 116 94 
2.18332 0.0966703 9.51744 129 118 90 
3.18746 1.07683 21.055 168 154 127 
6.63354 4.3279 59.8678 186 149 122 
18.1735 1.93757 22.065 32 10 0 
15.0395 13.6486 168.992 41 30 10 
18.539 2.08052 22.3835 159 137 113 
17.516 17.9041 206.173 179 153 128 
-3.93225 -6.69753 -59.7068 190 154 118 
6.2076 1.38124 14.3907 19 15 16 
40.049 57.4797 526.453 150 142 121 
-8.45125 -13.1073 -115.439 191 156 128 
6.20878 7.07699 62.9751 106 104 81 
18.9748 3.15935 23.4968 120 113 103 
18.4783 3.28394 23.1494 138 130 127 
6.06158 7.30104 59.093 172 152 127 
11.0914 14.7778 115.063 189 155 120 
5.39545 6.57662 52.3454 154 137 109 
5.80717 6.89488 53.9886 62 43 11 
6.654 2.02558 15.7976 43 20 14 
19.7778 3.97932 24.8513 255 251 251 
6.57796 9.38771 66.9053 174 149 118 
15.0031 25.2861 169.828 45 13 0 
7.37423 10.6561 69.9049 50 32 8 
6.76762 9.72949 62.1542 191 155 123 
4.05116 5.11449 33.4547 180 151 119 
6.16382 10.2706 64.1451 180 155 124 
4.97369 9.06492 54.2904 29 19 0 
4.3692 7.95036 46.7875 158 147 117 
4.92769 8.22875 47.1363 179 153 120 
5.22132 9.07341 50.3467 49 22 1 
6.01431 10.6569 57.837 194 155 124 
4.96868 8.85959 48.2402 157 143 117 
2.51138 4.72868 26.8287 166 144 123 
2.63142 4.81362 27.1358 163 141 117 
4.43197 8.2271 42.5808 200 185 162 
5.55173 10.5599 53.904 195 166 136 
3.9981 6.91247 35.3255 48 33 10 
3.52333 6.45355 32.0305 168 153 132 
1.3848 3.71268 19.2422 129 117 43 
2.83549 5.61005 27.0401 163 143 134 
4.65251 8.40733 38.5702 59 35 9 
3.90986 7.84436 34.8863 137 121 98 
3.44782 6.79147 30.3517 30 19 1 
4.12659 8.42897 36.5426 44 27 7 
3.50629 7.3582 31.4685 182 155 126 
3.91271 7.75951 32.4523 53 31 7 
4.47411 9.07318 37.6236 188 147 117 
2.76837 7.4802 31.3471 178 142 116 
3.46137 7.37447 30.6242 186 154 131 
3.39637 7.39137 30.083 38 21 5 
4.19474 8.80915 35.204 68 47 20 
4.49508 9.31077 36.9406 190 149 127 
3.80221 7.76498 30.6777 175 148 118 
4.42409 9.677 37.2498 74 37 11 
3.93677 8.45723 32.3313 180 150 124 
4.14356 9.09559 34.0109 50 25 5 
3.83949 9.36952 33.8059 181 142 111 
3.923 9.54533 33.6575 37 21 8 
3.80975 9.88417 34.7982 35 21 8 
2.42195 7.29117 26.1881 52 26 3 
3.92666 9.9988 34.54 187 146 114 
3.4856 9.28137 31.5358 184 145 114 
2.90393 10.5171 34.2365 173 139 114 
3.23561 9.84906 30.9772 48 28 17 
2.62261 0.198772 11.4521 184 149 121 
48.999 -17.9391 42.3316 57 29 8 
48.1742 -16.9202 41.4336 58 26 15 
54.5012 -18.3952 46.0272 34 14 5 
33.0111 -9.74197 29.7855 25 11 8 
8.34706 -3.95655 15.1603 11 6 3 
50.7242 -11.3034 42.73 45 18 11 
8.07057 -3.82119 14.7961 134 93 75 
7.74285 -3.77194 14.7499 136 94 82 
8.25967 -3.80383 14.9847 138 92 68 
8.64071 -3.84677 15.2289 135 90 69 
8.42424 -3.77883 15.0816 59 40 34 
32.781 -7.51392 29.5288 32 8 6 
8.57743 -3.68619 15.1517 120 82 61 
8.87189 -3.74051 15.4047 127 93 83 
7.9059 -3.57697 14.9249 61 34 27 
8.90716 -3.63364 15.2524 22 7 0 
9.23263 -3.63203 15.3174 108 88 81 
37.9619 -7.79754 32.6718 27 7 0 
7.90071 -3.45877 14.7414 145 108 89 
8.01374 -3.20673 13.2296 126 90 76 
8.16747 -3.43805 14.8213 133 104 88 
9.18384 -3.49958 15.1498 25 4 0 
7.5417 -3.23167 14.4895 24 4 0 
55.2924 -10.1128 45.3871 43 14 6 
7.35898 -3.13173 14.2688 152 111 83 
8.29555 -3.20827 14.73 20 6 5 
1.90298 -2.86898 13.9004 148 112 90 
8.57335 -3.24073 14.959 140 106 96 
9.04295 -3.25488 14.977 138 93 74 
9.54073 -3.35602 15.4585 20 6 5 
7.46576 -3.11078 14.5733 112 76 54 
56.6703 -9.87354 46.8299 54 23 20 
8.5191 -3.0929 14.7854 128 104 100 
7.38862 -2.95664 14.2528 21 6 11 
7.2788 -2.94955 14.2427 41 23 23 
7.15487 -2.91829 14.1974 169 115 87 
8.65729 -3.01483 14.5517 124 90 78 
9.34749 -3.0435 15.219 131 101 93 
7.41606 -2.68621 14.218 166 113 82 
8.59506 -2.74315 14.5719 173 113 85 
7.68799 -2.63947 14.3137 19 9 8 
8.0785 -2.6842 14.521 21 11 12 
7.79735 -2.59905 14.3533 155 117 96 
8.26698 -2.59003 14.6584 25 13 13 
7.44412 -2.41275 13.6644 162 110 86 
2.15641 -2.40568 14.5374 18 4 0 
7.83516 -2.45292 14.2382 165 116 83 
7.99868 -2.44144 14.3462 37 19 15 
6.80464 -2.31697 13.7955 101 60 40 
7.20409 -2.36413 14.1013 178 117 89 
29.9562 -4.44872 27.4196 118 86 71 
7.22197 -2.30398 13.7547 27 14 8 
8.15654 -2.41112 14.4975 20 13 7 
7.73609 -2.36322 14.2478 164 113 92 
7.78456 -2.31044 14.1907 164 113 94 
6.54052 -2.21489 13.6209 134 71 40 
6.56202 -2.1519 13.3855 188 127 99 
7.74873 -2.29225 14.413 22 8 7 
7.02263 -2.20239 13.8678 176 124 103 
7.46331 -2.23025 14.0551 26 11 6 
8.59399 -2.30154 14.6433 159 86 54 
6.82542 -2.09961 13.7443 178 128 103 
7.59132 -2.14934 14.22 165 115 82 
8.90199 -2.21621 14.8621 74 18 0 
8.4096 -2.13331 14.3193 19 10 13 
6.27155 -2.00067 13.4591 85 52 43 
6.47938 -1.99998 13.4733 118 84 75 
8.704 -2.13022 14.6886 159 102 75 
6.74371 -2.00666 13.7632 23 11 15 
6.97601 -2.00382 13.7403 140 103 97 
1.8013 -1.90679 13.657 55 30 25 
8.83667 -2.09038 14.595 160 103 76 
5.91391 -1.86758 12.9129 189 132 112 
6.55238 -1.95299 13.5542 42 13 9 
6.30765 -1.90775 13.2512 192 128 100 
9.16421 -2.10061 14.9776 69 25 14 
11.1291 -2.25882 16.24 138 90 70 
10.0067 -2.09196 15.4336 51 10 14 
6.35866 -1.87779 13.5983 192 133 101 
6.83412 -1.87086 13.6019 144 101 84 
6.98561 -1.88378 13.7204 24 8 9 
42.2688 -4.49241 36.0398 40 20 13 
6.36955 -1.78939 13.3158 176 128 106 
50.672 -4.96195 41.442 42 13 9 
8.29209 -1.89471 14.5362 26 10 10 
6.71401 -1.76875 13.4416 23 11 15 
8.21763 -1.89311 14.6205 171 114 85 
6.93414 -1.77127 13.7689 163 125 116 
6.24707 -1.68519 13.2083 37 18 24 
9.24871 -1.83011 14.6892 159 104 74 
43.1989 -4.09244 36.8696 57 28 20 
7.31662 -1.71039 13.9005 28 14 13 
10.1745 -1.83158 15.4899 62 20 22 
2.29279 -1.64521 14.008 54 36 26 
7.18951 -1.72528 14.7032 175 100 69 
2.16593 -1.64734 14.252 71 45 32 
6.94612 -1.57895 13.3091 152 87 59 
6.16987 -1.54073 12.9689 183 110 93 
11.1573 -1.79664 15.7018 138 89 72 
9.9629 -1.7262 15.3237 146 94 70 
9.65452 -1.69995 15.125 139 94 71 
2.27201 -1.59927 14.4227 198 169 151 
0.594908 -1.34017 11.6254 141 106 68 
6.78166 -1.51492 13.5724 82 22 21 
8.5988 -1.58193 14.4808 89 46 30 
1.96622 -1.55069 14.4481 180 145 117 
2.48319 -1.59085 14.9496 38 19 13 
8.24207 -1.54906 14.2443 105 57 37 
9.85097 -1.63329 15.292 42 9 4 
55.7026 -4.11936 45.6753 137 81 58 
2.07581 -1.55547 15.0238 60 26 14 
10.0851 -1.60111 15.4435 125 95 85 
2.26481 -1.46286 13.8198 118 93 86 
2.15869 -1.45409 14.0047 141 112 98 
8.45468 -1.44045 14.0997 156 105 84 
57.3197 -3.88511 47.4985 89 11 11 
9.29422 -1.48117 15.0451 118 85 66 
10.2976 -1.5121 15.5658 22 16 16 
10.1951 -1.48998 15.6327 61 47 44 
2.16971 -1.36192 13.9824 48 25 19 
0.862441 -1.2767 12.6876 239 212 183 
9.5572 -1.41993 15.0506 145 98 78 
8.87237 -1.37325 14.6588 25 14 12 
7.14768 -1.32335 13.8722 78 26 15 
8.28132 -1.35771 14.5392 91 56 34 
10.365 -1.48412 16.2563 145 100 77 
7.42974 -1.30941 13.9218 168 112 85 
9.07823 -1.33674 14.6357 27 11 14 
9.3938 -1.37072 15.0323 127 98 84 
8.37292 -1.31482 14.397 166 109 89 
8.60803 -1.33178 14.5905 104 62 40 
10.1329 -1.35374 15.3395 143 97 74 
8.68464 -1.28408 14.5096 152 103 88 
9.95603 -1.29268 15.2358 28 10 6 
2.13112 -1.31556 15.3974 51 24 17 
7.52878 -1.22122 13.9852 32 3 0 
7.59828 -1.17683 13.746 163 111 98 
9.39356 -1.23342 14.9113 20 6 6 
8.08782 -1.19126 14.232 166 108 86 
0.510064 -1.07157 11.9375 171 136 108 
2.0029 -1.17856 14.1648 177 145 122 
2.38043 -1.1538 14.0848 160 136 108 
2.34369 -1.14899 14.863 88 61 50 
2.51618 -1.14569 14.7872 13 1 1 
2.21265 -1.1541 15.2852 70 43 34 
0.444231 -0.937017 10.6325 122 95 66 
0.277185 -0.786691 7.92673 108 100 98 
2.47215 -1.01421 14.0484 181 135 102 
0.38155 -0.84075 11.1829 131 101 77 
2.46257 -0.903228 13.8741 175 134 102 
2.51895 -0.841566 13.7546 74 51 19 
33.2245 -0.919486 30.3071 28 25 10 
57.3344 -0.563102 47.4817 76 28 6 
1.83686 -0.624898 15.1111 65 56 47 
2.64427 -0.577125 13.4585 74 50 22 
2.51946 -0.563796 13.2832 30 22 9 
2.63981 -0.43128 12.6546 54 37 7 
2.62925 -0.425692 11.51 186 151 119 
0.367929 -0.421454 9.24464 85 77 58 
0.308653 -0.4176 8.62127 83 71 55 
2.64702 -0.342058 11.2176 65 39 2 
1.43523 -0.343064 13.5966 10 0 0 
2.55543 -0.294693 11.5856 71 64 20 
2.7268 -0.273926 12.6199 193 155 118 
2.68781 -0.180678 15.3638 68 52 26 
2.55088 -0.152698 12.0654 38 26 12 
2.43647 -0.0796027 13.2927 50 34 18 
0.346076 -0.217451 8.77841 11 3 0 
0.262027 -0.179721 9.42383 17 7 5 
0.335421 -0.145755 9.9477 29 14 7 
2.61501 0.0864644 12.7866 45 28 8 
20.0634 0.950898 21.6141 91 58 41 
2.61061 0.208025 13.6964 160 145 122 
2.00275 0.300791 14.6666 127 116 94 
2.55288 0.218316 10.9953 34 20 0 
65.0446 4.57479 54.3641 55 13 1 
6.12315 3.16344 53.1315 186 147 116 
2.60864 0.597572 14.6018 29 27 6 
21.739 1.81756 23.7875 28 3 0 
64.3009 5.19967 54.071 125 67 29 
22.8511 2.07521 24.8474 145 114 93 
2.97156 0.930621 17.7084 57 46 18 
1.79414 0.686342 14.702 30 17 0 
18.3328 1.88223 21.8599 29 7 0 
62.0575 5.73802 53.2599 30 9 4 
73.9723 6.85411 61.692 117 90 71 
7.05317 5.37222 69.4731 33 24 7 
3.20224 1.5258 22.8647 25 21 9 
18.805 2.14257 22.7425 154 130 104 
19.747 2.25888 23.4204 180 139 109 
5.95664 4.72638 57.5273 181 157 131 
20.9283 2.41794 23.6638 191 148 114 
85.0508 8.83517 71.3703 105 82 66 
24.6284 2.97983 27.7322 189 146 114 
1.58873 0.819825 13.2059 37 31 7 
22.8488 2.94285 25.9975 66 32 7 
-4.1028 -6.25435 -59.5126 49 29 4 
76.803 8.96609 64.6166 34 14 7 
100.529 11.6937 82.9633 30 10 9 
20.1376 2.88792 23.8005 121 93 69 
6.19533 1.39321 14.3315 11 7 8 
21.0142 3.16331 23.7698 124 96 74 
5.74812 6.34212 56.7548 106 104 81 
6.33182 6.57222 58.5599 55 49 17 
18.9666 3.15863 23.4817 120 113 103 
2.00412 2.01661 20.5269 34 17 1 
3.79281 4.2374 35.6189 123 116 97 
6.61254 1.99626 15.628 40 19 14 
1.90549 2.15481 18.0498 39 27 11 
7.66821 11.55 81.4081 178 152 119 
1.9857 2.92769 21.433 43 31 9 
7.27794 10.6271 67.6274 190 150 115 
5.41052 7.76656 47.6885 191 153 117 
7.62004 13.6676 81.3389 48 37 9 
4.23214 6.45219 38.7 37 30 11 
8.32201 14.4462 81.5813 47 31 5 
1.01534 3.04452 18.8973 44 12 15 
4.61917 7.58801 42.3981 55 31 7 
0.282997 1.09247 8.29261 87 52 20 
1.3579 4.10956 22.6724 17 6 0 
5.10041 9.2843 47.6094 195 166 136 
5.12996 9.25222 46.3216 56 25 0 
3.64712 6.00943 30.7684 49 36 17 
1.43302 4.09568 21.4728 27 6 3 
3.47641 6.31995 31.3799 168 153 132 
5.36271 10.2358 49.0973 195 154 122 
1.3719 3.63847 18.8356 124 112 38 
2.83427 5.59182 26.9865 139 120 113 
4.07755 8.01725 37.3852 169 155 129 
1.6101 3.99176 19.733 180 143 114 
6.19028 12.7801 57.2381 61 40 13 
4.25695 8.43892 38.1144 65 49 23 
3.4293 6.74754 30.016 29 20 3 
4.04484 8.19652 35.4817 39 22 2 
1.95462 5.93342 26.3758 161 103 91 
0.489584 2.32592 11.5426 26 0 0 
4.47924 9.8501 40.9889 55 40 17 
2.52252 6.03635 25.4745 175 138 109 
4.36742 8.86795 35.9761 53 26 0 
3.34137 7.24682 29.4888 35 17 3 
4.24448 8.9318 35.7561 69 47 23 
3.49194 7.75206 30.5682 178 145 114 
4.51137 9.91 38.2322 74 38 12 
3.86205 9.08647 34.072 64 39 17 
3.38711 8.0165 29.6968 183 142 114 
3.169 7.96583 29.3636 31 21 12 
3.82076 9.72949 34.3047 29 19 7 
2.74698 9.49695 30.3578 45 24 7 
3.20497 9.84972 30.9246 49 31 21 
2.94076 10.1768 30.855 48 32 16 
2.74405 -0.899942 15.3839 187 144 109 
46.7906 -17.141 40.3233 61 32 14 
46.9638 -16.4974 40.3343 58 26 15 
53.2122 -12.131 43.9627 52 23 7 
46.9648 -10.4722 39.3864 49 22 15 
8.03854 -3.80684 14.742 134 93 75 
8.43845 -3.88859 15.0564 139 112 101 
35.7002 -8.2003 31.0979 96 71 64 
8.48969 -3.80821 15.2304 59 40 34 
44.653 -9.24659 37.6847 119 93 78 
56.3357 -10.2665 46.2822 49 20 14 
42.9925 -7.79817 36.1184 119 92 83 
2.38382 -2.76631 13.8316 62 34 23 
51.8769 -8.62346 42.8719 124 96 75 
9.28994 -3.01432 15.0689 110 79 74 
7.39095 -2.67089 14.1466 166 113 82 
8.06421 -2.69527 14.4794 17 8 11 
7.18183 -2.37053 14.0392 180 116 88 
10.156 -2.38853 15.4742 60 12 10 
7.07217 -2.09922 13.8409 23 8 5 
8.62155 -2.08467 14.5063 163 103 79 
11.2057 -2.29637 16.3401 132 81 62 
9.14185 -2.09198 14.9067 61 16 10 
8.21117 -1.90601 14.6232 170 113 86 
6.2823 -1.70601 13.3336 37 18 24 
9.5004 -1.88122 15.1968 159 104 74 
42.2072 -4.00271 35.9674 63 34 26 
10.2708 -1.84719 15.673 62 20 22 
10.0379 -1.72759 15.4542 144 92 70 
10.2646 -1.71579 15.4845 139 96 79 
0.600032 -1.33321 11.5394 141 106 68 
56.3079 -4.15996 46.1967 137 81 58 
8.43607 -1.42519 14.0849 160 108 87 
7.1431 -1.33854 13.8621 81 25 12 
8.36237 -1.31804 14.3558 166 109 89 
10.1799 -1.34923 15.4283 143 96 78 
9.87504 -1.30692 15.4494 54 40 31 
32.3682 -1.88235 29.5118 87 60 41 
2.32999 -1.126 14.7836 87 62 55 
2.19516 -1.12026 14.9267 71 44 33 
2.65986 -1.05693 14.7256 183 140 108 
0.838539 -0.772325 11.6733 53 9 8 
25.6261 -0.942098 25.2007 164 127 101 
1.18277 -0.707926 13.4997 37 18 12 
2.66045 -0.519858 12.7263 194 144 117 
57.6952 -0.0737015 47.8688 83 35 15 
0.310785 -0.418627 8.65999 82 70 54 
2.61013 -0.3418 10.8091 65 39 2 
0.315983 -0.347524 8.9831 58 45 28 
2.63037 -0.122705 13.1723 38 26 12 
2.3613 -0.169688 10.9801 171 147 113 
2.78585 0.0512462 19.0417 48 36 22 
1.67765 0.0912977 13.6415 75 63 51 
67.4142 3.81235 56.05 109 52 22 
2.49675 0.358508 14.3729 124 110 83 
1.56002 0.413133 13.9313 42 30 8 
2.58552 0.585213 14.4744 26 23 4 
62.1291 4.95556 52.2177 126 66 30 
87.3299 6.9526 71.87 113 60 26 
69.869 5.88852 58.398 31 8 0 
80.8602 6.78997 67.0035 27 10 3 
1.79274 0.678182 14.6268 30 17 0 
75.9745 7.05201 63.4249 117 90 71 
3.38559 1.7229 25.483 23 19 7 
18.5738 2.11402 22.4251 152 126 99 
21.9377 2.56411 25.0218 193 150 116 
75.3256 7.75952 62.9435 104 78 61 
22.7171 2.70114 25.3575 190 147 115 
6.27031 1.47425 14.5595 17 13 12 
2.39376 1.8325 19.6293 24 18 4 
4.78337 4.3364 40.7407 32 28 1 
1.94644 1.6666 17.4941 33 17 1 
13.6315 18.9081 155.33 58 49 20 
4.14128 5.61194 37.6625 52 48 21 
2.24258 2.75751 19.8214 30 24 8 
6.1931 10.2463 64.2156 174 149 118 
5.87689 8.64944 52.8959 195 155 119 
1.01079 3.03518 18.7771 40 11 13 
5.24232 8.50243 46.9421 198 157 125 
4.42171 7.13228 38.2406 37 25 9 
3.85789 6.75417 34.2438 49 36 17 
0.319093 1.98415 10.9322 39 24 21 
4.5147 8.80269 38.6815 192 147 116 
4.56123 9.15981 38.1355 190 145 112 
4.99477 12.5305 44.4203 188 145 113 
2.84076 10.1576 33.1678 180 143 116 
2.88839 9.64814 29.1985 47 31 15 
32.4212 -13.3244 29.4196 55 36 19 
68.2575 -23.7285 57.1704 99 66 47 
47.1708 -15.7295 40.3341 80 48 27 
32.4085 -9.97663 28.7044 110 75 53 
7.68056 -3.72311 14.5766 145 98 78 
34.5529 -8.0377 31.1326 26 12 12 
43.8344 -9.51184 36.8452 40 21 15 
38.2323 -8.45985 34.3039 107 80 63 
9.16539 -3.79176 15.6762 17 3 0 
37.926 -7.84583 32.7247 35 14 9 
7.57991 -3.38147 14.5283 156 102 76 
32.9151 -6.84794 29.4164 36 17 13 
8.01494 -3.26336 14.5516 22 11 9 
2.03102 -3.07824 14.6701 11 9 10 
45.0324 -8.42624 37.5955 41 14 5 
7.64171 -3.08271 14.3676 12 2 0 
8.79908 -3.07255 14.8933 121 87 77 
9.10201 -3.02281 15.0703 36 6 8 
41.2878 -6.92349 34.9677 42 18 6 
7.50346 -2.89304 14.5861 22 9 18 
8.30256 -2.85182 14.2156 37 10 15 
53.1064 -8.41502 43.5017 61 28 23 
7.16231 -2.77868 14.1864 27 13 12 
38.6512 -6.31084 33.101 53 29 19 
7.25388 -2.74772 14.2327 20 9 7 
46.7863 -7.19516 39.0654 60 32 28 
8.29382 -2.6512 13.9968 167 108 78 
7.65968 -2.63627 14.2982 14 6 4 
8.85645 -2.62521 14.2815 40 10 12 
43.0222 -6.45198 36.3666 125 90 71 
7.9233 -2.40862 14.5764 151 95 70 
5.72891 -2.10232 12.526 23 11 13 
7.23844 -2.29619 13.8479 32 22 20 
8.62945 -2.4526 14.9608 52 16 20 
7.55447 -2.27596 14.0524 16 2 0 
7.03368 -2.19993 13.5612 26 10 10 
6.61106 -2.15812 13.4714 183 123 95 
6.22371 -2.14878 13.498 189 129 95 
7.91912 -2.2037 14.2435 25 9 10 
7.29023 -2.01276 12.7251 15 6 7 
9.44086 -2.28876 14.9959 66 15 12 
6.95107 -2.12419 13.899 179 131 117 
76.6902 -8.33804 61.9521 46 27 20 
8.24832 -2.09139 14.0455 17 8 13 
6.66465 -2.01015 13.601 31 11 12 
6.55255 -1.97994 13.5885 25 0 0 
6.05558 -1.90908 13.2838 182 116 92 
6.33238 -1.89854 13.3474 195 131 103 
8.0406 -1.94394 14.3143 174 115 81 
54.318 -5.45657 44.0386 124 93 72 
6.38423 -1.84455 13.4161 195 135 109 
6.49923 -1.81819 13.4538 172 125 109 
7.47012 -1.85688 14.0275 183 122 94 
6.68409 -1.75794 13.4713 21 9 11 
9.97459 -1.94151 15.6741 61 10 0 
69.3494 -6.09704 56.1541 44 20 16 
7.00443 -1.71655 13.6766 24 10 10 
6.41391 -1.65998 13.3471 23 8 1 
6.78927 -1.64069 13.5753 131 57 32 
7.8572 -1.7342 14.5989 180 115 87 
6.98594 -1.54397 13.3449 203 129 100 
8.59648 -1.61245 14.5032 91 44 28 
33.7073 -2.96662 30.6293 50 21 15 
6.45636 -1.40923 13.2343 205 133 118 
1.94391 -1.2558 12.5554 152 117 97 
9.85091 -1.43464 15.2629 143 96 78 
9.51256 -1.37276 15.026 140 101 86 
7.29579 -1.25013 13.7642 170 114 89 
8.64921 -1.23519 14.431 146 98 78 
0.850103 -1.1696 12.9746 64 35 17 
7.68338 -1.19668 13.9832 160 114 101 
0.314248 -0.894444 8.13853 142 106 80 
8.14169 -1.19502 14.3318 163 105 83 
0.515532 -1.06331 11.8955 169 132 103 
0.445439 -0.955918 10.6272 124 97 68 
34.0423 -1.81682 30.5983 79 47 32 
32.414 -1.71497 30.2815 61 39 26 
0.262951 -0.816282 8.44182 27 15 15 
56.3411 -2.10201 46.6747 106 64 40 
2.4086 -0.903573 13.7315 170 131 98 
2.61293 -0.863946 14.9167 70 47 13 
0.718809 -0.795007 11.9853 91 52 21 
10.4978 -0.597789 16.1322 188 112 116 
0.352894 -0.601633 11.7385 95 47 35 
3.03274 -0.590013 20.357 20 11 0 
0.367558 -0.400851 9.09767 88 77 49 
1.39538 -0.337096 13.9752 15 7 4 
0.326248 -0.297982 8.50775 65 57 44 
0.398415 -0.202615 10.3395 122 50 25 
0.365961 -0.208263 8.50488 13 8 5 
1.99399 0.241137 13.6009 90 78 54 
2.33492 0.329114 15.2096 54 47 31 
92.1955 73.4471 978.227 44 35 6 
17.9592 1.82537 21.4105 28 5 0 
4.61864 2.83814 39.9329 27 22 2 
18.5695 2.35452 22.8569 29 12 5 
23.8488 2.81363 26.2968 191 151 116 
6.09306 1.14382 13.9804 23 12 8 
22.929 2.96948 26.0884 66 32 7 
27.2603 3.61584 29.8838 64 27 11 
98.2951 11.3088 81.1254 25 9 9 
20.5932 2.87628 24.4123 126 96 70 
6.23547 1.35026 14.7048 223 186 144 
1.62577 1.31033 15.6991 41 29 7 
-11.7471 -17.7461 -142.966 61 56 14 
6.60648 1.81143 15.6214 23 13 14 
15.9685 2.90159 21.1473 161 121 86 
18.6447 25.0781 199.03 194 150 115 
16.0387 3.19429 21.2608 16 12 13 
6.61517 8.39858 62.9545 55 51 13 
2.32376 2.91452 22.2941 90 72 52 
8.90978 13.422 88.6712 42 24 2 
1.92243 2.52029 18.6552 39 27 1 
5.13446 8.56796 51.385 35 28 12 
5.14563 7.45096 43.3087 45 33 7 
2.23208 4.08306 23.9402 38 31 13 
3.77722 6.97062 36.5594 139 124 101 
1.32649 4.033 22.3753 17 4 0 
1.22022 3.37034 18.4984 34 28 30 
3.34232 6.76085 33.841 30 22 9 
0.53853 2.77331 14.0821 92 49 42 
2.24882 4.94565 23.0792 136 80 53 
0.934334 3.4813 16.5673 35 16 10 
2.71937 6.03294 25.2147 31 16 9 
4.54519 9.75414 39.1648 54 33 6 
3.5748 8.33624 32.3987 189 148 116 
3.29626 10.9325 36.3281 39 24 21 
3.09251 9.5045 29.8904 34 21 12 
2.5335 10.3234 30.5307 106 74 51 
2.73826 10.947 31.485 179 140 109 
8.78439 -3.43991 14.7417 129 90 75 
7.91305 -3.34529 14.5438 32 16 19 
7.15679 -1.35101 13.8889 104 43 25 
2.11127 -1.27914 14.4154 61 37 33 
2.57399 -1.18899 15.1421 24 18 18 
3.76236 4.82244 33.2786 26 23 4 
69.3565 -25.8585 58.1637 56 27 13 
50.0002 -17.8178 42.4963 102 73 59 
62.6982 -14.8454 51.6143 75 50 30 
7.59076 -3.43145 14.5967 157 100 70 
1.5522 -2.7565 11.5024 98 31 25 
8.16552 -3.10015 14.4172 16 10 10 
51.1263 -8.49061 42.3324 119 91 70 
8.33911 -2.86817 14.3335 36 11 17 
62.5529 -9.67926 50.7417 122 90 69 
42.3466 -6.36389 35.7613 125 90 71 
2.14597 -2.36452 13.9227 18 9 2 
8.18836 -2.41738 14.4274 20 11 14 
7.81933 -2.45396 14.3054 158 113 82 
9.47747 -2.51317 15.0927 95 31 3 
7.51226 -2.26395 13.9487 18 4 1 
5.95303 -1.99432 12.9783 190 134 107 
6.90499 -2.10885 13.7666 179 131 117 
9.49448 -2.26084 15.0969 86 15 19 
8.38715 -2.1243 14.3626 17 8 11 
1.75324 -1.91303 13.3604 49 28 23 
6.06011 -1.91458 13.3105 189 125 100 
6.31343 -1.89957 13.3499 190 129 98 
7.98875 -1.92818 14.188 173 117 82 
6.91483 -1.86324 13.7326 178 132 116 
8.21762 -1.922 14.3367 22 14 11 
1.292 -1.91031 14.9755 161 120 92 
6.52239 -1.82248 13.5026 172 125 109 
48.7869 -4.55854 41.2882 115 83 68 
2.35643 -1.74163 14.2359 44 15 1 
8.19378 -1.81007 15.4339 183 116 89 
45.1854 -3.19998 37.6246 128 84 59 
10.3229 -1.53811 15.701 34 25 28 
6.80787 -1.35069 13.475 164 77 47 
1.95176 -1.26787 12.7603 152 117 97 
9.41335 -1.38181 15.0408 135 103 90 
7.33266 -1.25895 13.8462 171 114 85 
0.520274 -1.05726 11.8136 123 88 58 
8.45419 -1.13121 14.6023 22 0 0 
38.0642 -1.72283 33.3627 100 69 49 
22.9932 -0.683182 22.2411 41 4 0 
0.351466 -0.605317 11.7681 87 39 27 
1.39861 -0.346021 12.9074 15 7 4 
2.46106 0.167914 13.2709 28 20 7 
45.7748 2.65224 39.583 45 50 46 
6.52986 3.19646 55.5533 190 149 117 
1.82769 0.822152 16.032 26 15 0 
62.2327 5.82056 53.2435 25 11 11 
25.3479 3.02251 28.1283 195 152 117 
22.8207 2.95439 25.9515 66 32 7 
27.2143 3.61053 29.8286 64 27 11 
19.6891 2.71985 23.209 126 96 70 
2.23791 1.71222 19.8556 87 69 47 
20.1537 2.96724 23.0642 126 94 69 
1.82593 1.42079 16.8793 96 68 47 
6.3338 1.51046 14.7706 17 13 12 
20.1676 3.10543 23.3125 12 4 2 
24.2783 3.85758 26.8235 23 9 8 
4.7208 4.83032 42.9216 56 49 30 
3.97043 6.79897 40.4454 170 159 129 
1.2007 3.56388 19.5095 34 28 30 
3.24502 6.56212 29.565 42 30 16 
4.40121 9.64172 40.8289 55 43 27 
3.45844 7.30254 31.0752 169 142 113 
2.53588 6.78945 27.2215 178 137 105 
3.41691 7.7 29.988 184 143 111 
4.7078 11.7941 43.6161 48 32 17 
3.5505 8.65862 31.7497 149 105 78 
2.5683 7.29642 27.0061 171 134 107 
3.60439 10.1623 32.734 189 145 106 
3.15989 10.3467 32.5245 34 24 12 
24.1067 -9.5637 23.9396 67 41 26 
33.6586 -6.54626 30.0396 30 13 6 
7.62686 -3.18199 14.4229 36 22 21 
40.9226 -7.69985 34.8164 36 12 8 
9.85738 -3.42517 15.7725 18 10 8 
9.23498 -3.30354 15.6548 131 95 81 
7.33578 -2.86402 14.4031 22 8 7 
8.94445 -2.92573 14.8484 36 9 16 
7.80723 -2.72933 14.6071 29 20 21 
6.99711 -2.41925 13.5066 173 112 81 
9.65849 -2.74362 14.8866 171 82 88 
2.37798 -2.20241 13.9419 167 130 103 
43.6655 -4.4892 37.2684 58 38 29 
54.1002 -5.2919 44.6077 57 28 24 
6.5994 -1.70377 13.4256 27 10 3 
35.775 -3.42285 31.879 132 96 72 
8.87212 -1.69318 14.5918 160 98 73 
6.49534 -1.5126 13.3791 187 110 80 
45.107 -3.5261 38.0395 87 55 44 
0.379714 -1.31713 11.9393 126 87 46 
2.61651 -1.36882 14.8116 181 145 111 
2.22714 -1.30432 15.0037 37 19 17 
0.403169 -0.928533 10.935 117 93 69 
2.48607 -0.73581 14.4408 28 25 8 
2.76099 -0.513868 13.089 193 149 114 
2.57268 -0.505098 13.7448 32 23 8 
2.36065 0.461596 11.7394 41 39 24 
18.905 2.0882 22.1542 187 148 117 
3.56409 1.64142 23.2558 190 146 117 
1.93407 1.20241 16.18 27 18 1 
6.107 1.3155 14.452 221 182 141 
33.4445 4.71219 28.7003 80 49 28 
2.99844 6.54019 40.1547 111 90 69 
1.44529 3.91803 20.7013 27 9 7 
0.344771 1.82846 9.84345 123 80 46 
4.10809 7.50471 32.4708 193 147 114 
1.15074 4.51118 20.3033 175 146 132 
3.02365 7.08085 29.0318 37 26 22 
4.82159 10.5235 40.4343 192 147 114 
2.22294 6.97786 25.1342 98 73 53 
