ply                 
format ascii 1.0    
element vertex 1282
property float x    
property float y    
property float z    
property uchar red  
property uchar green
property uchar blue 
end_header          
0.459557 0.170408 1.26036 96 86 51 
-0.36304 -0.0579626 1.46853 71 64 45 
0.437593 -0.206295 1.2883 44 42 21 
0.452041 0.195889 1.26252 49 47 22 
-0.387741 -0.209685 1.48743 33 19 8 
0.204563 -0.167311 1.33942 103 87 53 
-0.397798 0.0319469 1.47049 52 46 32 
0.398329 0.0726576 1.27299 71 76 56 
0.0919399 -0.283729 1.37032 156 120 98 
0.381228 0.136639 1.27995 101 93 70 
0.560574 0.114858 1.23554 42 36 20 
0.19716 -0.0189076 1.32365 31 31 7 
-0.865568 -0.237002 1.59943 86 70 57 
0.267757 0.111657 1.31016 81 74 48 
0.256881 0.168027 1.31161 28 26 5 
0.381151 -0.17092 1.30229 96 88 49 
0.145075 -0.174374 1.35294 60 63 20 
-0.802495 0.197452 1.57598 121 115 93 
-0.811558 -0.0441296 1.57234 111 98 79 
-1.00326 0.110248 1.61851 93 81 69 
-0.381571 -0.476483 1.48407 86 79 69 
-0.833935 0.251011 1.58369 48 35 18 
-0.961444 0.0862344 1.61146 125 112 103 
-0.457144 -0.468955 1.32019 70 61 18 
-0.377184 0.123485 1.47493 21 12 3 
-0.196498 0.116908 1.42441 58 26 11 
-0.717418 -0.244205 1.56821 44 36 25 
-0.920761 0.0907013 1.60132 43 35 24 
0.544505 0.0913837 1.23884 36 30 18 
-0.111414 -0.232303 1.41913 42 30 18 
-0.415167 0.0101363 1.47762 135 119 104 
-0.991514 -0.00522778 1.61352 43 35 24 
-0.779874 0.0297789 1.56447 97 90 62 
-0.221972 -0.107568 1.43169 118 111 92 
-0.786171 0.0685226 1.56755 59 52 33 
-0.951334 -0.0429336 1.60939 113 106 78 
-0.322223 -0.407684 1.47156 48 31 21 
-0.827045 0.218486 1.57697 45 31 18 
0.210557 -0.262931 1.33767 94 77 57 
0.478241 0.0671195 1.25653 39 34 12 
-0.738109 -0.297156 1.57153 114 98 82 
-0.176751 -0.309346 1.43679 105 78 61 
-0.412225 -0.285039 1.47212 75 63 49 
-0.0941134 -0.328955 1.41528 138 119 104 
-0.785855 -0.232208 1.58189 32 26 14 
-0.831268 0.229276 1.57955 96 85 63 
-0.0896599 -0.318649 1.41744 95 57 46 
0.478743 0.141168 1.25658 30 27 8 
-0.759502 -0.284543 1.58127 63 50 42 
-0.249883 -0.206278 1.4573 140 103 84 
-0.819302 -0.176946 1.595 35 29 17 
-0.209339 0.193163 1.43026 155 129 114 
-0.781223 0.199824 1.56909 90 82 61 
-0.07768 -0.0855781 1.40593 82 60 47 
-0.395732 -0.196839 1.48726 123 107 92 
0.143253 0.229956 1.3392 42 39 22 
-1.05986 0.242421 1.63584 48 40 19 
-0.909918 0.103065 1.59813 35 25 15 
-1.03223 -0.00515975 1.62558 48 38 29 
-0.118057 -0.00286048 1.47 99 74 54 
0.127046 -0.251398 1.37556 36 35 33 
0.543783 0.0446815 1.24136 22 16 0 
-0.412981 0.10988 1.47418 75 77 37 
-0.819622 0.259163 1.58306 36 23 14 
-0.680809 -0.191533 1.55622 45 39 23 
0.328653 0.030257 1.29057 31 30 2 
0.493727 0.187098 1.25306 20 23 2 
0.217748 -0.0891679 1.32071 91 97 61 
0.0404645 -0.159903 1.37352 48 50 10 
0.483111 0.08106 1.25571 26 24 9 
-0.0213639 -0.0998568 1.38965 95 73 59 
-0.0105411 -0.0894842 1.38658 115 78 59 
-0.79443 -0.195359 1.58734 45 36 27 
-0.930605 0.223641 1.60529 47 37 25 
0.23463 -0.0651235 1.31438 47 40 11 
-0.214152 -0.346279 1.46066 44 38 38 
-0.408628 -0.0981114 1.47594 30 26 15 
0.372377 0.198006 1.2801 46 44 21 
0.359435 -0.203241 1.30622 69 62 33 
-0.284216 -0.338274 1.45299 71 55 39 
-0.187268 -0.0124105 1.42536 65 37 25 
0.105324 0.0686091 1.35179 139 116 100 
0.406484 0.0161283 1.27228 27 34 3 
-0.731346 -0.109687 1.55391 103 91 75 
-0.748329 -0.259077 1.57252 39 32 16 
-0.239098 -0.188646 1.45885 112 92 67 
-0.0807578 -0.196546 1.42157 126 97 83 
-0.294332 -0.44529 1.46302 154 135 121 
-0.12758 -0.0514 1.41239 128 95 80 
-0.347411 -0.438756 1.48035 51 25 12 
0.342482 -0.168581 1.30937 47 35 0 
-0.410474 -0.151538 1.47691 75 72 41 
-1.08571 0.234765 1.64063 90 84 62 
0.468689 -0.0321873 1.25659 49 48 20 
0.577427 0.0548096 1.2312 38 35 20 
0.187904 -0.232326 1.34426 87 61 44 
0.427733 0.213507 1.26635 77 71 55 
0.309915 -0.181595 1.31559 124 116 97 
-0.804345 0.0519457 1.5734 61 50 32 
-0.89101 0.156446 1.59453 115 108 90 
-0.0618087 -0.0900445 1.40119 38 12 0 
0.304093 -0.213089 1.31939 36 34 13 
-0.361701 0.112306 1.47089 26 20 8 
-0.882052 -0.190946 1.60464 72 59 43 
0.404751 0.118329 1.27358 31 26 7 
0.429246 0.160019 1.2677 48 47 19 
-0.157883 -0.0657554 1.4082 86 73 54 
-0.21476 -0.310363 1.46003 48 39 40 
0.299099 0.211355 1.30158 46 49 20 
-0.399473 -0.30343 1.48914 47 42 22 
0.376394 -0.222418 1.30252 91 84 38 
-0.700596 -0.230909 1.56193 101 89 75 
0.311052 0.0317723 1.29516 17 18 0 
0.55147 -0.0952538 1.23628 24 27 0 
0.249335 -0.254845 1.32988 122 104 84 
-0.818929 0.249537 1.57405 46 37 22 
-0.385876 -0.444019 1.48371 43 39 30 
-0.845031 -0.164148 1.59531 98 87 65 
0.537235 -0.173874 1.26132 31 24 0 
-0.870999 0.247507 1.58597 56 47 32 
0.387072 0.0423325 1.27685 15 18 0 
0.310332 -0.0414584 1.29475 42 45 28 
-0.701766 -0.0884702 1.54811 40 32 9 
-0.410758 0.0979129 1.48025 96 90 54 
-0.995848 0.162102 1.61878 101 93 72 
-0.151184 -0.384119 1.43016 99 73 60 
-0.851112 0.174592 1.58515 39 25 14 
-0.412771 0.0264629 1.47771 45 38 22 
-0.783538 -0.250386 1.58049 50 40 31 
0.403188 -0.23364 1.2961 55 53 30 
0.0910188 -0.136895 1.35186 72 65 39 
0.210232 0.0720668 1.3222 94 86 65 
0.398767 0.0254852 1.27168 54 57 26 
-0.843642 0.163107 1.58602 44 34 22 
0.127348 -0.233585 1.37568 35 34 32 
-0.158839 -0.0202908 1.42367 58 30 16 
-0.883132 0.110246 1.58797 107 98 69 
-0.347415 -0.407587 1.47387 97 84 67 
-0.385416 -0.132713 1.4704 50 50 26 
-0.287064 -0.0236606 1.44133 114 75 58 
-0.395539 -0.135113 1.47284 19 23 0 
-0.780342 0.0878799 1.56709 53 45 26 
-0.11626 -0.184422 1.41816 81 63 51 
-0.0926408 -0.350965 1.41633 119 90 74 
0.35267 0.0291608 1.28658 16 18 0 
-0.175857 0.056615 1.46423 37 18 4 
0.186884 -0.293129 1.34562 43 39 27 
0.482941 -0.186303 1.28042 47 41 15 
-0.380421 -0.238932 1.48278 99 94 75 
-0.818466 0.146398 1.5745 61 54 38 
-0.229915 0.0858028 1.42585 100 84 68 
-0.903559 -0.242828 1.6037 201 222 241 
-0.380745 -0.118796 1.46949 83 76 58 
-1.06111 -0.160794 1.63939 218 231 247 
0.456323 0.0847185 1.26265 32 25 6 
-0.140437 -0.29295 1.42549 125 99 76 
0.21664 -0.189683 1.33866 46 35 15 
-0.0896427 -0.271817 1.41216 144 113 95 
0.535879 0.0553432 1.2405 73 75 54 
-0.20479 0.324042 1.36581 70 64 38 
-0.20106 0.00238096 1.42661 20 17 0 
0.40102 0.104101 1.2769 26 24 9 
0.54794 -0.0203952 1.23705 39 44 12 
-0.267119 -0.414819 1.4585 148 121 104 
0.528353 0.105643 1.24432 72 65 47 
0.290084 -0.0915682 1.30056 19 25 0 
-0.985966 0.141265 1.62215 59 49 37 
-0.905081 0.146606 1.59348 51 42 33 
0.549047 0.173269 1.23889 27 24 5 
-0.253166 -0.390412 1.45525 144 111 92 
-0.0884836 -0.23371 1.41539 135 102 85 
0.45995 -0.102013 1.2443 5 7 0 
0.289647 0.173971 1.30368 88 75 58 
0.134488 0.237449 1.3403 91 80 60 
0.228675 0.0388999 1.31901 95 88 70 
-0.820358 0.250664 1.57884 32 22 10 
0.554576 -0.00896761 1.23492 55 51 24 
-0.824969 0.172552 1.57862 121 120 102 
0.52399 -0.131591 1.24487 25 24 3 
-0.81132 -0.0296545 1.57135 62 54 35 
0.438611 0.122883 1.26662 34 31 14 
-0.800895 -0.177148 1.58907 67 51 35 
-0.788881 -0.277093 1.58269 55 51 42 
0.262334 -0.263986 1.32714 82 68 55 
-1.00324 0.210207 1.62113 32 24 13 
0.298699 0.227859 1.30199 71 65 33 
-0.89571 -0.0111173 1.59296 85 79 57 
0.534686 -0.105142 1.23348 73 79 35 
0.236225 0.19069 1.31517 37 29 10 
0.0176232 -0.093174 1.37217 86 60 47 
-0.806626 0.0923502 1.57089 102 91 73 
-0.981106 0.220709 1.61461 53 40 21 
-0.862115 0.182612 1.58338 46 36 26 
-0.908106 -0.199909 1.61408 50 40 28 
0.111914 0.12243 1.34874 32 18 7 
0.214221 -0.171991 1.33635 34 36 15 
-0.890276 0.149511 1.58781 60 47 38 
-0.925422 0.168056 1.60397 93 87 65 
-0.21512 -0.22966 1.45907 35 34 32 
0.522209 -0.146115 1.24837 16 20 0 
-0.402346 -0.258607 1.48866 59 53 41 
-0.101997 -0.248237 1.41708 137 105 90 
0.144449 -0.269871 1.37286 37 31 31 
-0.196689 0.09862 1.43217 98 63 44 
-0.972765 0.158536 1.61493 48 40 29 
-0.913036 0.0328167 1.60294 61 49 33 
0.555017 0.154909 1.23836 41 33 12 
-0.939958 0.0943674 1.60837 49 39 27 
0.580142 0.150868 1.23432 83 74 57 
-0.166535 -0.0252038 1.42859 84 55 39 
0.364279 -0.191053 1.30334 61 60 30 
-0.343644 -0.417666 1.47338 127 104 88 
-0.784391 -0.0874304 1.56727 37 25 11 
0.448244 -0.203056 1.28613 121 116 76 
-0.829717 0.196472 1.58462 105 92 76 
-0.866827 0.21289 1.58819 32 22 12 
-0.371076 -0.383621 1.48398 118 105 88 
0.428719 -0.171138 1.28647 37 37 3 
-0.819974 -0.283002 1.5908 51 51 49 
0.268367 -0.228402 1.32557 79 57 33 
0.30779 0.11646 1.29828 96 94 69 
-1.07266 0.223921 1.63405 74 67 48 
-0.769947 0.232802 1.569 84 72 60 
-0.872614 -0.130698 1.58884 114 108 86 
0.413315 -0.0158194 1.26859 8 12 0 
0.454464 0.14989 1.26071 30 29 8 
-0.390954 -0.123475 1.47031 78 80 58 
0.265045 0.207914 1.30831 78 74 27 
0.107021 0.0104302 1.34722 79 65 54 
0.516822 0.0845994 1.24491 40 38 13 
0.447872 0.142242 1.26782 26 19 1 
0.195407 -0.229004 1.34773 75 55 46 
-0.816577 -0.0967553 1.57327 89 78 58 
0.0715304 -0.295755 1.37798 105 72 53 
-0.373304 0.0302445 1.47289 32 22 13 
-1.02522 -0.065806 1.6208 54 41 32 
0.34997 0.0935738 1.28646 21 23 9 
-0.175698 -0.0144024 1.4263 64 41 23 
-0.208063 0.0997985 1.43364 145 108 92 
0.451551 0.0955156 1.26354 19 20 2 
0.580083 0.00816947 1.23113 81 78 59 
-0.475454 0.0582494 1.26627 143 120 79 
0.381957 0.114995 1.2799 85 79 55 
-1.05372 0.00148005 1.62974 54 46 25 
0.31722 0.184864 1.29597 79 67 51 
0.488516 0.0703531 1.25443 54 54 28 
-0.890708 0.047872 1.59219 93 80 63 
0.385518 0.0257134 1.27577 30 33 4 
-0.286373 0.132443 1.44804 40 32 21 
-0.381167 -0.385138 1.48285 30 24 10 
0.193046 0.204686 1.32825 57 52 32 
0.477412 0.195404 1.25775 45 43 22 
-0.876167 0.254045 1.59016 92 81 61 
0.287129 0.00285998 1.30243 13 14 0 
-0.0785122 -0.230185 1.42792 137 110 93 
0.145653 0.0635959 1.33885 45 33 17 
0.495435 0.221571 1.24977 80 73 55 
0.249043 0.00825963 1.31051 33 38 8 
-0.390691 -0.177514 1.48152 39 31 18 
0.387707 -0.0419142 1.2766 13 21 0 
0.157161 -0.10159 1.33272 84 70 43 
-0.919562 -0.196092 1.61366 106 90 74 
-0.0868983 -0.0359206 1.46115 101 79 65 
0.553493 -0.0714818 1.23406 12 16 0 
-0.330495 -0.279401 1.471 50 36 23 
-0.236948 0.0729663 1.43742 96 79 61 
-0.932639 -0.190394 1.61828 101 88 71 
0.131255 -0.165417 1.35391 20 25 0 
-0.992223 0.0742613 1.61411 51 38 29 
-0.146346 0.0292397 1.4697 109 84 64 
0.254165 0.0890045 1.3127 18 16 1 
0.414823 -0.171527 1.2922 66 61 21 
-0.410146 0.122838 1.47833 31 22 7 
-0.919047 0.199172 1.60189 48 38 28 
0.0303652 -0.235031 1.38257 183 160 142 
0.363519 -0.0503193 1.28197 25 30 8 
-0.360115 -0.314224 1.48112 39 29 19 
0.403083 -0.205899 1.29741 99 89 64 
-0.903902 0.15791 1.59473 56 44 32 
-0.410731 -0.165621 1.48016 50 42 19 
-0.910625 0.270983 1.59906 21 13 0 
0.138618 -0.139033 1.33928 30 24 0 
-1.06259 0.241758 1.62976 88 78 53 
-0.401705 -0.112563 1.47544 29 24 4 
-0.166119 0.326639 1.35625 17 8 3 
-0.378303 -0.0716144 1.4685 23 13 3 
0.435049 -0.0181897 1.26514 53 52 32 
-0.818104 0.0489674 1.57335 124 109 86 
0.569851 -0.109746 1.22917 61 57 28 
-0.833983 0.240628 1.58253 105 100 71 
0.318774 -0.22962 1.31506 57 51 25 
-0.805424 -0.25618 1.58714 107 91 76 
-0.364307 -0.0374969 1.47031 26 20 8 
-0.401809 0.13988 1.47561 33 25 14 
-0.309492 -0.259549 1.46785 50 38 24 
0.550939 0.105327 1.23883 82 81 61 
-0.960076 0.25789 1.61042 58 50 27 
0.443068 0.0353507 1.26208 24 27 0 
0.526376 0.0922123 1.24439 85 76 61 
0.106233 -0.196309 1.3725 64 49 30 
0.534305 0.0981191 1.24395 71 69 48 
-0.389362 -0.286944 1.48707 45 37 26 
-0.765642 0.138445 1.56117 78 70 51 
0.381893 0.0922076 1.27954 19 17 4 
0.0376051 -0.0665511 1.37393 83 55 41 
0.324896 0.130446 1.29402 33 32 4 
-0.743685 -0.0252823 1.57113 57 56 51 
-0.850683 0.213886 1.58591 42 34 23 
0.265711 -0.194195 1.32766 115 103 89 
-0.285626 -0.266652 1.46122 57 45 31 
-0.132199 -0.287439 1.42404 91 55 29 
-0.886894 -0.00489545 1.59179 97 85 69 
0.266709 -0.0103464 1.30731 57 53 52 
-0.937664 -0.187923 1.61221 58 48 36 
0.531284 -0.0710994 1.24122 41 44 15 
-1.0295 0.210557 1.627 44 34 22 
0.588959 0.133522 1.22925 84 72 60 
0.137859 0.102737 1.33009 25 29 4 
0.477571 0.21378 1.25507 50 44 20 
0.441543 -0.196292 1.27511 50 44 12 
-0.38252 -0.364659 1.48543 46 40 28 
-0.787353 0.234433 1.57309 92 80 66 
0.0533276 -0.0945196 1.35918 114 106 44 
-0.162007 0.0461067 1.46569 125 88 70 
-0.0863402 -0.244531 1.41892 79 53 36 
-0.386696 -0.245728 1.48646 38 30 19 
0.467345 -0.1737 1.2798 24 29 0 
0.0871282 0.140969 1.39877 57 43 34 
-0.347656 -0.342186 1.47752 35 25 15 
-0.190618 0.325587 1.35584 31 27 16 
-0.894855 -0.194329 1.60831 108 96 82 
-0.880636 -0.0896446 1.58957 109 97 73 
0.433838 -0.0724669 1.2553 28 33 11 
0.312985 -0.221642 1.31274 61 56 27 
-0.96314 -0.169971 1.62388 35 27 16 
0.0892742 0.256282 1.39234 58 39 24 
-0.308061 -0.0623509 1.45495 44 34 22 
0.496765 0.089432 1.2514 41 43 19 
0.249435 -0.0767649 1.31033 36 44 7 
0.394512 0.0819424 1.27595 18 22 0 
-0.135439 -0.129263 1.40679 47 43 18 
-0.409121 -0.0706705 1.47798 36 33 18 
0.437365 0.138034 1.26613 96 95 77 
-0.124733 -0.0820114 1.41247 104 75 61 
-0.0681637 -0.199865 1.42721 59 52 42 
-0.0942748 -0.0712255 1.41345 26 17 10 
-0.746393 -0.0617616 1.56907 19 19 9 
-0.805414 0.0261697 1.57147 61 48 32 
0.436117 0.228213 1.26591 72 65 36 
0.288053 -0.13833 1.30103 50 58 9 
0.108543 -0.164513 1.35987 43 32 0 
-0.70952 -0.0958091 1.54863 100 84 68 
-0.108882 -0.215755 1.4192 47 41 25 
-0.344706 -0.299473 1.47636 43 33 23 
-0.867991 -0.217341 1.60484 61 57 46 
0.537368 0.165722 1.24503 30 28 5 
-0.981393 -0.176534 1.63058 113 100 81 
0.226964 -0.212849 1.33598 40 34 10 
0.191972 -0.00829015 1.32675 25 23 8 
0.268369 -0.242718 1.32935 91 82 51 
-0.143417 -0.166042 1.42072 87 77 41 
-0.747499 -0.0547986 1.57417 60 61 53 
-0.826232 -0.259337 1.60431 118 107 89 
-0.900481 -0.0876634 1.6003 45 35 23 
0.310353 0.177207 1.29781 36 38 16 
-0.993056 0.261856 1.61371 43 37 21 
-0.0925242 -0.160401 1.40557 98 93 51 
0.364376 -0.0129746 1.28451 64 70 34 
-0.893525 -0.245932 1.59678 198 221 239 
0.220924 0.0715615 1.32123 78 71 55 
-0.754633 -0.223942 1.57477 40 34 20 
0.530299 0.139076 1.24504 38 32 18 
0.433242 -0.196154 1.28974 20 23 0 
0.367288 -0.245889 1.30738 66 66 32 
-0.373367 -0.354304 1.48339 67 59 48 
-1.00073 -0.011262 1.61652 88 80 61 
0.0110196 -0.214329 1.38827 148 122 107 
-0.756721 0.172052 1.56212 51 44 28 
-0.739682 -0.0872226 1.55636 79 67 41 
-0.815552 -0.0109888 1.57459 102 90 68 
-0.876769 -0.214069 1.6025 48 40 27 
0.358569 -0.143529 1.28221 17 21 0 
0.308181 0.141745 1.29588 87 79 56 
0.343668 0.226325 1.28904 59 66 24 
0.247085 -0.240591 1.32903 67 57 21 
0.167265 -0.0960435 1.3317 40 47 6 
0.202767 0.185582 1.32386 45 40 18 
-0.274366 -0.282416 1.45888 57 45 31 
0.46802 -0.193704 1.28115 48 50 26 
0.411059 0.146439 1.27291 21 20 0 
-0.336657 -0.254418 1.47123 44 34 25 
0.51608 -0.177691 1.26746 83 82 51 
-0.923484 0.0280384 1.60153 131 118 99 
0.344809 0.138896 1.28861 30 29 11 
0.403716 0.138115 1.27473 84 77 58 
-0.179129 -0.362046 1.43582 134 101 84 
-0.823019 -0.187771 1.58626 38 31 21 
0.443048 0.209333 1.26376 15 16 0 
0.238723 0.00963506 1.31371 49 47 22 
0.529987 0.0639381 1.24217 61 55 39 
-1.02502 -0.139245 1.62797 42 39 24 
0.438313 0.0718325 1.26683 45 43 22 
-0.143147 0.326906 1.34993 15 6 0 
-0.835115 -0.172133 1.59102 53 47 35 
-0.886529 -0.0763442 1.59084 71 58 39 
-0.785485 -0.190659 1.58232 61 51 41 
-0.339716 0.0875152 1.46419 38 32 20 
-0.289562 -0.00911445 1.4506 117 88 70 
-0.96615 0.219101 1.61316 83 72 54 
0.35011 -0.183333 1.30739 86 78 65 
-1.01031 0.249994 1.61889 46 38 17 
0.580735 -0.0664529 1.22932 56 51 29 
0.512656 0.0446639 1.24647 53 48 18 
0.299362 -0.0456323 1.29746 39 45 11 
-0.142566 -0.0521069 1.41381 87 54 37 
-0.72483 -0.224516 1.56892 57 45 29 
-0.169207 0.115832 1.44576 95 60 40 
-0.350709 -0.472747 1.47627 65 63 51 
-0.0964649 -0.182155 1.41316 145 116 100 
-0.702499 -0.277572 1.56295 109 96 79 
0.170098 -0.00886465 1.33039 10 14 0 
-0.690509 -0.214525 1.55757 61 54 36 
0.452606 0.160434 1.26081 32 27 8 
0.350215 0.00925334 1.28701 24 29 0 
0.568478 0.0363677 1.23327 28 22 8 
0.268239 -0.000208416 1.3071 38 40 16 
-0.356751 -0.324349 1.47947 35 22 13 
-0.357114 -0.20513 1.47514 62 52 40 
-0.164368 0.140913 1.45739 106 68 49 
-0.824069 0.118128 1.57226 45 35 23 
-0.92498 0.244849 1.60193 86 75 57 
0.0845047 -0.175407 1.36942 74 53 36 
0.286037 -0.245667 1.32461 127 109 95 
-0.680731 -0.302629 1.55508 61 48 31 
-0.895216 0.242999 1.59486 97 81 56 
0.207544 -0.0532155 1.32129 95 83 45 
0.313214 -0.118548 1.29299 53 56 27 
-0.0379373 -0.111569 1.3963 44 32 18 
0.115754 -0.11209 1.34375 4 8 0 
-0.132897 -0.0690134 1.41667 52 24 10 
0.122507 0.0565079 1.34367 110 93 77 
-0.225373 -0.171846 1.4435 61 59 36 
-0.436465 0.116062 1.40703 64 53 21 
0.18411 -0.14453 1.32969 96 80 55 
0.556769 0.12491 1.23423 82 75 56 
-0.344284 -0.44629 1.47443 78 54 42 
0.296856 0.194485 1.30204 79 69 44 
-0.381455 0.0115386 1.47129 34 26 15 
0.508607 0.101521 1.24699 25 23 0 
-0.791075 -0.17998 1.5876 92 80 66 
-0.350528 0.0735653 1.46817 89 80 65 
0.0912508 0.0188036 1.35584 122 97 77 
0.255909 -0.234621 1.32953 111 94 66 
-0.860796 0.244284 1.58997 94 85 70 
0.0639091 -0.201386 1.3767 104 82 68 
0.313876 -0.128215 1.29565 19 23 0 
-0.848746 0.109226 1.59413 50 48 36 
0.388093 0.196878 1.27754 36 26 16 
-0.945089 0.152055 1.61229 45 35 23 
-0.25326 -0.405404 1.4556 169 132 113 
-0.819244 0.235202 1.57761 94 90 65 
-0.153184 -0.0323384 1.42017 132 101 83 
-0.349813 -0.00177938 1.47321 52 45 29 
-0.928784 -0.108928 1.60146 38 30 17 
0.341876 0.190991 1.28988 48 43 14 
-0.359867 -0.269294 1.47937 77 68 53 
-0.151107 -0.022536 1.41897 109 76 59 
-0.225335 -0.20724 1.46419 68 63 60 
-0.764558 -0.0990773 1.55513 50 41 24 
0.471373 0.119331 1.25578 15 17 0 
-0.800641 0.133343 1.5701 38 30 19 
0.0756448 0.126867 1.41329 4 4 2 
0.367301 0.0571869 1.2806 40 42 20 
0.0519903 -0.313482 1.37907 60 50 41 
0.0404034 -0.268008 1.38095 100 65 45 
0.295664 -0.00774607 1.30101 46 47 16 
0.328638 0.101101 1.29372 15 17 4 
0.552488 0.0126011 1.23745 33 34 16 
0.356924 0.205192 1.28643 73 68 46 
0.510486 0.142001 1.24972 48 41 23 
0.446487 0.220103 1.262 33 28 6 
-0.295552 -0.27465 1.46722 52 38 25 
0.285635 0.253667 1.29914 23 30 0 
-0.339234 0.117 1.46495 31 18 1 
-0.74068 -0.325686 1.56123 223 224 229 
0.388725 -0.0114106 1.27652 59 62 31 
0.561748 0.0735878 1.23579 43 36 18 
-0.253134 -0.21962 1.45651 103 68 48 
-0.94896 -0.096613 1.61292 32 22 10 
0.508856 0.151733 1.24697 67 57 32 
0.253403 0.208206 1.31057 38 33 13 
-0.858302 -0.168126 1.60018 42 32 20 
-0.369323 -0.0454332 1.46645 25 21 10 
0.495545 0.15996 1.24688 42 39 20 
-0.942199 0.279633 1.6088 63 57 35 
-0.990281 0.105196 1.61693 56 42 29 
-0.344565 -0.387858 1.47573 116 104 90 
-0.937214 0.247292 1.60637 98 91 65 
0.283233 0.017253 1.30319 83 79 52 
0.151944 0.0019826 1.33564 81 71 46 
0.518635 -0.0519935 1.24447 36 37 23 
0.453786 0.0676923 1.25923 45 39 15 
-0.313316 -0.23854 1.46789 89 76 60 
-0.142585 -0.303805 1.42968 63 49 38 
0.529417 0.0812951 1.24594 97 95 80 
-0.828737 -0.241581 1.59397 60 48 34 
-0.362059 -0.33914 1.47886 56 46 37 
-0.777352 0.241626 1.56826 43 34 19 
0.487027 0.158442 1.25294 51 51 25 
-0.145737 -0.262569 1.42793 166 137 119 
0.191535 0.143085 1.32844 54 51 36 
-0.150853 0.265116 1.47467 87 71 55 
-0.472208 -0.247413 1.31597 55 46 29 
-1.06634 0.06284 1.63951 62 52 40 
0.50995 -0.0382531 1.24825 52 46 24 
-0.197225 -0.187979 1.44839 97 78 61 
0.195795 0.00218325 1.32453 24 23 2 
0.225526 -0.27071 1.3372 90 81 64 
-0.0564715 -0.154255 1.38895 34 34 0 
-0.368822 -0.0229016 1.47059 49 42 32 
0.570877 0.138781 1.23415 84 85 67 
-0.395798 -0.163611 1.48549 25 19 5 
-0.243957 -0.0156786 1.43441 128 107 90 
-0.174261 0.0177562 1.42741 82 41 21 
-0.441094 0.0571319 1.38857 95 79 63 
-0.690101 -0.235259 1.5581 35 25 13 
-0.914512 0.16397 1.6021 56 47 30 
0.428917 0.0314185 1.2659 51 52 21 
0.501727 -0.0655639 1.24963 24 25 9 
0.3247 -0.0344751 1.28855 62 56 20 
-0.809758 -0.0940309 1.56814 44 31 12 
0.572904 0.178824 1.23214 64 54 19 
0.190362 0.0350632 1.32705 60 54 32 
0.488073 0.0570509 1.25251 23 26 0 
-1.02602 0.265346 1.62843 38 37 17 
-0.338817 -0.260916 1.47584 48 36 24 
0.417373 0.227347 1.26923 79 70 39 
-0.0774813 -0.176636 1.41689 53 46 18 
0.50322 -0.00256225 1.24692 26 25 7 
-0.90373 -0.230111 1.61611 74 74 66 
0.468851 0.137435 1.25741 45 39 23 
0.451046 -0.016045 1.25881 35 27 16 
-0.766824 -0.099805 1.56262 47 39 20 
-0.371976 0.10718 1.47021 48 30 18 
0.426794 -0.234654 1.29095 60 52 29 
-0.778985 0.118604 1.56099 58 50 27 
-0.177887 -0.252112 1.43538 58 31 12 
-0.368685 -0.420906 1.47965 93 85 72 
-0.136212 -0.315461 1.42937 65 52 43 
-0.406985 -0.187781 1.48012 43 39 14 
-0.974076 0.110177 1.61013 112 99 83 
-0.366937 -0.125665 1.46805 28 30 8 
0.318415 0.119556 1.29579 41 35 11 
0.123538 0.0670026 1.34322 118 103 82 
0.54095 -0.116071 1.23889 60 67 26 
0.435239 -0.122341 1.25984 11 15 0 
-0.919988 -0.153819 1.6073 96 89 63 
-0.184561 0.109024 1.42719 142 101 83 
-0.390255 -0.396985 1.48705 47 37 27 
-0.393518 -0.274502 1.48775 40 37 22 
0.278412 -0.0276139 1.30475 41 41 13 
-0.955715 -0.148823 1.6127 30 26 1 
0.276346 -0.153794 1.30673 79 75 12 
0.577783 -0.00650987 1.23027 57 52 22 
0.257114 0.131251 1.31065 42 35 19 
-0.360234 -0.185561 1.47832 66 54 42 
-0.877465 0.151249 1.58871 40 31 22 
-0.149703 0.0565548 1.47586 123 82 62 
0.481471 0.225109 1.25461 38 36 13 
-0.681578 -0.260923 1.55488 52 42 30 
-0.373071 -0.370337 1.48194 41 34 24 
-1.00965 -0.11642 1.62056 54 48 36 
0.356079 -0.02826 1.28309 63 71 34 
-0.278834 -0.118203 1.43746 63 51 37 
0.497818 -0.174208 1.27119 31 28 0 
-0.353561 0.00391794 1.46914 94 82 66 
0.138804 -0.277917 1.3711 79 78 76 
-0.734461 -0.307693 1.56966 63 60 51 
-0.897472 0.253345 1.5944 96 85 65 
-0.399717 0.0813025 1.47908 52 40 28 
-0.925365 0.115785 1.5973 68 57 39 
-0.763698 0.253953 1.56518 86 74 58 
-0.311819 -0.34644 1.46873 59 47 35 
0.496904 0.0506199 1.25054 57 52 33 
0.557457 0.0407928 1.23674 35 33 12 
0.562657 -0.193251 1.25776 42 42 18 
-0.405774 0.0788268 1.48442 44 36 23 
-0.775053 -0.108239 1.56333 44 35 18 
-0.37332 -0.222572 1.48241 53 46 30 
0.489292 -0.138323 1.24793 40 37 20 
-0.987215 0.0937577 1.61268 139 127 113 
-1.06783 -0.0132864 1.63314 46 34 22 
0.289914 -0.0208951 1.30123 76 71 33 
-0.886698 0.166842 1.59627 46 36 26 
0.218717 -0.260184 1.34396 28 27 9 
0.0862171 0.0708076 1.42285 69 55 44 
-0.866072 0.162605 1.59396 48 36 24 
0.265903 -0.148464 1.31194 72 70 21 
0.385693 0.144772 1.27556 31 30 9 
0.164917 -0.266525 1.35875 70 43 32 
-0.383553 -0.297424 1.48459 49 39 27 
0.564881 0.101221 1.23064 63 57 43 
0.533718 0.175044 1.24472 34 32 7 
-0.772837 0.254218 1.5668 74 66 47 
0.209415 -0.198059 1.34925 77 61 45 
-0.763997 -0.0909055 1.5605 57 44 25 
0.313632 0.163185 1.30097 78 76 55 
-0.125864 -0.233076 1.42488 31 25 11 
0.498784 0.0268611 1.25265 64 58 34 
0.10832 0.100864 1.35366 104 91 75 
-0.144259 -0.137844 1.40838 32 35 4 
0.13801 0.0427447 1.33855 76 65 47 
0.5458 0.187971 1.2394 55 54 23 
-0.00622997 -0.115338 1.3724 90 74 49 
0.405169 0.20906 1.27116 48 44 19 
-0.810945 0.157453 1.57768 28 20 9 
-0.91273 0.23806 1.59952 61 55 41 
-0.368243 0.130101 1.47114 35 27 14 
0.459871 0.124084 1.25804 38 35 18 
0.142618 0.0769118 1.3382 95 87 66 
0.330113 -0.140433 1.29286 32 37 14 
-0.920666 0.189255 1.59982 49 41 28 
0.221457 0.0483396 1.31897 77 70 52 
0.582277 0.0365823 1.23021 54 46 33 
-0.731289 -0.260049 1.57102 51 44 28 
0.273579 0.0219742 1.30534 64 55 16 
0.491111 0.0995413 1.2552 41 39 18 
-0.838578 0.188493 1.57944 45 35 23 
-1.05539 0.217104 1.63113 102 87 68 
0.314063 0.201938 1.29772 34 34 10 
-0.811448 -0.015582 1.56827 69 57 35 
-0.161522 -0.107873 1.41609 55 47 28 
0.023604 -0.0735072 1.37837 56 28 16 
0.158748 -0.167241 1.34958 90 75 46 
-0.375815 -0.0549354 1.47047 37 29 18 
0.459632 -0.0296014 1.25845 35 38 9 
-0.359008 -0.115635 1.46719 55 46 29 
-0.818231 0.22171 1.57945 82 79 60 
0.436525 -0.104776 1.25454 19 23 8 
-0.921671 0.274608 1.60051 73 63 38 
-0.00514376 -0.198105 1.40996 48 34 25 
-0.280395 -0.168641 1.45724 26 20 0 
0.580462 0.0825208 1.23021 68 64 52 
0.312219 0.070231 1.29635 10 13 0 
0.348433 0.209837 1.28904 66 62 37 
-0.884725 0.176684 1.59415 28 24 12 
-0.181572 0.0096168 1.43282 133 92 72 
-0.812294 0.0109687 1.56946 76 59 41 
-0.721654 -0.107201 1.54754 62 53 36 
0.438893 -0.0863341 1.25476 32 22 10 
0.483305 -0.00535192 1.25394 28 31 4 
0.223952 0.0978197 1.32339 70 64 48 
-0.0265852 -0.105787 1.39597 60 47 30 
0.412862 -0.227704 1.29502 49 43 11 
-0.297046 -0.167399 1.46064 40 33 4 
-0.399928 -0.185639 1.48722 41 33 22 
0.392881 0.0115253 1.27415 35 39 12 
0.538917 -0.00502208 1.24045 66 60 38 
0.335237 0.175075 1.29214 45 45 17 
-0.0843211 -0.115688 1.39526 76 76 42 
-0.714052 -0.201488 1.56737 43 37 25 
-0.358471 -0.221331 1.47671 61 52 37 
0.493042 -0.190582 1.27598 47 43 14 
0.280949 0.196951 1.30679 109 96 77 
0.543198 0.182073 1.2395 66 64 26 
-0.219636 -0.261929 1.46016 41 34 28 
-0.189054 -0.342417 1.44927 107 84 66 
0.460161 0.219535 1.25888 16 15 0 
-0.937884 0.258594 1.59786 44 38 22 
-0.887368 -0.0355563 1.59458 45 35 23 
-0.117429 -0.270753 1.41411 107 81 66 
0.547826 -0.0024172 1.23695 75 73 52 
-0.267241 -0.403685 1.46183 43 29 16 
0.183676 -0.161204 1.33665 105 94 32 
-0.389793 -0.348312 1.48655 73 65 52 
0.499048 0.10867 1.25102 60 54 32 
0.371707 0.0446044 1.28125 15 20 0 
0.0948288 -0.262161 1.37322 97 62 42 
-0.0765378 -0.29693 1.42922 102 76 59 
-0.0462991 -0.0983021 1.39776 61 39 26 
-0.842281 -0.105328 1.58073 53 42 24 
0.446898 0.105239 1.26285 37 35 12 
0.536477 0.151668 1.24694 86 79 61 
-0.388675 0.294184 1.24779 59 70 14 
-0.822755 0.273398 1.57366 27 24 7 
0.113823 0.076035 1.35183 75 56 42 
-0.796524 0.259132 1.57965 81 70 40 
0.388776 0.174013 1.2805 78 73 54 
-0.0405966 -0.156365 1.38433 23 19 0 
0.463546 0.0914223 1.26049 69 58 38 
0.103214 0.0145544 1.35586 90 74 61 
0.488724 0.0203104 1.24467 26 16 4 
0.321016 -0.0250537 1.29343 38 42 15 
-0.798766 -0.166003 1.58362 94 81 64 
-0.233244 0.0978486 1.4257 67 58 41 
-0.852335 0.270565 1.58429 60 56 31 
-0.987609 0.272529 1.61658 77 73 48 
0.246383 -0.0665253 1.31105 71 67 29 
-0.755745 0.019738 1.57543 64 57 47 
-0.84335 0.25472 1.58255 84 80 53 
0.181894 0.0273805 1.33184 59 54 35 
0.109122 -0.0675115 1.34356 58 45 13 
0.448788 0.128816 1.2648 22 21 1 
-0.823726 0.138652 1.57693 65 56 41 
0.462466 0.20118 1.25709 78 67 47 
0.475937 -0.211644 1.27924 68 68 34 
0.299443 -0.096838 1.29609 11 19 0 
0.524137 -0.199897 1.26964 59 59 31 
0.47657 -0.0240302 1.25674 29 32 3 
-0.679308 -0.322526 1.55129 91 84 66 
-0.789952 -0.300793 1.57515 188 203 224 
-0.432719 -0.0651236 1.40211 44 33 13 
-0.745348 -0.138567 1.55585 33 29 0 
0.311603 -0.158313 1.30805 57 67 7 
0.0630462 -0.0434028 1.36729 58 31 14 
0.541427 -0.143051 1.23805 95 95 33 
0.168235 0.10697 1.33054 40 37 22 
0.430772 0.183554 1.26661 34 33 5 
-0.810523 0.262101 1.57722 53 46 18 
-0.175276 -0.0276238 1.4232 52 35 25 
-0.208051 0.211878 1.42752 134 109 87 
0.165669 -0.178145 1.3561 66 55 37 
0.566692 0.128321 1.23134 33 26 10 
-0.420677 -0.213088 1.44043 75 64 44 
-0.884779 0.0719465 1.59021 49 36 19 
0.349304 0.0805742 1.28665 26 30 7 
-0.763933 0.0219651 1.57072 29 26 11 
-0.914497 0.119437 1.59655 70 62 49 
-0.857394 0.10908 1.59754 58 51 43 
0.362228 0.224752 1.28103 42 41 10 
0.331034 -0.151393 1.29582 65 63 6 
-0.947447 0.0573507 1.60767 51 42 33 
-0.0769152 -0.0518971 1.45428 65 51 42 
-0.862356 -0.122724 1.59285 58 55 40 
0.584715 0.121283 1.23038 87 79 66 
-0.959601 0.150366 1.60861 40 34 22 
0.586167 -0.186282 1.25253 97 91 75 
0.124336 0.111822 1.34145 47 40 21 
0.349486 -0.193772 1.30811 90 90 64 
0.27942 -0.221232 1.32479 53 46 30 
0.236814 -0.0158349 1.31132 19 29 0 
0.269164 0.145865 1.30772 39 36 19 
-0.00320717 -0.0972078 1.38749 36 22 11 
0.285652 0.161725 1.30577 79 71 50 
0.3578 -0.00280944 1.28146 16 22 0 
0.172267 -0.197509 1.34741 81 49 34 
-0.106492 -0.134244 1.39965 73 73 35 
-0.797503 -0.0297093 1.57413 44 36 23 
-0.0924497 -0.0839876 1.40766 104 68 52 
0.219479 -0.00641677 1.31963 37 40 11 
0.0954004 -0.0941314 1.34773 40 34 12 
0.181235 -0.132812 1.32931 15 19 0 
0.269613 0.0353455 1.30571 63 59 34 
-1.04467 -0.0236526 1.62857 37 30 20 
-1.00328 0.154887 1.62442 31 27 18 
-0.860607 0.0788962 1.60049 107 103 94 
-0.74767 -0.136907 1.56584 41 40 10 
0.524677 -0.0637825 1.24528 33 36 9 
0.0389041 -0.02377 1.433 63 49 40 
0.297387 0.0888652 1.30006 76 69 43 
-0.682051 -0.220894 1.55766 42 32 20 
0.228467 0.00835097 1.31427 43 41 18 
0.195116 -0.108282 1.32536 77 75 37 
-0.0252206 -0.203726 1.42402 56 53 48 
0.111947 0.163027 1.35552 109 90 75 
-0.381989 -0.408677 1.48768 44 37 27 
0.352958 -0.132114 1.28482 23 21 8 
0.410169 0.218348 1.27328 42 36 10 
-0.0422783 -0.076901 1.43605 74 55 38 
0.192442 -0.131101 1.32433 20 23 0 
0.210511 -0.105329 1.3214 30 36 2 
0.45824 0.00402329 1.25984 41 32 15 
-0.939253 -0.0943067 1.60727 45 37 24 
0.479049 -0.163209 1.26713 89 88 32 
0.249708 0.122645 1.31193 31 29 17 
0.234672 0.110771 1.31656 45 40 20 
0.148816 -0.0369105 1.33646 99 90 61 
0.447368 0.0759572 1.26538 67 62 33 
-0.0978752 -0.259255 1.41644 127 94 77 
0.373544 0.220051 1.28216 33 29 2 
0.23473 -0.234977 1.33724 122 90 67 
0.183706 -0.180499 1.34636 122 107 88 
0.317415 -0.00966172 1.29696 81 77 52 
-0.195632 -0.398821 1.45517 44 44 42 
-0.357309 -0.417019 1.47914 104 91 74 
-0.941728 0.164465 1.60647 93 81 67 
0.312376 -0.0297686 1.29681 36 41 19 
0.551027 0.0510348 1.23557 50 43 17 
0.161591 0.12755 1.33472 78 71 55 
-0.178756 -0.277958 1.43663 106 74 59 
0.541596 0.15745 1.23862 82 77 48 
-0.027667 -0.164797 1.38898 64 69 15 
0.513185 0.198673 1.24876 36 29 10 
0.515181 0.163297 1.24863 48 41 23 
0.0851186 -0.103337 1.35212 69 57 35 
-0.180683 -0.0308 1.43026 51 39 25 
0.412418 -0.164404 1.28577 82 85 38 
0.221302 -0.150833 1.32173 97 88 31 
0.533292 0.116403 1.23985 47 45 24 
0.329769 0.122017 1.29244 48 42 20 
0.371406 0.0707409 1.27965 16 21 0 
0.372197 0.00465791 1.27923 55 51 26 
0.10714 -0.294294 1.37376 116 89 72 
-0.136022 -0.371294 1.42612 128 106 92 
-0.193694 0.214275 1.43519 94 73 54 
0.337904 0.00917036 1.29052 30 36 2 
0.335887 -0.000659333 1.28769 31 37 0 
0.521701 0.0738664 1.24492 33 26 10 
-0.96305 0.228901 1.61269 87 76 58 
-0.0348846 -0.0974472 1.39977 69 47 34 
-0.851278 0.245262 1.58337 96 87 70 
0.0554191 -0.274303 1.37795 129 87 65 
-0.287255 0.302052 1.28172 102 101 55 
-0.172921 0.30084 1.4517 90 75 56 
0.225191 -0.0776796 1.31874 55 55 21 
-0.191672 0.0705885 1.43142 132 89 70 
0.398074 0.176122 1.27813 109 110 92 
0.516964 0.230801 1.2452 29 31 10 
0.300152 -0.112736 1.29874 12 20 0 
-0.354962 -0.0239898 1.46881 46 36 26 
-0.908823 -0.200478 1.60686 47 37 25 
0.414655 0.133099 1.27108 27 31 8 
0.226577 -0.187271 1.33583 74 63 45 
-0.0546728 -0.204712 1.42898 34 33 29 
0.485428 0.118754 1.25468 21 25 2 
-0.316792 -0.214157 1.46552 40 31 16 
-0.874682 -0.00155625 1.59375 35 31 19 
0.38051 0.180487 1.28124 60 55 36 
-0.185271 -0.0785061 1.41607 25 22 7 
-0.774797 -0.0424719 1.56329 58 45 28 
-0.31682 -0.358453 1.46631 27 14 5 
0.246981 -0.102013 1.31052 32 42 5 
-0.875577 0.0188647 1.58771 40 37 22 
-0.926672 0.167449 1.5967 56 45 27 
0.533706 0.128738 1.24276 36 28 17 
0.46487 0.234957 1.25695 33 33 9 
0.03158 -0.107249 1.36511 76 72 43 
-0.0945895 -0.104316 1.40342 97 71 56 
0.375597 0.100816 1.28209 20 17 0 
0.314322 -0.248958 1.31656 63 62 34 
0.548178 -0.0359514 1.2383 59 54 25 
0.160256 -0.275029 1.36216 102 81 64 
-0.386326 -0.462785 1.48197 86 83 66 
-0.730268 -0.241031 1.56221 45 37 26 
0.301562 -0.172547 1.33139 53 54 14 
0.474379 -0.185711 1.27897 41 45 22 
0.381915 -0.183704 1.30144 63 55 16 
-0.25115 -0.075845 1.43919 58 45 26 
0.183694 -0.194103 1.35197 122 96 79 
0.25538 -0.0158217 1.3102 34 37 6 
-0.316654 -0.134525 1.45384 46 42 17 
-1.00902 0.1477 1.6183 40 34 22 
-0.822881 -0.229225 1.59166 81 74 58 
0.556514 0.0933273 1.23768 71 65 29 
-0.878061 -0.164534 1.60483 78 63 40 
-0.350195 -0.360266 1.47801 53 47 35 
0.425097 0.0619388 1.26855 31 30 2 
0.395394 0.24935 1.27214 17 20 0 
-0.33516 -0.124117 1.45897 57 53 26 
-0.234712 -0.386068 1.46296 52 45 37 
0.455721 0.237972 1.2586 63 58 26 
-0.772743 0.143858 1.5635 53 44 27 
-0.115202 -0.255745 1.42545 93 65 51 
0.506253 -0.0523485 1.24779 51 54 27 
0.29012 -0.151817 1.30706 54 63 10 
-0.883958 0.265647 1.59219 44 35 18 
-0.200316 -0.0686487 1.42689 72 55 39 
0.18448 -0.272854 1.34626 52 45 29 
-0.360804 -0.159422 1.47379 68 58 22 
-0.889047 -0.238837 1.60321 21 23 12 
-0.365247 -0.277343 1.48114 58 52 40 
0.355454 -0.0692333 1.28535 31 38 7 
0.262782 -0.11608 1.3084 14 18 3 
-0.768887 0.0619476 1.57714 54 43 23 
0.215544 -0.115495 1.31704 11 16 0 
-0.195992 -0.38516 1.45678 47 47 47 
0.386654 0.127147 1.27537 36 35 17 
-0.367414 -0.323786 1.48319 35 29 17 
0.278343 0.109709 1.30337 20 18 3 
-0.324619 -0.441688 1.47687 72 46 33 
-0.0332827 -0.141408 1.38206 84 72 30 
0.0683226 -0.0658303 1.35014 100 86 59 
-0.324427 -0.0677195 1.45832 58 46 32 
0.0156802 -0.079322 1.38163 59 28 10 
-0.214182 -0.361744 1.45768 79 75 72 
0.479883 0.10247 1.25669 73 67 45 
0.339815 -0.0123478 1.28775 60 63 18 
0.380924 0.149446 1.28307 40 34 12 
-0.888086 -0.0225296 1.5943 48 40 29 
-0.785836 0.288967 1.56689 19 21 8 
0.272856 -0.140205 1.30446 47 51 24 
0.235678 -0.115016 1.31504 16 21 0 
0.19525 -0.209002 1.34177 57 41 26 
0.523798 0.115238 1.24392 48 41 23 
0.328405 -0.0953485 1.28922 37 43 17 
-0.880716 0.283024 1.59271 59 55 18 
0.151703 -0.242155 1.3678 67 69 66 
-0.184834 -0.3191 1.44091 101 70 52 
-0.818563 -0.152972 1.58231 55 45 20 
0.24859 0.0789965 1.31375 46 39 11 
0.37329 0.207338 1.27276 38 41 10 
-0.373305 -0.040792 1.47322 23 16 6 
-0.261742 -0.202284 1.453 110 65 46 
0.445183 -0.144733 1.26669 29 31 9 
-0.135338 -0.0396163 1.41548 107 72 53 
0.351477 0.105644 1.28688 77 70 42 
0.107238 -0.0537072 1.34548 54 44 8 
-0.103488 -0.1077 1.39866 55 51 24 
0.461515 0.106992 1.25887 36 32 7 
-0.780982 0.264289 1.56791 73 68 39 
0.523875 0.130712 1.24319 104 105 87 
0.348567 -0.141433 1.28564 53 49 22 
0.335908 -0.246689 1.31083 40 35 6 
-0.272728 -0.37868 1.45916 66 54 40 
-0.340741 0.12775 1.4644 46 39 23 
-0.759756 0.00522973 1.56814 39 30 15 
-0.0849029 -0.3434 1.41843 107 76 58 
0.0437622 -0.14716 1.36419 82 85 28 
-0.079282 -0.0962888 1.40368 60 42 30 
-0.691869 -0.115251 1.54422 52 46 24 
0.124001 -0.0745978 1.34213 82 74 25 
-0.373656 -0.0919513 1.46741 57 56 38 
-0.764095 0.0816858 1.57187 56 44 22 
-0.359742 0.0531171 1.46901 46 42 30 
0.475076 0.0131322 1.2565 41 47 19 
-1.01179 0.263741 1.61761 35 34 16 
-0.289045 -0.0508899 1.44915 59 43 30 
0.157458 -0.0088456 1.33398 70 64 40 
0.366572 -0.100601 1.26726 26 24 11 
0.0850594 0.114509 1.3799 54 34 23 
0.433916 0.0570946 1.26664 70 65 43 
0.0256478 -0.0824565 1.37705 51 25 10 
-0.159988 0.148128 1.46431 81 55 40 
-0.17666 0.232583 1.45795 109 90 73 
-0.38183 -0.0152567 1.47217 64 56 45 
0.0970694 -0.264887 1.36849 92 59 40 
-1.05443 0.274016 1.63162 47 41 25 
0.274481 -0.172292 1.32567 42 46 11 
-0.11497 -0.101478 1.40666 57 57 31 
0.118238 0.0432733 1.35093 84 68 55 
-0.0220382 -0.0629643 1.44373 72 56 41 
-0.174209 0.0781674 1.46411 58 36 22 
0.435923 0.0439904 1.26588 40 44 17 
-0.346148 -0.0503562 1.46768 55 47 36 
0.098302 -0.14937 1.35217 81 76 18 
-0.88504 -0.154618 1.60014 53 45 26 
-0.708473 -0.339599 1.55689 56 53 48 
-0.830782 -0.26127 1.59709 80 80 78 
0.285516 0.0496659 1.30363 59 55 28 
0.391788 -0.142678 1.26682 16 18 4 
0.349048 0.149528 1.28764 50 45 25 
-0.358074 -0.257028 1.47844 66 53 45 
-1.02106 0.136316 1.62339 92 80 56 
0.556139 0.00250883 1.23446 86 82 57 
-0.754441 -0.296324 1.56969 83 89 87 
0.562831 -0.121354 1.22997 47 51 18 
0.299649 -0.0684588 1.2971 45 47 10 
-0.70181 -0.115246 1.54388 44 37 18 
-0.829973 0.270525 1.57957 58 52 20 
0.114765 0.0599187 1.35194 103 85 71 
0.575913 0.187221 1.2319 23 23 0 
-0.179508 -0.0498022 1.41854 62 55 27 
-0.933121 0.268696 1.60749 47 39 26 
-0.817354 0.0932569 1.56807 46 39 21 
0.00589192 -0.060605 1.42916 28 14 5 
-0.898166 -0.112149 1.59528 54 45 30 
0.552693 0.0747703 1.23821 57 50 32 
0.410901 -0.144233 1.2724 29 33 6 
0.426211 -0.0431981 1.26581 19 22 1 
0.209296 0.159685 1.32224 35 32 17 
0.336013 -0.108374 1.29066 21 26 3 
0.311473 0.00475422 1.29623 19 22 5 
-0.33747 -0.212605 1.47245 62 48 35 
0.13101 -0.145636 1.34048 84 84 32 
0.202972 0.0797647 1.32996 43 37 21 
0.360252 -0.0598483 1.2818 44 36 15 
0.352952 0.218269 1.28559 36 36 12 
-0.335791 -0.339865 1.47318 38 26 14 
0.219353 -0.101224 1.31854 17 22 0 
0.284454 0.0309383 1.30224 49 46 15 
0.477197 0.0429637 1.24991 52 51 20 
-0.189019 -0.313604 1.44711 99 76 58 
-1.00435 -0.170356 1.636 44 46 43 
0.205003 0.131143 1.33284 40 32 21 
-0.765527 0.242173 1.56477 56 47 32 
-0.120365 -0.209692 1.42005 115 95 84 
0.180843 -0.103937 1.32727 76 67 38 
0.50855 -0.0042455 1.25011 21 18 3 
0.563711 -0.181321 1.25425 85 80 42 
-0.135964 0.0439966 1.4785 50 36 25 
-0.115161 -0.200526 1.41555 93 79 68 
0.141579 -0.129885 1.32622 83 79 44 
-0.0889196 -0.134805 1.39655 42 43 12 
-0.717255 -0.27019 1.56494 36 30 14 
-0.810218 0.276697 1.57533 37 32 12 
-0.81394 -0.17009 1.58968 101 91 66 
-0.360749 -0.174506 1.4784 68 58 46 
-0.476885 -0.0920794 1.27157 107 85 44 
-0.385863 -0.260662 1.48748 39 31 20 
0.417256 0.146914 1.26437 74 72 49 
-0.261407 0.258963 1.29092 35 35 1 
-0.288469 0.0244942 1.44252 49 33 20 
0.420291 0.166998 1.26868 43 42 21 
0.555237 0.0596868 1.23647 80 73 57 
0.551659 -0.0572026 1.23779 42 41 13 
-0.218526 0.0581504 1.43012 78 64 51 
-0.239044 -0.168794 1.44935 20 23 0 
0.513964 0.174793 1.24785 42 39 20 
-0.715998 -0.281542 1.56892 95 85 60 
-0.211924 0.0226096 1.42965 56 48 29 
0.237482 0.223474 1.31601 48 43 13 
0.340985 0.0334177 1.28787 43 46 17 
0.23986 -0.0365412 1.31345 70 62 15 
-0.160669 -0.0542035 1.41644 46 34 22 
0.499178 0.0611654 1.2473 50 45 25 
-1.04327 0.0973222 1.62708 56 46 36 
0.0737225 0.215205 1.41361 4 5 0 
-0.264254 -0.0825485 1.45386 112 96 83 
-0.0797239 -0.326139 1.42822 135 107 93 
0.220544 0.212556 1.32162 81 72 41 
0.352336 0.130553 1.28813 42 45 16 
-0.336048 -0.3062 1.47431 38 25 17 
-0.0254685 -0.044146 1.45016 13 14 9 
0.373443 0.0278737 1.27802 42 45 16 
-0.347478 -0.0148247 1.46468 56 47 32 
0.0821308 -0.129196 1.35223 28 27 7 
0.368216 -0.0914857 1.26407 14 14 2 
-0.732742 -0.119954 1.55099 44 40 11 
-0.28705 -0.0620231 1.4483 60 42 30 
0.0751904 -0.01831 1.36952 80 48 35 
0.570828 -0.0692857 1.23295 45 43 22 
-0.707976 -0.298576 1.56141 48 40 27 
-0.713731 -0.13728 1.54602 35 29 5 
-0.789422 -0.14601 1.56834 63 52 20 
0.199475 -0.0838488 1.32417 34 30 18 
0.364053 0.079492 1.28248 28 30 17 
-0.488825 0.279844 1.23518 98 87 41 
0.372398 -0.0194613 1.27955 55 64 33 
0.0474039 -0.0465573 1.36926 114 72 50 
-0.186531 -0.105811 1.41972 79 66 50 
0.536254 0.19073 1.23909 17 18 2 
-0.122496 -0.0891169 1.40655 61 49 35 
0.232536 0.234009 1.3156 38 39 8 
0.280256 -0.0702778 1.30398 59 50 9 
-0.899881 -0.147289 1.60181 89 83 51 
0.449329 -0.00151131 1.26306 52 53 35 
-0.718483 -0.215866 1.56563 52 44 31 
0.214358 -0.162513 1.3337 87 86 29 
0.408076 -0.217199 1.29892 70 62 43 
-0.114539 -0.0811629 1.4108 76 49 32 
0.346798 0.161063 1.29138 49 45 20 
0.399698 -0.18766 1.29792 38 38 0 
-1.0695 0.234432 1.63442 73 65 42 
-0.810767 -0.29071 1.58102 189 217 241 
0.392639 0.217454 1.27402 33 36 7 
0.46654 -0.210302 1.28272 60 54 40 
-0.21938 0.188172 1.42714 56 39 23 
0.353071 -0.0962175 1.27553 46 44 32 
0.21186 0.221517 1.32096 54 48 24 
-0.998211 -0.0242028 1.62697 90 77 61 
-0.217206 -0.322776 1.44858 48 44 41 
0.319016 -0.0825182 1.29251 53 51 12 
-0.774926 0.127991 1.56318 45 39 15 
-0.35771 -0.0796869 1.4681 36 28 15 
-0.770879 0.105145 1.56536 47 41 9 
-0.145209 0.00402865 1.46128 102 75 58 
-0.231405 -0.238158 1.46141 35 36 31 
-0.168214 0.0644918 1.46331 93 66 49 
0.301208 0.238393 1.29803 20 23 0 
-0.20845 0.159021 1.43133 101 73 51 
0.308479 -0.0832477 1.29732 21 30 0 
0.309376 -0.139764 1.29427 20 25 2 
-0.192441 -0.162447 1.4317 79 69 33 
0.281379 -0.0993525 1.30365 13 16 0 
0.076742 0.243575 1.41063 4 4 2 
-0.809277 0.102457 1.57297 78 65 48 
-0.345936 0.235365 1.27745 105 106 64 
0.555746 0.0252987 1.23835 66 54 38 
-0.868227 -0.0881261 1.58534 47 38 23 
0.263592 0.120839 1.31021 37 35 20 
0.31165 0.131555 1.29752 74 73 45 
-0.852556 -0.157314 1.59291 66 57 26 
0.410792 0.0423699 1.27047 72 79 48 
0.482185 -0.0707766 1.25498 43 48 28 
0.283135 -0.166232 1.32114 97 84 31 
-0.261589 -0.284165 1.45428 107 78 64 
-0.95521 -0.0667307 1.61038 53 43 33 
-0.132978 0.0151107 1.46655 104 73 53 
0.00970917 -0.305256 1.39082 111 74 56 
-0.886307 0.0214101 1.59234 53 43 31 
-0.0569923 -0.275232 1.43029 79 79 77 
-0.145693 -0.0385117 1.41498 117 84 67 
-0.932238 -0.0649133 1.60261 86 78 67 
0.466134 -0.08023 1.24861 35 37 23 
0.286038 0.103145 1.30209 28 29 13 
0.441732 -0.0750239 1.24795 21 19 7 
-0.735729 -0.22842 1.56983 70 61 44 
0.0880031 0.106494 1.39205 38 28 18 
0.0583898 -0.111815 1.3584 74 65 32 
-0.253337 -0.249254 1.4556 89 51 32 
-0.367493 -0.107076 1.47005 57 50 31 
-0.873503 0.0756308 1.59389 36 30 14 
-0.940572 -0.133385 1.60473 53 46 28 
-0.231886 -0.29328 1.46584 49 49 47 
-0.742064 -0.0981331 1.55388 66 51 30 
-0.234592 -0.280697 1.46367 45 44 39 
-0.226223 0.0694347 1.43135 52 45 29 
-0.0679791 -0.340256 1.43583 74 67 59 
0.0927682 0.134577 1.3901 34 24 15 
-0.357789 -0.106678 1.45955 52 46 24 
-0.210603 -0.153922 1.43345 71 63 16 
0.0870744 -0.0119218 1.35873 53 34 20 
-0.219825 -0.119797 1.43019 79 72 56 
-0.953408 0.158023 1.60144 47 34 26 
-0.401327 -0.063678 1.47573 45 37 24 
-0.337789 -0.27251 1.47371 59 46 30 
-0.389086 -0.0432489 1.47027 40 36 24 
-0.37294 0.0773755 1.46671 39 32 22 
-0.785569 0.0243065 1.57819 58 50 27 
0.324356 0.0181626 1.29415 70 63 35 
0.20041 0.0624042 1.32402 66 65 37 
-0.392795 -0.0992678 1.47308 45 38 20 
0.431314 -0.0349806 1.26411 57 48 33 
0.420284 -0.00597769 1.26918 35 40 8 
-0.857345 -0.110357 1.5822 46 39 23 
-0.345053 0.0386782 1.46466 43 33 23 
0.42075 0.124341 1.26701 27 28 10 
-0.705869 -0.145026 1.54807 62 57 15 
-0.24103 -0.347956 1.45998 113 86 69 
0.0092518 -0.293927 1.38899 122 89 72 
0.121071 0.0888945 1.35091 76 62 51 
0.352093 -0.150536 1.29394 66 67 9 
-0.0215634 -0.249451 1.41966 28 27 23 
0.469888 -0.0137084 1.25311 54 52 27 
-0.874842 -0.181753 1.60633 45 37 24 
-0.181005 0.329018 1.29422 50 31 17 
0.267017 -0.0442355 1.30618 52 44 21 
-0.736084 -0.145773 1.56066 64 66 29 
-1.03924 0.190922 1.62645 68 58 46 
0.3622 0.195929 1.28388 51 52 18 
-0.16875 0.200509 1.45431 126 93 76 
-0.790726 -0.207737 1.58542 40 34 22 
-0.230721 -0.367633 1.4638 54 54 54 
0.236577 -0.245599 1.334 125 85 60 
0.184806 0.0808818 1.32707 45 40 21 
-0.896785 0.272779 1.59896 38 31 15 
-0.17373 -0.201574 1.43292 118 73 52 
0.226289 -0.164143 1.32976 104 92 50 
-0.74485 -0.171351 1.57346 49 44 25 
-0.148455 0.0194127 1.46089 73 47 30 
0.127418 0.0458194 1.33917 80 70 43 
0.269693 -0.108965 1.3068 17 23 0 
-0.767996 0.0561444 1.56394 47 39 16 
0.115942 -0.275858 1.37851 50 47 40 
-1.06354 0.259372 1.6324 66 58 22 
0.369251 -0.031049 1.2793 45 48 17 
-0.351813 -0.276073 1.47391 83 76 60 
0.533673 -0.157057 1.24208 92 81 17 
0.330676 -0.123651 1.28888 29 37 16 
-0.244734 -0.241035 1.45978 113 85 64 
-0.671711 -0.292132 1.55394 91 75 59 
0.14422 -0.232373 1.37222 31 27 26 
-0.829543 0.126583 1.57645 62 55 36 
-0.0152176 -0.181855 1.39182 80 79 25 
0.0838136 -0.186881 1.37014 102 70 55 
0.473469 0.0934106 1.25683 54 49 29 
0.340986 -0.150186 1.2936 73 72 15 
-0.845481 -0.114452 1.58075 51 45 29 
-0.0847096 -0.208679 1.42746 91 50 30 
-0.115773 -0.244425 1.4226 102 73 59 
-0.150378 0.169665 1.47347 75 53 39 
0.0421281 -0.278336 1.3804 122 85 66 
0.336854 0.0749494 1.28961 11 14 0 
0.289106 -0.117411 1.3008 9 17 0 
-0.212748 0.204157 1.43702 122 99 83 
0.259472 -0.0985901 1.30779 27 32 0 
0.360405 0.0341139 1.28013 49 53 20 
0.121564 -0.224416 1.37744 59 60 55 
-0.890799 -0.145693 1.59351 28 23 1 
-0.845863 0.288528 1.57758 16 20 0 
-0.758887 -0.0307806 1.56891 70 52 28 
-0.900054 0.283586 1.59679 21 25 0 
0.523965 0.146824 1.24626 57 60 29 
-0.917634 -0.175874 1.61409 69 57 41 
0.506653 -0.0160758 1.24732 35 34 6 
0.123046 -0.161536 1.35804 74 69 31 
-0.376749 -0.062198 1.47664 45 37 26 
0.391309 -0.0845813 1.25678 12 14 3 
0.373735 -0.111415 1.26775 40 46 20 
-0.256738 -0.00745469 1.44337 78 56 42 
0.355806 0.0198742 1.28148 38 44 16 
-0.699454 -0.310721 1.55935 83 70 51 
0.0851515 -0.260002 1.36969 124 86 67 
-0.804912 0.111199 1.57141 102 93 76 
-0.0719586 -0.285385 1.429 122 96 79 
-0.283577 -0.219497 1.46109 50 36 25 
0.267011 -0.0782736 1.30616 62 49 17 
-0.714102 -0.325187 1.56193 87 83 71 
-0.238739 -0.272514 1.45943 64 57 41 
0.0299096 -0.30923 1.38305 78 62 47 
0.165488 -0.204184 1.35713 100 71 57 
0.492702 -0.0240937 1.25273 63 64 30 
0.576143 0.126708 1.23161 73 60 44 
0.022669 -0.14991 1.37679 88 86 29 
-0.757172 -0.0481776 1.56799 68 51 31 
0.39488 0.236757 1.27382 50 45 13 
0.549827 0.162575 1.24486 79 69 42 
-0.368736 -0.264332 1.48077 45 37 24 
0.144103 -0.254884 1.37176 70 66 63 
-0.206793 -0.264657 1.46311 47 46 42 
-0.843865 -0.250518 1.59297 63 63 61 
-0.380853 0.1052 1.47194 92 72 61 
-0.125889 -0.145158 1.40705 82 72 19 
-0.075919 -0.148723 1.39187 65 64 18 
-0.804924 0.0390628 1.5743 79 69 44 
0.357696 -0.0412597 1.28383 20 26 0 
0.00611591 0.326333 1.30801 30 19 13 
0.507066 0.11168 1.24475 65 65 41 
0.499162 0.0369477 1.24725 44 47 18 
-0.0499208 -0.309759 1.42969 39 39 37 
0.559821 -0.0901242 1.23526 38 33 14 
0.340952 0.201321 1.28824 58 51 35 
0.316226 0.241854 1.29323 49 48 17 
-0.33965 -0.315201 1.47589 65 55 43 
-0.770894 -0.0780159 1.56299 61 48 31 
-0.196126 -0.373689 1.45568 51 50 48 
-0.176525 0.171815 1.45758 69 41 29 
-0.0868466 -0.17166 1.41041 90 76 50 
-0.355273 -0.140551 1.46127 48 40 3 
-0.776752 -0.125049 1.56124 46 41 22 
-0.376129 -0.138157 1.46853 69 58 40 
-0.232141 -0.32261 1.46456 45 45 43 
0.197506 -0.0290419 1.32203 50 44 18 
0.280225 -0.0877692 1.30429 22 27 0 
-0.422305 0.124718 1.43888 33 41 4 
0.106849 -0.266502 1.3744 110 79 59 
0.115444 -0.249595 1.37794 50 45 39 
0.28022 -0.13014 1.30323 16 19 0 
0.304092 -0.256638 1.31973 93 81 67 
-0.761354 0.266969 1.5592 39 34 12 
-0.162531 -0.034165 1.42412 59 42 32 
0.378218 -0.211066 1.30144 70 62 26 
-0.873141 0.27478 1.59198 30 20 8 
0.466108 0.0795704 1.25831 52 52 26 
0.373706 -0.0506989 1.27493 25 31 5 
-0.23275 -0.294708 1.47237 49 49 47 
-0.319829 -0.443276 1.46855 83 53 42 
-0.884718 -0.0427371 1.58975 59 50 35 
0.0073918 -0.326388 1.39456 118 92 77 
-0.835552 -0.151905 1.58127 59 47 25 
-1.01236 0.00871601 1.62242 81 72 57 
0.0378625 -0.145212 1.38367 66 68 18 
0.510339 0.0630302 1.2492 54 52 31 
0.446082 -0.0334155 1.25596 105 106 75 
0.321548 -0.0485432 1.29374 18 25 0 
0.324913 -0.07014 1.28883 47 51 18 
-0.873519 0.0849765 1.59474 40 33 15 
0.124751 -0.0449721 1.34049 58 49 20 
0.507369 0.225423 1.24678 57 49 30 
-0.197946 -0.409854 1.44815 39 39 37 
0.426087 -0.145354 1.27028 49 50 19 
0.499267 0.177365 1.24152 51 47 9 
-0.886242 -0.164626 1.60603 74 63 43 
-0.400618 -0.150418 1.47765 66 61 23 
0.150201 -0.280667 1.37123 65 65 63 
-0.756876 0.0439262 1.56793 56 44 20 
-0.810172 0.0604641 1.57192 84 72 46 
0.229085 -0.0329418 1.31512 49 40 9 
-0.0166474 -0.12021 1.37695 69 59 24 
0.236714 -0.214471 1.33379 58 44 31 
0.0129664 -0.0379594 1.44051 10 7 0 
-0.0624902 -0.192561 1.41816 85 68 48 
-0.87229 0.0426391 1.59983 34 28 14 
0.387338 -0.0552346 1.27023 25 27 16 
0.112768 0.220198 1.34886 99 84 65 
0.245869 -0.112072 1.31329 33 29 4 
-0.043169 -0.327114 1.42923 56 55 53 
0.10828 -0.0448024 1.34362 69 57 19 
-0.345339 -0.223655 1.47335 58 46 34 
0.107722 -0.238346 1.37555 109 82 63 
0.379471 0.0142052 1.27809 44 43 15 
0.370197 -0.110786 1.26088 39 48 17 
