ply                 
format ascii 1.0    
element vertex 1317
property float x    
property float y    
property float z    
property uchar red  
property uchar green
property uchar blue 
end_header          
1.65421 -0.796076 4.58388 224 150 147 
1.64156 -0.695558 4.27427 171 133 114 
1.65208 -0.710126 4.34631 124 85 70 
1.60139 -0.687185 4.28458 175 131 106 
74.5151 23.9569 -174.274 171 154 160 
2.13784 -1.12212 5.14391 16 0 0 
1.46055 -0.966765 5.13823 80 29 2 
1.48561 -0.916289 4.91949 79 6 0 
3.37394 0.853056 -4.21483 172 140 129 
1.87154 -0.352477 2.05197 46 4 0 
3.28482 0.815187 -4.02213 38 16 5 
2.41093 -0.947784 4.12471 136 122 119 
1.60374 -0.999229 5.27222 165 128 120 
1.58637 -1.05517 5.61295 167 130 121 
1.60225 -0.983777 5.25414 36 1 0 
2.01313 -0.953639 4.66125 13 2 0 
1.54241 -0.845336 4.68514 82 0 0 
1.71156 -0.691457 4.28187 85 40 9 
1.86576 -0.367815 2.06012 97 59 0 
1.70883 -0.724772 4.45498 79 30 0 
1.56636 -0.807253 4.55717 20 8 0 
1.88041 -0.388878 2.16522 102 65 0 
1.62097 -0.712611 4.44823 76 40 16 
2.31483 -1.05279 5.54953 21 6 3 
1.6898 -0.749284 4.5004 76 31 8 
1.61507 -0.620826 3.822 46 0 0 
1.56966 -0.692833 4.30742 50 0 0 
1.66589 -0.829146 4.62481 222 151 149 
1.59577 -0.676277 4.17033 37 0 0 
1.55484 -0.79757 4.59708 145 104 100 
1.60523 -0.863871 4.90216 191 132 116 
1.66134 -0.763408 4.55638 176 140 114 
1.64873 -0.801885 4.79267 57 20 0 
1.56995 -0.757575 4.37702 46 2 0 
1.68221 -0.742537 4.36903 198 153 130 
1.59655 -0.738123 4.43319 184 106 102 
1.63172 -0.8339 4.74473 213 160 154 
1.68521 -0.888866 4.98722 211 151 140 
1.66069 -0.763482 4.49717 177 139 120 
1.65704 -0.714874 4.22348 92 46 30 
1.61428 -0.816086 4.67348 218 135 143 
1.68769 -0.756061 4.39369 71 23 3 
1.67775 -0.780084 4.54803 187 139 116 
1.60413 -0.696963 4.15621 234 154 155 
1.61948 -0.767594 4.51571 64 5 0 
1.67656 -0.885406 5.00216 85 10 5 
1.65982 -0.770218 4.44032 185 108 100 
1.6599 -0.812159 4.64472 83 11 14 
1.58216 -0.772374 4.51973 239 150 152 
1.69782 -0.845494 4.81663 193 119 116 
2.13176 0.0532537 -0.733318 54 22 0 
1.60874 -0.807794 4.69507 57 6 0 
2.32954 -1.12691 5.80225 117 110 102 
1.60031 -0.794001 4.5289 60 13 3 
3.39323 0.509229 -4.55122 36 19 9 
1.67465 -0.941125 5.14081 196 148 144 
2.10781 0.0213253 -0.639291 131 118 110 
1.60242 -1.00978 5.41469 115 84 79 
1.71335 -0.148924 0.938645 129 119 109 
1.6909 -0.183355 1.19797 38 25 17 
1.86702 -0.344509 2.02132 157 118 63 
2.09365 -1.05558 4.86481 30 19 1 
2.11538 -1.1276 5.19345 18 7 0 
2.74405 0.31568 -2.74092 78 59 45 
1.69243 -0.179307 1.17876 129 120 111 
1.67913 -0.198882 1.34504 98 80 66 
1.75606 -0.11392 0.665855 114 100 87 
2.2905 0.112379 -0.944012 228 195 150 
1.57675 -0.770021 4.381 34 14 7 
25.5125 7.74707 -56.792 168 154 145 
-67.717 -22.9353 165.764 152 136 123 
49.9243 15.9088 -114.367 56 34 21 
1.69431 -0.178827 1.16803 127 118 109 
2.8762 0.320935 -3.00831 48 38 29 
2.23166 0.0438276 -0.959534 47 34 25 
1.6824 -0.197251 1.26864 138 128 116 
2.18478 0.0294229 -0.800202 130 117 108 
1.68 -0.889135 5.05571 209 149 139 
2.12131 0.028203 -0.674286 27 15 3 
2.25564 0.0363224 -1.02868 62 45 37 
3.44558 0.810163 -4.42494 70 53 37 
2.1455 0.0188549 -0.686737 121 108 99 
1.78288 -0.0983524 0.521029 98 89 82 
2.31107 0.128596 -1.00833 112 60 2 
17.4483 5.14873 -37.5788 61 43 43 
1.72223 -0.782881 4.78488 104 67 41 
2.2649 0.0447773 -1.0425 145 132 126 
1.54048 -0.961825 5.16197 204 141 124 
1.64078 -0.720684 4.41021 50 8 0 
1.57738 -0.765285 4.46767 67 3 4 
1.66314 -0.792825 4.69613 193 148 129 
1.65163 -0.737615 4.36264 70 24 9 
1.59809 -0.730518 4.38344 184 106 102 
1.68579 -0.775606 4.54001 73 27 4 
1.61647 -0.7523 4.45828 218 138 139 
1.59482 -0.725019 4.32697 157 62 70 
1.62115 -0.699999 4.1364 219 172 156 
2.36696 -1.2342 6.40882 10 0 0 
1.64669 -0.730156 4.35609 205 157 135 
1.64486 -0.735988 4.28953 234 152 158 
1.58435 -0.706262 4.19678 109 0 1 
2.27205 -1.04051 5.40508 129 119 109 
1.62702 -0.70783 4.25841 61 17 4 
1.66554 -0.755166 4.48543 59 18 0 
1.69763 -0.838752 4.78268 208 144 135 
1.6754 -0.76579 4.38808 218 165 147 
1.65035 -0.794612 4.56626 56 0 0 
1.67063 -0.874834 4.98084 213 138 135 
1.66158 -0.809821 4.62611 93 0 8 
1.62291 -0.754154 4.36705 64 9 0 
1.60932 -0.741508 4.30019 224 164 154 
1.54009 -0.709726 4.19936 201 83 99 
1.629 -0.764011 4.39458 224 170 160 
1.634 -0.90762 5.15823 44 11 6 
1.63522 -0.773837 4.42152 221 128 136 
1.57991 -0.769468 4.45817 192 148 137 
3.61785 0.954111 -4.90975 100 79 62 
1.63805 -0.717225 4.33259 185 143 119 
1.68437 -0.892437 5.00511 211 151 140 
1.52504 -0.686557 4.29749 121 62 32 
1.57214 -0.686248 4.25133 49 0 0 
1.57127 -0.753187 4.36093 47 0 0 
3.16061 0.71085 -3.7172 171 157 148 
1.6225 -0.693252 4.24316 65 20 0 
1.62159 -0.75293 4.60633 191 150 132 
3.46393 0.843939 -4.50011 132 119 113 
1.61526 -0.817821 4.63276 194 148 125 
1.5749 -0.759756 4.3452 30 8 0 
1.63444 -0.836903 4.6768 181 142 137 
1.59811 -0.800461 4.51627 184 152 129 
1.60617 -0.674564 4.1994 194 150 125 
1.66359 -0.744671 4.54763 188 148 123 
1.62387 -0.892212 4.95522 36 0 0 
1.56107 -0.825845 4.6633 24 10 0 
1.63826 -0.843112 4.66541 37 3 4 
1.59498 -0.928291 5.12822 51 20 0 
2.98147 0.411415 -3.47906 17 0 0 
1.62544 -0.649672 4.06223 193 155 136 
1.62456 -0.703409 4.38685 83 47 23 
2.90633 0.383824 -3.21536 193 177 161 
1.60202 -0.883286 4.78107 27 7 0 
1.48685 -0.896947 4.9673 236 154 140 
1.59637 -1.01837 5.43862 36 1 0 
1.58996 -1.00778 5.38093 192 158 149 
1.432 -1.06032 5.70237 90 2 0 
1.70651 -0.739092 4.54575 84 35 3 
2.15409 -1.17138 5.36902 27 10 3 
2.11663 -1.10921 5.10607 122 106 91 
1.67868 -0.200764 1.32224 30 14 1 
31.2506 9.65148 -70.6454 156 140 125 
1.86337 -0.343661 2.00473 45 5 0 
1.68901 -0.183856 1.21235 10 1 0 
2.05992 0.0131251 -0.487722 71 50 31 
1.57512 -0.769879 4.40414 159 141 127 
3.36493 0.88806 -4.20156 132 21 4 
2.6446 0.220827 -2.31967 115 104 98 
3.57419 1.00392 -4.77295 200 118 94 
-27.901 -9.84145 71.0723 175 159 143 
1.67024 -0.703303 4.26133 79 37 21 
3.19344 0.434056 -3.92516 25 8 0 
2.03775 0.00408754 -0.413437 117 101 86 
1.67324 -0.947556 5.1731 177 153 143 
2.30529 0.118572 -0.98572 238 206 165 
2.99962 0.421009 -3.56845 32 18 7 
1.61975 -0.965935 5.28536 183 154 136 
2.133 0.0325389 -0.714181 30 18 6 
1.60003 -0.868322 4.72096 9 2 0 
1.83436 -0.334623 2.05065 227 195 52 
1.83282 -0.322731 1.97426 148 117 0 
1.67553 -0.200234 1.37171 48 34 23 
1.61824 -0.962247 5.06379 38 20 18 
2.09878 0.017817 -0.605037 117 104 96 
1.59076 -1.00492 5.36316 192 158 149 
1.59646 -1.0131 5.37151 55 21 12 
1.49079 -0.888106 4.91523 236 154 140 
1.52355 -0.934624 5.13442 122 81 61 
1.47083 -0.966408 5.21656 233 147 134 
2.42883 -0.973448 4.22648 136 123 117 
1.6628 -0.747339 4.5722 198 157 135 
1.52024 -0.905352 5.01898 142 61 60 
3.07044 0.454122 -3.76103 193 177 161 
1.56562 -0.772233 4.29568 75 0 0 
1.59016 -0.897712 4.92675 182 151 123 
2.06126 -0.952259 4.38718 122 106 91 
3.2943 0.821776 -4.05104 38 16 5 
2.1137 0.0326954 -0.661435 151 135 119 
2.89864 0.377173 -3.2052 25 9 0 
1.61666 -0.847412 4.65549 191 160 139 
1.62658 -0.705459 4.29335 63 20 1 
3.5891 0.937754 -4.83084 15 0 0 
1.60918 -0.833131 4.60209 185 150 122 
1.56769 -0.776465 4.36951 25 2 0 
1.64326 -0.792663 4.76146 183 143 118 
1.64661 -0.802166 4.43148 38 8 0 
1.57273 -0.786314 4.43782 20 8 0 
1.62538 -0.859616 4.76911 191 156 152 
3.39749 0.807109 -4.29742 122 109 101 
1.65042 -0.732279 4.38742 82 39 20 
1.6648 -0.988941 5.4732 221 154 148 
2.98577 0.40898 -3.58516 112 95 79 
1.58324 -0.728307 4.16345 32 12 1 
1.60424 -0.827161 4.69421 177 143 115 
1.61068 -0.83725 4.74079 194 148 125 
1.65657 -0.680986 4.06974 198 152 129 
2.28752 -1.06804 5.54349 124 114 104 
1.70607 -0.155037 1.02825 160 147 139 
1.59338 -0.809468 4.63604 199 138 133 
1.68772 -0.715995 4.2248 59 13 0 
1.5651 -0.773149 4.47958 47 0 0 
1.6889 -0.853888 4.78879 211 151 140 
1.67317 -0.89862 5.07462 79 0 0 
1.62773 -0.770219 4.43052 232 164 163 
1.67788 -0.829697 4.71342 232 157 154 
1.70003 -0.846078 4.79492 90 0 0 
1.59496 -0.738714 4.32106 199 143 130 
1.63889 -0.786781 4.55568 76 0 0 
1.68411 -0.778104 4.52055 71 23 3 
1.66376 -0.752543 4.39024 223 143 142 
1.61528 -0.761766 4.50045 224 160 151 
1.60084 -0.738235 4.37444 91 16 20 
1.58171 -0.715164 4.24084 110 0 3 
1.62065 -0.696472 4.34547 172 136 112 
1.71317 -0.688494 4.22713 129 80 48 
2.08116 -1.11011 5.11678 17 2 0 
2.17275 -1.34887 6.10709 107 99 88 
2.97493 0.416631 -3.51795 77 58 44 
1.53432 -0.634948 3.94649 85 53 30 
2.84017 0.387093 -2.96296 199 181 161 
1.83554 -0.321367 1.987 118 83 0 
3.96806 1.23605 -5.92305 92 16 3 
1.63903 -0.867094 4.74975 160 133 112 
1.56127 -0.763529 4.33073 152 117 115 
1.56088 -0.763225 4.36273 150 121 115 
20.5916 6.19345 -45.1654 68 50 48 
2.08723 0.0338644 -0.571235 57 25 0 
1.70924 -0.155798 1.0004 73 64 57 
2.14133 0.0529544 -0.764519 150 117 86 
2.05243 0.0100489 -0.460963 42 21 4 
2.28344 -1.29985 5.79945 117 102 81 
1.62993 -0.665058 4.11107 64 22 0 
3.42657 0.797286 -4.36507 123 106 90 
1.65706 -0.791792 4.55648 204 144 133 
1.63937 -0.779213 4.50194 148 84 75 
1.57726 -0.794542 4.66024 234 166 157 
1.5316 -0.718986 4.29203 94 0 0 
1.63004 -0.765363 4.451 65 10 3 
1.64713 -0.777732 4.4766 191 143 123 
1.69523 -0.828457 4.73448 206 150 137 
1.64675 -0.883303 5.03995 56 0 0 
1.59249 -0.716453 4.17975 95 19 23 
1.63981 -0.874218 4.98265 162 114 102 
1.68116 -0.825176 4.65206 109 30 26 
3.3704 0.84999 -4.18875 157 134 118 
1.60842 -0.74281 4.38788 189 146 127 
1.67061 -0.741148 4.31766 187 132 112 
1.65268 -0.891372 4.99702 236 159 153 
1.67724 -0.817049 4.76299 77 28 11 
3.37781 0.844295 -4.20872 20 2 0 
1.54033 -0.850823 4.89487 59 35 25 
2.76974 0.31717 -2.84947 169 153 137 
3.23655 0.779397 -3.89636 160 147 131 
3.55362 0.932823 -4.73158 177 161 148 
3.40425 0.831695 -4.27854 15 0 0 
3.22887 0.770039 -3.9051 39 26 20 
1.5914 -0.715068 4.32319 89 3 6 
1.63526 -0.690176 4.12813 192 133 127 
1.6828 -0.746151 4.40834 66 20 0 
1.58601 -0.925834 5.11474 184 150 125 
3.22047 0.746112 -3.89773 70 56 53 
1.64921 -0.709994 4.25126 185 140 117 
1.58395 -0.922174 5.06701 187 152 124 
2.85004 0.359405 -3.03083 189 173 157 
3.37454 0.827505 -4.38003 10 0 0 
2.85662 0.364689 -3.04108 136 120 104 
1.60428 -0.932791 5.04456 36 5 0 
3.3797 0.791681 -4.25326 10 0 0 
1.4811 -0.902501 5.01929 105 0 0 
1.59018 -0.636439 3.9379 52 2 0 
1.66092 -0.714877 4.38696 36 0 0 
58.3299 18.7683 -135.103 33 10 16 
1.70438 -0.156184 1.03887 165 151 142 
2.07595 0.0193164 -0.545303 73 54 39 
3.09119 0.405878 -3.62248 39 24 17 
2.01807 -0.925001 4.69823 35 23 11 
2.09963 0.0336728 -0.620811 226 185 133 
3.39027 0.882178 -4.21691 112 6 8 
1.56485 -0.769757 4.46722 99 11 25 
85.9926 28.0546 -204.089 68 50 48 
3.40428 0.515643 -4.59261 39 22 12 
1.56172 -0.761012 4.31571 152 117 115 
1.53753 -0.623375 3.86819 92 64 42 
1.66266 -0.995938 5.44089 169 145 133 
2.26569 -1.02828 5.3422 121 108 100 
1.48879 -0.717388 4.5062 207 182 162 
1.60857 -0.939463 5.07392 168 145 131 
1.58813 -0.928178 5.0323 11 5 0 
1.5838 -1.03272 5.51843 188 151 145 
1.5909 -1.0427 5.52795 55 21 12 
1.52788 -0.993972 5.33842 190 149 121 
2.23315 -1.253 5.69686 37 24 7 
2.2326 0.095412 -1.08951 122 108 97 
1.52822 -0.993491 5.30427 92 0 0 
1.83433 -0.310119 1.92424 139 109 0 
1.7115 -0.151503 0.982093 26 11 4 
1.64681 -0.855451 4.91249 185 137 123 
1.62414 -0.822908 4.76065 71 0 0 
1.67123 -0.887033 5.03725 227 153 150 
1.67487 -0.893057 4.95185 213 159 149 
1.67143 -0.787088 4.41603 200 149 132 
1.6148 -0.80778 4.65279 211 155 140 
1.60131 -0.690865 4.03216 97 10 18 
1.59331 -0.793184 4.62606 228 154 153 
1.65756 -0.869698 4.9779 211 148 133 
1.58266 -0.775272 4.55774 226 162 152 
1.61018 -0.705838 4.16629 109 26 36 
1.62402 -0.728075 4.2733 186 135 116 
1.60805 -0.66358 3.99048 106 1 15 
3.00747 0.429243 -3.55636 197 181 165 
1.61151 -0.707651 4.35932 182 136 113 
2.08851 0.0222717 -0.589833 12 0 0 
3.32178 0.842457 -4.11484 161 129 114 
3.30532 0.826552 -4.08464 28 8 0 
3.28898 0.810798 -4.05454 77 63 54 
1.65087 -0.753245 4.49254 184 143 121 
3.43583 0.849033 -4.37272 15 0 0 
3.25933 0.787142 -3.99719 39 26 20 
1.63866 -0.581384 3.49372 95 0 0 
3.42067 0.821273 -4.35987 157 145 133 
1.59309 -0.687665 4.10985 202 145 118 
3.24895 0.754885 -3.99071 10 0 0 
2.23208 -1.23266 5.57114 125 116 101 
1.4844 -0.930654 5.03208 222 151 133 
1.59583 -0.796592 4.55468 184 133 116 
2.92535 0.386958 -3.37423 120 103 87 
3.33367 0.490597 -4.372 43 26 16 
2.72968 0.300307 -2.71618 168 152 136 
1.66022 -1.00032 5.46714 173 147 134 
1.57025 -0.769041 4.42869 134 105 97 
1.61643 -0.939694 5.1794 58 26 29 
1.54022 -0.863088 4.83125 187 142 139 
1.60488 -0.698303 4.0235 164 140 114 
1.61681 -0.944999 5.36618 50 17 10 
1.5862 -0.917665 5.03466 169 135 107 
1.53663 -0.855008 4.7585 132 6 28 
1.59117 -0.925002 5.01234 19 5 0 
1.47938 -0.928382 5.13456 185 134 107 
350.146 116.275 -835.352 33 10 16 
2.42497 -0.971408 4.21128 142 128 117 
1.56702 -0.74613 4.43242 139 16 36 
8.78065 1.69276 -15.2939 121 116 110 
1.63905 -0.576702 3.58977 52 5 0 
1.60338 -0.694856 4.31237 173 129 100 
1.698 -0.80356 4.60144 179 131 111 
1.58271 -0.655893 4.06075 49 0 0 
1.62055 -0.707457 4.30242 68 23 4 
2.17753 -1.13797 5.13427 140 128 112 
1.65574 -0.671812 4.0302 175 130 107 
1.51497 -0.674259 4.19364 92 64 42 
1.63945 -0.737044 4.39677 168 123 100 
1.6822 -0.7947 4.63489 63 16 0 
1.66423 -0.861018 5.04789 205 160 139 
2.10479 0.0347551 -0.631002 69 43 28 
1.5946 -0.757595 4.77876 123 85 64 
3.38165 0.891024 -4.22688 142 18 8 
1.66815 -1.01098 5.27902 70 59 39 
2.23696 0.0316709 -0.96722 38 21 14 
1.70677 -0.158216 1.01 17 4 0 
3.284 0.808384 -4.04025 77 63 54 
1.65857 -0.981145 5.48165 179 127 114 
1.60163 -0.775241 4.72041 59 14 0 
1.66473 -0.864624 4.78582 105 4 10 
1.57566 -0.746105 4.2879 145 121 111 
1.61579 -0.794081 4.48745 174 141 108 
3.34377 0.851983 -4.08168 118 12 14 
2.80641 0.335016 -2.97474 188 171 155 
3.33089 0.815907 -4.07028 14 0 0 
3.34154 0.807966 -4.09902 174 160 149 
3.19814 0.750411 -3.80092 18 7 1 
3.35342 0.800556 -4.13138 14 0 0 
1.68608 -0.873426 4.79601 122 11 28 
3.30355 0.753844 -4.04846 11 3 1 
3.20098 0.505361 -4.21927 31 14 4 
1.58446 -0.762229 4.40339 181 145 129 
1.62962 -0.81504 4.64558 225 157 154 
1.86383 -0.374733 2.09318 107 65 7 
1.66135 -0.718185 4.40083 37 0 0 
1.64258 -0.707297 4.33005 50 8 0 
1.61066 -0.78549 4.52815 216 146 134 
1.53667 -0.843154 4.69335 118 0 12 
2.31815 -1.07578 5.66102 18 6 6 
1.61593 -0.793996 4.56829 199 143 126 
1.60255 -0.657636 4.04211 59 11 0 
1.60496 -0.931403 5.05994 52 20 21 
1.55737 -0.881312 5.37354 186 129 112 
1.59593 -0.916824 4.99504 161 125 99 
1.67885 -0.663726 3.92715 58 15 0 
1.50065 -0.703815 4.37946 94 66 44 
1.64965 -0.719414 4.26796 85 38 20 
1.53956 -0.847945 4.67441 184 139 118 
1.60116 -0.656231 3.92421 184 127 98 
1.62147 -0.802763 4.67344 65 10 3 
1.51547 -0.829703 4.57942 185 134 107 
2.27288 -1.30475 5.91858 19 4 0 
1.56789 -0.732562 4.3402 179 53 77 
3.26842 0.4313 -4.18767 25 12 6 
1.60041 -0.768486 4.48834 194 142 129 
1.58142 -1.09199 5.79455 55 21 12 
1.67425 -0.863692 4.70223 78 77 72 
3.31714 0.816524 -4.07458 33 5 4 
1.51042 -0.849286 4.67772 191 135 112 
3.29162 0.822247 -4.01688 187 134 126 
1.59451 -0.972413 5.53762 94 0 2 
3.23173 0.740883 -3.91788 12 4 2 
2.29126 -1.03762 5.43659 26 14 18 
1.6219 -0.659551 4.02887 182 134 111 
1.6093 -0.637864 3.91911 47 0 0 
2.09449 0.0275769 -0.595997 173 149 123 
1.6164 -0.65 4.04984 202 156 140 
1.61451 -0.648262 3.88464 124 13 30 
1.60759 -0.635714 3.80123 190 130 104 
1.64471 -0.819213 4.75299 78 10 1 
1.63775 -0.688578 4.01688 194 152 128 
2.93808 0.313721 -3.1461 33 19 16 
1.69017 -0.879605 4.9771 80 4 8 
1.62981 -0.822202 4.72316 192 140 129 
1.58903 -0.757297 4.34533 86 84 69 
1.62237 -0.812699 4.57971 56 15 9 
1.61268 -0.797808 4.51142 180 146 118 
19.8324 5.873 -42.6329 28 9 13 
1.61243 -0.798547 4.4446 54 19 13 
2.80889 0.342875 -2.9422 74 56 44 
2.85635 0.365734 -3.0515 189 172 154 
1.52951 -0.89044 4.89063 180 134 111 
1.57382 -0.754254 4.2679 32 18 7 
2.40297 -1.6934 7.54951 15 2 0 
3.25027 0.781898 -3.89188 26 0 0 
3.28972 0.835398 -3.95893 129 5 0 
1.59451 -0.647649 3.81901 150 24 48 
3.45778 0.902763 -4.42366 157 130 113 
1.65564 -0.727807 4.17232 216 157 143 
2.98422 0.330918 -3.30239 28 17 15 
1.68338 -0.942198 5.32429 80 4 8 
1.59953 -0.656314 3.93734 187 132 102 
1.68985 -0.776973 4.34398 204 155 141 
3.33899 0.773637 -4.09875 159 142 124 
1.59433 -1.09301 6.14907 47 17 17 
1.60174 -0.659708 4.06195 59 11 0 
3.31831 0.492503 -4.33736 47 33 24 
1.64126 -0.887316 4.88034 165 128 99 
1.60525 -0.868866 4.7511 172 138 103 
-45.0279 -15.6791 112.43 84 62 51 
2.77231 0.329947 -2.7729 189 172 154 
1.87917 -0.382572 2.2449 38 0 0 
1.67083 -0.207515 1.38058 84 70 61 
1.66449 -0.919565 5.02295 162 142 131 
1.64578 -0.689215 4.21343 52 10 0 
1.65798 -0.911207 5.22013 62 0 0 
1.65737 -0.830219 4.86532 204 141 132 
2.07091 -1.10378 4.78099 54 37 21 
1.6245 -0.83011 4.85569 238 153 158 
1.62305 -0.908486 4.87151 108 74 73 
1.6809 -0.862981 4.87761 86 16 8 
1.67464 -0.836215 4.87482 79 21 7 
1.66325 -0.849221 4.87207 213 153 145 
1.64707 -0.85225 4.86764 169 119 108 
0.577044 -0.802104 3.91838 87 68 51 
1.67311 -0.872086 4.88007 219 150 143 
1.65696 -0.864449 4.86314 220 150 152 
0.578376 -0.563959 4.20107 176 153 135 
2.05676 -1.04478 4.78457 57 39 17 
0.578981 -0.811676 3.90747 152 127 105 
0.587476 -0.830386 3.8813 131 11 10 
1.65883 -0.85081 4.91035 213 161 147 
1.68034 -0.872421 4.92756 83 25 11 
1.67378 -0.862931 4.92079 232 158 155 
1.61272 -0.828344 4.87863 227 158 153 
1.55208 -0.809036 4.84693 219 152 133 
2.20725 -1.01424 4.98451 96 88 77 
2.13696 -1.06289 4.84529 112 93 89 
1.6527 -0.791198 4.85878 186 138 115 
2.05418 -1.07526 4.73808 32 23 6 
2.05301 -1.06537 4.73537 35 29 7 
2.07815 -0.991336 4.79519 34 19 0 
1.69824 -0.781195 4.87545 124 75 43 
2.1699 -1.09144 4.87701 47 37 12 
2.18884 -1.08562 4.91165 43 25 15 
2.07329 -1.05195 4.77314 100 86 73 
1.59331 -0.774838 4.86692 169 124 103 
1.56101 -0.773001 4.82819 198 150 127 
1.60255 -0.811179 4.87835 208 143 141 
1.6456 -0.817195 4.88422 106 61 42 
1.56854 -0.808758 4.8555 136 42 43 
1.60395 -0.9072 4.93475 177 141 119 
1.62918 -0.888956 4.91824 55 18 2 
1.5874 -0.877127 4.89117 152 124 113 
1.65068 -0.885111 4.92823 94 19 13 
1.67839 -0.886706 4.94392 94 38 23 
1.6016 -0.872818 4.90566 206 169 151 
1.59881 -0.822464 4.874 191 117 118 
1.67934 -0.873232 4.94045 96 29 20 
1.63573 -0.856239 4.89906 185 137 127 
1.63588 -0.841445 4.88914 214 153 148 
2.09877 -1.04525 4.80695 38 20 8 
1.60703 -0.89747 4.92444 176 141 113 
1.66163 -0.85761 4.92902 219 167 153 
1.56526 -0.825631 4.85405 231 150 149 
1.66851 -0.833185 4.89562 185 136 119 
2.19496 -1.10617 4.90122 28 12 0 
1.54108 -0.865534 4.86345 49 25 15 
1.68738 -0.902789 4.95376 99 8 23 
1.62933 -0.81598 4.88037 128 75 59 
1.67547 -0.905462 4.95168 190 151 144 
1.52999 -0.893318 4.91823 199 143 126 
1.60651 -0.796061 4.86223 169 125 112 
1.5397 -0.896343 4.90719 118 73 52 
2.19611 -1.11698 4.90305 121 108 102 
2.18631 -1.11676 4.8858 51 40 36 
1.63953 -0.838856 4.8791 89 14 11 
1.59642 -0.911238 4.9158 48 44 32 
1.58743 -0.826797 4.91689 177 91 94 
1.59591 -0.912995 4.92785 82 86 71 
1.57511 -0.764472 4.80605 72 24 2 
1.62473 -0.905078 4.9499 58 25 20 
1.62209 -0.933442 4.95242 55 20 14 
1.59879 -0.885286 4.91778 67 32 13 
1.53379 -0.852184 5.34739 196 147 117 
1.56147 -0.813303 4.75765 82 4 4 
1.55053 -0.81152 4.64447 44 17 10 
1.65621 -0.80921 4.59091 172 137 118 
1.63956 -0.814509 4.54141 186 146 134 
1.62286 -0.80898 4.44372 106 65 43 
1.6203 -0.810866 4.3802 72 35 29 
1.56113 -0.794918 4.4184 65 5 4 
1.66499 -0.804282 4.46595 91 8 4 
1.68286 -0.796608 4.41601 232 143 145 
1.67027 -0.807517 4.49906 219 140 136 
1.69588 -0.799666 4.45537 201 119 121 
1.60276 -0.823086 4.67156 199 162 144 
1.63885 -0.81447 4.6058 49 0 0 
1.66891 -0.818475 4.68484 212 156 141 
1.55385 -0.805527 4.65418 67 9 7 
1.57978 -0.834367 5.15888 73 27 4 
1.58427 -0.849872 5.2307 68 25 6 
1.55719 -0.815653 4.9852 99 29 19 
1.57603 -0.8487 5.16398 68 15 1 
1.5722 -0.810999 4.75003 248 162 163 
1.60898 -0.832226 5.01355 179 132 112 
1.66111 -0.83618 4.96797 75 24 5 
1.63868 -0.83669 4.9507 68 21 3 
1.62291 -0.842005 5.09438 71 26 5 
1.65371 -0.804869 4.47491 51 18 3 
2.10874 -1.27268 5.63939 126 116 104 
2.11293 -1.28386 5.72002 12 1 0 
1.56499 -0.803963 4.50264 40 17 9 
2.17157 -1.03155 4.58615 37 24 8 
2.14205 -1.15569 5.20566 20 7 0 
1.65012 -0.815974 4.44392 181 160 143 
1.64645 -0.801064 4.27952 129 94 90 
2.1674 -1.07463 4.90751 22 5 0 
2.16886 -1.02717 4.68864 29 12 0 
2.14662 -1.19664 5.51909 23 6 0 
2.15167 -1.1724 5.40012 33 15 5 
2.1173 -1.26539 5.85986 24 9 0 
2.12871 -1.17243 5.41317 38 24 11 
2.13006 -1.14744 5.5934 128 116 100 
1.60158 -0.797015 4.53946 64 19 0 
2.13609 -1.18401 5.74114 20 7 0 
1.6443 -0.827875 5.09557 191 145 121 
1.5033 -0.798324 4.74025 191 66 82 
1.56784 -0.860609 5.42384 197 152 133 
2.16888 -1.10447 4.9323 96 83 64 
2.1557 -1.14114 5.13422 11 0 0 
1.56801 -0.797951 4.36834 78 45 30 
2.16836 -1.10333 4.75981 117 103 94 
2.15142 -1.14141 5.23168 21 2 0 
2.16506 -1.11847 5.12689 32 14 0 
2.13611 -1.18289 5.45894 115 99 86 
1.65272 -0.780981 4.08616 147 117 107 
1.65348 -0.793773 4.14854 52 25 18 
2.11089 -1.17887 5.35783 17 4 0 
2.12011 -1.16257 5.78716 99 85 76 
2.16501 -1.06496 4.66648 41 32 15 
1.58768 -0.82561 4.73442 152 85 76 
1.58146 -0.835254 4.95499 219 171 149 
1.56375 -0.788775 4.49936 40 11 7 
1.58568 -0.844623 5.19085 68 25 6 
1.56397 -0.823313 4.94675 174 85 89 
1.65188 -0.826469 4.87317 72 21 4 
1.61537 -0.822947 4.80809 66 0 0 
1.63756 -0.796883 4.60946 97 12 9 
1.57184 -0.798519 4.62572 181 141 129 
1.55234 -0.807854 4.67915 67 9 7 
1.62748 -0.809831 4.6199 221 126 132 
1.62066 -0.794801 4.45131 185 145 135 
1.69165 -0.802736 4.4241 242 152 154 
1.55901 -0.790492 4.47213 32 1 0 
1.59837 -0.768667 4.07069 99 11 0 
1.69807 -0.80147 4.48705 211 133 133 
2.14334 -1.16592 5.35626 111 94 87 
2.16082 -1.05515 4.81169 33 17 2 
2.16217 -1.09558 5.00538 16 0 0 
2.15713 -1.08347 4.92693 119 102 95 
1.65021 -0.826854 4.93195 71 28 9 
1.64617 -0.830609 4.98548 167 125 103 
2.16683 -1.03802 4.65844 116 102 89 
1.65484 -0.790028 4.39858 34 4 0 
1.57 -0.783935 4.38653 32 3 0 
2.13145 -1.20592 5.47541 11 0 0 
1.66706 -0.794209 4.40482 94 21 14 
2.14454 -1.15061 5.29159 52 34 24 
2.13234 -1.19669 5.52952 32 18 5 
1.62756 -0.788036 4.2414 28 4 0 
1.58046 -0.825708 5.00176 205 149 134 
1.53614 -0.845189 5.30052 196 147 117 
1.64333 -0.780102 4.13065 183 151 136 
2.09931 -1.23816 6.45586 15 4 0 
1.54926 -0.808999 4.73258 125 0 16 
2.12924 -1.1456 5.58233 128 116 100 
2.16302 -1.0889 4.69394 112 98 85 
1.65593 -0.785152 4.10875 45 16 12 
1.55009 -0.850547 5.38204 61 15 0 
2.11455 -1.29131 5.75392 12 1 0 
2.09944 -1.30197 6.50478 31 18 10 
1.69573 -0.792783 4.3035 179 157 144 
1.65131 -0.815035 4.51137 179 141 118 
1.62816 -0.807013 4.417 184 147 128 
1.57465 -0.833482 5.07264 192 135 116 
2.16492 -1.17124 5.34979 23 8 1 
1.6336 -0.858975 5.1678 70 28 6 
1.61837 -0.856827 5.16148 76 31 10 
1.50601 -0.854953 5.34446 60 3 0 
1.53425 -0.849681 5.28336 53 0 0 
1.64387 -0.852698 5.10186 83 38 17 
1.60054 -0.813592 4.68862 239 164 159 
1.65574 -0.833744 4.75942 86 5 4 
1.58374 -0.822845 4.89171 222 170 149 
1.6979 -0.804832 4.51422 192 118 115 
1.65808 -0.815293 4.75845 200 140 129 
1.64379 -0.797809 4.19475 45 11 0 
1.56787 -0.808433 4.6825 181 141 129 
2.13591 -1.20049 5.43469 124 113 95 
2.16058 -1.09789 4.94462 121 107 96 
1.56479 -0.78193 4.31066 96 15 12 
1.69843 -0.815645 4.45111 104 17 26 
1.61451 -0.80831 4.4115 181 139 114 
1.69632 -0.788649 4.28123 179 157 144 
1.62743 -0.813833 4.53333 141 98 89 
2.18341 -1.08647 4.76227 127 120 114 
2.10474 -1.36731 6.70463 33 19 6 
2.12906 -1.15178 5.62118 128 116 100 
2.1206 -1.27336 5.89148 32 17 0 
2.15954 -1.13622 5.16732 136 121 116 
2.15478 -1.18252 5.44272 62 44 34 
2.12631 -1.11573 5.12749 36 19 9 
2.13537 -1.20905 5.5823 20 6 0 
2.123 -1.33537 5.93006 116 107 90 
2.1135 -1.28758 5.74232 12 1 0 
1.54064 -0.832681 5.015 192 137 107 
1.56373 -0.853046 5.29412 188 138 113 
1.63524 -0.818336 4.90573 181 136 115 
2.16503 -1.03567 4.53915 131 123 112 
2.12982 -1.20868 5.48617 10 0 0 
1.55613 -0.826476 4.84392 82 4 4 
2.17021 -1.04703 4.76212 20 4 0 
2.1626 -1.10645 5.06257 28 10 0 
1.6627 -0.800136 4.54825 79 4 0 
1.68476 -0.804017 4.5277 83 0 0 
1.59827 -0.790402 4.45183 165 145 120 
1.56447 -0.795467 4.45982 32 3 0 
1.69633 -0.786023 4.35317 73 0 0 
1.61258 -0.806268 4.46496 46 8 0 
1.70174 -0.791365 4.32009 107 9 22 
2.09752 -1.24833 6.39161 28 18 8 
1.62001 -0.80552 4.34412 44 26 22 
1.63737 -0.81146 4.35271 92 60 49 
1.5912 -0.775056 4.13865 196 149 123 
1.64871 -0.810581 4.25397 43 17 16 
1.58775 -0.7873 4.17679 103 11 0 
1.71158 -0.801881 4.15061 111 62 32 
1.54127 -0.873924 5.31713 117 1 10 
1.62264 -0.83688 4.89511 241 170 164 
1.68027 -0.778062 4.45426 70 6 0 
1.70223 -0.814736 4.60117 115 15 23 
1.68458 -0.805101 4.55776 239 154 149 
1.61429 -0.808058 4.55005 179 143 119 
1.65315 -0.821708 4.54136 179 134 105 
1.61274 -0.812111 4.49993 55 17 6 
1.55594 -0.840054 5.25248 185 138 112 
1.61186 -0.830274 5.12154 66 21 2 
1.62043 -0.815525 4.92328 186 141 118 
1.64004 -0.841793 5.01375 99 56 39 
1.62463 -0.832227 4.95981 77 29 15 
1.55726 -0.816584 4.60068 50 21 15 
1.55533 -0.817974 4.56039 168 129 122 
1.56457 -0.79029 4.33005 183 130 112 
1.63203 -0.814515 4.40234 59 20 15 
1.57189 -0.823906 4.42014 189 141 119 
2.16149 -1.05634 4.61007 23 13 1 
1.63877 -0.825445 4.51659 59 26 19 
1.60163 -0.828601 4.85094 204 148 131 
1.64303 -0.822786 4.77701 76 7 0 
1.55181 -0.838121 5.06985 125 4 21 
1.70392 -0.787719 4.438 66 0 0 
1.62631 -0.833116 4.73517 223 164 160 
1.53498 -0.838344 5.04631 210 128 116 
1.53863 -0.816724 4.85167 185 62 80 
1.56544 -0.782162 4.27202 189 144 115 
2.12044 -1.27935 5.86376 50 33 15 
1.62445 -0.796088 4.27094 94 97 88 
2.15875 -1.02783 4.51249 122 110 94 
1.50519 -0.851821 5.32453 50 0 0 
2.15776 -1.04723 4.56814 43 34 17 
1.65763 -0.781641 4.3869 47 25 14 
1.65371 -0.821995 4.50307 179 135 110 
1.52394 -0.84433 5.01468 179 58 77 
2.11646 -1.2563 5.74645 25 10 0 
1.61711 -0.831912 4.98513 196 151 128 
1.60704 -0.830961 4.67611 174 138 116 
1.64803 -0.792207 4.31208 55 21 19 
1.65047 -0.797589 4.20875 59 24 30 
1.62983 -0.758047 4.18668 46 8 0 
1.58275 -0.761895 4.83749 109 71 52 
1.54765 -0.855711 4.7864 160 124 108 
0.493123 -0.541903 5.28944 146 136 126 
2.02228 -0.987183 4.90062 54 39 20 
0.866545 -1.17299 5.46883 171 145 132 
2.23939 -0.996404 4.79652 41 26 19 
0.394951 -0.869407 4.49217 119 104 97 
1.64768 -0.835805 4.81557 213 151 140 
0.899668 -1.10824 5.45141 161 146 141 
2.0602 -1.0592 4.88892 27 11 0 
1.57221 -0.767952 4.84616 57 15 0 
2.09025 -1.0676 4.86609 122 109 101 
1.64578 -0.781602 4.8514 40 0 0 
2.06134 -1.0963 4.87436 38 22 6 
1.61682 -0.898494 4.78349 188 152 138 
1.69918 -0.781321 4.86542 77 30 2 
0.37973 -0.932358 4.5121 175 118 111 
1.68249 -0.851729 4.81281 84 11 4 
0.746707 -0.654395 5.29384 192 173 143 
1.6908 -0.857743 4.81449 214 152 139 
2.12866 -1.0576 4.85263 132 112 103 
0.537916 -0.558901 5.37385 18 9 4 
1.59441 -0.76446 4.84707 108 73 51 
1.56283 -0.793714 4.83363 123 22 30 
1.61145 -0.836896 4.81101 229 152 142 
1.62578 -0.909712 4.78294 109 75 66 
2.09091 -1.06046 4.89108 120 108 84 
0.367494 -0.955672 4.50493 98 12 0 
0.469716 -0.525336 5.2703 16 5 3 
0.850454 -1.20884 5.499 108 8 8 
0.383373 -0.896966 4.48973 51 31 22 
0.745335 -0.700346 5.24303 189 133 48 
2.09732 -1.07591 4.86429 120 107 88 
0.372029 -0.966335 4.52006 132 8 0 
0.822265 -1.20776 5.47865 79 0 0 
0.379845 -0.909129 4.50203 150 138 124 
0.887938 -1.14401 5.46807 39 22 12 
0.719185 -0.645045 5.28813 24 5 0 
0.745556 -0.673033 5.26407 203 160 109 
0.735472 -0.643106 5.29144 87 70 60 
1.54723 -0.873382 4.77533 134 96 75 
1.53338 -0.777815 4.84113 57 0 0 
1.53592 -0.868899 4.7695 189 141 118 
0.50194 -0.529743 5.31146 41 31 22 
0.838214 -1.21529 5.47566 138 20 8 
1.58034 -0.829913 4.79494 92 0 5 
0.712619 -0.647473 5.30716 42 20 0 
1.53443 -0.813562 4.82447 176 55 74 
1.60717 -0.876495 4.78943 190 150 124 
1.53411 -0.812259 4.81257 160 32 55 
1.63787 -0.91372 5.0981 179 140 123 
1.61982 -0.919393 5.16193 34 5 0 
1.48336 -1.02821 5.78354 157 132 125 
1.65273 -0.770916 4.39497 116 65 61 
1.67029 -0.567744 3.47826 171 133 114 
1.64838 -0.527707 3.2707 175 131 106 
1.64939 -0.517323 3.21963 93 51 26 
2.12613 -1.10832 4.98468 10 0 0 
2.18316 -1.15762 5.16729 24 11 0 
2.15887 -1.15313 5.17367 10 0 0 
1.1211 -1.94506 10.4365 79 6 0 
8.69022 4.16678 -20.5331 38 16 5 
1.12957 -1.92699 10.3909 243 150 142 
1.52691 -1.40322 7.39499 165 128 120 
1.54118 -1.29524 6.85076 36 2 0 
1.54306 -1.28919 6.87914 36 1 0 
1.42316 -1.22426 6.78702 82 0 0 
1.45398 -1.13242 6.3238 64 0 0 
1.72652 -0.558836 3.45466 85 40 9 
1.50935 -0.921532 5.22875 152 117 115 
1.52307 -0.951816 5.37409 20 8 0 
1.62651 -0.916514 5.07626 47 14 7 
1.66405 -0.542162 3.36731 76 40 16 
1.68374 -0.530726 3.25637 51 12 0 
1.70515 -0.635769 3.81542 76 31 8 
1.64223 -0.531419 3.26056 46 0 0 
1.61445 -0.828762 4.68671 189 148 126 
1.67406 -0.900025 5.01843 54 8 0 
1.67194 -0.674993 4.0327 57 20 0 
1.6624 -0.61808 3.71008 100 55 32 
1.69761 -0.658217 3.89063 73 26 6 
1.66334 -0.646513 3.85225 205 157 135 
1.67857 -0.694827 4.11103 183 137 121 
1.69156 -0.683084 4.02074 198 153 130 
1.68397 -0.69407 4.09513 56 11 0 
1.61772 -0.661736 3.97025 184 106 102 
1.63041 -0.8405 4.78251 213 160 154 
1.66838 -0.657523 3.88281 92 46 30 
1.61941 -0.791499 4.5321 218 135 143 
1.68309 -0.696405 4.07825 71 24 4 
1.63263 -0.596223 3.54967 234 154 155 
1.63821 -0.687148 4.041 64 5 0 
1.65871 -0.800322 4.62777 222 149 140 
1.63592 -0.772594 4.45599 201 115 118 
1.64949 -0.783849 4.53453 219 160 144 
1.99156 -0.786464 4.12619 107 97 85 
10.8378 5.30694 -27.5714 171 157 148 
1.66241 -0.511358 3.17697 193 155 136 
1.66961 -0.990234 5.41461 196 148 144 
2.04078 -0.888725 4.41592 88 74 61 
1.47759 -1.08767 6.0598 53 33 22 
2.24672 -1.32835 5.67899 17 6 2 
2.28589 0.090929 -1.58156 40 25 18 
2.20927 -1.13379 5.18344 35 19 6 
2.20988 -1.15842 5.28378 18 7 0 
2.19328 -1.14387 5.22649 19 6 0 
2.2299 -1.20372 5.45824 107 92 85 
2.09315 -1.02382 4.71153 17 0 0 
2.1583 -1.09371 4.9761 112 95 88 
2.20803 -1.15727 5.19221 106 93 84 
2.26437 -1.25291 5.59044 125 112 95 
2.13703 -1.11479 5.00895 22 9 1 
7.83059 3.70347 -17.7165 214 104 107 
2.33248 0.11004 -1.72181 37 24 16 
1.54453 -0.876529 4.99146 34 14 7 
2.062 -1.09442 4.83874 128 120 109 
2.30276 -0.930688 3.80337 130 120 118 
2.08952 -1.1613 5.02502 17 4 0 
2.09081 -1.16011 5.00659 95 82 76 
2.09749 -1.17121 5.04218 24 7 0 
1.98497 -0.79264 4.07823 105 93 81 
3.05807 0.334514 -3.88798 130 117 108 
2.07667 0.0860021 -1.04386 148 124 96 
2.10469 0.0957952 -1.14254 144 120 94 
2.12123 -1.07716 4.95909 52 35 25 
1.64906 -0.542575 3.4053 113 72 54 
2.21407 -1.14113 5.20563 60 44 29 
1.51368 -0.91218 5.2525 105 67 64 
2.26148 -1.25456 5.57398 8 0 0 
1.93981 -0.000388487 -0.440353 12 2 0 
1.93518 -0.00143396 -0.422855 8 0 0 
2.25233 -1.25666 5.55328 36 28 17 
2.25371 -1.25371 5.53294 18 8 0 
8.27596 3.94957 -18.809 204 115 97 
1.98387 -0.836704 4.11391 135 125 100 
1.67312 -0.572405 3.49319 50 8 0 
1.67538 -0.619666 3.74509 65 24 4 
1.57883 -0.759336 4.43335 67 3 4 
1.68366 -0.666728 3.94166 193 148 129 
1.64753 -0.637003 3.80263 229 153 153 
1.6595 -0.667469 3.96155 73 25 5 
1.60933 -0.675137 4.02955 157 62 70 
1.63157 -0.657605 3.88105 219 172 156 
1.58916 -0.688594 4.08712 109 0 1 
1.69273 -0.653444 3.86069 63 16 0 
1.65121 -0.607653 3.64884 61 17 4 
1.66167 -0.784857 4.53484 222 149 140 
1.63916 -0.793305 4.59739 80 0 0 
1.65206 -0.785987 4.51806 56 0 0 
1.67599 -0.840931 4.79243 213 138 135 
1.68236 -0.734181 4.19271 209 163 140 
1.6365 -0.770505 4.44272 201 115 118 
1.68208 -0.643729 3.83714 176 140 114 
9.22174 4.45996 -22.4066 18 4 0 
1.65892 -0.624019 3.76353 185 143 119 
1.6774 -0.582391 3.50139 193 153 127 
1.68384 -0.904199 5.07665 211 151 140 
1.56057 -0.798713 4.63391 203 147 150 
1.65856 -0.607228 3.67418 58 17 0 
1.62629 -0.528297 3.25259 49 0 0 
1.65824 -0.554434 3.37995 65 20 0 
1.66611 -0.536667 3.27114 191 149 127 
1.67841 -0.578788 3.51129 60 20 0 
1.61161 -0.834472 4.73018 194 148 125 
1.65418 -0.900833 5.035 232 159 153 
1.61488 -0.900134 5.07162 67 0 0 
2.07435 0.0369633 -0.94433 202 186 173 
1.53947 -0.874717 5.00494 30 8 0 
1.64751 -0.856538 4.77105 161 123 102 
1.61224 -0.882772 4.94781 166 127 122 
1.68957 -0.596595 3.63501 188 148 123 
1.65068 -0.509711 3.16269 124 83 53 
1.62461 -0.919094 5.08784 37 3 4 
1.58273 -0.971614 5.3867 39 4 0 
1.45542 -1.14971 6.4731 45 23 12 
1.57601 -0.949229 5.24792 45 9 0 
1.65532 -0.582324 3.62458 83 47 23 
1.52167 -1.17956 6.45982 176 155 136 
1.56034 -1.10407 5.95936 181 151 141 
1.54195 -1.29678 6.91554 36 1 0 
1.51513 -1.37732 7.34414 192 158 149 
1.51517 -1.41978 7.5117 78 44 32 
1.39001 -1.51258 8.07326 97 0 0 
1.15832 -1.86344 10.0569 233 147 134 
1.72443 -0.577914 3.54809 84 35 3 
1.73005 -0.538446 3.31607 102 57 24 
2.22413 -1.19202 5.43272 18 7 0 
2.18644 -1.12897 5.15257 13 0 0 
2.15771 -1.10011 5.03798 17 0 0 
2.14208 -1.08043 4.95876 39 23 10 
2.13203 -1.06956 4.90678 107 92 85 
2.21135 -1.16332 5.27248 100 87 79 
2.16769 -1.11837 5.08605 112 95 88 
2.04015 -0.980075 4.52628 17 2 0 
2.21203 -1.20863 5.3926 10 0 0 
2.08094 -1.04207 4.72188 12 1 0 
2.18856 -1.16205 5.18334 120 109 87 
2.17435 -1.17062 5.23617 13 0 0 
2.13015 -1.12083 5.04135 10 0 0 
2.07878 0.0890295 -1.06431 39 13 0 
2.30078 -0.927629 3.7902 130 120 118 
1.81526 -0.212073 1.22144 40 0 0 
1.45076 -1.17579 6.54395 45 27 15 
1.53942 -0.888127 5.08866 159 141 127 
7.65192 3.61363 -17.1306 132 21 4 
8.70379 4.21759 -20.0727 200 118 94 
2.09996 -1.18439 5.07836 22 5 0 
2.28996 0.0978561 -1.60181 119 106 98 
1.52063 -0.885245 5.0751 97 56 54 
2.23447 -1.25517 5.49423 45 33 19 
2.10658 0.0968091 -1.15256 144 120 94 
2.23902 -1.2312 5.39061 113 106 98 
1.60187 -1.06469 5.82353 183 154 136 
2.03683 -0.880878 4.3796 102 88 75 
1.52063 -1.21752 6.61532 9 2 0 
2.09311 -1.11921 5.07741 12 3 0 
1.64078 -1.26544 6.59121 115 85 61 
2.14662 -1.09144 4.97278 129 114 109 
1.52856 -1.31442 7.01309 192 158 149 
1.5345 -1.18966 6.444 27 7 0 
1.686 -0.590147 3.62047 53 9 6 
1.6444 -0.546999 3.38727 180 136 109 
7.90396 3.75765 -17.9889 113 0 6 
2.20437 -1.14075 5.19927 25 11 0 
2.19757 -1.15681 5.27484 10 0 0 
1.69301 -0.572069 3.46146 80 38 24 
2.09516 -1.03197 4.74661 17 0 0 
2.09901 -1.05857 4.87374 122 106 91 
8.71005 4.17803 -20.5899 38 16 5 
2.22167 -1.19602 5.38862 26 13 7 
1.48799 -1.03834 5.80316 186 135 134 
2.07416 -1.01561 4.63514 117 107 97 
1.58069 -1.01778 5.59225 191 160 139 
2.30613 -1.61839 7.28049 128 114 111 
2.15287 -1.13908 5.11541 11 0 0 
1.65912 -0.57235 3.47316 63 20 1 
2.10902 -1.09046 4.92466 12 0 0 
9.79012 4.79706 -24.198 44 30 21 
1.56815 -0.98189 5.43367 45 9 0 
1.62214 -0.590618 3.62351 45 0 0 
2.08721 -1.04203 4.70433 133 124 107 
1.57907 -0.966207 5.33697 185 150 122 
1.58097 -0.981473 5.44367 39 4 0 
1.56374 -0.9756 5.44179 170 150 126 
1.5965 -0.8931 5.01406 184 148 132 
1.6685 -0.64217 3.8437 82 39 20 
1.63389 -0.933813 5.20497 161 123 102 
1.67162 -0.681942 4.06007 86 49 23 
1.60307 -0.870559 4.92998 194 148 125 
1.65285 -0.90478 5.06389 207 137 129 
1.65741 -0.598484 3.56964 201 143 132 
1.68548 -0.893156 5.01811 211 151 140 
1.62077 -0.780795 4.47858 219 154 148 
1.67621 -0.60862 3.72508 108 67 49 
1.67035 -0.685894 4.03956 53 17 0 
1.63072 -0.722212 4.18162 64 9 0 
1.70324 -0.820031 4.64729 90 0 0 
1.59376 -0.741948 4.3414 199 143 130 
1.64749 -0.812133 4.67884 57 0 0 
1.63597 -0.803138 4.65048 76 0 0 
1.69406 -0.706922 4.11021 71 23 3 
1.67146 -0.708731 4.13485 223 143 142 
1.64593 -0.679226 3.98574 214 158 143 
1.60842 -0.711411 4.21421 91 16 20 
1.65744 -0.733629 4.24923 233 167 155 
1.58529 -0.701438 4.15524 110 0 3 
2.04709 -1.00115 4.62357 17 2 0 
2.23315 -1.21249 5.44304 104 90 81 
2.24846 -1.23193 5.47444 26 17 2 
2.1926 0.0802519 -1.31822 144 133 131 
1.67057 -0.518966 3.2131 83 47 23 
1.57534 -1.1983 6.30643 43 15 14 
7.74822 3.67439 -17.4132 134 36 9 
8.71049 4.21786 -20.089 178 91 74 
2.14252 -1.0816 4.92424 131 117 114 
2.12154 0.103075 -1.21192 35 10 0 
2.23826 -1.30353 5.60653 94 82 70 
2.02218 0.0189026 -0.736656 36 24 10 
1.67023 -0.514267 3.14031 181 139 117 
1.5666 -0.955574 5.32749 142 134 111 
1.68025 -0.7763 4.4877 205 132 126 
1.65996 -0.780236 4.49334 204 144 133 
1.64888 -0.797751 4.59897 149 98 81 
1.64517 -0.752293 4.34962 148 84 75 
1.60021 -0.711945 4.17125 234 166 157 
1.63332 -0.749753 4.35852 65 10 3 
1.6468 -0.780818 4.4923 191 143 123 
1.63056 -0.719409 4.16502 57 2 0 
1.66704 -0.674021 3.90074 197 133 121 
1.68173 -0.72826 4.15209 188 142 118 
1.59347 -0.909847 5.23923 215 159 146 
1.64387 -0.768166 4.38291 153 95 91 
8.95096 4.33005 -21.1822 206 135 133 
1.63204 -0.651079 3.84423 189 146 127 
1.67539 -0.934496 5.19876 144 76 73 
1.6722 -0.914319 5.09305 123 75 63 
1.52338 -0.903431 5.19665 59 35 25 
1.63687 -0.974637 5.4243 75 0 0 
11.8741 5.77698 -29.5658 15 0 0 
1.63397 -0.953704 5.29801 188 144 117 
1.62559 -0.598741 3.60885 89 3 6 
1.68424 -0.919247 5.03109 86 4 16 
1.60724 -0.955481 5.30846 126 91 89 
1.43135 -1.18068 6.59026 126 4 27 
1.62333 -0.538163 3.31113 52 2 0 
1.68305 -0.598781 3.66747 36 0 0 
2.17322 -1.1643 5.21038 15 1 0 
2.07277 0.0853823 -1.03333 20 0 0 
2.29493 -0.919299 3.75199 143 130 122 
1.33918 -1.63811 8.80973 179 141 105 
2.08082 0.0379375 -0.958333 90 74 61 
1.98372 -0.804268 4.10192 35 23 11 
2.20116 0.0834924 -1.35306 137 126 124 
8.59369 4.11147 -19.6999 112 6 8 
1.52016 -0.887892 5.03586 152 117 115 
1.65919 -1.02995 5.63028 169 145 133 
1.6592 -0.607042 3.65788 98 57 37 
1.53264 -1.17433 6.36883 11 5 0 
1.49413 -1.47243 7.85745 188 151 145 
1.67014 -1.16527 6.06558 128 76 52 
2.24265 -1.23533 5.45862 55 47 36 
2.22784 -1.21909 5.43578 11 0 0 
2.04559 -0.996676 4.60121 27 12 0 
2.19826 -1.16238 5.30036 37 24 7 
2.10542 -1.03195 4.74129 16 0 0 
2.07855 -0.990236 4.55983 39 23 10 
2.05222 -0.926844 4.27743 122 106 91 
2.10075 0.10322 -1.1319 196 150 101 
2.10898 -1.06441 4.88387 117 102 97 
1.63565 -0.772496 4.47136 71 0 0 
1.67683 -0.840185 4.69211 179 127 114 
1.66277 -0.849268 4.7694 200 149 132 
1.66868 -0.88043 4.97064 110 8 19 
1.60197 -0.758837 4.42316 228 154 153 
1.60443 -0.727381 4.29494 109 26 36 
1.64012 -0.694926 4.07097 202 147 126 
1.65298 -0.675225 3.96537 85 3 7 
1.62776 -0.620851 3.69064 210 156 146 
8.11979 3.80523 -18.7876 28 8 0 
11.0113 5.41129 -27.029 24 5 0 
1.64371 -0.681616 4.10375 60 22 0 
11.5737 5.67206 -28.6901 171 155 140 
12.2182 5.97211 -30.5941 15 0 0 
2.2075 -1.16933 5.29749 125 116 101 
2.09921 0.0921802 -1.13152 65 52 36 
1.438 -1.23436 6.75681 134 97 81 
1.44436 -1.16619 6.42292 187 142 121 
1.59788 -0.78613 4.49264 184 133 116 
1.62501 -0.972015 5.39608 168 128 102 
1.61918 -0.907328 5.05635 199 161 148 
1.68526 -0.913845 5.00552 86 4 16 
1.6547 -1.04897 5.7375 173 147 134 
1.59447 -1.05826 5.83129 58 26 29 
1.56618 -0.991344 5.50927 40 6 0 
1.59885 -0.717942 4.13552 164 140 114 
2.18938 0.079155 -1.30695 104 95 90 
1.62062 -0.870844 4.95301 229 161 162 
1.45142 -1.11987 6.23371 132 6 28 
1.56631 -1.14888 6.19333 168 145 131 
1.56108 -1.05668 5.72364 19 5 0 
1.52511 -1.3344 7.12224 179 145 136 
1.52533 -1.38115 7.30589 50 15 11 
1.50545 -0.787285 4.69363 111 11 9 
2.05516 0.0816263 -0.984 186 162 128 
0.998108 -2.30393 12.3633 94 21 2 
2.10731 0.107356 -1.16617 202 158 113 
1.58989 -0.671678 3.97725 139 16 36 
1.65003 -0.531985 3.28237 173 129 100 
1.6596 -0.588726 3.56785 199 158 140 
1.60384 -0.593922 3.66351 49 0 0 
9.46164 4.64425 -22.2522 77 0 0 
2.2711 -1.31519 5.76195 114 105 96 
2.2484 -1.26876 5.66182 13 1 0 
1.70012 -0.663463 3.8712 63 16 0 
2.24205 -1.22343 5.40181 27 17 8 
1.01516 -2.21426 11.7233 159 112 84 
8.12981 3.88094 -18.4639 142 18 8 
2.04568 -1.00012 4.55756 18 5 0 
2.12831 0.129547 -1.27017 186 131 41 
8.7958 4.20112 -20.9483 77 63 54 
9.26336 4.51626 -21.7025 118 12 14 
9.94742 4.78966 -23.8719 14 0 0 
1.57522 -0.900555 5.15621 74 6 7 
1.67099 -1.01691 5.58604 122 11 28 
2.31979 0.113387 -1.69821 155 142 136 
2.11859 0.100772 -1.19383 49 24 2 
1.66335 -0.486407 3.0145 43 0 0 
1.62284 -0.611241 3.82454 94 52 28 
1.69635 -0.526901 3.20988 37 0 0 
1.67297 -0.567656 3.46351 50 8 0 
1.64391 -0.556729 3.43219 166 121 92 
1.6269 -0.718688 4.14201 216 146 134 
1.42811 -1.17644 6.54526 118 0 12 
1.62762 -0.744361 4.28303 199 143 126 
1.63472 -0.504667 3.09882 72 23 18 
1.64119 -0.596916 3.62195 183 136 110 
1.57057 -1.09695 5.95311 52 20 21 
1.56772 -1.04248 5.67368 161 125 99 
1.69122 -0.668391 3.94967 63 16 0 
1.65592 -0.690871 4.10049 85 38 20 
1.62486 -0.607412 3.63845 124 17 33 
1.62482 -0.576552 3.43581 184 127 98 
1.52236 -1.22957 6.64251 97 103 91 
2.22946 -1.21674 5.33847 120 110 101 
1.65257 -0.674266 3.95259 85 0 2 
1.65345 -0.699622 4.07601 216 145 143 
2.2093 -1.17535 5.24839 13 1 0 
1.61161 -0.675532 3.96939 192 140 126 
1.55996 -0.755946 4.47969 179 53 77 
1.61011 -0.729763 4.25528 194 142 129 
1.61 -0.659921 3.84835 97 10 18 
1.52998 -1.2976 6.89298 90 63 56 
1.65194 -0.677317 3.9228 69 0 3 
9.39844 4.59588 -22.0976 118 12 14 
1.66485 -0.480008 2.96679 202 156 140 
1.63733 -0.569081 3.40156 124 13 30 
1.61961 -0.593703 3.53711 190 130 104 
1.65819 -0.745552 4.32076 78 10 1 
1.60568 -0.695821 4.10081 225 161 152 
1.5816 -0.6825 4.02474 158 34 58 
2.0708 0.0839178 -1.0225 20 0 0 
1.65551 -0.774588 4.36405 43 17 16 
1.60122 -0.91238 5.14542 56 15 9 
1.48873 -1.37966 7.56313 168 137 109 
2.25215 -1.27798 5.60565 121 111 102 
1.55269 -1.2951 6.85243 47 13 12 
1.3215 -1.38811 7.44439 85 13 0 
1.62557 -0.614215 3.67023 109 1 16 
7.43951 3.45287 -16.4215 129 5 0 
1.5966 -0.638141 3.75752 150 24 48 
1.67637 -0.463856 2.79451 178 130 107 
1.50422 -1.2696 7.07371 45 11 2 
1.56846 -1.04001 5.69726 172 138 103 
1.33692 -1.28723 7.23633 144 6 32 
1.66025 -0.956712 5.2296 162 142 131 
1.51378 -0.94582 5.18963 173 128 105 
2.2728 0.0965755 -1.55204 62 49 43 
1.69225 -0.736262 4.18786 223 138 143 
2.2458 0.156861 -2.14966 73 59 48 
2.44958 0.192981 -2.68216 188 170 158 
2.16824 -1.04804 4.7819 47 31 15 
2.25082 0.167265 -2.10303 20 6 0 
3.27374 0.426034 -5.36461 57 43 34 
1.66117 -0.7218 4.14489 202 139 130 
3.16566 0.397881 -4.8537 40 26 23 
3.26899 0.448515 -5.27717 26 17 12 
5.40735 1.03283 -12.1708 188 171 163 
1.73648 -0.511706 3.15543 117 71 38 
2.56393 0.399511 -3.7772 130 116 107 
1.69762 -0.628953 3.74761 108 63 42 
1.67511 -0.649648 4.01712 73 28 9 
1.62758 -0.683743 4.28665 79 36 17 
1.68966 -0.6066 3.70993 181 135 119 
2.2513 0.323518 -2.74376 135 121 112 
1.57746 -0.744334 4.6983 68 24 0 
2.25902 -1.26696 5.59418 31 19 7 
1.63723 -0.728326 4.49356 44 0 0 
1.64501 -0.677182 4.17578 174 139 119 
2.13681 -0.784978 3.78562 27 16 10 
2.82592 0.482085 -4.50673 111 89 68 
1.66255 -0.652865 3.99069 191 150 130 
2.7821 0.477052 -4.41488 188 161 132 
1.62034 -0.769397 4.69743 65 23 9 
5.40171 1.12038 -11.9387 37 24 15 
1.64608 -0.746255 4.50297 98 53 30 
1.63941 -0.709268 4.29675 193 150 134 
1.58501 -0.715018 4.40553 45 0 0 
1.49328 -0.905012 5.65721 84 27 7 
1.68297 -0.652121 3.89092 152 110 94 
1.70754 -0.594692 3.5101 66 21 2 
1.58041 -0.838679 5.0987 70 22 10 
1.7065 -0.605187 3.55198 162 117 98 
1.62635 -0.745098 4.46784 86 36 25 
1.58178 -0.742296 4.51966 87 9 7 
1.66845 -0.663032 3.91843 64 16 2 
9.02791 2.1958 -22.9903 36 23 14 
1.70517 -0.62293 3.62143 198 150 136 
1.59432 -0.742526 4.46617 220 145 142 
1.70997 -0.621333 3.59803 68 23 4 
2.08879 -0.918502 4.19834 83 68 65 
1.59314 -0.76237 4.52765 79 0 0 
1.65028 -0.710711 4.14669 242 157 160 
1.67353 -0.623887 3.84763 164 119 96 
1.55274 -0.80118 4.77413 83 0 0 
1.68101 -0.703501 4.01376 82 4 2 
1.61836 -0.770901 4.45981 100 47 29 
1.55144 -0.869988 5.09678 228 134 135 
1.6976 -0.750724 4.22831 55 0 0 
1.66014 -0.738099 4.20503 162 112 105 
1.51775 -0.912997 5.14886 50 21 13 
1.64653 -0.757741 4.32095 94 42 28 
1.53927 -0.84334 4.94329 117 0 17 
1.68403 -0.687421 4.00762 192 143 126 
1.69853 -0.732352 4.07119 95 37 26 
1.66215 -0.836454 4.66955 218 131 137 
1.65534 -0.728395 4.09626 159 102 95 
1.60025 -0.885611 5.02005 178 118 110 
1.5345 -0.862114 4.98148 59 8 7 
1.67826 -0.761902 4.23777 218 127 132 
1.61769 -0.76392 4.33094 168 135 126 
3.23917 -0.929218 -6.74095 140 116 106 
1.69179 -0.762002 4.20335 192 106 105 
1.537 -0.876675 5.01877 36 7 0 
1.52356 -0.890687 5.10347 54 21 14 
1.55843 -0.826787 4.69841 29 12 4 
14.9057 5.3521 -45.9531 220 178 128 
1.53393 -0.909703 5.13296 39 20 13 
1.60508 -0.801284 4.72971 201 145 132 
1.61196 -0.825565 4.55347 176 140 118 
1.52553 -0.920461 5.16325 44 22 11 
1.57119 -0.77508 4.33561 32 5 0 
-1.2856 -1.25965 10.5518 10 0 0 
3.69176 0.927995 -5.57577 145 109 61 
18.211 7.26559 -58.7334 200 140 78 
1.61353 -0.862398 4.67691 181 146 127 
1.49803 -0.980541 5.42162 87 0 0 
1.59703 -0.880221 4.77013 19 14 10 
1.57477 -1.05867 5.70588 39 5 0 
2.61547 0.553042 -3.03731 136 102 65 
1.62794 -0.881038 4.71157 125 93 82 
1.71394 -0.784177 4.05282 104 57 29 
-0.119168 -0.911511 6.95823 166 144 130 
1.57107 -1.13876 6.01908 43 10 1 
1.57968 -1.15571 6.07167 43 18 14 
1.59565 -1.04484 5.49229 129 99 91 
2.12292 -0.926737 4.22737 22 5 0 
2.18631 -1.08899 4.93968 106 91 86 
2.09774 -0.910854 4.15886 27 10 2 
1.60108 -0.794727 4.46699 158 141 111 
2.10674 -0.951764 4.30594 37 24 16 
-0.367033 -1.03288 7.60696 192 173 159 
2.08013 -0.990696 4.46892 37 25 9 
1.51221 -0.903012 5.17585 119 80 75 
1.51584 -0.908976 5.18319 41 8 3 
1.69764 -0.698205 3.8645 162 72 74 
1.56709 -0.911697 5.20889 103 52 51 
3.24893 0.455323 -5.23951 14 7 1 
1.60269 -0.859757 4.92771 150 54 65 
1.64051 -0.823083 4.68076 43 2 0 
1.70922 -0.707208 3.99692 183 126 115 
2.13537 -0.942462 4.30914 21 7 0 
2.14125 -1.00318 4.58245 45 30 9 
1.63549 -0.690825 4.14062 199 144 139 
1.69383 -0.652726 3.84703 74 29 10 
2.08257 -1.02032 4.68158 15 0 0 
1.68443 -0.672516 3.97998 173 130 114 
1.7129 -0.594942 3.48959 63 18 0 
1.67697 -0.662035 3.95029 85 42 25 
-0.199056 0.557464 6.08756 118 94 82 
1.64005 -0.666455 4.05322 166 127 110 
3.06007 0.353582 -4.54641 49 35 26 
1.6276 -0.671423 4.12663 106 63 47 
2.04807 -0.931917 4.21489 38 27 9 
3.01165 0.339932 -4.34215 141 127 118 
3.13024 0.379817 -4.7948 150 136 125 
2.14292 -1.36392 5.88513 45 32 23 
-2.33361 -1.62415 13.9219 75 65 55 
7.60259 1.648 -19.169 111 91 82 
2.09523 -1.22273 5.37435 38 26 14 
1.89853 -0.443313 2.30321 105 91 78 
7.59526 1.77088 -18.5901 41 27 18 
2.67329 0.298645 -3.44428 112 86 71 
3.99489 1.02007 -6.20467 202 140 81 
2.26464 0.161505 -2.10128 19 6 0 
2.4405 0.205551 -2.70683 101 90 84 
2.25635 0.161408 -2.07937 36 22 13 
-1.91554 -1.45124 12.4885 110 100 91 
2.7045 0.461973 -4.2169 187 158 128 
2.12218 -1.27559 5.49316 113 99 86 
2.58343 0.448928 -4.0722 121 108 99 
2.43096 0.373931 -3.4431 111 99 87 
3.23453 1.38008 -5.86377 52 13 0 
2.22714 -1.15693 5.16555 115 101 90 
2.44941 -3.87354 14.9277 18 9 0 
2.00511 -0.843885 3.89357 57 40 20 
2.3176 0.248366 -2.75309 100 87 71 
7.75109 1.68465 -19.531 193 173 164 
2.27816 -1.373 6.00917 58 47 29 
2.03792 -0.989431 4.39175 54 42 20 
2.60953 0.244859 -3.27926 78 59 52 
-1.01094 -1.18553 9.44913 43 35 24 
2.33799 0.324904 -2.13571 102 88 77 
2.38896 0.349271 -3.23639 10 0 0 
1.68838 -0.889856 4.63044 99 67 54 
1.90562 -0.482916 2.4667 114 97 87 
3.25044 -0.934971 -6.8001 124 100 90 
3.45402 1.59758 -6.79466 38 0 0 
2.80876 0.490516 -4.52717 183 157 122 
2.42076 0.179714 -2.5731 81 64 48 
3.05896 1.12831 -5.25703 38 3 0 
2.24791 0.165751 -2.08768 20 6 0 
2.94259 0.884665 -4.28325 147 111 75 
1.69581 -0.620367 3.60759 196 143 129 
2.36871 0.312161 -3.22416 25 11 2 
3.21724 0.415378 -5.05117 40 26 23 
1.68791 -0.645927 4.05031 119 74 53 
