ply                 
format ascii 1.0    
element vertex 1267
property float x    
property float y    
property float z    
property uchar red  
property uchar green
property uchar blue 
end_header          
-1.57113 0.163932 3.45998 105 82 64 
-1.48221 0.280835 3.26767 100 80 56 
-1.40188 0.393145 3.10368 174 141 106 
-1.603 0.125184 3.54924 81 63 51 
-1.47066 0.293428 3.26431 94 67 46 
-1.60814 0.120018 3.56706 142 119 101 
-1.47539 0.280724 3.28629 101 84 68 
-1.5051 0.194067 3.35989 61 43 29 
-1.55033 0.155638 3.46542 99 87 73 
-1.39644 0.358814 3.15823 83 58 38 
-1.5556 0.137789 3.51647 90 63 42 
-1.46973 0.252186 3.33264 188 160 123 
-1.38092 0.361338 3.1432 92 65 46 
-1.37761 0.365281 3.13588 165 134 105 
-1.56822 0.119447 3.56713 140 119 100 
-1.37185 0.369295 3.12598 87 53 18 
-1.4453 0.274514 3.29837 89 77 65 
-1.43614 0.281387 3.27774 142 127 106 
-1.53714 0.134678 3.51493 88 65 49 
-1.53075 0.140886 3.5054 145 119 94 
-1.56082 0.11257 3.57403 138 116 92 
-1.37023 0.353791 3.14805 159 136 118 
-1.521 0.145875 3.49088 89 69 45 
-1.42397 0.284021 3.27951 100 82 68 
-1.38466 0.328168 3.19809 84 57 40 
-1.39567 0.304354 3.23677 91 66 46 
-1.44914 0.1855 3.36345 28 14 1 
-1.42137 0.273659 3.30257 101 93 90 
-1.40163 0.286392 3.26134 155 129 104 
-1.50727 0.13609 3.50686 147 125 102 
-1.36631 0.336234 3.18665 96 76 52 
-1.49751 0.140462 3.4923 97 77 53 
-1.5066 0.134361 3.52306 108 83 61 
-1.52905 0.113872 3.57827 85 69 54 
-1.39805 0.289726 3.27606 148 127 106 
-1.38887 0.30316 3.25531 157 120 91 
-1.37409 0.31492 3.22266 152 133 118 
-1.49519 0.137979 3.50355 142 121 102 
-1.48656 0.14028 3.49571 79 63 50 
-1.37816 0.295703 3.25453 78 65 57 
-1.39403 0.266287 3.29225 95 73 49 
-1.35872 0.315693 3.21563 85 77 75 
-1.35527 0.323733 3.21071 73 52 35 
-1.35841 0.311495 3.22529 144 131 122 
-1.37623 0.28705 3.27066 86 76 66 
-1.37432 0.274787 3.27072 90 74 58 
-1.35695 0.308456 3.23495 92 73 58 
-1.48173 0.12347 3.53448 77 61 46 
-1.38402 0.264189 3.31 88 76 62 
-1.4647 0.137239 3.50166 81 63 49 
-1.34786 0.315669 3.22713 155 124 95 
-1.3671 0.282923 3.27241 157 126 97 
-1.3718 0.2698 3.28862 141 122 107 
-1.34023 0.315111 3.2207 157 132 112 
-1.45151 0.137429 3.49242 95 78 62 
-1.31677 0.337669 3.17281 163 138 116 
-1.31017 0.345489 3.16702 82 65 58 
-1.36547 0.266774 3.3007 92 76 61 
-1.33879 0.302035 3.23912 157 130 109 
-1.35219 0.282266 3.27889 146 125 106 
-1.34688 0.281714 3.26594 146 125 106 
-1.4451 0.130422 3.50543 142 123 106 
-1.30606 0.338513 3.17332 158 139 122 
-1.43852 0.135382 3.49278 91 75 62 
-1.35369 0.270624 3.29147 91 67 43 
-1.46147 0.117607 3.5519 92 75 57 
-1.33342 0.301973 3.24674 86 67 52 
-1.47179 0.107364 3.58506 149 124 102 
-1.32438 0.295768 3.23557 156 130 115 
-1.29335 0.346071 3.16294 158 133 103 
-1.45661 0.111147 3.56027 145 118 91 
-1.32166 0.306766 3.2367 98 80 66 
-1.34575 0.269953 3.29693 154 124 100 
-1.29924 0.336592 3.18512 81 65 50 
-1.31285 0.312941 3.2201 118 107 101 
-1.33638 0.27761 3.28606 108 82 59 
-1.29066 0.339578 3.17652 150 132 108 
-1.44155 0.118199 3.54373 83 67 52 
-1.46484 0.0950083 3.6058 83 63 52 
-1.37372 0.170658 3.39035 21 3 0 
-1.30746 0.311546 3.23157 155 130 99 
-1.4515 0.103791 3.58426 98 71 50 
-1.19207 0.314083 2.9507 86 68 56 
-1.41613 0.128337 3.49973 77 61 46 
-1.27343 0.345058 3.1606 163 137 114 
-1.32584 0.275983 3.28941 155 122 91 
-1.2787 0.337883 3.17597 163 142 121 
-1.40502 0.128674 3.49385 94 78 65 
-1.3142 0.27662 3.28901 135 120 99 
-1.30584 0.285007 3.26989 82 63 49 
-1.3296 0.254959 3.33355 92 70 56 
-1.40964 0.116729 3.53134 75 60 39 
-1.26124 0.343154 3.16633 159 137 113 
-1.26165 0.339249 3.17514 80 65 62 
-1.31941 0.257105 3.3186 145 126 119 
-1.3132 0.260881 3.30779 95 78 62 
-1.26623 0.330849 3.19335 82 61 42 
-1.39144 0.123787 3.50493 79 66 50 
-1.40862 0.110866 3.54933 79 63 50 
-1.30667 0.262552 3.30152 146 125 104 
-1.29134 0.278831 3.26993 147 129 115 
-1.39872 0.115181 3.54591 144 118 93 
-1.24873 0.335105 3.17921 69 53 40 
-1.2927 0.275751 3.28965 92 74 50 
-1.37857 0.114749 3.51672 145 121 95 
-1.38586 0.108803 3.53583 73 51 38 
-1.24659 0.329978 3.18722 84 59 37 
-1.39815 0.0897293 3.58455 85 63 50 
-1.28699 0.254818 3.30821 113 86 65 
-1.37233 0.112234 3.52518 142 115 86 
-1.35145 0.132557 3.47644 94 77 61 
-1.38914 0.100971 3.57244 82 55 34 
-1.24725 0.310501 3.21656 114 83 54 
-1.27724 0.258195 3.2945 152 122 98 
-1.35983 0.11907 3.50662 87 70 62 
-1.26929 0.277094 3.28231 90 61 43 
-1.2571 0.312992 3.25532 162 129 96 
-1.27328 0.26776 3.3009 156 129 112 
-1.19851 0.375019 3.14447 88 60 46 
-1.19343 0.385676 3.13158 81 56 36 
-1.17368 0.372551 3.13807 103 83 74 
-1.20983 -0.0303421 3.2384 48 44 43 
-1.1656 0.425369 3.15279 109 93 80 
-1.21726 0.238773 3.31641 255 247 223 
-1.18122 0.3084 3.22899 51 34 18 
-1.21697 0.257391 3.33752 116 104 80 
-1.14896 0.361725 3.15434 203 196 188 
-1.14241 0.349133 3.15984 60 57 48 
-1.16511 -0.0845528 3.26553 54 52 53 
-1.12855 0.458063 3.19157 103 90 82 
-1.14581 -0.877779 3.23027 173 172 170 
-1.12027 -0.892619 3.22296 183 178 174 
-1.11625 -0.880291 3.21236 106 101 107 
-1.10923 -0.889505 3.22267 113 111 112 
-1.03622 -0.573073 3.31237 122 120 121 
-1.00304 0.890736 3.28076 21 17 18 
-0.920745 -0.0862369 3.10452 55 6 53 
-1.03118 -0.236836 3.49957 50 49 47 
-0.924943 -0.0573649 3.17028 101 95 99 
-0.917055 -0.057132 3.15134 102 96 100 
-1.01541 -0.240215 3.51084 46 46 46 
-0.88077 -0.0812434 3.06187 99 70 90 
-0.869705 -0.0909676 3.05763 39 0 30 
-0.85742 -0.0929902 3.05937 185 132 174 
-0.855466 -0.102899 3.0624 122 46 110 
-0.846728 -0.107809 3.07304 107 18 100 
-0.830353 -0.0958621 3.08976 68 0 54 
-0.835138 -0.0641264 3.13661 95 84 92 
-0.822541 -0.0485031 3.1153 90 86 87 
-0.844998 -0.115359 3.21911 150 71 152 
-0.805936 -0.089554 3.14355 13 0 18 
-0.801341 -0.0892002 3.13153 11 0 19 
-0.822484 -0.584638 3.31686 76 76 76 
-0.7906 -0.140824 3.22848 163 75 159 
-0.7599 -0.079073 3.12276 53 0 47 
-0.743513 -0.0842813 3.14859 32 0 36 
-0.731263 -0.101464 3.14608 22 0 13 
-0.721247 -0.097739 3.14986 69 43 68 
-0.757495 -0.230118 3.36498 105 103 104 
-0.710137 -0.152444 3.21638 49 0 45 
-0.702276 -0.113368 3.19639 47 0 55 
-0.696484 -0.0915725 3.17883 46 0 52 
-0.715149 -0.194131 3.32892 92 17 82 
-0.71473 0.846582 3.35805 91 77 66 
-0.708933 -0.174318 3.32414 51 0 46 
-0.670015 -0.0707997 3.14765 83 30 84 
-0.671939 -0.128521 3.21098 72 36 74 
-0.669718 -0.106693 3.2227 90 85 91 
-0.660356 -0.0664854 3.18107 107 105 110 
-0.669474 -0.113221 3.23012 38 30 45 
-0.689316 -0.206229 3.33466 117 109 120 
-0.657976 -0.138666 3.20237 72 16 61 
-0.661078 -0.119132 3.23507 85 83 88 
-0.654586 -0.131373 3.20791 42 0 36 
-0.677309 -0.20273 3.31661 116 114 117 
-0.667508 0.854466 3.33452 193 175 153 
-0.667403 -0.198891 3.30738 113 105 116 
-0.664448 -0.19796 3.3169 108 96 108 
-0.643393 -0.930072 3.27933 106 106 108 
-0.620938 -0.102929 3.20087 177 80 173 
-0.612821 0.865819 3.31478 218 200 180 
-0.590184 -0.959746 3.32401 208 203 199 
-0.583245 -0.926004 3.30584 75 73 76 
-0.581461 -0.942763 3.3209 73 71 74 
-0.541221 0.834565 3.33545 191 170 149 
-0.534866 0.84576 3.33034 219 202 182 
-0.540282 -0.892382 3.31758 109 107 110 
-0.494044 0.826587 3.34572 202 182 158 
-0.421342 1.02509 3.01089 226 213 196 
-0.414495 1.02123 3.01842 183 166 150 
-0.406607 1.00527 3.04346 221 207 196 
-0.401377 1.01006 3.03563 157 140 132 
-0.397378 1.00121 3.04225 220 204 191 
-0.437803 0.817675 3.40714 190 173 157 
-0.438155 0.804487 3.41972 172 160 144 
-0.38315 1.01507 3.01824 225 209 193 
-0.390116 0.785611 3.47373 88 75 59 
-0.380778 -0.191671 3.4087 56 54 55 
-0.381376 -0.187632 3.41948 30 28 29 
-0.378644 0.786478 3.44528 188 171 153 
-0.366401 -0.175137 3.39196 38 36 37 
-0.351193 0.828172 3.36822 195 178 158 
-0.353479 0.78325 3.46796 181 163 139 
-0.345209 0.824273 3.41354 211 195 172 
-0.345567 0.789197 3.43708 136 120 105 
-0.420958 0.188627 4.1553 173 164 157 
-0.332447 0.787229 3.4339 147 131 116 
-0.333389 0.720937 3.45463 108 94 81 
-0.330491 0.783141 3.44446 201 188 171 
-0.32584 0.78257 3.45322 102 89 73 
-0.318138 0.787522 3.4434 182 165 149 
-0.296545 0.779199 3.43367 100 90 81 
-0.27814 0.806591 3.39051 194 172 149 
-0.259852 0.894008 3.22617 179 163 147 
-0.277246 0.781267 3.43592 29 25 24 
-0.253086 0.90481 3.2129 224 207 191 
-0.300796 0.522623 3.89416 61 48 39 
-0.270861 0.699984 3.54275 89 76 67 
-0.241335 0.922638 3.1935 180 161 146 
-0.243453 0.881978 3.26485 213 200 184 
-0.292596 0.542737 3.89169 161 143 123 
-0.26999 0.663797 3.62207 86 72 59 
-0.273855 0.534579 3.89973 44 32 20 
-0.264716 0.572269 3.84281 177 161 145 
-0.238246 0.60619 3.76782 178 161 145 
-0.195288 0.37603 3.38797 147 133 124 
-0.195725 0.345633 3.3978 105 97 95 
-0.209196 0.65904 3.68862 168 153 134 
-0.143543 0.866279 3.27929 213 188 166 
-0.11925 0.857146 3.29895 213 188 166 
-0.106264 0.763904 3.44395 208 184 158 
-0.103931 -0.554329 3.16595 127 126 122 
-0.102173 -0.61683 3.21101 118 118 120 
-0.107167 0.706024 3.60277 201 177 151 
-0.0958808 -0.553652 3.27702 22 23 27 
-0.092737 -0.589025 3.17093 31 30 35 
-0.0809005 -0.577083 3.15861 168 169 164 
-0.0751183 0.868048 3.2769 230 210 186 
-0.0800218 -0.555016 3.16496 139 138 134 
-0.0794399 -0.534092 3.1767 128 130 129 
-0.0792451 -0.524832 3.18674 24 26 23 
-0.0789729 -0.514429 3.18867 129 132 125 
-0.0785974 -0.477094 3.21435 139 139 137 
-0.0585584 -0.559742 3.17858 136 138 137 
0.153152 0.631336 3.72336 75 62 45 
0.142371 -0.709347 3.62789 236 232 221 
0.156916 0.620932 3.68933 119 107 91 
0.159843 0.618525 3.69929 47 35 19 
0.150438 -0.720392 3.61892 236 227 220 
0.167849 0.62215 3.68703 40 31 14 
0.170478 0.642534 3.68088 181 156 134 
0.178408 0.63995 3.6867 69 54 31 
0.194743 -0.815358 3.51927 47 32 9 
0.197785 -0.766472 3.52695 97 88 29 
0.198238 -0.822868 3.52496 36 23 0 
0.206415 -0.811175 3.50743 219 195 69 
0.204655 0.923385 3.15048 157 132 110 
0.234994 -0.659667 3.60214 239 226 191 
0.229161 -0.837923 3.48289 173 154 85 
0.233157 -0.703474 3.52312 184 165 71 
0.241333 -0.652919 3.59406 132 118 81 
0.236618 -0.842647 3.50597 182 164 100 
0.242154 -0.684151 3.53167 199 180 78 
0.241334 -0.810886 3.49999 101 90 60 
0.24366 -0.719998 3.51647 222 202 115 
0.252406 0.304737 3.53316 77 58 44 
0.244228 -0.731754 3.50158 136 116 1 
0.247052 -0.826548 3.49264 141 119 46 
0.249523 -0.866321 3.51984 147 133 11 
0.254113 -0.678818 3.52898 107 91 0 
0.252695 -0.803741 3.51197 215 193 56 
0.253622 -0.720396 3.5114 222 198 110 
0.252381 -0.740048 3.49118 129 112 8 
0.261956 -0.659515 3.58838 89 70 14 
0.263953 -0.751538 3.48504 90 77 0 
0.28048 -0.76955 3.48259 190 171 42 
0.296196 -0.775967 3.49607 140 122 0 
0.306642 -0.64279 3.57105 122 106 80 
0.300679 -0.832786 3.49726 158 137 9 
0.306005 -0.774075 3.4968 142 128 0 
0.31459 -0.669775 3.53391 206 183 79 
0.310696 -0.747823 3.48712 177 161 65 
0.321712 -0.652269 3.58347 196 174 133 
0.313497 -0.826313 3.48621 232 211 92 
0.320196 -0.679418 3.52157 132 111 22 
0.31762 -0.739934 3.49022 120 102 4 
0.320444 -0.769717 3.5015 255 244 102 
0.326372 -0.687067 3.52611 128 102 9 
0.327363 -0.727616 3.49435 128 107 2 
0.328683 -0.764468 3.50308 255 234 91 
0.339155 -0.748926 3.50569 178 157 29 
0.348762 -0.760756 3.51621 215 192 50 
0.348671 -0.856862 3.50913 199 182 50 
0.317277 0.971053 3.04979 214 192 168 
0.349133 -0.526408 3.37717 169 140 98 
0.364656 -0.836637 3.51904 43 27 0 
0.358022 -0.564165 3.43491 251 235 202 
0.373066 -0.709367 3.58393 243 229 202 
0.370433 -0.83979 3.53075 208 195 178 
0.375766 -0.697895 3.57202 153 131 74 
0.375443 -0.679596 3.56502 157 134 84 
0.372753 -0.60798 3.50117 244 197 93 
0.384601 -0.759824 3.5467 121 68 34 
0.389667 -0.788843 3.55433 102 66 40 
0.417618 0.244646 3.56139 96 86 77 
0.428406 -0.69143 3.64784 239 230 221 
0.427612 0.236685 3.54909 85 72 64 
0.444074 -0.724717 3.67879 226 221 217 
0.453133 -0.70531 3.67279 64 61 56 
0.446005 -0.909791 3.56531 188 174 161 
0.458941 -0.735546 3.6441 159 154 150 
0.4658 -0.754774 3.64033 160 157 148 
0.411247 -0.374037 3.18674 33 22 20 
0.456021 -0.928964 3.53866 183 171 159 
0.47024 -0.764286 3.63872 134 134 122 
0.471184 -0.694561 3.63815 67 66 62 
0.417078 -0.372121 3.19521 134 121 115 
0.461114 -0.969086 3.53019 188 178 166 
0.473353 -0.814288 3.59679 131 127 118 
0.463716 -0.961342 3.52221 61 43 23 
0.483428 -0.692094 3.63516 68 67 65 
0.48052 -0.721897 3.61367 132 128 127 
0.483585 -0.747685 3.62015 69 70 65 
0.470253 -0.988489 3.51153 187 180 170 
0.474057 -0.979096 3.52998 151 150 148 
0.471538 -0.955692 3.50628 123 121 108 
0.473183 -0.939032 3.51163 12 14 11 
0.488721 -0.802527 3.59578 125 118 110 
0.486837 -0.840235 3.56763 124 110 109 
0.493664 -0.744597 3.61153 38 37 35 
0.482631 -0.912877 3.53659 120 115 112 
0.483806 -0.967473 3.51624 113 112 107 
0.484247 -0.952594 3.5023 107 106 101 
0.48202 -1.04109 3.47574 142 43 24 
0.486957 -1.02376 3.49248 106 63 57 
0.491264 -0.943517 3.49126 198 174 126 
0.516403 -0.68544 3.63347 202 197 194 
0.496147 -1.03463 3.4878 118 41 25 
0.518033 -0.783441 3.6268 88 81 73 
0.523274 -0.76028 3.63451 31 30 28 
0.502991 -1.02272 3.49381 22 8 0 
0.503711 -0.939073 3.4921 200 158 76 
0.529458 -0.761777 3.64339 48 47 42 
0.520882 -0.834181 3.58251 77 48 44 
0.512165 -0.982624 3.51952 22 18 15 
0.50831 -1.01284 3.49043 186 179 171 
0.509702 -1.0062 3.49867 20 17 10 
0.527595 -0.827039 3.60469 177 160 152 
0.532253 -0.753249 3.63315 47 44 39 
0.513336 -0.989007 3.50875 183 179 170 
0.513587 -0.958259 3.50766 113 104 87 
0.527238 -0.848944 3.58606 171 151 142 
0.538214 -0.692724 3.64351 204 204 204 
0.535858 -0.703518 3.62386 32 33 37 
0.5197 -0.967247 3.52303 104 98 84 
0.519173 -0.974113 3.514 106 99 89 
0.541971 -0.744705 3.63873 69 66 59 
0.544251 -0.722077 3.63023 117 117 115 
0.530038 -0.924568 3.53347 183 170 161 
0.556911 -0.742091 3.6562 148 145 140 
0.537631 -0.960042 3.53651 106 85 54 
0.480301 0.94763 3.07908 234 217 191 
0.551557 -0.699802 3.601 99 95 96 
0.554486 -0.678292 3.58148 88 87 83 
0.487964 0.965135 3.06709 161 144 128 
0.561771 -0.719741 3.611 176 172 169 
0.503078 0.936127 3.11564 168 153 134 
0.589005 -0.782472 3.72166 219 206 197 
0.563983 -0.666686 3.55336 157 153 150 
0.502154 0.949605 3.08881 220 201 184 
0.569226 -0.6615 3.5411 65 64 62 
0.500237 0.973956 3.03032 216 194 173 
0.624428 0.565848 3.78374 202 180 159 
0.518574 0.931756 3.11648 222 205 189 
0.605814 -0.765835 3.6937 141 136 130 
0.583295 -0.647316 3.53742 76 76 78 
0.58946 -0.626532 3.53121 212 208 207 
0.589134 -0.665728 3.52486 96 94 95 
0.634182 0.589962 3.74809 214 194 170 
0.615898 -0.763745 3.67298 95 90 86 
0.525772 0.963376 3.06139 225 208 188 
0.593719 -0.653849 3.51981 137 137 135 
0.608883 -0.720714 3.60848 30 26 23 
0.544936 0.900916 3.16583 215 193 172 
0.598805 -0.632618 3.53299 37 35 38 
0.613009 -0.710524 3.60303 134 133 129 
0.601581 -0.674579 3.53043 79 78 74 
0.600997 -0.663138 3.52434 80 78 81 
0.6217 -0.71396 3.60905 151 147 146 
0.628382 -1.11569 3.65433 148 129 89 
0.610286 -0.629591 3.53169 110 105 102 
0.608419 -0.651133 3.51814 124 123 121 
0.610485 -0.633943 3.51951 62 60 61 
0.635182 -0.744724 3.655 39 35 32 
0.562884 0.924521 3.14309 221 201 177 
0.569751 0.908341 3.1675 211 187 163 
0.62975 -0.683046 3.54846 41 38 33 
0.631349 -0.645856 3.51623 148 149 144 
0.653109 -1.11009 3.63465 48 32 0 
0.635325 -0.665671 3.51407 72 71 69 
0.639601 -0.63245 3.53426 63 58 55 
0.658032 -0.71666 3.60742 46 39 33 
0.579545 0.931853 3.11352 180 160 136 
0.637775 0.769673 3.40702 220 198 174 
0.668017 -0.725026 3.61832 45 37 26 
0.653889 -0.662919 3.53328 129 125 122 
0.670844 -0.769189 3.62321 232 193 53 
0.674595 -0.731666 3.62245 65 47 9 
0.683232 -0.811427 3.63673 109 52 0 
0.665788 -1.06084 3.54212 92 79 62 
0.678488 -0.709672 3.59299 47 44 39 
0.68341 -0.732497 3.5989 121 101 42 
0.684987 -0.749709 3.60642 173 135 28 
0.682202 -0.830029 3.59146 72 29 0 
0.630215 -0.880528 3.31774 17 19 18 
0.681107 -0.843901 3.58458 197 161 39 
0.686789 -0.776301 3.61198 234 189 36 
0.693409 -0.793193 3.61679 148 105 0 
0.679844 -0.658026 3.5308 55 53 54 
0.694559 -0.729923 3.60459 93 84 69 
0.615503 0.919997 3.13351 222 197 175 
0.691733 -0.703711 3.57727 45 43 44 
0.68496 -0.650703 3.53744 123 122 120 
0.695811 -0.737859 3.59362 225 208 200 
0.637213 -0.843578 3.28075 205 167 42 
0.672135 -0.975623 3.44592 247 218 100 
0.704749 -0.75346 3.6031 137 106 26 
0.64413 -0.847297 3.29106 156 122 24 
0.694969 -0.672805 3.53914 141 140 135 
0.694495 -0.660757 3.53574 145 144 142 
0.700084 -0.681765 3.5555 89 88 84 
0.710331 -0.746386 3.58972 109 88 25 
0.698461 -1.14481 3.54161 148 115 82 
0.713683 -0.732215 3.59795 57 43 32 
0.655096 -0.849917 3.30052 213 162 73 
0.657025 -0.882081 3.31022 234 221 213 
0.717223 -0.718516 3.6011 31 30 26 
0.647056 -0.412656 3.23242 117 104 95 
0.631829 0.935546 3.11094 220 198 175 
0.708021 -1.15038 3.54627 69 31 0 
0.710685 -0.671324 3.539 126 126 116 
0.66433 -0.859103 3.30931 214 158 75 
0.723213 -0.705003 3.57677 17 13 10 
0.730261 -0.735504 3.59391 147 131 116 
0.670891 -0.865973 3.30359 152 93 51 
0.656875 -0.40425 3.21427 157 141 118 
0.702682 -1.05986 3.45599 172 139 88 
0.724024 -0.680109 3.5453 53 52 50 
0.724942 -0.636928 3.54204 229 217 217 
0.707245 -1.0677 3.46781 88 56 17 
0.73824 -0.723454 3.59616 24 17 9 
0.679058 -0.828528 3.30176 205 161 52 
0.714316 -1.06815 3.47701 174 138 88 
0.733015 -0.657821 3.55207 63 63 65 
0.744816 -0.745548 3.60153 101 75 40 
0.722507 -1.06913 3.49502 106 71 5 
0.724268 -1.09415 3.49474 255 250 238 
0.685162 -0.855745 3.29553 244 232 208 
0.738822 -0.682317 3.54582 61 56 50 
0.738801 -0.668584 3.54367 57 53 50 
0.713948 -0.968762 3.42762 65 60 54 
0.669532 0.911548 3.14819 218 194 170 
0.692627 -0.865237 3.31031 218 182 156 
0.716203 -0.982727 3.42275 181 172 165 
0.700439 -0.839735 3.31433 245 192 34 
0.727255 -0.976156 3.43147 125 120 114 
0.740077 -1.10354 3.4642 49 122 93 
0.740656 -1.02015 3.46134 230 191 51 
0.709757 -0.851182 3.3119 144 67 0 
0.68236 0.923944 3.12208 222 198 174 
0.763326 -0.678532 3.54531 111 106 100 
0.710861 -0.839481 3.30452 255 236 93 
0.743873 -0.98548 3.44792 195 173 113 
0.767861 -0.664007 3.54885 59 59 61 
0.751106 -0.967889 3.46571 21 15 17 
0.721042 -0.861603 3.31689 212 119 101 
0.770299 -0.973472 3.52516 12 1 0 
0.766981 -1.1429 3.51276 48 98 73 
0.725047 -0.850814 3.31147 81 44 26 
0.72461 -0.836177 3.2989 162 142 117 
0.792887 -0.877927 3.59948 41 6 0 
0.77917 -1.1619 3.53758 54 95 65 
0.784949 -0.685284 3.54804 57 29 17 
0.770123 -1.04265 3.49051 138 108 44 
0.776799 -0.967993 3.50909 96 79 35 
0.736405 -0.853005 3.31338 32 15 8 
0.782386 -0.940894 3.51481 103 61 0 
0.741355 -0.843841 3.31872 196 181 162 
0.71308 0.921796 3.1264 235 213 192 
0.802086 -0.671261 3.56371 91 87 88 
0.749165 -0.841961 3.32567 73 52 25 
0.747681 -0.863575 3.31914 255 253 245 
0.802352 -0.67962 3.55645 174 171 166 
0.780161 -1.01228 3.45214 74 71 66 
0.769255 -1.06395 3.40013 54 46 23 
0.781593 -0.996427 3.44594 96 89 79 
0.772938 -1.03164 3.4033 108 91 61 
0.812622 -0.662658 3.5551 42 41 37 
0.813787 -0.676453 3.55588 28 28 26 
0.783604 -0.987077 3.43104 12 3 0 
0.808628 -0.628411 3.51704 162 148 147 
0.787422 -1.02333 3.42914 8 9 3 
0.737284 0.904431 3.1546 218 191 172 
0.862671 -0.880851 3.73607 157 143 130 
0.821555 -0.666662 3.54896 49 49 47 
0.815969 -0.921246 3.48797 184 158 121 
0.86786 -0.889178 3.70636 75 47 8 
0.784872 -1.06232 3.34584 229 199 161 
0.786913 -1.14863 3.35318 68 45 13 
0.832791 -0.659187 3.53303 121 117 116 
0.926067 0.516189 3.87609 200 184 159 
0.779783 -0.4353 3.26228 141 125 112 
0.822435 -0.941935 3.44478 93 88 85 
0.800619 -1.06692 3.35223 17 52 10 
0.901897 0.591262 3.72476 166 144 121 
0.793413 -1.01704 3.30963 108 86 39 
0.859019 -0.676779 3.56441 49 51 50 
0.80744 -0.962969 3.35291 78 53 22 
0.844876 -0.716891 3.49776 111 30 27 
0.806349 -0.955467 3.34204 160 134 107 
0.867557 -0.659649 3.54412 143 139 136 
0.811301 -1.03056 3.31271 209 208 162 
0.871332 -0.688005 3.54503 60 56 55 
0.822612 -1.06333 3.35548 16 67 36 
0.812098 -1.0162 3.30215 255 254 204 
0.877169 -0.67923 3.55655 185 184 182 
0.821015 -0.969798 3.33363 176 154 131 
0.809883 -0.99707 3.28666 141 117 79 
0.831101 -0.933891 3.36813 139 121 97 
0.824338 -1.07367 3.34151 115 116 102 
0.881135 -0.691444 3.56072 32 30 31 
0.883272 -0.661346 3.54902 165 164 162 
0.829595 -1.06335 3.33773 22 12 10 
0.822105 -1.03017 3.30366 221 215 165 
0.888322 -0.682716 3.55676 37 37 37 
0.840314 -0.980598 3.36465 95 69 54 
0.832937 -1.04792 3.32919 70 142 96 
0.896091 -0.654951 3.54978 22 17 21 
0.842253 -1.15812 3.33907 165 72 80 
0.841184 -1.11815 3.32938 90 0 0 
0.830166 -1.00453 3.27526 187 164 132 
0.927693 -0.866023 3.63813 71 29 0 
0.849825 -1.07723 3.32173 29 6 0 
0.921728 -0.685633 3.57356 40 42 41 
0.86031 -1.08838 3.31916 51 140 86 
0.865164 -0.962337 3.33343 168 146 123 
0.959495 -0.826426 3.67329 100 60 0 
0.922999 -0.946066 3.52048 199 175 131 
0.924973 -0.953081 3.5281 123 98 58 
0.878734 -1.11872 3.35426 166 16 41 
0.962189 -0.765586 3.65911 29 24 18 
0.947861 -0.685304 3.5986 66 63 56 
0.945442 -0.676391 3.58639 180 176 165 
0.932633 -0.947791 3.53691 114 86 46 
0.973688 -0.832475 3.68491 121 79 3 
0.8809 -0.961128 3.3334 181 159 135 
0.973557 -0.784386 3.66339 129 112 86 
0.955077 -0.717199 3.58359 61 33 21 
0.886796 -1.0593 3.33006 139 136 119 
0.979997 -0.802978 3.67109 118 88 34 
0.877271 -1.00927 3.28791 236 212 166 
0.881756 -1.06354 3.30543 163 65 64 
0.886315 -1.09139 3.32195 48 0 0 
0.876015 -1.00061 3.27547 72 50 9 
0.892829 -1.04529 3.33506 110 121 107 
0.966414 -0.714591 3.59059 115 105 96 
0.896194 -1.0571 3.33407 116 108 95 
0.901195 -1.04637 3.34159 79 107 85 
0.937952 -0.992922 3.47546 81 81 83 
0.994364 -0.806429 3.67386 246 217 173 
0.995943 -0.783745 3.67803 96 94 82 
0.907121 -1.063 3.35079 104 108 91 
1.00073 -0.811163 3.6849 175 145 85 
0.983106 0.667425 3.58346 150 132 112 
0.911713 -1.04896 3.35017 86 144 104 
0.999202 -0.762101 3.66393 117 114 107 
0.907826 -1.02729 3.32473 69 166 99 
0.988021 -0.712983 3.60566 59 55 54 
1.00732 -0.805882 3.67586 198 178 153 
0.907181 -1.01436 3.31407 52 74 38 
1.01505 -0.78935 3.69621 34 35 30 
0.909291 -0.997854 3.30805 116 89 46 
1.02283 -0.831131 3.71353 211 184 113 
0.916096 -1.01476 3.32642 198 189 158 
1.01142 -0.792845 3.667 82 75 65 
1.02071 -0.781489 3.68691 32 31 27 
1.02403 -0.809326 3.6971 209 191 169 
0.979714 -0.941868 3.53966 124 87 0 
0.978028 -0.930263 3.53293 120 90 38 
0.964998 -0.98804 3.48452 15 14 10 
1.02583 -0.788502 3.69778 101 100 96 
1.00373 -0.730884 3.61379 50 49 45 
1.02777 -0.799518 3.69633 94 86 73 
0.935909 -1.04106 3.35292 60 43 23 
0.988245 -0.944541 3.52803 137 118 60 
0.987278 -0.903242 3.52131 17 2 0 
0.937007 -1.1195 3.33676 195 186 177 
1.01798 -0.732934 3.61228 70 66 63 
1.06409 -0.819945 3.76143 134 130 127 
1.0555 0.129624 3.70287 162 152 143 
1.08085 -0.875256 3.81141 227 218 211 
1.02859 -0.727138 3.61064 128 123 120 
1.03085 -0.739102 3.60786 137 134 127 
1.04273 -0.715048 3.62903 65 63 66 
1.03446 -0.687048 3.5959 107 96 94 
1.0984 -0.883073 3.82087 89 85 76 
1.09862 -0.860437 3.81758 59 55 43 
1.04248 -0.668493 3.58683 233 225 222 
1.05638 -0.721578 3.61251 164 165 160 
1.10273 -0.839338 3.77248 52 45 35 
1.11221 -0.874325 3.7961 29 26 17 
1.05979 -0.689408 3.60946 119 111 100 
0.987431 -1.10655 3.36768 72 61 33 
1.0345 -0.957027 3.51449 180 175 169 
1.07529 -0.755739 3.64726 141 136 132 
1.06284 -0.690684 3.5983 199 188 182 
1.08164 -0.76318 3.65628 21 17 18 
1.11404 -0.836528 3.75895 63 61 48 
1.02607 -0.904006 3.45908 197 167 0 
1.1148 -0.818534 3.7517 148 145 140 
1.02309 -0.904346 3.44054 219 183 9 
0.994439 -1.12854 3.34454 124 104 77 
1.12448 -0.831434 3.77077 20 16 15 
1.05692 -0.174751 3.51798 160 147 139 
1.05565 -0.18516 3.51087 147 134 125 
1.09041 -0.739439 3.63249 128 125 120 
1.11395 -1.04644 3.70796 49 46 39 
1.11239 -1.09903 3.69144 106 98 85 
1.13926 -0.859951 3.77089 41 37 34 
1.11319 -1.04934 3.67875 18 10 7 
1.14378 -0.846473 3.76707 104 100 99 
1.11763 -1.11315 3.68626 205 198 192 
1.10571 -0.732534 3.6353 62 61 59 
1.04871 -0.850276 3.43549 255 238 198 
1.15531 -0.864437 3.78066 29 28 24 
1.12257 -0.770693 3.66623 91 91 81 
1.06407 -0.83503 3.46678 136 90 0 
1.05904 -0.856713 3.44964 136 100 12 
1.11691 -0.733728 3.6339 176 178 177 
1.12267 -0.75614 3.65182 63 62 57 
1.133 -1.04709 3.67763 18 5 0 
1.1271 -1.15068 3.65481 214 184 174 
1.06266 -0.85212 3.43948 165 119 8 
1.12989 -1.07067 3.65885 103 95 82 
1.03749 -0.482435 3.33785 130 117 109 
1.13817 -1.12406 3.67015 20 22 17 
1.13512 -0.732795 3.65229 70 70 70 
1.07934 -0.944118 3.47455 187 154 38 
1.13281 -0.719238 3.64171 111 108 103 
1.1374 -1.04401 3.66274 112 84 36 
1.13872 -0.759524 3.65909 85 85 75 
1.13671 -1.16436 3.64557 176 51 29 
1.07974 -0.841009 3.45206 217 182 126 
1.04467 -0.482873 3.32575 130 117 109 
1.07915 -0.88829 3.42898 122 141 96 
1.15522 -0.759739 3.66797 139 130 125 
1.15154 -1.06152 3.66022 205 167 92 
1.09539 -0.86218 3.45155 200 176 52 
1.09447 -0.888711 3.44237 146 183 166 
1.17031 -1.07881 3.67898 29 13 0 
1.09179 -0.881318 3.42311 48 89 85 
1.30122 -1.07924 4.03039 226 175 158 
1.11443 -0.884319 3.43934 105 126 67 
1.30342 -1.0855 4.02243 226 184 160 
1.31711 -0.966804 4.04792 153 115 92 
1.34244 -0.889872 3.92502 88 71 55 
1.39021 -0.997504 4.06384 185 133 120 
1.34963 -0.903598 3.94073 241 225 210 
1.38872 -1.00062 4.04661 174 120 108 
1.34283 -0.886221 3.90196 191 163 123 
1.40247 -1.00358 4.06678 230 173 164 
1.25605 -0.693731 3.62706 233 228 222 
1.4223 -0.991271 4.07762 199 167 144 
1.44618 -1.04956 4.0713 161 120 116 
1.45425 -1.07153 4.08322 173 127 129 
1.38465 0.510493 3.85304 211 191 167 
1.39157 -0.867568 3.89725 191 155 105 
1.44983 0.444528 3.9874 163 147 134 
1.44894 0.457453 3.95813 216 199 179 
1.49341 -1.1135 4.0895 231 180 161 
1.42131 -0.864504 3.86899 246 235 229 
1.44238 -0.865113 3.88646 238 236 237 
1.49889 0.443417 4.01279 213 194 177 
1.45205 -0.851171 3.84825 242 238 237 
1.53557 0.423418 4.02388 182 164 140 
1.48649 -0.86035 3.8613 67 63 64 
1.57727 0.416058 4.04523 187 169 147 
1.5046 -0.852897 3.84295 241 237 238 
1.59815 0.410693 4.04501 183 163 139 
1.50204 0.0565536 3.7938 150 139 135 
1.51848 -0.85201 3.84121 62 58 59 
1.53496 -0.780757 3.72759 251 246 252 
1.50575 0.639353 3.62821 223 206 180 
1.69328 -1.02171 4.09982 110 105 109 
1.53646 -0.764777 3.71073 212 207 211 
1.59718 0.0538174 3.84087 244 230 229 
1.71053 -1.00708 4.10404 41 41 41 
1.49361 -0.632225 3.48228 212 178 153 
1.76929 0.383129 4.09727 177 154 136 
1.76833 0.386277 4.08501 179 154 132 
1.74209 -1.41864 4.01607 42 42 42 
1.33606 0.959828 3.0426 214 193 172 
1.78817 -1.34078 4.01419 98 103 71 
1.4425 0.881759 3.20231 177 155 132 
1.67177 -0.280666 3.69563 125 112 103 
1.84482 -0.928705 3.97514 247 242 246 
1.89391 -1.28718 4.08265 95 98 71 
1.89595 -1.22426 4.07674 111 109 84 
1.72762 -0.288656 3.68416 168 153 124 
1.85609 -0.924105 3.94944 240 240 240 
1.74695 0.602501 3.68416 216 198 176 
1.65666 -0.592741 3.49297 118 105 99 
1.67058 -0.592222 3.49233 133 121 99 
1.97499 -1.18894 4.13261 37 36 34 
1.70128 0.696382 3.52444 220 195 175 
1.67084 -0.583192 3.47587 185 165 138 
1.67572 -0.587499 3.4836 161 136 106 
1.80957 -0.283655 3.71923 104 88 73 
1.80595 -0.283067 3.70922 104 88 73 
1.64645 0.78356 3.35135 220 203 187 
2.06575 0.33035 4.2007 43 29 18 
2.10909 -1.06627 4.24359 126 124 125 
1.78954 -0.59621 3.50441 87 71 58 
2.1242 -1.08107 4.15014 220 211 212 
2.39423 0.15 4.51738 76 60 47 
1.85152 0.716081 3.4766 162 136 121 
2.41745 0.140151 4.55042 169 146 132 
2.40407 0.113337 4.52411 136 125 123 
2.19188 -1.06835 4.1074 29 37 48 
2.48832 0.263363 4.50295 96 82 69 
2.4187 0.257073 4.32462 94 81 65 
2.09721 0.571821 3.73862 164 142 121 
2.19137 -0.851178 3.85043 154 148 136 
2.20531 -0.867749 3.83708 241 228 219 
2.14971 -0.748826 3.68426 118 102 87 
2.24071 -0.86454 3.78482 111 102 33 
2.7532 0.0783419 4.63353 169 150 135 
2.43848 -0.0955371 4.07798 231 218 212 
2.57578 0.261061 4.29831 160 141 126 
2.45713 -0.0810714 4.08918 129 116 107 
2.24542 -0.943805 3.74293 202 205 90 
2.60919 0.269186 4.26624 212 196 181 
2.72285 -0.50296 4.24151 132 118 109 
2.72663 -0.478835 4.23712 165 152 143 
2.42386 -0.75481 3.69959 118 108 98 
-2.02231 0.453189 3.07085 212 207 204 
-1.97704 0.487825 3.03695 90 68 45 
-1.96092 0.494697 3.0259 136 115 84 
-1.95616 0.438582 3.0808 184 172 176 
-2.03914 0.350676 3.20644 138 128 127 
-1.94569 0.423627 3.11371 225 216 219 
-1.94654 0.411376 3.11805 141 130 134 
-1.91192 0.424134 3.10212 226 217 218 
-1.93419 0.405265 3.13442 116 111 115 
-1.9016 0.430889 3.09853 181 175 175 
-1.94603 0.387019 3.15352 143 134 137 
-1.90701 0.419016 3.10937 146 137 140 
-1.9457 0.927954 3.26003 124 107 97 
-1.92213 0.408942 3.13011 96 91 95 
-1.92253 0.396014 3.13142 229 220 221 
-1.77496 1.08464 3.06967 32 22 30 
-1.89621 0.425767 3.10667 231 222 223 
-1.8764 0.431688 3.08353 173 167 171 
-1.90862 0.405577 3.12766 127 118 123 
-2.00446 0.315425 3.24012 180 171 172 
-1.98391 0.330998 3.22313 174 168 172 
-1.8982 0.40745 3.12315 152 146 146 
-1.93324 0.374078 3.17632 197 188 189 
-1.89222 0.983357 3.2429 168 150 136 
-1.84022 0.441756 3.08202 241 230 234 
-1.97298 0.312028 3.2455 217 211 211 
-1.94934 0.338301 3.22064 185 179 183 
-1.95744 0.317328 3.23314 167 158 163 
-1.89008 0.388893 3.15573 233 222 226 
-1.90702 0.376103 3.17649 186 175 179 
-1.91705 0.972451 3.30843 113 94 79 
-1.86148 0.414159 3.1242 184 175 178 
-1.84036 0.424146 3.1036 178 169 174 
-1.97096 0.305829 3.26259 145 139 139 
-1.9082 0.362106 3.19232 229 223 223 
-1.92983 0.33808 3.21851 187 176 180 
-1.99106 0.272407 3.30251 231 222 223 
-1.85844 0.403811 3.14754 231 225 225 
-2.03414 0.214656 3.35447 174 162 164 
-2.02244 0.233986 3.34239 190 180 181 
-2.0348 0.201798 3.35696 149 135 132 
-1.89909 0.35743 3.20228 170 164 166 
-1.88106 0.368949 3.18537 178 172 174 
-1.96694 0.284626 3.29046 134 128 132 
-1.97844 0.265051 3.31015 225 219 221 
-1.82998 0.404164 3.1315 155 149 149 
-1.90175 0.337754 3.22247 230 221 226 
-1.79483 0.437509 3.09582 139 133 135 
-1.92142 0.318822 3.25211 229 225 226 
-1.85708 0.377044 3.17445 189 180 181 
-2.01252 0.188683 3.35504 147 142 139 
-1.98833 0.231847 3.33934 199 193 195 
-1.79186 0.427866 3.10436 165 159 161 
-1.83937 0.383349 3.16345 238 227 231 
-1.82299 0.398445 3.14381 231 225 225 
-1.75316 0.466991 3.0602 252 246 248 
-1.84625 0.389089 3.17886 164 155 158 
-1.79645 0.420453 3.12117 164 157 164 
-1.82202 0.376362 3.16392 165 154 160 
-1.8462 0.366362 3.20135 236 227 228 
-1.68655 0.49263 3.02428 133 121 109 
-1.77296 0.973176 3.25482 85 66 49 
-1.84206 0.344036 3.22669 236 230 232 
-1.91613 0.250505 3.31928 209 200 205 
-1.92049 0.242222 3.32977 204 198 202 
-1.89498 0.266952 3.30864 178 167 171 
-1.84664 0.307795 3.26298 180 169 173 
-1.89216 0.239199 3.32745 213 207 209 
-1.82938 0.299863 3.27412 157 152 158 
-1.83602 0.281156 3.29928 168 159 164 
-1.62651 0.521742 3.04124 69 48 31 
-1.84592 0.256094 3.31537 201 192 193 
-1.75312 0.363012 3.20551 248 243 239 
-1.82862 0.263642 3.30644 157 147 155 
-1.83816 0.241557 3.31671 203 194 195 
-1.83848 0.219372 3.32551 187 181 185 
-1.78147 0.31074 3.26374 192 186 186 
-1.82669 0.220139 3.32104 145 139 143 
-1.74376 0.283269 3.29263 69 61 59 
-1.75344 0.236413 3.3055 221 215 215 
-1.74479 0.259441 3.29808 114 105 108 
-1.7604 0.194942 3.31283 212 206 208 
-1.73393 0.27742 3.29986 87 82 79 
-1.76527 0.188307 3.33297 221 211 219 
-1.74526 0.216375 3.31324 98 83 76 
-1.44124 1.05569 3.09009 195 177 155 
-1.61208 0.282742 3.27855 197 180 172 
-1.61863 0.312612 3.30827 124 110 99 
-1.61141 0.323958 3.30095 156 126 102 
-1.62627 0.224684 3.31819 21 8 0 
-1.60999 0.244695 3.29945 100 90 81 
-1.55905 0.912379 3.3704 160 138 117 
-1.62119 0.30386 3.33575 105 80 58 
-1.60165 0.305271 3.3104 148 125 107 
-1.60681 0.297773 3.32519 146 119 90 
-1.61218 0.29107 3.34246 96 69 48 
-1.59555 0.311405 3.3198 98 81 65 
-1.58833 0.199386 3.28739 91 69 48 
-1.63123 0.267785 3.40183 66 52 43 
-1.74358 0.225357 3.58503 37 20 10 
-1.58923 0.193419 3.32145 165 143 119 
-1.45764 0.392179 3.15972 82 50 29 
-1.61742 0.263156 3.39846 152 142 133 
-1.56117 0.310532 3.31593 87 68 51 
-1.59984 0.279889 3.37484 151 121 85 
-1.62328 0.261585 3.42925 84 73 69 
-1.61038 0.217035 3.4003 16 9 1 
-1.46204 0.374393 3.18981 114 80 52 
-1.55514 0.294109 3.33124 92 75 65 
-1.544 0.301924 3.32137 83 64 49 
-1.54813 0.291504 3.33859 87 73 62 
-1.24905 1.08923 3.02324 159 139 128 
-1.53459 0.29123 3.33715 95 78 68 
-1.57178 0.232259 3.40763 239 225 212 
-1.55794 0.241903 3.39556 47 34 28 
-1.50329 0.298356 3.32207 95 69 44 
-1.42829 0.364065 3.21485 82 57 35 
-1.50616 0.285642 3.34093 103 86 70 
-1.4124 0.3674 3.19938 79 51 29 
-1.65313 0.123953 3.61636 91 79 67 
-1.41486 0.333994 3.25281 84 57 30 
-1.50321 0.25644 3.39295 188 154 127 
-1.63619 0.126223 3.60885 79 62 54 
-1.58104 0.157163 3.52066 97 85 73 
-1.38964 0.349351 3.22838 160 136 110 
-1.46746 0.279387 3.35465 150 128 107 
-1.45371 0.288914 3.33365 92 73 58 
-1.42727 0.309818 3.29433 84 57 36 
-1.40249 0.329347 3.26197 166 139 112 
-1.40405 0.319741 3.27765 152 132 121 
-1.36456 0.351147 3.22042 90 73 57 
-1.2731 0.984681 3.22239 200 182 168 
-1.41116 0.30148 3.30335 154 133 116 
-1.36327 0.344963 3.23211 162 135 108 
-1.48861 0.189523 3.42164 35 22 6 
-1.38764 0.316384 3.27951 141 128 120 
-1.5656 0.136373 3.56728 81 58 42 
-1.34724 0.342538 3.22961 163 137 120 
-1.37446 0.319269 3.27683 155 128 98 
-1.3388 0.351527 3.22073 90 75 70 
-1.39004 0.302856 3.30257 82 69 52 
-1.39756 0.287233 3.32942 154 128 103 
-1.33305 0.340981 3.23112 158 133 111 
-1.54587 0.132417 3.57075 78 60 46 
-1.32018 0.351553 3.21369 171 145 120 
-1.41198 0.267824 3.36245 102 80 67 
-1.36409 0.310138 3.28582 151 131 120 
-1.57979 0.112504 3.63268 108 81 60 
-1.39773 0.278595 3.34608 101 74 53 
-1.45185 0.183306 3.42966 38 18 9 
-1.3443 0.319531 3.27021 77 59 45 
-1.31645 0.344121 3.22553 147 125 111 
-1.35717 0.305717 3.29181 86 68 46 
-1.37513 0.28592 3.32238 148 121 104 
-1.5524 0.114752 3.62215 83 69 60 
-1.50362 0.143119 3.53889 134 117 107 
-1.36085 0.290922 3.31478 72 54 40 
-1.34227 0.307624 3.28655 149 122 103 
-1.29656 0.348189 3.21463 92 64 50 
-1.38541 0.267559 3.36494 100 84 69 
-1.21669 0.974393 3.23581 180 163 145 
-1.3726 0.273687 3.34818 151 126 95 
-1.34136 0.298796 3.29939 155 129 112 
-1.48608 0.138323 3.54233 84 65 51 
-1.14453 0.31788 2.949 80 67 58 
-1.50571 0.124792 3.58015 78 56 43 
-1.35315 0.279415 3.34203 157 126 95 
-1.47889 0.136525 3.55168 90 74 59 
-1.32622 0.293347 3.31037 159 129 101 
-1.27278 0.339865 3.22599 68 46 35 
-1.33475 0.276935 3.33995 87 66 49 
-1.40091 0.173121 3.44292 20 0 0 
-1.26591 0.332422 3.23506 166 134 109 
-1.31283 0.28775 3.3147 79 61 41 
-1.33428 0.260456 3.36113 97 82 75 
-1.31136 0.281798 3.33054 151 129 108 
-1.38526 0.169952 3.44318 13 1 0 
-1.2224 0.391809 3.18893 86 62 36 
-1.21407 0.378632 3.17532 89 63 46 
-1.32057 0.255784 3.37155 148 123 116 
-1.30164 0.269348 3.34428 91 68 52 
-1.28524 0.268529 3.34482 105 77 53 
-1.18798 0.430949 3.19818 115 101 88 
-1.21865 0.886765 3.3829 196 175 156 
-1.17195 0.33165 3.25246 18 9 0 
-1.15936 0.334105 3.23797 86 77 72 
-1.14763 0.33449 3.23847 87 77 76 
-1.02077 0.901379 3.32244 17 16 11 
-1.15222 -0.16887 3.30391 74 72 73 
-0.9393 -0.0883171 3.14803 62 15 51 
-0.920716 -0.0834689 3.14995 94 63 78 
-0.892534 -0.096909 3.10559 70 4 65 
-0.877477 -0.102229 3.11127 255 194 253 
-0.869974 -0.110661 3.13027 96 29 83 
-1.05288 -0.241757 3.55316 53 51 52 
-0.855845 -0.0734693 3.16847 98 95 104 
-0.85975 -0.11841 3.26004 137 58 141 
-0.860656 -0.109717 3.26767 105 73 140 
-0.81842 -0.0735083 3.19192 110 62 104 
-0.782774 -0.0819109 3.18421 46 0 47 
-0.770346 -0.0854654 3.18285 57 3 55 
-0.763683 -0.0873872 3.20399 46 0 42 
-0.753191 -0.10432 3.20679 22 0 23 
-0.741903 -0.100662 3.20763 88 53 85 
-0.737909 -0.10469 3.21839 118 68 117 
-0.754562 -0.117689 3.26423 102 59 141 
-0.850742 -0.599465 3.39336 75 73 74 
-0.735812 -0.157372 3.29071 57 0 55 
-0.71258 -0.0988718 3.26522 51 13 50 
-0.681075 -0.069259 3.24362 104 102 107 
-0.701152 -0.125262 3.29907 32 10 46 
-0.692083 -0.113925 3.28491 25 12 32 
-0.674204 -0.142339 3.26329 220 165 205 
-0.701043 -0.185526 3.38139 62 7 47 
-0.698912 -0.194153 3.38953 113 60 104 
-0.650585 -0.113096 3.27136 44 21 41 
-0.691586 -0.200161 3.38064 21 0 15 
-0.648675 -0.144659 3.27001 169 117 165 
-0.693906 -0.204665 3.38943 117 108 113 
-0.641729 -0.105924 3.2656 160 61 152 
-0.396342 1.03117 3.06958 231 212 195 
-0.718177 -0.288129 3.6281 114 112 117 
-0.618465 -0.974026 3.38532 102 101 99 
-0.6059 -0.969408 3.39815 116 116 114 
-0.595162 -0.963795 3.41141 85 84 80 
-0.382896 0.040646 3.1087 139 135 132 
-0.564247 -0.915752 3.40141 109 108 106 
-0.286559 0.679495 3.71053 87 72 65 
-0.153936 0.882308 3.3414 209 187 164 
-0.20928 0.384337 3.46517 146 133 125 
-0.208548 0.352871 3.46945 107 100 92 
-0.208826 -0.596193 3.29604 242 239 234 
0.152467 1.07281 2.98539 212 191 170 
-0.107474 -0.567565 3.35082 122 121 117 
0.149604 0.638619 3.76886 64 51 32 
0.137299 0.340066 3.68896 45 30 23 
0.172729 0.654667 3.77406 71 50 29 
0.189843 0.641234 3.76555 70 54 38 
0.200183 0.650619 3.75902 130 108 85 
0.31481 0.992745 3.12068 217 195 172 
0.325149 0.993678 3.10437 166 149 133 
0.260775 0.312273 3.61699 46 34 22 
0.140005 -0.714965 3.6594 239 230 221 
0.146513 -0.730498 3.66972 237 230 220 
0.411467 0.970638 3.15892 162 141 122 
0.187707 -0.821748 3.58974 250 239 111 
0.386481 0.704874 3.66532 205 180 158 
0.387112 0.691702 3.69213 205 181 157 
0.224865 -0.741287 3.57453 160 140 17 
0.234179 -0.704983 3.5982 194 179 76 
0.229625 -0.780217 3.58088 247 228 46 
0.472683 0.993891 3.11654 219 198 181 
0.23184 -0.80232 3.58942 189 173 34 
0.481772 0.971015 3.16179 236 218 196 
0.259525 -0.682338 3.61898 194 179 76 
0.26173 -0.690562 3.59829 220 202 92 
0.489323 0.983362 3.13136 164 145 131 
0.259419 -0.756104 3.55658 235 219 97 
0.500404 1.00946 3.08695 216 195 178 
0.2588 -0.803108 3.7182 154 145 76 
0.501965 0.996651 3.10599 219 193 176 
0.278684 -0.688331 3.615 225 198 91 
0.503773 0.968036 3.15606 218 200 178 
0.280802 -0.710329 3.63741 232 209 69 
0.525128 1.00713 3.0884 229 213 190 
0.427484 0.240378 3.61832 81 70 64 
0.528284 0.985452 3.13905 227 206 185 
0.531193 1.00031 3.10857 163 141 128 
0.529295 0.968035 3.15536 178 160 146 
0.315237 -0.756698 3.56746 112 100 2 
0.326567 -0.671352 3.66519 199 178 135 
0.334289 -0.640933 3.62886 239 233 211 
0.539575 0.913691 3.26126 228 206 185 
0.334997 -0.707822 3.57873 204 171 55 
0.33583 -0.75133 3.57371 127 105 0 
0.334103 -0.772517 3.57099 250 229 78 
0.351242 -0.677025 3.6647 138 117 64 
0.563421 0.912212 3.25737 156 138 118 
0.339343 -0.880146 3.57348 142 124 14 
0.572542 0.924723 3.23186 213 188 166 
0.577012 0.941815 3.21379 228 203 181 
0.347228 -0.887158 3.59972 251 237 130 
0.575022 0.85038 3.34405 206 180 157 
0.371702 -0.801542 3.61943 116 83 29 
0.383687 -0.775982 3.61815 121 65 38 
0.409544 -0.710588 3.68983 161 150 128 
0.417133 -0.726559 3.7518 231 222 207 
0.420726 -0.698472 3.70696 185 173 159 
0.62676 0.957468 3.16943 228 208 183 
0.63635 0.954165 3.18043 223 201 177 
0.638566 0.601621 3.82942 215 193 170 
0.656722 0.571137 3.88734 210 192 170 
0.486873 -0.765716 3.68592 53 53 51 
0.479944 -0.855575 3.63021 11 4 0 
0.710364 1.02827 3.04177 227 202 180 
0.500357 -0.84837 3.65143 82 32 33 
0.515912 -0.758224 3.6786 143 143 141 
0.485079 -0.966501 3.55376 112 110 98 
0.519376 -0.797465 3.68622 88 81 71 
0.719379 0.940486 3.19745 234 213 192 
0.499359 -0.94585 3.54499 125 88 17 
0.537687 -0.714838 3.68619 28 28 26 
0.499961 -1.04043 3.54281 211 182 174 
0.513274 -0.996464 3.56727 26 23 18 
0.509563 -1.02885 3.5456 193 184 177 
0.553776 -0.785674 3.71657 203 189 180 
0.744242 0.923485 3.22764 217 192 170 
0.586839 -0.662231 3.6203 81 81 81 
0.591888 -0.66658 3.58348 137 137 137 
0.596888 -0.783216 3.76261 77 73 64 
0.612129 -0.721195 3.6665 51 47 46 
0.615968 -0.681926 3.58969 151 151 143 
0.651637 -0.729418 4.02992 59 59 61 
0.625853 -0.658998 3.576 58 58 56 
0.636352 -0.705747 3.67797 74 73 68 
0.640849 -0.647358 3.5949 98 94 91 
0.639184 -0.678252 3.58161 75 74 69 
0.643182 -0.800065 3.78742 137 128 119 
0.654686 -0.681066 3.58661 78 74 71 
0.655848 -0.660798 3.49063 153 152 150 
0.662021 -0.775252 3.72529 92 85 79 
0.671587 -0.735707 3.67337 34 30 27 
0.671857 -0.675495 3.59052 122 119 110 
0.683834 -0.701248 3.69045 157 153 150 
0.683942 -0.668951 3.58979 58 58 56 
0.639841 -0.861498 3.33766 125 92 11 
0.688791 -0.76115 3.66148 171 137 29 
0.64586 -0.883413 3.35066 29 23 9 
0.701133 -0.651535 3.59995 60 50 49 
0.702092 -0.637419 3.58022 173 162 156 
0.685701 -0.840293 3.64106 73 33 0 
0.703335 -0.680747 3.59374 130 126 127 
0.705033 -0.695341 3.62272 90 84 88 
0.70038 -0.773364 3.66086 228 180 34 
0.685731 -0.870159 3.63462 220 182 55 
0.708309 -0.73732 3.66097 105 98 90 
0.660065 -0.893653 3.35499 233 219 218 
0.711087 -0.688737 3.58769 67 63 60 
0.66512 -0.861611 3.35087 117 63 0 
0.709455 -0.790963 3.67004 115 75 0 
0.667641 -0.871286 3.35687 216 164 81 
0.666679 -0.880513 3.35056 237 181 164 
0.714904 -0.760085 3.64974 121 94 27 
0.673786 -0.875109 3.34303 165 99 73 
0.729546 -0.646952 3.59882 227 217 215 
0.910015 0.61045 3.79173 229 207 186 
0.677086 -0.873897 3.35369 107 65 7 
0.675293 -0.88847 3.34892 222 147 128 
0.728358 -0.717286 3.6403 18 15 10 
0.729581 -0.737075 3.64373 81 67 54 
0.893407 0.969292 3.13915 160 138 115 
0.689124 -0.86838 3.34671 243 223 199 
0.743448 -0.678373 3.5979 59 59 57 
0.743291 -0.691938 3.59794 63 60 53 
0.695604 -0.852602 3.34762 217 166 77 
0.696019 -0.876057 3.35347 204 160 133 
0.693967 -1.0809 3.56898 29 11 0 
0.749519 -0.7277 3.64284 31 27 18 
0.748759 -0.743377 3.65224 54 41 22 
0.704305 -0.850574 3.36167 238 180 44 
0.757373 -0.696015 3.59982 71 68 59 
0.713959 -0.864075 3.36272 141 71 1 
0.764229 -0.705929 3.61643 137 126 98 
0.766177 -0.733586 3.64145 96 77 63 
0.714933 -0.879199 3.35438 89 57 10 
0.768587 -0.689567 3.60229 112 112 104 
0.766163 -0.745061 3.63432 145 130 109 
0.719022 -0.970568 3.47361 25 21 12 
0.716811 -0.978264 3.46217 68 65 60 
0.772939 -0.673687 3.60324 62 60 61 
0.772654 -0.713273 3.62957 153 116 74 
0.774076 -0.701254 3.61944 67 41 14 
0.719373 -0.993073 3.46058 181 181 171 
0.71436 -1.15546 3.59014 233 205 168 
0.724023 -0.870444 3.35192 209 125 99 
0.728361 -0.847324 3.34194 155 134 113 
0.728598 -0.85515 3.35093 255 238 220 
0.731355 -0.843951 3.35331 198 162 100 
0.780698 -0.698293 3.60184 151 117 72 
0.726324 -1.08269 3.54092 108 70 7 
0.733298 -0.871514 3.355 121 68 54 
0.737751 -0.859837 3.36255 46 32 23 
0.784604 -0.441948 3.30937 130 117 108 
0.789806 -0.694558 3.59743 63 24 19 
0.737199 -0.990905 3.47418 25 13 0 
0.787515 -0.803261 3.68836 141 101 14 
0.745803 -0.855811 3.36697 195 178 158 
0.7391 -1.08429 3.53556 86 50 0 
0.74448 -0.878604 3.3596 48 22 0 
0.781568 -0.855435 3.62791 158 117 29 
0.763425 -0.963802 3.55848 77 53 7 
0.812061 -0.677262 3.61202 34 36 33 
0.745342 -1.12127 3.5235 42 121 90 
0.791967 -0.883199 3.64081 138 101 31 
0.816993 -0.661177 3.61385 168 160 158 
0.757159 -1.01936 3.49753 196 158 57 
0.759478 -0.875567 3.36137 82 60 0 
0.81902 -0.685527 3.60579 28 28 28 
0.778451 -0.943252 3.54373 125 86 0 
0.82537 -0.660954 3.60552 61 55 55 
0.763105 -1.13505 3.53889 41 116 85 
0.832222 -0.673635 3.59649 124 124 124 
0.837393 -0.656855 3.59784 46 40 40 
0.838108 -0.667436 3.58057 125 122 117 
0.850825 -0.882874 3.84401 143 127 104 
0.847708 -0.63648 3.56845 184 174 165 
0.788678 -1.07356 3.38193 216 193 152 
0.804946 -0.974462 3.39486 173 149 105 
1.06984 0.555552 3.8725 197 175 152 
0.878145 -0.697915 3.60061 49 49 51 
0.88706 -0.838611 3.76763 73 48 8 
0.800364 -1.06855 3.37314 159 171 125 
0.886346 -0.680413 3.59558 186 185 183 
0.893936 -0.690615 3.60092 35 34 30 
0.814032 -1.00793 3.32326 138 114 78 
0.815199 -1.04522 3.34664 16 84 27 
0.815469 -1.02504 3.33142 255 244 193 
0.901758 -0.662684 3.59377 19 13 13 
0.824725 -1.06805 3.37313 0 47 12 
0.832988 -1.07192 3.36601 21 17 6 
0.831056 -1.01795 3.30494 51 27 0 
0.836524 -1.05733 3.359 70 135 92 
0.923916 -0.68158 3.59279 117 116 114 
0.849467 -0.984247 3.35732 30 2 0 
0.926359 -0.69147 3.60748 38 38 36 
0.8411 -1.01269 3.30016 90 69 26 
0.934567 -0.687654 3.62344 121 120 118 
0.85073 -0.99082 3.33631 94 71 40 
0.933358 -0.709671 3.62246 50 51 45 
0.885564 -0.942821 3.48892 86 70 47 
0.85044 -1.07853 3.35039 10 26 0 
0.900898 -0.944474 3.53736 80 55 25 
0.955572 -0.772533 3.7012 32 10 0 
0.898749 -0.941929 3.48098 136 113 81 
0.955335 -0.759139 3.68253 89 64 33 
0.960802 -0.703404 3.63478 60 62 59 
0.863207 -1.09537 3.34135 49 139 77 
0.885011 -0.969422 3.36391 179 157 134 
0.920992 -0.954977 3.56041 94 72 35 
0.966645 -0.837093 3.72334 96 57 0 
0.874195 -1.00433 3.29693 196 174 137 
0.979124 -0.791694 3.70106 137 123 96 
0.985772 -0.811361 3.71024 116 89 34 
0.895231 -1.01391 3.32313 224 201 157 
0.889291 -1.09847 3.34369 42 1 0 
0.902062 -1.05883 3.36426 12 12 0 
0.904424 -1.02518 3.33735 23 82 24 
1.01207 -0.750147 3.73641 62 59 54 
1.00477 -0.768584 3.69993 120 117 108 
0.90759 -1.07156 3.36724 45 25 14 
0.939726 -0.997636 3.48871 142 147 151 
0.913845 -1.06595 3.37355 17 56 29 
1.00615 -0.866107 3.74412 198 163 69 
1.00993 -0.799677 3.70949 209 198 180 
1.0657 -0.177866 3.56918 154 144 135 
0.910103 -1.11565 3.3531 98 0 3 
0.924967 -1.02029 3.35507 171 158 103 
1.02242 -0.697589 3.64845 105 98 90 
1.02505 -0.822395 3.72276 228 216 190 
0.932937 -1.04797 3.37423 67 51 18 
0.985434 -0.914941 3.54909 142 132 120 
0.987898 -0.946335 3.55569 188 158 85 
1.069 -0.825762 3.79067 142 141 136 
1.04115 -0.722467 3.54533 138 138 130 
1.06475 -0.694294 3.63822 119 112 102 
1.00516 -1.00878 3.53441 73 71 59 
1.00843 -0.87112 3.44945 139 94 3 
1.00782 -1.07359 3.56499 189 147 29 
1.04385 -0.487469 3.37388 126 115 109 
1.03787 -0.703649 3.46009 75 74 69 
0.971992 -1.12117 3.37643 35 8 0 
1.01307 -0.927028 3.45885 248 226 63 
1.05436 -0.490043 3.37912 129 116 108 
1.02852 -0.907031 3.47315 191 162 0 
1.03778 -0.690011 3.37123 149 146 141 
1.03667 -0.96089 3.5272 171 168 153 
0.989697 -1.11126 3.3815 69 54 33 
1.11691 -0.892409 3.83503 35 29 15 
1.06055 -0.850878 3.45814 207 174 120 
1.12474 -0.725577 3.66859 117 113 110 
1.12982 -0.778163 3.70492 77 76 74 
1.10447 -1.08833 3.71064 113 95 59 
1.08314 -0.854571 3.46743 252 222 172 
1.08258 -0.892327 3.44743 112 136 86 
1.16647 -0.879052 3.81181 113 114 109 
1.16113 -0.751192 3.70475 95 95 93 
1.11677 -1.07427 3.6822 18 9 0 
1.15949 -0.763674 3.68951 85 82 75 
1.17524 -0.896571 3.81803 125 120 114 
1.13348 -1.07591 3.67757 98 92 78 
1.1544 -1.06537 3.67456 210 169 89 
1.16478 -1.0528 3.69041 128 109 79 
1.16318 -1.11344 3.69112 203 198 194 
1.15962 -1.13159 3.68019 25 22 17 
1.14988 -1.18575 3.65666 152 106 57 
1.41578 0.558665 3.83799 216 192 168 
1.1745 -1.11496 3.69348 199 191 180 
1.46502 0.449886 4.04803 159 143 127 
1.46356 0.463342 4.01624 217 205 181 
1.46336 0.480968 3.99277 151 134 114 
1.30655 -0.958698 4.05178 145 126 109 
1.30825 -0.973218 4.05939 220 187 156 
1.2852 -0.718985 3.75819 235 226 221 
1.31365 -1.07947 4.04136 230 184 169 
1.51677 0.430792 4.09105 185 167 155 
1.50891 0.446523 4.05119 211 193 171 
1.36672 -0.984078 4.07253 64 27 9 
1.5594 -1.28598 4.96933 56 28 25 
1.36458 -1.03836 4.06568 182 147 143 
1.54743 0.428124 4.06788 177 159 137 
1.38637 -0.98994 4.07512 67 31 15 
1.42144 0.848358 3.33049 218 196 172 
1.39688 -0.992811 4.07654 112 75 57 
1.58915 0.420403 4.08816 187 166 145 
1.51452 0.659086 3.66727 173 152 131 
1.42396 -0.992761 4.08427 204 172 151 
1.5204 0.647556 3.67929 223 203 179 
1.4294 -1.01302 4.08592 218 166 152 
1.6125 0.415517 4.09557 185 165 141 
1.43801 -0.998192 4.0909 209 173 157 
1.43025 -1.09674 4.09306 180 165 144 
1.61897 0.420757 4.08156 176 153 135 
